0.204276 0.219584 0.626436 0.247481 0.968893 0
-0.0324823 0.194037 0.762609 0.0267382 -0.998388 0.0500703
0.0100551 -0.0347785 0.365434 3.52646e-05 0.0235617 -0.999722
-0.227106 0.149734 0.0156992 -0.142269 -0.00615561 0.989809
-0.00483041 -0.154549 0.417954 0 -0.0127752 0.999918
0.170349 0.0561421 0.38198 0.192546 0.0606563 -0.979411
0.123997 0.232059 0.669055 0.103819 0.994596 0
0.115602 0.232924 0.711093 0.0954309 0.995436 0
0.127471 0.186955 0.601751 -0.111019 -0.993818 0
-0.11128 0.220646 0.552945 -0.0217087 0.215618 -0.976236
-0.0360897 0.193591 0.625274 0.0344241 -0.999407 0
-0.0585109 0.113447 0.386668 0.000443162 0.288662 -0.957431
-0.078621 0.213755 0.552239 0 0 -1
0.186468 0.226239 0.0161338 0.0290897 0.127366 0.991429
0.0236271 0.202866 0.554277 -0.0124718 -0.547086 -0.836984
-0.107478 -0.121517 0.421846 0.123238 -0.0121276 0.992303
-0.186532 -0.069801 0.438421 0.198057 -0.000252227 0.98019
-0.218586 -0.144583 0.424777 -0.999374 0.0012726 0.0353626
-0.0425861 0.237822 0.671014 -0.0353963 0.999373 0
-0.13277 -0.0975999 0.426091 0.192723 -0.00623575 0.981233
0.170848 0.181308 0.750533 -0.133786 -0.990978 0.00798734
-0.225985 -0.0582039 0.428893 0.135666 0.0143485 0.990651
-0.233498 0.0489634 0.00421466 -0.923878 0.00100034 -0.382685
0.0639919 -0.134901 0.36425 0.0283998 0.0156417 -0.999474
-0.230903 -0.218853 0.30807 -0.401314 -0.914857 0.0445289
0.155306 0.183427 0.659092 -0.137842 -0.990454 0
0.114982 -0.00536887 0.424428 -0.112943 -0.0354609 0.992968
-0.204368 0.0708469 0.441621 -0.0901973 -0.0259281 0.995586
0.235625 -0.0671655 0.00709454 0.992201 -0.00299796 -0.124614
0.191906 0.144292 0.414662 0.220255 0.974508 -0.0426828
0.0746001 0.191904 0.759222 -0.0623224 -0.997795 0.0228351
-0.224795 0.0431616 0.411462 0.40549 -0.0216819 -0.913842
0.0423509 -0.129979 0.418327 -0.00154061 -0.0155724 0.999878
-0.178582 -0.071538 0.436602 0.238198 -0.000303708 0.971217
0.221975 0.184542 0.606817 0.735662 -0.677349 0
0.180934 0.224399 0.585913 0.161834 0.986537 -0.0235479
-0.191004 0.104545 0.442755 0.0555294 -0.0489813 0.997255
0.204934 0.219415 0.624504 0.247481 0.968893 0
0.155725 0.226733 0.77429 0.13575 0.980539 0.141826
-0.220695 0.19271 0.729463 -0.964629 -0.263611 0
-0.0475821 -0.0817932 0.419084 0.00897978 -0.0124466 0.999882
0.0748772 -0.132909 0.36466 0.0433788 0.0156333 -0.998936
-0.0870356 0.116397 0.439671 0.00102724 -0.125679 0.99207
-0.216838 0.212691 0.580173 -0.64955 0.7543 -0.0954808
-0.229872 0.178753 0.451778 -0.406006 0.864291 -0.296918
0.108864 -0.216517 0.418583 -0.121079 -0.160421 0.979594
-0.0918588 -0.065065 0.420838 0.0731737 -0.00878214 0.997281
0.200266 -0.125718 0.390825 0.451223 -0.000573189 -0.892411
0.222384 -0.197789 0.390585 -0.806234 -0.483407 0.341033
0.0218994 0.0391361 0.37137 0.000423368 0.141253 -0.989974
-0.136002 0.191623 0.556901 0.0902983 -0.713255 -0.695064
-0.166458 0.226627 0.685276 -0.145669 0.989333 0
0.226537 0.0105352 0.000387307 -0.400428 -0.00576572 -0.91631
-0.000458349 -0.0921893 0.364671 2.0323e-05 0.0135541 -0.999908
0.180777 0.224514 0.621191 0.16292 0.986639 0
-0.0653909 0.236763 0.645953 -0.0585116 0.998287 0
0.0687325 0.235937 0.767583 0.0547902 0.994565 0.0885399
-0.127462 0.228601 0.561837 -0.101476 0.93468 -0.340699
0.224199 -0.014595 0.426343 -0.623971 0.0253535 0.781036
0.170008 -0.207918 0.432419 -0.24241 -0.101987 0.964798
0.11029 -0.169242 0.367529 0.14828 0.00212637 -0.988943
0.136804 -0.0260535 0.372983 0.178489 0.0131587 -0.983854
0.085499 0.23442 0.570343 0.0689761 0.987663 -0.140585
-0.0746228 0.191661 0.743495 0.066213 -0.997806 0
-0.0511623 0.0892865 0.380414 0.00062726 0.210495 -0.977595
-0.0714139 0.191874 0.709937 0.066213 -0.997806 0
-0.217884 -0.0683908 0.410649 -0.975027 0 -0.222087
-0.219976 -0.12517 0.420148 0.991533 -0.0191432 0.12844
0.157696 0.183094 0.646902 -0.137263 -0.990535 0
0.217971 -0.0495871 0.431992 0.969154 -0.00123573 0.246452
-0.041658 -0.121747 0.364201 -0.00292489 0.0170314 -0.999851
-0.152135 -0.198662 0.428809 0.229285 -0.0650272 0.971185
-0.0904766 0.190495 0.72133 0.0840661 -0.99646 0
0.134159 0.230941 0.657606 0.111154 0.993803 0
0.232058 -0.195741 0.0565709 0.628064 0.767001 0.131323
-0.113471 -0.0781775 0.423108 0.136544 -0.00499558 0.990621
-0.229478 -0.0623388 0.00125398 -0.403455 -0.012503 -0.914914
0.0399557 0.193479 0.651602 -0.0367722 -0.999324 0
-0.160929 0.182561 0.729218 0.135796 -0.990737 0
-0.0918987 -0.0194806 0.367418 -0.0655525 0.0383689 -0.997111
0.206304 0.178398 0.681515 0.0611113 -0.998131 0
-0.167377 0.226491 0.624552 -0.145669 0.989333 0
-0.0567682 -0.118347 0.364379 -0.0163923 0.0170455 -0.99972
-0.161001 -0.195805 0.431161 0.242677 -0.0655138 0.967892
-0.138118 0.230386 0.697244 -0.116144 0.993232 0
-0.165175 0.204422 0.789306 -0.0100648 -0.00154929 0.999948
-0.0939778 0.234809 0.738837 -0.0842187 0.996447 0
0.178813 0.0566146 0.383955 0.236267 0.0491361 -0.970445
-0.148152 0.237494 0.0148081 -0.0110804 0.611767 0.790961
0.234095 0.190918 0.528196 0.803328 0.59245 -0.0605646
0.225411 0.0735104 0.0145465 -0.407838 -0.00176337 0.913053
-0.0436265 -0.125367 0.418399 0.00151207 -0.0170315 0.999854
0.236002 0.0986781 0.00726209 0.991458 -0.00132169 -0.130419
-0.229788 -0.125186 0.412281 -0.402504 0.121225 -0.907356
0.143151 0.0591491 0.432096 -0.11108 -0.101661 0.988598
-0.202874 -0.145419 0.392141 -0.452707 0.000571562 -0.891659
-0.0569064 0.00160388 0.367303 -0.013274 0.0766286 -0.996971
-0.112677 -0.0509215 0.42318 0.132245 -0.00753033 0.991188
0.0483207 0.23731 0.579063 0.0377941 0.998033 -0.0500232
0.217754 0.214868 0.669588 0.506832 0.862045 0
0.236084 0.165803 0.443323 0.990568 -0.112051 0.0788719
0.198432 0.00731932 0.440522 -0.152926 -0.000960203 0.988237
0.235971 0.112801 0.423201 0.99218 -0.0147535 0.12394
0.159483 0.20835 0.789387 0.00460139 0.0339637 0.999412
0.031722 0.238039 0.583004 0.0305217 0.999272 -0.0229026
-0.0334313 0.0177795 0.368695 0.000328961 0.109744 -0.99396
0.106537 0.189145 0.711904 -0.0956369 -0.995416 0
0.0390008 -0.197858 0.416955 -0.00222163 -0.0631033 0.998004
0.221693 0.184366 0.721368 -0.992203 -0.124483 -0.00611384
-0.218203 0.0437502 0.415537 -0.999279 0.00243921 -0.0378736
-0.224635 -0.108294 0.0023584 0.405461 -0.0161297 -0.91397
-0.2201 -0.211573 0.172063 0.991376 -0.130956 -0.00492736
-0.170916 -0.095677 0.380539 -0.253249 0.00174367 -0.9674
0.222401 -0.069729 0.417213 -0.802024 -0.00730045 -0.597247
0.221865 0.0676055 0.41617 -0.925102 0.00659542 -0.379661
-0.216618 -0.117797 0.435316 -0.899473 0.00219569 0.436971
-0.0373305 0.238008 0.733794 -0.0353963 0.999373 0
-0.0647566 0.2368 0.682125 -0.0585116 0.998287 0
0.0205345 -0.117035 0.418524 2.4217e-05 -0.0157271 0.999876
0.112369 -0.161625 0.422133 -0.14946 -0.00794206 0.988736
-0.218356 0.186531 0.678762 -0.861243 -0.508193 0
-0.219805 0.0309647 0.417732 0.991464 -0.00453303 -0.130301
-0.0753454 0.236168 0.735572 -0.0685252 0.997649 0
-0.220474 -0.215331 0.253568 0.926032 -0.37744 -0.00180713
0.174085 -0.0171682 0.435501 -0.233552 -0.00217909 0.972342
0.0885143 -0.0593561 0.42062 -0.0747543 -0.011116 0.99714
0.188921 0.232997 0.00823678 0.220647 0.966609 -0.130314
0.11151 0.188667 0.649857 -0.0956369 -0.995416 0
-0.177039 0.223581 0.568409 -0.157205 0.977393 -0.141384
-0.20671 0.204168 0.558395 -0.449602 0.031988 -0.892656
0.0925728 -0.136123 0.365769 0.0805421 0.0129031 -0.996668
-0.178455 0.22474 0.662642 -0.180038 0.98366 0
0.0616925 0.192525 0.751541 -0.0547073 -0.998484 0.00599124
0.2264 0.197845 0.61721 0.986862 -0.161564 0
0.0287603 0.238254 0.592221 0.0207613 0.999752 -0.00800252
-0.0898368 0.235129 0.662803 -0.0757029 0.99713 0
0.218328 0.0336262 0.431172 0.968507 -0.00236857 0.248977
0.192009 0.222443 0.688102 0.211699 0.977335 0
0.162089 0.222018 0.557306 0.0976386 0.710046 -0.697353
0.178695 -0.0476904 0.382732 0.273713 -0.000348569 -0.961811
-0.171765 0.205164 0.789117 -0.0309352 -0.00528414 0.999507
0.0425577 0.196892 0.560403 -0.0357902 -0.939016 -0.342005
-0.162768 0.0325952 0.433605 0.196576 -0.0282742 0.980081
-0.15568 -0.173686 0.430626 0.232699 -0.00961306 0.972501
0.0392605 -0.236202 0.407599 0.0182709 -0.71494 0.698947
0.185452 -0.117923 0.438139 -0.22508 -0.000688293 0.97434
-0.0934911 0.190374 0.584191 0.0839377 -0.996211 -0.0227672
-0.22146 0.0324208 0.00274618 0.802158 -0.00220099 -0.597108
0.218774 0.0416912 0.415355 0.9994 -0.00127272 -0.0346162
0.0608711 -0.188266 0.417567 -0.0172171 -0.0391158 0.999086
0.166782 -0.0975907 0.379416 0.254669 0.0020377 -0.967026
0.0916851 -0.236988 0.404998 0.0301255 -0.952236 0.303873
-0.047272 -0.141493 0.418157 0.00889685 -0.0154132 0.999842
-0.0759268 -0.225385 0.413677 0.0244555 -0.380483 0.924465
0.162887 0.182375 0.734429 -0.137263 -0.990535 0
-0.212398 0.20894 0.00847403 0.764352 -0.632173 -0.126978
-0.114704 0.232944 0.732036 -0.101323 0.994854 0
0.160081 -0.0626829 0.377779 0.233926 0.000863063 -0.972254
-0.125131 -0.181281 0.369983 -0.188517 -0.0102821 -0.982016
0.171337 0.226035 0.716359 0.147708 0.989031 0
0.191918 0.178827 0.685728 -0.0675863 -0.997713 0
0.104047 -0.0951599 0.367485 0.118942 0.010763 -0.992843
-0.0753353 0.226722 0.00406377 -0.0130377 -0.7904 -0.612452
-0.151286 -0.15511 0.375446 -0.230508 0.00374291 -0.973063
0.0194006 -0.129861 0.364063 2.17659e-05 0.0154514 -0.999881
-0.220774 0.183684 0.695024 0.80229 -0.596229 -0.0290115
0.165067 0.182964 0.571824 -0.136003 -0.980865 -0.139307
0.226368 0.197647 0.595835 0.986862 -0.161564 0
-0.0607148 0.237013 0.640268 -0.0525035 0.998621 0
0.219357 0.213926 0.695413 0.506832 0.862045 0
0.00412525 0.201188 0.786098 -0.00359735 -0.722007 0.691877
-0.223438 -0.208685 0.0596122 0.627133 -0.767742 -0.131437
-0.223475 0.109467 0.41492 0.40078 0.0969423 -0.911031
0.00941547 0.11544 0.439526 0 -0.163754 0.986501
-0.0330585 0.238131 0.629288 -0.0255879 0.999673 0
0.0841715 0.0136627 0.423267 -0.0373723 -0.083891 0.995774
0.168301 -0.212416 0.382187 0.267051 -0.158003 -0.950641
-0.22211 0.199594 0.696286 -0.987264 -0.159093 0
-0.12082 -0.187621 0.422973 0.168513 -0.037907 0.98497
0.0953838 0.190147 0.662718 -0.0865609 -0.996247 0
-0.134701 0.117338 0.388232 -0.0270475 0.311927 -0.949721
0.232247 0.192817 0.721665 0.403202 0.914009 0.0449021
-0.226968 -0.201705 0.135425 0.142676 0.988203 0.0556623
-0.218353 0.00176659 0.420454 -0.999999 0.00116749 0
0.152638 -0.0303367 0.376141 0.215245 0.00451578 -0.97655
0.0830165 0.00861201 0.368536 0.0418171 0.0888 -0.995171
-0.211833 0.216195 0.643999 -0.379954 0.925005 0
0.13089 0.186568 0.595665 -0.119847 -0.992792 0
0.223671 0.192991 0.552539 -0.627639 0.777591 -0.0376988
-0.220523 -0.0590319 0.424623 0.928155 0.00363609 0.372176
-0.148844 0.184204 0.613116 0.132628 -0.991166 0
-0.198886 0.206251 0.555695 -0.202175 0.0683838 -0.976959
0.142767 0.0119108 0.429094 -0.178154 -0.0314954 0.983499
-0.222186 0.182227 0.550743 0.621194 -0.782737 0.0379621
0.130557 -0.235922 0.391972 0.0779826 -0.995756 -0.0488648
0.169998 -0.0845186 0.380274 0.252884 0.000937231 -0.967496
0.221437 0.137313 0.00775976 -0.992134 0.00236246 -0.125159
0.036739 0.193584 0.724079 -0.0306942 -0.999529 0
0.115573 0.000537982 0.424751 -0.112891 -0.0466395 0.992512
-0.216552 -0.0443879 0.406069 -0.935828 0.00119028 -0.352456
0.196716 0.221423 0.695201 0.211699 0.977335 0
-0.173002 0.180996 0.645773 0.119317 -0.992856 0
-0.186503 0.179887 0.762958 0.0975586 -0.99397 0.0500621
-0.0262305 -0.105167 0.364475 0 0.0159946 -0.999872
-0.0354281 0.23807 0.599892 -0.0255879 0.999673 0
-0.235863 0.187481 0.0101951 -0.990755 0.0671092 0.117902
0.0798245 0.129759 0.441012 0 0.0352231 0.99938
-0.139747 0.230195 0.68951 -0.116144 0.993232 0
-0.102815 0.234062 0.636233 -0.0842187 0.996447 0
0.000932165 0.194183 0.664792 0.00131084 -0.999999 0
0.141224 0.0413902 0.376051 0.136189 0.0684766 -0.988313
-0.0564486 0.237227 0.749192 -0.0525018 0.998588 0.00804869
-0.00261111 0.194179 0.602254 0.00131084 -0.999999 0
0.230712 -0.219625 0.190567 0.402737 -0.914658 -0.0346905
-0.0314322 0.0348865 0.370751 0.000212048 0.141253 -0.989974
0.201084 0.220399 0.718762 0.247481 0.968893 0
-0.129866 0.231306 0.752058 -0.108799 0.994032 0.00801196
0.188476 -0.123114 0.385951 0.341527 -0.00082904 -0.939872
0.0248768 -0.0866542 0.364745 3.72332e-05 0.0124205 -0.999923
0.155784 0.228239 0.661831 0.134348 0.990934 0
0.235076 0.0943824 0.00391895 0.928112 -0.000546845 -0.3723
-0.184401 0.00164229 0.43803 0.217828 -0.002658 0.975984
0.0667652 0.192222 0.661816 -0.0624179 -0.99805 0
0.172154 0.181111 0.704668 -0.13379 -0.99101 0
0.0907945 0.108338 0.385228 0.00187498 0.286482 -0.958084
-0.016663 -0.148688 0.363779 3.76625e-05 0.0127873 -0.999918
-0.012077 0.129479 0.440998 -0.000104405 -0.0680473 0.997682
0.227329 -0.0245386 0.0155212 -0.141453 0.00709379 0.98992
0.235368 -0.211744 0.295304 0.992899 0.118946 -0.00204142
0.221902 -0.135631 0.013509 -0.925994 0.00133255 0.377537
-0.189021 0.0501284 0.386882 -0.314683 0.0227934 -0.948923
0.143971 -0.0746943 0.428387 -0.204079 -0.00288458 0.97895
-0.226065 0.182472 0.618921 0.141989 -0.989837 0.00787305
-0.0561098 0.237213 0.588466 -0.0512513 0.998668 -0.00598259
-0.185471 0.126101 0.442894 -0.0126612 0.0521258 0.99856
0.166886 0.0432506 0.380551 0.214048 0.0324789 -0.976283
0.159943 0.187618 0.783481 -0.115111 -0.847766 0.517727
0.111245 0.188693 0.691601 -0.0956369 -0.995416 0
0.130482 0.186617 0.600027 -0.119847 -0.992792 0
0.143336 0.228771 0.57049 0.118836 0.982829 -0.141158
0.0955318 -0.0916705 0.366634 0.0967661 0.0121051 -0.995234
0.212294 -0.192219 0.400632 0.755484 -0.0982988 -0.647751
-0.00840408 0.194158 0.708288 0.0102324 -0.999948 0
0.220917 -0.208792 0.105714 -0.992937 -0.118206 -0.0101758
0.171915 -0.0195586 0.434974 -0.233552 -0.00217909 0.972342
-0.00969467 0.107856 0.385019 0.000787105 0.255661 -0.966766
-0.219579 0.164881 0.441679 0.992039 -0.103664 0.0714953
-0.156582 0.124915 0.391525 -0.035926 0.352084 -0.935278
-0.0142235 -0.226712 0.413097 -0.00250265 -0.238257 0.971199
0.161138 -0.21721 0.428461 -0.224493 -0.251179 0.941548
0.221035 -0.208749 0.362049 -0.99221 -0.119483 0.0352458
0.233769 0.0268692 0.0131844 0.626887 6.56942e-05 0.77911
0.175599 -0.206959 0.383472 0.286233 -0.0991024 -0.953021
0.234326 0.194223 0.598713 0.807301 0.590123 -0.00457271
-0.172637 0.146896 0.430828 -0.0559546 0.98869 0.139141
-0.226176 -0.112489 0.413115 0.142391 0.0437804 -0.988842
0.216831 0.205713 0.0160438 -0.0935455 -0.0932795 0.991236
0.23025 -0.0848447 0.42918 0.13575 0.014349 0.990639
0.00913097 0.103815 0.383963 0.000360223 0.255334 -0.966853
-0.225021 -0.176792 0.00799506 0.405018 -0.499374 -0.765889
-0.0315901 0.19372 0.743273 0.0254997 -0.999675 0
0.180269 -0.166978 0.436877 -0.228269 -0.00658847 0.973576
0.0581986 -0.239856 0.398847 0.0372524 -0.987442 0.153528
0.231358 0.00183558 0.426737 0.402749 0.0204965 0.915081
-0.0954068 0.0847562 0.3796 -0.0102788 0.204905 -0.978728
-0.217828 0.212566 0.603738 -0.654452 0.756104 0
-0.0939968 0.145974 0.40756 0.00128319 0.910936 -0.412546
-0.0212553 0.0958861 0.435922 -0.000592342 -0.197891 0.980224
-0.0859355 0.190852 0.723213 0.0765766 -0.997064 0
0.17426 -0.0258151 0.381488 0.273267 0.00199563 -0.961936
0.235872 0.187807 0.731375 0.92541 0.378513 0.0185521
0.199352 -0.0185563 0.440623 -0.0820579 0.0002008 0.996628
0.185081 0.224007 0.0159338 -0.0291922 -0.127811 0.991369
0.181883 0.224331 0.650602 0.16292 0.986639 0
-0.230439 0.181696 0.554092 -0.403494 -0.9139 0.0444769
-0.103596 0.23399 0.675715 -0.0916976 0.995787 0
-0.139674 -0.0758692 0.373289 -0.187915 0.00387585 -0.982178
0.0250833 0.1939 0.666415 -0.0216858 -0.999765 0
0.0341059 0.19384 0.582326 -0.0304997 -0.999274 -0.0228393
0.0304887 0.0633937 0.429525 -0.000272397 -0.182073 0.983285
-0.152428 -0.144766 0.375763 -0.228436 0.00439112 -0.973549
-0.133851 -0.0765291 0.42642 0.188207 -0.00412769 0.982121
0.11473 -0.0393241 0.369292 0.130381 0.0134095 -0.991373
-0.182272 0.224041 0.713939 -0.180038 0.98366 0
-0.221607 0.14521 0.00261369 0.805132 0.00283114 -0.593089
0.00899242 -0.108576 0.418669 -5.05252e-05 -0.0171493 0.999853
0.231802 0.194663 0.688076 0.402943 0.914123 0.0448979
0.197746 -0.106468 0.440429 -0.154678 0.000377817 0.987965
0.178543 -0.14946 0.382656 0.279917 0.000750862 -0.960024
0.146853 -0.0113983 0.3751 0.192457 0.019254 -0.981116
-0.17834 0.224761 0.688994 -0.180038 0.98366 0
-0.232375 -0.208641 0.0642782 -0.627128 -0.767666 -0.13191
0.221657 0.0143163 0.416876 -0.925226 -0.0073403 -0.379345
-0.0912568 0.190429 0.731654 0.0840661 -0.99646 0
-0.0335578 -0.24101 0.391093 -0.0284679 -0.999595 0
-0.107064 0.0940097 0.381679 -0.00724442 0.221197 -0.975202
-0.223042 -0.0723707 0.0149706 0.626953 0.0174804 0.778861
0.11278 0.225773 0.00533558 -0.00820213 -0.917522 -0.397601
-0.123784 -0.018942 0.370987 -0.137438 0.0221035 -0.990264
-0.142484 -0.102326 0.428004 0.209282 -0.00651553 0.977834
-0.136006 -0.145888 0.426399 0.200835 -0.00631354 0.979605
-0.0342904 0.1393 0.39849 0.000988417 0.701658 -0.712513
-0.0450501 0.19327 0.739749 0.043344 -0.99906 0
0.142718 0.229933 0.6123 0.118546 0.992949 0
0.224958 0.181049 0.552924 -0.627783 -0.777485 0.0374833
0.0894784 0.202525 0.553106 -0.0176217 -0.217504 -0.9759
0.0422464 0.193395 0.705945 -0.0367722 -0.999324 0
-0.139736 0.0390484 0.429995 0.113901 -0.0677209 0.991181
-0.135167 0.230572 0.583046 -0.116155 0.992966 -0.022942
-0.0716983 0.147108 0.429761 0.00291774 0.990026 0.140853
0.113639 -0.120424 0.422712 -0.142268 -0.0109751 0.989767
-0.161325 0.0768995 0.382197 -0.148358 0.111189 -0.982663
0.228603 0.195182 0.552571 -0.147776 0.987856 -0.0479875
0.0466854 -0.117759 0.364286 0.00308113 0.0169151 -0.999852
-0.197771 0.0619679 0.390438 -0.358031 0.0236448 -0.93341
-0.112317 0.19699 0.787042 0.0552704 -0.544376 0.837018
0.170211 -0.124819 0.434457 -0.243303 -0.00204353 0.969948
0.178999 0.180232 0.680998 -0.122157 -0.992511 0
0.0323188 0.19372 0.728962 -0.0306942 -0.999529 0
0.0985302 0.234493 0.707779 0.0878527 0.996133 0
0.145455 -0.174088 0.374104 0.217689 -0.00147985 -0.976017
-0.221036 0.177138 0.495977 0.805041 -0.584499 0.101342
-0.220332 0.185126 0.678985 0.926107 -0.376806 -0.0185065
0.0804505 0.191321 0.739249 -0.0714877 -0.997441 0
0.134329 -0.0106241 0.427043 -0.166984 -0.0242588 0.985661
-0.194686 -0.100241 0.388366 -0.389299 0.000495771 -0.921111
0.229402 0.196712 0.594254 0.141201 0.989948 -0.00802333
-0.0265312 0.034154 0.370651 0 0.125546 -0.992088
0.227827 0.0731353 0.0152807 -0.135583 -0.0027806 0.990762
0.214908 0.216097 0.59963 0.376176 0.926548 0
-0.0159517 0.238498 0.622891 -0.0110733 0.999939 0
-0.109216 -0.153462 0.421713 0.126292 -0.00964809 0.991946
-0.0272358 0.193865 0.751519 0.0267296 -0.999593 0.00999515
-0.192271 0.222042 0.689653 -0.208521 0.978018 0
-0.0773133 0.0121241 0.368612 -0.0293994 0.0890368 -0.995594
0.0460364 0.128564 0.39223 0.00114306 0.387526 -0.921858
-0.00833566 -0.241221 0.397401 -0.0089997 -0.988009 0.154133
-0.20211 0.0107951 0.391894 -0.450338 0.00223488 -0.892855
-0.140497 0.147616 0.425049 0 0.998945 0.045912
-0.185573 0.223437 0.717735 -0.180038 0.98366 0
-0.214159 0.215022 0.602916 -0.499538 0.866292 0
0.143536 -0.138092 0.373782 0.213495 0.00330186 -0.976939
0.0304844 0.238231 0.598059 0.0219608 0.999759 0
-0.137931 0.0381115 0.429724 0.113901 -0.0677209 0.991181
0.233896 -0.159584 0.0151986 0.80172 0.0768771 0.592734
0.0837243 0.191087 0.625915 -0.0714877 -0.997441 0
0.183044 -0.0950918 0.384109 0.304869 -0.000742813 -0.952394
0.228798 0.098089 0.412874 0.135626 0.105214 -0.985158
0.203303 0.178312 0.679228 -0.0167321 -0.99986 0
0.0656335 0.197808 0.557113 -0.0393588 -0.720581 -0.692252
-0.146773 0.12449 0.441238 0.0298086 -0.0387897 0.998803
0.187429 0.129627 0.442545 0.0261991 0.150121 0.988321
-0.231794 -0.218642 0.225366 -0.630106 -0.776317 -0.0172457
-0.0238865 0.200818 0.785963 0.0137031 -0.722014 0.691743
0.121252 0.239798 0.00589667 0.00729787 0.91971 -0.392532
0.224607 -0.216443 0.129727 -0.408412 -0.911365 -0.0511271
0.197402 0.178456 0.611387 -0.0675863 -0.997713 0
-0.229612 0.023246 0.426354 -0.402634 0.0217081 0.915103
0.0048701 -0.125382 0.364133 2.61347e-05 0.0169873 -0.999856
-0.184404 -0.230289 0.415174 -0.183858 -0.981903 0.0454151
0.10046 0.0894446 0.38067 0.00619843 0.201337 -0.979502
0.0943095 -0.227609 0.413831 -0.0797984 -0.384009 0.919875
0.120458 0.187733 0.676626 -0.104389 -0.994536 0
0.189249 -0.205902 0.437081 -0.188426 -0.110343 0.975869
0.16741 -0.0378875 0.379634 0.251475 0.00207303 -0.967862
0.209687 0.178605 0.679628 0.0611113 -0.998131 0
-0.162406 0.0187218 0.433167 0.211815 -0.0199165 0.977107
-0.212779 0.184747 0.570257 -0.665967 -0.647016 -0.371293
-0.145282 0.18468 0.654947 0.132628 -0.991166 0
0.0781965 -0.133109 0.364802 0.0597467 0.0154968 -0.998093
0.169222 -0.0331678 0.434288 -0.237723 -0.000962179 0.971333
-0.231548 -0.2033 0.344752 -0.625011 0.771613 -0.118217
0.116358 0.188207 0.752904 -0.103199 -0.994612 0.00989243
-0.17691 0.181771 0.772209 0.117324 -0.982568 0.144203
-0.0536471 0.0641343 0.375398 -0.00151505 0.181974 -0.983302
0.0274443 0.10873 0.385286 0.000886107 0.287732 -0.957711
0.223179 -0.171676 0.414907 -0.629048 -0.262969 0.731537
-0.0271261 0.238283 0.703439 -0.0255879 0.999673 0
0.0602601 0.193337 0.573139 -0.0558037 -0.994716 -0.0861697
0.174323 -0.22119 0.430268 -0.189561 -0.399821 0.896778
-0.0298048 0.122138 0.389575 0.00046501 0.330368 -0.943852
0.0864757 -0.190436 0.365128 0.0841 -0.0275249 -0.996077
-0.233378 -0.113647 0.00540145 -0.799167 -0.00847524 -0.601049
0.147082 0.229391 0.729959 0.130868 0.9914 0
0.0135332 0.0879429 0.380145 0.000317798 0.211957 -0.977279
-0.10908 -0.0338874 0.422927 0.108388 -0.0161686 0.993977
-0.107857 0.233598 0.676617 -0.0916976 0.995787 0
0.22197 0.120414 0.00500081 -0.930204 0.00399311 -0.367022
0.0634642 0.134816 0.440834 0.000104258 0.035376 0.999374
-0.133909 -0.100556 0.372041 -0.191269 0.00747801 -0.981509
0.180839 0.0950474 0.38769 0.207218 0.125288 -0.970239
0.0494171 -0.119454 0.41853 -0.00896572 -0.0170163 0.999815
0.00375955 -0.198132 0.363975 8.29921e-05 -0.0539277 -0.998545
-0.0267371 0.201131 0.786277 0.013847 -0.547004 0.837015
-0.192056 0.200495 0.787276 -0.187651 -0.0343733 0.981634
-0.226675 0.18442 0.469413 0.140939 0.963438 -0.227866
-0.0378359 0.00287655 0.421556 -0.000116723 -0.0778988 0.996961
-0.159445 0.219566 0.554887 -0.0850876 0.540776 -0.836852
-0.0969089 0.231523 0.561737 -0.0803926 0.936053 -0.342551
0.150004 -0.168416 0.375136 0.231554 -0.00149308 -0.972821
-0.093676 -0.124238 0.366015 -0.102924 0.0147589 -0.99458
-0.033331 0.0656455 0.375673 0.000544185 0.181533 -0.983385
-0.222749 -0.165729 0.0176331 0.625447 0.275889 0.729864
0.014902 0.194084 0.639957 -0.0152405 -0.999884 0
0.0669276 0.192212 0.620172 -0.0624179 -0.99805 0
0.18327 -0.120129 0.437633 -0.224747 -0.000951525 0.974417
-0.0184325 0.21715 0.789395 0 0 1
-0.231424 -0.216838 0.15668 -0.62346 -0.781299 -0.0294883
-0.214764 0.197617 0.565117 -0.774649 -0.159596 -0.611921
0.222785 -0.198354 0.0285331 -0.803091 -0.530213 -0.27188
-0.207541 0.217933 0.620335 -0.298743 0.954334 0
-0.0734598 0.191739 0.636629 0.066213 -0.997806 0
-0.18087 -0.0961808 0.383457 -0.304869 0.00038873 -0.952394
-0.0901563 -0.237773 0.382194 -0.0732822 -0.986 -0.149782
-0.150784 0.229639 0.00173042 0.00717125 -0.392265 -0.919825
-0.217903 -0.0898952 0.431475 -0.968256 0.00123612 0.249959
0.128895 0.23153 0.694303 0.111154 0.993803 0
-0.221869 -0.204523 0.138846 0.804925 0.592443 0.0332843
-0.234697 -0.211254 0.163274 -0.992128 -0.125129 -0.00499215
0.0989382 0.189838 0.73218 -0.0865609 -0.996247 0
-0.207138 -0.0750993 0.394789 -0.535396 0 -0.844601
0.0926837 0.0135886 0.36941 0.0566079 0.0790602 -0.995261
-0.0440531 0.0979881 0.382447 0.000346043 0.230599 -0.973049
0.235863 0.0966609 0.00940737 0.992045 -0.00204813 0.125867
0.16835 -0.230451 0.421992 -0.0469424 -0.878777 0.474918
-0.16631 -0.232785 0.400315 -0.105668 -0.993375 -0.045178
0.221245 -0.20979 0.361538 -0.926584 -0.361289 0.104458
0.231441 -0.141839 0.424332 0.405211 -0.12164 0.906095
0.19168 0.222514 0.637529 0.211699 0.977335 0
0.0997245 0.136548 0.440471 0 0.211036 0.977478
-0.0888349 -0.10067 0.365976 -0.0761191 0.0136793 -0.997005
-0.0111342 0.194736 0.574745 0.0102074 -0.996239 -0.0860402
-0.0746806 0.191658 0.742404 0.066213 -0.997806 0
-0.142718 0.229832 0.688993 -0.124483 0.992222 0
-0.221526 0.207765 0.642702 -0.934009 0.357248 0
-0.133852 -0.200173 0.424701 0.202299 -0.0645137 0.977197
0.0984914 0.0865945 0.434261 -0.00619904 -0.190655 0.981638
0.0877269 0.0869655 0.380061 0.00639089 0.205837 -0.978565
0.0181661 -0.194307 0.363823 0.000160461 -0.0266133 -0.999646
0.11089 0.188727 0.709268 -0.0956369 -0.995416 0
0.0372197 0.237089 0.0152725 0.0101897 0.394464 0.918855
0.0821529 0.146886 0.412645 0.00291956 0.991285 -0.1317
0.0727028 0.115657 0.3874 0 0.287337 -0.957829
0.106679 0.233504 0.580107 0.0878527 0.99497 -0.0481368
0.126377 0.0382035 0.428377 -0.0952732 -0.0884074 0.991518
0.1983 -0.193565 0.439723 -0.0751745 -0.0765126 0.994231
0.202155 0.220125 0.626294 0.247481 0.968893 0
-0.211392 -0.211355 0.429434 -0.890183 -0.379165 0.252603
0.00482429 -0.02281 0.420064 -0.000100634 -0.0335726 0.999436
0.0994946 0.110038 0.38575 0.00191552 0.285071 -0.958505
-0.110735 -0.215357 0.36993 -0.157203 -0.152028 -0.975794
-0.0518965 -0.182206 0.363653 -0.00923171 -0.00809126 -0.999925
-0.138554 -0.0109882 0.427843 0.173618 -0.0189618 0.984631
0.232754 -0.219581 0.257579 0.626972 -0.77903 -0.0043034
-0.162166 0.182831 0.764741 0.135518 -0.986919 0.0873289
-0.232007 0.18384 0.666253 -0.80721 -0.590099 -0.013958
-0.159766 0.147402 0.428696 0.00174055 0.990173 0.139837
0.213844 0.19661 0.781407 0.617553 -0.12995 0.77572
0.0895896 0.2352 0.724505 0.0781018 0.996945 0
-0.151848 0.185444 0.774745 0.130639 -0.966077 0.222776
0.0362445 -0.0951583 0.364631 0 0.013571 -0.999908
0.221411 -0.20582 0.356173 -0.926206 0.372715 -0.0567949
0.0437856 0.0814241 0.378749 0.00213307 0.210745 -0.977539
0.156049 0.125155 0.441602 -0.0313931 -0.0257558 0.999175
0.0895451 -0.238123 0.382483 0.0685284 -0.986373 -0.149573
-0.179767 0.18183 0.774438 0.0866895 -0.969859 0.227726
-0.0377373 0.10349 0.43741 0.000288353 -0.187261 0.98231
0.0711923 -0.224761 0.413767 -0.0339014 -0.240652 0.970019
-0.186279 -0.229347 0.40164 -0.317538 -0.939035 -0.131846
-0.220108 0.0675208 0.42168 0.923835 -0.00603528 0.382743
-0.0979586 -0.196492 0.366424 -0.110332 -0.0555294 -0.992342
0.235619 -0.0548556 0.00998221 0.991364 0.000343485 0.131139
0.234974 -0.210397 0.223173 0.926882 0.375257 0.00845013
0.156059 -0.219231 0.42671 -0.224959 -0.250602 0.94159
0.0645941 -0.0425107 0.365525 0.0255408 0.016117 -0.999544
-0.104511 0.208389 0.552253 0.00320856 -0.0340711 -0.999414
0.0795071 0.235936 0.713562 0.0720799 0.997399 0
0.0915694 0.0693855 0.376675 0.0122507 0.173529 -0.984753
-0.181732 0.136454 0.398216 -0.1092 0.517625 -0.848611
0.0642438 0.194444 0.776758 -0.0544576 -0.973212 0.223367
-0.216979 0.0496 0.407623 -0.93499 0.00160477 -0.35467
-0.128458 0.21361 0.552296 -0.00368621 0.0338028 -0.999422
-0.117822 0.229278 0.56091 -0.0955024 0.934244 -0.34361
-0.113312 -0.173184 0.422127 0.150416 -0.0120602 0.988549
-0.0884252 -0.0356466 0.420975 0.0714954 -0.0211325 0.997217
0.0468848 -0.166986 0.417832 -0.00888107 -0.013795 0.999865
-0.225137 -0.219799 0.294655 0.400547 -0.916078 0.019065
0.107776 0.193163 0.782392 -0.0827506 -0.852755 0.515714
0.203057 0.139458 0.414761 0.508972 0.859901 -0.0389513
0.229556 0.172964 0.492896 0.139568 -0.975542 0.169821
-0.198862 -0.225285 0.413707 -0.553049 -0.833149 0
-0.217738 -0.148998 0.432465 -0.969154 0.00123421 0.246452
0.0987678 0.010598 0.423834 -0.0642368 -0.0728259 0.995274
0.229759 -0.0653847 0.413973 0.14112 -0.0146844 -0.989884
-0.00747321 -0.0504243 0.419384 -3.3213e-05 -0.0111456 0.999938
0.130346 -0.01327 0.372084 0.156503 0.0216577 -0.98744
0.0175418 -0.147915 0.36379 -1.96743e-05 0.012804 -0.999918
-0.117908 0.144294 0.404091 0.00240334 0.814788 -0.579754
0.214548 -0.202128 0.409633 0.951146 -0.220982 -0.215611
0.22156 0.187856 0.665965 -0.992204 -0.124593 -0.00290031
0.135897 0.19118 0.784153 -0.102293 -0.851422 0.51441
0.0682948 0.115594 0.387379 0.000850456 0.28866 -0.957431
-0.220217 0.191154 0.542316 0.926284 0.374906 -0.0379959
0.164291 0.00668358 0.379048 0.234872 0.013038 -0.971939
0.158379 0.227887 0.651766 0.134348 0.990934 0
-0.218241 0.205026 0.569452 -0.896221 0.138763 -0.421347
-0.111885 -0.031679 0.423327 0.129176 -0.0161528 0.99149
-0.127483 -0.0218875 0.371502 -0.160926 0.0186244 -0.986791
-0.221851 0.181791 0.707568 0.623258 -0.781094 -0.0379596
0.098837 -0.160788 0.366127 0.107311 0.00920145 -0.994183
0.0683029 -0.239699 0.396884 0.0446408 -0.997644 0.052084
-0.036383 -0.235238 0.408538 -0.0180946 -0.713395 0.700529
-0.222245 -0.218272 0.241851 0.623199 -0.782052 -0.00425617
0.139144 -0.0881735 0.427356 -0.18953 -0.00365164 0.981868
0.220939 -0.211933 0.153915 -0.991377 -0.130947 -0.00496098
-0.102089 0.234123 0.620093 -0.0842187 0.996447 0
0.150993 0.00246532 0.376146 0.203976 0.0179468 -0.978811
-0.231961 -0.206926 0.0523302 -0.626767 -0.767942 -0.132015
-0.0899176 -0.16178 0.419498 0.0834811 -0.00930838 0.996466
-0.137051 0.20576 0.789395 0 0 1
0.0445009 0.0164383 0.422818 -0.0015229 -0.110854 0.993836
-0.0565321 0.192744 0.617613 0.0508392 -0.998707 0
-0.150536 0.10764 0.439539 0.0649673 -0.148544 0.986769
-0.147836 0.1471 0.430687 0.00152356 0.990056 0.140667
-0.193915 0.0800181 0.389821 -0.327006 0.041463 -0.944112
-0.0529388 0.090022 0.380571 0.00062726 0.210495 -0.977595
-0.21084 0.180598 0.734556 -0.370914 -0.928667 0
0.0731195 0.191825 0.661811 -0.0624179 -0.99805 0
-0.133991 -0.199403 0.424781 0.202299 -0.0645137 0.977197
0.164929 -0.151182 0.433081 -0.246708 -0.00210754 0.969088
-0.0515258 0.0139978 0.368342 -0.00601145 0.0940983 -0.995545
-0.16276 0.126627 0.441964 0.0523834 -0.00914323 0.998585
-0.0187642 -0.0511478 0.365127 0 0.0111458 -0.999938
-0.233867 0.0546529 0.416271 -0.92528 0.0063201 -0.379231
0.0796911 -0.239268 0.390389 0.0539307 -0.998545 0
0.0326806 0.193709 0.700061 -0.0306942 -0.999529 0
0.0479617 0.193185 0.733274 -0.0367722 -0.999324 0
-0.0874494 -0.116594 0.419892 0.0776181 -0.0158658 0.996857
0.194205 -0.125024 0.388125 0.390867 -0.000496525 -0.920447
-0.226058 0.0636694 0.426496 0.135753 -0.0131497 0.990655
0.162539 0.182423 0.605531 -0.137263 -0.990535 0
-0.0484703 0.23978 0.0119354 -0.0206351 0.919505 0.392536
-0.174223 0.225237 0.582232 -0.158483 0.986254 -0.0467531
0.119913 0.113861 0.387019 0.0134494 0.278282 -0.960405
-0.0799608 0.128191 0.440902 0 -0.0681762 0.997673
0.234247 0.140486 0.00293088 0.799448 0.00258313 -0.600729
-0.207715 0.0396942 0.440938 -0.0530517 -0.00608629 0.998573
0.177074 0.219183 0.784748 0.129535 0.708359 0.693865
0.198312 0.0813581 0.441926 -0.0801188 -0.0470101 0.995676
0.172277 -0.232828 0.409347 0.132225 -0.99122 0
0.0852713 -0.156524 0.36493 0.0612083 0.00916057 -0.998083
0.0491982 -0.112454 0.418644 -0.00761899 -0.0170292 0.999826
-0.0817561 -0.223051 0.368255 -0.073656 -0.236852 -0.96875
0.221438 0.147883 0.429547 -0.991436 0.0367305 -0.125319
-0.144527 0.186503 0.775046 0.130397 -0.966242 0.222202
-0.156807 -0.0922644 0.376983 -0.235643 0.00267385 -0.971836
-0.23458 -0.213484 0.1983 -0.992201 -0.124619 -0.00255119
-0.166982 0.226521 0.753547 -0.142799 0.989715 0.00856506
-0.220349 0.193049 0.664133 0.927283 0.37426 0.00869167
0.0147348 0.232071 0.00106903 -9.87077e-05 -0.131074 -0.991372
-0.11473 -0.105701 0.36878 -0.140952 0.0115044 -0.98995
-0.165175 -0.125502 0.37896 -0.256992 0.00141948 -0.966412
-0.0366806 0.23253 0.557135 -0.0256036 0.719359 -0.694166
-0.0856058 0.22742 0.0136481 -0.0129947 -0.788149 0.615347
0.152204 0.1869 0.779886 -0.12912 -0.931465 0.340148
0.223939 0.17734 0.00190884 -0.624316 -0.017331 -0.780979
0.00102614 0.126832 0.440818 -0.000104533 -0.0680475 0.997682
-0.076762 0.193298 0.775401 0.0668871 -0.972454 0.223294
-0.00190032 0.14247 0.401755 0.00125566 0.817187 -0.576371
0.154577 0.228402 0.651965 0.130868 0.9914 0
0.0214869 0.238429 0.604789 0.0219608 0.999759 0
0.147315 0.184525 0.613798 -0.127252 -0.99187 0
0.0191855 -0.00970968 0.366442 9.08681e-05 0.0607205 -0.998155
0.065552 -0.0383373 0.419884 -0.025421 -0.0223215 0.999428
-0.221094 0.19406 0.665507 0.80446 0.593847 0.0137913
-0.159979 -0.139976 0.377611 -0.241494 0.00442847 -0.970392
-0.0464728 0.0478755 0.372666 -0.00105664 0.154587 -0.987979
-0.102856 0.189412 0.663902 0.0929356 -0.995672 0
0.163814 -0.227732 0.424322 -0.16318 -0.564759 0.808962
-0.116965 -0.0175059 0.424301 0.142343 -0.0262657 0.989469
0.122795 0.187477 0.614278 -0.111019 -0.993818 0
-0.231092 0.183305 0.656832 -0.627132 -0.778697 -0.0183217
0.225237 0.182387 0.589798 -0.400243 -0.916376 0.00776023
0.167559 0.181731 0.598368 -0.13379 -0.99101 0
0.0766698 0.191592 0.610102 -0.0714877 -0.997441 0
-0.123731 0.0285529 0.373114 -0.100824 0.0740471 -0.992145
0.235646 0.181256 0.513981 0.926342 -0.374794 0.0376911
-0.231675 0.0587875 0.0135139 -0.623152 0.00201487 0.782098
-0.181624 -0.17123 0.437134 0.228256 -0.00745228 0.973573
0.196965 -0.0530282 0.440292 -0.154678 0.000394209 0.987965
0.137707 0.185745 0.672591 -0.119847 -0.992792 0
0.217604 -0.0966534 0.408653 0.975793 -0.00124575 -0.218693
-0.129227 -0.166456 0.424928 0.185048 -0.0119089 0.982657
0.121837 0.187584 0.698021 -0.111019 -0.993818 0
0.0942249 -0.160553 0.419892 -0.105461 -0.00893613 0.994383
0.218541 -0.154905 0.424657 0.999249 -0.00244082 0.0386768
-0.0972287 -0.156473 0.365983 -0.10711 0.00945915 -0.994202
0.131068 -0.0975062 0.425769 -0.175416 -0.00573176 0.984478
-0.234338 -0.209615 0.308562 -0.927366 0.373719 -0.0180976
-0.0892983 -0.0963333 0.420325 0.07764 -0.0137226 0.996887
-0.00588541 0.0593034 0.428802 -0.000252455 -0.168683 0.98567
0.204985 -0.17624 0.393505 0.537208 -0.0198061 -0.843217
-0.219993 0.00847539 0.00558458 0.925999 -0.00413704 -0.377502
0.0609677 -0.0609643 0.419455 -0.0165079 -0.00870562 0.999826
-0.229927 -0.220075 0.263401 -0.405481 -0.914091 -0.00476105
0.207081 -0.217486 0.430156 0.641447 -0.718152 0.269822
0.00351514 0.23861 0.629381 0.0060681 0.999982 0
-0.0298089 -0.0193805 0.365949 6.85589e-05 0.0458129 -0.99895
-0.121719 0.145914 0.407329 0.000751669 0.907893 -0.419202
-0.0293514 -0.0357386 0.419671 -7.0531e-05 -0.0235323 0.999723
0.139748 0.0358013 0.429742 -0.114362 -0.0674619 0.991146
0.204694 -0.160361 0.440967 0.0399237 -0.00131191 0.999202
-0.139191 0.219773 0.553623 -0.0432752 0.361935 -0.931199
-0.0863822 -0.238546 0.396905 -0.0589139 -0.997232 0.0453583
0.135188 -0.0319376 0.372619 0.181301 0.0073087 -0.983401
-0.157074 -0.0396879 0.431419 0.231519 -0.00293856 0.972826
-0.161202 -0.0133944 0.432524 0.226283 -0.00781575 0.97403
0.0805834 0.0631887 0.429692 -0.0132356 -0.177073 0.984109
0.224352 -0.130462 0.412413 -0.628283 0.103462 -0.771075
-0.218127 -0.180562 0.415849 -0.998608 -0.0397165 -0.0347122
0.222105 -0.0993533 0.425249 -0.801928 -0.0255249 0.596875
-0.196637 -0.226086 0.421655 -0.371947 -0.919159 0.129625
-0.149444 0.192051 0.786654 0.0722278 -0.544652 0.835546
0.182147 -0.193874 0.436635 -0.225948 -0.0646053 0.971995
-0.0566131 0.0299379 0.370176 -0.00700575 0.125552 -0.992062
0.206527 0.218986 0.663306 0.302517 0.953144 0
-0.0312507 0.195715 0.77631 0.0259908 -0.974435 0.223159
-0.232928 -0.0332056 0.42542 -0.80519 0.0200831 0.592677
0.209536 0.0265498 0.396324 0.648812 0.00200268 -0.760946
0.153171 -0.222881 0.424817 -0.190106 -0.394314 0.899098
0.221435 0.0471857 0.00632624 -0.992106 0.00124058 -0.125395
0.0761058 -0.11788 0.419201 -0.0420611 -0.0156365 0.998993
-0.215424 0.0799299 0.404132 -0.858344 0.00431388 -0.513056
0.221406 0.210873 0.767274 0.636409 0.752612 0.168994
0.178561 -0.0609478 0.382687 0.274706 -0.000700101 -0.961528
-0.226755 0.18955 0.494955 -0.136767 0.9759 -0.170043
0.111233 0.145782 0.407919 0.00284807 0.965564 -0.260152
-0.198011 0.178973 0.727219 0.0130898 -0.999914 0
-0.0100151 -0.0566494 0.365066 1.67311e-05 0.0111458 -0.999938
-0.124756 -0.0296319 0.370919 -0.165337 0.0175725 -0.986081
-0.2213 0.195494 0.731666 -0.977766 -0.209697 0
0.0832139 0.191123 0.598128 -0.0714877 -0.997442 0
-0.0104187 0.105839 0.384485 0.000787105 0.255661 -0.966766
-0.219752 0.180199 0.499351 0.925822 -0.37235 0.06488
-0.164957 0.182026 0.711963 0.129838 -0.991535 0
0.152573 0.057248 0.378915 0.148949 0.0912969 -0.984621
-0.0869286 -0.0753344 0.366127 -0.0745842 0.00867875 -0.997177
-0.163178 0.114124 0.388775 -0.0805889 0.22958 -0.969948
-0.220283 0.0226938 0.422216 0.923917 0.00757582 0.382518
0.208597 0.119507 0.440562 0.3964 0.117898 0.910476
0.222847 0.210715 0.0120353 0.654094 0.652406 0.382789
0.218628 -0.0842827 0.425427 0.999237 -0.0025466 0.0389691
-0.14812 0.0121722 0.375853 -0.189723 0.0246228 -0.981529
-0.200827 0.219515 0.764562 -0.247802 0.964308 0.0932951
0.0862681 0.237012 0.00215047 0 0.608635 -0.793451
-0.0348049 -0.138766 0.418172 -6.88067e-05 -0.0153524 0.999882
-0.14493 -0.0881628 0.428582 0.206566 -0.00362531 0.978426
0.214565 0.211116 0.0160556 0.0943233 0.0940551 0.991089
0.222159 0.0169795 0.0114921 -0.926001 0.00186865 0.377516
-0.0428008 -0.207267 0.416267 0.000836335 -0.100379 0.994949
0.232822 -0.113018 0.015589 0.630108 0.0123684 0.776409
-0.00385024 0.19463 0.576607 0.00379642 -0.996284 -0.0860441
0.140337 0.185421 0.633773 -0.127252 -0.99187 0
-0.115643 -0.0103333 0.37011 -0.11317 0.0359238 -0.992926
-0.0744405 -0.147786 0.364425 -0.0432923 0.0117728 -0.998993
-0.193998 0.221659 0.591974 -0.208129 0.978072 -0.0075619
0.082584 0.235713 0.681228 0.0720799 0.997399 0
-0.23184 -0.0916558 0.415666 -0.626594 0.0352054 -0.77855
-0.0330562 0.144703 0.404994 0.00268146 0.908479 -0.417922
0.0505092 -0.153464 0.363775 0.00899969 0.0127688 -0.999878
0.133153 0.0502442 0.430144 -0.102641 -0.0943663 0.990232
-0.196866 0.220319 0.0031716 0.314138 -0.728284 -0.609032
0.221668 0.184888 0.536275 -0.990704 -0.135381 0.0133285
0.219153 0.202462 0.56398 0.793062 -0.0178259 -0.60888
-0.2108 0.21662 0.616226 -0.379954 0.925005 0
-0.212593 0.187285 0.566637 -0.690251 -0.438094 -0.57587
0.172995 0.182231 0.772225 -0.131301 -0.981124 0.14197
-0.0295985 -0.221688 0.366443 -0.00418942 -0.233267 -0.972404
-0.0281854 -0.186359 0.417446 -0.00024514 -0.023303 0.999728
0.221315 0.0705117 0.00757352 -0.992104 0.00207385 -0.125399
0.178428 0.180302 0.635484 -0.122157 -0.992511 0
0.0414243 0.193425 0.610375 -0.0367722 -0.999324 0
0.216862 -0.0797975 0.406239 0.934678 -0.00109259 -0.355494
-0.116885 -0.13216 0.423057 0.145049 -0.00972474 0.989377
0.198968 -0.125443 0.390168 0.451223 -0.000573189 -0.892411
-0.136501 0.208788 0.789395 0 0 1
0.0487488 -0.152679 0.418019 -0.0089557 -0.0127024 0.999879
-0.0658495 0.14743 0.4162 0 0.998838 -0.048194
0.141478 -0.228462 0.380758 0.217317 -0.547954 -0.807787
-0.220681 0.192658 0.678077 -0.964629 -0.263611 0
-0.157614 0.0400361 0.43288 0.186516 -0.0488255 0.981238
0.109617 0.144595 0.435836 0.00121039 0.861808 0.507233
-0.0186517 -0.114701 0.364314 2.64162e-05 0.0171543 -0.999853
-0.229012 -0.188754 0.40449 -0.141994 -0.678699 0.72056
0.149167 0.229108 0.749257 0.130866 0.991382 0.00595116
-0.117417 0.232654 0.592294 -0.101318 0.994806 -0.00983592
-0.150068 -0.0743176 0.429742 0.219899 -0.00124539 0.975522
0.0211984 0.0655375 0.375669 0.00027292 0.181751 -0.983344
0.0219127 0.193987 0.591963 -0.0216847 -0.999716 -0.00988195
0.132126 0.186419 0.661488 -0.119847 -0.992792 0
-0.0878191 0.190707 0.668479 0.0765766 -0.997064 0
0.1577 0.0668829 0.380542 0.163195 0.101065 -0.981404
-0.0241711 0.193931 0.590726 0.0178505 -0.999791 -0.009959
-0.226482 0.071588 0.411431 0.137258 0.012767 -0.990453
-0.184232 0.180213 0.576827 0.0968816 -0.991496 -0.0868893
0.120699 0.194419 0.555915 -0.075819 -0.71801 -0.691891
-0.203552 0.218452 0.766609 -0.29916 0.949027 0.099256
-0.100174 -0.0119891 0.422628 0.0834767 -0.0508179 0.995213
0.0967775 -0.0195617 0.367773 0.0866475 0.0344622 -0.995643
0.155387 0.145376 0.434442 0.000319918 0.86682 0.49862
0.235427 0.155709 0.429252 0.925783 0.188492 -0.327713
0.0389915 0.193838 0.762447 -0.036932 -0.998173 0.0478245
-0.0210651 0.238405 0.660176 -0.0195585 0.999809 0
-0.233983 -0.140546 0.00672684 -0.926005 0.0023352 -0.377505
0.134187 -0.0176894 0.372642 0.178483 0.0179251 -0.98378
-0.225133 0.012211 0.426895 0.142081 0.022438 0.989601
0.145448 -0.100952 0.42862 -0.206546 -0.00312258 0.978432
0.230307 -0.0761171 0.00132691 0.136233 -0.0237359 -0.990392
0.234865 -0.083232 0.418082 0.927916 -0.00699465 -0.372723
0.0379847 0.193546 0.699952 -0.0306942 -0.999529 0
-0.214401 -0.201713 0.408297 -0.952287 -0.220298 -0.211231
0.0178454 0.0387397 0.371311 0.000424002 0.141252 -0.989974
0.134775 0.0921116 0.436177 -0.0564506 -0.171534 0.98356
-0.227756 -0.22032 0.231643 -0.14195 -0.989626 -0.0221625
0.182654 0.14604 0.415752 0.124843 0.991159 -0.0449206
-0.0679796 0.232852 0.781799 -0.0524569 0.854076 0.517496
-0.0655185 -0.179926 0.363892 -0.0300037 -0.00825293 -0.999516
0.0884224 -0.183767 0.365141 0.0838375 -0.00977541 -0.996431
0.0848672 0.104101 0.3841 0.00175436 0.253116 -0.967434
0.121149 -0.0581519 0.370061 0.151177 0.00609683 -0.988488
0.236126 0.189851 0.596259 0.992116 0.125319 -0.00132197
-0.159192 0.227688 0.61076 -0.133116 0.9911 0
0.204479 -0.166089 0.39307 0.537025 -0.00504666 -0.843551
-0.0289931 0.198004 0.559086 0.023879 -0.855658 -0.516991
0.024516 0.238362 0.677724 0.0219608 0.999759 0
-0.186416 0.0252513 0.438585 0.188053 -0.00751882 0.98213
0.221347 0.00355486 0.420919 -0.991375 0.00452187 0.130978
0.0913014 0.0892735 0.38057 0.00639089 0.205837 -0.978565
0.199145 -0.168263 0.440573 -0.0821433 -0.00705223 0.996596
0.178015 -0.0569221 0.382533 0.274706 0.000802857 -0.961528
0.0342738 0.0378544 0.37119 0.000421615 0.141253 -0.989974
0.126735 0.112949 0.439396 -0.0210039 -0.152499 0.98808
-0.0750559 0.191633 0.682592 0.066213 -0.997806 0
0.123359 0.00597641 0.371695 0.123239 0.0490871 -0.991162
0.0926191 0.193393 0.779838 -0.0741392 -0.936945 0.341523
0.184394 0.117968 0.442908 -0.0577989 -0.00968552 0.998281
-0.130051 0.240139 0.0124042 -0.0145511 0.788475 0.614894
0.217997 -0.00666892 0.409751 0.976482 -0.00238651 -0.215586
0.122662 -0.00691942 0.371104 0.1379 0.0303384 -0.989981
0.155475 0.228245 0.587883 0.135544 0.990507 -0.022903
-0.232612 0.196499 0.014497 -0.628745 0.0427734 0.776434
0.22709 0.0609824 0.000225358 -0.142226 0.00297738 -0.98983
-0.22838 0.196361 0.565527 -0.136168 0.989518 -0.0480803
0.231157 0.0305846 0.411896 0.407733 -0.0214681 -0.912849
-0.0432627 -0.0454415 0.419477 0.00307195 -0.0161377 0.999865
-0.0808595 0.191242 0.721945 0.0765766 -0.997064 0
-0.0784647 0.235893 0.587068 -0.0672573 0.997479 -0.0226192
-0.21628 0.207274 0.0136045 0.612661 -0.504483 0.608394
-0.0373194 -0.0124627 0.366269 9.11418e-05 0.0607204 -0.998155
-0.181218 0.0483177 0.438007 0.189747 -0.0382362 0.981088
-0.153902 -0.0524166 0.376399 -0.21734 0.001141 -0.976095
-0.0777191 0.147532 0.420547 0.00294525 0.999996 0
-0.232963 0.102679 0.425259 -0.802888 -0.0617224 0.592927
-0.168237 0.0806061 0.437924 0.148028 -0.0965176 0.984262
-0.195001 0.221443 0.603001 -0.243017 0.970022 0
-0.103315 -0.193383 0.420157 0.127713 -0.0387985 0.991052
0.0424486 0.147065 0.428727 0.00304439 0.990026 0.140853
0.11711 0.113309 0.43931 -0.00909798 -0.156818 0.987586
0.205416 0.134051 0.436487 0.524313 0.550407 0.649729
-0.226517 -0.216165 0.122366 0.135896 -0.989171 -0.0554289
-0.233623 0.192688 0.620205 -0.927934 0.372729 -0.00325869
-0.0979145 0.189867 0.602705 0.0840661 -0.99646 0
0.0544576 -0.0662513 0.365047 0.00758062 0.00997825 -0.999921
-0.0184685 0.194029 0.673626 0.0216043 -0.999767 0
0.161687 -0.220688 0.427665 -0.224493 -0.251179 0.941548
-0.0603979 0.192547 0.618454 0.0508392 -0.998707 0
-0.117305 -0.056601 0.423769 0.152036 -0.00626293 0.988355
0.206271 -0.196285 0.439684 0.0441545 -0.0897604 0.994984
-0.223714 0.182967 0.637036 0.393435 -0.919104 -0.0213754
0.119088 0.226792 0.0133903 -0.00590437 -0.785256 0.619144
-0.123562 -0.0229634 0.370861 -0.143877 0.019808 -0.989397
-0.157529 -0.205338 0.37832 -0.248175 -0.0967181 -0.963875
0.0500746 0.236754 0.769131 0.0377004 0.995558 0.0862683
-0.0364971 -0.0261774 0.365688 5.02595e-05 0.0335314 -0.999438
-0.116222 -0.204064 0.421222 0.145337 -0.103551 0.983948
-0.1873 0.0853681 0.388237 -0.273423 0.0857032 -0.958068
0.00315143 -0.0271359 0.365658 0 0.0334895 -0.999439
0.0865412 0.235427 0.710244 0.0720799 0.997399 0
0.233504 -0.177336 0.398318 0.801258 0.407626 -0.437981
-0.221801 -0.205921 0.0524751 0.80182 -0.588945 -0.101135
0.15548 -0.0952244 0.376631 0.221848 0.00237873 -0.975078
0.228958 -0.140213 0.409944 0.138311 0.129887 -0.981835
0.0828879 0.240034 0.0109737 0 0.921913 0.387397
-0.117427 0.146399 0.408817 0.00109023 0.966375 -0.257136
0.0109554 0.224216 0.789051 0.000525103 0.105372 0.994433
0.114173 0.23092 0.777005 0.0929609 0.970735 0.221431
0.232891 0.192749 0.714923 0.630127 0.775557 0.0381004
0.0273021 -0.01029 0.420665 0 -0.059526 0.998227
0.196148 0.180149 0.773692 -0.0542713 -0.971388 0.231214
-0.0176201 0.238473 0.703463 -0.0195585 0.999809 0
-0.0660323 0.0680827 0.376177 -0.00415235 0.179434 -0.983761
-0.0473132 -0.0536111 0.365127 -0.00742632 0.01125 -0.999909
0.126034 0.187115 0.59835 -0.111019 -0.993818 0
-0.218393 -0.152597 0.428664 -0.992895 0.00126445 0.118984
-0.0986111 0.234417 0.690124 -0.0842187 0.996447 0
-0.0368745 -0.208586 0.364697 -0.00178351 -0.0915966 -0.995795
-0.220726 0.209358 0.607319 -0.808737 0.58817 0
-0.220517 -0.11495 0.423511 0.927632 -0.0179627 0.373064
-0.200584 0.00831758 0.440769 0.0796079 -0.00116523 0.996826
-0.0246971 0.238334 0.711972 -0.0195585 0.999809 0
-0.0322256 0.0318659 0.424622 -0.000188412 -0.1257 0.992068
0.0406234 0.193455 0.617426 -0.0367722 -0.999324 0
-0.220879 0.0473737 0.422956 0.805036 -0.00911487 0.593155
0.191797 -0.164234 0.387166 0.343654 -0.00431919 -0.939087
0.217094 0.0468916 0.435037 0.900292 -0.00114508 0.435284
0.106905 -0.209125 0.419431 -0.125472 -0.102251 0.986814
-0.225512 -0.183351 0.409549 0.13795 -0.679783 0.720323
-0.0286031 0.193797 0.66912 0.0254997 -0.999675 0
-0.0435041 -0.0689383 0.419202 0.00292807 -0.00998893 0.999946
-0.17276 -0.143369 0.435062 0.24211 -0.00291769 0.970244
0.118152 0.187975 0.705768 -0.104389 -0.994536 0
0.158368 -0.046067 0.431643 -0.23294 -0.00218335 0.972489
-0.0647307 -0.194799 0.417392 0.0288735 -0.039437 0.998805
-0.12963 0.212851 0.789359 -0.00401402 0.0341336 0.999409
-0.232397 -0.0328897 0.415464 -0.802227 -0.0171969 -0.596772
-0.23072 0.192182 0.522998 -0.627283 0.774807 -0.0786715
0.169609 0.0847568 0.438527 -0.148307 -0.107495 0.983082
-0.160958 0.139317 0.398755 -0.0140313 0.555789 -0.831205
0.193629 0.178711 0.597479 -0.0675862 -0.997713 0
0.0293479 -0.159971 0.417895 1.57415e-05 -0.0102438 0.999948
0.169251 -0.229006 0.389865 0.237001 -0.726625 -0.644862
0.196196 0.178537 0.742383 -0.0675862 -0.997713 0
-0.110031 0.233398 0.642396 -0.0916976 0.995787 0
-0.216185 -0.197803 0.414941 -0.988482 -0.147117 -0.0354921
0.214103 -0.059514 0.438619 0.510286 -0.00065147 0.860005
0.210789 -0.124033 0.440196 0.251038 0 0.967977
0.218873 0.0482031 0.421967 0.999997 -0.00244255 0
0.10593 0.107499 0.438285 -0.00494263 -0.181874 0.983309
-0.218 0.0746909 0.413461 -0.994143 0.00266981 -0.108042
-0.135308 0.230715 0.623401 -0.116144 0.993232 0
0.132506 0.0395449 0.374871 0.107168 0.0784462 -0.991141
0.192843 0.178764 0.666536 -0.0675863 -0.997713 0
0.228605 -0.0365906 0.413218 0.141067 -0.031136 -0.98951
-0.221374 -0.21697 0.229876 0.802261 -0.596821 -0.013471
-0.141996 -0.161882 0.42756 0.217593 -0.00493302 0.976027
-0.0243597 0.236737 0.566917 -0.0190629 0.974461 -0.223744
-0.233238 0.170003 0.440444 -0.925543 0.308216 -0.219938
0.103728 -0.200101 0.367325 0.132398 -0.0556975 -0.98963
0.187325 -0.082264 0.385532 0.342155 0.000762783 -0.939643
-0.110272 -0.165512 0.421765 0.149351 -0.0129044 0.9887
0.22107 -0.0901577 0.00937873 -0.992103 0.00479302 0.125333
0.157143 0.183311 0.757699 -0.136449 -0.990377 0.0231392
-0.223116 -0.215497 0.347429 0.628993 -0.768611 0.116639
