-0.11958 -0.15985 0.369004 -0.166736 0.00822209 -0.985967
0.0193756 0.0489559 0.427097 -0.000468034 -0.155921 0.987769
0.211193 0.178883 0.641855 0.200333 -0.979728 0
-0.102972 0.0224954 0.370853 -0.0787396 0.0863458 -0.993149
-0.0511196 -0.215245 0.36554 -0.0128884 -0.14878 -0.988786
0.079613 -0.191281 0.364697 0.064741 -0.0283491 -0.997499
0.115077 -0.12821 0.422831 -0.143615 -0.0104094 0.989579
0.129298 -0.213349 0.422395 -0.178415 -0.159756 0.9709
0.0527828 -0.150296 0.363836 0.00899969 0.0127688 -0.999878
0.13366 -0.132113 0.37177 0.198096 0.00690363 -0.980158
-0.175001 0.225297 0.619837 -0.157498 0.987519 0
0.209375 0.217949 0.584411 0.301771 0.953037 -0.0256046
-0.217419 -0.11062 0.408273 -0.975091 0.00113979 -0.221805
0.109547 -0.0209176 0.423246 -0.119083 -0.0304996 0.992416
-0.175819 0.203417 0.552695 -0.0650251 -0.0111072 -0.997822
-0.033103 -0.0174091 0.4203 -6.87656e-05 -0.0458129 0.99895
-0.214705 -0.192452 0.404333 -0.928561 -0.125746 -0.349231
-0.0857188 0.190868 0.67615 0.0765766 -0.997064 0
0.0860794 0.235461 0.713638 0.0720799 0.997399 0
0.0851038 -0.115556 0.365481 0.0583888 0.0157678 -0.998169
-0.0812464 0.227039 0.787211 -0.0369159 0.544816 0.837743
0.0325982 0.00646019 0.367602 0.000140749 0.0938562 -0.995586
-0.156523 0.228046 0.700797 -0.133116 0.9911 0
0.0695501 0.147293 0.417697 0 0.998989 -0.0449491
-0.185284 0.0704753 0.439816 0.178231 -0.0540486 0.982503
-0.0152511 -0.199589 0.364058 -0.00040867 -0.053998 -0.998541
0.223459 0.189035 0.511594 -0.801837 0.594503 -0.0601884
-0.233565 -0.169562 0.404733 -0.800114 0.314876 -0.510558
-0.23405 -0.207717 0.330611 -0.923516 0.382391 -0.0299236
0.0205369 0.142258 0.438386 0.00105019 0.683466 0.729982
0.235542 0.0145845 0.00538709 0.928109 -0.00208986 -0.372302
-0.205334 0.216391 0.774687 -0.374905 0.888094 0.26596
-0.0534101 0.240542 0.00893797 -0.00152714 0.990692 0.136114
0.0837487 0.112735 0.439109 -0.0017707 -0.162744 0.986667
0.226262 0.197138 0.633188 0.976676 -0.214718 0
0.162603 -0.0272415 0.37845 0.228479 0.00303389 -0.973544
-0.162526 -0.201453 0.379217 -0.248175 -0.0967181 -0.963875
0.00619047 0.00917198 0.367854 0.000140647 0.0938556 -0.995586
-0.12155 -0.108811 0.369801 -0.158081 0.00861215 -0.987389
0.183372 -0.215253 0.434111 -0.196119 -0.258042 0.946019
0.136931 -0.0569195 0.37279 0.186494 0.00444981 -0.982446
-0.101747 0.126673 0.440803 0.00140552 -0.0662918 0.997799
-0.222935 0.131563 0.41886 0.626282 0.157688 -0.763482
0.0421728 -0.0958147 0.418883 -0.00296522 -0.0148408 0.999885
0.235066 -0.215316 0.311772 0.923984 -0.381975 0.0186527
0.162788 0.182389 0.650163 -0.137263 -0.990535 0
0.0281008 0.238101 0.759452 0.0207404 0.998746 0.0455732
0.233879 -0.195022 0.394406 0.797605 -0.462026 0.38776
0.0206216 0.112902 0.439107 0 -0.164216 0.986424
0.235235 -0.0682893 0.418722 0.926075 -0.0072938 -0.377269
-0.191765 0.222061 0.586171 -0.208101 0.977828 -0.0233579
0.202494 0.178326 0.663671 -0.0167321 -0.99986 0
-0.20701 0.179607 0.688663 -0.2022 -0.979344 0
-0.0543945 0.192853 0.691131 0.0508392 -0.998707 0
0.232472 -0.206784 0.211384 0.623317 0.781784 0.0169955
0.0202274 0.0878767 0.380133 0.0003176 0.211957 -0.977279
0.130102 -0.0103493 0.372131 0.15648 0.0302055 -0.987219
-0.0648142 0.0560709 0.428306 0.00836223 -0.165436 0.986185
0.0797475 0.0302985 0.424872 -0.0313723 -0.118328 0.992479
0.135686 -0.17503 0.372002 0.203738 -0.0124712 -0.978946
-0.0127755 0.0209438 0.423303 -0.000330857 -0.110857 0.993836
0.0083046 0.238362 0.0146206 0.000461354 0.615332 0.788268
0.00323422 -0.0431102 0.365253 2.40104e-05 0.0161339 -0.99987
-0.0266667 0.194257 0.577578 0.0254687 -0.998533 -0.0477901
-0.2327 0.191914 0.707452 -0.797993 0.601938 0.0296087
-0.233841 -0.142442 0.0063678 -0.926005 0.0023352 -0.377505
0.0845588 0.23892 0.0130594 0 0.788311 0.615277
-0.162137 0.193176 0.788059 0.0424621 -0.36555 0.929823
0.10033 0.195688 0.556662 -0.0630898 -0.719948 -0.691154
-0.0106523 -0.026992 0.419923 -0.000100661 -0.0335317 0.999438
0.08671 0.235415 0.678524 0.0720799 0.997399 0
-0.00212912 0.122139 0.440419 -0.000378268 -0.128585 0.991698
0.160775 0.132244 0.441682 -0.0265045 0.0923758 0.995371
-0.169911 0.0126687 0.434768 0.228225 -0.00905522 0.973566
0.106667 0.0474986 0.373751 0.049172 0.124346 -0.99102
0.193912 0.22203 0.643732 0.211699 0.977335 0
0.217167 0.0281059 0.406606 0.934236 -0.000738507 -0.356655
-0.2306 0.0839352 0.0143893 -0.400622 -0.00206454 0.916241
0.0128839 0.238545 0.700442 0.0134601 0.999909 0
-0.192163 0.0404877 0.387713 -0.329766 0.0160367 -0.943926
-0.159209 0.131819 0.394423 -0.0343929 0.436656 -0.898971
0.0913514 0.235062 0.614304 0.0781018 0.996945 0
-0.10116 0.0267898 0.42537 0.0460567 -0.101234 0.993796
0.218487 0.214437 0.727631 0.506832 0.862045 0
0.110312 -0.198987 0.368163 0.154135 -0.0542719 -0.986558
-0.141855 0.229941 0.596226 -0.124483 0.992222 0
0.172487 0.129661 0.394275 0.0782025 0.408335 -0.909476
-0.0417901 0.23785 0.692549 -0.0353963 0.999373 0
0.226177 0.196755 0.723175 0.976676 -0.214718 0
-0.19087 -0.0832647 0.439293 0.198087 -0.000504519 0.980184
0.0992422 -0.155581 0.366219 0.107311 0.00920145 -0.994183
-0.125599 -0.23114 0.37916 -0.181393 -0.71737 -0.672664
-0.0521585 -0.0876031 0.419053 0.00897978 -0.0124466 0.999882
0.229799 0.0723604 0.426589 0.141894 -0.0134183 0.989791
0.178227 -0.0848435 0.436462 -0.237838 -0.000834171 0.971304
0.223111 0.178853 0.461753 -0.803318 0.579638 -0.136746
0.235901 0.0534281 0.00844104 0.992197 -0.00124203 0.124676
-0.221938 0.206687 0.608162 -0.93401 0.357248 0
0.161088 -0.0560494 0.378027 0.233926 0.000940237 -0.972254
-0.211425 -0.141426 0.440029 -0.251795 0.000614266 0.96778
-0.169384 -0.206834 0.432259 0.241868 -0.103066 0.96482
-0.128817 0.186717 0.744648 0.116082 -0.99324 0
0.0611415 0.237041 0.656261 0.0548722 0.998493 0
0.218216 0.102206 0.425086 0.995803 0.0842789 0.0356844
0.167814 -0.0953103 0.379693 0.254669 0.0020377 -0.967026
0.18651 -0.0722109 0.385231 0.340683 -0.000867719 -0.940178
0.23421 -0.0898661 0.0136938 0.802276 0.0127964 0.596817
0.203017 -0.165023 0.392244 0.453716 -0.00505605 -0.891132
-0.214845 0.204657 0.564139 -0.793086 -0.0181497 -0.608839
-0.0519968 0.0122086 0.422425 0.0060115 -0.0939921 0.995555
0.012415 0.238551 0.615951 0.0134601 0.999909 0
0.218793 0.0412526 0.426439 0.999374 -0.00127268 0.0353584
0.129596 0.146765 0.412342 0.00292374 0.9921 -0.125414
-0.122686 0.201587 0.789024 0.0114677 -0.104474 0.994461
0.116339 0.232579 0.580013 0.0953217 0.994281 -0.0481525
0.215873 0.18016 0.682577 0.366828 -0.930289 0
-0.233854 -0.103187 0.424273 -0.92963 -0.0148048 0.368197
-0.183767 -0.229447 0.399493 -0.263029 -0.926587 -0.268799
0.174137 -0.0300223 0.435489 -0.235001 -0.00207193 0.971993
-0.135763 0.0933942 0.382359 -0.0537725 0.204991 -0.977286
0.0601466 0.192587 0.607367 -0.0547066 -0.998502 0
0.150849 -0.0506231 0.429913 -0.219119 -0.00184717 0.975697
-0.140358 -0.118322 0.373207 -0.196374 0.00632266 -0.980509
-0.22234 0.2038 0.751634 -0.990205 0.137647 0.0234028
0.176155 -0.00144311 0.382075 0.268166 0.00292684 -0.963368
-0.0338692 -0.203417 0.416601 -0.00104419 -0.0631913 0.998001
0.224632 0.209429 0.645515 0.81371 0.58127 0
0.224888 0.175849 0.50281 -0.628105 -0.766601 0.133441
-0.0929932 0.231783 0.56153 -0.0713941 0.936778 -0.342563
0.0507112 0.237191 0.578605 0.0463368 0.997672 -0.0500237
-0.0622226 0.205536 0.788806 0.0110096 -0.212741 0.977047
0.218107 0.18147 0.756175 0.556622 -0.828945 0.0549751
-0.042785 0.037653 0.371148 -0.00109418 0.141254 -0.989973
0.0335064 0.0289292 0.370003 0 0.125546 -0.992088
-0.220108 0.19315 0.634017 0.927283 0.37426 0.00869167
-0.0323433 0.237887 0.761299 -0.0268435 0.998491 0.0478983
0.0434915 0.226183 0.00589732 -0.0233188 -0.923755 -0.382273
0.0113149 -0.101627 0.364533 2.39966e-05 0.0160149 -0.999872
-0.217641 -0.0221869 0.432028 -0.968174 0.00113033 0.250277
0.0849856 -0.0682622 0.366049 0.0553441 0.00861084 -0.99843
0.0977406 0.144868 0.405821 0.00140154 0.90966 -0.41535
0.00847268 -0.124305 0.41841 -4.63921e-05 -0.0157466 0.999876
-0.0230692 0.193929 0.727636 0.0216043 -0.999767 0
-0.231226 0.183867 0.598172 -0.632631 -0.774426 0.00646729
-0.0645938 0.236777 0.588405 -0.0512513 0.998668 -0.00598259
-0.0740942 0.115484 0.439522 -0.000483189 -0.163757 0.986501
-0.21435 0.116719 0.407877 -0.895562 0.231919 -0.379713
0.0498912 0.193095 0.689893 -0.0472662 -0.998882 0
-0.0513581 -0.232119 0.410398 -0.0119683 -0.541877 0.840373
0.0843882 -0.172999 0.364764 0.0627139 0.00340068 -0.998026
-0.0160847 0.238496 0.732008 -0.0110733 0.999939 0
0.220336 0.194183 0.00242813 -0.535026 -0.31309 -0.784679
0.181261 -0.200999 0.384628 0.312689 -0.0991077 -0.944671
0.146287 0.129095 0.392953 0.0214052 0.372098 -0.927946
-0.107728 0.188957 0.705639 0.0995465 -0.995033 0
0.235726 0.0963695 0.00555263 0.930026 -0.000375608 -0.367494
0.0550385 0.0368763 0.371098 0.00798392 0.140171 -0.990095
0.224842 -0.220486 0.269411 -0.400457 -0.916301 -0.00517753
-0.131484 0.231162 0.659633 -0.116144 0.993232 0
0.0671788 0.236672 0.59004 0.054938 0.998441 -0.0099127
-0.166801 0.181862 0.586477 0.129781 -0.991324 -0.0208204
0.233678 0.130394 0.00227924 0.629983 0.00404667 -0.776598
-0.154359 0.21208 0.552397 -0.0140304 0.104678 -0.994407
0.163712 0.188296 0.556666 -0.0958279 -0.715612 -0.691894
-0.0737578 -0.193697 0.417748 0.0438845 -0.0394525 0.998257
-0.109765 -0.0397431 0.42292 0.129176 -0.0161528 0.99149
-0.123112 0.193188 0.556822 0.0784555 -0.715238 -0.694463
-0.22379 -0.217251 0.159974 0.398974 -0.916311 -0.0345396
-0.020632 0.193982 0.698051 0.0216043 -0.999767 0
-0.234012 -0.21226 0.129255 -0.927583 -0.373042 -0.0207362
-0.00751216 0.137821 0.397448 0.00259128 0.577934 -0.81608
-0.0817769 0.235726 0.694352 -0.0685252 0.997649 0
0.0312487 0.193758 0.593161 -0.0306932 -0.999496 -0.00816188
-0.0678315 -0.0320161 0.420086 0.02548 -0.0223394 0.999426
-0.224591 0.192159 0.00193895 0.621844 -0.0423944 -0.781993
0.213954 -0.18071 0.401576 0.862625 -0.03092 -0.504897
-0.11021 -0.190597 0.421177 0.148044 -0.0403371 0.988158
0.0418869 -0.213276 0.365138 0.00611078 -0.145987 -0.989268
-0.185902 0.223966 0.00286146 0.125369 -0.596971 -0.792406
-0.0311886 0.193731 0.657977 0.0254997 -0.999675 0
-0.194318 0.143656 0.429421 -0.342805 0.92995 0.132961
-0.110291 -0.0983564 0.422482 0.139182 -0.0100095 0.990216
-0.218118 -0.153748 0.411133 -0.993796 0.00126711 -0.111216
0.142225 0.185179 0.639281 -0.127252 -0.99187 0
0.20251 0.220035 0.609755 0.247481 0.968893 0
-0.01152 -0.118821 0.418496 -4.6388e-05 -0.0157451 0.999876
-0.105568 0.0495258 0.373939 -0.0381113 0.132907 -0.990396
0.210966 0.207419 0.782932 0.460755 0.161496 0.87271
-0.0295051 0.193821 0.75312 0.0267296 -0.999593 0.00999515
-0.175475 -0.081425 0.381856 -0.276543 0.00154628 -0.961
-0.146446 0.132835 0.441291 0.0164328 0.0595378 0.998091
-0.195542 0.221307 0.693911 -0.243017 0.970022 0
0.0151405 -0.219462 0.414752 0.000685174 -0.153045 0.988219
-0.0390365 -0.043187 0.365251 -0.00291839 0.0161574 -0.999865
-0.132468 0.18629 0.707615 0.116082 -0.99324 0
-0.0993005 -0.0979853 0.36694 -0.0982395 0.0124237 -0.995085
-0.137915 -0.189517 0.426156 0.202827 -0.0383314 0.978464
0.01154 0.194136 0.73136 -0.0152405 -0.999884 0
-0.0780325 -0.220378 0.415033 0.0348573 -0.2438 0.969199
-0.219905 -0.00428339 0.00618747 0.992197 -0.00247327 -0.124655
-0.0661291 0.192206 0.638626 0.0624974 -0.998045 0
-0.124676 0.231908 0.709026 -0.108802 0.994063 0
-0.173008 0.180996 0.627271 0.119317 -0.992856 0
0.0730046 0.236356 0.628829 0.0635235 0.99798 0
-0.214254 -0.0248079 0.401656 -0.864135 0.00100763 -0.503259
-0.218197 0.0662449 0.425919 -0.999251 0.00127253 0.0386724
-0.188152 0.179668 0.760862 0.0652772 -0.996548 0.0512856
0.0437156 0.193341 0.740762 -0.0367722 -0.999324 0
0.142921 -0.0115704 0.428582 -0.191006 -0.0180104 0.981424
-0.166603 0.181811 0.730789 0.129838 -0.991535 0
-0.220426 0.170628 0.00431196 0.800002 0.00260686 -0.599992
0.166942 0.212134 0.789009 0.0250384 0.102632 0.994404
0.138048 0.228833 0.774837 0.117038 0.967962 0.222154
-0.234013 0.190483 0.647993 -0.992103 0.1254 0.00270902
-0.131672 -0.0710348 0.371791 -0.172726 0.00409879 -0.984961
0.150221 0.0271714 0.376643 0.171163 0.0437727 -0.98427
-0.0761459 -0.049935 0.365784 -0.0388832 0.0148995 -0.999133
0.0721033 0.236133 0.761553 0.0634779 0.996833 0.0478988
-0.0594224 0.198513 0.556687 0.035486 -0.718459 -0.694664
-0.144482 0.184872 0.58674 0.133806 -0.990789 -0.0208007
-0.116108 0.144224 0.403989 0.00125752 0.819695 -0.572799
0.0648486 -0.108756 0.418952 -0.026925 -0.0171234 0.999491
0.210921 -0.130632 0.440159 0.251798 -0.000614274 0.967779
0.0758134 0.139117 0.439904 0.000677579 0.441621 0.897201
-0.0565152 0.237234 0.739177 -0.0525035 0.998621 0
0.112714 -0.178597 0.421959 -0.150663 -0.0225195 0.988329
-0.0427281 0.237817 0.671088 -0.0353963 0.999373 0
-0.163485 0.227064 0.721789 -0.145669 0.989333 0
0.00896547 0.194433 0.761555 -0.00641484 -0.998832 0.0478841
-0.0190419 0.215711 0.552239 0 0 -1
-0.0997249 0.233895 0.764576 -0.0842179 0.995279 0.0482355
0.147541 0.229483 0.0158468 -0.0153338 -0.393855 0.919045
-0.0463383 0.11428 0.439317 -0.000252108 -0.163974 0.986465
-0.0877859 0.141025 0.439101 0.00130559 0.443003 0.896519
0.180314 0.210782 0.553038 0.0612719 0.206538 -0.976518
0.162412 -0.233588 0.411586 0.0607273 -0.996955 0.0489236
-0.226743 -0.220271 0.231353 0.135237 -0.990564 -0.0222177
0.224045 -0.203363 0.127828 -0.626672 0.778079 0.0433061
-0.107534 0.233611 0.592074 -0.0916931 0.995738 -0.00986512
-0.208653 0.183704 0.566628 -0.453223 -0.76566 -0.456458
-0.0740188 0.236257 0.641021 -0.0585116 0.998287 0
0.221504 -0.2146 0.166301 -0.929115 -0.36953 -0.0138805
0.109614 0.0234433 0.371393 0.0847329 0.0789751 -0.993269
-0.101151 0.234202 0.656191 -0.0842187 0.996447 0
-0.057106 0.224252 0.552864 -0.0109945 0.216472 -0.976227
-0.161847 0.184275 0.566082 0.132181 -0.966442 -0.220268
-0.214732 0.0675532 0.402877 -0.860911 0.00487866 -0.508733
-0.231861 0.105224 0.0134251 -0.626888 -0.001093 0.779109
-0.213579 0.0868692 0.401456 -0.745543 0.0177829 -0.66622
-0.0178799 0.238468 0.631487 -0.0195585 0.999809 0
0.182016 0.103243 0.441898 -0.0811365 -0.0850814 0.993065
-0.0383584 -0.0807297 0.364817 1.84066e-05 0.0124053 -0.999923
0.222275 0.192527 0.603191 -0.92513 0.379637 -0.0030856
-0.209795 -0.0994446 0.396784 -0.650459 0.00165673 -0.759539
-0.188779 0.222786 0.734916 -0.208521 0.978018 0
0.151136 0.228856 0.658474 0.130868 0.9914 0
0.223105 0.00377803 0.424777 -0.80525 0.0152525 0.592739
0.0724244 -0.0175477 0.366485 0.0358319 0.0431572 -0.998425
-0.0997833 0.190364 0.574255 0.0925841 -0.991939 -0.0865165
0.058089 0.0595151 0.374638 0.00466945 0.167559 -0.985851
-0.0115037 0.147421 0.420782 0.00140447 0.999999 0
-0.0224744 0.238378 0.603546 -0.0195585 0.999809 0
-0.0341316 0.198655 0.55777 0.0238793 -0.855658 -0.51699
-0.0047753 0.213947 0.789395 0 0 1
-0.220391 0.191596 0.674033 -0.964629 -0.263611 0
-0.0859657 -0.141706 0.419406 0.0804963 -0.013194 0.996668
0.0901202 0.213371 0.552239 0 0 -1
0.165543 0.182007 0.716719 -0.137263 -0.990535 0
-0.189927 -0.0297432 0.439134 0.197883 -0.0012483 0.980225
0.178997 0.224808 0.727919 0.16292 0.986639 0
0.0997666 0.232121 0.564128 0.0848631 0.971405 -0.221745
-0.218363 -0.00668364 0.424255 -0.999999 0.00127349 0
0.00770913 -0.162775 0.417866 -3.01544e-05 -0.0102317 0.999948
-0.131196 0.00169857 0.372682 -0.148009 0.0322398 -0.98846
0.0499228 -0.137158 0.363997 0.00739693 0.0141645 -0.999872
0.164636 -0.161648 0.378736 0.26052 0.00166704 -0.965467
-0.226576 -0.117626 0.00205831 0.142278 -0.0168398 -0.989683
0.0848435 -0.2264 0.369484 0.0776208 -0.375841 -0.923428
0.169832 0.049444 0.381475 0.213969 0.0442335 -0.975838
-0.122509 0.113505 0.386846 -0.0122235 0.277951 -0.960518
0.174589 0.146465 0.412896 0.0593366 0.989708 -0.130216
0.150919 0.0515202 0.432409 -0.149264 -0.0732247 0.986082
-0.0398485 0.00669647 0.367615 -0.00152942 0.0937425 -0.995595
-0.23101 -0.205179 0.195195 -0.393129 0.919247 0.0208422
0.0853372 0.190966 0.632246 -0.0802739 -0.996773 0
-0.0699828 0.236494 0.669729 -0.0585116 0.998287 0
-0.11371 -0.224832 0.372856 -0.161498 -0.380646 -0.910509
-0.137237 0.230489 0.684948 -0.116144 0.993232 0
0.108376 0.190674 0.775045 -0.0932802 -0.970765 0.221165
-0.0386181 0.127222 0.39161 0.000546284 0.386953 -0.922099
-0.217753 0.21373 0.000881609 0.102897 -0.0855347 -0.991008
-0.0674731 0.124492 0.390446 0.000544165 0.386279 -0.922382
0.12532 0.023925 0.427173 -0.118442 -0.0602932 0.991129
0.120336 -0.0366848 0.370126 0.149579 0.01335 -0.98866
0.090615 -0.0278101 0.421294 -0.0686837 -0.028273 0.997238
-0.21772 -0.180396 0.430745 -0.992052 -0.041545 0.118769
0.0188712 0.238465 0.636855 0.0134601 0.999909 0
-0.0205221 -0.136912 0.363953 4.70911e-05 0.0153368 -0.999882
0.2284 -0.213426 0.367939 0.143333 -0.952033 0.27035
0.124755 0.23198 0.692521 0.103819 0.994596 0
0.180604 0.180034 0.631299 -0.122157 -0.992511 0
0.11836 0.207039 0.789379 -0.00352036 -0.0341062 0.999412
0.00754273 0.236899 0.5666 0.00478558 0.973409 -0.229022
0.0799539 0.191357 0.738068 -0.0714877 -0.997441 0
-0.212317 0.181188 0.649455 -0.370914 -0.928667 0
-0.0537662 0.0888809 0.380325 0.00062726 0.210495 -0.977595
0.0475039 -0.140352 0.418179 -0.00894742 -0.0153922 0.999841
-0.0913554 -0.00217646 0.422454 0.060993 -0.0693934 0.995723
-0.0774626 0.0405808 0.426115 0.0161497 -0.134037 0.990845
0.208945 0.113824 0.399186 0.556212 0.137826 -0.819532
0.0504648 0.193937 0.769829 -0.0453749 -0.988757 0.142481
-0.222186 0.205612 0.721735 -0.991131 0.132887 0
-0.105303 0.0918914 0.435289 0.00972815 -0.190191 0.981699
-0.232505 0.0684764 0.00274532 -0.805122 0.00303209 -0.593101
0.00252732 0.0962632 0.382057 0.000692941 0.230882 -0.972981
0.0387938 0.126382 0.391309 0.000593995 0.386331 -0.92236
-0.0509541 0.237486 0.605871 -0.0427454 0.999086 0
0.0940657 -0.0496562 0.366876 0.0940165 0.0135316 -0.995479
-0.064197 -0.159026 0.363925 -0.0298614 0.0103904 -0.9995
0.185662 -0.130844 0.438183 -0.22508 0.000284512 0.97434
-0.0707303 -0.0850251 0.419464 0.040239 -0.0111868 0.999128
0.0824063 0.191903 0.573596 -0.0711109 -0.993698 -0.086651
0.132141 -0.0257098 0.426405 -0.160863 -0.0133287 0.986887
-0.233239 0.163563 0.443945 -0.927015 -0.304451 0.218981
0.210661 -0.197248 0.399491 0.755484 -0.0982988 -0.647751
0.217912 -0.0449952 0.432254 0.968255 -0.00236498 0.249954
0.0375931 0.23801 0.592691 0.030493 0.999503 -0.00803954
-0.022011 -0.239866 0.378156 -0.0171004 -0.948132 -0.317418
0.214678 -0.0896946 0.438093 0.746229 -0.000950308 0.665689
0.156561 -0.196697 0.430076 -0.2417 -0.064046 0.968235
-0.091933 -0.193752 0.365672 -0.0843364 -0.0270053 -0.996071
0.0691066 0.192076 0.656532 -0.0624179 -0.99805 0
0.0748925 -0.201408 0.417361 -0.0429011 -0.0642949 0.997008
-0.0890405 -0.173054 0.419281 0.0830793 -0.0140746 0.996444
-0.18134 -0.112774 0.437206 0.224717 -0.000260733 0.974424
-0.220633 0.192484 0.694588 -0.964629 -0.263611 0
-0.197114 -0.154466 0.389345 -0.390177 0.00213589 -0.920738
0.214737 -0.00692219 0.438171 0.748216 0 0.663456
-0.119615 -0.171707 0.423149 0.16816 -0.0120676 0.985686
-0.20384 0.179187 0.73079 -0.0655759 -0.997848 0
0.0287111 0.23827 0.724838 0.0219608 0.999759 0
0.103823 0.234026 0.672214 0.0878527 0.996133 0
-0.219902 -0.12836 0.419004 0.992184 0.0149359 -0.123884
-0.150795 -0.14655 0.429622 0.228445 -0.0035287 0.973551
-0.0492971 -0.167617 0.417841 0.00881897 -0.0138301 0.999865
0.171366 0.0668418 0.437072 -0.17944 -0.0776503 0.9807
-0.0160957 -0.194441 0.417138 -0.000286817 -0.0386656 0.999252
0.133236 -0.161638 0.425753 -0.20084 -0.00538554 0.979609
-0.102392 0.234098 0.724657 -0.0842187 0.996447 0
-0.217072 -0.0870559 0.40725 -0.934678 0.00119178 -0.355494
0.166398 0.226449 0.579291 0.147844 0.98782 -0.0485155
0.235537 -0.161498 0.413703 0.990738 -0.0469218 0.12742
-0.0955478 0.144568 0.404509 0.00241111 0.818663 -0.574269
-0.143346 0.0771078 0.434337 0.085263 -0.145761 0.985639
0.194 0.217598 0.0144887 -0.238678 -0.565041 0.789785
0.106745 0.0389618 0.427008 -0.04922 -0.108509 0.992876
-0.138278 0.0360737 0.375356 -0.125497 0.0786955 -0.988968
0.0393329 -0.115767 0.364298 0.0029973 0.0171667 -0.999848
-0.05611 0.192833 0.755218 0.0521255 -0.998332 0.0248142
-0.185286 0.179889 0.581019 0.097637 -0.993962 -0.0500693
-0.183484 0.138774 0.399871 -0.10703 0.648819 -0.753378
0.012436 0.0295148 0.424333 -0.000375303 -0.125393 0.992107
-0.0352004 0.238076 0.712371 -0.0255879 0.999673 0
0.15319 -0.0151887 0.376373 0.207669 0.00657021 -0.978177
-0.134512 0.186051 0.665062 0.116082 -0.99324 0
-0.186983 0.118531 0.443067 0.0339874 -0.00928885 0.999379
0.0360329 -0.241023 0.394178 0.0238857 -0.998682 0.0454193
0.106715 0.233771 0.722472 0.0878527 0.996133 0
0.0381767 0.232743 0.557378 0.0211474 0.719371 -0.694304
0.172165 0.225911 0.646062 0.147708 0.989031 0
-0.169778 0.182766 0.7731 0.12863 -0.981179 0.144023
0.0740645 -0.161854 0.418502 -0.0446092 -0.0104629 0.99895
-0.19883 0.220483 0.648214 -0.243017 0.970022 0
0.0760039 0.0137355 0.368728 0.0270498 0.0913813 -0.995449
0.147127 0.18455 0.669557 -0.127252 -0.99187 0
0.183524 0.0145175 0.43778 -0.214991 -0.00559286 0.9766
0.0255212 0.226703 0.0115454 -0.0122337 -0.919654 0.392538
0.175396 -0.062856 0.435773 -0.236361 0.000602373 0.971665
0.235699 -0.0717615 0.00943535 0.991429 0.0016739 0.130635
0.141573 0.19069 0.557249 -0.0920028 -0.719252 -0.68863
0.22651 -0.178039 0.41345 -0.139883 -0.518107 0.8438
0.164077 -0.211578 0.380868 0.265304 -0.156005 -0.95146
-0.176988 -0.0660878 0.436216 0.236392 -0.000301415 0.971658
-0.186837 0.0140036 0.385548 -0.336558 0.0039312 -0.941655
-0.0326606 0.234622 0.560367 -0.0253177 0.939433 -0.341796
-0.19762 -0.0542827 0.440437 0.1544 -0.000196626 0.988008
0.163801 0.227152 0.683152 0.134348 0.990934 0
0.0982153 0.227145 0.0136418 0 -0.794017 0.607895
0.136513 0.189597 0.781669 -0.103185 -0.849557 0.517307
0.204414 0.178293 0.717416 -0.0167321 -0.99986 0
-0.0646647 0.235767 0.770987 -0.0580333 0.987706 0.145151
-0.101467 0.190182 0.76709 0.0925842 -0.991939 0.0865165
-0.143474 -0.0534013 0.428391 0.202225 -0.0041344 0.97933
-0.184695 -0.12852 0.384644 -0.306327 0.00120472 -0.951926
-0.0416113 0.0936769 0.43547 -0.00029651 -0.197893 0.980224
0.158431 0.0333877 0.432663 -0.19637 -0.027511 0.980144
0.218396 0.181959 0.581718 0.552776 -0.825625 -0.113055
-0.102671 -0.167135 0.366507 -0.129315 0.00259398 -0.9916
-0.180762 0.224317 0.644061 -0.180038 0.98366 0
0.177604 0.112075 0.389877 0.132568 0.192271 -0.972346
-0.0195437 -0.0908318 0.364689 0 0.0135374 -0.999908
-0.102115 0.189505 0.750221 0.0929278 -0.995622 0.0100889
-0.22073 -0.209356 0.363155 0.92579 -0.3635 0.103827
0.212467 0.217088 0.745029 0.376176 0.926548 0
-0.108172 0.188939 0.591155 0.0995414 -0.994982 -0.0100803
-0.156916 -0.146874 0.376819 -0.241504 0.00351725 -0.970393
0.115734 0.235873 0.0154337 0.00312271 0.392612 0.919699
-0.13373 0.0752017 0.37906 -0.0764706 0.15526 -0.98491
0.0604897 -0.190157 0.363926 0.018538 -0.0269233 -0.999466
-0.216231 0.106316 0.432909 -0.968204 0.0839881 0.23564
0.230475 0.195631 0.678178 0.147252 0.987899 0.0487186
0.013658 -0.0511761 0.419376 -1.66811e-05 -0.0111458 0.999938
0.057939 0.192708 0.706851 -0.0547066 -0.998502 0
-0.0187526 0.194022 0.645024 0.0216043 -0.999767 0
0.00725119 0.237859 0.768123 0.00604673 0.99646 0.0838514
-0.143454 -0.233661 0.389277 -0.139185 -0.946349 -0.291636
-0.199832 -0.213871 0.394855 -0.507785 -0.340725 -0.79124
-0.0247607 -0.039067 0.419592 0 -0.0235909 0.999722
-0.178934 0.140307 0.439826 -0.0583019 0.507999 0.859382
-0.0141234 -0.157022 0.417925 -4.57584e-05 -0.0102207 0.999948
0.026478 -0.112062 0.418609 -2.63246e-05 -0.0171727 0.999853
0.221463 0.17394 0.0124442 -0.803519 -0.0230943 0.594831
0.221908 -0.208258 0.184183 -0.807517 0.589432 0.0220526
0.223121 0.15954 0.429648 -0.802422 0.30069 -0.515465
0.195365 -0.167138 0.440022 -0.155903 -0.00651961 0.987751
0.180293 -0.0467158 0.436956 -0.223844 0.000285062 0.974625
-0.228532 0.197218 0.586788 -0.136082 0.990665 -0.00806568
0.140162 0.230195 0.7527 0.119743 0.992752 0.0102902
0.225875 -0.0083906 0.412908 -0.398365 -0.0278085 -0.916805
0.134144 0.128179 0.441129 -0.0225556 -0.0553288 0.998213
-0.043139 0.211543 0.789352 0.00120781 -0.0344472 0.999406
0.218461 -0.142466 0.427638 0.999375 0 0.0353539
0.218877 0.206781 0.0160561 0.0947839 0.0943784 0.991014
0.209919 -0.0612801 0.440449 0.251865 -0.000614801 0.967762
0.0321509 0.193725 0.675785 -0.0306942 -0.999529 0
-0.0409469 0.0609219 0.374821 0.000252907 0.168784 -0.985653
0.118827 -0.222666 0.372888 0.179741 -0.238728 -0.954307
-0.124926 -0.0436751 0.370785 -0.169654 0.00880065 -0.985464
-0.159546 -0.221154 0.426682 0.202247 -0.396529 0.895467
-0.05441 -0.140192 0.41824 0.00889316 -0.0154102 0.999842
0.212347 -0.134065 0.399108 0.764933 -0.00186609 -0.644108
0.221449 0.104493 0.00707361 -0.992135 0.00206405 -0.125159
0.0581627 0.143827 0.436869 0.00200412 0.681474 0.731839
0.205096 0.0213621 0.441004 0.0396767 -0.00381732 0.999205
0.235569 -0.0507984 0.0103534 0.991364 0.000343485 0.131139
-0.148046 0.0220889 0.376143 -0.169719 0.033353 -0.984928
-0.217294 0.0307892 0.408773 -0.976648 0.00265876 -0.214828
-0.229703 -0.218788 0.185442 -0.400821 -0.915498 -0.0347214
0.0996351 -0.138851 0.4207 -0.104341 -0.0119096 0.99447
0.0233675 0.193937 0.629131 -0.0216858 -0.999765 0
0.110465 0.233417 0.609613 0.0954309 0.995436 0
-0.0593152 0.0724342 0.431204 0.0009288 -0.193293 0.981141
0.0749615 -0.239514 0.387973 0.0507126 -0.998713 0
-0.170354 0.226038 0.658014 -0.157498 0.987519 0
0.228542 0.0278207 0.0154049 -0.143111 0.00193264 0.989705
-0.13946 -0.131402 0.4272 0.196381 -0.00495396 0.980515
-0.22274 -0.192534 0.0214972 0.622845 -0.590464 -0.513241
0.0855189 0.0957851 0.382028 0.0033326 0.228126 -0.973626
-0.118972 0.147594 0.421307 0.0015384 0.999999 0
-0.217834 -0.0808228 0.431697 -0.968171 0.00112893 0.250285
-0.00510491 0.0832655 0.433363 -0.000300171 -0.199888 0.979819
-0.172041 0.107283 0.441358 0.112156 -0.102072 0.988434
0.23053 0.0682006 0.000290331 0.135692 0.00253435 -0.990748
-0.123113 0.0932306 0.435873 0.0221735 -0.179532 0.983502
0.221928 -0.0241521 0.417153 -0.925243 -0.0104284 -0.379233
-0.226691 -0.109005 0.0171026 0.142391 0.0165954 0.989671
0.185065 -0.100336 0.384757 0.306332 -0.000390086 -0.951925
0.0321411 0.206423 0.788722 -0.00616458 -0.212381 0.977167
-0.136402 0.0538674 0.430856 0.101843 -0.112929 0.98837
-0.0737347 -0.239251 0.385594 -0.0573778 -0.997155 -0.0488933
0.22682 0.2008 0.740536 0.999028 -0.0440762 0
-0.231594 -0.206483 0.0484387 -0.626072 -0.749912 -0.213695
0.230246 -0.00776895 0.000449321 0.143085 -0.00711377 -0.989685
0.0491265 -0.0440027 0.365279 0.00743167 0.0159908 -0.999844
0.0580064 0.13177 0.393807 0 0.467447 -0.884021
0.227893 -0.205974 0.278744 -0.142575 0.989573 -0.0204593
-0.228723 -0.0375369 0.428402 -0.136266 0.031137 0.990183
0.168836 -0.0992798 0.434147 -0.242121 -0.00218313 0.970244
0.216719 -0.118799 0.406036 0.935828 -0.00119332 -0.352456
0.177504 -0.00785227 0.436344 -0.229546 -0.000844679 0.973297
0.12403 -0.0913081 0.42458 -0.155381 -0.00722879 0.987828
0.0773462 -0.036548 0.366058 0.0375283 0.0222864 -0.999047
-0.130281 0.231294 0.740484 -0.108802 0.994063 0
-0.15025 -0.0748729 0.375525 -0.219898 0.0023857 -0.97552
-0.211666 0.216264 0.689244 -0.379954 0.925005 0
0.179002 0.180606 0.763553 -0.12289 -0.991273 0.0476985
0.158478 -0.152881 0.431454 -0.243502 -0.00211355 0.969898
-0.146739 0.00200059 0.429613 0.185068 -0.0187296 0.982547
0.0981708 0.189904 0.622503 -0.0865609 -0.996247 0
-0.230023 -0.184983 0.407556 -0.404745 -0.626725 0.66588
0.0103635 0.113987 0.386857 0.000405346 0.287334 -0.95783
-0.21849 -0.170932 0.416456 -0.999352 -0.00989715 -0.0346145
0.00721543 0.238587 0.72788 0.0060681 0.999982 0
0.145682 0.229527 0.589022 0.128234 0.991691 -0.0102759
0.234153 -0.10393 0.425724 0.804748 -0.0280405 0.592954
0.0224348 -0.00840614 0.420777 0 -0.059379 0.998236
0.0118658 0.194131 0.70955 -0.0152405 -0.999884 0
-0.136516 0.187274 0.567716 0.122112 -0.982381 -0.141476
0.0843244 0.0132782 0.42324 -0.0373723 -0.083891 0.995774
-0.147258 0.184416 0.633024 0.132628 -0.991166 0
0.101241 0.189638 0.722458 -0.0865609 -0.996247 0
0.112538 -0.236291 0.405717 0.0176846 -0.952417 0.304286
-0.232747 0.0456343 0.0123936 -0.805138 0.00240038 0.593083
0.210414 0.12879 0.407109 0.762581 0.493748 -0.417951
-0.0855504 -0.0644219 0.420379 0.0537903 -0.00755415 0.998524
0.0616303 0.237014 0.726057 0.0548722 0.998493 0
-0.0966607 0.189973 0.71867 0.0840661 -0.99646 0
0.0700219 -0.0632998 0.419651 -0.0253807 -0.00863806 0.999641
-0.0440514 0.236337 0.773682 -0.0351209 0.989173 0.142489
0.0559001 -0.223188 0.367061 0.0251771 -0.234163 -0.971871
-0.128885 0.231447 0.6395 -0.108802 0.994063 0
0.17724 0.224133 0.770361 0.161762 0.976413 0.143007
0.227084 0.18191 0.629437 -0.14798 -0.988725 -0.0228943
-0.0329004 -0.154355 0.363706 5.75332e-05 0.0128178 -0.999918
0.0384974 0.193658 0.757251 -0.0304997 -0.999275 0.0227871
-0.217043 -0.1148 0.434427 -0.899475 0.00114539 0.436972
0.0298134 0.223253 0.789119 0.00234844 0.105344 0.994433
-0.155916 -0.112245 0.430952 0.224356 -0.00370154 0.9745
-0.204854 0.218774 0.665373 -0.298743 0.954334 0
0.205206 -0.0516377 0.393411 0.536439 -0.00062551 -0.843939
0.153342 0.0907477 0.437306 -0.0948622 -0.152108 0.983801
-0.0734095 0.236293 0.738125 -0.0585116 0.998287 0
-0.00713863 -0.21477 0.365291 -0.000427876 -0.145277 -0.989391
-0.0935653 -0.00421326 0.368211 -0.0819589 0.0495546 -0.995403
-0.107865 0.188943 0.639401 0.0995465 -0.995033 0
0.127781 0.08939 0.435396 -0.0396869 -0.167629 0.985051
0.0403154 0.237936 0.695439 0.030494 0.999535 0
0.0443013 0.237782 0.626438 0.0390931 0.999236 0
0.170343 -0.119121 0.434503 -0.243303 -0.00204353 0.969948
-0.0852418 0.235092 0.577864 -0.0757114 0.995859 -0.0503251
-0.220923 -0.2018 0.0841748 0.930215 0.36421 0.0452981
-0.170649 0.216216 0.78757 -0.0814435 0.360218 0.929306
0.0201009 0.0600621 0.374692 0.000253447 0.168784 -0.985653
-0.012268 -0.0649663 0.419229 -1.47905e-05 -0.00987096 0.999951
0.218726 0.0542888 0.41406 0.993755 -0.00126553 -0.111578
0.0516962 -0.0269947 0.419973 -0.00757314 -0.0334767 0.999411
-0.0811379 -0.157811 0.418909 0.0625119 -0.0104614 0.997989
0.23311 -0.201613 0.0336482 0.633229 -0.688918 -0.352722
-0.22118 0.194935 0.658326 -0.977766 -0.209697 0
-0.220176 -0.213451 0.215602 0.991359 -0.131146 -0.00294813
0.00428837 0.194174 0.626042 -0.00512292 -0.999987 0
-0.199975 -0.125295 0.390696 -0.451223 0.000572508 -0.892411
0.0643083 0.194097 0.566373 -0.0544501 -0.973077 -0.223956
-0.190297 -0.0875336 0.386662 -0.34165 0.00206907 -0.939825
0.192635 0.222307 0.661731 0.211699 0.977335 0
-0.189522 0.199565 0.787652 -0.115354 -0.0217745 0.993086
0.0393511 -0.0165659 0.366084 0.0030044 0.0458091 -0.998946
0.116448 -0.0927479 0.369128 0.139283 0.00728839 -0.990226
0.0665554 0.210611 0.789357 -0.00184894 -0.0342372 0.999412
0.0101974 -0.0233142 0.365786 0 0.0335727 -0.999436
0.106229 0.133638 0.394837 0.00143104 0.464966 -0.885328
-0.231843 -0.218886 0.248289 -0.630071 -0.776527 -0.00404455
-0.230755 0.18065 0.536438 -0.636336 -0.767415 0.0784256
0.188454 0.179574 0.57741 -0.102226 -0.993598 -0.0480904
0.193003 0.178754 0.605485 -0.0675863 -0.997713 0
0.22665 -0.171777 0.00534647 -0.139422 -0.350441 -0.926149
0.158643 0.227827 0.751817 0.135575 0.990735 0.00798539
-0.145969 0.184588 0.680456 0.132628 -0.991166 0
0.0878977 -0.207653 0.366228 0.0867359 -0.0937273 -0.991812
-0.0233257 0.00510826 0.367484 0.000116792 0.0779949 -0.996954
0.0786576 0.235996 0.603662 0.0635235 0.99798 0
0.200314 -0.0171297 0.39076 0.451223 -0.00110416 -0.89241
0.0726717 0.0788943 0.432564 -0.00468227 -0.191103 0.981559
0.129483 -0.136271 0.425199 -0.182478 -0.00667973 0.983187
-0.100359 0.0863318 0.379967 -0.00589661 0.201357 -0.9795
0.200423 0.220568 0.711909 0.247481 0.968893 0
0.128747 0.103249 0.384331 0.0309325 0.240482 -0.970161
0.00921335 -0.152878 0.363727 -1.96806e-05 0.0127735 -0.999918
0.129029 -0.236045 0.403025 0.0592596 -0.997044 0.0489135
-0.0540925 -0.0235714 0.365853 -0.00738937 0.0334735 -0.999412
-0.160869 0.0868112 0.383453 -0.117622 0.134112 -0.983961
0.148696 0.184347 0.732131 -0.137842 -0.990454 0
0.174743 0.140769 0.439361 0.021212 0.507568 0.861351
-0.153284 -0.188107 0.376173 -0.232413 -0.0310675 -0.972121
-0.209428 0.217183 0.629266 -0.379954 0.925005 0
0.100834 -0.0845858 0.367228 0.0969197 0.00982026 -0.995244
0.153748 0.14715 0.423249 0.0015365 0.999999 0
-0.0750769 0.191631 0.716409 0.066213 -0.997806 0
0.0278561 -0.0585023 0.419295 -1.66812e-05 -0.0111458 0.999938
0.0283707 0.0341448 0.424922 0 -0.1257 0.992068
-0.0659913 0.192224 0.592911 0.0624943 -0.997995 -0.0100334
-0.148759 -0.0964784 0.429366 0.223561 -0.00390815 0.974682
-0.120777 0.232326 0.725015 -0.101323 0.994854 0
0.0904055 0.235136 0.632631 0.0781018 0.996945 0
0.195147 0.102575 0.391866 0.265763 0.121133 -0.956398
0.066345 0.235458 0.568964 0.0533525 0.988639 -0.140522
-0.0504023 -0.240365 0.385466 -0.0406698 -0.997814 -0.052097
0.019469 0.194015 0.647026 -0.0152405 -0.999884 0
0.0208103 -0.209256 0.364729 0.000817821 -0.0912178 -0.995831
0.152549 -0.100093 0.375946 0.222945 0.00306928 -0.974826
-0.067819 0.236621 0.606348 -0.0585116 0.998287 0
0.234391 -0.21768 0.246628 0.802111 -0.597166 -0.00331847
0.0850846 0.045564 0.427006 -0.0181733 -0.14494 0.989273
-0.223735 0.0202876 0.0145599 0.402729 0.000766017 0.915319
-0.186537 0.03936 0.438834 0.177864 -0.0212137 0.983826
-0.00813236 0.0658229 0.375712 0 0.18175 -0.983345
-0.0062381 0.00599906 0.421805 -0.000116551 -0.0778987 0.996961
-0.233817 -0.162445 0.0143157 -0.924249 0.0510602 0.378361
0.211058 -0.209826 0.432455 0.803827 -0.376592 0.460478
-0.128955 -0.0976429 0.42541 0.175128 -0.00623548 0.984526
-0.0357051 0.0110486 0.422273 -0.000140671 -0.0938592 0.995586
-0.0586494 -0.198267 0.364189 -0.0192052 -0.0544301 -0.998333
-0.157017 0.225225 0.00967082 0.0782338 -0.988421 0.130012
0.217973 -0.0692229 0.410095 0.975726 -0.00248666 -0.218979
-0.223881 0.15626 0.00112096 0.41016 0.00548658 -0.911997
-0.184974 0.0224974 0.438266 0.211255 -0.00751076 0.977402
0.229201 -0.178338 0.0264679 0.131656 0.62615 0.768507
-0.112245 -0.0646006 0.423028 0.133408 -0.00626407 0.991041
0.222201 0.160455 0.0114229 -0.927288 -0.000857884 0.374347
-0.0333727 0.193675 0.626793 0.0254997 -0.999675 0
0.0725331 -0.105336 0.364999 0.0418262 0.0148105 -0.999015
-0.0347342 0.193638 0.690091 0.0344241 -0.999407 0
-0.217084 0.00455319 0.407696 -0.935726 0.00228126 -0.35272
0.175982 0.225306 0.601631 0.16292 0.986639 0
0.226316 -0.0583546 0.428701 -0.400447 0.0140162 0.916213
0.0814429 -0.221924 0.414899 -0.0505353 -0.243178 0.968664
-0.0926794 0.234954 0.0159662 0.00209755 0.130309 0.991471
-0.226516 -0.0550322 0.42892 0.135666 0.0143485 0.990651
0.103425 -0.191709 0.420275 -0.127964 -0.0382556 0.991041
-0.0654713 0.236758 0.724067 -0.0585116 0.998287 0
-0.205886 -0.028066 0.440927 -0.0425121 5.41386e-05 0.999096
-0.146677 0.116751 0.440521 0.039706 -0.107702 0.99339
-0.138377 -0.0727278 0.427302 0.18791 -0.00387104 0.982179
-0.088883 -0.0401594 0.366651 -0.0714916 0.0211325 -0.997217
-0.222765 -0.0917255 0.0151816 0.627234 0.0174531 0.778635
0.145356 0.185521 0.768291 -0.128215 -0.987913 0.0871155
0.229252 -0.205813 0.228032 0.14264 0.98953 0.0220014
-0.0520066 0.143735 0.43712 0.00209244 0.681474 0.731839
-0.218512 -0.0986399 0.423351 -0.999999 0.00127502 0
-0.169453 -0.186985 0.380295 -0.261305 -0.0314879 -0.964743
0.212936 0.208327 0.00113601 -0.283931 -0.282214 -0.916372
-0.160568 0.227352 0.757757 -0.142767 0.989493 0.0228416
0.143875 -0.205705 0.426375 -0.214025 -0.102219 0.971465
-0.208555 -0.171878 0.440701 -0.253657 -0.00894984 0.967253
0.216764 0.112638 0.413061 0.983249 0.149563 -0.104176
-0.00546212 0.194175 0.685064 0.00131084 -0.999999 0
0.0895577 0.190626 0.596422 -0.0802739 -0.996773 0
0.189518 -0.225494 0.395719 0.390412 -0.687385 -0.612438
-0.177345 0.224923 0.694149 -0.157498 0.987519 0
0.235802 0.00360182 0.418694 0.991469 -0.0045548 -0.130267
-0.0061999 -0.241434 0.3861 -0.0058743 -0.998422 -0.055844
-0.176151 -0.115359 0.382006 -0.279322 0.00032409 -0.960197
-0.224858 0.168165 0.466255 0.140166 -0.963452 0.228286
0.0678645 0.11271 0.439095 -0.000233712 -0.165668 0.986182
0.221568 0.18869 0.563365 -0.990004 0.140897 -0.00624072
-0.0388956 0.237953 0.640201 -0.0353963 0.999373 0
0.114607 -0.0127543 0.369856 0.119059 0.0405652 -0.992058
0.0411509 0.193435 0.658892 -0.0367722 -0.999324 0
0.226769 0.200782 0.591848 0.998689 -0.0440612 -0.0260642
0.0967482 0.22542 0.787538 0.0291607 0.369042 0.928955
-0.0970036 0.227766 0.785824 -0.0604128 0.720204 0.691127
0.194236 0.191997 0.787079 0.170667 -0.135586 0.975956
0.135636 0.185995 0.594934 -0.119847 -0.992792 0
0.134713 0.230879 0.660965 0.111154 0.993803 0
-0.175742 -0.00196432 0.436036 0.229214 -0.00417848 0.973367
0.00946892 0.0784729 0.378145 0.000584444 0.19496 -0.980811
0.231341 0.0765358 0.41203 0.40363 0.0110772 -0.914855
0.0297813 -0.0212699 0.420128 -6.86679e-05 -0.0458128 0.99895
-0.0368949 -0.236926 0.373815 -0.0181411 -0.711641 -0.702309
-0.195472 0.179006 0.677939 0.0130898 -0.999914 0
-0.234032 0.187538 0.552132 -0.991399 -0.130728 0.00610778
0.229497 0.175337 0.442214 0.138771 0.806746 -0.574373
0.121409 -0.0524019 0.370135 0.150719 0.00570979 -0.98856
-0.0820783 0.191148 0.659439 0.0765766 -0.997064 0
0.022086 -0.0576604 0.365055 1.6731e-05 0.0111458 -0.999938
-0.197517 0.131676 0.399116 -0.326171 0.436875 -0.838304
-0.217181 -0.136995 0.407312 -0.934673 0.0011903 -0.355505
0.142777 0.185108 0.610121 -0.127252 -0.99187 0
-0.120569 -0.137681 0.369361 -0.163822 0.00973847 -0.986442
-0.171434 0.181185 0.671759 0.119317 -0.992856 0
0.101834 -0.0740071 0.421671 -0.116076 -0.00722484 0.993214
-0.146271 0.14759 0.425636 0.00153748 0.999104 0.0422897
0.167221 0.22272 0.559646 0.128952 0.848766 -0.512804
-0.0305998 0.199469 0.78473 0.0200218 -0.717436 0.696337
-0.0723768 0.194045 0.564273 0.0658363 -0.972934 -0.221506
-0.188823 0.179371 0.645222 0.0675958 -0.997713 0
0.0520465 -0.0770197 0.364928 0.00900602 0.00865907 -0.999922
-0.220637 0.0498235 0.422665 0.805036 -0.00911487 0.593155
-0.161555 -0.0657492 0.378186 -0.234261 0.00173203 -0.972172
0.159731 0.182812 0.612592 -0.137263 -0.990535 0
-0.103558 -0.0508684 0.367825 -0.112813 0.00879384 -0.993577
-0.221666 -0.212956 0.115545 0.802743 -0.595385 -0.0334636
-0.0217969 0.235353 0.77996 -0.0172362 0.939258 0.342779
0.0535168 0.0867999 0.379917 0.00031615 0.211001 -0.977486
0.0201102 -0.11447 0.364319 -2.64478e-05 0.0171759 -0.999852
-0.225653 0.184596 0.0154989 0.39821 0.0741227 0.914295
-0.08332 0.0262605 0.424488 0.0308404 -0.118261 0.992504
0.220155 0.197343 0.775449 0.773518 -0.166855 0.611416
0.220971 -0.21415 0.305307 -0.992211 -0.124393 0.00660931
0.0511461 0.0970175 0.436176 -0.000588962 -0.197647 0.980273
0.0934385 0.059864 0.375106 0.0167865 0.154646 -0.987827
-0.092529 0.190322 0.690087 0.0840661 -0.99646 0
0.143861 0.0623043 0.37825 0.111195 0.102801 -0.988467
-0.0469746 0.195076 0.565671 0.0434095 -0.973661 -0.223831
-0.232445 0.0223124 0.41411 -0.807022 -0.0125336 -0.590389
0.169418 -0.0431171 0.380147 0.251472 0.000910786 -0.967864
0.179053 0.224799 0.69142 0.16292 0.986639 0
0.0960643 -0.193382 0.366081 0.109385 -0.0287623 -0.993583
-0.232262 -0.182138 0.392537 -0.630429 0.594778 -0.498798
-0.0345135 -0.188004 0.41738 -0.000520738 -0.038713 0.99925
0.108439 0.188962 0.736101 -0.0956369 -0.995416 0
0.166608 0.232467 0.0156897 0.0397311 0.392007 0.919104
-0.161704 0.145671 0.406762 -3.22245e-05 0.905028 -0.425352
-0.094423 -0.149861 0.365756 -0.105436 0.0119878 -0.994354
-0.219563 0.201958 0.769362 -0.958726 -0.0452301 0.28071
-0.20288 0.215953 0.00581492 0.36351 -0.846075 -0.389895
-0.222115 -0.217814 0.297057 0.804492 -0.593845 0.0118936
0.121115 0.23236 0.727675 0.103819 0.994596 0
0.223346 -0.100676 0.0149001 -0.630051 0.0194491 0.776311
-0.218533 -0.146607 0.426338 -0.999374 0.0012726 0.0353626
-0.10505 0.233418 0.576922 -0.0927283 0.994527 -0.0481474
-0.145735 0.18462 0.744913 0.132628 -0.991166 0
-0.15748 0.102121 0.439314 0.100053 -0.135093 0.985768
-0.118936 0.129809 0.392686 -0.00557331 0.381735 -0.924255
0.0420297 0.237871 0.742172 0.0390931 0.999236 0
0.176325 -0.231827 0.417798 0.0923599 -0.986032 0.138601
0.221912 -0.193347 0.382097 -0.802632 0.488483 -0.342296
0.0659409 -0.157467 0.363997 0.0298554 0.0102792 -0.999501
-0.0363846 -0.159367 0.4179 -4.61357e-05 -0.0102788 0.999947
0.14319 0.107572 0.439149 -0.0506564 -0.149057 0.98753
0.185179 0.223736 0.713942 0.182591 0.983189 0
0.0680939 0.236025 0.0154644 0.00512527 0.392433 0.919766
0.0377347 -0.161342 0.417881 3.15515e-05 -0.0102668 0.999947
-0.222126 0.206063 0.701212 -0.991131 0.132887 0
-0.232388 -0.00942992 0.425348 -0.80519 0.0200831 0.592677
0.213806 -0.02837 0.400647 0.763336 -0.000970904 -0.646
-0.0466235 0.237577 0.755812 -0.0427344 0.998829 0.0226883
-0.106444 -0.112725 0.367581 -0.120227 0.0111078 -0.992684
0.226171 -0.081587 0.414424 -0.402631 -0.0128588 -0.915272
0.222275 -0.217621 0.219486 -0.802078 -0.597069 -0.0134146
-0.190043 -0.224161 0.430205 -0.0396413 -0.741738 0.669518
-0.131348 0.186421 0.724447 0.116082 -0.99324 0
0.227945 -0.0373742 0.000534431 -0.136482 -0.0138251 -0.990546
0.151214 -0.233995 0.392815 0.104212 -0.984832 -0.138732
-0.218211 0.0829876 0.419672 -0.999866 0.0163985 0
0.189164 -0.0376459 0.386179 0.341101 0 -0.940027
0.226317 0.14818 0.000874859 -0.403211 0.00659662 -0.915083
0.198092 0.201298 0.554608 0.186262 -0.0365709 -0.981819
0.224647 -0.21312 0.0856525 -0.400072 -0.913025 -0.0795414
-0.0908147 0.0532251 0.373969 -0.0230188 0.143814 -0.989337
-0.0118582 0.238543 0.617535 -0.0110733 0.999939 0
-0.148447 0.228703 0.577518 -0.123389 0.991092 -0.0501186
-0.0733836 -0.0543057 0.419881 0.0403817 -0.0112008 0.999122
-0.234744 -0.21191 0.20912 -0.991276 0.131769 0.00303766
0.218743 0.0850429 0.414255 0.994436 0.00999165 -0.104866
-0.102643 -0.224156 0.415861 0.0993521 -0.384777 0.917647
0.228753 -0.218492 0.149776 0.142179 -0.988288 -0.0554231
0.235841 0.13904 0.425055 0.927601 0.0997749 -0.360001
-0.22458 -0.201667 0.350503 0.397265 0.907117 -0.13899
-0.119074 0.0716063 0.377688 -0.0424759 0.150833 -0.987646
-0.175104 0.225004 0.761329 -0.159017 0.986124 0.047677
-0.221516 -0.201814 0.0381467 0.810963 -0.562636 -0.160559
0.054283 -0.0601104 0.419356 -0.00745265 -0.00870656 0.999934
0.0753744 0.219801 0.552368 0.00670512 0.105838 -0.994361
-0.157072 -0.198356 0.430007 0.242004 -0.0648211 0.968108
-0.177949 0.237883 0.0118044 -0.190974 0.901234 0.388981
-0.0476424 -0.0129831 0.420522 0.00735213 -0.0459372 0.998917
0.0153066 0.194357 0.580208 -0.0139353 -0.998759 -0.0478064
-0.0329115 0.114072 0.386858 0.000442801 0.287732 -0.957711
0.0338034 0.236751 0.773367 0.0315206 0.989989 0.137577
-0.0718907 -0.0354632 0.365884 -0.0372467 0.0222938 -0.999057
-0.231126 0.128591 0.431172 -0.627711 -0.156953 0.762459
0.233165 0.180392 0.538739 0.620282 -0.780364 0.0792592
-0.124491 0.0351135 0.373692 -0.0769669 0.0886535 -0.993084
0.171292 0.181227 0.702821 -0.13379 -0.99101 0
-0.231388 0.136764 0.0139306 -0.626898 -0.00404609 0.779091
0.156052 0.228203 0.619331 0.134348 0.990934 0
-0.141644 -0.133317 0.373388 -0.21214 0.00617957 -0.97722
-0.232689 -0.215261 0.14572 -0.800723 -0.598067 -0.0340322
0.0854263 0.0646989 0.430025 -0.00883107 -0.173542 0.984787
0.221684 0.0160071 0.416778 -0.925226 -0.0073403 -0.379345
-0.00445479 -0.178389 0.36355 -3.64476e-05 -0.00814104 -0.999967
0.0650306 0.0726064 0.377041 0.00469715 0.192541 -0.981278
0.0286987 -0.126917 0.418368 0 -0.016699 0.999861
0.192998 0.178754 0.642627 -0.0675863 -0.997713 0
-0.00702474 -0.235209 0.371645 -0.00238138 -0.531114 -0.847297
-0.057719 -0.0685955 0.419333 0.0149552 -0.0100084 0.999838
0.00766024 0.0582055 0.42862 -0.000505577 -0.168681 0.985671
-0.110237 0.00532926 0.370196 -0.104058 0.0531298 -0.993151
0.161271 0.182599 0.745771 -0.137263 -0.990535 0
-0.192651 0.114448 0.393065 -0.265303 0.158179 -0.951101
-0.0228589 -0.12889 0.418334 -5.12787e-05 -0.0167007 0.99986
0.0250911 0.23835 0.691772 0.0219608 0.999759 0
0.0689585 0.19583 0.781771 -0.0532671 -0.853919 0.517673
0.162671 -0.0396827 0.432679 -0.231524 -0.00210542 0.972827
0.0376268 -0.143736 0.363849 2.16584e-05 0.0153741 -0.999882
-0.126641 0.116416 0.439881 0.0205257 -0.152363 0.988111
0.193784 0.13713 0.439703 0.203747 0.506219 0.837991
-0.206312 0.036231 0.440986 -0.0477561 -0.00858031 0.998822
0.108051 0.0625763 0.375905 0.0293473 0.158068 -0.986992
-0.121889 0.240986 0.0102187 0.0101289 0.991402 0.130456
0.0465646 0.193236 0.716402 -0.0367722 -0.999324 0
0.0914814 0.190471 0.69499 -0.0802739 -0.996773 0
-0.0156529 0.194216 0.758461 0.011441 -0.999678 0.0226436
0.093678 0.0403836 0.372307 0.0285353 0.123261 -0.991964
-0.087987 0.192038 0.773014 0.0755984 -0.98684 0.142941
-0.221604 0.0358452 0.0128967 0.805142 -0.000500333 0.593082
-0.156152 0.0523408 0.379093 -0.186362 0.0638171 -0.980406
-0.156854 0.18312 0.621789 0.135796 -0.990737 0
0.22095 -0.2073 0.106337 -0.991398 0.130396 0.0112567
-0.108757 -0.0165555 0.423327 0.101086 -0.0310735 0.994392
-0.219628 0.185353 0.50417 0.991369 0.129008 -0.0233147
-0.161087 0.11792 0.389635 -0.064711 0.290934 -0.954552
-0.10045 -0.138974 0.420778 0.104129 -0.0121687 0.994489
0.112794 -0.108079 0.422719 -0.140755 -0.0105891 0.989988
-0.22067 0.112427 0.011914 0.805129 -0.00303435 0.593092
-0.0220166 -0.00959361 0.366444 9.08477e-05 0.0607204 -0.998155
-0.21574 -0.199594 0.426174 -0.969598 -0.242022 0.0361199
0.235624 -0.0249328 0.00609151 0.991461 -0.00251249 -0.130377
-0.0657361 -0.22905 0.411966 0.0106969 -0.379003 0.925333
-0.231517 -0.21928 0.272331 -0.623867 -0.781518 -0.00447109
0.0867542 0.230191 0.557427 0.0513345 0.7194 -0.692696
-0.0789941 -0.108561 0.365235 -0.0582562 0.0159811 -0.998174
-0.233634 -0.21502 0.170729 -0.807359 -0.589638 -0.0223195
-0.18934 0.222652 0.749655 -0.208514 0.977986 0.00812379
0.224128 0.113741 0.42818 -0.624994 -0.0818343 0.776328
-0.149375 -0.170539 0.374965 -0.231546 -0.0009182 -0.972823
-0.220496 0.191983 0.615442 -0.964629 -0.263611 0
-0.18889 -0.166256 0.386075 -0.343043 -0.00304784 -0.939315
-0.214014 -0.0100722 0.401342 -0.766316 0.000894671 -0.642463
0.0234613 0.204528 0.553554 -0.00833418 -0.365585 -0.930741
-0.222066 -0.133849 0.00435685 0.626889 0.000178896 -0.779109
-0.167077 0.181749 0.746588 0.129838 -0.991535 0
-0.0439533 0.147049 0.412329 0 0.991749 -0.128197
-0.18895 0.0560145 0.387024 -0.314588 0.0321272 -0.948685
-0.088098 -0.0584001 0.366361 -0.0730724 0.0100301 -0.997276
-0.102032 0.143771 0.43717 0.000961771 0.681646 0.731682
-0.191852 0.0834391 0.441545 0.100626 -0.0607672 0.993067
0.0367457 0.120128 0.440166 -0.000197703 -0.128585 0.991699
0.0574892 0.207771 0.552511 -0.00490809 -0.105556 -0.994401
0.143472 0.229843 0.720463 0.118546 0.992949 0
-0.230914 0.0894974 0.426008 -0.626521 -0.0811518 0.775168
-0.15751 -0.0346549 0.377293 -0.230436 0.00388653 -0.97308
-0.0640056 0.192339 0.703659 0.0624974 -0.998045 0
-0.0714805 0.146737 0.431637 0.00427442 0.954756 0.297361
0.0620669 -0.231096 0.411081 0.0053069 -0.544249 0.838907
0.190511 0.178948 0.619846 -0.103628 -0.994616 0
0.0843988 -0.0655863 0.420298 -0.0537432 -0.00728765 0.998528
0.105895 0.134958 0.440818 -0.000856563 0.211036 0.977478
-0.123018 -0.210927 0.421567 0.161185 -0.159359 0.973973
0.235287 -0.201242 0.0626061 0.925543 0.373212 0.0638947
-0.00244018 0.238183 0.577111 0 0.998963 -0.0455267
0.0216871 0.238425 0.712029 0.0219608 0.999759 0
0.191275 -0.123041 0.386971 0.344095 0.00118986 -0.938934
0.0474099 -0.0919887 0.364698 0.00899806 0.0149286 -0.999848
-0.201904 0.219697 0.596316 -0.298743 0.954334 0
-0.22677 -0.201049 0.123264 0.142676 0.988203 0.0556623
-0.0770819 0.2358 0.0155822 0.00631931 0.392424 0.919763
-0.226319 -0.0584761 0.000883627 0.135647 -0.0142848 -0.990654
-0.094033 -0.224264 0.369652 -0.119077 -0.239303 -0.963615
