0.0957467 -0.170275 0.34875 -9.84635e-05 0.138941 0.990301
0.0780763 -0.185608 0.317317 0.000105496 -0.149098 -0.988822
0.237851 0.218327 0.338038 -0.000668933 0.943649 -0.330947
0.135588 -0.27466 0.316511 -0.000109491 0.154148 -0.988048
-0.167874 0.0253856 0.268007 0.000165497 -0.23357 -0.97234
-0.196795 0.04909 0.313523 -9.6781e-05 0.136468 0.990644
0.196728 0.233795 0.459606 -0.000704087 0.995899 -0.0904652
0.201311 -0.0115377 0.323223 -0.000114825 0.161912 0.986805
0.04289 -0.216999 0.321232 -1.32221e-05 0.0186869 -0.999825
-0.128898 0.160627 0.342763 0.00061763 -0.873608 0.48663
-0.258289 -0.120564 0.341058 -0.000114742 0.161912 0.986805
-0.188603 0.14458 0.325892 0.00048333 -0.683676 0.729786
0.173017 -0.0886001 0.335864 -0.000114825 0.161912 0.986805
0.211779 -0.0555883 0.273666 -0.948916 -0.289606 0.125244
-0.230358 0.195293 0.480425 0.000655623 -0.927348 0.374201
-0.141479 0.248459 0.522451 -0.00065782 0.930456 -0.366402
0.0750147 0.0497301 0.313461 -9.6781e-05 0.136468 0.990644
0.229081 0.0549477 0.230754 0.490823 -0.145937 -0.85895
0.213888 0.103928 0.235004 -0.490829 -0.0380923 0.870423
0.0421535 -0.184615 0.317164 0.000105495 -0.149098 -0.988822
0.0620179 -0.208302 0.351042 -4.94294e-06 0.00697522 0.999976
-0.106809 -0.210423 0.351056 -4.93545e-06 0.00697531 0.999976
-0.24611 0.232495 0.557667 0.000609256 -0.86176 0.507316
0.244299 0.22798 0.395222 -0.000704087 0.995899 -0.0904652
-0.187883 0.267558 0.614022 0.00058605 -0.82894 0.559338
0.159803 -0.168358 0.348487 -9.84635e-05 0.138941 0.990301
-0.162727 0.173728 0.375992 0.000681195 -0.963559 0.267495
0.111094 0.188249 0.459047 0.00068218 -0.964912 0.262571
-0.144584 0.00578716 0.272719 0.000165497 -0.23357 -0.97234
0.241533 -0.122271 0.303715 0.000166287 -0.235016 -0.971991
-0.255635 -0.109702 0.300591 0.000167045 -0.235019 -0.971991
0.235059 0.221562 0.347268 -0.000668933 0.943649 -0.330947
0.206278 0.119138 0.258829 -0.000148186 0.208953 -0.977926
-0.00118357 0.183025 0.440143 0.000682154 -0.964912 0.262571
-0.248816 0.218076 0.031417 -0.420283 -0.869719 -0.258751
0.153121 0.225519 0.37297 -0.000701753 0.992597 -0.121453
-0.210885 -0.100004 0.337691 -0.000114742 0.161912 0.986805
0.264223 0.164653 0.345801 1 0.000690682 -4.97822e-05
0.136089 0.0139217 0.270813 0.000166017 -0.233574 -0.972339
-0.235217 0.163838 0.348662 0.00061763 -0.873608 0.48663
0.154762 0.0560408 0.260698 0.000165497 -0.23357 -0.97234
-0.20373 0.285666 0.624389 -0.000162429 0.229125 0.973397
0.229662 -0.104512 0.266959 0.855446 0.100844 -0.507978
0.224804 -0.0920617 0.296408 0.000166287 -0.235016 -0.971991
-0.225352 0.25935 0.601898 0.00058605 -0.82894 0.559338
-0.101401 -0.0796148 0.334358 -0.000114742 0.161912 0.986805
0.189187 0.278016 0.58164 -0.000628145 0.888483 -0.458909
-0.0591783 -0.228293 0.351181 -4.93545e-06 0.00697531 0.999976
0.000945985 0.263939 0.554644 -0.000628145 0.888483 -0.458909
0.0413614 -0.0261168 0.280431 0.000167045 -0.235019 -0.971991
0.21637 0.182336 0.435473 0.000701152 -0.991785 0.127917
0.0717205 -0.0253696 0.280256 0.000167045 -0.235019 -0.971991
0.20993 -0.0855434 0.271816 -0.490541 0.0301151 0.870897
0.167067 0.185982 0.450572 0.00068218 -0.964912 0.262571
-0.183039 -0.212361 0.351069 -4.93545e-06 0.00697531 0.999976
-0.266549 0.134328 0.263666 -0.989473 0.091143 0.112413
0.0108096 0.0355914 0.315468 -0.000114825 0.161912 0.986805
0.246812 -0.228912 0.351187 -4.93545e-06 0.00697531 0.999976
-0.147039 -0.115118 0.340178 -0.000114742 0.161912 0.986805
0.058211 0.245291 0.579039 0.000609256 -0.86176 0.507316
-0.124339 0.069745 0.237004 0.330583 0.0668686 0.941405
-0.203653 -0.0562881 0.284853 0.055778 0.269594 0.961357
0.21801 0.288317 0.601543 -0.000628096 0.888483 -0.458909
-0.103957 0.0797736 0.22226 -0.331334 -0.06636 -0.941177
-0.179921 -0.238763 0.349919 0.000112785 -0.159187 0.987248
0.25923 0.228943 0.550453 0.000625509 -0.884752 0.466061
0.2506 -0.155767 0.311815 0.000166287 -0.235016 -0.971991
-0.0738776 0.0812458 0.309105 -9.68477e-05 0.136468 0.990645
-0.263392 0.186083 0.310208 -1 -0.000721327 -4.84758e-06
0.08393 0.285265 0.624531 -0.000162008 0.229152 0.973391
0.0504572 0.144371 0.265659 -0.000311477 0.438658 -0.898654
0.0380465 -0.132019 0.342972 -0.000114742 0.161912 0.986805
-0.0323101 0.266408 0.559469 -0.000628145 0.888483 -0.458909
0.105387 0.200011 0.491527 0.000655598 -0.927348 0.3742
-0.164995 -0.163187 0.347729 -9.846e-05 0.138941 0.990301
-0.0850827 -0.173131 0.315419 0.000105495 -0.149098 -0.988822
-0.00256908 0.198363 0.487633 0.000655623 -0.927348 0.374201
0.0301369 0.195379 0.300131 -0.000498023 0.702579 -0.711606
0.144512 0.0272542 0.267612 0.000166017 -0.233574 -0.972339
-0.139678 0.245042 0.578853 0.000609256 -0.86176 0.507316
-0.0566362 -0.192575 0.350932 -4.94294e-06 0.00697522 0.999976
-0.276536 -0.0892544 0.314138 -0.997845 0.047726 0.0450201
0.244445 -0.262227 0.318438 -0.000109491 0.154148 -0.988048
-0.216276 -0.127903 0.247897 0.11557 0.841446 -0.527837
0.122999 0.167817 0.35535 0.000617605 -0.873608 0.486629
0.137261 0.286597 0.624227 -0.000162008 0.229152 0.973391
-0.220016 0.0956587 0.237644 -0.0636439 -0.019674 0.997779
0.0287692 -0.216065 0.32125 -1.32221e-05 0.0186869 -0.999825
0.215518 -0.107853 0.272354 -0.286374 -0.162374 0.944259
-0.021593 -0.0548792 0.330309 -0.000114742 0.161912 0.986805
-0.137913 0.0936411 0.307392 -9.68477e-05 0.136468 0.990645
0.135547 -0.0147116 0.277691 0.000166017 -0.233574 -0.972339
-0.243432 -0.0507334 0.27891 -0.0583741 -0.269509 -0.961227
-0.0294764 0.0843149 0.215292 0.121696 0.0701628 0.990084
-0.248243 0.0156278 0.270337 0.000165497 -0.23357 -0.97234
-0.24904 -0.0590361 0.281579 -0.0583741 -0.269509 -0.961227
-0.165188 0.209707 0.319838 -0.000596586 0.841591 -0.540115
0.195173 0.23264 0.446898 -0.000704087 0.995899 -0.0904652
-0.0271651 -0.0248904 0.325388 -0.000114825 0.161912 0.986805
0.0399641 0.00849018 0.319918 -0.000114825 0.161912 0.986805
-0.170231 0.263236 0.607599 0.00058605 -0.82894 0.559338
-0.162553 0.0616791 0.259364 0.000113833 -0.160659 -0.98701
-0.263403 0.203112 0.382972 -1 -0.000713362 -1.13237e-05
0.0820663 0.233522 0.457497 -0.000705972 0.9959 -0.0904544
-0.221326 0.237412 0.488912 -0.000696195 0.982109 -0.188313
0.0544016 -0.0511921 0.244125 -0.000849431 0.9629 -0.269857
0.269001 0.130494 0.267587 1 0.000706884 7.23849e-06
0.18991 0.163031 0.346675 0.000617605 -0.873608 0.486629
-0.169407 0.054365 0.312799 -9.6781e-05 0.136468 0.990644
0.122114 0.0829099 0.308895 -9.68477e-05 0.136468 0.990645
0.264155 0.260833 0.601452 1 0.000722025 -3.84127e-05
-0.248427 0.237661 0.0045848 -0.107917 0.330724 -0.937537
0.223418 -0.193264 0.318487 0.000105496 -0.149098 -0.988822
-0.00290337 0.128293 0.260817 -0.000148373 0.208956 -0.977925
-0.175541 0.172117 0.280271 -0.000404742 0.571504 -0.820599
0.0544635 0.291187 0.610028 -0.000686944 0.971727 -0.236107
-0.277982 -0.203023 0.351004 -4.93545e-06 0.00697531 0.999976
0.156872 0.250716 0.527647 -0.00065782 0.930456 -0.366402
-0.242744 0.0714251 0.251419 -0.0584425 -0.0705201 -0.995797
-0.0595735 -0.129253 0.342507 -0.000114742 0.161912 0.986805
0.179225 0.113055 0.257533 -0.000148186 0.208953 -0.977926
-0.0453338 0.115864 0.310281 0.000274323 -0.387365 0.921926
0.215125 -0.065699 0.332112 -0.000114825 0.161912 0.986805
-0.0894338 -0.0698188 0.290976 0.000167045 -0.235019 -0.971991
-0.259675 0.177014 0.396818 0.00070115 -0.991785 0.127917
-0.171629 0.230071 0.421483 -0.000705972 0.9959 -0.0904544
0.0794027 0.231896 0.439611 -0.000704087 0.995899 -0.0904652
0.15388 0.0687388 0.238533 0.303686 -0.0670474 -0.95041
-0.119317 0.228321 0.401807 -0.000704087 0.995899 -0.0904652
-0.199808 -0.0140144 0.323583 -0.000114742 0.161912 0.986805
-0.19618 0.266643 0.612675 0.00058605 -0.82894 0.559338
-0.139824 -0.0844852 0.294513 0.000167045 -0.235019 -0.971991
-0.191389 -0.193552 0.350938 -4.93545e-06 0.00697531 0.999976
0.0591686 0.164443 0.349376 0.000617605 -0.873608 0.486629
-0.238813 0.219359 0.0246769 0.138929 -0.928698 -0.34383
0.150095 -0.241778 0.320768 -1.32405e-05 0.0186872 -0.999825
-0.257126 0.288832 0.623504 -0.000634693 0.897744 0.440518
0.11955 0.224813 0.367395 -0.000701753 0.992597 -0.121453
0.156886 -0.207074 0.351034 -4.94294e-06 0.00697522 0.999976
-0.148266 -0.24243 0.320759 -1.32405e-05 0.0186872 -0.999825
-0.100811 0.04709 0.313808 -9.6781e-05 0.136468 0.990644
0.225923 -0.167923 0.173843 -0.210161 -0.934133 0.288491
0.131908 -0.0378118 0.327526 -0.000114825 0.161912 0.986805
-0.0811243 0.228105 0.399129 -0.000704087 0.995899 -0.0904652
0.218325 0.0852155 0.233744 0.0869392 -0.101015 -0.991079
0.253962 0.220571 0.534566 0.000625509 -0.884752 0.466061
-0.238891 0.0692129 0.25284 0.000800401 -0.997468 0.0711105
0.0395785 -0.138828 0.307683 0.000166287 -0.235016 -0.971991
-0.0119686 -0.0233091 0.32513 -0.000114825 0.161912 0.986805
-0.142314 -0.140823 0.308135 0.000166287 -0.235016 -0.971991
0.139011 0.120495 0.259129 -0.000148186 0.208953 -0.977926
0.242681 -0.19092 0.0687737 0.208403 0.93444 -0.288774
-0.203861 0.00946914 0.271824 0.000165497 -0.23357 -0.97234
0.0135078 -0.0165411 0.278111 0.000167045 -0.235019 -0.971991
0.198915 -0.1065 0.338804 -0.000114825 0.161912 0.986805
0.231907 0.103808 0.256714 -1.10576e-05 0.0156062 -0.999878
-0.223549 0.0607692 0.311911 -9.6781e-05 0.136468 0.990644
0.119822 0.0775635 0.233857 -0.303483 0.0670068 0.950478
0.10913 -0.177433 0.316088 0.000105495 -0.149098 -0.988822
-0.235618 0.122886 0.259697 -0.000148373 0.208956 -0.977925
-0.208287 0.136416 0.3206 0.000377694 -0.53475 0.84501
0.14588 0.0611199 0.25949 0.000113833 -0.160659 -0.98701
-0.234944 0.192136 0.297115 -0.000498023 0.702579 -0.711606
0.162493 0.0145039 0.270678 0.000166017 -0.233574 -0.972339
-0.0655665 -0.203161 0.319949 0.000105496 -0.149098 -0.988822
0.280833 -0.141873 0.344618 -0.000114825 0.161912 0.986805
-0.212738 0.26927 0.565258 -0.000628096 0.888483 -0.458909
-0.0389153 -0.259304 0.346282 0.000213913 -0.301921 0.953333
0.280097 -0.191159 0.318176 0.000105496 -0.149098 -0.988822
0.0623825 0.258967 0.544933 -0.000628145 0.888483 -0.458909
0.0724656 -0.164808 0.34798 -9.84635e-05 0.138941 0.990301
0.0670443 0.146974 0.327966 0.00048333 -0.683676 0.729786
-0.240011 0.196613 0.119644 -0.351961 0.86922 0.347247
-0.208833 0.0372022 0.233783 0.71928 -0.123725 -0.683615
-0.187364 -0.291926 0.322788 0.000639645 -0.900594 -0.434662
-0.249009 -0.235381 0.350472 0.000112785 -0.159187 0.987248
-0.250988 -0.21911 0.321197 -1.32221e-05 0.0186869 -0.999825
0.170928 0.278126 0.581877 -0.000628145 0.888483 -0.458909
0.194664 0.250771 0.588183 0.000609256 -0.86176 0.507316
0.121668 -0.159381 0.347224 -9.84635e-05 0.138941 0.990301
-0.0793841 0.25469 0.594838 0.00058605 -0.82894 0.559338
-0.263398 0.196456 0.379968 -1 -0.000714254 -7.92853e-07
0.0885049 -0.0604505 0.2535 -0.303671 0.257434 0.917339
-0.100565 0.0880729 0.308162 -9.68477e-05 0.136468 0.990645
-0.059677 -0.27599 0.341003 0.000214432 -0.301911 0.953336
-0.131671 0.22774 0.395502 -0.000704087 0.995899 -0.0904652
0.256727 0.235946 0.479498 -0.000696197 0.982109 -0.188313
0.197407 0.248187 0.583792 0.000609256 -0.86176 0.507316
-0.0400587 0.0371264 0.315211 -0.000114825 0.161912 0.986805
0.186478 -0.228765 0.32101 -1.32405e-05 0.0186872 -0.999825
0.192966 0.242191 0.573612 0.000609256 -0.86176 0.507316
0.0717738 0.1864 0.452356 0.00068218 -0.964912 0.262571
-0.0395816 -0.241008 0.320785 -1.32405e-05 0.0186872 -0.999825
0.0651843 0.203277 0.499693 0.000655598 -0.927348 0.3742
0.081566 0.205268 0.504597 0.000655598 -0.927348 0.3742
-0.228937 0.0562099 0.260592 0.000165497 -0.23357 -0.97234
-0.00659698 0.267313 0.613469 0.00058605 -0.82894 0.559338
-0.0982219 0.161288 0.343911 0.00061763 -0.873608 0.48663
0.0793587 -0.215869 0.351095 -4.93545e-06 0.00697531 0.999976
-0.263369 0.155155 0.319263 -1 -0.000752906 -1.95083e-05
-0.131655 0.161927 0.345101 0.00061763 -0.873608 0.48663
0.0131341 -0.112432 0.339756 -0.000114742 0.161912 0.986805
0.245725 0.203498 0.0727056 0.421515 -0.869111 -0.258787
-0.090151 -0.107442 0.300073 0.000167045 -0.235019 -0.971991
0.0425729 -0.160443 0.347365 -9.84635e-05 0.138941 0.990301
-0.253882 -0.212486 0.0144417 -0.421348 0.873395 -0.244229
-0.0739587 0.00235289 0.320912 -0.000114825 0.161912 0.986805
-0.20898 0.128789 0.231392 0.855163 0.155105 0.49461
-0.26342 0.226744 0.527674 -1 -0.000693245 -2.26386e-05
0.0050441 -0.29078 0.333672 0.000419946 -0.591266 0.806476
0.0280749 0.20356 0.500457 0.000655598 -0.927348 0.3742
-0.191398 0.231051 0.432419 -0.000705972 0.9959 -0.0904544
-0.0406455 -0.0529222 0.238214 -0.00057416 0.962901 -0.269856
-0.237216 0.234017 0.000455791 0 0 -1
-0.195963 0.211665 0.322923 -0.000596586 0.841591 -0.540115
-0.107718 0.187412 0.292361 -0.000497566 0.702572 -0.711613
0.0730761 -0.042801 0.284471 0.000167045 -0.235019 -0.971991
0.165267 0.267152 0.613051 0.00058605 -0.82894 0.559338
0.261101 -0.131238 0.305886 0.000166287 -0.235016 -0.971991
-0.175455 -0.228706 0.321016 -1.32221e-05 0.0186869 -0.999825
0.185331 0.230968 0.428575 -0.000704087 0.995899 -0.0904652
-0.160832 -0.158079 0.347013 -9.846e-05 0.138941 0.990301
-0.167282 0.152456 0.333256 0.00048333 -0.683676 0.729786
-0.102501 0.118011 0.3112 0.000274323 -0.387365 0.921926
0.00727877 0.224931 0.543174 0.000625509 -0.884752 0.466061
-0.245274 0.268776 0.564344 -0.000628096 0.888483 -0.458909
-0.097787 -0.272375 0.342156 0.000214432 -0.301911 0.953336
0.0869593 -0.173695 0.349229 -9.846e-05 0.138941 0.990301
-0.202252 0.233407 0.458448 -0.000705972 0.9959 -0.0904544
0.199667 -0.064645 0.289774 0.000166287 -0.235016 -0.971991
-0.0821644 -0.0675253 0.253845 0.121663 0.268623 0.955531
-0.0167919 -0.16328 0.347757 -9.84635e-05 0.138941 0.990301
0.144998 0.0779349 0.309583 -9.68477e-05 0.136468 0.990645
0.235319 -0.219883 0.351124 -4.94294e-06 0.00697522 0.999976
-0.260635 -0.259302 0.31895 -0.000109215 0.154143 -0.988049
0.0618437 0.186744 0.291584 -0.000497566 0.702572 -0.711613
-0.0497658 0.240709 0.502604 -0.000659586 0.930466 -0.366378
0.0638081 0.225473 0.373107 -0.000701752 0.992597 -0.121453
-0.117258 0.0450643 0.314085 -9.6781e-05 0.136468 0.990644
0.0488017 0.105436 0.308428 6.63992e-05 -0.093761 0.995595
-0.0955799 -0.0759405 0.292455 0.000167045 -0.235019 -0.971991
0.04156 0.0827769 0.216897 -0.100246 0.0696553 0.992521
-0.145875 -0.00274551 0.274768 0.000166017 -0.233574 -0.972339
-0.0932439 -0.0743456 0.29207 0.000167045 -0.235019 -0.971991
0.126387 0.135019 0.319566 0.000378041 -0.534741 0.845016
0.00871488 -0.129188 0.342505 -0.000114742 0.161912 0.986805
0.26414 0.282063 0.612167 1 0.000689927 -7.99123e-05
-0.127684 -0.173587 0.315483 0.000105495 -0.149098 -0.988822
-0.00904673 0.250282 0.587597 0.000609256 -0.86176 0.507316
0.181543 -0.189357 0.35091 -4.94294e-06 0.00697522 0.999976
0.131467 -0.270035 0.317233 -0.000109491 0.154148 -0.988048
0.233842 0.0905643 0.25148 -0.000675563 0.9975 -0.0706617
0.0962123 0.228245 0.399289 -0.000704087 0.995899 -0.0904652
-0.137356 0.253027 0.592414 0.000609256 -0.86176 0.507316
-0.226807 0.0603229 0.230059 -0.490227 -0.123031 -0.862868
-0.274673 -0.0729181 0.291693 0.000167045 -0.235019 -0.971991
0.0808383 0.00746745 0.320091 -0.000114825 0.161912 0.986805
-0.0517912 -0.0866188 0.295044 0.000167045 -0.235019 -0.971991
-0.214364 -0.0748412 0.26152 0.0651918 -0.140799 -0.98789
-0.221035 0.255587 0.538776 -0.000628096 0.888483 -0.458909
0.0331874 -0.0490017 0.285963 0.000167045 -0.235019 -0.971991
0.0281754 -0.181931 0.350378 -9.846e-05 0.138941 0.990301
-0.0551879 -0.254483 0.34737 0.000112785 -0.159187 0.987248
0.0545202 0.0757944 0.218699 -0.100363 0.0701243 0.992477
-0.0380588 0.175165 0.381269 0.00070115 -0.991785 0.127917
-0.0247333 0.258912 0.544946 -0.000628145 0.888483 -0.458909
-0.168078 0.275284 0.622043 0.000387965 -0.548757 0.835982
0.152245 0.0121498 0.319331 -0.000114825 0.161912 0.986805
-0.0060578 -0.0164413 0.324004 -0.000114825 0.161912 0.986805
-0.205511 0.161104 0.273915 -0.000309807 0.438632 -0.898667
0.267709 -0.101915 0.298797 0.000166287 -0.235016 -0.971991
-0.2634 0.198112 0.47491 -1 -0.000704177 1.10035e-05
0.20981 -0.212955 0.351075 -4.94294e-06 0.00697522 0.999976
-0.207148 0.0733083 0.249197 -0.0584425 -0.0705201 -0.995797
-0.108919 -0.137704 0.343888 -0.000114742 0.161912 0.986805
-0.238869 -0.207662 0.320609 0.000105495 -0.149098 -0.988822
0.227131 -0.0296222 0.261769 0.286828 0.27182 0.91861
-0.204215 -0.156878 0.34684 -9.846e-05 0.138941 0.990301
0.0774533 0.227738 0.393856 -0.000704087 0.995899 -0.0904652
0.0973261 0.163707 0.275081 -0.000309807 0.438632 -0.898667
-0.137928 0.135762 0.320155 0.000377694 -0.53475 0.84501
0.283245 -0.236983 0.347994 0.991458 0.123376 0.0423034
-0.136059 0.028321 0.267307 0.000165497 -0.23357 -0.97234
0.0165897 0.0664283 0.210754 0.000761364 -0.997551 0.069945
-0.226587 0.224269 0.364951 -0.000701752 0.992597 -0.121453
0.0965052 0.0864266 0.225787 -0.303483 0.0670068 0.950478
0.138029 -0.112985 0.339861 -0.000114742 0.161912 0.986805
0.228868 0.241851 0.505003 -0.000659586 0.930466 -0.366378
0.264213 0.178194 0.327716 1 0.00070464 1.33308e-05
-0.176277 0.27412 0.574597 -0.000628096 0.888483 -0.458909
0.229425 -0.133471 0.243595 0.440522 0.787524 -0.430983
-0.237712 -0.0518478 0.285583 0.0557555 0.269681 0.961334
-0.240327 0.206271 0.0604622 -0.211378 -0.929028 -0.303686
-0.0511362 0.273249 0.57274 -0.000628096 0.888483 -0.458909
0.0287596 -0.0617501 0.289045 0.000167045 -0.235019 -0.971991
-0.123376 0.0669429 0.258511 0.000113833 -0.160659 -0.98701
-0.0826304 -0.162093 0.313288 0.000166287 -0.235016 -0.971991
-0.0128623 -0.0890045 0.335909 -0.000114742 0.161912 0.986805
0.107747 -0.261789 0.318522 -0.000109491 0.154148 -0.988048
0.137946 0.25074 0.527741 -0.00065782 0.930456 -0.366402
0.020514 -0.03369 0.282259 0.000167045 -0.235019 -0.971991
0.0541591 0.240927 0.502972 -0.000659586 0.930466 -0.366378
0.0460582 0.0179374 0.318369 -0.000114825 0.161912 0.986805
0.22045 0.0786834 0.309487 -9.68477e-05 0.136468 0.990645
-0.22044 -0.123415 0.303912 0.000167045 -0.235019 -0.971991
-0.198952 0.0823315 0.248077 -0.058442 -0.0705181 -0.995797
-0.219277 -0.264651 0.344629 0.000214432 -0.301911 0.953336
-0.212468 0.073172 0.241435 0.588361 -0.799908 0.118232
-0.0301428 0.198403 0.487779 0.000655623 -0.927348 0.374201
0.244467 0.210207 0.0843447 0.350227 0.869912 0.347268
0.269019 0.106115 0.256785 1 0.000719145 3.22729e-06
0.125663 0.228814 0.405331 -0.000704087 0.995899 -0.0904652
-0.0616486 0.254912 0.595148 0.00058605 -0.82894 0.559338
0.269049 0.062797 0.297567 1 0.000698678 8.72287e-06
0.00763598 0.175212 0.381385 0.00070115 -0.991785 0.127917
0.243907 0.131244 0.26141 -0.000148186 0.208953 -0.977926
0.22753 0.279538 0.584533 -0.000628145 0.888483 -0.458909
0.206708 0.214664 0.327655 -0.000668933 0.943649 -0.330947
-0.216296 -0.231152 0.35115 0.000112637 -0.15919 0.987248
-0.089049 -0.214458 0.351084 -4.93545e-06 0.00697531 0.999976
-0.229698 -0.126291 0.304606 0.000167045 -0.235019 -0.971991
0.0383122 0.27358 0.573258 -0.000628145 0.888483 -0.458909
-0.180735 -0.244908 0.320713 -1.32405e-05 0.0186872 -0.999825
-0.268239 -0.170651 0.315025 0.000105495 -0.149098 -0.988822
-0.0118991 0.135262 0.262307 -0.000148373 0.208956 -0.977925
0.227572 0.000890493 0.321187 -0.000114825 0.161912 0.986805
-0.0924094 0.0876036 0.224524 0.330689 0.0663734 0.941403
0.264176 0.232083 0.448791 1 0.000721635 1.08763e-05
0.227498 -0.0438782 0.257797 0.487129 -0.250731 -0.836564
-0.24573 0.285973 0.597641 -0.000628096 0.888483 -0.458909
-0.1464 0.0865795 0.256449 -1.10576e-05 0.0156062 -0.999878
-0.263629 0.139647 0.300683 -0.995598 0.0660699 0.0664854
-0.139379 0.200226 0.492489 0.000655623 -0.927348 0.374201
0.0345849 -0.0686685 0.241487 0.100477 -0.268682 -0.957974
0.136244 -0.237935 0.32084 -1.32405e-05 0.0186872 -0.999825
-0.214895 -0.0863046 0.29494 0.000167045 -0.235019 -0.971991
-0.26341 0.212552 0.440009 -1 -0.000700189 -2.09954e-06
0.264212 0.180048 0.339149 1 0.000690682 -4.97822e-05
-0.1336 -0.0189075 0.324394 -0.000114742 0.161912 0.986805
-0.247282 0.22758 0.394647 -0.000705972 0.9959 -0.0904544
-0.227063 0.198415 0.303309 -0.000498023 0.702579 -0.711606
-0.222902 0.0919298 0.307619 -9.68477e-05 0.136468 0.990645
-0.202727 -0.129481 0.342528 -0.000114742 0.161912 0.986805
0.152813 -0.0487128 0.285914 0.000166287 -0.235016 -0.971991
-0.231769 0.213561 0.0717051 0.419883 0.869879 0.258861
0.084427 0.222817 0.351284 -0.000701753 0.992597 -0.121453
0.208243 -0.0340264 0.259379 -0.854718 0.178902 0.48729
-0.172984 0.22061 0.345377 -0.00066714 0.943637 -0.330981
0.128695 -0.0245297 0.325347 -0.000114825 0.161912 0.986805
0.162018 0.164506 0.275448 -0.000309807 0.438632 -0.898667
0.231542 -0.0952457 0.336961 -0.000114825 0.161912 0.986805
0.0436502 -0.132873 0.306244 0.000166287 -0.235016 -0.971991
0.0651938 0.189385 0.463341 0.00068218 -0.964912 0.262571
-0.263385 0.177395 0.387586 -1 -0.000713362 -1.13237e-05
0.0422975 -0.117443 0.302513 0.000166287 -0.235016 -0.971991
-0.155407 0.0601006 0.25967 0.000165497 -0.23357 -0.97234
0.00551981 -0.114633 0.301828 0.000166287 -0.235016 -0.971991
0.0658969 -0.264364 0.344656 0.000213913 -0.301921 0.953333
-0.0038344 -0.184198 0.317096 0.000105495 -0.149098 -0.988822
-0.244186 0.233969 0.018942 -0.138094 0.928857 0.343736
0.165683 0.124618 0.313896 0.000273611 -0.387386 0.921917
0.123802 -0.236744 0.35021 0.000112637 -0.15919 0.987248
-0.270123 0.0326965 0.310079 -0.99695 0.0686151 0.0371919
0.0422476 -0.194829 0.350948 -4.94294e-06 0.00697522 0.999976
-8.7887e-05 0.173884 0.376139 0.000681195 -0.963559 0.267495
-0.236318 -0.172759 0.349065 -9.846e-05 0.138941 0.990301
0.0571442 -0.0535154 0.330094 -0.000114825 0.161912 0.986805
-0.0881124 0.168987 0.358724 0.000681195 -0.963559 0.267495
-0.20977 0.177319 0.398909 0.00070115 -0.991785 0.127917
-0.281631 -0.290521 0.334012 0.000419946 -0.591266 0.806476
0.282257 -0.167537 0.330967 1 0.000716324 3.18684e-05
-0.0567615 0.0766837 0.256934 0.000113833 -0.160659 -0.98701
0.180263 -0.124177 0.341702 -0.000114742 0.161912 0.986805
-0.146055 0.224736 0.368299 -0.000701752 0.992597 -0.121453
0.248456 -0.201712 0.069343 0.354903 -0.873556 0.333082
-0.155435 0.0361739 0.315353 -0.000114825 0.161912 0.986805
0.077658 0.197589 0.302279 -0.000498023 0.702579 -0.711606
-0.215827 0.0438914 0.314237 -9.6781e-05 0.136468 0.990644
-0.0357182 0.232749 0.4499 -0.000705972 0.9959 -0.0904544
0.175486 -0.282804 0.316341 0.000167695 -0.236107 -0.971727
-0.119372 0.234037 0.464733 -0.000705972 0.9959 -0.0904544
0.232616 0.223001 0.0323502 -0.811188 0.574323 0.110122
0.0086852 -0.156584 0.311971 0.000166287 -0.235016 -0.971991
0.0658968 0.194915 0.478969 0.000655623 -0.927348 0.374201
-0.275642 -0.0737476 0.315249 -0.99685 0.0542338 0.0578692
0.119052 0.25113 0.588885 0.000609256 -0.86176 0.507316
0.0210941 0.288034 0.601266 -0.000628096 0.888483 -0.458909
0.214892 0.00242472 0.320934 -0.000114825 0.161912 0.986805
0.0613791 -0.0998867 0.298272 0.000166287 -0.235016 -0.971991
0.128227 -0.102971 0.338217 -0.000114742 0.161912 0.986805
0.0990635 0.280127 0.585849 -0.000628096 0.888483 -0.458909
0.0423917 0.230439 0.423863 -0.000704087 0.995899 -0.0904652
-0.0571714 -0.0710897 0.251457 0.000738049 -0.962674 0.270663
-0.221291 0.0656722 0.227128 -0.286727 -0.112562 -0.951376
0.0297949 -0.0296663 0.326178 -0.000114825 0.161912 0.986805
0.136615 -0.0454485 0.264396 -0.000527969 0.962762 -0.270349
0.261032 0.13601 0.320134 0.000378041 -0.534741 0.845016
-0.0882947 0.0618758 0.311772 -9.6781e-05 0.136468 0.990644
0.064036 0.225636 0.374436 -0.000701752 0.992597 -0.121453
0.00501031 0.265475 0.557611 -0.000628145 0.888483 -0.458909
-0.045074 0.14158 0.26433 -0.000311477 0.438658 -0.898654
0.105185 0.110818 0.257067 -0.000148186 0.208953 -0.977926
-0.0135702 0.189278 0.294138 -0.000497566 0.702572 -0.711613
0.181908 0.21108 0.321594 -0.000596561 0.841591 -0.540115
-0.200826 0.0694227 0.255355 0.000800401 -0.997468 0.0711105
0.022494 0.235791 0.562944 0.000609256 -0.86176 0.507316
-0.0520171 -0.251521 0.347847 0.000112785 -0.159187 0.987248
-0.228948 0.0293016 0.243227 -0.720713 0.134343 0.680092
0.0866395 0.179733 0.416002 0.000701152 -0.991785 0.127917
0.23442 -0.203146 0.0640187 -0.41934 -0.874302 0.244439
-0.226924 0.074952 0.237167 -0.949417 -0.300965 0.089595
-0.228955 0.162747 0.274725 -0.000309807 0.438632 -0.898667
-0.21932 -0.185845 0.350884 -4.94294e-06 0.00697522 0.999976
0.164979 -0.0768184 0.33393 -0.000114825 0.161912 0.986805
0.245925 -0.259351 0.346203 0.000213913 -0.301921 0.953333
0.113436 0.146486 0.266669 -0.000311477 0.438658 -0.898654
-0.156617 0.151315 0.33218 0.00048333 -0.683676 0.729786
0.259659 -0.241614 0.349409 0.000112637 -0.15919 0.987248
0.273742 -0.0239245 0.304418 0.997264 0.0725566 0.0141593
-0.057211 0.272441 0.571184 -0.000628096 0.888483 -0.458909
-0.244186 -0.292294 0.323467 0.000639645 -0.900594 -0.434662
0.223974 0.12419 0.259906 -0.000148186 0.208953 -0.977926
0.196729 0.231715 0.436709 -0.000704087 0.995899 -0.0904652
-0.263413 0.216687 0.459606 -1 -0.000700189 -2.09954e-06
-0.223885 -0.075069 0.272383 -0.283307 0.130697 0.950082
-0.0864875 0.17497 0.380272 0.000681195 -0.963559 0.267495
-0.123972 0.141215 0.264179 -0.000311477 0.438658 -0.898654
0.0354478 0.243778 0.510246 -0.000659586 0.930466 -0.366378
0.154104 -0.0745477 0.292161 0.000166287 -0.235016 -0.971991
-0.169616 0.18549 0.290507 -0.000498023 0.702579 -0.711606
0.147187 0.181248 0.427415 0.000701152 -0.991785 0.127917
-0.244554 -0.212432 0.0423281 -0.139686 -0.934047 0.328701
0.144344 -0.291225 0.332879 0.000702024 -0.98842 0.151738
0.0222408 0.239486 0.498826 -0.000696195 0.982109 -0.188313
-0.164855 0.209437 0.319416 -0.000596586 0.841591 -0.540115
-0.203486 0.0346068 0.315605 -0.000114825 0.161912 0.986805
0.0275885 -0.266006 0.317873 -0.000109491 0.154148 -0.988048
0.183025 0.176062 0.387013 0.00070115 -0.991785 0.127917
-0.00825396 0.0245065 0.317285 -0.000114825 0.161912 0.986805
-0.226063 0.217551 0.529478 0.000625482 -0.884752 0.466061
0.0086365 0.0605178 0.311969 -9.6781e-05 0.136468 0.990644
-0.140401 -0.29268 0.324418 0.000639645 -0.900594 -0.434662
0.0705009 0.208276 0.511472 0.000625482 -0.884752 0.466061
-0.193453 -0.07038 0.291094 0.000167045 -0.235019 -0.971991
0.19127 0.237192 0.565121 0.000609256 -0.86176 0.507316
0.131273 -0.011779 0.323255 -0.000114825 0.161912 0.986805
0.0907759 0.230583 0.425073 -0.000704087 0.995899 -0.0904652
-0.269857 -0.222189 0.321139 -1.32221e-05 0.0186869 -0.999825
-0.0738868 -0.226274 0.351167 -4.93545e-06 0.00697531 0.999976
-0.075287 0.104105 0.308311 6.65372e-05 -0.0937572 0.995595
0.0146252 -0.0319884 0.326557 -0.000114825 0.161912 0.986805
0.064998 -0.0787791 0.33424 -0.000114742 0.161912 0.986805
0.0314163 0.252703 0.591661 0.000609256 -0.86176 0.507316
-0.203747 0.153115 0.333898 0.00048333 -0.683676 0.729786
-0.00819188 -0.0177455 0.278399 0.000167045 -0.235019 -0.971991
-0.0297682 0.178229 0.404981 0.00070115 -0.991785 0.127917
0.274807 -0.040524 0.314452 0.997264 0.0725566 0.0141593
0.0717529 0.184154 0.444101 0.000682154 -0.964912 0.262571
-0.206782 0.232773 0.451507 -0.000705972 0.9959 -0.0904544
-0.23245 -0.0696311 0.290906 0.000167045 -0.235019 -0.971991
-0.106068 0.228187 0.400221 -0.000704087 0.995899 -0.0904652
0.119043 0.224528 0.365063 -0.000701753 0.992597 -0.121453
0.0604766 0.114854 0.257936 -0.000148186 0.208953 -0.977926
-0.254028 0.200511 0.305607 -0.000596586 0.841591 -0.540115
-0.0375027 -0.113513 0.301549 0.000166287 -0.235016 -0.971991
-0.260255 -0.158783 0.347102 -9.846e-05 0.138941 0.990301
-0.0584416 0.244447 0.577746 0.000609256 -0.86176 0.507316
0.139985 0.000938073 0.273932 0.000166017 -0.233574 -0.972339
0.15256 -0.283736 0.338502 0.000214432 -0.301911 0.953336
0.111475 0.132539 0.261707 -0.000148373 0.208956 -0.977925
-0.263455 0.275754 0.603074 -1 -0.000720974 3.77031e-05
-0.203237 0.0860843 0.308426 -9.6781e-05 0.136468 0.990644
0.280408 -0.176786 0.349682 -9.84635e-05 0.138941 0.990301
0.145365 -0.082566 0.294098 0.000166287 -0.235016 -0.971991
0.0630275 -0.0117283 0.323238 -0.000114825 0.161912 0.986805
0.258204 -0.0618759 0.283494 0.000672323 -0.963196 0.268798
0.253099 -0.0264528 0.280549 0.000166287 -0.235016 -0.971991
0.0318818 0.0772189 0.256857 0.000113833 -0.160659 -0.98701
-0.0347617 0.035453 0.315486 -0.000114825 0.161912 0.986805
0.0890684 0.164864 0.275648 -0.000309807 0.438632 -0.898667
-0.0902297 0.0333464 0.266108 0.000165497 -0.23357 -0.97234
-0.245203 0.220448 0.535003 0.000625482 -0.884752 0.466061
0.264177 0.231315 0.522055 1 0.000709465 3.59249e-05
0.196279 0.182923 0.439255 0.000682154 -0.964912 0.262571
-0.138185 -0.287659 0.336036 0.000419946 -0.591266 0.806476
-0.263393 0.187341 0.453032 -1 -0.000704343 -3.86789e-06
-0.0336219 -0.0133794 0.323498 -0.000114825 0.161912 0.986805
-0.198585 -0.238724 0.349927 0.000112785 -0.159187 0.987248
-0.0670574 0.00741836 0.320082 -0.000114825 0.161912 0.986805
-0.094053 -0.0886158 0.29552 0.000167045 -0.235019 -0.971991
-0.160284 0.0162933 0.318615 -0.000114825 0.161912 0.986805
-0.142555 0.178831 0.410264 0.00070115 -0.991785 0.127917
0.228388 0.232294 0.442838 -0.000704087 0.995899 -0.0904652
0.0913074 -0.0678812 0.249426 0.303796 -0.257004 -0.917418
-0.128375 -0.16322 0.347738 -9.846e-05 0.138941 0.990301
0.140152 0.291289 0.610199 -0.000686944 0.971727 -0.236107
-0.260723 -0.027085 0.280614 0.000167045 -0.235019 -0.971991
-0.0301386 0.246348 0.58094 0.000609256 -0.86176 0.507316
0.0199192 -0.0615708 0.331411 -0.000114742 0.161912 0.986805
0.145298 -0.0325716 0.28201 0.000167045 -0.235019 -0.971991
-0.0064815 0.0964222 0.307583 6.65372e-05 -0.0937572 0.995595
0.0394813 0.279044 0.583835 -0.000628096 0.888483 -0.458909
-0.237357 0.227217 0.547841 0.000625482 -0.884752 0.466061
0.160579 -0.0326069 0.282021 0.000167045 -0.235019 -0.971991
-0.147584 -0.0447451 0.284903 0.000167045 -0.235019 -0.971991
0.233672 0.0610546 0.233936 0.857165 -0.081488 -0.508554
-0.0806443 0.250755 0.588487 0.000609256 -0.86176 0.507316
0.118094 0.179739 0.415877 0.000701152 -0.991785 0.127917
-0.17989 0.184653 0.446589 0.000682154 -0.964912 0.262571
-0.0350395 0.266011 0.558704 -0.000628145 0.888483 -0.458909
-0.194274 0.136551 0.262611 -0.000148373 0.208956 -0.977925
0.248362 0.165429 0.350905 0.000617605 -0.873608 0.486629
0.0772462 0.252794 0.532962 -0.000628145 0.888483 -0.458909
-0.2329 0.229566 0.552295 0.000625482 -0.884752 0.466061
-0.0194871 0.25962 0.54631 -0.000628145 0.888483 -0.458909
-0.159026 0.200213 0.305037 -0.000596561 0.841591 -0.540115
0.133818 0.232764 0.448743 -0.000704087 0.995899 -0.0904652
-0.188805 -0.278687 0.315918 -0.000109491 0.154148 -0.988048
-0.246139 -0.249122 0.348256 0.000112785 -0.159187 0.987248
-0.0841518 -0.054827 0.330293 -0.000114742 0.161912 0.986805
0.0348196 -0.166516 0.314377 0.000166287 -0.235016 -0.971991
0.239672 0.157627 0.337831 0.000483349 -0.683675 0.729786
-0.121606 0.231123 0.432676 -0.000705972 0.9959 -0.0904544
-0.12403 0.0665828 0.31112 -9.6781e-05 0.136468 0.990644
0.209951 -0.0223217 0.250078 -0.287092 -0.271909 -0.918501
-0.237755 0.252941 0.533677 -0.000628145 0.888483 -0.458909
0.103375 0.0548749 0.26097 0.000165497 -0.23357 -0.97234
-0.0732277 0.29078 0.608725 -0.000686944 0.971727 -0.236107
0.232215 0.214168 0.52244 0.000625509 -0.884752 0.466061
0.0737812 0.112657 0.309107 6.63992e-05 -0.093761 0.995595
-0.224878 -0.190889 0.0828007 0.765401 0.57882 -0.281299
-0.00566939 -0.257357 0.319226 -0.000109215 0.154143 -0.988049
0.135005 0.0787523 0.231796 0.303683 -0.0670646 -0.95041
-0.233498 -0.0359539 0.327179 -0.000114742 0.161912 0.986805
0.241341 0.195031 0.0949466 0.212622 -0.928733 -0.303722
0.0420993 0.229203 0.410262 -0.000704087 0.995899 -0.0904652
0.140198 0.00505362 0.272944 0.000166017 -0.233574 -0.972339
0.0383367 -0.279885 0.339747 0.000214432 -0.301911 0.953336
-0.202359 -0.247674 0.320662 -1.32405e-05 0.0186872 -0.999825
-0.229741 0.213991 0.0669759 0.419712 0.869947 0.258911
0.261072 0.232703 0.447081 -0.000704087 0.995899 -0.0904652
0.172515 0.0681494 0.258349 0.000113833 -0.160659 -0.98701
0.174936 0.0928302 0.256544 -1.10576e-05 0.0156062 -0.999878
-0.0324997 0.259214 0.601494 0.00058605 -0.82894 0.559338
-0.220243 0.0381805 0.264925 0.000165497 -0.23357 -0.97234
0.0802831 -0.210233 0.351056 -4.94294e-06 0.00697522 0.999976
0.221963 0.195256 0.479539 0.000655598 -0.927348 0.3742
-0.263436 0.248622 0.566283 -1 -0.00067865 -9.53302e-06
-0.245155 0.239241 0.00579506 0 0 1
-0.175024 -0.204158 0.351012 -4.93545e-06 0.00697531 0.999976
0.144529 0.111527 0.308995 6.63992e-05 -0.093761 0.995595
0.0970252 0.167498 0.276932 -0.000309807 0.438632 -0.898667
0.0691725 -0.200519 0.319565 0.000105496 -0.149098 -0.988822
-0.22606 0.0919253 0.236637 -0.281224 -0.0178252 0.959477
0.27709 -0.246797 0.320672 -1.32405e-05 0.0186872 -0.999825
-0.00403678 0.187662 0.292536 -0.000497566 0.702572 -0.711613
0.0282223 0.0902814 0.307871 -9.68477e-05 0.136468 0.990645
0.0596509 -0.0723626 0.245152 0.100477 -0.268682 -0.957974
-0.0500034 -0.0622699 0.248272 0.121663 0.268623 0.955531
0.0331989 -0.0641009 0.246829 -0.100517 0.268976 0.957887
0.0175571 0.241009 0.503245 -0.000659586 0.930466 -0.366378
0.269014 0.112948 0.284245 1 0.000706884 7.23849e-06
-0.263443 0.259173 0.567042 -1 -0.000705171 -9.24502e-06
-0.131214 -0.0548377 0.267509 0.330537 0.255029 0.908683
0.0842456 0.228954 0.407189 -0.000704087 0.995899 -0.0904652
0.145722 0.226964 0.384819 -0.000701752 0.992597 -0.121453
0.263528 -0.13938 0.307855 0.000166287 -0.235016 -0.971991
0.264166 0.244902 0.569807 1 0.000679511 9.02653e-06
-0.103351 0.120602 0.312289 0.000274323 -0.387365 0.921926
-0.154483 -0.0528561 0.329961 -0.000114742 0.161912 0.986805
-0.00739545 -0.00868322 0.322731 -0.000114825 0.161912 0.986805
-0.000522405 -0.142983 0.344767 -0.000114742 0.161912 0.986805
-0.228099 -0.150774 0.191276 -0.211575 0.933828 -0.288445
0.0508665 0.176082 0.387892 0.00070115 -0.991785 0.127917
0.0946341 -0.0707715 0.252223 0.000599597 -0.962694 0.270591
0.226491 0.230045 0.418088 -0.000704087 0.995899 -0.0904652
0.0554101 -0.191453 0.350924 -4.94294e-06 0.00697522 0.999976
-0.227759 0.139362 0.230945 -0.293986 0.422024 0.857594
0.190688 0.0149705 0.318873 -0.000114825 0.161912 0.986805
-0.228732 -0.224712 0.351155 -4.93545e-06 0.00697531 0.999976
-0.259544 0.291937 0.614031 -0.000686999 0.971727 -0.236105
0.151925 0.182533 0.437353 0.000701152 -0.991785 0.127917
0.241888 0.21111 0.321575 -0.000596561 0.841591 -0.540115
-0.277132 -0.0848824 0.296288 -0.997845 0.047726 0.0450201
0.152496 0.244723 0.512434 -0.000659586 0.930466 -0.366378
-0.279779 -0.173839 0.324049 -0.991928 0.0762137 0.101347
-0.0094527 0.166767 0.353635 0.000617605 -0.873608 0.486629
0.223674 0.194003 0.298637 -0.000497566 0.702572 -0.711613
-0.111423 0.0198886 0.318031 -0.000114825 0.161912 0.986805
-0.01696 0.24014 0.5011 -0.000659586 0.930466 -0.366378
0.282263 -0.176617 0.339087 1 0.000716324 3.18684e-05
-0.0586756 0.276334 0.578722 -0.000628096 0.888483 -0.458909
-0.118554 0.280684 0.587227 -0.000628096 0.888483 -0.458909
-0.25191 0.187432 0.292482 -0.000498023 0.702579 -0.711606
-0.0649732 -0.0713586 0.333008 -0.000114742 0.161912 0.986805
0.16319 -0.13181 0.342953 -0.000114742 0.161912 0.986805
0.0905224 0.067312 0.222541 0.000837821 -0.997548 0.0699774
0.0165985 0.135487 0.319912 0.000377694 -0.53475 0.84501
-0.228994 0.233414 0.458732 -0.000705972 0.9959 -0.0904544
0.244073 -0.00214022 0.321686 -0.000114825 0.161912 0.986805
-0.20484 0.184964 0.447797 0.000682154 -0.964912 0.262571
0.209326 -0.0706438 0.291226 0.000166287 -0.235016 -0.971991
0.136508 -0.0444595 0.328617 -0.000114825 0.161912 0.986805
0.0569649 0.182086 0.434408 0.000701152 -0.991785 0.127917
-0.00317776 0.166076 0.352385 0.000617605 -0.873608 0.486629
0.0991549 -0.245837 0.320692 -1.32405e-05 0.0186872 -0.999825
0.122425 0.263973 0.554543 -0.000628145 0.888483 -0.458909
0.13554 -0.252272 0.320003 -0.000109215 0.154143 -0.988049
0.192868 -0.0701338 0.332837 -0.000114825 0.161912 0.986805
-0.179021 0.0848833 0.253353 0.0560448 0.0700108 0.995971
0.232219 -0.113448 0.30158 0.000166287 -0.235016 -0.971991
0.135904 0.27036 0.617836 0.00058605 -0.82894 0.559338
-0.283089 -0.256384 0.340378 -0.996087 0.0834752 0.0290292
0.0889306 0.0446285 0.263428 0.000165497 -0.23357 -0.97234
-0.177454 0.0700938 0.254304 0.0560448 0.0700108 0.995971
-0.080308 -0.11566 0.340275 -0.000114742 0.161912 0.986805
0.230723 0.0762152 0.236577 0.281174 0.0918983 0.955247
0.263486 0.127026 0.314879 0.000273611 -0.387386 0.921917
-0.271255 0.0379673 0.270007 -0.99695 0.0686151 0.0371919
-0.172531 0.198188 0.487497 0.000655623 -0.927348 0.374201
0.147545 0.244498 0.511871 -0.000659586 0.930466 -0.366378
0.232478 0.0256273 0.243053 0.720427 0.135415 0.680183
0.13044 0.151954 0.332589 0.000483349 -0.683675 0.729786
0.0404282 0.172923 0.372576 0.000681195 -0.963559 0.267495
-0.0964691 0.126533 0.260455 -0.000148373 0.208956 -0.977925
0.0885709 0.253419 0.534156 -0.000628145 0.888483 -0.458909
-0.0211466 -0.145323 0.345148 -0.000114742 0.161912 0.986805
-0.276303 -0.0886146 0.3178 -0.99685 0.0542338 0.0578692
0.268985 0.151925 0.289217 1 0.000735903 1.10975e-05
0.0242303 -0.258667 0.319018 -0.000109215 0.154143 -0.988049
-0.202755 -0.0688427 0.332579 -0.000114742 0.161912 0.986805
0.239963 0.170607 0.279015 -0.000403635 0.571478 -0.820618
-0.00976259 -0.0737222 0.291933 0.000167045 -0.235019 -0.971991
-0.230445 0.174991 0.149276 -0.211378 -0.929028 -0.303686
-0.194798 -0.161028 0.313011 0.000166287 -0.235016 -0.971991
-0.0390109 0.111353 0.257203 -0.000148186 0.208953 -0.977926
-0.203974 0.233342 0.457741 -0.000705972 0.9959 -0.0904544
0.197264 -0.126336 0.30469 0.000166287 -0.235016 -0.971991
-0.125965 -0.0593486 0.266868 0.330417 0.255583 0.908572
0.212731 0.195546 0.480275 0.000655598 -0.927348 0.3742
-0.0950425 0.246913 0.51844 -0.00065782 0.930456 -0.366402
-0.0864791 -0.183972 0.350653 -9.846e-05 0.138941 0.990301
0.231899 -0.203984 0.0440937 -0.766604 0.577286 -0.281175
0.24487 0.218517 0.0263652 -0.138916 -0.928674 -0.343899
0.265905 0.155943 0.310676 0.996052 -0.0502348 0.0731875
0.120004 0.0641902 0.258988 0.000113833 -0.160659 -0.98701
-0.257856 0.123351 0.31349 0.000274323 -0.387365 0.921926
0.0949148 -0.053603 0.253701 -0.303671 0.257434 0.917339
0.116564 -0.16717 0.348316 -9.84635e-05 0.138941 0.990301
0.0161003 -0.226385 0.351168 -4.93545e-06 0.00697531 0.999976
-0.051404 0.0590037 0.312172 -9.6781e-05 0.136468 0.990644
-0.234543 0.172574 0.161165 -0.421542 -0.869194 -0.258463
-0.255312 0.200066 0.304959 -0.000498023 0.702579 -0.711606
0.102142 -0.0499437 0.255066 -0.303671 0.257434 0.917339
0.109078 0.150251 0.268509 -0.000311477 0.438658 -0.898654
-0.094153 -0.0500947 0.24842 -0.000461322 0.962984 -0.269558
-0.2271 0.144591 0.228216 -0.299155 0.504739 0.809781
0.224186 -0.0506367 0.283656 -0.0732861 0.269638 0.960169
0.00924805 0.279582 0.584917 -0.000628096 0.888483 -0.458909
-0.263436 0.248649 0.571877 -1 -0.00067865 -9.53302e-06
-0.146555 0.284288 0.594243 -0.000628096 0.888483 -0.458909
0.0535044 -0.06616 0.290116 0.000167045 -0.235019 -0.971991
0.00775003 0.15627 0.336713 0.000483349 -0.683675 0.729786
0.168745 -0.241544 0.349431 0.000112637 -0.15919 0.987248
0.125217 0.102636 0.30816 6.63992e-05 -0.093761 0.995595
-0.0149526 0.227854 0.548753 0.000625509 -0.884752 0.466061
0.12385 -0.030803 0.326375 -0.000114825 0.161912 0.986805
-0.193891 0.0714496 0.24855 -0.0584425 -0.0705201 -0.995797
0.277557 -0.0802985 0.324582 0.997264 0.0725566 0.0141593
-0.263403 0.202267 0.351554 -1 -0.000700528 3.53826e-07
-0.147304 -0.0608765 0.331278 -0.000114742 0.161912 0.986805
0.234236 0.0820278 0.256374 -1.10576e-05 0.0156062 -0.999878
0.115759 0.0742469 0.25735 0.000113833 -0.160659 -0.98701
-0.230858 -0.0328895 0.282022 0.000167045 -0.235019 -0.971991
-0.278799 -0.185179 0.342169 -0.991928 0.0762137 0.101347
0.0631873 -0.00666446 0.275746 0.000166017 -0.233574 -0.972339
-0.180114 0.27898 0.584012 -0.000628096 0.888483 -0.458909
-0.107715 -0.115839 0.340301 -0.000114742 0.161912 0.986805
0.0859364 0.165478 0.3512 0.000617605 -0.873608 0.486629
-0.140865 0.051397 0.261763 0.000165497 -0.23357 -0.97234
-0.18431 0.287249 0.600026 -0.000628096 0.888483 -0.458909
0.074389 0.0825459 0.220231 -0.100363 0.0701243 0.992477
0.150109 -0.0479558 0.263314 0.303769 -0.257137 -0.91739
0.099398 0.217649 0.529226 0.000625509 -0.884752 0.466061
0.18197 -0.236094 0.350308 0.000112637 -0.15919 0.987248
-0.0458575 -0.0858025 0.294848 0.000167045 -0.235019 -0.971991
-0.133616 -0.192956 0.318403 0.000105495 -0.149098 -0.988822
0.106732 0.262868 0.606763 0.00058605 -0.82894 0.559338
0.220489 0.231353 0.432541 -0.000704087 0.995899 -0.0904652
-0.072585 -0.277668 0.340474 0.000214432 -0.301911 0.953336
0.0270923 -0.286187 0.337029 0.000419947 -0.591266 0.806476
-0.023864 -0.228682 0.351184 -4.93545e-06 0.00697531 0.999976
-0.0717847 0.223078 0.354322 -0.000701753 0.992597 -0.121453
0.202592 -0.132179 0.343018 -0.000114742 0.161912 0.986805
0.125414 -0.056046 0.287683 0.000166287 -0.235016 -0.971991
-0.109822 0.0310552 0.266655 0.000165497 -0.23357 -0.97234
-0.240382 0.195326 0.300268 -0.000498023 0.702579 -0.711606
-0.209889 -0.106415 0.271737 0.490287 -0.151378 0.858314
0.147862 0.221749 0.536945 0.000625509 -0.884752 0.466061
0.135798 0.0137666 0.27085 0.000166017 -0.233574 -0.972339
-0.235818 0.172135 0.16472 -0.421542 -0.869194 -0.258463
-0.0771067 0.0667286 0.216012 0.000718002 -0.997551 0.0699447
0.0409947 0.182738 0.438978 0.000682154 -0.964912 0.262571
-0.123572 0.268042 0.562758 -0.000628096 0.888483 -0.458909
-0.172232 0.233613 0.559478 0.000609256 -0.86176 0.507316
-0.283006 -0.235967 0.34945 -1 -0.000676379 -4.13501e-06
0.218622 -0.0587988 0.271121 0.0648718 0.224718 0.972262
-0.247949 0.0842888 0.250814 -0.0584425 -0.0705201 -0.995797
-0.24593 0.212315 0.0460891 -0.421542 -0.869194 -0.258463
0.253113 -0.116068 0.34038 -0.000114825 0.161912 0.986805
0.128078 -0.025317 0.280253 0.000167045 -0.235019 -0.971991
-0.00553882 -0.15145 0.346098 -9.84635e-05 0.138941 0.990301
-0.137574 -0.271683 0.317005 -0.000109215 0.154143 -0.988049
-0.247206 0.0332273 0.26611 0.000165497 -0.23357 -0.97234
-0.213617 0.163303 0.207679 0.442368 0.777623 0.446782
-0.178359 0.22358 0.540859 0.000625482 -0.884752 0.466061
0.236144 -0.0190266 0.278751 0.000167045 -0.235019 -0.971991
0.080361 0.171345 0.366791 0.000681195 -0.963559 0.267495
-0.0329173 -0.236708 0.350234 0.000112637 -0.15919 0.987248
-0.0254485 -0.256841 0.319308 -0.000109215 0.154143 -0.988049
0.244126 0.0892635 0.256219 -0.0731408 0.0703547 0.994837
-0.105708 -0.0666436 0.261553 0.330417 0.255583 0.908572
-0.0868818 -0.00701881 0.275805 0.000166017 -0.233574 -0.972339
0.0950412 0.251378 0.529438 -0.00065782 0.930456 -0.366402
0.223354 0.22909 0.550779 0.000625509 -0.884752 0.466061
-0.156982 -0.151969 0.310827 0.000166287 -0.235016 -0.971991
0.0295152 0.163725 0.348124 0.000617605 -0.873608 0.486629
-0.146446 0.131249 0.317303 0.000377694 -0.53475 0.84501
-0.0681041 -0.146421 0.309501 0.000166287 -0.235016 -0.971991
-0.0798305 0.08774 0.221239 0.121696 0.0701628 0.990084
0.0829441 0.17596 0.386771 0.00070115 -0.991785 0.127917
-0.1462 0.15091 0.331794 0.00048333 -0.683676 0.729786
-0.250691 -0.119085 0.30286 0.000167045 -0.235019 -0.971991
-0.0907903 -0.100125 0.298303 0.000167045 -0.235019 -0.971991
-0.0306193 0.237325 0.565615 0.000609256 -0.86176 0.507316
0.00299415 0.197909 0.486499 0.000655623 -0.927348 0.374201
-0.244242 0.240206 0.570764 0.000609256 -0.86176 0.507316
0.261189 -0.212189 0.35107 -4.94294e-06 0.00697522 0.999976
0.0174773 0.227628 0.548281 0.000625509 -0.884752 0.466061
-0.263388 -0.115301 0.301943 0.000167045 -0.235019 -0.971991
0.0494466 -0.0535359 0.330097 -0.000114825 0.161912 0.986805
-0.063372 -0.182503 0.350449 -9.846e-05 0.138941 0.990301
-0.0901937 0.23191 0.556487 0.000609256 -0.86176 0.507316
0.240998 0.197392 0.119945 0.350227 0.869912 0.347268
-0.0342125 -0.253394 0.319847 -0.000109215 0.154143 -0.988049
-0.0569162 -0.119496 0.340907 -0.000114742 0.161912 0.986805
0.229801 0.082519 0.256382 -1.10576e-05 0.0156062 -0.999878
0.16944 -0.139701 0.307917 0.000166287 -0.235016 -0.971991
-0.161862 0.0972274 0.256616 -1.10677e-05 0.0156063 -0.999878
-0.23143 0.0395296 0.314837 -9.6781e-05 0.136468 0.990644
-0.0684275 0.290119 0.60599 -0.000686944 0.971727 -0.236107
0.229604 -0.0270981 0.32578 -0.000114825 0.161912 0.986805
0.0454444 -0.0603623 0.288712 0.000167045 -0.235019 -0.971991
0.243803 0.233405 0.558626 0.000609256 -0.86176 0.507316
0.162931 0.0532566 0.261369 0.000165497 -0.23357 -0.97234
0.0964938 -0.18906 0.31784 0.000105496 -0.149098 -0.988822
-0.258219 0.2021 0.308087 -0.000596586 0.841591 -0.540115
0.140468 -0.1293 0.342538 -0.000114742 0.161912 0.986805
-0.00472102 0.185357 0.29026 -0.000497566 0.702572 -0.711613
-0.24424 0.159335 0.273065 -0.000309807 0.438632 -0.898667
0.25227 -0.29215 0.323898 0.000639645 -0.900594 -0.434662
0.212061 -0.0707479 0.261786 -0.283519 -0.131051 -0.94997
0.0410807 -0.0243427 0.280002 0.000167045 -0.235019 -0.971991
-0.130077 -0.0468306 0.264848 0.330537 0.255029 0.908683
0.153913 0.222293 0.349515 -0.00066714 0.943637 -0.330981
-0.124882 0.257172 0.541714 -0.000628145 0.888483 -0.458909
-0.238298 0.154421 0.270664 -0.000309807 0.438632 -0.898667
-0.209737 0.233162 0.558757 0.000609256 -0.86176 0.507316
-0.136115 -0.129358 0.342516 -0.000114742 0.161912 0.986805
-0.00970307 0.109067 0.256799 -1.10677e-05 0.0156063 -0.999878
0.012173 -0.0166721 0.278143 0.000167045 -0.235019 -0.971991
0.244832 0.1919 0.110215 0.42283 -0.868586 -0.258407
-0.0120179 -0.292317 0.326489 0.000702024 -0.98842 0.151738
0.208319 0.190581 0.295269 -0.000497566 0.702572 -0.711613
-0.105677 0.0989691 0.30783 6.65372e-05 -0.0937572 0.995595
-0.045315 0.044064 0.31423 -9.6781e-05 0.136468 0.990644
0.0630389 -0.134124 0.343321 -0.000114742 0.161912 0.986805
-0.270375 -0.257155 0.346964 0.000112785 -0.159187 0.987248
0.0892596 -0.150241 0.345938 -9.84635e-05 0.138941 0.990301
0.268874 0.0682085 0.258351 0.000113833 -0.160659 -0.98701
-0.0314228 0.262218 0.605944 0.00058605 -0.82894 0.559338
-0.192259 0.22441 0.542452 0.000625482 -0.884752 0.466061
0.0484293 -0.12808 0.305086 0.000166287 -0.235016 -0.971991
-0.179361 -0.0415057 0.284114 0.000167045 -0.235019 -0.971991
0.12684 0.263002 0.552657 -0.000628145 0.888483 -0.458909
0.197494 0.18659 0.452728 0.00068218 -0.964912 0.262571
0.271026 0.0130761 0.306081 0.997264 0.0725566 0.0141593
-1.52886e-05 -0.282794 0.338834 0.000214432 -0.301911 0.953336
-0.159961 0.235387 0.478125 -0.000696197 0.982109 -0.188313
-0.224778 -0.278733 0.315915 -0.000109491 0.154148 -0.988048
-0.0397992 0.152868 0.269838 -0.000309807 0.438632 -0.898667
-0.101198 -0.0228099 0.279607 0.000167045 -0.235019 -0.971991
-0.0754063 0.107968 0.308675 6.63992e-05 -0.093761 0.995595
0.140423 0.0511 0.313279 -9.6781e-05 0.136468 0.990644
0.223587 -0.163531 0.186362 -0.210682 -0.934047 0.288391
0.262235 -0.0129735 0.323466 -0.000114825 0.161912 0.986805
-0.0553477 -0.166945 0.348267 -9.846e-05 0.138941 0.990301
-0.229013 0.245032 0.513904 -0.00065782 0.930456 -0.366402
0.0922602 0.152045 0.26939 -0.000311477 0.438658 -0.898654
0.114072 0.175532 0.383283 0.00070115 -0.991785 0.127917
0.272295 -0.00101567 0.288929 0.997264 0.0725566 0.0141593
-0.251321 0.0866847 0.257286 0.0559136 0.0705285 0.995941
0.00454882 -0.138136 0.30751 0.000166287 -0.235016 -0.971991
0.190468 -0.130073 0.342671 -0.000114742 0.161912 0.986805
-0.23002 -0.186374 0.0859161 0.353057 0.874305 -0.333079
0.186816 -0.144567 0.345049 -0.000114742 0.161912 0.986805
0.227668 0.158112 0.198258 0.215551 -0.919087 -0.329873
-0.238976 0.175979 0.168067 -0.766011 0.573492 0.290403
0.2151 0.129288 0.3159 0.000377694 -0.53475 0.84501
0.0458845 0.0246135 0.317274 -0.000114825 0.161912 0.986805
0.139373 -0.251828 0.320072 -0.000109215 0.154143 -0.988049
-0.228838 0.0965337 0.228862 -0.491558 0.0356257 -0.870116
-0.231319 0.0484404 0.313609 -9.6781e-05 0.136468 0.990644
