0.088863 0.179531 0.414423 0.000701152 -0.991785 0.127917
-0.116786 -0.292 0.323044 0.000639645 -0.900594 -0.434662
0.264168 0.241925 0.539442 1 0.000709465 3.59249e-05
-0.258351 0.258442 0.600587 0.00058605 -0.82894 0.559338
-0.0528459 -0.0509807 0.245172 -0.000559708 0.96299 -0.269535
0.143122 0.088259 0.30816 -9.68477e-05 0.136468 0.990645
-0.117392 0.246222 0.516726 -0.00065782 0.930456 -0.366402
0.00574553 -0.0592092 0.331022 -0.000114742 0.161912 0.986805
-0.00585926 -0.0318644 0.326534 -0.000114825 0.161912 0.986805
-0.244115 -0.0412173 0.28044 -0.000676233 0.962985 -0.269556
-0.211197 0.0725147 0.227601 0.282099 -0.0924986 -0.954916
0.0712852 0.212438 0.519372 0.000625482 -0.884752 0.466061
-0.0578423 -0.178101 0.316171 0.000105495 -0.149098 -0.988822
-0.0258415 0.268038 0.562615 -0.000628145 0.888483 -0.458909
-0.0827879 0.18059 0.423579 0.000701152 -0.991785 0.127917
-0.0975338 0.105162 0.256739 -1.10677e-05 0.0156063 -0.999878
-0.243029 0.204731 0.503835 0.000655623 -0.927348 0.374201
0.22548 -0.171166 0.132887 -0.35427 0.873812 -0.333085
0.245957 0.112012 0.309034 6.63992e-05 -0.093761 0.995595
-0.260956 0.289101 0.62295 -0.000634693 0.897744 0.440518
0.120204 0.0219841 0.268873 0.000166017 -0.233574 -0.972339
-0.245007 0.153742 0.334512 0.00048333 -0.683676 0.729786
-0.218631 0.183893 0.443896 0.000682154 -0.964912 0.262571
0.0220117 -0.283042 0.338751 0.000214432 -0.301911 0.953336
-0.175639 -0.0403709 0.283841 0.000167045 -0.235019 -0.971991
-0.0767252 0.218476 0.339098 -0.00066714 0.943637 -0.330981
-0.0121626 -0.166704 0.348238 -9.846e-05 0.138941 0.990301
-0.207683 0.177519 0.400453 0.00070115 -0.991785 0.127917
-0.0789076 -0.00219104 0.321657 -0.000114825 0.161912 0.986805
-0.0762986 7.73594e-05 0.274102 0.000166017 -0.233574 -0.972339
-0.00795215 -0.0535152 0.236028 -0.00057416 0.962901 -0.269856
-0.22331 0.120667 0.226161 -0.284573 -0.130623 -0.949714
-0.212509 -0.13077 0.342738 -0.000114742 0.161912 0.986805
-0.00512838 0.216927 0.334537 -0.000668933 0.943649 -0.330947
0.269 0.131871 0.290891 1 0.000701904 4.43228e-06
-0.237258 0.233071 0.455023 -0.000705972 0.9959 -0.0904544
0.25748 -0.0579244 0.281533 0.0739148 -0.269289 -0.960219
-0.0967698 0.275691 0.57753 -0.000628096 0.888483 -0.458909
0.273745 -0.0231608 0.300278 0.997264 0.0725566 0.0141593
0.165448 0.182604 0.437833 0.000701152 -0.991785 0.127917
0.229537 -0.199025 0.0607124 -0.765765 0.578274 -0.281431
0.120096 0.172719 0.280544 -0.000403635 0.571478 -0.820618
-0.183748 0.289652 0.604679 -0.000628096 0.888483 -0.458909
-0.0970057 0.196725 0.48374 0.000655623 -0.927348 0.374201
0.0436048 0.184447 0.445253 0.000682154 -0.964912 0.262571
0.128204 -0.234315 0.320907 -1.32405e-05 0.0186872 -0.999825
0.253168 -0.0730441 0.333321 -0.000114825 0.161912 0.986805
0.141322 0.247953 0.520659 -0.000659586 0.930466 -0.366378
0.00788894 0.168405 0.356553 0.000617605 -0.873608 0.486629
0.101079 -0.183748 0.317039 0.000105496 -0.149098 -0.988822
0.217153 0.217916 0.529574 0.000625509 -0.884752 0.466061
-0.242384 0.244001 0.577209 0.000609256 -0.86176 0.507316
0.181528 -0.190735 0.35092 -4.94294e-06 0.00697522 0.999976
-0.20075 0.157482 0.337987 0.000483349 -0.683675 0.729786
0.23565 0.227315 0.387967 -0.000704087 0.995899 -0.0904652
-0.191476 -0.14955 0.310236 0.000166287 -0.235016 -0.971991
0.232365 0.0784005 0.229734 0.490874 -0.06061 -0.86912
-0.133588 0.118515 0.311421 0.000274323 -0.387365 0.921926
-0.154784 0.253343 0.534342 -0.000628145 0.888483 -0.458909
0.0888534 0.262536 0.551806 -0.000628145 0.888483 -0.458909
-0.0546056 -0.191103 0.350921 -4.94294e-06 0.00697522 0.999976
-0.0736791 0.0877346 0.214448 -0.000719141 0.997551 -0.0699436
-0.24605 0.0905657 0.256247 -0.000791046 0.997468 -0.0711107
-0.25914 0.226037 0.379584 -0.000701752 0.992597 -0.121453
-0.263948 0.0225646 0.317574 -0.000114742 0.161912 0.986805
0.135239 0.0378369 0.265068 0.000166017 -0.233574 -0.972339
0.243915 0.188597 0.13709 0.764968 0.574863 0.290442
-0.00211278 -0.105977 0.338695 -0.000114742 0.161912 0.986805
0.124432 -0.0331776 0.282153 0.000167045 -0.235019 -0.971991
-0.062948 0.0788755 0.309433 -9.68477e-05 0.136468 0.990645
0.185657 -0.209631 0.320951 0.000105496 -0.149098 -0.988822
0.10908 0.244463 0.57757 0.000609256 -0.86176 0.507316
0.0232537 0.236548 0.564229 0.000609256 -0.86176 0.507316
-0.014432 0.233009 0.452596 -0.000705972 0.9959 -0.0904544
0.00653884 0.224911 0.368849 -0.000701752 0.992597 -0.121453
-0.262043 -0.286565 0.31718 0.000167708 -0.236108 -0.971727
0.268472 -0.0348391 0.282579 0.000166287 -0.235016 -0.971991
0.247572 0.28688 0.59872 -0.000628145 0.888483 -0.458909
0.175095 -0.145335 0.345173 -0.000114742 0.161912 0.986805
0.153755 -0.0849395 0.294673 0.000166287 -0.235016 -0.971991
0.0446079 -0.207391 0.351036 -4.94294e-06 0.00697522 0.999976
0.150428 0.133619 0.31867 0.000378041 -0.534741 0.845016
0.0290191 0.1331 0.261839 -0.000148373 0.208956 -0.977925
-0.128251 -0.123495 0.303948 0.000167045 -0.235019 -0.971991
-0.078743 0.231738 0.439113 -0.000705972 0.9959 -0.0904544
-0.0747561 0.28719 0.599762 -0.000628096 0.888483 -0.458909
0.264175 0.233499 0.461923 1 0.000721635 1.08763e-05
0.245462 0.0784501 0.257082 -0.0731417 0.0703583 0.994837
-0.121023 -0.163576 0.347788 -9.846e-05 0.138941 0.990301
0.230747 0.239097 0.568309 0.000609256 -0.86176 0.507316
0.249017 -0.192895 0.0909602 0.765965 -0.578055 0.281335
0.263414 -0.253286 0.347527 0.000112637 -0.15919 0.987248
-0.136775 0.236998 0.565186 0.000609256 -0.86176 0.507316
0.220281 0.192772 0.473386 0.000655598 -0.927348 0.3742
-0.191101 0.228408 0.403316 -0.000705972 0.9959 -0.0904544
0.0216125 0.255273 0.537837 -0.000628145 0.888483 -0.458909
-0.158432 -0.279004 0.34007 0.000214432 -0.301911 0.953336
-0.201157 0.168896 0.27804 -0.000403635 0.571478 -0.820618
-0.263419 0.224125 0.538212 -1 -0.000693245 -2.26386e-05
0.217413 0.0665239 0.227173 -0.28112 -0.105881 -0.953814
0.236833 0.118143 0.258612 -0.000148186 0.208953 -0.977926
0.0703038 0.169932 0.278628 -0.000403635 0.571478 -0.820618
-0.197752 -0.00455928 0.322032 -0.000114742 0.161912 0.986805
-0.11785 -0.101599 0.298655 0.000167045 -0.235019 -0.971991
0.215712 -0.0903683 0.274365 -0.287739 -0.0566772 0.95603
-0.124672 -0.0214165 0.279266 0.000167045 -0.235019 -0.971991
-0.033971 0.0106743 0.319551 -0.000114825 0.161912 0.986805
0.0771123 0.234866 0.472328 -0.000705972 0.9959 -0.0904544
-0.103868 -0.214077 0.351081 -4.93545e-06 0.00697531 0.999976
-0.116929 -0.00598957 0.322276 -0.000114825 0.161912 0.986805
-0.137241 -0.235148 0.350497 0.000112637 -0.15919 0.987248
0.23322 0.221773 0.0432009 -0.811188 0.574323 0.110122
-0.0281418 0.252862 0.533237 -0.000628145 0.888483 -0.458909
0.0822654 0.243929 0.576697 0.000609256 -0.86176 0.507316
-0.22264 0.201362 0.306898 -0.000596586 0.841591 -0.540115
-0.046931 -0.140145 0.344296 -0.000114742 0.161912 0.986805
0.220954 0.180012 0.16406 -0.421109 0.869283 0.25887
0.14807 0.0812842 0.256364 -1.10576e-05 0.0156062 -0.999878
-0.126954 -0.0479572 0.264028 0.330537 0.255029 0.908683
0.162587 -0.251255 0.320159 -0.000109215 0.154143 -0.988049
-0.0156341 -0.129224 0.342508 -0.000114742 0.161912 0.986805
0.246651 0.168111 0.355723 0.000617605 -0.873608 0.486629
-0.272278 -0.0205966 0.323381 -0.99685 0.0542338 0.0578692
-0.022415 0.227987 0.397371 -0.000704087 0.995899 -0.0904652
0.0965611 -0.283508 0.316499 0.000167695 -0.236107 -0.971727
0.261861 0.0729041 0.310287 -9.68477e-05 0.136468 0.990645
-0.159278 0.193968 0.477017 0.000655623 -0.927348 0.374201
0.112919 -0.0941663 0.33677 -0.000114742 0.161912 0.986805
-0.238008 0.180625 0.4247 0.00070115 -0.991785 0.127917
-0.245021 -0.0945207 0.336787 -0.000114742 0.161912 0.986805
0.226884 0.102657 0.308155 6.63992e-05 -0.093761 0.995595
-0.232974 0.219093 0.341173 -0.00066714 0.943637 -0.330981
-0.180466 0.0718382 0.257708 0.000113833 -0.160659 -0.98701
0.0804355 0.0535992 0.261272 0.000165497 -0.23357 -0.97234
0.0425472 0.202748 0.308765 -0.000596561 0.841591 -0.540115
0.0988873 0.205713 0.313323 -0.000596561 0.841591 -0.540115
0.269014 0.111734 0.283571 1 0.000706884 7.23849e-06
-0.15749 0.23433 0.468257 -0.000705972 0.9959 -0.0904544
0.0987288 0.115485 0.310078 0.000274323 -0.387365 0.921926
0.272005 -0.211249 0.351064 -4.94294e-06 0.00697522 0.999976
0.259696 0.0599023 0.259789 0.000165497 -0.23357 -0.97234
0.123653 -0.125354 0.30444 0.000166287 -0.235016 -0.971991
0.138403 -0.145195 0.345146 -0.000114742 0.161912 0.986805
-0.20162 -0.050505 0.276307 -0.0583854 -0.269552 -0.961214
-0.230412 -0.154832 0.209348 -0.352699 -0.874443 0.333097
-0.141323 0.199339 0.490296 0.000655623 -0.927348 0.374201
0.105717 0.019397 0.318137 -0.000114825 0.161912 0.986805
-0.225141 0.205903 0.0768977 0.765 -0.574685 -0.290708
-0.214295 -0.284649 0.338282 0.000419947 -0.591266 0.806476
-0.109856 0.187785 0.457916 0.000682154 -0.964912 0.262571
-0.263385 0.176661 0.288857 -1 -0.000734901 -1.48279e-06
0.0184899 0.19006 0.465944 0.00068218 -0.964912 0.262571
-0.111823 0.257671 0.542663 -0.000628145 0.888483 -0.458909
-0.206997 0.142746 0.324606 0.000378041 -0.534741 0.845016
0.26061 -0.158616 0.312506 0.000166287 -0.235016 -0.971991
-0.058088 0.0357367 0.265539 0.000165497 -0.23357 -0.97234
-0.235904 -0.19001 0.0721401 0.137573 0.934408 -0.328565
0.239621 0.145262 0.266028 -0.000311477 0.438658 -0.898654
0.00557879 0.219017 0.531949 0.000625482 -0.884752 0.466061
-0.218102 0.0257004 0.23401 0.0661061 -0.219188 -0.973441
-0.0836411 0.187215 0.292151 -0.000497566 0.702572 -0.711613
-0.143114 0.0397167 0.264569 0.000165497 -0.23357 -0.97234
-0.170052 0.13303 0.261855 -0.000148373 0.208956 -0.977925
0.0542972 0.246416 0.51691 -0.000659586 0.930466 -0.366378
0.145746 0.226575 0.381643 -0.000701752 0.992597 -0.121453
0.0446173 0.178953 0.284923 -0.000404742 0.571504 -0.820599
0.189418 0.22773 0.392893 -0.000704087 0.995899 -0.0904652
-0.249007 0.23404 0.560296 0.000609256 -0.86176 0.507316
0.23294 0.0971931 0.234653 0.719566 -0.0238431 0.694015
0.0845637 0.191857 0.296616 -0.000497566 0.702572 -0.711613
0.228553 -0.0110494 0.255775 0.287254 0.278167 0.916574
0.164255 0.233698 0.458791 -0.000704087 0.995899 -0.0904652
0.0554283 -0.135738 0.343585 -0.000114742 0.161912 0.986805
0.0214068 0.177523 0.399229 0.00070115 -0.991785 0.127917
0.0603041 -0.204075 0.3201 0.000105496 -0.149098 -0.988822
-0.0503426 -0.10585 0.338668 -0.000114742 0.161912 0.986805
0.145973 0.281125 0.587718 -0.000628145 0.888483 -0.458909
-0.263389 0.183183 0.343987 -1 -0.000701372 -9.21206e-07
-0.125584 -0.111752 0.339628 -0.000114742 0.161912 0.986805
0.0294923 0.253779 0.593373 0.00058605 -0.82894 0.559338
-0.0289027 -0.0735112 0.333365 -0.000114742 0.161912 0.986805
-0.162236 0.268086 0.614777 0.00058605 -0.82894 0.559338
-0.163369 -0.272526 0.316877 -0.000109215 0.154143 -0.988049
0.120158 0.184941 0.446869 0.00068218 -0.964912 0.262571
0.209626 0.0886543 0.308113 -9.68477e-05 0.136468 0.990645
0.137651 -0.259418 0.346206 0.000213913 -0.301921 0.953333
0.237298 0.256574 0.54006 -0.000628145 0.888483 -0.458909
-0.202103 0.217105 0.335442 -0.00066714 0.943637 -0.330981
0.247944 0.183027 0.439502 0.00068218 -0.964912 0.262571
-0.0649358 -0.0724813 0.291624 0.000167045 -0.235019 -0.971991
-0.140204 0.0750793 0.309948 -9.6781e-05 0.136468 0.990644
0.174685 0.146108 0.266464 -0.000311477 0.438658 -0.898654
0.252176 0.229713 0.414235 -0.000704087 0.995899 -0.0904652
-0.130916 -0.0446467 0.328617 -0.000114742 0.161912 0.986805
0.264187 0.217129 0.372301 1 0.000716743 -2.86138e-05
-0.261382 -0.186292 0.317384 0.000105495 -0.149098 -0.988822
0.118919 -0.186992 0.350894 -4.94294e-06 0.00697522 0.999976
-0.106694 0.179797 0.417561 0.00070115 -0.991785 0.127917
0.09735 0.0747422 0.310018 -9.68477e-05 0.136468 0.990645
0.219863 -0.147945 0.234118 -0.210161 -0.934133 0.288491
-0.139358 -0.153783 0.346412 -9.84635e-05 0.138941 0.990301
-0.220722 -0.0505311 0.284228 0.0557555 0.269681 0.961334
0.147377 0.206322 0.314219 -0.000596561 0.841591 -0.540115
-0.181049 0.175004 0.282284 -0.000404742 0.571504 -0.820599
0.259676 0.199192 0.303735 -0.000497566 0.702572 -0.711613
0.251302 0.0400833 0.264548 0.000166017 -0.233574 -0.972339
-0.0310993 -0.12203 0.30361 0.000166287 -0.235016 -0.971991
-0.162454 -0.129481 0.342533 -0.000114742 0.161912 0.986805
-0.140313 -0.0904031 0.295944 0.000167045 -0.235019 -0.971991
-0.141334 0.224685 0.36785 -0.000701752 0.992597 -0.121453
0.269051 0.0601892 0.280368 1 0.000664879 -1.55923e-05
0.206341 0.157977 0.272247 -0.000311477 0.438658 -0.898654
0.0376174 -0.127935 0.305049 0.000166287 -0.235016 -0.971991
0.143988 -0.240143 0.34966 0.000112637 -0.15919 0.987248
0.215521 0.220914 0.345459 -0.000668933 0.943649 -0.330947
0.173338 0.175814 0.385146 0.00070115 -0.991785 0.127917
-0.00807619 -0.0653215 0.289902 0.000167045 -0.235019 -0.971991
0.218304 -0.165383 0.314135 0.000166287 -0.235016 -0.971991
-0.230303 0.274969 0.576315 -0.000628096 0.888483 -0.458909
0.199803 -0.111774 0.301169 0.000166287 -0.235016 -0.971991
-0.114655 0.21818 0.530522 0.000625482 -0.884752 0.466061
0.125478 0.155005 0.33545 0.000483349 -0.683675 0.729786
-0.219927 0.0840123 0.30871 -9.6781e-05 0.136468 0.990644
-0.209364 -0.173376 0.349155 -9.846e-05 0.138941 0.990301
0.0226032 0.201594 0.306989 -0.000596561 0.841591 -0.540115
-0.0964213 -0.177236 0.316036 0.000105495 -0.149098 -0.988822
0.0447358 0.0392045 0.264724 0.000165497 -0.23357 -0.97234
-0.24464 -0.169538 0.348613 -9.846e-05 0.138941 0.990301
0.107335 0.234355 0.560404 0.000609256 -0.86176 0.507316
0.174758 -0.269946 0.317242 -0.000109491 0.154148 -0.988048
0.223907 -0.0490452 0.267342 0.586251 0.796785 -0.146438
-0.0901036 -0.292103 0.32824 0.000702024 -0.98842 0.151738
-0.245069 -0.166489 0.314323 0.000166287 -0.235016 -0.971991
0.0433145 0.0854682 0.308535 -9.68477e-05 0.136468 0.990645
0.0405818 0.234283 0.466198 -0.000705972 0.9959 -0.0904544
0.253771 0.212792 0.0606805 0.811113 -0.574423 -0.110155
0.239367 0.278548 0.582601 -0.000628145 0.888483 -0.458909
-0.263417 0.223157 0.511859 -1 -0.00070646 3.30144e-06
0.133412 0.177726 0.400188 0.000701152 -0.991785 0.127917
-0.188456 0.240566 0.571309 0.000609256 -0.86176 0.507316
0.155286 -0.162787 0.313496 0.000166287 -0.235016 -0.971991
-0.0812627 0.183779 0.44312 0.000682154 -0.964912 0.262571
-0.134308 0.19117 0.470037 0.000655623 -0.927348 0.374201
0.222797 -0.14212 0.308511 0.000166287 -0.235016 -0.971991
-0.077307 0.0404927 0.264394 0.000165497 -0.23357 -0.97234
0.24542 -0.216811 0.0297471 -0.210161 -0.934133 0.288491
-0.146125 -0.00678221 0.322403 -0.000114742 0.161912 0.986805
-0.177489 -0.158354 0.34705 -9.846e-05 0.138941 0.990301
-0.122354 -0.274135 0.316621 -0.000109491 0.154148 -0.988048
0.179609 0.0880967 0.308186 -9.68477e-05 0.136468 0.990645
-0.0550078 -0.282604 0.338907 0.000214432 -0.301911 0.953336
-0.243378 0.176278 0.391024 0.00070115 -0.991785 0.127917
-0.240094 0.057527 0.312357 -9.6781e-05 0.136468 0.990644
-0.219392 0.187366 0.136733 0.811208 0.574387 0.109638
-0.211986 0.117415 0.258524 -0.000148373 0.208956 -0.977925
-0.150728 -0.0788838 0.334232 -0.000114742 0.161912 0.986805
0.0167426 0.201872 0.496296 0.000655598 -0.927348 0.3742
0.167344 -0.105959 0.338712 -0.000114825 0.161912 0.986805
-0.102254 0.254382 0.594406 0.00058605 -0.82894 0.559338
-0.160064 0.118817 0.258816 -0.000148373 0.208956 -0.977925
-0.227004 0.0962593 0.236452 -0.282036 -0.0362528 0.958719
0.0747346 -0.0261099 0.3256 -0.000114825 0.161912 0.986805
-0.272462 0.0182923 0.273944 -0.99695 0.0686151 0.0371919
-0.010902 0.238657 0.567853 0.000609256 -0.86176 0.507316
-0.225013 0.0665983 0.258556 0.000113833 -0.160659 -0.98701
0.046744 -0.248094 0.348388 0.000112785 -0.159187 0.987248
0.0962155 -0.0193951 0.3245 -0.000114825 0.161912 0.986805
0.14977 0.216147 0.526308 0.000625509 -0.884752 0.466061
-0.0726313 0.229809 0.552541 0.000625509 -0.884752 0.466061
0.143313 -0.0657859 0.332117 -0.000114825 0.161912 0.986805
-0.0828026 0.145334 0.326529 0.00048333 -0.683676 0.729786
-0.0486204 -0.000486746 0.274242 0.000166017 -0.233574 -0.972339
-0.172199 0.25739 0.542201 -0.000628145 0.888483 -0.458909
0.269332 0.0438594 0.291074 0.99759 0.0643025 0.0260719
-0.248101 -0.234503 0.350614 0.000112785 -0.159187 0.987248
0.00304529 0.232235 0.443946 -0.000705972 0.9959 -0.0904544
0.191929 0.248641 0.584568 0.000609256 -0.86176 0.507316
0.0524476 0.167986 0.355743 0.000617605 -0.873608 0.486629
-0.0171816 -0.262168 0.34537 0.000213913 -0.301921 0.953333
-0.0335994 -0.0518053 0.242186 -0.000559708 0.96299 -0.269535
0.233487 0.263562 0.607659 0.00058605 -0.82894 0.559338
0.252659 -0.219749 0.321178 -1.32405e-05 0.0186872 -0.999825
-0.178948 -0.292327 0.323632 0.000639645 -0.900594 -0.434662
0.0918882 -0.244625 0.320715 -1.32405e-05 0.0186872 -0.999825
0.0642587 0.0854214 0.219004 -0.100246 0.0696553 0.992521
0.0553032 -0.138899 0.307703 0.000166287 -0.235016 -0.971991
-0.0209846 0.178482 0.406894 0.00070115 -0.991785 0.127917
-0.0465876 -0.110292 0.300769 0.000166287 -0.235016 -0.971991
0.0395681 0.116018 0.258188 -0.000148186 0.208953 -0.977926
0.0584343 0.23062 0.425733 -0.000704087 0.995899 -0.0904652
0.0111054 -0.258193 0.346623 0.000213913 -0.301921 0.953333
0.157635 0.0801883 0.309274 -9.68477e-05 0.136468 0.990645
-0.159027 -0.1767 0.349626 -9.846e-05 0.138941 0.990301
0.156443 0.0627583 0.259225 0.000113833 -0.160659 -0.98701
0.049008 0.282725 0.590949 -0.000628096 0.888483 -0.458909
0.199394 0.237879 0.489793 -0.000696197 0.982109 -0.188313
-0.270326 -0.0559069 0.330448 -0.000114742 0.161912 0.986805
0.0541074 0.081051 0.256361 -1.10576e-05 0.0156062 -0.999878
0.164157 -0.179495 0.35005 -9.846e-05 0.138941 0.990301
-0.139419 0.260856 0.60404 0.00058605 -0.82894 0.559338
-0.270925 -0.232028 0.320955 -1.32221e-05 0.0186869 -0.999825
-0.0941304 0.0625792 0.311675 -9.6781e-05 0.136468 0.990644
0.156786 -0.10786 0.300216 0.000166287 -0.235016 -0.971991
-0.204855 0.24469 0.512993 -0.00065782 0.930456 -0.366402
-0.226368 -0.0204887 0.258372 -0.287196 0.271351 0.918633
-0.2047 -0.0188651 0.278636 0.000167045 -0.235019 -0.971991
-0.096456 0.088117 0.220096 -0.00065016 0.997518 -0.070416
0.194086 0.232367 0.443906 -0.000704087 0.995899 -0.0904652
0.0813104 0.290922 0.60886 -0.000686944 0.971727 -0.236107
-0.0857462 -0.148441 0.345653 -0.000114742 0.161912 0.986805
-0.0702953 -0.241923 0.349397 0.000112785 -0.159187 0.987248
0.197767 -0.0477315 0.329161 -0.000114825 0.161912 0.986805
-0.227852 0.221061 0.536144 0.000625482 -0.884752 0.466061
-0.248459 -0.0573647 0.33069 -0.000114742 0.161912 0.986805
-0.0988968 -0.05568 0.255992 0.330417 0.255583 0.908572
0.0184884 -0.227508 0.321036 -1.32221e-05 0.0186869 -0.999825
-0.115851 0.0277692 0.316737 -0.000114825 0.161912 0.986805
0.0514957 -0.284065 0.33842 0.000214432 -0.301911 0.953336
0.18549 0.119474 0.258904 -0.000148186 0.208953 -0.977926
-0.156335 0.177728 0.40179 0.00070115 -0.991785 0.127917
-0.0637458 -0.141777 0.308379 0.000166287 -0.235016 -0.971991
0.239966 -0.0556981 0.287618 0.000166287 -0.235016 -0.971991
0.256353 0.176053 0.386542 0.000701152 -0.991785 0.127917
0.282304 -0.214907 0.325764 0.993711 0.0954195 0.0585966
-0.0865957 0.244897 0.578544 0.000609256 -0.86176 0.507316
0.211348 0.189332 0.294034 -0.000497566 0.702572 -0.711613
-0.227523 0.200651 0.493698 0.000655623 -0.927348 0.374201
0.10081 0.182389 0.436517 0.000701152 -0.991785 0.127917
0.205933 -0.0436992 0.280318 -0.0731932 0.269291 0.960274
-0.222599 0.196468 0.112774 0.811208 0.574387 0.109638
-0.227598 0.256488 0.540531 -0.000628096 0.888483 -0.458909
-0.24641 -0.209411 0.00549119 0 0 1
0.177386 0.280306 0.58609 -0.000628145 0.888483 -0.458909
-0.00129396 0.0920078 0.30763 -9.68477e-05 0.136468 0.990645
-0.223379 -0.291313 0.321464 0.000639645 -0.900594 -0.434662
-0.132643 -0.171801 0.315213 0.000105495 -0.149098 -0.988822
0.218511 0.224575 0.364872 -0.000701753 0.992597 -0.121453
0.115618 0.120078 0.259044 -0.000148186 0.208953 -0.977926
0.183346 0.0402616 0.314776 -9.6781e-05 0.136468 0.990644
0.208429 -0.0103411 0.323028 -0.000114825 0.161912 0.986805
0.2347 0.176076 0.386835 0.000701152 -0.991785 0.127917
0.105947 -0.130717 0.342767 -0.000114742 0.161912 0.986805
-0.164636 0.287455 0.600398 -0.000628096 0.888483 -0.458909
0.0166229 -0.0727373 0.2454 0.000691465 -0.962897 0.269869
0.0880671 -0.222269 0.35114 -4.93545e-06 0.00697531 0.999976
-0.245844 0.288291 0.602129 -0.000628096 0.888483 -0.458909
-0.169258 0.233492 0.559269 0.000609256 -0.86176 0.507316
-0.207452 -0.112038 0.301164 0.000167045 -0.235019 -0.971991
-0.211778 -0.138496 0.23093 0.353057 0.874305 -0.333079
0.214552 -0.0743313 0.333528 -0.000114825 0.161912 0.986805
-0.243606 0.165679 0.351977 0.00061763 -0.873608 0.48663
0.208133 0.274071 0.573976 -0.000628145 0.888483 -0.458909
-0.151388 0.21671 0.52778 0.000625482 -0.884752 0.466061
0.173962 -0.0369181 0.283066 0.000167045 -0.235019 -0.971991
-0.268044 -0.0894232 0.295685 0.000167045 -0.235019 -0.971991
0.231774 -0.0624263 0.331576 -0.000114825 0.161912 0.986805
0.254604 0.168366 0.277447 -0.000403635 0.571478 -0.820618
0.0958543 0.144993 0.326091 0.00048333 -0.683676 0.729786
0.146779 0.230335 0.421907 -0.000704087 0.995899 -0.0904652
0.263956 -0.126507 0.342094 -0.000114825 0.161912 0.986805
-0.0153216 0.118285 0.311289 0.000274323 -0.387365 0.921926
0.26746 -0.127053 0.304875 0.000166287 -0.235016 -0.971991
0.100967 0.232041 0.441037 -0.000704087 0.995899 -0.0904652
0.233769 -0.00291608 0.274874 0.000166017 -0.233574 -0.972339
0.0887007 0.220229 0.343762 -0.00066714 0.943637 -0.330981
0.284706 -0.238601 0.323618 0.993711 0.0954195 0.0585966
0.00470883 -0.205925 0.320373 0.000105496 -0.149098 -0.988822
0.132113 0.137688 0.262804 -0.000148373 0.208956 -0.977925
0.0655483 0.145191 0.326297 0.00048333 -0.683676 0.729786
0.00464886 -0.174265 0.3493 -9.846e-05 0.138941 0.990301
0.268039 -0.0684503 0.290706 0.000166287 -0.235016 -0.971991
-0.255827 0.0546065 0.260973 0.000165497 -0.23357 -0.97234
0.18586 -0.0634561 0.289485 0.000166287 -0.235016 -0.971991
0.0516626 0.0449424 0.314119 -9.6781e-05 0.136468 0.990644
0.215027 0.282349 0.589993 -0.000628145 0.888483 -0.458909
0.196016 0.264298 0.555071 -0.000628145 0.888483 -0.458909
0.00654358 -0.230054 0.351193 -4.93545e-06 0.00697531 0.999976
0.150129 0.113691 0.30931 0.000274323 -0.387365 0.921926
0.0800871 0.0630602 0.311626 -9.68477e-05 0.136468 0.990645
-0.0627389 0.240427 0.501911 -0.000659586 0.930466 -0.366378
-0.206672 -0.175253 0.315726 0.000105495 -0.149098 -0.988822
-0.212647 0.109115 0.308792 6.65372e-05 -0.0937572 0.995595
-0.226178 0.0601222 0.22973 -0.490227 -0.123031 -0.862868
-0.127535 0.203861 0.501478 0.000655598 -0.927348 0.3742
-0.0148338 0.204037 0.501715 0.000655598 -0.927348 0.3742
-0.0407043 -0.039557 0.327792 -0.000114825 0.161912 0.986805
0.163554 -0.286266 0.317181 0.000167695 -0.236107 -0.971727
0.155141 0.261891 0.550467 -0.000628145 0.888483 -0.458909
0.23434 0.187012 0.151633 0.137462 0.928943 0.343759
0.0774473 0.2323 0.444074 -0.000704087 0.995899 -0.0904652
-0.0943763 0.228241 0.400725 -0.000704087 0.995899 -0.0904652
-0.0294646 -0.172403 0.349036 -9.846e-05 0.138941 0.990301
-0.119751 0.182272 0.436816 0.000701152 -0.991785 0.127917
-0.246763 0.266734 0.612863 0.00058605 -0.82894 0.559338
0.146166 0.105987 0.256749 -1.10677e-05 0.0156063 -0.999878
-0.246423 0.217001 0.0318908 -0.212449 -0.928838 -0.303523
-0.241445 -0.271548 0.34245 0.000214432 -0.301911 0.953336
0.181926 0.178327 0.404581 0.000701152 -0.991785 0.127917
-0.0408304 0.286287 0.597967 -0.000628096 0.888483 -0.458909
-0.272995 -0.120082 0.303097 0.000167045 -0.235019 -0.971991
-0.276961 -0.123079 0.338772 -0.99685 0.0542338 0.0578692
-0.146851 -0.191134 0.350921 -4.94294e-06 0.00697522 0.999976
0.277952 -0.091934 0.297494 0.998294 0.050696 -0.0289697
-0.214629 -0.126387 0.265518 0.264022 -0.582055 0.769093
-0.0498481 0.0563423 0.312538 -9.6781e-05 0.136468 0.990644
0.193 0.252219 0.531398 -0.00065782 0.930456 -0.366402
-0.157648 0.0229155 0.317529 -0.000114825 0.161912 0.986805
-0.115934 0.234737 0.47242 -0.000705972 0.9959 -0.0904544
-0.0013769 -0.0805918 0.33453 -0.000114742 0.161912 0.986805
0.147354 -0.291374 0.331895 0.000702024 -0.98842 0.151738
-0.0363508 -0.0520041 0.286677 0.000167045 -0.235019 -0.971991
0.277361 -0.0779141 0.326177 0.997264 0.0725566 0.0141593
0.269053 0.0572963 0.304555 1 0.000698678 8.72287e-06
-0.174413 0.25147 0.589814 0.000609256 -0.86176 0.507316
0.285809 -0.27998 0.319586 1 0.000698224 1.22487e-06
-0.252685 -0.251779 0.347829 0.000112785 -0.159187 0.987248
-0.097734 -0.0127525 0.323388 -0.000114825 0.161912 0.986805
0.00293973 0.236477 0.483205 -0.000696197 0.982109 -0.188313
-0.0250302 0.286289 0.624272 -0.000162008 0.229152 0.973391
0.256554 0.27039 0.566783 -0.000628145 0.888483 -0.458909
0.230353 -0.291669 0.329586 0.000702024 -0.98842 0.151738
-0.200159 0.128598 0.315677 0.000273611 -0.387386 0.921917
0.157827 0.198555 0.487827 0.000655598 -0.927348 0.3742
0.21996 0.226235 0.545365 0.000625509 -0.884752 0.466061
-0.268982 0.062619 0.296007 -0.995885 0.0691706 0.0585487
-0.154155 -0.228863 0.351184 -4.93545e-06 0.00697531 0.999976
-0.0298986 0.196441 0.482917 0.000655623 -0.927348 0.374201
-0.219937 0.174642 0.155634 0.353276 -0.868708 -0.347192
0.233513 0.147016 0.327895 0.000483349 -0.683675 0.729786
0.0984201 0.0366191 0.265354 0.000166017 -0.233574 -0.972339
-0.263363 0.277189 0.580658 -0.000628096 0.888483 -0.458909
-0.205404 0.289332 0.622559 -0.000634693 0.897744 0.440518
0.0685965 0.280636 0.625446 0.000388989 -0.548717 0.836008
-0.270346 0.0447672 0.281829 -0.99695 0.0686151 0.0371919
0.0834212 -0.291316 0.332565 0.000702024 -0.98842 0.151738
-0.263392 0.188064 0.385452 -1 -0.000713362 -1.13237e-05
0.193909 -0.252006 0.320038 -0.000109215 0.154143 -0.988049
0.107837 0.0599716 0.312054 -9.68477e-05 0.136468 0.990645
-0.209107 0.208215 0.511731 0.000625482 -0.884752 0.466061
0.172586 0.265684 0.610868 0.00058605 -0.82894 0.559338
0.214747 0.0884866 0.254114 -0.0731408 0.0703547 0.994837
-0.0640936 0.226785 0.384573 -0.000701752 0.992597 -0.121453
0.282276 -0.194974 0.33431 1 0.000715076 3.12374e-05
-0.241312 0.236816 0.000455791 0 0 -1
-0.223949 0.251478 0.589887 0.000609256 -0.86176 0.507316
0.230518 0.234748 0.469832 -0.000704087 0.995899 -0.0904652
-0.0688785 -0.107726 0.300145 0.000167045 -0.235019 -0.971991
-0.00708643 -0.240446 0.320795 -1.32405e-05 0.0186872 -0.999825
0.227099 0.00542825 0.241542 0.48722 -0.26842 -0.831004
0.0933899 0.0799447 0.25642 0.000113833 -0.160659 -0.98701
0.170044 0.289327 0.623111 -0.000634693 0.897744 0.440518
-0.267898 0.120574 0.262943 -0.989473 0.091143 0.112413
0.246727 0.225657 0.373555 -0.000701753 0.992597 -0.121453
0.253581 0.105952 0.256747 -1.10576e-05 0.0156062 -0.999878
0.179694 -0.274851 0.341309 0.000213913 -0.301921 0.953333
0.00902426 0.0192137 0.26952 0.000166017 -0.233574 -0.972339
-0.228417 0.173208 0.281056 -0.000404742 0.571504 -0.820599
-0.188969 0.270111 0.566853 -0.000628096 0.888483 -0.458909
-0.261156 0.123138 0.313401 0.000274323 -0.387365 0.921926
0.251396 -0.240374 0.320792 -1.32405e-05 0.0186872 -0.999825
-0.208846 0.151624 0.269289 -0.000309807 0.438632 -0.898667
-0.0792559 0.291468 0.618389 -0.000634693 0.897744 0.440518
-0.154152 0.0584223 0.260074 0.000165497 -0.23357 -0.97234
-0.0391863 0.242538 0.574479 0.000609256 -0.86176 0.507316
0.26421 0.183559 0.428284 1 0.000711866 2.89955e-05
0.140944 -0.0601384 0.263694 0.303796 -0.257004 -0.917418
0.051817 -0.0611308 0.288899 0.000167045 -0.235019 -0.971991
0.237213 -0.117183 0.302484 0.000166287 -0.235016 -0.971991
0.135476 0.125399 0.314234 0.000273611 -0.387386 0.921917
-0.0971011 0.240593 0.502396 -0.000659586 0.930466 -0.366378
0.141651 0.182093 0.433998 0.000701152 -0.991785 0.127917
-0.266274 0.0935467 0.305698 -0.997204 0.0147975 0.0732529
0.158353 0.198356 0.30298 -0.000498023 0.702579 -0.711606
-0.139005 -0.192526 0.318337 0.000105495 -0.149098 -0.988822
0.000475585 0.271253 0.619301 0.00058605 -0.82894 0.559338
0.258498 0.227283 0.547301 0.000625509 -0.884752 0.466061
-0.269176 0.090157 0.266874 -0.997204 0.0147975 0.0732529
0.184327 0.172004 0.368897 0.000681195 -0.963559 0.267495
-0.0958276 -0.260922 0.345782 0.000213913 -0.301921 0.953333
0.264192 0.208443 0.327856 1 0.000690682 -4.97822e-05
-0.113931 0.199743 0.491248 0.000655623 -0.927348 0.374201
-0.0523985 0.248999 0.58547 0.000609256 -0.86176 0.507316
0.171304 0.141093 0.32339 0.000378041 -0.534741 0.845016
0.110743 -0.277378 0.340524 0.000214432 -0.301911 0.953336
0.0461553 0.267396 0.561275 -0.000628145 0.888483 -0.458909
-0.129112 -0.25748 0.31922 -0.000109215 0.154143 -0.988049
-0.28554 -0.28124 0.335044 -0.995066 0.0974341 0.0187193
0.128798 0.0125566 0.319262 -0.000114825 0.161912 0.986805
0.255433 -0.00315571 0.274936 0.000166017 -0.233574 -0.972339
0.145057 -0.0397342 0.283742 0.000167045 -0.235019 -0.971991
0.101057 0.225725 0.374956 -0.000701752 0.992597 -0.121453
0.264157 0.257523 0.577586 1 0.000706155 8.73718e-06
-0.175027 0.01953 0.269413 0.000165497 -0.23357 -0.97234
-0.0125272 -0.146097 0.345277 -0.000114742 0.161912 0.986805
0.179424 0.165467 0.35106 0.000617605 -0.873608 0.486629
-0.0567847 0.214826 0.524077 0.000625482 -0.884752 0.466061
0.0333898 0.0110861 0.319492 -0.000114825 0.161912 0.986805
0.166884 0.168982 0.277919 -0.000403635 0.571478 -0.820618
-0.0279318 0.130761 0.261348 -0.000148373 0.208956 -0.977925
-0.261908 -0.0905528 0.336134 -0.000114742 0.161912 0.986805
0.0300968 0.269203 0.616232 0.00058605 -0.82894 0.559338
0.230397 0.24997 0.525621 -0.000659586 0.930466 -0.366378
0.0102085 -0.0237081 0.279844 0.000167045 -0.235019 -0.971991
-0.116936 -0.0729933 0.33327 -0.000114742 0.161912 0.986805
-0.00427812 -0.19065 0.318069 0.000105496 -0.149098 -0.988822
-0.187799 0.057141 0.260376 0.000165497 -0.23357 -0.97234
-0.236837 0.235006 0.476317 -0.000705972 0.9959 -0.0904544
-0.00970197 0.186328 0.291223 -0.000497566 0.702572 -0.711613
0.0279635 0.239713 0.499934 -0.000659586 0.930466 -0.366378
0.0344619 -0.0885136 0.335834 -0.000114742 0.161912 0.986805
-0.0997795 0.152164 0.332938 0.00048333 -0.683676 0.729786
0.24295 -0.22931 0.00533926 0 0 1
0.0635873 0.141258 0.264135 -0.000311477 0.438658 -0.898654
0.244263 0.203375 0.071479 0.212622 -0.928733 -0.303722
0.10137 -0.193067 0.350936 -4.94294e-06 0.00697522 0.999976
0.0185761 0.0680058 0.20908 0.100415 -0.0696539 -0.992505
0.25788 0.153268 0.26993 -0.000311477 0.438658 -0.898654
-0.154099 -0.0421462 0.328204 -0.000114742 0.161912 0.986805
0.102939 0.202296 0.497194 0.000655598 -0.927348 0.3742
0.194383 -0.274077 0.316595 -0.000109491 0.154148 -0.988048
0.219497 0.019485 0.269491 0.000166017 -0.233574 -0.972339
0.264172 0.23814 0.516713 1 0.000715481 2.41164e-05
0.123521 -0.0744502 0.333537 -0.000114825 0.161912 0.986805
-0.0337447 0.186018 0.451227 0.000682154 -0.964912 0.262571
-0.225443 -0.116277 0.302186 0.000167045 -0.235019 -0.971991
-0.233902 0.189097 0.463061 0.000682154 -0.964912 0.262571
-0.00964227 0.215398 0.5251 0.000625482 -0.884752 0.466061
0.0968681 -0.265553 0.317936 -0.000109491 0.154148 -0.988048
0.0725449 0.175895 0.386322 0.00070115 -0.991785 0.127917
-0.0387079 0.0571646 0.260395 0.000165497 -0.23357 -0.97234
-0.128258 -0.220647 0.351127 -4.93545e-06 0.00697531 0.999976
-0.0939539 0.0844977 0.256416 -1.10576e-05 0.0156062 -0.999878
-0.173465 0.184146 0.444708 0.000682154 -0.964912 0.262571
-0.171947 0.0600641 0.312014 -9.6781e-05 0.136468 0.990644
0.19624 -0.0104881 0.276687 0.000166017 -0.233574 -0.972339
0.215138 0.291337 0.610178 -0.000686944 0.971727 -0.236107
-0.126331 0.139298 0.263244 -0.000311477 0.438658 -0.898654
0.151475 -0.134439 0.343383 -0.000114742 0.161912 0.986805
0.0171682 0.165244 0.275859 -0.000309807 0.438632 -0.898667
0.229026 -0.192044 0.318304 0.000105496 -0.149098 -0.988822
-0.210617 -0.277193 0.316154 -0.000109491 0.154148 -0.988048
0.122828 0.191646 0.470766 0.000655623 -0.927348 0.374201
-0.131653 0.290353 0.620585 -0.000634693 0.897744 0.440518
0.224421 0.180075 0.417897 0.000701152 -0.991785 0.127917
0.0674316 -0.249154 0.320497 -0.000109215 0.154143 -0.988049
-0.0628738 0.230394 0.424189 -0.000705972 0.9959 -0.0904544
0.222475 -0.128223 0.263857 0.0850377 -0.580916 0.809509
0.0695744 -0.187143 0.350894 -4.94294e-06 0.00697522 0.999976
-0.00721735 0.161714 0.344559 0.00061763 -0.873608 0.48663
0.044276 0.140267 0.263658 -0.000311477 0.438658 -0.898654
0.184789 0.245531 0.514429 -0.000659586 0.930466 -0.366378
-0.139705 0.171162 0.366692 0.000681195 -0.963559 0.267495
0.23534 -0.100074 0.337754 -0.000114825 0.161912 0.986805
0.229475 0.186947 0.118392 -0.351455 -0.869418 -0.347264
0.00474459 0.196452 0.482884 0.000655623 -0.927348 0.374201
-0.236524 -0.182116 0.0959945 -0.209847 0.934116 -0.288775
0.1268 -0.19359 0.318526 0.000105496 -0.149098 -0.988822
0.198486 0.0475585 0.313773 -9.68477e-05 0.136468 0.990645
0.160729 0.245676 0.514839 -0.000659586 0.930466 -0.366378
-0.222883 0.177634 0.1766 0.21147 0.929018 0.303654
0.0920723 0.229845 0.416937 -0.000704087 0.995899 -0.0904652
-0.179069 0.154452 0.335134 0.00048333 -0.683676 0.729786
-0.15685 0.183366 0.441798 0.000682154 -0.964912 0.262571
0.158676 -0.229902 0.320989 -1.32405e-05 0.0186872 -0.999825
0.212229 0.0997506 0.256651 -1.10576e-05 0.0156062 -0.999878
0.253043 0.232854 0.0189595 0.351147 0.86956 0.347219
-0.0846472 -0.142758 0.308612 0.000166287 -0.235016 -0.971991
0.0355876 -0.222873 0.351144 -4.93545e-06 0.00697531 0.999976
0.159056 0.177095 0.395151 0.000701152 -0.991785 0.127917
0.241248 0.244105 0.510705 -0.000659586 0.930466 -0.366378
-0.00734127 0.224737 0.542826 0.000625509 -0.884752 0.466061
-0.225644 -0.252086 0.320072 -0.000109215 0.154143 -0.988049
-0.116419 -0.233179 0.320932 -1.32221e-05 0.0186869 -0.999825
0.237081 -0.163627 0.347831 -9.84635e-05 0.138941 0.990301
-0.0700063 -0.240378 0.320797 -1.32405e-05 0.0186872 -0.999825
0.186804 -0.100969 0.298555 0.000166287 -0.235016 -0.971991
0.0983259 0.161271 0.273892 -0.000309807 0.438632 -0.898667
-0.211651 0.0840297 0.248702 -0.058442 -0.0705181 -0.995797
0.0700924 0.244441 0.511865 -0.000659586 0.930466 -0.366378
-0.204063 0.132021 0.261644 -0.000148373 0.208956 -0.977925
0.123812 0.274163 0.574269 -0.000628145 0.888483 -0.458909
0.175349 0.209794 0.514213 0.000625482 -0.884752 0.466061
0.0293242 0.186687 0.453519 0.00068218 -0.964912 0.262571
0.0217947 0.135323 0.319806 0.000377694 -0.53475 0.84501
-0.0205018 0.206929 0.315349 -0.000596586 0.841591 -0.540115
-0.023791 -0.0329515 0.326711 -0.000114825 0.161912 0.986805
0.16854 0.22042 0.344145 -0.000668933 0.943649 -0.330947
0.24474 -0.2825 0.31628 0.000167695 -0.236107 -0.971727
-0.0180987 0.254536 0.594546 0.00058605 -0.82894 0.559338
-0.276235 -0.0913705 0.321561 -0.99685 0.0542338 0.0578692
-0.0763554 0.0945092 0.307408 6.65372e-05 -0.0937572 0.995595
0.196485 0.0812883 0.256363 -1.10576e-05 0.0156062 -0.999878
0.26548 0.16257 0.322941 0.996178 -0.0593035 0.0641233
0.211907 0.171676 0.279773 -0.000403635 0.571478 -0.820618
0.242189 -0.166466 0.16384 0.767486 -0.576228 0.280939
-0.0291381 0.261445 0.604797 0.00058605 -0.82894 0.559338
-0.0531358 0.123031 0.2597 -0.000148373 0.208956 -0.977925
0.114297 0.224023 0.360967 -0.000701753 0.992597 -0.121453
-0.234583 -0.204627 0.0645264 0.211325 -0.933867 0.288501
-0.084424 0.076578 0.222594 0.121696 0.0701628 0.990084
-0.203441 -0.0293047 0.326091 -0.000114742 0.161912 0.986805
0.200951 0.229832 0.552217 0.000625509 -0.884752 0.466061
0.0378679 0.227706 0.393814 -0.000704087 0.995899 -0.0904652
-0.0606181 0.0439406 0.314246 -9.6781e-05 0.136468 0.990644
-0.0696794 0.213184 0.32515 -0.000596586 0.841591 -0.540115
0.0965702 0.0840797 0.219139 0.303686 -0.0670474 -0.95041
-0.0429732 0.191561 0.296412 -0.000498023 0.702579 -0.711606
0.164808 -0.268147 0.343436 0.000213913 -0.301921 0.953333
0.0129788 -0.112462 0.339761 -0.000114742 0.161912 0.986805
-0.0490608 -0.0682534 0.290604 0.000167045 -0.235019 -0.971991
-0.253951 0.0294367 0.316447 -0.000114742 0.161912 0.986805
-0.162352 -0.0309307 0.28156 0.000167045 -0.235019 -0.971991
0.02593 0.0560184 0.31259 -9.6781e-05 0.136468 0.990644
-0.163592 -0.160135 0.312801 0.000166287 -0.235016 -0.971991
0.235053 -0.191118 0.350923 -4.94294e-06 0.00697522 0.999976
0.0863471 -0.133589 0.343236 -0.000114742 0.161912 0.986805
0.0573505 0.232167 0.442769 -0.000705972 0.9959 -0.0904544
0.0757597 0.0071147 0.272438 0.000166017 -0.233574 -0.972339
-0.0202193 0.23946 0.498847 -0.000696195 0.982109 -0.188313
-0.219409 0.280945 0.625498 -0.000162429 0.229125 0.973397
-0.164201 0.133584 0.318789 0.000377694 -0.53475 0.84501
0.114405 0.23909 0.49642 -0.000696195 0.982109 -0.188313
-0.146935 -0.0594725 0.331048 -0.000114742 0.161912 0.986805
-0.146246 0.0738383 0.237571 -0.331436 -0.0668294 -0.941108
-0.0735047 -0.287889 0.335833 0.000419946 -0.591266 0.806476
0.266736 0.161789 0.303377 0.996052 -0.0502348 0.0731875
-0.164297 0.236357 0.4832 -0.000696195 0.982109 -0.188313
0.143772 -0.0488729 0.329342 -0.000114825 0.161912 0.986805
0.197988 0.188589 0.460071 0.00068218 -0.964912 0.262571
-0.210919 0.271193 0.568977 -0.000628096 0.888483 -0.458909
-0.229445 -0.240158 0.3497 0.000112785 -0.159187 0.987248
0.103796 -0.0468559 0.285457 0.000167045 -0.235019 -0.971991
-0.213621 0.00964394 0.238513 0.285196 -0.239241 -0.928131
0.212863 0.133529 0.231062 -0.48477 0.327073 0.811185
-0.205107 -0.0804993 0.270472 0.491518 0.0302805 0.870341
0.0183254 0.0717062 0.310429 -9.68477e-05 0.136468 0.990645
0.27656 -0.0630291 0.306331 0.997264 0.0725566 0.0141593
0.0161225 0.275301 0.621969 0.000387965 -0.548757 0.835982
0.0383913 -0.260077 0.318796 -0.000109215 0.154143 -0.988049
-0.0931572 0.190829 0.46906 0.00068218 -0.964912 0.262571
-0.217462 0.0705444 0.242478 0.000741904 -0.990762 0.135606
-0.0164405 -0.288196 0.317618 0.000167695 -0.236107 -0.971727
0.0860721 0.201414 0.495039 0.000655598 -0.927348 0.3742
0.0730436 -0.0771443 0.333973 -0.000114825 0.161912 0.986805
-0.178095 -0.122506 0.341387 -0.000114742 0.161912 0.986805
-0.044132 0.138284 0.321709 0.000378041 -0.534741 0.845016
-0.192226 0.216658 0.527736 0.000625482 -0.884752 0.466061
-0.0201728 -0.255695 0.319487 -0.000109215 0.154143 -0.988049
-0.229668 0.209878 0.0575683 0.353276 -0.868708 -0.347192
0.134168 -0.033885 0.326882 -0.000114825 0.161912 0.986805
0.165605 0.224494 0.36452 -0.000701753 0.992597 -0.121453
0.0138595 -0.053225 0.286981 0.000167045 -0.235019 -0.971991
0.0700064 0.00788607 0.320021 -0.000114825 0.161912 0.986805
-0.230401 -0.0118152 0.323219 -0.000114742 0.161912 0.986805
0.0184383 0.247013 0.518492 -0.00065782 0.930456 -0.366402
-0.22732 0.156093 0.203287 -0.230019 -0.854985 -0.464857
-0.0463028 0.182088 0.434994 0.000701152 -0.991785 0.127917
0.01125 0.132285 0.261668 -0.000148373 0.208956 -0.977925
-0.0148297 0.176134 0.388655 0.00070115 -0.991785 0.127917
-0.215757 -0.149621 0.197508 0.353057 0.874305 -0.333079
-0.0455367 0.173166 0.280937 -0.000403635 0.571478 -0.820618
-0.227808 0.0438074 0.263572 0.000165497 -0.23357 -0.97234
0.237933 0.222054 0.0219267 -0.350216 -0.869919 -0.34726
-0.112834 0.0490384 0.313538 -9.6781e-05 0.136468 0.990644
-0.0393996 -0.0657282 0.247892 0.12178 0.268185 0.955639
0.13916 0.160411 0.342035 0.00061763 -0.873608 0.48663
0.243806 0.223616 0.000108522 0 0 -1
-0.141476 -0.225622 0.321073 -1.32221e-05 0.0186869 -0.999825
0.172321 0.268309 0.562869 -0.000628145 0.888483 -0.458909
-0.0317904 0.180001 0.418728 0.000701152 -0.991785 0.127917
-0.17628 0.228985 0.409556 -0.000705972 0.9959 -0.0904544
0.164199 0.042734 0.314434 -9.6781e-05 0.136468 0.990644
0.0991207 -0.139046 0.307747 0.000166287 -0.235016 -0.971991
-0.042589 0.109159 0.256801 -1.10677e-05 0.0156063 -0.999878
-0.00651217 -0.153492 0.311221 0.000166287 -0.235016 -0.971991
0.242687 -0.214184 0 0 0 -1
-0.133372 0.201569 0.307121 -0.000596561 0.841591 -0.540115
-0.23333 0.240478 0.502349 -0.00065782 0.930456 -0.366402
-0.219636 0.291142 0.610642 -0.000686999 0.971727 -0.236105
-0.269268 -0.249769 0.320439 -0.000109215 0.154143 -0.988049
0.202577 0.22477 0.36656 -0.000701753 0.992597 -0.121453
-0.239266 0.204022 0.311061 -0.000596586 0.841591 -0.540115
0.24828 -0.183668 0.106103 0.809197 0.578826 -0.100802
0.16015 0.231141 0.430674 -0.000704087 0.995899 -0.0904652
-0.171632 0.193533 0.29845 -0.000498023 0.702579 -0.711606
0.000905663 0.147889 0.267393 -0.000311477 0.438658 -0.898654
0.0527047 0.178204 0.404333 0.000701152 -0.991785 0.127917
-0.142427 0.228087 0.399404 -0.000704087 0.995899 -0.0904652
0.0280943 0.285407 0.59617 -0.000628096 0.888483 -0.458909
0.0866894 0.0972482 0.256613 -1.10576e-05 0.0156062 -0.999878
0.28226 -0.172793 0.341584 1 0.000716324 3.18684e-05
-0.043014 0.163846 0.348432 0.00061763 -0.873608 0.48663
-0.143572 0.263254 0.553515 -0.000628096 0.888483 -0.458909
-0.193665 0.232196 0.557098 0.000609256 -0.86176 0.507316
0.215706 -0.110539 0.300874 0.000166287 -0.235016 -0.971991
0.0445277 0.0139132 0.270799 0.000166017 -0.233574 -0.972339
-0.146994 0.288044 0.601515 -0.000628096 0.888483 -0.458909
0.125584 0.0668027 0.311114 -9.68477e-05 0.136468 0.990645
0.268937 0.132321 0.312792 0.965976 0.183613 0.182144
0.228913 0.0162936 0.31866 -0.000114825 0.161912 0.986805
-0.222963 0.167648 0.355486 0.000617605 -0.873608 0.486629
0.25484 0.195463 0.479995 0.000655598 -0.927348 0.3742
-0.0366959 -0.0237892 0.325206 -0.000114825 0.161912 0.986805
0.00139901 0.251942 0.531038 -0.00065782 0.930456 -0.366402
-0.0881977 0.228342 0.549777 0.000625509 -0.884752 0.466061
-0.263411 0.213476 0.460067 -1 -0.000700189 -2.09954e-06
0.235604 0.0669834 0.3111 -9.68477e-05 0.136468 0.990645
0.17575 -0.0561091 0.330533 -0.000114825 0.161912 0.986805
-0.0831905 -0.0735755 0.291885 0.000167045 -0.235019 -0.971991
-0.130191 0.0738393 0.238768 0.330583 0.0668686 0.941405
0.0737287 0.226154 0.378616 -0.000701752 0.992597 -0.121453
-0.235961 0.191541 0.102485 -0.211378 -0.929028 -0.303686
-0.253733 0.105387 0.308444 6.65372e-05 -0.0937572 0.995595
0.00575921 -0.138286 0.307547 0.000166287 -0.235016 -0.971991
0.216419 0.156335 0.217518 -0.461298 0.635567 0.61908
-0.0538113 0.0527946 0.261443 0.000165497 -0.23357 -0.97234
-0.255986 0.143951 0.32539 0.000378041 -0.534741 0.845016
0.263312 -0.274904 0.316458 -0.000109491 0.154148 -0.988048
0.138708 -0.0946689 0.297023 0.000166287 -0.235016 -0.971991
0.147964 -0.0566533 0.287833 0.000166287 -0.235016 -0.971991
0.0171462 0.210381 0.51554 0.000625482 -0.884752 0.466061
0.210964 -0.0598882 0.259993 -0.285083 -0.210486 -0.935106
-0.0654537 -0.0782183 0.334133 -0.000114742 0.161912 0.986805
0.248314 -0.202947 0.0662557 0.354903 -0.873556 0.333082
0.142726 -0.181412 0.316692 0.000105496 -0.149098 -0.988822
-0.268206 0.102517 0.277577 -0.997204 0.0147975 0.0732529
-0.261801 0.182067 0.436012 0.00070115 -0.991785 0.127917
-0.22347 -0.134328 0.30655 0.000167045 -0.235019 -0.971991
-0.134551 0.165553 0.351613 0.00061763 -0.873608 0.48663
-0.190386 -0.251995 0.347787 0.000112785 -0.159187 0.987248
-0.0972183 -0.196557 0.31895 0.000105495 -0.149098 -0.988822
-0.229244 0.144223 0.265683 -0.000309807 0.438632 -0.898667
-0.239231 0.0556465 0.260726 0.000165497 -0.23357 -0.97234
0.213223 -0.215673 0.351094 -4.94294e-06 0.00697522 0.999976
-0.0562343 0.271526 0.56941 -0.000628096 0.888483 -0.458909
-0.164209 -0.184431 0.317114 0.000105495 -0.149098 -0.988822
-0.242687 0.171064 0.3666 0.000681195 -0.963559 0.267495
0.0618682 -0.172583 0.315352 0.000105495 -0.149098 -0.988822
-0.146388 -0.254011 0.319763 -0.000109215 0.154143 -0.988049
0.217419 -0.0251942 0.249073 -0.0669598 -0.290553 -0.954513
0.221962 -0.166191 0.174825 -0.419054 -0.874417 0.244518
0.128417 -0.111756 0.339658 -0.000114742 0.161912 0.986805
0.168937 0.0833342 0.256395 -1.10576e-05 0.0156062 -0.999878
-0.163519 -0.0932359 0.336586 -0.000114742 0.161912 0.986805
0.162843 -0.0529685 0.276006 -0.303603 0.257109 0.917453
-0.0709197 0.23589 0.480416 -0.000696197 0.982109 -0.188313
-0.0360051 -0.224431 0.321094 -1.32221e-05 0.0186869 -0.999825
0.0250073 -0.0647379 0.289767 0.000167045 -0.235019 -0.971991
0.234919 -0.157482 0.312227 0.000166287 -0.235016 -0.971991
0.201184 0.161738 0.344338 0.000617605 -0.873608 0.486629
0.228789 -0.0205559 0.324706 -0.000114825 0.161912 0.986805
-0.174563 0.220675 0.535339 0.000625482 -0.884752 0.466061
-0.17602 0.16972 0.36159 0.000681195 -0.963559 0.267495
-0.0601367 0.0805159 0.21933 0.121696 0.0701628 0.990084
0.231623 -0.0369659 0.327399 -0.000114825 0.161912 0.986805
-0.207352 0.0354362 0.265586 0.000165497 -0.23357 -0.97234
0.203096 0.17394 0.375822 0.000681195 -0.963559 0.267495
0.0123659 0.234155 0.465009 -0.000705972 0.9959 -0.0904544
-0.109437 0.0803328 0.22415 -0.331334 -0.06636 -0.941177
0.134737 -0.138615 0.307648 0.000166287 -0.235016 -0.971991
-0.0142008 0.103235 0.256708 -1.10677e-05 0.0156063 -0.999878
-0.263673 0.154212 0.28554 -0.995598 0.0660699 0.0664854
0.11705 -0.273508 0.316692 -0.000109491 0.154148 -0.988048
-0.267214 -0.173156 0.349118 -9.846e-05 0.138941 0.990301
-0.0141237 0.173449 0.281119 -0.000403635 0.571478 -0.820618
-0.152475 -0.244067 0.349061 0.000112785 -0.159187 0.987248
0.273753 -0.026228 0.315409 0.997264 0.0725566 0.0141593
-0.138726 -0.0721681 0.291535 0.000167045 -0.235019 -0.971991
0.239398 -0.142375 0.308575 0.000166287 -0.235016 -0.971991
-0.257394 -0.200986 0.350989 -4.93545e-06 0.00697531 0.999976
0.121915 0.286894 0.598921 -0.000628096 0.888483 -0.458909
-0.257552 0.0153994 0.270391 0.000165497 -0.23357 -0.97234
-0.120482 0.0513394 0.261781 0.000165497 -0.23357 -0.97234
0.228983 -0.0618865 0.283528 0.000672323 -0.963196 0.268798
0.0824088 -0.194479 0.318655 0.000105496 -0.149098 -0.988822
-0.138954 0.105569 0.256746 -1.10677e-05 0.0156063 -0.999878
0.254443 0.0866611 0.256446 -1.10576e-05 0.0156062 -0.999878
-0.218322 0.21757 0.3368 -0.00066714 0.943637 -0.330981
-0.0686009 -0.0569875 0.249155 0.121663 0.268623 0.955531
0.0233656 0.00775653 0.272275 0.000166017 -0.233574 -0.972339
0.211952 0.0268428 0.235637 -0.285273 -0.203884 -0.93651
-0.230598 -0.171786 0.126181 0.138962 0.934165 -0.328671
0.10588 -0.253272 0.319851 -0.000109215 0.154143 -0.988049
-0.250768 -0.142393 0.344641 -0.000114742 0.161912 0.986805
0.0328706 0.180946 0.425701 0.000701152 -0.991785 0.127917
0.264145 0.275328 0.603281 1 0.000722025 -3.84127e-05
0.11638 0.291005 0.619614 -0.000634693 0.897744 0.440518
-0.0429074 -0.273623 0.341748 0.000214432 -0.301911 0.953336
-0.182076 -0.103819 0.33832 -0.000114742 0.161912 0.986805
-0.131426 0.210509 0.515982 0.000625482 -0.884752 0.466061
-0.101204 0.27342 0.620789 0.000387965 -0.548757 0.835982
0.264186 0.218109 0.461122 1 0.000721635 1.08763e-05
-0.0582283 0.276054 0.622497 0.000387965 -0.548757 0.835982
-0.215802 -0.0942274 0.274559 -0.063667 -0.0565738 0.996366
0.140121 0.168253 0.277425 -0.000403635 0.571478 -0.820618
0.214851 -0.0879639 0.295415 0.000166287 -0.235016 -0.971991
-0.205308 0.185871 0.451131 0.000682154 -0.964912 0.262571
0.0388868 -0.0740727 0.333465 -0.000114742 0.161912 0.986805
-0.127934 0.27543 0.577067 -0.000628096 0.888483 -0.458909
-0.109435 0.291094 0.619107 -0.000634693 0.897744 0.440518
-0.204201 -0.0500368 0.260379 0.719363 -0.165705 -0.67458
-0.175712 -0.0123892 0.323319 -0.000114742 0.161912 0.986805
-0.071296 -0.0590053 0.288364 0.000167045 -0.235019 -0.971991
0.194933 -0.138126 0.30754 0.000166287 -0.235016 -0.971991
0.188553 0.152365 0.332936 0.000483349 -0.683675 0.729786
0.00554201 -0.0968631 0.297531 0.000166287 -0.235016 -0.971991
0.264192 0.209331 0.345838 1 0.000718433 -7.81931e-06
-0.0216677 0.0304939 0.266805 0.000165497 -0.23357 -0.97234
-0.226223 -0.067518 0.290396 0.000167045 -0.235019 -0.971991
-0.220001 0.141841 0.216426 0.0852908 -0.584639 -0.806798
-0.256241 -0.0801067 0.293435 0.000167045 -0.235019 -0.971991
-0.122439 0.163238 0.274928 -0.000309807 0.438632 -0.898667
0.215806 -0.236267 0.350276 0.000112637 -0.15919 0.987248
0.135783 0.247058 0.581947 0.000609256 -0.86176 0.507316
