-0.163586 0.050787 0.408524 -0.124218 0.0283762 0.991849
-0.129993 0.139623 0.55449 0.00232131 -0.956744 0.290921
0.15188 -0.00126014 0.33944 0.37692 0.0292726 -0.925783
-0.145744 0.252198 0.00104718 0.0152365 0.259032 -0.965749
0.105388 0.165266 0.400057 0.118628 0.378991 0.917765
-0.103685 -0.0450456 0.409509 0.0812856 -0.000155258 0.996691
-0.0437428 -0.22895 0.396805 -0.0832044 -0.649853 0.755492
0.0499803 0.2538 0.759717 -0.046968 0.549662 -0.834066
0.165545 0.12247 0.399401 0.686797 0.325621 0.649831
0.081411 -0.202644 0.407317 0.0125889 -0.264546 0.964291
-0.167545 0.254047 0.080683 -0.805028 -0.538062 0.24984
0.166123 -0.113642 0.410846 0.14301 0.00417994 0.989712
-0.00156122 -0.23848 0.383782 0.00225708 -0.994265 0.106924
-0.0618361 0.172576 0.650802 0.00211311 -0.93841 0.345518
-0.0749101 -0.157376 0.341405 -0.0292421 -0.217028 -0.975727
-0.031601 0.24447 0.745385 -0.0222077 0.797871 -0.60242
0.00662248 0.122628 0.332791 -0.00163257 0.706959 -0.707253
-0.0536978 0.105227 0.409315 0.0330293 -0.0365988 0.998784
-0.00662956 -0.162075 0.341187 0.000537086 -0.217012 -0.976169
-0.0857109 0.0230451 0.0805774 -0.308489 0.950578 -0.0351578
-0.0328012 0.172233 0.353918 -0.0812431 0.842485 -0.532558
-0.159864 0.0753074 0.348594 -0.601407 0.120678 -0.789776
0.174737 0.177489 0.65047 -0.660991 -0.722661 0.202119
0.157736 0.160383 0.492581 -0.0448532 0.916224 0.398147
-0.0128686 0.0750734 0.087513 0.808867 0.586633 -0.0399527
0.0706032 0.0483637 0.407965 -0.0435747 -0.0219958 0.998808
0.0493758 0.173915 0.462723 -0.00201255 0.890396 0.455182
0.193556 -0.0134699 0.0765083 0.316427 0.948137 -0.0301797
-0.119626 0.208379 0.723887 0.00195069 -0.833918 0.551885
0.0780446 0.220739 0.331129 0.890787 -0.398941 0.217589
-0.133689 -0.099281 0.412225 0.0110042 0.0217092 0.999704
-0.163068 0.100744 0.404958 -0.411277 0.114765 0.904257
0.0312435 0.17177 0.648021 0.00208001 -0.938407 0.345526
-0.137064 0.18055 0.626905 0.031282 0.938719 -0.343262
0.0761417 -0.0766427 0.287015 0.00801235 -0.486117 -0.873857
0.00208814 0.00912758 0.404674 -1.13926e-05 0.00476292 0.999989
0.178154 -0.101105 0.353196 0.508149 0.00569279 -0.86125
-0.0950452 0.137098 0.408896 -0.00783112 0.163574 0.9865
-0.170092 -0.00141129 0.331681 -0.00253998 0.999997 0
-0.254109 -0.0619798 0.0502696 0.000656623 -0.25848 0.966016
-0.077978 0.117734 0.269233 -0.000504356 0.234453 -0.972127
0.156518 0.233467 0.0442779 0.00133333 -0.707073 0.707139
0.117612 -0.223701 0.387286 0.257869 -0.95371 0.154727
-0.172837 -0.124002 0.351011 -0.473301 -0.0259028 -0.88052
-0.154897 -0.101296 0.309101 0.000901273 -0.383181 -0.923673
0.154413 0.246837 0.0687661 -0.0073953 -0.0435349 -0.999025
-0.101193 0.196497 0.0822248 0.808867 0.586633 -0.0399527
0.0968344 0.207493 0.692854 -0.0018072 0.852891 -0.522087
-0.0390876 0.0336956 0.256128 -0.991084 0.133238 0
0.191913 0.18603 0.449871 0.489247 0.812082 0.318056
0.1844 -0.187353 0.370116 0.432205 -0.235272 -0.870544
-0.0158035 0.203164 0.715203 0.00207418 -0.848742 0.528804
0.101181 0.14474 0.569553 0.00225223 -0.956682 0.291127
0.110418 0.00408126 0.327261 0.0017315 -0.752606 -0.658469
0.182415 0.0599966 0.371834 0.785073 0.105716 -0.610316
-0.113232 0.220175 0.379098 -0.599057 0.105043 -0.793787
0.0770728 0.0481631 0.282132 0.000699922 -0.275452 0.961314
0.0229267 -0.246496 0.0310548 0.999996 0.00283193 0
-0.0483266 -0.177117 0.409874 0.0339704 0.0257214 0.999092
0.113949 0.0133461 0.101087 0.317281 0.940944 0.118143
0.183791 -0.0658799 0.358421 0.745842 0.0190849 -0.665849
0.0729968 0.154514 0.308634 0.000305206 -0.247252 0.968951
0.0254778 0.0701227 0.261447 0.738412 0.67435 0
0.078239 -0.0137036 0.279224 0.688163 0.313274 0.65444
0.0610778 0.112967 0.323007 -0.00164901 0.707044 -0.707167
-0.102772 -0.201338 0.355045 -0.108238 -0.294004 -0.949656
-0.038795 0.167453 0.591252 -0.00233809 0.95626 -0.292508
0.0941056 0.205034 0.378422 -0.691424 -0.522238 0.4992
-0.0455913 0.136227 0.540962 0.00242803 -0.973204 0.229932
0.0339906 0.0707446 0.0799795 0.806326 -0.588947 -0.054578
-0.177653 0.155142 0.546761 0.0289646 0.95586 -0.29239
0.0796304 0.0712554 0.279951 0.999998 0.00157516 -0.00119193
0.159709 0.136803 0.54137 0.00238853 -0.973204 0.22993
0.0339091 0.244093 0.352103 0.0161336 0.885353 0.46464
-0.00726827 -0.128185 0.407369 -8.70188e-05 0.0383145 0.999266
-0.0761523 -0.0858102 0.291924 0.00134306 -0.486144 -0.873878
0.00316546 -0.146896 0.0714557 -0.0120269 0.0394828 -0.999148
-0.0191876 -0.102627 0.331976 -0.00192229 0.786311 0.617827
0.104769 0.171887 0.647871 0.00197139 -0.938407 0.345526
0.0593307 -0.122429 0.322406 0.0021169 -0.961197 -0.275856
-0.0162917 0.0235649 0.246099 0 0 -1
0.0969713 -0.108351 0.410146 -0.0683482 0.0247062 0.997356
-0.0204815 0.110412 0.408884 0.000155396 -0.0650809 0.99788
0.0718208 0.184395 0.420559 0.00194279 -0.816816 -0.576895
-0.120115 0.24799 0.761813 -0.254818 0.391391 0.88424
0.165271 0.118522 0.364626 0.76266 0.399237 -0.50888
0.0872137 0.176986 0.0972525 -0.760817 0.599638 0.248178
0.183441 -0.0835755 0.406108 0.427475 0.0121392 0.903946
0.180225 0.231877 0.728841 0.556444 0.806195 -0.201049
-0.10698 0.0574929 0.32715 -0.0017316 0.752607 -0.658467
0.12611 0.161889 0.455224 0.00210171 -0.89041 -0.455155
-0.0484573 -0.0756628 0.286292 0.00114615 -0.487457 -0.873146
0.179034 0.0824187 0.371368 0.785073 0.105716 -0.610316
-0.0709549 0.0132806 0.120984 0.107044 -0.689077 0.716739
-0.058331 0.227587 0.379313 -0.114678 0.878706 0.463384
-0.0499646 0.141596 0.495875 0.00218378 -0.935735 -0.352698
-0.190121 0.217677 0.712138 -0.654146 0.712158 -0.2548
-0.0242298 0.0547793 0.125506 -0.729308 0.0193482 0.683912
-0.0807796 0.0385761 0.408316 0.0814143 -0.0244002 0.996382
0.0976894 -0.0529716 0.335178 0 0 -1
0.0182756 0.196574 0.405537 0.00166393 -0.752353 -0.658758
-0.0889413 -0.177783 0.411149 0.0218996 -0.0590098 0.998017
-0.177918 0.186208 0.441388 -0.760348 0.204749 -0.6164
-0.183593 0.260243 0.0438404 -0.971375 0.165081 0.170818
-0.0797001 0.165838 0.0751638 0.715176 0.511347 -0.476494
0.159752 0.196212 0.703547 -0.047747 -0.881302 0.470136
-0.126733 -0.00657014 0.073502 0.033859 0.0236221 -0.999147
0.0777037 -0.1926 0.350483 0.0578902 -0.300442 -0.952042
-0.182005 -0.0378028 0.35714 -0.770661 0.0155211 -0.637056
0.249684 -0.0341939 0.0210754 -0.0179008 0.965713 -0.258993
0.0408381 0.0307531 0.318211 0 0 -1
0.0171319 -0.204205 0.351234 0.000705982 -0.284688 -0.95862
0.109555 -0.074449 0.335457 0.0235515 -0.0082681 -0.999688
0.0337651 0.0203232 0.116526 -0.285052 -0.950211 0.125876
0.0384189 -0.119892 0.314043 0.00184955 -0.787488 -0.616328
0.154214 -0.0672966 0.411572 0.107549 0.0189672 0.994019
0.107107 0.0973516 0.411013 -0.0295959 -0.015549 0.999441
0.0186001 0.150939 0.476146 0.00219832 -0.890218 -0.455529
0.147248 -0.0851102 0.339004 0.218615 0.00474356 -0.9758
-0.108253 0.18954 0.433667 -0.0407919 0.852304 0.521453
-0.070341 0.177625 0.392991 -0.073588 0.914324 0.398241
0.0976073 -0.0218207 0.409032 -0.0815638 -0.000535153 0.996668
-0.210682 0.160074 0.585389 -0.938716 -0.308939 0.152873
-0.0870546 -0.000389717 0.321189 -0.908978 -0.00215307 -0.416839
-0.00675901 0.149895 0.33712 -0.000179461 0.0777128 -0.996976
-0.176519 0.160354 0.49294 0.041811 0.936408 0.348414
0.160471 0.167672 0.586642 -0.0353922 0.955646 -0.292383
0.0588737 0.137075 0.106556 -0.796742 0.59251 0.118891
-0.0180319 -0.0624372 0.318211 0 0 -1
-0.264799 -0.0378283 0.082459 -0.394853 0.884193 0.249586
-0.0319018 -0.0814377 0.405695 0.0524738 0.037272 0.997927
-0.0597398 0.124743 0.117324 0.515559 0.519636 0.681305
0.0378562 0.186436 0.687813 0.00208001 -0.938407 0.345526
-0.136728 -0.126499 0.412849 0.0110042 0.0217092 0.999704
0.00958295 0.225673 0.748597 0.00203449 -0.824484 0.565881
0.142696 -0.112657 0.319331 0.00221943 -0.924012 0.382358
0.144306 0.13168 0.405341 0.301446 0.284197 0.910144
-0.0431871 0.185322 0.443502 -0.00156579 0.828842 0.55948
-0.0591427 0.106339 0.277185 0.999997 0.00224225 4.67502e-06
-0.0690752 0.255823 0.343183 0.44658 0.830962 0.331764
-0.141284 0.153955 0.600728 0.00227681 -0.938403 0.345536
-0.105918 0.185402 0.685911 0.00219855 -0.938411 0.345515
0.00457713 0.250142 0.322629 0.0246035 0.999131 0.0336499
0.0113984 0.00713824 0.0770483 0.935853 -0.34793 0.0558974
-0.00379785 -0.0685576 0.114234 -0.723036 -0.11709 0.680815
0.13778 0.0330123 0.30718 0 0 -1
-0.0900289 0.154521 0.549391 -0.00201719 0.956197 -0.292716
0.195072 0.150884 0.519603 -0.190403 0.970223 0.149711
-0.0953685 -0.0868387 0.335225 -0.0225915 -5.21596e-05 -0.999745
0.132081 0.248646 0.750461 -0.0343601 0.787584 -0.615249
-0.189219 -0.176392 0.370014 -0.596521 -0.139568 -0.790369
0.151813 -0.151708 0.348485 0.185141 -0.26599 -0.94603
-0.0757851 0.239833 0.766716 -0.0455312 -0.542437 0.838861
0.186764 -0.155225 0.402492 0.483865 -0.0914249 0.870354
-0.190812 0.183155 0.675154 -0.262106 -0.89597 0.358523
0.0103721 0.178403 0.396827 -0.00179356 0.720697 0.693248
-0.0611723 -0.0436901 0.318211 0 0 -1
-0.177948 0.164494 0.613974 0.692445 -0.695712 0.191063
0.180003 0.26239 0.0471151 0.0138861 0.707039 0.707039
0.056617 0.202227 0.713418 0.00191356 -0.84873 0.528823
-0.194238 -0.0323961 0.076837 0.32155 -0.834799 -0.446896
-0.131436 0.132204 0.340523 -0.366941 0.296794 -0.881628
0.143452 0.182673 0.629614 -0.0477203 0.938116 -0.343017
-0.153456 0.242883 0.0912252 -0.485674 -0.174931 0.856458
-0.00881923 -0.0308532 0.289013 -0.00105499 0.431378 0.902171
0.104265 0.0781305 0.335329 -2.51494e-05 0.0115402 -0.999933
-0.104847 0.0446205 0.410022 0.0482604 -0.0141844 0.998734
-0.0214379 0.0401303 0.166913 -0.999999 -0.00158402 -2.53724e-05
0.165969 -0.0216567 0.0990124 -0.285052 -0.950211 0.125876
0.00437371 0.0237335 0.0344951 0.264755 -0.964316 0
0.0127501 0.150914 0.516314 -0.00244925 0.992083 0.125557
0.0797894 0.177374 0.617721 -0.00236354 0.939212 -0.343329
-0.0470411 0.194227 0.664627 -0.0021228 0.939176 -0.34343
-0.13247 0.149691 0.477886 0.00215417 -0.890235 -0.455496
0.0584201 0.0723678 0.336088 -0.999998 -0.00193784 -6.09171e-05
-0.126956 -0.0282174 0.411224 0.073072 0.00067478 0.997326
-0.0541104 0.0332142 0.101125 -0.328058 0.936791 0.121662
-0.080162 0.0227486 0.248263 -0.999996 -0.00164084 -0.00225455
-0.0290749 0.182467 0.632358 -0.00208172 0.939176 -0.34343
-0.0580057 0.193898 0.700494 0.00191404 -0.848731 0.528822
-0.083526 0.138996 0.336439 -0.0101865 0.0956509 -0.995363
-0.0943753 0.183381 0.635275 -0.00223805 0.939212 -0.34333
0.0074817 -0.0183527 0.0764833 -0.0120269 0.0394828 -0.999148
0.0273726 0.0324233 0.405339 -0.0549054 -0.0314491 0.997996
0.058694 0.180115 0.389856 0.0692769 0.913084 0.401844
0.0152117 0.0673103 0.128273 -0.354184 0.664609 0.657912
0.0622927 0.228018 0.302766 -0.839461 0.156605 -0.520366
0.0795143 0.125019 0.284921 0.999999 0.0012479 -0.00018281
0.040984 0.154834 0.549394 -0.00212011 0.956261 -0.292507
-0.0601511 0.181524 0.306731 0.988466 0.0368521 -0.146892
-0.272437 -0.0776299 0.0422487 -0.0138939 -0.707063 0.707015
-0.124139 -0.203561 0.405451 -0.0774792 -0.27095 0.95947
-0.281641 -0.0790531 0.0102589 -0.0138921 -0.706652 -0.707425
-0.0772064 -0.0662476 0.407544 0.0523358 0.00166304 0.998628
0.0625172 -0.0596014 0.318211 0 0 -1
-0.188673 -0.103532 0.311831 -0.999996 -0.00247813 -0.00102347
-0.115303 0.227595 0.752092 -0.0272307 -0.785766 0.617925
-0.0426256 -0.00484845 0.318211 0 0 -1
-0.0688676 -0.231711 0.362325 0.0320923 -0.00203269 0.999483
0.00690769 0.0583389 0.203688 0 0 1
0.138863 0.111049 0.340267 0.318408 0.121536 -0.94013
-0.0280895 0.0578091 0.0829309 -0.961096 -0.270608 0.055362
-0.0803035 0.086858 0.305287 -0.999995 -0.00321839 -0.000405168
0.111945 0.234045 0.730773 -0.00166554 0.786033 -0.618183
0.0825592 0.2432 0.364745 0.426212 0.884321 0.190576
-0.0244712 0.185423 0.418787 0.0020116 -0.816813 -0.576899
0.17426 0.0131286 0.407022 0.417031 0.066302 0.906471
0.172576 0.163994 0.626008 0.00224117 -0.938414 0.345505
0.0052316 -0.088244 0.0737485 -0.0120269 0.0394828 -0.999148
0.112229 0.134987 0.519436 0.00233662 -0.991879 -0.127161
-0.0522202 -0.0871405 0.334645 0.00234725 -0.991799 -0.127785
-0.0417635 0.230674 0.31288 0.00389879 -0.3258 -0.945431
0.283909 -0.0746789 0.032043 0.971097 -0.230529 0.0618654
-0.0870165 0.220857 0.714716 -0.00322485 0.798591 -0.601865
0.0322592 -0.0238186 0.257458 0.00119202 -0.487409 -0.873173
-0.0565939 -0.000686716 0.275106 -0.705945 -0.00119531 0.708265
0.0361829 -0.215647 0.404713 0.0181611 -0.242235 0.970048
-0.15426 -0.03205 0.340134 -0.377339 0.00364702 -0.926068
-0.184827 0.0792139 0.380006 -0.99013 0.128776 0.0553056
-0.098068 0.0431497 0.318211 0 0 -1
-0.0177199 0.0536719 0.275972 0 0 1
-0.0138723 -0.0233123 0.404828 -1.0481e-05 0.00476357 0.999989
-0.115735 -0.21849 0.396374 -0.144715 -0.617853 0.772862
-0.147268 -0.0922502 0.339123 -0.209857 -0.0271576 -0.977355
0.0280155 0.170293 0.59869 -0.00208204 0.939176 -0.34343
0.0809391 0.102223 0.410124 -0.0438686 -0.0166926 0.998898
0.0571662 -0.00342017 0.255621 -0.00253909 0.999997 0
-0.119192 0.150629 0.516133 -0.00235964 0.991977 0.126396
-0.138003 -0.146029 0.343924 -0.18186 -0.247948 -0.951551
0.173192 0.181085 0.672423 0.00224117 -0.938414 0.345505
0.0909292 -0.228374 0.363702 0.130433 -0.991457 0
-0.131143 0.225608 0.720511 0.0442886 0.785014 -0.617893
0.0986156 0.175245 0.460351 -0.00187497 0.890185 0.455596
0.193763 -0.0232871 0.394992 0.937229 0.0697997 0.341658
-0.00578138 -0.160935 0.408841 -0.000106101 0.0471246 0.998889
-0.171288 0.00537102 0.40876 -0.105356 0.0128297 0.994352
-0.00970151 -0.0577274 0.27633 0.00114615 -0.487457 -0.873146
0.0217186 -0.0955254 0.406119 -8.4306e-05 0.0383169 0.999266
0.149644 0.229763 0.0103474 -0.0139193 -0.707035 -0.707041
0.0893181 0.211827 0.4003 0.0371464 0.842154 0.537957
0.0922365 0.232517 0.758894 0.0266448 -0.795488 0.605384
0.133901 0.0240316 0.411316 -0.0338182 0.00255674 0.999425
0.125948 0.194115 0.427206 -0.0892928 0.860344 0.501831
-0.0373052 0.243357 0.770752 0.00164673 -0.548201 0.836345
0.0650435 0.237024 0.735689 -0.000551175 0.798063 -0.602573
0.167089 0.163162 0.463213 -0.820191 -0.170702 0.546029
0.20044 0.178707 0.645221 0.541162 -0.768277 0.341898
-0.0937896 0.1614 0.571886 -0.00201719 0.956197 -0.292716
0.0208583 0.0362403 0.156864 0.998873 0.0474518 0.00054785
0.0514071 0.0176856 0.0766283 -0.0329926 0.0231553 -0.999187
0.11004 -0.173892 0.348048 0.0953688 -0.236603 -0.966915
-0.0186559 0.08835 0.407412 0.000162478 -0.0680468 0.997682
-0.131913 0.16707 0.444417 0.00203541 -0.816898 -0.576778
0.00700336 -0.216951 0.0893094 0.495717 -0.143952 0.856471
0.0811957 -0.0912574 0.324446 -0.0646652 0.38142 0.922137
0.00946724 -0.0141691 0.281056 -0.00105499 0.431378 0.902171
0.212583 -0.0318409 0.0959876 -0.025204 -0.509254 0.860247
0.0070115 -0.0924314 0.326804 -0.00171073 0.727507 0.686098
-0.0802917 -0.152203 0.41051 0.0399277 0.036271 0.998544
0.190633 0.149618 0.584881 0.218062 -0.930279 0.295008
-0.00769196 -0.141399 0.0982186 -0.992044 -0.0224851 0.123865
-0.010197 0.00235505 0.104251 -0.992044 -0.0224851 0.123865
0.0271732 0.00978425 0.318211 0 0 -1
-0.107087 -0.0821969 0.410156 0.081715 0.0244205 0.996356
-0.0827248 0.216314 0.736002 0.00189153 -0.838747 0.544518
-0.0884809 0.207194 0.368193 0.382081 -0.923948 -0.018267
-0.208149 0.142991 0.545888 -0.529957 -0.808399 0.256197
-0.036322 0.0062702 0.275972 0 0 1
0.0483758 0.199333 0.402468 0.00170715 -0.752214 -0.658916
-0.197314 -0.0604532 0.392571 -0.941809 0.0656006 0.329685
-0.0589429 0.176179 0.615345 -0.0021228 0.939176 -0.34343
-0.00312442 -0.18266 0.345766 0.000538159 -0.217013 -0.976169
0.0446823 0.16209 0.573086 -0.00240644 0.956261 -0.292507
0.0552364 0.0992401 0.0863695 0.806326 -0.588947 -0.054578
0.0283661 0.218216 0.379273 0.00180521 -0.814102 -0.580719
0.0373518 0.219723 0.740289 -0.0225391 -0.834893 0.549951
-0.168329 0.194512 0.66138 0.0431449 0.935322 -0.351158
-0.0154102 0.0559022 0.318211 0 0 -1
-0.0780138 0.00357325 0.0953464 0.295999 -0.947338 0.122207
-0.110574 0.17247 0.38732 -0.312312 0.947469 0.0690196
0.0584907 0.0933921 0.27296 -0.998299 0.0582667 -0.00213863
-0.162206 -0.00401858 0.0963389 -0.328058 0.936791 0.121662
0.131975 0.239815 0.0826658 -0.760817 0.599638 0.248178
0.251858 -0.0618641 0.0474038 0.999999 0.00164772 0
0.0203602 -0.0506016 0.318211 0 0 -1
-0.184653 -0.0842462 0.359212 -0.770661 0.0155211 -0.637056
-0.0598061 0.0798993 0.40837 0.0445774 -0.0687277 0.996639
-0.0683038 -0.190232 0.349122 -0.0488062 -0.239967 -0.969553
-0.0590721 0.0744911 0.286025 0.999992 0.00351084 0.00171304
0.0655599 0.155255 0.502029 -0.00233628 0.93704 0.349213
0.0169272 -0.0421258 0.404918 -1.13926e-05 0.00476292 0.999989
-0.171118 0.225668 0.0299114 -0.999997 -0.00251767 -0.000190758
-0.0355122 -0.145778 0.338401 -0.0184033 -0.117201 -0.992938
-0.145111 0.0626036 0.336964 -0.510177 0.0367481 -0.859284
-0.181308 -0.113121 0.407145 -0.475497 0.0111554 0.879646
-0.168031 0.134299 0.530101 0.00224725 -0.995862 0.090848
0.00641408 -0.22398 0.0255217 -0.00244766 0.966017 0.258468
0.0545481 -0.085467 0.291901 0.00119202 -0.487409 -0.873173
-0.0182511 -0.195854 0.408965 8.64805e-05 -0.0359979 0.999352
-0.0106668 -0.0864593 0.292369 0.00114615 -0.487457 -0.873146
0.0132474 -0.132014 0.336777 0.000121103 -0.0536728 -0.998559
-0.137807 0.149792 0.356211 -0.411914 0.702183 -0.580746
-0.0603786 0.151005 0.475644 0.00199165 -0.890219 -0.455528
0.047433 0.142797 0.336557 -0.000185675 0.0776901 -0.996978
-0.0408949 0.00374893 0.405439 0.0548743 0.00326978 0.998488
0.0887182 0.173491 0.367734 0.160506 0.908247 -0.386425
0.162143 -0.158606 0.410287 0.155535 -0.0950008 0.983252
-0.0460671 0.00205628 0.246099 0 0 -1
-0.22113 -0.0324852 0.0971423 0.0166642 -0.516536 0.856103
0.158108 0.145155 0.388607 0.76159 0.644925 0.0636632
0.0843226 0.00246121 0.0795421 -0.311332 -0.948449 -0.0593046
-0.142152 0.0902919 0.409907 -0.138038 0.0340685 0.989841
-0.00331385 -0.26518 0.0444777 0.00179323 -0.70749 0.706721
0.163129 0.135348 0.517535 0.00225351 -0.991879 -0.127161
0.090483 -0.158937 0.411127 -0.0468964 0.00989752 0.998851
-0.0530246 0.147344 0.336929 -0.000179461 0.0777128 -0.996976
-0.122279 -0.000669637 0.332073 0.0016391 -0.752608 -0.658467
-0.0746526 -0.106657 0.336939 -0.001733 0.786313 0.617826
-0.0149971 0.229056 0.363705 0.00206076 -0.842304 -0.538999
0.068317 0.0623147 0.309698 0.00254102 -0.999503 -0.0314199
-0.0736007 0.174504 0.434075 0.00194215 -0.816761 -0.576972
-0.0155732 0.183174 0.380911 -0.00245104 0.997628 0.0687979
-0.0986724 -0.230266 0.379704 -0.24571 -0.967833 -0.0540852
-0.158603 0.206255 0.720939 0.00195405 -0.815942 0.578131
-0.165925 -0.15194 0.352391 -0.299562 -0.192365 -0.934483
-0.113045 0.171281 0.602296 -0.00223805 0.939212 -0.34333
-0.254292 -0.0353885 0.0254556 0 0 -1
0.0369977 0.0335584 0.275396 0.615676 0.0747439 0.784446
-0.208022 0.160868 0.485788 -0.567007 0.770177 0.292115
0.171823 0.0330705 0.3535 0.57375 0.0469691 -0.817682
-0.00896675 -0.0374391 0.106881 -0.992044 -0.0224851 0.123865
0.00731392 0.0506617 0.246099 0 0 -1
-0.081594 -0.0188557 0.407709 0.0815323 -0.000248246 0.996671
-0.0309966 0.211199 0.699394 -0.00210496 0.853043 -0.521836
-0.00361201 -0.0632604 0.304514 -0.00105498 0.431378 0.902171
0.0995787 0.139543 0.337097 0.05259 0.108319 -0.992724
-0.10972 -0.0918192 0.309942 -0.000905424 0.383154 -0.923684
0.0675662 -0.231578 0.390313 0.129931 -0.924627 0.358026
0.145475 0.00264392 0.100448 0.335404 0.90848 0.249336
-0.186165 -0.166083 0.400369 -0.461518 -0.220123 0.859388
-0.0535676 0.223907 0.747358 0.0102648 -0.834885 0.550328
-0.150566 0.177549 0.42951 0.00203541 -0.816898 -0.576778
0.0800089 0.186732 0.643318 -0.00236354 0.939212 -0.343329
0.123924 0.198098 0.706551 0.0019856 -0.848619 0.529001
-0.145329 0.0240643 0.336582 -0.377331 -0.000839584 -0.926078
0.118656 -0.199785 0.406801 0.0754317 -0.262925 0.961863
-0.0306002 0.159562 0.56539 -0.00233809 0.95626 -0.292508
0.113235 0.215097 0.0820216 -0.796742 0.59251 0.118891
0.0749294 -0.0603558 0.407406 -0.0523674 0.00308888 0.998623
0.0256314 0.0429885 0.0546385 0.998919 0.0138435 0.0443696
-0.120174 -0.162167 0.412531 0.0267957 -0.00339411 0.999635
0.209058 0.158924 0.563591 0.700256 0.694014 -0.167289
0.106427 0.151965 0.59327 0.00199342 -0.956745 0.290921
0.100479 0.0163542 0.409366 -0.0812687 -0.017424 0.99654
-0.0827197 -0.0601694 0.318211 0 0 -1
-0.00734652 0.0797231 0.275821 -0.00208155 0.707018 0.707192
0.0583784 0.149381 0.479363 0.00198896 -0.890036 -0.455887
0.16573 -0.0350826 0.409884 0.107471 0.0134926 0.994117
0.131316 0.155287 0.54969 -0.0353922 0.955646 -0.292383
-0.0589846 0.0376073 0.263213 0.999998 0.00221292 -6.3053e-06
0.0574723 -0.113487 0.408025 -0.0449122 0.0372315 0.998297
-0.128852 0.195065 0.667349 0.031282 0.938719 -0.343262
0.12445 -0.0475133 0.411064 -0.0722735 0.00038433 0.997385
-0.068124 0.227163 0.29558 0.267363 0.236544 -0.934111
-0.0190904 -0.123468 0.325384 0.00226617 -0.961185 -0.275896
-0.0733991 0.206244 0.394246 0.00170702 -0.752285 -0.658836
-0.00840061 0.227418 0.315298 0.0358353 -0.999216 -0.0168119
0.169382 -0.191965 0.398877 0.27811 -0.491664 0.82518
0.164637 0.240271 0.737583 -0.0257017 0.815297 -0.578472
0.0691564 0.170532 0.281643 -0.0901276 0.229825 -0.96905
-0.08051 0.177727 0.619715 -0.00236354 0.939212 -0.34333
0.0263334 -0.0603533 0.277843 0.00119202 -0.487409 -0.873173
-0.0801548 0.178645 0.28778 -0.856414 0.1415 -0.496521
0.00502564 0.147802 0.407845 -0.000304831 0.127398 0.991852
-0.105926 0.164546 0.448966 0.00188589 -0.890228 -0.455512
0.121691 0.0576976 0.411091 -0.00825648 -0.00205669 0.999964
-0.116477 0.0174587 0.315373 0.385783 -0.92259 0
0.00441533 0.16653 0.587893 -0.00211992 0.956261 -0.292507
0.0574324 0.0322587 0.102236 0.317281 0.940944 0.118143
-0.0325665 0.101332 0.100263 0.789487 0.601424 0.122469
0.079205 0.184916 0.31095 0.816114 -0.117933 0.565729
0.0353756 0.0949964 0.318211 0 0 -1
-0.0311552 0.186533 0.688512 0.00231552 -0.938373 0.345616
-0.0113157 0.204547 0.415956 -0.00152559 0.799394 0.600805
-0.0607495 0.151595 0.285291 0.999148 0.0406564 0.0071047
0.0259422 0.247598 0.773432 0.00135706 -0.547848 0.836577
-0.106547 -0.152977 0.342122 -0.0687198 -0.238752 -0.968646
-0.0103051 -0.117658 0.0806124 -0.998913 0.00162929 -0.0465814
0.0189523 0.084953 0.0987808 -0.796742 0.59251 0.118891
0.0723915 0.24408 0.769374 0.0498813 -0.542144 0.838804
-0.181815 -0.00273975 0.359712 -0.811168 0.0605019 -0.581674
0.0600877 0.140104 0.554629 0.0021213 -0.956751 0.290902
0.0142175 0.115122 0.409186 0.000142809 -0.0651146 0.997878
0.0883529 0.182773 0.67753 0.00195522 -0.938409 0.34552
0.00554947 0.184553 0.637834 -0.00229616 0.939209 -0.343339
0.143993 0.0352433 0.336691 0.510805 0.00113657 -0.859696
0.0654725 -0.0455005 0.2961 -0.000714474 0.431379 0.90217
-0.154259 0.269046 0.0261655 0.999995 0.00303793 0.000816275
-0.129466 0.0960212 0.336803 -0.000118815 0.0514333 -0.998676
-0.009492 -0.085366 0.0940932 -0.968099 -0.0290188 0.248882
0.0728729 0.14747 0.407679 -0.00176591 0.1481 0.988971
0.0730972 0.159672 0.459329 0.00198939 -0.890228 -0.455511
-0.0154775 0.152078 0.473756 0.00219777 -0.890219 -0.455528
0.139241 0.0854755 0.410482 0.123622 0.031967 0.991814
-0.0785828 0.135931 0.540059 0.00242776 -0.973204 0.229931
0.149205 -0.213113 0.384815 0.365068 -0.901662 0.231799
0.140543 0.259391 0.0456139 -0.970935 0.0595467 0.231818
-0.0345846 0.211691 0.40616 -0.0138301 0.806488 0.591089
0.0779036 0.160831 0.568707 -0.00216073 0.956197 -0.292715
0.0649893 0.0150046 0.406859 -0.0549054 -0.0314491 0.997996
-0.0979365 0.166009 0.477509 -0.0018756 0.890495 0.45499
0.0955145 0.177982 0.072226 -0.0135386 -0.0390923 -0.999144
0.165788 -0.0633209 0.34615 0.508149 0.00569279 -0.86125
0.0302316 -0.0237722 0.318211 0 0 -1
0.0865097 -0.1119 0.3359 0.00342002 -0.0647338 -0.997897
-0.0504835 -0.034642 0.263388 0.00114615 -0.487457 -0.873146
-0.0111041 0.147978 0.581079 0.00212099 -0.956745 0.290921
-0.187562 0.0246583 0.398527 -0.772627 0.106021 0.625945
-0.142216 0.248661 0.0702149 0.715176 0.511347 -0.476494
0.0273559 -0.169539 0.342866 0.000538159 -0.217013 -0.976169
-0.0234807 0.15032 0.520321 -0.00244802 0.991962 0.126516
-0.0204444 -0.235291 0.0413774 -0.97126 0.166595 0.170003
-0.126474 0.124934 0.409312 -0.127519 0.118463 0.984736
-0.133837 0.212883 0.701971 0.0474356 0.851961 -0.521452
0.00492316 0.182463 0.677221 0.00208001 -0.938407 0.345526
-0.11159 0.174781 0.0841179 -0.694552 -0.563771 -0.446945
-0.282885 -0.0539467 0.04618 -0.971004 0.0601918 0.231361
-0.130095 0.217047 0.405567 0.0597539 0.784104 0.617747
-0.021847 0.113477 0.32371 -0.00164901 0.707044 -0.707167
-0.0749597 0.150174 0.52051 -0.00224215 0.991978 0.126393
0.0629731 0.0202243 0.274143 0.000693243 -0.272814 0.962066
0.0355817 -0.0652424 0.305508 -0.00105498 0.431378 0.902171
-0.00927402 0.137744 0.547041 0.00215801 -0.973204 0.229932
-0.161235 0.142392 0.56385 0.00238819 -0.956719 0.291002
0.195462 -0.112677 0.398226 0.814397 0.00986709 0.580224
-0.0452539 0.0305107 0.123908 -0.334911 0.650724 0.681464
0.0944413 0.225815 0.385012 -0.576115 0.119324 0.808612
0.0922088 -0.0201851 0.332989 0.909076 0.00209889 -0.416624
-0.199402 -0.116778 0.383714 -0.998659 0.0125254 0.0502402
-0.0638202 0.175327 0.36595 -0.0740738 0.917943 -0.389736
-0.100847 0.20499 0.409574 -0.0406428 0.841899 0.538103
0.155673 0.218772 0.708138 -0.0650297 0.797975 -0.599172
0.0163016 0.0269835 0.18769 0.796298 -0.604889 -0.00433364
-0.083951 0.0693731 0.409189 0.0607673 -0.0152585 0.998035
-0.07551 0.236335 0.367902 0.717563 0.171851 0.67496
0.0853201 0.15061 0.520059 -0.00221003 0.9921 0.125434
-0.173214 0.121108 0.384084 -0.909703 0.410945 0.059705
-0.0326023 0.177007 0.662657 0.00208034 -0.93841 0.345518
-0.101421 -0.0104515 0.40933 0.0812856 -0.000155258 0.996691
-0.0251089 0.0207152 0.318211 0 0 -1
-0.143921 0.225314 0.0183026 0.0178324 -0.965937 -0.258163
0.00354127 0.249621 0.338846 0.0246035 0.999131 0.0336499
-0.00436551 0.0832168 0.318211 0 0 -1
0.00271479 0.208341 0.694596 -0.00210409 0.852902 -0.522066
0.188082 -0.0338708 0.365366 0.812277 0.0644751 -0.579697
0.0769706 -0.034631 0.407474 -0.0548919 0.00124041 0.998492
0.116299 0.157616 0.496008 -0.00199829 0.937196 0.348798
-0.151339 0.179202 0.669364 0.00224116 -0.93841 0.345518
0.0467214 0.107741 0.409458 -0.0336303 -0.0655087 0.997285
-0.188254 -0.026653 0.100021 0.0166642 -0.516536 0.856103
-0.239571 -0.0633231 0.0329916 0.999996 0.00288566 0
0.0337745 0.163356 0.625155 0.00208001 -0.938407 0.345526
-0.155716 -0.210575 0.368741 -0.0772927 0.0389261 -0.996248
0.0668925 0.205248 0.689295 -0.00192748 0.85289 -0.522087
-0.196514 -0.0363665 0.385542 -0.996158 0.0687271 0.0542745
-0.136255 0.159513 0.56515 0.0289646 0.95586 -0.29239
-0.0733711 0.117138 0.299348 0.000331782 -0.2686 0.963252
0.0102628 -0.0472443 0.097557 0.992725 -0.0110761 0.119893
-0.0783321 0.0191747 0.273937 0.000553768 -0.272591 0.96213
0.0175593 -0.131763 0.407508 -8.70188e-05 0.0383145 0.999266
-0.168823 0.164773 0.464027 0.802482 -0.179163 0.569143
0.0839892 -0.138258 0.338248 0.02142 -0.139031 -0.990056
-0.0485404 0.13737 0.409231 0.0023404 0.127453 0.991842
0.159547 0.194403 0.659455 -0.0477203 0.938116 -0.343017
-0.0864478 0.176276 0.661002 0.00210647 -0.938411 0.345515
0.0344049 -0.172336 0.40928 -0.0391945 0.0255377 0.998905
0.0396191 0.246164 0.311565 0.0107691 0.693669 -0.720214
0.130022 -0.0116242 0.0933776 -0.271649 -0.929723 0.248641
0.137593 0.140028 0.501202 0.00226427 -0.935814 -0.352487
0.0635838 0.0797043 0.408445 -0.0439377 -0.0462528 0.997963
0.0492292 0.224391 0.340928 0.0307228 -0.997091 -0.0697482
0.111053 -0.11333 0.336534 0.0280728 -0.0736546 -0.996889
0.251849 -0.0571187 0.00463427 0.999997 0.00259315 0
0.0843659 0.146963 0.108048 0.47638 -0.181042 0.860399
0.272331 -0.0792579 0.0152282 -0.999998 -0.0018111 0.00124546
-0.123765 -0.222578 0.366411 -0.052748 0.0172343 -0.998459
-0.0784973 -0.0559556 0.298026 -0.999997 -0.00252164 0
0.199961 0.196597 0.671141 0.660946 0.721965 -0.204736
-0.00586179 0.064747 0.0566754 -0.311272 0.950275 0.00934123
0.171403 0.272956 0.0193532 -0.999998 -0.00208752 0.00055806
-0.0173064 0.216026 0.735129 0.00204033 -0.834888 0.550416
-0.153182 -0.0219009 0.411039 -0.107581 0.0137789 0.994101
0.195194 0.175523 0.469706 -0.0201973 0.846874 0.53141
-0.083987 0.111375 0.410558 0.026767 -0.0151789 0.999527
0.0797543 0.0180513 0.253738 0.999993 0.00347678 0.00103824
0.0733098 0.154662 0.0735006 -0.0400374 -0.0180832 -0.999035
-0.034895 0.226091 0.386024 -0.0151065 0.880917 0.47303
0.0600079 0.0710044 0.258289 -0.000495699 0.243944 -0.969789
-0.0556336 0.134022 0.0872643 0.808867 0.586633 -0.0399527
0.176985 0.145747 0.487002 0.00215387 -0.890187 -0.455591
0.110207 0.176288 0.0880326 0.800097 -0.54538 0.249811
0.182216 0.238489 0.044062 0.971094 -0.167991 0.169576
0.00314439 0.167779 0.443864 0.00181094 -0.816813 -0.576899
-0.0507746 0.0126791 0.0951804 0.304113 -0.951087 -0.0543002
-0.0325185 -0.23778 0.363144 0.00225082 -0.995939 -0.0899985
-0.043568 -0.0743104 0.309751 -0.00105498 0.431378 0.902171
-0.00409716 0.0645441 0.142478 -0.311294 0.949663 0.0351592
-0.0538554 -0.134668 0.337364 -0.0130729 -0.138732 -0.990244
0.0670746 0.140016 0.274525 -0.000768473 0.234437 -0.972131
-0.0187961 0.0809167 0.111748 0.789487 0.601424 0.122469
0.272279 -0.0550459 0.0446824 -0.999997 -0.00251371 0
0.157736 0.0996542 0.351033 0.609358 0.125184 -0.782951
0.123257 0.147305 0.57783 0.00199342 -0.956745 0.290921
-0.155399 0.188 0.645609 0.031282 0.938719 -0.343262
-0.136347 -0.0596626 0.411675 0.0351115 0.00341891 0.999378
-0.237174 -0.0485064 0.0771341 0.295999 -0.947338 0.122207
-0.0536671 0.259966 0.769204 -0.0848402 0.996394 0.00106331
0.0868979 0.222378 0.716153 -0.0240497 0.798144 -0.601986
0.108431 0.198269 0.420204 0.0371464 0.842154 0.537957
0.0316402 0.191848 0.657614 -0.00208204 0.939176 -0.34343
0.0583644 0.0939751 0.299473 -0.99998 -0.00359909 -0.00520021
-0.157878 0.27076 0.0664729 0.524831 0.850134 -0.0427177
-0.0666961 0.18242 0.677568 0.00211311 -0.93841 0.345518
-0.195755 0.141424 0.558924 -0.20987 -0.932076 0.295279
-0.118097 0.196021 0.388863 -0.275486 -0.730283 -0.625135
0.00191483 -0.00117594 0.246099 0 0 -1
0.00800524 0.223304 0.338055 0.0333333 -0.997734 -0.0584393
-0.0889284 0.0088489 0.408314 0.0812856 -0.000155258 0.996691
0.0364578 0.181773 0.424154 0.0018065 -0.816816 -0.576895
0.0152098 0.227838 0.365718 0.00186812 -0.842474 -0.538733
0.0497953 -0.135441 0.33735 0.011924 -0.116992 -0.993061
0.137655 -0.0848061 0.309802 -0.00221246 0.923722 -0.383058
-0.0618595 0.149964 0.587982 0.00214762 -0.956745 0.290921
-0.00978915 -0.238148 0.00530141 0.999996 0.00277587 0.000421923
-0.0968496 0.0174681 0.107123 -0.328058 0.936791 0.121662
0.0331737 0.103294 0.0840025 -0.804214 0.593336 -0.0345293
-0.0375063 0.228807 0.724858 -0.0222077 0.797871 -0.60242
0.125065 -0.120241 0.412201 -0.0566004 0.0253056 0.998076
-0.170557 0.150937 0.592022 0.00232131 -0.956744 0.290921
-0.147636 0.245539 0.752203 -0.36768 0.351587 0.860929
0.0864065 0.155247 0.602782 0.00233091 -0.938408 0.34552
0.0489244 -0.0166412 0.282285 -0.00105498 0.431378 0.902171
0.177447 -0.150308 0.357206 0.57972 -0.128731 -0.804583
-0.00442087 0.0313902 0.405247 7.14045e-05 -0.0298522 0.999554
0.178223 0.078515 0.40021 0.772207 0.109892 0.625795
0.0613665 0.0481355 0.318211 0 0 -1
0.00643862 -0.233405 0.0453414 0.917238 0.398339 0
0.00696304 0.175934 0.359977 -0.0019503 0.922095 -0.38696
0.144577 0.17159 0.438929 0.00203498 -0.816727 -0.577021
0.196432 0.167709 0.629249 0.220019 -0.907059 0.358936
0.000813551 -0.110395 0.306034 0.00121389 -0.496542 -0.868012
-0.119464 0.164121 0.628199 0.00220519 -0.93841 0.345518
-0.00525799 0.240977 0.740268 -0.00194835 0.78958 -0.613644
-0.0802629 0.0674772 0.33249 -0.999997 -0.00257966 0.000203485
0.056934 -0.195354 0.409502 -0.0207124 -0.036269 0.999127
0.0525988 0.189387 0.650757 -0.00212248 0.939176 -0.34343
0.0295547 0.00110656 0.404836 -0.0523674 0.00308888 0.998623
0.0177116 -0.267334 0.0421128 0.017006 -0.706588 0.707421
0.0640417 0.11388 0.103721 0.815725 -0.564806 0.124849
0.0852651 0.196959 0.70486 0.00191356 -0.84873 0.528823
0.165007 0.157022 0.551457 -0.0336362 0.954952 -0.294847
0.0650971 0.249306 0.347585 -0.925787 0.358836 0.118975
0.0789893 -0.125874 0.409455 -0.0449122 0.0372315 0.998297
-0.0196928 0.250457 0.316054 -0.00193116 0.999431 0.0336601
0.135266 0.173971 0.65335 0.00227682 -0.938406 0.345526
-0.0676748 -0.199537 0.408548 -0.00817806 -0.242521 0.970112
-0.061739 0.211678 0.318851 0.961172 -0.103842 0.255666
0.193582 -0.0917569 0.368765 0.784364 0.0334435 -0.619398
0.0352264 0.236534 0.755063 -0.0502329 -0.399659 -0.915286
0.0322502 0.157003 0.497135 -0.00207798 0.937258 0.34863
-0.148052 0.123453 0.406752 -0.2959 0.276763 0.914246
0.256859 -0.0356181 0.0622612 -0.755892 0.6104 -0.236726
-0.187075 0.145536 0.521028 0.507037 0.852984 0.123825
-0.104808 0.208051 0.694531 -0.00180532 0.852903 -0.522067
0.119714 0.197421 0.389202 0.29247 -0.736116 -0.610406
0.00137077 0.134509 0.521143 0.00242574 -0.991864 -0.127276
-0.110759 0.148093 0.582209 0.00224813 -0.956684 0.291121
0.100532 0.00494044 0.115813 -0.112073 -0.723393 0.68128
-0.117616 0.152814 0.345899 -0.287033 0.76609 -0.575081
-0.173504 0.138103 0.504386 0.00226442 -0.935798 -0.35253
0.0415983 -0.193394 0.348596 0.046844 -0.216741 -0.975105
0.0454462 0.210852 0.698529 -0.00192748 0.85289 -0.522087
-0.0664115 0.16817 0.593488 -0.0021228 0.939176 -0.34343
0.137564 0.154898 0.601537 0.00227682 -0.938406 0.345526
-0.102358 -0.120673 0.410768 0.0686589 0.0299533 0.99719
0.167344 0.145559 0.571733 0.00232137 -0.95677 0.290837
0.0784035 -0.0352009 0.281142 0.999997 0.00239445 0
0.109843 -0.221615 0.362427 0.128195 -0.290785 -0.948161
0.022051 -0.243261 0.00818673 0.970735 0.0643678 -0.231364
-0.117951 0.142671 0.492612 0.00218377 -0.935665 -0.352883
-0.168359 0.199117 0.703097 0.648413 -0.723746 0.236119
0.148439 0.19328 0.413097 0.750925 0.0386008 -0.659259
0.124012 0.115805 0.410552 0.0470323 0.0819414 0.995527
-0.196483 0.20463 0.685972 -0.649615 0.718547 -0.248376
-0.0430083 0.161548 0.455115 0.00219834 -0.890227 -0.455512
-0.183168 0.272456 0.025601 -0.971297 0.229532 0.0624245
-0.0827601 0.139593 0.0737807 0.00490858 -0.043649 -0.999035
0.021974 0.171388 0.467541 -0.00197504 0.890609 0.454766
0.115772 0.0254346 0.30718 0 0 -1
-0.0492123 0.142264 0.562566 0.00214762 -0.956745 0.290921
0.110894 0.162238 0.355467 0.258146 0.777877 -0.572946
-0.0117387 -0.0619623 0.405012 -1.0481e-05 0.00476357 0.999989
-0.0335723 0.16077 0.488048 -0.00219899 0.890494 0.45499
-0.131189 -0.0973876 0.32447 -0.00090246 0.381708 0.924282
0.0785383 -0.0939531 0.30976 -0.999999 -0.00143989 0
-0.0710228 0.153986 0.406698 -0.00975592 0.146925 0.9891
-0.078561 -0.0306914 0.285409 -0.999997 -0.00252164 0
0.0741641 0.215128 0.361054 -0.770392 -0.445093 0.456496
-0.159264 0.227873 0.72074 0.059798 0.789023 -0.611446
0.148625 -0.130293 0.342416 0.1762 -0.184523 -0.966905
-0.177677 0.176214 0.631596 0.935075 0.296918 -0.193583
-0.132545 0.222659 0.742455 0.180909 -0.982573 0.0426923
0.0047867 0.192211 0.433444 -0.00231024 0.829019 0.559216
-0.100078 0.162887 0.101746 -0.805028 -0.538062 0.24984
-0.165223 0.0165239 0.347848 -0.567365 0.0437695 -0.822302
0.079184 0.210732 0.297743 0.955927 0.0970892 -0.277087
-0.051079 -0.151568 0.409315 0.0451872 0.0467146 0.997886
-0.0644945 0.256109 0.322134 0.790847 0.607049 -0.0777891
0.0148423 -0.229808 0.358834 0.000643191 -0.284599 -0.958646
0.010128 0.033583 0.226715 0.802131 -0.597147 -0.00040853
0.0107952 -0.129744 0.0855271 0.992725 -0.0110761 0.119893
0.186857 0.138831 0.541535 -0.132438 -0.968821 0.209393
0.0388566 0.0631671 0.406906 -0.0435747 -0.0219958 0.998808
0.184743 0.158454 0.606569 -0.128142 -0.934341 0.332545
-0.188095 -0.0102394 0.0790126 -0.308489 0.950578 -0.0351578
-0.209284 0.170013 0.607358 -0.693974 0.693812 -0.192419
-0.00707379 0.0203869 0.176913 -0.302329 -0.953203 -0.000685783
0.0340044 0.119677 0.329778 -0.00163257 0.706959 -0.707253
-0.251796 -0.0792756 0.0305103 -0.999998 -0.00208546 0.000559772
0.00783797 0.00950077 0.122877 0.992725 -0.0110761 0.119893
0.00130076 -0.0389743 0.265875 0.00119202 -0.487409 -0.873173
-0.117301 0.18859 0.414287 0.0017848 -0.752288 -0.658832
-0.154347 0.197832 0.432302 0.0597539 0.784104 0.617747
0.0711768 0.137581 0.507296 0.00200507 -0.935666 -0.35288
-0.132379 0.0644869 0.411268 0.00851122 0.00547509 0.999949
0.00464697 0.1514 0.536146 -0.00215938 0.973974 -0.226652
0.0583597 -0.211529 0.355212 0.0680634 -0.282411 -0.956876
0.079638 0.0682581 0.335251 0.999998 0.00193887 -0.000274605
-0.173889 -0.136593 0.409539 -0.14014 -0.036234 0.989468
-0.0183489 0.255215 0.76117 -0.00104213 0.54843 -0.836196
-0.116269 -0.181297 0.35039 -0.0980086 -0.252192 -0.962701
-0.106132 0.136891 0.544379 0.00203144 -0.973205 0.229931
0.0495584 0.223986 0.718435 -0.00180487 0.798636 -0.601811
-0.0890773 0.195212 0.702715 0.00198534 -0.848732 0.52882
-0.195304 -0.140288 0.370577 -0.696507 -0.0352488 -0.716684
-0.0217837 0.142313 0.408542 -0.000300434 0.12739 0.991853
0.175284 -0.0272975 0.0779474 -0.311332 -0.948449 -0.0593046
-0.15379 0.155417 0.503483 0.041811 0.936408 0.348414
0.18857 0.0432465 0.389558 0.989393 0.133491 0.0572836
0.0172782 -0.150154 0.338876 0.000288452 -0.11655 -0.993185
0.125487 0.153002 0.472598 0.00186089 -0.890035 -0.455887
0.0177422 0.0189697 0.100244 0.303321 -0.952234 0.0353027
-0.115035 0.19662 0.705073 0.00198844 -0.84873 0.528822
0.166 0.22607 0.0254556 0 0 -1
-0.00362205 0.226297 0.721374 -0.00194835 0.78958 -0.613644
-0.0435748 0.165038 0.630216 0.00208034 -0.93841 0.345518
0.17129 -0.12215 0.349958 0.454985 -0.0506032 -0.88906
-0.175749 0.0760064 0.402003 -0.422678 0.0650873 0.90394
-0.0150531 0.156299 0.606312 0.00208034 -0.93841 0.345518
0.104556 0.198306 0.0989046 -0.760817 0.599638 0.248178
-0.048636 -0.0963574 0.407132 0.0524738 0.037272 0.997927
0.112817 0.192354 0.658501 -0.00201164 0.939213 -0.343329
0.120587 0.169666 0.596392 -0.00198399 0.939209 -0.34334
0.159736 -0.200967 0.365109 0.271402 -0.273561 -0.922771
-0.0803906 -0.0890679 0.315805 -0.00230433 0.923708 -0.383091
0.100122 0.137199 0.543652 0.00229233 -0.973204 0.229934
-0.0107297 -0.0589677 0.0917701 -0.998913 0.00162929 -0.0465814
0.0440884 0.152873 0.596622 0.00234529 -0.938406 0.345526
0.0572542 0.163534 0.403574 0.0264501 0.398165 0.916932
-0.0725182 0.0861054 0.325095 -0.00168818 0.930749 0.365655
-0.0726085 -0.105605 0.303194 0.00109436 -0.496543 -0.868012
0.175325 -0.0612416 0.409201 0.107471 0.0134926 0.994117
0.00723356 0.0773796 0.246099 0 0 -1
-0.0616368 0.177975 0.454325 -0.00187313 0.828842 0.559479
-0.154159 0.166123 0.480663 0.0609688 0.888686 0.454445
0.0252504 0.0478631 0.120362 0.801198 0.597537 0.0321244
0.13051 -0.0109017 0.33542 6.90169e-05 -0.0298844 -0.999553
0.0368892 0.0437503 0.250812 0.990483 0.137635 0
-0.0355661 0.07106 0.101841 -0.809541 -0.574387 0.121339
-0.0293277 0.0825236 0.0768743 0.0131222 -0.0381923 -0.999184
0.146888 0.18272 0.677035 0.00224117 -0.938414 0.345505
0.0683806 0.184472 0.444236 -0.00214411 0.852015 0.523512
0.153309 0.139409 0.363258 0.667305 0.564334 -0.486036
-0.12219 -0.0444682 0.335495 1.78086e-05 -0.00771746 -0.99997
0.239593 -0.0630851 0.0309032 -0.999997 -0.00241841 0
-0.0996107 0.00161868 0.0746148 0.033859 0.0236221 -0.999147
-0.126216 0.151496 0.537853 -0.00205513 0.974185 -0.22574
0.15958 0.183244 0.451828 -0.0892928 0.860344 0.501831
-0.180634 -0.190346 0.38881 -0.734953 -0.613762 0.28834
0.113817 0.107451 0.335668 -2.51494e-05 0.0115402 -0.999933
0.0343824 -0.0814019 0.322698 0.00146116 -0.610922 -0.79169
-0.195124 0.160293 0.567133 0.209033 0.931049 -0.299086
-0.0501008 -0.0500734 0.406096 0.0523358 0.00166304 0.998628
-0.146081 -0.153571 0.413009 -0.0303559 -0.0460857 0.998476
-0.0729118 0.157532 0.49505 -0.00211814 0.937258 0.348629
0.0570599 0.12837 0.0746881 -0.0135386 -0.0390923 -0.999144
0.126135 0.227637 0.752018 0.0167762 -0.832632 0.553573
-0.0370605 0.0453417 0.318211 0 0 -1
-0.0038992 0.0147572 0.0596083 -0.347337 -0.937287 -0.029155
0.0584766 0.0473134 0.26249 -0.999997 -0.002413 0.000124523
-0.09513 0.256105 0.764941 -0.135087 0.99056 -0.023293
-0.105842 0.188002 0.103963 0.515559 0.519636 0.681305
0.171655 0.176709 0.438979 0.358653 -0.624279 -0.694005
0.0795785 0.090284 0.300469 0.999995 0.00278653 -0.00132193
0.0052761 -0.205894 0.069239 0.0215949 0.0380977 -0.999041
-0.063156 0.0135637 0.0761325 0.033859 0.0236221 -0.999147
-0.181038 0.221633 0.729119 -0.548465 -0.438533 0.711952
0.150704 0.26262 0.0849828 -0.760817 0.599638 0.248178
0.122478 0.0504511 0.318492 -0.00164015 0.752608 -0.658467
-0.0108881 -0.217937 0.355292 0.000705982 -0.284688 -0.95862
0.0817111 -0.00324797 0.407747 -0.0812507 -0.000608626 0.996694
-0.26355 -0.0547259 0.0657844 -0.0032172 -0.999318 -0.0367786
0.168904 0.185078 0.633125 -0.0356603 0.935901 -0.350454
0.108942 0.169183 0.442221 0.00171065 -0.816741 -0.577001
-0.0438742 0.226482 0.346871 -0.00675938 -0.0167479 0.999837
-0.0857192 0.0223687 0.318211 0 0 -1
0.100201 -0.185465 0.41096 -0.0167787 -0.0778337 0.996825
0.0588177 0.179065 0.301657 -0.986582 0.0798353 -0.142414
-0.0369563 0.107805 0.0804531 0.808867 0.586633 -0.0399527
0.17414 -0.111915 0.314884 0.680893 -0.67649 -0.280617
0.0502623 -0.0860056 0.40671 -0.0526059 0.0304473 0.998151
-0.188655 -0.0618 0.3646 -0.770661 0.0155211 -0.637056
-0.0233635 -0.0385102 0.318211 0 0 -1
-0.0436708 -0.110695 0.339046 -0.000287891 0.122564 0.992461
-0.00338425 0.169417 0.641854 0.00231552 -0.938373 0.345616
0.127609 -0.0587208 0.336158 0.0902451 -0.0098027 -0.995871
0.062531 -0.0809376 0.322391 0.00146116 -0.610922 -0.79169
0.0629884 0.136824 0.304748 0.000633308 -0.26863 0.963243
0.0480085 0.238597 0.361293 0.129498 0.858778 0.495712
0.148143 0.231826 0.750471 0.143766 -0.572959 0.806877
0.139221 0.234368 0.0331822 -0.970028 -0.234694 0.0629648
-0.148913 0.00236581 0.0760202 -0.308489 0.950578 -0.0351578
-0.0409808 0.181933 0.3776 0 0 1
-0.0935349 0.233909 0.761228 -0.113271 -0.540169 0.833899
0.154743 0.213283 0.729812 0.00166103 -0.815275 0.579071
0.0262531 0.138976 0.551181 0.00236201 -0.956744 0.290921
-0.00236888 -0.105673 0.406506 -8.70188e-05 0.0383145 0.999266
0.185225 0.202868 0.682045 -0.285964 0.814881 -0.504176
0.12091 0.1821 0.675516 0.00197139 -0.938407 0.345526
-0.0494993 0.0299808 0.406303 0.0550103 -0.0225765 0.99823
0.0617356 0.204528 0.322881 -0.849463 -0.253876 0.462558
-0.147814 0.187412 0.69067 0.00209669 -0.877917 0.478808
-0.0944857 0.164317 0.628571 0.00219855 -0.938411 0.345515
-0.1874 0.0517869 0.375922 -0.846179 0.110054 -0.521411
0.186254 0.137688 0.507707 0.00212585 -0.93569 -0.352818
0.136085 0.160957 0.489279 -0.0431279 0.889678 0.454547
0.0102357 -0.0763838 0.0950895 0.992725 -0.0110761 0.119893
0.141206 -0.0888804 0.412338 -0.0352275 0.0205491 0.999168
0.060008 0.232391 0.759842 -0.00756472 -0.83909 0.54394
-0.0462846 0.248783 0.335764 -0.0540727 0.995573 0.0768757
-0.066131 -0.00745592 0.318211 0 0 -1
-0.0548084 0.21451 0.704904 -0.0019275 0.852902 -0.522067
0.0666728 -0.166891 0.410405 -0.0323032 0.0103427 0.999425
-0.100347 0.245251 0.746862 0.0257353 0.785682 -0.618095
0.0717651 0.147398 0.578523 0.00239097 -0.956681 0.291128
0.186578 -0.177975 0.395229 0.760045 -0.311246 0.570489
0.0396692 0.181312 0.375162 0.0701141 0.921605 -0.381743
-0.027576 -0.105355 0.406492 -8.70188e-05 0.0383145 0.999266
0.121973 0.128787 0.337662 0.140236 0.0734026 -0.987393
0.0274408 -0.103195 0.332845 -0.00184579 0.78581 0.618466
-0.0596985 0.126842 0.279131 0.999148 0.0406564 0.0071047
-0.113599 0.160007 0.567479 -0.00227867 0.956261 -0.292505
-0.0204074 0.175019 0.611926 -0.0022964 0.939209 -0.343339
0.00325309 -0.112805 0.339321 -0.000287891 0.122564 0.992461
0.067384 0.173173 0.651595 0.00233091 -0.938408 0.34552
-0.151657 0.175446 0.611617 0.031282 0.938719 -0.343262
-0.0155529 0.0539193 0.181523 -0.737611 0.675129 -0.0114317
-0.0298425 0.148955 0.337051 -0.000179461 0.0777128 -0.996976
0.0650187 0.124675 0.410104 -0.0197476 0.00883612 0.999766
0.116575 0.171219 0.379822 0.308395 0.948776 0.068684
-0.11982 0.146568 0.405992 -0.123027 0.387131 0.91378
0.184433 -0.00933279 0.362982 0.812277 0.0644751 -0.579697
-0.0739427 0.183424 0.635255 -0.00236354 0.939212 -0.34333
-0.0590838 0.0806179 0.262196 0.99999 0.00305463 -0.00333319
0.0584172 0.0731528 0.286194 -0.999996 -0.00262487 -0.000574509
-0.156456 0.151416 0.53368 0.0272312 0.995009 -0.0959989
-0.1706 -0.100853 0.348848 -0.515534 0.0159445 -0.856721
0.138764 0.247686 0.0212193 -0.999999 -0.00166395 0
0.137199 0.216461 0.0898003 0.815725 -0.564806 0.124849
-0.00974 -0.261814 0.00603888 0.999992 0.00400626 5.0305e-05
-0.0646653 0.0535121 0.407671 0.0550103 -0.0225765 0.99823
-0.0541107 0.150061 0.521773 -0.00224215 0.991978 0.126393
0.133072 -0.105232 0.337408 0.0862257 -0.0257962 -0.995942
0.030278 0.249193 0.333927 -0.00301703 0.996997 0.0773846
0.0448252 -0.0464823 0.318211 0 0 -1
-0.129206 0.0528099 0.321855 -0.00158957 0.752689 -0.658374
0.102399 -0.139082 0.411355 -0.0692559 0.0352392 0.996976
-0.0644661 0.15133 0.53651 -0.00220159 0.974184 -0.225744
-0.0201386 0.235292 0.763521 0.0254025 -0.824202 0.565726
-0.0576347 0.104141 0.111201 -0.809541 -0.574387 0.121339
0.123683 0.00290645 0.410989 -0.0722735 0.00038433 0.997385
0.0601873 0.0101561 0.0996116 -0.285052 -0.950211 0.125876
0.190586 -0.0156236 0.0998306 0.31878 0.620119 0.716821
-0.0590556 0.0683415 0.307706 0.999998 0.00204026 -0.000222952
-0.0247754 0.0216929 0.109673 -0.269103 -0.959586 0.0823271
0.270489 -0.036182 0.0360687 0.999998 0.00208581 0.00055811
-0.0646207 0.0467694 0.281829 0.000559926 -0.275551 0.961286
-0.0801048 0.00110609 0.257975 -1 0 0
-0.0945103 -0.132722 0.337702 -0.0516854 -0.140478 -0.988734
0.102276 -0.214944 0.401368 0.15753 -0.61364 0.773712
0.097229 0.159267 0.09244 0.800097 -0.54538 0.249811
0.0645938 0.176091 0.367243 0.073508 0.91804 -0.389615
0.086523 0.024536 0.318211 0 0 -1
-0.00186469 0.241318 0.770321 0.00127042 -0.5489 0.835887
0.0657637 0.0876273 0.322023 -0.0022511 0.930748 0.365655
0.0150787 0.0473423 0.275972 0 0 1
-0.0357909 -0.0588561 0.276926 0.00114615 -0.487457 -0.873146
-0.1445 -0.195541 0.405673 -0.286794 -0.482619 0.827543
0.185511 0.163436 0.455679 0.362273 -0.79069 -0.493525
0.133498 -0.217732 0.364622 0.189502 -0.301902 -0.934315
-0.145786 0.226114 0.0724874 -0.811018 -0.582838 -0.0504871
0.061244 0.203236 0.416626 0.0362665 0.806145 0.590605
0.0229881 0.00461288 0.275972 0 0 1
-0.0649948 0.0081051 0.406749 0.0548743 0.00326978 0.998488
-0.107479 0.173065 0.652413 0.00219855 -0.938411 0.345515
-0.0455047 0.036035 0.0790066 -0.308489 0.950578 -0.0351578
0.171878 0.100226 0.400786 0.410283 0.118355 0.904246
0.0957357 0.250858 0.767347 0.25288 0.386614 0.886894
0.021739 0.0261772 0.129447 0.251394 -0.687511 0.68127
-0.0612156 0.0999047 0.299766 -0.000758512 0.418193 0.908358
0.0589514 0.175553 0.433035 0.00194279 -0.816816 -0.576895
-0.0263776 -0.174991 0.344048 0.000537086 -0.217012 -0.976169
-0.0303744 -0.133438 0.407568 -8.70188e-05 0.0383145 0.999266
-0.119828 0.202022 0.0709223 0.033015 -0.0249186 -0.999144
-0.0971745 0.0835607 0.335178 0 0 -1
-0.059248 0.106415 0.318211 0 0 -1
0.0220347 -0.237945 0.386249 0.00212028 -0.934003 0.35726
0.107202 0.188216 0.690755 0.001783 -0.84873 0.528823
-0.0126009 0.245103 0.351206 -0.0203737 0.88073 0.473181
-0.016044 -0.00565752 0.276957 -0.00105499 0.431378 0.902171
-0.0311026 -0.0892096 0.32329 -0.00178048 0.728051 0.68552
0.0956367 0.162874 0.623444 0.00195522 -0.938409 0.34552
-0.153847 0.0292884 0.41021 -0.105217 0.017828 0.994289
-0.0748839 0.193148 0.661862 -0.00236354 0.939212 -0.34333
-0.00920765 0.177825 0.429598 0.0020116 -0.816813 -0.576899
-0.144932 -0.0124989 0.335117 -0.448582 -0.893095 -0.033995
-0.0177416 -0.0147969 0.318211 0 0 -1
0.160815 -0.171982 0.356413 0.245046 -0.304238 -0.920539
0.150967 0.273192 0.0304677 0.999999 0.00104376 0.000279268
0.10393 0.0159988 0.0746407 -0.0295357 0.0323882 -0.999039
