-0.253159 -0.0282027 0.534361 0.0253736 -0.046745 -0.998585
0.181016 0.2109 0.696975 -0.31071 0.798228 -0.516034
-0.125548 0.228612 0.0815418 0.765848 0.592783 0.249169
-0.192812 -0.163098 0.394906 -0.748632 -0.312969 0.584465
-0.0453619 0.168273 0.639125 0.00257089 -0.938411 0.345513
-0.172096 0.0824625 0.360494 -0.795321 0.159601 -0.584801
0.0403345 0.123844 0.33395 -0.00187135 0.707111 -0.7071
0.138369 0.171977 0.647883 0.00259388 -0.938375 0.34561
0.166525 0.125576 0.396809 0.679665 0.320057 0.660014
0.0309618 0.0627093 0.252859 0.935365 0.353684 0
-0.0443226 0.0850089 0.0763578 0.00495017 -0.0436352 -0.999035
0.260298 -0.0446298 0.02984 -0.00304361 0.965557 0.260175
-0.0361328 0.134268 0.526804 0.00293624 -0.995795 0.0915627
-0.0607958 0.203151 0.308207 0.98852 0.0348689 -0.147012
0.131826 0.21678 0.406468 0.424932 0.889152 0.169831
-0.119463 -0.10427 0.31171 0.00253221 -0.923588 -0.383379
-0.0981014 -0.206374 0.406 -0.0428619 -0.258944 0.964941
0.12389 0.224584 0.74195 -0.16913 -0.984577 0.0447605
-0.0694627 0.152245 0.50919 -0.00233729 0.937302 0.348511
-0.115203 0.162079 0.453669 0.00231981 -0.890152 -0.455659
0.00774718 -0.251916 0.0502306 0.000974478 -0.258216 0.966087
0.211239 0.155687 0.55927 0.690591 0.702554 -0.171763
0.209803 0.0507016 0.329354 -0.0027507 0.948336 -0.317256
-0.257434 -0.0191798 0.534014 -0.104735 -0.010885 -0.994441
-0.00570494 0.0640692 0.140926 -0.310292 0.95001 0.0346311
0.239583 -0.0602102 0.019424 -0.999995 -0.003254 0
0.0348988 0.0190861 0.275977 0 0 1
-0.02678 -0.0860562 0.329464 0.00244042 -0.922448 -0.386113
0.194041 -0.158719 0.395597 0.813629 -0.114461 0.570006
-0.0056482 0.193612 0.699893 0.00207464 -0.848834 0.528656
0.00986959 0.0252258 0.0330208 0.264668 -0.96434 0
-0.139041 0.179518 0.624088 0.0310385 0.938747 -0.343208
-0.182136 0.0133199 0.331439 0.00225055 -0.948343 0.31724
0.0283074 -0.0726719 0.309044 -0.00117291 0.43138 0.90217
0.00984095 -0.0564426 0.100107 0.992672 -0.0109528 0.120342
0.206594 0.149965 0.56771 0.533679 -0.799166 0.276623
-0.195687 -0.0232088 0.3844 -0.996119 0.068107 0.0557483
-0.0481732 0.200516 0.400814 0.00199225 -0.752337 -0.658775
-0.00794007 0.163285 0.483213 -0.00262582 0.890301 0.455366
-0.199961 0.15976 0.47223 -0.62649 -0.59423 -0.504382
-0.266296 -0.0127444 0.551062 -0.320142 -0.022925 0.947092
0.0281239 0.0597635 0.0810483 0.962824 -0.264179 0.0563795
0.0633155 0.214799 0.400018 0.105266 0.838767 0.534218
-0.0242195 -0.231082 0.359177 0.000797585 -0.284591 -0.958649
-0.231755 0.0856722 0.551555 0.047572 0.022129 0.998623
0.12775 0.180679 0.450626 -0.0891837 0.860267 0.501982
-0.0354494 -0.087421 0.40611 0.0524879 0.0373075 0.997924
-0.246667 0.0482375 0.459482 -0.93295 0.356413 -0.0507353
0.0169513 0.140585 0.55662 0.00236154 -0.956714 0.291019
0.129641 0.212727 0.0967744 0.47651 -0.18099 0.860338
0.103532 0.200483 0.71046 0.00221136 -0.84871 0.528854
-0.0724483 0.174949 0.460068 -0.00244742 0.89 0.455954
0.174721 0.22739 0.0378004 0.0197862 -0.965635 0.259148
0.201707 0.152977 0.526943 0.149304 0.985705 -0.0780657
0.0795467 0.0899732 0.30064 0.999995 -0.000246754 0.00302109
-0.0694751 0.121197 0.300384 0.298938 -0.2562 0.919238
0.208278 0.152326 0.530858 0.141908 0.986256 -0.0846251
0.189959 0.21255 0.697191 0.0427107 0.873942 -0.48415
-0.0604106 0.16212 0.342166 -0.0809626 0.84233 -0.532847
-0.0452949 0.172223 0.355641 -0.0707141 0.828366 -0.555706
-0.0483501 0.221693 0.743958 0.0107043 -0.834753 0.55052
0.0413472 -0.00375767 0.318223 0 0 -1
0.0371911 0.167821 0.347385 0.0674332 0.842678 -0.534178
0.110691 0.168659 0.368048 0.286135 0.867491 -0.406924
-0.209135 0.00299866 0.552595 0.0404881 -0.00943605 0.999135
0.258358 -0.0390897 0.0481591 -0.388441 0.921448 -0.00687208
-0.156173 0.158622 0.613674 0.00242762 -0.938376 0.345609
0.000756312 0.0627849 0.406195 7.62723e-05 -0.0299173 0.999552
-0.0681463 0.200781 0.682614 -0.00212665 0.852832 -0.522181
-0.0728221 0.182811 0.633728 -0.00234202 0.939197 -0.343371
0.137863 0.184759 0.445431 -0.0891837 0.860267 0.501982
0.252217 -0.061076 0.534551 0 0 -1
-0.145878 0.159765 0.565228 0.0287696 0.955886 -0.292325
0.0121523 -0.0773562 0.319972 0.000994593 -0.382 -0.924162
-0.149986 0.205097 0.719375 0.00220023 -0.816119 0.57788
0.161313 0.209408 0.715799 -0.835895 -0.0523676 -0.546385
0.0217542 0.229782 0.754968 -0.0223279 -0.834777 0.550135
0.186018 0.034811 0.321422 0 0 -1
0.0977325 0.146617 0.484964 0.0020785 -0.890318 -0.455334
-0.0925597 -0.115763 0.409953 0.0684406 0.0300259 0.997203
0.149366 0.0800314 0.341687 0.507945 0.0993847 -0.855637
0.130139 0.106212 0.410652 0.141236 0.0682566 0.98762
-0.143998 -4.93438e-06 0.336058 -0.377573 -0.000895824 -0.925979
0.00164134 -0.134907 0.313234 -0.00957909 0.99982 0.0163901
-0.131755 0.156956 0.496551 0.0414588 0.936529 0.348131
-0.0779681 -0.1894 0.349403 -0.0542993 -0.283196 -0.957524
0.0193376 0.160588 0.405794 -0.00108383 0.390642 0.920542
-0.0806676 0.141609 0.292664 -0.999966 -0.00813945 -0.0010961
-0.0574431 0.178413 0.621596 -0.00234201 0.939197 -0.343371
0.0862467 0.161499 0.345198 0.174304 0.809256 -0.561001
0.0649187 0.219583 0.347628 -0.770338 -0.501473 0.393833
-0.0632579 -0.151561 0.409812 0.0399549 0.0361573 0.998547
-0.0394966 0.242378 0.312298 -0.0332396 0.671111 -0.740611
0.192104 0.209402 0.694863 0.662003 0.710597 -0.238334
0.244064 0.0430371 0.383704 0.930634 0.362037 -0.0533791
0.196654 -0.0146806 0.0948002 0.335048 0.908978 0.247994
0.0595993 -0.235069 0.37331 0.13936 -0.988629 -0.0564948
0.0239942 0.0463234 0.146264 0.999073 0.0279114 0.0327592
0.128155 0.231336 0.0704926 -0.804329 0.593186 -0.034408
-0.00231725 0.0188914 0.175886 -0.293093 -0.956082 0.00186226
0.170986 0.167943 0.636687 0.00260613 -0.938372 0.345618
0.131669 0.207976 0.722406 0.00199492 -0.816127 0.577869
-0.029456 0.02678 0.24611 0 0 -1
0.105464 0.173799 0.101976 0.47651 -0.18099 0.860338
0.0423892 0.197039 0.405062 0.00201105 -0.752359 -0.658751
-0.184893 0.13989 0.541334 0.710671 -0.697812 0.0894705
-0.0649574 -0.000756371 0.25069 0.00275542 -0.90711 -0.420884
0.241951 0.0350384 0.357499 0.999995 0.0031416 0
-0.150992 -0.045663 0.33875 -0.377579 0.00358938 -0.92597
0.0141676 0.185757 0.443038 -0.00251376 0.829122 0.559062
-0.0360477 -0.105763 0.303321 0.00139607 -0.496562 -0.868
0.154515 0.271748 0.0254548 0 0 -1
-0.242209 0.00313411 0.509301 -0.272986 -0.960173 -0.0595603
-0.218145 0.0683961 0.533672 -0.012686 0.0802518 -0.996694
-0.183511 0.206954 0.691563 0.283248 0.808995 -0.51507
-0.089188 0.225605 0.721096 -0.00190782 0.798543 -0.601934
-0.0754892 0.0565055 0.288457 0.00281959 -0.795426 0.606044
0.0150698 0.0181853 0.0872964 0.815844 -0.57701 -0.0381909
-0.118195 -0.165213 0.412474 0.0262816 -0.00274441 0.999651
0.1292 0.161282 0.618913 0.00259388 -0.938375 0.34561
0.189102 0.205374 0.683954 0.0705138 0.880685 -0.468425
-0.169233 0.152969 0.53953 0.02882 0.970899 -0.23775
-0.0181052 0.0823868 0.0997109 0.789199 0.60163 0.123312
-0.0402868 0.0897618 0.123367 -0.622098 -0.314626 0.716941
-0.0664945 0.0749828 0.318223 0 0 -1
0.124059 0.00386824 0.112555 0.318576 0.620052 0.716969
0.153347 -0.15663 0.350073 0.208071 -0.239654 -0.9483
-0.221268 0.0376556 0.406398 0.998954 0.00197735 -0.0456831
0.17552 0.032528 0.337536 0 0 1
0.176875 0.155419 0.482967 -0.898546 0.217087 0.381429
-0.0106589 0.235507 0.347044 -0.00192125 0.00819723 0.999965
0.200309 0.0447695 0.322217 -0.000875429 0.316227 -0.948683
-0.075015 0.235817 0.764174 0.00254561 -0.801969 0.597361
-0.153422 0.187139 0.690323 0.00193455 -0.878052 0.478562
-0.123845 0.246194 0.762754 -0.185228 -0.233548 0.95454
0.18921 -0.162137 0.367572 0.579607 -0.128815 -0.80465
-0.223315 -0.0704484 0.534551 0 0 -1
-0.169985 0.089395 0.403292 -0.408741 0.115515 0.905311
-0.0544011 0.0984785 0.0767014 -0.810966 -0.582997 -0.0494883
-0.210793 0.161941 0.582672 -0.703723 0.690142 -0.168754
-0.096906 0.104736 0.335185 0 0 -1
0.0302489 0.0993673 0.0840427 -0.804329 0.593186 -0.034408
-0.180913 -0.0253506 0.40547 -0.427279 0.0345509 0.903459
0.0165961 0.0274761 0.152605 0.805902 -0.592048 -0.000503598
-0.11609 0.16877 0.393457 -0.284867 0.867857 0.407032
-0.029938 0.0984902 0.0869845 0.808706 0.586864 -0.0398115
-0.0746414 0.0618924 0.299887 0.00300359 -0.986888 0.161378
0.146582 -0.0704766 0.412153 -0.0351139 0.020657 0.99917
-0.141382 0.247136 0.0449049 0.97108 -0.0603707 0.230995
-0.0238017 0.0897971 0.0834869 0.808706 0.586864 -0.0398115
-0.111737 0.150858 0.535171 -0.00255667 0.974358 -0.224988
0.185789 0.171742 0.646565 0.266023 -0.896675 0.353845
-0.0907793 -0.0172021 0.408463 0.0818973 -0.000205704 0.996641
0.194746 0.148528 0.575554 0.21934 -0.929952 0.295093
-0.0467996 -0.237285 0.37887 -0.128116 -0.980448 0.149357
0.190844 0.0293286 0.382359 0.989463 0.133675 0.0556167
-0.125633 -0.126213 0.412419 0.056375 0.019967 0.99821
-0.177748 -0.13041 0.409192 -0.107395 0.00278486 0.994213
0.20252 0.140874 0.548607 0.213565 -0.930782 0.296707
0.010525 0.00790775 0.0903739 0.823112 -0.542352 0.168349
-0.0279406 0.0456047 0.0881187 -0.549163 0.834066 0.0524765
-0.0755334 0.236658 0.765677 -0.0453959 -0.54086 0.839887
0.0819056 0.1712 0.468183 -0.00267549 0.889998 0.455956
-0.0512582 -0.099471 0.335404 4.49268e-05 -0.0178822 -0.99984
0.0467793 0.225224 0.325583 0.0347624 -0.999301 -0.0137492
-0.195776 0.173232 0.462303 -0.784037 0.0265839 -0.620145
-0.060118 0.0903231 0.270602 -0.00291574 0.960435 -0.278489
0.156899 0.271568 0.0254548 0 0 -1
-0.0972677 -0.221355 0.360631 -0.0685827 -0.299111 -0.951751
-0.0723511 0.131405 0.0742577 0.0329947 -0.024936 -0.999144
0.063426 -0.02463 0.318223 0 0 -1
0.189317 0.000870889 0.399072 0.775209 0.0582134 0.629017
-0.030568 0.162342 0.453565 0.00240207 -0.890334 -0.455301
0.00886508 -0.0913133 0.29512 0.00135339 -0.497757 -0.867315
0.0795743 0.19696 0.303511 0.999738 0.00807603 -0.0214333
-0.200793 -0.0477367 0.548463 0.349291 -0.148445 0.925181
0.155887 -0.0622659 0.41132 0.107457 0.0134981 0.994118
0.196228 0.0531847 0.539315 -0.970989 0.188526 -0.147097
0.0796746 0.0371888 0.277379 0.999995 0.00300049 0.000251905
0.0147168 0.238154 0.364049 0.016086 0.885204 0.464925
0.0583699 0.0922287 0.267692 -0.998149 0.0608069 0
0.0634108 -0.0611012 0.303558 -0.000948478 0.431279 0.902218
-0.278077 -0.0701544 0.0028767 -0.0142842 -0.258537 -0.965896
0.22417 0.0108776 0.404846 -0.313738 -0.947593 -0.0603086
-0.163472 -0.00410065 0.0726122 -0.265424 0.836841 -0.478797
0.120075 -0.0926308 0.411253 -0.0729636 0.0188811 0.997156
-0.183212 0.162309 0.56973 0.0307359 0.954956 -0.295152
-0.074729 0.243175 0.768987 -0.0464787 -0.548451 0.83489
-0.00154151 0.245585 0.756158 0.0199848 0.230139 -0.972952
-0.0472469 0.178679 0.453298 -0.00227987 0.829073 0.559136
-0.215171 0.0217223 0.523826 0.974098 0.00263289 -0.226112
-0.203998 0.0184975 0.552354 0.0404407 0.00962779 0.999136
0.015429 0.106468 0.318223 0 0 -1
-0.231949 0.0570247 0.472267 0.312623 0.948192 -0.0565543
0.039684 -0.122402 0.322128 0.0027021 -0.961189 -0.275878
-0.0845274 0.151107 0.535944 -0.00242909 0.974358 -0.224988
0.00836519 0.0379724 0.0238337 0 0 -1
0.137688 -0.0299902 0.336 6.88094e-05 -0.0299178 -0.999552
-0.140991 0.215429 0.078381 -0.695338 -0.564337 -0.445004
0.0737386 -0.00338573 0.254508 -0.00202365 0.999998 0
0.154003 -0.142157 0.41259 0.142315 -0.00614574 0.989802
0.20006 -0.121699 0.377653 0.998609 0.0166138 0.0500452
-0.138027 0.156447 0.555152 0.0287696 0.955886 -0.292325
0.0859286 -0.156718 0.410898 -0.041061 0.0464198 0.998078
0.00928691 -0.0803173 0.0803811 0.999075 -0.00605198 -0.0425748
0.0936658 -0.186133 0.410778 -0.032973 -0.0596531 0.997674
-0.276569 -0.0750554 0.0448373 -0.0146058 -0.706648 0.707415
-0.116417 0.219481 0.713058 -0.00190782 0.798543 -0.601934
-0.00798441 0.0206741 0.199192 -0.293093 -0.956082 0.00186226
-0.00535646 0.237586 0.365478 -0.0203393 0.880793 0.473064
0.174291 -0.158676 0.408322 0.475749 -0.193955 0.85793
0.135103 -0.193711 0.407173 0.0754986 -0.263018 0.961832
0.18888 0.172888 0.598466 -0.035687 0.935871 -0.35053
0.0631254 0.208893 0.695282 -0.00212666 0.852833 -0.52218
0.140669 0.0546314 0.333802 0.894237 0.00239794 -0.447587
-0.0166409 -0.24171 0.0487051 -0.0164846 0.258072 0.965985
-0.0841365 0.15889 0.109665 0.515762 0.519846 0.680992
-0.203725 0.153306 0.510937 -0.134946 0.925811 0.353078
-0.159936 0.013018 0.409863 -0.105302 0.0177797 0.994281
-0.136145 0.00408198 0.103873 -0.328233 0.936652 0.122252
0.0848659 0.175668 0.658269 0.00257006 -0.938341 0.345702
-0.106143 0.0118449 0.112128 -0.279198 0.426434 0.86035
0.133396 0.191748 0.43266 -0.0891837 0.860267 0.501982
-0.0590776 -0.0671811 0.28154 -0.0054129 -0.487365 -0.873182
0.13559 0.174948 0.655972 0.00259388 -0.938375 0.34561
0.234236 0.0524635 0.373058 0.312601 0.947971 -0.0602675
0.167699 0.176651 0.660353 0.00260613 -0.938372 0.345618
-0.115124 -0.00701317 0.0788674 0.304436 -0.950961 -0.0546927
0.188862 0.0425446 0.385852 0.989463 0.133675 0.0556167
-0.000550427 0.0559722 0.24611 0 0 -1
-0.186899 0.138485 0.551394 0.00237378 -0.956813 0.290694
-0.161791 0.165665 0.632836 0.00242762 -0.938376 0.345609
-0.166329 0.150807 0.524821 0.025174 0.996094 -0.0846404
-0.121951 0.219495 0.094792 0.31991 0.397704 0.859935
-0.143265 0.25135 0.0500247 0.0151966 0.258349 0.965932
0.168276 0.2645 0.0560736 0 0 -1
0.079738 0.0139186 0.24665 0.999999 0.00154409 -0.000227791
0.210521 0.019862 0.532036 -0.838853 0.00789156 -0.544301
0.0675668 0.196553 0.704298 0.00232838 -0.848831 0.528659
-0.156252 0.144815 0.487195 0.00243919 -0.890317 -0.455334
0.000851075 0.138891 0.503325 0.00228947 -0.935815 -0.352485
-0.195937 0.152495 0.541783 0.211036 0.946294 -0.244932
0.122509 0.0332978 0.307186 0 0 -1
0.187371 0.173661 0.470755 -0.0945612 0.827212 0.553876
-0.0801849 0.16838 0.639673 0.00256228 -0.938412 0.345509
0.00444355 -0.195217 0.408992 9.35362e-05 -0.0365174 0.999333
0.178676 0.193386 0.698084 -0.0687588 -0.882132 0.465956
0.0249686 -0.198553 0.408869 9.35362e-05 -0.0365174 0.999333
-0.150112 0.204895 0.414565 -0.749086 0.487095 -0.449008
-0.181454 0.228283 0.724003 -0.573871 0.79781 -0.184855
-0.165006 0.134254 0.519639 0.00253503 -0.991918 -0.126852
-0.0603737 0.094584 0.409125 0.0334534 -0.045761 0.998392
0.0028023 0.188267 0.414959 0.00202432 -0.752348 -0.658763
0.179017 0.247465 0.00066859 0.0168639 -0.258457 -0.965876
0.180327 0.18707 0.647651 -0.587331 0.739901 -0.328008
0.150871 -0.20799 0.394865 0.315531 -0.815265 0.485574
-0.124266 0.0501701 0.318908 -0.00079927 0.753191 -0.657802
0.0969747 0.0651615 0.409948 -0.0819042 -0.0174541 0.996487
-0.058392 0.172836 0.436445 0.00182459 -0.816808 -0.576907
-0.200475 0.171994 0.471056 -0.568992 0.769222 0.290766
0.0648894 0.0892963 0.268083 -0.00163094 0.806493 -0.591241
0.0440316 0.0425597 0.406582 -0.054738 -0.0315029 0.998004
0.0795473 0.0876973 0.308641 0.999999 0.00159103 -0.000599165
-0.0192176 0.030015 0.195529 -0.793104 -0.609086 -0.000319646
0.0754526 0.225294 0.370018 -0.672042 -0.21893 0.70741
-0.118608 -0.120874 0.411916 0.056375 0.019967 0.99821
0.0277538 -0.00304062 0.318223 0 0 -1
-0.0411027 0.096585 0.408571 0.0334534 -0.045761 0.998392
-0.0959756 0.0178811 0.105999 -0.328233 0.936652 0.122252
0.124306 0.221064 0.391499 0.619174 0.537806 -0.572179
0.0252153 0.000580615 0.24611 0 0 -1
-0.069474 0.220534 0.74253 0.00210491 -0.838726 0.544549
-0.15341 0.266262 0.0685633 0.962466 0.249397 -0.10705
-0.114338 0.163655 0.450595 0.00231981 -0.890152 -0.455659
-0.130619 0.104138 0.337225 -0.000147676 0.0512787 -0.998684
0.154872 0.178451 0.616781 -0.035687 0.935871 -0.35053
0.0393784 0.194721 0.701479 0.00228841 -0.848833 0.528656
-0.165225 0.155061 0.54794 0.0287696 0.955886 -0.292325
0.186584 0.0609262 0.382204 0.989463 0.133675 0.0556167
-0.0035326 -0.0247367 0.122076 -0.722451 -0.117296 0.6814
-0.0150721 0.132942 0.409709 5.75204e-05 -0.0221683 0.999754
-0.127783 0.036053 0.327833 0.999998 0.00215647 0
-0.235838 -0.000156684 0.523557 -0.266987 -0.939074 -0.216465
-0.0741086 -0.125953 0.333463 0.00157783 -0.961078 -0.276271
-0.239428 0.0355696 0.55316 -0.0410337 0.00883333 0.999119
0.27232 -0.0759144 0.0263479 -0.999992 -0.00407907 -0.000551066
0.095784 -0.181358 0.411134 -0.032973 -0.0596531 0.997674
-0.21227 0.046998 0.323924 -0.186153 0.310438 -0.932188
-0.0468302 0.0381699 0.318223 0 0 -1
-0.178739 0.166103 0.611307 0.935288 0.296448 -0.193274
0.0650521 -0.0349953 0.263751 0.00837408 -0.486185 -0.873816
-0.178269 0.201484 0.71333 -0.284873 -0.725935 0.625992
-0.10195 0.143728 0.489783 0.00220743 -0.935679 -0.352845
0.103348 0.184134 0.63606 -0.00249527 0.939196 -0.343371
-0.255044 -0.0531833 0.551181 -0.0424834 -0.0495889 0.997866
0.146121 -0.104427 0.329972 0.00100501 -0.382936 0.923774
-0.0956633 0.154882 0.405258 -0.0645668 0.39787 0.915167
-0.164087 -0.09064 0.319284 -0.00174055 0.915264 0.402851
-0.203664 0.155465 0.594707 -0.538333 -0.771979 0.338004
-0.025823 0.218169 0.379121 0.00217428 -0.813623 -0.581389
0.0670173 0.252634 0.758003 -0.0471504 0.549055 -0.834455
-0.0596522 0.170867 0.646275 0.00257089 -0.938411 0.345513
-0.120493 0.239565 0.760838 -0.184916 -0.230353 0.955376
0.188362 0.0469575 0.384154 0.989463 0.133675 0.0556167
-0.00990508 0.201786 0.684007 -0.00229919 0.852832 -0.52218
0.0164502 0.0101128 0.24611 0 0 -1
-0.171727 0.147495 0.481872 0.00233874 -0.890201 -0.455563
-0.0545612 0.172889 0.358286 -0.0786466 0.921289 -0.380842
-0.272328 -0.0411744 0.0243071 0.999997 0.00209116 0.000911199
-0.280121 -0.0795826 0.0402417 -0.0146058 -0.706648 0.707415
0.196215 0.193298 0.654657 0.087316 0.935732 -0.341734
0.0139306 -0.268599 0.00993386 0.0184055 -0.706549 -0.707425
-0.00693593 -0.0374513 0.0757839 0.0117402 0.038526 -0.999189
0.203683 0.148247 0.493069 0.559707 -0.700289 -0.443084
0.110072 0.159596 0.564401 -0.00276726 0.956217 -0.292644
0.115413 0.131364 0.336944 0.139048 0.0750141 -0.98744
-0.150124 -0.151233 0.34772 -0.211932 -0.249596 -0.944874
0.137115 0.239841 0.0924284 -0.316749 0.408034 0.856258
-0.124967 0.216705 0.404154 0.227741 0.682338 0.694658
0.185724 0.146034 0.524292 -0.520764 0.846135 -0.113403
0.0167163 0.0812299 0.0877011 -0.804329 0.593186 -0.034408
0.135591 0.179759 0.622667 -0.0479707 0.938125 -0.342959
-0.181052 -0.191773 0.382094 -0.778209 -0.627064 0.0343746
0.118491 0.15042 0.524194 -0.00261464 0.996325 -0.0856142
-0.239054 0.0576101 0.552492 -0.0428345 0.0354228 0.998454
0.173711 0.158481 0.46313 0.0409893 -0.891895 -0.450382
0.183609 0.262126 0.0275446 0.999996 0.00281499 -0.000686263
-0.224232 0.0470219 0.328034 -0.528421 0.309939 -0.790386
-0.180108 -0.0994653 0.308296 0.000730181 -0.383963 -0.923348
0.0701481 0.203968 0.325461 0.379694 -0.483151 0.788922
0.0127281 0.170494 0.469215 -0.00197404 0.890406 0.455162
-0.0851077 0.226283 0.751445 0.00210491 -0.838726 0.544549
0.184208 0.0332446 0.400752 0.770648 0.109831 0.627726
-0.0606671 0.145334 0.303892 0.874135 -0.0933376 0.476631
-0.222229 0.0399796 0.385482 0.998954 0.00197735 -0.0456831
0.239302 0.0186071 0.345257 0.933376 -0.307612 -0.184887
0.0604384 0.19061 0.694786 0.00232491 -0.848833 0.528656
0.0547571 -0.0600744 0.277728 0.00123375 -0.487451 -0.873149
-0.0125194 0.074026 0.104753 0.789199 0.60163 0.123312
-0.19823 0.164846 0.485651 -0.0597915 0.874637 0.481077
-0.0629958 0.183053 0.634325 -0.00234201 0.939197 -0.343371
-0.0604621 0.143496 0.566865 0.00261225 -0.956713 0.29102
-0.138937 -0.165903 0.349524 -0.117975 -0.266371 -0.956624
0.084496 -0.101213 0.408986 -0.0526287 0.0304886 0.998149
-0.0760207 0.0715856 0.408737 0.0820253 -0.0245133 0.996329
0.231171 0.041734 0.553207 -0.0428434 0.0332156 0.998529
-0.0788325 0.211111 0.323699 -0.860289 -0.209767 0.464652
-0.00689939 0.112187 0.32242 -0.00181783 0.706832 -0.707379
-0.225119 0.0490099 0.380587 0.930176 0.363585 -0.0507751
0.0466092 0.115287 0.409765 -0.0215955 -0.0362855 0.999108
-0.0683088 0.230931 0.728063 -0.00198962 0.79799 -0.602667
0.163715 -0.0145443 0.345495 0.54883 0.0186286 -0.835727
-0.00765539 0.0102717 0.24611 0 0 -1
-0.239269 0.00205496 0.513225 -0.272986 -0.960173 -0.0595603
-0.213487 0.146544 0.527436 -0.720096 0.693823 -0.00845331
0.0842974 0.2511 0.754327 -0.00199113 0.798684 -0.601747
-0.0138699 0.0967348 0.318223 0 0 -1
-0.215935 0.0508533 0.527443 0.719834 0.28936 -0.630959
0.017946 -0.1329 0.336861 0.000321255 -0.116698 -0.993167
-0.0575927 0.162527 0.453059 0.00242048 -0.890334 -0.455301
0.109572 0.23432 0.731132 -0.00209188 0.786215 -0.61795
-0.0474668 0.167467 0.444082 0.00182459 -0.816808 -0.576907
-0.0771581 -0.146688 0.410191 0.0399549 0.0361573 0.998547
0.0673961 0.192061 0.286905 -0.0882065 0.229781 -0.969237
-0.15799 0.240475 0.0731808 -0.695338 -0.564337 -0.445004
-0.0552191 0.241953 0.334227 -0.0279982 0.928952 0.369141
0.0875305 0.172131 0.437981 0.00235675 -0.816729 -0.577017
-0.0527842 -0.0149365 0.28134 -0.00109136 0.431278 0.902218
0.077545 -0.199064 0.408359 0.0125596 -0.264569 0.964285
-0.208683 0.151414 0.491264 -0.92057 -0.234482 -0.31236
0.0918808 0.142966 0.563811 0.00248466 -0.956775 0.29082
0.151165 0.18165 0.453123 -0.0891837 0.860267 0.501982
0.198474 0.0389246 0.337536 0 0 1
0.0919725 0.212449 0.399164 0.0363668 0.842056 0.538163
-0.128735 -0.129393 0.412658 0.056375 0.019967 0.99821
0.199845 -0.119545 0.375197 0.78436 0.033579 -0.619396
0.1045 0.0076122 0.323219 0.00194257 -0.752676 -0.658388
-0.0598257 -0.188284 0.348211 -0.0488446 -0.240194 -0.969495
-0.0406011 0.246083 0.311749 -0.00205108 0.694369 -0.719616
0.0183825 0.172868 0.605854 -0.00229677 0.93916 -0.343472
0.0797541 -0.230866 0.362445 0.0680978 -0.282513 -0.956843
-0.0968726 0.155427 0.466741 0.00210127 -0.889984 -0.455986
0.0909948 -0.186755 0.410653 -0.032973 -0.0596531 0.997674
0.180255 0.083374 0.373154 0.784949 0.106045 -0.610418
-0.249656 0.0280879 0.489383 -0.99895 -0.00423044 -0.045624
-0.239609 -0.0487778 0.0317879 0.999999 0.000719443 -0.00124663
0.021414 -0.24585 0.00463232 0.970934 0.0641854 -0.230582
0.18311 0.0713268 0.394902 0.929185 0.128297 0.346634
-0.1661 0.266152 0.0560736 0 0 -1
-0.0612877 0.0522482 0.25623 -0.000868889 0.245318 -0.969442
-0.171106 0.151735 0.533563 0.0268633 0.995063 -0.0955419
0.135832 0.225335 0.736059 -0.376143 -0.366332 -0.851069
-0.193544 0.00899588 0.377257 -0.811814 0.0595389 -0.580873
0.123693 0.22657 0.749476 0.0602509 -0.789411 0.610901
-0.272333 -0.0419837 0.0359256 0.999992 0.00338078 0.00230552
-0.0760938 0.0400141 0.250585 -0.000864228 0.243929 -0.969793
0.00319133 -0.0931829 0.296184 0.00135283 -0.497766 -0.86731
-0.158276 0.240266 0.0738928 -0.695338 -0.564337 -0.445004
-0.013625 0.235345 0.758664 0.0541789 -0.998529 -0.00204143
-0.0208171 0.238336 0.34914 0.00207911 -0.842504 -0.538686
0.00529347 -0.196792 0.349023 0.000797585 -0.284591 -0.958649
-0.171786 -0.18535 0.363755 -0.415009 -0.222497 -0.882192
0.109351 0.19732 0.421663 0.0363668 0.842056 0.538163
0.167856 0.158441 0.498254 -0.0448204 0.916639 0.397196
0.0316934 0.0637247 0.406573 -0.054738 -0.0315029 0.998004
0.0364913 0.235939 0.367481 0.0160087 0.880951 0.472937
-0.112285 0.180154 0.626722 -0.00223739 0.939197 -0.343371
0.0871999 0.185747 0.418707 0.00235675 -0.816729 -0.577017
0.0533518 -0.025842 0.286684 -0.00117291 0.43138 0.90217
0.14725 0.0138543 0.328439 0.00262612 -0.948336 -0.317257
0.0234214 -0.0654379 0.405035 -1.12922e-05 0.00475021 0.999989
-0.0726661 0.202031 0.713681 0.00212997 -0.84871 0.528853
-0.0745753 0.123831 0.0918138 -0.809432 -0.574647 0.120832
-0.140294 0.250572 0.0240573 0.999998 0.00177395 0.000192307
-0.175831 0.185068 0.680292 0.665401 -0.718083 0.203955
-0.161389 0.00412569 0.409831 -0.105438 0.0128035 0.994344
0.0794328 0.149378 0.288391 0.999999 0.00148385 -0.000548749
0.131704 0.0309612 0.337536 0 0 1
0.00394021 0.101157 0.408284 0.000169753 -0.0653998 0.997859
0.16212 0.222089 0.739929 0.23051 -0.629452 0.742062
-0.11194 -0.0345082 0.41014 0.0719972 0.000501249 0.997405
0.159965 -0.0778259 0.342626 0.508193 0.00585596 -0.861223
0.165159 0.136039 0.390731 0.843349 0.391071 0.368546
-0.15271 0.212224 0.72943 0.00219797 -0.81528 0.579062
0.239408 0.082557 0.534551 0 0 -1
0.100772 0.194618 0.0775707 -0.804329 0.593186 -0.034408
0.122924 -0.20332 0.358399 0.112084 -0.305829 -0.945466
-0.00796514 -0.26347 0.0366435 -0.999991 -0.00365451 -0.00225312
-0.0569146 0.0582693 0.407412 0.0437201 -0.0309828 0.998563
-0.149186 0.243525 0.742202 0.0116277 0.813394 -0.581596
-0.0843055 -0.115282 0.336052 -0.00729445 -0.0653931 -0.997833
-0.00949562 0.197868 0.67446 -0.00253203 0.939196 -0.343371
0.112745 0.0608526 0.410783 -0.0479883 -0.00616822 0.998829
0.0840832 0.223522 0.35322 0.741802 -0.343646 -0.575879
-0.153898 0.0548758 0.341843 -0.572315 0.0408319 -0.819016
0.107372 0.237104 0.760937 0.11795 -0.538661 0.834226
0.161006 0.186529 0.446508 -0.0891837 0.860267 0.501982
-0.164612 0.140066 0.499092 0.00256425 -0.935964 -0.352086
0.00863518 -0.154615 0.0756488 0.999075 -0.00605198 -0.0425748
-0.00362448 0.249566 0.774452 -0.0203495 -0.228935 0.973229
0.0604824 -0.0780175 0.287754 0.00134104 -0.487451 -0.873149
0.197262 0.156962 0.59924 0.221218 -0.906903 0.358594
0.035229 -0.0165805 0.253419 0.00123375 -0.487451 -0.873149
-0.273839 0.0246617 0.548533 -0.989323 0.0522396 0.136055
0.197449 0.0117943 0.550563 -0.31729 0.0212207 0.948091
0.206535 0.149805 0.56394 0.532745 -0.799594 0.277188
-0.181945 -0.104109 0.321204 0.00212702 -0.92396 0.382484
-0.0420267 0.112359 0.106575 0.789199 0.60163 0.123312
0.186978 0.200892 0.705328 0.617148 -0.617508 0.487659
0.0759638 0.184504 0.682319 0.00257006 -0.938341 0.345702
0.157932 0.156113 0.604665 0.00259388 -0.938375 0.34561
0.190647 -0.0115333 0.0913791 0.335048 0.908978 0.247994
-0.0754825 0.0240338 0.113881 -0.328233 0.936652 0.122252
-0.137235 0.180591 0.421204 0.411087 -0.902159 -0.130833
-0.0189642 0.157743 0.406559 -0.000353509 0.127415 0.991849
-0.126899 0.155602 0.49976 -0.00248106 0.937301 0.348513
0.0965887 -0.00227839 0.0907645 -0.31113 -0.948485 -0.0597827
-0.106922 -0.0699612 0.409851 0.0818673 0.0243424 0.996346
0.0573004 0.216008 0.399305 0.105266 0.838767 0.534218
-0.114779 -0.0201687 0.410338 0.0719972 0.000501249 0.997405
-0.106554 0.19016 0.654055 -0.00224232 0.939198 -0.343369
-0.023653 0.215559 0.734504 0.00204024 -0.834759 0.550612
-0.00893816 -0.0774321 0.319981 0.000994593 -0.382 -0.924162
0.163247 -0.179804 0.407065 0.384367 -0.351504 0.853643
0.114145 -0.00361554 0.335185 0 0 -1
0.163643 0.195094 0.437595 -0.219252 0.673049 0.706352
0.186916 0.224991 0.720071 0.630612 0.726728 -0.272388
0.0794704 0.0868783 0.319237 0.755366 0.611792 0.234804
-0.221961 0.0107922 0.441392 0.932182 -0.358415 -0.0507519
0.0122943 -0.126739 0.33697 0.0027021 -0.961189 -0.275878
0.0410679 0.0824547 0.111464 0.815889 -0.564441 0.125425
-0.167989 0.271829 0.0781468 -0.237999 0.970064 -0.0483002
0.252508 -0.0328571 0.0699237 0.231435 0.866015 -0.443233
0.187629 0.0437957 0.37576 0.784949 0.106045 -0.610418
-0.216612 0.0295251 0.508213 0.998952 0.00429544 -0.045558
0.191598 0.0152343 0.324662 0.00250205 -0.948853 -0.315708
0.212795 0.0940762 0.54205 -0.822218 0.552374 -0.13726
-0.172956 0.147509 0.48184 0.00233874 -0.890201 -0.455563
-0.251503 0.00111513 0.552834 -0.0404274 -0.00962257 0.999136
-0.0948017 0.170532 0.645623 0.00242403 -0.938412 0.345509
-0.00935989 0.217521 0.737201 0.0253729 -0.824078 0.565907
0.00994869 0.243972 0.329995 0.0347243 0.998179 0.0493156
-0.0803344 0.0830991 0.26327 -0.999964 -0.00455859 0.00722025
-0.264883 -0.0515401 0.0132783 -0.00185582 0.706419 -0.707792
-0.0080196 -0.067736 0.109044 -0.992032 -0.0227814 0.123912
-0.190564 -0.0316105 0.0919641 0.26337 -0.931901 0.249395
-0.124098 0.134222 0.520704 0.00257931 -0.991918 -0.126852
0.0267301 0.238194 0.346794 0.0136932 0.92925 0.369197
-0.0693262 0.117034 0.0946502 -0.809432 -0.574647 0.120832
-0.116926 -0.00763819 0.0797026 0.304436 -0.950961 -0.0546927
0.105788 0.203869 0.376449 0.302752 -0.660226 -0.687344
-0.214696 0.0220132 0.525875 0.974098 0.00263289 -0.226112
-0.22452 0.054664 0.468926 0.273416 0.960052 -0.0595378
-0.122917 0.135612 0.338504 -0.188433 0.233905 -0.953825
-0.0347457 -0.142247 0.33798 -0.0181696 -0.117318 -0.992928
-0.103477 0.183564 0.635991 -0.00223739 0.939197 -0.343371
0.167215 0.179288 0.459722 -0.087634 0.849208 0.520736
0.0605132 0.205013 0.717912 0.00232838 -0.848831 0.528659
0.00471925 0.250201 0.320244 0.024254 0.999131 0.0338951
-0.0241703 -0.0853416 0.327774 0.00243533 -0.922371 -0.386297
-0.0011817 0.0389394 0.0238337 0 0 -1
0.135899 0.023546 0.307186 0 0 -1
-0.0735183 0.141259 0.115083 0.515762 0.519846 0.680992
0.020925 0.0333497 0.151868 0.796311 -0.604871 -0.0044746
-0.136089 0.00870312 0.411423 0.0336501 0.00381387 0.999426
0.0865777 -0.0962754 0.335378 0.00150305 -0.0216275 -0.999765
-0.0902168 0.205674 0.690695 -0.00203613 0.852832 -0.522181
0.177222 -0.196421 0.369002 0.432484 -0.235117 -0.870447
-0.0925625 0.134693 0.336112 -0.00152974 0.0927766 -0.995686
-0.146345 -0.214527 0.368016 -0.0635583 0.0313621 -0.997485
-0.0381813 0.227621 0.382971 -0.0204329 0.884847 0.465434
0.162893 0.240809 0.748053 0.635233 0.236086 0.735352
-0.0581936 0.150791 0.533911 -0.00250704 0.996333 -0.0855282
0.118894 0.174643 0.655259 0.00219857 -0.938376 0.34561
0.128424 -0.221307 0.384803 0.247478 -0.950438 0.188209
-0.220751 -0.0412293 0.0879007 0.26337 -0.931901 0.249395
0.118859 -0.206007 0.358786 0.112084 -0.305829 -0.945466
-0.0598295 0.128284 0.281512 0.999137 0.0409058 0.00715617
0.1492 -0.212284 0.388061 0.365379 -0.901352 0.232514
0.19801 0.167594 0.626997 0.587961 -0.738326 0.330419
-0.235032 -0.044868 0.0696162 0.304436 -0.950961 -0.0546927
0.156792 -0.0597084 0.341275 0.218556 0.00480648 -0.975812
-0.113911 -0.0864431 0.33568 -0.0248771 -0.0208572 -0.999473
-0.0371954 0.0374525 0.113868 -0.328233 0.936652 0.122252
0.06941 -0.190338 0.349271 0.0580713 -0.300287 -0.95208
-0.208792 0.0456511 0.55209 0.0426015 0.0356346 0.998456
0.0997671 0.0649914 0.410153 -0.0719682 -0.0165516 0.99727
-0.229778 -0.0442848 0.0733232 0.321857 -0.835877 -0.444655
-0.106879 0.195583 0.423831 -0.0409973 0.852258 0.521512
-0.0559001 0.155772 0.605249 0.00256228 -0.938412 0.345509
0.0488674 0.140995 0.408605 -0.00175978 0.147958 0.988992
-0.0169487 0.0357248 0.0391204 -0.999998 -0.00198268 0
-0.0388328 0.158057 0.406408 -0.00976263 0.146835 0.989113
0.105496 0.137836 0.546281 0.0025273 -0.973195 0.229968
0.000807667 0.259416 0.765754 0.0181544 0.801266 -0.598033
0.179331 0.0630737 0.40103 0.417381 0.0663004 0.90631
0.0765632 0.238123 0.765276 0.0501123 -0.542461 0.838585
-0.011661 0.252339 0.775903 -0.0203753 -0.230047 0.972966
0.0931832 0.220209 0.741367 0.00218503 -0.838604 0.544737
-0.0750747 0.0543318 0.318223 0 0 -1
0.242581 -0.0784357 0.0399873 -0.0146191 -0.70704 0.707022
0.141776 0.140072 0.351616 0.561818 0.538241 -0.628217
0.0872781 0.175956 0.432566 0.00235675 -0.816729 -0.577017
0.0430099 0.105348 0.409189 -0.0337293 -0.0657889 0.997263
-0.126936 0.15124 0.511492 -0.00248106 0.937301 0.348513
-0.261282 -0.0396187 0.0401092 -0.00178726 0.707105 0.707107
0.0920794 0.165769 0.584742 -0.00277022 0.956218 -0.292641
-0.120962 0.252344 0.756284 -0.135039 0.990527 -0.0249154
-0.192496 0.184542 0.632041 0.043395 0.935207 -0.351432
0.0129109 0.0509121 0.0238337 0 0 -1
0.0570653 0.0140965 0.260123 0.999997 0.00253114 0
-0.0604227 0.0203128 0.274263 0.000968255 -0.273512 0.961868
0.147473 0.172377 0.6489 0.00259388 -0.938375 0.34561
-0.194884 -0.0147748 0.0906378 -0.328233 0.936652 0.122252
-0.0363176 -0.0853647 0.291709 0.00132511 -0.487357 -0.873202
-0.209573 0.151451 0.516368 -0.14278 0.979555 0.141725
-0.136528 0.154195 0.468962 0.00233874 -0.890201 -0.455563
0.182418 0.182386 0.675812 0.00260613 -0.938372 0.345618
-0.11577 -0.0103557 0.410405 0.0719972 0.000501249 0.997405
-0.0300691 0.0981387 0.0791394 0.808706 0.586864 -0.0398115
0.192425 -0.000488566 0.547609 -0.989891 -0.05739 0.129704
0.0834578 0.189951 0.652115 -0.00258206 0.939196 -0.343371
-0.143602 0.0448279 0.322535 -0.000872871 0.315266 -0.949003
0.0388897 0.174147 0.434942 0.00219743 -0.816686 -0.577078
0.0731926 -0.148851 0.410038 -0.0449156 0.0357815 0.99835
0.031782 0.156357 0.337617 -0.000198755 0.0774763 -0.996994
0.269075 -0.0279551 0.549101 0.325826 -0.0787092 0.942148
0.120293 0.000393359 0.114236 -0.112037 -0.723705 0.680954
0.0553308 0.203436 0.416707 0.036112 0.806152 0.590606
0.205133 0.0332887 0.337536 0 0 1
0.0675569 0.155892 0.310074 0.0012967 -0.268682 0.963228
0.218043 0.0381833 0.464946 -0.99896 -0.00138752 -0.0455826
-0.13496 -0.0097296 0.335233 2.21658e-05 -0.00770787 -0.99997
-0.0488526 0.199293 0.42249 -0.040095 0.80598 0.590583
0.225849 0.0278935 0.385798 -0.999995 -0.00314157 0
0.183399 0.135698 0.535942 0.0029115 -0.995702 0.092566
0.0171251 0.0949007 0.318223 0 0 -1
-0.017813 0.150709 0.531686 -0.00268692 0.996406 -0.0846681
-0.204517 -0.0249772 0.0985738 -0.335112 0.651349 0.680767
0.171372 0.25308 0.00904926 -0.999996 -0.00281405 0
-0.199303 -0.120046 0.386395 -0.998709 0.0121847 0.0493151
-0.230737 0.00180094 0.503593 0.278896 -0.958468 -0.0596355
-0.0965683 0.202192 0.398778 0.00158139 -0.751991 -0.659171
0.180327 0.174859 0.619693 -0.540835 0.773321 -0.330866
-0.0634687 0.169565 0.400727 -0.0313987 0.396909 0.917321
0.18001 -0.116251 0.354501 0.489585 -0.0259775 -0.871568
0.213115 -0.0251272 0.0970258 0.290053 0.426527 0.856706
0.00374318 0.0848478 0.318223 0 0 -1
-0.111719 0.181987 0.44689 -0.00204689 0.871385 0.490595
-0.138098 0.121247 0.341076 -0.31817 0.117296 -0.94075
0.0703892 0.168631 0.639275 0.00257006 -0.938341 0.345702
0.0936214 0.0423753 0.409273 -0.0819042 -0.0174541 0.996487
0.101342 0.228118 0.752707 0.027484 -0.794589 0.606525
0.107499 0.239387 0.763348 0.118386 -0.539161 0.83384
-0.0982267 0.243765 0.766161 -0.184954 -0.234906 0.954259
0.0783289 0.225618 0.720526 -0.00199113 0.798684 -0.601747
0.0205413 0.0626492 0.24611 0 0 -1
0.160802 0.230832 0.0416026 0.00220737 -0.707095 0.707116
-0.197864 -0.144749 0.390339 -0.939967 -0.131167 0.315053
-0.0499992 0.0908851 0.0940212 -0.810966 -0.582997 -0.0494883
-0.135933 0.0866188 0.410913 -0.137932 0.0340591 0.989856
-0.194817 0.158574 0.610535 -0.215918 -0.909884 0.354246
-0.0219982 0.227751 0.314327 0.0150161 -0.36575 -0.930592
0.205895 0.168157 0.596381 0.69138 0.697176 -0.189577
0.211188 0.0442837 0.337079 -0.185964 0.311456 0.931886
-0.041856 0.0180513 0.120238 0.296226 -0.947288 0.122051
-0.0548601 -0.0354379 0.263816 0.00132511 -0.487357 -0.873202
0.135449 -0.0294581 0.335984 6.88094e-05 -0.0299178 -0.999552
0.199641 0.0269891 0.321422 0 0 -1
0.0740665 -0.0745707 0.318888 0.000978188 -0.381461 -0.924384
-0.117786 0.193286 0.400513 0.796065 -0.433788 0.422029
-0.225021 0.055583 0.481448 0.273416 0.960052 -0.0595378
-0.0341054 -0.197086 0.409009 0.0268658 -0.0366755 0.998966
-0.181018 0.202909 0.712463 -0.284186 -0.726068 0.62615
-0.0733327 0.213769 0.291739 -0.274826 0.20223 -0.939986
0.137323 0.150795 0.521878 -0.0295217 0.991473 0.126922
-0.202725 -0.00385237 0.534671 0.167091 -0.00518319 -0.985928
0.179385 -0.0223878 0.35565 0.565115 0.0433877 -0.823871
-0.00473938 0.213723 0.403739 -0.00191408 0.799395 0.600802
-0.0226468 0.0156984 0.404788 7.72452e-05 -0.0299165 0.999552
-0.122629 0.143448 0.567199 0.00225216 -0.956776 0.290817
-0.0645904 0.111164 0.0984587 -0.809432 -0.574647 0.120832
-0.0497424 -0.120797 0.315661 0.0027021 -0.961189 -0.275878
-0.0917038 0.213295 0.380374 0.663487 -0.205264 0.71948
0.0353917 0.223855 0.371384 0.00219547 -0.81376 -0.581197
-0.171459 -0.0943797 0.349489 -0.515448 0.0158681 -0.856774
0.0031531 -0.0438696 0.268609 0.00123375 -0.487451 -0.873149
-0.165631 0.0466081 0.323147 -0.000872871 0.315266 -0.949003
0.0941203 -0.0179992 0.408761 -0.081894 -0.000565502 0.996641
-0.253601 -0.051739 0.0396909 0.999998 0.000534854 0.00198782
0.189051 -0.0294455 0.0923809 -0.284782 -0.95025 0.126189
-0.0713331 0.215549 0.337955 -0.446282 -0.750322 0.487698
-0.0791769 0.159708 0.280606 -0.8567 0.141014 -0.496165
0.203811 0.142835 0.552479 0.533679 -0.799166 0.276623
0.0112918 0.212161 0.405637 0.00970379 0.799371 0.600759
0.163051 0.267789 0.0531353 0.380813 0.924652 0
0.124175 0.165883 0.631441 0.00219857 -0.938376 0.34561
0.167615 -0.178786 0.405518 0.384367 -0.351504 0.853643
-0.229581 -0.0825565 0.540883 0.195337 -0.970911 -0.138478
-0.0509565 -0.0992073 0.329464 -0.00100783 0.370792 0.928715
0.192358 0.142414 0.495908 0.194177 -0.906354 -0.375257
0.0989641 -0.101921 0.335624 0.0248738 -0.0199105 -0.999492
-0.135191 -0.0493396 0.411604 0.0350027 0.00339173 0.999381
-0.210262 0.139228 0.523617 -0.519144 -0.845873 0.122428
-0.0554011 -0.174271 0.410049 0.0339241 0.0260972 0.999084
0.105172 0.151003 0.531422 -0.00288284 0.996405 -0.0846709
-0.159566 0.170024 0.644657 0.00242762 -0.938376 0.345609
-0.185242 0.24392 0.0323523 -1 0 0
0.189587 0.147587 0.574189 -0.131173 -0.95061 0.281309
0.236906 -0.00184614 0.553378 0.04049 -0.00885259 0.999141
-0.062491 0.11701 0.327388 -0.00187135 0.707111 -0.7071
-0.0707058 -0.233388 0.384194 -0.134361 -0.985053 0.107787
-0.0318468 -0.103906 0.335484 4.49268e-05 -0.0178822 -0.99984
0.21645 0.0312662 0.500126 -0.998951 -0.00300997 -0.045697
-0.182342 0.154806 0.59459 0.692955 -0.699771 0.173591
0.201896 0.0352651 0.321422 0 0 -1
-0.183176 0.23959 0.00398528 -0.970371 -0.0638677 -0.233026
-0.127984 0.229162 0.0708327 0.71447 0.511091 -0.477827
0.126083 -0.15189 0.343945 0.11671 -0.248952 -0.961458
-0.117358 0.0108555 0.102418 -0.328233 0.936652 0.122252
-0.24552 -0.0293186 0.0770364 -0.327052 0.911599 0.249048
-0.166234 0.153613 0.542522 0.02882 0.970899 -0.23775
-0.0316594 0.258676 0.765864 -0.0221931 0.800456 -0.598981
-0.151776 0.0829294 0.408994 -0.121524 0.0464112 0.991503
-0.0618477 0.0926167 0.409084 0.0334534 -0.045761 0.998392
-0.0220555 0.227608 0.383563 -0.015496 0.880939 0.472977
0.147135 0.174214 0.465448 -0.0652029 0.888307 0.454599
0.216351 0.0967972 0.543789 -0.553906 0.820579 0.14085
-0.0253403 0.0412506 0.0665862 -0.997104 0.0688978 -0.0322036
-0.00510837 0.217957 0.379492 0.00200921 -0.81378 -0.58117
-0.0167249 0.119894 0.330151 -0.00187135 0.707111 -0.7071
-0.0381505 -0.115596 0.335906 -0.00267777 -0.0540807 -0.998533
0.175513 0.1976 0.707601 0.00199492 -0.816127 0.577869
-0.0115865 0.0736894 0.406523 7.62723e-05 -0.0299173 0.999552
0.241982 0.0479592 0.375981 0.946781 0.318121 -0.049034
0.221406 0.0572081 0.552273 -0.0428434 0.0332156 0.998529
-0.0800397 0.0965542 0.267319 -0.99825 0.0591396 0
-0.0884614 0.178519 0.0778898 0.808706 0.586864 -0.0398115
0.0709745 0.0903654 0.28397 -0.00197656 0.97641 0.215916
-0.214869 -0.00271283 0.552774 0.0404881 -0.00943605 0.999135
0.0438108 0.161748 0.404736 0.0262621 0.397809 0.917092
-0.0644933 0.2057 0.719536 0.00212997 -0.84871 0.528853
0.118251 0.15227 0.538678 -0.0028185 0.974166 -0.225816
-0.177724 -0.166238 0.404879 -0.449027 -0.18883 0.873338
0.0643215 -0.108871 0.408169 -0.0449939 0.037226 0.998294
-0.187203 -0.0179019 0.365637 -0.811814 0.0595389 -0.580873
-0.0628032 -0.125325 0.408776 0.0444651 0.0311063 0.998527
-0.0653345 0.0618697 0.312988 0.00303416 -0.999505 -0.031314
0.0495894 0.231873 0.373106 0.131923 0.876854 0.462302
0.143942 0.210985 0.69711 -0.0396731 0.852113 -0.521852
-0.108333 -0.158974 0.343726 -0.097596 -0.252244 -0.962729
-0.223555 0.0382094 0.347416 0.980642 0.00202088 0.195798
-0.0330208 -0.146735 0.338478 -0.0181696 -0.117318 -0.992928
-0.160985 0.0919613 0.351926 -0.608196 0.115684 -0.785312
-0.054053 0.0143424 0.119513 0.26337 -0.931901 0.249395
-0.277109 -0.0738145 0.0460658 -0.0146058 -0.706648 0.707415
-0.201387 0.159869 0.560845 -0.132818 0.949932 -0.282822
-0.257062 -0.073035 0.0195516 0.00304339 -0.965997 -0.258535
0.202466 0.181799 0.649821 0.955049 -0.233827 0.182226
0.0585418 0.13886 0.408942 -0.00175978 0.147958 0.988992
-0.0574512 0.00823711 0.252174 -0.999997 -0.00253008 0
0.173879 0.113928 0.374442 0.782604 0.231816 -0.577748
0.247698 0.0427387 0.45849 0.998955 0.00138554 -0.045672
-0.033873 0.238113 0.766725 0.0234721 -0.801633 0.597355
0.0245528 0.0386963 0.135727 0.999073 0.0279114 0.0327592
-0.123658 0.188477 0.649563 -0.00224232 0.939198 -0.343369
-0.163091 0.15461 0.505916 0.0251812 0.91877 0.39399
-0.0211189 0.121856 0.332125 -0.00187135 0.707111 -0.7071
0.111372 0.14419 0.567674 0.0024798 -0.956776 0.290816
0.198897 -0.0701289 0.383373 0.998369 0.0172998 0.0544061
0.0753694 -0.0654573 0.318223 0 0 -1
-0.0885114 0.16183 0.621944 0.00242403 -0.938412 0.345509
-0.0812135 0.246726 0.349743 -0.920833 0.37154 -0.118422
-0.0245117 -0.222099 0.403217 0.000648137 -0.242727 0.970094
0.116411 -0.0930241 0.32765 -0.064692 0.380611 0.922469
0.00804407 0.14653 0.408009 -0.000330492 0.127371 0.991855
0.0430561 0.243447 0.324333 0.00218919 -0.997819 -0.0659667
-0.0810945 0.0694952 0.409021 0.0610115 -0.0152136 0.998021
0.0483507 0.186322 0.687458 0.00257006 -0.938341 0.345702
0.157304 0.152411 0.594314 0.00264446 -0.956672 0.291155
0.0656246 0.153631 0.545176 -0.00245127 0.974167 -0.225814
0.023272 0.237884 0.310599 -0.00341251 -0.365817 -0.930681
-0.0520347 -0.119325 0.312992 0.00221103 -0.786505 -0.61758
-0.208392 -0.0202786 0.0948691 -0.279198 0.426434 0.86035
-0.0562538 0.00262436 0.406287 0.0547048 0.00327374 0.998497
0.203014 -0.040739 0.535328 -0.188535 -0.0403469 -0.981237
-0.00468453 -0.0300442 0.0760959 0.0117402 0.038526 -0.999189
0.177329 0.0727197 0.401246 0.417381 0.0663004 0.90631
0.191756 0.196802 0.69596 0.618466 -0.616486 0.487282
0.0888121 -0.0260174 0.40832 -0.081894 -0.000565502 0.996641
0.161156 0.151843 0.519236 -0.0295217 0.991473 0.126922
-0.139856 -0.00378582 0.335187 2.21658e-05 -0.00770787 -0.99997
-0.185792 -0.0611218 0.322892 -0.000169405 0.089208 0.996013
0.0817121 0.211089 0.698793 -0.00212666 0.852833 -0.52218
-0.184284 -0.0878174 0.32454 -3.30595e-06 0.0017384 0.999999
0.139366 0.187488 0.643282 -0.0479707 0.938125 -0.342959
-0.190658 0.187574 0.640337 0.043395 0.935207 -0.351432
-0.183982 0.21343 0.722661 -0.593934 -0.514703 0.618323
-0.282766 -0.0385038 0.0316708 -0.971282 0.229856 0.0614638
-0.0643093 0.0288958 0.276722 0.000974744 -0.275345 0.961345
-0.024181 0.143038 0.565035 0.00257988 -0.956713 0.29102
-0.132001 0.170272 0.43982 0.00203509 -0.816769 -0.576962
0.0136039 0.199521 0.40214 0.00202432 -0.752348 -0.658763
-0.1561 -0.00170022 0.0945978 -0.328233 0.936652 0.122252
-0.0783278 0.161394 0.620685 0.00256228 -0.938412 0.345509
0.0025915 -0.130606 0.334958 0.380766 0.000369462 0.924671
0.181805 0.227767 0.0309148 0.971615 -0.228062 0.0628589
0.109816 -0.00649833 0.0888754 -0.31113 -0.948485 -0.0597827
0.125884 -0.114898 0.3375 0.0837247 -0.0789903 -0.993353
0.126708 0.081408 0.41122 -0.0079904 -0.00757829 0.999939
-0.0564441 -0.0919019 0.326056 -0.00197995 0.728513 0.685029
-0.0134973 0.163595 0.626184 0.00252929 -0.938411 0.345512
-0.00871689 -0.179282 0.086071 -0.968158 -0.0292903 0.248622
0.220114 -0.0386934 0.534551 0 0 -1
0.168822 0.127205 0.375736 0.752978 0.343486 -0.561285
-0.148593 -0.128576 0.342033 -0.164402 -0.180322 -0.969771
-0.0672186 0.0384453 0.407472 0.0548568 -0.0226439 0.998237
0.0187221 -0.0371486 0.292046 -0.00117291 0.43138 0.90217
-0.155051 -0.104598 0.319878 0.00253159 -0.92336 0.383928
-0.188716 0.136882 0.545398 0.00237386 -0.973243 0.229766
0.05317 -0.109665 0.305691 0.00130644 -0.49714 -0.867669
-0.159508 0.0941463 0.351105 -0.608196 0.115684 -0.785312
0.152714 0.240777 0.0379648 -0.999998 -0.00145731 0.00146031
-0.0591603 0.0932548 0.290341 0.999997 0.00232039 0.000524735
-0.133929 0.0652711 0.411282 0.00845121 0.00546828 0.999949
7.2357e-05 0.0520972 0.221749 -0.30433 0.952567 -0.000240202
0.0534715 0.128049 0.11217 -0.760749 0.59938 0.249006
0.0848706 0.0680088 0.318223 0 0 -1
-0.0629412 0.0325351 0.251243 -0.000868889 0.245318 -0.969442
0.0149704 -0.107359 0.335548 4.49268e-05 -0.0178822 -0.99984
0.0792551 0.152032 0.593739 0.0021484 -0.956776 0.290819
0.122648 0.144952 0.341796 0.385713 0.533758 -0.752548
-0.0290184 0.0446387 0.0921933 -0.549163 0.834066 0.0524765
-0.0966017 0.199538 0.401806 0.00158139 -0.751991 -0.659171
-0.191428 0.199487 0.67541 -0.0925657 0.936481 -0.338282
0.168026 -0.0038359 0.0927214 0.317074 0.941013 0.118148
-0.163161 0.152105 0.472909 0.00233874 -0.890201 -0.455563
0.0371827 0.188696 0.691816 0.00228841 -0.848833 0.528656
0.106261 0.0571059 0.326146 -0.00172491 0.752363 -0.658747
0.0139239 0.156959 0.60796 0.00253053 -0.938411 0.345512
-0.0281173 -0.196987 0.408931 9.35362e-05 -0.0365174 0.999333
0.173084 0.140143 0.501213 0.00271776 -0.935951 -0.35212
0.251799 -0.0414181 0.0641353 -0.974224 -0.0492427 -0.220143
0.0550057 0.100646 0.409284 -0.0337293 -0.0657889 0.997263
-0.0840782 0.177705 0.387737 -0.177774 0.981776 0.067169
0.193986 -0.0199542 0.393693 0.937072 0.0697614 0.342097
-0.090068 -0.0651702 0.328088 -0.908866 -0.00232476 -0.417082
0.160417 0.269366 0.0403032 -0.00270958 0.707128 0.70708
0.0133392 0.0764002 0.0833813 -0.804329 0.593186 -0.034408
0.183882 0.200859 0.673654 -0.035687 0.935871 -0.35053
-0.031171 0.238959 0.738127 -0.022323 0.797875 -0.60241
0.113142 0.208234 0.722851 0.00218503 -0.838604 0.544737
0.0780455 -0.117815 0.339152 0.714585 0.111639 0.690583
-0.0937017 -0.0922434 0.335294 -0.0255399 -0.0199756 -0.999474
0.26994 -0.0330197 0.0259351 -0.00244656 0.965825 0.259183
-0.00747735 -0.240919 0.0677214 -0.924564 -0.378664 -0.0423696
0.233724 0.0204056 0.333112 0.79045 -0.309343 -0.528674
0.101439 0.0105207 0.319885 0.00194257 -0.752676 -0.658388
-0.204711 0.0146471 0.335432 0.000792874 -0.316609 0.948556
0.0560012 0.061263 0.407619 -0.0434574 -0.0220929 0.998811
-0.00101245 0.236588 0.764592 0.0253729 -0.824078 0.565907
-0.0805022 0.226566 0.338636 -0.932635 -0.29579 0.206641
0.0714299 -0.123602 0.409039 -0.0449939 0.037226 0.998294
-0.0128242 -0.144805 0.338249 0.000328191 -0.116677 -0.99317
-0.164938 0.0901687 0.405475 -0.411238 0.114599 0.904295
-0.2029 -0.0566735 0.541262 0.926242 -0.341321 -0.159926
-0.069089 0.213571 0.400529 -0.109452 0.838285 0.534133
-0.026361 -0.033869 0.404884 -1.12922e-05 0.00475021 0.999989
-0.167101 0.0916056 0.356574 -0.601253 0.120657 -0.789896
0.163438 -0.0129184 0.409834 0.105296 0.0141069 0.994341
-0.270568 -0.057719 0.0422528 -0.999999 0.00133998 0
-0.0120008 0.119394 0.329639 -0.00187135 0.707111 -0.7071
0.195726 -0.110434 0.397831 0.815578 0.0101775 0.578558
-0.142495 0.248351 0.0696595 0.71447 0.511091 -0.477827
0.140937 0.15853 0.378002 0.513531 0.858071 0
-0.0135894 -0.23308 0.35978 0.000869424 -0.284693 -0.958618
-0.199104 -0.0766055 0.38044 -0.998503 0.011295 0.0535138
-0.0726831 0.00139622 0.407191 0.0547048 0.00327374 0.998497
0.107733 0.175479 0.612346 -0.002721 0.939229 -0.343282
0.058282 0.117281 0.281852 -0.999994 0.00329683 0.00060974
0.167122 0.148726 0.481191 0.00245409 -0.890258 -0.45545
-0.0545791 0.198041 0.707206 0.00212997 -0.84871 0.528853
0.23072 0.0593989 0.493348 -0.279453 0.958442 -0.057406
0.0561909 0.25974 0.765839 -0.00266981 0.801696 -0.597726
-0.072759 0.210077 0.405261 -0.109452 0.838285 0.534133
-0.139098 -0.105764 0.315181 0.00253254 -0.923586 -0.383383
0.0258898 0.0475571 0.0910541 0.80153 0.596848 -0.0363665
0.17151 0.0562638 0.354856 0.598263 0.117056 -0.792704
-0.0959886 0.194565 0.426352 -0.0409973 0.852258 0.521512
0.174302 -0.103959 0.32733 0.999996 0.0029622 0
0.191322 -0.025029 0.0993866 -0.0248608 -0.508624 0.86063
-0.0595626 0.20247 0.398547 0.00199225 -0.752337 -0.658775
0.0151095 0.0199721 0.144469 0.809779 -0.58594 0.0305377
-0.209403 -0.0538151 0.534645 0.286474 -0.0599403 -0.956211
-0.015364 0.243674 0.743826 -0.00212824 0.789616 -0.613598
0.254407 -0.044947 0.0199588 -0.00253821 0.965652 -0.259827
-0.033666 -0.1116 0.339164 -0.000333485 0.12281 0.99243
0.0473509 0.248418 0.332402 0.0494983 0.998682 0.0135449
0.0593635 0.105768 0.0776595 0.806419 -0.58873 -0.0555452
-0.191876 -0.0322601 0.399226 -0.786534 0.055063 0.615088
-0.154371 0.238156 0.0694436 -0.810966 -0.582997 -0.0494883
0.0187674 0.080229 0.318223 0 0 -1
0.108408 0.134507 0.525253 0.00232268 -0.995803 0.0914879
-0.125889 0.228757 0.739495 0.287755 0.251924 -0.923976
