0.0894313 -0.00580408 0.282725 0.999995 -0.00305952 0.000457633
0.133865 0.212067 0.612655 0.197241 0.975726 -0.0951526
-0.0672927 -0.175646 0.398179 -0.00247822 -0.743928 0.668255
0.14911 0.22826 0.0151453 -0.00204001 -0.707057 -0.707154
-0.197582 -0.0758455 0.352279 -0.67482 0.0405783 -0.736865
-0.111111 0.226307 0.72442 -0.233585 0.967734 -0.0944909
-0.104773 0.00773063 0.279707 -0.629976 -0.112453 -0.76843
0.0837361 0.0347191 0.296254 0.000494162 0.147812 0.989015
-0.0538026 0.160957 0.521701 0.0741967 -0.98691 0.143191
-0.116875 0.00998262 0.0891523 -0.315113 0.938325 0.142303
-0.140759 0.142673 0.32592 -0.772932 -0.56351 0.291603
-0.118715 -0.0359853 0.336027 0.00119001 -0.0443988 -0.999013
0.0941397 -0.0215876 0.287462 0.75797 -0.64521 0.0958375
-0.0418296 0.193845 0.710924 0.0723758 -0.983259 0.167223
-0.246006 -0.0674467 0.0170224 -0.00371814 -0.965485 -0.260433
0.179455 -0.071686 0.34594 0.674599 0.0339615 -0.737403
0.129828 0.155591 0.581267 -0.238388 -0.957135 0.164512
-0.044228 0.0256612 0.0657367 -0.0342755 0.147589 -0.988455
0.0245703 0.0427085 0.41654 0 0 1
-0.116646 0.114757 0.291519 -0.232421 0.366127 -0.901072
0.019558 0.0486203 0.0439857 0.809662 0.584665 -0.0511347
0.0476114 0.206024 0.781537 -0.0749452 -0.93103 0.357163
-0.0446181 0.0319318 0.26852 -0.0205578 0.0122974 -0.999713
-0.0398975 -0.143765 0.41654 0 0 1
-0.10139 0.212966 0.794264 0.0158586 -0.156696 0.98752
-0.176314 -0.0264488 0.0889808 0.273545 -0.929119 0.24882
-0.0798377 -0.0293889 0.281141 -0.000693883 -0.147659 -0.989038
0.130325 0.202982 0.406744 0.15545 0.976317 0.150467
-0.161231 0.218544 0.0321035 -0.00315705 -0.963007 0.269457
-0.0893258 0.164285 0.404556 -0.0979698 0.715496 0.691713
0.150645 -0.0181067 0.336044 0.174833 0.0208115 -0.984378
-0.00444468 0.0888946 0.288198 0.000463708 0.147879 0.989005
0.0677728 -0.012314 0.335333 0 0 -1
-0.0113962 0.0940567 0.320828 -0.922819 0.339175 0.182661
0.245064 -0.0436923 0.0409826 -0.911503 0.411138 0.011365
-0.0964428 0.181638 0.683256 0.232103 -0.958759 0.164039
0.116587 0.0154501 0.41654 0 0 1
0.129123 0.160147 0.606751 -0.238388 -0.957135 0.164512
0.178583 0.199365 0.716712 0.969816 0.239755 -0.0444354
-0.0877283 0.0193146 0.297165 -0.590733 0.121015 0.79774
-0.038513 0.231454 0.660709 -0.0744279 0.992608 -0.0958627
0.0354891 0.19886 0.738199 -0.0791142 -0.98282 0.16675
0.0914825 -0.0404153 0.336407 0.0238365 -0.0494082 -0.998494
-0.147367 0.208337 0.602658 -0.191078 0.978393 -0.0789694
-0.0094551 -0.0122567 0.0885652 -0.994932 0.013581 -0.0996334
-0.000325367 -0.0206347 0.41654 0 0 1
0.131786 0.183609 0.32424 0.226314 0.621018 -0.750413
0.0353426 -0.171529 0.403143 -0.00247822 -0.743928 0.668255
-0.0406545 -0.0246291 0.280145 -0.00508236 -0.240838 -0.970552
-0.120965 0.135616 0.416076 -0.0851953 0.279366 0.956398
-0.173935 0.194147 0.758517 -0.876345 -0.479451 0.046329
0.123877 -0.167927 0.350158 0.134937 -0.728173 -0.671979
0.0356511 0.0570132 0.269056 0.00154719 0.466333 -0.884608
-0.00138136 0.0574749 0.140641 -0.305996 0.951889 0.0165364
-0.168509 0.168131 0.623069 -0.615117 -0.780448 0.111944
-0.113323 0.165476 0.357881 0.239152 -0.930788 -0.276478
-0.0986408 -0.150608 0.335847 -0.00108535 -0.320947 -0.947097
0.0842794 0.0400371 0.335333 0 0 -1
-0.134182 0.147311 0.537569 0.233093 -0.962186 0.140944
0.253515 -0.0343572 0.0645024 -0.0271236 0.99761 -0.0635514
-0.0740871 0.11806 0.41654 0 0 1
-0.141078 0.200811 0.792808 0.0727054 -0.412772 0.907928
0.164571 -0.14206 0.403691 0.57633 -0.431713 0.693879
-0.0860098 0.205119 0.46152 -0.145107 0.987322 0.0643374
0.0706544 -0.0956848 0.305429 -0.999422 -0.0138182 -0.0310756
0.152879 -0.0204755 0.069499 -0.301236 -0.903323 -0.305393
-0.0307348 0.180717 0.628755 0.0737494 -0.98324 0.166732
0.247058 -0.0470868 0.0149138 0.00204934 0.708682 -0.705526
0.187428 -0.0124624 0.390141 0.985555 0.0526524 0.160961
0.0429178 0.0337749 0.0819096 0.309237 0.945792 -0.0992504
-0.0784357 0.00465186 0.0779017 0.305791 -0.946849 -0.0998427
-0.0307442 0.0295151 0.41654 0 0 1
0.010087 -0.253445 0.0140306 -0.999992 0.00396987 9.44225e-05
0.141931 0.220554 0.74144 0.24051 0.967465 -0.0785299
-0.0282153 0.0184432 0.298734 0.000545371 0.148044 0.988981
-0.13238 -0.17416 0.369143 -0.187515 -0.974523 -0.123055
0.00974279 0.142498 0.41654 0 0 1
0.125183 -1.18334e-05 0.335333 0 0 -1
-0.0554769 0.159747 0.46769 0.0752457 -0.992961 -0.0914677
-0.197982 -0.0354101 0.0781167 0.295791 -0.945061 0.139169
-0.151984 0.195981 0.523244 -0.26978 0.959515 -0.0809322
-0.15288 0.176306 0.404418 -0.00476366 -0.983286 -0.182005
0.109399 -0.127292 0.41654 0 0 1
0.100245 0.173704 0.643826 -0.237116 -0.957524 0.164085
-0.0721868 0.224325 0.613042 -0.0744279 0.992608 -0.0958627
0.164852 0.12509 0.386448 0.87496 0.468681 0.121589
-0.126434 0.215267 0.637861 -0.191078 0.978393 -0.0789694
-0.146654 0.258902 0.0618381 0.590349 0.807117 -0.0070589
-0.0946914 0.0665852 0.41654 0 0 1
-0.123183 0.167465 0.638257 0.232103 -0.958759 0.164039
0.0945352 0.11955 0.292492 -0.281306 0.539629 -0.793516
-0.0827444 -0.0528385 0.296127 -0.981383 -0.189875 0.0288822
-0.0225379 0.0519921 0.100513 -0.999772 0.0136119 -0.0164378
0.0394934 0.174053 0.355364 0.00326174 0.99061 -0.136676
-0.00250011 -0.239385 0.0338736 0.000866217 0.258534 0.966002
0.014744 0.181789 0.627741 -0.0791142 -0.98282 0.16675
0.103426 0.184692 0.341656 -0.723495 0.526711 -0.44624
-0.198098 -0.00527624 0.364155 -0.985085 0.059235 -0.161554
0.00144057 0.027709 0.251101 0.379738 -0.925094 0
-0.169378 -0.051979 0.336662 -0.201646 0.0259226 -0.979115
-0.187789 -0.0506689 0.358256 -0.545143 0.0229073 -0.83803
-0.125225 0.198796 0.474207 -0.149136 0.988799 -0.00593666
-0.261044 -0.0456203 0.0516035 -0.779408 -0.625813 -0.0296746
0.0820748 0.0213817 0.41654 0 0 1
0.0351874 0.176322 0.379756 0.00323424 0.99061 0.136681
0.0821545 0.221124 0.598343 0.197241 0.975726 -0.0951526
-0.262954 -0.0567861 0.0424616 0.999993 -0.00382092 0
0.0875221 0.154999 0.514207 -0.241381 -0.967559 0.0745917
0.0528237 0.175119 0.606794 -0.080459 -0.982633 0.167209
0.176343 0.19021 0.626126 0.923279 0.377947 -0.0686479
-0.0866689 -0.0984754 0.340742 -0.0225289 -0.130872 -0.991143
-0.12601 0.220953 0.0635566 0.299949 0.193524 -0.934119
0.0211487 0.12085 0.335764 0.000469866 0.00919346 -0.999958
-0.119019 0.186428 0.742926 0.230694 -0.959005 0.16459
-0.0921439 0.186266 0.704225 0.232103 -0.958759 0.164039
-0.0408848 -0.0837783 0.338443 -0.00411678 -0.134642 -0.990886
0.0566826 0.0449344 0.268444 -2.3891e-05 -0.00745391 -0.999972
0.0508172 0.121924 0.0953426 -0.794815 0.590709 0.139041
-0.176851 0.251196 0.00740546 -0.955095 0.212013 -0.206987
-0.00515736 0.0741417 0.33855 -0.913146 -0.407413 -0.013375
0.17218 -0.0543493 0.304354 -0.000124007 -0.14779 -0.989019
0.00336717 -0.0828217 0.337909 0.383796 0.412366 0.82623
0.163777 0.18441 0.775386 0.138081 -0.976655 0.164554
-0.0791005 0.135276 0.0725601 -0.806018 -0.583361 -0.100125
-0.0602939 -0.078859 0.288518 -0.000410169 -0.148152 -0.988964
0.147505 0.252514 0.0547097 -0.96758 0.232377 -0.0989454
-0.0130798 0.212583 0.507756 -0.0746456 0.99263 -0.0954655
-0.0519513 -0.122338 0.318654 -0.00456833 -0.888634 -0.458595
0.184576 0.0164365 0.395242 0.984259 0.0946684 0.149241
0.186767 0.0763569 0.345003 -0.999979 0.00497696 0.00408883
-0.0556129 0.0998782 0.0878685 -0.807407 -0.573403 0.138937
0.0442445 0.22245 0.573582 0.0811997 0.99212 -0.0954197
0.0907976 -0.166684 0.408742 -0.00247822 -0.743928 0.668255
-0.161194 0.0887446 0.338287 -0.1856 0.0226921 -0.982363
-0.150186 -0.0450936 0.41654 0 0 1
-0.0530163 -0.0930747 0.320761 -0.999454 0.0224803 -0.0242013
0.137591 -0.0390423 0.41654 0 0 1
0.118747 0.190835 0.0645827 0.114289 -0.0991001 -0.988492
0.0627555 -0.0874685 0.338966 0.00321927 -0.132998 -0.991111
-0.0817733 0.0675898 0.269838 0.129317 0.207076 -0.969741
-0.0915705 0.0187131 0.0794839 -0.294473 0.950343 -0.10067
0.171977 0.163263 0.579985 0.946481 -0.321785 0.025047
-0.18685 0.068066 0.398811 -0.693407 0.0713058 0.717009
0.1721 0.174998 0.476524 0.907391 0.419675 -0.0226763
0.00432674 -0.143525 0.346173 0.00233099 -0.123457 -0.992347
0.173705 -0.101303 0.410956 0.656971 -0.119844 0.74433
-0.092129 0.190794 0.730671 0.232103 -0.958759 0.164039
-0.186556 -0.0971809 0.356182 -0.545143 0.0229073 -0.83803
-0.0964806 -0.00363378 0.335333 0 0 -1
-0.0236011 -0.174059 0.351334 -0.00247733 -0.743662 -0.668551
-0.0314196 0.160762 0.476456 0.0752457 -0.992961 -0.0914677
0.179068 -0.136755 0.38597 0.795395 -0.595808 0.111175
0.176666 0.18543 0.687567 0.946481 -0.321785 0.025047
0.166695 0.178368 0.725651 0.609731 -0.783138 0.122161
-0.163704 0.186389 0.467599 -0.700274 0.71324 0.0300917
-0.14947 0.0430473 0.41654 0 0 1
-0.084845 0.209655 0.407209 -0.213995 0.965576 0.147883
-0.197123 0.0254018 0.374511 -0.981418 0.103483 -0.161583
-0.083042 0.219331 0.583227 -0.191078 0.978393 -0.0789694
0.113261 0.0661394 0.41654 0 0 1
-0.0094831 -0.0634434 0.0818676 -0.994932 0.013581 -0.0996334
-0.00341564 -0.0188528 0.0659398 -0.150975 0.0130046 -0.988452
-0.069086 -0.0190837 0.30437 0.00102125 0.147997 0.988987
0.170576 0.00402598 0.339362 0.0772614 -0.0225366 -0.996756
0.0161889 -0.0111745 0.276696 -0.000925748 -0.240915 -0.970546
0.0611463 0.141919 0.337558 0.000502999 0.156108 -0.98774
-0.110679 0.0542956 0.28365 -0.994109 -0.0129159 -0.107613
0.055885 0.207645 0.469066 0.0820985 0.996213 -0.0286325
0.18134 0.0548416 0.392223 0.984259 0.0946684 0.149241
-0.143651 0.140258 0.479671 0.236213 -0.968238 -0.0819733
0.0178276 0.230848 0.638421 0.0811997 0.99212 -0.0954197
-0.0580215 0.176064 0.383831 0.00323424 0.99061 0.136681
-0.117912 0.14709 0.504683 0.234764 -0.968813 0.0792875
-0.134669 0.155687 0.347306 -0.15478 0.69064 -0.706441
0.129046 0.134677 0.30274 0.311672 0.322669 -0.893726
-0.014442 0.213745 0.790433 0.0426464 -0.595087 0.802529
-0.113709 -0.0823974 0.41654 0 0 1
-0.0106809 -0.0109236 0.303121 0.000511169 0.148045 0.98898
0.00790961 -0.153976 0.072885 0.955604 0.0212431 -0.293889
0.00945858 0.0331583 0.210004 0.922656 -0.385624 0
0.0492564 0.22696 0.624737 0.0811997 0.99212 -0.0954197
-0.14156 0.149919 0.399291 0.23776 -0.954949 -0.1776
-0.0309306 0.16601 0.42126 0.0748598 -0.97836 -0.192895
-0.00559039 0.0913265 0.26474 -0.181263 0.0843054 -0.979814
-0.108581 -0.137138 0.41654 0 0 1
0.0705976 -0.178767 0.361469 -0.00330205 -0.991231 -0.1321
-0.0994378 0.218784 0.616121 -0.191078 0.978393 -0.0789694
-0.191329 0.0820432 0.375855 -0.983253 0.103676 0.149879
-0.173781 -0.0486317 0.307016 0.000553955 0.147453 0.989069
0.149336 0.145476 0.380042 0.696312 0.709949 0.105464
0.0566556 0.158308 0.355448 0.0806522 0.782539 -0.617355
-0.070639 0.123576 0.0970881 -0.799039 -0.547107 0.24942
0.193161 -0.0780483 0.374428 0.985502 0.0536519 -0.160957
0.064465 0.138945 0.0679807 -0.803909 0.586333 -0.0997256
0.0861166 0.176801 0.351954 -0.108853 -0.417703 -0.902039
0.127879 0.145603 0.336558 -0.999482 0.0207439 -0.0245891
-0.0262126 0.0755668 0.110955 0.459498 0.429596 0.777373
-0.0178886 0.0228164 0.0661786 -0.0849372 -0.301787 -0.949584
0.046861 -0.139927 0.41654 0 0 1
-0.10619 0.150769 0.349663 0.0016662 0.988471 -0.1514
0.169484 -0.0426407 0.34078 0.171869 -0.0733471 -0.982386
-0.0393885 -0.0530153 0.286428 0.503828 -0.419337 -0.755192
0.0766036 0.225291 0.630322 0.0798677 0.992181 -0.0959075
0.275257 -0.0706616 0.0283727 0.955231 -0.285687 0.0769177
-0.00747325 -0.128267 0.41654 0 0 1
-0.0496573 -0.1283 0.344369 -0.00310607 -0.112588 -0.993637
0.0796617 -0.0682831 0.300636 0.980143 -0.196215 0.028637
-0.128444 0.170048 0.660692 0.230694 -0.959005 0.16459
-0.1611 0.153954 0.40487 -0.657465 -0.731329 -0.181378
0.0191482 0.112276 0.41654 0 0 1
-0.106547 0.174069 0.0674859 -0.806018 -0.583361 -0.100125
-0.109857 0.126347 0.339005 -0.000843888 -0.551554 0.834139
-0.164321 -0.0243214 0.336353 -0.201646 0.0259226 -0.979115
-0.135495 -0.0021716 0.0990849 -0.266319 0.568834 0.77814
0.0198193 -0.013852 0.335333 0 0 -1
0.0221052 -0.230335 0.0335428 0.956396 0.204619 0.208419
-0.0751405 -0.109394 0.318846 -0.999452 0.0227827 -0.0240033
-0.163201 -0.0920788 0.343917 -0.0621582 -0.089297 -0.994064
0.265847 -0.0358962 0.0311912 0.00371837 0.962247 0.272154
0.0190149 0.0295784 0.0253927 0.80641 -0.589144 -0.0511148
0.102729 0.0625776 0.277237 0.997819 -0.0126863 -0.0647818
-0.130245 0.0786914 0.335854 -0.00379882 0.0454998 -0.998957
0.0383765 -0.00809654 0.276148 0.00312775 -0.232274 -0.972645
-6.40215e-05 -0.104968 0.323265 0.381407 -0.41498 -0.826027
-0.00953456 -0.218741 0.0693867 -0.952398 0.00732278 -0.30477
-0.00196333 0.228176 0.598518 -0.0732151 0.99274 -0.0954261
0.135059 0.108705 0.337772 0.154997 0.114508 -0.981256
-0.013777 -0.0701397 0.41654 0 0 1
0.153065 -0.163804 0.366035 0.341153 -0.932722 -0.116812
-0.0973664 0.210502 0.357193 -0.190448 0.889583 -0.415176
-0.0705624 -0.0810329 0.338194 -0.00411678 -0.134642 -0.990886
-0.0472081 0.0313535 0.102504 -0.315113 0.938325 0.142303
-0.0118761 -0.219092 0.0340009 0.00243041 0.690752 0.723088
-0.018198 0.213573 0.429815 -0.0763804 0.994317 0.0741546
-0.138266 0.123812 0.337449 -0.130099 0.135708 -0.98217
0.180494 -0.123279 0.350704 0.681764 -0.124366 -0.720924
0.036383 -0.0438983 0.41654 0 0 1
0.0665383 0.132348 0.41654 0 0 1
-0.0824987 0.113152 0.291286 0.285556 0.529424 -0.798854
0.0903357 0.229267 0.698802 0.197241 0.975726 -0.0951526
0.0661529 -0.13391 0.345082 -0.000378374 -0.115671 -0.993288
0.116175 0.223585 0.699907 0.24051 0.967465 -0.0785299
-0.0126075 -0.0243513 0.335536 0.000201484 -0.0391333 -0.999234
0.135963 -0.16183 0.40326 0.254768 -0.693903 0.673492
0.0978767 0.157008 0.0851549 0.790712 -0.559291 0.248932
0.165522 0.0854155 0.407948 0.695167 0.0620507 0.716165
0.0192863 0.171917 0.571838 -0.080459 -0.982633 0.167209
-0.111943 0.100356 0.336758 -0.0326293 0.0146792 -0.99936
-0.0183561 0.0351724 0.127899 -0.999857 0.00339574 0.0165454
-0.0472939 0.208141 0.786691 0.0668043 -0.932185 0.355764
-0.216017 -0.0387189 0.0673628 0.315481 -0.902498 -0.293204
-0.172268 -0.144299 0.349996 -0.122354 -0.0217143 -0.992249
-0.131816 0.179392 0.351554 -0.0137241 0.070114 -0.997445
0.170279 0.169429 0.391589 0.733297 0.678541 -0.0431095
0.102221 0.208602 0.399313 0.15545 0.976317 0.150467
-0.164024 0.141422 0.380595 -0.691789 0.714314 0.105746
0.016477 -0.0650894 0.337197 0.0038091 -0.0391453 -0.999226
0.0031153 0.0207078 0.164996 0.307016 -0.951559 0.0166162
0.0457238 -0.109585 0.341887 0.00229861 -0.134663 -0.990889
-0.0899891 0.174363 0.631605 0.232103 -0.958759 0.164039
-0.0867628 0.0298647 0.41654 0 0 1
0.130275 0.174582 0.692403 -0.238388 -0.957135 0.164512
-0.126444 0.0900458 0.41654 0 0 1
-0.190954 -0.0134645 0.4019 -0.681545 0.0409826 0.730627
0.112392 0.171621 0.320828 -0.236653 0.522812 -0.81894
0.160193 0.19477 0.392687 0.270488 0.956912 0.105623
-0.103723 0.146493 0.305976 0.240576 0.529779 -0.8133
0.0113244 0.204951 0.352636 0.0735454 0.48445 -0.871722
0.1868 -0.0309857 0.0860186 -0.287528 -0.92478 0.249218
0.0702427 0.0753282 0.280451 -0.9857 0.0653858 -0.155309
-0.0870035 0.0787819 0.352241 0.000292372 -1.0275e-06 -1
0.105414 -0.0816844 0.338858 0.0217304 -0.127597 -0.991588
0.101414 0.186163 0.36629 -0.296975 -0.954073 -0.0393814
-0.174745 0.19155 0.636299 -0.920952 0.384897 -0.060845
0.054387 0.0275111 0.335333 0 0 -1
0.0271695 0.161759 0.35597 0.0806522 0.782539 -0.617355
0.155285 -0.053703 0.336373 0.271222 0.0329983 -0.961951
0.166827 0.0825383 0.343166 0.849066 0.208873 -0.485242
0.020151 0.166708 0.421813 -0.0814967 -0.97765 -0.1938
0.16128 0.0211897 0.41299 0.273077 0.0243749 0.961683
0.103723 0.166415 0.353693 0.163344 0.707085 -0.688004
-0.149162 0.161355 0.639084 0.230694 -0.959005 0.16459
0.0166925 0.0767681 0.0875162 -0.803909 0.586333 -0.0997256
0.0267069 0.225519 0.590567 0.0811997 0.99212 -0.0954197
-0.173389 0.164724 0.509282 -0.981213 -0.192317 -0.0153681
-0.0455657 0.0619567 0.289755 0.00354211 0.960944 0.276721
-0.0677368 0.230006 0.66841 -0.0744279 0.992608 -0.0958627
-0.16718 -0.00604359 0.0850106 -0.310972 0.917259 0.248864
0.118268 0.200611 0.451928 0.151438 0.98583 0.0721574
0.00163818 0.0542211 0.41654 0 0 1
-0.0337003 0.10013 0.0944104 0.794883 0.589621 0.143205
0.186547 -0.0235121 0.357948 0.910066 0.0969889 -0.402956
0.0546189 0.235103 0.713517 0.0798677 0.992181 -0.0959075
0.0448228 0.169294 0.398395 -0.0814967 -0.97765 -0.1938
-0.00458583 -0.0642119 0.304928 -0.384244 -0.41243 -0.825989
0.12471 0.0732677 0.335391 0.000832858 0.00925279 -0.999957
0.0267742 0.0682417 0.28715 0.999995 -0.00333712 -4.54503e-05
0.0860636 0.0192072 0.0963326 0.316097 0.938712 0.137486
-0.010054 0.21175 0.482887 -0.0749574 0.996776 -0.0286022
0.0665938 -0.166755 0.342869 -0.00251568 -0.74391 -0.668275
0.0863491 0.0934894 0.277671 -0.281306 0.539629 -0.793516
-0.0272995 0.121804 0.41654 0 0 1
0.0448747 0.124585 0.336072 0.00603461 0.118074 -0.992986
-0.171075 0.0600524 0.345601 -0.923019 0.0710898 -0.378129
0.110253 -0.0751388 0.41654 0 0 1
0.131199 0.222096 0.791257 0.109508 0.428849 0.896714
-0.155579 0.161581 0.357786 -0.483363 -0.852153 -0.200487
0.0474973 0.0238872 0.0654615 0.0283314 0.149001 -0.988431
0.130496 0.210516 0.589776 0.197241 0.975726 -0.0951526
-0.168885 0.025399 0.338473 -0.202034 0.0194099 -0.979186
-0.00320211 0.164566 0.458617 0.0759671 -0.992831 -0.0922783
-0.0479632 0.0561775 0.41654 0 0 1
-0.0722639 0.157833 0.474654 0.0752457 -0.992961 -0.0914677
0.0789109 0.0908267 0.41654 0 0 1
0.174061 0.0577834 0.337839 -0.00232759 -0.70714 -0.70707
0.105986 0.126447 0.333372 -0.999129 0.0339584 0.0242538
0.0875331 0.133093 0.337939 0.0451918 0.122896 -0.99139
-0.214719 -0.0342004 0.0904369 0.0632131 -0.488066 0.870515
0.0565521 0.238922 0.78721 0.059538 0.79065 0.609366
-0.0623576 0.210248 0.522016 -0.0746456 0.99263 -0.0954655
0.120744 0.144746 0.487168 -0.242679 -0.966189 -0.0871006
-0.0569969 0.187279 0.351064 0.000792753 -0.0114517 -0.999934
-0.00448781 -0.255868 0.0390007 -0.00246505 -0.691412 0.722456
-0.0951127 0.162293 0.56831 0.232103 -0.958759 0.164039
-0.154547 -0.113955 0.345342 -0.0621582 -0.089297 -0.994064
0.16545 0.186545 0.431921 0.691772 0.721451 0.0309736
0.0206684 0.213408 0.429362 0.0831259 0.993649 0.0758439
0.0660451 0.00855485 0.273469 0.00627738 -0.201746 -0.979418
0.0772272 0.174877 0.375856 0.135261 0.981868 0.132813
-0.141523 0.202744 0.379202 -0.149953 0.985979 0.0732148
-0.00270972 0.042817 0.0162538 0 0 -1
0.143314 0.195621 0.50232 0.166713 0.985986 -0.00620716
-0.13232 -0.151297 0.413483 -0.118249 -0.296302 0.947746
-0.154496 0.247634 0.0436074 0.000805801 0.247936 0.968776
0.141274 0.255594 0.034369 -0.0203925 0.706537 0.707382
-0.0471697 0.215255 0.550589 -0.0740301 0.984868 -0.1567
0.0786472 0.1637 0.409206 -0.243523 -0.951824 -0.186353
0.173153 -0.00811103 0.0780395 0.275002 0.915273 -0.294362
-0.0236764 0.0586038 0.335333 0 0 -1
-0.0457989 0.143757 0.416312 0.00101082 0.306098 0.952
0.16609 0.103897 0.347693 0.61982 0.304952 -0.723068
0.0376865 0.0789491 0.335392 0.00031495 0.00895794 -0.99996
-0.0666003 0.163946 0.417886 0.0748598 -0.97836 -0.192895
0.0604977 0.193544 0.35163 0.00964424 0.00551406 -0.999938
0.046451 0.161886 0.52561 -0.0810052 -0.986367 0.14324
0.159717 0.244278 0.0326793 0.000747495 0.258957 0.965889
0.103463 0.137518 0.415971 0.0937183 0.299913 0.949352
0.175385 0.166372 0.523531 0.97969 -0.199878 0.0160338
-0.129905 0.125339 0.318399 0.0707267 -0.411488 0.908667
-0.101096 -0.0123439 0.287771 -0.762826 -0.639532 0.0953743
0.00309356 0.0591826 0.0622582 0.256129 0.857392 -0.446405
0.115185 0.10503 0.287202 0.311672 0.322669 -0.893726
0.0482988 0.194156 0.716556 -0.0791142 -0.98282 0.16675
0.248825 -0.0573637 0.0339764 0.000871654 0.258543 0.965999
0.107294 -0.00627567 0.283278 0.627425 -0.0891156 -0.773561
-0.108448 -0.0175828 0.41654 0 0 1
0.157515 -0.055317 0.41528 0.273904 0.0126549 0.961674
0.036088 0.0347496 0.105114 0.316097 0.938712 0.137486
0.0239817 0.0320091 0.268029 0.0673543 0.0155871 -0.997607
-0.129697 0.159191 0.365696 0.244511 -0.951703 -0.185678
-0.0347735 0.189551 0.682621 0.0723758 -0.983259 0.167223
-0.059722 0.154301 0.348677 -0.0807039 0.837545 -0.540376
-0.115576 0.166147 0.619789 0.232103 -0.958759 0.164039
-0.154905 0.143528 0.530549 -0.23335 -0.963231 0.133166
0.0927519 0.155145 0.0651553 0.114289 -0.0991001 -0.988492
-0.0522982 0.126466 0.0892082 0.794883 0.589621 0.143205
-0.169864 0.161861 0.569251 -0.948201 -0.315657 0.035708
-0.0230257 0.210544 0.464816 -0.0753447 0.994268 0.0758552
-0.0700891 -0.12945 0.337884 -0.999995 0.00315882 -0.000130836
0.00469821 -0.150793 0.0934706 0.58625 -0.0801589 0.806155
-0.128166 0.00685526 0.41654 0 0 1
0.0874176 0.221841 0.795469 0.014318 -0.165246 0.986148
0.0384627 0.00172936 0.301204 0.000500302 0.148014 0.988985
-0.143488 0.223162 0.772247 -0.233585 0.967734 -0.0944909
0.106484 -0.103295 0.341664 0.0188413 -0.131351 -0.991157
0.0544997 -0.0626153 0.337245 0.0038091 -0.0391453 -0.999226
-0.0190626 0.244126 0.783115 -0.0712872 0.99673 -0.0380518
0.0228243 0.0544711 0.0686877 0.965147 0.259396 0.0347165
0.0967698 0.0223443 0.296288 0.00062144 0.147644 0.98904
-0.00490408 0.0593004 0.0389648 -0.304859 0.951009 -0.0514121
0.200446 -0.017858 0.0732305 0.275002 0.915273 -0.294362
-0.00601797 -0.124222 0.343771 -0.00310607 -0.112588 -0.993637
0.126034 0.196349 0.0841024 0.790712 -0.559291 0.248932
-0.244513 -0.0565693 0.043854 0.000882326 0.247299 -0.968939
0.10708 -0.0341002 0.301358 -0.000696636 -0.148139 -0.988966
-0.066262 0.0208681 0.298389 0.000474748 0.147832 0.989012
-0.0458999 -0.177637 0.395536 -0.00330209 -0.991244 0.131999
-0.147926 0.191856 0.335732 -0.21974 0.611648 -0.760001
0.0807567 0.14916 0.101553 -0.338417 0.357936 0.870262
0.180686 0.0640261 0.360327 0.982421 0.0944918 -0.160994
0.049105 -0.116827 0.313293 -0.999472 -0.0209628 -0.0248311
0.157178 -0.130989 0.346665 0.0608675 -0.0517305 -0.996804
0.165566 0.172982 0.356219 0.946772 0.214006 -0.240468
-0.0698701 0.0621296 0.287001 -0.0253314 0.988682 -0.147875
-0.00677703 0.163312 0.512277 0.0749176 -0.994364 0.0750137
-0.175818 -0.156164 0.37006 -0.799103 -0.591161 -0.109379
-0.154765 0.19402 0.437628 -0.492051 0.869004 0.0521395
-0.158962 0.120958 0.348688 -0.646958 0.412298 -0.641448
0.130687 -0.127788 0.345208 0.0187959 -0.0941232 -0.995383
0.156453 0.187672 0.335203 0.239995 0.60334 -0.760515
-0.036965 0.171112 0.574873 0.0737494 -0.98324 0.166732
0.0840435 0.0535981 0.293431 0.000588959 0.147864 0.989007
0.14225 0.218392 0.0821214 0.790712 -0.559291 0.248932
0.00165496 -0.056689 0.336811 0.0038091 -0.0391453 -0.999226
0.165708 -0.0340557 0.30132 -0.000264728 -0.148127 -0.988968
0.15012 -0.0510884 0.307221 0.0012686 0.148502 0.988911
-0.0104122 0.175482 0.364531 0.00326174 0.99061 -0.136676
0.0447789 0.215099 0.549476 0.0805526 0.984337 -0.156819
-0.22882 -0.0247911 0.0718437 -0.287244 0.907866 -0.305402
-0.0962862 0.0715938 0.290832 0.000512736 0.147779 0.98902
0.000984371 0.180126 0.611413 -0.0791142 -0.98282 0.16675
-0.119812 0.206247 0.793494 0.0158586 -0.156696 0.98752
0.0674228 -0.136549 0.41654 0 0 1
-0.175814 0.199672 0.778516 -0.876342 -0.475744 0.0754421
0.168445 0.183139 0.747504 0.609731 -0.783138 0.122161
0.0405044 0.111939 0.41654 0 0 1
0.106053 0.136889 0.300199 -0.281306 0.539629 -0.793516
0.132497 -0.02112 0.294839 0.459646 0.099475 -0.882514
0.149633 0.14308 0.357157 0.696732 0.709531 -0.105501
0.00396025 0.0287433 0.228911 0.379738 -0.925094 0
0.0985612 0.209855 0.559208 0.197093 0.974874 -0.103802
-0.0830388 0.155723 0.100248 0.459498 0.429596 0.777373
-0.0755893 0.0757503 0.335372 -0.000260943 0.00917244 -0.999958
-0.160777 0.0796067 0.356564 -0.0436809 0.924536 -0.378584
-0.110339 -0.0613591 0.41654 0 0 1
-0.114668 0.201085 0.505682 -0.162603 0.98341 -0.080407
-0.140802 0.219155 0.0819676 -0.799039 -0.547107 0.24942
-0.0160928 0.219496 0.562578 -0.0740023 0.984881 -0.156632
-0.0925558 -0.174239 0.399649 -0.00251491 -0.74368 0.668531
-0.00814248 0.216606 0.404045 -0.076334 0.992772 0.0926148
-0.0775866 -0.147941 0.33492 -0.00107085 -0.320797 -0.947147
0.0930843 0.171873 0.62279 -0.237116 -0.957524 0.164085
0.0430071 0.189958 0.689301 -0.0791142 -0.98282 0.16675
-0.0389306 0.124169 0.33597 -0.00545704 0.122691 -0.99243
0.0375763 0.0759849 0.0738955 0.796901 -0.595769 -0.100038
0.177609 0.255779 0.0339087 0.0229545 0.706922 0.706919
-0.19326 0.0482316 0.386424 -0.98168 0.10095 0.161598
0.129758 0.164852 0.374803 0.222789 0.964408 -0.142417
-0.133031 0.151827 0.560962 0.231701 -0.957101 0.173989
-0.11533 0.0224961 0.335333 0 0 -1
0.0949329 0.0122304 0.41654 0 0 1
0.0135176 -0.180327 0.374612 -0.00331313 -0.991245 -0.131993
-0.172378 0.00337482 0.339512 -0.173971 -0.0130903 -0.984664
-0.110246 -0.17556 0.354122 -0.139032 -0.722557 -0.677186
0.152053 0.068728 0.414488 0.285133 0.0227534 0.958218
0.134048 0.200019 0.537392 0.178344 0.971606 -0.155487
0.184746 -0.0581317 0.399923 0.674751 0.036048 0.737164
-0.116173 0.227076 0.744812 -0.233585 0.967734 -0.0944909
-0.144973 0.168719 0.321017 -0.91917 -0.344466 -0.190973
-0.00972923 0.0331549 0.41654 0 0 1
0.0949369 0.159793 0.555589 -0.238029 -0.955693 0.173185
0.109207 -0.0530458 0.337455 0.0238365 -0.0494082 -0.998494
-0.14486 0.217294 0.707559 -0.191078 0.978393 -0.0789694
0.145094 0.166044 0.664201 -0.238388 -0.957135 0.164512
-0.119756 0.158798 0.33257 0.0776189 -0.405478 0.910803
-0.0972096 0.228144 0.708868 -0.233585 0.967734 -0.0944909
0.142492 0.139394 0.490973 -0.242839 -0.966826 0.0792241
-0.06927 -0.0702301 0.41654 0 0 1
-0.0743303 0.0336444 0.270521 -0.152767 -0.060621 -0.986401
-0.166137 0.0961843 0.412544 -0.25694 0.109579 0.960195
0.160072 0.190494 0.461224 0.498978 0.866098 0.029916
-0.0772591 0.217448 0.563306 0.0252812 -0.129545 -0.991251
-0.112308 0.204742 0.412119 -0.149953 0.985979 0.0732148
0.0631783 0.0360472 0.296064 -0.000141352 0.147552 0.989054
-0.132648 0.145552 0.448855 0.236213 -0.968238 -0.0819733
0.00742737 -0.00823478 0.10507 0.968386 -0.0268035 0.248011
0.144085 0.215803 0.0259769 -0.00312739 -0.962695 0.270571
-0.0176277 0.0387157 0.171112 -0.999858 0.00273019 0.0166462
-0.0421652 -0.0505553 0.308713 0.50697 -0.182082 0.842513
0.0275069 0.0448562 0.335333 0 0 -1
-0.0682444 0.18877 0.692515 0.0723758 -0.983259 0.167223
0.0043194 0.109877 0.274587 0.0615263 0.510561 -0.857638
-0.0976881 0.196737 0.773096 0.230694 -0.959005 0.16459
0.257403 -0.0815072 0.0244564 -0.00307493 -0.96234 0.27183
-0.0725022 0.00729527 0.100857 0.273545 -0.929119 0.24882
-0.143715 -0.0648136 0.309425 0.000146722 0.148026 0.988984
-0.000768022 0.21943 0.354975 -0.11528 0.978232 -0.172547
-0.0702218 -0.0923949 0.41654 0 0 1
-0.0150937 -0.262221 0.0244705 0.00343307 0.96316 -0.268907
0.0701915 0.216493 0.378894 0.0826903 0.984841 0.152482
-0.138172 0.124158 0.416231 -0.219716 0.24915 0.943212
-0.141773 0.0647908 0.358628 0.247948 -0.000859885 0.968773
0.139963 0.138429 0.320088 0.888906 -0.407999 -0.208286
0.0102277 -0.0501161 0.41654 0 0 1
0.229893 -0.0280114 0.0828654 0.324893 0.912393 0.248966
0.00260715 -0.156393 0.413746 -0.00108467 -0.320748 0.947164
-0.00801194 -0.171387 0.0873872 -0.989841 -0.00967991 0.14185
-0.00918206 -0.0328238 0.0890825 -0.968434 -0.0122652 0.248967
-0.16833 0.0343417 0.413672 -0.273132 0.023658 0.961686
0.0631668 0.0364342 0.41654 0 0 1
-0.102747 0.216089 0.590733 -0.191078 0.978393 -0.0789694
-0.0387942 0.241883 0.76938 -0.0732151 0.99274 -0.0954261
0.148849 0.152034 0.588132 -0.238388 -0.957135 0.164512
0.143608 0.251213 0.0725223 -0.785486 0.544436 -0.294282
-0.00980175 0.0489118 0.268062 -0.0169019 0.0120063 -0.999785
-0.15929 -0.118295 0.41654 0 0 1
0.094544 -0.099839 0.41654 0 0 1
0.233787 -0.0608734 0.000937351 -0.0222687 -0.259326 -0.965533
-0.127949 -0.130478 0.41654 0 0 1
-0.0945146 0.156951 0.426906 0.240682 -0.966682 -0.0871635
0.0374929 0.211256 0.514266 0.0814461 0.992103 -0.095388
-0.108009 0.163632 0.315872 0.240576 0.529779 -0.8133
0.16744 0.167014 0.647653 0.731276 -0.675655 0.0934142
-0.166916 -0.00847797 0.415018 -0.273748 0.0156504 0.961674
0.140326 0.233564 0.0622522 -0.294566 0.200932 -0.934268
0.00770403 0.190492 0.675698 -0.0791142 -0.98282 0.16675
0.168484 0.195797 0.582004 0.746124 0.662672 -0.0645264
0.0682475 0.230772 0.680067 0.0798677 0.992181 -0.0959075
-0.148928 0.234004 0.032431 -0.00100084 -0.258955 0.965889
-0.0397116 0.101129 0.0658302 0.129776 0.0782128 -0.988454
-0.0603209 0.0173891 0.0653291 0.0647 -0.137332 -0.98841
-0.075582 -0.0381391 0.307221 6.45515e-05 0.147881 0.989005
-0.0704812 0.0303289 0.335333 0 0 -1
0.134284 -0.150808 0.347069 -0.000268717 -0.0804096 -0.996762
0.0536199 0.0973608 0.0743957 0.796901 -0.595769 -0.100038
-0.0036724 0.109748 0.335658 -0.000398534 0.00896027 -0.99996
-0.168576 0.20635 0.655964 -0.741005 0.664742 -0.0950207
0.0375288 0.160055 0.501432 -0.0816164 -0.993923 0.0738687
-0.0892528 -0.00517702 0.285216 0.999707 -0.0241025 0.00240549
-0.000254449 0.0695461 0.291089 0.000463708 0.147879 0.989005
0.0715154 -0.054383 0.41654 0 0 1
0.0265124 -0.0393963 0.336225 -0.000526757 -0.0445761 -0.999006
0.184202 -0.0333224 0.399208 0.674751 0.036048 0.737164
-0.00129221 -0.162378 0.339724 -0.00108535 -0.320947 -0.947097
-0.109979 0.161016 0.581879 0.232103 -0.958759 0.164039
-0.177443 -0.0793189 0.308259 -0.000561176 -0.147995 -0.988988
-0.175589 0.181413 0.595438 -0.876345 -0.479451 0.046329
-0.104489 0.231569 0.76194 -0.233585 0.967734 -0.0944909
0.0750893 -0.108738 0.318617 0.999952 -0.00810599 0.0055376
0.139362 0.060359 0.349418 -0.999987 0.00506678 0.000546601
0.0612114 0.237368 0.74244 0.0798677 0.992181 -0.0959075
-0.124924 0.00742219 0.0704602 -0.294473 0.950343 -0.10067
-0.203725 -0.0722177 0.373508 -0.98422 0.0601617 -0.166406
-0.135843 0.211884 0.61872 -0.191078 0.978393 -0.0789694
-0.108188 -0.0250139 0.300112 -0.000969116 -0.147388 -0.989078
-0.0241908 0.0210907 0.0924209 0.295791 -0.945061 0.139169
0.035881 0.174689 0.596112 -0.080459 -0.982633 0.167209
0.114585 0.00428711 0.101763 0.257166 0.531503 0.807075
0.0095595 -0.0885383 0.41654 0 0 1
0.0782593 0.20798 0.516669 0.169272 0.980959 -0.0952154
0.00263245 0.21838 0.548405 0.0806451 0.984364 -0.156601
-0.0658345 -0.0192104 0.41654 0 0 1
0.122602 0.22545 0.742561 0.24051 0.967465 -0.0785299
0.0528084 -0.0888522 0.299261 0.0025473 0.99771 -0.0675865
0.030546 0.0869582 0.41654 0 0 1
0.0509646 -0.0363885 0.282122 -0.000454992 -0.147736 -0.989027
-0.17311 0.171285 0.476439 -0.9658 0.256847 -0.0354935
0.136123 0.143732 0.454309 -0.247032 -0.96554 -0.0818954
-0.0290992 -0.179083 0.385096 -0.00330209 -0.991244 0.131999
0.159975 0.239731 0.0737437 0.796901 -0.595769 -0.100038
-0.188227 -0.0553936 0.40671 -0.674735 0.0385753 0.737051
-0.161801 0.201098 0.566393 -0.741005 0.664742 -0.0950207
-0.0699399 -0.0198622 0.335349 0.000201484 -0.0391333 -0.999234
-0.173618 -0.0251533 0.0690381 0.305791 -0.946849 -0.0998427
-0.166249 -0.147333 0.407888 -0.577446 -0.429781 0.69415
0.119549 -0.174774 0.385941 0.180808 -0.975708 0.123701
-0.0121458 0.0211057 0.0266973 -0.312475 -0.94853 -0.05148
0.14843 0.0715887 0.337496 0.00232498 0.706156 -0.708052
-0.0505122 0.223462 0.587278 -0.0744279 0.992608 -0.0958627
-0.267181 -0.0750237 0.0305688 -0.00464903 -0.966068 0.258245
-0.148872 0.152184 0.58524 0.230694 -0.959005 0.16459
-0.134905 0.175892 0.703803 0.230694 -0.959005 0.16459
-0.19969 -0.0323469 0.363934 -0.985085 0.059235 -0.161554
0.120641 0.148634 0.527413 -0.23963 -0.960574 0.14098
0.146088 0.213733 0.670135 0.24051 0.967465 -0.0785299
0.169951 0.217091 0.783678 0.487142 0.866382 0.109888
-0.126436 -0.0164768 0.335333 0 0 -1
-0.136671 0.186777 0.769699 0.230694 -0.959005 0.16459
0.136098 -0.145753 0.413692 0.113409 -0.289807 0.950342
0.0944194 -0.0419181 0.41654 0 0 1
-0.0414487 0.176638 0.37217 0.00323416 0.990586 -0.136857
-0.139292 0.201459 0.401078 -0.149953 0.985979 0.0732148
-0.143895 0.183482 0.363047 -0.0198988 -0.992652 -0.119355
0.129456 0.152351 0.561971 -0.238029 -0.955693 0.173185
0.0577047 0.22963 0.65947 0.0798677 0.992181 -0.0959075
-0.00943738 -0.122167 0.0836879 -0.968434 -0.0122652 0.248967
-0.0423032 0.0945926 0.335536 -0.000260943 0.00917244 -0.999958
0.132349 -0.0620373 0.308875 0.000243212 0.147427 0.989073
-0.120703 0.207104 0.360617 -0.190448 0.889583 -0.415176
-0.158584 0.196893 0.35295 -0.27068 0.945377 -0.181644
-0.0586749 -0.0317793 0.281487 -0.000296075 -0.147617 -0.989045
0.120361 0.199444 0.493043 0.166713 0.985986 -0.00620716
-0.0108373 0.0393533 0.239484 -0.922656 0.385624 0
-0.169769 0.1522 0.471116 -0.92249 -0.377704 -0.0796962
0.0521037 0.108686 0.335667 0.000469866 0.00919346 -0.999958
0.0346126 0.159204 0.411259 0.000986867 0.306278 0.951942
-0.0502508 0.237855 0.736266 -0.0732151 0.99274 -0.0954261
-0.0375205 -0.0472985 0.41654 0 0 1
0.107653 0.00902584 0.0651427 0.100002 0.342027 -0.934354
0.169548 -0.08917 0.345123 0.422317 -0.102455 -0.900639
-0.1621 0.204132 0.590835 -0.330542 0.94026 -0.0815705
-0.0225134 0.0378437 0.054901 -0.992357 0.0914759 -0.0828229
-0.0660057 0.233346 0.701652 -0.0744279 0.992608 -0.0958627
0.113229 0.184152 0.0933258 0.438048 -0.217979 0.872123
0.0962182 0.193216 0.751868 -0.237116 -0.957524 0.164085
-0.0915953 0.17107 0.357591 0.237744 -0.936864 -0.256444
-0.117213 0.133858 0.299426 -0.232421 0.366127 -0.901072
0.0974703 0.186911 0.716882 -0.237116 -0.957524 0.164085
-0.106083 0.0854996 0.277134 -0.106638 0.341902 -0.933666
0.0875448 0.0187558 0.0778326 0.309237 0.945792 -0.0992504
-0.059606 0.206008 0.354976 0.0936203 -0.849903 -0.518556
0.125637 -0.116951 0.41654 0 0 1
-0.144094 0.254453 0.00930401 -0.999992 0.00399257 -5.38654e-05
-0.111298 0.219393 0.65236 -0.191078 0.978393 -0.0789694
-0.0850683 0.208146 0.528382 -0.169131 0.98102 -0.0948382
0.00331003 0.214234 0.437576 0.0831259 0.993649 0.0758439
-0.274096 -0.0380518 0.0189864 -0.955046 0.286547 -0.0760149
0.0735208 0.187982 0.692343 -0.080459 -0.982633 0.167209
-0.17078 0.113042 0.404671 -0.617569 0.309097 0.723234
0.153603 0.246005 0.0111838 0.00204095 0.707053 -0.707158
-0.134543 0.1648 0.39006 -0.216439 0.965767 0.142998
0.0166219 0.217986 0.390726 0.0353699 0.99505 0.0928667
0.0973245 -0.142163 0.41654 0 0 1
-0.137232 0.256849 0.0339891 0.0240355 0.706841 0.706964
-0.0400044 0.202127 0.75883 0.0723758 -0.983259 0.167223
0.167342 0.164246 0.628398 0.731276 -0.675655 0.0934142
0.00873518 -0.223503 0.0662732 0.941037 0.332148 -0.064245
-0.0326757 0.0601801 0.275731 0.0141088 0.986164 -0.165173
-0.174353 0.12433 0.356575 -0.871798 0.474476 -0.121826
0.0255958 0.0790803 0.108449 -0.426614 0.409143 0.8066
-0.0650039 0.137088 0.41654 0 0 1
-0.129171 0.199583 0.449133 -0.145107 0.987322 0.0643374
0.0303643 0.24078 0.752051 0.0798677 0.992181 -0.0959075
-0.101876 0.0677433 0.273428 -0.971827 -0.092872 0.216626
0.0833116 0.141333 0.416051 0.0457867 0.305629 0.951049
0.115521 -0.025044 0.41654 0 0 1
-0.0454925 0.182168 0.643842 0.0737494 -0.98324 0.166732
0.0807407 -0.180431 0.377733 -0.00331308 -0.99123 0.132106
0.0316242 -0.149056 0.335174 -0.00107085 -0.320797 -0.947147
-0.119169 0.222326 0.703567 -0.233585 0.967734 -0.0944909
0.0935141 0.154101 0.459266 -0.242679 -0.966189 -0.0871006
0.000986472 0.174983 0.390257 0.00326166 0.990585 0.136862
0.0577175 -0.0545614 0.284828 -0.00065638 -0.147586 -0.989049
-0.0752661 -0.0967241 0.297933 -0.999301 0.0199047 0.0316376
0.162548 0.141635 0.493499 0.676707 -0.735136 0.0405313
-0.0433615 0.163994 0.53722 0.0741967 -0.98691 0.143191
0.131042 0.14534 0.3557 0.178623 0.806533 -0.563558
0.0216111 0.168481 0.553354 -0.0803268 -0.981019 0.176492
-0.0695269 0.0821563 0.281868 0.987055 0.0562406 -0.150196
-0.00252431 -0.171996 0.0629512 -0.3555 0.0197113 -0.934468
0.0175085 0.00858439 0.300188 0.000419436 0.148012 0.988985
-0.0104751 0.152978 0.342208 -0.045688 0.78444 -0.618519
0.149088 0.0917761 0.414823 0.285133 0.0227534 0.958218
-0.245678 -0.0446739 0.0169882 0.00325339 0.965488 -0.260428
-0.0455276 0.166092 0.346693 0.00232937 0.722928 -0.69092
-0.101704 0.0841154 0.41654 0 0 1
0.011601 0.211952 0.491935 0.0820985 0.996213 -0.0286325
0.142052 -0.0121956 0.0971772 -0.0725593 -0.485545 0.871195
-0.200021 -0.022231 0.381955 -0.985023 0.0602108 0.161565
0.184841 0.0147463 0.35676 0.982421 0.0944918 -0.160994
0.0148968 0.029086 0.17711 0.807156 -0.590338 0
-0.0069952 -0.240559 0.00902456 -0.000861279 -0.25706 -0.966395
0.0743614 0.0827113 0.335439 0.000469866 0.00919346 -0.999958
-0.0116781 0.0539601 0.125102 -0.807265 0.589953 0.0167291
0.00861985 -0.036082 0.0808986 0.995045 -0.00181184 -0.0994074
-0.0123076 0.0886736 0.41654 0 0 1
0.197273 0.0675153 0.333244 0.000823042 0.259382 -0.965775
-0.00864048 -0.0789781 0.0713356 -0.994932 0.013581 -0.0996334
0.0759852 0.0626826 0.335333 0 0 -1
-0.0776 0.00227304 0.41654 0 0 1
0.133497 0.202229 0.355923 0.0544938 0.97942 -0.194334
-0.150095 -0.158099 0.405017 -0.263562 -0.690404 0.673704
0.0950653 0.205661 0.43125 0.156382 0.985582 0.064601
-0.0525033 0.195656 0.726192 0.0723758 -0.983259 0.167223
0.17249 0.16209 0.462978 0.980241 -0.18457 -0.071146
0.0653665 0.159088 0.463301 -0.0827252 -0.992388 -0.0912319
-0.145284 -0.154071 0.340412 -0.261642 -0.685373 -0.679564
-0.0974324 0.123782 0.41654 0 0 1
-0.0179637 0.0965579 0.292927 -0.914366 0.355992 0.192888
0.111175 0.153822 0.417156 -0.243523 -0.951824 -0.186353
-0.118584 -0.166803 0.405036 -0.1349 -0.72343 0.67709
0.166973 0.200594 0.613795 0.746124 0.662672 -0.0645264
0.258431 -0.0439633 0.0495266 0 0 1
0.0614913 0.210361 0.424542 0.0831259 0.993649 0.0758439
0.0642702 -0.0715515 0.41654 0 0 1
-0.0102909 0.0214219 0.118305 0 0 1
-0.057766 -0.0776144 0.313112 0.00047355 0.147365 0.989082
0.192823 -0.0950411 0.366947 0.984735 0.0526086 -0.165917
-0.0136604 0.0707704 0.0697809 0.812853 0.573712 -0.100621
-0.0403637 -0.0173742 0.41654 0 0 1
-0.171079 0.183179 0.543909 -0.880312 0.467532 -0.0803987
-0.193373 0.0416165 0.362073 -0.983522 0.101139 -0.149852
-0.0961003 0.0249802 0.279231 -0.00344422 -0.989038 0.147621
0.230543 -0.0655975 0.0389161 -0.955765 -0.0726253 0.285024
0.00764062 0.142947 0.338029 0.00603461 0.118074 -0.992986
-0.0847855 0.205609 0.496535 -0.16118 0.986461 -0.0302571
0.0711719 -0.116307 0.342863 0.00321927 -0.132998 -0.991111
-0.141301 0.214895 0.669226 -0.191078 0.978393 -0.0789694
0.00804842 -0.107154 0.0764741 0.995045 -0.00181184 -0.0994074
-0.0153124 0.23956 0.727194 -0.0732151 0.99274 -0.0954261
-0.200299 -0.0629741 0.395054 -0.984279 0.0591866 0.166409
-0.0459889 0.0333597 0.0844179 -0.294473 0.950343 -0.10067
-0.0121355 0.206688 0.773589 0.0723758 -0.983259 0.167223
0.150573 -0.000757126 0.336398 0.174833 0.0208115 -0.984378
0.165399 -0.114283 0.346045 0.107211 -0.0944555 -0.989739
-0.0738777 0.237973 0.75567 -0.0744279 0.992608 -0.0958627
-0.173996 0.207691 0.708856 -0.967736 0.246 -0.054501
0.140383 0.162998 0.351376 -0.139849 -0.503798 -0.852426
0.176902 0.0317483 0.401773 0.679629 0.0653684 0.730638
-0.15125 0.107858 0.340512 -0.149756 0.0681454 -0.986372
0.0646852 0.16631 0.560893 -0.0803268 -0.981019 0.176492
0.102045 -0.0181104 0.30233 0.000624121 0.147818 0.989014
-0.0301938 0.233621 0.676829 -0.0732151 0.99274 -0.0954261
-0.0299174 -0.0786924 0.41654 0 0 1
-0.169458 0.159191 0.434382 -0.92249 -0.377704 -0.0796962
-0.0871604 0.143958 0.086457 -0.807407 -0.573403 0.138937
0.111753 0.163749 0.602539 -0.238388 -0.957135 0.164512
0.123487 0.189712 0.770825 -0.237116 -0.957524 0.164085
0.0623313 0.194992 0.728156 -0.080459 -0.982633 0.167209
0.114157 -0.135442 0.345619 0.0187959 -0.0941232 -0.995383
-0.130713 -0.114438 0.34374 -0.0196872 -0.127488 -0.991645
-0.08168 0.18206 0.664838 0.232103 -0.958759 0.164039
0.0512368 0.0122452 0.0845279 -0.320368 -0.941955 -0.100429
0.0196506 0.0303559 0.194606 0.800182 -0.599758 0
-0.161173 0.183867 0.766301 -0.143669 -0.976449 0.160957
0.155411 0.14176 0.527083 0.225883 -0.964421 0.137367
-0.114469 0.179789 0.697862 0.230694 -0.959005 0.16459
-0.0514631 0.218144 0.372851 -0.027896 0.987791 0.153265
0.14966 0.1549 0.605984 -0.238388 -0.957135 0.164512
-0.0557149 -0.16629 0.408631 -0.00251491 -0.74368 0.668531
0.160625 0.258377 0.0430113 0.385315 0.922785 0
0.00773324 -0.0858558 0.317263 0.381323 -0.415005 -0.826053
0.0182862 0.239072 0.724323 0.0811997 0.99212 -0.0954197
-0.0145169 0.0352193 0.0162538 0 0 -1
0.0108146 -0.240121 0.0439734 -0.000953044 -0.247297 -0.968939
-0.0243352 0.192767 0.696988 0.0737494 -0.98324 0.166732
-0.0241333 0.231332 0.648366 -0.0732151 0.99274 -0.0954261
0.0707263 0.206721 0.479273 0.081784 0.996219 -0.0293104
0.0575017 0.029517 0.0916078 0.316097 0.938712 0.137486
-0.0499165 0.231944 0.674645 -0.0744279 0.992608 -0.0958627
-0.070527 0.151567 0.0710679 0.812853 0.573712 -0.100621
0.0622424 0.172066 0.376963 -0.0820401 -0.977736 -0.193139
-0.12595 -0.028929 0.304053 7.4391e-05 0.147969 0.988992
-0.125452 -0.0108584 0.41654 0 0 1
-0.00508913 0.226259 0.580977 -0.0732151 0.99274 -0.0954261
0.00639835 0.124898 0.41654 0 0 1
-0.170773 0.106793 0.356189 -0.906906 0.108345 -0.407164
0.120682 0.168738 0.644503 -0.238388 -0.957135 0.164512
-0.102614 -0.0437855 0.336393 0.00119001 -0.0443988 -0.999013
0.147278 0.175082 0.719947 -0.238388 -0.957135 0.164512
-0.168089 0.233179 0.0410852 -0.00126465 -0.258462 0.96602
-0.0929614 0.208817 0.545463 -0.189229 0.969638 -0.154902
0.0435787 -0.00555603 0.335333 0 0 -1
-0.110425 -0.0766279 0.338598 -0.023692 -0.0742064 -0.996961
0.139752 -0.0765889 0.41654 0 0 1
-0.0501188 0.189971 0.691737 0.0723758 -0.983259 0.167223
0.0560428 -0.176358 0.353597 -0.00247733 -0.743662 -0.668551
0.0735562 0.233242 0.710041 0.0798677 0.992181 -0.0959075
-0.0866617 -0.103919 0.41654 0 0 1
0.021558 0.160694 0.485037 -0.0817948 -0.992368 -0.0922845
-0.231116 -0.0772023 0.0216293 0.954457 -0.288459 0.0761771
0.146206 0.17326 0.322819 0.235458 0.376084 -0.89617
-0.104393 0.104496 0.283684 -0.308244 0.341953 -0.887724
-0.0576783 0.178272 0.626214 0.0723758 -0.983259 0.167223
0.173309 -0.0230873 0.408841 0.681859 0.034327 0.730678
-0.0717613 0.213977 0.396016 -0.027896 0.987791 0.153265
0.0248169 0.232032 0.656682 0.0811997 0.99212 -0.0954197
-0.102996 0.0222348 0.41654 0 0 1
0.067134 -0.109694 0.41654 0 0 1
-0.129803 0.203596 0.0830784 -0.799039 -0.547107 0.24942
0.0598454 -0.0505716 0.309015 0.000569284 0.147828 0.989013
0.125742 0.144676 0.504085 -0.242839 -0.966826 0.0792241
0.101308 0.177013 0.664671 -0.237116 -0.957524 0.164085
-0.0179601 -0.233998 0.0412911 -0.0207437 0.259112 0.965624
0.105283 0.224714 0.683098 0.197241 0.975726 -0.0951526
-0.0994367 0.17696 0.0982046 0.459498 0.429596 0.777373
0.0916655 -0.0245153 0.41654 0 0 1
-0.0935007 -0.166017 0.342649 -0.00247733 -0.743662 -0.668551
0.149039 -0.108426 0.41654 0 0 1
0.135455 0.157654 0.389818 0.696824 0.709625 0.104249
-0.00851098 -0.00500546 0.274386 -0.000836419 -0.272303 -0.962211
0.150601 0.158341 0.627365 -0.238388 -0.957135 0.164512
0.172512 -0.0565599 0.342803 0.422317 -0.102455 -0.900639
0.0370204 0.209851 0.353489 -0.114163 -0.941445 -0.317252
0.045057 -0.159063 0.412891 -0.00108467 -0.320748 0.947164
-0.0617203 0.209357 0.441521 -0.0763804 0.994317 0.0741546
-0.156599 0.071934 0.337597 -0.082853 0.101836 -0.991345
0.106423 -0.00100855 0.41654 0 0 1
-0.00122649 0.224328 0.794898 0.0110697 -0.161317 0.986841
0.120386 0.00846288 0.0802768 0.275002 0.915273 -0.294362
0.122447 0.138495 0.413866 0.206282 0.23145 0.950725
0.1478 0.0363781 0.33665 0.201798 0.0233069 -0.97915
0.140544 0.181436 0.354499 -0.0598821 -0.993033 -0.101488
0.030473 0.0199238 0.0977339 -0.296556 -0.944264 0.142899
-0.138241 0.178857 0.725754 0.230694 -0.959005 0.16459
0.010062 0.0193686 0.0355827 0.400203 -0.914917 -0.0525781
-0.0189438 0.0682655 0.268593 5.78419e-05 0.0184381 -0.99983
0.00711289 0.0376487 0.41654 0 0 1
-0.111038 0.206275 0.551633 -0.189229 0.969638 -0.154902
0.0336463 -0.124502 0.41654 0 0 1
-0.0798081 0.0965095 0.335653 -0.0326293 0.0146792 -0.99936
0.014944 0.0207164 0.112763 0.806683 -0.589666 0.0394526
0.16496 0.19427 0.559905 0.561143 0.806204 -0.187494
-0.018027 0.217404 0.35502 -0.11528 0.978232 -0.172547
-0.131576 -0.0476222 0.336942 -0.023692 -0.0742064 -0.996961
0.0607993 0.115962 0.41654 0 0 1
-0.0491276 -0.0702855 0.298669 0.999993 -0.00371025 -4.36525e-05
0.143189 0.185033 0.77199 -0.237116 -0.957524 0.164085
-0.18382 0.0244025 0.34574 -0.679236 0.0698485 -0.730588
-0.0532508 0.0258379 0.335333 0 0 -1
0.0452026 0.0422035 0.335333 0 0 -1
-0.147264 -0.0806041 0.41654 0 0 1
-0.0087963 -0.155466 0.0686 -0.952398 0.00732278 -0.30477
0.0941788 0.219902 0.610734 0.197241 0.975726 -0.0951526
-0.0738497 -0.136535 0.41654 0 0 1
-0.0641742 -0.106201 0.311529 -0.00346042 -0.989183 -0.146648
-0.17059 0.173918 0.651984 -0.615117 -0.780448 0.111944
0.00586851 0.211763 0.468943 0.0820985 0.996213 -0.0286325
0.0430922 0.224836 0.597413 0.0811997 0.99212 -0.0954197
-0.191838 -0.0201804 0.0931565 -0.226477 0.434561 0.871702
-0.16121 -0.0369224 0.305263 0.000622509 0.14752 0.989059
-0.0282293 0.237432 0.71497 -0.0732151 0.99274 -0.0954261
0.107269 -0.0334704 0.336203 -0.00227817 -0.0683325 -0.99766
0.0102365 0.215198 0.531975 0.081277 0.992077 -0.0958022
-0.146525 0.158261 0.334601 0.0707267 -0.411488 0.908667
-0.0690029 0.0466977 0.294536 0.000473675 0.147502 0.989062
-0.110998 0.0661261 0.335333 0 0 -1
0.133231 0.236943 0.0159405 -0.999989 0.00465281 0
-0.15219 0.19408 0.477739 -0.412464 0.909834 -0.0455529
-0.0215488 -0.0812895 0.338025 -0.00411678 -0.134642 -0.990886
0.0537869 -0.0854515 0.312634 -0.592236 0.120927 0.796639
-0.167656 0.182693 0.411322 -0.965705 0.256878 -0.0377797
-0.00848196 0.0126636 0.269598 -0.0686938 -0.238456 -0.968721
-0.0539534 0.116257 0.335736 -0.000398534 0.00896027 -0.99996
0.0402524 -0.125881 0.344063 0.00233099 -0.123457 -0.992347
0.152859 0.118125 0.342352 0.61982 0.304952 -0.723068
-0.0854253 0.222806 0.625063 -0.233585 0.967734 -0.0944909
0.0743797 0.0196277 0.298513 0.000518944 0.147645 0.98904
-0.0892927 0.20584 0.444755 -0.149957 0.986043 0.0723315
0.244384 -0.0362013 0.0867431 0.236044 0.433313 0.869783
-0.138584 0.00422116 0.0801972 -0.294473 0.950343 -0.10067
0.0295694 0.217943 0.559513 0.0805526 0.984337 -0.156819
0.0702571 0.118162 0.0830452 0.796901 -0.595769 -0.100038
-0.0890496 0.15732 0.53126 0.233153 -0.962199 0.140757
0.150883 0.240947 0.0435195 -0.000881576 -0.247297 -0.968939
-0.16515 0.188054 0.386641 -0.687859 0.725393 0.0255897
0.0883617 0.077619 0.273208 0.000927858 0.214136 -0.976803
-0.17353 0.201229 0.671427 -0.967736 0.246 -0.054501
-0.144315 0.0882656 0.335417 -0.177715 0.0710863 -0.981511
-0.20415 -0.0884946 0.381351 -0.984279 0.0591866 0.166409
0.173427 0.213029 0.753399 0.336627 0.934705 -0.114059
0.132109 0.147264 0.424779 -0.247032 -0.96554 -0.0818954
0.041528 -0.0822485 0.41654 0 0 1
-0.00117081 0.019748 0.0662188 -0.259069 -0.965859 0
0.108208 0.0419516 0.275169 0.642036 -0.115405 -0.757939
0.148691 0.222076 0.786072 0.19092 0.838567 0.51025
-0.130638 0.040114 0.335333 0 0 -1
0.260273 -0.0561635 0.00932383 0.000866683 0.257068 -0.966393
-0.0795462 0.167139 0.390997 0.244511 -0.951703 -0.185678
-0.0586384 0.229308 0.654117 -0.0744279 0.992608 -0.0958627
0.0556622 0.0738883 0.41654 0 0 1
-0.0970989 0.133973 0.335847 -0.0264653 0.193282 -0.980786
-0.188209 -0.0605937 0.344519 -0.681659 0.0389711 -0.730631
-0.0767163 -0.179236 0.368682 -0.00331313 -0.991245 -0.131993
0.20324 -0.0203987 0.0897486 0.324893 0.912393 0.248966
0.0343941 0.018742 0.0773205 -0.320368 -0.941955 -0.100429
0.0821872 0.141938 0.0652579 0.114289 -0.0991001 -0.988492
0.00984062 0.0432528 0.235294 0.925264 0.379324 0
-0.00363244 0.118389 0.285434 -0.379313 0.83202 0.404801
0.0293029 0.182263 0.637462 -0.080459 -0.982633 0.167209
-0.107762 -0.116548 0.343556 -0.0196872 -0.127488 -0.991645
-0.110447 0.203303 0.34777 -0.190448 0.889583 -0.415176
0.121685 0.172982 0.34129 -0.0733641 -0.56878 0.819211
0.121003 0.127566 0.339263 0.0768251 0.17714 -0.981183
-0.194851 0.0216163 0.358275 -0.983522 0.101139 -0.149852
-0.0352555 -0.0994904 0.340555 -0.00411678 -0.134642 -0.990886
0.106942 -0.162373 0.410594 0.130611 -0.729214 0.671706
