-0.0767991 0.0788617 0.284041 0.928868 -0.12938 0.34708
-0.0754406 0.0514377 0.338735 0.0106522 -0.945811 -0.324542
-0.188869 0.0503451 0.386723 -0.910286 0.251994 -0.328448
0.135769 0.0896013 0.400962 -0.0417535 0.08537 0.995474
0.0550508 0.118241 0.287935 5.543e-05 -0.999464 -0.0327377
0.138859 0.235325 0.0783159 -0.743495 0.646138 0.172396
0.177709 0.0647591 0.375895 0.695634 0.183857 -0.694471
0.055169 0.207565 0.597795 0.227167 0.957817 -0.176016
0.106302 0.0228973 0.275782 0.993866 -0.016113 -0.109407
-0.11756 -0.12057 0.348024 0.0506023 0.10711 -0.992959
0.158411 -0.0325098 0.287606 0.000162818 -0.147912 -0.989001
0.0413417 0.0696232 0.347989 0.0297031 0.0257877 -0.999226
0.0221257 0.169525 0.628854 -0.132627 -0.954371 0.267557
-0.0216978 -0.0175979 0.324656 -5.26133e-08 0.000780644 -1
-0.073723 -0.0812061 0.284735 -0.975842 -0.216083 0.0322608
0.134292 0.143682 0.525753 -0.129335 -0.991418 -0.0190249
-0.0210069 0.0391375 0.120138 -0.992466 0.118443 -0.03134
0.0859776 0.194253 0.550424 0.218013 0.974418 -0.0545945
-0.0077981 0.070177 0.288907 -0.383226 -0.839284 -0.385668
-0.0680359 0.23746 0.631121 -0.26 0.552113 0.792194
0.0618664 -0.0811154 0.299808 0 0.147396 0.989078
0.159551 -0.0633209 0.352921 0.347769 -0.0223926 -0.937313
-0.00843512 -0.197955 0.363603 -0.0329923 -0.858308 -0.512073
0.184154 -0.0734095 0.406991 0.549821 -0.109898 0.828021
-0.123799 0.144152 0.522891 0.0870162 -0.995771 -0.029467
-0.12329 0.051333 0.349212 -0.0406057 -0.0234693 -0.9989
-0.0817317 0.206435 0.75859 0.175406 -0.880767 0.439867
-0.104431 0.207339 0.522314 -0.960637 0.263916 0.0867435
-0.0169417 0.0199867 0.094388 -0.750883 -0.660351 -0.0105232
-0.0689345 -0.0230078 0.267161 -0.00893502 -0.201531 -0.979442
-0.0155157 0.197538 0.530432 0.0213749 -0.0337074 0.999203
-0.139185 -0.0936083 0.349061 -0.0290552 0.00046347 -0.999578
0.0532652 0.153754 0.53965 -0.143919 -0.989192 0.0280594
0.0232033 0.223221 0.651065 0.104 0.967128 -0.232051
-0.0850362 0.190818 0.474483 -0.149066 0.987353 -0.0539835
-0.0665767 -0.0683463 0.40369 0.012128 -0.0669258 0.997684
-0.0633523 0.0309306 0.283062 0 0.147751 0.989025
-0.00230737 0.0226355 0.242009 -0.382072 -0.924133 0
0.128984 -0.0310666 0.285148 -0.691407 -0.714578 0.106464
-0.0751156 0.00561215 0.109082 0.370167 -0.645047 -0.668499
-0.0676197 0.233246 0.715041 -0.194465 0.946627 -0.257061
0.0389821 -0.0547946 0.272842 -0.506368 -0.418135 -0.754158
-0.0830649 -0.100875 0.401709 0.012128 -0.0669258 0.997684
0.00692282 0.0568606 0.127392 -0.286231 0.957948 -0.0201685
-0.0574019 -0.085231 0.324603 -5.26133e-08 0.000780644 -1
-0.060893 0.120287 0.283138 2.95893e-05 -0.533527 -0.845783
0.037469 -0.161012 0.346524 -0.00799515 -0.0244358 -0.999669
-0.0150949 0.0748175 0.306602 -0.92358 -0.353687 -0.148003
0.179325 0.0302346 0.406361 0.000694227 0.0656984 0.997839
-0.157178 0.180268 0.619836 -0.430806 0.873372 -0.227218
0.102364 0.0770965 0.284516 0.928867 -0.12938 0.347082
0.00806571 -0.0681679 0.118212 0.991369 0.0320116 -0.127129
-0.0977772 0.132244 0.307464 -1 0 0
0.0214684 0.032923 0.106041 0.99559 0.0932043 -0.0106211
0.0384932 -0.0331497 0.347209 -4.01552e-08 0.000815291 1
0.13228 0.245064 0.0182227 -0.0232515 0.965794 -0.258267
-0.0330846 0.148587 0.381985 -0.100947 0.849215 0.518309
-0.142043 0.148729 0.615863 0.128067 -0.953479 0.272905
-0.132806 -0.143455 0.401446 0.0547392 -0.0812861 0.995186
0.220696 -0.0621156 0.0022598 -0.955297 -0.0765598 -0.285564
0.112913 0.189693 0.582181 0.28454 0.942665 -0.174414
-0.0153844 0.0472989 0.0713411 -0.826191 0.562466 -0.0322452
-0.0846645 0.171638 0.436444 0.129262 -0.77559 -0.617861
-0.0749823 0.122053 0.324763 0.00255956 0.000951708 -0.999996
-0.00351082 -0.211039 0.0238512 0 0.963029 0.269399
-0.103117 0.201893 0.439435 -0.939361 0.342869 0.00643648
-0.234737 -0.0363572 0.0258064 0 0.962874 0.269952
0.0626122 0.0961073 0.347452 -0.0310714 -0.0440973 -0.998544
-0.171256 -0.0683889 0.40787 -0.00377854 -0.0458592 0.998941
-0.100616 0.0854005 0.347112 -8.031e-08 0.000815326 1
-0.172488 0.149538 0.575374 -0.936361 -0.233087 -0.262485
-0.0555912 0.157389 0.483234 0.15495 -0.981737 -0.11038
-0.122099 0.20818 0.0951607 0.212902 0.54625 0.810114
0.00554432 0.0986271 0.396569 -0.00532088 0.078209 0.996923
0.0786901 0.180202 0.6904 -0.172123 -0.929642 0.32579
0.0308759 0.0848773 0.324736 -5.26133e-08 0.000780644 -1
0.112809 0.146553 0.579986 -0.139943 -0.97814 0.15381
-0.00812396 -0.00577486 0.143865 -0.989848 -0.0450526 0.1348
-0.076925 0.210868 0.363801 0.951185 0.304831 0.0482253
0.015314 0.197196 0.460247 0.0701455 0.993291 -0.0919398
0.14117 0.0702166 0.329191 0 0 -1
-0.233775 -0.0352952 0.0738299 -0.430578 0.854006 0.292021
-0.0164966 0.138221 0.36026 -0.085101 0.775229 -0.625921
-0.100928 0.247771 0.788454 -0.119677 0.964154 -0.236823
-0.002765 -0.256785 0.0219212 0 -0.963029 0.269396
0.123884 0.00377013 0.348743 0.0297031 0.0257877 -0.999226
-0.0798606 0.137977 0.0973851 -0.349226 -0.469993 -0.810646
0.105599 -0.148155 0.348889 0.121526 -0.0780281 -0.989517
0.0588951 0.192458 0.520632 -0.126712 -0.979333 0.157639
0.111292 0.239531 0.768805 0.2876 0.905533 -0.311924
0.0234606 -0.00433423 0.345986 0.0292692 0.00339604 -0.999566
0.144055 0.187776 0.63202 0.317752 0.913231 -0.255036
-0.0286288 -0.107224 0.324586 -5.26133e-08 0.000780644 -1
0.0414566 0.0479482 0.400689 -0.012353 0.0777813 0.996894
0.0317719 -0.166134 0.395551 -0.00668047 -0.075253 0.997142
0.121013 0.18288 0.518467 0.287632 0.956655 -0.0456009
0.0602417 -0.0818441 0.347249 -4.01552e-08 0.000815291 1
-0.0582088 0.204036 0.742256 0.166509 -0.914707 0.368221
-0.125549 -0.00720807 0.12706 -0.434881 0.380836 0.815991
-0.0494247 -0.00506639 0.324666 -5.26133e-08 0.000780644 -1
-0.0515803 -0.0908977 0.401673 0.0360069 -0.076694 0.996404
-0.0367063 0.114868 0.348583 -0.041211 0.119066 -0.992031
0.00350166 0.0483969 0.0316954 0.283577 0.957744 -0.0480602
0.0450771 0.143171 0.369402 0.10812 0.749179 -0.653484
-0.0628844 0.214395 0.639318 -0.24248 0.932556 -0.267473
-0.113343 -0.175757 0.363013 -0.374263 -0.717901 -0.58698
0.156379 0.0653982 0.403814 -0.0382738 0.0646747 0.997172
0.0810133 0.0796639 0.259243 -0.509904 -0.0141556 -0.860115
0.0145871 -0.105541 0.324587 -5.26133e-08 0.000780644 -1
-0.0457403 -0.0363473 0.293115 -4.69291e-05 0.147867 0.989007
0.134788 0.159077 0.646043 -0.104697 -0.956029 0.273949
-0.0277054 -0.130143 0.346824 -0.027242 -0.0244275 -0.99933
0.0751814 -0.074342 0.325034 0.389667 0.000749353 -0.920956
0.0443291 0.017891 0.324684 -5.26133e-08 0.000780644 -1
0.108758 0.185567 0.464646 0.206038 0.977893 -0.0356986
0.0761752 0.186338 0.312816 -0.999977 -0.00247488 0.00625114
-0.0845408 0.015244 0.347564 -0.0259321 -0.0087983 -0.999625
0.162096 0.00839136 0.40576 0.00872535 0.0126432 0.999882
0.0988599 0.149791 0.493569 -0.108283 -0.985885 -0.127692
-0.148615 0.0884577 0.401255 -0.00493543 0.122003 0.992518
0.0698188 0.244644 0.817449 -0.0210289 -0.234312 0.971934
-0.00560742 0.160879 0.568736 0.13078 -0.991004 0.0284014
-0.0963972 0.209788 0.47499 -0.472946 0.880953 0.0156046
-0.0775945 -0.0542737 0.347289 -0.0290552 0.00046347 -0.999578
-0.0366548 0.0384888 0.256742 2.57104e-06 -0.00750207 -0.999972
-0.107479 0.209176 0.774409 0.186983 -0.879688 0.437249
0.159335 0.242223 0.023156 -1 0 0
-0.0113796 0.131493 0.278142 -1.7369e-06 0.0313183 -0.99951
-0.090608 -0.0871133 0.331503 -0.389573 -0.000327429 -0.920996
0.101441 0.0410946 0.336216 1 0.000409132 9.9179e-05
-0.0396848 0.00902265 0.286335 0 0.147801 0.989017
-0.13987 0.0222348 0.405962 0.0343787 0.0603796 0.997583
-0.120383 0.119858 0.395296 -0.120839 0.486529 0.865267
0.0137899 0.201778 0.722844 -0.0992616 -0.931365 0.350293
0.119274 -0.0226773 0.406526 0.00872535 0.0126432 0.999882
-0.00108885 0.0553506 0.153464 0.311683 0.950186 0
-0.0443483 0.192643 0.514737 0.0147926 -0.999529 0.0268978
-0.0546111 -0.107871 0.347013 -0.027242 -0.0244275 -0.99933
-0.0314933 -0.0190961 0.346108 -0.0272668 0.00339073 -0.999622
0.0810317 0.000666618 0.287585 0.000209974 0.147919 0.988999
0.0510767 -0.112357 0.316986 1 0 0
-0.0067432 -0.189952 0.392643 -0.0108025 -0.461784 0.886927
0.0819465 0.018332 0.347167 -4.01552e-08 0.000815291 1
-0.137968 0.000679091 0.407201 0.0343787 0.0603796 0.997583
-0.022378 0.00538152 0.259398 -0.0678304 -0.238663 -0.968731
-0.126493 0.23601 0.0164615 1 0 0
-0.102457 0.229699 0.728929 -0.221318 0.938913 -0.263553
0.0691103 0.093549 0.397832 -0.0320509 0.0722634 0.99687
0.151877 0.193947 0.66648 0.389371 0.899253 -0.199332
0.00812757 0.0258322 0.191508 0.924136 -0.382064 0
0.100594 -0.140296 0.399613 -0.0554741 -0.0701284 0.995994
0.00226 0.235676 0.616476 -0.0306299 0.0848116 -0.995926
0.00529392 0.0724309 0.256922 -1.30763e-05 0.0288779 -0.999583
-0.0539802 0.194566 0.463397 -0.13555 0.987845 -0.076078
-0.0548792 -0.134863 0.327152 4.78622e-05 -0.971768 -0.235936
0.12623 -0.0157145 0.117895 -0.180755 -0.930393 0.3189
-0.16517 -0.0270986 0.0912341 0.359318 -0.873691 -0.327957
0.137783 0.240372 0.800116 0.591456 0.787694 -0.172389
0.0650562 0.194254 0.485575 0.150294 0.988348 -0.024094
-0.167926 0.213888 0.00389808 -0.0206915 -0.706938 -0.706972
0.102695 0.208752 0.598474 0.796139 -0.545034 0.262871
0.00750781 0.0103502 0.286137 -6.05288e-05 0.147799 0.989017
0.0556809 0.154084 0.563678 -0.143919 -0.989192 0.0280594
-0.251487 -0.0724447 0.0103521 1 0 0
-0.110781 0.153399 0.465779 0.133136 -0.963724 -0.231322
0.0850303 0.229359 0.606358 -0.144521 0.676332 -0.72228
0.0831013 0.204469 0.754662 -0.167714 -0.910771 0.377316
0.0108233 -0.0590463 0.324624 -5.26133e-08 0.000780644 -1
0.0660592 -0.0829198 0.402198 -0.0120913 -0.0755256 0.99707
-0.121841 0.196635 0.75047 0.104058 -0.919112 0.380006
-0.0868516 -0.00834858 0.329901 -0.381919 0.000691658 -0.924195
0.0613846 0.157014 0.596446 -0.149006 -0.977711 0.147916
0.0421605 0.0103051 0.13856 -0.262654 -0.955267 0.135932
-0.0166418 0.025982 0.32469 -5.26133e-08 0.000780644 -1
0.0474521 -0.0131422 0.289655 0 0.147972 0.988992
0.0858624 0.230025 0.806479 -0.0873684 -0.733785 0.67374
-0.015169 0.0279034 0.0149387 -0.705221 -0.495715 -0.506884
0.113556 -0.110819 0.348042 0.0302953 0.0176362 -0.999385
-0.132232 0.142622 0.549699 0.0870162 -0.995771 -0.029467
0.00165683 0.10048 0.292394 0.382283 0.830686 0.404746
0.0868388 -0.193101 0.383649 0.162942 -0.822172 0.54542
0.00435881 0.14659 0.3876 0.0252737 0.837394 0.546015
0.0168856 0.00236832 0.260315 0 -0.24087 -0.970557
0.0886302 -0.0714213 0.347666 0.0292692 0.00339604 -0.999566
0.151612 0.142829 0.591912 -0.142478 -0.977076 0.158186
0.107769 0.15527 0.459095 -0.129063 -0.960423 -0.246842
-0.00261325 -0.191237 0.0704031 -0.469732 0.527405 -0.707952
-0.00408267 0.0283672 0.402062 0.00251195 0.0782103 0.996934
-0.0673979 0.144477 0.377353 -0.129082 0.990633 -0.0445441
0.0999834 0.202507 0.630279 0.283276 0.943022 -0.174541
-0.00402502 0.216412 0.758702 0.0998987 -0.928005 0.358924
-0.0544999 -0.175832 0.348248 -0.0352231 -0.156931 -0.986981
0.137866 0.10306 0.360978 0.523355 0.56219 -0.640345
0.148614 -0.0236708 0.103521 -0.375113 -0.873213 -0.311111
-0.0113502 0.222912 0.644918 -0.103787 0.968552 -0.226131
-0.139009 -0.15793 0.361959 -0.597584 -0.557959 -0.575825
-0.158159 -0.0962797 0.406177 0.0417931 -0.0524672 0.997748
0.164271 0.154308 0.543947 0.931483 -0.235691 -0.277108
0.100282 0.0329609 0.40345 -0.0494891 0.0732671 0.996084
0.0145265 0.0155432 0.148348 0.305165 -0.952299 0
0.0546611 0.0734692 0.398861 -0.012353 0.0777813 0.996894
0.000952322 0.253899 0.772955 0.0605399 0.98723 -0.147349
0.0989202 0.109637 0.35054 0.0861793 0.272804 -0.958202
0.0668034 -0.131697 0.323574 1 0 0
0.119759 -0.110996 0.402743 -0.0554741 -0.0701284 0.995994
-0.119182 0.220762 0.800785 0.197623 -0.841813 0.502291
-0.0808676 0.00494846 0.142786 -0.0478889 -0.694642 0.71776
-0.141762 -0.0600683 0.407299 0.0336606 -0.0419859 0.998551
0.0735959 0.184018 0.432904 0.109222 0.813571 -0.571116
0.0134945 -0.118376 0.345673 -0.00799515 -0.0244358 -0.999669
-0.103438 0.0845684 0.275851 -0.999919 -0.00444615 0.0119109
-0.125957 0.0493233 0.403384 0.0458484 0.0730661 0.996273
0.0817318 -0.0377202 0.291201 0.890215 -0.112773 0.441362
-0.010998 -0.225957 0.00206324 0 0.259306 -0.965795
-0.0103369 -0.0599921 0.303511 -0.923983 0.171105 0.342021
-0.0962862 0.14708 0.529709 0.145103 -0.989272 0.0168825
-0.055714 -0.101586 0.279574 0 -0.705208 -0.709
-0.156036 -0.151691 0.374405 -0.668821 -0.464116 -0.580753
-0.0442381 0.0174885 0.157366 -0.0478889 -0.694642 0.71776
0.146408 0.216979 0.742119 0.586432 0.778565 -0.223459
-0.0722296 -0.0508459 0.295287 -0.000135814 0.147837 0.989012
-0.151324 0.201755 0.701436 -0.314313 0.925562 -0.211049
-0.00413135 -0.159867 0.0851823 -0.516106 0.194407 -0.83417
0.100431 0.218345 0.354216 0.521987 0.842035 0.136037
-0.105275 0.0455345 0.264388 -0.889601 -0.0675847 -0.451711
0.00121038 -0.0367843 0.280372 0.382715 -0.413794 -0.826017
-0.0338693 0.253457 0.816427 -0.0450842 0.929364 0.366401
-0.0868385 -0.0425938 0.405739 0.0637889 -0.0707189 0.995455
-0.0838198 0.14997 0.573711 0.154315 -0.976903 0.147809
-0.0547713 0.0992371 0.324747 -5.26133e-08 0.000780644 -1
0.00817045 0.200187 0.488971 0.0756077 0.994175 -0.0768077
-0.0838396 -0.143536 0.398787 0.0360069 -0.076694 0.996404
-0.156726 -0.0772053 0.29428 0.000381483 -0.147597 -0.989048
-0.0918273 0.174997 0.291209 0 0.368035 -0.929812
0.153326 0.21432 0.0407584 0 -0.248201 0.968709
-0.0244278 0.158293 0.506791 0.10872 -0.987884 -0.110745
0.00993475 0.0937562 0.347106 -8.43151e-08 0.000855988 1
0.00363385 -0.128903 0.113755 0.528653 -0.283321 0.800159
0.0712686 0.222712 0.680001 0.202616 0.942244 -0.266689
0.0995843 0.0651728 0.401046 -0.0494891 0.0732671 0.996084
0.0140233 0.0388639 0.401303 -0.00532088 0.078209 0.996923
-0.00153572 -0.0854074 0.131403 -0.497286 -0.295763 0.815617
0.0215348 -0.220353 0.0120614 0.955594 0.208508 -0.20824
0.102695 0.134494 0.387656 0.201801 0.845409 0.49453
-0.0475518 0.0562373 0.324714 -5.26133e-08 0.000780644 -1
-0.124021 0.122257 0.370283 -0.366677 0.666353 -0.649247
0.122079 0.0775924 0.348479 0.0437111 0.00224082 -0.999042
-0.196333 -0.0539073 0.391194 -0.955554 -0.0405215 -0.292019
-0.0470302 0.178547 0.669902 0.126861 -0.937017 0.325433
-0.151528 0.22313 0.791575 -0.987282 0.0676687 0.143858
-0.135396 0.170692 0.45829 -0.776411 0.59517 -0.207264
0.0952572 0.0375884 0.282066 0 0.147622 0.989044
0.0581771 0.166865 0.299003 -5.52332e-05 0.995915 -0.0902993
0.0749096 -0.0159286 0.347372 0.0269426 0.000444674 -0.999637
0.0307414 0.155838 0.31131 8.74787e-06 -0.157734 0.987482
-0.10348 0.182797 0.710666 0.169386 -0.939289 0.298405
-0.139019 -0.0376643 0.349082 -0.0290552 0.00046347 -0.999578
0.0596764 0.162782 0.458937 -0.14817 -0.954475 -0.25889
-0.0732741 0.00436472 0.261821 -0.165178 -0.145748 -0.975435
0.0351053 -0.188736 0.35233 0.133969 -0.84776 -0.513181
-0.0276864 0.0928137 0.397123 0.00535318 0.0774834 0.996979
0.149614 0.0412873 0.330074 0.000147352 -0.961462 0.274937
-0.162872 0.233133 0.038955 0 0.258409 0.966036
-0.150524 0.166018 0.673607 0.0730094 -0.943232 0.324011
0.039502 -0.0674111 0.346241 0.0292692 0.00339604 -0.999566
0.0139529 0.165084 0.606397 -0.132708 -0.979537 0.151313
-0.0259919 0.214635 0.613169 -0.107445 0.975832 -0.190285
0.119282 0.196331 0.748188 -0.0786513 -0.921478 0.380385
0.0083292 0.0388852 0.236054 0.923712 0.383088 0
0.0819582 0.111329 0.396956 -0.0320509 0.0722634 0.99687
-0.0827436 0.0701578 0.400103 0.0123323 0.0711045 0.997393
0.0174116 0.126317 0.34972 0.0541644 0.250618 -0.96657
0.0777216 0.078344 0.347118 -8.031e-08 0.000815326 1
0.0676972 0.171356 0.658084 -0.140189 -0.943792 0.299339
0.14286 0.162981 0.471026 0.953628 0.0548123 -0.295956
-0.00328054 0.168589 0.45686 0.098411 -0.968845 -0.227274
-0.0231118 0.193862 0.705626 0.11711 -0.929547 0.349609
0.00598702 0.16186 0.488976 -0.108474 -0.989268 -0.0978924
0.0802601 -0.019622 0.266923 -5.64934e-05 -0.147743 -0.989026
-0.0495391 0.203468 0.569661 -0.219046 0.972067 -0.0842859
-0.185533 0.00141592 0.407674 -0.553136 0.0690761 0.830222
0.109939 0.216592 0.694084 0.346306 0.908186 -0.235097
-0.0950954 0.190007 0.507104 -0.220466 0.974988 -0.0281738
0.170281 -0.128034 0.402195 0.448535 -0.344536 0.824689
0.000847289 0.239269 0.708568 0.0831178 0.967352 -0.23942
0.0630388 0.108456 0.111886 0.789093 -0.602073 -0.121816
-0.0434557 -0.00118621 0.404637 0.0309167 0.0785791 0.996428
-0.124446 0.0744039 0.348717 -0.0406057 -0.0234693 -0.9989
0.262378 -0.0439305 0.0295692 0.956019 0.207626 0.207171
0.12196 0.215768 0.793138 -0.201488 -0.848663 0.489053
-0.00668894 -0.0352502 0.345377 -0.0272668 0.00339073 -0.999622
0.101364 -0.0861256 0.336057 0.38275 -0.000107905 -0.923852
0.0174974 -0.113318 0.399441 -0.00668047 -0.075253 0.997142
0.0367237 0.0689385 0.136862 0.827371 -0.54505 0.135566
0.154617 0.00693641 0.351297 0.171557 0.000469522 -0.985174
0.0313051 0.128356 0.299662 2.2295e-05 -0.401705 0.915769
0.149573 0.200904 0.766048 0.0521683 -0.92379 0.379328
0.157304 0.167786 0.677624 0.225901 -0.911736 0.343084
0.0909501 0.152602 0.597273 -0.153971 -0.975868 0.154836
0.0244173 0.0791462 0.125573 -0.820838 0.556953 -0.126602
0.0891997 0.21214 0.456035 0.00170449 0.999831 0.0183279
0.166606 -0.122636 0.368254 0.727327 -0.211415 -0.652916
0.133409 0.234711 0.0411035 -7.461e-05 0.248201 0.968709
0.00974171 -0.0797139 0.304335 0.923983 -0.171223 -0.341963
-0.0580915 0.135517 0.302806 2.22784e-05 -0.401704 0.915769
-0.098027 0.209635 0.547394 -0.422378 0.903505 -0.0726305
0.162582 -0.0744159 0.293865 -0.000326033 -0.147689 -0.989034
-0.0643169 0.0675571 0.324723 -5.26133e-08 0.000780644 -1
0.0290021 -0.0130281 0.32466 -5.26133e-08 0.000780644 -1
-0.177794 -0.0101866 0.367021 -0.698157 0.0328787 -0.715189
-0.0812059 0.14784 0.12309 0.228024 0.531367 0.815876
-0.137365 0.178768 0.559705 -0.478377 0.875368 -0.0699053
0.138358 -0.16409 0.397537 0.208579 -0.489428 0.846732
0.0437221 -0.131092 0.347289 -4.01552e-08 0.000815291 1
0.103954 0.197255 0.507012 0.615103 -0.787814 0.0315961
-0.133916 0.0102207 0.348889 -0.0259321 -0.0087983 -0.999625
-0.0786211 0.158594 0.619052 0.144076 -0.952705 0.267573
0.0900436 0.143956 0.306504 2.2295e-05 -0.401705 0.915769
-0.0469873 0.111048 0.127984 0.774078 0.618426 0.135466
-0.153725 0.140542 0.556742 -0.452222 -0.878554 -0.153746
0.0681247 -0.108108 0.287529 -0.999384 -0.0244773 -0.025156
-0.0680124 -0.115054 0.32366 1 0 0
0.0838411 0.143164 0.123186 0.575521 -0.0523269 0.816111
0.0380159 0.0432322 0.347209 0.0297031 0.0257877 -0.999226
-0.0665915 0.152216 0.560319 0.155781 -0.987402 0.0277459
0.0188544 0.137814 0.32478 -6.41427e-08 0.000951711 -1
0.0825549 -0.00230509 0.127993 -0.262654 -0.955267 0.135932
-0.138822 0.208681 0.0282757 -1 0 0
0.176649 -0.0295676 0.0868905 -0.34426 -0.429974 -0.83463
-0.0209986 -0.0743123 0.347243 -4.01552e-08 0.000815291 1
-0.169296 -0.0844595 0.361274 -0.705248 -0.110761 -0.700255
-0.0507237 -0.101876 0.30648 -0.999514 0.0194138 -0.024395
0.0123451 0.0277818 0.324691 -5.26133e-08 0.000780644 -1
-0.128078 0.146287 0.592656 0.142217 -0.977786 0.153979
0.0394317 -0.0516193 0.404247 -0.0120913 -0.0755256 0.99707
0.0206666 0.0492475 0.155691 0.827371 -0.54505 0.135566
-0.0836936 0.167446 0.652897 0.140125 -0.951982 0.272205
-0.136478 0.17552 0.516313 -0.514246 0.852767 -0.091323
0.00669356 0.227894 0.78805 -0.0660276 -0.916991 0.393405
-0.0175093 0.185295 0.431875 0.0232335 -0.409245 -0.912129
0.214142 -0.0317576 0.0729493 -0.302342 0.638295 -0.707933
-0.0113743 -0.237902 0.0424521 7.45504e-05 -0.248001 0.96876
0.0011319 0.215175 0.602105 0.107274 0.977476 -0.181748
-0.0765418 0.180874 0.322635 0.928783 -0.13643 0.344599
0.0732602 -0.121778 0.399723 -0.0374875 -0.0688154 0.996925
0.0408703 0.160178 0.476824 -0.0982629 -0.961963 -0.254897
0.0389088 0.156923 0.503478 -0.0982644 -0.989001 -0.110547
-0.0710999 -0.151662 0.347037 0.0506023 0.10711 -0.992959
0.0900629 0.154135 0.284329 -4.17885e-05 0.376747 -0.926316
-0.105912 -0.0465814 0.289403 0.691479 -0.714514 0.106425
0.13907 0.218277 0.0658411 0.281565 -0.726583 -0.626736
0.0462005 0.218683 0.772813 -0.102436 -0.906254 0.410134
0.175057 -0.0520932 0.408605 0.0031693 -0.0457958 0.998946
0.014496 0.256265 0.807624 0.042149 0.999079 -0.00807606
-0.0164798 -0.145157 0.346885 -0.027242 -0.0244275 -0.99933
-0.0512476 0.254658 0.796487 -0.0456912 0.998916 -0.00886141
-0.0977331 0.206453 0.595583 0.00505244 -0.900367 0.435103
0.131308 0.188277 0.731163 -0.0786513 -0.921478 0.380385
-0.111636 0.191452 0.589495 -0.283489 0.942959 -0.174535
0.04197 0.206116 0.742365 -0.0992616 -0.931365 0.350293
0.0231051 0.192852 0.510775 -0.0145908 -0.999559 0.0258643
-0.0225588 -0.125277 0.398626 0.00661709 -0.0763484 0.997059
-0.168846 -0.04263 0.292317 -3.11178e-05 0.14799 0.988989
-0.0263026 -0.0846575 0.401727 0.00226794 -0.0750237 0.997179
-0.178923 -0.0336914 0.367789 -0.696995 -0.0096902 -0.717011
0.0826102 0.155856 0.471344 -0.14817 -0.954475 -0.25889
-0.00477626 0.134368 0.3023 2.2295e-05 -0.401705 0.915769
0.00848117 -0.0225031 0.13295 0.991369 0.0320116 -0.127129
0.178119 0.00490606 0.367945 0.700345 0.0332806 -0.713028
0.0336325 0.213565 0.612421 0.102279 0.976374 -0.190349
-0.10336 0.216281 0.606482 -0.968161 0.0912321 0.233111
0.0810222 -0.15722 0.346586 0.121526 -0.0780281 -0.989517
-0.145171 0.226146 0.085733 -0.680645 -0.186746 0.708413
-0.0252087 0.0757335 0.263501 -1 0 0
0.0587112 0.0219826 0.126233 0.275932 0.952756 -0.126951
0.0540505 -0.0271275 0.324649 -5.26133e-08 0.000780644 -1
-0.235927 -0.0811876 0.0231894 0 -0.962874 0.269951
0.0303159 0.0546623 0.277398 0 0.960134 0.279539
0.0455749 0.224266 0.665447 0.104 0.967128 -0.232051
-0.125222 -0.0121641 0.0984894 0.370167 -0.645047 -0.668499
-0.147449 0.244831 0.0549002 0.521744 0.852914 -0.017909
-0.080048 0.12163 0.395642 0.0223487 0.125953 0.991784
-0.0227188 0.229334 0.677159 -0.0974207 0.967897 -0.231699
0.178528 -0.095491 0.372883 0.695498 -0.155311 -0.701542
-0.0467076 -0.082145 0.347249 -4.01552e-08 0.000815291 1
0.234575 -0.0436956 0.0516873 -0.999351 -0.0188021 0.0307388
0.0135477 -0.196181 0.361716 0.0615562 -0.857147 -0.51138
-0.0851865 0.193053 0.544809 0.0536355 -0.994296 0.0921898
-0.155391 -0.154633 0.397206 -0.311149 -0.444831 0.839828
-0.00175504 -0.0800996 0.401947 0.00661709 -0.0763484 0.997059
0.0881303 -0.0117085 0.330564 0.389667 0.000749353 -0.920956
0.000245145 0.0434416 0.206655 0.382493 0.923958 0
0.0240602 0.175579 0.652227 -0.124458 -0.958093 0.258008
-0.0665492 0.0539637 0.268658 0 0.989125 -0.147078
0.161942 0.0532247 0.357546 0.690158 0.133649 -0.71121
0.0944124 0.167067 0.113743 -0.261001 0.539846 0.800278
0.255296 -0.0803927 0.025926 0 -0.962997 0.26951
-0.255863 -0.0500457 0.0414025 0 0.248198 0.968709
0.046631 -0.191318 0.390786 0.0360375 -0.46115 0.88659
-0.0150096 0.0670947 0.134709 0.816471 0.56433 -0.122096
0.103344 0.162244 0.312685 0.999919 -0.0046809 0.0118232
0.132654 -0.158266 0.35613 0.482183 -0.655419 -0.581314
-0.0462188 0.161184 0.609412 0.13287 -0.979989 0.148211
0.115247 0.036079 0.348465 -0.0310714 -0.0440973 -0.998544
-0.0726412 0.0748094 0.347121 -8.031e-08 0.000815326 1
0.127413 -0.0430071 0.406713 0.00872535 0.0126432 0.999882
-0.0865251 0.213043 0.430908 0.476835 0.874705 0.0867125
-0.159724 0.188686 0.674893 -0.764386 0.635999 -0.105922
0.101216 0.180911 0.703908 -0.140189 -0.943792 0.299339
0.128036 0.178134 0.461019 0.5667 0.821172 -0.0672887
0.107769 0.171863 0.433738 0.0901897 -0.109773 -0.989856
0.105327 -0.015262 0.288232 0.000126464 0.147839 0.989011
-0.0220402 -0.169942 0.395202 0.00661709 -0.0763484 0.997059
-0.162564 0.0844792 0.370211 -0.63081 0.410879 -0.658223
0.0765797 0.152369 0.58151 -0.153971 -0.975868 0.154836
0.0896578 0.157212 0.619901 -0.143682 -0.951569 0.271796
0.163565 0.153236 0.62993 0.536762 -0.777507 0.327674
-0.10107 0.104163 0.335861 -0.381919 0.000691658 -0.924195
-0.08469 0.0376505 0.329042 -0.381919 0.000691658 -0.924195
0.0526194 -0.151409 0.396902 -0.0374875 -0.0688154 0.996925
0.0186419 0.051755 0.256652 0.0177739 0.018372 -0.999673
0.136617 0.00582236 0.406015 0.00872535 0.0126432 0.999882
-0.0301435 0.198823 0.495278 -0.0757795 0.995017 -0.0648008
-0.00623417 -0.0801177 0.106111 -0.992341 0.0231435 -0.121338
-0.1035 0.194219 0.313811 -0.999919 -0.00480811 0.0117426
0.168459 -0.0162113 0.407147 -0.447263 0.00521238 0.894387
0.0649785 -0.0163698 0.265763 0.00745082 -0.201533 -0.979453
-0.119126 0.203054 0.6582 -0.294324 0.925692 -0.23763
-0.0773157 -0.124598 0.347284 -4.01552e-08 0.000815291 1
-0.220172 -0.0451631 0.00980568 0.955576 0.208414 -0.208416
0.0947643 0.211033 0.548152 0.422286 0.904574 -0.0584906
-0.118924 0.182669 0.465559 -0.356155 0.934427 0.000556112
0.0299293 0.20492 0.561998 0.11232 0.986518 -0.119026
-0.128119 0.184437 0.578574 -0.28466 0.942261 -0.176388
0.01528 0.0965383 0.260926 0.0601415 0.51116 -0.857379
0.0835768 0.0645549 0.280541 0 -0.326928 0.945049
0.0223007 -0.246084 0.0240145 0.956009 -0.283261 0.0762275
-0.0715698 -0.0958432 0.310843 -0.999502 0.0193592 -0.0249251
-0.108995 -0.0958686 0.348202 -0.027242 -0.0244275 -0.99933
-0.0768821 0.191753 0.424093 0.912078 -0.408538 -0.0347908
0.0812915 0.100591 0.266215 -0.521441 0.298279 -0.799455
-0.160967 -0.00773611 0.408503 0.0343787 0.0603796 0.997583
-0.0509599 0.205724 0.529731 0.0201651 0.324424 0.945697
0.0804839 -0.0118212 0.405836 -0.012353 0.0777813 0.996894
-0.0757978 0.220561 0.673528 -0.198262 0.951316 -0.235986
-0.0208638 0.0271098 0.0701532 -0.992466 0.118443 -0.03134
-0.0176122 0.180648 0.664485 0.126861 -0.937017 0.325433
0.00767865 0.0524254 0.0734108 0.279393 0.95963 -0.0324018
-0.0557683 0.0948652 0.397445 0.0309167 0.0785791 0.996428
-0.126524 0.190529 0.608894 -0.284094 0.943649 -0.169759
0.121297 0.198694 0.643473 0.296537 0.916726 -0.267729
-0.128581 0.216631 0.0713137 0.7777 0.0428937 -0.62717
-0.101506 -0.00162253 0.34401 -1 -8.58341e-05 -2.08073e-05
0.0787997 0.21786 0.355906 -0.515504 0.845953 0.136451
0.109332 0.146066 0.546097 -0.0715017 -0.997346 0.0137085
0.0964377 0.250166 0.813344 0.0919195 0.93068 0.354099
0.0625224 0.0875328 0.324738 -5.26133e-08 0.000780644 -1
0.0479891 0.0849766 0.132591 0.827371 -0.54505 0.135566
-0.136597 0.238565 0.789032 -0.594241 0.767141 -0.241603
0.0992762 0.000539141 0.101492 -0.363041 -0.654352 -0.663343
-0.103828 0.0875638 0.399561 0.0458484 0.0730661 0.996273
-0.0627134 0.00342437 0.347179 -8.031e-08 0.000815326 1
0.00929642 -0.137574 0.347294 -4.01552e-08 0.000815291 1
-0.020967 0.0182358 0.157118 -0.394747 -0.918642 0.0165183
-0.085066 0.1417 0.324756 0.00255956 0.000951708 -0.999996
0.0769748 0.203216 0.439752 -0.939132 0.343535 0.00383743
0.11737 -0.054693 0.294127 -0.000794456 0.147118 0.989119
-0.0441896 0.0923731 0.108458 -0.349226 -0.469993 -0.810646
-0.0769213 0.212691 0.341817 0.950871 0.309423 -0.010113
0.0765514 0.122947 0.283507 -0.951048 0.108089 -0.289523
0.102653 0.213829 0.674648 0.296537 0.916726 -0.267729
0.0547628 -0.102172 0.346413 0.0302953 0.0176362 -0.999385
0.00243583 -0.0830797 0.324605 -5.26133e-08 0.000780644 -1
-0.102063 0.202242 0.498697 -0.970263 0.24142 0.0174929
0.066543 0.206747 0.503922 -0.0732858 0.918548 -0.388456
-0.0346081 -0.085289 0.324603 -5.26133e-08 0.000780644 -1
0.0797599 0.211319 0.40845 -0.476948 0.875414 0.0785603
-0.0627127 0.00630986 0.145515 -0.106185 -0.590142 0.800285
0.0394155 0.0233148 0.157833 0.447086 0.534538 0.717206
-0.0533985 0.16833 0.446708 0.0575119 -0.784664 -0.617248
0.0361052 0.0147547 0.34717 -4.01552e-08 0.000815291 1
-0.0884977 0.0537306 0.257698 0 0.214012 -0.976831
0.158697 0.183721 0.719054 0.225901 -0.911736 0.343084
-0.0379681 -0.0175252 0.265305 -0.00413603 -0.24081 -0.970563
-0.124069 -0.0319769 0.28752 -0.000121017 -0.147652 -0.989039
-0.0290797 0.0139877 0.347171 -8.031e-08 0.000815326 1
-0.144066 0.0880499 0.354614 -0.607326 0.47443 -0.637238
0.173529 0.145862 0.591261 0.973865 -0.216046 -0.0700811
-0.0666747 0.198641 0.558533 -0.219046 0.972067 -0.0842859
0.00383565 0.0593845 0.30845 0.38257 -0.83948 -0.385893
-0.126438 0.146805 0.490877 0.10821 -0.983154 -0.147303
0.128821 0.207846 0.0308194 -0.955303 -0.209037 0.209045
0.102496 0.1915 0.531695 0.889707 -0.455112 0.0359924
0.196463 -0.0259191 0.387673 0.956638 -0.0414353 -0.288318
-0.0554856 -0.0555868 0.272289 0 -0.147716 -0.98903
-0.0375903 0.0607696 0.399667 0.00535318 0.0774834 0.996979
0.160807 0.165257 0.5668 0.700756 0.700165 -0.136784
0.136605 0.173558 0.487231 0.508335 0.86055 -0.0324009
0.00881252 0.0181605 0.0458222 0.255426 -0.965626 -0.0482082
0.00797019 0.151527 0.309827 2.22784e-05 -0.401704 0.915769
0.101479 0.0875637 0.344003 0.999967 3.63038e-05 -0.00809708
-0.0142119 0.0880945 0.288109 -0.480524 -0.190436 0.856055
0.0617089 0.252215 0.784195 0.11817 0.975817 -0.183895
-0.0152927 0.106257 0.347703 0.000158147 0.0257964 -0.999667
0.0141695 -0.0767438 0.347245 -4.01552e-08 0.000815291 1
0.0789503 0.109214 0.296934 0 -0.349666 0.936875
-0.0560467 0.0466026 0.347144 -8.031e-08 0.000815326 1
0.117975 0.161745 0.648928 -0.104697 -0.956029 0.273949
0.170446 0.230066 0.0356631 0.955679 0.0763051 0.28435
-0.192965 0.028892 0.393932 -0.954997 0.164703 0.246685
0.0178131 0.0858424 0.283284 0.923387 0.334355 0.188584
-0.0810555 0.114655 0.27163 0.521548 0.298342 -0.799362
-0.164168 0.169221 0.593532 -0.714539 0.664838 -0.21777
0.102193 0.195327 0.56228 -0.00470197 -0.963331 0.268275
-0.00601116 0.159736 0.548013 0.106565 -0.9928 0.0546945
0.0623712 0.119827 0.350187 0.0429526 0.256734 -0.965527
0.101549 0.0948059 0.291557 0 -0.349666 0.936875
-0.093058 0.0348584 0.347154 -8.031e-08 0.000815326 1
0.10602 0.00617926 0.285022 0 0.147701 0.989032
0.0459092 0.170571 0.644374 -0.132627 -0.954371 0.267557
0.0149417 -0.213032 0.0309463 0 0.962552 0.271096
0.111598 0.116559 0.397006 -0.0111815 0.146303 0.989177
-0.0659087 -0.0175037 0.324656 -5.26133e-08 0.000780644 -1
0.0854029 -0.0926562 0.347258 -4.01552e-08 0.000815291 1
-0.0719788 0.142791 0.324785 -6.41427e-08 0.000951711 -1
0.0368003 0.158858 0.286253 -4.17885e-05 0.376747 -0.926316
0.0475558 -0.115214 0.29519 0 -0.833078 -0.553156
-0.00991423 0.167929 0.617314 0.132888 -0.957037 0.257723
0.101483 -0.0625842 0.337902 1 0.000409132 9.9179e-05
-0.0856718 0.217767 0.38237 0.515502 0.845631 0.138444
-0.00652918 0.235428 0.805367 0.053411 -0.917685 0.393703
-0.0433519 0.155031 0.538485 0.13078 -0.991004 0.0284014
0.0085275 0.0729506 0.3986 -0.00532088 0.078209 0.996923
-0.164447 0.15377 0.628834 -0.537196 -0.781706 0.316789
-0.0102613 -0.245842 0.00620899 1 0 0
0.0535168 0.207768 0.527405 -0.0169949 0.915967 0.400894
-0.0154048 0.0175272 0.118396 -0.259402 -0.876111 -0.406374
0.0492689 0.240697 0.731148 0.0831178 0.967352 -0.23942
0.114707 0.0745097 0.329511 -0.00014732 0.961611 0.274416
-0.0735057 0.189639 0.512344 0.0539627 -0.990113 0.129473
0.120619 0.0260409 0.40497 -0.0494891 0.0732671 0.996084
0.034819 0.0948602 0.127262 -0.820838 0.556953 -0.126602
-0.0204427 -0.170029 0.347601 -0.027242 -0.0244275 -0.99933
-0.0328724 0.092414 0.132396 0.774078 0.618426 0.135466
-0.113729 0.184517 0.495716 -0.297112 0.95477 0.0117558
0.191645 0.0232939 0.382938 0.935 0.1398 -0.325932
0.0469455 0.0703043 0.324725 -5.26133e-08 0.000780644 -1
0.0811764 0.00528721 0.263202 -5.64934e-05 -0.147743 -0.989026
0.0176487 0.193693 0.703305 -0.118115 -0.921971 0.368806
-0.0913532 -0.022902 0.289371 -1.96778e-05 0.147767 0.989022
0.188219 -0.0276988 0.103098 0.43279 0.415198 0.80019
-0.0782181 0.200362 0.588973 -0.220223 0.959397 -0.176234
-0.147557 0.248235 0.0211843 0 0.249619 -0.968344
0.00148059 -0.209416 0.0875518 0.547622 -0.254763 0.796998
-0.0556318 0.0828912 0.347093 0.000158147 0.0257964 -0.999667
0.0506766 0.254712 0.80432 0.042149 0.999079 -0.00807606
-0.117939 0.0169175 0.405391 0.0458484 0.0730661 0.996273
-0.0561726 -0.142592 0.39786 0.0360069 -0.076694 0.996404
-0.0580817 0.240605 0.734925 -0.194465 0.946627 -0.257061
0.0613132 0.228469 0.797602 -0.111304 -0.897488 0.426764
-0.0699765 0.185391 0.699815 0.169386 -0.939289 0.298405
-0.113485 0.187039 0.560375 -0.287795 0.956223 -0.0530146
-0.08167 0.235535 0.734098 -0.194465 0.946627 -0.257061
-0.129897 -0.018212 0.348826 -0.0290552 0.00046347 -0.999578
0.0053743 0.162982 0.58527 -0.132708 -0.979537 0.151313
0.0774288 -0.136123 0.347293 -4.01552e-08 0.000815291 1
0.0163612 0.0556082 0.111217 -0.305051 0.861638 -0.405616
0.0466192 -0.0674197 0.295734 -0.781834 -0.400121 0.478162
-0.100068 0.189083 0.457328 0.00161128 -0.999907 -0.013567
-0.0547202 0.0136399 0.112629 0.370167 -0.645047 -0.668499
0.12343 -0.018285 0.348679 0.0269426 0.000444674 -0.999637
-0.0720597 -0.0249781 0.406666 0.012128 -0.0669258 0.997684
0.151254 0.177877 0.599603 0.445112 0.883836 -0.143906
-0.102314 0.197295 0.60599 -0.284094 0.943649 -0.169759
0.0665989 0.234311 0.718508 0.201239 0.945149 -0.257287
0.0982981 0.0711185 0.264548 0.998883 -0.046232 0.00981138
-0.0309642 0.209092 0.521534 0.0146161 0.999891 -0.00192782
-0.105789 -0.0327492 0.407235 0.0336606 -0.0419859 0.998551
-0.156321 0.0414212 0.405361 0.0458484 0.0730661 0.996273
-0.103487 0.145801 0.295074 -0.999919 -0.00481369 0.0117721
-0.0045448 -0.0690903 0.324616 -5.26133e-08 0.000780644 -1
-0.0764854 -0.0684409 0.325572 -0.381919 0.000691658 -0.924195
0.170586 0.0686849 0.341865 0.970921 0.225586 0.0801462
-0.00721905 -0.0170289 0.405631 0.00251195 0.0782103 0.996934
0.168398 -0.0816141 0.360101 0.715572 -0.0518988 -0.696609
-0.0737429 0.0424327 0.401969 0.0123323 0.0711045 0.997393
0.0879963 0.173944 0.322185 0 -0.368124 0.929777
-0.241031 -0.0512835 0.0298642 0 0.706303 0.70791
0.12921 0.208669 0.691866 0.346306 0.908186 -0.235097
0.0810504 -0.0455957 0.27369 0.890312 -0.237039 -0.38879
0.149383 0.162884 0.502062 0.768333 0.62438 -0.140761
0.12094 0.0588285 0.350913 -5.86319e-05 0.382569 0.923927
-0.0873826 0.0227649 0.282839 0 -0.464805 0.885413
-0.00215809 0.166522 0.295259 -5.52332e-05 0.995915 -0.0902993
-0.183639 -0.0316386 0.101486 -0.106185 -0.590142 0.800285
0.091765 0.189485 0.436115 -0.00120455 -0.996642 -0.0818715
-0.0405953 0.172727 0.649786 0.124845 -0.955329 0.26788
0.098872 -0.080328 0.403739 -0.0554741 -0.0701284 0.995994
0.0150653 -0.160585 0.346692 -0.00799515 -0.0244358 -0.999669
-0.0365304 0.206453 0.742293 0.100437 -0.924067 0.3688
0.0762371 0.191972 0.531387 -0.05406 -0.990261 0.128298
0.100218 0.174452 0.683076 -0.140189 -0.943792 0.299339
-0.0891679 0.0635749 0.34713 -8.031e-08 0.000815326 1
-0.0940238 0.197489 0.362026 0 -0.986787 -0.162024
-0.0684651 -0.0928155 0.347258 -8.031e-08 0.000815326 1
0.0509491 -0.0985861 0.306552 0.998421 0.0560843 -0.00303649
0.173529 0.0750941 0.400527 0.440365 0.320027 0.838845
-0.00806968 0.0513688 0.34714 -8.031e-08 0.000815326 1
-0.103555 0.171227 0.67429 0.169386 -0.939289 0.298405
0.109172 0.146153 0.512119 -0.123685 -0.983319 -0.133362
-0.134377 0.0341216 0.349969 -0.12404 0.0521957 -0.990903
-0.0559313 0.0215811 0.257373 -0.107314 -0.00745874 -0.994197
-0.00870806 0.0901686 0.256673 -0.0601466 0.510511 -0.857765
0.0897979 0.189348 0.296885 0 0.368035 -0.929812
0.112014 0.1977 0.0866761 -0.804018 0.495098 -0.329293
-0.00686514 -0.127232 0.346185 -0.027242 -0.0244275 -0.99933
0.103366 0.195036 0.417568 0.999899 -0.0140647 -0.00200572
-0.0732564 -0.0381958 0.347183 -0.0272668 0.00339073 -0.999622
-0.00350548 0.0975134 0.324746 -5.26133e-08 0.000780644 -1
0.0261128 0.233201 0.693837 0.0990032 0.961768 -0.255345
-0.00858694 0.0157668 0.347169 -8.031e-08 0.000815326 1
0.0371469 0.140434 0.390188 0.0331703 0.448549 0.893143
-0.00847194 -0.0562543 0.347228 -4.01552e-08 0.000815291 1
0.0744926 0.0445356 0.28103 0 0.147622 0.989044
-0.105423 -0.189121 0.382455 -0.291643 -0.955087 -0.0524733
-0.151448 0.17224 0.574335 -0.478377 0.875368 -0.0699053
-0.0272343 0.247754 0.751609 -0.0645495 0.97333 -0.220139
-0.144511 0.143738 0.511379 -0.452222 -0.878554 -0.153746
-0.141475 0.221025 0.74856 -0.580127 0.757093 -0.300437
0.0943885 0.189175 0.48097 0.227132 0.972614 0.0493182
0.086791 0.0574943 0.330003 0.38275 -0.000107905 -0.923852
0.238204 -0.0647696 0.0104964 0 -0.707909 -0.706303
0.15467 0.0965551 0.399358 0.315559 0.419112 0.851333
-0.175505 0.0337633 0.368071 -0.704626 0.0717736 -0.70594
0.0756029 0.202264 0.595316 0.227167 0.957817 -0.176016
-0.0246531 0.216011 0.763406 0.0998987 -0.928005 0.358924
0.0557312 0.00422263 0.287056 0.000256995 0.147972 0.988991
0.00379443 0.0357296 0.255626 0.0209741 0.049023 -0.998577
0.0948334 -0.00258976 0.347915 0.0269426 0.000444674 -0.999637
-0.0950999 -0.148791 0.347588 -0.120283 -0.0827807 -0.989282
0.162907 -0.0555374 0.294249 -0.000465773 0.147717 0.98903
-0.0988993 -0.0609694 0.335 -0.389573 -0.000327429 -0.920996
-0.103209 -0.148891 0.399236 0.0637889 -0.0707189 0.995455
-0.0454878 0.0960705 0.146824 0.228024 0.531367 0.815876
0.0864619 0.122903 0.318825 0 -0.978084 0.208211
-0.186556 -0.0219051 0.408688 0.431359 0.0059166 0.902161
0.137152 -0.0750033 0.349023 0.0269426 0.000444674 -0.999637
0.126463 0.225577 0.0207103 -1 0 0
0.00603977 -0.00195889 0.345484 0.0292692 0.00339604 -0.999566
-0.00453965 -0.229087 0.0313586 0 0.259448 0.965757
0.155459 0.227714 0.00918708 -0.000125941 0.258755 -0.965943
-0.0619066 0.147183 0.281507 -2.09033e-05 0.376909 -0.92625
0.00375824 -0.0192675 0.286039 0.384043 0.413545 0.825525
0.22459 -0.0540837 0.0423776 -1 0 0
-0.0159007 0.207708 0.570994 -0.11263 0.975345 -0.189781
-0.160929 0.0540507 0.344414 -0.00462214 -2.54285e-06 0.999989
-0.0643039 -0.000442345 0.404908 0.0123323 0.0711045 0.997393
-0.139342 0.0542578 0.339822 -0.247575 0 -0.968869
0.06978 0.211373 0.635354 0.23986 0.941422 -0.237048
0.141678 -0.00814542 0.0958071 0.0794059 0.738991 -0.669019
0.137102 0.113435 0.395736 0.185844 0.479664 0.857545
-0.0565545 0.250819 0.774489 -0.0622871 0.982305 -0.176627
0.0320365 0.255515 0.795185 0.0451485 0.998972 0.00398653
0.184174 -0.0983369 0.402893 0.536341 -0.16854 0.827002
-0.101168 0.210617 0.568482 -0.903139 0.420167 -0.0883198
-0.00605326 -0.137821 0.397556 0.00661709 -0.0763484 0.997059
-0.0411179 -0.0241074 0.324651 -5.26133e-08 0.000780644 -1
0.102054 0.13128 0.283156 0.951099 0.108017 -0.289384
-0.121237 0.197176 0.0808881 -0.349226 -0.469993 -0.810646
0.138073 0.159497 0.45526 0.919537 0.0537582 -0.389308
0.0391084 -0.00516281 0.404804 -0.012353 0.0777813 0.996894
0.139319 -0.0428039 0.292339 0.00100761 0.148546 0.988905
0.0120403 -0.0280137 0.347205 -4.01552e-08 0.000815291 1
0.0961262 0.125757 0.347078 -8.43151e-08 0.000855988 1
-0.168922 0.171616 0.638176 -0.749868 0.6531 -0.105636
0.163922 0.0774321 0.367251 0.668298 0.34036 -0.661463
-0.0931593 0.121032 0.32544 0.00224413 -0.614666 -0.788784
-0.00358804 -0.113074 0.314953 -0.382692 -0.413685 -0.826082
-0.00462699 0.0157583 0.0645372 -0.255072 -0.966922 0
-0.0767035 0.174224 0.303152 0.951112 0.113788 -0.287121
-0.172907 0.0608545 0.404168 -0.00359671 0.0788785 0.996878
-0.0201348 0.243228 0.731368 -0.0844275 0.963337 -0.254662
0.0281095 0.183179 0.432753 -0.0184792 -0.355344 -0.934553
-0.0191969 0.0504692 0.161743 -0.856492 0.0929056 0.50773
0.171937 0.0543681 0.404724 0.00949691 0.0810188 0.996667
-0.0394117 -0.0146603 0.289874 -5.1078e-05 0.147775 0.989021
-0.0285662 0.186472 0.685772 0.114861 -0.942329 0.314362
0.154089 0.232171 0.0697309 0.832353 -0.523635 0.181644
-0.125279 0.245933 0.809479 -0.242423 0.950191 -0.195879
0.0593964 -0.0558505 0.404168 -0.0120913 -0.0755256 0.99707
-0.0882788 0.192187 0.525931 -0.182669 0.981619 -0.0552785
0.0681647 0.117564 0.324762 -5.26133e-08 0.000780644 -1
-0.0540209 0.231463 0.614416 0.0373273 -0.00567505 -0.999287
0.108914 0.186708 0.105223 -0.261001 0.539846 0.800278
0.0934485 -0.165603 0.39735 -0.0329918 -0.104802 0.993946
-0.061475 -0.126731 0.347661 -0.027242 -0.0244275 -0.99933
0.0652242 0.204299 0.746272 -0.176384 -0.912946 0.367991
-0.138469 -0.139545 0.352114 -0.259269 -0.142198 -0.95528
-0.0556537 -0.0818487 0.276217 0 -0.148314 -0.98894
0.0780189 0.210421 0.388302 -0.949823 0.308945 0.0488761
-0.0769052 -0.100709 0.325722 -0.381919 0.000691658 -0.924195
0.111748 0.225775 0.728636 0.351384 0.898727 -0.262334
0.0887247 0.0371792 0.34856 0.0297031 0.0257877 -0.999226
0.00847366 0.127757 0.278428 2.95893e-05 -0.533527 -0.845783
-0.0734163 0.117228 0.347086 -4.21476e-08 0.000855744 1
-0.164976 0.0504037 0.360252 -0.708767 0.137365 -0.691939
0.0603429 0.225077 0.615887 -0.273909 -0.938675 0.209437
-0.0034399 -0.0452409 0.404628 0.00661709 -0.0763484 0.997059
0.0718709 0.017071 0.324683 -5.26133e-08 0.000780644 -1
-0.0333875 0.232528 0.694698 -0.0979268 0.966045 -0.239096
0.133266 0.14421 0.583918 -0.142478 -0.977076 0.158186
-0.0278989 0.0250651 0.283938 0 0.147751 0.989025
-0.101503 -0.0444994 0.340049 -0.999999 -0.000163201 0.00160188
-0.0976702 -0.122544 0.347282 -8.031e-08 0.000815326 1
0.0715326 0.119731 0.127325 0.829174 -0.460111 0.317441
-0.0928522 0.0609034 0.278582 0 0.148003 0.988987
0.0128035 -0.0160353 0.264883 0 -0.24087 -0.970557
-0.0323375 0.0548223 0.274383 -0.000379683 0.989125 -0.147078
0.0210075 0.0409646 0.129232 0.999991 -0.00434226 0
-0.0105751 0.0203277 0.187319 -0.00179898 -0.00133513 0.999997
-0.0483284 0.160147 0.311999 8.74787e-06 -0.157734 0.987482
-0.223642 -0.0393113 0.0905022 -0.421356 0.556925 0.715747
-0.0963143 0.215468 0.673364 -0.24248 0.932556 -0.267473
0.0770929 0.00657658 0.144958 0.128043 -0.563554 0.816095
0.0354265 -0.0501832 0.291863 -0.780162 -0.398752 0.48202
0.141512 0.172808 0.690238 -0.10187 -0.941734 0.320562
0.00123582 -0.204112 0.379844 0.0354211 -0.998694 0.0368097
0.183524 -0.0136956 0.372413 0.698103 0.0293112 -0.715397
0.0829847 0.192365 0.512039 0.182128 0.981286 -0.0625036
-0.182491 0.0428838 0.404007 -0.532053 0.132317 0.836308
0.103346 0.143735 0.305146 0.999919 -0.0046809 0.0118232
-0.03704 0.096572 0.347103 -8.43151e-08 0.000855988 1
-0.0782123 0.0923119 0.26665 0.951049 0.10806 -0.289531
-0.011675 0.15538 0.311237 8.74787e-06 -0.157734 0.987482
0.0147052 0.041446 0.28149 -0.000234289 0.147734 0.989027
-0.146375 -0.057777 0.294575 -0.00104361 0.147903 0.989001
-0.0462874 -0.200464 0.375384 -0.136244 -0.990661 0.00536273
0.0788993 0.132664 0.301551 2.2295e-05 -0.401705 0.915769
-0.0746786 -0.0647127 0.273878 -0.577932 -0.232808 -0.782173
-0.133817 0.105819 0.39876 0.00479779 0.138568 0.990341
0.000140287 0.204988 0.534452 0.11232 0.986518 -0.119026
-0.0841564 0.203998 0.615796 -0.227369 0.95777 -0.176011
-0.0184862 0.0609382 0.324717 -5.26133e-08 0.000780644 -1
-0.218615 -0.0607691 0.0283841 1 0 0
-0.101892 0.242291 0.769082 -0.155493 0.937035 -0.31271
-0.111824 0.191244 0.103378 0.228024 0.531367 0.815876
-0.0104518 0.055337 0.116728 0.376695 0.851018 -0.365882
-0.187939 -0.029949 0.0823022 0.339043 -0.477319 -0.810689
0.0946341 -0.0409006 0.333263 0.38275 -0.000107905 -0.923852
0.145356 0.144667 0.508044 0.450625 -0.874106 -0.181316
0.0171307 -0.153145 0.396433 -0.00668047 -0.075253 0.997142
0.0524747 0.0220319 0.256865 0 -0.00749961 -0.999972
0.0756203 0.149878 0.104758 -0.820838 0.556953 -0.126602
0.0700311 -0.0874284 0.279001 0 -0.961111 -0.276161
-0.0172042 0.0950012 0.270196 -0.880125 0.371068 0.296122
0.0153884 0.0476833 0.0894015 0.872476 0.487653 -0.0313098
0.102217 0.20219 0.75766 -0.167714 -0.910771 0.377316
0.0204613 -0.010886 0.405194 -0.00251075 0.0773527 0.997001
-0.0969191 0.133135 0.390738 -0.083928 0.467013 0.880259
0.184148 -0.00597222 0.408303 0.0808698 0.0438452 0.99576
-0.0263034 0.0428355 0.324703 -5.26133e-08 0.000780644 -1
0.129067 0.238722 0.782845 0.2876 0.905533 -0.311924
0.0603155 0.0525266 0.400566 -0.012353 0.0777813 0.996894
0.0284329 0.0838921 0.347114 -8.031e-08 0.000815326 1
0.103423 0.0528366 0.329191 0 0 -1
-0.00200515 -0.04086 0.295301 -0.383684 0.414098 0.825415
-0.0176944 0.131975 0.341949 -4.02076e-05 0.816113 0.577892
0.0132087 0.0157232 0.0997695 0.790473 -0.61241 -0.0103529
-0.0994128 0.101409 0.267203 -0.521414 0.298371 -0.799439
0.157882 0.0658855 0.320472 0.0133247 0.383218 -0.923562
0.0493839 0.234704 0.629605 -0.0545373 -0.81948 0.570506
-0.0907075 0.231447 0.808755 0.0887981 -0.742708 0.663701
0.118242 0.184794 0.54114 0.287632 0.956655 -0.0456009
0.10225 0.12952 0.368322 0.233287 0.693684 -0.681454
0.0715791 -0.0948417 0.302598 0.998422 0.0560807 -0.00303844
0.17756 -0.0336197 0.289676 0.425704 0.895245 -0.13158
0.0833402 0.0989472 0.348292 0.0290019 0.0923641 -0.995303
-0.0840088 0.149132 0.544419 0.145103 -0.989272 0.0168825
-0.00895322 0.239213 0.631732 0.0454898 -0.631045 0.774411
-0.0737007 0.155682 0.600678 0.148962 -0.976703 0.154473
0.0102856 0.211217 0.746948 -0.0992616 -0.931365 0.350293
0.0210832 -0.0312051 0.289148 0 -0.837778 0.54601
-0.1546 0.144002 0.602091 0.139576 -0.977547 0.157864
-0.169371 -0.0223926 0.110421 -0.0478889 -0.694642 0.71776
0.182093 0.0425394 0.375446 0.701693 0.0853943 -0.707344
-0.0895077 0.251318 0.803468 -0.111636 0.993472 -0.0234851
0.0542153 -0.0195373 0.346813 0.0269426 0.000444674 -0.999637
-0.0114688 0.00766811 0.286538 0 0.147801 0.989017
0.0466484 0.140139 0.278638 -2.09033e-05 0.376909 -0.92625
-0.13627 0.191454 0.631216 -0.310153 0.93608 -0.166008
-0.101504 -0.0206446 0.344079 -1 -8.58341e-05 -2.08073e-05
-0.16438 0.0106063 0.354758 -0.336821 0.0119584 -0.941493
0.0656396 0.177807 0.676671 -0.172123 -0.929642 0.32579
0.103397 0.202153 0.383249 0.999899 -0.0140308 -0.00221972
-0.0868027 -0.191927 0.385434 -0.162914 -0.822074 0.545577
0.134211 0.20809 0.780737 -0.186407 -0.930475 0.315385
-0.0818707 0.189612 0.452224 -0.132897 0.972745 -0.190016
-0.0116909 -0.0338023 0.324643 -5.26133e-08 0.000780644 -1
0.018761 0.0995651 0.324748 -5.26133e-08 0.000780644 -1
-0.081175 0.118109 0.291729 5.543e-05 -0.999464 -0.0327377
-0.0499762 -0.0677234 0.324617 -5.26133e-08 0.000780644 -1
0.175651 -0.130723 0.384179 0.81874 -0.456839 -0.347798
-0.0775577 0.18882 0.491622 0.00950109 -0.9999 -0.0104802
0.00844172 -0.178704 0.394315 -0.00453472 -0.104461 0.994519
0.171665 0.235631 0.0174729 1 0 0
-0.0251286 -0.0323536 0.289955 0.781804 -0.399974 0.478333
0.0994961 -0.166043 0.350033 0.111573 -0.249958 -0.961807
-0.102109 0.0949502 0.291614 0 -0.349666 0.936875
-0.0016814 -0.111638 0.333423 -0.270487 -0.339023 0.901055
-0.150173 0.217214 0.0400383 0 0.247969 -0.968768
-0.061583 0.0436545 0.324704 -5.26133e-08 0.000780644 -1
-0.0447946 0.0781309 0.398424 0.0309167 0.0785791 0.996428
-0.0854316 0.0131771 0.273938 1 -8.78853e-05 -0.000588686
0.0909685 0.0163307 0.283517 0.00015724 0.147673 0.989036
-0.0203827 0.0401655 0.0923556 -0.860243 0.509779 -0.0103527
-0.0762279 0.138838 0.299249 0.999977 -0.00247616 0.00625437
-0.126493 0.217554 0.0285804 1 0 0
-0.0541162 0.23198 0.700162 -0.194465 0.946627 -0.257061
-0.00672128 0.082886 0.347114 -8.031e-08 0.000815326 1
-0.0349273 0.132916 0.34062 -4.02076e-05 0.816113 0.577892
0.0598088 0.0705129 0.347125 -8.031e-08 0.000815326 1
-0.0580217 0.19669 0.503276 -0.148588 0.986882 -0.0631358
0.00314838 0.172341 0.630116 -0.124458 -0.958093 0.258008
-0.0398727 0.0741965 0.136708 -0.830668 -0.54231 0.126059
0.0332152 0.216745 0.628507 0.102279 0.976374 -0.190349
-0.106215 0.0300268 0.273945 -0.993992 -0.016206 -0.108247
-0.10151 0.0146367 0.341427 -0.999999 -0.000163201 0.00160188
0.0127786 0.0610729 0.278558 -0.000234575 0.147731 0.989028
0.0774915 0.192688 0.331214 0 -0.585058 0.810991
0.175494 -0.0511112 0.364917 0.705408 -0.00962903 -0.708736
-0.118751 0.18894 0.730897 0.0772012 -0.927453 0.365884
0.0924669 0.197168 0.364068 0 -0.986824 -0.161795
-0.015246 0.0830714 0.324735 -5.26133e-08 0.000780644 -1
0.143097 0.0523585 0.40415 -0.0382738 0.0646747 0.997172
0.151175 0.203358 0.0210965 0 0.96303 -0.269394
-0.09435 0.151231 0.486807 0.144105 -0.981846 -0.123337
0.027735 0.00550286 0.324674 -5.26133e-08 0.000780644 -1
-0.14439 0.17252 0.532845 -0.514246 0.852767 -0.091323
-0.103393 0.195541 0.419516 -0.999926 -0.012061 -0.0018332
-0.101944 0.115776 0.299387 0 -0.349666 0.936875
-0.0161173 0.016058 0.136872 -0.380846 -0.924479 -0.0171671
-0.0749562 0.0869295 0.398666 0.0309167 0.0785791 0.996428
