0.103179 0.19217 0.317228 0.993281 0.0427635 -0.107541
0.0417722 0.162606 0.309345 -0.00125151 0.963304 0.268408
-0.167066 0.0849709 0.39717 -0.284868 0.348308 0.893046
0.0195999 0.160357 0.487552 -0.0961628 -0.994703 -0.0363046
0.0430922 0.0770379 0.396022 -0.0126409 0.0783843 0.996843
0.0431224 0.198689 0.719529 -0.0966389 -0.941288 0.323477
-0.135363 0.235478 0.778002 -0.202233 0.942458 -0.266223
-0.0437821 0.242033 0.623156 -0.0404882 0.930649 -0.363666
0.106282 0.239516 0.769228 0.196881 0.947064 -0.253589
0.114678 0.185291 0.559795 0.250841 0.967382 -0.0353627
0.0941768 0.175413 0.0719825 -0.784663 0.544446 -0.296451
0.125312 0.17963 0.480383 0.250841 0.967382 -0.0353627
0.117671 -0.0308167 0.404494 0.00264727 0.0133872 0.999907
-0.102359 0.0674206 0.261215 -0.993128 0.00569554 -0.116897
-0.23744 -0.0769039 0.0305917 0.00105858 -0.861015 0.508579
-0.0199042 -0.215671 0.0127498 -0.991234 0.115512 -0.0641315
-0.0697296 -0.000442568 0.0913087 0.302965 -0.949354 0.0833067
0.102934 0.209929 0.60124 0.833656 -0.494227 0.246491
0.183206 -0.0363724 0.076234 -0.284432 -0.935317 0.210429
0.14251 0.185981 0.615843 0.43013 0.87461 -0.223709
0.00316135 0.0506357 0.0228986 0.584615 0.810137 -0.0436411
0.0913935 0.208706 0.764376 -0.145147 -0.902405 0.405705
0.128377 0.180365 0.522225 0.250841 0.967382 -0.0353627
0.180158 0.0678104 0.397714 0.377279 0.247684 0.892364
0.102928 0.0806505 0.285134 0.000444945 -0.359821 0.933021
0.0210267 0.125895 0.345493 -1.49656e-06 0.00114564 0.999999
-0.00593245 0.232897 0.682679 -0.109461 0.969067 -0.221195
-0.0370551 -0.0991498 0.343647 -0.00575845 -0.074278 -0.997221
-0.0212029 0.0757724 0.101927 0.796589 0.598758 0.0832736
-0.0350635 -0.184481 0.391785 0.00767314 -0.0769373 0.997006
-0.0582436 -0.118597 0.345218 -0.00575845 -0.074278 -0.997221
0.0103436 -0.0758787 0.0816686 0.996516 -0.00620836 0.0831716
-0.165788 -0.129022 0.401473 -0.300809 -0.309574 0.902041
0.0888584 0.056373 0.327837 0 0 -1
-0.163138 0.162106 0.567234 -0.701492 0.699513 -0.136347
-0.047127 0.154804 0.569324 0.13151 -0.99064 -0.0365784
-0.0273923 -0.080257 0.399707 0.00221005 -0.0753647 0.997154
0.0280141 -0.115077 0.345695 -1.03065e-06 0.000788982 1
-0.00705395 -0.0912716 0.0942406 -0.996397 -0.0142467 0.0836112
-0.0377687 0.062963 0.344248 -0.0175945 0.00730945 -0.999819
-0.101295 0.12239 0.328323 -0.999999 -0.00139692 -2.54314e-05
-0.149701 0.168925 0.675438 0.132541 -0.936471 0.324738
-0.15437 0.209661 0.0376561 0.00106634 -0.861017 0.508576
0.0747463 -0.131965 0.323432 0.389718 0.00123386 -0.920934
0.00385699 -0.0495947 0.401932 -0.00199775 -0.0769521 0.997033
0.110407 0.180502 0.692474 -0.128068 -0.93701 0.324977
-0.0335037 0.164586 0.456608 0.0837484 -0.963777 -0.253219
0.0509988 0.202687 0.570837 0.250355 0.95013 -0.185943
0.147193 0.0792302 0.350301 0.527863 0.343419 -0.776804
-0.0879168 0.0522166 0.345092 -0.0530291 0.00615596 -0.998574
0.0677266 0.192133 0.481282 0.202544 0.976368 -0.0753742
-0.191824 0.0181448 0.383796 -0.99102 0.132225 0.0198856
0.012156 0.0169783 0.0576104 0.73029 -0.512163 -0.452068
0.132381 0.209301 0.680788 0.249176 0.933165 -0.259065
0.00500149 -0.130195 0.395713 -0.00199775 -0.0769521 0.997033
-0.0565172 0.206059 0.745051 0.133 -0.936825 0.323527
0.118934 0.025792 0.402392 -0.0484964 0.076887 0.99586
0.0542054 0.120936 0.0777312 -0.784663 0.544446 -0.296451
0.072697 0.227613 0.695398 0.196299 0.952385 -0.2333
-0.0915865 0.229466 0.722104 -0.206729 0.942793 -0.261542
0.0289465 -0.157318 0.346671 -0.037822 -0.0742694 -0.996521
0.178493 -0.122133 0.390668 0.933102 -0.354101 -0.0627067
0.0866768 0.214632 0.573983 -0.255789 0.954493 -0.153345
-0.032328 -0.00525719 0.402389 0.00220945 0.0788334 0.996885
0.0566765 0.237352 0.809086 -0.0295108 -0.769313 0.63819
-0.254777 -0.0703993 0.0392271 -0.00106053 0.862599 -0.505887
-0.0161295 0.214379 0.755843 0.1011 -0.927862 0.358957
0.0998186 0.0917639 0.334129 0.382485 0.000328357 -0.923962
0.260596 -0.0445961 0.0115119 0.991067 0.117079 -0.0638631
-0.166143 0.242419 0.0221902 -0.0126094 0.87595 0.482236
0.115882 -0.109667 0.400192 -0.0556634 -0.0720121 0.995849
0.0972454 0.154745 0.46327 -0.142073 -0.955562 -0.258296
-0.0558431 -0.0117463 0.262923 -0.00932408 -0.240662 -0.970564
-0.103671 0.216051 0.601919 -0.974796 0.20376 -0.0908586
-0.0113768 -0.0487446 0.293302 -0.924735 0.168619 0.341222
0.0803494 0.171804 0.655261 -0.130155 -0.937215 0.323554
-0.0722148 0.157445 0.610707 0.132541 -0.936471 0.324738
-0.0780832 -0.0462182 0.345641 -1.0322e-06 0.000788984 1
-0.0816413 -0.0161254 0.265166 -0.0834662 -0.147411 -0.985547
0.13784 0.205322 0.0176273 0.999998 0.00117618 0.00156609
0.0540336 -0.167379 0.346469 -0.037822 -0.0742694 -0.996521
-0.0469142 -0.105617 0.310077 0.999967 0.0055892 -0.00583071
-0.0881994 0.0189067 0.401398 0.0481027 0.0769877 0.995871
0.0248007 0.0187791 0.32321 -1.0453e-06 0.000799867 -1
0.0110739 -0.201725 0.374509 0.0674939 -0.923727 0.377058
0.0107013 0.147275 0.378119 0.0547306 0.918443 0.391748
-0.0524099 0.11475 0.323287 -1.0453e-06 0.000799867 -1
0.011871 0.0539017 0.397708 -0.00573789 0.0788222 0.996872
0.152034 0.159517 0.505109 0.924231 -0.236726 -0.299597
0.00948144 0.0282403 0.282156 -0.00017932 0.147666 0.989037
0.131015 -0.156704 0.350242 0.468319 -0.477151 -0.743643
-0.103666 0.196959 0.359129 -0.924897 -0.375247 -0.0612817
-0.036644 -0.151521 0.347546 -0.00575845 -0.074278 -0.997221
0.00976449 0.0660202 0.29812 0.383696 -0.838898 -0.386041
0.0242418 0.0488992 0.093003 0.81412 -0.574686 0.0833313
-0.125332 0.193753 0.737091 0.132541 -0.936471 0.324738
0.0247473 0.196768 0.527822 -0.0190341 0.152877 0.988062
0.0868557 0.210656 0.432054 -0.366483 0.926708 0.0830886
0.0319932 0.05538 0.345561 -1.0322e-06 0.000788984 1
0.0211984 0.217357 0.621031 0.107194 0.966896 -0.231562
0.0694994 0.107458 0.34651 -0.0559179 0.00952044 -0.99839
-0.123434 -0.0171175 0.0916702 0.277821 -0.937556 0.209293
0.170849 -0.096279 0.359531 0.80284 -0.212275 -0.557124
-0.100654 0.166304 0.43642 0.00347677 -0.767312 -0.641264
-0.0827013 0.0212137 0.282373 -0.738922 0.0985605 0.666543
-0.0830909 0.138551 0.371058 -0.171467 0.817276 -0.550144
0.18791 -0.0526548 0.374496 0.763824 -0.0643844 -0.642205
-0.0270219 0.202465 0.539824 -0.113337 0.988432 -0.100787
-0.019488 0.0749225 0.0737637 0.808326 0.584173 -0.0731566
0.052073 0.222967 0.659078 0.196299 0.952385 -0.2333
-0.00897858 -0.0108457 0.345613 -1.0322e-06 0.000788984 1
0.0929773 0.15184 0.312593 0.000444945 -0.359821 0.933021
0.0668173 -0.0388823 0.403204 -0.0121967 -0.0759737 0.997035
0.101857 -0.0446936 0.276264 0.448737 0.0628349 -0.891452
-0.0488776 0.00745404 0.0638078 0.304639 -0.949698 -0.0725837
0.0524493 0.159674 0.607069 -0.143426 -0.97851 0.148143
-0.0227661 0.128634 0.300697 0.000482031 -0.369454 0.929249
0.0456876 -0.0772669 0.343673 0.0049515 6.32532e-06 -0.999988
-0.164936 0.00175261 0.405753 0.0344171 0.0598571 0.997613
-0.0407436 -0.0524037 0.27061 -9.6437e-05 -0.14745 -0.989069
0.00574015 0.0425006 0.205626 0.893591 0.448882 0
-0.117245 0.202146 0.643904 -0.206729 0.942793 -0.261542
-0.12939 0.211186 0.0612064 0.00601506 -0.0108209 -0.999923
-0.121034 -0.0584658 0.284372 -0.475107 0.06175 -0.877759
0.113444 0.205664 0.7655 -0.145147 -0.902405 0.405705
0.138139 0.195721 0.645517 0.43013 0.87461 -0.223709
0.00292036 0.0301193 0.254185 0.0207388 0.0489132 -0.998588
-0.034258 0.0208111 0.104634 -0.1017 -0.0167434 0.994674
-0.125607 -0.161057 0.397207 0.0550136 -0.0840953 0.994938
-0.0548018 -0.154656 0.394493 0.0360667 -0.0772611 0.996358
0.0199686 0.0786142 0.323258 -1.0453e-06 0.000799867 -1
0.135124 0.230172 0.760407 0.58467 0.774043 -0.242936
0.232453 -0.0332638 0.0676504 0.272696 0.915704 -0.295167
-0.116039 -0.0206205 0.346138 -0.0530001 0.00608703 -0.998576
-0.0502454 0.116369 0.065511 0.766987 0.562182 -0.309324
0.0707255 -0.0669495 0.323141 -1.0453e-06 0.000799867 -1
-0.0443133 -0.0726826 0.343867 -0.00486759 0.00765138 -0.999959
-0.0449138 0.133302 0.352837 -0.0976386 0.57416 -0.8129
-0.00888865 0.118166 0.392594 0.00559644 0.0780511 0.996934
0.150253 -0.0745302 0.292505 -5.97282e-05 -0.14694 -0.989145
-0.0623047 0.253 0.800688 -0.0468688 0.998865 -0.00844016
0.203456 -0.0235433 0.0710166 0.272696 0.915704 -0.295167
-0.261675 -0.0522899 0.0220161 -0.991222 0.115592 0.064166
-0.145862 -0.0447008 0.347588 -0.05714 0.00141411 -0.998365
-0.0638445 -0.0135062 0.344374 -0.0145369 -1.85703e-05 -0.999894
-0.103958 0.146564 0.572554 0.142236 -0.989153 -0.0366851
0.0527616 0.0875496 0.0786185 0.803813 -0.590307 -0.0736393
-0.0316308 -0.106794 0.323109 -1.04537e-06 0.000799867 -1
0.0339471 0.0244769 0.104952 0.0922107 -0.0464075 0.994657
-0.123506 0.0643079 0.335505 0.000288982 1.34637e-07 -1
0.102476 0.208595 0.36656 0.988132 0.151647 0.0244793
-0.111213 -0.0953488 0.345533 -0.05714 0.00141411 -0.998365
-0.102729 -0.14043 0.345752 -0.0587223 -0.0160519 -0.998145
0.115801 0.246854 0.809009 0.317526 0.913601 0.25399
-0.0661426 0.0241708 0.345585 -1.0322e-06 0.000788984 1
-0.0339994 0.185248 0.675533 0.133 -0.936825 0.323527
0.100147 0.155984 0.0899342 0.81412 -0.574686 0.0833313
0.0162858 0.0256906 0.343602 0.0175456 0.00728621 -0.999819
-0.0400496 0.243638 0.740695 -0.0850844 0.965042 -0.247899
0.1965 -0.018529 0.385599 0.98809 0.136785 0.0704793
0.0719882 0.211019 0.628888 0.249176 0.933165 -0.259065
0.00391109 -0.0829062 0.0625198 0.00146416 0.0122872 -0.999923
-0.0130575 -0.117754 0.345697 -1.03065e-06 0.000788982 1
0.0130592 -0.0354811 0.323166 -1.04537e-06 0.000799867 -1
0.0319752 0.0912722 0.0867389 -0.802266 0.591205 0.0827362
0.0602221 0.132143 0.279246 -4.52296e-05 0.0346674 -0.999399
-0.191892 -0.0647274 0.388993 -0.989981 -0.123206 0.0689747
-0.116502 0.18202 0.503028 -0.211198 0.976904 -0.0324653
0.00238942 0.177292 0.641177 -0.130781 -0.94155 0.31045
-0.0515688 0.215745 0.629441 -0.253043 0.938868 -0.233443
-0.0287573 0.0172941 0.283784 -0.000199531 0.1479 0.989002
-0.160182 0.186813 0.716309 -0.993291 -0.023059 0.113319
-0.0923227 0.218028 0.323773 -0.41514 0.750418 -0.514326
-0.019375 0.0393357 0.0495397 -0.587907 0.807755 -0.0435662
0.00353732 -0.177489 0.0869316 0.000219298 -0.101182 0.994868
0.10068 -0.0202225 0.334446 0.382485 0.000328357 -0.923962
-0.123397 -0.178371 0.38124 -0.291692 -0.94086 0.172334
-0.203296 -0.0335444 0.0865195 -0.095917 -0.0312533 0.994899
-0.0164428 0.230774 0.794671 0.0545949 -0.917621 0.39369
-0.126479 0.0962856 0.397267 0.0489786 0.0759613 0.995907
0.144677 -0.00603525 0.0685119 0.310263 0.947892 -0.0723733
0.0614456 0.154193 0.543996 -0.102147 -0.994104 -0.0363721
-0.0967738 0.212892 0.567688 -0.26275 0.954422 -0.141565
-0.0386113 0.20493 0.735936 0.0984243 -0.94507 0.311696
-0.0104926 -0.0666805 0.3436 -0.0145369 -1.85703e-05 -0.999894
0.0792914 -0.0436665 0.344202 0.0175456 0.00728621 -0.999819
-0.0682546 -0.0124722 0.403416 0.0124291 0.0742044 0.997166
0.0872316 0.164153 0.441608 -0.125501 -0.754018 -0.644753
-0.0204346 0.0869168 0.256192 -2.53514e-05 0.0182769 -0.999833
0.188996 0.0344639 0.394549 0.992408 0.121465 0.0192969
-0.00241905 -0.190194 0.350228 -0.00575845 -0.074278 -0.997221
-0.0730734 -0.0674914 0.296078 -0.725485 -0.044204 0.686817
0.0696655 0.111982 0.0672808 0.803813 -0.590307 -0.0736393
0.103753 0.15208 0.48292 -0.102147 -0.994104 -0.0363721
0.138866 0.15897 0.641607 -0.128068 -0.93701 0.324977
0.0491552 0.0820312 0.34554 -1.0322e-06 0.000788984 1
0.0788945 0.0710628 0.325459 0.389718 0.00123386 -0.920934
-0.08859 0.00735348 0.0627995 0.0117407 0.00383137 -0.999924
-0.00447183 0.206888 0.557839 -0.113337 0.988432 -0.100787
0.107674 0.154589 0.616388 -0.130155 -0.937215 0.323554
-0.168175 0.0452267 0.356662 -0.63193 0.0549261 -0.773077
0.145032 0.243995 0.0670157 -0.607088 0.793353 -0.0451271
0.0788136 0.188587 0.440928 -4.07541e-06 -0.999948 -0.0102365
-0.248314 -0.0429669 0.0566236 -0.574956 0.815302 -0.0686205
-0.00795851 -0.019958 0.0956122 -0.996397 -0.0142467 0.0836112
-0.0747795 -0.0625701 0.401818 0.012403 -0.0679335 0.997613
0.124262 0.122661 0.39124 0.0763608 0.413738 0.907188
-0.00867683 0.0278245 0.216114 -0.893757 -0.448552 0
0.0521541 -0.103356 0.281573 0.00117285 -0.989076 -0.147399
-0.135195 0.146476 0.501625 0.111155 -0.991295 -0.0705569
-0.0121759 0.161277 0.487368 0.0985553 -0.994978 -0.0175056
0.0619321 0.140922 0.305539 0.000482047 -0.369454 0.929249
-0.0736774 0.151506 0.574841 0.148934 -0.977697 0.148075
-0.105863 0.000129655 0.28144 -0.999934 0.0113313 -0.00170954
0.0158589 0.0440632 0.0585552 0.715257 0.534897 -0.449769
-0.00392398 0.248653 0.750229 -0.0655371 0.973301 -0.219975
-0.218123 -0.0557569 0.0159474 0.99103 0.117511 -0.0636545
0.162414 -0.0300735 0.0731041 -0.310035 -0.947903 -0.0731983
-0.0442141 -0.0393897 0.323163 -1.04537e-06 0.000799867 -1
-0.158555 0.0895251 0.36775 -0.662447 0.503665 -0.554513
0.258533 -0.0502739 0.0371765 0.0113436 5.56288e-06 0.999936
0.0696714 0.0130219 0.28444 -0.000183015 0.147788 0.989019
-0.0583882 -0.195964 0.378011 -0.152257 -0.914505 0.374831
0.0791596 0.216285 0.338103 -0.990171 0.138263 -0.0211037
-0.105023 0.110709 0.346603 -0.225106 0.588096 -0.776834
0.0529219 0.170753 0.641185 -0.130155 -0.937215 0.323554
-0.107197 0.185269 0.540157 -0.253778 0.964527 -0.072699
-0.0929847 -0.098255 0.399788 0.0637166 -0.0725662 0.995326
0.0480385 0.200451 0.536774 0.110542 0.990656 -0.0798838
-0.0906535 0.219108 0.787643 0.153959 -0.889214 0.430808
0.0511931 8.75425e-05 0.402176 -0.0126409 0.0783843 0.996843
0.0213914 -0.242047 0.0152844 0.991216 -0.116005 -0.0635056
0.0397724 -0.143451 0.394925 -0.00756443 -0.0756992 0.997102
0.072678 -0.0770499 0.400415 -0.037195 -0.0703063 0.996832
-0.000943853 -0.0211443 0.403576 0.00220945 0.0788334 0.996885
-0.0949902 0.150372 0.0928734 -0.805365 -0.554683 0.209081
-0.102025 0.211712 0.385622 -0.400664 0.904496 0.146134
0.0960033 0.0324712 0.28154 -0.000264056 0.147598 0.989047
-0.00127912 -0.0527715 0.323153 -1.04537e-06 0.000799867 -1
-0.0994551 -0.0402294 0.333884 -0.389667 -0.00084854 -0.920955
0.0245756 0.0207021 0.400368 -0.00242297 0.0778707 0.996961
-0.15213 0.215508 0.760851 -0.822233 0.562562 -0.0863579
-0.0089345 -0.141837 0.0735808 -0.997252 0.00456668 -0.0739365
0.0969664 0.209333 0.537953 0.413162 0.900833 -0.133408
0.0392519 0.037851 0.280726 -0.00017932 0.147666 0.989037
0.0878977 -0.00532628 0.0857058 -0.291957 -0.952795 0.0833201
0.0127464 0.197868 0.473292 0.0742576 0.993934 -0.0811279
0.114286 0.0562631 0.399813 -0.0484964 0.076887 0.99586
-3.67814e-07 0.253169 0.814358 0.0436176 0.94407 0.326849
-0.14345 0.221199 0.0409199 0 0 1
0.00203619 0.0737989 0.345857 0.0463941 0.0770381 -0.995948
0.0815435 0.121899 0.31019 -0.999999 -0.00138649 0.000295038
-0.099733 0.183444 0.454031 -0.202888 0.979195 -0.00359585
-0.0471558 -0.191801 0.352865 -0.0991588 -0.591041 -0.800523
0.00561942 0.0221619 0.197002 0.894927 -0.446212 0
-0.0565582 0.194443 0.4851 -0.253778 0.964527 -0.072699
0.138585 0.208995 0.78243 -0.148135 -0.908632 0.390441
-0.0691479 -0.0119871 0.288152 -0.000275591 0.14782 0.989014
-0.0780625 0.0984326 0.324934 -0.381587 0.000237226 -0.924333
0.16049 0.192417 0.712894 0.992586 -0.0172465 0.120316
-0.0962978 0.0304373 0.332483 -0.389667 -0.00084854 -0.920955
-0.0466952 -0.0822508 0.284881 0.999999 0.0013418 0.000418404
0.00186579 -0.0336131 0.271424 0.00126813 -0.989093 0.147285
-0.148792 0.0195261 0.347971 -0.0346201 -0.0037769 -0.999393
-0.122314 0.224321 0.80381 0.136799 -0.705472 0.69541
0.0929985 -0.00384221 0.0627187 -0.0117594 0.00382216 -0.999924
-0.00246881 0.0175011 0.158048 0.00229869 -0.999897 0.0141582
-0.0639235 -0.120734 0.397453 0.0360667 -0.0772611 0.996358
-0.0970529 0.199631 0.613937 -0.253043 0.938868 -0.233443
0.169919 0.0629214 0.346156 1 0.000817333 0
0.0493029 0.0366098 0.255364 -1.40633e-05 0.0106667 -0.999943
-0.165419 0.141502 0.582617 -0.279842 -0.955102 0.0973058
-0.0994074 0.0612608 0.333771 -0.389667 -0.00084854 -0.920955
-0.00469378 -0.218967 0.0427512 1 0.00101292 7.58531e-07
0.0291364 -0.0111618 0.323186 -1.0453e-06 0.000799867 -1
0.0728456 0.15534 0.480617 -0.102147 -0.994104 -0.0363721
0.00618994 0.0189585 0.0156411 0.257997 -0.964923 -0.0485922
0.0996426 0.162237 0.635311 -0.130155 -0.937215 0.323554
-0.0103114 0.216548 0.61322 -0.109461 0.969067 -0.221195
-0.0806676 0.209226 0.511466 0.0725303 0.997364 0.00227203
0.023729 0.240317 0.721212 0.0806898 0.971759 -0.221751
-0.0999348 0.125286 0.275595 -0.404581 0.328678 -0.853396
0.0455692 0.135501 0.334651 -0.00102613 0.816148 0.577843
-0.0978552 0.193192 0.724414 0.1301 -0.937229 0.323536
-0.143427 -0.159315 0.363068 -0.614656 -0.695254 -0.372586
-0.0844886 0.208088 0.461462 0.363606 0.93115 0.0274068
-0.0972222 -0.177503 0.350327 -0.261339 -0.622822 -0.737424
0.15258 0.0703401 0.322925 0.00868063 0.906731 -0.421619
0.119742 0.179475 0.453355 0.215757 0.976085 -0.0265925
0.225511 -0.0620092 0.0397505 0 0 -1
-0.0240405 0.0251334 0.0636255 0.0117407 0.00383137 -0.999924
0.0788506 0.0526428 0.261684 0.00111775 0.984906 -0.173085
0.00269871 0.100759 0.26165 0.0590979 0.511248 -0.857399
0.137946 0.2106 0.0611577 -0.00724004 -0.0100234 -0.999924
0.0256686 -0.180674 0.348536 -0.037822 -0.0742694 -0.996521
-0.179872 -0.116396 0.38251 -0.933258 -0.358943 0.0137913
-0.08935 0.00288711 0.344864 -0.0530001 0.00608703 -0.998576
-0.0710673 -0.0952366 0.304146 -0.999537 0.018048 -0.0244994
0.0949865 0.104591 0.395142 -0.0484964 0.076887 0.99586
-0.104736 -0.00179774 0.403798 0.0481027 0.0769877 0.995871
0.15458 0.233131 0.0127276 -0.000857134 0.876107 -0.482116
0.151718 0.0435134 0.331688 0.0013865 -0.986832 0.161742
0.0362442 0.0106113 0.0806443 -0.310035 -0.947903 -0.0731983
-0.0643705 0.123351 0.392874 0.0249217 0.0790624 0.996558
0.115543 0.0992392 0.346766 0.028287 -0.00430684 -0.999591
-0.0167546 0.197353 0.504472 0.0187142 -0.0503461 -0.998556
-0.149651 0.162589 0.500319 -0.701492 0.699513 -0.136347
0.0599599 0.204554 0.741923 -0.130155 -0.937215 0.323554
-0.0782356 0.14878 0.299878 0.992786 0.0443333 -0.111402
-0.0164897 0.0159218 0.345592 -1.0322e-06 0.000788984 1
0.00131281 0.161391 0.536005 -0.129215 -0.991463 -0.0174438
0.0621031 -0.0539664 0.270865 0.000423332 -0.147697 -0.989033
-0.126823 0.148428 0.606533 0.145409 -0.976662 0.158074
0.161234 0.20577 0.027897 -0.00132888 0.862346 -0.506319
0.0206409 0.15699 0.311471 0.000209409 -0.160497 0.987036
-0.0808311 0.192711 0.54685 -0.253778 0.964527 -0.072699
-0.0383679 0.123939 0.392307 0.00559644 0.0780511 0.996934
0.0762228 -0.123799 0.34439 0.00525325 -0.0222019 -0.99974
-0.219877 -0.0749594 0.0139065 0.991203 -0.116074 -0.063589
-0.010956 0.010949 0.256046 -0.0674187 -0.238739 -0.968741
0.0883454 0.00496243 0.329349 0.382485 0.000328357 -0.923962
0.103595 0.11218 0.289281 0.99331 0.0426303 -0.107319
-0.104518 0.19305 0.327587 -0.990898 0.103047 -0.0866152
0.172251 9.91598e-05 0.356615 0.631032 0.0604503 -0.773398
-0.00658272 0.124135 0.349398 0.0387364 0.0770533 -0.996274
0.137703 -0.0562562 0.404782 0.00264727 0.0133872 0.999907
0.0680832 0.0201509 0.0884053 0.311432 0.946637 0.0830016
0.0837211 -0.0659098 0.344146 0.0567106 0.00611149 -0.998372
0.112885 0.178087 0.0895508 0.0591188 0.0818844 0.994887
-0.0765478 0.2243 0.602855 0.888237 0.114685 -0.444839
-0.0701002 0.0864908 0.395942 0.0249217 0.0790624 0.996558
-0.0778186 0.203669 0.352697 0.987914 0.152924 0.025286
-0.194392 -0.0408266 0.380925 -0.764439 -0.0665456 -0.641252
-0.00382597 -0.0834355 0.321047 -0.384769 0.410859 0.826527
-0.0776241 -0.0446363 0.324716 -0.381587 0.000237226 -0.924333
0.0673937 0.0135341 0.401324 -0.0126409 0.0783843 0.996843
-0.071326 0.0411542 0.323228 -1.04537e-06 0.000799867 -1
-0.102123 0.150807 0.312292 0.000437677 -0.359822 0.933021
-0.145794 0.215826 0.733228 -0.589217 0.786497 -0.185058
0.0946479 0.063142 0.278833 0.000397945 -0.327029 0.945014
0.140058 0.177781 0.696316 -0.128068 -0.93701 0.324977
0.10778 -0.0419898 0.345659 0.0567106 0.00611149 -0.998372
-0.0894526 0.187817 0.48403 0.0106424 -0.999889 -0.0104351
-0.187015 0.0523545 0.396018 -0.99102 0.132225 0.0198856
-0.0252537 0.0681013 0.268215 -0.999999 -0.00127753 -0.000413695
0.0637562 0.0428011 0.345571 -1.03065e-06 0.000788982 1
0.0655261 -0.189264 0.354145 0.0959915 -0.419329 -0.902745
0.0224705 0.243422 0.624211 0.0386323 0.937331 -0.346291
-0.0776693 0.0822876 0.278561 0.992868 0.0439804 -0.110814
0.219823 -0.0461947 0.00595675 -0.991261 0.11511 -0.0644367
-0.0821798 0.210742 0.406184 0.397511 0.913937 0.081876
0.103663 0.169934 0.312858 0.99331 0.0426303 -0.107319
-0.105934 0.0452585 0.271025 -0.993946 -0.0177041 -0.108436
-0.027294 0.230341 0.680929 -0.0838165 0.969404 -0.230717
-0.166341 -0.0127844 0.0682568 -0.304821 0.94956 -0.0736227
-0.0854623 0.21076 0.553226 0.282244 0.947259 -0.151785
-0.132099 -0.0326753 0.289428 -0.000553949 0.147039 0.989131
0.0479154 0.24174 0.73629 0.0805341 0.972239 -0.219694
0.103603 0.19399 0.440819 0.987671 0.156521 0.00253861
0.157933 0.0125678 0.348339 0.028287 -0.00430684 -0.999591
0.00518834 -0.228213 0.0638718 0.00221623 -0.99973 -0.0231421
-0.0818249 0.153185 0.491438 0.111155 -0.991295 -0.0705569
-0.137287 0.17799 0.557717 -0.478501 0.876657 -0.0500874
0.054916 -0.000735492 0.345605 -1.03065e-06 0.000788982 1
0.132654 0.179961 0.549656 0.573864 0.817026 -0.0561151
-0.142053 0.208287 0.782108 -0.0515339 -0.899601 0.433661
-0.0523776 -0.136236 0.333613 0.00127439 -0.971839 -0.235643
0.0710481 -0.0858149 0.277502 0.722472 -0.258494 -0.64126
0.104148 0.205577 0.510093 0.96908 0.246727 -0.00303731
-0.0563199 0.248729 0.766172 -0.0655371 0.973301 -0.219975
0.0813678 0.221032 0.786986 -0.158706 -0.837451 0.52296
0.0455271 0.118369 0.294402 0.0008943 -0.685399 0.728167
-0.018828 0.0333036 0.111335 -0.948729 -0.309766 0.0629118
-0.156107 -0.077202 0.296048 -8.23519e-05 0.146939 0.989145
0.106444 0.230516 0.735641 0.196299 0.952385 -0.2333
0.0101799 -0.147024 0.0783202 0.996516 -0.00620836 0.0831716
0.135804 -0.00489095 0.0941387 0.0922107 -0.0464075 0.994657
-0.0512849 0.0531929 0.265729 -0.00365135 0.986355 -0.164593
0.0483259 0.0104148 0.0632986 -0.0117594 0.00382216 -0.999924
-0.015856 0.25511 0.79249 -0.0468688 0.998865 -0.00844016
-0.0429326 0.0867741 0.323264 -1.0453e-06 0.000799867 -1
0.149098 0.232811 0.0467264 0 0 -1
-0.139516 0.238374 0.0589264 0.945653 0.313045 -0.0879966
0.0824076 0.188567 0.510676 -0.0451917 -0.990705 0.128303
0.168019 -0.122954 0.365618 0.80284 -0.212275 -0.557124
-0.0659622 0.0620346 0.344738 -0.0175945 0.00730945 -0.999819
0.144532 -0.163855 0.373641 0.615664 -0.694738 -0.371884
-0.145338 0.142458 0.542098 0.111155 -0.991295 -0.0705569
0.098751 0.188027 0.483163 -0.00902918 -0.999865 -0.0136944
0.0898896 0.131734 0.274023 -0.403853 0.328754 -0.853712
0.0244162 0.141158 0.323301 -6.2883e-07 0.000478706 -1
-0.00482075 0.195277 0.445906 -0.0695851 0.981434 -0.178731
-0.0667408 0.0345016 0.257622 0.000195435 -0.148049 -0.98898
0.143229 -0.132559 0.348202 0.0367146 -0.0123331 -0.99925
-0.0314595 0.0116224 0.0823725 0.304639 -0.949698 -0.0725837
0.0906993 0.177218 0.291414 0.404196 0.329644 -0.853206
-0.0949263 0.210719 0.656225 -0.253043 0.938868 -0.233443
0.0323915 -0.10726 0.323109 -1.04537e-06 0.000799867 -1
-0.161324 -0.00342701 0.348491 -0.0346201 -0.0037769 -0.999393
0.041898 -0.0276601 0.345626 -1.03065e-06 0.000788982 1
0.0216629 0.19522 0.452199 0.066255 0.97638 -0.205651
-0.00917518 0.0427492 0.163475 -0.587615 0.809021 0.0139433
0.0162168 0.230779 0.67668 0.0806898 0.971759 -0.221751
0.162607 0.169458 0.591396 0.696852 0.683286 -0.217986
0.0853075 -0.00991646 0.283789 -0.999932 -0.0116117 0.00123077
0.00203391 0.054505 0.0996114 0.108502 0.994096 0
-0.0927503 0.245929 0.785205 -0.185198 0.963869 -0.191463
0.11156 0.146012 0.567547 -0.138353 -0.98841 -0.0624874
-0.105542 0.183385 0.472787 -0.211198 0.976904 -0.0324653
0.0767663 0.193259 0.715966 -0.130155 -0.937215 0.323554
-0.0485765 0.206138 0.584929 -0.25522 0.948858 -0.185825
-0.144987 0.195277 0.652084 -0.428517 0.870145 -0.243353
0.106931 0.198523 0.617489 0.249176 0.933165 -0.259065
0.0449777 -0.00177698 0.261993 0.0873092 -0.237701 -0.967406
-0.141477 0.0641583 0.342989 0.000806311 7.51324e-07 1
0.00551131 -0.0613383 0.0627872 0.00146416 0.0122872 -0.999923
0.0677518 -0.138712 0.344474 0.00126954 -0.971855 -0.235574
0.0178232 -0.133314 0.345304 -0.037822 -0.0742694 -0.996521
-0.129199 -0.0702574 0.346598 -0.05714 0.00141411 -0.998365
0.0129937 -0.0197354 0.28933 -0.000234792 0.147888 0.989004
0.0710372 0.125147 0.323294 -6.2883e-07 0.000478706 -1
0.0482978 -0.0260894 0.266701 0.000275 -0.14782 -0.989014
-0.0536267 0.0116315 0.258642 -0.0834662 -0.147411 -0.985547
-0.155078 0.143331 0.601031 0.145409 -0.976662 0.158074
0.0743107 0.224517 0.606058 -0.87137 0.0879202 -0.482684
-0.0373435 0.00113642 0.323196 -1.04537e-06 0.000799867 -1
0.081051 0.215838 0.366221 -0.400664 0.9045 0.146111
-0.0934884 0.0427553 0.39981 0.0481027 0.0769877 0.995871
0.0558675 -0.11362 0.323973 0 0 1
-0.0512314 0.0672688 0.396995 0.0249217 0.0790624 0.996558
0.0603131 0.138721 0.387874 0.156168 0.936765 0.313181
0.0760956 -0.132102 0.39666 -0.037195 -0.0703063 0.996832
-0.0604436 0.167481 0.634888 0.1301 -0.937229 0.323536
-0.173085 -0.0471089 0.291569 -8.26002e-05 0.147035 0.989131
-0.18822 -0.0390031 0.405853 -0.453631 -0.0846508 0.88716
-0.050299 0.139484 0.327907 -0.0011234 0.855208 0.518284
-0.0808549 0.0773166 0.345111 -0.0175945 0.00730945 -0.999819
0.0343447 0.0998571 0.323275 -1.0453e-06 0.000799867 -1
-0.0690264 0.0399548 0.280392 -0.000207579 0.147607 0.989046
0.156576 -0.0201118 0.0915508 0.0960395 -0.0312448 0.994887
0.0258445 0.128678 0.279127 -4.52296e-05 0.0346674 -0.999399
-0.130101 0.209234 0.679613 -0.206729 0.942793 -0.261542
0.00249668 -0.0745611 0.400002 -0.00199775 -0.0769521 0.997033
-0.00114293 0.241842 0.719497 -0.109461 0.969067 -0.221195
0.0168737 0.0700766 0.0917615 -0.802266 0.591205 0.0827362
0.0723351 0.037024 0.323224 -1.0453e-06 0.000799867 -1
0.0491366 0.250468 0.773247 0.0485979 0.983409 -0.174773
0.085499 -0.111931 0.398434 -0.037195 -0.0703063 0.996832
-0.104146 0.237087 0.759881 -0.204537 0.945409 -0.253705
0.13686 -0.162493 0.396173 0.188369 -0.385847 0.903128
-0.101259 0.164069 0.0618855 0.00601506 -0.0108209 -0.999923
0.0251974 0.251474 0.770785 0.059176 0.987285 -0.147534
-0.118198 0.154386 0.451485 0.126813 -0.957567 -0.258811
0.144964 -0.0428925 0.347647 0.0512342 0.00204391 -0.998685
0.0876818 0.113789 0.345552 -0.0559179 0.00952044 -0.99839
0.12687 0.0537237 0.347157 0.0476702 0.00339552 -0.998857
-0.0554768 0.167869 0.444021 0.0584574 -0.78456 -0.617291
-0.0776204 0.194345 0.33209 0.93 -0.282988 0.234559
0.0987077 0.0606128 0.345731 0.0530105 0.00629624 -0.998574
0.0114144 0.000662496 0.259271 0.0678173 -0.271452 -0.96006
-0.00123533 0.0164079 0.0389111 -0.254018 -0.965975 -0.0486452
-0.144043 0.100607 0.357876 -0.72416 0.482923 -0.492319
-0.144973 0.216355 0.0753928 -0.805365 -0.554683 0.209081
0.0132596 -0.153982 0.393925 -0.00756443 -0.0756992 0.997102
0.0649597 0.0938028 0.395127 -0.0258063 0.0751847 0.996836
0.243698 -0.0525451 0.029551 0 0 1
-0.110801 0.177296 0.683701 0.132541 -0.936471 0.324738
-0.139313 0.179336 0.578391 -0.443587 0.881787 -0.160254
0.255444 -0.0657735 5.75225e-05 0.0113278 1.66737e-05 -0.999936
-0.0181668 0.0420331 0.323229 -1.0453e-06 0.000799867 -1
0.182599 0.00362217 0.405922 -0.436362 0.00556422 0.899754
-0.159161 0.195131 0.695174 -0.742781 0.656048 -0.13371
0.0810883 0.193267 0.539737 0.250841 0.967382 -0.0353627
0.0197778 0.159327 0.516567 -0.129215 -0.991463 -0.0174438
-0.0820125 0.124401 0.318439 0.999999 0.00109831 0.00019615
0.130715 0.228269 0.809254 -0.136681 -0.704683 0.696233
-0.0468116 0.197619 0.716623 0.133 -0.936825 0.323527
0.185128 -0.10146 0.37908 0.742082 -0.264092 -0.616093
-0.0839615 0.162732 0.289126 0.404184 0.329646 -0.853211
0.097381 0.196651 0.341024 0.00120112 -0.971807 0.235776
0.0990214 0.193593 0.589378 0.253027 0.950883 -0.178323
0.0938122 0.151887 0.595682 -0.143426 -0.97851 0.148143
-0.103753 0.174362 0.310017 -0.993453 0.0400185 -0.106999
-0.0321249 -0.126366 0.345704 -1.03065e-06 0.000788982 1
-0.00104288 0.0648511 0.323247 -1.0453e-06 0.000799867 -1
0.10298 0.199377 0.420229 0.987691 0.155823 0.0136282
-0.0845633 0.17974 0.429511 0.0583453 -0.355476 -0.932862
0.0117936 0.0903326 0.292453 0.929074 0.324881 0.176843
-0.056212 0.0134046 0.102265 -0.1017 -0.0167434 0.994674
-0.0557338 -0.0648694 0.27247 -9.6437e-05 -0.14745 -0.989069
-0.166273 0.180664 0.668527 -0.822233 0.562562 -0.0863579
0.0484418 -0.185955 0.390943 0.0341187 -0.406555 0.912989
-0.169489 0.213964 0.0278706 -0.991109 -0.117036 0.0632914
-0.111493 0.184503 0.704768 0.132541 -0.936471 0.324738
-0.080248 -0.154981 0.395389 0.0360667 -0.0772611 0.996358
-0.186041 0.0387336 0.376246 -0.760823 0.0713705 -0.645023
-0.0932252 0.129335 0.390558 -0.0410053 0.406369 0.912788
0.161723 0.0881843 0.369432 0.687333 0.459003 -0.562928
0.106055 -0.164027 0.395712 -0.0556634 -0.0720121 0.995849
0.0603009 0.191867 0.45622 0.203449 0.976635 -0.0692267
0.0988495 0.174794 0.671362 -0.130155 -0.937215 0.323554
-0.0106503 0.133508 0.323298 -6.2883e-07 0.000478706 -1
-0.00617455 0.068362 0.276159 -0.000205007 0.14773 0.989028
0.0796717 -0.0293994 0.267204 0.000423332 -0.147697 -0.989033
0.173125 -0.0518866 0.292347 -0.000248962 0.14712 0.989119
-0.0626138 0.190154 0.517033 0.0370397 -0.98661 0.158833
0.0317787 -0.0440256 0.402418 -0.00199775 -0.0769521 0.997033
-0.0213455 -0.0452084 0.34564 -1.0322e-06 0.000788984 1
-0.0425708 0.110216 0.345511 -1.49656e-06 0.00114564 0.999999
-0.0805844 0.128221 0.0894718 -0.808731 -0.582284 0.083057
0.0490742 -0.08826 0.399224 -0.0121967 -0.0759737 0.997035
-0.101414 0.150144 0.593748 0.148934 -0.977697 0.148075
-0.000730271 0.048577 0.181225 -0.587615 0.809021 0.0139433
0.116823 0.030733 0.346505 0.0530105 0.00629624 -0.998574
0.0868766 0.0137606 0.0790415 0.272696 0.915704 -0.295167
0.0850188 0.0131027 0.26639 -0.999932 -0.0116117 0.00123077
-0.0985158 0.0654504 0.27972 0.000397558 -0.32684 0.94508
0.0707158 0.216647 0.648962 0.196299 0.952385 -0.2333
-0.0119725 0.0746524 0.396024 0.00220945 0.0788334 0.996885
0.0501287 0.21772 0.636023 0.196299 0.952385 -0.2333
0.14457 0.213716 0.0397505 0 0 -1
0.147807 0.10697 0.394271 0.156665 0.404779 0.900894
0.0413785 0.10039 0.394185 -0.00242297 0.0778707 0.996961
0.00845222 0.100378 0.345522 -1.49883e-06 0.00114566 0.999999
0.043579 0.190857 0.696876 -0.0966389 -0.941288 0.323477
0.0244925 0.233635 0.802425 -0.0513337 -0.906092 0.419955
-0.0439091 0.0135039 0.401078 0.0249217 0.0790624 0.996558
-0.11343 0.220132 0.705722 -0.206729 0.942793 -0.261542
0.108631 -0.00632001 0.40419 0.00264727 0.0133872 0.999907
-0.0434501 0.0863304 0.101272 -0.0475467 0.0918018 0.994642
-0.0629611 -0.0994079 0.323973 0 0 1
-0.116584 0.000181198 0.346294 -0.0530291 0.00615596 -0.998574
-0.0288326 -0.104612 0.397869 0.00221005 -0.0753647 0.997154
-0.0896195 0.0863471 0.256933 0.403361 0.329856 -0.853519
0.0855477 0.131655 0.360694 0.171494 0.83156 -0.528298
0.154024 0.208356 0.739758 0.822787 0.559883 -0.0977416
0.137291 -0.120535 0.400603 -0.0556634 -0.0720121 0.995849
-0.000435285 0.148102 0.308426 0.000482047 -0.369454 0.929249
0.010222 -0.00172682 0.0886612 0.996516 -0.00620836 0.0831716
0.0301915 0.20645 0.575641 0.111322 0.977061 -0.181548
0.0101925 -0.052141 0.0852515 0.996516 -0.00620836 0.0831716
0.0121747 -0.224131 1.95809e-05 0.0113279 1.68364e-05 -0.999936
0.0216849 -0.0788116 0.343554 0.0049515 6.32532e-06 -0.999988
0.00428291 -0.00416486 0.0634934 -3.08654e-05 0.0123881 -0.999923
-0.0311926 0.169305 0.628213 0.133 -0.936825 0.323527
0.0800572 0.100372 0.325952 0.382485 0.000328357 -0.923962
-0.0219038 0.237417 0.614782 -0.0121797 0.659479 -0.751624
-0.168927 0.15528 0.624386 -0.571939 -0.760779 0.306757
0.139199 -0.0863004 0.403185 -0.0556634 -0.0720121 0.995849
0.0807705 -0.178351 0.393284 0.033695 -0.428083 0.903111
0.0782553 0.205263 0.390711 -0.988546 0.15028 0.0138558
0.170741 -0.0195134 0.404202 0.00264727 0.0133872 0.999907
-0.0257137 0.157777 0.565785 0.13151 -0.99064 -0.0365784
0.0617867 -0.0859119 0.299228 -0.000141504 0.147848 0.98901
-0.0704299 0.182185 0.6815 0.1301 -0.937229 0.323536
0.183327 -0.0819712 0.404168 0.444789 -0.0825658 0.891821
-0.0215661 0.055785 0.0635421 0.00728396 -0.0100202 -0.999923
0.0955878 -0.0254742 0.288415 0.000140528 0.147139 0.989116
0.139127 0.165592 0.462015 0.7941 0.581483 -0.176867
0.0517938 0.0309276 0.32322 -1.0453e-06 0.000799867 -1
0.0358373 -0.0511652 0.289512 -0.858061 -0.507948 0.0756319
-0.129047 0.20154 0.761138 0.1301 -0.937229 0.323536
-0.116833 0.196273 0.621872 -0.253043 0.938868 -0.233443
-0.0663026 0.147862 0.283245 -0.000469697 0.376057 -0.926597
0.0788959 0.0499674 0.398794 -0.0258063 0.0751847 0.996836
-0.044789 0.156085 0.543042 0.13151 -0.99064 -0.0365784
-0.0385591 0.102027 0.0794783 0.808326 0.584173 -0.0731566
-0.149389 0.160201 0.650155 0.132541 -0.936471 0.324738
-0.00582606 -0.254506 0.0190987 -0.00139552 0.965817 -0.259222
-0.0882893 0.175672 0.669832 0.132541 -0.936471 0.324738
-0.0442494 0.0413684 0.345572 -1.0322e-06 0.000788984 1
0.118678 0.151167 0.465948 -0.102147 -0.994104 -0.0363721
0.166109 0.159055 0.566682 0.699685 0.703948 -0.122055
-0.0606549 0.114461 0.345506 -1.49656e-06 0.00114564 0.999999
-0.10955 0.0503844 0.34623 -0.0530291 0.00615596 -0.998574
-0.0816345 -0.126218 0.345704 -1.03065e-06 0.000788982 1
-0.0511279 -0.0186496 0.403662 0.0124291 0.0742044 0.997166
0.102602 0.206333 0.56409 0.972661 0.229805 -0.0334721
0.133433 -0.0410978 0.290732 0.000282922 0.147199 0.989107
0.051832 -0.0156119 0.323182 -1.0453e-06 0.000799867 -1
0.0136915 0.192178 0.510138 -0.0132435 -0.999562 0.0264504
0.0453286 -0.10205 0.343745 0.00525325 -0.0222019 -0.99974
0.00475942 0.00600149 0.285479 -0.000234792 0.147888 0.989004
-0.0999276 -0.0107374 0.0838121 0.302965 -0.949354 0.0833067
0.0908657 0.0137534 0.345593 -1.03065e-06 0.000788982 1
0.14076 0.144335 0.529411 -0.138353 -0.98841 -0.0624874
0.141279 0.0511651 0.347702 0.028287 -0.00430684 -0.999591
-0.131323 0.143184 0.557599 0.142236 -0.989153 -0.0366851
0.0175853 -0.0875042 0.323125 -1.04537e-06 0.000799867 -1
0.112544 -0.144377 0.346249 0.058512 -0.013161 -0.9982
0.176698 -0.0729794 0.363173 0.764587 -0.0639713 -0.641338
-0.120628 -0.130293 0.399222 0.0637166 -0.0725662 0.995326
-0.141301 0.231976 0.0113102 -0.00132755 0.875916 -0.482462
-0.104615 0.19116 0.429666 -0.92457 -0.379521 -0.0336756
-0.126792 0.155726 0.628025 0.132541 -0.936471 0.324738
0.00726402 -0.0385383 0.06307 0.00146416 0.0122872 -0.999923
0.0412982 0.224075 0.783713 -0.0650041 -0.917067 0.393399
-0.254099 -0.0388378 0.0202058 -0.0117403 0.875972 0.482219
-0.0749678 -0.19037 0.361428 -0.190015 -0.925613 -0.327315
0.0593638 0.0611825 0.397476 -0.0126409 0.0783843 0.996843
-0.0627593 0.134058 0.0678591 0.808326 0.584173 -0.0731566
0.0941302 0.221876 0.69001 0.196299 0.952385 -0.2333
-0.0621416 0.196676 0.534208 -0.253778 0.964527 -0.072699
-0.168964 -0.0239107 0.407432 0.0344171 0.0598571 0.997613
-0.058723 -0.0872234 0.275811 0.00014144 -0.14778 -0.98902
-0.150122 -0.0206966 0.347946 -0.0530001 0.00608703 -0.998576
0.115929 -0.0118047 0.0624186 -0.0117594 0.00382216 -0.999924
-0.0439553 0.191581 0.506128 0.0217715 -0.811153 -0.584429
0.065335 -0.11523 0.308425 0 0 -1
0.0784382 0.117453 0.281519 -0.992954 0.0415466 -0.110978
-0.161465 0.071006 0.357462 -0.589796 0.215007 -0.778404
-0.0763105 0.194612 0.719863 0.1301 -0.937229 0.323536
0.106276 0.0863788 0.397098 -0.0484964 0.076887 0.99586
0.0726517 0.155344 0.598027 -0.143426 -0.97851 0.148143
0.0407974 0.112455 0.345509 -1.49883e-06 0.00114566 0.999999
-0.0252917 0.136955 0.279416 -4.32636e-05 0.0346365 -0.9994
0.0909322 0.237367 0.749714 0.205639 0.941657 -0.266448
0.0747374 0.197123 0.574368 0.250355 0.95013 -0.185943
-0.101518 0.119378 0.300171 0.000437677 -0.359822 0.933021
-0.165524 -0.141879 0.383036 -0.828 -0.555516 -0.0762779
0.0716094 0.0239874 0.345585 -1.03065e-06 0.000788982 1
-0.0648866 0.12915 0.300924 0.000482031 -0.369454 0.929249
-0.183281 0.00538153 0.3693 -0.760823 0.0713705 -0.645023
-0.165379 0.0320109 0.403953 0.0344171 0.0598571 0.997613
0.0646316 0.233863 0.714125 0.196299 0.952385 -0.2333
-0.0577289 0.192545 0.458426 -0.205485 0.976196 -0.0694097
-0.132407 -0.0805262 0.403604 0.0637166 -0.0725662 0.995326
0.0992822 0.0511555 0.259781 0.552101 0.354316 -0.754748
0.119521 -0.110805 0.346216 0.058512 -0.013161 -0.9982
-0.081058 0.133114 0.279285 -4.32636e-05 0.0346365 -0.9994
-0.084397 0.104268 0.345518 -1.49656e-06 0.00114564 0.999999
-0.080904 0.213506 0.579004 0.252983 0.956764 -0.143537
-0.0605899 -0.0595868 0.345651 -1.0322e-06 0.000788984 1
0.0361917 0.156669 0.572943 -0.129376 -0.98043 0.14839
0.150844 -0.0497854 0.288829 0.000273152 -0.146766 -0.989171
0.00282302 0.0170983 0.128742 0.00229869 -0.999897 0.0141582
0.0973655 0.119022 0.325193 -0.00136462 -0.614012 -0.789295
0.0977857 0.150043 0.534273 -0.138353 -0.98841 -0.0624874
-0.057928 0.243157 0.745238 -0.204537 0.945409 -0.253705
-0.059875 0.155957 0.590347 0.148934 -0.977697 0.148075
0.147807 0.170589 0.534415 0.476542 0.877144 -0.0593779
-0.0679175 0.152454 0.553489 0.142236 -0.989153 -0.0366851
-0.0598362 -0.150942 0.346438 0.0492812 -0.0284212 -0.99838
0.00150206 -0.237911 0.029551 0 0 1
0.00133932 0.0493938 0.0438039 0.281488 0.958342 -0.0484285
0.015521 0.0227377 0.112631 0 0 1
-0.24546 -0.0692016 0.02096 0.00130742 -0.876111 0.482109
0.0419227 0.0775282 0.323257 -1.0453e-06 0.000799867 -1
-0.0877743 0.2246 0.701551 -0.206729 0.942793 -0.261542
0.246975 -0.0717605 0.0382405 0.00105606 -0.861015 0.508579
-0.163485 -0.100396 0.353774 -0.616116 -0.157238 -0.771801
0.114277 -0.00792262 0.0960169 0.0960395 -0.0312448 0.994887
-0.0862053 -0.0981402 0.345682 -1.0322e-06 0.000788984 1
-0.0199966 0.160819 0.585804 0.131866 -0.97971 0.150932
-0.0232145 0.0444556 0.345569 -1.0322e-06 0.000788984 1
-0.00861988 0.22214 0.77379 0.1011 -0.927862 0.358957
-0.0429373 -0.0650803 0.401009 0.0360667 -0.0772611 0.996358
-0.0903855 -0.157362 0.345298 -0.0587223 -0.0160519 -0.998145
-0.119628 0.183827 0.0867243 -0.805365 -0.554683 0.209081
-0.00795755 -0.198163 0.383099 -0.0642352 -0.915461 0.397246
-0.075063 -0.0247833 0.345624 -1.0322e-06 0.000788984 1
0.156608 -0.111159 0.350511 0.627792 -0.158367 -0.762101
0.00813432 0.00827883 0.345598 -1.0322e-06 0.000788984 1
0.0815348 0.176295 0.32203 0.000444945 -0.359821 0.933021
-0.165108 0.0569029 0.402176 0.0481027 0.0769877 0.995871
-0.101321 0.206332 0.49831 -0.468493 0.883329 0.0156266
0.0438324 0.202591 0.55748 0.110542 0.990656 -0.0798838
-0.0675433 0.133027 0.357717 -0.161875 0.834032 -0.527434
-0.0626716 0.236857 0.614558 0.0399364 0.669419 -0.741811
-0.124011 0.10791 0.352227 -0.370767 0.510348 -0.775936
-0.0905556 0.0508021 0.255959 -0.000192227 0.213876 -0.976861
0.105729 0.185445 0.500551 0.250841 0.967382 -0.0353627
0.236848 -0.043296 0.0476593 0.999999 0.00167403 0
-0.00731291 -0.196408 0.0792271 -0.97743 -0.0160536 0.210647
-0.0419051 0.191911 0.442766 -0.0773473 0.975967 -0.203729
-0.000635837 -0.221588 0.0167485 -0.000899147 0.875768 -0.482732
-0.0178369 -0.0615041 0.401103 0.00221005 -0.0753647 0.997154
-0.103387 -0.117237 0.39907 0.0637166 -0.0725662 0.995326
0.0204975 0.0646192 0.323247 -1.0453e-06 0.000799867 -1
-0.0785856 0.198652 0.486396 0.991349 0.131199 -0.00366281
-0.0915736 0.0762175 0.397131 0.0481027 0.0769877 0.995871
-0.0484301 -0.0350905 0.268026 0.000112717 -0.147688 -0.989034
0.155933 -0.0196134 0.348263 0.0530105 0.00629624 -0.998574
-0.0422118 0.0884719 0.345254 0.0387364 0.0770533 -0.996274
0.101065 -0.0924899 0.33458 0.382485 0.000328357 -0.923962
0.0611459 0.195243 0.503887 0.202544 0.976368 -0.0753742
-0.0265708 -0.0253631 0.345624 -1.0322e-06 0.000788984 1
-0.01817 0.0136232 0.323206 -1.04537e-06 0.000799867 -1
0.129034 0.162479 0.439834 0.110181 -0.858524 -0.500796
-0.0264889 0.21841 0.629384 -0.109461 0.969067 -0.221195
0.0329384 0.177512 0.654713 -0.130781 -0.94155 0.31045
0.0221745 -0.0310096 0.345629 -1.03065e-06 0.000788982 1
-0.168181 -0.0335578 0.352093 -0.619415 -0.0477558 -0.78361
-0.161779 0.23295 0.0397505 0 0 -1
0.179497 -0.0245792 0.061628 -0.0112055 0.00521388 -0.999924
0.0580993 -0.117396 0.345697 -1.03065e-06 0.000788982 1
-0.119807 0.0469992 0.400753 0.0481027 0.0769877 0.995871
0.153171 0.076632 0.400134 -0.0484964 0.076887 0.99586
0.0698417 -0.0775674 0.345666 -1.03065e-06 0.000788982 1
-0.0530694 -0.12514 0.313292 0.00102916 -0.800197 -0.599737
0.0226151 0.220077 0.770362 -0.0663143 -0.930621 0.359927
-0.109483 0.0710661 0.346354 -0.0530291 0.00615596 -0.998574
-0.0285594 0.140404 0.360269 -0.0925939 0.860408 -0.501123
-0.219764 -0.0688329 0.032595 0.991149 -0.116068 0.064429
0.13452 0.146665 0.506376 -0.138353 -0.98841 -0.0624874
-0.13573 -0.0924081 0.346941 -0.05714 0.00141411 -0.998365
0.0312666 0.162334 0.29167 -0.000963873 0.771712 -0.635971
-0.103287 0.0855492 0.272521 -0.993394 0.0401217 -0.107512
0.194938 -0.0410194 0.389882 0.991879 -0.106413 0.069665
-0.00738185 0.0252442 0.241758 -0.893757 -0.448552 0
0.213494 -0.0457981 0.0671452 -0.289448 -0.905548 -0.310164
-0.167874 -0.108666 0.403668 0.0436505 -0.0541056 0.997581
0.127313 0.153864 0.622188 -0.130155 -0.937215 0.323554
0.0880519 -0.101604 0.345684 -1.03065e-06 0.000788982 1
-0.0957192 0.20484 0.307518 -0.391968 0.752016 -0.529937
-0.091325 0.210012 0.767913 0.151792 -0.901568 0.405134
0.0261781 0.041011 0.398786 -0.00242297 0.0778707 0.996961
-0.138542 0.209351 0.0259918 -0.999999 -0.000974301 -0.000536489
-0.142789 0.235185 0.805889 -0.726837 0.67848 0.106647
0.118644 0.210697 0.0737646 -0.802266 0.591205 0.0827362
0.0582684 -0.0830892 0.323128 -1.0453e-06 0.000799867 -1
0.0810997 0.135252 0.387884 0.156168 0.936765 0.313181
0.0103886 -0.105812 0.0788951 0.996516 -0.00620836 0.0831716
-0.0124836 -0.116652 0.396845 0.00767314 -0.0769373 0.997006
-0.00367589 0.176446 0.438333 0.0690941 -0.799931 -0.596101
0.0186302 0.00118127 0.401879 -0.00242297 0.0778707 0.996961
0.0029867 0.0840648 0.323262 -1.0453e-06 0.000799867 -1
0.158378 0.181164 0.627521 0.43013 0.87461 -0.223709
-0.0837773 -0.0645097 0.344158 -0.0530001 0.00608703 -0.998576
-0.0133645 -0.0365047 0.323166 -1.04537e-06 0.000799867 -1
0.0967425 0.216954 0.328069 0.393492 0.909274 -0.135589
-0.100269 0.189 0.514689 0.0565165 -0.995228 0.0795391
0.144521 0.178202 0.588935 0.431986 0.876147 -0.213902
0.0732909 -0.00177674 0.345606 -1.03065e-06 0.000788982 1
-0.0470503 0.229637 0.685147 -0.0838165 0.969404 -0.230717
0.0313582 0.0544747 0.272366 -0.00126656 0.98626 -0.165193
0.0198533 -0.0967839 0.343545 0.0049515 6.32532e-06 -0.999988
0.182312 -0.0499512 0.406114 -0.436362 0.00556422 0.899754
-0.0567995 0.0962499 0.0730201 -0.808509 -0.583975 -0.0727056
-0.105377 -0.0486864 0.27977 0.695274 -0.710795 0.106611
-0.00612016 -0.0224052 0.0632677 -3.08654e-05 0.0123881 -0.999923
0.0477935 -0.123548 0.31207 0 -0.999888 -0.0149828
0.10451 0.0132283 0.268651 0.642858 -0.103483 -0.758963
-0.140735 0.237564 0.0824467 0.780333 0.589128 0.209782
0.150205 0.219724 0.769972 0.828833 0.545205 -0.125647
-0.0372162 -0.171625 0.348144 0.0492812 -0.0284212 -0.99838
0.0991057 0.151533 0.0715869 0.803813 -0.590307 -0.0736393
-0.0791688 -0.110803 0.325366 -0.389667 -0.00084854 -0.920955
-0.0949543 0.217735 0.367805 -0.406153 0.901806 0.147597
0.0061408 0.164436 0.59766 -0.131319 -0.979792 0.150876
-0.11131 0.149377 0.498499 0.111155 -0.991295 -0.0705569
0.0253378 0.20809 0.512915 -0.0158655 0.999868 -0.00359455
-0.00845756 -0.0968111 0.0699289 -0.997252 0.00456668 -0.0739365
0.0211467 -0.0818493 0.399477 -0.00199775 -0.0769521 0.997033
-0.0480967 -0.11272 0.290789 0 -0.833268 -0.55287
-0.122688 -0.0166998 0.0700536 0.304639 -0.949698 -0.0725837
-0.12795 0.14875 0.481088 0.111155 -0.991295 -0.0705569
-0.132804 -0.0605661 0.404742 0.0436505 -0.0541056 0.997581
-0.085041 -0.00305828 0.279257 -0.999999 -0.00135486 0.000201755
0.0939763 0.205201 0.629081 0.249176 0.933165 -0.259065
-0.118392 -0.135804 0.346599 -0.0587223 -0.0160519 -0.998145
0.00148837 0.0306724 0.323219 -1.0453e-06 0.000799867 -1
-0.146376 -0.124445 0.401296 0.0637166 -0.0725662 0.995326
0.0891036 -0.138808 0.345714 -1.03065e-06 0.000788982 1
0.0329072 0.160088 0.592669 -0.129376 -0.98043 0.14839
-0.159402 0.143041 0.556195 -0.314222 -0.928626 -0.19728
0.0166421 0.173312 0.441281 -0.0580714 -0.800533 -0.596468
-0.0338953 -0.00171339 0.286625 -0.000199531 0.1479 0.989002
0.123024 0.18534 0.57943 0.253027 0.950883 -0.178323
0.117489 0.147373 0.532885 -0.138353 -0.98841 -0.0624874
-0.153114 0.205554 0.712876 -0.589217 0.786497 -0.185058
-0.187413 -0.0964343 0.391707 -0.933258 -0.358943 0.0137913
-0.0850131 -0.0230498 0.283081 -0.999999 -0.00135486 0.000201755
0.141194 0.228788 0.029551 0 0 1
-0.255416 -0.0463451 0.0389987 0.00106071 -0.862665 -0.505774
-0.0555429 -0.0307715 0.290964 -0.000264637 0.147928 0.988998
0.0132685 0.0557021 0.25547 0.0175839 0.0182967 -0.999678
-0.155869 0.175598 0.695209 -0.0494476 -0.937037 0.345711
-0.0823323 0.160528 0.0815427 0.780333 0.589128 0.209782
-0.0662938 -0.183844 0.391385 -0.0283123 -0.407505 0.912764
0.00589859 -0.0711205 0.323138 -1.04537e-06 0.000799867 -1
0.0610712 -0.0333488 0.343958 0.0175456 0.00728621 -0.999819
0.0857969 0.201003 0.606092 0.249176 0.933165 -0.259065
0.0307164 0.185892 0.429199 -0.0149431 -0.410093 -0.911921
-0.101558 0.208882 0.418013 -0.368416 0.925916 0.0833691
-0.111321 0.199961 0.749435 0.1301 -0.937229 0.323536
0.0774134 0.162638 0.309396 -0.00125678 0.963289 0.268464
0.027405 -0.0608166 0.343583 0.0049515 6.32532e-06 -0.999988
0.137974 0.186117 0.719529 -0.128068 -0.93701 0.324977
-0.0872791 0.250619 0.807531 -0.0929278 0.929662 0.356502
0.0801496 0.0560774 0.345424 -0.0559179 0.00952044 -0.99839
0.074745 0.088975 0.34604 -0.0559179 0.00952044 -0.99839
0.0169466 0.0348837 0.152934 0.950986 -0.308909 0.0141858
0.178549 -0.0406524 0.362156 0.764587 -0.0639713 -0.641338
-0.196296 -0.0151604 0.382404 -0.99102 0.132225 0.0198856
-0.102718 0.233066 0.809655 0.0846428 -0.735741 0.671952
-0.107995 0.00486052 0.0633721 -0.296724 0.903548 -0.30912
0.110655 -0.00926979 0.286002 0.000282922 0.147199 0.989107
-0.127092 -0.000299729 0.0823598 -0.318194 0.924393 0.210359
0.0455882 0.228427 0.61361 -0.0592292 -0.286931 -0.956118
-0.103083 -0.154207 0.396355 0.0637166 -0.0725662 0.995326
0.072434 0.133442 0.062406 -0.00839091 -0.00906182 -0.999924
0.0817151 0.156802 0.0917512 -0.774833 0.596461 0.209448
-0.0314116 0.0607222 0.0950616 -0.808731 -0.582284 0.083057
-0.0359147 0.0303711 0.0848557 -0.304821 0.94956 -0.0736227
0.224647 -0.0782726 0.0272621 0.00105606 -0.861015 0.508579
-0.0611916 0.00539379 0.3456 -1.0322e-06 0.000788984 1
0.0257755 -0.0501428 0.323155 -1.0453e-06 0.000799867 -1
-0.00849343 -0.0715253 0.0832668 -0.97743 -0.0160536 0.210647
0.0679518 0.154196 0.525634 -0.102147 -0.994104 -0.0363721
-0.0340691 0.0506836 0.25722 -0.000879931 0.666581 -0.745432
0.100848 0.193971 0.5494 -0.00350122 -0.978082 0.208193
0.136113 0.218582 1.96037e-05 -0.011328 -1.65504e-05 -0.999936
-0.00759519 0.0558692 0.3975 0.00220945 0.0788334 0.996885
0.035529 0.169921 0.443681 -0.0655505 -0.784193 -0.617044
0.130422 0.204331 0.661001 0.249176 0.933165 -0.259065
-0.128213 0.228253 0.0335554 0.991783 0 0.127935
-0.0610246 0.206365 0.504022 0.0810451 0.89055 -0.447607
-0.177266 -0.0338602 0.0881266 0.277821 -0.937556 0.209293
0.0244724 0.137284 0.389464 0.0164253 0.391066 0.920216
0.102197 0.18721 0.708581 -0.128068 -0.93701 0.324977
-0.224393 -0.0487894 6.24923e-05 0.011328 1.10389e-05 -0.999936
0.0742187 0.243746 0.813866 -0.0208015 -0.235344 0.97169
-0.0613429 -0.0939889 0.343787 -0.00486759 0.00765138 -0.999959
-0.224296 -0.0324017 0.0763934 -0.318194 0.924393 0.210359
0.0780449 0.200276 0.467206 -0.98847 0.15139 -0.00280386
0.00577187 0.165618 0.298369 -0.00125678 0.963289 0.268464
0.00539477 0.207763 0.509838 -0.0158655 0.999868 -0.00359455
-0.00404733 0.0177659 0.17697 0.00247402 -0.999896 0.0142088
