-0.151834 0.181977 0.713076 -0.0494476 -0.937037 0.345711
0.00174204 -0.0244994 0.343456 0.0049515 6.32532e-06 -0.999988
0.169835 -0.0490857 0.354512 0.619743 -0.0502104 -0.783197
0.116526 0.211319 0.672807 0.249176 0.933165 -0.259065
-0.152394 0.050897 0.342998 0.000806311 7.51324e-07 1
0.0135762 0.0836442 0.347156 0.0463941 0.0770381 -0.995948
0.010455 -0.141808 0.0754126 0.996516 -0.00620836 0.0831716
0.116018 0.206855 0.0719175 -0.784663 0.544446 -0.296451
-0.131324 0.171084 0.445173 -0.775464 0.605215 -0.179918
-0.0642651 0.185568 0.68882 0.1301 -0.937229 0.323536
0.0382504 0.0402319 0.398876 -0.00242297 0.0778707 0.996961
-0.00878973 -0.00521801 0.0800664 -0.997252 0.00456668 -0.0739365
0.0307674 0.00375225 0.345601 -1.03065e-06 0.000788982 1
-0.0702148 0.245708 0.814305 0.0386922 -0.235602 0.971079
0.0464892 0.00810458 0.285171 -0.000183015 0.147788 0.989019
-0.0926128 0.190721 0.561571 -0.253778 0.964527 -0.072699
0.0658781 0.169819 0.643688 -0.130155 -0.937215 0.323554
-0.117969 0.127699 0.378678 -0.278658 0.945124 0.170559
-0.0117081 -0.0138487 0.262559 0.000432107 -0.272169 -0.962249
-0.153695 -0.0451107 0.291279 -0.000386642 0.147097 0.989122
-0.0838048 0.209768 0.424396 0.363576 0.927002 0.0920837
0.00774952 -0.197182 0.0623785 0.997338 -0.00473372 -0.0727663
-0.187856 0.0192987 0.402214 -0.426447 0.103727 0.898545
-0.238185 -0.0405703 0.0376388 0.00102812 -0.999999 -0.000763924
-0.14336 -0.00513214 0.0718044 -0.304821 0.94956 -0.0736227
-0.0525145 0.200712 0.554154 -0.253778 0.964527 -0.072699
0.0165086 0.0361559 0.0374132 0.998617 -0.0143954 -0.0505573
0.0676443 -0.0987706 0.286369 -0.999352 -0.0185805 -0.0308423
0.123456 0.0635071 0.347481 -0.000475158 0.380602 0.924739
-0.0801665 0.124459 0.30212 0.000444742 -0.359821 0.933021
-0.0763551 0.151795 0.538542 0.142236 -0.989153 -0.0366851
0.181305 -0.110761 0.378461 0.742082 -0.264092 -0.616093
0.0728946 0.159727 0.288444 -0.000963873 0.771712 -0.635971
-0.00354323 0.220859 0.76905 0.1011 -0.927862 0.358957
-0.127927 0.179625 0.505289 -0.211198 0.976904 -0.0324653
-0.116017 0.0534396 0.33941 0.00119037 5.54183e-07 0.999999
0.0943559 0.0918263 0.260152 0.403668 0.329779 -0.853404
0.0324427 0.0094582 0.343767 0.0175456 0.00728621 -0.999819
-0.00526426 -0.133829 0.0913739 0.000219298 -0.101182 0.994868
-0.00192598 0.162019 0.502927 0.0985553 -0.994978 -0.0175056
-0.157763 0.138964 0.572622 -0.492041 -0.843943 -0.21367
-0.0198756 0.0286228 0.0624662 -0.843126 -0.0146959 0.537515
-0.0739683 0.0677369 0.323249 -1.04537e-06 0.000799867 -1
0.0128698 0.197751 0.707641 -0.130781 -0.94155 0.31045
-0.0760903 0.154698 0.286024 -0.000469697 0.376057 -0.926597
0.0544501 0.144386 0.281773 -0.000469724 0.376057 -0.926596
-0.0780675 0.189197 0.440094 0.910423 -0.413191 -0.0200543
0.0103152 -0.0697128 0.0824698 0.996516 -0.00620836 0.0831716
0.00513352 0.226694 0.654748 0.0806898 0.971759 -0.221751
0.14477 0.231096 0.0507056 -0.58313 -0.797644 -0.154027
0.124829 -0.11534 0.400282 -0.0556634 -0.0720121 0.995849
0.00274296 0.0156288 0.0203581 0.00215445 -0.999039 -0.0437798
0.0878099 0.186229 0.457433 0.202959 0.976924 -0.06654
-0.0640183 0.15152 0.284728 -0.000469697 0.376057 -0.926597
-0.078698 0.191655 0.5254 -0.253778 0.964527 -0.072699
0.0742204 0.00845319 0.323397 0.389718 0.00123386 -0.920934
-0.138041 -0.0225457 0.0742278 0.316159 -0.90121 -0.296417
0.103957 0.000233267 0.403635 -0.0479086 0.0763942 0.995926
-0.186724 0.0546831 0.385769 -0.89135 0.45282 0.0211897
-0.0883486 0.0120261 0.345595 -1.0322e-06 0.000788984 1
0.085186 0.157828 0.616723 -0.130155 -0.937215 0.323554
-0.0907881 0.187595 0.503502 -0.211198 0.976904 -0.0324653
-0.0627247 0.0914225 0.345532 -1.0322e-06 0.000788984 1
0.033769 0.235355 0.627693 -0.0517993 -0.823385 0.565114
-0.0234934 -0.070075 0.323139 -1.04537e-06 0.000799867 -1
-0.0750044 0.207935 0.527217 0.21837 0.917812 0.331565
0.0919846 0.211389 0.770556 -0.145147 -0.902405 0.405705
-0.0269089 0.209609 0.589809 -0.108648 0.977352 -0.181602
-0.111896 0.185502 0.559642 -0.253778 0.964527 -0.072699
-0.187136 0.0403763 0.400123 -0.426447 0.103727 0.898545
-0.0963896 -0.110051 0.34489 -0.0587223 -0.0160519 -0.998145
0.0677742 -0.10743 0.314447 -0.999998 -0.00178703 0.00104158
0.0380296 -0.137236 0.338226 0.00127439 -0.971835 -0.235658
0.0790456 -0.0808452 0.32532 0.389718 0.00123386 -0.920934
0.00611294 0.160616 0.544514 -0.129215 -0.991463 -0.0174438
-0.12541 -0.0689944 0.346383 -0.05714 0.00141411 -0.998365
0.0145111 0.0400666 0.15256 0.585234 0.810742 0.014105
0.0465543 -0.0680522 0.32314 -1.0453e-06 0.000799867 -1
-0.149836 -0.122935 0.348309 -0.115133 -0.0537622 -0.991894
-0.0432199 -0.194108 0.354752 -0.0867676 -0.952312 -0.292529
0.255419 -0.0401351 0.0320063 -0.00132164 0.861179 0.508301
-0.143071 -0.00587937 0.0656499 -0.296724 0.903548 -0.30912
0.0198089 0.227095 0.661846 0.0806898 0.971759 -0.221751
-0.000866026 0.195763 0.696222 0.0984243 -0.94507 0.311696
0.0927999 -0.107271 0.344603 0.058512 -0.013161 -0.9982
0.136083 0.144252 0.586965 -0.146646 -0.976363 0.158779
0.0890107 0.173346 0.290464 -0.403853 0.328754 -0.853712
-0.0679526 0.209436 0.757875 0.151792 -0.901568 0.405134
-0.0418503 -0.0945811 0.345679 -1.03065e-06 0.000788982 1
0.136115 0.224316 0.742476 0.586113 0.779961 -0.21939
0.100264 -0.00702327 0.404014 -0.0479086 0.0763942 0.995926
0.138752 -0.103726 0.4019 -0.0556634 -0.0720121 0.995849
0.0716675 -0.100816 0.301119 0.99835 0.0573359 -0.00309976
0.0113237 -0.00573193 0.32319 -1.0453e-06 0.000799867 -1
0.0040786 0.0215965 0.220654 0.00187483 -0.999998 0
-0.134849 -0.0945305 0.346903 -0.0587223 -0.0160519 -0.998145
-0.116443 0.00315773 0.0672788 -0.304821 0.94956 -0.0736227
0.145251 0.234738 0.0409199 0 0 1
-0.158563 0.184246 0.639671 -0.589217 0.786497 -0.185058
0.139728 -0.040079 0.40456 0.00264727 0.0133872 0.999907
0.147123 -0.0682437 0.294774 6.37594e-05 0.146974 0.98914
0.0444379 0.193831 0.453293 0.068914 0.993374 -0.0919699
-0.0525511 0.214164 0.624145 -0.253043 0.938868 -0.233443
0.00341741 0.127963 0.279103 -4.52296e-05 0.0346674 -0.999399
-0.0913099 0.212817 0.421077 -0.400143 0.91198 0.0904343
-0.0689688 0.222864 0.614176 0.0942839 -0.810783 0.577704
0.0970248 0.212336 0.401432 0.397532 0.913898 0.0822106
-0.102406 0.207187 0.548106 -0.98325 0.18032 -0.0265246
-0.0161783 0.0263814 0.112631 0 0 1
-0.0360168 0.0896121 0.345534 -1.0322e-06 0.000788984 1
-0.147231 0.202626 0.682315 -0.428517 0.870145 -0.243353
-0.142812 0.031123 0.34772 -0.0346201 -0.0037769 -0.999393
-0.156039 0.244437 0.0245124 0.00133848 -0.965806 -0.259263
0.0410355 0.234938 0.612862 0.011928 0.673539 -0.739056
-0.0392057 -0.00424863 0.345608 -1.0322e-06 0.000788984 1
-0.067641 -0.108145 0.315251 0.999998 0.00184995 -0.000518248
-0.147056 0.22042 0.0781523 -0.805365 -0.554683 0.209081
0.0114415 0.0186875 0.169315 0.951004 -0.308852 0.0142031
0.0225364 0.237332 0.707698 0.0806898 0.971759 -0.221751
-0.119292 0.210829 0.0659833 0.766987 0.562182 -0.309324
0.0325746 0.156894 0.560059 -0.129215 -0.991463 -0.0174438
0.0414623 -0.188587 0.35015 0.122881 -0.665949 -0.735807
-0.0560993 -0.0978444 0.323117 -1.04537e-06 0.000799867 -1
0.0510239 -0.114765 0.322617 -0.999999 -0.0013097 0.000326239
-0.0253048 -0.192945 0.388319 -0.0172473 -0.406914 0.913304
-0.064995 0.122079 0.347322 -0.0976386 0.57416 -0.8129
0.00894248 -0.21758 0.0768504 0.977469 -0.0265574 0.209402
0.0812263 0.13692 0.382833 0.156168 0.936765 0.313181
-0.0821697 0.222427 0.61654 0.197566 -0.752586 0.628158
-0.154458 0.229453 0.0734423 -0.849033 -0.488873 0.200365
0.0068396 0.236924 0.7002 0.0806898 0.971759 -0.221751
-0.0797299 0.152399 0.509179 0.142236 -0.989153 -0.0366851
-0.00875324 -0.168094 0.392847 0.00767314 -0.0769373 0.997006
-0.023132 0.207399 0.575904 -0.113839 0.975218 -0.189712
0.0425862 -0.0289925 0.403661 -0.0121967 -0.0759737 0.997035
0.164023 -0.0580661 0.290062 0.000273152 -0.146766 -0.989171
-0.00028681 -0.193798 0.061151 0.00146416 0.0122872 -0.999923
-0.0119138 -0.0119378 0.343619 -0.0145369 -1.85703e-05 -0.999894
0.134659 0.227768 0.0841798 0.072264 0.0735592 0.994669
-0.0267108 0.164761 0.613214 0.133 -0.936825 0.323527
-0.138379 0.143143 0.543437 0.111155 -0.991295 -0.0705569
-0.00389612 0.207301 0.508756 0.0158781 0.895315 -0.445151
-0.222022 -0.0542938 8.92969e-05 0.0113278 1.11103e-05 -0.999936
-0.0840706 0.110646 0.34551 -1.49656e-06 0.00114564 0.999999
0.191911 0.0103383 0.396484 0.992408 0.121465 0.0192969
-0.0271893 0.0653985 0.323247 -1.0453e-06 0.000799867 -1
-0.101268 0.10338 0.335009 -0.999998 -0.00138057 0.00105458
-0.0505112 -0.108681 0.301367 -0.999411 0.0234387 0.0250853
-0.0321426 0.224764 0.783563 0.0662546 -0.904235 0.421863
0.0894245 -0.0272955 0.282817 0.693536 0.712439 -0.106952
0.15803 0.0717796 0.326133 0.00868063 0.906731 -0.421619
-0.101389 0.14935 0.588475 0.148934 -0.977697 0.148075
0.243701 -0.0649479 0.0409199 0 0 1
-0.00291449 -0.219525 0.0397898 -0.00106665 0.860954 0.508681
0.122425 0.230227 0.747907 0.196299 0.952385 -0.2333
-0.0770073 -0.00136121 0.0629076 0.0121087 0.00237909 -0.999924
-0.195478 -0.0241341 0.0839709 -0.322345 0.942926 0.083572
-0.0437362 0.158103 0.490088 0.0985553 -0.994978 -0.0175056
0.0964745 0.181763 0.690594 -0.130155 -0.937215 0.323554
-0.14474 0.150433 0.620089 0.132541 -0.936471 0.324738
-0.0620447 0.0524845 0.345563 -1.0322e-06 0.000788984 1
0.0859072 0.0763045 0.283466 0.000437755 -0.359822 0.933021
-0.133661 0.20475 0.666267 -0.206729 0.942793 -0.261542
0.151081 -0.039569 0.287314 0.000273152 -0.146766 -0.989171
-0.130262 0.152212 0.619309 0.132541 -0.936471 0.324738
-0.103851 0.203497 0.332638 -0.990144 0.138518 -0.0206918
-0.0798238 0.158475 0.074284 0.808326 0.584173 -0.0731566
-0.103479 0.205499 0.532846 -0.564556 0.166226 0.808483
-0.0847388 0.208666 0.44512 0.363606 0.93115 0.0274068
0.0886025 0.0366228 0.345575 -1.03065e-06 0.000788982 1
-0.142251 0.154675 0.474115 -0.314222 -0.928626 -0.19728
0.220383 -0.0761012 0.0147408 -0.0099876 -0.875379 -0.483334
-0.142548 -0.11162 0.401986 0.0637166 -0.0725662 0.995326
0.0906062 0.11598 0.327571 -0.00136462 -0.614012 -0.789295
-0.075334 0.139883 0.280011 -0.000469724 0.376057 -0.926596
0.027876 0.17655 0.435842 -0.0580714 -0.800533 -0.596468
-0.0945383 -0.122071 0.331879 -0.389667 -0.00084854 -0.920955
-0.106716 0.174086 0.672778 0.132541 -0.936471 0.324738
-0.0799892 0.0877414 0.345172 -0.0175945 0.00730945 -0.999819
-0.00807361 -0.0621233 0.0870558 -0.996397 -0.0142467 0.0836112
-0.0511729 -0.0385638 0.403159 0.012403 -0.0679335 0.997613
-0.0922686 0.225896 0.622915 -0.632124 -0.343503 0.694568
0.0778685 0.113106 0.284989 -0.992954 0.0415466 -0.110978
0.00287726 0.168274 0.453139 -0.0816938 -0.970392 -0.227298
0.0847451 0.0117132 0.281356 0.738438 0.100475 0.666794
-0.101094 -0.0186009 0.341798 -0.999999 -0.0013151 -0.000318775
-0.0227972 0.108352 0.345513 -1.49656e-06 0.00114564 0.999999
-0.16105 0.166584 0.577017 -0.715349 0.664028 -0.217584
0.15188 0.0484963 0.326621 -1 -0.000746844 0
0.0896183 0.0194456 0.26713 0.0017786 -0.989016 0.147798
0.0655625 -0.102996 0.281108 0.000950684 -0.801724 -0.597694
-0.00464543 0.246083 0.739071 -0.0655371 0.973301 -0.219975
-0.168261 0.0473431 0.403067 0.0481027 0.0769877 0.995871
-0.0820445 0.0508139 0.337239 0.0118119 -0.99993 -9.44913e-05
-0.0705516 0.141384 0.305791 0.000482031 -0.369454 0.929249
0.0423138 0.0739062 0.0889035 0.81412 -0.574686 0.0833313
-0.0600942 -0.050277 0.344115 -0.00486759 0.00765138 -0.999959
-0.0532689 0.0914915 0.071979 -0.808509 -0.583975 -0.0727056
0.0973548 -0.0988445 0.345682 -1.03065e-06 0.000788982 1
-0.0637015 -0.0340091 0.291447 -0.000264637 0.147928 0.988998
0.0806488 0.214008 0.324353 -0.415079 0.749685 -0.515443
-0.142294 -0.146889 0.351899 -0.581379 -0.308311 -0.752956
0.07734 0.189764 0.436683 -0.909773 -0.414786 -0.0163309
-0.0772282 0.0808962 0.34554 -1.0322e-06 0.000788984 1
0.0898395 0.0447157 0.399514 -0.0484964 0.076887 0.99586
-0.0688828 -0.0962701 0.314259 0 0.864173 0.503195
-0.1404 0.213577 0.0156519 0.00128389 -0.874865 -0.484366
-0.0661319 0.0121259 0.344407 -0.0145369 -1.85703e-05 -0.999894
-0.183709 -0.0921194 0.373512 -0.764439 -0.0665456 -0.641252
0.0109758 0.143648 0.386585 0.0547306 0.918443 0.391748
-0.0827386 0.0589056 0.326854 -0.381587 0.000237226 -0.924333
-0.039679 0.224575 0.661203 -0.0838165 0.969404 -0.230717
-0.145057 -0.00529497 0.0767304 -0.304821 0.94956 -0.0736227
-0.0467023 -0.0778119 0.285251 0.999998 0.00187084 -0.000279743
0.0398817 0.167678 0.627814 -0.130781 -0.94155 0.31045
-0.161135 -0.138361 0.369248 -0.724641 -0.460915 -0.512301
0.0100833 0.136553 0.332865 -0.00107483 0.854875 0.518833
-0.0590722 0.128655 0.27913 -4.52296e-05 0.0346674 -0.999399
-0.0883576 0.20882 0.535737 0.282244 0.947259 -0.151785
0.0761302 -0.0687999 0.27942 0.981049 -0.191648 0.0285376
0.082072 -0.135486 0.344681 0.00525325 -0.0222019 -0.99974
0.0668086 0.0892746 0.395516 -0.0258063 0.0751847 0.996836
0.014408 -0.124051 0.323096 -1.04537e-06 0.000799867 -1
0.0452881 0.129523 0.301015 0.000482031 -0.369454 0.929249
-0.0163332 0.0163819 0.0674702 -0.57706 -0.816444 0.0205229
-0.162551 -0.0558029 0.289665 0.000426663 -0.146744 -0.989174
0.0258651 0.0078546 0.34364 0.0175456 0.00728621 -0.999819
-0.0290762 -0.134075 0.324828 0.00127015 -0.971854 -0.235582
-0.0803512 0.0477677 0.399084 0.0124291 0.0742044 0.997166
0.160449 0.193559 0.703081 0.743645 0.656816 -0.124841
-0.0139843 0.23201 0.797212 0.0545949 -0.917621 0.39369
0.159197 -0.151943 0.388649 0.838131 -0.53969 -0.0791845
-0.167697 -0.0141627 0.0818575 -0.318194 0.924393 0.210359
0.0619353 0.035322 0.345671 0.0463941 0.0770381 -0.995948
-0.234654 -0.0423127 0.0460268 0.941226 0.300594 -0.154067
0.0784278 0.227568 0.798679 -0.11015 -0.897692 0.426633
-0.101661 -0.0129157 0.40445 0.0344171 0.0598571 0.997613
0.0720733 0.2035 0.601888 0.249176 0.933165 -0.259065
0.0466207 -0.0992273 0.323115 -1.04537e-06 0.000799867 -1
-0.00733508 -0.103945 0.0639081 -0.9503 -0.00207327 -0.311328
-0.00874267 -0.198793 0.38152 -0.0642352 -0.915461 0.397246
-0.062489 -0.0502341 0.345644 -1.0322e-06 0.000788984 1
-0.0948295 -0.158023 0.395568 0.012403 -0.0679335 0.997613
0.0843978 0.0152696 0.0828633 0.311432 0.946637 0.0830016
-0.0919052 0.142664 0.0804967 -0.808731 -0.582284 0.083057
-0.0700495 0.122477 0.28602 0.00106366 -0.815271 -0.579078
-0.0465218 -0.0900344 0.289989 0.999374 -0.0160957 -0.0315143
-0.0220078 0.20837 0.580217 -0.113839 0.975218 -0.189712
-0.0213827 -0.179809 0.349158 0.0492812 -0.0284212 -0.99838
-0.116712 0.147903 0.510698 0.111155 -0.991295 -0.0705569
0.0376247 0.217259 0.766223 -0.101379 -0.906374 0.410132
-0.0490433 -0.050046 0.402351 0.012403 -0.0679335 0.997613
-0.0667241 0.217161 0.651564 -0.253043 0.938868 -0.233443
0.134034 -0.148217 0.347869 0.10117 -0.0371698 -0.994175
-0.14582 0.208961 0.704134 -0.589217 0.786497 -0.185058
0.0735878 -0.190198 0.384926 0.161367 -0.935143 0.315386
-0.0729172 0.0988619 0.323274 -1.04537e-06 0.000799867 -1
0.00760943 -0.227535 0.0700892 0.932979 -0.353716 -0.0665943
-0.146094 0.228887 0.805748 -0.910969 0.0894732 0.402655
0.0497546 0.000603702 0.261839 0.0873092 -0.237701 -0.967406
-0.0891743 0.249498 0.80996 -0.0929278 0.929662 0.356502
-0.102737 0.176629 0.678489 0.132541 -0.936471 0.324738
0.0295515 0.0230159 0.25522 -1.40633e-05 0.0106667 -0.999943
0.11092 0.212257 0.779524 -0.148135 -0.908632 0.390441
0.0884696 0.237834 0.749463 0.205639 0.941657 -0.266448
0.150465 0.1947 0.665225 0.43013 0.87461 -0.223709
0.0673365 -0.0937631 0.293448 -0.999367 -0.0255443 -0.0247475
0.254597 -0.0792779 0.0254979 0.00105626 -0.861015 0.508579
0.0332614 0.128836 0.344049 -0.00106659 0.816495 0.577352
0.0103708 0.0332822 0.217234 0.893591 0.448882 0
-0.0600213 0.114792 0.345506 -1.49656e-06 0.00114564 0.999999
-0.118269 -0.0641858 0.40389 0.0637166 -0.0725662 0.995326
0.219803 -0.0627827 0.0352972 -0.99174 -0.00048563 0.128267
-0.0632256 -0.0040527 0.286968 -0.000275591 0.14782 0.989014
0.0993942 0.199124 0.612404 0.249176 0.933165 -0.259065
-0.0749735 0.117292 0.323664 -0.381587 0.000237226 -0.924333
-0.104033 0.104539 0.346164 -0.050674 0.0126289 -0.998635
0.0848784 0.190017 0.499955 0.202544 0.976368 -0.0753742
-0.0943431 0.186145 0.702588 0.1301 -0.937229 0.323536
-0.0176079 -0.150134 0.394301 0.00767314 -0.0769373 0.997006
0.00821906 0.140957 0.325602 -0.0011234 0.855208 0.518284
0.23588 -0.0503657 0.0455602 -0.696655 -0.696566 -0.17166
-0.0121274 -0.0464633 0.345641 -1.03065e-06 0.000788982 1
-0.00895375 -0.0582904 0.0790006 -0.997252 0.00456668 -0.0739365
-0.164666 -0.0563586 0.406012 0.0338475 -0.039821 0.998633
0.0569709 -0.027001 0.290422 -8.0758e-05 0.147905 0.989002
-0.0469504 -0.109896 0.299773 0.999967 0.0055892 -0.00583071
-0.0790602 0.20227 0.430705 0.98815 0.152864 0.0138819
-0.194576 -0.0457616 0.384344 -0.989981 -0.123206 0.0689747
0.0687858 0.0835065 0.346322 -0.0559179 0.00952044 -0.99839
0.0093537 -0.0882017 0.305802 0.924985 -0.168248 -0.340728
0.0915665 0.210953 0.769436 -0.145147 -0.902405 0.405705
-0.0458875 0.126644 0.280199 0.00106366 -0.815271 -0.579078
-0.182931 -0.0813739 0.371469 -0.764439 -0.0665456 -0.641252
-0.0683725 0.141584 0.0828167 0.780333 0.589128 0.209782
0.0925299 0.192076 0.718802 -0.128068 -0.93701 0.324977
-0.0899458 -0.0379929 0.345634 -1.0322e-06 0.000788984 1
-0.0920501 0.0801534 0.39685 0.0481027 0.0769877 0.995871
0.132574 0.18321 0.581622 0.253027 0.950883 -0.178323
-0.102767 0.0054591 0.0974367 -0.095917 -0.0312533 0.994899
-0.059104 0.193607 0.478284 -0.211198 0.976904 -0.0324653
-0.0111935 -0.212498 0.0253784 0.00122524 -0.86227 -0.506448
0.108585 0.184475 0.494247 0.250841 0.967382 -0.0353627
-0.0611578 0.0267466 0.400409 0.0124291 0.0742044 0.997166
0.0697372 -0.059901 0.271754 0.000423332 -0.147697 -0.989033
0.0845642 0.198411 0.350042 0.00121965 -0.986803 -0.161922
0.0737773 0.225032 0.792143 -0.11015 -0.897692 0.426633
0.0700964 0.0035011 0.262284 0.000275 -0.14782 -0.989014
-0.0797858 0.151179 0.541857 0.142236 -0.989153 -0.0366851
-0.0816224 0.0679666 0.397596 0.0124291 0.0742044 0.997166
-0.0173765 0.0252747 0.0636679 0 0 -1
0.108242 0.196261 0.076058 -0.802266 0.591205 0.0827362
-0.142513 0.0639626 0.339074 -0.00830269 -8.11668e-06 -0.999966
-0.152775 -0.149181 0.365453 -0.79316 -0.429137 -0.432133
-0.0358759 0.230247 0.620611 0.0555506 -0.823219 0.565
-0.138573 -0.0765928 0.292406 -0.353801 0.0656372 -0.933015
0.0203913 -0.242677 0.0361981 0.991158 -0.115998 0.0644291
-0.0518462 0.197512 0.509364 -0.253778 0.964527 -0.072699
-0.0594079 -0.0705012 0.27331 -9.6437e-05 -0.14745 -0.989069
-0.148855 -0.162033 0.384435 -0.645129 -0.763703 -0.0238108
0.0481767 0.0539705 0.269226 -0.00126656 0.98626 -0.165193
-0.00538762 -0.084145 0.323128 -1.04537e-06 0.000799867 -1
-0.101829 0.16464 0.317626 0.000437677 -0.359822 0.933021
-0.0341437 -0.0937359 0.398703 0.00221005 -0.0753647 0.997154
0.00382576 0.0145653 0.0573729 0.229611 -0.863875 -0.448329
-0.11329 0.204509 0.0721029 0.808326 0.584173 -0.0731566
0.121053 0.0427749 0.331092 0.0324082 -0.960849 0.275172
0.0167526 0.232558 0.622066 -0.0527308 -0.8196 0.570505
-0.0913534 0.210027 0.501273 0.0725303 0.997364 0.00227203
-0.0502884 0.0415488 0.399012 0.0249217 0.0790624 0.996558
0.0957552 0.229791 0.723689 0.196299 0.952385 -0.2333
0.0618091 -0.0952389 0.323119 -1.0453e-06 0.000799867 -1
0.0192796 0.071378 0.104045 -0.774833 0.596461 0.209448
-0.0539743 0.119766 0.3455 -1.49656e-06 0.00114564 0.999999
0.0995827 0.216405 0.332626 0.393492 0.909274 -0.135589
-0.0504984 -0.168585 0.393257 0.0360667 -0.0772611 0.996358
-0.0285975 -0.15407 0.394082 0.00767314 -0.0769373 0.997006
-0.0319698 0.247205 0.752175 -0.0655371 0.973301 -0.219975
0.145549 0.142703 0.54463 -0.138353 -0.98841 -0.0624874
0.101477 0.175953 0.675778 -0.130155 -0.937215 0.323554
0.02084 -0.114149 0.343885 0.00525325 -0.0222019 -0.99974
-0.0359429 0.0105854 0.257301 -0.0834662 -0.147411 -0.985547
0.00324225 -0.133887 0.0618924 0.00146416 0.0122872 -0.999923
-0.0602438 0.128764 0.0943657 0.796589 0.598758 0.0832736
-0.0182209 0.0863516 0.395137 0.00559644 0.0780511 0.996934
0.0852815 0.180212 0.429308 -0.0449017 -0.263895 -0.963506
0.0822632 0.205154 0.617646 0.249176 0.933165 -0.259065
-0.135031 -0.00432593 0.062473 -0.296724 0.903548 -0.30912
-0.00645819 0.197351 0.462879 -0.0766599 0.992806 -0.0919762
0.249416 -0.0786665 0.0265436 0.00105626 -0.861015 0.508579
0.0652425 0.174285 0.434038 -0.125501 -0.754018 -0.644753
0.140219 0.236877 0.0382428 0.00106839 -0.862412 -0.506206
0.13999 0.216955 0.72666 0.586113 0.779961 -0.21939
-0.0320044 0.0102511 0.345596 -1.0322e-06 0.000788984 1
0.133279 -0.0996609 0.346875 0.058512 -0.013161 -0.9982
-0.0715294 -0.112263 0.294236 -0.999424 0.023109 0.0248668
0.15513 -0.0328991 0.287804 -0.26536 0.953571 -0.142427
0.00783932 0.0453262 0.127063 0.585234 0.810742 0.014105
-0.0991037 -0.000903713 0.0976382 -0.1017 -0.0167434 0.994674
0.137277 0.220438 0.802227 -0.173445 -0.711546 0.680896
0.00483417 -0.228001 0.0397505 0 0 -1
-0.0904079 -0.0247004 0.288266 -0.000553949 0.147039 0.989131
0.000537237 -0.011709 0.288127 -0.000234792 0.147888 0.989004
0.0427728 -0.0319096 0.323169 -1.0453e-06 0.000799867 -1
0.0280958 -0.0436975 0.402435 -0.00199775 -0.0769521 0.997033
-0.0655628 -0.0137484 0.288417 -0.000275591 0.14782 0.989014
0.232282 -0.0430256 0.0835231 0.0960395 -0.0312448 0.994887
0.0862061 0.216889 0.37385 -0.400664 0.9045 0.146111
0.00387673 0.0801934 0.255076 0.383725 -0.835661 -0.392969
-0.0540598 -0.0910356 0.345676 -1.03065e-06 0.000788982 1
-0.0840675 0.000881612 0.327388 -0.381587 0.000237226 -0.924333
-0.0647539 -0.0706084 0.273327 -9.6437e-05 -0.14745 -0.989069
0.0341591 0.238968 0.719094 0.0806898 0.971759 -0.221751
0.15731 0.17516 0.683726 0.599447 -0.727918 0.332865
0.0730536 0.190902 0.479654 0.202544 0.976368 -0.0753742
-0.0488354 -0.123596 0.323096 -1.04537e-06 0.000799867 -1
0.186391 -0.0876006 0.376188 0.764587 -0.0639713 -0.641338
-0.10037 -0.0269599 0.334259 -0.389667 -0.00084854 -0.920955
-0.0146593 0.0325837 0.171446 -0.950405 -0.310691 0.014222
-0.0123774 0.0162922 0.323208 -1.0453e-06 0.000799867 -1
0.0962045 0.11161 0.330962 -0.00136462 -0.614012 -0.789295
0.0704768 -0.0618127 0.323145 -1.0453e-06 0.000799867 -1
0.188697 -0.0933232 0.384003 0.949746 -0.312627 0.0157133
-0.127494 -0.123485 0.346936 -0.0587223 -0.0160519 -0.998145
-0.00120321 0.105765 0.348186 0.0387364 0.0770533 -0.996274
-0.0989998 0.151995 0.0768366 -0.808731 -0.582284 0.083057
-0.186294 -0.0575413 0.405053 -0.445219 -0.0853312 0.891346
0.10718 -0.0430768 0.345618 0.0567106 0.00611149 -0.998372
0.136117 0.235371 0.0409199 0 0 1
-0.0413032 0.200305 0.529758 -0.0768393 0.993709 -0.0814792
0.0412139 0.241568 0.733073 0.0805341 0.972239 -0.219694
0.00527248 -0.0435467 0.289856 0.708511 -0.31345 -0.632266
0.0383074 0.161196 0.290279 -0.000963873 0.771712 -0.635971
0.00778651 -0.186213 0.391436 -0.00756443 -0.0756992 0.997102
0.16313 -0.0664795 0.29131 0.000273152 -0.146766 -0.989171
-0.100583 0.14923 0.517454 0.111155 -0.991295 -0.0705569
0.0654726 0.155289 0.502716 -0.102147 -0.994104 -0.0363721
-0.044007 -0.0729313 0.323137 -1.04537e-06 0.000799867 -1
0.0759883 -0.173118 0.393763 -0.037195 -0.0703063 0.996832
0.136657 0.0668846 0.346098 -0.000475158 0.380602 0.924739
0.0897495 0.160791 0.445202 -0.143658 -0.773643 -0.617121
-0.101705 0.11319 0.394762 0.0481027 0.0769877 0.995871
-0.0474062 0.17374 0.64772 0.133 -0.936825 0.323527
0.0349142 -0.0616051 0.345653 -1.03065e-06 0.000788982 1
-0.022988 -0.00106208 0.34378 -0.0145369 -1.85703e-05 -0.999894
-0.0209662 0.014706 0.0866007 0.302965 -0.949354 0.0833067
-0.0396101 -0.0359417 0.345633 -1.0322e-06 0.000788984 1
-0.151985 -0.00967478 0.0885844 -0.322345 0.942926 0.083572
-0.0819678 0.207223 0.628117 -0.253043 0.938868 -0.233443
-0.12125 0.20086 0.756034 0.1301 -0.937229 0.323536
0.105471 0.0173529 0.273687 0.999904 0.0136793 -0.00206556
0.192701 -0.0221372 0.0634977 0.310263 0.947892 -0.0723733
-0.0966259 0.133525 0.337189 -0.00102613 0.816148 0.577843
-0.0928522 -0.0952981 0.345679 -1.0322e-06 0.000788984 1
-0.00507117 0.205908 0.72831 0.0984243 -0.94507 0.311696
0.00542383 0.251586 0.763868 0.0643919 0.966935 -0.246759
-0.0926559 0.233301 0.615762 -0.887295 0.401214 0.227454
-0.10772 0.192319 0.0885751 -0.0595156 0.0818267 0.994868
0.0203618 -0.0263808 0.343548 0.0049515 6.32532e-06 -0.999988
-0.0626602 0.212289 0.627562 -0.253043 0.938868 -0.233443
0.0180618 -0.0332194 0.273929 0.00126813 -0.989093 0.147285
0.109767 -0.105782 0.345578 0.058512 -0.013161 -0.9982
-0.0449138 -0.197911 0.377966 -0.0578535 -0.924108 0.377726
0.248058 -0.0479919 0.0226782 -0.00130662 0.875574 0.483082
0.078985 0.1189 0.299897 0.000437755 -0.359822 0.933021
-0.103266 0.20692 0.371157 -0.988518 0.149032 0.024945
-0.00502391 0.094711 0.29368 -0.377143 0.833618 0.403538
-0.0503857 0.0188355 0.102952 -0.1017 -0.0167434 0.994674
0.259804 -0.0557242 0.0371621 0.0113436 5.56288e-06 0.999936
-0.0439305 0.10802 0.0874689 0.796589 0.598758 0.0832736
0.00149514 -0.222947 0.0477337 -0.00167925 0.999999 0
0.162924 0.229615 0.0397505 0 0 -1
0.0257866 0.144842 0.381718 0.0547306 0.918443 0.391748
0.112454 0.100311 0.396323 -0.0484964 0.076887 0.99586
-0.0135124 -0.0236782 0.289914 -0.000175952 0.147888 0.989004
0.0960337 -0.0114105 0.404147 -0.0479086 0.0763942 0.995926
-0.0911079 0.0182956 0.345052 -0.0530291 0.00615596 -0.998574
-0.0231552 0.215189 0.759915 0.1011 -0.927862 0.358957
0.0157457 -0.0881881 0.345674 -1.03065e-06 0.000788982 1
0.0716807 -0.117458 0.305003 0.999981 -0.00289933 0.00544798
0.142274 0.202018 0.767071 -0.128068 -0.93701 0.324977
-0.14041 0.0832916 0.347993 -0.0965886 0.0552171 -0.993792
0.157834 -0.0323104 0.286708 -0.26536 0.953571 -0.142427
-0.00655196 0.138753 0.279517 -0.000469724 0.376057 -0.926596
0.162969 -0.0187775 0.0618435 -0.0112055 0.00521388 -0.999924
0.00229988 0.16114 0.542962 -0.129215 -0.991463 -0.0174438
-0.103057 0.201007 0.459211 -0.988053 0.154085 0.0030177
-0.0325999 -0.00907562 0.287726 -0.000199531 0.1479 0.989002
0.145587 -0.0289936 0.404396 0.00264727 0.0133872 0.999907
-0.19429 -0.0440079 0.381133 -0.764439 -0.0665456 -0.641252
-0.122962 0.181834 0.539439 -0.211198 0.976904 -0.0324653
-0.084536 0.228681 0.604024 0.124703 0.770252 -0.625429
-0.238417 -0.0525193 0.0819597 -0.446241 -0.145402 0.883021
0.0743158 0.0829721 0.346007 -0.0559179 0.00952044 -0.99839
-0.000211139 0.192945 0.505857 -0.0196689 -0.811188 -0.584454
0.0835078 -0.124885 0.345703 -1.03065e-06 0.000788982 1
0.0179796 0.0295096 0.0390911 0.950014 -0.309163 -0.0434934
0.00822548 0.0179233 0.185907 0.00247402 -0.999896 0.0142088
-0.121229 0.180694 0.493866 -0.211198 0.976904 -0.0324653
0.12412 -0.00881039 0.404182 0.00264727 0.0133872 0.999907
0.132684 -0.00318597 0.0622642 -0.0112055 0.00521388 -0.999924
-0.0914433 0.123354 0.322679 0.0012589 -0.978184 0.207736
0.0979801 0.192723 0.543488 -0.0339456 -0.980506 0.193537
0.0738535 0.0988796 0.346184 -0.0559179 0.00952044 -0.99839
-0.11929 -0.114641 0.346311 -0.0587223 -0.0160519 -0.998145
-0.150265 -0.0973615 0.40351 0.0436505 -0.0541056 0.997581
0.0179255 0.252767 0.813128 0.0436176 0.94407 0.326849
0.125597 0.224042 0.727363 0.249176 0.933165 -0.259065
-0.0768253 0.14777 0.0622177 0.00728396 -0.0100202 -0.999923
-0.0035735 -0.212804 0.0833414 0.000219298 -0.101182 0.994868
-0.06481 -0.119699 0.345303 0.0492812 -0.0284212 -0.99838
0.111356 0.189997 0.0886661 0.072264 0.0735592 0.994669
-0.102389 -0.00835118 0.345488 -0.0530001 0.00608703 -0.998576
-0.0309217 -0.0526844 0.323153 -1.04537e-06 0.000799867 -1
-0.112895 0.187972 0.580062 -0.253 0.950857 -0.178499
-0.00459942 -0.15963 0.0887497 0.000219298 -0.101182 0.994868
-0.178649 -0.0462584 0.362749 -0.76371 -0.0659326 -0.642184
0.0229237 0.0725462 0.323253 -1.0453e-06 0.000799867 -1
0.0235769 -0.0742993 0.345663 -1.03065e-06 0.000788982 1
-0.0779153 0.209085 0.522276 0.0591054 0.998207 -0.00948505
-0.132747 0.163949 0.442425 -0.719135 0.0247329 -0.69443
0.0606499 0.0456474 0.255461 -1.40633e-05 0.0106667 -0.999943
0.000100149 -0.157352 0.0615995 0.00146416 0.0122872 -0.999923
-0.0637085 0.198067 0.724806 0.1301 -0.937229 0.323536
-0.095737 0.149914 0.586516 0.148934 -0.977697 0.148075
0.194537 -0.045723 0.388141 0.992679 -0.118898 0.0212476
0.146514 0.216794 0.743516 0.586113 0.779961 -0.21939
0.0953396 0.21988 0.343132 0.407723 0.901922 -0.142475
-0.065536 -0.00602491 0.262291 -0.0834662 -0.147411 -0.985547
-0.0498978 0.144969 0.376483 -0.153106 0.916854 0.368697
-0.0285189 -0.0693253 0.400536 0.00221005 -0.0753647 0.997154
-0.0926191 0.186701 0.488511 -0.211198 0.976904 -0.0324653
-0.23997 -0.054965 0.0655983 0.0265738 -0.998632 -0.045028
0.0249671 0.0308623 0.343792 0.0175456 0.00728621 -0.999819
-0.0077469 -0.0669312 0.09013 -0.996397 -0.0142467 0.0836112
0.0496454 0.251848 0.781154 0.0485979 0.983409 -0.174773
0.0731388 0.0680037 0.345551 -1.0322e-06 0.000788984 1
0.0576731 0.205034 0.502873 -0.175365 -0.0491346 -0.983277
-0.103633 0.111334 0.296548 -0.928204 -0.13497 0.346729
0.0704383 0.164512 0.294254 -0.000963873 0.771712 -0.635971
-0.0563536 0.0949555 0.0784589 -0.808509 -0.583975 -0.0727056
-0.149482 0.164864 0.511129 -0.701492 0.699513 -0.136347
0.0679361 -0.0466357 0.343981 0.0175456 0.00728621 -0.999819
-0.0606179 0.0212743 0.257978 -0.0759825 0.0163677 -0.996975
0.130036 0.236703 0.0332619 -0.012651 0.875851 0.482417
-0.131107 -0.173547 0.369357 -0.614183 -0.69665 -0.370753
-0.136965 -0.00153843 0.404986 0.0344171 0.0598571 0.997613
-0.0591171 0.0608883 0.339343 0.00119056 1.20173e-06 0.999999
0.127129 0.0485423 0.346206 0.000534353 -0.380323 0.924854
0.0827824 0.125105 0.32327 -0.00261901 0.000474886 -0.999996
0.084784 0.188428 0.456518 -4.07541e-06 -0.999948 -0.0102365
0.0426672 0.00266925 0.401865 -0.0126409 0.0783843 0.996843
0.101959 0.132314 0.282154 0.993281 0.0427635 -0.107541
-0.163066 0.153462 0.539615 -0.929727 -0.236849 -0.281975
0.102875 0.19764 0.493839 0.987344 0.158563 0.0031118
-0.118463 0.00211204 0.0848937 -0.322345 0.942926 0.083572
0.168463 0.240169 0.0154659 0.991059 0.117135 -0.0638909
-0.0516597 0.138061 0.330251 -0.0011234 0.855208 0.518284
0.0886923 0.158276 0.284811 -0.403853 0.328754 -0.853712
-0.188661 0.0405824 0.392251 -0.99102 0.132225 0.0198856
-0.0115258 0.126029 0.391993 0.00559644 0.0780511 0.996934
0.0218503 0.0353868 0.399215 -0.00242297 0.0778707 0.996961
0.152969 0.0940233 0.363505 0.687333 0.459003 -0.562928
0.0943708 0.193076 0.544641 -0.0339456 -0.980506 0.193537
0.0381326 0.159617 0.59411 -0.129376 -0.98043 0.14839
-0.060205 0.0218071 0.0749699 -0.304821 0.94956 -0.0736227
0.0892864 0.217166 0.78274 -0.148135 -0.908632 0.390441
0.227002 -0.068534 0.0364248 -0.0099956 -0.875691 0.482768
0.00899322 -0.169512 0.0827098 0.977469 -0.0265574 0.209402
-0.0297431 -0.0226192 0.289752 -0.000199531 0.1479 0.989002
-0.0996575 0.183665 0.0810114 0.780333 0.589128 0.209782
-0.0385439 -0.0452239 0.26954 -9.6437e-05 -0.14745 -0.989069
0.0663508 0.191718 0.471893 0.203449 0.976635 -0.0692267
0.0816197 0.0293366 0.345086 -0.0559179 0.00952044 -0.99839
-0.030941 0.194252 0.450444 -0.0695851 0.981434 -0.178731
0.0934291 0.0213018 0.279513 0.00163448 -0.989031 0.147701
0.00234849 -0.0648503 0.312507 0.3835 0.411879 0.826609
-0.10357 0.194344 0.335415 -0.929495 -0.28682 0.231892
-0.0801449 0.225515 0.620148 0.112547 -0.815766 0.567327
-0.0824331 0.155434 0.608985 0.145409 -0.976662 0.158074
0.133243 0.177563 0.52054 0.476542 0.877144 -0.0593779
-0.0131198 0.0278974 0.282203 -0.000194648 0.147642 0.989041
-0.0617089 -0.127701 0.345684 0.0492812 -0.0284212 -0.99838
-0.103878 0.206353 0.349985 -0.988312 0.150456 0.0245473
0.100083 0.1829 0.445164 0.131538 0.986653 0.0959847
0.0900345 0.0198508 0.269836 0.0017786 -0.989016 0.147798
-0.131136 0.201498 0.652545 -0.206729 0.942793 -0.261542
-0.070584 0.205895 0.610437 -0.253043 0.938868 -0.233443
-0.227945 -0.043523 0.0838297 -0.095917 -0.0312533 0.994899
0.0814543 0.194183 0.567378 0.250841 0.967382 -0.0353627
0.141463 -0.101718 0.402197 -0.0556634 -0.0720121 0.995849
0.0991498 0.166493 0.0618822 -0.00839091 -0.00906182 -0.999924
0.0454534 0.0526749 0.346245 0.0463941 0.0770381 -0.995948
-0.115944 -0.0721926 0.403158 0.0637166 -0.0725662 0.995326
0.0442944 0.202299 0.730386 -0.0966389 -0.941288 0.323477
-0.0312646 0.0306578 0.0991502 -0.322345 0.942926 0.083572
0.0868118 -0.0622465 0.328631 0.389718 0.00123386 -0.920934
0.0957634 0.0317617 0.258064 0.000195387 -0.148045 -0.988981
-0.144347 0.101912 0.397002 -0.150935 0.409032 0.899951
0.189584 -0.0805734 0.401177 0.444789 -0.0825658 0.891821
0.0199344 0.0311693 0.183893 0.999999 0.00163905 0
0.0794548 0.0250255 0.325635 0.389718 0.00123386 -0.920934
-0.0748475 -0.0728069 0.293153 -0.975693 -0.216733 0.0324083
-0.0602495 -0.192204 0.386429 -0.152257 -0.914505 0.374831
0.0615288 0.158291 0.606729 -0.143426 -0.97851 0.148143
-0.00715662 -0.215593 0.0306586 0.00106845 -0.862413 -0.506205
-0.18635 -0.0332302 0.37057 -0.76371 -0.0659326 -0.642184
0.125939 0.179969 0.494096 0.250841 0.967382 -0.0353627
0.081229 0.197898 0.731134 -0.128068 -0.93701 0.324977
-0.097616 -0.137036 0.33667 0.00126954 -0.971855 -0.235574
-0.235435 -0.0429908 0.0333199 0.00121345 -0.862526 -0.506011
-0.0422557 0.237833 0.615477 -0.0121797 0.659479 -0.751624
0.160903 0.182658 0.704143 0.975739 -0.154859 0.154766
0.0970601 0.144782 0.312526 0.999999 0.00126818 1.71881e-05
0.252371 -0.0616944 0.0409199 0 0 1
0.0984484 0.186969 0.496939 0.202544 0.976368 -0.0753742
0.00757161 0.0388547 0.19193 0.893591 0.448882 0
-0.0564806 -0.197284 0.369992 -0.192098 -0.923055 -0.33327
0.00557192 -0.0334208 0.270952 0.00106484 -0.830537 -0.556963
0.106101 0.0279275 0.277382 0.994059 -0.0146379 -0.107857
0.0798223 0.0289389 0.345183 -0.0559179 0.00952044 -0.99839
-0.103315 -0.0975257 0.400503 0.0637166 -0.0725662 0.995326
-0.0768548 0.0681177 0.335519 0.000288982 1.34637e-07 -1
0.0737233 0.193581 0.535074 -0.654939 -0.588659 0.473852
-0.0232088 0.245421 0.741855 -0.0850844 0.965042 -0.247899
0.0367912 -0.0401804 0.292391 -9.33448e-06 0.147987 0.988989
-0.0942457 0.0028744 0.263997 0.000929567 -0.147102 -0.989121
-0.0372902 -0.0581273 0.343944 -0.00486759 0.00765138 -0.999959
-0.0205307 0.081645 0.274173 2.83935e-05 0.147804 0.989017
0.180682 -0.11179 0.378153 0.742082 -0.264092 -0.616093
-0.0581791 0.12881 0.0765589 0.808326 0.584173 -0.0731566
0.119265 0.236805 0.769595 0.205639 0.941657 -0.266448
-0.0954295 0.0209562 0.345588 -1.0322e-06 0.000788984 1
-0.00438088 0.0433514 0.239422 -0.000937418 1 0
0.00410941 -0.113579 0.0934854 -0.0153305 -0.102188 0.994647
0.140958 0.235106 0.790872 0.590769 0.788206 -0.172407
-0.166123 0.214709 8.10885e-05 -0.0113395 -1.161e-05 -0.999936
-0.161009 0.18744 0.667706 -0.742781 0.656048 -0.13371
-0.0619181 0.123026 0.285262 0.00106366 -0.815271 -0.579078
0.0864683 0.227681 0.800992 -0.11015 -0.897692 0.426633
-0.102592 0.139884 0.286373 -0.993394 0.0401217 -0.107512
0.040278 0.162516 0.309662 -0.00125151 0.963304 0.268408
-0.0930412 0.0243777 0.259133 0.000195393 -0.148049 -0.98898
-0.0130147 0.0151224 0.255161 -0.0674187 -0.238739 -0.968741
-0.0223463 -0.161358 0.393471 0.00767314 -0.0769373 0.997006
0.103753 0.0918052 0.282647 0.99331 0.0426303 -0.107319
0.103309 0.201255 0.580933 0.835211 -0.538785 0.110155
0.221621 -0.0436046 0.00738504 -0.0126328 0.875959 -0.482221
-0.0716249 -0.110381 0.28865 -0.999424 0.023109 0.0248668
0.00956232 -0.0950887 0.0757202 0.954656 0.0213682 -0.296944
0.150816 0.0156395 0.348125 0.028287 -0.00430684 -0.999591
-0.229169 -0.068983 0.0367384 0.0126774 -0.875962 0.482214
0.0595165 0.219161 0.776228 -0.145147 -0.902405 0.405705
0.158278 0.225127 0.00704383 -0.999999 -0.00166367 0.000376998
-0.156731 -0.0529941 0.405877 0.0338475 -0.039821 0.998633
0.0246303 0.0331901 0.0676209 0.310263 0.947892 -0.0723733
-0.159002 0.239387 0.0277782 0.999997 0.00235235 0.000221987
-0.0019544 0.0601914 0.313074 -0.098153 -0.622186 0.776692
-0.0104259 0.0313096 0.245733 -0.893757 -0.448552 0
-0.0588202 -0.161057 0.346776 0.0492812 -0.0284212 -0.99838
0.0704561 -0.0853609 0.323127 -1.0453e-06 0.000799867 -1
-0.106382 -0.182 0.390229 -0.291692 -0.94086 0.172334
-0.0660588 0.136367 0.323299 -6.25623e-07 0.000478728 -1
0.0145016 0.21868 0.623453 0.107194 0.966896 -0.231562
-0.162378 0.207455 0.0113776 -0.00992701 -0.875283 -0.483509
0.00293154 0.00419059 0.401588 -0.00573789 0.0788222 0.996872
0.0686599 0.137444 0.364324 0.171494 0.83156 -0.528298
0.230614 -0.049345 0.0615237 -0.289448 -0.905548 -0.310164
-0.0239671 0.0493236 0.0876378 -0.808731 -0.582284 0.083057
0.0269859 0.0956656 0.34871 0.0463941 0.0770381 -0.995948
-0.0948076 0.120449 0.271303 -0.404159 0.328705 -0.853586
-0.0418132 -0.058126 0.34565 -1.0322e-06 0.000788984 1
0.0971228 0.20157 0.619028 0.249176 0.933165 -0.259065
0.0892352 0.188175 0.478651 -0.00902918 -0.999865 -0.0136944
-0.010529 -0.221546 0.0358442 -0.0117652 0.875877 0.48239
0.0619192 -0.0860374 0.299247 -0.000141504 0.147848 0.98901
0.0931326 0.19529 0.299549 0.404196 0.329644 -0.853206
-0.0876267 0.190671 0.543511 -0.253778 0.964527 -0.072699
-0.0420592 0.171889 0.440182 0.0584574 -0.78456 -0.617291
0.078005 -0.105975 0.324846 0.389718 0.00123386 -0.920934
0.25593 -0.0679025 0.0409199 0 0 1
0.135383 0.19257 0.62766 0.586113 0.779961 -0.21939
0.0582228 0.191907 0.521854 -0.0104566 -0.999595 0.0264512
-0.0537446 0.247524 0.760522 -0.0850844 0.965042 -0.247899
-0.0261548 0.124603 0.323294 -6.25623e-07 0.000478728 -1
-0.0468698 -0.118385 0.308894 0.999997 0.00221796 -0.00082318
0.218672 -0.0539096 0.026585 -0.99174 -0.00048563 0.128267
0.125744 0.220056 0.713144 0.249176 0.933165 -0.259065
0.0445893 0.217935 0.76944 -0.101379 -0.906374 0.410132
0.0302622 0.0240379 0.0635631 -0.0117594 0.00382216 -0.999924
-0.120229 0.156193 0.447951 -0.0686446 -0.855286 -0.51359
-0.0793203 0.203279 0.317585 0.990874 0.11066 -0.0769575
0.0489076 -0.0894925 0.399128 -0.0121967 -0.0759737 0.997035
0.16301 0.00615827 0.349714 0.617334 0.055167 -0.784764
-0.0982717 0.205339 0.59273 0.00620489 -0.900318 0.435188
-0.157491 0.139929 0.5678 -0.314222 -0.928626 -0.19728
-0.00487452 0.0151009 0.0320294 0.00215445 -0.999039 -0.0437798
0.1364 0.150265 0.479428 0.480015 -0.845986 -0.232148
-0.155768 0.180477 0.618151 -0.428517 0.870145 -0.243353
-0.0168914 0.238628 0.6297 0.0456454 -0.630219 0.775075
0.130025 -0.112859 0.400752 -0.0556634 -0.0720121 0.995849
0.0284694 0.165107 0.300309 -0.00125678 0.963289 0.268464
-0.0821753 0.219547 0.592461 0.210954 0.906406 -0.365959
-0.255134 -0.0752639 0.0119935 -0.0108124 -0.875071 -0.483873
0.046264 0.0121176 0.345595 -1.03065e-06 0.000788982 1
0.0739436 -0.0949969 0.345679 -1.03065e-06 0.000788982 1
0.0976645 0.202354 0.75046 -0.128068 -0.93701 0.324977
0.0840554 -0.0880444 0.34403 0.0567106 0.00611149 -0.998372
0.0670668 0.0103322 0.401572 -0.0126409 0.0783843 0.996843
0.115261 0.230679 0.743725 0.196299 0.952385 -0.2333
-0.232215 -0.0629443 0.0409199 0 0 1
-0.0569574 0.250782 0.77752 -0.063268 0.982296 -0.176327
0.00388247 0.189388 0.429886 0.0689298 0.829366 -0.554437
0.0516767 0.0510843 0.398172 -0.0126409 0.0783843 0.996843
-0.145456 0.0713884 0.339099 -0.00830269 -8.11668e-06 -0.999966
-0.0397434 0.2117 0.755571 0.1011 -0.927862 0.358957
-0.126398 0.0511245 0.400753 0.0481027 0.0769877 0.995871
-0.0715129 0.010006 0.323203 -1.04537e-06 0.000799867 -1
-0.05949 0.141323 0.324852 -0.0011234 0.855208 0.518284
0.0458236 0.137565 0.304212 0.000482047 -0.369454 0.929249
0.0670188 -0.0536781 0.323152 -1.0453e-06 0.000799867 -1
-0.0221786 0.0887475 0.345534 -1.0322e-06 0.000788984 1
-0.0350156 0.157958 0.52743 0.13151 -0.99064 -0.0365784
-0.188304 -0.0394193 0.0719193 0.316159 -0.90121 -0.296417
0.0135702 -0.0323743 0.34563 -1.03065e-06 0.000788982 1
-0.0403292 -0.00942984 0.2622 -0.00932408 -0.240662 -0.970564
-0.0772242 0.078472 0.281034 0.992868 0.0439804 -0.110814
-0.122625 0.210411 0.0612564 0.00728396 -0.0100202 -0.999923
0.00904436 0.254824 0.786607 0.0485979 0.983409 -0.174773
0.0470315 -0.116316 0.312894 -0.999999 -0.000806903 -0.000950092
-0.0187057 0.0219584 0.343717 -0.0145369 -1.85703e-05 -0.999894
0.0902486 0.168675 0.0695236 -0.803759 0.590539 -0.0723462
0.0797878 0.0548738 0.274812 -0.00106671 0.830639 0.55681
-0.112869 -0.0798921 0.4024 0.0637166 -0.0725662 0.995326
0.0421346 0.218168 0.634107 0.107194 0.966896 -0.231562
0.0475373 0.165595 0.448529 -0.0816938 -0.970392 -0.227298
0.0943906 0.159513 0.0619854 -0.00839091 -0.00906182 -0.999924
0.0696336 0.08113 0.32326 -1.0453e-06 0.000799867 -1
-0.186068 -0.0725138 0.29535 0.000829521 0.147007 0.989135
0.0388329 0.002278 0.401847 -0.0126409 0.0783843 0.996843
-0.0177895 0.113398 0.393017 0.00559644 0.0780511 0.996934
-0.250347 -0.0730158 0.018884 0.999999 0.0011744 -0.000111481
-0.0703139 -0.036223 0.323166 -1.04537e-06 0.000799867 -1
0.182255 -0.0384728 0.406015 -0.436362 0.00556422 0.899754
-0.149045 0.0348662 0.347921 -0.0346201 -0.0037769 -0.999393
-0.0822008 0.0327426 0.344809 -0.0175945 0.00730945 -0.999819
0.190765 0.0242878 0.382894 0.98809 0.136785 0.0704793
-0.1047 0.0429903 0.264014 -0.965365 -0.0396522 -0.257871
0.0714954 0.187569 0.697364 -0.130155 -0.937215 0.323554
-0.0105031 -0.0656173 0.297791 -0.92418 -0.171244 -0.341419
0.0979159 -0.183296 0.390301 0.033695 -0.428083 0.903111
-0.0262795 0.0837225 0.0689927 0.808326 0.584173 -0.0731566
-0.0283838 0.135626 0.334312 -0.00107483 0.854875 0.518833
-0.0233515 0.0566121 0.104976 -0.0475467 0.0918018 0.994642
0.0265055 0.232529 0.688094 0.0806898 0.971759 -0.221751
-0.100455 0.033012 0.281421 0 0.147674 0.989036
0.127654 0.239096 0.0128754 -0.991295 0.115114 -0.0639018
0.00719318 -0.0707514 0.323138 -1.04537e-06 0.000799867 -1
-0.0264023 0.254648 0.796308 -0.0468688 0.998865 -0.00844016
-0.00759118 -0.0152943 0.100784 -0.996397 -0.0142467 0.0836112
0.00603541 0.0790123 0.259695 0.383725 -0.835661 -0.392969
-0.188145 -0.0326413 0.406498 -0.453631 -0.0846508 0.88716
0.0845711 0.211015 0.640978 0.249176 0.933165 -0.259065
-0.250941 -0.0806927 0.0190975 0.000371278 -0.253322 -0.967382
-0.116568 0.214943 0.689497 -0.206729 0.942793 -0.261542
0.13204 -0.0601552 0.293568 0.000282922 0.147199 0.989107
-0.12527 -0.178464 0.377641 -0.336228 -0.895967 0.290163
-0.0250434 0.11261 0.323285 -1.0453e-06 0.000799867 -1
0.146389 0.229563 0.0833232 0.0591188 0.0818844 0.994887
0.086698 0.215948 0.660794 0.249176 0.933165 -0.259065
-0.0189109 0.203917 0.544938 -0.113337 0.988432 -0.100787
0.255533 -0.0787169 0.0264457 0.00105626 -0.861015 0.508579
-0.0352319 0.242246 0.733622 -0.0850844 0.965042 -0.247899
-0.081751 0.0606425 0.25756 0.399087 0.0423918 -0.915932
-0.0859387 0.132218 0.339053 -0.00102613 0.816148 0.577843
0.0884897 0.0830653 0.345539 -1.0322e-06 0.000788984 1
-0.103188 0.203444 0.40307 -0.988466 0.150849 0.0133954
0.00880522 0.207628 0.509158 -0.0186803 0.895245 -0.445183
0.0446841 0.100718 0.347836 -0.0559179 0.00952044 -0.99839
0.0280284 -0.138122 0.345275 -0.037822 -0.0742694 -0.996521
-0.165099 -0.140885 0.377126 -0.724641 -0.460915 -0.512301
-0.165204 0.04144 0.403376 0.0481027 0.0769877 0.995871
0.0367619 0.194733 0.457284 0.068914 0.993374 -0.0919699
0.0524451 -0.0397621 0.345636 -1.03065e-06 0.000788982 1
0.0688448 0.120096 0.295999 0.00089425 -0.6854 0.728166
0.155774 0.144855 0.607539 -0.130155 -0.937215 0.323554
-0.0941629 -0.0385332 0.274327 0.695274 -0.710795 0.106611
0.169903 -0.0364648 0.353756 0.619743 -0.0502104 -0.783197
-0.126903 -0.0559766 0.346499 -0.0530001 0.00608703 -0.998576
0.109136 0.147117 0.555434 -0.138353 -0.98841 -0.0624874
0.00969446 0.00656934 0.0757811 0.997338 -0.00473372 -0.0727663
-0.141978 0.193131 0.639115 -0.428517 0.870145 -0.243353
0.133718 0.230197 0.757342 0.249176 0.933165 -0.259065
-0.107387 6.90632e-05 0.0625509 0.0117407 0.00383137 -0.999924
0.00922173 0.13861 0.279472 -4.32636e-05 0.0346365 -0.9994
0.101087 -0.0993966 0.34078 0.999999 0.00167293 0.000405666
0.00902275 0.00464242 0.103505 0.996516 -0.00620836 0.0831716
0.0391907 -0.178717 0.392244 -0.00756443 -0.0756992 0.997102
0.153224 -0.00241705 0.348224 0.0476702 0.00339552 -0.998857
-0.0394731 -0.0257486 0.34402 -0.0145369 -1.85703e-05 -0.999894
-0.0676194 0.0495436 0.344676 -0.0175945 0.00730945 -0.999819
-0.100982 -0.103301 0.338492 -0.999999 -0.0013151 -0.000318775
-0.067542 0.250884 0.811999 -0.0462854 0.92946 0.366007
0.140661 0.204749 0.0262013 -0.00106865 0.862599 -0.505887
0.0061749 0.0467608 0.113666 0.585234 0.810742 0.014105
-0.0388498 0.0288509 0.0774021 -0.304821 0.94956 -0.0736227
-0.0419752 0.220723 0.645852 -0.0838165 0.969404 -0.230717
-0.00748099 -0.0488481 0.0639866 -0.9503 -0.00207327 -0.311328
0.0293953 -0.0838008 0.323128 -1.04537e-06 0.000799867 -1
-0.018034 0.202534 0.722174 0.0984243 -0.94507 0.311696
-0.149683 0.0239262 0.403897 0.0344171 0.0598571 0.997613
0.0231506 0.0362955 0.0639302 0.947517 0.319023 0.0208895
0.0165494 0.06774 0.0644128 -0.803759 0.590539 -0.0723462
-0.169374 0.237386 0.0138034 -0.99122 0.115591 -0.0642067
-0.0110389 0.0840706 0.273812 -0.000205007 0.14773 0.989028
-0.0883024 0.247965 0.790496 -0.117791 0.732224 -0.6708
-0.247511 -0.0492902 0.0682756 -0.950645 -0.309431 -0.0229418
-0.154171 -0.0924517 0.403947 0.0436505 -0.0541056 0.997581
0.0649377 0.0215194 0.0828432 0.272696 0.915704 -0.295167
0.0502982 -0.0990263 0.291776 -0.999999 -0.0015199 -0.000397914
-0.121371 0.191209 0.606422 -0.253043 0.938868 -0.233443
0.0717248 -0.113997 0.298754 0.999981 -0.00289933 0.00544798
-0.0962588 0.0415682 0.280145 -0.000182367 0.147636 0.989042
-0.0843193 0.238571 0.749424 -0.204537 0.945409 -0.253705
0.250803 -0.0456934 0.0409199 0 0 1
-0.225429 -0.034372 0.0839607 -0.322345 0.942926 0.083572
-0.0782862 -0.00646696 0.287325 -0.000275591 0.14782 0.989014
-0.117435 0.145617 0.545854 0.142236 -0.989153 -0.0366851
-0.0360569 0.124586 0.323294 -6.25623e-07 0.000478728 -1
0.0675666 0.188852 0.505815 -0.201551 -0.966987 0.155928
-0.0636489 -0.0738329 0.400913 0.012403 -0.0679335 0.997613
-0.0310947 0.0292423 0.345581 -1.0322e-06 0.000788984 1
-0.0321744 0.1453 0.368146 -0.0625979 0.831537 -0.551931
0.078533 0.0140668 0.3448 0.0463941 0.0770381 -0.995948
0.256686 -0.0547925 0.0408636 0.999999 0.0012103 0.000757817
0.0625902 0.24533 0.757019 0.196881 0.947064 -0.253589
-0.0513301 0.161841 0.46116 0.0837484 -0.963777 -0.253219
-0.150429 0.169997 0.543373 -0.478501 0.876657 -0.0500874
-0.169499 0.000250164 0.354439 -0.617028 0.0572261 -0.784858
-0.0631889 0.00116758 0.402337 0.0124291 0.0742044 0.997166
-0.0290926 -0.00298136 0.260493 -0.00932408 -0.240662 -0.970564
-0.0985589 0.0542987 0.333418 -0.389667 -0.00084854 -0.920955
0.0963675 0.157502 0.286482 0.404196 0.329644 -0.853206
0.00829748 0.0817483 0.346763 0.0463941 0.0770381 -0.995948
-0.106763 0.201728 0.752724 0.1301 -0.937229 0.323536
-0.139663 0.156301 0.462341 -0.314222 -0.928626 -0.19728
-0.0919756 0.218314 0.372462 -0.406153 0.901806 0.147597
-0.0471327 -0.132559 0.346194 -0.00575845 -0.074278 -0.997221
-0.00667847 -0.102392 0.329142 -0.384769 0.410859 0.826527
-0.0056914 -0.0330449 0.101624 0.000219298 -0.101182 0.994868
-0.161589 0.0610873 0.339233 -0.00829951 -4.29502e-06 -0.999966
-0.0861293 -0.0666725 0.40168 0.012403 -0.0679335 0.997613
0.118181 0.183341 0.531296 0.250841 0.967382 -0.0353627
0.0646249 0.162173 0.311006 -0.00125151 0.963304 0.268408
0.077337 0.197637 0.407914 -0.988538 0.150338 0.0138424
-0.101677 0.0322937 0.281529 0 0.147674 0.989036
0.0238574 0.0787199 0.072847 -0.803759 0.590539 -0.0723462
0.100738 0.114482 0.334772 0.999961 0.00108258 -0.00878972
0.00876716 0.149652 0.283933 -0.000469724 0.376057 -0.926596
-0.00752296 -0.0423687 0.345638 -1.03065e-06 0.000788982 1
0.00686721 -0.0685873 0.292499 0.385185 -0.410733 -0.826396
0.0965636 0.126539 0.391704 0.065413 0.400812 0.913822
-0.203438 -0.0253546 0.0666706 -0.296724 0.903548 -0.30912
-0.0826599 0.0354599 0.257476 0.000195435 -0.148049 -0.98898
0.0582438 -0.0720193 0.273559 0.000420851 -0.148082 -0.988975
