0.090464 0.200874 0.683563 0.139908 0.958927 -0.246748
0.000104128 0.079668 0.268469 0.00372063 -0.859574 -0.510998
0.113 -0.00402768 0.284945 0.209937 0.976636 -0.0459227
0.129635 0.153812 0.509703 0.265694 0.96399 -0.0113849
-0.0185096 0.00910607 0.201642 -0.807988 -0.589198 0
0.15767 -0.176271 0.371152 0.322295 -0.922156 0.213901
0.0801754 0.190903 0.418937 0.239722 0.892512 0.382041
0.146446 0.246988 0.803837 -0.0315609 0.587161 -0.808855
0.184648 0.161742 0.362752 -0.253682 -0.853952 0.454326
-0.226045 -0.0280035 0.518231 0 0 1
-0.051499 -0.188947 0.382925 -0.015051 -0.229654 0.973156
0.0121263 0.196901 0.362513 0.0464778 0.959162 -0.279013
0.143992 -0.0208687 0.383158 0 0 1
-0.229804 -0.0828049 0.0314687 -1 -0.000135134 1.69637e-06
0.188942 0.133333 0.485204 0.916511 -0.399932 0.00780685
-0.13653 0.106215 0.350556 0.0208427 0.153276 -0.987964
-0.130297 0.207281 0.36625 -0.1371 0.937311 0.320393
-0.0535491 -0.0981626 0.348192 0 0 -1
-0.111615 0.246979 0.822101 0.003134 -0.641738 0.766918
-0.161435 0.0614668 0.348192 0 0 -1
0.137015 -0.0966914 0.383158 0 0 1
0.125978 0.0646397 0.34827 -0.0297623 0.047324 -0.998436
0.0947641 -0.0593055 0.383158 0 0 1
-0.0961609 0.16175 0.535641 -0.229628 0.967288 -0.107819
-0.212215 0.0197106 0.404157 0.999632 0.0257783 0.00841053
0.0432076 0.156221 0.383158 0 0 1
0.135658 -0.0410432 0.348192 0 0 -1
-0.0888202 -0.191366 0.354646 -0.177058 -0.864688 -0.470069
-0.198198 -0.026882 0.537656 0 0 1
0.180627 0.131106 0.51731 0.364476 -0.929245 0.0605007
-0.0341524 0.0610442 0.164891 -0.585149 0.00523246 0.810909
-0.21939 -0.059691 0.00639279 0.955721 0.208143 -0.208021
-0.107975 0.0336091 0.348192 0 0 -1
0.0105057 0.201482 0.714781 -0.0668271 -0.973642 0.218073
-0.0696698 -0.173958 0.348192 0 0 -1
0.169496 0.162971 0.597277 -0.030938 0.958848 -0.282228
0.158731 0.170488 0.634582 -0.425754 0.861712 -0.276017
-0.185377 -0.159113 0.381873 -0.0589735 -0.169257 0.983806
0.0465662 0.18602 0.45044 0.0967817 0.943874 0.31581
0.110377 0.132697 0.355897 0.0172298 0.221943 -0.974907
-0.00412129 0.0341305 0.016089 -0.283172 0.957873 -0.0478838
-0.0144604 0.197697 0.336652 -0.0267402 -0.546789 -0.836844
0.106797 0.255488 0.809605 0.0027546 0.641964 -0.76673
0.140149 0.227964 0.0355764 -0.00012499 0.690689 0.723152
0.00108307 0.0420172 0.0781851 0.291391 0.956417 -0.0189227
0.0699243 0.156056 0.515316 -0.263669 -0.954423 -0.139841
-0.251318 0.0795666 0.537656 0 0 1
-0.138081 0.150236 0.515004 -0.230964 0.972859 -0.0141942
-0.218962 0.0221387 0.356744 -0.990454 0.0155817 -0.136963
-0.179178 0.0871443 0.339798 0.649142 0.000104105 -0.760667
0.107012 -0.0732673 0.348192 0 0 -1
0.232583 0.0878921 0.520569 -0.0886098 0.275646 -0.957167
-0.124514 0.184685 0.699326 0.182128 -0.950722 0.250913
0.168174 0.222886 0.789584 0.328432 0.521616 -0.787432
-0.120879 0.172843 0.603919 -0.186477 0.950953 -0.246808
-0.0144131 0.164504 0.545112 0.100658 -0.984851 0.141193
0.0527451 -0.00673687 0.141663 -0.339648 -0.93575 -0.0949302
0.180453 0.142556 0.56669 0.406418 -0.863841 0.297663
0.201322 0.114768 0.348881 0.99652 -0.0162127 0.0817648
-0.197458 -0.0638742 0.379506 -0.826984 0.00126802 0.562224
-0.172409 0.204725 0.747684 -0.3691 0.897736 -0.240489
0.142041 0.141843 0.382453 0.188557 0.072529 0.97938
-0.126246 0.184378 0.362047 0.182571 -0.898443 0.399334
-0.143075 0.208516 0.0687227 -0.0660612 -0.675517 -0.734379
0.0829341 0.0161094 0.280363 0.488639 -0.000176027 -0.872486
-0.177691 0.132738 0.535221 0.00128974 -0.97408 0.226201
0.00174346 0.0309141 0.214336 0.289999 0.957024 -0.00223038
0.0272902 0.0187204 0.280113 -0.10937 0.000223826 0.994001
-0.112146 -0.0259435 0.120662 0.269724 -0.956942 0.107285
0.0277486 0.193795 0.365353 -0.0455162 -0.957827 0.283718
0.157593 0.190081 0.0226039 -0.00017345 0.962752 -0.270387
-0.192272 0.0220085 0.348192 0 0 -1
0.189805 0.144518 0.443172 0.774664 -0.607513 -0.175569
0.228779 0.0711647 0.537656 0 0 1
0.0874011 0.176192 0.452427 0.253528 0.91819 0.304386
0.148871 0.206705 0.770252 -0.953943 0.268182 -0.134428
-0.179198 0.167359 0.44115 -0.198048 0.917642 0.344543
-0.149165 0.212024 0.0322315 -3.79867e-05 0.259288 0.9658
-0.109454 -0.119391 0.383158 0 0 1
0.106612 0.214088 0.356401 0.134142 0.92367 0.358942
0.146723 0.0311935 0.323602 0.636795 0.000647196 -0.771033
0.118781 -0.126522 0.348192 0 0 -1
-0.0467979 0.0703651 0.348959 -0.000221891 0.0524772 -0.998622
0.219015 0.0323962 0.518231 0 0 1
0.0206698 0.0409886 0.255715 -0.0228581 0.985623 -0.167407
0.142587 -0.024501 0.124689 0.478803 0.371312 0.795534
-0.0192358 -0.225758 0.0235111 -0.0223238 0.965575 0.259166
0.0328322 0.106978 0.350924 0.00148458 0.156702 -0.987645
0.013981 0.180281 0.481807 0.100855 0.98481 0.141343
-0.172423 0.0119081 0.348192 0 0 -1
-0.198356 -0.0171186 0.347956 0.0771758 1.27885e-05 0.997018
-0.173698 -0.0295799 0.106227 -0.356024 0.927398 0.114802
-0.142777 0.0088585 0.302298 -0.340038 0.00485588 -0.940399
-0.00865527 -0.107683 0.113656 -0.99493 0.0331855 -0.0949372
-0.130508 -0.164218 0.383158 0 0 1
-0.0852416 -0.0134428 0.110701 0.379841 -0.402905 -0.832699
-0.00822042 0.243225 0.817094 0.0487633 -0.744443 0.665903
0.197782 0.0973252 0.368469 0.417926 0.905419 0.0745336
-0.100603 0.0116345 0.383158 0 0 1
0.115292 0.144661 0.531849 -0.228872 -0.963471 0.139075
-0.0929551 -0.070279 0.348192 0 0 -1
-0.0174252 0.215082 0.379326 -0.0273795 0.959237 0.281275
-0.171006 0.15889 0.566171 0.000238145 0.419248 0.907872
0.12819 0.209119 0.361792 0.129761 0.937662 0.322417
-0.0394672 0.208458 0.395027 -0.0726628 0.935958 0.344533
0.122523 0.0334383 0.284345 -0.363544 0.000953488 0.931577
0.0710237 -0.198443 0.370763 0.193891 -0.950697 0.242036
0.0515512 0.041587 0.383158 0 0 1
0.0124979 0.16392 0.514879 -0.100295 -0.984407 -0.144509
-0.069235 0.124193 0.383158 0 0 1
0.149465 0.00816659 0.348192 0 0 -1
-0.00980538 0.118366 0.383158 0 0 1
0.217638 -0.0421844 0.421457 0.3483 -0.92915 -0.123962
-0.0592481 0.246112 0.821875 0.00303895 -0.641523 0.767098
0.219331 -0.00202857 0.357695 0.989451 -0.0155411 -0.144029
0.130252 0.164496 0.631593 -0.185217 -0.955693 0.22879
-0.156873 -0.0387495 0.333955 -0.188559 -0.596293 -0.780308
0.175973 -0.0150534 0.331358 -3.13662e-05 -0.014594 -0.999893
-0.146701 0.227823 0.80909 -0.00285155 -0.524171 0.851608
0.134339 0.183385 0.70628 -0.135419 -0.957322 0.255336
0.108183 0.0896475 0.349848 0.000361384 0.0482411 -0.998836
-0.00650829 -0.137968 0.118075 -0.9921 -0.0511373 0.114556
-0.260961 -0.0777472 0.0361207 -0.955709 -0.0761003 0.284306
-0.0480165 -0.00531882 0.266312 0.0198621 -0.940684 -0.338702
0.12623 0.203252 0.0308743 -0.955719 -0.208177 0.207997
-0.211784 -0.00577021 0.412289 0.999866 0.0159187 0.00371209
0.105818 -0.190079 0.375915 0.193255 -0.952704 0.234536
0.211057 -0.0564963 0.518231 0 0 1
-0.096865 0.164622 0.108758 0.77225 0.624925 0.114452
0.0128382 -0.199473 0.379205 0.0534515 -0.825484 0.561889
0.0194088 0.200524 0.382793 0.00915481 0.23849 0.971102
-0.0121272 0.265159 0.817197 -0.0339915 0.892195 -0.45037
-0.195663 -0.0526263 0.335805 -0.196991 -3.58943e-05 -0.980405
0.0446118 0.20333 0.672367 0.0673788 0.967033 -0.245575
-0.0983813 0.0380328 0.281384 -0.0856063 -0.996267 0.0111037
-0.161365 0.170249 0.620948 -0.142629 0.95217 -0.270239
-0.161045 0.190747 0.746152 -0.0464104 -0.962353 0.267811
0.170695 0.201101 0.0133249 0.955489 -0.208493 -0.208736
0.0128494 0.22616 0.753553 0.0673788 0.967033 -0.245575
0.244637 0.0311367 0.518231 0 0 1
0.208534 -0.00425498 0.537656 0 0 1
-0.143787 0.149824 0.581226 0.182128 -0.950722 0.250913
0.201238 0.183648 0.354414 0.995238 0.0915604 -0.0334216
-0.00975871 -0.0393541 0.383158 0 0 1
-0.221614 0.0452599 0.537656 0 0 1
0.11817 0.181829 0.349576 -0.145633 -0.948937 -0.279839
0.194524 -0.141978 0.349943 0.842763 -0.0307414 -0.537406
-0.00915506 0.216618 0.775983 0.0623333 -0.90386 0.423263
-0.134201 -0.0269058 0.325599 0.481713 0.000148981 0.876329
0.155914 0.179602 0.365763 -0.450558 -0.824523 0.342284
0.0662088 -0.102298 0.383158 0 0 1
0.00596159 -0.0903774 0.105716 0.500281 0.236351 -0.832981
-0.171742 0.140172 0.458154 0.332148 -0.889968 -0.312466
-0.18982 0.14335 0.46378 -0.897698 0.414308 0.149954
0.0276456 0.256386 0.810134 0.00735589 0.298465 -0.954392
-0.135413 0.191688 0.733771 0.182128 -0.950722 0.250913
-0.182776 0.0276816 0.33849 -0.00106045 0.0148503 0.999889
0.127549 -0.170936 0.383158 0 0 1
0.043546 -0.0329543 0.348192 0 0 -1
0.0382462 0.198107 0.708215 -0.0668271 -0.973642 0.218073
0.179824 -0.0271007 0.347888 0.0643508 1.06633e-05 0.997927
0.073726 -0.00584688 0.112019 -0.384414 -0.424276 -0.819888
0.112843 0.245752 0.821771 -0.00189821 -0.635671 0.771957
-0.113085 -0.0330132 0.383158 0 0 1
0.114752 -0.140818 0.383158 0 0 1
-0.118833 0.192495 0.334157 0.0853565 -0.683895 -0.72457
0.0718265 0.0238952 0.265252 -0.358116 0.000554288 0.933677
-0.0692975 -0.0233781 0.383158 0 0 1
-0.169959 0.141757 0.488937 0.308231 0.94539 0.105982
0.0701666 0.0678907 0.380167 0.119154 0.7273 0.675898
0.0465716 0.171513 0.532364 0.100172 0.988742 -0.11115
0.182412 0.193942 0.361695 0.279692 0.930096 0.238105
-0.204438 0.0932007 0.364247 -0.847402 -0.0283988 0.530192
-0.239622 0.076854 0.518231 0 0 -1
-0.0340887 0.201168 0.72275 0.0670004 -0.971535 0.227223
-0.139859 0.0480792 0.310131 -0.491792 0.430864 -0.756635
0.0752414 0.116755 0.383158 0 0 1
0.177049 0.0333566 0.348192 0 0 -1
0.0222773 -0.0172224 0.383158 0 0 1
0.043143 0.234448 0.809129 -0.0468443 -0.719478 0.692933
-0.230489 0.0962236 0.530811 0.445185 0.840012 0.310145
0.0386804 -0.150131 0.383158 0 0 1
0.200385 -0.0110849 0.348111 -0.0771692 -1.27873e-05 0.997018
-0.141642 -0.0460118 0.383158 0 0 1
0.202029 0.045746 0.51839 -0.28774 0.0316892 -0.957184
0.164955 0.144107 0.512244 0.265694 0.96399 -0.0113849
-0.142416 0.161521 0.365087 -0.80612 0.348121 -0.478521
0.219026 0.0280863 0.376822 0.999634 0.0257292 0.00838755
0.10945 0.0214497 0.348192 0 0 -1
-0.0667045 -0.0369297 0.348192 0 0 -1
0.0987453 0.200393 0.371349 0.217582 0.902482 -0.371731
-0.0180555 0.217161 0.336638 -0.0336607 0.499807 -0.865482
-0.00889334 -0.0596369 0.132945 -0.99493 0.0331855 -0.0949372
0.0899349 0.0496476 0.297402 -0.173795 0.975269 0.136552
0.0990249 0.239121 0.793598 0.0798343 0.5667 -0.820047
-0.0626258 0.0459157 0.279411 0.0432607 0.985802 -0.162245
0.154208 -0.0208202 0.348192 0 0 -1
0.00528183 -0.223037 0.0246308 -0.000133694 0.962792 0.270244
0.04971 0.102661 0.126307 -0.826936 0.454891 -0.33053
0.116644 0.18451 0.383092 0.0630112 0.200957 0.977571
0.0653237 0.216019 0.367028 0.129761 0.937662 0.322417
-0.010991 -0.00131723 0.129228 -0.637372 -0.770542 -0.00462903
0.0845823 -0.0975772 0.348192 0 0 -1
-0.197666 0.00285036 0.537656 0 0 1
-0.181058 0.0251911 0.30938 0.916306 0.000208712 -0.400479
-0.00379548 0.15885 0.317667 -0.382921 0.472532 -0.793779
-0.101472 -0.134785 0.348192 0 0 -1
-0.184208 0.149978 0.425362 -0.465988 -0.853376 -0.233678
-0.0287349 -0.0217729 0.348192 0 0 -1
0.113516 0.183279 0.694839 -0.135419 -0.957322 0.255336
-0.0167321 0.0580558 0.146262 0.824173 0.558345 -0.0948173
0.154108 0.192132 0.74956 -0.135419 -0.957322 0.255336
0.158948 -0.118223 0.348192 0 0 -1
0.0672471 0.241553 0.813818 -0.052613 -0.89034 0.452245
-0.210313 -0.0671336 0.509598 0.253321 -0.105866 -0.961572
0.15603 0.181387 0.703907 -0.369152 -0.901139 0.227323
0.201615 -0.109055 0.361119 0.97968 -0.0300067 -0.198308
0.085295 -0.0179788 0.348192 0 0 -1
0.063238 0.113076 0.139357 -0.175617 0.55839 0.810777
0.0301495 0.219733 0.338645 0.0317813 0.449265 -0.892833
-0.15567 -0.0238918 0.116186 -0.356024 0.927398 0.114802
-0.0374144 0.0173243 0.150076 -0.276513 0.956286 -0.0951713
-0.0377687 0.0285448 0.262456 -0.26688 0.000852274 -0.963729
0.169893 0.0997718 0.348754 -0.0132848 0.296812 -0.954844
-0.005289 -0.0969651 0.348192 0 0 -1
-0.037505 0.00536994 0.383158 0 0 1
0.0393861 -0.0299517 0.383158 0 0 1
-0.010304 -0.083709 0.383158 0 0 1
-0.139906 0.119842 0.383158 0 0 1
-0.17977 -0.130702 0.383158 0 0 1
-0.215647 0.0162696 0.518231 0 0 -1
-0.0897145 0.18414 0.674455 0.132953 -0.964423 0.228497
0.110933 -0.115627 0.383158 0 0 1
0.0561592 0.0844 0.141974 0.832507 -0.542031 0.114603
-0.120504 0.149001 0.558538 0.208172 -0.935429 0.285723
-0.159755 0.0870202 0.383158 0 0 1
-0.253044 0.0512426 0.537656 0 0 1
-0.145916 0.254623 0.811574 -0.0896314 0.879738 -0.466934
0.0526897 0.202913 0.406595 0.0896413 0.911733 0.400883
-0.250249 -0.0738249 0.000945335 1 0.00011791 7.01424e-05
0.0316766 0.00820472 0.348192 0 0 -1
0.100654 0.00344066 0.291062 0.54006 -0.000435391 -0.841626
-0.158243 -0.0156776 0.299975 0.448201 -0.0108578 0.893867
0.143903 0.178933 0.639108 0.18313 0.946375 -0.266153
0.220527 -0.00381038 0.505031 0.96117 0.026724 -0.274661
-0.0679968 -0.0117656 0.136128 0.269724 -0.956942 0.107285
0.00943563 0.179446 0.616067 -0.0668271 -0.973642 0.218073
0.0995466 0.206575 0.710867 0.139908 0.958927 -0.246748
-0.125865 0.218435 0.801976 0.0920332 -0.729925 0.677303
-0.034761 0.150228 0.383158 0 0 1
-0.0158948 0.00501423 0.278968 0.110074 -0.0103714 0.993869
0.0665908 0.196087 0.343121 -0.0289788 -0.87727 -0.479121
-0.0835684 0.12197 0.126647 -0.838792 -0.43087 0.332834
0.203223 -0.0994508 0.516688 -0.602189 -0.205637 -0.771416
0.166187 -0.143495 0.383158 0 0 1
0.100018 0.163101 0.112928 -0.204947 0.570151 0.795565
-0.13513 0.0767304 0.383158 0 0 1
-0.155066 0.165853 0.426705 -0.225004 0.863156 0.452035
-0.00939118 0.251167 0.802131 -0.0529025 0.783481 -0.61916
-0.200533 -0.0477509 0.518231 0 0 -1
-0.00223491 0.0994633 0.311096 -0.382798 -0.471698 0.794334
0.103932 0.151901 0.475666 -0.268381 -0.955011 -0.126193
-0.056406 0.104004 0.143882 0.22575 0.579046 0.783417
-0.117883 0.195567 0.739075 0.132953 -0.964423 0.228497
0.136082 -0.0111523 0.315822 0.583412 -0.000624452 -0.812176
-0.0286309 -0.0270464 0.383158 0 0 1
-0.136987 0.145705 0.466232 0.250504 -0.896646 -0.365068
-0.127254 0.195628 0.0720333 0.512434 0.0737317 -0.855556
0.231348 -0.0631059 0.0774085 -0.133325 -0.949835 0.28291
-0.0838471 0.0169739 0.280867 -0.489858 -0.000294643 -0.871802
0.103958 0.179552 0.673198 -0.185217 -0.955693 0.22879
-0.00349241 -0.139561 0.0899799 -0.458319 0.241367 -0.855386
-0.00420576 -0.102041 0.134839 -0.446467 -0.348986 0.823939
0.0359072 0.102614 0.382831 -0.00545969 -0.0859421 0.996285
0.081302 0.213555 0.727647 0.139908 0.958927 -0.246748
0.160145 -0.0414608 0.0996826 -0.339648 -0.93575 -0.0949302
0.0755885 0.138748 0.114642 -0.779786 0.616694 0.107804
-0.157837 0.19329 0.707019 0.425545 0.861606 -0.276669
-0.0858434 0.0836274 0.381563 0.325214 -0.113687 0.938781
-0.0910895 0.176299 0.64329 0.182128 -0.950722 0.250913
0.0153895 0.186106 0.459637 0.0916342 0.946671 0.308897
-0.0527425 0.00336893 0.165712 -0.480842 0.393748 0.783424
0.014759 -0.267752 0.02377 0.000138758 -0.962793 0.27024
-0.0120194 0.0550368 0.269957 -0.786719 0.406246 0.464797
0.0758554 -0.0179291 0.383158 0 0 1
0.0138243 0.213738 0.770516 -0.0668271 -0.973642 0.218073
-0.215105 0.0669772 0.537656 0 0 1
-0.108194 0.163389 0.473505 -0.256634 0.927155 0.272988
-0.0620043 0.198817 0.366712 0.0592433 -0.500216 0.863872
-0.102923 -0.191901 0.371073 -0.193935 -0.952629 0.234281
0.216169 -0.0814144 0.518231 0 0 1
0.190227 0.0376283 0.382736 0.218173 -0.00142065 0.975909
0.165776 0.157041 0.576314 0.18313 0.946375 -0.266153
0.196831 -0.0716057 0.349535 0.842763 -0.0307414 -0.537406
0.0544033 -0.0103632 0.280051 -0.000257259 -0.941276 -0.337638
0.246333 0.05254 0.537656 0 0 1
0.0580538 0.209551 0.386445 0.251488 0.913434 0.319988
0.1856 0.0389119 0.331437 7.11985e-05 0.0146673 -0.999892
-0.0325768 -0.0081302 0.27913 0.0872308 -0.982338 0.165539
-0.0109734 0.12309 0.317769 0.000741386 0.859931 0.51041
-0.195668 -0.156488 0.362906 -0.803448 -0.52246 -0.285494
0.13873 0.158169 0.559861 0.209384 0.932315 -0.294867
-0.00833124 -0.0173342 0.141841 -0.99493 0.0331855 -0.0949372
0.0663211 0.00336635 0.157765 0.476617 0.339055 0.811097
-0.0843854 0.21328 0.338563 -0.0669283 0.448058 -0.891496
-0.189556 -0.0370033 0.522164 0.88376 -0.0123208 -0.467779
0.102084 0.07631 0.383158 0 0 1
-0.0629971 0.102214 0.35062 0.00313943 0.0482521 -0.99883
0.0351848 0.210928 0.386577 0.0257438 0.936769 0.349001
-0.20034 0.0758456 0.373511 -0.967011 0.00047544 0.254734
-0.149917 0.0138072 0.348192 0 0 -1
-0.103845 0.186255 0.398875 0.185865 -0.866828 -0.46267
0.106731 0.0367027 0.294945 0.538712 0.000315492 -0.84249
0.154814 -0.0680141 0.383158 0 0 1
-0.0770809 0.0083986 0.383158 0 0 1
0.0640861 0.195224 0.646649 0.139908 0.958927 -0.246748
0.212241 0.0147332 0.420367 -0.999864 0.0156481 0.0051875
0.182368 0.0151227 0.347723 0.0643508 1.06633e-05 0.997927
-0.202334 0.147758 0.344699 -0.995555 -0.0536007 0.077444
0.0940823 -0.00176575 0.126457 0.177258 0.926866 -0.330905
0.113885 0.209321 0.785719 -0.150657 -0.893463 0.423114
-0.0146829 0.205594 0.735955 0.0670004 -0.971535 0.227223
-0.139248 0.200601 0.0252119 0.000142248 -0.966138 0.258028
-0.240451 -0.0482811 0.51922 -0.278331 -0.0785329 -0.957269
-0.12038 0.14151 0.35812 -0.00574935 0.149209 -0.988789
-0.0207366 0.191609 0.676712 0.0970299 -0.971217 0.217536
-0.00597745 0.00407586 0.0493305 -0.255209 -0.965679 -0.0482998
-0.219129 -0.0206256 0.360953 -0.999867 -0.0158968 -0.00369922
-0.137623 0.197883 0.760335 0.132953 -0.964423 0.228497
0.240507 -0.0741062 0.00934625 2.6528e-05 -0.258138 -0.966108
0.0202871 -0.181895 0.348192 0 0 -1
0.194493 0.0216801 0.338567 0.000814911 0.0148512 0.999889
0.088919 0.151442 0.510992 -0.263669 -0.954423 -0.139841
0.10794 0.167531 0.572801 0.192862 0.960242 -0.201842
0.0830899 0.17304 0.435477 -0.259046 -0.894656 -0.363985
-0.197883 0.0647021 0.523786 0.784542 0.382887 -0.487741
0.0396632 0.0741106 0.114263 0.228623 -0.465099 -0.855228
0.107534 0.109886 0.351663 0.00383672 0.165824 -0.986148
0.203011 -0.0253143 0.357508 0.897694 -0.0266983 -0.43981
0.0404725 0.0360585 0.262298 0.0548997 -0.998316 0.0187641
-0.195061 -0.107059 0.349083 -0.89831 -0.0330615 -0.438117
0.108257 0.154194 0.0971622 0.785087 -0.612051 -0.0950374
-0.187961 -0.0112625 0.335132 0.328525 5.44382e-05 -0.944495
0.247302 -0.0496206 0.523997 0.935689 -0.263683 -0.234432
-0.120112 0.00543316 0.304371 -0.583589 4.87492e-05 -0.812049
-0.21841 -0.0511709 0.495126 -0.921146 -0.385801 -0.0514503
0.0102724 -0.238574 0.00742654 -1 -9.32087e-05 -5.37694e-05
-0.120984 0.114096 0.383158 0 0 1
0.0952935 0.186231 0.356102 0.140648 0.905165 -0.401117
-0.13984 0.232204 0.0239439 0.000166484 -0.96274 -0.27043
0.0178579 0.0308933 0.202279 0.000548725 0.000402483 1
-0.175559 0.150733 0.597814 -0.0450458 -0.962447 0.267706
-0.0911775 0.196724 0.382175 -0.0275039 0.226902 0.973529
0.0248566 0.15067 0.359307 0.000104928 0.159584 -0.987184
0.222601 -0.0547842 0.032235 -0.0219591 0.706578 0.707295
0.0611135 0.220354 0.348863 0.134448 0.971196 -0.196731
0.00272395 0.186674 0.64628 -0.0668271 -0.973642 0.218073
0.18046 0.171305 0.649919 0.947192 -0.289987 0.136875
0.05271 0.156018 0.36018 0.00115767 0.159601 -0.987181
-0.00297386 0.214886 0.338366 -0.0434237 0.504528 -0.862303
-0.0995066 0.151684 0.487994 0.264497 -0.956087 -0.126249
0.0759396 0.0297023 0.294758 -0.4132 -0.000173201 0.91064
-0.124367 0.0229145 0.348192 0 0 -1
0.157201 0.130988 0.37266 0.875618 0.473363 0.0960257
-0.0245638 -0.143431 0.383158 0 0 1
0.140867 0.212186 0.00869368 -2.5398e-05 0.258126 -0.966111
-0.222013 0.0574549 0.518231 0 0 -1
0.185896 0.173734 0.42067 0.197859 0.916392 0.347961
-0.118977 0.247962 0.803762 0.0147206 0.520308 -0.853852
0.0240482 0.0772713 0.349343 -0.000719627 0.0524581 -0.998623
-0.0326191 -0.0904009 0.383158 0 0 1
-0.158603 0.200467 0.0047129 1 0.000135221 1.80141e-06
-0.0551458 0.151614 0.35948 -0.00204799 0.159615 -0.987177
-0.171604 0.144571 0.533394 -0.0432958 -0.988533 0.144665
-0.128955 0.182256 0.0890598 -0.826967 -0.551862 0.107583
-0.207305 -0.00103722 0.334148 -0.398611 -0.0140802 -0.917012
-0.0450706 0.209329 0.760883 0.0670004 -0.971535 0.227223
0.072963 0.231111 0.778802 0.131419 0.897335 -0.421329
-0.0582458 0.0160516 0.348192 0 0 -1
0.0912584 0.171038 0.362606 2.77591e-06 0.145958 -0.989291
-0.0956625 0.218355 0.795743 0.114138 -0.897641 0.425691
-0.0964899 0.255875 0.825715 -0.0445934 -0.292125 0.95534
-0.109198 0.0337244 0.311852 0.481501 1.53903e-05 0.876446
0.106403 0.152445 0.562798 -0.212922 -0.959195 0.186034
-0.116073 0.211423 0.36022 -0.1371 0.937311 0.320393
0.186951 0.152565 0.335561 -0.163015 -0.0420191 -0.985728
0.228623 -0.0887154 0.536353 0.385363 -0.132604 0.913188
-0.0604838 0.22165 0.748332 -0.0678463 0.969207 -0.236717
-0.0538885 -0.135117 0.348192 0 0 -1
0.0885591 0.0119184 0.348192 0 0 -1
-0.217885 -0.083189 0.0161133 0.955784 -0.283989 -0.0763383
-0.0781691 -0.15782 0.383158 0 0 1
0.09943 -0.178551 0.348192 0 0 -1
-0.136866 0.194714 0.378214 0.10637 -0.807238 -0.580562
0.0582143 0.0434662 0.266663 0.00123479 0.987238 -0.159244
-0.00423399 0.167531 0.495515 0.101792 -0.986282 -0.129947
-0.00304514 0.259464 0.829054 0.00679834 -0.299787 0.953982
0.170838 0.131296 0.528814 -0.00148501 -0.976539 0.215336
-0.0411714 0.176821 0.56146 -0.0989763 0.973652 -0.205441
0.00867933 -0.000421934 0.102837 0.31639 -0.948527 -0.0138903
-0.0330955 0.244109 0.819114 0.0269264 -0.714217 0.699406
0.0202758 -0.0296869 0.348192 0 0 -1
0.155938 0.190744 0.689385 0.18313 0.946375 -0.266153
-0.00439562 0.199804 0.423586 -0.0906314 0.923217 0.373438
0.0244881 0.21932 0.356891 -0.0392363 -0.907373 -0.418492
-0.165886 0.214969 0.798128 -0.469628 -0.45785 0.754866
0.105783 0.172403 0.644812 -0.185217 -0.955693 0.22879
-0.00438185 0.166648 0.345513 -0.382873 -0.47265 0.793732
0.0116859 0.0495464 0.14017 -0.819537 0.564684 -0.0974258
-0.0576165 0.0194838 0.268014 -0.355829 0.000386388 -0.934551
-0.00327687 0.167442 0.556593 0.0991026 -0.97717 0.187931
0.131585 0.190449 0.339258 -0.15327 -0.657821 -0.737415
0.0185512 0.0100996 0.259265 0.143897 0.000699915 -0.989592
-0.0675953 0.024494 0.291096 0.345953 0.000307405 0.938252
-0.215683 -0.101207 0.515836 -0.229509 -0.500484 -0.83477
0.0371359 0.174392 0.383158 0 0 1
-0.15683 0.153117 0.603168 0.182128 -0.950722 0.250913
0.0272738 0.00369875 0.129929 -0.339648 -0.93575 -0.0949302
0.250294 -0.0590114 0.0157304 -1 0 0
-0.186611 0.0387186 0.347449 -0.0643451 -1.06623e-05 0.997928
0.0795774 0.206244 0.698258 0.139908 0.958927 -0.246748
-0.00917821 -0.178422 0.383158 0 0 1
-0.0166855 -0.133911 0.348192 0 0 -1
-0.152174 0.227823 0.0471352 0 0 1
-0.0063217 0.224049 0.742628 -0.0678463 0.969207 -0.236717
0.152256 0.142995 0.461637 -0.252872 -0.905567 -0.340594
-0.202107 -0.00825228 0.362539 -0.847402 -0.0283988 0.530192
0.108655 0.166212 0.621276 -0.185217 -0.955693 0.22879
0.196454 -0.10396 0.381193 0.785271 0.00140301 0.619151
0.267427 0.087444 0.520854 0.191233 0.217249 -0.9572
-0.0859034 0.210653 0.723175 -0.186477 0.950953 -0.246808
-0.162209 -0.0403001 0.383158 0 0 1
-0.240926 -0.0817809 0.0163274 0.000198519 -0.965824 -0.259197
0.0777411 0.173295 0.571368 0.192862 0.960242 -0.201842
0.211908 -0.0107363 0.369879 -0.999866 -0.0159483 -0.00370448
0.170735 0.21227 0.032779 0.955418 0.076182 0.285258
-0.200792 -0.134777 0.362234 -0.982776 0.00245063 -0.184783
0.214181 0.00649625 0.518231 0 0 -1
-0.186331 -0.0475148 0.0810741 0.379841 -0.402905 -0.832699
0.0659216 0.218356 0.737587 0.139908 0.958927 -0.246748
-0.120929 0.0476725 0.383158 0 0 1
-0.0448558 0.181568 0.464002 -0.0918141 0.944283 0.316071
0.187085 0.0708137 0.347419 0.0643508 1.03608e-05 0.997927
-0.204877 -0.0384726 0.0812793 -0.210193 0.926453 -0.312255
-0.0840694 -0.00105304 0.298468 0.413382 0.000296334 0.910557
-0.00834475 0.184873 0.349114 -0.634754 -0.0915162 0.767276
0.114995 -0.153745 0.348192 0 0 -1
-0.0557274 0.183908 0.598585 -0.0966903 0.964384 -0.246199
-0.123049 0.142308 0.52575 0.229102 -0.963153 -0.140883
0.0771523 -0.000906952 0.295308 -0.41407 0.000147741 0.910245
0.0358632 -0.00123403 0.147821 -0.339648 -0.93575 -0.0949302
-0.0965432 0.203797 0.761393 0.132953 -0.964423 0.228497
0.169516 0.180976 0.378619 -0.939271 -0.335841 -0.0705827
-0.21931 -0.0264721 0.435166 -0.999867 -0.0158968 -0.00369922
-0.00733244 0.211285 0.758121 0.0670004 -0.971535 0.227223
-0.0717742 0.214214 0.364923 -0.0507972 0.927609 0.370084
0.175687 -0.16021 0.382326 0.0645284 -0.168904 0.983518
-0.0588389 0.165132 0.573795 0.1916 -0.963486 0.187043
-0.13812 0.141285 0.484762 0.269431 -0.957011 -0.107407
0.0381664 0.165403 0.485226 -0.101473 -0.98641 -0.129224
-0.148354 0.179454 0.69681 0.182128 -0.950722 0.250913
-0.0674654 0.107961 0.103566 -0.288829 -0.496312 -0.818689
-0.215543 0.0119884 0.44233 0.333983 0.891914 0.30487
-0.141999 0.172723 0.619414 -0.186477 0.950953 -0.246808
-0.133978 -0.00485945 0.288604 0.349257 0.00126986 0.937026
-0.241594 -0.0189029 0.518231 0 0 -1
0.151576 0.22019 0.0471352 0 0 1
-0.150071 0.189324 0.682196 -0.142629 0.95217 -0.270239
0.172542 0.208556 0.779285 0.94625 -0.222224 0.235007
0.059172 0.176634 0.625068 -0.0964676 -0.96889 0.227919
-0.0744074 0.176142 0.631788 0.132953 -0.964423 0.228497
0.142785 0.15451 0.471704 0.253528 0.91819 0.304386
0.0639277 0.160899 0.49265 -0.268381 -0.955011 -0.126193
0.0609079 0.00741254 0.269266 0.357179 0.00059395 -0.934036
0.201598 -0.0374711 0.0921327 0.42622 0.841175 0.332807
0.00217342 0.0435102 0.176032 -0.054048 0.998528 0.00464126
-0.107719 0.105811 0.350953 -0.00866961 0.168482 -0.985667
-0.0528001 0.0773851 0.134309 -0.687943 -0.646464 -0.329878
-0.0183662 0.0109741 0.254774 -0.994127 0.00832954 0.107899
0.215953 -0.0511298 0.483774 0.3483 -0.92915 -0.123962
0.146019 -0.00922893 0.332078 -0.481698 -8.28872e-06 0.876337
-0.0739108 0.216523 0.786046 0.114138 -0.897641 0.425691
-0.0905275 0.174428 0.36311 -8.44711e-05 0.145955 -0.989291
-0.0556447 0.195014 0.423773 -0.0715134 0.912611 0.402526
-0.00376431 0.235225 0.776318 -0.0613909 0.905035 -0.420883
0.153503 0.0327984 0.306502 0.341334 0.00880602 -0.939901
0.115939 0.193519 0.671732 0.18313 0.946375 -0.266153
-0.200997 -0.0747926 0.341128 -0.763412 -0.000139063 -0.645912
-0.0744361 0.144629 0.383158 0 0 1
0.178989 -0.153633 0.348192 0 0 -1
0.145555 -0.0747211 0.348192 0 0 -1
-0.084187 0.240191 0.813121 0.0516824 -0.885368 0.46201
-0.154128 -0.0767145 0.348192 0 0 -1
0.00925177 0.0304025 0.348192 0 0 -1
-0.16337 0.199756 0.344812 -0.232689 0.965812 -0.114294
-0.00514892 -0.14172 0.383158 0 0 1
0.0861676 -0.165789 0.348192 0 0 -1
0.209452 -0.00868171 0.518231 0 0 1
8.18598e-05 -0.16785 0.109432 0.501252 -0.340135 0.795647
0.141695 0.0975554 0.383158 0 0 1
-0.0504322 0.235218 0.783109 -0.0613909 0.905035 -0.420883
-0.000995799 -0.204735 0.0702518 -0.458319 0.241367 -0.855386
-0.0183116 -0.197969 0.352066 -0.0568409 -0.870806 -0.488329
-0.100619 -0.00401332 0.119312 -0.276513 0.956286 -0.0951713
0.135744 0.190784 0.370526 0.206668 0.824978 -0.526022
0.155449 -0.16906 0.34875 0.333932 -0.844947 -0.417796
-0.091119 -0.119747 0.383158 0 0 1
-0.121096 0.194032 0.382053 0.10637 -0.807238 -0.580562
-0.0633057 -0.128448 0.383158 0 0 1
0.0902597 0.142344 0.383158 0 0 1
0.237188 -0.00178522 0.518231 0 0 1
-0.0357291 0.193443 0.628082 -0.0966903 0.964384 -0.246199
0.00593995 -0.0784271 0.348192 0 0 -1
-0.198029 0.188652 0.348697 -0.808619 0.393012 -0.437809
-0.0551866 0.204455 0.743024 0.0670004 -0.971535 0.227223
0.177109 0.150477 0.428829 -0.230954 -0.922829 -0.308297
0.113289 0.20236 0.766259 -0.135419 -0.957322 0.255336
0.219255 -0.00401569 0.448046 0.999634 0.0257292 0.00838755
0.19701 -0.0461993 0.348363 0.842763 -0.0307414 -0.537406
0.21919 -0.0158383 0.492047 0.999634 0.0257292 0.00838755
-0.0822154 -0.0369408 0.383158 0 0 1
0.009182 0.209509 0.685063 0.096627 0.966901 -0.236147
-0.0875043 -0.076341 0.383158 0 0 1
-0.0474358 -0.11888 0.383158 0 0 1
-0.127696 -0.177027 0.348192 0 0 -1
-0.0781429 0.0345698 0.348192 0 0 -1
0.207813 -0.0158255 0.334586 0.39882 -0.0138584 -0.916925
0.109062 -0.00808442 0.383158 0 0 1
-0.163777 0.167977 0.661543 -0.0303413 -0.963369 0.266458
-0.0576835 0.164198 0.478979 0.101447 -0.986415 -0.129202
0.138731 0.121991 0.354903 0.030952 0.162526 -0.986219
0.189942 0.1401 0.359583 0.262328 -0.065384 0.962761
0.0118644 0.0314966 0.0413716 0.80011 0.597849 -0.0489893
-0.214436 -0.0590052 0.0816655 0.150904 -0.930813 0.332889
0.125475 0.238468 0.814389 -0.0503811 -0.885449 0.461997
0.165228 0.178653 0.651024 -0.030938 0.958848 -0.282228
0.102446 -0.0277403 0.383158 0 0 1
-0.0189566 0.183326 0.638937 0.0970299 -0.971217 0.217536
0.121833 -0.0107551 0.116143 0.177258 0.926866 -0.330905
-0.0365608 0.195244 0.383158 0 0 1
-0.185199 0.181539 0.400384 -0.198841 0.916171 0.347984
-0.219411 -0.00516699 0.370871 -0.999867 -0.0158968 -0.00369922
-0.228778 -0.0698557 0.0430601 -3.9634e-05 0.247716 0.968833
-0.202033 0.00196285 0.518231 0 0 -1
0.0515584 0.163467 0.561216 -0.0987264 -0.976741 0.190341
0.035334 0.0545287 0.151974 0.832507 -0.542031 0.114603
-0.039807 0.182912 0.588434 -0.0966903 0.964384 -0.246199
-0.0513512 0.049717 0.383158 0 0 1
0.15043 -0.113926 0.383158 0 0 1
0.211789 -0.00741727 0.410663 -0.999658 0.0254344 0.00604047
-0.100283 0.000542133 0.290843 -0.540366 0.000188199 -0.84143
-0.0611733 0.0833397 0.349645 -0.000409363 0.0524802 -0.998622
0.0677506 0.088568 0.349872 -0.00299593 0.0524094 -0.998621
-0.0875438 0.186624 0.422961 -0.255823 0.889131 0.379474
0.00120787 0.0774489 0.298514 0.38281 -0.471606 0.794383
-0.142329 0.00668331 0.320313 -0.582512 -0.000915519 -0.812821
0.122095 0.0821352 0.383158 0 0 1
-0.206585 -0.0791896 0.537656 0 0 1
-0.0158252 0.176393 0.606588 0.0970299 -0.971217 0.217536
0.038203 0.247269 0.822351 -0.0236835 -0.646671 0.762401
-0.129686 -0.141426 0.383158 0 0 1
-0.147754 -0.0195531 0.100113 -0.276513 0.956286 -0.0951713
-0.0366843 0.0557287 0.348203 0.000690591 0.0515204 -0.998672
0.00614752 -0.107558 0.100953 0.500281 0.236351 -0.832981
-0.138023 -0.14494 0.348192 0 0 -1
0.139743 -0.144272 0.383158 0 0 1
-0.220549 -0.0111182 0.518231 0 0 -1
0.00930627 0.189173 0.425925 -0.0952724 -0.921033 -0.377653
0.00340809 -0.179565 0.0788763 0.500281 0.236351 -0.832981
-0.239713 -0.0676935 0.534114 -0.86388 -0.296105 0.407473
0.197502 0.17542 0.33914 0.730354 0.0279113 -0.682498
0.0242791 -0.148129 0.348192 0 0 -1
-0.0452099 0.0966355 0.125909 0.824173 0.558345 -0.0948173
-0.00663691 -0.232949 0.0436232 -0.923752 -0.382846 -0.0105174
-0.0355064 0.123313 0.353535 -0.000680111 0.156578 -0.987665
0.0446398 0.214739 0.7173 0.0673788 0.967033 -0.245575
0.186678 0.16241 0.446945 0.617502 0.71775 0.321754
0.239123 0.0454214 0.514648 0.251227 0.0814971 -0.964491
-0.140431 0.0603273 0.348192 0 0 -1
-0.107125 0.181215 0.673555 0.182128 -0.950722 0.250913
0.16242 0.151381 0.601182 -0.135419 -0.957322 0.255336
-0.168727 0.176198 0.642324 0.0307768 0.958674 -0.282836
-0.193073 -0.0991118 0.521717 0.867042 -0.138816 -0.478506
0.211988 -0.0324388 0.448511 -0.99966 -0.0258188 -0.00364945
0.120184 0.0485831 0.29821 0.33961 0.721223 -0.603741
-0.0111511 -0.253218 0.0387643 6.41116e-05 -0.259103 0.96585
0.00468067 0.188447 0.383158 0 0 1
0.00153615 -0.202398 0.0937473 0.501252 -0.340135 0.795647
0.24658 -0.0590388 0.0468826 0.923852 -0.382628 0.00969699
0.101686 -0.00726622 0.307739 -0.475598 -0.000237297 0.879663
-0.0164384 -0.259942 0.00724973 -0.0208137 -0.706947 -0.706961
-0.000419322 0.175847 0.597278 0.0970299 -0.971217 0.217536
-0.0106883 0.185617 0.462345 -0.0973334 0.946155 0.308734
-0.130765 -0.112367 0.348192 0 0 -1
0.127914 -0.141825 0.348192 0 0 -1
0.174071 0.183452 0.672612 0.369061 0.897938 -0.239795
0.114148 0.189514 0.0846235 -0.826936 0.454891 -0.33053
0.0332693 0.203639 0.334332 -0.0134005 -0.546355 -0.837447
-0.17192 0.0450801 0.334195 -0.635985 -0.000109466 -0.771702
-0.155209 0.0401071 0.383158 0 0 1
-0.0916855 0.175446 0.591891 -0.186477 0.950953 -0.246808
-0.0605235 -0.114213 0.348192 0 0 -1
-0.139638 0.154567 0.381971 -0.18657 0.0717046 0.979821
0.138303 0.0598342 0.383158 0 0 1
-0.0476285 -0.0511609 0.383158 0 0 1
0.219048 -0.0309243 0.388676 0.999877 -0.0155358 -0.00224726
-0.0124651 -0.181949 0.348192 0 0 -1
0.0338371 0.180229 0.629627 -0.0964676 -0.96889 0.227919
0.234043 -0.0685264 0.0318083 -2.66473e-05 0.2593 0.965797
-0.0579426 -0.00620156 0.120959 0.332141 -0.938203 -0.0972478
0.00067832 0.00438145 0.0151492 0.255087 -0.965711 -0.0483015
0.195428 0.179187 0.395419 0.495896 0.799199 0.33966
-0.0112687 0.00686423 0.383158 0 0 1
-0.104941 -0.179355 0.383025 -0.0456083 -0.222448 0.973877
0.151518 0.254155 0.817763 0.266062 0.911156 0.31465
-0.23264 -0.0511912 0.0832408 -0.553874 0.271737 0.787008
0.160532 0.175311 0.346026 -0.538907 -0.830788 -0.139176
-0.164829 0.132239 0.517653 0.266614 -0.963702 0.0140066
-0.0828453 0.15274 0.51981 0.229102 -0.963153 -0.140883
-0.081971 0.205112 0.390746 -0.129007 0.932229 0.338093
0.0301568 -0.102975 0.383158 0 0 1
0.0463467 0.0371756 0.348192 0 0 -1
-0.0343973 0.180918 0.439695 0.0955263 -0.920706 -0.378386
0.155713 0.0418487 0.348192 0 0 -1
0.141183 0.163023 0.580663 0.18313 0.946375 -0.266153
0.112912 0.0198297 0.290857 0.377576 -0.000808947 -0.925978
0.131751 0.00417694 0.348192 0 0 -1
-0.131166 -0.0321238 0.383158 0 0 1
0.0928377 0.133854 0.10078 0.785087 -0.612051 -0.0950374
-0.170874 0.206982 0.0171098 -1 -9.39826e-05 0
0.137429 0.220395 0.0805386 -0.680803 0.679457 0.27358
0.16482 0.226506 0.806235 0.448362 -0.415309 0.791511
0.0309195 -0.044857 0.348192 0 0 -1
-0.101028 0.0759393 0.349231 0.00313943 0.0482521 -0.99883
0.0655125 0.261309 0.81433 0.0027546 0.641964 -0.76673
0.104946 -0.0210281 0.348192 0 0 -1
0.210588 0.0232146 0.351306 -0.932896 0.0152489 0.359824
-0.0967732 0.153343 0.555461 0.208172 -0.935429 0.285723
0.13688 0.195908 0.694633 0.18313 0.946375 -0.266153
-0.106497 0.0201526 0.294819 -0.538898 -0.000638944 -0.842371
0.135134 0.192334 0.0794952 0.713372 -0.626857 -0.313289
-0.15658 -0.06167 0.383158 0 0 1
0.196392 0.05501 0.536636 -0.412106 0.208186 0.887033
-0.252826 0.0273281 0.537656 0 0 1
-0.00360198 0.0355342 0.383158 0 0 1
-0.080524 -0.0102827 0.383158 0 0 1
0.215792 -0.101406 0.537656 0 0 1
-0.188712 -0.115974 0.382885 -0.187527 -0.00128137 0.982259
0.0301693 0.175905 0.453015 -0.0947222 -0.920784 -0.378398
-0.00927848 0.0819388 0.379888 0.0407403 -0.571259 0.819758
0.0534374 -0.115705 0.348192 0 0 -1
-0.0669484 0.196085 0.383009 -0.0275039 0.226902 0.973529
-0.229807 -0.0575804 0.030937 -1 -0.000170877 -3.76288e-05
0.12707 0.160474 0.466802 0.253528 0.91819 0.304386
0.151055 0.0188922 0.334846 -0.481698 -8.28872e-06 0.876337
0.127386 0.183164 0.0937823 0.830228 -0.459707 0.315262
0.104283 -0.0979988 0.383158 0 0 1
0.0124556 0.181226 0.568746 0.0986913 0.974128 -0.203311
0.0659902 0.0430522 0.290498 -0.345953 -0.000265735 0.938252
0.225151 -1.88956e-05 0.537656 0 0 1
-0.0729444 0.110814 0.136577 -0.585149 0.00523246 0.810909
-0.0789282 0.169674 0.383158 0 0 1
0.17572 -0.0123429 0.383158 0 0 1
-0.182771 0.156311 0.360726 0.232088 -0.160373 0.959383
-0.21913 -0.0308569 0.407245 -0.999662 -0.0257206 -0.00364911
-0.125733 0.064105 0.383158 0 0 1
0.0444316 -0.0573644 0.383158 0 0 1
-0.14346 0.185551 0.665412 -0.142629 0.95217 -0.270239
-0.151383 0.243074 0.800236 -0.00574132 0.590531 -0.806995
0.0439849 0.0666326 0.130126 0.785087 -0.612051 -0.0950374
-0.109102 -0.16255 0.383158 0 0 1
0.0941844 0.210224 0.780613 -0.150657 -0.893463 0.423114
0.0240171 0.174038 0.599155 -0.0964676 -0.96889 0.227919
-0.0112022 -0.00216322 0.260172 -0.0175854 -0.9491 -0.314484
0.126329 0.219541 0.0312426 -0.955805 0.207791 0.20799
-0.0281318 -0.100878 0.348192 0 0 -1
-0.160939 0.195813 0.762344 -0.0450458 -0.962447 0.267706
0.00805684 -0.00733981 0.141969 0.994923 0.0252945 -0.0974103
0.138876 0.179264 0.409296 0.239722 0.892512 0.382041
-0.169794 -0.152543 0.383158 0 0 1
0.135396 0.195511 0.752303 -0.135419 -0.957322 0.255336
0.0138062 0.0735806 0.278959 0.000221897 -0.863582 -0.504208
0.1872 0.0748118 0.383158 0 0 1
-0.135207 0.12495 0.355465 -0.043202 0.229311 -0.972394
0.159239 -0.000908956 0.300637 -0.457464 -0.0111746 0.889158
-0.0517813 -0.0221557 0.348192 0 0 -1
-0.00292699 -0.0295005 0.166654 -0.523564 -0.335037 0.783346
-0.127452 0.209399 0.740991 -0.142629 0.95217 -0.270239
0.174078 0.0569654 0.383158 0 0 1
0.119292 0.218743 0.769351 0.139908 0.958927 -0.246748
-0.0878755 -0.0493545 0.348192 0 0 -1
0.191816 -0.0677897 0.520888 -0.289202 -0.0112923 -0.957202
-0.0880441 0.048509 0.348192 0 0 -1
-0.0280546 0.194364 0.409773 0.0788909 -0.922356 -0.378201
0.11061 -0.0946264 0.348192 0 0 -1
-0.203856 0.053714 0.354984 -0.89831 -0.0330615 -0.438117
0.0120291 0.19197 0.672777 -0.0668271 -0.973642 0.218073
0.160249 0.150853 0.552008 0.209384 0.932315 -0.294867
-0.199887 0.0275739 0.518431 0.287668 0.0318544 -0.9572
0.20135 -0.135146 0.363755 0.97968 -0.0300067 -0.198308
0.121136 0.0620092 0.383158 0 0 1
-0.215486 -0.05055 0.477907 0.517571 -0.848596 -0.109571
-0.0223333 0.0147601 0.186252 -0.955405 -0.00479825 0.29526
0.0549406 0.0796018 0.381931 -0.0644178 0.0319921 0.99741
0.183094 0.155577 0.59837 0.947192 -0.289987 0.136875
0.0377132 0.162328 0.508137 -0.100933 -0.984539 -0.14316
-0.21182 -0.00837418 0.433054 0.999866 0.0159187 0.00371209
0.134647 0.0172848 0.314769 0.583412 -0.000624452 -0.812176
0.0785243 0.113942 0.110772 0.785087 -0.612051 -0.0950374
-0.111513 -0.0865932 0.383158 0 0 1
0.0598463 0.184563 0.602813 0.139908 0.958927 -0.246748
-0.139917 0.177339 0.37015 -0.917506 0.128391 0.376428
0.0703787 0.178773 0.587947 0.18313 0.946375 -0.266153
-0.0340333 0.234692 0.779586 -0.0613909 0.905035 -0.420883
-0.0583317 0.203427 0.676068 -0.0966903 0.964384 -0.246199
0.0197016 0.240031 0.813756 -0.0280903 -0.745041 0.666427
-0.1869 0.0968419 0.348125 -0.00155626 -0.999869 -0.0160986
0.125845 0.209302 0.0179028 -1 -0.000187983 0
0.132446 0.189332 0.0254097 0.000174657 -0.962753 0.270381
0.111162 0.199635 0.690483 0.139908 0.958927 -0.246748
0.0302564 0.19303 0.43409 0.0896413 0.911733 0.400883
0.0078066 -0.0374444 0.131596 0.994923 0.0252945 -0.0974103
0.188595 -0.0523927 0.5335 -0.944833 -0.0380574 0.325334
0.0301974 0.0604306 0.383158 0 0 1
-0.138764 0.00027442 0.383158 0 0 1
-0.155645 0.185287 0.724204 0.182128 -0.950722 0.250913
-0.0908576 -0.0162417 0.295152 -0.0335029 -0.921488 -0.38696
-0.00325557 0.228739 0.760955 -0.0678463 0.969207 -0.236717
-0.0219922 0.201206 0.653595 -0.0678463 0.969207 -0.236717
0.022543 -0.250393 0.0272045 1 0.000296936 0.000171487
0.0284449 -0.122001 0.348192 0 0 -1
0.102526 0.0615196 0.348488 0.000361384 0.0482411 -0.998836
0.120315 0.145243 0.492189 -0.264749 -0.958325 -0.10734
-0.240373 -0.0540834 0.0493886 0 0 -1
-0.148391 0.202745 0.728595 -0.142629 0.95217 -0.270239
0.145921 0.100594 0.349379 -0.0297623 0.047324 -0.998436
-0.253467 0.0676029 0.518231 0 0 -1
0.116083 0.1596 0.484019 0.265451 0.955475 0.128853
0.0437954 0.232457 0.776338 0.0609654 0.903066 -0.425152
0.173124 0.0834884 0.348192 0 0 -1
0.110898 0.173324 0.415886 -0.256871 -0.888088 -0.381206
0.00461475 0.0301332 0.252565 0.289999 0.957024 -0.00223038
0.195772 -0.0899118 0.34892 0.842763 -0.0307414 -0.537406
-0.195587 -0.0963928 0.381567 -0.217219 -0.00026087 0.976123
0.138102 0.0476664 0.348192 0 0 -1
0.0917998 0.177133 0.596857 0.18313 0.946375 -0.266153
-0.0773955 0.254642 0.808836 -0.00382493 0.642057 -0.766648
0.18667 0.148177 0.544893 0.967091 0.254206 -0.0107289
-0.0740091 0.194709 0.709923 0.132953 -0.964423 0.228497
0.0178983 0.0561884 0.12641 -0.819537 0.564684 -0.0974258
-0.151476 -0.115283 0.348192 0 0 -1
-0.119464 0.15464 0.513949 -0.230964 0.972859 -0.0141942
0.0724979 0.189191 0.35372 0.101976 0.893363 0.437612
0.166838 0.175418 0.689645 0.0303716 -0.9632 0.267063
0.218205 -0.0225007 0.537656 0 0 1
-0.0047239 0.0113455 0.266936 -0.00372155 -0.00528565 0.999979
-0.162796 0.144189 0.501052 -0.2624 0.950976 0.163678
0.198253 -0.152462 0.373306 0.944476 -0.256139 0.205809
0.194751 0.16246 0.412654 0.90155 -0.429706 -0.0505897
0.112651 0.211571 0.737714 0.139908 0.958927 -0.246748
0.216411 -0.0452071 0.518231 0 0 -1
0.0218274 0.199353 0.399023 -0.0751119 -0.875261 -0.477783
0.0519902 0.180773 0.464461 0.0967817 0.943874 0.31581
-0.22494 -0.0586513 0.537656 0 0 1
-0.186405 0.141363 0.54252 -0.922156 0.385859 -0.0272276
-0.108816 0.0793388 0.383158 0 0 1
-0.161041 -0.0346505 0.0863795 0.382754 -0.428363 -0.818538
-0.0845087 -0.0851378 0.348192 0 0 -1
-0.172468 0.161851 0.34938 0.783997 -0.0396329 0.619498
-0.0772568 0.191807 0.644029 -0.186477 0.950953 -0.246808
-0.0663221 -0.0857076 0.383158 0 0 1
0.149744 0.136882 0.494255 -0.264749 -0.958325 -0.10734
-0.0515453 0.213349 0.775244 0.0623333 -0.90386 0.423263
-0.118753 0.186324 0.654257 -0.186477 0.950953 -0.246808
-0.224717 -0.0454858 0.518231 0 0 -1
-0.166273 0.104458 0.382642 -0.134108 0.121768 0.983457
-0.130263 -0.0216888 0.307577 -0.112534 -0.816775 -0.565876
-0.168728 -0.00111519 0.335695 0.771168 0.000132734 -0.636631
0.0681924 0.203084 0.742543 -0.185217 -0.955693 0.22879
0.0982727 -0.0596146 0.348192 0 0 -1
-0.167493 0.172101 0.678034 -0.0464104 -0.962353 0.267811
0.090685 0.161746 0.523358 0.227589 0.960074 -0.16267
-0.176291 0.0550347 0.348192 0 0 -1
0.14329 0.160453 0.376981 0.928899 0.344576 0.135701
0.0166937 0.0283075 0.383158 0 0 1
-0.135473 -0.0873944 0.383158 0 0 1
0.0828449 0.250227 0.807121 -0.0447537 0.291254 -0.955598
0.00404432 0.205428 0.381734 0.00915481 0.23849 0.971102
0.220821 -0.088139 0.00997373 -0.0208135 -0.706996 -0.706912
-0.175451 -0.0243787 0.383158 0 0 1
0.00892311 -0.0760487 0.129703 0.993396 -0.0399973 0.107544
-0.100295 0.208338 0.340032 -0.0688431 0.431946 -0.899268
0.0824623 0.182343 0.608957 0.18313 0.946375 -0.266153
-0.0695759 0.231921 0.779698 -0.156295 0.894189 -0.419522
-0.116735 -0.0847735 0.348192 0 0 -1
-0.0387713 0.0802483 0.115396 0.560372 0.117805 -0.81982
-0.149153 0.151604 0.475026 -0.256634 0.927155 0.272988
0.174494 0.200876 0.744031 0.942627 0.331418 -0.0402139
0.0488965 0.159118 0.522327 -0.100933 -0.984539 -0.14316
0.109216 0.146133 0.508953 -0.263669 -0.954423 -0.139841
-0.122619 0.0110999 0.319226 0.481713 0.000148981 0.876329
0.103776 -0.132343 0.348192 0 0 -1
-0.0883282 0.20984 0.375283 -0.129007 0.932229 0.338093
-0.155054 0.183204 0.341078 0.394052 -0.64574 -0.654021
0.00635032 0.152519 0.383158 0 0 1
-0.201122 -0.120232 0.371079 -0.97175 0.00123666 0.23601
0.0406467 0.0895111 0.128191 -0.819537 0.564684 -0.0974258
-0.254441 0.0361001 0.518231 0 0 -1
0.097292 0.184219 0.687297 -0.185217 -0.955693 0.22879
-0.182057 0.0455565 0.383158 0 0 1
-0.0116691 0.022309 0.212284 -0.999854 -0.0169609 -0.00210735
0.00904732 -0.231607 0.0659795 0.941414 -0.291369 0.169835
0.199604 0.0808468 0.348192 0 0 -1
0.120761 0.177452 0.617919 0.18313 0.946375 -0.266153
0.00531476 0.251697 0.808496 0.00735589 0.298465 -0.954392
-0.116388 0.21063 0.785636 0.160151 -0.81477 0.557227
0.191968 -0.0495643 0.0963413 -0.258523 -0.959183 0.114604
0.197978 0.0116975 0.347925 -0.0771692 -1.27873e-05 0.997018
-0.125086 0.181973 0.398364 0.185865 -0.866828 -0.46267
0.270323 0.0803003 0.534863 0.917902 0.0371871 0.39506
0.0160653 0.204613 0.730462 -0.0668271 -0.973642 0.218073
0.0689469 0.19779 0.409893 0.239722 0.892512 0.382041
0.0679473 0.0114973 0.291223 -0.347059 0.000123956 0.937844
0.0517141 -0.0183026 0.348192 0 0 -1
0.210449 0.0830247 0.53275 -0.722931 0.63377 0.275148
0.022998 0.164659 0.55216 -0.0995574 -0.984962 0.141201
0.0454693 -0.0785988 0.383158 0 0 1
-0.0174955 0.0132888 0.0554078 -0.730019 -0.513254 -0.451268
0.0220569 0.00477162 0.167824 -0.258523 -0.959183 0.114604
0.0190868 0.209479 0.753114 -0.0668271 -0.973642 0.218073
0.140385 0.0367141 0.383158 0 0 1
-0.110436 0.160106 0.0907473 -0.789748 -0.605646 -0.0974192
-0.117014 0.0929892 0.383158 0 0 1
0.2507 0.0562439 0.518231 0 0 -1
-0.0959225 0.219676 0.76056 -0.142629 0.95217 -0.270239
-0.169658 0.18744 0.728104 -0.443657 -0.856397 0.264109
-0.130333 0.0362534 0.297814 -0.371269 -0.00106829 -0.928525
0.0545555 0.175086 0.48901 0.101018 0.984736 0.141737
0.177811 -0.0489336 0.341262 -0.442888 -0.896566 0.00433267
-0.0190128 0.221661 0.788204 0.0623333 -0.90386 0.423263
-0.18671 -0.0642911 0.347441 -0.0643451 -1.0038e-05 0.997928
-0.155263 0.218198 0.0655457 -0.93329 -0.316653 0.169411
-0.0430941 0.175858 0.616362 0.0970299 -0.971217 0.217536
-0.00699741 -0.0712233 0.143633 -0.9921 -0.0511373 0.114556
0.105585 -0.0717411 0.383158 0 0 1
0.0416564 -0.200873 0.362598 0.063927 -0.980817 -0.184151
0.0524541 -0.150865 0.348192 0 0 -1
-0.0279125 0.173478 0.515948 -0.100411 0.980514 0.168852
0.00838692 -0.0197917 0.155579 0.993396 -0.0399973 0.107544
0.172141 0.04842 0.3324 0.011342 0.835937 -0.548708
-0.219325 0.00533089 0.382694 -0.999866 0.0155606 0.00516595
-0.145831 0.149244 0.528746 -0.216553 0.962442 -0.163738
-0.053969 0.12011 0.383158 0 0 1
0.0400241 -0.100054 0.348192 0 0 -1
-0.0101718 -0.23497 0.0064622 1 0.000271013 0.00015634
-0.101962 0.149443 0.504647 0.266614 -0.963702 0.0140066
-0.0721632 0.192797 0.418867 -0.255823 0.889131 0.379474
0.217582 -0.0715454 0.0235921 -1 -9.3988e-05 0
0.0143493 0.214164 0.706238 0.096627 0.966901 -0.236147
-0.246123 0.0130736 0.518214 -0.402299 -0.0928952 -0.910783
-0.135162 0.159438 0.611394 0.182128 -0.950722 0.250913
-0.0738212 0.158639 0.556078 0.208172 -0.935429 0.285723
-0.109537 0.193431 0.725201 0.132953 -0.964423 0.228497
0.0357447 -0.173682 0.383158 0 0 1
-0.189223 0.0750773 0.348192 0 0 -1
0.136746 0.150837 0.52342 0.227589 0.960074 -0.16267
-0.211975 -0.0126506 0.474843 0.999632 0.0257783 0.00841053
-0.151467 -0.0426905 0.348192 0 0 -1
-0.166159 0.153616 0.452202 -0.256634 0.927155 0.272988
-0.161607 0.14621 0.573951 0.346478 -0.899128 0.267434
-0.172768 -0.0113695 0.348192 0 0 -1
0.1403 0.0272844 0.291304 -0.446898 -0.00670096 0.89456
-0.112881 0.1589 0.494596 -0.263779 0.955937 0.128858
-0.1909 0.0993768 0.373129 -0.408295 0.886229 0.218845
0.00511752 0.19862 0.70035 -0.0668271 -0.973642 0.218073
0.0982411 0.12301 0.353833 0.00383672 0.165824 -0.986148
0.00437607 -0.121805 0.348192 0 0 -1
-0.173606 -0.162209 0.348962 -0.301868 -0.764503 -0.569571
0.192985 -0.010382 0.536841 -0.396124 0.0101216 0.918141
-0.0618262 0.191017 0.344812 0.131337 -0.89434 -0.427675
0.219251 0.0117338 0.388627 0.999867 0.0158646 0.00369164
-0.0398656 -0.172232 0.348192 0 0 -1
-0.044552 0.0434667 0.270254 0.0284291 0.992047 -0.122616
-0.00181971 0.181585 0.481423 -0.101353 0.984757 0.141353
0.0237686 0.0742117 0.379505 0.0513893 0.723958 0.687927
-0.0663156 0.172931 0.447855 0.250504 -0.896646 -0.365068
-0.111283 0.168392 0.579522 -0.186477 0.950953 -0.246808
0.167243 0.163911 0.646078 0.0305548 -0.963204 0.267029
-0.080827 0.182682 0.61157 -0.186477 0.950953 -0.246808
0.176644 -0.0429575 0.383158 0 0 1
-0.00539356 0.051143 0.383158 0 0 1
-0.128843 -0.014734 0.100529 -0.210193 0.926453 -0.312255
0.16186 0.183902 0.719015 0.0456646 -0.962591 0.267084
0.0467755 0.221131 0.790839 -0.0618762 -0.901509 0.428313
0.219432 -0.0657153 0.507885 0.149133 -0.434204 -0.888384
0.0448595 0.193045 0.631934 0.0673788 0.967033 -0.245575
-0.0547261 0.209573 0.698724 -0.0966903 0.964384 -0.246199
-0.091813 0.186902 0.344209 0.131337 -0.89434 -0.427675
-0.0622916 -0.000309929 0.348192 0 0 -1
-0.137274 0.0542292 0.324218 0.307064 0.841451 0.444603
-0.146381 -0.0355237 0.101784 0.402452 -0.853843 -0.330128
0.0826843 -0.160918 0.383158 0 0 1
0.262584 0.0142714 0.532192 0.881688 -0.19884 0.42789
-0.257617 -0.0163723 0.52838 -0.876798 -0.197888 0.438252
-0.00699328 0.0926122 0.275322 -0.382841 0.471537 -0.794409
0.135752 0.168711 0.597151 0.18313 0.946375 -0.266153
-0.0145288 0.0392059 0.279128 0.0896433 0.000337877 0.995974
-0.0399213 -0.10529 0.383158 0 0 1
0.0582206 0.0042368 0.118094 -0.0567686 0.572093 -0.818222
0.0503043 0.0713043 0.349011 -0.000719627 0.0524581 -0.998623
0.00849008 -0.104251 0.123214 0.993396 -0.0399973 0.107544
0.125192 -0.171164 0.348192 0 0 -1
0.0588843 0.152441 0.383158 0 0 1
-0.236126 -0.0301546 0.537656 0 0 1
0.0291936 0.204095 0.671082 0.096627 0.966901 -0.236147
-0.152797 -0.00239281 0.305882 -0.349583 0.00885857 -0.936864
-0.129085 0.163767 0.575152 -0.186477 0.950953 -0.246808
