-0.202167 -0.137042 0.323403 0.000782402 -0.22411 -0.974563
-0.0970397 -0.133522 0.321423 -0.000921856 0.272604 0.962126
0.240819 0.0560988 0.447011 0.541971 0.184949 0.819793
-0.163596 0.263274 0.609896 -0.00309621 0.927471 -0.373883
0.169144 0.182871 0.43373 -0.993666 0.00424558 -0.112297
0.0387329 0.0928145 0.395755 0.00276744 -0.826607 0.562773
-0.0422263 0.249926 0.579355 -0.00311997 0.931329 -0.364166
0.0897626 -0.196668 0.334703 0.000531689 -0.158289 -0.987393
-0.050743 -0.136803 0.320829 -0.00091317 0.272642 0.962115
0.165223 0.279714 0.570566 -0.9898 0.0633816 -0.127588
-0.205625 0.0655302 0.296424 -0.00206117 0.614756 -0.788715
0.0685679 0.256664 0.693632 0.00312781 -0.923743 0.383001
0.10769 0.312458 0.702475 0.000569293 -0.168787 -0.985652
-0.172326 0.209307 0.512757 -0.00284992 0.845746 -0.533578
-0.0959842 0.149481 0.415149 -0.0027517 0.819753 -0.57271
0.233978 -0.0691809 0.474238 0.685526 -0.229378 -0.69097
0.0630473 -0.120245 0.317813 0.000914073 -0.272686 -0.962103
0.074239 0.291198 0.687217 -0.00306747 0.923744 -0.382999
0.0285706 0.219413 0.511022 -0.00256499 0.763499 -0.645803
0.182522 0.269406 0.659283 0.951652 0.294667 -0.0867788
-0.0394502 -0.248108 0.349075 0.000752255 -0.224124 -0.97456
-0.194668 -0.221604 0.378095 0.00148123 0.224089 0.974568
0.182976 0.172974 0.403734 -0.988204 0.0526651 -0.143801
-0.0637172 0.00207274 0.281517 0.000763424 -0.226153 -0.974091
-0.247724 0.0999782 0.292908 -0.610884 0.66196 -0.434314
0.112974 0.159421 0.460523 0.00179408 -0.533421 -0.845848
0.205386 0.0914136 0.272305 0.995898 0.0240121 0.0872408
0.0758081 -0.0717642 0.343836 -0.000752247 0.22414 0.974557
-0.194095 0.095914 0.401452 0.00276744 -0.826607 0.562773
-0.161213 0.225416 0.525525 -0.00268759 0.799485 -0.60068
-0.144639 0.140731 0.406021 -0.00276898 0.826593 -0.562794
0.106953 0.273356 0.540443 -0.305749 -0.465804 0.830388
-0.161576 -0.206111 0.336082 0.000531689 -0.158289 -0.987393
-0.0868137 -0.276089 0.355473 0.000752255 -0.224124 -0.97456
-0.208532 -0.262525 0.3423 -0.901083 0.0173135 0.433301
0.140169 0.251268 0.577025 -0.00311863 0.931397 -0.363991
-0.190994 0.247526 0.565286 0.918763 0.318843 -0.23284
0.00296229 -0.272258 0.389892 -0.000752247 0.22414 0.974557
-0.207756 -0.0474482 0.334691 -0.928561 0.0802435 0.362403
-0.0702992 0.101559 0.345491 0.00282265 -0.834122 0.551573
0.178337 0.258855 0.608363 -0.00349933 0.923758 -0.38296
0.157331 0.0379678 0.318668 -0.000758458 0.224128 0.974559
0.164381 0.12348 0.376896 0.00274355 -0.817326 0.576169
0.168352 -0.0792821 0.305766 0.000966831 -0.287092 -0.957902
0.0440492 -0.0656415 0.342408 -0.000758458 0.224128 0.974559
-0.164798 0.16808 0.455526 0.0014253 -0.423776 -0.905766
0.108233 0.268351 0.620238 0.00310128 -0.927488 0.37384
-0.157958 -0.174918 0.367382 -0.000758458 0.224128 0.974559
-0.0684579 -0.22517 0.379007 -0.000752247 0.22414 0.974557
0.0484179 0.075426 0.304722 0.00281133 -0.839545 0.543283
0.0841489 0.105339 0.352915 -0.00276898 0.826593 -0.562794
-0.0527615 -0.174461 0.367357 -0.000752247 0.22414 0.974557
-0.120283 0.223807 0.535462 -0.00284992 0.845746 -0.533578
-0.158951 -0.0541624 0.0524925 0.0354228 0.134768 -0.990244
-0.00567982 0.192586 0.0529067 -0.0938828 0.95886 0.267907
-0.16745 -0.0557372 0.295341 0.00114914 -0.347762 -0.937582
0.100488 0.0886588 0.320012 -0.0029243 0.874617 -0.484806
0.187804 0.184359 0.464388 0.00276686 -0.82562 0.564219
-0.135451 -0.124545 0.318843 -0.000921856 0.272604 0.962126
-0.162782 0.241033 0.544601 -0.0556854 0.919805 -0.388404
0.175833 -0.215826 0.302401 0.863481 -0.0220958 -0.503897
0.100595 0.112657 0.361412 -0.00279136 0.83431 -0.551288
-0.194475 0.201173 0.483882 -0.993603 -0.0109829 0.112394
0.14203 0.290657 0.681255 -0.00313447 0.93689 -0.34961
0.226314 -0.0235345 0.254455 0.000877051 -0.258478 -0.966017
-0.246784 0.128765 0.346175 -0.522428 -0.721333 0.454696
-0.166522 0.0912241 0.326257 -0.00293685 0.874682 -0.484688
0.109443 0.216104 0.595471 0.00309629 -0.923792 0.382883
-0.069546 -0.092493 0.348495 -0.000758458 0.224128 0.974559
0.0184543 0.239947 0.653723 0.00312781 -0.923743 0.383001
-0.236757 -0.0869313 0.482651 -0.682717 0.0849301 0.725731
0.243315 0.141601 0.36459 0.52619 -0.718283 0.455186
0.181085 0.273441 0.62887 0.921174 -0.309675 0.235671
-0.125382 0.216215 0.51296 0.00275405 -0.82463 0.565665
-0.0174485 -0.0652191 0.109833 -0.909617 -0.415447 -4.54477e-05
0.0920374 0.181408 0.467122 -0.00285253 0.845754 -0.533565
0.182408 0.227371 0.483052 0.995839 0.0461585 0.0785807
0.187133 0.0540373 0.269523 -0.993524 0.00585142 -0.113472
-0.00345613 0.12797 0.0513252 -0.134761 -0.036455 -0.990207
0.0756722 -0.0267807 0.333495 -0.000758458 0.224128 0.974559
0.00824744 -0.255927 0.325992 0.00290322 -0.856269 0.516522
0.00427538 0.152621 0.486319 0.0028543 -0.845757 0.533561
-0.195672 -0.284538 0.332805 0.00334838 -0.999847 0.0171713
-0.187416 -0.0293305 0.270734 0.104704 0.299427 0.948357
-0.143967 -0.153644 0.326947 0.000734429 -0.217179 -0.976132
-0.197274 0.147224 0.359148 -0.995998 0.0344196 0.082481
0.176544 0.210492 0.512771 -0.00285253 0.845754 -0.533565
0.0256429 0.274804 0.637062 0.00310807 -0.931025 0.364942
-0.120201 -0.199706 0.335077 -0.000531689 0.158289 0.987393
-0.198099 -0.185001 0.332328 -0.000727898 0.216808 0.976214
0.0478661 0.290767 0.686388 -0.00306747 0.923744 -0.382999
-0.100113 0.108496 0.358458 -0.00276898 0.826593 -0.562794
-0.136868 0.080693 0.378814 0.00276744 -0.826607 0.562773
-0.0799091 0.217313 0.579462 -0.0014229 0.423614 0.905842
0.0770018 0.018668 0.323044 -0.000758458 0.224128 0.974559
-0.190126 0.0772631 0.308796 0.00281133 -0.839545 0.543283
-0.211185 -0.00231043 0.310013 -0.999994 -0.00342244 -0.00019661
-0.00687765 0.193819 0.487323 -0.00285253 0.845754 -0.533565
0.106213 0.175111 0.521423 0.0028543 -0.845757 0.533561
0.0526605 -0.187813 0.370509 -0.000752247 0.22414 0.974557
0.182433 0.231595 0.526046 -0.00310471 0.932421 -0.361359
0.0709742 -0.271266 0.354486 0.000752255 -0.224124 -0.97456
-0.158465 -0.0486974 0.338354 -0.000758458 0.224128 0.974559
-0.179417 -0.267809 0.353497 0.000752169 -0.224126 -0.97456
0.0549871 0.151382 0.484084 0.0028543 -0.845757 0.533561
0.158499 -0.0570527 0.340517 -0.000752247 0.22414 0.974557
0.0115649 0.0277454 0.320906 -0.000758458 0.224128 0.974559
0.126063 -0.0246375 0.284953 0.000979877 -0.29654 -0.95502
-0.219378 -0.0306505 0.266555 -0.000878378 0.258585 0.965988
0.19733 -0.109718 0.352659 -0.000818225 0.224144 0.974556
0.00446606 0.119731 0.369696 -0.00273283 0.817318 -0.57618
-0.141744 0.129209 0.38383 0.00271968 -0.81724 0.576291
0.0609982 -0.0285413 0.290149 0.000911821 -0.269563 -0.962982
0.192919 -0.00425572 0.3284 -0.000752247 0.22414 0.974557
0.00603308 0.104859 0.350091 0.00282265 -0.834122 0.551573
0.030334 0.0476225 0.284004 -0.00167463 0.498111 -0.867112
-0.00160123 -0.298365 0.0277213 -0.0767426 0.964833 -0.251412
0.182303 -0.016657 0.296018 0.000752255 -0.224124 -0.97456
-0.183462 -0.164708 0.310769 0.107297 0.229267 0.967432
0.0393845 -0.278176 0.320016 0.00171158 -0.50966 -0.860374
0.179902 0.115508 0.33599 -0.993666 0.00424558 -0.112297
0.18137 0.225219 0.616571 0.947011 -0.27835 0.160286
-0.022532 0.141188 0.40026 0.00272781 -0.819682 0.572812
0.113598 -0.188258 0.370658 -0.000752247 0.22414 0.974557
-0.0917871 0.228427 0.529815 0.00283064 -0.842039 0.539409
0.0335272 -0.0518476 0.0799503 -0.00449099 0.999803 0.0193521
0.151267 -0.0594893 0.187116 -0.610696 0.101295 0.785359
0.000913188 -0.0159292 0.330942 -0.000758458 0.224128 0.974559
0.206331 0.137914 0.39625 0.483726 -0.687847 0.54118
0.14075 -0.269087 0.354038 0.000752255 -0.224124 -0.97456
0.0860764 -0.0631548 0.0840947 0.00608 -0.999301 0.0368846
-0.181814 0.158487 0.407079 0.0739094 -0.829109 0.55418
-0.106228 0.2247 0.617955 0.00309629 -0.923792 0.382883
-0.0697625 -0.0302291 0.298944 0.000752169 -0.224126 -0.97456
-0.0747209 0.128492 0.382498 -0.00271968 0.81724 -0.576291
-0.0261821 0.199508 0.496447 -0.00452085 0.848379 -0.529369
-0.141704 0.276696 0.653979 -0.00307551 0.923752 -0.382979
0.197297 0.0901122 0.348006 0.527849 -0.230133 -0.817566
0.209181 -0.250561 0.342615 -0.446087 -0.0864592 -0.890804
-0.121454 -0.0811174 0.345838 -0.000758458 0.224128 0.974559
-0.0893579 -0.0550635 0.339871 -0.000758458 0.224128 0.974559
-0.18786 -0.0765868 0.266326 -0.931686 0.132577 -0.338208
0.114102 0.123546 0.377229 0.00274355 -0.817326 0.576169
0.0902757 -0.257 0.323754 -0.0028895 0.855919 -0.517103
0.0985393 0.000492655 0.282057 0.00091003 -0.269583 -0.962977
0.203457 0.134242 0.429727 0.997759 0.0399015 0.0537122
0.0874393 0.0654901 0.295627 0.00205874 -0.6148 0.78868
-0.110983 0.293393 0.686498 0.00316255 -0.936842 0.349739
0.15672 0.28458 0.665059 -0.00313425 0.931151 -0.36462
0.159038 0.0503981 0.28023 -0.00196337 0.585684 -0.810537
-0.124414 0.17253 0.445909 -0.00280757 0.82588 -0.56384
0.0494204 0.100319 0.340257 -0.0028009 0.834191 -0.551468
0.182305 -0.0595256 0.251658 0.91563 0.0549632 -0.398247
0.111061 -0.0827047 0.305145 0.000967481 -0.287514 -0.957776
-0.145974 -0.286476 0.383347 0.00286531 -0.853745 0.520684
-0.203132 -0.107674 0.279797 -0.998244 -0.0344737 0.0481782
-0.0937623 -0.0390062 0.292984 -0.00100744 0.297831 0.954618
0.191944 -0.00680618 0.279483 0.000979877 -0.29654 -0.95502
0.0744786 0.271277 0.627777 -0.00309621 0.927471 -0.373883
0.0208968 -0.0289387 0.290222 0.000911821 -0.269563 -0.962982
0.0953354 0.253623 0.596425 -0.00297024 0.923869 -0.382697
-0.174188 -0.0341691 0.287604 0.000991675 -0.296657 -0.954984
-0.221354 -0.0994067 0.347971 -0.00284672 0.982793 0.184687
0.184857 0.0804486 0.290719 -0.993329 0.00753998 -0.115065
0.15072 0.106096 0.348481 -0.0028009 0.834191 -0.551468
-0.192072 0.157414 0.494957 0.00250159 -0.845757 0.533562
-0.115815 -0.0309496 0.299074 0.000752169 -0.224126 -0.97456
0.176064 -0.148169 0.324265 -0.000915425 0.272664 0.962109
0.0336444 -0.279035 0.342344 0.00100021 -0.298551 0.954393
0.150677 0.278448 0.608638 0.0437403 0.939931 -0.338551
0.00604514 -0.0397828 0.119783 0.310939 0.950349 0.0124276
-0.0593978 0.0539192 0.312317 -0.00336895 0.995542 0.0942625
-0.000898615 0.289389 0.679138 0.00313447 -0.93689 0.34961
-0.182187 -0.244642 0.383398 -0.000758458 0.224128 0.974559
0.124057 0.0771255 0.353921 0.00222103 -0.661356 -0.750069
-0.0956609 -0.221937 0.287605 0.00309695 -0.916942 -0.399008
-0.08864 0.284924 0.663867 0.00313015 -0.931096 0.36476
0.00766577 0.185268 0.538042 0.00284987 -0.845722 0.533615
-0.189094 -0.127016 0.286338 -0.958063 -0.0862102 -0.273281
-0.160478 0.131707 0.453862 0.00323044 -0.825807 0.563943
-0.181948 0.108963 0.333005 0.0728904 -0.829143 0.554264
0.0666972 -0.081618 0.310863 0.0010144 -0.224449 -0.974485
-0.101287 0.189637 0.470934 0.00281946 -0.829377 0.558682
0.184743 0.0556097 0.303189 -0.00336895 0.995542 0.0942625
-0.069445 -0.177894 0.330845 0.000728266 -0.216812 -0.976213
0.157055 0.141777 0.467104 0.00277883 -0.826642 0.562722
-0.00930414 0.186522 0.0170509 -0.997092 -0.0761953 0.00131561
0.0469089 -0.177011 0.332289 0.000730785 -0.217218 -0.976123
-0.0989468 0.237162 0.556516 -0.00284992 0.845746 -0.533578
-0.0536657 -0.0729915 0.301883 0.00117094 -0.347977 -0.937502
-0.0488625 -0.236007 0.381515 -0.000752247 0.22414 0.974557
0.0565677 0.145944 0.406689 0.00272781 -0.819682 0.572812
-0.193623 0.242114 0.543589 0.958988 -0.283144 -0.0131144
0.0657144 0.170082 0.444095 -0.00276686 0.82562 -0.564219
-0.1107 -0.199355 0.373039 -0.000758458 0.224128 0.974559
0.133597 0.22997 0.531041 0.00283341 -0.842005 0.539462
0.19584 0.0721004 0.364552 0.00515779 -0.828491 0.559978
-0.173987 0.27502 0.643491 -0.00313613 0.931145 -0.364636
0.000570387 0.237199 0.542071 -0.00312228 0.932484 -0.361197
0.196509 0.176799 0.491624 0.999285 0.0224951 0.0304003
-0.159747 0.286778 0.673579 -0.00315317 0.936773 -0.349923
-0.157497 0.270958 0.628907 0.00309621 -0.927471 0.373883
0.209195 -0.0365027 0.292523 0.00100744 -0.297831 -0.954618
-0.188912 -0.0773286 0.30482 -0.000966831 0.287092 0.957902
-0.000593632 0.274552 0.636643 -0.00310807 0.931025 -0.364942
-0.17959 0.0149649 0.27639 -0.00013424 0.0400446 0.999198
-0.195946 0.227991 0.523453 -0.907197 -0.284832 0.309619
-0.220694 -0.064874 0.0594449 -0.00745457 -0.999368 0.0347446
-0.02227 0.0571887 0.289602 0.00167037 -0.498197 0.867062
-0.0368167 -0.288786 0.360059 0.00334126 -0.995481 -0.0949004
-0.185721 0.00560408 0.325844 -0.000758458 0.224128 0.974559
-0.0453862 0.293587 0.693937 -0.00306747 0.923744 -0.382999
0.037138 0.237991 0.5438 -0.00310471 0.932421 -0.361359
-0.0392276 0.23844 0.650563 0.00309629 -0.923792 0.382883
-0.134631 0.000890486 0.326968 -0.000758458 0.224128 0.974559
-0.16129 0.199772 0.488991 -0.00277951 0.829396 -0.558654
0.0416608 -0.25983 0.351833 0.000752255 -0.224124 -0.97456
-0.144726 -0.253229 0.35017 0.00342494 -0.227097 -0.973866
-0.0258727 0.0984705 0.340593 -0.00282265 0.834122 -0.551573
0.0821246 -0.134769 0.321948 -0.000914074 0.272686 0.962103
0.0210896 -0.0725999 0.308759 0.000752169 -0.224126 -0.97456
-0.146999 -0.00201761 0.277645 -0.000991675 0.296657 0.954984
2.52575e-05 -0.237431 0.34665 0.000752255 -0.224124 -0.97456
0.0764983 0.129794 0.386271 -0.00274355 0.817326 -0.576169
0.171438 0.233596 0.549421 -0.00260514 0.84535 -0.534207
-0.173722 -0.185321 0.334531 0.000752169 -0.224126 -0.97456
0.0625755 -0.274829 0.318079 0.00172138 -0.510055 -0.86014
-0.230603 0.114878 0.433261 -0.000866872 0.25868 0.965963
-0.124023 0.102982 0.345165 0.00278901 -0.834123 0.551572
0.204787 0.157781 0.423081 -0.48307 0.690541 -0.538327
0.178701 0.242309 0.658126 0.00303471 -0.923767 0.382942
0.219203 0.145231 0.413628 -0.518236 -0.492208 -0.699402
0.0701607 0.238713 0.57647 0.000879869 -0.264206 -0.964466
-0.0182836 0.259278 0.602849 -0.00312779 0.927398 -0.374064
-0.105011 0.272046 0.635301 -0.00313613 0.931145 -0.364636
0.178809 0.26099 0.694877 0.929664 -0.325575 0.17241
-0.185241 0.217509 0.475668 -0.996127 0.0395449 0.0785354
0.0813035 0.0525367 0.281964 -0.00196337 0.585684 -0.810537
-0.0983487 0.203357 0.50293 -0.00284992 0.845746 -0.533578
0.0813436 0.229538 0.53064 0.00283341 -0.842005 0.539462
-0.175399 0.26773 0.570481 -0.995831 0.0357261 0.083934
0.190579 0.0339746 0.275677 0.000133849 -0.0400407 -0.999198
-0.0901186 -0.107552 0.351942 -0.000758458 0.224128 0.974559
-0.187533 -0.0509291 0.272685 -0.104207 -0.299394 -0.948422
0.104469 0.035907 0.319101 -0.000758458 0.224128 0.974559
-0.0726337 -0.22031 0.338406 -0.00053553 0.158327 0.987386
-0.159203 -0.244211 0.341479 -0.000374939 0.110849 0.993837
0.0413193 0.250233 0.588681 -0.00307551 0.923752 -0.382979
-0.162804 0.25355 0.589655 0.00311997 -0.931329 0.364166
0.189614 0.141255 0.46547 0.523778 0.212069 0.825036
-0.165936 0.0324367 0.278948 0.000499425 -0.148576 0.988901
-0.109465 0.238294 0.65078 0.00309629 -0.923792 0.382883
-0.0276842 0.122914 0.377006 0.00273472 -0.81738 0.576092
0.0648026 -0.241788 0.341293 -0.000374939 0.110849 0.993837
-0.0566778 -0.195745 0.336014 0.00053219 -0.158188 -0.987409
-0.0454043 -0.224927 0.343739 0.000752255 -0.224124 -0.97456
-0.198602 -0.210987 0.336843 0.000531689 -0.158289 -0.987393
-0.144904 0.233533 0.577694 0.000877572 -0.264276 -0.964447
0.00394329 -0.268476 0.0697618 0.131238 -0.130019 0.982788
-0.193887 0.190085 0.463488 -0.0723788 0.831018 -0.551517
-0.0878238 0.312319 0.674839 -0.00114624 0.34306 -0.939313
0.0612628 0.289057 0.537402 -0.129252 -0.483887 0.865533
-0.0104251 0.0742864 0.368782 0.00276816 -0.826599 0.562785
-0.027122 -0.0521339 0.068037 0.000402851 0.999725 -0.0234394
-0.0462785 0.114248 0.42767 0.00297768 -0.826326 0.563184
-0.139136 0.200017 0.489244 -0.00277951 0.829396 -0.558654
-0.234668 0.15881 0.376458 -0.0030542 0.83626 -0.548324
-0.18541 -0.206674 0.319659 0.108586 0.191192 0.975528
-0.00135872 0.211058 0.504838 -0.00274893 0.824689 -0.565579
-0.101012 0.303564 0.702185 0.0011499 -0.343743 0.939063
-0.00601168 0.0494106 0.315909 -0.000758458 0.224128 0.974559
0.0726891 0.0208438 0.277265 -0.000760416 0.22622 0.974076
0.155683 0.309586 0.672772 0.112991 0.270937 -0.955943
-0.128622 -0.0860659 0.305912 -0.000967481 0.287514 0.957776
-0.107469 -0.0590162 0.190007 -0.0371201 0.104509 -0.993831
-0.149497 0.310573 0.70265 0.000565871 -0.168961 -0.985623
0.161098 0.310075 0.702914 0.000569293 -0.168787 -0.985652
-0.178055 -0.122308 0.318168 -0.000921856 0.272604 0.962126
-0.244108 -0.0529018 0.00155857 0.616293 0.622179 0.48278
0.0400591 -0.213228 0.376344 -0.000752247 0.22414 0.974557
0.0373584 -0.114845 0.353715 -0.000752247 0.22414 0.974557
0.206517 0.107164 0.392878 0.997768 0.0390524 0.0541597
-0.189588 -0.231601 0.341584 -0.000372987 0.111111 0.993808
0.209365 0.093339 0.302868 0.0752326 0.783348 -0.617014
-0.125268 0.162144 0.502104 0.00284987 -0.845722 0.533615
0.0669118 0.240396 0.54975 -0.00312228 0.932484 -0.361197
0.164597 0.27649 0.640181 0.00310807 -0.931025 0.364942
0.141292 0.171235 0.442709 -0.00275475 0.825584 -0.564273
0.141792 -0.0420571 0.294185 -0.00100744 0.297831 0.954618
-0.0866455 -0.199789 0.283401 -0.00289408 0.852995 -0.521911
-0.104701 -0.0631384 0.306486 0.000752169 -0.224126 -0.97456
0.131221 0.266927 0.620565 -0.00312356 0.927412 -0.374027
0.195989 0.103831 0.315327 0.0673186 0.830905 -0.552327
0.010031 0.0224839 0.277363 -0.000499425 0.148576 -0.988901
0.198778 -0.0152274 0.255236 -0.986565 -0.012119 -0.162918
0.120361 -0.239119 0.341016 -0.000368598 0.110786 0.993844
-0.0889228 0.0588182 0.290887 -0.00206117 0.614756 -0.788715
0.12361 0.294432 0.692225 -0.0032114 0.954526 -0.29811
-0.0807609 -0.238403 0.340861 0.000374939 -0.110849 -0.993837
-0.106011 0.0323108 0.319764 -0.000758458 0.224128 0.974559
0.174237 0.262234 0.58002 -0.0427399 -0.94028 0.337707
-0.00131251 -0.289445 0.371284 0.00325359 -0.97466 0.223666
-0.103108 -0.199215 0.336545 -0.000532191 0.158188 0.987409
-0.0321488 0.170442 0.514759 -0.000325963 -0.840903 0.541186
0.0377965 0.284677 0.662151 0.00313015 -0.931096 0.36476
0.00215276 -0.218241 0.377468 -0.000752247 0.22414 0.974557
-0.068952 0.244993 0.566968 0.00311997 -0.931329 0.364166
-0.0392646 0.267435 0.623248 -0.00312356 0.927412 -0.374027
-0.162356 0.0817098 0.380433 0.00276744 -0.826607 0.562773
0.219248 0.0231825 0.457778 -0.543967 0.221332 0.80939
-0.00481447 0.133501 0.0722225 -0.131481 0.130007 0.982757
0.124859 -0.0614674 0.0810309 0.130997 -0.130568 0.982747
-0.159283 -0.0566959 0.193259 0.610829 -0.101731 0.7852
-0.018998 -0.254745 0.385847 -0.000752247 0.22414 0.974557
0.0393622 0.125707 0.378007 0.00273282 -0.817318 0.57618
-0.168283 0.197559 0.457207 0.993415 0.0131273 -0.113814
-0.175131 -0.0669258 0.234438 -0.915961 0.0488804 -0.39828
0.00702284 -0.0950535 0.308747 0.000962826 -0.287468 -0.95779
0.0110675 -0.0522339 0.139973 0.922628 0.385692 0
-0.2002 0.112037 0.299179 -0.074097 0.834849 -0.545469
-0.129956 0.249847 0.67882 0.00309629 -0.923792 0.382883
0.132793 0.154865 0.419092 -0.00272781 0.819682 -0.572812
-0.212647 0.0348056 0.268302 -0.109005 0.408492 -0.90623
0.189784 0.241559 0.551163 -0.507945 0.790763 -0.341592
0.00557546 0.164399 0.43337 -0.00275475 0.825584 -0.564273
0.0533113 -0.064987 0.187107 0.0400657 0.161641 -0.986036
0.141313 -0.184188 0.369744 -0.000752247 0.22414 0.974557
-0.189791 -0.107493 0.298803 -0.105502 -0.299444 -0.948263
0.193443 -0.279722 0.34127 0.0028677 -0.855976 0.517008
-0.133829 -0.135745 0.358392 -0.000758458 0.224128 0.974559
0.0902306 0.30016 0.700705 0.0011499 -0.343743 0.939063
-0.0114006 -0.085423 0.305838 -0.000967481 0.287514 0.957776
0.19413 0.152365 0.378563 0.995839 0.0461585 0.0785807
-0.0168501 -0.0234093 0.288639 -0.000911821 0.269563 0.962982
0.18473 0.205307 0.466591 0.995839 0.0461585 0.0785807
0.0907697 -0.112728 0.314136 -0.000962827 0.287468 0.95779
0.0388951 0.151951 0.415368 0.00272781 -0.819682 0.572812
0.200977 0.0510729 0.256188 -0.00204979 0.258461 0.96602
-0.00588689 -0.0195091 0.0817898 -0.999802 -0.00454484 0.0193467
0.139014 0.212158 0.502006 -0.00256499 0.763499 -0.645803
-0.14094 0.0554408 0.2846 -0.0019581 0.585641 -0.810568
-0.0501675 -0.063623 0.0630058 0.00788467 -0.999697 -0.0233117
-0.12578 -0.160496 0.328485 -0.000730785 0.217218 0.976123
-0.175557 0.294695 0.69146 0.903157 0.385861 -0.188197
0.129563 -0.284404 0.385234 0.0028468 -0.853459 0.521153
-0.0951292 -0.127633 0.356556 -0.000758458 0.224128 0.974559
-0.0595945 0.0710189 0.295659 -0.0019581 0.585641 -0.810568
-0.144437 0.0967584 0.335855 -0.0028009 0.834191 -0.551468
-0.104876 -0.289521 0.372456 0.00325359 -0.97466 0.223666
0.227918 0.109071 0.316456 0.00251559 -0.836605 0.5478
0.0673884 0.213558 0.503945 -0.00256499 0.763499 -0.645803
-0.181966 0.0466978 0.316396 -0.000758458 0.224128 0.974559
0.0964617 0.0987979 0.337717 0.0028009 -0.834191 0.551468
-0.015794 0.288809 0.697656 -0.00164272 0.494692 0.869067
-0.0366487 -0.122213 0.318276 0.000914073 -0.272686 -0.962103
0.15586 0.136087 0.39482 -0.00274355 0.817326 -0.576169
-0.103296 0.255561 0.594285 -0.0031408 0.931257 -0.36435
0.166388 -0.275741 0.318826 -0.00171158 0.50966 0.860374
0.156725 0.243434 0.661003 0.00312781 -0.923743 0.383001
-0.042666 0.0160706 0.276364 -0.00013385 0.0400407 0.999198
-0.217698 0.0325323 0.246711 0.70643 0.113388 -0.698642
0.123005 0.0606962 0.291797 -0.00206117 0.614756 -0.788715
0.16141 -0.041702 0.290538 0.00114914 -0.347762 -0.937582
-0.208226 0.0985463 0.385996 -0.950534 -0.223131 0.216096
0.167596 0.163067 0.437304 -0.00277868 0.826628 -0.562742
0.143549 0.0963477 0.333625 -0.00293685 0.874682 -0.484688
-0.0639444 -0.0473485 0.292356 0.00114914 -0.347762 -0.937582
0.141063 -0.0325653 0.334871 -0.000752247 0.22414 0.974557
0.201326 0.127052 0.344995 0.043986 -0.965776 0.255622
0.186811 -0.0920966 0.285974 0.106614 -0.298691 -0.948376
0.204338 -0.0768424 0.291148 0.106303 -0.298635 -0.948429
0.103477 0.241692 0.552781 0.00312228 -0.932484 0.361197
-0.244498 0.0886615 0.438551 -0.543236 0.181299 0.819771
-0.0620041 0.267909 0.624613 -0.00312356 0.927412 -0.374027
0.22135 0.0601829 0.282462 0.975774 0.149668 -0.159573
-0.187269 0.237794 0.520484 -0.061406 0.895663 -0.440474
0.178534 0.201135 0.48659 0.00281946 -0.829377 0.558682
0.00727722 0.197878 0.0261533 0.995753 0.0678104 0.062278
-0.0904256 0.155749 0.427828 -0.00277868 0.826628 -0.562742
-0.180403 0.0458865 0.281962 -0.00286216 0.852835 -0.522173
0.208195 -0.0540158 0.333343 0.927863 0.0865292 0.362744
-0.0567153 0.122196 0.373482 0.00273282 -0.817318 0.57618
-0.00544699 -0.125908 0.0601003 -0.999725 0.000456228 -0.0234377
0.0923178 0.235068 0.569208 -0.0021342 0.635374 0.772202
0.0658854 -0.134781 0.358322 -0.000752247 0.22414 0.974557
0.0188116 -0.0585479 0.120052 0.999994 0.00349424 0
0.0636004 0.171021 0.515168 0.0028543 -0.845757 0.533561
-0.157036 -0.0880831 0.306489 -0.000967481 0.287514 0.957776
0.149893 0.27763 0.64737 -0.00313425 0.931151 -0.36462
0.190589 0.223675 0.567029 0.883331 0.251615 0.395496
-0.183751 0.263774 0.612716 0.496232 0.783218 -0.374598
0.170399 -0.0459358 0.225511 0.76837 -0.451153 -0.453948
0.165107 0.178555 0.456007 0.00276686 -0.82562 0.564219
-0.00638476 -0.0435465 0.177933 0.0551969 -0.70354 0.708509
-0.0580105 0.139782 0.39843 0.00271968 -0.81724 0.576291
-0.193255 0.170837 0.434402 -0.0726095 0.83102 -0.551483
-0.15445 -0.283701 0.336607 -0.00286 0.856211 -0.516619
-0.121696 0.240936 0.562619 -0.00284992 0.845746 -0.533578
-0.194009 0.0462045 0.251029 0.00321235 -0.966026 -0.258424
-0.167906 -0.225538 0.340728 -0.000528025 0.158232 0.987402
0.188192 0.117481 0.36827 -0.00279136 0.83431 -0.551288
-0.133249 -0.0549647 0.304584 0.000752169 -0.224126 -0.97456
0.16092 0.261231 0.606194 -0.00312356 0.927412 -0.374027
-0.107964 -0.241311 0.341175 0.000374939 -0.110849 -0.993837
-0.165588 -0.105526 0.311717 0.000967481 -0.287514 -0.957776
-0.150281 0.180576 0.457824 -0.00280757 0.82588 -0.56384
0.00372222 -0.209527 0.336718 -0.00053553 0.158327 0.987386
0.0125598 -0.052018 0.168999 0.883053 0.46278 -0.0777938
-0.215799 -0.00942648 0.279875 0.000991675 -0.296657 -0.954984
-0.0467696 0.0525987 0.292996 -0.00325282 0.974647 -0.223726
0.059419 -0.138858 0.321516 0.000915425 -0.272664 -0.962109
-0.0575551 0.257698 0.697155 0.00312781 -0.923743 0.383001
0.14982 -0.0860395 0.307772 0.000966831 -0.287092 -0.957902
-0.0728512 0.164711 0.440907 -0.00277868 0.826628 -0.562742
0.128525 -0.261314 0.343494 0.000368598 -0.110786 -0.993844
-0.130445 0.20355 0.503407 -0.00284992 0.845746 -0.533578
-0.148925 0.199068 0.560751 0.00284987 -0.845722 0.533615
-0.0119174 0.282509 0.661221 0.00313425 -0.931151 0.36462
0.178414 -0.157572 0.363651 -0.000752247 0.22414 0.974557
0.0202843 0.0853481 0.314523 0.0029243 -0.874617 0.484806
0.257199 -0.0584805 0.0301863 0.962704 0.0289827 0.268999
0.202623 0.0222155 0.32232 -0.000752247 0.22414 0.974557
-0.09879 0.0814004 0.379666 0.00276744 -0.826607 0.562773
0.187674 -0.288353 0.363416 0.00334126 -0.995481 -0.0949004
0.0463146 -0.23602 0.381591 -0.000752247 0.22414 0.974557
-0.142983 0.237476 0.544026 0.00312228 -0.932484 0.361197
-0.187355 0.201455 0.500379 -0.00257528 0.845714 -0.533631
0.0339213 0.216001 0.595833 0.00309629 -0.923792 0.382883
-0.202703 0.180022 0.456898 -0.911451 -0.285327 0.296388
-0.214202 0.0928897 0.329552 0.00293685 -0.874682 0.484688
0.223429 0.0371018 0.443618 0.000869167 -0.259387 -0.965773
0.154139 0.0284955 0.285612 0.000752169 -0.224126 -0.97456
-0.149017 0.0696079 0.294855 0.0019581 -0.585641 0.810568
-0.0365492 0.183037 0.534743 0.00284987 -0.845722 0.533615
0.112474 0.236236 0.644004 0.00312781 -0.923743 0.383001
-0.000225157 0.264852 0.612458 -0.00310128 0.927488 -0.37384
0.169898 0.105591 0.34762 0.0028009 -0.834191 0.551468
-0.187208 0.12024 0.376136 -0.00276898 0.826593 -0.562794
-0.202408 0.139771 0.408788 -0.941706 0.309614 -0.131641
0.107418 0.0810963 0.378205 0.00276744 -0.826607 0.562773
0.0395458 -0.0194748 0.331787 -0.000758458 0.224128 0.974559
-0.121635 -0.100768 0.350357 -0.000758458 0.224128 0.974559
0.0122035 -0.131211 0.319304 0.00091317 -0.272642 -0.962115
-0.0099888 -0.164829 0.365174 -0.000752247 0.22414 0.974557
-0.196339 0.100252 0.341402 -0.00278901 0.834123 -0.551572
-0.231664 -0.0509395 0.261376 0.000876454 -0.258443 -0.966026
0.21968 -0.0955748 0.335483 -0.00385645 0.982777 0.184758
0.106919 0.259387 0.699885 0.00312781 -0.923743 0.383001
-0.175515 -0.263089 0.387646 -0.000758458 0.224128 0.974559
0.0378842 0.196116 0.555074 0.00284987 -0.845722 0.533615
0.227031 -0.0984252 0.297498 0.00388977 -0.990167 -0.139839
0.186133 -0.0871155 0.263065 0.958553 -0.0799178 -0.273476
0.0643363 0.280962 0.701776 -0.00128165 0.383055 0.923725
-0.190452 0.19121 0.54852 0.00250159 -0.845757 0.533562
-0.0693132 0.288738 0.67801 -0.00315317 0.936773 -0.349923
-0.0733147 -0.0733536 0.301993 0.00117094 -0.347977 -0.937502
-0.1158 0.0316113 0.275731 0.00013424 -0.0400446 -0.999198
0.219225 -0.0227765 0.47033 -0.543967 0.221332 0.80939
-0.177472 0.220814 0.519467 -0.00267104 0.799776 -0.600293
0.0785495 -0.0657307 0.301504 0.00100315 -0.297877 -0.954604
0.204441 0.0510384 0.285631 0.00167037 -0.498197 0.867062
-0.0411827 -0.153023 0.326886 -0.000734429 0.217179 0.976132
0.0262153 -0.147661 0.361254 -0.000752247 0.22414 0.974557
0.0831699 -0.048806 0.188133 0.0411235 -0.161048 -0.986089
0.102655 -0.256618 0.386372 -0.000752247 0.22414 0.974557
-0.176881 0.233773 0.640416 0.00309629 -0.923792 0.382883
0.244991 -0.0595876 0.00453005 -0.844959 -0.229817 0.482938
-0.234121 -0.106421 0.478016 -0.697593 0.195157 -0.689404
-0.187922 -0.000765702 0.277213 -0.000991675 0.296657 0.954984
0.204085 -0.182202 0.317245 -0.110466 0.185334 0.976447
-0.152811 0.259922 0.70328 0.00433129 -0.922544 0.385868
0.215489 -0.0497883 0.474412 -0.686318 0.186265 0.703045
0.170098 0.247451 0.566999 0.00311864 -0.931397 0.363991
-0.133578 -0.177632 0.330739 0.000727898 -0.216808 -0.976214
-0.0742788 -0.0158295 0.282011 0.000991675 -0.296657 -0.954984
0.122891 0.287401 0.677669 -0.00306747 0.923744 -0.382999
-0.104735 -0.243754 0.383253 -0.000752247 0.22414 0.974557
-0.233275 -0.11731 0.414636 -0.738294 -0.662955 -0.124149
0.0356051 0.20342 0.490699 -0.00278569 0.829193 -0.558956
-0.146438 0.180181 0.530804 0.00284987 -0.845722 0.533615
0.132861 -0.196614 0.336255 0.00053219 -0.158188 -0.987409
-0.217984 -0.0930213 0.479594 0.683348 -0.0947404 -0.72392
0.169511 0.258457 0.559286 0.0526738 0.906744 -0.418379
0.0977411 0.168441 0.441538 -0.00276686 0.82562 -0.564219
-0.196207 0.137045 0.380818 -0.993512 -0.0121071 0.113083
-0.000635251 -0.255182 0.344292 -0.000372987 0.111111 0.993808
0.0442254 0.172828 0.518137 0.0028543 -0.845757 0.533561
0.105012 -0.248757 0.343613 0.000370855 -0.111133 -0.993805
-0.129233 -0.0158913 0.295601 0.000752169 -0.224126 -0.97456
0.232396 0.0178516 0.254779 -0.000725318 0.213657 0.976908
0.048037 -0.0634953 0.0735808 0.00306322 -0.999797 0.0199187
0.119177 0.322809 0.684914 0.00330127 -0.985132 0.171768
-0.049168 0.2173 0.514171 -0.00275405 0.82463 -0.565665
-0.0782304 -0.208616 0.375192 -0.000752247 0.22414 0.974557
0.0357033 -0.0967809 0.310876 0.000966831 -0.287092 -0.957902
0.0793883 0.240376 0.654258 0.00312781 -0.923743 0.383001
0.180353 0.00789927 0.276721 0.000133849 -0.0400407 -0.999198
-0.0450229 -0.052083 0.0781064 -0.0031174 0.999797 0.0199266
-0.0522544 0.0833238 0.382262 0.00276744 -0.826607 0.562773
0.0790812 0.146672 0.465744 -0.00153151 0.455593 0.890187
0.130632 0.0791486 0.310049 0.00284041 -0.83937 0.543554
0.150978 0.188893 0.471285 -0.0027649 0.829479 -0.558531
0.150241 -0.211541 0.376042 -0.000752247 0.22414 0.974557
0.117075 0.184577 0.465054 0.00276686 -0.82562 0.564219
0.073939 0.155824 0.420745 -0.00272781 0.819682 -0.572812
-0.0341645 0.0760175 0.354429 0.00222103 -0.661356 -0.750069
-0.162097 0.144926 0.408948 -0.0027517 0.819753 -0.57271
0.177458 -0.0632252 0.0671242 0.00608 -0.999301 0.0368846
0.14872 -0.286351 0.358015 0.000752255 -0.224124 -0.97456
-0.168136 0.112658 0.364905 -0.00276898 0.826593 -0.562794
-0.0428434 0.3225 0.686264 -0.00331952 0.985269 -0.17098
-0.132266 -0.21544 0.292721 -0.000371896 0.10885 0.994058
0.178717 0.0919607 0.393817 0.00277883 -0.826642 0.562722
0.130972 -0.0838295 0.311426 0.000752255 -0.224124 -0.97456
-0.029319 -0.229174 0.339851 -0.00053553 0.158327 0.987386
0.19217 -0.267577 0.388962 -0.000818225 0.224144 0.974556
-0.0667761 0.226592 0.622201 0.00309629 -0.923792 0.382883
-0.221417 0.0455366 0.441917 0.686565 -0.178871 -0.704723
0.128035 -0.2152 0.292791 -0.000367403 0.108788 0.994065
0.104464 0.143558 0.467382 -0.00153151 0.455593 0.890187
-0.0027706 0.138686 0.463352 0.00277883 -0.826642 0.562722
-0.120291 -0.272986 0.354734 0.000752255 -0.224124 -0.97456
-0.20683 -0.254205 0.326093 -0.993415 -0.0120191 0.113939
0.00992429 -0.281626 0.339135 -0.0028677 0.855976 -0.517008
-0.0186097 0.024999 0.321514 -0.000758458 0.224128 0.974559
-0.0893837 0.0737514 0.302848 0.00281133 -0.839545 0.543283
0.0968439 -0.0950209 0.308828 -0.000962827 0.287468 0.95779
-0.0895288 0.153293 0.461828 -0.00188267 0.562775 0.826608
0.13083 0.241267 0.555333 0.00315775 -0.942605 0.333896
-0.170579 0.31044 0.702661 -0.000565871 0.168961 0.985623
0.200142 0.0819334 0.313986 0.00284041 -0.83937 0.543554
0.00334024 0.179843 0.465116 -0.00285253 0.845754 -0.533565
0.0559699 0.267574 0.630385 -0.00306747 0.923744 -0.382999
-0.10488 0.0112996 0.276546 -0.00013424 0.0400446 0.999198
-0.0656796 0.188432 0.543449 0.00284987 -0.845722 0.533615
-0.142071 -0.193469 0.33643 0.000752169 -0.224126 -0.97456
-0.17704 0.120004 0.436752 0.00276744 -0.826607 0.562773
-0.161119 0.238089 0.650702 0.00309629 -0.923792 0.382883
0.201894 -0.00813675 0.294074 0.000752255 -0.224124 -0.97456
0.213733 0.147839 0.367714 -0.522481 -0.713669 0.466573
-0.1602 0.216713 0.599124 0.00310454 -0.923735 0.38302
0.13795 -0.16272 0.364804 -0.000752247 0.22414 0.974557
-0.0939563 -0.0124181 0.33006 -0.000758458 0.224128 0.974559
-0.141339 0.150593 0.42049 -0.00276898 0.826593 -0.562794
-0.0754102 0.156328 0.492622 0.0028543 -0.845757 0.533561
-0.0110423 -0.108526 0.316996 0.000752169 -0.224126 -0.97456
0.01816 0.265177 0.613112 0.00310128 -0.927488 0.37384
0.110141 -0.00986475 0.2944 0.000752169 -0.224126 -0.97456
0.081787 0.0764748 0.354369 0.00222103 -0.661356 -0.750069
-0.198002 0.0369881 0.318615 -0.000937292 0.224144 0.974556
-0.113335 -0.110501 0.313263 -0.000962827 0.287468 0.95779
-0.191085 0.148548 0.475544 -0.748836 -0.604642 -0.271391
0.113385 0.253395 0.586883 -0.0031408 0.931257 -0.36435
0.125887 0.13457 0.392812 0.00274355 -0.817326 0.576169
-0.181553 -0.0645151 0.058289 0.00747498 -0.998074 -0.0615832
0.225259 0.0789093 0.443303 -0.000866633 0.258681 0.965962
-0.19482 0.207778 0.56007 -0.9197 -0.31135 0.239192
-0.0176336 -0.139197 0.359276 -0.000980235 0.224377 0.974502
-0.129353 -0.0601184 0.0807967 -0.130141 -0.214676 0.967976
-0.146126 0.288386 0.677761 0.00315317 -0.936773 0.349924
-0.0746865 0.260891 0.607321 0.00312779 -0.927398 0.374064
0.208322 -0.113896 0.295258 0.106614 -0.298691 -0.948376
-0.132807 -0.0465758 0.337886 -0.000758458 0.224128 0.974559
-0.095255 0.273584 0.646102 -0.00307551 0.923752 -0.382979
-0.210729 -0.137749 0.340062 -0.999995 -0.0031736 0.000728624
0.110631 -0.212808 0.376302 -0.000752247 0.22414 0.974557
-0.240566 0.0341909 0.253628 -0.702657 -0.141698 0.697276
-0.209459 -0.113568 0.344964 -0.928877 0.0800318 0.361639
-0.160944 0.103419 0.412313 0.00276744 -0.826607 0.562773
-0.143625 0.0220617 0.322092 -0.000758458 0.224128 0.974559
-0.201328 0.170539 0.420353 -0.993578 -0.0113471 0.11258
0.16869 -0.248952 0.34213 -0.000368598 0.110786 0.993844
0.127544 0.00647309 0.290656 0.000752169 -0.224126 -0.97456
0.22402 0.0388176 0.254756 0.000455203 -0.139051 0.990285
0.0877963 -0.273598 0.343988 0.00100199 -0.298486 0.954413
0.174958 0.0623033 0.288794 -0.00196337 0.585684 -0.810537
0.228549 -0.126109 0.448257 0.741872 -0.658901 -0.124399
-0.201151 0.054954 0.267256 -0.10566 0.46858 -0.87708
-0.0613454 0.155753 0.42396 -0.00275921 0.819708 -0.572775
0.174633 -0.0948042 0.313984 0.000752255 -0.224124 -0.97456
-0.0687584 0.322222 0.685167 0.00331952 -0.985269 0.17098
-0.122935 0.0931775 0.329518 0.00293685 -0.874682 0.484688
-0.211252 0.0177849 0.302607 -0.999994 -0.00342244 -0.00019661
0.14357 -0.256162 0.324843 0.0028895 -0.855919 0.517103
-0.0338686 -0.273796 0.317273 0.00172138 -0.510055 -0.86014
0.0582681 0.0113705 0.289476 0.000752169 -0.224126 -0.97456
-0.0615897 0.110347 0.355987 0.00278901 -0.834123 0.551572
0.223315 -0.115505 0.481642 0.00203405 -0.729772 0.683687
0.0452132 0.205227 0.569476 0.00284987 -0.845722 0.533615
0.113626 -0.0672328 0.181274 -0.0485169 0.552099 0.832366
0.00598209 -0.107348 0.079538 0.999802 0.00454455 0.0193502
-0.0261441 -0.208624 0.282099 0.000371896 -0.10885 -0.994058
-0.0982271 0.112238 0.424957 0.00276744 -0.826607 0.562773
-0.160097 -0.155403 0.325782 -0.000727898 0.216808 0.976214
0.0707306 0.25834 0.608003 -0.0049489 0.921904 -0.387386
0.132483 -0.119691 0.316153 -0.00091317 0.272642 0.962115
0.0169325 -0.0662994 0.0728421 0.840656 -0.541248 -0.0186416
-0.0901285 0.179166 0.458153 0.00276686 -0.82562 0.564219
0.234115 -0.0628451 0.0646652 0.0164122 -0.998916 0.0435563
-0.0444112 0.282063 0.656184 -0.00313016 0.931096 -0.36476
0.245163 0.0682626 0.259583 0.665971 0.30784 -0.679497
-0.17293 -0.0694409 0.307882 0.000752169 -0.224126 -0.97456
0.041483 -0.0530185 0.0568616 -0.0400653 -0.000152759 -0.999197
-0.143461 0.264201 0.616102 0.00312779 -0.927398 0.374064
0.186464 0.111168 0.355972 0.0028009 -0.834191 0.551468
-0.170174 -0.0699047 0.216976 0.737991 0.456645 0.496834
0.00530301 0.166859 0.0634357 0.999263 0.0107243 0.0368701
-0.0498801 -0.0705014 0.183946 -0.0421138 0.702886 -0.710055
-0.199707 -0.0140703 0.330357 -0.000937292 0.224144 0.974556
0.0144241 -0.18867 0.333301 -0.000728267 0.216812 0.976213
0.206583 -0.0580516 0.0503406 -0.03543 -0.134768 -0.990244
0.148539 0.168906 0.511362 0.0028543 -0.845757 0.533561
-0.210225 -0.149681 0.307592 -0.993517 -0.0122864 0.113016
0.108522 -0.258024 0.321957 0.0028895 -0.855919 0.517103
-0.209163 -0.232358 0.372012 -0.928877 0.0800318 0.361639
-0.0679376 -0.198105 0.286568 -0.00286034 0.843051 0.537825
0.167864 0.287081 0.612836 0.993312 0.0508486 0.103665
0.0283555 -0.0136768 0.281449 0.000991675 -0.296657 -0.954984
-0.0100964 0.243939 0.559558 0.00311864 -0.931397 0.363991
-0.0341484 0.178396 0.456751 -0.00276686 0.82562 -0.564219
-0.0817254 0.202634 0.490119 0.00278569 -0.829193 0.558956
-0.13583 0.1229 0.440803 0.00276744 -0.826607 0.562773
-0.224041 -0.00568019 0.259867 -0.000878378 0.258585 0.965988
-0.0451671 -0.0935783 0.309835 0.000962517 -0.287138 -0.957889
-0.0175734 -0.0654394 0.0799511 -0.835539 -0.54943 0.000900745
-0.168249 0.21724 0.493179 0.0728904 -0.829143 0.554264
-0.0878215 0.0714494 0.364996 0.00276816 -0.826599 0.562785
-0.205182 -0.0945727 0.313634 0.000782402 -0.22411 -0.974563
0.0456408 0.0525074 0.291543 -0.00284715 0.853095 -0.521748
-0.20889 -0.181925 0.315819 -0.993454 -0.0123249 0.11357
0.236184 -0.0856874 0.481554 0.682345 -0.0895827 -0.725521
-0.104669 0.0829449 0.349262 0.00189162 -0.563269 -0.826271
0.0426241 -0.239664 0.347196 0.000752255 -0.224124 -0.97456
0.244806 0.0892942 0.281322 0.605638 -0.601199 0.521309
-0.0685731 0.294914 0.695168 0.00257437 -0.765182 0.643809
0.196543 -0.263449 0.318046 0.00162067 -0.48432 0.874889
0.118432 -0.0634517 0.341958 -0.000752247 0.22414 0.974557
0.220302 -0.072226 0.267479 0.000751789 -0.258495 -0.966012
-0.00636576 0.0431061 0.071752 -0.999802 -0.00454484 0.0193467
-0.133718 0.0764864 0.307304 -0.00281133 0.839545 -0.543283
0.184368 -0.265346 0.332629 0.112537 -0.148084 -0.982551
0.0687215 0.275699 0.649879 -0.00306747 0.923744 -0.382999
-0.180566 0.167083 0.510233 0.00504876 -0.84563 0.533746
0.0645862 0.120065 0.435666 0.00277883 -0.826642 0.562722
0.0734071 0.209826 0.576613 0.00284987 -0.845722 0.533615
0.158108 -0.112694 0.318085 0.000752255 -0.224124 -0.97456
0.204984 -0.0544899 0.275823 0.998407 -0.0253995 0.0503857
0.0451972 0.256508 0.693447 0.00312781 -0.923743 0.383001
0.069016 -0.269561 0.389323 -0.000752247 0.22414 0.974557
0.0331073 -0.188395 0.334812 0.000730785 -0.217218 -0.976123
-0.239557 0.100966 0.426048 0.000869442 -0.259401 -0.965769
-0.135859 -0.0252687 0.284879 0.000991675 -0.296657 -0.954984
-0.216359 -0.0502041 0.473404 0.685382 0.190777 0.702748
-0.10908 0.285051 0.673867 -0.00500089 0.921852 -0.387509
-0.0751395 -0.0364649 0.335605 -0.000758458 0.224128 0.974559
0.00288379 0.0809058 0.313426 0.00281133 -0.839545 0.543283
0.0429583 0.0292885 0.320575 -0.000758458 0.224128 0.974559
-0.228876 -0.123435 0.474792 0.00274936 -0.729958 0.683486
-0.0521199 0.0386472 0.318349 -0.000758458 0.224128 0.974559
-0.00839704 -0.222616 0.338811 0.00053553 -0.158327 -0.987386
0.179795 0.281638 0.644802 0.957881 0.287158 0.0021469
-0.156183 0.133472 0.395417 -0.00276898 0.826593 -0.562794
-0.206302 0.0833694 0.274633 -0.996727 0.0186142 0.0786724
-0.208472 0.126098 0.352826 -0.993578 -0.0113471 0.11258
0.21754 -0.0664424 0.480827 -0.686318 0.186265 0.703045
-0.171501 -0.00983961 0.280049 -0.000991675 0.296657 0.954984
0.157987 0.293171 0.687848 -0.00313447 0.93689 -0.34961
-0.0481747 0.00656486 0.290499 0.000752169 -0.224126 -0.97456
0.179046 0.246386 0.51435 0.995769 0.046698 0.0791362
-0.168972 0.284988 0.632021 -0.0512792 0.939676 -0.338199
-0.0361307 0.171551 0.444037 0.00275475 -0.825584 0.564273
-0.0239841 0.282213 0.528275 0.00312384 -0.920066 -0.391751
-0.0529333 -0.0989163 0.349985 -0.000758458 0.224128 0.974559
0.155347 -0.0994705 0.35027 -0.000752247 0.22414 0.974557
0.0626215 -0.173895 0.332086 0.000752255 -0.224124 -0.97456
-0.0599996 -0.119813 0.319554 0.000752169 -0.224126 -0.97456
0.134983 0.281198 0.656609 0.00313425 -0.931151 0.36462
0.238692 0.0391686 0.452576 0.68504 0.15464 0.711903
0.18347 -0.0417651 0.251275 0.904257 -0.0657689 -0.421893
0.225868 -0.101239 0.365719 -0.00285633 0.982793 0.184686
-0.0797635 0.269041 0.627568 0.00312356 -0.927412 0.374027
0.00574215 -0.00926318 0.0730737 0.999725 -0.000456304 -0.0234377
0.199185 -0.162301 0.295994 0.105785 -0.337227 -0.935461
-0.176387 0.199883 0.486508 -0.00278569 0.829193 -0.558956
0.0722676 0.139699 0.400342 -0.00274355 0.817326 -0.576169
-0.202034 0.129327 0.442434 -0.913399 -0.296548 0.278858
0.0654508 0.222838 0.612075 0.00309629 -0.923792 0.382883
-0.209773 0.138932 0.39623 -0.911027 -0.2821 0.300748
-0.00585211 -0.315505 0.0266723 -0.0734957 -0.965498 0.249824
0.0782062 0.188492 0.471052 0.00277951 -0.829396 0.558654
-0.017673 0.0707317 0.299987 0.00205874 -0.6148 0.78868
0.163901 0.149931 0.411884 -0.00272781 0.819682 -0.572812
0.118464 0.0985062 0.339909 0.00282265 -0.834122 0.551573
-0.160146 0.16656 0.440056 0.00277887 -0.82555 0.564322
0.102161 0.165942 0.506912 0.0028543 -0.845757 0.533561
0.104966 -0.175928 0.330539 -0.000728267 0.216812 0.976213
0.00925021 -0.0490993 0.296242 -0.00100744 0.297831 0.954618
0.0269375 0.286867 0.534197 0.0016557 -0.487697 0.873011
0.200433 0.0662172 0.29156 -0.00196337 0.585684 -0.810537
0.00622799 -0.135635 0.0689777 0.999696 0.00799116 -0.0233036
0.114051 -0.209993 0.336853 -0.00053553 0.158327 0.987386
0.154317 0.115821 0.365929 -0.00279136 0.83431 -0.551288
-0.107796 0.215331 0.595367 0.00310454 -0.923735 0.38302
0.038923 0.269455 0.623551 -0.00309621 0.927471 -0.373883
-0.121992 0.111295 0.36048 -0.00282265 0.834122 -0.551573
-0.030209 -0.014185 0.295285 0.000752169 -0.224126 -0.97456
-0.119409 -0.126201 0.317759 -0.00091317 0.272642 0.962115
-0.206054 -0.0716237 0.286144 0.104371 0.299415 0.948397
-0.181638 -0.168552 0.330236 -0.000730785 0.217218 0.976123
0.0174287 0.0360062 0.279391 -0.000499502 0.148575 -0.988901
-0.105226 0.136341 0.396424 0.00274355 -0.817326 0.576169
0.0513794 0.235371 0.642417 0.00312781 -0.923743 0.383001
-0.208071 -0.173061 0.336906 -0.928294 -0.0862554 -0.361706
-0.0118348 0.0959154 0.400558 0.00276744 -0.826607 0.562773
-0.108121 0.156602 0.422727 -0.0027352 0.819725 -0.57275
0.158903 0.269402 0.706058 -0.000895857 0.264575 0.964365
0.0814898 -0.0276569 0.298469 0.000752169 -0.224126 -0.97456
0.00604939 -0.0814481 0.0684053 0.987163 -0.154981 -0.0386001
-0.222988 0.024442 0.270923 0.97508 -0.0398683 0.218243
-0.129983 0.121831 0.373312 0.00273282 -0.817318 0.57618
-0.180472 -0.0404097 0.33643 -0.000758458 0.224128 0.974559
-0.00172561 0.322323 0.684455 0.00330127 -0.985132 0.171768
-0.0782318 -0.0406916 0.289869 0.00114914 -0.347762 -0.937582
0.0920913 -0.273032 0.317207 4.96576e-05 -0.0147138 -0.999892
0.184849 0.241983 0.619621 0.998897 0.0407392 0.0233576
-0.162182 0.242716 0.52701 -0.0610152 0.895803 -0.440243
0.199019 0.0713056 0.258784 -0.989031 0.0301664 -0.144596
0.191402 0.161325 0.466263 0.807334 -0.313749 -0.499773
0.138948 -0.0118977 0.294889 -0.00170547 -0.221387 -0.975184
-0.0931704 0.121048 0.374668 0.00273472 -0.81738 0.576092
-0.070806 0.0396622 0.28287 0.000752169 -0.224126 -0.97456
-0.148678 0.146008 0.465693 -0.00152342 0.455385 0.890293
0.114798 0.155852 0.42059 0.00272781 -0.819682 0.572812
-0.191203 0.212338 0.517645 -0.00257528 0.845714 -0.533631
-0.019685 -0.149263 0.324389 0.000915425 -0.272664 -0.962109
-0.00507214 -0.236824 0.0529828 -0.997846 3.38996e-05 -0.0656019
0.104624 -0.220305 0.28541 0.00309674 -0.916947 -0.398997
-0.0369199 0.247196 0.671659 0.00312781 -0.923743 0.383001
-0.0421311 0.284784 0.522093 0.00312384 -0.920066 -0.391751
0.187818 0.130907 0.354914 -0.987422 0.0573571 -0.147337
0.113427 0.232321 0.528513 0.00310471 -0.932421 0.361359
0.0945782 0.129774 0.386157 0.00274355 -0.817326 0.576169
0.175179 0.193289 0.456713 -0.0673155 -0.829599 0.554287
0.19969 0.0209721 0.247809 -0.987692 -0.00271967 -0.156385
-0.00778693 0.0988077 0.341011 -0.00282265 0.834122 -0.551573
0.191356 -0.130085 0.293928 0.958553 -0.0799178 -0.273476
0.181098 -0.0578514 0.231733 -0.962162 0.0459989 0.268568
0.220306 0.0186106 0.268734 0.642855 -0.19904 -0.739676
0.198476 -0.229249 0.318409 0.973277 -0.0644952 -0.220391
0.00539771 -0.0101894 0.0906837 0.999301 0.00608142 0.0368939
0.0060477 -0.304579 0.0054317 0.0369141 -0.0189949 -0.999138
0.0298701 0.095956 0.336506 -0.00282265 0.834122 -0.551573
-0.210486 -0.0454414 0.312655 -0.927981 -0.0864616 -0.362458
0.190679 0.0815998 0.378534 0.00320662 -0.826661 0.562692
-0.0056428 -0.176999 0.0678671 -0.999797 -0.00306374 0.0199226
-0.127379 0.213376 0.587347 0.00166506 -0.495427 -0.868648
-0.0148128 0.0438463 0.275917 -0.00196337 0.585684 -0.810537
-0.104058 -0.151941 0.326598 -0.000734429 0.217179 0.976132
-0.22816 -0.11739 0.393622 0.00284577 -0.982794 -0.184685
0.0524484 -0.000492003 0.327432 -0.000758458 0.224128 0.974559
0.00874427 0.226044 0.620268 0.00309629 -0.923792 0.382883
-0.187341 -0.0555798 0.339914 -0.000758458 0.224128 0.974559
0.103855 -0.26954 0.336876 0.00334079 -0.999254 0.0384868
-0.124029 -0.260852 0.387171 -0.000752247 0.22414 0.974557
-0.16982 0.0902166 0.344802 0.00154107 -0.455195 -0.89039
-0.210153 -0.202083 0.335476 -0.900242 0.0328987 0.434144
0.177461 -0.128009 0.320122 -0.000914074 0.272686 0.962103
-0.0649205 -0.162964 0.364705 -0.000758458 0.224128 0.974559
0.17511 -0.274219 0.343702 0.00100199 -0.298486 0.954413
-0.210428 -0.268219 0.323922 0.874754 0.199704 -0.441501
0.0634879 0.15564 0.462802 0.00179413 -0.53342 -0.845849
-0.054723 0.193081 0.48641 -0.00285253 0.845754 -0.533565
-0.127066 0.317168 0.67716 0.00255355 -0.764258 0.644905
0.117308 -0.0459406 0.29537 -0.00100744 0.297831 0.954618
0.162015 -0.141497 0.322361 -0.000915425 0.272664 0.962109
0.0489092 0.100397 0.406851 0.00277883 -0.826642 0.562722
0.0470228 -0.0160779 0.286647 0.00091003 -0.269583 -0.962977
-0.152198 0.115753 0.367378 0.00279136 -0.83431 0.551288
0.0147167 -0.0677959 0.174462 -0.0551538 0.702358 0.709683
-0.061004 0.212525 0.581609 0.00284987 -0.845722 0.533615
-0.00178377 -0.0794742 0.345554 -0.000758458 0.224128 0.974559
0.0871991 -0.227061 0.339575 0.00053553 -0.158327 -0.987386
0.170533 0.249791 0.58657 -0.00349933 0.923758 -0.38296
0.0054913 -0.0185382 0.287296 -0.00091003 0.269583 0.962977
-0.198753 -0.247332 0.384003 0.00319552 0.223985 0.974587
-0.108076 0.0562377 0.285096 0.0019581 -0.585641 0.810568
0.0277992 -0.233606 0.340367 0.000374939 -0.110849 -0.993837
-0.0277687 0.254133 0.589985 -0.0031408 0.931257 -0.36435
0.160321 -0.211051 0.29815 -0.456476 0.0946219 0.88469
-0.109396 -0.269736 0.389226 -0.000752247 0.22414 0.974557
0.00414784 0.194065 0.00551935 0.0367573 0.0192565 -0.999139
0.198322 0.180776 0.431374 0.0675778 0.830921 -0.552271
0.0196953 0.128318 0.384448 -0.00274355 0.817326 -0.576169
-0.215904 -0.101357 0.327072 0.743558 -0.657081 -0.123958
0.0610572 0.287901 0.670237 0.0031492 -0.936761 0.349954
-0.205886 -0.0459331 0.281144 -0.104174 -0.29934 -0.948443
0.0743447 0.0375275 0.279591 -0.000499502 0.148575 -0.988901
-0.0980529 -0.0638394 0.083505 0.00168501 -0.999391 0.0348439
-0.208439 -0.15326 0.325271 -0.000727898 0.216808 0.976214
0.173052 0.138224 0.395129 0.00273282 -0.817318 0.57618
0.0539574 -0.206481 0.336257 -0.00053553 0.158327 0.987386
0.0840739 0.0872829 0.317629 -0.0029243 0.874617 -0.484806
0.159084 0.241301 0.551294 0.00310471 -0.932421 0.361359
-0.0521227 -0.0380231 0.30075 0.000752169 -0.224126 -0.97456
0.238962 -0.00305535 0.457231 0.685526 -0.229378 -0.69097
0.228994 0.00224918 0.247747 0.000706042 -0.208079 -0.978112
0.167439 0.0748949 0.303286 -0.00281133 0.839545 -0.543283
0.057495 -0.261415 0.343478 0.000368598 -0.110786 -0.993844
-0.110858 -0.21386 0.337351 0.000531689 -0.158289 -0.987393
0.156048 0.228443 0.580111 0.00127301 -0.383361 -0.923598
0.0248159 0.00832788 0.280135 0.000763424 -0.226153 -0.974091
0.142685 0.0656195 0.291268 0.00196337 -0.585684 0.810537
-0.0577263 0.0851359 0.314611 0.00293685 -0.874682 0.484688
0.115545 0.192331 0.548669 0.0028543 -0.845757 0.533561
0.133022 0.284638 0.700321 -0.00167258 0.495368 0.868682
0.0289717 0.322791 0.68655 0.00330127 -0.985132 0.171768
0.0228445 -0.0454197 0.182763 0.042052 -0.704071 -0.708883
-0.182169 0.195302 0.429641 0.987953 0.0585531 -0.143248
