-0.00546928 -0.270598 0.0481731 -0.998009 0.0163926 -0.0608972
0.0597497 -0.0820174 0.331091 -3.66702e-05 0.216709 0.976236
0.180619 0.183783 0.430506 0.995638 0.0369232 0.0856845
-0.187058 0.0209562 0.26783 2.24062e-05 -0.144994 0.989432
-0.14211 0.0869962 0.320847 0.000132932 -0.837382 0.546618
0.0488161 0.00118354 0.27927 3.66923e-05 -0.216044 -0.976384
-0.181501 0.188153 0.411123 -0.0825445 0.835989 -0.542503
-0.0365869 -0.0925623 0.208681 0 0 1
-0.204401 -0.0797319 0.277054 -0.992488 -0.0179884 0.121014
-0.0539009 -0.0491994 0.0648681 0.00362042 0.999725 -0.0231678
-0.16323 -0.265049 0.331723 4.82102e-05 -0.293747 0.955883
0.0319325 0.226825 0.656317 4.86307e-05 -0.335996 -0.941863
-0.00119528 0.280549 0.756115 9.26798e-05 -0.854967 0.518682
-0.000145495 0.151232 0.413492 0.000115003 -0.81746 0.575986
0.222879 -0.114859 0.445161 0.617189 0.697363 -0.364366
0.193753 0.120639 0.386077 0.913695 0.351616 -0.203784
0.10004 0.267491 0.707689 -0.000185661 0.976674 -0.214725
-0.183974 -0.146673 0.287622 0.980222 -0.00102592 -0.197901
-0.0402846 -0.0720694 0.199915 -1 -0.000133715 0
-0.133187 -0.0358403 0.287455 3.66923e-05 -0.216044 -0.976384
-0.0162303 -0.0467602 0.108584 -0.909066 0.416643 -0.00273373
-0.14358 0.263957 0.68702 0.000127227 -0.973705 0.227812
0.231008 -0.0608369 0.0492111 -0.00915964 -0.996204 0.0865603
0.0654145 -0.150157 0.315819 -3.61207e-05 0.221163 0.975237
0.0377699 -0.0707913 0.181036 0 0 -1
-0.0348283 -0.0910993 0.333207 -3.66767e-05 0.216085 0.976375
0.0575268 -0.260103 0.317147 0.00016247 -0.999095 0.0425323
0.169463 0.25091 0.639027 0.85322 0.406858 0.326317
0.136507 -0.167485 0.319752 -3.61207e-05 0.221163 0.975237
-0.135112 -0.261375 0.306605 3.56805e-06 -0.0188464 -0.999822
-0.0285929 0.271603 0.72088 0.000169503 -0.975706 0.219085
0.0213374 0.243795 0.752322 0.000177282 -0.97665 0.214835
0.103175 -0.23412 0.331325 3.72355e-05 -0.216663 -0.976246
0.0716728 -0.0528357 0.324729 0.00169141 0.213912 0.976851
0.015868 -0.220042 0.328198 3.72355e-05 -0.216663 -0.976246
0.145728 0.249793 0.548393 0.649034 0.737363 -0.187217
0.171963 0.236309 0.507043 0.994625 0.0583147 0.0855581
0.00524728 0.109711 0.0710115 0.130778 0.130658 0.982764
0.0783668 0.0604086 0.318822 8.35015e-05 -0.566855 -0.823818
0.214789 -0.022503 0.44742 -0.0499938 0.260849 0.964084
0.206751 -0.00556043 0.313088 0.921687 0.0844916 0.378622
0.203444 0.0477842 0.241631 -0.612033 -0.186046 0.768636
0.0831718 0.218015 0.633203 0.000131781 -0.961988 0.273091
-0.0486685 0.0156445 0.276066 3.66923e-05 -0.216044 -0.976384
0.10877 0.0217578 0.308235 -3.66767e-05 0.216085 0.976375
-0.10046 -0.259616 0.329208 0.000164149 -0.999097 0.0424908
0.197761 -0.260324 0.325366 0.64089 0.117641 -0.758565
0.137291 0.268035 0.657163 -0.0404446 -0.980909 0.190215
0.213165 0.0344854 0.243079 -0.215379 -0.144924 0.965717
-0.174002 0.00832227 0.311198 -3.66767e-05 0.216085 0.976375
0.200501 0.0961224 0.317695 0.0818996 0.829359 -0.552682
-0.183519 0.0972812 0.336319 0.000132087 -0.832059 0.554688
0.0482105 -0.103333 0.302297 3.72355e-05 -0.216663 -0.976246
0.150681 0.242926 0.595444 0.000152728 -0.973478 0.228781
-0.123339 0.233788 0.569046 -0.000163491 0.961993 -0.273075
-0.179548 0.193489 0.419047 -0.0825445 0.835989 -0.542503
0.134331 -0.220074 0.36174 -3.66702e-05 0.216709 0.976236
0.187772 -0.0596691 0.266506 -0.982912 -0.00262381 -0.184057
0.165092 0.00590454 0.269989 -3.55631e-05 0.230134 0.973159
-0.150758 0.192975 0.482047 -0.000138149 0.842606 -0.538531
-0.0246319 0.0887164 0.323434 0.000132087 -0.832059 0.554688
0.0120798 -0.089987 0.332962 -3.66767e-05 0.216085 0.976375
-0.151115 0.0577014 0.320662 8.36555e-05 -0.566851 -0.82382
-0.176643 -0.234674 0.309914 -0.116657 -0.177388 -0.977202
0.209212 0.0184107 0.282319 0.921694 -0.0841887 -0.378673
-0.0294418 0.238585 0.72868 0.000177282 -0.97665 0.214835
-0.197818 0.0234151 0.246335 -0.122154 0.264454 -0.956631
-0.0800019 0.136376 0.426685 8.3758e-05 -0.538523 -0.842611
-0.196687 -0.139678 0.300511 -0.113874 -0.259566 -0.958988
-0.136096 -0.271832 0.314299 0.000119598 -0.874299 -0.485388
0.11483 0.0768616 0.371947 0.000127076 -0.824037 0.566536
-0.212849 -0.0653441 0.305058 -0.921412 -0.0845232 -0.379282
-0.16635 0.168763 0.415521 0.0820323 -0.829351 0.552673
-0.0776215 0.137344 0.455763 0.000133941 -0.842555 0.538611
0.149444 -0.0671044 0.184508 -4.57243e-05 0.259865 -0.965645
0.0889535 0.213865 0.504656 0.000147165 -0.82239 0.568925
-0.160844 0.271626 0.703713 -0.925557 -0.330702 0.184339
-0.0419067 -0.00158951 0.313397 -3.66767e-05 0.216085 0.976375
0.14198 0.126201 0.426785 -7.08182e-05 0.459231 0.888317
0.209945 0.0689043 0.28919 0.899954 -0.223935 0.374079
-0.176337 0.156066 0.485073 0.00802656 -0.84212 0.53923
0.103526 0.230777 0.558301 -0.000169406 0.961988 -0.273092
-0.171596 -0.252612 0.337851 0.000164167 -0.991927 -0.126809
0.145994 0.09049 0.326054 0.000132087 -0.832059 0.554688
0.182063 -0.121101 0.285702 0.113423 -0.257866 -0.9595
0.0241264 0.130996 0.445808 0.000133941 -0.842555 0.538611
-0.135415 0.181224 0.463657 -0.000138149 0.842606 -0.538531
-0.00352164 -0.113593 0.201176 -0.974599 -0.136821 0.177302
-0.180375 0.204592 0.544225 -0.947905 -0.0872202 -0.306379
0.156704 0.260603 0.649792 0.0436184 0.974903 -0.218317
-0.109004 0.131118 0.446031 0.000133941 -0.842555 0.538611
-0.172011 0.156733 0.39831 0.0819426 -0.829355 0.552681
-0.000670154 -0.122678 0.171058 0 -0.24204 -0.970266
0.0929317 -0.0145577 0.275448 -4.25529e-05 0.274024 0.961723
-0.130949 -0.0680659 0.328106 -3.66767e-05 0.216085 0.976375
-0.228038 0.101789 0.413733 -0.0437985 0.258607 0.964989
0.180892 -0.115934 0.305099 3.72355e-05 -0.216663 -0.976246
0.0491709 -0.224681 0.329229 3.72355e-05 -0.216663 -0.976246
-0.0884238 -0.249582 0.332833 -1.91772e-05 0.114893 0.993378
-0.0442619 0.143935 0.41176 -0.000150602 0.824001 -0.566588
0.126195 0.104865 0.354894 -0.000150602 0.824001 -0.566588
-0.154044 0.264269 0.688361 0.000127227 -0.973705 0.227812
-0.112019 -0.258992 0.333581 4.90258e-05 -0.29372 0.955891
0.0403118 0.142135 0.463228 0.000133941 -0.842555 0.538611
-0.051758 0.239883 0.582599 0.000120783 -0.973545 0.228497
0.142008 -0.259787 0.324243 0.00016247 -0.999095 0.0425323
-0.169223 0.175975 0.417732 -0.0824172 0.830542 -0.550824
-0.166824 0.248144 0.553123 -0.0438055 0.97575 -0.21446
-0.050341 0.199563 0.484017 0.000142227 -0.822417 0.568885
0.110505 0.265733 0.694629 0.000164341 -0.975715 0.219042
0.0881508 -0.10827 0.336919 -3.66702e-05 0.216709 0.976236
-0.187508 -0.0746406 0.293695 -5.38005e-05 0.291506 0.956569
0.20157 -0.253023 0.309947 0.962251 0.167739 -0.214327
0.181813 -0.0339787 0.28691 3.72355e-05 -0.216663 -0.976246
0.0577561 0.253814 0.647907 -6.88676e-05 0.39107 0.920361
-0.0505846 0.282182 0.757998 5.20971e-05 -0.480593 0.876944
-0.136357 -0.0256297 0.318714 -3.66767e-05 0.216085 0.976375
0.133365 0.135172 0.420823 -8.38407e-05 0.566241 0.82424
-0.191698 0.168986 0.416461 -0.992176 -0.019838 0.123258
0.196026 0.0961324 0.289625 0.995838 0.0255445 0.0874854
0.0182187 -0.152331 0.346698 -3.66702e-05 0.216709 0.976236
-0.189332 0.181644 0.429287 -0.0822758 0.830554 -0.550827
-0.2127 -0.156035 0.324908 -0.921412 -0.0845232 -0.379282
-0.184499 -0.142337 0.284968 0.980418 -0.00767922 -0.19678
0.068639 -0.252565 0.308364 -9.09659e-05 0.48048 -0.877006
0.164374 -0.132753 0.311041 -4.47385e-05 0.276573 0.960993
0.166915 -0.0755987 0.32967 -3.66702e-05 0.216709 0.976236
0.00131388 -0.131596 0.0526996 0 0.0400439 -0.999198
0.0932239 0.292329 0.76105 -2.66979e-06 0.018872 0.999822
0.161414 -0.259696 0.326321 0.00016247 -0.999095 0.0425323
0.0126674 -0.0529055 0.286838 -4.72475e-05 0.301633 0.953424
-0.157819 0.249264 0.556378 -0.0438055 0.97575 -0.21446
-0.00887419 0.221499 0.645522 0.000131781 -0.961988 0.273091
0.119591 -0.0712469 0.205222 4.53216e-05 -0.257569 0.96626
-0.0782366 0.178167 0.519631 0.000138148 -0.84258 0.538571
0.0564727 0.0375165 0.270859 7.63932e-05 -0.494325 0.869277
0.168286 -0.151862 0.31621 -3.61207e-05 0.221163 0.975237
-0.137708 0.142392 0.414597 -0.000121646 0.66557 0.746335
0.164127 0.0610157 0.348888 0.000127076 -0.824037 0.566536
-0.198346 0.00896964 0.311009 -0.0110692 0.217406 0.976018
0.0283128 0.20494 0.587171 0.000131781 -0.961988 0.273091
-0.138616 0.19522 0.553044 0.000160518 -0.961993 0.273072
0.205492 -0.0992675 0.301485 0.0117096 -0.217396 -0.976013
-0.0446207 0.157735 0.487657 0.000138148 -0.84258 0.538571
0.141065 -0.0861926 0.206214 -0.0001927 0.824893 0.565289
0.00566679 0.0961721 0.0680521 0.999343 0.00280039 0.0361367
0.00723533 -0.273095 0.322548 0.000191675 -0.99979 0.0204809
-0.153017 0.0768242 0.305266 0.000130681 -0.837395 0.546598
0.198901 0.140344 0.392063 0.912563 -0.280333 0.297729
-0.0582924 -0.222526 0.329704 -1.55435e-05 0.114931 0.993373
-0.164111 0.247337 0.616801 -0.000163491 0.961993 -0.273075
-0.0398063 0.236085 0.717322 0.000177282 -0.97665 0.214835
-0.0301055 0.174854 0.453656 -0.000131482 0.842548 -0.538621
0.0794692 -0.273105 0.321403 0.000191675 -0.99979 0.0204809
-0.0609675 0.121123 0.429394 -6.79843e-05 0.459151 0.888358
-0.142359 -0.00743844 0.28117 3.66923e-05 -0.216044 -0.976384
-0.168076 0.168561 0.50462 -0.00445764 -0.842469 0.538727
0.163278 0.218663 0.481136 0.0821202 0.830555 -0.550849
0.208616 -0.0884346 0.327046 0.920592 0.08493 0.381178
-0.121288 0.140813 0.461202 0.000138148 -0.84258 0.538571
-0.179109 0.108396 0.360128 -0.000176738 0.824009 -0.566576
0.0274779 0.272031 0.722742 0.000169503 -0.975706 0.219085
-0.170572 0.224351 0.465263 -0.0803082 0.836066 -0.54272
-0.16949 0.245847 0.543956 -0.0529319 0.954946 -0.292021
-0.102284 0.242079 0.591985 0.000120783 -0.973545 0.228497
-0.1967 -0.0571405 0.325745 0.0670133 0.211919 0.974987
0.121847 0.190538 0.470809 0.000143039 -0.827109 0.562041
0.128416 0.222622 0.64941 0.000131781 -0.961988 0.273091
-0.162316 0.232677 0.54988 0.000145758 -0.976971 0.213372
-0.125973 -0.0223234 0.277651 -4.29222e-05 0.27402 0.961724
-0.216175 -0.100367 0.349425 0.0641371 0.983149 0.171184
-0.0599373 0.0640837 0.288322 9.54106e-05 -0.611386 0.791332
-0.0676436 0.12771 0.44069 0.000133941 -0.842555 0.538611
-0.0300806 0.265173 0.697237 -0.00287671 0.978069 -0.208259
0.14611 0.253356 0.564011 0.669968 0.721583 -0.17453
0.138782 0.038684 0.271515 7.63932e-05 -0.494325 0.869277
0.154006 0.201856 0.576246 0.000131781 -0.961988 0.273091
0.138805 -0.112288 0.244296 0 0.824981 0.565161
0.187406 0.180675 0.427453 0.0819527 0.830569 -0.550853
-0.185562 0.164918 0.382384 -0.995392 0.0291145 0.0913624
0.227255 0.0836881 0.261335 0.474911 0.6072 -0.636999
0.143855 0.249229 0.564378 -0.14533 -0.959387 0.241775
0.0266114 -0.0846942 0.220481 0.668951 0 0.743307
-0.107052 0.275099 0.737365 0.000170109 -0.979193 0.202931
-0.0471018 -0.247024 0.314132 -0.000117015 0.854068 -0.520161
-0.0914101 -0.248702 0.334554 3.72355e-05 -0.216663 -0.976246
0.211144 0.125349 0.336073 -0.295478 -0.796879 0.526949
-0.0654954 0.236069 0.565344 0.000145758 -0.976971 0.213372
0.17418 -0.135834 0.343042 -3.66702e-05 0.216709 0.976236
0.172848 0.220189 0.622445 0.926629 -0.340603 0.159211
-0.060253 -0.2232 0.328896 3.72355e-05 -0.216663 -0.976246
-0.113473 0.131105 0.423592 -8.38171e-05 0.56624 0.82424
0.141648 0.269651 0.644687 0.0409534 0.980281 -0.193318
0.210941 -0.114024 0.318374 1 0.000121691 -2.56074e-05
-0.154847 -0.160197 0.318088 -3.64269e-05 0.221159 0.975238
-0.0535563 0.238545 0.585761 -0.000163491 0.961993 -0.273075
-0.158904 0.103224 0.345228 0.000132087 -0.832059 0.554688
0.12034 -0.172742 0.351232 -3.66702e-05 0.216709 0.976236
0.210601 -0.10831 0.450454 -0.461835 0.580441 -0.670669
-0.0552871 -0.161369 0.348701 -3.66702e-05 0.216709 0.976236
0.215643 0.110053 0.411599 -0.0499938 0.260849 0.964084
0.00163024 -0.170777 0.0780388 0.213208 -0.130911 0.968197
0.179372 -0.190262 0.310145 -0.99257 0.0174816 -0.120411
0.0233697 0.262937 0.68255 0.00016399 -0.973633 0.228122
0.106453 -0.0292112 0.285991 -0.000721751 -0.215105 -0.976591
0.182434 -0.0811867 0.277931 -0.110076 0.302137 0.946888
0.0726676 0.227593 0.678655 0.000145747 -0.976651 0.214831
0.0396856 -0.145631 0.314741 -4.51697e-05 0.276568 0.960994
-0.119666 0.265394 0.698301 -0.000143843 0.976631 -0.214922
-0.0247484 -0.186708 0.354327 -3.66702e-05 0.216709 0.976236
-0.0923367 0.077473 0.372898 0.000156877 -0.824045 0.566525
-0.0056477 0.0140308 0.0647464 -0.999708 -0.00475752 -0.0236931
-0.151409 0.28083 0.756466 -0.343977 -0.784631 0.515784
-0.204189 0.0077785 0.253327 0.114619 0.215221 0.969816
-0.115245 0.265567 0.69908 -0.000143843 0.976631 -0.214922
-0.0597906 0.131128 0.446034 0.000133941 -0.842555 0.538611
0.0794368 0.175964 0.455365 -0.000131482 0.842548 -0.538621
0.0493854 0.0428632 0.286747 -0.000162503 0.978573 -0.205902
-0.21284 -0.226072 0.348696 -1 -0.000158467 3.35318e-05
0.106071 0.237076 0.569858 0.000121214 -0.97702 0.213148
-0.119822 0.13115 0.393201 0.000428796 0.82502 -0.565103
-0.011316 0.0184393 0.275449 3.66923e-05 -0.216044 -0.976384
-0.160902 0.256889 0.545224 -0.0304352 0.993371 -0.110847
0.182297 -0.213759 0.304259 0.114317 -0.249475 -0.96161
0.000746295 0.220462 0.515868 0.000157629 -0.880866 0.473366
-0.22168 0.00385027 0.234909 -0.0804924 -0.261868 -0.961741
-0.129328 -0.100396 0.301548 -4.71652e-05 0.291574 0.956548
-0.0600875 0.24315 0.652054 -3.74396e-05 0.272895 0.962044
0.204907 -0.0786732 0.330417 -0.0111483 0.217406 0.976017
-0.0191521 0.122447 0.380502 -0.000150602 0.824001 -0.566588
-0.10448 0.0975647 0.336726 0.000132087 -0.832059 0.554688
-0.217051 0.138053 0.356739 0.312724 -0.837665 0.447796
-0.0257641 0.17124 0.442501 0.000139794 -0.823429 0.567419
-0.0709439 0.154057 0.48191 0.000138148 -0.84258 0.538571
0.180713 -0.167392 0.319732 -3.61207e-05 0.221163 0.975237
0.200316 -0.22805 0.323605 0.977898 -0.0540414 -0.201979
-0.186207 0.185671 0.473328 -0.941938 0.312958 -0.121697
0.145509 0.277453 0.75002 0.0001358 -0.988771 0.149435
0.0261467 -0.100013 0.301602 -0.00303204 -0.21225 -0.977211
-0.0642341 -0.0599619 0.189253 -6.19123e-05 0.707097 -0.707116
-0.195153 0.0715994 0.297272 0.000130681 -0.837395 0.546598
-0.0732805 -0.0788648 0.199739 0.000169101 -0.965641 0.259879
0.123256 0.237343 0.571073 0.000121214 -0.97702 0.213148
0.142583 0.182837 0.466101 -0.000131482 0.842548 -0.538621
0.0489993 -0.264635 0.331839 4.90258e-05 -0.29372 0.955891
-0.170005 0.0780723 0.307183 0.000130681 -0.837395 0.546598
0.00537602 -0.0951533 0.0848191 0.999822 0.00131966 0.018843
-0.139904 0.25012 0.565833 0.899895 -0.366783 -0.235922
0.199196 -0.0835735 0.280656 -0.111191 0.302121 0.946763
0.106659 0.186841 0.533154 0.000138148 -0.84258 0.538571
0.0192209 -0.126423 0.190879 -0.000647226 0.79246 0.609923
0.182358 -0.228198 0.330014 3.72355e-05 -0.216663 -0.976246
0.0519146 -0.097544 0.300688 -4.71652e-05 0.291574 0.956548
0.0574328 0.0774213 0.315005 -0.000124169 0.824604 -0.56571
0.00307418 -0.16203 0.34885 -3.66702e-05 0.216709 0.976236
-0.239416 0.10722 0.30161 -0.442361 0.759992 -0.476161
-0.194735 -0.00812357 0.251372 -0.111077 -0.302167 -0.946761
-0.00749902 0.2633 0.684119 0.00016399 -0.973633 0.228122
-0.0395022 0.115376 0.428002 0.000127076 -0.824037 0.566536
-0.10855 0.197058 0.534273 6.5193e-05 -0.390705 -0.920516
0.176581 0.21151 0.465471 0.995638 0.0369232 0.0856845
-0.108012 -0.271376 0.326957 0.000163719 -0.853972 0.520319
0.0641504 -0.0602431 0.0759598 -0.000155651 -0.999809 0.0195233
0.106432 -0.0571504 0.325572 -3.66702e-05 0.216709 0.976236
0.104421 0.224889 0.666343 0.000141353 -0.976634 0.214911
0.134205 0.229551 0.687517 0.000145747 -0.976651 0.214831
0.0670591 0.259347 0.670671 -0.000185661 0.976674 -0.214725
0.0544963 -0.0658985 0.294113 3.66923e-05 -0.216044 -0.976384
0.110639 0.114084 0.36097 0.000110565 -0.81489 0.579615
0.159758 0.267912 0.690101 0.992535 -0.0138841 0.121171
0.00408721 0.255501 0.645455 -0.000169406 0.961988 -0.273092
0.0622448 0.161361 0.428143 0.000139794 -0.823429 0.567419
-0.0795873 -0.00696568 0.273277 -4.25529e-05 0.274024 0.961723
-0.0948835 0.290068 0.761092 -3.28825e-06 0.0188464 0.999822
-0.160987 0.251967 0.654662 -0.516392 0.103287 -0.8501
-0.185098 0.114278 0.426431 0.00166292 -0.821339 0.570437
-0.208275 0.143102 0.392478 0.49289 -0.710139 -0.502754
-0.0984112 0.223544 0.660367 0.000145747 -0.976651 0.214831
-0.147595 0.133611 0.396777 -0.00213969 0.820493 -0.571653
0.110482 -0.0602697 0.0561064 -0.00362023 -0.999725 -0.0231678
-0.150336 -0.161417 0.318365 -3.64269e-05 0.221159 0.975238
-0.12889 0.1758 0.455168 -0.000138149 0.842606 -0.538531
0.00751312 -0.227871 0.330323 -1.55435e-05 0.114931 0.993373
0.0700984 0.00263476 0.312466 -3.66767e-05 0.216085 0.976375
-0.151768 0.253356 0.641205 0.000153099 -0.975847 0.218454
-0.0714733 0.212898 0.513198 -0.000138149 0.842606 -0.538531
0.0898632 -0.0652991 0.293858 3.72355e-05 -0.216663 -0.976246
-0.0460036 0.0535969 0.323933 9.82197e-05 -0.66554 -0.746362
0.148936 0.0553489 0.340649 0.000127076 -0.824037 0.566536
-0.165314 0.111578 0.422516 0.00191703 -0.820983 0.570949
-0.00545408 -0.118701 0.0786423 -0.999798 4.89567e-05 0.0201224
-0.0217826 -0.178232 0.322183 -3.64269e-05 0.221159 0.975238
-0.154399 0.285798 0.753356 -0.963184 0.164026 -0.213007
0.119213 0.193407 0.475032 0.000143039 -0.827109 0.562041
-0.140289 0.239113 0.652721 3.81819e-05 -0.214753 -0.976668
0.198935 0.0204142 0.267742 2.24075e-05 -0.144994 0.989433
0.221539 -0.0563028 0.0625401 0.227105 -0.0976513 0.968962
0.159382 -0.175727 0.351897 -3.66702e-05 0.216709 0.976236
0.00250252 -0.172821 0.351246 -3.66702e-05 0.216709 0.976236
0.041284 0.279437 0.772154 -4.92779e-05 0.334584 0.942366
0.19051 0.154715 0.404139 0.0820315 0.829359 -0.552661
0.181948 -0.0490605 0.0512523 -0.00429741 0.99808 -0.0617866
-0.178459 -0.0443536 0.257668 0 -0.302889 -0.953026
0.0684809 0.196339 0.556865 0.000160518 -0.961993 0.273072
-0.19394 -0.0571228 0.288161 -5.56534e-05 0.301546 0.953452
0.055967 -0.108036 0.303341 3.72355e-05 -0.216663 -0.976246
-0.0786755 0.217678 0.632093 0.000131781 -0.961988 0.273091
0.00608097 -0.0738061 0.0550267 0.186999 0.00264463 -0.982357
0.0817761 -0.243236 0.36688 -3.66702e-05 0.216709 0.976236
-0.147059 -0.0920552 0.299005 -4.71652e-05 0.291574 0.956548
-0.15647 0.104859 0.412737 0.0018829 -0.820768 0.571259
0.0214128 -0.259911 0.321807 0.00016247 -0.999095 0.0425323
-0.0191657 -0.0484385 0.0886703 -0.241959 0.970284 0.00229594
0.118457 -0.0536595 0.20305 0.00017908 -0.766836 0.641844
-0.161138 0.218817 0.48112 -0.0824172 0.830542 -0.550824
-0.135214 0.237825 0.573434 0.000145758 -0.976971 0.213372
0.0636583 -0.252926 0.340619 0.000170467 -0.991901 -0.127016
0.0351058 -0.00793388 0.273558 -4.25529e-05 0.274024 0.961723
-0.0132994 0.18853 0.475056 -0.000138149 0.842606 -0.538531
0.22298 0.133695 0.35015 0.0416978 -0.831335 0.554204
-0.0494975 0.0692317 0.29361 0.000130681 -0.837395 0.546598
-0.0447234 0.21418 0.526232 -0.000104914 0.639905 0.768454
0.0828767 0.253511 0.641747 0.000127513 -0.975897 0.218232
-0.118338 0.270179 0.72004 -0.000143843 0.976631 -0.214922
0.132874 0.268534 0.712402 -0.000185661 0.976674 -0.214725
0.0261219 0.244019 0.651811 -3.74396e-05 0.272895 0.962044
-0.208824 0.148603 0.387295 0.476153 0.719403 0.505706
-0.21383 0.0728829 0.259276 0.466454 -0.638923 0.611717
0.0702459 0.192612 0.473875 0.000143039 -0.827109 0.562041
-0.0723671 0.12567 0.377294 0.000110565 -0.81489 0.579615
-0.0676207 -0.0609374 0.289374 -5.56534e-05 0.301546 0.953452
0.0639717 0.234926 0.712002 0.000145747 -0.976651 0.214831
0.145643 0.257641 0.59169 0.0441149 0.974535 -0.219855
-0.0579445 0.20725 0.504358 -0.000138149 0.842606 -0.538531
0.00903709 -0.0303981 0.279958 -4.29222e-05 0.27402 0.961724
-0.0318297 0.17702 0.517824 0.000138148 -0.84258 0.538571
0.00706472 0.0830033 0.32314 -0.000176738 0.824009 -0.566576
0.084605 0.0739333 0.367694 0.000127076 -0.824037 0.566536
-0.0887875 -0.0793978 0.191932 0.000169121 -0.96576 -0.259435
0.00554295 0.193271 0.474861 0.000143039 -0.827109 0.562041
-0.237206 0.115135 0.312166 -0.420577 0.757165 -0.499816
-0.0348525 -0.0242934 0.278216 -4.29222e-05 0.27402 0.961724
-0.0472596 0.252019 0.635159 0.000153099 -0.975847 0.218454
-0.163154 0.126803 0.378906 0.000133253 -0.814753 0.579809
-0.181917 -0.170885 0.297866 0.975746 -0.00144898 -0.2189
0.11489 0.253468 0.638226 -0.000169406 0.961988 -0.273092
-0.0644716 0.303566 0.741143 -0.000149531 0.854636 -0.519227
-0.0348823 -0.0878543 0.332489 -3.66767e-05 0.216085 0.976375
0.025136 0.20708 0.594712 0.000131781 -0.961988 0.273091
-0.135102 -0.272907 0.316236 0.000142419 -0.874892 -0.484317
-0.110799 0.257628 0.659953 0.000127227 -0.973705 0.227812
-0.197299 -0.102664 0.302236 -4.71652e-05 0.291574 0.956548
0.164336 0.204706 0.491397 0.000147165 -0.82239 0.568925
0.00407846 -0.234142 0.331049 -1.55435e-05 0.114931 0.993373
0.0162271 -0.162429 0.348939 -3.66702e-05 0.216709 0.976236
-0.230602 0.114033 0.320147 -0.283423 -0.803163 0.524023
-0.103391 -0.132325 0.310905 -4.51697e-05 0.276568 0.960994
-0.1866 0.202787 0.515237 -0.919787 0.357854 -0.161038
0.100713 -0.237685 0.365648 -3.66702e-05 0.216709 0.976236
0.12199 0.0920542 0.394043 0.000127076 -0.824037 0.566536
0.186219 0.22113 0.505518 0.965083 0.253597 -0.0655998
-0.131822 0.122858 0.373356 0.000133253 -0.814753 0.579809
-0.061416 0.146905 0.420719 6.55087e-05 -0.429248 -0.903187
-0.0253451 -0.0510829 0.290832 3.66923e-05 -0.216044 -0.976384
-0.0737779 0.0662206 0.289975 9.54106e-05 -0.611386 0.791332
0.156811 0.234937 0.519156 -0.0510662 -0.954932 0.292399
0.040079 -0.266039 0.308258 7.02297e-05 -0.513399 -0.85815
-0.107205 -0.102567 0.335742 -3.66767e-05 0.216085 0.976375
0.159152 0.260149 0.674243 -0.000185661 0.976674 -0.214725
-0.184348 -0.015216 0.252417 -0.111077 -0.302167 -0.946761
0.00464495 0.181213 0.463595 -0.000131482 0.842548 -0.538621
-0.0969156 -0.127752 0.341316 -3.66767e-05 0.216085 0.976375
0.151291 -0.107642 0.303257 3.72355e-05 -0.216663 -0.976246
-0.126637 0.0657893 0.355913 0.000156877 -0.824045 0.566525
0.134688 -0.101248 0.301821 -5.38005e-05 0.291506 0.956569
0.184801 0.101109 0.307097 0.0819527 0.830569 -0.550853
0.145135 0.0269949 0.273562 3.66923e-05 -0.216044 -0.976384
0.0838032 0.131265 0.3933 -0.000150602 0.824001 -0.566588
0.195896 -0.239664 0.331691 -1.55435e-05 0.114931 0.993373
-0.0846431 0.248691 0.774666 0.000177282 -0.97665 0.214835
0.14053 -0.0838627 0.202814 -0.0001927 0.824893 0.565289
-0.217074 0.027091 0.233124 0.352002 0.0648668 -0.933749
-0.0511101 0.263001 0.682877 0.00016399 -0.973633 0.228122
0.111764 0.164802 0.49867 0.000133941 -0.842555 0.538611
0.0250387 -0.227536 0.330285 -1.55435e-05 0.114931 0.993373
0.0325602 0.0975517 0.40206 0.000127076 -0.824037 0.566536
0.166954 0.115056 0.427489 0.000127076 -0.824037 0.566536
0.0218538 0.272976 0.732657 -0.000143843 0.976631 -0.214922
0.210955 -0.211198 0.340444 1 -4.05058e-05 -0.000928422
0.0554971 0.270315 0.715079 0.000169503 -0.975706 0.219085
0.199637 0.0657727 0.256088 0.995353 0.0128525 0.0954301
0.107095 0.117259 0.372925 -0.000150602 0.824001 -0.566588
-0.0979817 0.178626 0.453334 0.000140422 -0.827124 0.562019
0.180827 -0.0168794 0.254169 -0.000188428 0.288449 0.957495
0.0920317 -0.0798813 0.193838 0.00016918 -0.965756 -0.259452
-0.136752 -0.150908 0.346439 -3.66767e-05 0.216085 0.976375
0.15732 -0.0872625 0.29756 -5.38005e-05 0.291506 0.956569
-0.0919511 -0.0896545 0.332885 -3.66767e-05 0.216085 0.976375
0.172378 -0.0278795 0.228777 0.56409 0.34925 -0.748216
-0.12341 0.242579 0.651959 3.81819e-05 -0.214753 -0.976668
-0.0747146 0.273366 0.734493 -0.000143843 0.976631 -0.214922
-0.0889129 0.0499624 0.277949 7.68322e-05 -0.494316 0.869282
-0.208554 -0.00836239 0.24245 0.447728 -0.207531 -0.869753
0.208294 -0.179366 0.348117 0.921687 0.0844916 0.378622
-0.0670018 0.262778 0.681934 0.00016399 -0.973633 0.228122
0.182465 -0.181486 0.296018 -0.938963 -0.069625 -0.336899
0.112033 0.0786737 0.316811 -0.000176738 0.824009 -0.566576
0.144231 -0.12836 0.309776 -4.47385e-05 0.276573 0.960993
-0.0864327 0.287466 0.568062 0.307108 -0.597167 0.740997
-0.0128888 -0.0419821 0.0908414 -0.809886 0.586587 0
-0.147674 0.179357 0.454423 0.000140422 -0.827124 0.562019
-0.00832461 -0.292223 0.016749 -0.997714 0.0675737 0.00120185
-0.160907 -0.0189595 0.283719 3.66923e-05 -0.216044 -0.976384
0.0250842 0.284163 0.759079 5.20971e-05 -0.480593 0.876944
-0.0264089 -0.10793 0.30385 -4.71652e-05 0.291574 0.956548
0.178656 0.202627 0.550741 0.920963 -0.35486 0.160938
0.0656394 0.269868 0.775382 -3.88905e-05 0.21497 0.976621
-0.000380814 0.140747 0.407112 -0.000150602 0.824001 -0.566588
-0.0938211 0.249075 0.622886 -0.00146421 0.961083 -0.276255
0.196999 -0.0709877 0.295124 3.72355e-05 -0.216663 -0.976246
-0.101796 0.209767 0.604271 0.000160518 -0.961993 0.273072
-0.1371 0.193682 0.483149 -0.000138149 0.842606 -0.538531
-0.174599 -0.0444795 0.259599 0.999998 0.000700963 0.00195834
-0.0296176 0.111566 0.357465 0.000133253 -0.814753 0.579809
-0.208811 0.0346378 0.427671 0.590322 0.209283 0.779564
0.145201 0.0905703 0.39188 0.000127076 -0.824037 0.566536
0.0637481 -0.066761 0.205096 -4.54047e-05 0.258042 0.966134
0.0137002 0.114631 0.369128 -0.000150602 0.824001 -0.566588
0.0406563 0.200818 0.494269 -0.000138149 0.842606 -0.538531
-0.1465 -0.220992 0.328416 -0.00243419 -0.212977 -0.977054
0.224229 -0.113228 0.450569 0.617189 0.697363 -0.364366
0.0978079 0.141339 0.415573 -9.84382e-05 0.665015 0.74683
0.116734 0.247776 0.6161 0.000152728 -0.973478 0.228781
0.0109486 0.281368 0.770799 -0.000143843 0.976631 -0.214922
-0.0393856 0.265283 0.692736 0.000164341 -0.975715 0.219042
0.0642962 0.087175 0.32919 -0.000176738 0.824009 -0.566576
-0.164866 0.125423 0.427163 -6.79843e-05 0.459151 0.888358
0.207736 0.0478196 0.426206 -0.476327 0.231819 0.848159
0.143787 0.208728 0.530478 -8.63792e-05 0.538565 0.842584
0.190408 0.177691 0.42767 0.992608 -0.0150947 0.120422
0.14612 0.270164 0.719806 -0.000185661 0.976674 -0.214725
-0.0710025 -0.104607 0.336195 -3.66767e-05 0.216085 0.976375
-0.214472 -0.102282 0.358479 0.464257 0.872294 0.153521
0.0772469 0.289172 0.76111 -3.28825e-06 0.0188464 0.999822
-0.147814 0.216716 0.524106 -0.000104914 0.639905 0.768454
-0.161694 0.200374 0.453395 -0.0824172 0.830542 -0.550824
-0.149021 0.0314699 0.306076 -3.66767e-05 0.216085 0.976375
-0.0874611 0.235658 0.654178 -3.74252e-05 0.272895 0.962044
0.0307351 0.2774 0.749775 0.0001358 -0.988771 0.149435
-0.205085 -0.0342714 0.320564 -0.0110692 0.217406 0.976018
-0.0851157 0.182142 0.465079 -0.000138149 0.842606 -0.538531
0.143123 0.280713 0.767735 -0.0020858 0.977635 -0.210297
-0.22849 0.0270495 0.234761 -0.62632 0.0546326 -0.777649
-0.225054 -0.0633494 0.457491 -0.451288 0.216512 0.865715
-0.00083372 0.273065 0.727461 0.000170109 -0.979193 0.202931
0.0498232 0.0480507 0.328888 0.000120151 -0.665002 -0.746841
0.0799712 -0.220129 0.329406 -2.19939e-05 0.162626 0.986688
0.152016 0.241519 0.55725 0.0412424 0.981592 -0.186485
0.172929 0.108731 0.360504 -0.000150602 0.824001 -0.566588
-0.00563851 0.000454905 0.0670848 -0.999708 -0.00475752 -0.0236931
0.235821 -0.0491982 0.00509448 0 0 1
-0.0700359 0.225224 0.538844 -0.000163491 0.961993 -0.273075
-0.157307 0.217649 0.632071 0.000160518 -0.961993 0.273072
-0.0402803 -0.104188 0.186574 -1 -0.000133715 0
0.0486031 0.229704 0.538296 0.000142191 -0.95306 0.302781
-0.09934 -0.16428 0.315876 3.66923e-05 -0.216044 -0.976384
-0.0312434 0.185535 0.463485 0.000140422 -0.827124 0.562019
0.100981 -0.0578893 0.288419 -4.72475e-05 0.301633 0.953424
0.139155 0.0817166 0.321227 -0.00237612 0.820291 -0.571941
-0.0120315 0.0958895 0.341888 -0.000176738 0.824009 -0.566576
0.0463593 0.0170294 0.275764 3.66923e-05 -0.216044 -0.976384
-0.125857 0.144293 0.412903 -0.000121646 0.66557 0.746335
0.196682 0.130587 0.369879 0.992542 -0.0157372 0.120882
0.0962536 -0.00756931 0.281208 3.66923e-05 -0.216044 -0.976384
0.0328105 -0.0500625 0.208681 0 0 1
-0.0142887 -0.239761 0.366105 -3.66702e-05 0.216709 0.976236
-0.0026397 0.246269 0.612937 -0.000169406 0.961988 -0.273092
-0.0405572 0.204486 0.585631 0.000160518 -0.961993 0.273072
-0.127362 -0.0356109 0.281437 -4.29222e-05 0.27402 0.961724
-0.177054 -0.200984 0.308477 0.115914 0.193726 0.974184
0.015071 0.115933 0.363591 0.000133253 -0.814753 0.579809
-0.0595756 -0.179336 0.319161 3.72355e-05 -0.216663 -0.976246
-0.128646 0.20121 0.535256 -8.63792e-05 0.538565 0.842584
0.154345 0.277631 0.750378 0.392207 -0.901512 0.182894
-0.200156 0.0455784 0.23516 0 0 -1
0.230694 0.155021 0.373617 0.299093 0.844426 -0.444396
-0.122365 -0.0012235 0.279796 3.66923e-05 -0.216044 -0.976384
-0.200069 0.0705638 0.344622 -0.949611 -0.245806 0.194471
0.0497433 0.214803 0.525726 -0.00010072 0.639808 0.768535
-0.131073 0.265644 0.570243 -0.567684 0.79803 -0.202197
-0.0752887 0.257859 0.777684 -1.31823e-05 0.0914919 0.995806
-0.215995 0.128789 0.329257 0.309976 0.791233 -0.527128
0.0802915 0.245927 0.611683 -0.000169406 0.961988 -0.273092
0.0824984 0.0674521 0.31444 6.90928e-05 -0.458841 -0.888518
-0.129951 0.144499 0.403961 0.000110917 -0.817484 0.575951
-0.19365 -0.12575 0.307352 0.00109954 -0.21609 -0.976373
0.190056 0.0373475 0.254413 -0.117987 -0.444125 0.888162
0.035503 -0.0442878 0.32285 -3.66767e-05 0.216085 0.976375
0.168729 0.190729 0.539221 -0.00148696 -0.840147 0.542356
-0.132844 -0.150164 0.315813 -3.61207e-05 0.221163 0.975237
0.182962 -0.174956 0.293441 -0.97576 -0.00186573 -0.218837
0.147925 0.139441 0.458987 0.000133941 -0.842555 0.538611
0.200745 -0.0531091 0.324679 -3.66702e-05 0.216709 0.976236
0.00137999 -0.121794 0.084717 0.213208 -0.130911 0.968197
-0.182982 0.224904 0.516532 -0.916498 -0.299401 0.265313
0.189508 0.0889501 0.276795 -0.987466 0.0576573 -0.146924
0.167133 0.189459 0.44662 -0.0809857 -0.829421 0.552722
-0.22281 -0.0146849 0.435788 -0.0695244 -0.270336 -0.960252
0.181262 -0.0312021 0.257178 0.111079 -0.302139 -0.94677
0.0397231 -0.0370302 0.19428 1 0 0
0.174191 -0.127556 0.289556 -0.992236 0.0167672 -0.123231
-0.154484 0.136388 0.419947 -9.84382e-05 0.665015 0.74683
-0.0142529 0.144395 0.412422 -0.000150602 0.824001 -0.566588
-0.196223 -0.210025 0.326004 -0.00645737 -0.215919 -0.97639
-0.163015 0.240454 0.525147 -0.0529319 0.954946 -0.292021
0.11616 0.0122598 0.310338 -3.66767e-05 0.216085 0.976375
0.173897 -0.223831 0.362575 -3.66702e-05 0.216709 0.976236
-0.192089 -0.049136 0.066625 -0.0028004 0.999343 0.0361369
-0.17321 0.19001 0.425061 0.984996 0.07122 -0.157193
0.0286367 0.178035 0.452432 0.000140422 -0.827124 0.562019
0.238361 -0.0593991 0 0 0 -1
-0.162414 0.250761 0.607211 -0.0435899 0.974948 -0.218118
-0.154026 -0.0274709 0.319121 -3.66767e-05 0.216085 0.976375
-0.0731576 0.298585 0.735794 -6.66709e-05 0.480654 -0.876911
0.0135047 -0.208669 0.359204 -3.66702e-05 0.216709 0.976236
-0.174676 -0.253279 0.320073 -0.11847 -0.151237 -0.981373
-0.175756 0.129194 0.382269 0.000133253 -0.814753 0.579809
0.06862 -0.0116772 0.315634 -3.66767e-05 0.216085 0.976375
0.0673279 0.01933 0.308771 -3.66767e-05 0.216085 0.976375
-0.0227863 -0.0935921 0.208681 0 0 1
0.158428 -0.0833517 0.297867 3.72355e-05 -0.216663 -0.976246
0.180619 0.18576 0.530117 0.919103 -0.295967 0.260101
0.147121 -0.0329276 0.222701 0 0.768038 -0.640404
-0.0888253 0.134445 0.397971 -0.000150602 0.824001 -0.566588
0.0769342 0.13426 0.428052 8.3758e-05 -0.538523 -0.842611
-0.194401 0.00475917 0.228851 0.985292 -9.83046e-05 -0.170878
-0.176154 0.10384 0.310002 -0.0824172 0.830542 -0.550824
0.132754 0.25936 0.667203 0.00016399 -0.973633 0.228122
-0.137653 0.234098 0.55637 0.000145758 -0.976971 0.213372
0.199538 -0.131558 0.342136 -0.0111483 0.217406 0.976017
-0.150085 -0.0981965 0.223664 -0.000539224 0.825012 0.565115
-0.175612 0.23042 0.5027 -0.0778961 0.85574 -0.511509
-0.204191 0.0945858 0.320504 -0.965546 0.252788 -0.0618036
-0.144155 -0.180979 0.353094 -3.66767e-05 0.216085 0.976375
0.0055171 -0.0831818 0.0764944 0.999822 0.00131966 0.018843
0.00972533 -0.092083 0.299905 3.66923e-05 -0.216044 -0.976384
-0.227306 -0.120073 0.432927 -0.621482 -0.783324 -0.0127917
0.0180649 0.139429 0.417263 -9.84382e-05 0.665015 0.74683
0.161926 -0.0678228 0.191774 1 0 0
-0.0311943 0.115823 0.363447 0.000133253 -0.814753 0.579809
-0.00542547 0.0146187 0.0552991 -0.998155 -0.00436805 -0.0605589
-0.154577 0.243854 0.57031 -0.0412495 0.981588 -0.186505
0.0405596 0.193979 0.483564 0.000585581 0.841527 -0.540215
-0.161361 0.212294 0.613206 0.000160518 -0.961993 0.273072
-0.138043 -0.018328 0.28358 3.66923e-05 -0.216044 -0.976384
-0.161049 0.2571 0.657721 0.000127227 -0.973705 0.227812
-0.0191325 0.225542 0.539934 -0.000163491 0.961993 -0.273075
0.0929326 -0.250829 0.332981 -1.91772e-05 0.114893 0.993378
-0.00712807 0.205583 0.501737 -0.000138149 0.842606 -0.538531
0.0161395 -0.13718 0.343334 -3.66702e-05 0.216709 0.976236
0.156994 0.283142 0.754978 0.88694 -0.343395 0.308899
-0.116571 -0.174262 0.351609 -3.66767e-05 0.216085 0.976375
0.138272 0.181399 0.463853 -0.000131482 0.842548 -0.538621
0.0357632 -0.044232 0.284095 -4.72475e-05 0.301633 0.953424
-0.0179067 -0.056062 0.1109 -0.999869 -0.0160184 -0.00251183
-0.0723293 -0.0118544 0.28215 3.66923e-05 -0.216044 -0.976384
-0.00104136 -0.150391 0.0809016 -0.214104 -0.131152 0.967966
0.165966 -0.160064 0.34842 -3.66702e-05 0.216709 0.976236
-0.115784 -0.055116 0.197871 0 0 -1
0.0205368 0.185549 0.463493 0.000143039 -0.827109 0.562041
-0.156845 0.291188 0.745342 -0.995305 0 0.0967901
0.0052467 -0.0904696 0.0544489 0.998156 0.0042535 -0.0605574
-0.0319804 0.15355 0.481106 0.000138148 -0.84258 0.538571
-0.209093 -0.179455 0.321394 -0.920779 -0.0849204 -0.380729
0.0438436 0.191789 0.54085 0.000160518 -0.961993 0.273072
0.0571182 -0.202701 0.35788 -3.66702e-05 0.216709 0.976236
0.167224 0.147574 0.389949 0.0827576 0.829326 -0.552602
-0.0588728 0.210743 0.607682 0.000127994 -0.96202 0.27298
-0.223194 0.146071 0.37795 0.0451406 -0.984176 -0.171348
0.0399775 0.144237 0.421994 6.55087e-05 -0.429248 -0.903187
0.00125252 0.235096 0.712812 0.00109422 -0.977187 0.21238
-0.0740669 0.229526 0.537793 0.000143211 -0.953054 0.3028
0.214288 -0.105789 0.334784 0.0794836 -0.981092 -0.176466
-0.171559 0.161424 0.428283 0.000115862 -0.823566 0.56722
0.00572084 0.15824 0.0612624 0.999319 0.00756361 0.0361111
-0.190652 0.105616 0.348824 0.000132087 -0.832059 0.554688
-0.107348 0.275882 0.745947 -0.000143843 0.976631 -0.214922
0.115663 0.225967 0.541348 -0.000163491 0.961993 -0.273075
0.237461 -0.0512636 0.00509448 0 0 1
-0.0889805 0.229779 0.538596 0.000143211 -0.953054 0.3028
0.12658 0.0775252 0.37291 0.000127076 -0.824037 0.566536
-0.0016935 -0.0704867 0.208681 0 0 1
0.162892 0.248581 0.519158 -0.98389 0.104358 -0.145154
0.199957 -0.038264 0.321383 -3.66702e-05 0.216709 0.976236
0.0206665 -0.0580728 0.29238 3.66923e-05 -0.216044 -0.976384
0.0626148 -0.0206295 0.317615 -3.66767e-05 0.216085 0.976375
0.0897289 0.0819082 0.321522 -0.000176738 0.824009 -0.566576
0.177386 -0.250693 0.358738 0.000141772 -0.856244 0.516572
0.130252 0.217928 0.632872 0.000131781 -0.961988 0.273091
-0.158174 -0.0714408 0.207171 -1 -0.00071822 -0.000247079
0.179833 0.183876 0.431154 0.0821202 0.830555 -0.550849
-0.243038 -0.06535 0 0 0 -1
-0.0261012 0.236638 0.579024 -0.000163491 0.961993 -0.273075
-0.125826 0.0925537 0.337072 -0.000176738 0.824009 -0.566576
0.0300475 -0.213775 0.360338 -3.66702e-05 0.216709 0.976236
0.0649602 -0.206981 0.325301 3.72355e-05 -0.216663 -0.976246
-0.00390645 -0.202642 0.0501613 -0.134022 0.0358609 -0.990329
0.0523518 0.126087 0.426837 -6.79843e-05 0.459151 0.888358
0.0646647 -0.00266939 0.280123 3.66923e-05 -0.216044 -0.976384
0.0643211 0.0114351 0.268677 -3.55631e-05 0.230134 0.973159
0.0713723 -0.17269 0.317691 3.72355e-05 -0.216663 -0.976246
0.158105 -0.0771368 0.330011 -3.66702e-05 0.216709 0.976236
0.194638 -0.176947 0.318657 0.0117096 -0.217396 -0.976013
-0.131163 -0.196576 0.356547 -3.66767e-05 0.216085 0.976375
0.0963587 0.151761 0.478273 0.000133941 -0.842555 0.538611
-0.0718794 0.248705 0.650069 -6.88676e-05 0.39107 0.920361
-0.0415162 0.0682793 0.359511 0.000156877 -0.824045 0.566525
0.164399 0.0157767 0.276038 0.000427635 -0.216561 -0.976269
-0.0936836 -0.0476646 0.323592 -3.66767e-05 0.216085 0.976375
0.0686695 -0.213153 0.328255 -2.19939e-05 0.162626 0.986688
0.187947 0.097751 0.290322 -0.986033 0.0598176 -0.15544
-0.140363 0.156832 0.425492 -0.000131482 0.842548 -0.538621
-0.132842 -0.0460491 0.207009 -0.000253509 0.768011 -0.640436
0.193483 0.131817 0.411432 0.82722 0.537315 0.164316
0.0866001 0.192607 0.481397 -0.000131482 0.842548 -0.538621
-0.1912 -0.0480367 0.247341 0.985292 -9.83046e-05 -0.170878
0.10381 0.133994 0.450478 0.000133941 -0.842555 0.538611
-0.162657 -0.0542211 0.287245 -5.56534e-05 0.301546 0.953452
-0.113898 -0.0555484 0.287667 -5.56534e-05 0.301546 0.953452
-0.163022 0.215145 0.48463 0.0820323 -0.829351 0.552673
-0.0333882 0.233887 0.569341 -0.000163491 0.961993 -0.273075
0.165722 0.210309 0.478145 -0.992273 0.0185239 -0.122683
0.143364 -0.179593 0.319226 3.72355e-05 -0.216663 -0.976246
0.0917615 -0.217946 0.361266 -3.66702e-05 0.216709 0.976236
0.0393719 0.0873268 0.387186 0.000127076 -0.824037 0.566536
0.0661118 0.113393 0.360009 0.000133253 -0.814753 0.579809
0.209037 -0.121503 0.428729 -0.48519 -0.86104 -0.152317
-0.0962745 0.0482866 0.330442 0.000148901 -0.824135 0.566393
0.000623703 -0.059823 0.292767 3.66923e-05 -0.216044 -0.976384
0.148499 0.254565 0.594904 -0.0422757 -0.977383 0.207209
-0.0816414 -0.0492017 0.0749534 0.00015566 0.999809 0.0195233
-0.192158 0.0606785 0.250716 0.98736 0.0418974 -0.152856
-0.102966 0.111948 0.423029 0.000127076 -0.824037 0.566536
-0.0442162 0.0572035 0.343402 0.000156877 -0.824045 0.566525
-0.00334485 0.202943 0.580171 0.000160518 -0.961993 0.273072
-0.181895 -0.227826 0.329934 3.66923e-05 -0.216044 -0.976384
0.172593 0.113469 0.367395 -0.000150602 0.824001 -0.566588
-0.0869831 0.165233 0.438619 -0.000131482 0.842548 -0.538621
-0.0276022 0.207259 0.504365 -0.000138149 0.842606 -0.538531
0.0602368 0.223526 0.532782 -0.000163491 0.961993 -0.273075
-0.161211 0.223223 0.506652 -0.069698 0.895622 -0.439321
-0.0812884 0.0821272 0.313374 0.000132932 -0.837382 0.546618
0.0942775 0.252763 0.648356 -5.35986e-05 0.390676 0.920528
0.0213062 -0.0771129 0.208681 0 0 -1
0.0717971 -0.215125 0.328581 -2.19939e-05 0.162626 0.986688
-0.0777102 0.278432 0.757515 -0.000143843 0.976631 -0.214922
0.127995 -0.191816 0.324741 -2.67778e-05 0.162576 0.986696
-0.216985 -0.0538657 0.251128 0.152005 -0.276111 -0.94903
-0.00919014 0.126266 0.386054 -0.000150602 0.824001 -0.566588
-0.0602058 0.0615347 0.286353 9.50296e-05 -0.611393 0.791327
-0.178879 0.0813829 0.293162 -0.0847594 0.811495 -0.57818
-0.0572059 0.294746 0.547774 -0.111831 0.478025 -0.871198
0.0812879 -0.181913 0.353267 -3.66702e-05 0.216709 0.976236
0.0996131 0.245219 0.651544 1.28152e-05 -0.0905104 -0.995896
0.122464 0.0813603 0.320715 -0.000176738 0.824009 -0.566576
0.14341 -0.0419503 0.283379 -4.72475e-05 0.301633 0.953424
-0.078844 0.201239 0.532561 3.61366e-05 -0.272871 -0.962051
-0.0231949 -0.0498098 0.181036 0 0 -1
-0.0964094 0.111279 0.364296 -0.000176738 0.824009 -0.566576
0.0485056 0.115598 0.428305 0.000127076 -0.824037 0.566536
0.2084 -0.038058 0.316346 0.920592 0.08493 0.381178
-0.0499104 0.0243483 0.307656 -3.66767e-05 0.216085 0.976375
-0.162659 0.0391071 0.277169 -0.000145299 0.855984 -0.517002
-0.0678765 -0.069371 0.292042 -5.56534e-05 0.301546 0.953452
0.0526431 -0.246428 0.315088 -0.000117015 0.854068 -0.520161
0.123919 0.20389 0.490228 0.000147165 -0.82239 0.568925
-0.19113 -0.00225094 0.247719 0.985292 -9.83046e-05 -0.170878
0.0447757 -0.0789777 0.190443 0.00016912 -0.965756 -0.259453
-0.0218326 -0.227613 0.329877 3.72355e-05 -0.216663 -0.976246
-0.0606437 0.0859357 0.327426 -0.000176738 0.824009 -0.566576
-0.0480901 -0.02892 0.285927 3.66923e-05 -0.216044 -0.976384
0.0646904 0.155907 0.484766 0.000133941 -0.842555 0.538611
-0.208714 0.0314387 0.255081 0.122534 -0.205101 0.97104
0.202014 0.0819408 0.291806 -0.0881829 -0.800638 0.592624
-0.0630449 0.263125 0.683412 0.00016399 -0.973633 0.228122
0.189056 0.102429 0.351344 0.000203531 0.824006 -0.566581
-0.100225 0.0829865 0.323149 -0.000176738 0.824009 -0.566576
-0.14307 0.245618 0.760746 0.000177282 -0.97665 0.214835
-0.0054345 -0.281362 0.0377096 -0.0717048 0.965273 -0.251209
-0.134344 0.284128 0.716791 -0.0409493 0.980303 -0.193205
-0.0186209 -0.0292583 0.182356 -0.000133716 1 0
0.0888757 -0.0519154 0.0814492 0.130904 0.213206 0.968198
0.10044 0.134057 0.397356 -0.000150602 0.824001 -0.566588
0.0711491 0.243091 0.596195 0.000152728 -0.973478 0.228781
0.0580968 0.20319 0.580992 0.000131781 -0.961988 0.273091
-0.11486 0.254143 0.65073 1.64319e-05 -0.0904116 -0.995905
-0.116431 -0.0311165 0.286411 3.66923e-05 -0.216044 -0.976384
0.209449 -0.100675 0.309649 -0.479055 -0.864387 -0.15278
0.126242 -0.10002 0.301565 3.72355e-05 -0.216663 -0.976246
-0.0861779 0.21138 0.609944 0.000160518 -0.961993 0.273072
0.00410542 -0.0509406 0.126495 0 0 1
-0.15629 0.242429 0.593503 0.000120783 -0.973545 0.228497
-0.0451913 0.037785 0.304683 -3.66767e-05 0.216085 0.976375
0.123126 -0.212828 0.326601 3.72355e-05 -0.216663 -0.976246
0.130953 0.273112 0.70303 0.0424497 0.977068 -0.208652
-0.214694 0.0356532 0.234404 0.351309 0.0230713 -0.935975
0.224402 -0.060387 0.0469042 -0.0387596 -0.998047 -0.0489875
0.0345922 -0.0650134 0.293917 3.66923e-05 -0.216044 -0.976384
-0.036157 0.291475 0.556609 0.162769 -0.956264 0.243034
0.109711 -0.0645972 0.327226 -3.66702e-05 0.216709 0.976236
0.138038 0.136041 0.400231 -0.000150602 0.824001 -0.566588
0.0221975 -0.0832989 0.297962 3.66923e-05 -0.216044 -0.976384
-0.00653352 0.277115 0.751486 -0.000143843 0.976631 -0.214922
0.163187 0.214005 0.489041 0.0827576 0.829326 -0.552602
-0.0870876 0.249399 0.624017 -0.000169406 0.961988 -0.273092
0.155815 0.0811001 0.320325 -0.000150602 0.824001 -0.566588
-0.089931 0.0981891 0.337659 0.000132087 -0.832059 0.554688
0.153187 0.253183 0.573082 0.0430731 0.975864 -0.214089
0.0189953 0.165222 0.499355 0.000138148 -0.84258 0.538571
0.0173946 0.0658443 0.355953 0.000156877 -0.824045 0.566525
0.094493 0.304056 0.75282 -0.000122527 0.874253 0.48547
0.156234 0.268911 0.615937 0.0416703 0.978611 -0.201454
0.082415 0.143454 0.402437 0.000115003 -0.81746 0.575986
-0.0998728 0.220702 0.516347 0.000157629 -0.880866 0.473366
0.0197211 0.177125 0.457196 -0.000131482 0.842548 -0.538621
-0.057919 -0.180333 0.352911 -3.66702e-05 0.216709 0.976236
0.204699 -0.110755 0.385318 -0.596012 -0.79079 -0.139358
0.138691 0.262213 0.577532 -0.482889 -0.549943 0.681455
-0.0534796 0.0995468 0.404981 0.000127076 -0.824037 0.566536
0.0976382 0.225085 0.538253 -0.000163491 0.961993 -0.273075
-0.0759329 0.276414 0.743695 0.000133898 -0.979314 0.202349
0.111834 -0.0548343 0.201648 0.00017908 -0.766836 0.641844
-0.00514765 -0.0640527 0.208681 0 0 -1
-0.188819 0.190442 0.458174 -0.966536 0.248737 -0.0627493
0.181121 -0.268661 0.330595 4.90258e-05 -0.29372 0.955891
-0.154902 0.258743 0.776602 -0.181069 0.064422 0.981358
-0.19057 -0.10727 0.303257 0.00167816 -0.216044 -0.976382
0.0325942 -0.0388289 0.282386 -4.72475e-05 0.301633 0.953424
0.132553 -0.056281 0.32538 -3.66702e-05 0.216709 0.976236
-0.186904 0.198104 0.506563 -0.919787 0.357854 -0.161038
-0.196616 0.0644589 0.324128 -0.68409 -0.413126 -0.601122
0.119781 -0.00203873 0.271882 -4.25529e-05 0.274024 0.961723
-0.123738 0.140366 0.416406 -0.000121646 0.66557 0.746335
0.0258602 -0.216245 0.360886 -3.66702e-05 0.216709 0.976236
0.17311 0.203351 0.581517 0.000177996 -0.962013 0.273002
-0.193641 -0.0742808 0.295969 -0.00965161 -0.215827 -0.976384
-0.200384 0.0490046 0.235955 0 0.589659 -0.807652
-0.148524 0.0591593 0.346275 0.000156877 -0.824045 0.566525
0.183632 0.0219924 0.244117 0.121854 0.264788 -0.956577
-0.137335 0.27392 0.731702 0.000170109 -0.979193 0.202931
-0.13316 0.246952 0.61276 0.000152728 -0.973478 0.228781
-0.235819 -0.0469749 0.0299776 0.141446 0.989031 0.0425437
-0.00821491 0.22726 0.677199 0.000145747 -0.976651 0.214831
0.18888 0.0317565 0.269404 2.24075e-05 -0.144994 0.989433
-0.196389 -0.159924 0.348442 0.0102469 0.215813 0.976381
0.172532 -0.156241 0.302068 0.115092 -0.233267 -0.965578
0.197057 0.10302 0.311803 0.0819527 0.830569 -0.550853
-0.0761809 0.0960761 0.342179 -0.000176738 0.824009 -0.566576
0.212706 0.0362934 0.266568 0.885462 -0.0724644 0.459028
0.184439 0.19569 0.449652 0.0819527 0.830569 -0.550853
0.000753179 0.300747 0.757727 -7.06614e-05 0.513466 0.85811
-0.183137 0.0714426 0.297029 0.000130681 -0.837395 0.546598
0.0072165 0.167293 0.502597 0.000138148 -0.84258 0.538571
-0.0586148 -0.21103 0.326195 3.72355e-05 -0.216663 -0.976246
-0.0672241 -0.111841 0.337796 -3.66767e-05 0.216085 0.976375
-0.0664134 0.197624 0.481217 0.000142227 -0.822417 0.568885
-0.166094 0.246474 0.746157 -0.930767 -0.34811 0.11177
-0.144103 0.0954103 0.341232 -0.000176738 0.824009 -0.566576
0.00993002 -0.057108 0.128597 0.924174 -0.381972 0
0.202198 0.121019 0.363912 0.913701 -0.276382 0.297933
0.161094 0.26348 0.594366 0.988978 0.114614 0.0937333
-0.185709 0.134945 0.358332 -0.0822758 0.830554 -0.550827
-0.0584008 0.136338 0.420002 -8.38171e-05 0.56624 0.82424
0.13999 0.272839 0.731979 -0.000185661 0.976674 -0.214725
-0.201291 -0.0821353 0.295978 -4.71652e-05 0.291574 0.956548
-0.0675121 0.253825 0.650759 1.64319e-05 -0.0904116 -0.995905
-0.101811 0.193759 0.547876 0.000160518 -0.961993 0.273072
0.206682 -0.11517 0.401885 -0.596137 -0.790698 -0.139347
0.179082 -0.141699 0.313616 -4.47385e-05 0.276573 0.960993
0.0205839 -0.162435 0.318602 -3.61207e-05 0.221163 0.975237
0.167642 -0.0528562 0.0710595 0.130513 0.131018 0.982752
-0.0536508 -0.0733127 0.293289 -5.56534e-05 0.301546 0.953452
0.0123402 0.0280528 0.306839 -3.66767e-05 0.216085 0.976375
-0.191152 0.147768 0.431943 -0.945482 -0.154849 -0.286505
0.055112 0.000909135 0.312848 -3.66767e-05 0.216085 0.976375
-0.119513 -0.0605427 0.0674434 0.0012232 -0.999799 0.0200341
-0.14875 -0.0606375 0.0644988 0.0012232 -0.999799 0.0200341
0.0260905 0.270056 0.719394 -0.00287671 0.978069 -0.208259
-0.161794 0.22588 0.54121 -0.000272255 0.96199 -0.273085
0.0933746 0.21981 0.639521 0.000131781 -0.961988 0.273091
0.131863 0.276749 0.691654 -0.992466 0.015637 -0.121518
-0.182436 -0.030061 0.261598 0.110428 0.302182 0.946832
-0.223488 -0.0355017 0.450732 -0.0437985 0.258607 0.964989
0.15368 0.269762 0.647801 0.0409534 0.980281 -0.193318
0.105712 0.120626 0.377822 -0.000150602 0.824001 -0.566588
-0.156258 0.0233637 0.30787 -3.66767e-05 0.216085 0.976375
-0.179833 0.0663439 0.27145 0.992282 0.0183972 -0.122629
-0.205311 0.05073 0.266371 -0.119105 0.405839 -0.906151
0.233679 0.134602 0.345624 0.454376 -0.740587 0.495048
-0.171871 -0.255812 0.304053 -0.12141 0.29769 -0.946911
0.116209 -0.183886 0.323434 -2.67778e-05 0.162576 0.986696
0.16758 0.198915 0.535142 0.275506 -0.508328 -0.815904
-0.0413226 -0.114752 0.304919 3.66923e-05 -0.216044 -0.976384
0.0659657 0.020404 0.275018 3.66923e-05 -0.216044 -0.976384
0.00673111 -0.0722325 0.0825045 0.97114 -0.238501 0.00229851
0.0640841 0.262135 0.679095 0.00016399 -0.973633 0.228122
-0.186545 -0.0686143 0.269738 -0.000193819 0.28841 0.957507
-0.00192959 -0.299058 0.0317339 0.0253661 -0.962858 0.268815
-0.089816 0.254742 0.647353 0.000127513 -0.975897 0.218232
0.123519 0.151919 0.414442 0.000115003 -0.81746 0.575986
0.215331 -0.0707204 0.265431 0.443309 0.435718 0.783343
-0.149925 0.305043 0.74666 -0.000140117 0.999759 -0.0219351
-0.00563542 -0.155123 0.0620255 -0.99971 0.00361397 -0.0238035
0.0589512 -0.267945 0.309399 7.02297e-05 -0.513399 -0.85815
-0.14436 0.0943774 0.397501 0.000156877 -0.824045 0.566525
-0.070998 0.0772609 0.305916 0.000130681 -0.837395 0.546598
0.0744311 -0.272125 0.314886 0.000142419 -0.874892 -0.484317
-0.191924 -0.143846 0.292927 -0.114589 -0.232039 -0.965933
0.123332 0.0491639 0.277476 7.68322e-05 -0.494316 0.869282
-0.0660462 0.131974 0.423 -8.38171e-05 0.56624 0.82424
0.00667697 -0.0937084 0.181036 0 0 -1
0.164633 -0.0512309 0.324261 -3.66702e-05 0.216709 0.976236
-0.182698 -0.141503 0.286857 -0.000554434 0.825018 0.565107
