0.0453656 -0.0242609 0.323818 0.000620508 0.17107 0.985259
0.19734 0.13258 0.282886 0.0161265 -0.947176 0.320309
0.0985382 0.293057 0.580195 0.00348803 0.951533 -0.307528
-0.0438453 0.252859 0.454195 0.00348977 0.951544 -0.307492
-0.0389025 -0.114253 0.234189 -0.000223641 -0.0675082 -0.997719
-0.0513731 0.0191596 0.225161 -0.000245637 -0.0675209 -0.997718
-0.15052 0.218779 0.558772 -0.00317689 -0.883591 0.468249
0.243548 -0.209943 0.397597 -0.841146 0.398183 -0.365957
-0.123403 0.148779 0.359542 -0.00349186 -0.971561 0.236765
0.166587 0.300514 0.0118066 0 0 -1
0.0887272 -0.316926 0.29232 -0.00344179 -0.953628 0.30097
0.0759899 0.0197497 0.225089 -0.000244763 -0.0675188 -0.997718
-0.266845 -0.282286 0.251979 -0.852307 -0.500157 0.153019
-0.251842 0.0785045 0.442632 -0.812647 0.0877967 0.576104
-0.174068 0.309787 0.000712674 0 0 1
-0.143787 0.167626 0.436574 -0.00342739 -0.971534 0.236876
-0.154352 0.153265 0.377493 -0.00349186 -0.971561 0.236765
0.202093 -0.14792 0.338768 0.000411698 0.114146 0.993464
-0.157131 0.300169 0.599308 0.00348791 0.951499 -0.307633
-0.249399 -0.164875 0.452127 0.0674207 -0.374697 0.924693
-0.109395 0.275626 0.523929 0.00342143 0.951533 -0.307528
0.00354385 0.236584 0.404756 0.00341576 0.949425 -0.313974
-0.096417 -0.00216564 0.226615 -0.000245637 -0.0675209 -0.997718
-0.211486 0.0506272 0.253887 -0.993168 0.115073 -0.0193646
0.0873561 0.244528 0.429887 0.0034235 0.951578 -0.307388
0.196633 -0.196132 0.340925 8.66052e-05 0.0237914 0.999717
-0.00204456 -0.312255 0.306085 -0.00344188 -0.953627 0.300971
-0.0271967 -0.130158 0.235263 -0.000223641 -0.0675082 -0.997719
0.038975 -0.161472 0.340117 0.000106236 0.0237178 0.999719
0.106768 -0.311379 0.310103 -0.00344188 -0.953627 0.300971
0.167321 0.126606 0.259196 0.00357932 0.986439 -0.164088
-0.231465 -0.202264 0.264424 -0.956189 0.07356 -0.283357
0.0931847 -0.110158 0.233881 -0.000245866 -0.0675838 -0.997714
0.0473854 0.258345 0.63514 -0.00321677 -0.895274 0.445505
-0.229859 0.133933 0.408529 -0.0955707 -0.105805 -0.989784
-0.101683 0.258315 0.634014 -0.00321277 -0.895582 0.444884
0.121835 -0.0403058 0.229142 -0.000245637 -0.0675209 -0.997718
0.220848 -0.191444 0.335737 0.602663 0.0458037 0.79668
0.122771 0.159265 0.406226 -0.00356306 -0.971507 0.236985
0.0699513 0.121819 0.298438 0.000616638 0.171079 0.985257
-0.117467 0.0162475 0.316887 0.000616638 0.171079 0.985257
0.0645448 0.171549 0.451401 -0.00339316 -0.92518 0.379514
0.062524 -0.188278 0.340751 0.000106236 0.0237178 0.999719
-0.237293 -0.272625 0.327683 -0.678849 0.0732216 0.730618
-0.263455 -0.228702 0.36116 -0.88107 0.440219 -0.172979
-0.107368 0.305019 0.00431672 -0.000310268 -0.0861669 -0.996281
-0.000326946 0.30385 0.612469 0.00348791 0.951499 -0.307633
0.194698 0.206894 0.513211 0.643615 -0.705016 0.297845
-0.162336 0.287073 0.558742 0.00348791 0.951499 -0.307633
0.241822 -0.26537 0.29532 0.997294 0.0698233 -0.0230159
-0.107646 -0.129879 0.336823 0.000411698 0.114146 0.993464
-0.163297 0.26845 0.647395 -0.14077 -0.678473 0.721012
-0.148619 -0.316362 0.259882 -0.00334189 -0.926534 -0.376197
0.182299 0.184115 0.478023 0.217478 -0.902099 0.372722
-0.092898 0.125627 0.247635 0.00357946 0.986439 -0.164086
-0.259613 -0.0440606 0.442021 -0.90989 -0.00173474 -0.414847
-0.209588 -0.00670266 0.313194 -0.669516 0.192718 0.717361
0.0961991 0.0703208 0.221662 -0.000244763 -0.0675188 -0.997718
-0.189079 0.194698 0.288571 -0.567766 0.784755 -0.248599
-0.195382 -0.0078883 0.227027 -0.000245637 -0.0675209 -0.997718
-0.232034 -0.307543 0.260951 -0.623716 -0.733678 -0.269619
0.224974 -0.142642 0.248697 0.952827 0.041029 -0.300727
0.232869 0.0727018 0.0268988 -0.443337 -0.0222286 0.896079
-0.219324 -0.288654 0.246035 -0.000245124 -0.0675449 -0.997716
0.253149 -0.289669 0.0231351 -0.536009 -0.585667 -0.608021
-0.110996 -0.0179408 0.227686 -0.000245637 -0.0675209 -0.997718
-0.200962 0.117959 0.23646 -0.690309 0.667872 -0.278247
-0.0415779 0.122442 0.229607 0.00357987 0.986582 -0.163226
0.048421 0.301756 0.606543 0.00348803 0.951533 -0.307528
-0.0107169 0.0957093 0.21997 -0.000244763 -0.0675188 -0.997718
-0.190917 0.179687 0.442975 -0.648289 -0.696873 0.30674
-0.161049 0.178864 0.233753 0.00345887 0.94412 -0.329583
0.192471 0.128625 0.259758 -0.00452493 -0.986073 0.166254
-0.0443808 -0.0392958 0.32639 0.000414001 0.114138 0.993465
0.0191531 -0.126945 0.336433 0.000411698 0.114146 0.993464
-0.138992 0.243108 0.422941 0.00348977 0.951544 -0.307492
0.0480565 -0.244984 0.342101 8.66052e-05 0.0237914 0.999717
-0.0781055 -0.224195 0.241636 -0.000245124 -0.0675449 -0.997716
-0.102018 0.293456 0.0233629 -0.00301832 -0.820838 0.571154
0.243748 -0.157147 0.45238 -0.564218 -0.244028 0.788739
-0.188885 0.268523 0.540613 -0.970179 0.238425 -0.0436721
-0.0590741 -0.275009 0.245072 -0.000245124 -0.0675449 -0.997716
-0.16734 0.256211 0.627718 -0.156884 -0.870245 0.46697
0.0817773 -0.319602 0.268335 -0.00355806 -0.986469 -0.163908
0.240272 -0.297824 0.267032 0.920647 -0.306481 -0.241825
-0.239696 -0.271335 0.274302 -0.956461 0.0734802 -0.28246
0.244195 0.0381148 0.419601 0.0948939 -0.106549 -0.989769
0.152223 0.172 0.221623 0.0032816 0.895733 -0.44458
0.00688712 0.29146 0.0205582 -0.00358789 -0.996276 0.0861424
-0.18833 0.0864661 0.30463 -0.467991 0.199624 0.860892
-0.222343 -0.273856 0.338177 -0.60288 0.0533852 0.796044
-0.214097 -0.0425692 0.318169 -0.673481 0.123879 0.728751
0.178989 0.302919 0.0291822 0.000323657 0.0843769 0.996434
-0.235242 -0.116411 0.444721 0.994697 -0.0488611 -0.0904988
0.0632782 0.248441 0.616192 -0.00317478 -0.883588 0.468255
0.165628 0.140363 0.216528 -0.000156914 -0.0428335 -0.999082
-0.24886 -0.0695751 0.432317 -0.104213 -0.325139 -0.939906
0.13964 0.197242 0.514689 -0.00332101 -0.925134 0.379627
0.0739435 0.185372 0.485183 -0.00339316 -0.92518 0.379514
0.215382 0.201822 0.430886 -0.907799 -0.0242934 0.418701
0.163382 0.294744 0.645798 0.00113872 0.311123 0.950369
0.102498 0.211769 0.547259 -0.00317186 -0.883586 0.468259
-0.252745 -0.105579 0.43794 -0.576454 0.0220851 -0.816831
0.242072 -0.180238 0.439118 -0.896161 -0.246136 0.369206
0.0114925 -0.168257 0.237832 -0.000223542 -0.0674783 -0.997721
-0.00384814 0.0708002 0.221654 -0.000244763 -0.0675188 -0.997718
-0.265732 -0.2855 0.0928521 -0.51956 0.853604 -0.0376556
-0.051948 0.191927 0.272322 0.00341953 0.944067 -0.329736
0.262181 -0.0412872 0.450589 0.994711 0.0449957 0.0923386
0.259754 -0.188717 0.0273979 0.552699 0.0276254 0.832923
0.0913185 0.25088 0.449598 0.0034235 0.951578 -0.307388
-0.221327 0.0332118 0.43339 0.992463 -0.0845858 -0.0886694
-0.261174 -0.307842 0.0640659 -0.477307 -0.86621 -0.147845
0.0689861 -0.319953 0.270726 -0.00355806 -0.986469 -0.163908
0.269265 -0.26456 0.301786 0.999046 -0.0287384 0.0328788
0.199267 0.223022 0.409768 0.95398 0.293131 -0.0632165
0.14392 0.0879491 0.304273 0.000620508 0.17107 0.985259
-0.252302 -0.303138 0.151521 0.52235 -0.851063 0.0533137
-0.203657 0.143407 0.256468 -0.999319 0.00513674 0.0365279
-0.13565 -0.227141 0.24185 -0.000245124 -0.0675449 -0.997716
0.181277 0.256341 0.627484 0.574576 -0.716247 0.396046
0.266146 -0.252893 0.346946 0.847603 -0.49055 0.202312
-0.0758526 0.24557 0.609832 -0.00316974 -0.883586 0.468259
0.225704 0.0583003 0.425651 -0.811594 -0.114317 -0.572929
-0.00301247 0.228269 0.57768 -0.00316974 -0.883586 0.468259
0.0836646 0.244287 0.608493 -0.00317478 -0.883588 0.468255
-0.221839 0.135043 0.0228697 0.830876 -0.0476703 0.554411
0.248828 -0.0692223 0.463483 -0.0840139 -0.150689 0.985005
-0.103204 -0.204653 0.240319 -0.000245124 -0.0675449 -0.997716
0.0721517 0.22731 0.576379 -0.00317186 -0.883586 0.468259
0.0134366 -0.296722 0.246524 -0.000245124 -0.0675449 -0.997716
0.211633 -0.158435 0.339972 0.000411698 0.114146 0.993464
0.0820156 0.233222 0.587601 -0.00317478 -0.883588 0.468255
-0.0236063 -0.149307 0.339021 0.000411698 0.114146 0.993464
0.0199988 -0.279192 0.245335 -0.000245124 -0.0675449 -0.997716
-0.174823 -0.104415 0.233554 -0.000223641 -0.0675082 -0.997719
0.0834971 -0.138394 0.235795 -0.000223641 -0.0675082 -0.997719
-0.088883 0.145789 0.34687 -0.0035312 -0.982509 0.186184
0.122965 0.307847 0.0285403 0.00210147 0.572391 0.819978
0.246903 -0.19448 0.407278 -0.45449 0.612481 -0.646766
0.164124 0.221469 0.360818 0.00348264 0.949388 -0.314087
0.207222 0.121116 0.26337 0.753745 0.647193 -0.114059
0.147658 0.305542 0.629699 0.00360426 0.983308 0.181913
0.246411 -0.267131 0.0270559 -0.842617 0.245171 0.479467
0.11066 -0.0601215 0.328718 0.000414001 0.114138 0.993465
-0.17974 -0.0706277 0.330046 0.000414001 0.114138 0.993465
0.184139 -0.0621186 0.328917 0.000411698 0.114146 0.993464
0.232135 0.204405 0.0292649 0.0645635 0.00323532 0.997908
-0.0137863 0.281221 0.650437 0.00111792 0.311137 0.950365
-0.264196 -0.275445 0.205563 -0.522092 0.839047 -0.153034
0.261479 -0.237953 0.00076958 0.000557636 0.000380944 1
0.0642227 0.268347 0.503348 0.003489 0.951544 -0.307492
-0.00323925 0.247978 0.439552 0.00348977 0.951544 -0.307492
0.0411862 0.157584 0.398096 -0.00362526 -0.971533 0.236876
-0.101204 0.204606 0.308118 0.00339343 0.944091 -0.329666
0.133877 -0.241764 0.242776 -0.000223542 -0.0674783 -0.997721
-0.143177 0.166917 0.433677 -0.00342739 -0.971534 0.236876
0.170125 0.198633 0.518345 -0.00332101 -0.925134 0.379627
0.0949361 0.213149 0.334903 0.00348264 0.949388 -0.314087
-0.0718949 0.150942 0.369174 -0.00349186 -0.971561 0.236765
0.152054 -0.18022 0.23861 -0.000223542 -0.0674783 -0.997721
-0.173627 -0.20501 0.341173 0.000106236 0.0237178 0.999719
-0.0524293 0.154036 0.38216 -0.00342739 -0.971534 0.236876
-0.139324 0.201365 0.298444 0.00339343 0.944091 -0.329666
-0.218965 -0.248272 0.33902 -0.60288 0.0533852 0.796044
0.146848 0.152049 0.377008 -0.00356306 -0.971507 0.236985
-0.13055 0.221772 0.358503 0.00348183 0.949386 -0.314093
0.247328 0.03194 0.454905 0.415181 0.0924862 0.905025
-0.235692 -0.215544 0.314673 -0.958994 0.0815964 0.271427
-0.154406 -0.318231 0.285406 -0.00344188 -0.953627 0.300971
-0.175524 0.0111705 0.317805 0.000616638 0.171079 0.985257
0.194661 0.272047 0.557234 0.972166 0.226835 -0.058641
-0.221767 -0.0711929 0.258706 -0.957295 0.0515748 -0.284475
0.254146 -0.303797 0.170951 -0.52694 -0.846571 0.0751771
-0.173366 0.319163 0.0118066 0 0 -1
0.0512554 -0.00819761 0.226987 -0.000245637 -0.0675209 -0.997718
-0.146406 0.199499 0.517681 -0.00326373 -0.925141 0.37961
0.208412 0.115781 0.262633 0.994113 0.106536 -0.0197526
-0.127612 -0.28498 0.338863 -0.00118611 -0.325836 0.945426
-0.0565205 -0.234102 0.341851 8.66052e-05 0.0237914 0.999717
0.153152 -0.126186 0.336291 0.000411698 0.114146 0.993464
-0.0395166 -0.301646 0.24687 -0.000245124 -0.0675449 -0.997716
-0.0866376 -0.287376 0.338088 -0.00118031 -0.325961 0.945382
0.229081 -0.211913 0.248991 0.838643 0.0176717 -0.544395
-0.0366461 0.127175 0.258165 0.00357946 0.986439 -0.164086
-0.10748 0.153221 0.378004 -0.00349186 -0.971561 0.236765
0.24886 -0.117806 0.00449034 -0.0645616 -0.00323523 -0.997908
0.0343102 0.191005 0.49856 -0.00339316 -0.92518 0.379514
0.242907 -0.176941 0.443344 -0.896161 -0.246136 0.369206
-0.14912 0.20226 0.524386 -0.00326373 -0.925141 0.37961
0.220127 0.134101 0.437244 -0.907799 -0.0242934 0.418701
-0.263012 -0.265252 0.249014 -0.52201 0.825652 -0.214021
0.221559 -0.280018 0.339721 0.568152 -0.0796239 0.819062
0.269828 -0.270226 0.0212426 0.997907 0.0150531 -0.062896
0.0568748 0.124976 0.234636 -0.00425045 -0.98605 0.166398
0.158656 -0.110805 0.334521 0.000411698 0.114146 0.993464
-0.215012 0.0208186 0.257599 -0.993168 0.115073 -0.0193646
0.173273 -0.192479 0.239434 -0.000223542 -0.0674783 -0.997721
0.0313873 -0.0326243 0.228645 -0.000245637 -0.0675209 -0.997718
-0.168406 0.285081 0.555003 -0.185745 0.936852 -0.296322
0.265562 -0.243616 0.0253592 0.553598 0.0272547 0.832338
0.195953 0.23938 0.565613 0.905132 -0.367915 0.213012
-0.248134 -0.20723 0.424489 0.0474277 -0.700069 0.712498
-0.258307 -0.293352 0.0281326 0.0307736 -0.793396 -0.607927
-0.143066 -0.0058087 0.226873 -0.000245637 -0.0675209 -0.997718
0.261347 -0.00538415 0.437742 0.909655 -0.00833197 -0.415282
0.18525 -0.307299 0.247197 -0.000245124 -0.0675449 -0.997716
-0.0892213 0.146704 0.35153 -0.00349186 -0.971561 0.236765
-0.176955 0.132027 0.292154 0.00250154 0.689386 0.724389
0.234791 0.132826 0.00458759 -0.0644507 -0.00323141 -0.997916
0.0819774 0.188622 0.264247 0.00341941 0.94412 -0.329583
-0.13796 0.110928 0.218972 -0.000244763 -0.0675188 -0.997718
0.166663 -0.290934 0.246094 -0.000245124 -0.0675449 -0.997716
-0.251237 -0.0478746 0.0262475 -0.553155 0.0317377 0.832474
-0.20025 0.184094 0.295349 -0.933919 0.354711 -0.0444572
0.117724 0.135913 0.29915 -0.00430151 -0.982506 0.186184
0.0361076 0.294761 0.584763 0.00348803 0.951533 -0.307528
-0.112653 -0.272442 0.342768 8.66052e-05 0.0237914 0.999717
0.150579 -0.188831 0.340755 8.66052e-05 0.0237914 0.999717
-0.00103459 -0.0792443 0.23181 -0.000245866 -0.0675838 -0.997714
-0.0200096 0.114562 0.218697 -0.000244763 -0.0675188 -0.997718
-0.102713 0.218549 0.558662 -0.00317689 -0.883591 0.468249
0.043505 -0.124508 0.336143 0.000411698 0.114146 0.993464
-0.0705528 0.232205 0.390704 0.00348183 0.949386 -0.314093
0.25309 0.0118578 0.0249682 0.894908 0.0448445 0.443992
-0.0419066 0.182559 0.477297 -0.00332643 -0.92518 0.379514
0.0926119 0.264355 0.49132 0.003489 0.951544 -0.307492
0.182906 0.210924 0.332356 0.18637 0.934594 -0.302985
-0.267575 -0.256611 0.0186724 -0.997077 0.0383918 -0.06605
-0.165907 0.128344 0.262377 0.00357946 0.986439 -0.164086
-0.109632 0.194656 0.506193 -0.00326373 -0.925141 0.37961
-0.0526222 0.154839 0.385449 -0.00342739 -0.971534 0.236876
-0.139658 0.164772 0.424926 -0.00349186 -0.971561 0.236765
-0.183732 0.294911 0.604986 -0.502646 0.823337 -0.26356
-0.185489 0.128854 0.219576 -0.255552 -0.141265 -0.956419
0.258293 -0.0842127 0.00973778 0.830451 0.0416145 -0.555535
0.236816 -0.0998014 0.449088 -0.994683 -0.0485706 -0.0908156
0.126967 0.301192 0.641519 0.00250579 0.697366 0.716711
0.148277 0.130857 0.286151 0.00360608 0.993779 -0.111309
-0.0816143 0.295702 0.586349 0.00348791 0.951499 -0.307633
0.183876 0.19325 0.280875 0.162748 0.933101 -0.320681
0.0124619 -0.320963 0.278033 -0.00356036 -0.98648 -0.163844
-0.0220033 0.15974 0.405994 -0.00342739 -0.971534 0.236876
-0.0740184 0.296856 0.590002 0.00348791 0.951499 -0.307633
0.214191 -0.0246267 0.233536 0.9539 0.0818616 -0.288744
0.0366735 0.159329 0.405187 -0.00362526 -0.971533 0.236876
0.0217137 0.243213 0.425086 0.0034235 0.951578 -0.307388
-0.101632 0.305663 0.633933 0.003532 0.982942 0.183883
0.0753817 0.315547 0.015516 0.00358801 0.996263 -0.0862964
-0.0543356 -0.0866649 0.331836 0.000414001 0.114138 0.993465
0.217828 0.0296908 0.271009 0.993977 0.108745 -0.0135742
0.0787263 0.199314 0.519205 -0.00332101 -0.925134 0.379627
-0.193662 -0.0190572 0.323065 0.000616638 0.171079 0.985257
0.199942 0.215406 0.377961 0.969475 0.242323 -0.0373803
-0.0175594 0.010576 0.317809 0.000620508 0.17107 0.985259
0.220065 0.00928004 0.271348 0.993977 0.108745 -0.0135742
0.197353 0.189778 0.282005 0.439207 0.854166 -0.278383
0.124761 0.0498966 0.310892 0.000620508 0.17107 0.985259
-0.0179413 -0.0691031 0.329803 0.000414001 0.114138 0.993465
0.108104 0.255497 0.464078 0.0034235 0.951578 -0.307388
0.246644 0.0498869 0.00560141 0.444782 0.0222883 -0.895361
-0.0627335 -0.266697 0.24451 -0.000245124 -0.0675449 -0.997716
-0.20326 0.145097 0.267091 -0.999319 0.00513674 0.0365279
0.208158 0.290666 0.0289108 -0.242823 -0.356845 0.902053
-0.136581 0.123439 0.22169 -0.00291272 -0.986061 0.16636
0.243184 -0.190595 0.41558 -0.836255 0.32278 -0.443273
0.176314 0.243142 0.604236 0.14974 -0.873624 0.462988
0.0373939 0.16865 0.443419 -0.00356306 -0.971507 0.236985
0.232726 -0.0658232 0.452966 -0.908017 -0.0243321 0.418227
0.0888965 0.29066 0.572669 0.00348803 0.951533 -0.307528
-0.251333 0.0397386 0.424884 -0.579192 -0.0598108 -0.812994
0.0445861 0.26483 0.492243 0.003489 0.951544 -0.307492
0.0254025 0.269282 0.648967 -0.00251508 -0.686113 0.727491
0.269115 -0.289134 0.0932849 0.88171 0.471393 -0.0194161
0.0966235 0.00133587 0.319342 0.000620508 0.17107 0.985259
-0.0572842 0.246064 0.433015 0.00348977 0.951544 -0.307492
0.0101687 0.259251 0.474589 0.003489 0.951544 -0.307492
0.0593166 -0.0649433 0.230826 -0.000245866 -0.0675838 -0.997714
-0.161261 0.299098 0.59595 0.00348791 0.951499 -0.307633
-0.130337 0.284876 0.649378 0.00111792 0.311137 0.950365
0.246324 0.191395 0.406439 0.578567 -0.0640488 -0.813116
-0.131628 0.306349 0.028982 0.000241575 0.0861633 0.996281
-0.10457 0.294265 0.581643 0.00348791 0.951499 -0.307633
-0.114316 0.0112079 0.225714 -0.000245637 -0.0675209 -0.997718
-0.0369361 0.261922 0.482319 0.00348977 0.951544 -0.307492
-0.128913 0.0524344 0.222928 -0.000245637 -0.0675209 -0.997718
0.0041264 -0.00117337 0.319836 0.000620508 0.17107 0.985259
0.210542 0.0935401 0.24902 0.993977 0.108745 -0.0135742
0.0441138 0.298968 0.0283548 -0.00155666 -0.423335 0.905972
0.218968 0.168143 0.413278 -0.811432 -0.11432 -0.573157
-0.191359 0.127379 0.244159 -0.00330895 -0.986086 0.166204
-0.209405 0.0554968 0.293054 -0.952757 0.152434 0.262714
-0.254348 0.0100287 0.430253 -0.90906 -0.00188838 -0.41666
0.195971 0.130857 0.273099 -0.00519105 -0.986073 0.166235
-0.136724 0.223863 0.568459 -0.00317689 -0.883591 0.468249
-0.021858 -0.245347 0.342115 8.66052e-05 0.0237914 0.999717
0.11401 0.242646 0.424359 0.0034235 0.951578 -0.307388
-0.2367 -0.0995821 0.0249651 0.830716 -0.0476656 0.554652
-0.0437268 -0.296765 0.246541 -0.000245124 -0.0675449 -0.997716
0.195143 0.259529 0.513931 0.971563 0.233994 -0.0362329
0.0763682 0.151061 0.371884 -0.00362526 -0.971533 0.236876
0.241998 0.253552 0.0107041 0.831492 0.0420012 -0.553947
0.0107341 0.292006 0.575948 0.00348803 0.951533 -0.307528
0.0639198 0.000127558 0.319572 0.000620508 0.17107 0.985259
0.129839 -0.213244 0.341338 8.66052e-05 0.0237914 0.999717
0.20115 0.182479 0.420969 0.951923 -0.285092 0.112096
0.0118036 -0.296172 0.333441 -0.00241831 -0.667857 0.744286
0.0506849 0.135414 0.29497 -0.00430151 -0.982506 0.186184
-0.0708523 0.21593 0.553937 -0.00317689 -0.883591 0.468249
0.030362 0.12981 0.262644 -0.00425035 -0.986098 0.166109
0.222347 -0.0750176 0.318674 0.678588 0.118861 0.724838
-0.23759 0.140707 0.4463 -0.414488 0.0955062 0.90503
0.0858784 0.276467 0.52872 0.00348896 0.951532 -0.307529
0.0815919 0.0217409 0.315808 0.000620508 0.17107 0.985259
0.231456 0.0613879 0.0249567 -0.831285 -0.04168 0.554281
0.262437 -0.0388171 0.446587 0.994842 0.0448253 0.0909927
-0.0312917 -0.318327 0.28651 -0.00344179 -0.953628 0.30097
-0.112979 0.277512 0.529726 0.00342143 0.951533 -0.307528
-0.211117 -0.0411251 0.320677 -0.673481 0.123879 0.728751
-0.127752 0.167255 0.435284 -0.00342739 -0.971534 0.236876
-0.0929368 0.209265 0.321543 0.00339343 0.944091 -0.329666
0.185598 0.190975 0.275128 0.162748 0.933101 -0.320681
-0.22863 -0.29581 0.250238 -0.535674 -0.0189845 -0.844212
-0.0713435 -0.0364789 0.228931 -0.000245637 -0.0675209 -0.997718
0.266565 -0.253303 0.00492396 -0.811958 -0.577162 -0.0872269
-0.0227507 0.0912267 0.303809 0.000616638 0.171079 0.985257
0.129706 0.127101 0.249104 -0.00425035 -0.986098 0.166109
0.0556649 0.205099 0.533101 -0.00332101 -0.925134 0.379627
0.260462 -0.28127 0.153622 0.0309792 0.996644 -0.0757726
0.167314 -0.174106 0.238193 -0.000223542 -0.0674783 -0.997721
-0.0535536 0.156102 0.390615 -0.00342739 -0.971534 0.236876
-0.134523 0.209942 0.323056 0.00339343 0.944091 -0.329666
-0.0963124 0.304846 0.00432828 -0.000310268 -0.0861669 -0.996281
0.0599964 0.315841 0.0182682 0.00359386 0.996276 -0.0861469
0.236501 -0.0751828 0.0115786 -0.894841 -0.0448411 -0.444126
-0.170577 0.129775 0.25871 -0.00291697 -0.986147 0.165849
-0.0744405 0.176023 0.228062 0.00328049 0.895427 -0.445196
0.0498001 0.156071 0.392025 -0.00362526 -0.971533 0.236876
0.106343 -0.308222 0.317533 -0.00307293 -0.851403 0.524503
-0.147401 0.275668 0.523636 0.00342143 0.951533 -0.307528
-0.102162 -0.271043 0.342734 8.66052e-05 0.0237914 0.999717
-0.256354 0.0172849 0.434615 -0.90989 -0.00173474 -0.414847
-0.129955 0.295752 0.645817 0.00111792 0.311137 0.950365
-0.117137 0.192147 0.500014 -0.00326373 -0.925141 0.37961
-0.18929 0.102868 0.21953 -0.000245637 -0.0675209 -0.997718
-0.181789 0.308185 0.0286493 -0.0462554 0.571482 0.81931
-0.200665 0.186187 0.320778 -0.933919 0.354711 -0.0444572
-0.159684 0.154575 0.38279 -0.00349186 -0.971561 0.236765
0.212347 0.284199 0.0278338 -0.298593 -0.315565 0.9007
0.0970394 0.303496 0.612478 0.00348803 0.951533 -0.307528
-0.0916572 0.203496 0.305037 0.00339343 0.944091 -0.329666
0.0404042 -0.0333022 0.325391 0.000620508 0.17107 0.985259
-0.218082 0.100261 0.422219 0.811123 -0.120146 -0.572402
0.13309 0.0514762 0.222928 -0.000244763 -0.0675188 -0.997718
0.165492 0.199001 0.294841 0.00341937 0.944107 -0.32962
0.196316 0.173665 0.425631 0.644503 -0.736033 0.207053
-0.0895809 0.144709 0.341161 -0.0035312 -0.982509 0.186184
0.237459 -0.0156793 0.0269774 -0.443337 -0.0222286 0.896079
-0.00916827 0.315984 0.0170352 0.00365742 0.996263 -0.0862965
-0.0549208 0.174622 0.45784 -0.00326373 -0.925141 0.37961
-0.240655 0.211735 0.0172467 -0.996263 0.0571914 -0.0647195
0.0373289 0.131518 0.288463 0.00360608 0.993779 -0.111309
-0.147953 -0.0403404 0.229211 -0.000245637 -0.0675209 -0.997718
-0.242193 -0.181761 0.0077084 0.554467 -0.0318139 -0.831597
-0.219279 -0.0590688 0.252681 -0.952011 0.0498558 -0.301976
-0.206168 -0.227429 0.241886 -0.000245124 -0.0675449 -0.997716
0.187639 0.273342 0.535771 0.587195 0.771781 -0.244042
0.247716 0.159144 0.0209107 0.895593 0.0449031 0.442602
-0.149046 -0.319859 0.280309 -0.00344179 -0.953628 0.30097
0.180514 0.267139 0.5066 0.191461 0.934268 -0.30081
0.0184278 -0.212456 0.341329 8.66052e-05 0.0237914 0.999717
0.125611 -0.240612 0.34199 8.66052e-05 0.0237914 0.999717
0.261434 -0.290562 0.249365 0.46987 -0.849728 0.239133
0.165815 0.208099 0.320903 0.00341937 0.944107 -0.32962
-0.215034 0.230247 0.0205163 0.996262 -0.0571614 0.0647724
-0.109552 0.131381 0.282477 0.00360887 0.993789 -0.111219
0.258977 -0.0487365 0.456327 0.813768 0.0818763 0.575394
0.21402 0.288595 0.0292695 0.0531514 0.0532941 0.997163
-0.237742 -0.237978 0.287505 -0.997009 0.0770587 -0.00598879
-0.107018 0.112019 0.21889 -0.000244763 -0.0675188 -0.997718
-0.223672 -0.11491 0.25731 -0.952011 0.0498558 -0.301976
0.0410555 0.30115 0.641863 0.00255472 0.698009 0.716085
0.11165 -0.0291134 0.324619 0.000620508 0.17107 0.985259
-0.0332396 0.311105 0.0266573 0.00201066 0.573245 0.819382
0.213405 0.00664948 0.239806 0.9539 0.0818616 -0.288744
-0.00541165 -0.0313044 0.228565 -0.000245637 -0.0675209 -0.997718
0.235207 -0.271346 0.256499 0.838643 0.0176717 -0.544395
0.0754033 -0.27909 0.341148 -0.00118611 -0.325836 0.945426
-0.188641 0.197223 0.488408 -0.585715 -0.747398 0.313584
0.208467 0.000653647 0.315248 0.681762 0.187313 0.707188
0.0727771 0.2747 0.523105 0.00348896 0.951532 -0.307529
0.0782795 0.126759 0.217177 -0.000405562 -0.110708 -0.993853
-0.245332 -0.265093 0.0130154 0.887177 -0.201004 -0.415349
0.208548 -0.0638455 0.230715 -0.000245866 -0.0675838 -0.997714
-0.132731 0.203496 0.304613 0.00339343 0.944091 -0.329666
0.233759 -0.0275639 0.45543 -0.577717 0.0313084 0.815636
0.181574 0.233282 0.400949 0.225998 0.928857 -0.293512
-0.108453 -0.256679 0.243843 -0.000245124 -0.0675449 -0.997716
-0.217706 0.182094 0.0136573 0.894412 -0.0513177 -0.44429
-0.149991 -0.0267874 0.228294 -0.000245637 -0.0675209 -0.997718
0.231482 0.0779896 0.449766 -0.577717 0.0313084 0.815636
-0.209292 0.00963233 0.309081 -0.669516 0.192718 0.717361
-0.0848989 0.0550276 0.310133 0.000616638 0.171079 0.985257
-0.0663934 -0.314033 0.299713 -0.00344188 -0.953627 0.300971
-0.0146492 0.286382 0.558265 0.00342143 0.951533 -0.307528
0.250638 -0.231326 0.0052272 -0.553864 -0.0278414 -0.832141
0.0721948 0.261064 0.640792 -0.00328303 -0.895609 0.44483
-0.192231 0.222767 0.52744 -0.937568 -0.312496 0.152686
-0.189561 0.263581 0.528628 -0.970179 0.238425 -0.0436721
0.102999 -0.169905 0.34031 0.000106236 0.0237178 0.999719
-0.229502 0.0328833 0.0255676 0.830716 -0.0476656 0.554652
0.0571127 -0.219267 0.241272 -0.000223542 -0.0674783 -0.997721
0.14625 -0.301726 0.328312 -0.00308047 -0.851303 0.524665
0.037661 0.148998 0.216178 -0.000159747 -0.0428164 -0.999083
0.171184 0.19929 0.519954 -0.00332101 -0.925134 0.379627
0.238582 0.0620273 0.416481 0.0969644 -0.106349 -0.98959
0.176747 0.265721 0.644484 0.134525 -0.679802 0.720952
-0.0546229 0.261178 0.479815 0.00348977 0.951544 -0.307492
-0.111293 0.132057 0.273309 -0.00285257 -0.986103 0.166109
-0.163619 -0.298566 0.246692 -0.000245124 -0.0675449 -0.997716
-0.25797 -0.307923 0.0830523 0.0254843 -0.998808 0.0416189
0.256017 0.0775498 0.442544 0.813768 0.0818763 0.575394
-0.213148 0.0408684 0.286097 -0.993302 0.114796 -0.013149
0.0160048 -0.15327 0.339459 0.000411698 0.114146 0.993464
0.100619 -0.223786 0.241568 -0.000223542 -0.0674783 -0.997721
-0.2043 0.114701 0.266084 -0.993168 0.115073 -0.0193646
0.170443 0.259576 0.477399 0.0034235 0.951578 -0.307388
0.0684254 -0.285417 0.245745 -0.000245124 -0.0675449 -0.997716
0.18174 0.173532 0.225017 0.041365 0.89493 -0.444286
0.0516793 0.25507 0.628623 -0.00317478 -0.883588 0.468255
0.140097 0.297516 0.00560047 -0.00210341 -0.572024 -0.820234
-0.0483847 0.249433 0.443542 0.00348977 0.951544 -0.307492
0.208317 0.165056 0.257305 0.999224 -0.00209331 0.0393273
0.194392 0.269512 0.623349 0.999352 0.00780958 0.0351491
-0.21328 0.214643 0.422297 0.0501062 0.995541 -0.0799274
-0.123089 -0.214079 0.341382 0.000106236 0.0237178 0.999719
-0.152476 0.303978 0.61114 0.00348791 0.951499 -0.307633
-0.0450213 0.125477 0.235379 -0.00291619 -0.986065 0.166335
-0.0804073 -0.0050698 0.320565 0.000620508 0.17107 0.985259
-0.0470456 0.199401 0.293773 0.00341953 0.944067 -0.329736
0.158745 0.117314 0.299165 0.000616638 0.171079 0.985257
0.164254 0.306213 0.0118066 0 0 -1
-0.167809 0.201847 0.29953 0.00339343 0.944091 -0.329666
0.169665 -0.0436352 0.326799 0.000414001 0.114138 0.993465
-0.242952 0.1531 0.41057 -0.579702 -0.0597677 -0.812634
-0.207754 0.0815898 0.283525 -0.956707 0.15175 0.248361
-0.180849 0.141151 0.320086 -0.185291 -0.956303 0.226169
0.266756 -0.27053 0.299074 0.84916 -0.493201 0.18889
-0.0769421 0.203899 0.306341 0.00339343 0.944091 -0.329666
0.00393789 0.0460188 0.223329 -0.000244763 -0.0675188 -0.997718
0.0918027 -0.066445 0.23092 -0.000245866 -0.0675838 -0.997714
-0.190074 0.274223 0.579141 -0.908159 0.397702 -0.130695
0.152927 0.195629 0.285052 0.00341937 0.944107 -0.32962
0.167541 0.00313265 0.226192 -0.000244763 -0.0675188 -0.997718
0.107913 -0.2844 0.245666 -0.000245124 -0.0675449 -0.997716
0.223956 0.171856 0.407473 -0.413713 -0.124863 -0.901804
0.254243 -0.257346 0.349316 -0.0360437 -0.935296 0.352026
0.229726 -0.208465 0.251084 0.950401 0.0662892 -0.303881
-0.192891 0.242687 0.518685 -0.999264 0.015417 0.035125
0.141172 -0.250726 0.24338 -0.000223542 -0.0674783 -0.997721
-0.255337 -0.104149 0.00797972 -0.830781 0.0476902 -0.554553
0.20726 0.174525 0.274557 0.936649 0.343206 -0.0699801
0.215885 -0.023205 0.239535 0.9539 0.0818616 -0.288744
-0.118467 0.127661 0.247055 -0.00291697 -0.986147 0.165849
-0.183922 -0.314971 0.295398 -0.00344188 -0.953627 0.300971
-0.0899922 -0.318607 0.266075 -0.00355806 -0.986469 -0.163908
0.106647 -0.158969 0.340051 0.000106236 0.0237178 0.999719
-0.0432039 -0.282038 0.245543 -0.000245124 -0.0675449 -0.997716
0.206074 0.181242 0.294943 0.968613 0.247764 -0.0200234
0.125727 -0.0519683 0.229931 -0.000245866 -0.0675838 -0.997714
0.234131 0.0689745 0.00618875 -0.554745 -0.0277987 -0.831556
0.259979 -0.0757468 0.0146352 0.996654 0.0499701 -0.0646804
0.0301593 0.162411 0.417726 -0.00362526 -0.971533 0.236876
0.243224 -0.18417 0.00903613 -0.894841 -0.0448411 -0.444126
-0.0251021 0.162879 0.418823 -0.00342739 -0.971534 0.236876
0.19302 0.109096 0.299418 0.349089 0.193942 0.916801
0.120005 0.305834 0.625845 0.00361211 0.985451 -0.169923
-0.114402 0.210545 0.543479 -0.00317689 -0.883591 0.468249
0.227696 0.0838943 0.417939 -0.414395 -0.124895 -0.901487
-0.269612 -0.285039 0.201406 -0.999659 -0.023635 0.0110732
-0.247625 0.03323 0.453046 -0.414488 0.0955062 0.90503
-0.193116 -0.0303153 0.228544 -0.000245637 -0.0675209 -0.997718
-0.0488097 0.125727 0.2492 0.00357946 0.986439 -0.164086
-0.0927902 0.284704 0.64939 0.00111792 0.311137 0.950365
-0.0649069 0.120254 0.298795 0.000616638 0.171079 0.985257
0.24907 -0.0992947 0.0291539 0.0645578 0.00323494 0.997909
-0.168589 -0.272203 0.342767 8.66052e-05 0.0237914 0.999717
-0.227612 -0.104656 0.304993 -0.997108 0.0757688 -0.00588285
0.200457 -0.319868 0.267358 -0.00355806 -0.986469 -0.163908
-0.186427 0.226205 0.386718 -0.644631 0.734146 -0.213265
-0.25254 -0.281843 0.132036 0.476902 0.877417 -0.0519969
0.102915 -0.0926172 0.332455 0.000411698 0.114146 0.993464
-0.0810516 0.196493 0.510922 -0.00332643 -0.92518 0.379514
0.137857 0.185717 0.486587 -0.00332101 -0.925134 0.379627
0.227807 0.0340853 0.427503 -0.811594 -0.114317 -0.572929
0.0951985 -0.318141 0.288546 -0.00344179 -0.953628 0.30097
0.253814 -0.243192 0.00457618 -0.0646863 -0.00320286 -0.997901
0.203286 -0.0434099 0.229332 -0.000244763 -0.0675188 -0.997718
0.0476011 -0.318328 0.287409 -0.00344179 -0.953628 0.30097
-0.202578 -0.251387 0.243508 -0.000245124 -0.0675449 -0.997716
-0.227128 -0.0251385 0.435722 0.810249 -0.120262 -0.573615
-0.248921 -0.0130689 0.42705 -0.579702 -0.0597677 -0.812634
-0.130258 0.100961 0.302186 0.000616638 0.171079 0.985257
-0.0456512 -0.295913 0.246483 -0.000245124 -0.0675449 -0.997716
0.0303743 0.128502 0.254876 -0.00425035 -0.986098 0.166109
0.183308 0.0208613 0.224988 -0.000244763 -0.0675188 -0.997718
0.224135 -0.247895 0.336495 0.602663 0.0458037 0.79668
-0.231694 0.101238 0.412202 -0.0955707 -0.105805 -0.989784
0.25382 -0.00545469 0.0252424 0.552696 0.027696 0.832922
-0.107276 -0.107105 0.233721 -0.000223641 -0.0675082 -0.997719
-0.264803 -0.253699 0.338457 -0.849568 -0.48287 0.212298
-0.00645435 0.240798 0.417389 0.00348183 0.949386 -0.314093
-0.161178 -0.0390489 0.32641 0.000414001 0.114138 0.993465
-0.223486 0.0911512 0.021563 0.830876 -0.0476703 0.554411
0.241587 -0.203291 0.412585 -0.998086 0.0130177 -0.060449
0.113355 0.230655 0.58297 -0.00317478 -0.883588 0.468255
0.181356 -0.0640397 0.329139 0.000411698 0.114146 0.993464
-0.189548 -0.0999087 0.233252 -0.000223641 -0.0675082 -0.997719
0.267149 -0.266537 0.0101064 -0.989587 -0.0677054 -0.127014
-0.186973 0.228012 0.558483 -0.58068 -0.716297 0.38695
-0.229011 -0.249399 0.252253 -0.952112 0.0487637 -0.301836
0.125729 0.29582 0.645491 0.00113872 0.311123 0.950369
0.0725069 0.26548 0.494571 0.003489 0.951544 -0.307492
-0.201266 -0.0899003 0.232578 -0.000223641 -0.0675082 -0.997719
0.235875 -0.183518 0.294898 0.997179 0.074779 -0.00648133
-0.236758 -0.139087 0.021657 0.830716 -0.0476656 0.554652
0.186547 0.0174312 0.225219 -0.000244763 -0.0675188 -0.997718
0.167794 -0.139548 0.235853 -0.000245866 -0.0675838 -0.997714
-0.141593 -0.214056 0.240965 -0.000245124 -0.0675449 -0.997716
0.258768 0.0448295 0.443309 0.813768 0.0818763 0.575394
-0.24567 0.0174099 0.422517 -0.0964246 -0.105777 -0.989704
0.237512 -0.204346 0.306311 0.997179 0.074779 -0.00648133
-0.243981 -0.0182213 0.0289996 -0.064401 0.00369695 0.997917
-0.228831 -0.122171 0.286084 -0.997108 0.0757688 -0.00588285
-0.127569 0.135737 0.29349 -0.00281563 -0.982172 0.187963
-0.257907 -0.303839 0.157454 0.0237555 -0.996785 0.0765154
0.136331 -0.0960478 0.332835 0.000411698 0.114146 0.993464
-0.150582 -0.0845587 0.331634 0.000414001 0.114138 0.993465
-0.164214 0.0555144 0.310098 0.000616638 0.171079 0.985257
-0.151918 0.183212 0.477941 -0.00326373 -0.925141 0.37961
-0.22014 -0.018576 0.295322 -0.993302 0.114796 -0.013149
0.20249 0.0205241 0.31434 0.469711 0.190723 0.861972
-0.110821 0.290093 0.568668 0.00348791 0.951499 -0.307633
-0.029365 0.227371 0.575806 -0.00316974 -0.883586 0.468259
-0.0180435 0.177393 0.464912 -0.00332643 -0.92518 0.379514
0.248627 0.164057 0.410231 0.578567 -0.0640488 -0.813116
0.139513 0.232565 0.394085 0.00348264 0.949388 -0.314087
-0.156974 -0.0650159 0.329392 0.000414001 0.114138 0.993465
-0.160728 -0.0809744 0.331227 0.000414001 0.114138 0.993465
-0.22316 -0.102919 0.320052 -0.673481 0.123879 0.728751
0.26632 -0.199606 0.413314 0.998094 -0.0134961 0.0602144
-0.124845 0.291789 0.0187635 -0.00366345 -0.996276 0.0861424
-0.148743 0.284454 0.550796 0.00348791 0.951499 -0.307633
0.247229 -0.291563 0.210203 -0.88113 -0.466118 0.0796435
-0.255537 -0.195608 0.00495977 -0.444458 0.0254292 -0.895439
0.01521 -0.1949 0.340913 0.000106236 0.0237178 0.999719
0.191908 0.285626 0.629637 0.970523 0.0715828 0.230135
-0.0736972 0.126571 0.241359 -0.00291697 -0.986147 0.165849
0.0181831 -0.084199 0.232141 -0.000245866 -0.0675838 -0.997714
0.165453 0.151655 0.375675 -0.00356306 -0.971507 0.236985
-0.124308 0.166909 0.433917 -0.00342739 -0.971534 0.236876
0.216387 0.00177157 0.307495 0.670833 0.189003 0.71712
-0.214152 -0.0163932 0.311538 -0.669516 0.192718 0.717361
-0.165555 0.134551 0.286721 -0.00281563 -0.982172 0.187963
-0.0868761 0.104974 0.301462 0.000616638 0.171079 0.985257
0.0302591 -0.0616878 0.328931 0.000414001 0.114138 0.993465
0.0432142 -0.209676 0.240626 -0.000223542 -0.0674783 -0.997721
0.201143 0.200251 0.446733 0.999357 0.00812342 0.0349204
0.180938 0.132889 0.216946 0.249379 -0.0422642 -0.967483
-0.149293 0.279964 0.651008 0.00111792 0.311137 0.950365
0.0764866 0.166385 0.43472 -0.00356306 -0.971507 0.236985
0.235845 -0.208023 0.319611 0.959229 0.0786107 0.271478
0.0229008 0.173244 0.223175 0.0032814 0.895734 -0.444578
0.126498 0.121947 0.230301 0.00357987 0.986582 -0.163226
-0.0812281 0.187967 0.260671 0.00341992 0.944177 -0.329421
-0.242289 -0.246429 0.331092 0.999351 0.0189091 -0.0306519
-0.263306 -0.18174 0.426412 -0.890204 0.313465 -0.330571
-0.151855 0.130008 0.272692 0.0035794 0.98646 -0.163964
0.0596076 -0.0393589 0.229094 -0.000245637 -0.0675209 -0.997718
-0.18771 0.125888 0.235361 -0.00208467 -0.986106 0.166102
-0.048673 0.313619 0.00941859 0.00301617 0.820249 -0.571998
0.0312426 -0.257588 0.342402 8.66052e-05 0.0237914 0.999717
-0.0593463 0.127981 0.249995 -0.00291697 -0.986147 0.165849
-0.150106 -0.318728 0.26811 -0.00356036 -0.98648 -0.163844
-0.0201369 0.294827 0.0257671 -0.00301833 -0.820837 0.571154
-0.073264 0.225359 0.571712 -0.00317689 -0.883591 0.468249
0.0649468 0.226218 0.374077 0.00341576 0.949425 -0.313974
0.129343 0.291168 0.013128 -0.00325896 -0.90494 -0.425527
0.256232 -0.254211 0.000736709 0.0644639 0.00941197 0.997876
0.243406 -0.187745 0.417234 -0.836255 0.32278 -0.443273
0.26164 -0.103965 0.0184316 0.996654 0.0499701 -0.0646804
0.0177762 0.0511183 0.222981 -0.000244763 -0.0675188 -0.997718
0.165441 0.172727 0.455171 -0.00332101 -0.925134 0.379627
-0.092424 0.313009 0.00831801 0.00295552 0.819395 -0.573222
0.0322806 0.189217 0.494183 -0.00339316 -0.92518 0.379514
-0.135006 0.0946683 0.303281 0.000616638 0.171079 0.985257
0.175502 0.145298 0.349432 -0.00366507 -0.982203 0.187789
-0.140668 0.0724421 0.221577 -0.000245637 -0.0675209 -0.997718
-0.088659 0.0373721 0.223937 -0.000245637 -0.0675209 -0.997718
0.0601803 -0.0655716 0.230869 -0.000245866 -0.0675838 -0.997714
-0.227143 0.00508863 0.452151 0.577644 0.0271569 0.815837
-0.153472 0.0333983 0.313932 0.000616638 0.171079 0.985257
-0.188919 0.129839 0.270909 0.00275956 0.986353 -0.164622
-0.158799 0.22088 0.56268 -0.00317689 -0.883591 0.468249
0.163043 0.275341 0.526112 0.00348896 0.951532 -0.307529
0.195239 -0.0602689 0.3287 0.000411698 0.114146 0.993464
0.205538 0.173573 0.331077 0.99942 0.00696545 0.0333428
-0.0793165 -0.0903464 0.332269 0.000414001 0.114138 0.993465
-0.189941 0.256629 0.499129 -0.970179 0.238424 -0.0436726
-0.00693907 0.041422 0.223643 -0.000245637 -0.0675209 -0.997718
-0.241508 -0.224145 0.37778 0.848711 0.45175 -0.274976
-0.18222 -0.0999506 0.233254 -0.000223641 -0.0675082 -0.997719
0.183006 0.128446 0.258454 -0.00351778 -0.986127 0.165952
-0.22028 -0.293207 0.333231 -0.1033 -0.696091 0.710483
-0.216735 0.195291 0.0158386 0.996262 -0.0571614 0.0647724
-0.228434 0.190279 0.402369 -0.0955707 -0.105805 -0.989784
0.265245 -0.284777 0.121764 0.525101 0.849958 -0.042911
-0.185286 -0.0308444 0.228578 -0.000245637 -0.0675209 -0.997718
0.105126 0.298386 0.596761 0.00348803 0.951533 -0.307528
0.240666 0.18639 0.403301 0.0948939 -0.106549 -0.989769
-0.225231 -0.251065 0.247075 -0.535674 -0.0189845 -0.844212
0.152591 -0.195763 0.34092 8.66052e-05 0.0237914 0.999717
-0.00433025 0.15705 0.395217 -0.00342739 -0.971534 0.236876
0.181959 0.215996 0.551197 0.183285 -0.866007 0.465229
0.14952 -0.198865 0.239871 -0.000223542 -0.0674783 -0.997721
0.222411 -0.137284 0.241308 0.952827 0.041029 -0.300727
0.174836 0.189232 0.266957 0.00345845 0.944064 -0.329744
0.14994 -0.0539879 0.230062 -0.000245866 -0.0675838 -0.997714
-0.19314 0.17191 0.226959 -0.432519 0.616898 -0.657544
-0.22515 0.10475 0.025226 0.830716 -0.0476656 0.554652
-0.0888391 0.236825 0.404466 0.00348183 0.949386 -0.314093
0.0854793 -0.217809 0.241167 -0.000223542 -0.0674783 -0.997721
0.0912241 0.293418 0.646319 0.00113872 0.311123 0.950369
-0.0941104 0.214751 0.337671 0.00341259 0.949425 -0.313974
0.0974131 0.0640061 0.30846 0.000620508 0.17107 0.985259
0.261643 -0.256161 0.279674 0.531699 0.807987 -0.253876
-0.21692 0.192008 0.0157878 0.996262 -0.0571614 0.0647724
0.254339 -0.000255786 0.427238 0.578746 -0.0640196 -0.812991
0.0942441 -0.0564001 0.230239 -0.000245866 -0.0675838 -0.997714
0.00972734 -0.185457 0.238996 -0.000223542 -0.0674783 -0.997721
0.148133 -0.317006 0.292747 -0.00344179 -0.953628 0.30097
0.255857 -0.0303936 0.0101278 0.830451 0.0416145 -0.555535
0.0726497 0.187147 0.259924 0.00341941 0.94412 -0.329583
-0.134956 0.128142 0.261836 0.00357946 0.986439 -0.164086
-0.0101611 0.251806 0.45132 0.00348977 0.951544 -0.307492
0.121118 0.211009 0.328768 0.00346313 0.944067 -0.329736
-0.147233 0.127273 0.256343 0.00357946 0.986439 -0.164086
0.230215 0.0831446 0.448671 -0.577717 0.0313084 0.815636
0.244894 -0.254572 0.000210698 -0.0651274 0.00263952 0.997873
-0.046177 0.221477 0.358533 0.00341259 0.949425 -0.313974
-0.029901 0.121394 0.223532 0.00357859 0.986574 -0.163275
0.0964878 0.100576 0.302111 0.000616638 0.171079 0.985257
-0.0331069 0.215972 0.342027 0.00341259 0.949425 -0.313974
0.181595 0.126347 0.245953 -0.00351778 -0.986127 0.165952
-0.128355 0.223607 0.364076 0.00348183 0.949386 -0.314093
-0.252218 -0.289708 0.0244185 0.531705 -0.591956 -0.605704
-0.173664 -0.200108 0.240029 -0.000245124 -0.0675449 -0.997716
0.194045 0.191278 0.281389 0.439207 0.854166 -0.278383
-0.0156364 -0.142928 0.338284 0.000411698 0.114146 0.993464
-0.086299 -0.313493 0.252895 -0.00259222 -0.711465 -0.702717
0.146219 0.0526416 0.310402 0.000620508 0.17107 0.985259
-0.23833 -0.246151 0.280229 -0.997009 0.0770587 -0.00598879
-0.252141 -0.246351 0.371409 0.0317653 -0.910976 0.411234
0.070909 0.221034 0.564528 -0.00317186 -0.883586 0.468259
0.246343 -0.247338 0.00482016 0.842411 -0.511886 -0.168275
0.0713672 -0.215074 0.341387 8.66052e-05 0.0237914 0.999717
0.0949638 0.0820185 0.305334 0.000620508 0.17107 0.985259
0.237648 -0.206807 0.298945 0.997179 0.074779 -0.00648133
0.131084 0.0558331 0.222634 -0.000244763 -0.0675188 -0.997718
0.00130911 -0.139071 0.337834 0.000411698 0.114146 0.993464
-0.067099 -0.320006 0.273998 -0.00356036 -0.98648 -0.163844
0.240112 -0.246544 0.278351 0.997294 0.0698233 -0.0230159
-0.0263871 0.218092 0.558317 -0.00316974 -0.883586 0.468259
-0.0488637 -0.0595272 0.230486 -0.000245866 -0.0675838 -0.997714
-0.0124639 0.121956 0.298466 0.000616638 0.171079 0.985257
0.0395053 0.300441 0.602374 0.00348803 0.951533 -0.307528
0.113265 -0.114671 0.234182 -0.000245866 -0.0675838 -0.997714
0.208043 0.0351617 0.230178 0.9539 0.0818616 -0.288744
0.132261 0.258763 0.474456 0.0034235 0.951578 -0.307388
0.234129 0.285651 0.0166357 0.888246 0.454008 -0.0699682
-0.226074 -0.0844571 0.304471 -0.997108 0.0757688 -0.00588285
0.179421 0.114998 0.299554 0.000620508 0.17107 0.985259
-0.220127 -0.0194315 0.286846 -0.993302 0.114796 -0.013149
0.216519 0.158447 0.41981 -0.992844 -0.0776246 -0.0907474
0.052088 0.304298 0.615493 0.00361235 0.98545 -0.169926
-0.191266 -0.113005 0.334919 0.000414001 0.114138 0.993465
-0.230611 0.19792 0.442565 0.0950016 0.0732652 0.992777
-0.195659 0.139918 0.30575 -0.572979 -0.769667 0.281615
0.0268141 0.0320031 0.224272 -0.000244763 -0.0675188 -0.997718
-0.0209228 0.159455 0.404841 -0.00342739 -0.971534 0.236876
-0.238125 -0.174617 0.0183939 0.996271 -0.0571596 0.0646225
-0.208837 0.0738527 0.256011 -0.993168 0.115073 -0.0193646
0.115171 0.277864 0.533375 0.00348896 0.951532 -0.307529
0.172482 0.148957 0.364718 -0.00356306 -0.971507 0.236985
-0.0492236 -0.156891 0.339903 0.000411698 0.114146 0.993464
-0.179285 0.300136 0.612826 -0.502646 0.823337 -0.26356
0.0634064 0.201062 0.52333 -0.00332101 -0.925134 0.379627
-0.0991547 0.235494 0.400327 0.00348183 0.949386 -0.314093
0.0877676 0.166326 0.217061 0.00135391 0.375888 -0.926664
0.0938294 0.126793 0.296204 0.00248657 0.689872 0.723927
-0.0337418 -0.314098 0.253313 -0.00259222 -0.711465 -0.702717
0.133171 -0.0263477 0.228195 -0.000245637 -0.0675209 -0.997718
0.19018 -0.248628 0.342175 8.66052e-05 0.0237914 0.999717
0.0372203 0.0103742 0.31781 0.000620508 0.17107 0.985259
-0.182913 0.295227 0.633753 -0.73163 0.214162 0.647188
-0.246415 0.13689 0.44139 -0.812647 0.0877967 0.576104
0.206711 0.168968 0.299195 0.99926 0.000746341 0.0384631
0.0181113 0.13268 0.21688 -0.000159747 -0.0428164 -0.999083
0.199922 0.22157 0.476709 0.999357 0.00812342 0.0349204
-0.243728 0.211611 0.423619 -0.994247 0.053168 0.0929855
0.19743 -0.211577 0.24072 -0.000223542 -0.0674783 -0.997721
-0.222586 0.275991 0.00429558 0.0628495 -0.0343407 -0.997432
0.000128969 0.275478 0.524691 0.00342143 0.951533 -0.307528
0.19774 0.227874 0.414965 0.649256 0.733439 -0.201333
-0.0200696 0.295547 0.586561 0.00342143 0.951533 -0.307528
0.121923 0.183224 0.249202 0.00345845 0.944064 -0.329744
0.109683 0.276985 0.650952 -0.000512383 -0.139788 0.990181
-0.252951 0.095 0.437986 -0.994533 0.0520277 0.0905382
0.184871 0.0655863 0.30813 0.000620508 0.17107 0.985259
0.206476 -0.291959 0.336874 -0.00118031 -0.325961 0.945382
0.101677 0.274787 0.523702 0.00348896 0.951532 -0.307529
0.262647 -0.131986 0.452111 0.81862 -0.0175414 0.574067
-0.0438962 0.251449 0.449833 0.00348977 0.951544 -0.307492
-0.209848 -0.0748671 0.23301 -0.558303 -0.0179708 -0.829442
0.0222475 0.172128 0.220921 0.0032814 0.895734 -0.444578
-0.218189 -0.209638 0.241539 -0.555229 -0.0183309 -0.831495
-0.104142 0.0896712 0.30413 0.000616638 0.171079 0.985257
-0.00779394 0.274521 0.650543 -0.000502265 -0.139788 0.990181
0.0280407 0.236807 0.405695 0.00341576 0.949425 -0.313974
-0.152777 -0.144669 0.236273 -0.000223641 -0.0675082 -0.997719
0.0934464 -0.144568 0.338428 0.000411698 0.114146 0.993464
0.223405 0.169026 0.408118 -0.413713 -0.124863 -0.901804
-0.225297 0.0495917 0.0189543 0.996271 -0.0571596 0.0646225
-0.222684 0.0373048 0.428913 0.811123 -0.120146 -0.572402
-0.00167567 0.0923857 0.303594 0.000616638 0.171079 0.985257
-0.0911724 0.130286 0.293514 0.00250154 0.689386 0.724389
-0.018812 0.103479 0.301679 0.000616638 0.171079 0.985257
-0.206218 0.0695046 0.240188 -0.956761 0.0725225 -0.281688
0.213331 -0.0164322 0.315152 0.670833 0.189003 0.71712
0.15302 -0.220721 0.241349 -0.000223542 -0.0674783 -0.997721
-0.22219 -0.31016 0.250611 -0.1773 -0.79943 -0.574001
0.230143 0.203318 0.0287859 -0.442579 -0.0221773 0.896455
0.255413 -0.00401784 0.0218902 0.894908 0.0448445 0.443992
-0.225266 -0.0884283 0.267379 -0.958009 0.0515236 -0.282072
-0.018662 0.289294 0.567228 0.00342143 0.951533 -0.307528
0.223712 -0.18481 0.243062 0.552462 -0.0210287 -0.833273
0.22807 0.0698645 0.0170963 -0.996655 -0.0499432 0.0646809
-0.133111 0.209739 0.322488 0.00339343 0.944091 -0.329666
-0.186583 0.0491873 0.223162 -0.000245637 -0.0675209 -0.997718
-0.252236 0.128398 0.425118 -0.90989 -0.00173474 -0.414847
-0.238278 -0.17604 0.0194935 0.996271 -0.0571596 0.0646225
0.260546 -0.2522 0.290472 0.0353528 0.946043 -0.322107
0.019927 0.186599 0.487689 -0.00339316 -0.92518 0.379514
0.17924 -0.0702613 0.329854 0.000411698 0.114146 0.993464
-0.107077 0.123487 0.222496 -0.00291272 -0.986061 0.16636
0.0560217 -0.225639 0.241703 -0.000223542 -0.0674783 -0.997721
-0.152391 0.140071 0.315765 -0.00281563 -0.982172 0.187963
-0.103684 0.286351 0.557174 0.00348791 0.951499 -0.307633
-0.196039 0.0478656 0.309438 -0.347757 0.189957 0.91814
-0.257403 -0.295184 0.222299 0.0248869 -0.982196 0.186201
0.238339 -0.0825759 0.441195 -0.81529 -0.0512809 -0.576777
0.136748 0.173464 0.456715 -0.00339316 -0.92518 0.379514
-0.240319 0.181218 0.406624 -0.579702 -0.0597677 -0.812634
-0.0662668 -0.0151285 0.227485 -0.000245637 -0.0675209 -0.997718
0.0781639 -0.135083 0.337344 0.000411698 0.114146 0.993464
0.252842 -0.203749 0.00451154 -0.0645611 -0.00324533 -0.997908
-0.217224 0.00386515 0.270974 -0.993302 0.114796 -0.013149
0.147374 -0.0371297 0.228921 -0.000245637 -0.0675209 -0.997718
0.25096 -0.0173537 0.0275353 0.552695 0.0276959 0.832923
-0.118008 0.29474 0.58296 0.00348791 0.951499 -0.307633
-0.0272653 -0.0786473 0.231776 -0.000245866 -0.0675838 -0.997714
0.265165 -0.263244 0.325802 0.469989 -0.838007 0.277228
-0.0618539 0.239626 0.598712 -0.00316974 -0.883586 0.468259
-0.0951493 -0.0381283 0.326277 0.000414001 0.114138 0.993465
0.125914 0.223259 0.569099 -0.00317478 -0.883588 0.468255
0.0575376 -0.321066 0.278848 -0.00344179 -0.953628 0.30097
-0.117943 -0.31823 0.264412 -0.00355806 -0.986469 -0.163908
0.250773 -0.101592 0.0290512 0.0645578 0.00323494 0.997909
0.231309 -0.134236 0.270813 0.957618 0.0443237 -0.28461
-0.00186158 0.220261 0.355336 0.00341259 0.949425 -0.313974
-0.0391782 -0.0272418 0.324389 0.000620508 0.17107 0.985259
-0.108816 0.260144 0.637644 -0.00321277 -0.895582 0.444884
-0.166054 0.21866 0.348703 0.00348183 0.949386 -0.314093
-0.0450886 -0.120189 0.335684 0.000411698 0.114146 0.993464
-0.145096 0.019525 0.225159 -0.000245637 -0.0675209 -0.997718
-0.230126 0.0119978 0.0247071 0.830716 -0.0476656 0.554652
-0.12401 0.236867 0.404203 0.00348183 0.949386 -0.314093
0.171934 0.185723 0.4869 -0.00332101 -0.925134 0.379627
0.208534 0.139655 0.250629 0.999347 0.000348726 0.0361314
0.20026 0.165771 0.386034 0.951923 -0.285092 0.112096
-0.00923209 0.172557 0.221555 0.00322634 0.895734 -0.444578
0.00423212 0.308671 0.0055787 0.00156491 0.42556 -0.904929
0.120567 0.101175 0.219568 -0.000244763 -0.0675188 -0.997718
0.10755 -0.129628 0.235196 -0.000245866 -0.0675838 -0.997714
-0.0452596 0.278392 0.533201 0.00342143 0.951533 -0.307528
0.0725401 -0.0283413 0.228345 -0.000245637 -0.0675209 -0.997718
-0.189668 0.230985 0.412966 -0.644631 0.734146 -0.213265
-0.23135 -0.0503147 0.0211848 0.830876 -0.0476703 0.554411
0.173223 0.127105 0.295634 0.00248657 0.689872 0.723927
-0.136415 0.247672 0.437095 0.00348977 0.951544 -0.307492
0.238498 -0.117207 0.453165 -0.905894 -0.0508883 0.420436
0.13409 0.271995 0.515431 0.003489 0.951544 -0.307492
0.0460316 -0.0721825 0.33013 0.000414001 0.114138 0.993465
0.231832 -0.128917 0.275399 0.997567 0.0694561 -0.00604415
-0.269985 -0.291833 0.143981 -0.999667 -0.024836 0.00700727
0.0093797 0.303531 0.611594 0.00348803 0.951533 -0.307528
-0.0643843 0.256518 0.465286 0.00348977 0.951544 -0.307492
-0.0577592 0.248069 0.439214 0.00348977 0.951544 -0.307492
0.213295 0.0725697 0.275321 0.994113 0.106536 -0.0197526
0.266749 -0.231737 0.365097 0.883444 0.435236 -0.17348
0.135672 -0.066145 0.329399 0.000411698 0.114146 0.993464
-0.237938 -0.105724 0.439861 0.815176 -0.0482354 -0.577201
0.230525 -0.159923 0.264066 0.958314 0.0448633 -0.282174
-0.230246 -0.287135 0.331576 -0.452321 -0.453384 0.768016
0.0439849 -0.0974761 0.233034 -0.000245866 -0.0675838 -0.997714
-0.0956688 0.273904 0.650411 -0.000502267 -0.139788 0.990181
0.169831 -0.295849 0.334243 -0.00241685 -0.667908 0.74424
0.236083 -0.0864789 0.0135606 -0.894874 -0.0448416 -0.44406
0.113204 -0.163661 0.237498 -0.000223641 -0.0675082 -0.997719
