-0.107503 0.127625 0.407148 0.00038863 -0.716834 0.697244
0.0130036 -0.195898 0.424259 6.74202e-05 -0.123934 -0.99229
-0.239136 -0.137397 0.570694 0.596411 -0.788658 -0.149376
-0.196559 0.156779 0.569818 0.0046594 0.994865 0.101101
-0.240396 -0.0951706 0.611443 0.464411 -0.120437 -0.877392
0.224698 -0.0146682 0.400439 -7.48259e-05 0.137298 0.99053
0.00702267 -0.198161 0.087933 0.999434 -0.000698046 0.0336291
-0.237894 -0.120682 0.487399 0.59691 -0.788289 -0.149327
-0.219016 0.030517 0.361681 -0.999673 -0.0212085 -0.0142552
0.111097 0.188847 0.734562 -0.000491315 0.907528 -0.419992
-0.0930753 0.0735651 0.38614 5.03896e-05 -0.0928603 -0.995679
-0.209242 0.0062346 0.0610614 0.0328451 0.134691 -0.990343
0.219953 -0.153176 0.40163 0.0705273 -0.146452 -0.9867
0.244033 -0.130392 0.521633 -0.067017 -0.97983 -0.188259
-0.00421259 0.015124 0.396343 -7.28412e-05 0.133656 0.991028
0.203467 0.159133 0.549164 -0.00456892 0.994819 0.101559
-0.0235779 0.154725 0.642213 0.000516849 -0.952881 0.303344
-0.11419 0.177915 0.70699 -0.000511516 0.944842 -0.327526
-0.211919 0.0684493 0.35117 -0.0700993 -0.169082 -0.983106
0.161484 0.171101 0.692316 0.000511591 -0.94474 0.32782
0.232292 0.0297624 0.392267 0.922008 0.0437987 0.384686
0.0295889 0.0901144 0.388473 1.12925e-05 -0.0206904 0.999786
-0.0395015 -0.281186 0.399126 0.000213253 -0.391513 -0.920173
-0.121951 0.0443321 0.389099 9.13967e-05 -0.16746 -0.985879
0.206581 0.141084 0.507713 -0.000543983 0.991019 0.133717
-0.232746 -0.0502192 0.399726 -0.966887 -0.0471493 -0.250813
-0.00542197 0.313104 0.0593458 -0.14846 0.957057 0.249001
0.0313001 -0.26845 0.430155 2.65232e-05 -0.0486702 -0.998815
-0.0428606 0.198462 0.750584 0.000327282 -0.5993 0.800525
-0.0275504 -0.228195 0.380834 5.91442e-05 -0.108885 -0.994054
0.145905 -0.0090154 0.295454 0.283319 -0.10405 -0.953365
0.247671 -0.114805 0.441648 0.0811931 -0.978605 -0.18905
-0.012823 0.00881653 0.258692 -0.888066 0.457771 -0.0422438
0.149555 -0.183614 0.422734 6.74202e-05 -0.123934 -0.99229
0.0376971 0.140667 0.417494 -0.000527035 0.963413 -0.26802
-0.0338597 -0.16993 0.422567 -7.85219e-05 0.143682 0.989624
0.0178066 -0.00092454 0.297266 -0.0436792 -0.103903 0.993628
0.100855 0.104584 0.392533 0.000197013 -0.363394 0.931636
-0.264855 0.000516628 0.0584393 0.0328451 0.134691 -0.990343
0.184277 -0.217099 0.40163 -0.472889 0.116422 0.873397
0.235817 0.134065 0.595799 -0.596725 0.225589 0.770084
-0.0836104 0.167074 0.675249 -0.000517512 0.952843 -0.303463
0.193671 -0.257996 0.41381 0.0709674 -0.107691 -0.991648
-0.0394386 -0.0501611 0.405381 -7.83202e-05 0.144066 0.989568
-0.0891455 -0.120804 0.41371 7.56159e-05 -0.138885 -0.990308
-0.255112 0.164512 0.480473 -0.454076 0.890751 0.0194158
0.209199 -0.0294867 0.372287 -0.98102 -0.0238087 -0.192441
-0.00283176 -0.224078 0.0601065 -0.134696 0.0328444 -0.990342
0.246954 -0.118375 0.619697 0.0600264 -0.234767 0.970196
-0.153052 0.221713 0.751594 -0.000433066 0.799332 0.600889
0.0211525 0.176932 0.709339 0.000511591 -0.94474 0.32782
-0.00440295 0.0651116 0.105672 -0.211728 0.118062 0.970171
0.0346245 0.210239 0.755488 6.5041e-05 -0.119369 0.99285
0.0637233 0.138003 0.516738 0.000544023 -0.991071 -0.133334
0.113188 -0.218284 0.379757 5.94896e-05 -0.108881 -0.994055
-0.165568 -0.0948852 0.411856 -7.5735e-05 0.139033 0.990288
-0.207202 0.171275 0.687981 -0.000511516 0.944842 -0.327526
-0.215471 0.144873 0.439446 0.000535814 -0.989123 0.147089
-0.216466 0.151419 0.62453 -0.936028 -0.300143 0.183755
-0.254996 0.151189 0.419702 -0.610329 -0.678311 0.409136
0.237752 0.151271 0.564085 -0.463732 -0.872903 -0.151637
0.146173 0.140667 0.427333 0.000489234 -0.903135 0.429356
-0.20838 0.143627 0.478742 0.000536607 -0.983751 -0.179538
-0.121618 0.149539 0.449696 -0.000525594 0.963409 -0.268034
0.0776233 0.0169153 0.292302 0.0551484 0.551818 -0.832139
-0.108285 0.00689297 0.39546 9.16144e-05 -0.167462 -0.985879
-0.0126819 -0.00688638 0.226383 -0.923476 -0.383656 0
-0.0125941 -0.0179004 0.0984621 -0.578633 -0.815588 0
0.0669838 0.00679537 0.0932801 -0.00151663 0.999798 0.0200463
0.170622 -0.289367 0.40791 0.000537631 -0.992816 -0.119647
0.156952 -0.105404 0.411569 7.63179e-05 -0.138892 -0.990308
-0.171816 0.0339681 0.393789 -7.28412e-05 0.133656 0.991028
-0.0689784 -0.00662488 0.10199 0.00151664 -0.999798 0.0200463
-0.170957 -0.120756 0.415488 -7.613e-05 0.139029 0.990288
0.0489987 -0.206371 0.378864 -0.00046614 0.853149 -0.521666
0.21299 -0.119979 0.396205 0.0705273 -0.146455 -0.9867
-0.00648112 0.0480886 0.068064 -0.999716 -0.00472619 -0.0233778
-0.226731 -0.257694 0.431623 -0.49557 0.0126874 0.868476
-0.0379494 -0.241333 0.431091 -4.4579e-05 0.0820463 0.996629
-0.0513001 0.0641069 0.389178 -9.04339e-05 0.165722 0.986172
0.210749 0.14719 0.453465 0.000539531 -0.989112 0.147163
0.0871451 -0.0245881 0.400017 7.50368e-05 -0.137492 -0.990503
0.151218 0.13645 0.561515 -0.000543728 0.996805 -0.0798764
-0.172075 0.208222 0.725687 0.997494 0.00371704 -0.0706596
-0.00658665 -0.171556 0.0925155 -0.999408 -0.00264844 0.0342992
0.00352188 -0.0918976 0.102605 0.211747 -0.118062 0.970167
0.160075 -0.00435211 0.0941959 0.117936 -0.129505 0.98454
-0.0437234 0.104298 0.387247 -0.000224176 0.413122 -0.910676
-0.122043 0.0154636 0.294612 -0.0975816 0.552147 -0.828016
0.0291518 0.14149 0.492673 0.00054209 -0.987551 -0.157301
-0.0764828 0.133648 0.564443 0.000543139 -0.999984 0.00569494
0.217597 -0.066975 0.385011 0.999397 -0.0171418 -0.030199
0.138368 0.0854131 0.388375 1.12925e-05 -0.0206904 0.999786
0.0225179 -0.00804444 0.0893782 0.164169 -0.985919 0.0318161
-0.168519 -0.259404 0.431941 -8.38785e-06 0.0153731 0.999882
0.00958815 -0.0115615 0.211359 0.383569 -0.923512 0
0.161126 0.136989 0.411319 -0.000399342 0.731338 -0.682015
-0.0012045 0.154484 0.062434 1.27248e-05 -0.0367581 -0.999324
-0.0435193 0.0229361 0.392741 9.13967e-05 -0.16746 -0.985879
-0.135351 0.105177 0.387668 -0.000225594 0.413143 -0.910666
-0.223578 -0.202613 0.409194 -0.0703667 -0.145334 -0.986877
0.194062 0.190775 0.695547 0.0228875 0.959886 -0.279453
0.104618 0.062498 0.387182 5.0683e-05 -0.092863 -0.995679
-0.164399 0.139409 0.518653 -0.000485879 0.991094 0.133164
0.215055 0.168027 0.421817 0.996937 0.0599141 0.05027
0.244448 0.0115792 0.365685 0.119809 -0.132457 -0.983921
0.000257209 0.148142 0.618169 -0.000507736 0.940316 -0.340303
-0.196924 -0.0478162 0.403242 7.85941e-05 -0.14401 -0.989576
0.247222 -0.056349 0.385198 0.45111 0.133809 0.88238
0.00457077 -0.239577 0.428747 2.65232e-05 -0.0486702 -0.998815
0.25572 -0.0485527 0.608108 0.608442 -0.0810894 -0.789444
-0.14067 -0.0680218 0.407973 -7.84758e-05 0.144064 0.989568
-0.0966282 0.144033 0.492329 -0.000535413 0.975406 0.220416
-0.105522 -0.230442 0.384809 0.000498309 -0.917393 -0.397981
0.0479399 0.115219 0.392178 -0.000225594 0.413143 -0.910666
0.120951 0.16032 0.653696 -0.000514496 0.952835 -0.303489
0.149311 0.142608 0.499236 -0.000535413 0.975406 0.220416
-0.0878919 0.195158 0.748066 0.000337314 -0.61847 0.785808
0.126277 -0.077393 0.409359 -7.83202e-05 0.144066 0.989568
-0.18144 0.138075 0.422257 0.000493942 -0.903097 0.429437
0.0154311 -0.0773257 0.407553 7.84053e-05 -0.144009 -0.989576
0.167509 -0.0176827 0.322691 -0.744528 -0.52707 0.409725
0.11697 -0.269612 0.430214 2.65232e-05 -0.0486702 -0.998815
-0.120934 -0.231143 0.428333 2.65232e-05 -0.0486702 -0.998815
-0.19618 -0.185612 0.410351 0.0703435 0.14665 0.986684
0.0607253 0.136128 0.558111 -0.000543728 0.996805 -0.0798764
0.063653 -0.271185 0.430289 2.65232e-05 -0.0486702 -0.998815
0.0740802 -0.233417 0.428449 2.65232e-05 -0.0486702 -0.998815
0.193725 -0.190717 0.410952 -0.0704953 0.146583 0.986683
0.00261611 0.0159467 0.289646 -0.0476312 0.703686 0.708912
0.124256 0.00574751 0.301992 -0.112909 0.103294 0.988222
0.0706828 0.14351 0.42765 -0.000527035 0.963413 -0.26802
-0.214168 -0.00229545 0.365316 -0.0693762 -0.206548 -0.975974
-0.140179 0.138595 0.597576 0.000514289 -0.949499 0.31377
-0.180443 0.00455872 0.339929 -0.920156 0.0769931 -0.383908
0.121601 -0.179618 0.422197 7.82194e-05 -0.143786 -0.989609
0.238415 0.155182 0.475692 -0.463511 -0.885434 -0.0341133
0.0794845 0.141762 0.60042 -0.000513596 0.940334 -0.340253
-0.0545674 -0.133209 0.417245 -7.613e-05 0.139029 0.990288
-0.148567 -0.282333 0.399589 0.000213016 -0.391502 -0.920177
0.184162 0.142703 0.584072 0.0243793 0.949914 -0.311558
-0.109359 -0.286426 0.425022 0.000255581 -0.46949 0.882937
0.169731 -0.244173 0.431335 -4.47348e-05 0.0820432 0.996629
0.0109987 -0.263925 0.400012 -0.000327827 0.599864 -0.800102
-0.0197255 0.00996925 0.119249 -0.910217 0.414132 0.000493405
-0.20481 0.0186316 0.393457 9.13967e-05 -0.16746 -0.985879
-0.200796 0.186118 0.733248 0.000491436 -0.907521 0.420007
-0.206976 -0.108694 0.412003 7.56159e-05 -0.138885 -0.990308
-0.113154 0.221699 0.751642 -0.000433066 0.799332 0.600889
0.185512 0.176535 0.657947 0.0258455 0.942487 -0.333243
0.146953 0.213664 0.755565 -0.000213294 0.391456 0.920197
-0.162837 -0.00384811 0.0622357 0.0331061 -0.134661 -0.990339
0.0176428 0.133684 0.56181 0.000547201 -0.999983 0.00577164
0.114867 0.140001 0.414948 -0.000527035 0.963413 -0.26802
-0.204855 0.175465 0.442259 0.994771 0.0731294 -0.0712965
0.0131693 0.201466 0.75281 0.000325007 -0.599384 0.800462
-0.00480355 0.143181 0.432793 0.000489234 -0.903135 0.429356
-0.226185 0.0997051 0.385208 -0.000225594 0.413143 -0.910666
-0.189538 0.0830792 0.38833 1.12907e-05 -0.0206904 0.999786
0.19269 0.0979024 0.384287 -0.000224176 0.413122 -0.910676
-0.119581 -0.100933 0.410921 7.56159e-05 -0.138885 -0.990308
-0.104315 0.107186 0.388572 -0.000225594 0.413143 -0.910666
-0.247933 -0.109442 0.417743 -0.121749 -0.960531 -0.250115
-0.190153 0.168715 0.685995 0.000515446 -0.944729 0.327853
0.215676 0.13384 0.569993 0.000547201 -0.999983 0.00577164
-0.298921 0.00779927 0.0407702 0.965234 0.0730326 -0.250979
0.237994 0.153765 0.518214 -0.462892 -0.885759 -0.0340833
0.105886 -0.0064903 0.0664705 -0.00251621 -0.997931 -0.0642383
0.18942 0.147221 0.478914 -0.000532142 0.975413 0.220386
0.237659 0.119097 0.373145 -0.478546 0.473959 -0.739159
0.0999273 -0.0633961 0.407319 -7.83202e-05 0.144066 0.989568
0.0100464 -0.0113712 0.156781 0.383569 -0.923512 0
0.0598695 0.164498 0.672771 0.000519889 -0.952872 0.303371
0.196716 0.171102 0.68685 -0.000513169 0.944847 -0.327512
0.0172302 0.0430871 0.389324 9.13967e-05 -0.16746 -0.985879
-0.186492 -0.214801 0.426606 6.74202e-05 -0.123934 -0.99229
0.0842274 -0.143097 0.416887 7.90112e-05 -0.143794 -0.989608
-0.10213 0.134522 0.541932 0.000538295 -0.991064 -0.133388
-0.0296243 0.142404 0.60892 0.000520291 -0.949464 0.313874
-0.0108651 -0.136626 0.41594 7.90112e-05 -0.143794 -0.989608
0.0372106 -0.201502 0.42496 6.75397e-05 -0.123936 -0.99229
-0.00854339 0.138775 0.510702 0.000544023 -0.991071 -0.133334
0.0982683 0.0392092 0.393102 -7.27035e-05 0.133657 0.991028
0.194073 0.168794 0.636022 0.0241618 0.950577 -0.309548
0.155917 0.0106136 0.394852 9.16144e-05 -0.167462 -0.985879
0.218534 -0.00701032 0.0725119 -0.00289824 -0.999731 -0.0230184
-0.238678 0.00167187 0.376317 0.611785 0.0871569 0.786208
0.215578 0.0566305 0.390459 -9.04339e-05 0.165722 0.986172
-0.207016 -0.289999 0.417847 0.000503323 -0.919496 0.393098
-0.212223 0.126968 0.406531 0.00038863 -0.716834 0.697244
-0.053427 0.222774 0.726855 -0.000324968 0.599406 -0.800445
-0.200661 0.133509 0.551895 0.000543139 -0.999984 0.00569494
0.228435 0.1377 0.41916 0.525141 -0.753762 0.395055
-0.189959 0.156629 0.622994 0.997438 0.00303547 -0.0714663
-0.0500444 -0.203192 0.384153 -0.000465611 0.853162 -0.521646
-0.21945 0.102784 0.357869 -0.99961 0.0152519 0.0234055
0.0670885 -0.0174125 0.291944 0.055736 -0.552161 -0.831873
-0.0600417 -0.27074 0.397411 -6.51144e-05 0.119148 -0.992877
0.0111319 0.0106163 0.235655 0.923479 0.383649 0
0.0740173 0.178022 0.707004 -0.000513169 0.944847 -0.327512
0.00685725 0.124985 0.0776431 0.999731 -0.00289824 -0.0230198
-0.0713226 -0.0616001 0.407044 -7.84758e-05 0.144064 0.989568
-0.234379 0.158662 0.509847 0 0 1
-0.0851093 -0.21205 0.379062 5.91442e-05 -0.108885 -0.994054
-0.229186 -0.0712089 0.407731 -0.496188 0.119912 0.859895
-0.0979594 0.154699 0.64226 0.000516849 -0.952881 0.303344
-0.134459 0.135529 0.551971 -0.000543728 0.996805 -0.0798764
-0.239186 0.0735669 0.594882 0.46507 -0.0885631 -0.880833
0.0531465 0.14721 0.454178 0.000539531 -0.989112 0.147163
-0.212308 -0.164766 0.399598 -0.0695359 -0.20654 -0.975964
0.226543 -0.0909215 0.41133 -7.5735e-05 0.139033 0.990288
-0.221591 -0.110101 0.40095 0.0703554 0.146581 0.986694
0.203336 -0.236335 0.417377 -0.0712718 0.0712384 0.99491
-0.171972 0.13636 0.588537 0.000539783 -0.986427 0.164202
0.182325 0.189571 0.736044 -0.000491315 0.907528 -0.419992
0.00973044 0.320477 0.0185025 0.997083 0.0698647 0.0307321
-0.095623 -0.246823 0.429098 2.65232e-05 -0.0486702 -0.998815
-0.0444992 -0.00625228 0.297746 0.0483845 -0.160763 0.985806
0.215109 -0.205941 0.42869 -3.14419e-05 0.0579234 0.998321
-0.15295 0.144688 0.437971 0.000535814 -0.989123 0.147089
0.00818742 0.0121442 0.177374 0.382571 0.923926 0
-0.0573236 0.134862 0.409167 -0.000400083 0.731346 -0.682006
0.146587 -0.13667 0.415958 7.90112e-05 -0.143794 -0.989608
0.210278 0.199632 0.743741 0.939667 -0.263597 0.218041
0.225053 0.12277 0.401971 0.000392039 -0.716783 0.697296
-0.156623 -0.282231 0.427266 0.000255581 -0.46949 0.882937
-0.0880057 -0.000675939 0.396684 7.52196e-05 -0.137494 -0.990503
0.0290217 -0.0612902 0.407007 -7.83202e-05 0.144066 0.989568
-0.219747 0.0786479 0.377944 -0.997408 -0.00317437 0.0718827
-0.056105 -0.171191 0.422748 -7.85219e-05 0.143682 0.989624
0.0492281 -0.0907106 0.4095 7.56159e-05 -0.138885 -0.990308
0.00653454 -0.0393944 0.104253 0.999798 0.00151199 0.0200481
0.0679699 -0.27785 0.397732 0.000213016 -0.391502 -0.920177
0.200726 0.15868 0.580461 0.0182227 0.972682 -0.231425
0.11453 0.147749 0.476395 -0.000532142 0.975413 0.220386
-0.182211 0.165961 0.655257 -0.025911 0.946344 -0.322119
0.00734077 -0.262936 0.077135 0.999434 -0.000698046 0.0336291
0.125993 0.136631 0.540387 -0.000485879 0.991094 0.133164
-0.208976 0.126094 0.375459 0.992498 0.0373716 -0.116413
-0.137648 -0.264607 0.399562 -0.000327016 0.599832 -0.800126
-0.218857 -0.0250465 0.388115 0.0702686 0.146585 0.986699
-0.20112 -0.024375 0.386751 0.0704837 0.146625 0.986678
-0.262449 0.155338 0.569657 -0.620269 0.728536 0.290693
0.138929 0.205369 0.66468 0.33921 0.655028 -0.675185
0.0496381 0.225377 0.669685 -0.000510982 0.95341 0.301678
0.123508 0.146927 0.452019 0.000539531 -0.989112 0.147163
-0.0309771 0.133664 0.562881 0.000547201 -0.999983 0.00577164
0.0446344 0.00644838 0.0673627 -0.00472655 0.999717 -0.0233238
0.175084 0.00226639 0.348595 -0.902654 0.0766727 0.423481
0.226241 -0.121898 0.415679 -7.5735e-05 0.139033 0.990288
0.226414 -0.250443 0.415332 0.070912 -0.10774 -0.991647
0.0898625 0.161158 0.662229 0.000519889 -0.952872 0.303371
-0.00679675 0.08666 0.0947425 -0.999798 -0.00151223 0.0200466
-0.166638 0.143027 0.482356 0.000538164 -0.987539 -0.157376
-0.0963755 -0.0434611 0.402622 7.50368e-05 -0.137492 -0.990503
0.101056 0.225842 0.73157 -0.000498461 0.919414 -0.393292
-0.13451 0.176017 0.706948 0.000515446 -0.944729 0.327853
-0.00925161 -0.0123304 0.277362 -0.470144 -0.881489 -0.0440685
0.114504 -0.023121 0.399815 7.50368e-05 -0.137492 -0.990503
-0.137652 -0.00519464 0.0968013 -0.117693 -0.129601 0.984557
0.205282 0.037992 0.372195 0.0704997 -0.146442 -0.986704
0.243694 0.0434727 0.607955 -0.0661435 0.08794 0.993927
0.214652 0.143632 0.47998 0.000536099 -0.983749 -0.179547
-0.00634456 -0.073608 0.0655746 -0.134696 0.0328444 -0.990342
-0.17721 0.136411 0.540921 -0.000485879 0.991094 0.133164
0.127843 -0.283569 0.426472 0.000256155 -0.469476 0.882945
-0.0897224 0.139933 0.601542 0.000514289 -0.949499 0.31377
0.0432506 0.158086 0.652659 0.000516849 -0.952881 0.303344
-0.0125808 0.14683 0.45186 0.000539531 -0.989112 0.147163
-0.00976385 -0.268755 0.432086 -8.38785e-06 0.0153731 0.999882
-0.133191 -0.187566 0.423208 6.74202e-05 -0.123934 -0.99229
-0.11079 -0.20476 0.386982 -0.000460526 0.842875 0.538109
0.0829424 0.190389 0.742144 0.000494948 -0.907494 0.420064
-0.092355 -0.00129305 0.28723 -0.0873483 -0.160508 -0.983162
0.255501 0.152949 0.415036 0.622045 0.64566 -0.442925
-0.0660663 0.0498577 0.388352 5.0683e-05 -0.092863 -0.995679
0.0035909 -0.296263 0.0496317 0.0735585 0.965148 -0.251153
-0.0812049 -0.0982055 0.412329 -7.5735e-05 0.139033 0.990288
-0.194608 -0.140831 0.397966 -0.0703368 -0.146569 -0.986697
0.188222 -0.063331 0.407316 -7.83202e-05 0.144066 0.989568
-0.0397595 0.138276 0.514284 0.000544023 -0.991071 -0.133334
0.171723 0.147934 0.443353 -0.000527035 0.963413 -0.26802
0.231516 0.0886625 0.597309 -0.611744 -0.0811435 -0.786883
0.0609176 -0.128983 0.414869 7.63179e-05 -0.138892 -0.990308
-0.24281 -0.0626044 0.387413 0.145904 0.147436 0.978251
0.113528 -0.267036 0.397845 -6.51144e-05 0.119148 -0.992877
-0.193102 -0.0583733 0.375241 -0.830581 -0.10176 -0.547522
0.0389113 -0.257425 0.408239 -0.000500479 0.919324 -0.393501
0.00651926 0.0280493 0.0708845 0.9865 0.15923 -0.0382667
-0.0182353 0.214446 0.755194 -0.000213294 0.391456 0.920197
0.197251 -0.00441789 0.378403 -0.747772 0.0536225 0.661786
-0.156987 -0.222965 0.392553 0.228086 0.114039 0.966939
0.22014 0.135292 0.547055 0.557318 -0.827059 -0.073273
-0.0498771 0.148131 0.444496 -0.000525594 0.963409 -0.268034
-0.193003 -0.255255 0.413462 0.997266 0.00271229 -0.0738493
0.186745 -0.103863 0.411355 7.63179e-05 -0.138892 -0.990308
0.0164071 -0.203967 0.385849 -0.000460004 0.842888 0.538089
-0.173183 -0.192364 0.426333 -0.000102405 0.188654 0.982044
0.0345604 -0.161346 0.419535 7.82194e-05 -0.143786 -0.989609
-0.0204316 -0.00807554 0.150487 -0.95039 -0.310855 0.0113238
-0.180597 0.227649 0.7363 -0.000542109 0.99268 0.120776
-0.14619 -0.000820335 0.294658 -0.286285 -0.0991019 -0.953006
-0.0176513 0.0869925 0.384891 5.03896e-05 -0.0928603 -0.995679
0.011316 -0.00728184 0.397609 7.52196e-05 -0.137494 -0.990503
-0.00511429 0.173452 0.693946 -0.000513169 0.944847 -0.327512
-0.144452 0.157278 0.644595 -0.000517512 0.952843 -0.303463
0.091989 0.149047 0.4706 -0.000532142 0.975413 0.220386
-0.16435 -0.0446277 0.402781 7.85941e-05 -0.14401 -0.989576
0.0107535 0.00237816 0.110106 0 0 -1
-0.0343504 -0.2725 0.432144 -8.38785e-06 0.0153731 0.999882
-0.20949 -0.272136 0.397254 -6.51144e-05 0.119148 -0.992877
-0.198192 0.00127858 0.0900831 -0.118458 0.211636 0.970143
0.191615 -0.038662 0.370616 -0.859431 0.0587494 0.507865
0.263946 -0.00418814 0.0589686 -0.0328451 -0.134687 -0.990344
0.178548 0.139224 0.521383 -0.000543983 0.991019 0.133717
0.157398 -0.079905 0.409727 -7.83202e-05 0.144066 0.989568
-0.235184 0.013651 0.605452 0.597405 0.0681733 0.799037
-0.13983 0.139829 0.502515 0.00054209 -0.987551 -0.157301
-0.078138 -0.223692 0.429711 -3.15817e-05 0.0579206 0.998321
-0.302528 -0.00137269 0.00565343 0.845449 -0.226245 0.483766
0.111442 0.137976 0.595289 0.000514289 -0.949499 0.31377
-0.0587051 -0.000945618 0.396724 7.52196e-05 -0.137494 -0.990503
-0.221371 -0.00699243 0.086557 -0.117693 -0.129601 0.984557
0.00758317 -0.0355582 0.401533 7.50368e-05 -0.137492 -0.990503
-0.0791753 0.146343 0.464245 0.000536607 -0.983751 -0.179538
0.178377 -0.259787 0.403046 -0.000327016 0.599832 -0.800126
-0.23566 0.0615075 0.367335 0.611785 0.0871569 0.786208
0.219403 0.146601 0.532508 0.997436 -0.00223339 0.0715332
0.00663539 0.169779 0.0912318 0.999408 0.00264872 0.0343001
-0.156423 0.12138 0.395024 -0.000225594 0.413143 -0.910666
0.204637 0.138797 0.423332 0.000489234 -0.903135 0.429356
-0.18032 0.0106745 0.394811 9.13967e-05 -0.16746 -0.985879
0.226787 -0.00108289 0.385157 -0.0704205 0.146512 0.986699
-0.0221349 0.162956 0.668067 0.000519889 -0.952872 0.303371
-0.114259 -0.257088 0.409222 -0.000500479 0.919324 -0.393501
0.30762 -0.00964256 0.0311053 -0.0754774 -0.996962 0.0192603
-0.227081 0.121892 0.39264 -0.064142 0.468038 -0.881378
-0.232391 0.0262182 0.385713 -0.609778 -0.110931 -0.784771
-0.267495 -0.00101021 0.0818309 -0.117693 -0.129601 0.984557
0.195039 -0.0906365 0.399877 0.0706272 -0.146433 -0.986696
0.156705 0.0925412 0.388522 1.12925e-05 -0.0206904 0.999786
-0.119232 -0.0563777 0.404494 7.85941e-05 -0.14401 -0.989576
-0.125999 0.142616 0.424821 -0.000525594 0.963409 -0.268034
-0.0620459 -0.00415722 0.0658341 0.0367584 2.50058e-05 -0.999324
-0.314554 -0.00933063 0.044307 -0.0665924 -0.996477 0.050988
0.207417 0.15019 0.629409 0.000504604 -0.930305 0.366787
0.0181733 0.00946949 0.154523 0 0 1
0.173022 0.186473 0.712159 0.0263115 0.940405 -0.339037
0.213088 0.1717 0.450027 0.995111 0.0682276 0.0714109
0.0167038 0.137981 0.59546 0.000514289 -0.949499 0.31377
0.186029 -0.270717 0.430269 2.65232e-05 -0.0486702 -0.998815
0.218459 -0.0426458 0.391186 0.997514 -0.00219725 0.0704317
0.196457 0.0727922 0.37861 -0.997429 0.00202859 -0.0716324
0.0946947 -0.126716 0.414553 7.63179e-05 -0.138892 -0.990308
-0.0595189 0.133628 0.559357 0.000543139 -0.999984 0.00569494
-0.163686 -0.00827802 0.325259 0.853075 -0.0985284 0.512402
0.0689497 0.224256 0.727915 -0.000324968 0.599406 -0.800445
-0.236263 0.15828 0.463522 0.611583 -0.790638 -0.0292966
0.0528563 0.140712 0.49764 0.00054209 -0.987551 -0.157301
0.134581 0.178554 0.713838 0.000511591 -0.94474 0.32782
0.184573 0.226866 0.744373 -0.000542109 0.99268 0.120776
0.207926 0.00433796 0.0885135 0.117693 0.129621 0.984554
0.161051 -0.204641 0.387671 -0.0440488 0.842185 0.537386
-0.228153 0.149662 0.412796 -0.99744 -0.00299683 0.071439
-0.214 0.141296 0.504431 -0.000543983 0.991019 0.133717
0.307048 0.0101959 0.020055 -0.0739302 0.997245 0.00602318
0.230215 -0.159416 0.419398 0.480086 0.118854 0.869133
0.200369 -0.0254732 0.401935 -7.48259e-05 0.137298 0.99053
-0.0980714 0.046513 0.392102 -7.27035e-05 0.133657 0.991028
-0.231036 -0.143743 0.410368 -0.966398 -0.0483384 -0.252466
0.14458 0.166276 0.672353 -0.000514496 0.952835 -0.303489
0.00799828 -0.32336 0.0200309 0.0776085 -0.973917 0.213222
0.230011 0.0659428 0.370417 0.0709078 -0.110613 -0.991331
0.258897 -0.0205088 0.608185 0.620917 0.0658455 0.781106
0.000194965 -0.162154 0.0621519 -1.96792e-05 0.0367585 -0.999324
0.046623 0.0246608 0.392456 9.16144e-05 -0.167462 -0.985879
-0.0908783 -0.266588 0.432052 -8.38785e-06 0.0153731 0.999882
0.228604 0.162778 0.500901 0.000339954 -0.588027 0.808842
-0.125685 0.127396 0.4012 -0.000400083 0.731346 -0.682006
0.0967523 -0.0890257 0.41105 -7.84758e-05 0.144064 0.989568
-0.0201335 0.177943 0.712317 0.000511591 -0.94474 0.32782
0.200045 -0.145036 0.417178 7.82194e-05 -0.143786 -0.989609
-0.198456 -0.254409 0.429465 2.65232e-05 -0.0486702 -0.998815
-0.207266 -0.172589 0.422939 -7.85219e-05 0.143682 0.989624
-0.177086 0.18857 0.686307 -0.628122 0.734271 -0.257504
-0.109674 0.210609 0.666706 0.112289 -0.880315 -0.460908
0.00966907 -0.302196 0.0308089 0.992637 0.0852752 0.0860257
-0.258299 -0.123603 0.512765 -0.652179 0.747605 0.125501
0.208995 -0.210482 0.40933 0.0704904 -0.145296 -0.986874
0.0946742 -0.25555 0.429528 2.65232e-05 -0.0486702 -0.998815
-0.176544 0.0570502 0.390352 -9.01482e-05 0.165727 0.986172
0.19048 0.160227 0.609435 0.0241894 0.950581 -0.309533
0.21219 0.139666 0.371714 0.0585856 0.605814 -0.793447
-0.0408464 -0.214912 0.429203 -3.15817e-05 0.0579206 0.998321
-0.0537586 0.174113 0.695927 -0.000513169 0.944847 -0.327512
-0.260021 0.0831475 0.600407 -0.621082 0.0651366 0.781034
0.0334099 0.188246 0.733355 -0.000491315 0.907528 -0.419992
-0.225994 0.149623 0.489404 -0.941064 0.317595 0.116326
-0.223919 -0.0423306 0.374089 0.000296968 -0.588648 -0.808389
-0.00269176 -0.220204 0.429511 -3.15817e-05 0.0579206 0.998321
-0.00529816 0.255452 0.082706 -0.129641 0.117693 0.984551
-0.160985 0.190377 0.738187 -0.000490433 0.907521 -0.420006
-0.0322661 -0.0771762 0.407528 7.84053e-05 -0.144009 -0.989576
0.22569 0.159967 0.445267 0.997424 -0.00216305 0.071697
-0.144259 0.151359 0.459795 -0.000532142 0.975413 0.220386
-0.0538411 0.0147737 0.289344 -0.0557495 0.551734 -0.832155
0.0985063 -0.182584 0.422602 6.74202e-05 -0.123934 -0.99229
-0.193534 0.156169 0.647041 0.000516849 -0.952881 0.303344
-0.00709744 0.226348 0.0649235 -0.998112 -0.00435999 -0.0612648
-0.0842337 0.133187 0.412853 0.000392039 -0.716783 0.697296
-0.0305326 -0.287922 0.422481 0.000500586 -0.919551 0.392969
-0.260463 0.0143834 0.603507 -0.609117 -0.081731 -0.788858
0.0102094 0.212555 0.668764 0.000510832 -0.943326 0.331867
0.210072 0.00815903 0.397298 -7.27035e-05 0.133657 0.991028
0.00406685 -0.112591 0.412565 7.63179e-05 -0.138892 -0.990308
0.0767777 0.0997427 0.39065 0.000198322 -0.363372 0.931644
-0.143446 0.137409 0.57549 -0.000544439 0.996805 -0.0798693
0.172477 0.041491 0.389609 9.16144e-05 -0.167462 -0.985879
-0.197251 0.147399 0.456365 0.000539531 -0.989112 0.147163
-0.0435524 0.186112 0.728833 -0.000491315 0.907528 -0.419992
-0.102015 -0.166979 0.422133 -7.85219e-05 0.143682 0.989624
-0.11265 -0.00553527 0.0641428 0.0331061 -0.134661 -0.990339
0.198214 0.152672 0.519722 -0.00769472 0.990687 0.135941
0.174813 0.136577 0.562936 -0.000543728 0.996805 -0.0798764
0.190581 0.182422 0.675009 0.0256356 0.943532 -0.330287
-0.0718354 0.151575 0.627763 -0.000507736 0.940316 -0.340303
-0.161641 -0.145301 0.418981 -7.85219e-05 0.143682 0.989624
0.0904687 0.00422146 0.102626 0.118061 0.211801 0.970156
-0.212365 -0.235395 0.412686 -0.0707953 -0.107821 -0.991646
-0.176188 -0.274355 0.416574 -0.000542319 0.995173 0.0981362
0.0710447 -0.0373012 0.403565 -7.46419e-05 0.137299 0.99053
0.124232 -0.204095 0.386141 -0.000460004 0.842888 0.538089
0.143665 0.227711 0.735887 -0.000502133 0.919479 -0.393139
-0.25881 0.160792 0.544996 -0.621967 0.782717 0.022595
-0.153195 0.0522656 0.388123 5.0683e-05 -0.092863 -0.995679
-0.200133 0.15677 0.488371 0.00663736 0.990697 0.135921
0.162583 -0.219239 0.42946 -3.14419e-05 0.0579234 0.998321
-0.122523 0.18594 0.728555 -0.000490433 0.907521 -0.420006
-0.197801 0.13748 0.576741 -0.000544439 0.996805 -0.0798693
0.0121005 0.137617 0.42107 0.000493942 -0.903097 0.429437
-0.255902 -0.134111 0.5511 -0.664563 -0.731358 -0.153206
-0.141606 -0.00748338 0.399415 -7.46419e-05 0.137299 0.99053
-0.23993 -0.0261414 0.604514 0.46507 -0.0885631 -0.880833
-0.20284 0.158198 0.603554 -0.978517 0.20616 0.00159799
-0.0301717 0.00129235 0.281719 -0.0875201 0.160529 -0.983143
0.09491 0.179383 0.716289 0.000511591 -0.94474 0.32782
-0.0363013 0.00645943 0.105412 -0.000275683 0.999806 0.0196853
0.0747896 0.047285 0.388616 9.13967e-05 -0.16746 -0.985879
0.200691 0.14335 0.604624 -0.000513596 0.940334 -0.340253
0.0450629 0.175391 0.69946 -0.000513169 0.944847 -0.327512
-0.152526 0.00680241 0.0863646 -0.000275683 0.999806 0.0196853
-0.207105 0.150086 0.543745 -0.991024 0.10308 0.0851196
0.222086 -0.267838 0.432074 -8.35317e-06 0.0153738 0.999882
0.155965 0.0133566 0.303226 0.511781 0.551663 -0.658596
-0.20051 0.156776 0.425583 -0.0238259 0.956722 -0.290027
0.131616 -0.25123 0.431818 -8.35317e-06 0.0153738 0.999882
0.256261 -0.0743206 0.611172 0.608442 -0.0810894 -0.789444
-0.0642682 0.215452 0.754755 -0.000213294 0.391456 0.920197
-0.0841291 -0.190322 0.423556 6.74202e-05 -0.123934 -0.99229
0.00717728 -0.152885 0.080759 0.999798 0.00151199 0.0200481
-0.225718 0.0432645 0.382151 -0.0704966 -0.14596 -0.986776
-0.164172 0.099013 0.390417 0.000198322 -0.363372 0.931644
0.148001 -0.290096 0.413871 0.000543477 -0.992852 -0.119354
0.209237 0.0915586 0.36615 -0.992614 0.0206541 -0.119543
-0.119892 0.0768599 0.385831 5.03896e-05 -0.0928603 -0.995679
0.0557803 -0.230692 0.387735 0.000498251 -0.917369 0.398038
-0.00706879 0.104235 0.0825007 -0.999798 -0.00151223 0.0200466
-0.104853 -0.281391 0.399199 0.000213016 -0.391502 -0.920177
0.0206802 -0.00787178 0.135097 0.910362 -0.413806 -0.00254445
0.0892477 -0.221274 0.429576 -3.15817e-05 0.0579206 0.998321
0.25454 0.0933652 0.601737 0.454619 0.0767925 0.887369
-0.198291 0.0834629 0.367337 -0.0708838 0.189259 -0.979365
-0.187375 -0.00459062 0.356255 -0.918798 -0.0522601 -0.391254
0.0474299 0.137141 0.536305 -0.000485879 0.991094 0.133164
0.0106661 -0.0111138 0.184663 0.383569 -0.923512 0
-0.196461 0.0650587 0.379323 0.997429 0.00326948 -0.0715831
-0.044357 0.151853 0.628491 -0.000507736 0.940316 -0.340303
0.242046 -0.125051 0.494543 -0.0671577 -0.97982 -0.188261
-0.0168886 0.0139864 0.141846 -0.807691 0.589605 0
-0.0597176 0.217976 0.67462 0.000298173 -0.556342 0.830953
-0.104233 0.139645 0.517117 -0.000485879 0.991094 0.133164
-0.00661406 -0.0540347 0.0972875 -0.999805 -0.000275025 0.0197355
0.2043 -0.278316 0.397962 0.000213253 -0.391513 -0.920173
0.0765105 0.137467 0.574712 -0.000543728 0.996805 -0.0798764
0.0347851 0.145091 0.471447 0.000536099 -0.983749 -0.179547
0.211742 -0.179397 0.423961 -7.86774e-05 0.143681 0.989624
-0.143385 -0.103615 0.413083 -7.613e-05 0.139029 0.990288
0.0290996 0.0651227 0.389015 -9.04339e-05 0.165722 0.986172
-0.167527 -0.240419 0.428784 2.65232e-05 -0.0486702 -0.998815
-0.194655 -0.0243541 0.40175 -7.46419e-05 0.137299 0.99053
0.010419 0.106534 0.388248 -0.000224176 0.413122 -0.910676
-0.00178495 -0.314447 0.0593506 0.251168 -0.936762 0.243705
-0.10812 0.144358 0.475038 0.000536099 -0.983749 -0.179547
0.0920693 -0.206578 0.378487 -0.00046614 0.853149 -0.521666
0.192353 0.197114 0.716969 0.0495803 0.741047 -0.66962
-0.205743 -0.0768355 0.409251 -7.84758e-05 0.144064 0.989568
0.0715152 -0.290199 0.417024 0.000503323 -0.919496 0.393098
0.286197 0.00697123 0.0575822 -0.0110436 0.997876 -0.0642031
0.22986 -0.0430908 0.374823 -0.000324044 0.588839 0.80825
0.0671607 -0.0130261 0.4002 -7.48259e-05 0.137298 0.99053
0.252682 0.149985 0.588001 0.451682 0.572096 0.684609
0.0283297 0.00966863 0.282822 0.0829058 0.104166 -0.991098
0.00679193 0.0556625 0.0882962 0.999804 0.000283226 0.0197851
0.202744 0.12342 0.381102 0.0623143 0.518182 -0.852998
0.0574411 -0.18254 0.42447 -0.000103092 0.188641 0.982046
0.0120445 0.14418 0.476369 0.000536099 -0.983749 -0.179547
-0.0155744 -0.0491225 0.405232 -7.83202e-05 0.144066 0.989568
-0.108911 0.165773 0.677063 0.000519889 -0.952872 0.303371
0.216173 -0.0949372 0.385125 0.0697422 -0.206772 -0.9759
0.232289 0.0309573 0.602659 -0.611744 -0.0811435 -0.786883
0.106343 0.0140256 0.292289 0.0551484 0.551818 -0.832139
0.219587 0.105618 0.379768 0.99743 -0.00232405 0.0716055
-0.251268 -0.0744892 0.618259 -0.0604132 0.0879784 0.994289
0.00646573 0.0847776 0.385099 5.03896e-05 -0.0928603 -0.995679
0.105822 -0.154844 0.418596 7.82194e-05 -0.143786 -0.989609
0.0646562 -0.209706 0.428904 -3.14419e-05 0.0579234 0.998321
-0.0683416 -0.240635 0.431033 -4.4579e-05 0.0820463 0.996629
-0.14686 0.170826 0.686592 -0.000513169 0.944847 -0.327512
0.0865553 -0.274896 0.423511 -0.000542319 0.995173 0.0981362
-0.0583654 0.16381 0.67081 0.000519889 -0.952872 0.303371
-0.192345 -0.238892 0.423331 0.997465 0.00310412 -0.0710844
0.170616 0.134766 0.541219 0.000538295 -0.991064 -0.133388
0.135322 0.135052 0.579671 0.0005343 -0.986445 0.164092
-0.02085 0.0364438 0.393466 -7.27035e-05 0.133657 0.991028
-0.0329332 -0.00383284 0.398918 -7.48259e-05 0.137298 0.99053
0.221418 -0.061996 0.407125 -7.83202e-05 0.144066 0.989568
0.0533041 0.0177308 0.29128 -0.0476312 0.703686 0.708912
0.0257774 0.126764 0.400434 -0.000399342 0.731338 -0.682015
-0.196104 0.203321 0.721868 -0.0686409 0.329128 -0.941787
-0.165328 -0.206972 0.382618 -0.21199 0.83316 -0.510788
-0.0623883 0.188865 0.739024 0.000494948 -0.907494 0.420064
0.31602 -0.00754083 0.0587981 0.980163 -0.0768187 0.182702
0.16395 0.0071898 0.0749624 -0.00472655 0.999717 -0.0233238
0.00415105 0.158282 0.653341 0.000516849 -0.952881 0.303344
-0.191098 -0.0966344 0.410313 7.56159e-05 -0.138885 -0.990308
-0.202154 0.178153 0.713209 0.000515446 -0.944729 0.327853
0.0295125 -0.0171851 0.289276 0.055736 -0.552161 -0.831873
-0.180399 0.194212 0.708444 -0.0267204 0.943512 -0.33026
-0.100584 0.133633 0.564076 0.000543139 -0.999984 0.00569494
-0.0341948 0.226938 0.742806 -0.00053892 0.992697 0.120631
0.199193 0.0575869 0.374647 -0.0706992 0.133533 0.988519
0.103313 0.12383 0.403129 0.000392039 -0.716783 0.697296
0.177479 -0.145106 0.417187 7.82194e-05 -0.143786 -0.989609
0.140634 -0.0210344 0.401315 -7.48259e-05 0.137298 0.99053
-0.13842 0.147848 0.623948 0.000509773 -0.93027 0.366876
0.187613 -0.231583 0.428363 2.65232e-05 -0.0486702 -0.998815
-0.000780698 0.0759029 0.0653245 1.27248e-05 -0.0367581 -0.999324
0.206485 0.151871 0.405509 -0.9925 0.0543691 -0.10949
-0.00654316 -0.200392 0.0635978 -0.997925 0.00251525 -0.0643411
-0.128118 -0.0785613 0.409509 -7.84758e-05 0.144064 0.989568
0.21827 -0.263952 0.411549 0.0577873 0.613899 -0.787267
-0.207259 0.163485 0.528651 -0.991441 0.0896623 0.0949002
-0.01944 -0.159614 0.42107 -7.85219e-05 0.143682 0.989624
0.199011 0.154568 0.505956 -0.00769822 0.990687 0.135939
0.142275 0.154144 0.634542 -0.000507736 0.940316 -0.340303
-0.00618601 0.012973 0.219875 -0.383491 0.923544 0
-0.260785 -0.0394132 0.610021 -0.621082 0.0651366 0.781034
-0.21711 -0.092164 0.388835 -0.998459 -0.0213587 -0.051223
0.172872 -0.182798 0.422634 6.74202e-05 -0.123934 -0.99229
-0.0339536 -0.0281761 0.402292 -7.46419e-05 0.137299 0.99053
-0.231886 -0.0119383 0.390812 -0.610945 -0.114705 -0.783319
-0.218086 -0.0218362 0.371135 -0.999766 -0.0157117 -0.014849
0.174079 0.142479 0.486964 0.00054209 -0.987551 -0.157301
-0.208572 -0.19912 0.424646 6.74202e-05 -0.123934 -0.99229
0.200882 0.0186774 0.374747 0.0704995 -0.146458 -0.986701
-0.0345026 0.144417 0.474936 0.000536099 -0.983749 -0.179547
0.0503104 -0.251799 0.429344 2.65232e-05 -0.0486702 -0.998815
0.238829 0.110832 0.601136 -0.481341 0.0752184 0.8733
-0.139818 -0.160088 0.42113 -7.85219e-05 0.143682 0.989624
0.0168387 -0.259931 0.429739 2.65232e-05 -0.0486702 -0.998815
0.0114347 -0.0187216 0.104531 0.581185 -0.813771 0
0.183875 -0.041291 0.402342 7.50368e-05 -0.137492 -0.990503
0.0754655 -0.0841305 0.408548 7.84053e-05 -0.144009 -0.989576
0.145632 0.0648977 0.38696 5.0683e-05 -0.092863 -0.995679
-0.258136 -0.109866 0.614356 -0.609846 0.102876 -0.785814
-0.121933 0.155345 0.638486 -0.000514496 0.952835 -0.303489
-0.0913077 -0.00701092 0.0844254 0.00151664 -0.999798 0.0200463
-0.0538172 0.0821265 0.385343 5.03896e-05 -0.0928603 -0.995679
0.0553299 0.0893471 0.388457 1.12925e-05 -0.0206904 0.999786
-0.0761602 0.140911 0.495944 0.000538164 -0.987539 -0.157376
-0.019778 -0.188656 0.425637 -0.000103092 0.188641 0.982046
-0.180817 -0.172901 0.421197 7.90112e-05 -0.143794 -0.989608
0.088728 0.133708 0.548749 0.000538295 -0.991064 -0.133388
-0.213392 -0.116954 0.389546 -0.0695718 -0.20655 -0.975959
-0.100563 0.149022 0.447796 -0.000525594 0.963409 -0.268034
-0.0151385 0.136158 0.543399 -0.000485879 0.991094 0.133164
-0.195792 0.0428023 0.372181 -0.657348 0.0124218 -0.753485
0.233665 -0.129229 0.542289 -0.596079 -0.788919 -0.149321
-0.0811675 0.177004 0.70431 -0.000511516 0.944842 -0.327526
-0.208529 0.0751125 0.388165 1.12907e-05 -0.0206904 0.999786
0.101894 -0.00162746 0.398622 -7.48259e-05 0.137298 0.99053
-0.201281 0.033237 0.393885 -7.28412e-05 0.133656 0.991028
0.23167 0.0288495 0.369091 -0.596076 -0.113461 -0.794871
0.0159552 -0.152176 0.419993 -7.86774e-05 0.143681 0.989624
-0.0153736 -0.247623 0.429139 2.65232e-05 -0.0486702 -0.998815
-0.180177 0.176179 0.702086 -0.000511516 0.944842 -0.327526
0.15744 -0.275551 0.39682 -6.48203e-05 0.119133 -0.992878
0.00676253 0.223407 0.749456 -0.000433066 0.799332 0.600889
0.0166554 0.0259407 0.394885 -7.27035e-05 0.133657 0.991028
0.158718 0.136726 0.589661 0.0005343 -0.986445 0.164092
0.0754283 0.142624 0.485715 0.000538164 -0.987539 -0.157376
-0.219309 0.0513441 0.363001 -0.999899 -0.0125487 0.0066091
-0.0419206 0.136116 0.586644 0.0005343 -0.986445 0.164092
0.0331294 -0.222873 0.380254 5.91442e-05 -0.108885 -0.994054
-0.185694 -0.00280075 0.0613292 0.0331061 -0.134661 -0.990339
-0.240371 -0.139661 0.591518 0.482555 -0.874397 0.0507109
-0.117766 0.0918273 0.384435 5.03896e-05 -0.0928603 -0.995679
0.167101 0.140724 0.510221 -0.000543983 0.991019 0.133717
0.212135 -0.180329 0.402914 0.0697081 -0.206466 -0.975968
-0.217317 -0.0346078 0.40317 -7.46419e-05 0.137299 0.99053
0.22213 -0.22581 0.41235 0.070912 -0.10774 -0.991647
0.0168053 0.17269 0.691711 -0.000513169 0.944847 -0.327512
-0.313426 0.00789316 0.0600854 0.0941764 0.992479 0.0782034
0.0972063 0.137822 0.579004 -0.000543728 0.996805 -0.0798764
0.00660318 0.264867 0.0620088 0.997925 -0.00251526 -0.0643413
0.252172 -0.107263 0.422626 0.622801 -0.747911 -0.22967
0.208103 -0.110082 0.414018 -7.5735e-05 0.139033 0.990288
0.0641725 0.134443 0.408646 -0.000400083 0.731346 -0.682006
-0.0020327 -0.284034 0.400372 0.00043519 -0.798969 -0.601372
-0.176795 0.182302 0.724976 0.000491436 -0.907521 0.420007
0.134084 -0.103572 0.41131 7.63179e-05 -0.138892 -0.990308
-0.0284704 0.124222 0.39774 -0.000399342 0.731338 -0.682015
0.19367 0.135287 0.537444 0.000538295 -0.991064 -0.133388
-0.0569961 -0.0374862 0.401796 7.50368e-05 -0.137492 -0.990503
-0.197846 0.136038 0.530275 0.000544023 -0.991071 -0.133334
0.0419493 0.144421 0.43547 0.000535814 -0.989123 0.147089
-0.222939 -0.265225 0.410477 -0.0431 0.824735 -0.563875
-0.184215 0.14275 0.497797 -0.000535413 0.975406 0.220416
-0.285527 0.00177717 0.0570389 0.141864 0.0995502 -0.984868
0.0860398 -0.163202 0.4216 -7.86774e-05 0.143681 0.989624
-0.0699346 0.137068 0.53642 -0.000485879 0.991094 0.133164
-0.146818 -0.200255 0.424792 6.74202e-05 -0.123934 -0.99229
0.0360423 0.0444647 0.392389 -7.27035e-05 0.133657 0.991028
-0.00370837 -0.270861 0.0586742 -0.134696 0.0328444 -0.990342
0.132455 0.18969 0.740575 0.000494948 -0.907494 0.420064
0.102573 0.156268 0.646845 0.000516849 -0.952881 0.303344
0.00492921 -0.0494892 0.066296 -1.96792e-05 0.0367585 -0.999324
0.232862 -0.0338089 0.397107 0.966421 -0.0439601 -0.253174
-0.149615 -0.0315231 0.402747 -7.46419e-05 0.137299 0.99053
-0.090372 0.00108447 0.103291 -0.118458 0.211636 0.970143
0.0107154 0.142162 0.500872 -0.000535413 0.975406 0.220416
0.172985 -0.00657942 0.0652266 -0.00251621 -0.997931 -0.0642383
0.130304 0.165434 0.675588 0.000519889 -0.952872 0.303371
0.184909 -0.0024029 0.396944 7.52196e-05 -0.137494 -0.990503
0.190664 0.151426 0.461793 -0.0066622 0.992734 0.120145
-0.217708 0.146978 0.460356 0.000536607 -0.983751 -0.179538
0.234631 0.0526265 0.598603 -0.611744 -0.0811435 -0.786883
0.00877894 0.319165 0.0406052 0.996376 0.0674704 0.051798
-0.196072 -0.00629471 0.381581 0.997473 0.00335149 -0.0709688
-0.113083 -0.0145227 0.398604 7.52196e-05 -0.137494 -0.990503
0.206906 0.175894 0.700658 -0.000513169 0.944847 -0.327512
-0.0278292 -0.00722829 0.088354 -0.162255 -0.986224 0.0321673
0.00695713 0.212346 0.0709816 0.999731 -0.00289824 -0.0230198
-0.0331542 0.0668827 0.388713 -9.04339e-05 0.165722 0.986172
0.124767 -0.228535 0.392423 -5.91442e-05 0.108885 0.994054
-0.190472 -0.226699 0.403378 0.460655 -0.814252 0.353258
-0.081662 -0.169222 0.42246 -7.85219e-05 0.143682 0.989624
0.0517761 -0.00675874 0.0900497 0.000275681 -0.999806 0.0196853
-0.00130132 0.0407789 0.392883 -7.27035e-05 0.133657 0.991028
0.255415 0.162828 0.473021 0.62168 0.78316 0.0131839
0.199898 -0.158883 0.401044 0.0704982 -0.146484 -0.986698
-0.125093 -0.289882 0.410848 0.000537631 -0.992816 -0.119647
0.0503692 -0.274255 0.416807 -0.00054152 0.995175 0.0981176
-0.0202699 -0.00888314 0.118794 -0.84239 -0.53856 0.0182198
-0.173993 0.15619 0.647072 0.000516849 -0.952881 0.303344
0.10117 -0.0386448 0.403753 -7.46419e-05 0.137299 0.99053
0.0122534 0.0106816 0.269752 0.382564 0.923889 -0.00864125
-0.00225431 0.136469 0.52787 0.000538295 -0.991064 -0.133388
-0.224238 -0.00710107 0.0651213 0.00435881 -0.998106 -0.0613666
0.00745015 -0.0207426 0.141597 0.310576 -0.950481 0.0113722
0.23117 -0.140983 0.409808 0.966418 -0.0472627 -0.252592
-0.115809 0.142185 0.50046 -0.000535413 0.975406 0.220416
0.111789 0.0235486 0.395215 -7.27035e-05 0.133657 0.991028
0.00286669 0.184443 0.725173 -0.000491315 0.907528 -0.419992
0.196732 0.136453 0.561237 -0.000543728 0.996805 -0.0798764
0.238827 -0.0748424 0.389797 -0.465809 0.277358 0.840294
-0.178569 -0.0172104 0.34271 -0.870319 -0.125633 -0.476194
-0.196097 0.133167 0.401172 -0.0447778 0.802238 -0.595323
-0.0464183 0.159547 0.657401 0.000516849 -0.952881 0.303344
0.127816 -0.0147039 0.298746 -0.0972635 -0.548137 0.830714
-3.19269e-05 0.134361 0.0631742 2.54717e-05 -0.036758 -0.999324
-0.200001 0.168976 0.6377 -0.0252902 0.950555 -0.309525
-0.0790315 0.121895 0.395275 -0.000399342 0.731338 -0.682015
0.0909822 -0.00685892 0.0819963 -0.00289824 -0.999731 -0.0230184
-0.173326 0.128275 0.402171 -0.000400083 0.731346 -0.682006
-0.0143734 -0.0165263 0.0702732 -0.543471 -0.839373 -0.00957873
-0.172909 0.204586 0.754822 6.47338e-05 -0.119383 0.992848
-0.0498623 -0.280175 0.428329 0.000255581 -0.46949 0.882937
-0.187907 -0.116052 0.414826 -7.613e-05 0.139029 0.990288
0.122141 0.152137 0.629026 -0.000507736 0.940316 -0.340303
-0.229475 0.136959 0.393877 -0.997384 -0.00369739 0.0721906
-0.231633 -0.0939117 0.40819 -0.922289 0.0444472 0.383936
0.126879 0.103154 0.386685 -0.000224176 0.413122 -0.910676
0.227074 0.0500915 0.37765 -0.0707884 0.133817 0.988475
0.144252 0.146371 0.448204 0.000539531 -0.989112 0.147163
-0.0415411 0.0478429 0.391912 -9.01482e-05 0.165727 0.986172
0.103917 0.203582 0.754357 0.000325007 -0.599384 0.800462
-0.0420201 -0.186643 0.423099 6.74202e-05 -0.123934 -0.99229
-0.111229 0.191587 0.74496 0.000494948 -0.907494 0.420064
-0.186584 0.143465 0.479694 0.000536099 -0.983749 -0.179547
0.189006 0.137708 0.421061 0.000489234 -0.903135 0.429356
0.163191 0.152157 0.629022 -0.000513596 0.940334 -0.340253
0.202784 0.16735 0.513554 -0.0122289 0.981755 0.189758
-0.097618 0.222463 0.72664 -0.000324968 0.599406 -0.800445
0.186131 0.151834 0.52515 -0.00769822 0.990687 0.135939
0.124002 0.0609035 0.389732 -9.04339e-05 0.165722 0.986172
-0.216576 -0.244158 0.431316 -4.4579e-05 0.0820463 0.996629
-0.057366 0.146929 0.4611 0.000536607 -0.983751 -0.179538
0.164335 0.165411 0.669603 -0.000514496 0.952835 -0.303489
0.203733 0.0368686 0.393425 -7.27035e-05 0.133657 0.991028
-0.15943 -0.0687014 0.406284 7.85941e-05 -0.14401 -0.989576
-0.201695 0.164124 0.622939 -0.0252902 0.950555 -0.309525
-0.130134 0.0632048 0.389322 -9.01482e-05 0.165727 0.986172
0.170704 -0.12272 0.41579 -7.5735e-05 0.139033 0.990288
-0.076031 0.00680199 0.0874567 -0.000275683 0.999806 0.0196853
-0.00121708 -0.217851 0.0876958 -0.211726 -0.118458 0.970124
-0.199038 0.171808 0.670874 -0.997448 -0.00322497 0.0713255
-0.0665025 -0.0845337 0.408596 7.84053e-05 -0.144009 -0.989576
0.041076 0.133709 0.563823 0.000547201 -0.999983 0.00577164
0.214848 0.114864 0.391976 -0.000224176 0.413122 -0.910676
0.219286 0.150609 0.424615 -0.0203159 -0.965528 0.259504
-0.0510716 -0.0712302 0.406661 7.85941e-05 -0.14401 -0.989576
-0.136679 -0.227625 0.392308 -5.91442e-05 0.108885 0.994054
0.225755 0.148222 0.494535 0.940765 0.318496 0.116282
-0.217621 0.160674 0.451853 0.00254467 0.996857 0.0791839
-0.234351 0.158411 0.428359 0.595869 0.765362 -0.24323
-0.193646 0.178634 0.654532 -0.0226043 0.959822 -0.279696
-0.205394 0.0174209 0.375222 -0.0703369 -0.146537 -0.986701
-0.24543 0.151775 0.528056 0.0619713 -0.997172 -0.0425051
-0.0749884 0.136223 0.587398 0.0005343 -0.986445 0.164092
-0.188575 0.154714 0.592972 -0.0252359 0.950547 -0.309554
0.182119 0.00715925 0.0838425 -0.00151663 0.999798 0.0200463
0.0305832 0.0065646 0.102036 -0.00151663 0.999798 0.0200463
0.154152 0.19577 0.748443 0.000337739 -0.618448 0.785826
-0.235736 0.0199334 0.368996 0.596037 -0.112896 -0.794981
0.0817766 -0.0548395 0.404286 7.85941e-05 -0.14401 -0.989576
-0.00244964 -0.0133533 0.2433 0 0 1
-0.216337 0.147983 0.558238 -0.00699224 0.99856 -0.0531949
-0.13519 -0.252887 0.429392 2.65232e-05 -0.0486702 -0.998815
-0.00695064 0.0252093 0.118522 -0.969804 0.241674 0.0327616
0.199008 -0.247051 0.431573 -4.47348e-05 0.0820432 0.996629
0.110004 0.0807796 0.388279 1.12925e-05 -0.0206904 0.999786
-0.159809 0.0115082 0.394671 9.13967e-05 -0.16746 -0.985879
0.227384 -0.206172 0.411016 0.997343 -0.00173748 0.0728221
-0.063885 -0.118949 0.413452 7.56159e-05 -0.138885 -0.990308
-0.208199 -0.0505979 0.385524 -0.0703731 -0.146525 -0.986701
0.171642 0.149101 0.470553 -0.000532142 0.975413 0.220386
0.216647 -0.289551 0.40965 0.000543477 -0.992852 -0.119354
0.183158 -0.000610104 0.363905 -0.713841 -0.0526588 0.698325
0.00929841 0.30203 0.027168 0.997006 -0.0745515 0.0205414
-0.209117 0.0995933 0.390652 0.000198322 -0.363372 0.931644
-0.165041 0.0755722 0.388174 1.12907e-05 -0.0206904 0.999786
0.212257 0.139749 0.594655 -0.000513596 0.940334 -0.340253
0.0933388 0.216031 0.673879 -0.130457 -0.551682 0.823789
0.0363798 0.139499 0.600021 0.000514289 -0.949499 0.31377
0.00831826 -0.0207889 0.0827445 0.973566 -0.228072 -0.0123827
0.236978 0.153397 0.53847 -0.462886 -0.885399 -0.0424785
0.233463 0.153898 0.413794 -0.597366 0.674125 -0.434407
-0.165764 0.192686 0.673215 -0.585209 0.564446 -0.582178
0.0122293 -0.320001 0.00057153 0.845422 -0.226364 0.483758
-0.118384 -0.21003 0.428917 -3.15817e-05 0.0579206 0.998321
-0.0106105 -0.211053 0.3905 -5.94896e-05 0.108881 0.994055
-0.218742 0.145865 0.601053 -0.951522 0.30558 -0.0350403
0.120501 0.182862 0.720894 -0.000511516 0.944842 -0.327526
0.00210249 -0.0928461 0.409796 7.56159e-05 -0.138885 -0.990308
0.204586 0.226115 0.745794 0.375603 0.727964 0.573578
0.0595893 -0.260305 0.402706 -0.000327016 0.599832 -0.800126
0.0798519 0.18411 0.728583 0.000491436 -0.907521 0.420007
0.232751 -0.00564437 0.373204 -0.596076 -0.113461 -0.794871
-0.179057 0.0266075 0.350524 0.945358 0.0687936 0.318693
-0.20456 0.140763 0.418315 -0.000525594 0.963409 -0.268034
0.237654 -0.133165 0.58053 -0.611946 0.790795 0.0128459
-0.10324 0.171126 0.692804 0.000515446 -0.944729 0.327853
-0.218931 -0.209658 0.425962 6.74202e-05 -0.123934 -0.99229
0.181911 0.156233 0.5965 0.0241894 0.950581 -0.309533
-0.180703 0.191721 0.741114 -0.000490433 0.907521 -0.420006
-0.0208172 0.0172266 0.289575 0.0468663 0.703726 0.708924
0.103333 0.167277 0.675568 -0.000517512 0.952843 -0.303463
-0.207462 -0.25876 0.405434 -0.000500479 0.919324 -0.393501
-0.0964908 0.180502 0.714426 -0.000511516 0.944842 -0.327526
0.227363 0.149354 0.461823 0.948243 -0.317446 0.00798549
0.0166777 -0.221652 0.427476 6.75397e-05 -0.123936 -0.99229
-0.107014 -0.124919 0.416077 -7.613e-05 0.139029 0.990288
-0.321537 -0.0100222 0.0196086 -0.0694657 -0.997254 0.0256562
0.222113 -0.106464 0.40416 0.0706617 -0.146439 -0.986693
-0.0570187 -0.150815 0.41979 -7.86774e-05 0.143681 0.989624
0.0108475 -0.0102412 0.281413 0.0830229 -0.104023 -0.991104
-0.0824901 -0.0167493 0.294271 0.0475966 -0.704116 0.708489
0.155616 0.179648 0.711569 -0.000513169 0.944847 -0.327512
-0.216069 0.158524 0.476361 0.00663736 0.990697 0.135921
-0.0929961 -0.0170184 0.400741 -7.46419e-05 0.137299 0.99053
0.125035 -0.00676968 0.0738331 -0.00289824 -0.999731 -0.0230184
-0.00083584 0.0151946 0.160292 -0.383491 0.923544 0
-0.0150204 -0.0905814 0.411263 -7.5735e-05 0.139033 0.990288
-0.188823 -0.273989 0.39703 -6.51144e-05 0.119148 -0.992877
-0.250415 0.0149777 0.368164 -0.761827 -0.081745 -0.642602
0.0883846 0.138917 0.510044 0.000544023 -0.991071 -0.133334
0.138128 -0.167947 0.420502 7.82194e-05 -0.143786 -0.989609
0.187653 0.142602 0.503393 -0.997444 0.00211433 -0.0714279
-0.245561 0.120343 0.601095 0.0659104 0.0880162 0.993936
0.175392 -0.0197724 0.340403 -0.936375 -0.133013 0.324822
0.00305393 0.0670167 0.386755 5.0683e-05 -0.092863 -0.995679
0.177759 0.1843 0.693384 -0.0266332 -0.936154 0.35058
0.00778699 -0.0594223 0.406733 -7.83202e-05 0.144066 0.989568
-0.190667 0.157373 0.464219 0.997433 0.00258081 -0.0715525
0.02584 -0.0334113 0.401237 7.50368e-05 -0.137492 -0.990503
-0.0959922 -0.144606 0.417092 7.90112e-05 -0.143794 -0.989608
-0.21229 -0.0582622 0.406547 -7.84758e-05 0.144064 0.989568
-0.249449 -0.111807 0.474558 -0.0997925 0.978414 0.180961
-0.0900092 -0.287412 0.42375 0.000500586 -0.919551 0.392969
0.0325526 -0.18355 0.422718 6.74202e-05 -0.123934 -0.99229
-0.155302 0.137131 0.535643 -0.000485879 0.991094 0.133164
