0.13956 -0.0471215 0.403168 7.85941e-05 -0.14401 -0.989576
0.204077 0.072763 0.388112 1.12925e-05 -0.0206904 0.999786
0.051299 -0.0203096 0.39942 7.50368e-05 -0.137492 -0.990503
-0.179858 0.164493 0.637349 0.026608 -0.947119 0.319779
-0.0752616 -0.0536156 0.404096 7.85941e-05 -0.14401 -0.989576
0.002416 0.175937 0.701103 -0.000513169 0.944847 -0.327512
0.016424 -0.150991 0.418029 7.90112e-05 -0.143794 -0.989608
0.206428 0.129443 0.408841 0.000392039 -0.716783 0.697296
-0.0702448 0.133693 0.571699 0.000547201 -0.999983 0.00577164
0.210212 0.147509 0.519037 0.00780899 -0.990697 -0.135865
0.198749 0.148085 0.427735 0.0196631 0.969158 -0.245655
0.0319571 0.176772 0.708862 0.000511591 -0.94474 0.32782
-0.187324 0.153436 0.617649 -0.0251643 0.949885 -0.311586
-0.00206131 -0.000309012 0.0662238 0 0 -1
-0.197782 0.123267 0.391229 -0.0640617 0.467996 -0.881406
0.019513 0.159807 0.658105 0.000519889 -0.952872 0.303371
0.00504832 -0.165326 0.420111 7.82194e-05 -0.143786 -0.989609
0.00264563 0.016224 0.285868 0.470144 0.881489 -0.0440665
0.208027 -0.0229868 0.381443 0.0705376 -0.146456 -0.986699
0.213909 -0.0791202 0.40783 7.84053e-05 -0.144009 -0.989576
-0.00499229 -0.0134689 0.186521 -0.382651 -0.923893 0
-0.130745 0.086906 0.384894 5.03896e-05 -0.0928603 -0.995679
0.00717293 0.0125643 0.159357 0.382571 0.923926 0
0.155082 0.149876 0.622729 -0.000513596 0.940334 -0.340253
0.135502 -0.00976764 0.303213 -0.248023 -0.0977826 0.963807
0.239652 -0.00705103 0.0716212 -0.00289824 -0.999731 -0.0230184
0.00115482 0.230792 0.0861452 0.129502 0.117935 0.984541
0.135454 -0.203035 0.384244 -0.000465611 0.853162 -0.521646
-0.0291628 0.116715 0.397292 0.000197013 -0.363394 0.931636
0.0779279 -0.200652 0.424857 6.75397e-05 -0.123936 -0.99229
-0.0962293 0.0379991 0.393251 -7.27035e-05 0.133657 0.991028
-0.213299 0.140802 0.428028 0.000493942 -0.903097 0.429437
0.138928 0.0877088 0.388422 1.12925e-05 -0.0206904 0.999786
-0.192176 0.13453 0.541503 0.000544023 -0.991071 -0.133334
0.210728 0.172478 0.478897 0.994197 0.0664013 0.0846329
-0.19689 0.00957653 0.394996 9.13967e-05 -0.16746 -0.985879
0.00310417 -0.211628 0.379021 5.94896e-05 -0.108881 -0.994055
0.198521 0.166052 0.671558 -0.000514496 0.952835 -0.303489
-0.171668 0.14311 0.48182 0.000538164 -0.987539 -0.157376
-0.0364857 -0.172712 0.422971 -7.85219e-05 0.143682 0.989624
0.169154 0.171561 0.69363 0.000511591 -0.94474 0.32782
0.222639 -0.244273 0.422283 0.0711444 -0.0802191 -0.994235
0.122941 0.139834 0.516638 -0.000543983 0.991019 0.133717
-0.218791 0.105992 0.355214 -0.068183 0.357777 -0.931314
-0.124136 -0.0774436 0.407559 7.85941e-05 -0.14401 -0.989576
-0.0800338 0.17083 0.686498 -0.000513169 0.944847 -0.327512
0.0969256 0.101707 0.391412 0.000197013 -0.363394 0.931636
-0.0892893 -0.130307 0.415043 7.63179e-05 -0.138892 -0.990308
-0.17618 0.14666 0.462218 0.000536607 -0.983751 -0.179538
-0.255719 -0.125727 0.537503 -0.611322 0.77991 0.13426
0.236292 0.0156123 0.367516 -0.595807 -0.113507 -0.795066
-0.0719472 -0.0769674 0.407494 7.84053e-05 -0.144009 -0.989576
0.00827694 0.0121071 0.119376 0.382571 0.923926 0
0.202177 0.169166 0.504123 -0.0119878 0.981748 0.189807
0.216718 0.160442 0.457724 -0.00360783 0.996857 0.0791401
-0.0264057 0.0182025 0.395926 -7.28412e-05 0.133656 0.991028
0.0980344 0.133742 0.564265 0.000547201 -0.999983 0.00577164
0.00702971 -0.324116 0.0169122 0.0736027 -0.97517 0.208866
0.00569996 -0.193696 0.061456 0.134665 0.0331069 -0.990338
-0.167562 -0.0108749 0.314453 -0.763686 -0.521446 -0.380627
0.188747 0.140319 0.546054 -0.00400272 0.996525 0.0832014
0.229297 0.131206 0.394046 0.997382 -0.00242434 0.0722704
0.106669 -0.028337 0.400538 7.50368e-05 -0.137492 -0.990503
0.171819 0.195031 0.730417 0.0426901 0.820343 -0.570276
-0.0208349 0.221666 0.677076 0.000298173 -0.556342 0.830953
-0.233003 -0.0370083 0.380653 -0.00029695 0.588588 0.808433
-0.00332819 -0.0786959 0.409538 -7.84758e-05 0.144064 0.989568
0.185148 0.156249 0.640803 -0.000514496 0.952835 -0.303489
-0.0121748 -0.274833 0.42233 -0.000542319 0.995173 0.0981362
0.103854 0.220774 0.678028 0.130185 0.945304 0.299086
0.23394 0.157006 0.502272 -0.611075 -0.79103 -0.0293035
0.121507 0.227096 0.742202 -0.000542109 0.99268 0.120776
0.21274 0.115828 0.358471 0.0674228 0.357749 -0.931381
0.084867 0.14119 0.419282 -0.000527035 0.963413 -0.26802
0.248621 0.0953539 0.590944 0.0721645 -0.0980856 -0.992558
-0.208909 -0.0356752 0.374301 0.981124 -0.022597 -0.192056
-0.254924 -0.138118 0.567916 -0.45419 -0.873308 -0.176195
-0.0681826 -0.267058 0.430084 2.65232e-05 -0.0486702 -0.998815
-0.139362 -0.197618 0.427346 -0.000102405 0.188654 0.982044
-0.0925444 0.203825 0.754619 0.000325007 -0.599384 0.800462
0.20643 -0.0125666 0.38604 -0.997432 0.00183126 -0.0715998
-0.225838 0.14555 0.478029 -0.563033 -0.819063 -0.110137
0.0284034 -0.00305195 0.397023 7.52196e-05 -0.137494 -0.990503
0.244397 0.0716058 0.593125 -0.0592025 -0.0982294 -0.993401
0.105543 0.120309 0.394473 -0.000225594 0.413143 -0.910666
0.170345 0.141476 0.605782 0.000520291 -0.949464 0.313874
0.0891295 0.134369 0.57572 0.000539783 -0.986427 0.164202
0.233987 -0.075668 0.383406 -0.597209 -0.251675 -0.761578
0.0866722 -0.205573 0.425472 6.75397e-05 -0.123936 -0.99229
-0.202887 0.0609112 0.369009 -0.0707931 -0.110682 -0.991331
0.309134 0.0036587 0.0662059 0.73275 0.090603 0.674439
0.0648018 0.0278977 0.394625 -7.27035e-05 0.133657 0.991028
0.100086 0.212126 0.666296 -0.111346 -0.88044 -0.460897
0.00182501 -0.290495 0.0560078 0.100979 0.404922 -0.908758
0.199753 -0.059425 0.404963 7.84053e-05 -0.144009 -0.989576
-0.0673119 -0.073009 0.408705 -7.84758e-05 0.144064 0.989568
-0.0429146 0.133004 0.412641 0.000392039 -0.716783 0.697296
0.205715 0.159594 0.417685 -0.993693 0.0635696 -0.09237
-0.203701 0.187123 0.716945 -0.0272585 0.940374 -0.339047
0.210018 0.202248 0.730665 0.658562 -0.394855 -0.640614
0.192836 -0.0407277 0.402265 7.50368e-05 -0.137492 -0.990503
-0.0479541 0.140234 0.416105 -0.000527035 0.963413 -0.26802
-0.0512705 -0.0453562 0.402896 7.85941e-05 -0.14401 -0.989576
-0.159692 -0.283743 0.400187 0.000213253 -0.391513 -0.920173
-0.210073 -0.0442364 0.373911 -0.0692372 -0.206602 -0.975972
-0.203437 -0.00204283 0.0893541 -0.118062 -0.211801 0.970155
-0.188076 0.151165 0.460546 -0.000532142 0.975413 0.220386
-0.0873572 -0.220742 0.380014 5.91442e-05 -0.108885 -0.994054
0.0470614 0.213658 0.665894 0.000479754 -0.885931 -0.463818
-0.22469 -0.235276 0.428532 2.65232e-05 -0.0486702 -0.998815
-0.20012 0.183605 0.679739 -0.0267269 0.943513 -0.330255
-0.242593 0.0375876 0.37423 0.4654 0.0964059 0.879835
0.104564 0.00435795 0.39591 9.16144e-05 -0.167462 -0.985879
0.0808543 0.118068 0.397797 0.000197013 -0.363394 0.931636
0.12519 0.181793 0.717805 -0.000511516 0.944842 -0.327526
0.0540959 0.191787 0.740982 -0.000490433 0.907521 -0.420006
0.232285 -0.0356037 0.376723 0.000522972 -0.950318 0.31128
-0.134854 0.218684 0.753364 -0.000213294 0.391456 0.920197
-0.239906 0.163737 0.505526 0.481496 0.875565 0.0393486
-0.140934 -0.0826265 0.410099 -7.84758e-05 0.144064 0.989568
0.00663794 0.321069 0.0320962 0.0767335 0.980165 0.182725
0.00377154 0.225105 0.747196 -0.000433932 0.799308 0.600921
-0.112599 -0.150648 0.419761 -7.85219e-05 0.143682 0.989624
-0.0289046 -0.228603 0.428212 2.65232e-05 -0.0486702 -0.998815
0.204466 0.150586 0.535278 -0.00769472 0.990687 0.135941
0.201484 -0.282909 0.426802 0.000256155 -0.469476 0.882945
-0.0857608 -0.254965 0.429495 2.65232e-05 -0.0486702 -0.998815
0.243117 0.14778 0.396302 -0.105281 0.837863 -0.535632
-0.0283977 -0.268809 0.432087 -8.38785e-06 0.0153731 0.999882
-0.234947 0.161757 0.473853 0.595847 0.802247 0.0369605
0.122065 0.0278392 0.391923 9.16144e-05 -0.167462 -0.985879
-0.00258842 -0.290343 0.415235 0.000543477 -0.992852 -0.119354
0.171652 0.142817 0.609837 0.000520291 -0.949464 0.313874
0.173396 0.00408632 0.0619152 -0.0331062 0.134656 -0.990339
0.218786 -0.0188773 0.387289 0.997514 -0.00219725 0.0704317
-0.00669176 -0.161165 0.0902552 -0.999408 -0.00264844 0.0342992
0.0111949 0.177797 0.711848 0.000511591 -0.94474 0.32782
0.220024 -0.285787 0.425266 0.000256155 -0.469476 0.882945
0.201782 0.073259 0.372712 -0.0699711 0.133782 0.988537
0.15769 0.00775587 0.301422 0.610483 0.104036 -0.785167
0.144525 0.140244 0.596125 -0.000513596 0.940334 -0.340253
0.0620584 -0.0561181 0.406256 -7.83202e-05 0.144066 0.989568
-0.217504 -0.200056 0.427806 -0.000102405 0.188654 0.982044
-0.0997653 0.118096 0.39352 -0.000225594 0.413143 -0.910666
0.205632 -0.274005 0.397002 -6.48203e-05 0.119133 -0.992878
0.220629 0.148494 0.520095 0.545138 0.824955 0.149242
-0.166293 -0.000797599 0.330719 0.849422 -0.0778609 0.521938
-0.0583651 0.146313 0.619944 0.000509773 -0.93027 0.366876
-0.124051 0.135962 0.557295 -0.000543728 0.996805 -0.0798764
-0.189071 0.154046 0.640363 0.000516849 -0.952881 0.303344
0.180461 0.0197699 0.35627 -0.945439 0.0677811 0.318672
0.204003 0.18916 0.72202 0.0262824 0.940399 -0.339055
-0.221737 0.156611 0.490581 0.00657699 0.990693 0.135958
0.0310494 0.142138 0.488611 0.000538164 -0.987539 -0.157376
0.245236 -0.00296857 0.367739 0.119809 -0.132457 -0.983921
0.190789 0.163468 0.663458 -0.000514496 0.952835 -0.303489
-0.131561 0.206048 0.754995 6.47338e-05 -0.119383 0.992848
-0.0084273 -0.0120462 0.223087 -0.382651 -0.923893 0
-0.167603 0.134029 0.574519 0.000539783 -0.986427 0.164202
0.200549 0.0766873 0.372674 -0.0703973 -0.142148 0.987339
-0.0628652 0.135757 0.554325 -0.000543728 0.996805 -0.0798764
-0.261616 -0.00198109 0.0586797 0.0331061 -0.134661 -0.990339
0.0807474 0.224159 0.663513 -0.000217859 0.402309 -0.915504
-0.116849 0.177713 0.711807 0.000515446 -0.944729 0.327853
0.18223 -0.150331 0.419739 -7.86774e-05 0.143681 0.989624
-0.199297 0.0685563 0.373137 0.0698238 0.133859 0.988537
-0.188612 -0.0340007 0.365035 0.859352 0.0596851 0.50789
0.0864283 -0.273575 0.410113 -0.00054152 0.995175 0.0981176
-0.128669 0.0891344 0.388455 1.12925e-05 -0.0206904 0.999786
0.0455534 -0.249413 0.43176 -4.4579e-05 0.0820463 0.996629
-0.155209 0.217588 0.753825 -0.000213294 0.391456 0.920197
0.0849084 0.157319 0.650177 0.000516849 -0.952881 0.303344
0.201053 0.113043 0.374675 0.0623143 0.518182 -0.852998
-0.156994 -0.0764411 0.409198 -7.84758e-05 0.144064 0.989568
0.208535 0.00869651 0.373149 -0.990323 -0.00784195 -0.138559
0.202387 -0.0552744 0.391462 -0.0706343 0.146547 0.986679
-0.00506575 0.0718115 0.386308 5.03896e-05 -0.0928603 -0.995679
0.0890161 0.152574 0.635619 0.000504604 -0.930305 0.366787
-0.160644 0.149632 0.628503 0.000509773 -0.93027 0.366876
0.10983 -0.256896 0.409386 -0.000501204 0.919338 -0.393467
-0.25342 -0.0886917 0.394375 -0.600135 0.438221 0.669179
0.0686891 0.171631 0.688576 -0.000513169 0.944847 -0.327512
0.153818 -0.170406 0.422651 -7.86774e-05 0.143681 0.989624
0.0723732 0.188887 0.738911 0.000494948 -0.907494 0.420064
-0.196905 -0.0485994 0.380782 0.859352 0.0596851 0.50789
0.243386 0.165579 0.508041 -0.0672954 0.996849 0.0419988
0.00913151 -0.201117 0.42491 6.74202e-05 -0.123934 -0.99229
-0.1456 -0.118928 0.415233 -7.613e-05 0.139029 0.990288
-0.183585 0.13452 0.561939 0.997433 0.00295657 -0.0715495
0.130222 0.166595 0.679235 0.000519889 -0.952872 0.303371
0.214038 0.149065 0.593777 -0.0249575 -0.947107 0.319946
-0.110675 0.169974 0.684078 -0.000513169 0.944847 -0.327512
0.0443657 -0.229743 0.430141 -4.47348e-05 0.0820432 0.996629
0.163199 0.191806 0.745111 0.000494948 -0.907494 0.420064
-0.241559 0.064766 0.371237 0.463301 -0.0618932 0.884037
0.193078 -0.20848 0.425843 6.75397e-05 -0.123936 -0.99229
0.170797 0.000165239 0.339837 -0.902654 0.0766727 0.423481
-0.21109 0.200292 0.741114 -0.949697 -0.305989 0.0666775
-0.253656 0.0114696 0.610418 -0.452366 0.076385 0.888555
0.104971 -0.167435 0.422216 -7.86774e-05 0.143681 0.989624
0.208267 0.18515 0.688939 0.997466 -0.001211 0.0711312
0.248448 0.0961817 0.373083 0.699877 -0.213019 0.681759
-0.246401 -0.0199354 0.613573 0.0659104 0.0880162 0.993936
0.0940242 0.037467 0.390285 9.13967e-05 -0.16746 -0.985879
-0.239339 -0.0444116 0.382849 0.464963 0.136213 0.874789
0.24011 -0.104935 0.437855 -0.464193 0.870302 0.164619
0.208801 0.154248 0.608712 -0.0249575 -0.947107 0.319946
0.208026 0.143081 0.542065 0.99743 -0.0023293 0.0716032
0.182703 0.174261 0.695985 -0.000513169 0.944847 -0.327512
0.164681 -0.00696857 0.0778111 0.000275681 -0.999806 0.0196853
0.0526691 -0.0678495 0.407963 -7.83202e-05 0.144066 0.989568
0.0199342 0.171033 0.686927 -0.000513169 0.944847 -0.327512
0.255206 -0.128528 0.53155 0.622682 -0.765775 -0.160798
0.00690883 -0.156775 0.0921754 0.999434 -0.000698046 0.0336291
0.225471 -0.100525 0.412678 -7.5735e-05 0.139033 0.990288
0.230592 0.148175 0.409005 -0.610977 -0.665655 0.428497
-0.226969 0.123208 0.393331 -0.064142 0.468038 -0.881378
-0.235235 0.0290395 0.368078 0.596037 -0.112896 -0.794981
0.232489 0.037323 0.603164 -0.596865 0.0675961 0.79949
-0.0922993 0.0817294 0.385378 5.03896e-05 -0.0928603 -0.995679
-0.00705622 -0.295162 0.0656483 -0.997567 -0.0197634 0.0668526
0.00407176 -0.229714 0.390054 0.000498295 -0.917368 0.39804
0.233852 -0.118458 0.614504 -0.598067 -0.195019 0.777357
-0.0155242 2.74714e-05 0.15778 -0.923937 0.382545 0
-0.191962 0.0755632 0.385948 5.03896e-05 -0.0928603 -0.995679
0.206511 0.0114696 0.381844 -0.0706071 0.14655 0.98668
-0.204861 -0.150531 0.400138 -0.0703368 -0.146569 -0.986697
-0.107392 0.219631 0.752967 -0.000212112 0.391506 0.920175
0.0854357 -0.259137 0.431939 -8.35317e-06 0.0153738 0.999882
0.213869 0.144358 0.60739 -0.000513596 0.940334 -0.340253
-0.0141809 -0.0218111 0.399623 7.52196e-05 -0.137494 -0.990503
0.138519 0.102577 0.386421 -0.000224176 0.413122 -0.910676
0.256442 0.127087 0.590157 0.609925 -0.223451 -0.760303
0.0871223 0.0897238 0.384642 5.03896e-05 -0.0928603 -0.995679
-0.081659 -0.261138 0.402139 -0.000327016 0.599832 -0.800126
0.257379 -0.00700641 0.0685541 -0.00251621 -0.997931 -0.0642383
-0.0174966 -0.20846 0.390216 -5.94896e-05 0.108881 0.994055
0.0654978 -0.280601 0.398902 0.000213253 -0.391513 -0.920173
-0.0887803 0.193184 0.744167 -0.000490433 0.907521 -0.420006
0.138813 0.124015 0.403299 0.000392039 -0.716783 0.697296
-0.204923 -0.119516 0.413521 7.56159e-05 -0.138885 -0.990308
0.164003 0.142983 0.483763 0.000538164 -0.987539 -0.157376
-0.181085 0.137311 0.52088 0.000544023 -0.991071 -0.133334
-0.177806 0.138392 0.526174 -0.000485879 0.991094 0.133164
0.129323 -0.101285 0.410989 7.63179e-05 -0.138892 -0.990308
0.170161 -0.254819 0.429494 2.65232e-05 -0.0486702 -0.998815
-0.202539 0.166011 0.466258 0.995578 0.0666508 -0.0661994
-0.00642883 -0.0285706 0.108147 -0.985901 -0.164264 0.0318725
-0.00690533 -0.184784 0.0722102 -0.999732 0.00289873 -0.0229658
0.0717623 -0.222442 0.38021 5.94896e-05 -0.108881 -0.994055
0.236343 0.163184 0.509934 -0.482445 0.875046 0.0392654
0.143175 -0.0972172 0.412207 -7.5735e-05 0.139033 0.990288
0.0969519 0.0758788 0.388178 1.12907e-05 -0.0206904 0.999786
0.0495595 -0.00762905 0.39766 7.52196e-05 -0.137494 -0.990503
0.0051367 0.176124 0.707037 0.000511591 -0.94474 0.32782
-0.0372658 -0.0146866 0.293283 0.0475966 -0.704116 0.708489
-0.201333 0.162953 0.482947 0.995757 0.0713762 -0.0580894
-0.15045 -0.203317 0.384038 -0.00046614 0.853149 -0.521666
-0.177324 0.146738 0.451847 0.000535814 -0.989123 0.147089
-0.0463264 0.0712591 0.388084 1.12907e-05 -0.0206904 0.999786
-0.100924 0.195945 0.748691 0.000337739 -0.618448 0.785826
-0.172474 0.227458 0.737904 -0.00053892 0.992697 0.120631
-0.107304 0.124903 0.404349 0.00038863 -0.716834 0.697244
-0.116593 0.13905 0.593219 -0.000513596 0.940334 -0.340253
-0.116151 0.00660182 0.0963603 -0.00265743 0.999408 0.0343
0.167437 0.190543 0.671967 0.566869 0.777357 -0.272718
-0.0795138 0.00668297 0.0934529 -0.000275683 0.999806 0.0196853
0.106951 0.107466 0.388647 -0.000224176 0.413122 -0.910676
-0.318015 -0.00941523 0.0381334 -0.0665924 -0.996477 0.050988
0.0369313 0.138155 0.5155 0.000544023 -0.991071 -0.133334
0.247237 0.160727 0.572175 0.0586131 0.927724 0.368637
0.218375 -0.198413 0.413844 -0.0707593 0.134315 0.988409
-0.231282 0.00210942 0.388288 -0.612153 -0.111961 -0.782773
0.00524601 -0.0712482 0.408454 -7.84758e-05 0.144064 0.989568
0.0588724 -0.0682125 0.408017 -7.83202e-05 0.144066 0.989568
0.192241 0.166823 0.615479 -0.967559 0.211608 -0.13803
0.105718 -0.281304 0.427683 0.000256155 -0.469476 0.882945
0.0301285 0.144806 0.4381 0.000535814 -0.989123 0.147089
-0.258013 0.10579 0.592166 -0.452576 -0.0899007 -0.887182
-0.0353971 0.120131 0.394427 -0.000225594 0.413143 -0.910666
0.204221 0.153192 0.605231 -0.0247494 -0.947117 0.319932
-0.157389 -0.0941336 0.411751 -7.5735e-05 0.139033 0.990288
-0.192737 0.139783 0.502626 0.00054209 -0.987551 -0.157301
-0.114322 0.179602 0.717247 0.000511591 -0.94474 0.32782
0.210562 -0.229193 0.41189 0.070912 -0.10774 -0.991647
0.228024 0.0067459 0.0604507 -0.0331062 0.134656 -0.990339
-0.15035 0.1341 0.413862 0.000493942 -0.903097 0.429437
-0.168057 0.132397 0.406588 -0.000400083 0.731346 -0.682006
-0.24007 -0.0967611 0.394137 0.481428 -0.73423 -0.478679
-0.0843916 -0.0529831 0.404003 7.85941e-05 -0.14401 -0.989576
0.200028 0.0837947 0.37768 0.0715326 0.0803861 -0.994194
-0.00840761 0.143915 0.429258 -0.000527035 0.963413 -0.26802
0.106947 -0.0929759 0.411609 -7.5735e-05 0.139033 0.990288
-0.0733592 0.145308 0.441853 0.000535814 -0.989123 0.147089
-0.0430941 0.0390166 0.390009 9.13967e-05 -0.16746 -0.985879
0.00576654 0.111092 0.0998771 0.129502 0.117935 0.984541
-0.0133371 -0.105162 0.41331 -7.5735e-05 0.139033 0.990288
0.0659996 -0.0440496 0.402716 7.50368e-05 -0.137492 -0.990503
-0.207829 -0.0322687 0.380402 0.984974 -0.0181858 -0.171741
0.246058 0.0309761 0.364064 0.725994 -0.0903589 -0.681739
-0.0267939 0.043098 0.392568 -7.27035e-05 0.133657 0.991028
0.0667114 0.0194524 0.395764 -7.27035e-05 0.133657 0.991028
-0.0735688 0.14873 0.446694 -0.000525594 0.963409 -0.268034
-0.233919 -0.269296 0.40824 -0.581483 -0.685341 0.438388
-0.00216357 -0.0718362 0.40854 -7.84758e-05 0.144064 0.989568
0.0541514 0.219898 0.752891 -0.000212112 0.391506 0.920175
-0.202183 -0.0739514 0.388564 -0.070341 -0.146583 -0.986694
0.145279 -0.0324937 0.402904 -7.48259e-05 0.137298 0.99053
-0.0427047 0.0363975 0.393471 -7.27035e-05 0.133657 0.991028
-0.185737 0.0201737 0.364805 0.707528 0.0664474 0.703554
-0.238674 0.163003 0.514151 0.481668 0.875603 0.0362649
-0.08623 -0.130861 0.415121 7.63179e-05 -0.138892 -0.990308
0.082626 0.146151 0.612544 -0.000513596 0.940334 -0.340253
-0.21753 -0.236007 0.430645 -4.4579e-05 0.0820463 0.996629
-0.196152 0.150441 0.552303 0.992312 0.108084 -0.0602951
-0.210948 0.173415 0.477623 -0.994274 0.0652462 0.0846291
0.188694 0.162315 0.665691 0.000519889 -0.952872 0.303371
0.0108578 0.192589 0.742765 -0.000490433 0.907521 -0.420006
-0.254671 -0.0802783 0.386076 -0.621368 -0.3319 -0.70975
0.1732 0.135101 0.579843 0.0005343 -0.986445 0.164092
0.0478043 0.0603786 0.389814 -9.04339e-05 0.165722 0.986172
0.0117582 -0.00912435 0.214408 0.92394 -0.382539 0
-0.101895 -0.173907 0.423139 -7.85219e-05 0.143682 0.989624
-0.0384873 0.179686 0.711982 -0.000511516 0.944842 -0.327526
0.00686119 0.134131 0.0836734 0.999804 0.000283226 0.0197851
-0.152135 -0.0596389 0.406752 -7.84758e-05 0.144064 0.989568
-0.103155 -0.0648402 0.407513 -7.84758e-05 0.144064 0.989568
0.0365813 -0.0429837 0.402566 7.50368e-05 -0.137492 -0.990503
0.186864 0.15578 0.639329 -0.000514496 0.952835 -0.303489
0.00565391 -0.0131956 0.212108 0.383569 -0.923512 0
0.23427 0.156187 0.416238 -0.597366 0.674125 -0.434407
-0.0315631 0.13843 0.587465 -0.000544439 0.996805 -0.0798693
-0.124551 0.225051 0.730008 -0.000502133 0.919479 -0.393139
0.177627 0.220582 0.725119 -0.000325833 0.599437 -0.800422
0.203617 -0.214356 0.414958 -0.0706551 0.134364 0.98841
-0.172712 -0.00917437 0.323178 -0.889113 -0.0789412 -0.450828
0.234021 -0.128436 0.539921 -0.61336 0.775924 0.147419
-0.0131127 0.185784 0.732307 0.000491436 -0.907521 0.420007
-0.0924419 0.155485 0.638877 -0.000514496 0.952835 -0.303489
0.235705 -0.114338 0.455473 -0.596079 -0.788919 -0.149321
0.227862 -0.152018 0.405904 0.997322 -0.00179848 0.073108
-0.0830398 -0.00404902 0.286802 -0.0829087 -0.10402 -0.991114
0.2293 0.149432 0.424023 0.573726 0.754443 -0.318834
-0.255674 0.151027 0.563005 -0.450274 -0.879825 -0.152189
0.196081 0.15578 0.453075 0.00575734 -0.994195 -0.107437
0.120089 -0.0163494 0.296755 -0.0972635 -0.548137 0.830714
-0.215935 0.14831 0.56433 -0.00699224 0.99856 -0.0531949
0.200984 0.163409 0.486168 -0.995835 0.0702856 -0.0580818
0.236903 0.100218 0.375301 -0.463461 -0.264873 0.845604
-0.187527 0.144557 0.578539 0.00896999 -0.996507 0.0830317
-0.199254 0.0818702 0.367099 -0.0708838 0.189259 -0.979365
-0.172453 0.150896 0.461777 -0.000532142 0.975413 0.220386
-0.214844 0.136948 0.419926 0.000493942 -0.903097 0.429437
0.0198063 0.163105 0.668463 0.000519889 -0.952872 0.303371
-0.0454417 0.129787 0.409336 0.000392039 -0.716783 0.697296
0.0107258 0.0169283 0.289216 -0.0476312 0.703686 0.708912
-0.192742 0.174514 0.702708 0.000515446 -0.944729 0.327853
0.198849 0.161482 0.519614 -0.994469 0.0863792 -0.0597589
0.185223 0.161854 0.61402 0.0241894 0.950581 -0.309533
-0.190258 -0.00483692 0.397254 7.52196e-05 -0.137494 -0.990503
-0.0969876 0.147417 0.622797 0.000509773 -0.93027 0.366876
-0.171732 0.135408 0.550703 -0.000543728 0.996805 -0.0798764
0.158541 0.0642225 0.389178 -9.04339e-05 0.165722 0.986172
0.00465597 -0.298077 0.0429686 0.0719394 0.965375 -0.250751
-0.0803079 0.138468 0.588274 -0.000544439 0.996805 -0.0798693
0.191446 -0.226883 0.40065 0.525128 -0.780636 -0.338893
-0.208819 0.150906 0.531523 0.00657699 0.990693 0.135958
-0.20272 0.188794 0.694773 -0.0267204 0.943512 -0.33026
0.249501 -0.0717433 0.380932 0.546822 -0.208831 -0.810787
-0.00917011 -0.0119162 0.259072 -0.38198 -0.924132 -0.00841226
0.144717 -0.258801 0.404889 -0.000501204 0.919338 -0.393467
0.21261 0.136184 0.55778 -0.000543728 0.996805 -0.0798764
0.0585677 -0.0946544 0.410054 7.56159e-05 -0.138885 -0.990308
0.162719 -0.137507 0.417875 -7.86774e-05 0.143681 0.989624
-0.0690188 0.135836 0.532304 0.000544023 -0.991071 -0.133334
0.217734 -0.0894966 0.399926 0.997432 -0.0020594 0.0715893
0.0873489 0.138397 0.586248 -0.000544439 0.996805 -0.0798693
0.233706 -0.00695184 0.0770867 0.00265731 -0.999408 0.0342994
-0.0437999 -0.194092 0.426678 -0.000102405 0.188654 0.982044
0.256913 0.161164 0.505704 0.664879 0.746934 0.00508678
-0.225095 0.143648 0.506328 -0.947384 -0.319238 0.023454
0.135168 0.152312 0.63489 0.000504604 -0.930305 0.366787
0.0159677 -0.00321681 0.397045 7.52196e-05 -0.137494 -0.990503
-0.0583124 0.0683419 0.386629 5.03896e-05 -0.0928603 -0.995679
-0.120834 0.0366903 0.390397 9.13967e-05 -0.16746 -0.985879
-0.221425 -0.00114357 0.379121 -0.0703369 -0.146537 -0.986701
-0.00791904 0.299559 0.0485233 -0.988445 -0.145081 0.0439104
-0.0971454 -0.166868 0.420327 7.90112e-05 -0.143794 -0.989608
0.320933 -0.0085847 0.0320013 0.980163 -0.0768187 0.182702
-0.185668 0.173108 0.693235 -0.000511516 0.944842 -0.327526
-0.0581558 -0.197686 0.427367 -0.000102405 0.188654 0.982044
-0.193266 0.171687 0.630993 -0.0238287 0.957758 -0.286587
-0.189942 0.149523 0.449775 -0.000525594 0.963409 -0.268034
0.0806838 -0.0149017 0.295698 -0.038197 -0.551119 0.833552
-0.234881 0.0388317 0.601603 0.611174 -0.080542 -0.787388
0.184709 0.107928 0.39382 0.000197013 -0.363394 0.931636
0.232145 0.158316 0.557093 -0.597445 0.801466 0.0266593
0.235886 0.0531376 0.370281 -0.404694 0.104307 0.908484
-0.0662916 0.136968 0.419795 0.000493942 -0.903097 0.429437
0.214404 0.144167 0.574028 -0.00783663 -0.996524 0.0829304
0.242586 -0.113168 0.483617 -0.0615322 0.981095 0.183483
-0.257623 0.157966 0.473348 -0.608675 -0.791371 -0.0569671
0.00666473 -0.0714739 0.10018 0.999798 0.00151199 0.0200481
-0.0362884 0.172472 0.691167 -0.000513169 0.944847 -0.327512
0.182355 0.126065 0.405382 0.000392039 -0.716783 0.697296
0.223594 0.116687 0.389503 0.0636138 0.468095 -0.881385
-0.103407 0.0954085 0.388998 0.000198322 -0.363372 0.931644
-0.150332 0.172552 0.696989 0.000515446 -0.944729 0.327853
0.217376 0.00037301 0.378643 0.0704784 -0.146481 -0.9867
-0.1597 -0.0961358 0.412032 -7.5735e-05 0.139033 0.990288
0.152664 0.0126418 0.396689 -7.27035e-05 0.133657 0.991028
0.175717 0.138407 0.585775 -0.000543728 0.996805 -0.0798764
-0.0920696 0.144935 0.439414 0.000535814 -0.989123 0.147089
-0.034866 -0.273776 0.411479 -0.00054152 0.995175 0.0981176
0.137513 0.0842679 0.385153 5.0683e-05 -0.092863 -0.995679
0.143843 0.14801 0.617588 -0.000513596 0.940334 -0.340253
-0.0994387 -0.224003 0.429728 -3.15817e-05 0.0579206 0.998321
-0.124397 -0.0961324 0.412034 -7.5735e-05 0.139033 0.990288
-0.206897 -0.26456 0.429959 2.65232e-05 -0.0486702 -0.998815
0.000822531 0.0922453 0.103119 0.211707 0.118457 0.970128
-0.150781 -0.111971 0.414256 -7.613e-05 0.139029 0.990288
-0.00256254 0.115437 0.396788 0.000197013 -0.363394 0.931636
-0.00226056 0.014603 0.187832 -0.383491 0.923544 0
0.0141078 0.00345308 0.218456 0.923479 0.383649 0
-0.0897404 -0.178643 0.422038 7.82194e-05 -0.143786 -0.989609
0.106089 0.0837863 0.388341 1.12925e-05 -0.0206904 0.999786
0.207013 0.151645 0.400609 -0.9925 0.0543691 -0.10949
-0.200258 0.160447 0.45412 0.00276107 0.996878 0.0789098
-0.185278 0.13649 0.526962 0.000544023 -0.991071 -0.133334
0.142638 0.128074 0.40177 -0.000399342 0.731338 -0.682015
0.002485 0.0094224 0.280583 0.087339 0.160639 -0.983141
-0.204273 -0.213328 0.429105 -3.15817e-05 0.0579206 0.998321
-0.212972 -0.242885 0.412836 -0.0704066 -0.150785 -0.986056
-0.11034 -0.20952 0.428888 -3.14419e-05 0.0579234 0.998321
0.0475953 0.0242444 0.392527 9.16144e-05 -0.167462 -0.985879
-0.120141 -0.0580568 0.406524 -7.84758e-05 0.144064 0.989568
0.200892 0.135582 0.550341 -0.000543728 0.996805 -0.0798764
0.191743 -0.165211 0.420109 7.82194e-05 -0.143786 -0.989609
-0.254855 -0.126295 0.509244 -0.664563 -0.731358 -0.153206
0.144693 -0.268157 0.432078 -8.35317e-06 0.0153738 0.999882
0.204388 0.144816 0.489596 -0.000532142 0.975413 0.220386
-0.236432 -0.0440469 0.378852 0.000523646 -0.951542 0.307519
0.151336 0.136692 0.526832 0.000538295 -0.991064 -0.133388
-0.246597 0.120879 0.37291 -0.121706 0.536052 -0.835366
0.0258391 0.213167 0.66681 0.000479751 -0.885931 -0.463817
-0.201895 -0.283841 0.400219 0.000213253 -0.391513 -0.920173
0.0925222 0.11152 0.390489 -0.000224176 0.413122 -0.910676
-0.0546135 0.026386 0.39482 -7.28412e-05 0.133656 0.991028
0.212858 0.165661 0.458205 0.99515 0.0616965 0.0766097
-0.205353 0.150095 0.56616 -0.988323 0.138628 0.0632384
0.129938 -0.209339 0.428885 -3.14419e-05 0.0579234 0.998321
0.0418547 -0.210434 0.426076 6.75397e-05 -0.123936 -0.99229
-0.00737775 0.2947 0.0687732 -0.998866 0.0302803 0.0367459
0.0104901 -0.239205 0.428729 2.65232e-05 -0.0486702 -0.998815
0.197615 -0.268536 0.403972 0.065711 0.422775 -0.903849
0.216516 -0.135094 0.41753 -7.613e-05 0.139029 0.990288
0.231565 -0.148948 0.412809 0.966346 -0.0472576 -0.252869
-0.203597 0.147272 0.414641 0.0440462 -0.80948 0.585493
0.123564 0.168568 0.679585 -0.000517512 0.952843 -0.303463
0.0839376 0.153773 0.633605 -0.000507736 0.940316 -0.340303
-0.00970883 -0.00371358 0.110106 0 0 -1
-0.187729 -0.162306 0.419657 7.90112e-05 -0.143794 -0.989608
0.207611 0.0230474 0.392745 9.16144e-05 -0.167462 -0.985879
0.223141 -0.174553 0.423258 -7.86774e-05 0.143681 0.989624
0.0198179 -0.0727068 0.406882 7.84053e-05 -0.144009 -0.989576
-0.20664 0.159931 0.40999 0.99362 0.0646803 -0.0923881
-0.00536972 -0.215469 0.0607372 -0.134696 0.0328444 -0.990342
-0.221071 -0.067553 0.398277 -0.0695591 -0.146504 -0.986761
-0.21301 0.136786 0.524651 0.000544023 -0.991071 -0.133334
0.0233884 -0.0895958 0.411127 -7.84758e-05 0.144064 0.989568
-0.180474 0.18418 0.681737 -0.625786 0.738587 -0.250762
-0.20321 -0.123424 0.405305 -0.0704754 -0.146515 -0.986695
0.165736 -0.0283105 0.400539 7.50368e-05 -0.137492 -0.990503
0.101828 0.168655 0.679897 -0.000517512 0.952843 -0.303463
0.0288196 0.150689 0.46318 -0.000532142 0.975413 0.220386
0.217601 -0.140439 0.418305 -7.86774e-05 0.143681 0.989624
-0.215606 0.129563 0.385906 -0.0628883 0.518123 -0.852991
-0.00737688 0.0247672 0.0996597 -0.970948 0.239275 0.00270506
-0.190164 -0.214545 0.394756 -0.919202 -0.0165265 -0.393438
-0.0332611 0.139481 0.505356 0.000544023 -0.991071 -0.133334
-0.149619 -0.144207 0.418823 -7.85219e-05 0.143682 0.989624
-0.175534 0.188258 0.704281 0.0277739 -0.936134 0.350545
0.255179 0.163136 0.465834 0.62168 0.78316 0.0131839
0.109184 -0.140106 0.416455 7.90112e-05 -0.143794 -0.989608
0.182828 0.132823 0.406839 -0.000399342 0.731338 -0.682015
0.208465 0.00257053 0.373996 -0.990323 -0.00784195 -0.138559
-0.0776178 -0.0215849 0.399587 7.52196e-05 -0.137494 -0.990503
-0.079252 -0.00665314 0.069076 0.00472653 -0.999717 -0.0233233
-0.210404 0.152165 0.522427 0.00657699 0.990693 0.135958
0.0428179 0.0246801 0.392453 9.16144e-05 -0.167462 -0.985879
-0.0662997 -0.0520782 0.405658 -7.83202e-05 0.144066 0.989568
-0.222433 -0.0515127 0.405563 -7.84758e-05 0.144064 0.989568
0.105514 0.173975 0.700688 0.000511591 -0.94474 0.32782
0.109632 0.173518 0.693955 -0.000513169 0.944847 -0.327512
0.0447949 0.00599901 0.397577 -7.28412e-05 0.133656 0.991028
-0.00082947 -0.0983863 0.0644975 -1.90987e-05 0.0367585 -0.999324
0.113106 -0.200082 0.424788 6.75397e-05 -0.123936 -0.99229
-0.24228 -0.126427 0.502685 0.485008 -0.859133 -0.163272
0.0621177 0.150244 0.451869 -0.000525594 0.963409 -0.268034
-0.0599331 0.173246 0.698845 0.000515446 -0.944729 0.327853
-0.00702721 0.116519 0.0855015 -0.999798 -0.00151223 0.0200466
0.193588 0.143166 0.420614 -0.997427 0.00342659 -0.0716065
-0.141312 0.210697 0.674326 -0.386062 0.879516 0.278223
-0.00665342 -0.132837 0.0679489 -0.997925 0.00251525 -0.0643411
-0.006744 0.0440124 0.0801298 -0.999716 -0.00472619 -0.0233778
-0.0281682 0.148165 0.47421 -0.000532142 0.975413 0.220386
-0.230197 -0.208925 0.425763 -0.921511 0.0183041 0.38792
0.207213 -0.105853 0.411636 7.63179e-05 -0.138892 -0.990308
-0.0339012 -0.118083 0.413333 7.63179e-05 -0.138892 -0.990308
0.243041 0.15475 0.462506 -0.0591269 -0.997403 -0.0411297
-0.128454 0.208254 0.75526 6.47338e-05 -0.119383 0.992848
0.200115 -1.99787e-05 0.381282 -0.713841 -0.0526588 0.698325
-0.0422305 0.00727312 0.395401 9.16144e-05 -0.167462 -0.985879
0.20538 0.15741 0.553399 0.991361 0.102392 0.0819775
0.164568 0.00259429 0.0620631 -0.0367582 -2.48577e-05 -0.999324
0.0603582 0.0677398 0.386691 5.0683e-05 -0.092863 -0.995679
0.208451 -0.0185032 0.375604 -0.989092 -0.0090547 -0.147023
0.15183 0.164686 0.673204 0.000519889 -0.952872 0.303371
-0.1456 -0.279135 0.39823 0.000213016 -0.391502 -0.920177
-0.137172 -0.186598 0.425229 -0.000102405 0.188654 0.982044
-0.0739748 0.227424 0.738628 -0.000542109 0.99268 0.120776
0.0517535 -0.101372 0.412783 -7.5735e-05 0.139033 0.990288
0.176638 -0.259988 0.429746 2.65232e-05 -0.0486702 -0.998815
0.0780899 0.225895 0.666447 -0.000510988 0.943753 -0.33065
-0.117926 0.133643 0.567501 0.000547201 -0.999983 0.00577164
0.00650393 0.0518506 0.0715066 0.999731 -0.00289824 -0.0230198
-0.0330724 0.00676455 0.0852372 0.00289826 0.999731 -0.0230184
-0.0482732 0.137399 0.574712 -0.000544439 0.996805 -0.0798693
-0.00720252 0.182206 0.0717999 -0.999716 -0.00472619 -0.0233778
0.217094 0.137952 0.392935 0.0439954 0.806438 -0.58968
0.217147 -0.128843 0.406991 0.997504 -0.00198263 0.0705804
-0.203735 0.166482 0.516951 0.0109465 0.981761 0.189804
-0.228727 -0.155405 0.410003 -0.611324 -0.123375 -0.781704
-0.17356 0.226693 0.744194 -0.00053892 0.992697 0.120631
0.0728823 0.143591 0.479781 0.000536099 -0.983749 -0.179547
-0.219844 -0.0415034 0.381745 0.000296938 -0.588588 0.808433
-0.241619 -0.11132 0.619901 0.481593 -0.113537 0.869009
0.0694635 -0.0484023 0.405134 -7.83202e-05 0.144066 0.989568
-0.133161 0.15026 0.624221 -0.000507736 0.940316 -0.340303
-0.0416918 0.135772 0.54617 -0.000485879 0.991094 0.133164
-0.191856 -0.0401551 0.369964 -0.830581 -0.10176 -0.547522
0.174857 0.0174216 0.340146 -0.945439 0.0677811 0.318672
0.12961 -0.273843 0.413074 -0.00054152 0.995175 0.0981176
-0.0440722 0.0848421 0.38509 5.03896e-05 -0.0928603 -0.995679
0.0267108 -0.290404 0.415873 0.000543477 -0.992852 -0.119354
-0.210076 0.130518 0.367507 0.992498 0.0373716 -0.116413
0.140592 -0.132777 0.417199 -7.613e-05 0.139029 0.990288
-0.0701958 -0.154388 0.420307 -7.85219e-05 0.143682 0.989624
0.163961 0.0141168 0.321012 -0.745392 0.525716 0.409893
-0.215172 -0.179801 0.402874 0.946552 -0.0497587 -0.318689
0.0670096 0.139114 0.593119 -0.000513596 0.940334 -0.340253
-0.248266 0.149732 0.425317 -0.150817 -0.948048 0.280107
-0.0672393 -0.284574 0.401043 0.00043519 -0.798969 -0.601372
0.030287 0.143945 0.49303 -0.000535413 0.975406 0.220416
-0.0643131 0.143106 0.60435 -0.000513596 0.940334 -0.340253
-0.205257 -0.00119804 0.377977 -0.0703154 -0.14656 -0.9867
0.133939 0.138983 0.50974 0.000544023 -0.991071 -0.133334
0.0228609 0.140624 0.498085 0.00054209 -0.987551 -0.157301
0.187403 0.150338 0.607604 0.0243643 0.949914 -0.311562
0.211828 0.135484 0.582019 0.0005343 -0.986445 0.164092
-0.141191 0.147932 0.624165 0.000509773 -0.93027 0.366876
-0.106859 0.166291 0.672829 -0.000517512 0.952843 -0.303463
0.195567 0.144229 0.542084 -0.997419 0.00147422 -0.0717835
0.0842526 0.102995 0.386624 -0.000224176 0.413122 -0.910676
0.0542851 -0.00118363 0.0661197 -0.0367582 -2.54718e-05 -0.999324
0.244094 -0.0999174 0.422099 -0.0762468 0.954133 0.289512
0.000761759 0.266597 0.081908 0.129502 0.117935 0.984541
0.220197 0.136305 0.565254 0.94501 -0.319883 0.0680477
-0.158255 -0.201992 0.428184 -0.000102405 0.188654 0.982044
-0.137605 0.146643 0.462428 0.000536607 -0.983751 -0.179538
0.0528505 0.0912997 0.384493 5.03896e-05 -0.0928603 -0.995679
-0.196503 0.0168183 0.376601 0.997422 0.00312774 -0.0716976
-0.101431 -0.00674969 0.0980639 -0.000693691 -0.999434 0.0336292
-0.234693 -0.0608349 0.381138 0.596809 -0.110496 -0.794739
-0.0933349 0.137443 0.575566 -0.000544439 0.996805 -0.0798693
-0.0620265 -0.00656862 0.104258 -0.000693691 -0.999434 0.0336292
-0.202318 0.217215 0.753973 -0.000213294 0.391456 0.920197
-0.0114283 -0.223758 0.391892 -5.91442e-05 0.108885 0.994054
-0.0529816 -0.153657 0.420203 -7.85219e-05 0.143682 0.989624
-0.249536 -0.141138 0.576256 -0.0600397 -0.980013 -0.189657
0.0519428 0.183964 0.728298 0.000491436 -0.907521 0.420007
0.160888 0.150626 0.63058 0.000504604 -0.930305 0.366787
0.220495 -0.0543278 0.396304 0.0697109 -0.146429 -0.986762
0.205723 0.160626 0.660357 0.000519889 -0.952872 0.303371
-0.210771 0.161173 0.440915 -0.0236187 0.956649 -0.290283
-0.152733 -0.109181 0.413864 -7.613e-05 0.139029 0.990288
-0.227856 -0.272378 0.431196 -0.49557 0.0126874 0.868476
-0.203054 -0.258659 0.405665 -0.000500479 0.919324 -0.393501
-0.028022 -0.280626 0.398891 0.000213253 -0.391513 -0.920173
0.13701 0.0070607 0.29259 0.283218 0.104425 -0.953353
0.168634 0.126724 0.400307 -0.000399342 0.731338 -0.682015
-0.165289 0.021935 0.395412 -7.28412e-05 0.133656 0.991028
-0.191584 -0.107653 0.413647 -7.613e-05 0.139029 0.990288
0.0583421 0.173498 0.699385 0.000511591 -0.94474 0.32782
0.0570722 -0.223298 0.429692 -3.15817e-05 0.0579206 0.998321
0.0677585 -0.199254 0.427682 -0.000102405 0.188654 0.982044
0.0601439 0.0612859 0.389662 -9.04339e-05 0.165722 0.986172
-0.000352874 -0.12914 0.416678 -7.613e-05 0.139029 0.990288
0.112709 0.0526665 0.391116 -9.01482e-05 0.165727 0.986172
-0.0632901 0.114344 0.391809 -0.000225594 0.413143 -0.910666
0.17616 0.176977 0.664653 -0.997419 0.00272047 -0.0717442
-0.217947 -0.153282 0.4071 0.0696638 0.146376 0.986773
0.197952 -0.179563 0.409596 -0.0704953 0.146583 0.986683
-0.0413272 0.0262402 0.39218 9.13967e-05 -0.16746 -0.985879
-0.149867 0.202031 0.753299 0.000327282 -0.5993 0.800525
-0.254218 0.0976286 0.602724 -0.452366 0.076385 0.888555
0.242911 0.0891772 0.374409 0.150508 -0.146829 0.977644
0.0821862 -0.227729 0.429977 -4.47348e-05 0.0820432 0.996629
0.0664918 -0.289641 0.409715 0.000537631 -0.992816 -0.119647
-0.172292 -0.207014 0.385575 -0.342234 0.800658 -0.491754
0.0672096 -0.0544021 0.406007 -7.83202e-05 0.144066 0.989568
-0.240899 0.044799 0.606666 0.481366 0.0757143 0.873243
-0.137482 0.00688031 0.0826186 -0.000275683 0.999806 0.0196853
0.0318276 -0.0439022 0.402693 7.50368e-05 -0.137492 -0.990503
0.00531842 -0.239673 0.430957 -4.4579e-05 0.0820463 0.996629
-0.161694 0.142269 0.608729 0.000514289 -0.949499 0.31377
-0.19643 -0.0342422 0.37829 0.859352 0.0596851 0.50789
-0.237742 -0.0218501 0.378196 0.611732 0.0871676 0.786248
0.197184 -0.0226392 0.401542 -7.48259e-05 0.137298 0.99053
-0.252868 0.154749 0.476028 -0.451292 -0.890277 -0.0611789
0.208783 0.107637 0.371041 -0.988222 0.0178174 -0.15199
0.133185 -0.225353 0.429814 -3.15817e-05 0.0579206 0.998321
-0.137017 -0.158578 0.42091 -7.85219e-05 0.143682 0.989624
0.248995 -0.118462 0.511089 0.0983554 0.978555 0.180986
0.195304 0.195103 0.747901 0.000337739 -0.618448 0.785826
-0.252735 -0.0331013 0.61451 -0.0590352 0.0879524 0.994374
-0.161757 -0.0858028 0.408773 7.84053e-05 -0.144009 -0.989576
0.151475 -0.00285053 0.397004 7.52196e-05 -0.137494 -0.990503
0.179641 -0.215741 0.426749 6.75397e-05 -0.123936 -0.99229
-0.241431 0.0965229 0.363422 0.481025 0.260072 -0.837244
-0.0539773 0.164168 0.671928 0.000519889 -0.952872 0.303371
0.00973453 0.213222 0.755721 -0.000213294 0.391456 0.920197
0.20653 0.152099 0.585727 0.0241894 0.950581 -0.309533
-0.112905 0.141623 0.421226 -0.000527035 0.963413 -0.26802
-0.119706 0.136995 0.411491 -0.000400083 0.731346 -0.682006
-0.221704 0.14212 0.408901 0.0440341 -0.809564 0.585378
0.128578 0.142395 0.487334 0.00054209 -0.987551 -0.157301
-0.222987 0.0956979 0.377058 0.0712994 -0.14211 0.98728
-0.043796 -0.196129 0.424284 6.74202e-05 -0.123934 -0.99229
0.00663913 0.22829 0.0639962 0.997925 -0.00251526 -0.0643413
-0.14236 -0.139193 0.416302 7.90112e-05 -0.143794 -0.989608
-0.237848 -0.0504601 0.608434 0.611136 -0.0805458 -0.787417
-0.288141 0.00336184 0.0568226 0.141864 0.0995502 -0.984868
-0.219765 0.00269889 0.398003 -7.28412e-05 0.133656 0.991028
0.0263763 0.0068264 0.0684259 0.227857 0.973615 -0.0124739
0.0154354 -0.230309 0.430186 -4.47348e-05 0.0820432 0.996629
0.170448 -0.237012 0.430745 -4.47348e-05 0.0820432 0.996629
-0.00645312 -0.0400211 0.0707963 -0.999732 0.00289873 -0.0229658
0.20362 0.164023 0.622116 0.0241618 0.950577 -0.309548
0.0139571 0.00743418 0.26759 0.887497 0.458875 -0.0422257
0.155237 0.177339 0.704907 -0.000513169 0.944847 -0.327512
0.192247 0.138951 0.523459 -0.000543983 0.991019 0.133717
0.102271 0.00691768 0.08985 -0.00151663 0.999798 0.0200463
0.0624061 -0.222629 0.427601 6.75397e-05 -0.123936 -0.99229
-0.250619 0.0492532 0.369649 -0.750095 0.0953355 0.654423
0.177732 -0.102783 0.412991 -7.5735e-05 0.139033 0.990288
0.0936124 0.156596 0.647893 0.000516849 -0.952881 0.303344
0.217738 -0.0628495 0.386766 0.999782 -0.0146215 -0.0148876
-0.146439 0.155033 0.637549 -0.000514496 0.952835 -0.303489
-0.198744 0.0766251 0.377019 -0.0716165 0.0803131 -0.994194
0.150994 0.143549 0.480241 0.000536099 -0.983749 -0.179547
0.00483425 0.137951 0.516885 0.000544023 -0.991071 -0.133334
-0.204091 0.133983 0.545522 0.000544023 -0.991071 -0.133334
-0.172912 -0.27692 0.430095 0.000255581 -0.46949 0.882937
-0.135567 0.178842 0.715091 0.000515446 -0.944729 0.327853
-0.208466 0.181622 0.674749 -0.0267269 0.943513 -0.330255
-0.206508 0.150392 0.535158 0.00657699 0.990693 0.135958
-0.100582 0.125278 0.404731 0.00038863 -0.716834 0.697244
-0.248251 -0.0674504 0.61782 -0.0604132 0.0879784 0.994289
0.218501 0.141068 0.541039 -0.00786222 0.990747 0.135491
-0.206008 0.0324387 0.378658 0.0703968 0.146617 0.986685
0.191535 0.156286 0.597414 0.0241894 0.950581 -0.309533
-0.209034 -0.134827 0.415668 7.63179e-05 -0.138892 -0.990308
-0.178193 -0.072819 0.408669 -7.84758e-05 0.144064 0.989568
-0.221699 -0.245151 0.431398 -4.4579e-05 0.0820463 0.996629
-0.185945 0.141316 0.579533 -0.0114923 0.993083 -0.116853
-0.0253162 0.124452 0.40384 0.00038863 -0.716834 0.697244
0.0380719 0.13903 0.522252 -0.000543983 0.991019 0.133717
0.212076 -0.253222 0.431849 -8.35317e-06 0.0153738 0.999882
-0.0783429 0.0196492 0.393296 9.13967e-05 -0.16746 -0.985879
0.189178 0.145603 0.531703 0.00772887 -0.990694 -0.135884
0.128901 -0.230133 0.388933 0.000498295 -0.917368 0.39804
-0.0723871 -0.111532 0.412411 7.56159e-05 -0.138885 -0.990308
0.0522587 0.00675267 0.0788603 -0.00472655 0.999717 -0.0233238
0.306718 -0.00758761 0.0575414 -0.00472478 -0.996099 0.0881115
-0.205088 -0.0927914 0.40089 -0.0703913 -0.14654 -0.986697
-0.166507 0.143405 0.480085 0.000536099 -0.983749 -0.179547
0.0425172 0.176713 0.703279 -0.000513169 0.944847 -0.327512
-0.082002 0.141594 0.503161 -0.000535413 0.975406 0.220416
0.131769 0.138031 0.581377 -0.000543728 0.996805 -0.0798764
0.198107 -0.0855978 0.410559 -7.83202e-05 0.144066 0.989568
0.0807171 -0.131025 0.416949 -7.613e-05 0.139029 0.990288
0.184006 -0.00689028 0.0815168 0.000275681 -0.999806 0.0196853
-0.169351 0.162327 0.666344 0.000516849 -0.952881 0.303344
0.198782 -0.0106338 0.388263 0.0706365 -0.14637 -0.986705
-0.00136411 -0.00844572 0.0662238 0 0 -1
-0.187759 0.158087 0.653054 0.000516849 -0.952881 0.303344
-0.0971582 -0.151084 0.419826 -7.85219e-05 0.143682 0.989624
0.0815832 0.227551 0.735592 -0.000502133 0.919479 -0.393139
0.181788 -0.0840081 0.408539 7.84053e-05 -0.144009 -0.989576
0.0449598 0.0169399 0.290153 0.0551484 0.551818 -0.832139
0.201452 -0.0566397 0.395285 0.0698133 -0.14671 -0.986713
0.281869 0.00753737 0.0693122 0.0100723 0.999387 0.0335333
-0.197651 0.0861337 0.377709 -0.0716165 0.0803131 -0.994194
0.0145701 0.00398919 0.252275 0.92112 0.382669 -0.0714333
-0.0291964 0.146029 0.612374 -0.000507736 0.940316 -0.340303
0.0708018 0.0226566 0.392799 9.16144e-05 -0.167462 -0.985879
-0.157815 0.149737 0.466942 -0.000535413 0.975406 0.220416
0.0439995 0.177191 0.71005 0.000511591 -0.94474 0.32782
0.0748959 -0.0907787 0.411298 -7.5735e-05 0.139033 0.990288
0.00656882 -0.0461486 0.103053 0.999798 0.00151199 0.0200481
0.00661805 -0.0687478 0.102302 0.999798 0.00151199 0.0200481
-0.234442 0.161686 0.452179 0.595759 0.798944 -0.0822215
0.2098 -0.102664 0.386306 0.0697773 -0.206473 -0.975961
0.000229061 -0.290367 0.415452 0.000543477 -0.992852 -0.119354
-0.182471 -0.255363 0.429512 2.65232e-05 -0.0486702 -0.998815
-0.144128 -0.0930534 0.411601 -7.5735e-05 0.139033 0.990288
0.117469 0.145478 0.486458 -0.000532142 0.975413 0.220386
-0.162487 -0.276649 0.397168 0.000213016 -0.391502 -0.920177
0.32088 -0.0010564 0.00624346 -0.0123931 -0.0110153 -0.999863
0.222683 -0.0729483 0.399223 0.0706318 -0.146745 -0.986649
0.000735444 -0.197138 0.0904062 0.211747 -0.118062 0.970167
0.0756908 0.177502 0.710897 0.000511591 -0.94474 0.32782
-0.053854 -0.138852 0.418053 -7.86774e-05 0.143681 0.989624
-0.0699746 -0.147574 0.419318 -7.86774e-05 0.143681 0.989624
-0.0794715 0.173181 0.698689 0.000515446 -0.944729 0.327853
-0.130782 0.1371 0.571542 -0.000544439 0.996805 -0.0798693
-0.254485 0.121 0.378986 -0.54569 0.426899 -0.721096
-0.231922 -0.0438824 0.375878 0.000519695 -0.951265 -0.308373
0.0600546 -0.152119 0.419988 -7.86774e-05 0.143681 0.989624
0.080639 0.00253838 0.299863 -0.0437924 0.103952 0.993618
0.113741 -0.200336 0.427894 -0.000102405 0.188654 0.982044
0.169886 0.175276 0.704335 0.000511591 -0.94474 0.32782
0.00650533 0.0389963 0.103018 0.999804 0.000283226 0.0197851
0.159851 0.179136 0.710085 -0.000513169 0.944847 -0.327512
-0.225729 0.154893 0.471351 -0.543364 0.81823 0.187765
-0.045058 0.175409 0.699653 -0.000511516 0.944842 -0.327526
-0.245448 0.135744 0.597665 0.0662467 0.402641 0.912958
-0.299199 0.00632067 0.0392685 0.965234 0.0730326 -0.250979
-0.232034 -0.117051 0.409308 -0.966432 -0.0453991 -0.25288
0.193975 -0.270536 0.403255 -0.997517 0.000999717 -0.0704254
-0.234541 -0.274521 0.405207 -0.998636 -0.000355315 0.0522196
0.226948 -0.236326 0.416246 0.997355 -0.00189251 0.0726591
0.250846 0.103507 0.373104 0.611988 -0.272531 0.742427
-0.0898887 0.137032 0.53662 -0.000485879 0.991094 0.133164
0.123569 -0.214161 0.429164 -3.14419e-05 0.0579234 0.998321
-0.0378421 -0.156664 0.418849 7.90112e-05 -0.143794 -0.989608
0.012184 -0.194071 0.424031 6.74202e-05 -0.123934 -0.99229
0.189766 0.159537 0.623366 -0.997448 0.00162969 -0.0713835
-0.0274583 0.0214451 0.392995 9.16144e-05 -0.167462 -0.985879
-0.199676 0.0993442 0.385038 -0.000225594 0.413143 -0.910666
-0.0423773 0.217164 0.754032 -0.000213294 0.391456 0.920197
0.0633519 0.144131 0.476792 0.000536099 -0.983749 -0.179547
0.0569286 -0.0687506 0.406309 7.84053e-05 -0.144009 -0.989576
0.00662728 0.0752652 0.0963361 0.999804 0.000283226 0.0197851
-0.11808 -0.274967 0.423102 -0.000542319 0.995173 0.0981362
-0.134714 -0.273775 0.410918 -0.00054152 0.995175 0.0981176
-0.145518 0.16037 0.660156 0.000516849 -0.952881 0.303344
0.213297 0.143112 0.432399 0.000489234 -0.903135 0.429356
-0.10212 -0.224881 0.380466 5.91442e-05 -0.108885 -0.994054
0.176618 -0.166928 0.420357 7.82194e-05 -0.143786 -0.989609
0.0752911 -0.0809545 0.408086 7.84053e-05 -0.144009 -0.989576
-0.0152076 0.150558 0.630649 0.000504604 -0.930305 0.366787
0.0494226 0.189329 0.739893 0.000494948 -0.907494 0.420064
0.13172 0.151733 0.458805 -0.000532142 0.975413 0.220386
0.126663 0.222831 0.726824 -0.000325833 0.599437 -0.800422
-0.189963 0.157208 0.622955 0.997438 0.00303547 -0.0714663
0.196911 0.0465793 0.37154 -0.997401 0.001996 -0.0720289
0.22294 -0.042047 0.390965 -0.0706339 0.146577 0.986674
-0.256191 -0.117878 0.474862 -0.664563 -0.731358 -0.153206
0.194878 -0.0663265 0.396622 -0.997448 0.00212472 -0.071371
0.251451 0.165837 0.455939 0.45335 0.886619 -0.0915423
0.22947 -0.062616 0.396472 0.611116 -0.12006 -0.782382
-0.0463806 0.0136171 0.287751 -0.0631806 0.703076 -0.708302
-0.0104217 0.135983 0.58574 0.0005343 -0.986445 0.164092
0.00502701 0.178794 0.0619069 0.134687 -0.0328444 -0.990344
-0.0515069 0.191523 0.744752 0.000494948 -0.907494 0.420064
0.20796 0.188969 0.712796 0.571676 0.787295 -0.230981
0.251291 0.0129117 0.371592 0.75079 0.0960585 0.653519
-0.176977 -0.0119213 0.334538 -0.806783 -0.448788 -0.384304
-0.0696404 0.0509896 0.391381 -9.01482e-05 0.165727 0.986172
0.151446 -0.057523 0.404682 7.84053e-05 -0.144009 -0.989576
0.0794959 -0.200909 0.424889 6.75397e-05 -0.123936 -0.99229
0.0067191 0.256169 0.0821214 0.999408 0.00264872 0.0343001
0.203537 0.156951 0.580027 0.991065 0.127184 0.0401804
0.0286987 -0.290409 0.415929 0.000543477 -0.992852 -0.119354
0.0502559 -0.217771 0.429371 -3.14419e-05 0.0579234 0.998321
-0.00674366 -0.17263 0.0878576 -0.999408 -0.00264844 0.0342992
-0.203992 0.0460601 0.392156 -7.27035e-05 0.133657 0.991028
0.0414908 -0.226476 0.392193 -5.91442e-05 0.108885 0.994054
-0.193728 0.0207514 0.372787 0.707528 0.0664474 0.703554
0.0677901 0.22282 0.677794 -0.000510982 0.95341 0.301678
-0.0183387 0.112495 0.395644 0.000197013 -0.363394 0.931636
-0.0979999 0.000676822 0.396495 7.52196e-05 -0.137494 -0.990503
-0.135598 0.142763 0.497856 -0.000535413 0.975406 0.220416
0.0769198 0.209677 0.755417 6.5041e-05 -0.119369 0.99285
-0.123455 0.138649 0.590831 -0.000544439 0.996805 -0.0798693
0.0512031 -0.26348 0.432006 -8.35317e-06 0.0153738 0.999882
-0.236193 0.0661783 0.597787 0.611174 -0.080542 -0.787388
-0.237533 -0.0637598 0.379409 0.597518 -0.110295 -0.794234
-0.187539 0.169632 0.6573 0.997426 0.00326261 -0.0716283
-0.178823 -0.00850089 0.336692 -0.918798 -0.0522601 -0.391254
0.0105559 0.19617 0.74882 0.000337739 -0.618448 0.785826
-0.0451795 -0.259505 0.429717 2.65232e-05 -0.0486702 -0.998815
0.215428 -0.204621 0.406687 -0.946673 -0.050706 -0.31818
0.000312567 -0.0532892 0.40584 -7.83202e-05 0.144066 0.989568
-0.167897 0.0148742 0.396364 -7.28412e-05 0.133656 0.991028
-0.199825 0.138941 0.522006 -0.000485879 0.991094 0.133164
0.00689433 -0.0963948 0.0906094 0.999798 0.00151199 0.0200481
0.250274 0.153273 0.504183 0.0732799 -0.99628 -0.0453356
-0.117731 0.144137 0.476218 0.000536099 -0.983749 -0.179547
0.0310717 0.00431656 0.397803 -7.28412e-05 0.133656 0.991028
0.213448 0.133755 0.555446 0.000547201 -0.999983 0.00577164
