-0.273872 -0.0718656 0.0206469 -0.310517 0.950568 -0.000375685
0.19419 -0.080476 0.403375 -0.000210944 0.139013 0.990291
-0.00662871 -0.0274816 0.136553 -0.999805 -0.000552988 0.0197359
-0.223982 0.105258 0.361652 0.070675 -0.142238 0.987306
0.189212 0.183949 0.464501 -0.00871815 0.990682 0.135913
0.184773 0.196913 0.6466 0.142316 0.934623 -0.325922
0.191872 0.0321944 0.350358 -0.999998 -0.0013218 0.00127507
0.0778425 -0.261076 0.410591 0.00111247 -0.734659 0.678436
0.202149 -0.152399 0.410295 -0.000221899 0.145988 0.989286
0.0158151 -0.0678316 0.395104 0.000357337 -0.237747 0.971327
0.207103 0.119445 0.37475 0.000669021 -0.440423 0.89779
0.193554 0.162512 0.569613 0.00150959 -0.999984 0.00538789
-0.18586 -0.00944208 0.239199 -0.0871227 -0.000124372 0.996198
-0.0193223 -0.188725 0.409552 -0.000188916 0.124856 0.992175
0.199315 0.152379 0.375883 -0.0626979 -0.500322 0.863566
-0.236367 -0.00185703 0.596149 0.597124 0.068797 0.799193
-0.0223623 0.191862 0.680271 0.00142123 -0.944851 0.327497
-0.133863 -0.131311 0.401741 -0.000222719 0.14721 0.989105
0.0183857 -0.0871258 0.404271 -0.000210944 0.139013 0.990291
0.10973 0.174535 0.604009 0.00136718 -0.908495 0.417893
-0.00650033 0.0466332 0.0641422 0 0 -1
-0.252122 0.180307 0.508397 -0.0611 0.997273 0.0413922
-0.0519792 0.195432 0.690698 0.00141447 -0.944816 0.3276
-0.00700935 0.0355362 0.311706 0 0 1
-0.23342 0.036545 0.359189 0.61034 0.088038 0.787232
0.206122 0.0953799 0.380469 -0.00010211 0.0675746 0.997714
0.208319 0.180528 0.644706 0.697766 -0.666911 0.261443
-0.0195158 0.0394377 0.0843589 -0.989933 -0.110367 -0.0886148
0.209579 0.177892 0.509958 -0.00872141 0.990683 0.135911
0.0240932 0.0683601 0.101678 0.00681708 0.00941105 -0.999933
0.162754 -0.239826 0.413673 -0.000581757 0.384743 0.923024
0.0124418 0.0491792 0.307957 -0.00107337 0.669096 0.743175
0.0750656 0.0738104 0.378392 -0.000107631 0.0707235 0.997496
-0.0875411 0.139824 0.138252 -0.15194 -0.00933516 0.988346
-0.238279 0.0698453 0.582256 0.466259 -0.0880618 -0.880254
0.0318138 -0.180676 0.417406 -0.000188162 0.124753 0.992188
0.0379972 0.0626668 0.291448 -0.001509 0.999999 0
-0.00462511 0.165499 0.452206 0.00129764 -0.858567 -0.512699
0.045296 0.233405 0.74041 0.000181464 -0.119727 0.992807
-0.129439 0.197377 0.132355 -0.15194 -0.00933516 0.988346
0.0487628 0.046303 0.263108 0.999999 0.00149762 0
-0.209489 0.204584 0.697737 -0.958465 -0.242354 0.150365
-0.0931051 0.00976961 0.381588 -0.000205819 0.137334 0.990525
-0.0969145 0.171327 0.113025 0.809608 0.586644 -0.0195904
0.00601816 -0.000875331 0.0993012 0.154245 -0.969388 -0.191038
0.224262 0.184706 0.420493 0.0218197 0.95669 -0.29029
-0.0316802 0.00967956 0.108218 0.313816 -0.949278 -0.0197711
-0.193209 -0.0639935 0.386495 -0.0705863 -0.146488 -0.986691
0.0135048 -0.258324 0.383296 0.00101969 -0.676955 -0.736023
0.0803202 0.177003 0.622929 0.00150687 -0.997288 -0.0735838
-0.00879689 0.0210932 0.381776 0.000363844 -0.238787 0.971072
-0.0844889 0.153278 0.569402 0.00152927 -0.999987 0.00487613
0.169748 0.260615 0.117669 0.605206 0.701436 0.376448
-0.00848347 -0.278508 0.0415069 0.999999 0.00128827 0
0.112281 -0.0839696 0.403848 -0.000210944 0.139013 0.990291
-0.174689 -0.037512 0.130725 0.311096 -0.949996 0.0269796
0.0948336 0.0144158 0.26593 -0.000380508 0.258504 -0.96601
-0.0535441 0.155679 0.529287 0.00146429 -0.969048 0.246869
-0.0159357 -0.0214747 0.262385 0 0 -1
0.107577 0.160115 0.422571 0.00142854 -0.953497 0.301399
-0.0149947 0.0254217 0.243711 -0.922954 -0.38491 0
-0.238585 0.172346 0.563663 0.480264 0.718265 0.50343
-0.228976 -0.0100221 0.390294 -0.648951 -0.0955995 0.7548
0.0592519 -0.165058 0.415447 -0.000190539 0.124793 0.992183
-0.0155365 0.0348794 0.262385 0 0 -1
-0.228479 0.056101 0.366187 -0.997405 -0.00391169 0.071884
-0.147907 0.156699 0.403526 0.00149383 -0.997073 -0.0764364
0.107601 0.180773 0.103463 -0.100021 0.0912218 -0.990795
-0.250581 0.0243295 0.585484 -0.070812 -0.0982236 -0.992642
-0.0903132 0.161066 0.47568 0.00148878 -0.987507 -0.157567
-0.213668 -0.0411771 0.131798 -0.117893 0.096641 0.988313
0.0067854 -0.255779 0.123938 0.0989319 -0.495563 0.862919
0.173339 -0.0250777 0.318533 -0.00128059 0.809935 0.586519
-0.17443 -0.240075 0.380359 -0.000446254 0.297353 -0.954768
-0.0512885 0.160754 0.479099 0.00146992 -0.974992 0.222235
0.0524258 -0.10968 0.40212 -0.000205837 0.136358 0.99066
0.189269 -0.063711 0.364719 0.00107948 -0.810357 -0.585935
0.215575 -0.0379721 0.366927 0.996086 -0.0335307 -0.0817858
0.192378 -0.0206175 0.362695 -0.000300697 0.164184 0.98643
0.217572 0.179489 0.459189 0.00652473 -0.994158 -0.107737
0.188164 0.1747 0.554053 0.00485289 0.998582 -0.0530183
0.0855439 0.1572 0.119298 -0.811859 0.583525 -0.019587
0.0374867 -0.236237 0.419947 0.000541968 -0.35595 0.934505
0.196503 0.13788 0.371764 0.0638028 0.46853 -0.881141
0.211508 0.186699 0.599872 0.997459 -0.000388516 0.0712428
-0.178825 0.188881 0.604322 -0.0259515 0.950506 -0.309622
0.0845768 0.111656 0.378136 -0.000653699 0.432903 0.90144
-0.234168 0.0980067 0.58591 0.597124 0.068797 0.799193
-0.122276 0.0247096 0.271781 -0.00110051 0.706331 -0.70788
0.228758 0.147489 0.394456 0.670824 -0.362554 0.646954
-0.192823 -0.100874 0.388295 0.0694658 0.146706 0.986738
-0.194443 0.256036 0.0227419 -0.808243 -0.588848 0.000432407
-0.0478802 0.158029 0.399744 0.00137708 -0.912175 0.4098
-0.260141 0.123255 0.582593 -0.619837 0.0646637 0.782062
0.229848 0.132103 0.362996 -0.595635 0.433514 -0.676228
-0.202129 0.0306798 0.363815 -0.0702377 -0.146747 -0.986677
0.0378279 0.163333 0.433091 0.00145027 -0.953611 0.301038
0.117273 -0.123569 0.409527 -0.000221656 0.147626 0.989043
-0.193112 0.19251 0.68288 0.00141447 -0.944816 0.3276
0.191614 0.249832 0.710913 -0.0014007 0.919327 -0.393493
-0.025036 0.169322 0.445757 0.00130746 -0.858322 -0.51311
-0.0160747 0.169839 0.477357 0.00149628 -0.987574 -0.157147
0.106829 0.0152931 0.380864 -0.000205819 0.137334 0.990525
0.0171785 0.0119728 0.262385 0 0 -1
-0.182472 0.250163 0.713003 -0.00137214 0.919783 -0.392424
-0.00496759 0.216986 0.732323 0.00140809 -0.919381 0.393365
0.180472 0.261121 0.041855 -0.808687 0.588237 0.00132186
-0.112551 0.151681 0.398442 0.000249082 -0.164437 0.986387
0.0706006 -0.00323851 0.126199 -0.308441 -0.951033 0.0199981
0.0479639 0.209879 0.710814 0.00104162 -0.685863 0.72773
-0.210895 -0.200651 0.416323 -0.000180386 0.120575 0.992704
-0.221723 -0.087607 0.38838 0.0704174 0.146715 0.986669
0.288865 -0.0560213 0.000570008 -0.14862 0.0480695 -0.987725
0.0562533 -0.0372721 0.388264 -0.000216403 0.14414 0.989557
0.00856852 -0.252762 0.0943416 0.986249 0.156949 0.051771
-0.225426 0.118135 0.37443 0.00067116 -0.440137 0.897931
-0.117412 0.199567 0.11229 0.806502 0.587771 -0.0638749
0.291642 -0.0583055 0.0226399 -0.307262 -0.951625 0.000267172
-0.178156 0.285984 0.011342 -0.807924 -0.589287 -0.000177786
-0.119146 -0.0189392 0.103283 0.310774 -0.948453 -0.0620998
0.107091 -0.0136969 0.102681 -0.0267788 -0.13271 -0.990793
-0.204162 -0.145333 0.388961 0.962825 -0.025436 -0.268926
0.0399149 0.0181412 0.303855 0.669059 0.00100199 0.743209
-0.0183386 -0.287912 0.00419352 -0.717325 -0.317444 -0.620221
-0.259169 0.170571 0.547673 -0.607591 -0.78276 -0.134609
0.112679 0.0569971 0.384068 -0.000199147 0.133424 0.991059
0.282948 -0.0878677 0.0192638 -0.306885 -0.951747 0
0.00691392 -0.302234 0.0233522 0.00142537 -0.998814 -0.0486675
0.179248 0.220755 0.695344 0.0245731 0.943551 -0.330314
-0.186596 -0.261747 0.410297 0.00111177 -0.734639 0.678457
0.20028 0.061558 0.343793 0.000218834 -0.164904 -0.98631
0.202153 0.0755264 0.376002 -0.0006577 0.432471 0.901647
-0.151855 0.0449728 0.304872 0.00126404 -0.785413 0.618971
-0.162529 -0.0947384 0.396433 -0.000211202 0.139024 0.990289
-0.0251545 0.121351 0.379485 0.00119831 -0.798907 0.601453
0.192514 -0.146854 0.391705 -0.997557 0.00140675 -0.0698391
0.231741 -0.0618584 0.5996 -0.595929 0.0671189 0.800227
-0.148547 -0.199139 0.416151 -0.000180386 0.120575 0.992704
-0.0166876 0.186543 0.659826 0.00117192 -0.771767 0.635905
-0.00930928 -0.24726 0.416948 0.000279008 -0.18561 0.982623
-0.109965 0.171963 0.463117 0.00149628 -0.987574 -0.157147
-0.252719 -0.0484667 0.108083 -0.293942 0.953798 -0.0621939
0.234539 0.181517 0.459531 0.482394 -0.875185 -0.036697
0.202033 0.181993 0.479582 -0.00871815 0.990682 0.135913
0.0487879 0.0295539 0.292627 0.999999 0.00149762 0
0.0413455 -0.205666 0.418456 -0.000583796 0.385742 0.922606
-0.121093 -0.263568 0.388385 0.00142601 -0.954515 -0.298161
0.21455 0.184773 0.385036 0.998087 0.0490059 0.037689
-0.0312526 0.175036 0.619438 0.00102486 -0.688612 0.725129
-0.21378 -0.239169 0.403734 0.0454567 -0.806221 0.589866
-0.154869 -0.0136835 0.38686 -0.000739697 0.493845 0.86955
0.251827 -0.0452967 0.594059 0.452482 -0.0889749 -0.887324
0.157199 0.252204 0.724417 -0.00151539 0.992734 0.120318
-0.184287 0.267039 0.0566414 -0.793146 -0.509229 -0.334075
-0.244823 -0.00308608 0.368656 0.141134 0.109397 0.983928
0.0678292 -0.230405 0.420352 -2.28875e-05 0.0150319 0.999887
0.00761238 -0.268845 0.0561765 0.885429 -0.0123686 -0.46461
0.208704 0.0805403 0.342736 -0.98972 -0.0114743 -0.142554
-0.0289525 -0.259573 0.384386 0.00101175 -0.677227 -0.735774
0.0297201 -0.00968197 0.295852 0 0 -1
-0.127764 0.0172717 0.389408 -0.000208591 0.137698 0.990474
-0.212525 -0.184141 0.396465 -0.0702714 -0.145645 -0.986838
-0.305033 -0.0867903 0.0158206 -0.938882 -0.306315 -0.157075
0.0925829 0.166014 0.504906 0.00149293 -0.99105 -0.13348
-0.261132 -0.0676674 0.0732383 0.971534 0.235844 -0.022363
-0.116123 0.193045 0.684092 0.00141447 -0.944816 0.3276
0.211725 -0.151277 0.389417 0.0707177 -0.206451 -0.975898
-0.227576 -0.233886 0.38499 -0.525343 0.642488 -0.557875
0.0068453 -0.0506363 0.125972 0.999805 0.00335498 0.0194411
0.047361 0.00441023 0.117454 -0.310163 -0.950482 -0.019549
0.117428 -0.145783 0.411882 0.000348813 -0.229486 0.973312
-0.138644 0.161903 0.484736 0.00149008 -0.975196 0.221336
0.135216 -0.00994115 0.137952 0.306703 0.951437 0.0264612
0.184129 -0.0495239 0.390078 -0.000218496 0.144176 0.989552
-0.217784 0.126801 0.357298 -0.999888 0.0115032 -0.0095464
0.0609008 0.160876 0.541367 0.00139621 -0.926079 0.377326
0.195943 0.177763 0.615205 0.00151691 -0.998734 0.0502742
0.200025 -0.118824 0.3952 0.0708834 -0.146664 -0.986643
-0.0773567 -0.207385 0.4191 -0.000583796 0.385742 0.922606
-0.20477 0.133132 0.37917 0.000781584 -0.518167 0.855279
-0.234795 -0.0198613 0.36397 0.595756 -0.110195 -0.79557
-0.064326 0.176631 0.622405 0.00144032 -0.953248 0.302184
0.227581 0.0166784 0.367828 0.0706412 -0.146541 -0.986679
-0.159419 -0.264841 0.404874 0.00147724 -0.975549 0.219776
-0.101734 -0.0276852 0.395712 -0.000760139 0.500827 0.865547
-0.00913914 -0.264784 0.0819089 -0.996996 -0.044977 0.0630576
0.230065 -0.235975 0.383626 0.524569 0.643575 -0.55735
-0.208811 0.172094 0.50889 -0.00540812 -0.990719 -0.13582
0.0774003 0.171065 0.470544 0.00149553 -0.987576 -0.157134
-0.196829 0.278057 0.0420093 -0.376662 0.516653 0.768892
0.22295 -0.188338 0.406557 0.0713142 -0.0835385 -0.99395
0.138559 0.093516 0.380588 -0.00010211 0.0675746 0.997714
0.166442 0.165998 0.586267 0.00105497 -0.689192 0.724578
-0.170278 0.158629 0.536706 0.00139621 -0.926079 0.377326
0.12031 0.249895 0.711314 -0.0014007 0.919327 -0.393493
0.211292 0.117682 0.339131 0.0719681 0.0817016 -0.994055
0.184014 0.174206 0.515164 -0.99744 0.00100952 -0.0714976
0.00249136 0.0411034 0.162831 0.381275 0.924462 0
-0.00447598 0.153367 0.562654 0.00152927 -0.999987 0.00487613
-0.169899 0.0261403 0.282793 -0.00143833 0.965773 0.259384
-0.197881 0.149849 0.368188 -0.0635277 0.517914 -0.85307
0.0223313 0.172078 0.463655 0.00149553 -0.987576 -0.157134
-0.0336595 -0.0253569 0.394424 -0.000760139 0.500827 0.865547
0.0128187 0.0327315 0.234652 0.923458 0.383699 0
0.135914 0.230762 0.648723 0.263785 0.854182 0.448096
0.00830302 -0.2068 0.418909 -0.000583796 0.385742 0.922606
-0.217784 0.0836871 0.352119 -0.999757 0.000342447 0.022041
0.00723754 -0.214482 0.129391 0.999636 0.00229583 0.0268779
-0.0389011 0.0607314 0.374668 -0.000204104 0.133852 0.991001
-0.00684119 -0.131568 0.116485 -0.99981 0.00123846 -0.0194498
0.0648681 -0.0057227 0.383769 -0.0002057 0.137332 0.990525
0.216953 -0.224588 0.420268 -2.28875e-05 0.0150319 0.999887
0.0743742 0.00182488 0.281911 0.0015128 -0.965691 0.259689
0.181134 0.179323 0.589698 -0.0238689 -0.947136 0.319943
0.237759 -0.0574389 0.123814 -0.30741 -0.951188 0.027206
-0.0624226 -0.264192 0.390663 0.00142601 -0.954515 -0.298161
-0.203349 0.202394 0.435705 -0.00546988 0.999985 0.000529966
-0.00509337 -0.189494 0.104223 -0.134433 -0.01554 -0.990801
-0.0202084 0.0141372 0.295852 0 0 1
0.20986 -0.083464 0.374927 0.0707005 -0.206448 -0.9759
0.0207226 0.0330291 0.114822 0.742929 0.669215 -0.0144623
0.139413 0.138495 0.382105 0.000781835 -0.518171 0.855277
-0.0566966 0.162108 0.564751 0.00150959 -0.999984 0.00538789
0.0561504 0.155997 0.512893 0.00150371 -0.991063 -0.133384
-0.173152 -0.068774 0.399768 -0.000745574 0.496512 0.86803
-0.0603907 0.0464939 0.385447 -0.000200989 0.133455 0.991055
-0.18364 0.0600092 0.31735 -0.00124272 0.785748 -0.618545
-0.175865 0.207307 0.658101 -0.0277644 0.943552 -0.330058
-0.196628 0.0222173 0.382123 0.000363844 -0.238787 0.971072
-0.154615 -0.020883 0.312058 -0.00130292 0.809994 0.586437
0.257685 0.174064 0.545663 0.620577 0.783815 0.0227478
-0.110483 0.153228 0.567406 0.00152927 -0.999987 0.00487613
-0.0261591 0.0739021 0.129302 0.808551 0.588096 0.0196875
-0.0760869 -0.247373 0.416945 0.000279008 -0.18561 0.982623
-0.226955 -0.133813 0.409082 -0.664548 0.102207 0.740223
-0.2347 0.17522 0.413701 0.594565 0.766339 -0.243346
0.161115 0.164007 0.520578 0.00149293 -0.99105 -0.13348
0.226791 -0.163283 0.400662 0.755216 0.0206014 -0.655152
0.104709 0.160488 0.574835 0.00140402 -0.930051 -0.367427
-0.253532 -0.100475 0.462125 -0.664563 -0.731373 -0.153133
-0.107176 0.0111689 0.39026 -0.000208591 0.137698 0.990474
0.000499174 0.193561 0.667088 0.00114406 -0.754665 0.656109
0.167441 0.275043 0.0645124 -0.783372 0.621457 0.010948
0.0110739 0.016595 0.203469 0.924389 -0.38145 0
0.192482 0.00469466 0.358482 -0.000300697 0.164184 0.98643
0.00630364 0.157774 0.415645 0.00142854 -0.953497 0.301399
-0.144743 0.0320518 0.385228 0.000364929 -0.24231 0.970199
0.194424 0.168728 0.420182 0.00142742 -0.953536 0.301275
-0.234897 -0.0405668 0.595747 0.611655 -0.0799185 -0.787078
0.176161 -0.0401004 0.332043 0.00130358 -0.810245 -0.586091
-0.0886081 -0.00914927 0.10867 0.313816 -0.949278 -0.0197711
-0.0723221 0.164996 0.60494 0.00135982 -0.908404 0.418092
0.0746024 -0.0688239 0.40001 -0.00075186 0.496757 0.86789
-0.19676 0.191358 0.663111 0.00149383 -0.997333 -0.0729732
0.0609179 0.122846 0.116553 -0.811859 0.583525 -0.019587
0.0631713 0.215986 0.718203 0.001386 -0.907708 0.419599
0.129241 -0.164407 0.415379 -0.000190539 0.124793 0.992183
0.00418331 -0.0749813 0.102304 2.0306e-05 -0.0116209 -0.999932
0.14212 0.153565 0.557818 0.00150966 -0.999985 0.00520662
-0.136244 -0.0249299 0.130346 0.312105 -0.949839 0.0199033
0.103994 0.238268 0.64765 0.110285 0.880093 0.461816
-0.183882 -0.0258005 0.118605 -0.309411 0.95073 0.0194319
0.222713 -0.110912 0.391997 -0.0700034 0.146197 0.986776
-0.142912 0.168399 0.447 0.00129764 -0.858567 -0.512699
-0.170663 -0.0669819 0.310155 -0.0747132 -0.303596 0.949867
-0.00308577 0.0374508 0.191932 0 0 1
-0.0464392 0.0248847 0.295852 0 0 -1
0.215682 0.166059 0.496672 0.00147177 -0.969548 0.244896
0.06002 0.0535939 0.384516 -0.000200989 0.133455 0.991055
-0.118147 0.213328 0.714304 0.00104753 -0.68604 0.727563
-0.218702 0.161687 0.470576 0.00148878 -0.987507 -0.157567
-0.274875 -0.0727856 0.0856519 0.268408 -0.961647 0.0564926
0.179484 0.0454336 0.376779 -0.000202627 0.133827 0.991005
0.0352113 0.060377 0.262385 0 0 -1
-0.0676532 -0.131713 0.410702 -0.000221656 0.147626 0.989043
-0.252739 -0.0235726 0.591063 -0.452899 -0.0902997 -0.886977
0.234408 0.065719 0.590894 -0.597194 0.0669738 0.799296
0.200774 0.122695 0.35694 0.0704911 0.189394 -0.979368
0.163379 0.24033 0.113609 0.811498 -0.5838 0.0254663
0.156015 0.0271155 0.27721 -0.00151375 0.96614 -0.258013
0.184832 0.00662605 0.382082 -0.0002057 0.137332 0.990525
0.232239 -0.242519 0.403574 0.997042 0.00555958 0.0766625
-0.0647748 -0.0514744 0.399188 -0.000220433 0.144163 0.989554
-0.0217231 0.0305195 0.127361 -0.952389 0.304884 0.000656433
0.0542932 -0.091836 0.396072 -0.000208287 0.138974 0.990296
-0.0696723 0.110391 0.12425 -0.806902 -0.59035 0.0199238
0.0250492 0.211722 0.721576 0.00122459 -0.806084 0.5918
0.175265 0.167894 0.61043 0.00137309 -0.908495 0.417894
-0.184798 -0.203107 0.413844 0.000538955 -0.357242 0.934012
-0.142007 -0.026856 0.111255 0.313816 -0.949278 -0.0197711
-0.197247 0.183247 0.465739 0.0058335 0.990718 0.135806
0.206844 0.2063 0.674927 0.727843 0.66222 -0.178072
0.0959119 -0.179715 0.417297 -0.000188162 0.124753 0.992188
-0.212315 0.0328663 0.379889 -0.000743586 0.491106 0.871099
-0.179532 -0.179033 0.408303 -0.000187871 0.124839 0.992177
-0.00921629 0.24937 0.731261 -0.00121987 0.799137 0.601147
0.093505 0.204514 0.70646 0.00112876 -0.754637 0.656141
-0.061162 -0.0906199 0.404745 -0.000210944 0.139013 0.990291
-0.167054 0.20572 0.709342 0.00136737 -0.907464 0.420128
-0.00759783 0.0390912 0.210862 -0.38483 0.922988 0
0.168894 0.219245 0.670303 -0.544132 -0.838999 0.00104658
0.0111332 0.241044 0.645866 -0.00134116 0.885902 0.463871
0.00478168 0.110723 0.371669 0.000466766 -0.308147 0.951339
0.235303 -0.0978196 0.476154 -0.612121 0.776861 0.147633
-0.0688005 0.245347 0.736487 -0.00121118 0.798938 0.601412
0.228462 -0.26079 0.408408 0.446439 -0.640071 0.625301
-0.180884 -0.13741 0.402639 -0.000222719 0.14721 0.989105
0.00655056 -0.00567011 0.117533 0.999799 0.00511807 -0.0194089
-0.238549 0.179676 0.49274 0.478631 0.877139 0.0392381
0.170714 0.267253 0.100239 0.487276 0.82727 0.279618
-0.1864 0.156465 0.533833 0.00151469 -0.999999 -0.000485337
-0.00677423 -0.0896613 0.127439 -0.999805 -0.000552988 0.0197359
-0.0891807 0.00887473 0.29094 0.000380525 -0.258503 0.96601
0.242114 0.156739 0.566412 -0.0603639 -0.636688 -0.768755
0.254395 -0.0483531 0.128262 0.0655358 0.0791772 0.994704
-0.240465 -0.073707 0.374679 0.48314 -0.591282 -0.645726
-0.162513 -0.0546646 0.282535 0.00119031 -0.792519 -0.609846
-0.23666 0.162425 0.401517 0.463951 -0.744918 0.479424
-0.233723 -0.0859483 0.404389 0.608789 0.761004 0.224163
0.217081 0.0605645 0.354639 0.999912 -0.0132221 0.00138364
-0.181285 0.26212 0.0922175 -0.625254 0.727374 0.282816
0.0740784 0.20302 0.685144 0.00143584 -0.944863 0.327464
0.139235 0.0281311 0.282943 0.00124234 -0.785426 0.618955
-0.025762 0.0511014 0.104525 -0.805848 -0.591799 -0.0195657
0.200454 0.0369472 0.372122 0.0706427 -0.146631 -0.986666
-0.0275681 0.0437078 0.385829 -0.000200989 0.133455 0.991055
0.035728 -0.233667 0.383848 -0.00111899 0.734145 -0.678992
0.230162 -0.0212584 0.383338 0.966091 -0.055525 -0.252162
0.0287088 -0.0342172 0.387813 -0.000216403 0.14414 0.989557
-0.174005 0.230843 0.710869 0.0687827 0.226365 0.971611
-0.0987417 0.150116 0.124017 -0.806902 -0.59035 0.0199238
-0.200478 0.0655302 0.33105 0.0010028 -0.785484 0.618881
-0.267212 -0.0629284 0.0374593 0.996854 -0.0792501 -0.000969227
-0.119773 -0.0672948 0.395285 0.000357337 -0.237747 0.971327
0.0314346 0.0381079 0.277901 0.00121943 -0.809959 -0.586485
0.160647 -0.0570162 0.392538 -0.000753869 0.500821 0.865551
0.00430612 0.062616 0.269958 -0.001509 0.999999 0
-0.20232 0.165616 0.381846 -0.0458378 0.806467 -0.5895
-0.0511519 -0.175425 0.41673 -0.000190539 0.124793 0.992183
-0.164173 0.169746 0.594496 0.00137999 -0.908583 0.417702
0.0121991 0.0516157 0.37591 -0.000204104 0.133852 0.991001
-0.226012 -0.265668 0.395099 -0.501265 -0.835341 -0.225698
0.122794 0.157404 0.39778 0.00137708 -0.912175 0.4098
-0.205745 -0.266273 0.396631 0.00143236 -0.954429 -0.298434
-0.0607981 -0.0373614 0.388252 -0.000216403 0.14414 0.989557
-0.20172 -0.042731 0.366276 -0.000209598 0.164185 0.98643
-0.0668917 0.0120025 0.131872 -0.309411 0.95073 0.0194319
0.145809 0.188326 0.640729 0.00144994 -0.952948 0.30313
-0.168225 0.121607 0.375581 0.000246659 -0.163477 0.986547
0.289371 -0.0570738 0.07704 0.933525 -0.220387 0.282772
-0.00713143 -0.238457 0.380784 -0.00045278 0.297059 -0.954859
-0.172993 0.161165 0.474279 0.00148878 -0.987507 -0.157567
0.253813 -0.113994 0.582394 0.613599 0.699796 -0.365763
-0.0793311 0.00795063 0.114429 -0.30772 0.951278 -0.019452
-0.045317 -0.152632 0.410325 0.000348813 -0.229486 0.973312
0.218977 0.116918 0.362912 -0.0711771 -0.142118 0.987287
-0.0170912 0.201548 0.70324 0.0011298 -0.754666 0.656109
0.160928 -0.104418 0.404236 0.000359971 -0.237664 0.971347
0.0261569 0.0744989 0.131883 -0.810814 0.584971 0.0197202
-0.215922 0.0662646 0.375662 0.000365107 -0.243128 0.969994
-0.175683 -0.0415339 0.273225 -0.226166 0.283888 -0.931803
-0.0763985 0.190327 0.674342 0.00150245 -0.998846 -0.0480123
-0.155812 0.254111 0.0875048 0.631001 -0.742936 -0.223347
0.12194 -0.227999 0.411527 -2.32714e-05 0.0154983 0.99988
0.0639234 0.182835 0.627427 0.00117399 -0.771586 0.636124
-0.0800856 -0.244752 0.378858 -0.000446254 0.297353 -0.954768
0.268912 -0.0657747 0.0476807 -0.615209 -0.788361 -0.0020041
-0.212799 -0.0727498 0.402008 -0.000745574 0.496512 0.86803
0.189445 0.271586 0.000857703 0.0917404 0.126759 -0.987682
-0.0217188 -0.262002 0.0161345 -0.999999 -0.00109729 -0.000118563
0.155699 0.177388 0.610064 0.00137999 -0.908583 0.417702
-0.22893 -0.233971 0.411974 -0.981897 -0.00542848 -0.189339
0.26973 -0.0691279 0.102189 -0.365955 -0.927264 0.0791031
-0.157661 -0.173687 0.407634 -0.000187871 0.124839 0.992177
-0.110411 0.165635 0.411837 0.00142742 -0.953536 0.301275
0.176453 0.207714 0.657871 0.0246948 0.943582 -0.330217
0.143118 0.236702 0.110862 -0.815243 0.575879 -0.0611731
-0.172057 0.00175489 0.236072 -0.996071 -0.0017121 -0.0885472
0.124578 0.173439 0.454024 0.00147632 -0.974888 0.222691
-0.016035 0.0440374 0.164511 -0.577276 0.764781 0.286116
0.0957709 0.147657 0.131465 0.809681 -0.586221 0.0275779
0.0996254 -0.0123725 0.138625 -0.30741 -0.951188 0.027206
-0.0132295 0.165422 0.495528 0.00146035 -0.969421 0.245401
0.204114 0.246831 0.733229 0.446552 0.699634 0.557766
0.16841 0.274472 0.0167464 0.810456 -0.585799 -0.00118247
-0.0215107 -0.172381 0.416353 -0.000190539 0.124793 0.992183
0.0362043 -0.0342232 0.284568 0.00149867 -0.999999 0
-0.017324 -0.125633 0.400923 -0.000222719 0.14721 0.989105
0.251125 -0.057782 0.37273 0.608445 0.249134 0.753476
0.0107866 0.0611719 0.295852 0 0 1
0.0411976 0.170266 0.475222 0.00149628 -0.987574 -0.157147
0.0152057 0.153306 0.544734 0.00150966 -0.999985 0.00520662
-0.00904028 -0.186575 0.41814 -0.000188162 0.124753 0.992188
0.182258 0.162928 0.405938 0.00116176 -0.773279 0.634064
-0.0838557 -0.148831 0.411235 0.000348529 -0.229473 0.973315
0.113108 0.00674526 0.268666 0.0010458 -0.706333 -0.707879
-0.0115952 0.0620316 0.296356 -0.00100943 0.668938 0.743318
0.0259845 0.0116117 0.144283 -0.308441 -0.951033 0.0199981
-0.102853 0.0784702 0.37984 0.000463829 -0.306954 0.951724
-0.0780482 0.166622 0.414807 0.00142742 -0.953536 0.301275
-0.162791 -0.133863 0.411001 -0.000221656 0.147626 0.989043
-0.233603 0.0260374 0.589989 0.611177 -0.0799665 -0.787444
0.16391 0.112224 0.372077 0.000466766 -0.308147 0.951339
-0.129549 0.204471 0.690215 0.0014222 -0.944791 0.32767
0.0706558 0.136361 0.126442 -0.810814 0.584971 0.0197202
0.21069 -0.105743 0.384793 0.0707116 -0.14657 -0.98667
0.084208 -0.162305 0.414606 -0.000737775 0.483205 0.875507
-0.0629846 0.149183 0.388765 0.000781584 -0.518167 0.855279
-0.211075 0.155076 0.527852 0.00146429 -0.969048 0.246869
0.0223274 -0.276339 0.0392669 0.999999 0.00101934 0
-0.168779 0.087327 0.37217 -0.000103016 0.0680083 0.997685
0.248656 0.122188 0.361344 0.612407 -0.272236 0.742189
0.0105051 0.0205599 0.247086 0.924204 -0.381898 0
0.249055 -0.0723027 0.383336 0.60077 0.439819 0.667559
-0.106355 0.171401 0.443518 0.00149526 -0.994277 -0.106827
0.123243 0.22067 0.728138 0.001386 -0.907708 0.419599
-0.0209064 0.0204915 0.188238 -0.950342 -0.311208 0
-0.0951656 -0.132564 0.410822 -0.000221656 0.147626 0.989043
0.182345 0.263723 0.0208644 -0.809844 0.586645 2.30385e-05
0.0979475 0.035393 0.385971 0.000364659 -0.242298 0.970202
-0.196017 0.209839 0.664954 -0.969993 0.242522 -0.0172004
0.245396 -0.0226377 0.362342 0.571385 -0.116749 -0.812336
-0.110943 -0.214364 0.411311 -2.33739e-05 0.0155001 0.99988
0.0547536 0.0779856 0.379606 0.000467367 -0.307105 0.951676
0.231633 0.0960051 0.351738 -0.595654 0.117528 -0.794597
-0.0444838 0.00521773 0.13017 0.312105 -0.949839 0.0199033
0.233132 -0.106498 0.501399 -0.59364 -0.790719 -0.149518
0.127623 0.161809 0.527864 0.00131437 -0.870772 -0.491686
0.136922 -0.178913 0.408347 -0.000188916 0.124856 0.992175
-0.0644704 -0.259508 0.412522 0.00111177 -0.734639 0.678457
-0.139144 -0.218901 0.41138 -2.33739e-05 0.0155001 0.99988
-0.118735 -0.262397 0.409483 0.00111177 -0.734639 0.678457
0.0819069 0.0148634 0.292171 -0.000381095 0.258902 0.965904
0.0133312 0.0951766 0.371654 -0.00010264 0.0680019 0.997685
0.0755893 0.153462 0.55719 0.00150966 -0.999985 0.00520662
-0.139558 -0.0557598 0.302407 0.407768 0.578182 0.706704
0.236446 0.180854 0.500475 0.482395 -0.875205 -0.0362191
0.20284 -0.263846 0.406859 0.00146386 -0.975422 0.220342
0.171629 0.240522 0.738835 -0.000593857 0.391818 0.920043
0.0241853 0.160909 0.59574 0.00137309 -0.908495 0.417894
-0.110714 0.0132534 0.266105 0.00040276 -0.258503 -0.96601
0.0912121 -0.00984854 0.114983 -0.310163 -0.950482 -0.019549
-0.108354 -0.104287 0.404367 0.000360688 -0.237695 0.97134
0.0109851 -0.0136945 0.295852 0 0 1
-0.0216807 -0.288985 0.0226776 -0.999998 -0.00188833 -0.000106664
0.0776615 0.0300481 0.381725 -0.000739675 0.490953 0.871186
-0.178128 0.164678 0.511793 0.00149592 -0.991043 -0.133531
0.210613 0.154707 0.393973 0.00120579 -0.799402 0.600796
0.0064663 -0.0152812 0.139361 0.999805 0.00335498 0.0194411
0.242343 0.0366468 0.352297 0.121621 -0.132338 -0.983715
-0.194964 -0.066093 0.367205 0.00103407 -0.810176 -0.586186
0.170253 -0.0208258 0.122074 0.305787 0.951904 0.0193345
-0.190889 -0.0430947 0.389059 -0.000216403 0.14414 0.989557
-0.208573 0.173743 0.549657 -0.00773961 0.998551 -0.0532606
0.155924 -0.020468 0.304857 0.00130358 -0.810245 -0.586091
-0.0728596 0.138385 0.121051 0.808551 0.588096 0.0196875
-0.17968 0.0595809 0.383662 -0.000199147 0.133424 0.991059
0.0851514 -0.0308262 0.396214 -0.000218763 0.144135 0.989558
0.218127 -0.0488774 0.376879 0.0706333 -0.146572 -0.986675
0.203536 0.178021 0.587539 -0.0241575 -0.947089 0.320061
0.295477 -0.0780314 0.0406372 0.307118 0.951671 0.000382995
-0.0916781 0.207086 0.70788 0.00137364 -0.906642 0.4219
0.162728 0.0389556 0.296632 0.00124234 -0.785426 0.618955
-0.153566 0.231294 0.740191 0.000181464 -0.119727 0.992807
-0.00959811 -0.262425 0.409274 0.00111247 -0.734659 0.678436
-0.20898 -0.127592 0.387837 -0.0702711 -0.146803 -0.986667
-0.180333 0.156987 0.41404 0.00145027 -0.953611 0.301038
-0.0050272 0.00235271 0.0831344 0.00170886 -0.98082 -0.194909
0.230934 0.0747669 0.370495 0.966896 -0.0106595 -0.254947
0.171982 0.205771 0.683506 -0.99746 -8.34023e-05 -0.0712261
0.0394729 -0.145552 0.411964 0.000348529 -0.229473 0.973315
-0.234714 0.070323 0.351329 0.596443 -0.112219 -0.794772
0.213779 -0.231718 0.385662 -0.00111993 0.734116 -0.679024
-0.197639 0.184416 0.503109 0.994351 0.0877567 -0.059708
-0.00652292 -0.154688 0.107126 -0.998021 -0.00144489 -0.0628604
0.107159 -0.233072 0.420393 -2.28875e-05 0.0150319 0.999887
0.208294 -0.084746 0.395109 -0.000208287 0.138974 0.990296
0.127133 0.191248 0.677852 0.00142123 -0.944851 0.327497
-0.210623 -0.214186 0.399943 -0.0707684 -0.10774 -0.991657
0.0291915 0.155649 0.528675 0.00147578 -0.969176 0.246367
0.245215 0.182468 0.480059 0.0589724 0.997408 0.0412161
-0.135751 0.0117765 0.26649 0.000381115 -0.258905 -0.965903
0.217279 0.136476 0.370927 0.997519 -0.000240571 0.0703958
0.0625305 0.172932 0.452217 0.00147632 -0.974888 0.222691
-0.0498947 -0.0500481 0.390102 -0.000218496 0.144176 0.989552
0.171983 0.168904 0.446957 0.00130746 -0.858322 -0.51311
-0.109135 0.17853 0.640183 0.00144703 -0.952939 0.303159
0.263548 -0.077504 0.0249049 -0.875414 -0.470601 0.110383
0.0449178 0.0190394 0.141617 0.305787 0.951904 0.0193345
0.111609 0.168951 0.481123 0.0012983 -0.856903 -0.515476
-0.0310945 0.0449643 0.311172 -0.668786 -0.000929558 0.743454
0.143135 -0.015663 0.39081 0.000362884 -0.239843 0.970812
-0.11817 0.0459963 0.385503 -0.000199147 0.133424 0.991059
-0.225509 -0.11659 0.392949 0.070325 0.146682 0.986681
-0.170704 -0.258533 0.383234 0.00101175 -0.677227 -0.735774
0.0216383 0.0114325 0.0923724 0.217345 -0.976073 0.00657551
-0.0319756 -0.0290917 0.300563 0.00104929 -0.669083 0.743187
0.179855 0.268804 0.0777816 0.626748 0.734851 0.259192
0.226635 0.128813 0.386191 0.670824 -0.362554 0.646954
0.151075 0.227444 0.665924 0.48206 0.487825 -0.727767
-0.0244582 0.0223206 0.0836113 -0.932231 -0.305079 -0.194608
-0.143684 -0.0934811 0.405129 -0.000210387 0.139003 0.990292
0.177549 0.153823 0.392862 0.00120579 -0.799402 0.600796
-0.00128022 -0.103588 0.404498 0.000359971 -0.237664 0.971347
-0.153185 0.274155 0.0164732 0.808347 0.588706 0.00112368
0.0971363 0.16402 0.434983 0.00145027 -0.953611 0.301038
0.206146 0.178817 0.495284 -0.000916751 0.585745 0.810495
-0.0744235 0.0532172 0.375676 -0.000204104 0.133852 0.991001
-0.157432 -0.0172289 0.120397 -0.309411 0.95073 0.0194319
0.0166356 -0.144406 0.412243 0.000348529 -0.229473 0.973315
0.0315466 0.220606 0.735676 0.00091884 -0.599936 0.800048
-0.0478236 0.0625373 0.278723 -0.001509 0.999999 0
0.205193 0.153686 0.562681 0.00150966 -0.999985 0.00520662
-0.00651585 -0.00833272 0.107608 -0.99981 0.00123846 -0.0194498
-0.207862 0.197853 0.471174 0.01087 0.981789 0.189662
0.0943639 0.169217 0.12661 -0.810814 0.584971 0.0197202
0.247241 0.180968 0.513453 0.0589718 0.997369 0.0421613
0.122341 -0.263471 0.407924 0.00111247 -0.734659 0.678436
-0.154044 0.169604 0.614452 0.00103109 -0.688804 0.724947
0.187845 0.0311618 0.381191 -0.000739675 0.490953 0.871186
-0.143244 -0.250618 0.37963 0.000330351 -0.219315 -0.975654
-0.193684 -0.103207 0.404663 0.000360688 -0.237695 0.97134
0.100528 0.0151503 0.292102 -0.000381095 0.258902 0.965904
0.242623 0.179967 0.542168 -0.0691804 0.996774 0.0406943
-0.188868 0.109642 0.371414 0.000470109 -0.30829 0.951292
0.149061 0.158332 0.416733 0.00142854 -0.953497 0.301399
-0.0436302 -0.248446 0.416733 0.000279008 -0.18561 0.982623
0.189028 -0.129747 0.401582 -0.000224327 0.147238 0.989101
0.0320479 0.182339 0.626883 0.00117399 -0.771586 0.636124
-0.117059 -0.186369 0.418093 -0.000188162 0.124753 0.992188
0.0058247 -0.254016 0.415667 0.000281014 -0.185689 0.982609
-0.106617 0.233746 0.740479 0.000181464 -0.119727 0.992807
-0.070701 0.159277 0.531814 0.00132744 -0.870467 -0.492225
-0.278545 -0.0710909 0.0557398 0.0101351 -0.0354644 -0.99932
0.0262474 0.0545131 0.303175 -0.00107337 0.669096 0.743175
0.0544684 0.0908176 0.112358 0.808075 -0.588743 -0.0199103
-0.00562658 0.050276 0.104707 0.402171 0.912001 0.0807021
-0.00834714 0.148218 0.38813 0.000781584 -0.518167 0.855279
-0.18465 0.247763 0.0339839 -0.213271 -0.923588 0.318591
0.00124653 0.176957 0.634725 0.00142375 -0.952824 0.30352
-0.0269698 0.0576472 0.300281 -0.00100943 0.668938 0.743318
-0.208408 0.200374 0.65431 -0.997421 -0.00457482 0.0716286
-0.210012 0.162332 0.489208 0.00149339 -0.991309 -0.131548
-0.147611 0.154753 0.51983 0.00150909 -0.991051 -0.133475
0.113775 0.160904 0.541239 0.00139621 -0.926079 0.377326
0.160205 0.0354405 0.38596 0.000364659 -0.242298 0.970202
-0.217518 -0.038334 0.375169 -0.0702625 -0.146444 -0.986721
-0.225816 0.0176594 0.37302 0.070159 0.146624 0.986701
-0.0303183 -0.21528 0.420122 -2.27461e-05 0.0150295 0.999887
-0.173693 0.276671 0.064723 -0.52754 0.847857 -0.0532875
0.0104763 -0.265124 0.0701738 0.998663 -0.047202 0.0210774
-0.18584 0.197389 0.648766 0.997421 0.00419475 -0.0716486
-0.195177 0.185019 0.449245 0.00196152 0.996882 0.078883
-0.197517 0.161027 0.572317 0.00139972 -0.930124 -0.367242
-0.0833498 0.0121805 0.266403 0.00040276 -0.258503 -0.96601
-0.047487 -0.0148861 0.295852 0 0 -1
-0.208181 0.17203 0.616833 0.00102486 -0.688612 0.725129
-0.0800489 0.159234 0.496018 0.00132038 -0.87023 -0.492643
0.192926 -0.0933971 0.386791 -0.9974 0.000494994 -0.0720566
-0.107616 0.172752 0.135573 -0.213555 -0.0529152 0.975497
0.190649 -0.264369 0.392439 0.00142601 -0.954515 -0.298161
-0.142086 0.0151886 0.380827 -0.000205819 0.137334 0.990525
-0.0020389 0.0103998 0.295852 0 0 1
-0.107135 0.252358 0.719819 -0.00151252 0.992721 0.12043
0.299851 -0.0470738 0.014063 0.308228 0.951312 -0.000243333
0.0141576 0.0577004 0.113926 -0.811859 0.583525 -0.019587
0.0527999 0.171063 0.596649 0.00136718 -0.908495 0.417893
-0.212123 0.141093 0.362154 -0.000934936 0.585896 -0.810386
-0.18579 0.212753 0.713859 0.00104753 -0.68604 0.727563
-0.0413938 0.0201673 0.111721 -0.30772 0.951278 -0.019452
-0.245289 0.0996013 0.348516 -0.124331 0.146152 -0.981418
-0.22347 0.160231 0.392017 -0.0448464 0.802387 -0.595117
-0.175173 -0.0992864 0.405616 0.000360688 -0.237695 0.97134
-0.0711591 -0.0166142 0.390655 0.000362884 -0.239843 0.970812
0.175418 0.0606349 0.317449 -0.00124284 0.785756 -0.618536
0.250637 -0.0866554 0.413688 0.610068 0.765493 0.20454
0.181345 0.11161 0.37187 0.000466766 -0.308147 0.951339
-0.0276031 -0.0110127 0.311706 0 0 1
0.0329005 0.155324 0.39515 0.00120687 -0.799431 0.600756
-0.149525 0.166031 0.498744 0.00146035 -0.969421 0.245401
0.0244558 -0.0496855 0.390066 -0.000218496 0.144176 0.989552
0.216618 0.0324261 0.351179 0.999339 -0.0220671 -0.0288817
0.085873 0.133995 0.131534 0.809137 -0.587306 0.0191838
-0.111674 -0.00254763 0.130688 -0.309411 0.95073 0.0194319
-0.0866351 0.171358 0.429859 0.00145128 -0.953662 0.300878
0.0795294 0.165399 0.486951 0.0012729 -0.857536 -0.514422
-0.0326098 0.169466 0.479546 0.00149628 -0.987574 -0.157147
-0.176729 0.19466 0.689012 0.00141447 -0.944816 0.3276
0.0083485 -0.0214684 0.262385 0 0 -1
0.136407 0.227426 0.125589 -0.810125 0.58566 0.0264749
0.141925 -0.011753 0.123403 0.305787 0.951904 0.0193345
0.00709338 -0.105529 0.119162 0.999799 0.00511807 -0.0194089
0.233907 -0.118456 0.561537 -0.594783 -0.78988 -0.149407
0.0217218 0.122659 0.38113 0.00121777 -0.799444 0.600739
0.225665 0.0515322 0.362516 0.0706654 -0.146185 -0.98673
-0.00818041 0.0146973 0.166153 -0.382306 -0.924036 0
-0.201789 -0.113981 0.390875 0.0694661 0.14669 0.98674
0.0873972 0.158512 0.58713 0.00150255 -0.998784 0.0492841
-0.177193 0.160327 0.595136 0.00135982 -0.908404 0.418092
0.0550524 0.0997466 0.142994 0.213399 -0.0518284 0.975589
0.231239 -0.0759119 0.384581 -0.612777 0.653384 0.444514
-0.174868 0.185554 0.633545 0.00141568 -0.952779 0.30366
-0.0941224 -0.179282 0.417207 -0.000190539 0.124793 0.992183
0.156094 -0.0762256 0.402771 -0.000210387 0.139003 0.990292
0.184057 0.0784334 0.374595 -0.0006577 0.432471 0.901647
0.126015 0.163836 0.584269 0.00105497 -0.689192 0.724578
-0.0533753 0.248892 0.709572 -0.00137214 0.919783 -0.392424
0.119334 0.120337 0.37785 0.00119831 -0.798907 0.601453
-0.0197885 0.0364833 0.142086 -0.950508 0.310699 0.000339791
-0.239072 0.170594 0.434506 0.465474 -0.880396 0.0907595
-0.0850889 0.15509 0.115508 0.809608 0.586644 -0.0195904
0.16347 0.00416461 0.286901 0.0010471 -0.707215 0.706998
0.130127 0.234592 0.740537 0.000181464 -0.119727 0.992807
0.0156192 0.0250426 0.295852 0 0 1
-0.172235 0.299232 0.0179736 0.175333 0.978439 -0.109154
-0.00796241 0.231141 0.740146 0.000181464 -0.119727 0.992807
0.0872976 -0.120499 0.400182 -0.000222719 0.14721 0.989105
-0.174278 0.25143 0.726625 -0.00151252 0.992721 0.12043
-0.019895 0.156074 0.396254 0.00120687 -0.799431 0.600756
0.0297788 0.179441 0.642391 0.00142375 -0.952824 0.30352
-0.116739 -0.090242 0.40468 -0.000210387 0.139003 0.990292
0.136691 0.205496 0.104453 0.117636 -0.0662724 -0.990843
-0.00690435 0.16384 0.602215 0.00135982 -0.908404 0.418092
0.0882571 0.144734 0.385931 0.000781835 -0.518171 0.855277
0.184839 0.136033 0.390862 0.00078962 -0.518372 0.855155
0.0693654 0.121447 0.102486 0.00680738 0.00941807 -0.999933
0.0284996 0.24206 0.738087 -0.000593996 0.391823 0.920041
0.0342875 0.0649075 0.375227 0.00037113 -0.243389 0.969929
0.0250095 0.160939 0.479406 0.00146992 -0.974992 0.222235
-0.224832 -0.207896 0.418816 -0.485487 0.324725 0.8117
-0.200216 0.00868807 0.390586 -0.000208591 0.137698 0.990474
-0.199813 -0.242193 0.414431 -0.00057744 0.384564 0.923098
-0.203204 0.172037 0.432573 0.00145128 -0.953662 0.300878
-0.250053 -0.121202 0.554284 -0.0585406 -0.98011 -0.189624
-0.106647 0.184787 0.11387 0.809608 0.586644 -0.0195904
-0.196589 -0.139467 0.402941 -0.000222719 0.14721 0.989105
0.00912071 -0.282396 0.0163038 -0.999999 -0.000572412 -0.00125027
-0.0101439 -0.252456 0.0211943 -0.00136116 0.998818 -0.0485812
-0.14457 -0.0528993 0.28028 0.00139406 -0.792518 -0.609846
-0.024756 -0.266036 0.398673 0.00146386 -0.975422 0.220342
0.00751502 -0.236698 0.111266 0.998002 0.0130611 -0.0618111
0.00137021 -0.254406 0.0473595 0.383977 0.923342 -0.000812502
0.0225731 0.0119395 0.117757 -0.15201 -0.987848 -0.032399
0.197457 -0.0238754 0.377275 -0.0709011 0.146466 0.986672
-0.00672481 -0.254117 0.115586 -0.999331 -0.00637758 0.0360243
-0.0399883 0.191817 0.680219 0.00142123 -0.944851 0.327497
-0.0909621 -0.213504 0.411298 -2.33739e-05 0.0155001 0.99988
-0.158378 0.253312 0.127646 -0.212263 0.457787 0.863351
0.0554096 -0.016224 0.390704 0.000362884 -0.239843 0.970812
-0.0972662 0.18921 0.663209 0.00116331 -0.771536 0.636184
-0.0203129 -0.00173065 0.262385 0 0 -1
0.0845458 0.0154931 0.3897 -0.000208591 0.137698 0.990474
-0.197365 0.28249 0.015705 0.808688 0.588235 -0.00165713
0.0418525 0.199468 0.700745 0.0011298 -0.754666 0.656109
-0.165281 -0.236961 0.419789 0.000541968 -0.35595 0.934505
-0.248898 -0.0930478 0.606535 -0.0602656 -0.130787 0.989577
-0.0805512 0.140103 0.393571 0.000776493 -0.518177 0.855273
0.216074 -0.137341 0.402718 -0.000224327 0.147238 0.989101
0.23514 0.168473 0.414203 -0.462543 -0.845163 0.26787
0.147654 0.162315 0.545797 0.00150965 -0.999984 0.00538677
0.0553155 0.195635 0.690819 0.00142123 -0.944851 0.327497
0.101588 -0.212743 0.411291 -2.33739e-05 0.0155001 0.99988
0.122325 0.156715 0.508303 0.00150371 -0.991063 -0.133384
0.205988 0.0024001 0.367323 -0.988941 -0.0104773 -0.147937
-0.238625 -0.0922329 0.446595 0.462544 0.871186 0.164585
-0.0188072 0.250042 0.712148 -0.00137214 0.919783 -0.392424
0.0801292 0.158616 0.533969 0.00152488 -0.999936 0.0112129
-0.0213816 0.247109 0.661717 -0.00083547 0.556 -0.831182
-0.226524 0.146201 0.397079 -0.669783 -0.364528 0.646924
-0.0421847 0.0100126 0.255661 -0.999999 -0.0011451 0
0.00529113 0.165403 0.50847 0.00149293 -0.99105 -0.13348
-0.0480215 -0.0219254 0.278931 -0.999999 -0.00151001 0
-0.175659 0.153102 0.561855 0.00152927 -0.999987 0.00487613
-0.135687 -0.168832 0.415884 -0.000190539 0.124793 0.992183
0.238544 -0.0427122 0.118618 0.306703 0.951437 0.0264612
-0.173149 -0.045587 0.289495 -0.00208834 0.792729 0.60957
-0.120131 0.179255 0.121145 -0.806902 -0.59035 0.0199238
-0.101905 -0.149718 0.411033 0.000348529 -0.229473 0.973315
-0.137437 -0.000522376 0.282769 0 0 -1
-0.216478 0.171852 0.365661 -0.999198 0.0300824 0.0264185
0.0212443 -0.127815 0.41014 -0.000221656 0.147626 0.989043
0.0966444 -0.242552 0.379461 -0.00045278 0.297059 -0.954859
-0.0625114 0.101038 0.137113 -0.806902 -0.59035 0.0199238
0.0164684 0.0652412 0.382057 -0.000734106 0.491833 0.870689
-0.213084 0.189569 0.641173 -0.970103 0.24249 -0.00989502
-0.148351 0.0559573 0.384156 -0.000199147 0.133424 0.991059
0.0559728 0.0132964 0.38113 -0.000205819 0.137334 0.990525
0.222391 0.0825737 0.381005 0.000467367 -0.307105 0.951676
-0.176172 0.00730722 0.390783 -0.000208591 0.137698 0.990474
-0.0170848 0.21582 0.71811 0.001386 -0.907708 0.419599
-0.0744124 0.120711 0.375409 0.000248448 -0.163556 0.986534
0.198688 0.173868 0.40169 -0.0421651 -0.8094 0.585742
0.191094 -0.237599 0.410068 -0.997555 0.00122269 -0.0698811
0.215436 -0.0693081 0.377762 0.998628 -0.0186179 -0.0489357
0.0839489 0.245615 0.646376 0.000609172 -0.402388 0.915469
0.17655 0.00583388 0.274345 1 0.00104225 1.01456e-05
-0.117256 0.161512 0.491895 0.00131131 -0.870445 -0.492265
-0.049352 0.166505 0.414301 0.00142742 -0.953536 0.301275
-0.0927195 0.165154 0.605349 0.00135982 -0.908404 0.418092
-0.222371 0.176457 0.450226 0.00450112 0.99275 0.120111
-0.0899861 0.0296663 0.381798 -0.000739675 0.490953 0.871186
0.124424 0.210828 0.126089 -0.810125 0.58566 0.0264749
0.253337 -0.099813 0.473836 0.652003 0.747809 0.125191
-0.0308967 -0.0786562 0.394204 -0.000211202 0.139024 0.990289
0.20008 -0.232783 0.39842 0.0573835 0.613944 -0.787261
-0.094041 0.15431 0.523721 0.00150909 -0.991051 -0.133475
0.0380995 0.239788 0.648344 -0.00134116 0.885902 0.463871
-0.133248 0.22052 0.105151 0.806502 0.587771 -0.0638749
-0.0731162 0.215732 0.718105 0.001386 -0.907708 0.419599
0.115808 0.153528 0.558275 0.00150966 -0.999985 0.00520662
-0.0643646 0.16891 0.592351 0.00136718 -0.908495 0.417893
0.172318 0.192568 0.653931 0.00141568 -0.952779 0.30366
-0.216389 0.177177 0.416217 0.0238334 -0.965359 0.259836
-0.205213 0.219183 0.699945 -0.99743 -0.00412003 0.0715267
-0.148016 -0.157416 0.408497 0.0003835 -0.252776 0.967525
0.135833 0.171746 0.443717 0.00151052 -0.994482 -0.104901
-0.125945 -0.21456 0.420109 -2.27461e-05 0.0150295 0.999887
0.130509 0.167323 0.483877 0.0012983 -0.856903 -0.515476
0.113469 0.164771 0.408311 0.0011574 -0.773153 0.634218
-0.249652 -0.00867373 0.599584 -0.0579894 0.0878989 0.99444
0.207468 0.16632 0.530619 -0.00489218 0.996588 0.082388
0.236047 -0.0977917 0.444114 -0.479596 -0.862108 -0.163578
0.13535 0.202547 0.704126 0.0011298 -0.754666 0.656109
-0.0067558 -0.0975312 0.114262 -0.99981 0.00123846 -0.0194498
-0.195024 0.17239 0.60035 0.00137999 -0.908583 0.417702
0.191638 -0.21041 0.402973 -0.997513 0.00141207 -0.0704727
-0.189245 -0.220991 0.420204 -2.27461e-05 0.0150295 0.999887
-0.202584 0.122373 0.357087 -0.0710604 0.189172 -0.979369
-0.22031 -0.0163297 0.377681 0.0703232 0.146709 0.986677
0.222943 0.00787933 0.381916 -0.0002057 0.137332 0.990525
-0.21895 -0.182582 0.417598 -0.000190539 0.124793 0.992183
0.131709 -0.0301648 0.387246 -0.000216403 0.14414 0.989557
0.238209 0.173145 0.565537 -0.0674721 0.816662 0.573158
-0.196386 -0.0447612 0.125647 0.311096 -0.949996 0.0269796
-0.20207 -0.0132798 0.361374 -0.000209598 0.164185 0.98643
0.134024 0.237681 0.662617 -0.354165 -0.935182 0.00113957
0.172296 0.250488 0.0579552 0.690788 -0.449894 -0.566046
0.123388 0.185235 0.117597 0.808075 -0.588743 -0.0199103
0.195053 -0.0555342 0.376219 0.0703454 -0.146884 -0.986649
0.0345855 0.0316015 0.308633 0.668938 0.00105017 0.743317
-0.0889794 0.106192 0.379706 -0.000102038 0.0675734 0.997714
-0.099135 -0.265457 0.401736 0.00147724 -0.975549 0.219776
-0.149042 0.149462 0.389012 0.000781584 -0.518167 0.855279
-0.006755 -0.0267948 0.118725 -0.99981 0.00123846 -0.0194498
0.0142805 0.162185 0.559052 0.00150959 -0.999984 0.00538789
0.0399755 0.171801 0.616264 0.00103109 -0.688804 0.724947
-0.0166544 0.176825 0.623357 0.00150687 -0.997288 -0.0735838
0.0422256 -0.0340887 0.396679 -0.000218763 0.144135 0.989558
-0.22308 -0.0590648 0.38789 -0.0704267 -0.146536 -0.986695
-0.138221 0.236505 0.653897 0.464462 -0.835606 0.293323
0.0325451 -0.0246072 0.295852 0 0 -1
-0.237279 -0.0555479 0.129209 -0.0379961 -0.147622 0.988314
0.184073 -0.0285302 0.134155 0.117468 0.0969476 0.988333
-0.19517 -0.0792162 0.385243 0.0704025 0.146699 0.986673
0.192633 -0.159267 0.400666 0.070812 -0.145274 -0.986854
-0.109406 -0.235285 0.382338 -0.00111899 0.734145 -0.678992
-0.157018 -0.220613 0.411406 -2.33739e-05 0.0155001 0.99988
-0.195627 0.216101 0.730936 0.00140809 -0.919381 0.393365
0.183966 0.191835 0.612201 0.0231925 0.950621 -0.309488
-0.216236 0.100139 0.380103 -0.000102038 0.0675734 0.997714
0.181419 0.190268 0.664055 0.00142384 -0.944329 0.328999
0.0256798 0.0515948 0.103757 0.808075 -0.588743 -0.0199103
0.191663 0.231661 0.712126 -0.0695398 0.226298 0.971573
0.170307 0.153593 0.554957 0.00150966 -0.999985 0.00520662
0.097421 0.166509 0.607676 0.00135982 -0.908404 0.418092
-0.243193 0.179463 0.532619 0.0671687 0.996914 0.0406301
-0.204003 0.0619716 0.3593 -0.0702239 -0.146428 -0.986726
-0.174917 0.154366 0.522391 0.00150909 -0.991051 -0.133475
-0.184581 -0.0366705 0.327991 -0.856398 -0.00243121 -0.51631
-0.180728 0.0760506 0.379097 0.000463829 -0.306954 0.951724
-0.14061 0.0708193 0.378771 -0.000739299 0.492037 0.870574
0.0067306 -0.0687926 0.135003 0.999805 0.00335498 0.0194411
-0.119336 -0.242877 0.414767 -0.000581757 0.384743 0.923024
-0.100871 -0.00389823 0.392356 -0.000208462 0.137696 0.990475
0.00668317 -0.0587413 0.110369 0.999799 0.00511807 -0.0194089
0.203181 0.269969 0.0170259 0.810162 -0.586203 0.00176423
0.136639 -0.0919097 0.404968 -0.000210944 0.139013 0.990291
-0.0343643 0.0826993 0.101886 0.0996392 0.091602 -0.990798
-0.113327 0.233908 0.655051 -0.164367 0.930739 -0.326662
-0.059729 -0.217422 0.420154 -2.27461e-05 0.0150295 0.999887
-0.122911 0.137679 0.392141 0.000776493 -0.518177 0.855273
-0.202103 -0.00132162 0.377813 -0.0705347 -0.146538 -0.986687
0.168939 -0.261063 0.38603 0.00101969 -0.676955 -0.736023
-0.160607 -0.0051365 0.288077 -0.856398 -0.00243121 -0.51631
-0.166692 0.248125 0.0789852 0.530875 -0.847318 -0.0149927
0.0243239 0.170727 0.615266 0.00103109 -0.688804 0.724947
-0.198768 0.261965 0.0378727 -0.807299 -0.590142 0
0.229379 -0.219696 0.411394 0.982289 -0.00220808 -0.187358
0.0468015 0.0907123 0.380769 -0.00010211 0.0675746 0.997714
0.170538 -0.0252429 0.387811 0.00034982 -0.233005 0.972475
0.0859341 -0.234469 0.420413 -2.28875e-05 0.0150319 0.999887
-0.197562 -0.0349289 0.103719 -0.0563229 0.123056 -0.9908
-0.279761 -0.0552839 0.0229918 0.310079 -0.95071 0.00105724
-0.128739 0.183257 0.628294 0.00117399 -0.771586 0.636124
0.1239 -0.00597369 0.123939 0.305787 0.951904 0.0193345
0.148481 0.0416022 0.277675 -0.00150486 0.999999 0
-0.174434 0.24972 0.062267 -0.728765 -0.610996 -0.309168
-0.101603 -0.123632 0.400606 -0.000222719 0.14721 0.989105
-0.137489 0.160649 0.529206 0.00132744 -0.870467 -0.492225
-0.244646 -0.115691 0.595166 0.0673178 -0.87574 0.478067
-0.198712 0.183426 0.483793 0.994351 0.0877567 -0.059708
-0.16108 0.23538 0.110449 -0.799633 -0.597371 -0.0611098
0.163621 0.193559 0.684361 0.00142123 -0.944851 0.327497
-0.0856261 0.0772902 0.374947 -0.00065244 0.432258 0.90175
0.118959 0.170804 0.615204 0.00103109 -0.688804 0.724947
-0.292437 -0.0594199 0.0319625 0.31094 -0.950429 0
-0.0698781 -0.103735 0.404488 0.000360688 -0.237695 0.97134
-0.0568492 0.181699 0.649897 0.00144703 -0.952939 0.303159
-0.200954 0.186251 0.576107 -0.0211936 0.972715 -0.231034
-0.022875 0.0259911 0.16762 -0.956595 0.039072 0.288788
0.0949208 0.226122 0.739523 0.000179188 -0.119643 0.992817
0.0620395 0.0134942 0.143471 0.306703 0.951437 0.0264612
-0.204 0.185469 0.410374 0.993954 0.0634529 -0.0896021
-0.248135 0.130806 0.587344 -0.0579894 0.0878989 0.99444
0.143789 0.0172169 0.26666 -0.000380508 0.258504 -0.96601
0.00892626 -0.0342641 0.28362 0.00149867 -0.999999 0
-0.011122 0.11781 0.375884 0.000787395 -0.516088 0.856535
0.19772 -0.0413907 0.388896 -0.000218496 0.144176 0.989552
0.0201813 0.19026 0.6474 0.00141568 -0.952779 0.30366
0.110527 -0.17929 0.40839 -0.000188916 0.124856 0.992175
0.195101 0.0173471 0.380781 0.000357448 -0.238509 0.97114
-0.204405 0.0579808 0.344288 0.000210539 -0.164903 -0.98631
0.0673295 0.162313 0.567989 0.00150959 -0.999984 0.00538789
-0.0066738 -0.224391 0.125313 -0.99964 -0.00155729 0.0267765
0.16187 -0.183709 0.408956 -0.000188916 0.124856 0.992175
-0.227486 0.162035 0.420743 -0.696045 -0.669587 0.259179
-0.00674521 -0.0702102 0.115458 -0.99981 0.00123846 -0.0194498
0.0353664 -0.257618 0.414405 0.00111177 -0.734639 0.678457
-0.0283641 -0.199107 0.4144 -0.000195836 0.130584 0.991437
0.0593026 0.0145862 0.115121 0.304106 0.952438 -0.0195318
