0.210502 -0.166347 0.3582 0.594508 0.392569 0.701748
0.226349 0.237128 0.0506067 0.393547 -0.918806 -0.0302724
-0.171304 0.205722 0.357756 -0.192724 -0.06414 -0.979154
0.284006 -0.113324 0.395479 0.0001144 0.0967917 0.995305
-0.277187 0.0161032 0.385809 0.00757502 0.0616426 0.99807
-0.271507 -0.204309 0.00403866 0 0 -1
-0.0496091 0.232899 0.569845 0.0636265 -0.997963 -0.00474669
-0.0790863 -0.218964 0.397446 0.0100739 -0.0643185 -0.997879
0.1465 -0.252494 0.395689 0.0355298 -0.71684 0.696332
-0.0818122 0.141219 0.344584 -0.184012 -0.0582497 -0.981196
0.229476 0.212559 0.537499 0.195886 0.980501 0.0157067
-0.219838 -0.214371 0.40649 0.0151078 0.0786362 0.996789
0.0220818 0.271108 0.495851 0.105445 0.978107 -0.179412
-0.182195 0.106315 0.366505 -0.0204485 -0.10813 -0.993927
-0.130187 -0.0201336 0.373386 -0.0816607 -0.1411 -0.986622
0.155307 0.217285 0.494426 -0.21762 -0.975973 0.0109173
-0.00632328 0.233746 0.623383 -0.00273992 -0.999996 0.000980442
-0.208728 0.00252587 0.386312 0.00256019 0.0734461 0.997296
0.089014 0.177137 0.342476 0.207924 -0.0708252 -0.975577
-0.160675 -0.0765494 0.391854 0.0236944 0.0964611 0.995055
0.144663 -0.12087 0.396633 0.00840719 0.0934727 0.995586
0.124139 -0.0373935 0.385873 -0.0237837 0.125523 0.991806
-0.137097 -0.273421 0.37521 0.103797 -0.721295 0.684806
0.270695 -0.0445687 0.379239 -0.00188863 -0.0714613 -0.997442
0.114113 0.235699 0.551824 0.142871 0.98971 -0.00792989
0.093124 0.222869 0.350553 0.125702 0.984749 -0.120283
0.162133 0.216342 0.460336 -0.132749 -0.989597 -0.0554506
-0.192172 0.235134 0.221488 -0.350697 0.920993 0.169656
-0.171341 0.171103 0.359998 -0.190489 -0.0523534 -0.980292
-0.215425 0.257337 0.0210664 0.394492 0.918407 0.0300821
0.014578 0.0309264 0.316164 0.895266 -0.121505 -0.428645
0.00205361 0.0451403 0.327174 -0.318094 0.249409 0.914665
-0.0265118 0.11798 0.340767 -0.042031 -0.143526 -0.988754
0.167548 0.226135 0.452369 0.1702 0.984947 0.0302033
0.152136 -0.0838381 0.392287 -0.0182021 0.124064 0.992107
-0.206826 0.209316 0.452227 0.2449 -0.969546 -0.00204476
-0.136717 0.222268 0.562022 0.0945471 -0.995353 0.018232
0.00846329 0.282243 0.453187 -0.403425 0.910096 -0.0947308
0.246481 -0.00443962 0.376652 -0.00297651 -0.060951 -0.998136
-0.219851 0.214722 0.593555 -0.244847 0.96952 0.0090525
-0.233767 0.104297 0.367785 -0.0204485 -0.10813 -0.993927
0.245683 -0.176504 0.260289 0.912566 0.399851 0.0856868
-0.114081 -0.160585 0.391459 0.00757275 -0.125958 -0.992007
-0.228081 -0.156415 0.302771 -0.404503 0.913321 -0.0471369
0.237675 -0.0465454 0.379452 -0.00270201 -0.0699747 -0.997545
0.0148344 -0.0478166 0.348124 0.94782 0.0777546 0.30918
-0.219654 -0.158773 0.346676 -0.615394 0.375474 0.693044
-0.0999258 -0.246211 0.389935 0.0345604 0.724605 -0.688298
-0.206092 0.229571 0.110928 -0.396305 -0.917637 -0.0297515
0.116353 0.223628 0.265029 0.00139162 -0.376367 0.926469
0.267874 -0.253796 0.400897 0.860151 -0.437846 -0.261595
0.118536 0.0208955 0.377312 -0.150331 0.200972 0.967993
-0.178598 -0.242644 0.391756 0.0332136 0.606215 -0.794607
-0.0615437 0.232665 0.412096 0.0330583 -0.999453 -0.000769184
-0.11364 -0.248318 0.387027 0.0345604 0.724605 -0.688298
-0.0726248 0.231825 0.487051 0.0636265 -0.997963 -0.00474669
0.160983 -0.102666 0.394786 0.00840719 0.0934727 0.995586
-0.239207 0.211368 0.525547 -0.245546 0.969383 0.00185407
0.0701381 -0.127588 0.397985 0.0106516 0.12384 0.992245
0.0671949 -0.161382 0.3922 -0.00789968 -0.138044 -0.990395
0.0165134 0.23328 0.511403 -0.0140035 -0.999902 -0.000674653
-0.180365 -0.104934 0.395023 0.00128994 0.0967132 0.995311
-0.284947 -0.151487 0.389499 -0.000470868 -0.1112 -0.993798
0.183143 -0.0848197 0.392924 0.00840719 0.0934727 0.995586
-0.000614565 0.243979 0.459918 0.00274099 0.999996 -0.000980491
-0.0521827 -0.0130337 0.376049 0.0313231 0.209213 0.977368
0.162532 0.219259 0.243728 -0.222306 -0.391763 -0.892806
0.220771 0.00873294 0.375823 0.000812068 -0.0671572 -0.997742
-0.0016569 0.244097 0.577353 0.00274099 0.999996 -0.000980491
-0.115375 0.105405 0.35486 -0.185092 -0.123118 -0.974978
-0.0214493 0.259599 0.487512 0.00865215 0.999963 0.000372988
0.115556 0.224347 0.4638 -0.244687 -0.968817 0.0390059
0.25449 -0.179559 0.180945 0.914481 0.395241 0.0866562
-0.256003 -0.0633352 0.391245 0.000594545 0.0761836 0.997094
-0.241375 -0.0436997 0.389758 0.00249886 0.0717504 0.99742
-0.206041 0.104804 0.377623 0.0204268 0.108152 0.993924
0.210111 -0.00484563 0.387139 -0.000811386 0.0671389 0.997743
0.0219074 -0.0701836 0.387949 -0.00557294 0.198642 0.980056
0.221782 0.00175171 0.376294 0.000812068 -0.0671572 -0.997742
0.215217 0.20506 0.5957 -0.21762 -0.975973 0.0109173
-0.253391 -0.019864 0.377656 -0.00256881 -0.0734458 -0.997296
0.214064 -0.158843 0.337785 -0.260646 0.920291 -0.291767
0.264199 -0.201516 0 0 0 -1
0.00272293 0.259348 0.390755 -0.329677 -0.943918 -0.0182225
-0.136923 -0.0904864 0.382183 -0.0236969 -0.0966722 -0.995034
0.173621 -0.24807 0.386948 -0.03098 0.717022 -0.696361
0.110421 0.135247 0.349639 0.206099 -0.0582848 -0.976794
0.0401067 0.188935 0.346527 -0.0617829 0.0495504 0.996859
-0.089471 -0.172782 0.356519 -0.0180398 -0.923714 0.382658
-0.0843493 0.241651 0.454615 -0.108024 0.994068 0.012612
-0.264603 -0.16461 0.390957 -0.000470868 -0.1112 -0.993798
-0.209393 0.207593 0.527241 0.245116 -0.969453 -0.00893531
-0.123568 -0.00266247 0.370339 -0.0816607 -0.1411 -0.986622
-0.211754 0.218354 0.470402 -0.201436 0.979309 0.0194123
-0.22309 -0.0305098 0.388763 0.00249886 0.0717504 0.99742
0.0276693 -0.205681 0.407125 0.00684714 0.0573705 0.99833
0.0344655 -0.0545948 0.384861 -0.00557294 0.198642 0.980056
-0.00269606 -0.174289 0.404945 -0.00319791 0.142465 0.989795
-0.215996 -0.116134 0.385702 -0.00118677 -0.0969212 -0.995291
0.000654579 -0.140079 0.377192 -0.317195 0.249456 0.914964
0.248902 -0.0955513 0.383326 -0.00172164 -0.093527 -0.995615
-0.226369 0.203762 0.530533 0.201336 -0.97933 -0.0193831
-0.0467221 0.200836 0.33584 -0.0383663 -0.0494067 -0.998042
-0.118267 0.23662 0.683005 -0.0995649 0.994887 -0.0169108
-0.232495 -0.171685 0.402227 1.26456e-05 0.112298 0.993675
0.165172 -0.0869651 0.382431 0.0182039 -0.123877 -0.992131
-0.250032 -0.177521 0.136339 0.347785 0.922005 -0.170152
-0.107609 -0.100163 0.383312 -0.0230307 -0.132201 -0.990955
0.170161 0.224754 0.557371 0.244631 0.968832 -0.0389807
-0.0860586 -0.166352 0.349001 0 0 -1
0.064706 -0.0207385 0.367489 0.0239105 -0.202219 -0.979048
-0.100129 0.228062 0.688625 0.0945471 -0.995353 0.018232
0.216969 -0.0699106 0.381156 -0.00188863 -0.0714613 -0.997442
0.181102 -0.189596 0.393247 -0.0182661 -0.0758086 -0.996955
-0.0346102 -0.155686 0.350093 0.018035 0.92412 -0.381677
0.259811 0.113928 0.368934 0.949712 0.310542 -0.0401276
0.200777 0.238895 0.190316 0.35239 0.920285 0.169991
0.213647 -0.046309 0.389917 0.00259043 0.0699952 0.997544
-0.183562 0.22597 0.185557 0.896725 -0.388703 -0.211646
-0.156757 -0.285942 0.360392 -0.241385 -0.378608 -0.893526
-0.230651 -0.158179 0.290646 -0.404503 0.913321 -0.0471369
-0.0247055 0.244137 0.64814 -0.00998058 0.999944 -0.00352317
0.120841 0.0246051 0.366303 0.150374 -0.201 -0.967981
0.073473 0.00912609 0.362159 0.150374 -0.201 -0.967981
-0.239492 -0.137282 0.387888 -0.000470868 -0.1112 -0.993798
0.272259 -0.0589361 0.390685 0.00190655 0.0712454 0.997457
-0.110843 -0.147491 0.389821 0.00757275 -0.125958 -0.992007
-0.149623 -0.0146463 0.384722 0.0815212 0.141103 0.986633
0.0644972 0.230032 0.700565 -0.0902333 -0.995908 -0.00495305
-0.282553 -0.135789 0.387741 -0.000470868 -0.1112 -0.993798
-0.0988685 -0.0285638 0.382564 0.0788987 0.140193 0.986976
-0.205844 -0.0861042 0.382764 -0.000926501 -0.0974461 -0.99524
0.169811 -0.282551 0.371262 -0.169938 -0.582877 0.794591
-0.168693 0.22864 0.546379 -0.214202 0.976788 0.00150193
-0.219945 0.0836356 0.380112 0.0183997 0.0706235 0.997333
0.155655 0.22029 0.677759 -0.142871 -0.98971 0.00793002
-0.145721 0.22558 0.390377 -0.158241 0.0014291 -0.9874
0.214323 -0.176755 0.34698 0.262606 -0.919236 0.29333
0.148467 0.219519 0.550347 -0.244687 -0.968817 0.0390059
0.165532 -0.0578391 0.390321 -0.018695 0.0702596 0.997354
0.241982 0.084783 0.370023 0.0103667 -0.0891386 -0.995965
-0.292284 -0.10267 0.394922 0.00083732 0.0976259 0.995223
-0.218373 0.191409 0.372323 -0.739004 0.668844 -0.0807553
0.162943 0.227758 0.586727 0.244631 0.968832 -0.0389807
0.0036221 0.244029 0.677594 0.0279484 0.999609 0
-0.118641 -0.192487 0.394878 0.0195142 -0.0747325 -0.997013
-0.116572 0.215806 0.257823 -0.000861036 -0.920981 0.389607
-0.216269 0.206934 0.425603 0.245478 -0.969397 -0.00328519
0.077265 -0.155263 0.354467 -0.963435 0.267943 0
0.00510129 0.136361 0.303369 -0.318095 0.249206 0.91472
0.0904877 -0.0162004 0.379824 -0.0867352 0.125743 0.988264
-0.0790453 0.231527 0.469189 0.0443477 -0.999016 -0.000257419
0.225376 -0.024953 0.388388 0.00259043 0.0699952 0.997544
0.225026 -0.193497 0.393555 0.00102913 -0.0892607 -0.996008
0.0801756 0.22952 0.475475 -0.111585 -0.993754 -0.0013568
-0.238716 -0.170095 0.199675 0.344621 0.923243 -0.16988
-0.232422 -0.14827 0.389114 -0.000470868 -0.1112 -0.993798
0.115454 -0.215795 0.406636 0.01532 0.0700563 0.997425
-0.186166 0.234353 0.233465 -0.334384 0.912473 0.235756
0.192783 -0.163943 0.390431 -0.000678541 -0.110706 -0.993853
-0.0828067 -0.140529 0.364276 0.267571 0.963538 0
0.233021 0.212644 0.444583 0.215202 0.976545 0.00700011
0.00716043 -0.279547 0.360107 0.00656431 -0.798345 0.602164
0.187668 -0.244041 0.403331 -0.169938 -0.582877 0.794591
0.0673357 -0.0531177 0.37416 0.00555515 -0.198823 -0.98002
-0.232509 0.247885 0.0143095 -0.184631 -0.00934621 -0.982764
0.0505733 -0.198418 0.396249 -0.00289386 -0.0678932 -0.997688
0.0782602 -0.0368752 0.371744 0.0858472 -0.198726 -0.976288
0.210776 -0.0279189 0.388634 0.00259043 0.0699952 0.997544
-0.0935643 0.0195479 0.373851 0.136287 0.139801 0.980756
0.163408 0.216669 0.573277 -0.244687 -0.968817 0.0390059
-0.223742 0.239371 0.0437763 -0.396305 -0.917637 -0.0297515
-0.138527 -0.265382 0.383894 0.103797 -0.721295 0.684806
0.0592681 -0.183305 0.405623 0.00684714 0.0573705 0.99833
-0.251479 -0.196643 0.130227 0.403313 -0.913835 0.0473805
0.29169 -0.0273238 0.38839 0.00190655 0.0712454 0.997457
0.23082 0.202632 0.457851 -0.2245 -0.974474 -0.000400066
0.108688 -0.142071 0.389058 -0.0107688 -0.138017 -0.990371
0.228498 -0.101807 0.383949 -0.00172164 -0.093527 -0.995615
-0.144476 0.206268 0.362851 0.192724 0.06414 0.979154
-0.153666 -0.160744 0.390735 0.0202033 -0.126037 -0.99182
-0.191798 0.0776028 0.369604 -0.018418 -0.0706182 -0.997333
0.237896 -0.188535 0.248851 0.370335 -0.914163 0.164795
0.27035 -0.0460699 0.389769 0.00190655 0.0712454 0.997457
0.163545 0.215363 0.48676 -0.21762 -0.975973 0.0109173
-0.119943 0.235797 0.575066 -0.0871466 0.996152 -0.00933171
-0.0428276 0.233087 0.655046 0.0443477 -0.999016 -0.000257419
0.0688071 0.146955 0.340271 0.0606786 -0.0596653 -0.996373
0.0718412 0.239833 0.690994 0.0909515 0.995843 0.00490737
0.0466103 0.229006 0.264084 0.00280917 0.393827 0.91918
0.190709 0.182936 0.371371 -0.160182 0.0526171 0.985684
-0.122913 -0.160143 0.345369 0.00831911 0.384096 -0.923256
0.262991 -0.0447175 0.389687 0.00190655 0.0712454 0.997457
0.279083 0.0139696 0.375431 -0.00297651 -0.060951 -0.998136
0.156367 -0.0742203 0.391303 -0.018695 0.0702596 0.997354
0.144546 0.230155 0.568026 0.199318 0.979496 -0.0293265
0.183628 0.225049 0.663111 0.199318 0.979496 -0.0293265
-0.0941166 -0.0601137 0.376427 -0.0235553 -0.20552 -0.978369
-0.265544 -0.193548 0.0177899 0.347785 0.922005 -0.170152
0.0413647 -0.141016 0.389519 -0.00404005 -0.142619 -0.989769
0.0186667 0.266042 0.296331 0.943595 -0.302201 0.135288
-0.248504 0.00708905 0.375744 -0.00758925 -0.0616292 -0.99807
-0.0135889 -0.000401016 0.346778 -0.967549 -0.243683 0.0668412
-0.147618 0.221254 0.489427 0.219645 -0.975326 -0.0222673
0.248542 -0.195764 0.184825 0.370335 -0.914163 0.164795
0.148996 -0.265712 0.369878 -0.03098 0.717022 -0.696361
0.256854 0.104234 0.37888 -0.010498 0.0893215 0.995947
0.102902 0.237242 0.445649 0.244631 0.968832 -0.0389807
-0.118803 -0.0255369 0.383676 0.0240489 0.141042 0.989711
-0.167172 0.217573 0.457789 0.219645 -0.975326 -0.0222673
-0.229401 -0.201747 0.405639 0.0151078 0.0786362 0.996789
-0.1046 0.229761 0.399048 0.107578 -0.994118 -0.0125293
0.0266786 -0.111206 0.395428 0.0042149 0.163953 0.986459
-0.190359 0.0274544 0.374045 -0.00758925 -0.0616292 -0.99807
0.236561 -0.27222 0.388726 0.448017 -0.382949 -0.807856
-0.212169 0.0329362 0.373858 -0.0097333 -0.090831 -0.995819
0.203915 0.048913 0.383217 -0.0104636 0.0872809 0.996129
0.192548 0.226215 0.168614 -0.898707 -0.38385 -0.212094
-0.0213808 -0.164322 0.365496 -0.00835506 -0.384093 0.923257
0.0903224 -0.0492825 0.385919 -0.0858492 0.198546 0.976324
0.0200801 0.243542 0.64333 0.0140029 0.999902 0.000709423
-0.109524 0.227237 0.692303 0.0945471 -0.995353 0.018232
-0.0213756 0.112105 0.351922 0.041858 0.143734 0.988731
0.237987 0.244161 0 0 0 -1
0.0565331 0.241652 0.602762 0.0827075 0.996561 0.00499663
-0.0892196 0.23985 0.553633 -0.163978 0.986206 0.0225802
0.145318 -0.0708737 0.390861 -0.018695 0.0702596 0.997354
0.0803189 -0.00301659 0.376342 -0.150331 0.200972 0.967993
-0.179606 -0.0286224 0.378123 -0.000683781 -0.0759951 -0.997108
0.146846 -0.266003 0.381765 0.0355298 -0.71684 0.696332
0.149542 0.230746 0.621709 0.199318 0.979496 -0.0293265
-0.269807 0.0224341 0.385362 0.00757502 0.0616426 0.99807
-0.0955395 -0.167858 0.346527 -0.00638889 -0.38563 -0.922631
0.0105 0.232392 0.247886 0.000814757 0.920914 -0.389764
0.0190111 0.268493 0.369204 0.944029 -0.329694 -0.0105292
0.0886258 -0.231313 0.408138 0.01532 0.0700563 0.997425
-0.146659 -0.151662 0.400221 -0.0202099 0.126041 0.991819
0.069157 -0.111592 0.395352 -0.023444 0.164135 0.986159
0.0436652 0.242861 0.559326 0.0707038 0.997487 0.00459378
-0.00348376 -0.247718 0.389075 0.00709134 0.799958 -0.600014
-0.117401 0.0186156 0.366779 -0.136157 -0.139805 -0.980773
0.173159 0.226769 0.64939 0.199318 0.979496 -0.0293265
-0.0914822 0.239415 0.606293 -0.200079 0.979446 0.0255614
0.117242 0.225047 0.412463 -0.132749 -0.989597 -0.0554506
0.0809003 0.21273 0.338658 0.198132 -0.0561057 -0.978568
-0.100603 0.110546 0.361902 0.185259 0.123088 0.97495
-0.00954226 0.233721 0.629842 0.0117632 -0.999931 0.000323494
-0.214404 0.00932171 0.385826 0.00256019 0.0734461 0.997296
0.0562391 0.215481 0.253157 -0.00257175 -0.928054 -0.372436
0.254107 -0.194925 0.393713 0.00102913 -0.0892607 -0.996008
-0.09225 -0.275965 0.35541 -0.0819157 0.796549 -0.598999
-0.252901 0.13745 0.365647 -0.0598976 -0.00208001 -0.998202
0.0180444 0.23331 0.435326 -0.0140035 -0.999902 -0.000674653
0.000209076 0.244124 0.698668 0.0279484 0.999609 0
-0.145764 -0.00805347 0.38346 0.0815212 0.141103 0.986633
-0.0575498 0.243155 0.494368 -0.0636265 0.997963 0.00474457
0.269988 -0.201594 0.0865734 0.91218 -0.368933 0.178371
-0.0152331 0.233597 0.453746 0.0117632 -0.999931 0.000323494
0.0140468 -0.131842 0.37167 0.94785 0.0777279 0.309092
0.0681322 0.229888 0.663287 -0.0902333 -0.995908 -0.00495305
0.202813 0.218112 0.58297 0.217664 0.975962 -0.0109522
0.225569 -0.0925495 0.393529 0.00174008 0.093527 0.995615
0.214177 -0.0540368 0.380041 -0.00270201 -0.0699747 -0.997545
-0.0421639 0.233273 0.568119 0.0099807 -0.999944 0.00352282
-0.0466729 0.233072 0.523112 0.0330583 -0.999453 -0.000769184
-0.00761106 0.0250538 0.366468 0.0313231 0.209213 0.977368
-0.27391 -0.193511 0.0703031 -0.922969 0.370639 0.103708
-0.183357 0.235311 0.183122 0.915568 0.381186 -0.128185
2.33203e-06 -0.0834865 0.390366 -0.000380494 0.175665 0.98445
-0.110138 0.237642 0.695804 -0.0940344 0.9954 -0.0183262
-0.0403383 -0.0428868 0.371591 -0.0186774 -0.20558 -0.978462
0.000338502 0.0107828 0.369453 0.0186306 0.223984 0.974415
0.0440219 0.242269 0.682221 0.0707038 0.997487 0.00459378
0.152718 0.217564 0.467779 -0.21762 -0.975973 0.0109173
0.00515033 0.252312 0.29183 -0.323079 -0.689105 0.648656
-0.163327 -0.0203229 0.386666 0.0815212 0.141103 0.986633
-0.228656 -0.173536 0.313998 -0.344647 -0.923258 0.169745
-0.0774258 0.241528 0.523609 -0.108024 0.994068 0.012612
-0.163878 -0.189428 0.39382 0.0202699 -0.0853329 -0.996146
0.0961488 0.238037 0.551555 0.105031 0.994464 0.00301026
0.0622716 -0.138665 0.399585 0.00771819 0.138048 0.990395
0.173674 -0.00806294 0.386165 -0.0671653 0.0681217 0.995414
0.196386 0.220755 0.435914 0.207724 0.978153 0.00819513
-0.296011 -0.132275 0.392236 -0.999684 -0.0248103 0.00411213
0.0474552 0.214298 0.345752 -0.0592143 0.046211 0.997175
-0.161379 0.23009 0.646399 -0.214202 0.976788 0.00150193
-0.256442 -0.0276567 0.378225 -0.00250745 -0.0717495 -0.99742
0.228967 -0.0575969 0.390672 0.00190655 0.0712454 0.997457
-0.230871 -0.0322457 0.378491 -0.00250745 -0.0717495 -0.99742
0.00214658 0.24407 0.573836 0.0279484 0.999609 0
-0.000514122 0.271599 0.303974 -0.942172 0.332832 -0.0391724
0.0163451 0.23331 0.470133 -0.0140035 -0.999902 -0.000674653
0.192568 0.238257 0.209113 -0.391708 0.919581 0.0305796
0.18149 -0.175619 0.348019 -0.0172129 -0.924534 -0.38071
-0.176302 -0.221372 0.396304 0.0202699 -0.0853329 -0.996146
0.0139128 0.265722 0.470989 0.406608 -0.908024 0.100811
-0.260455 -0.197762 0.40529 -0.000150723 0.119284 0.99286
0.186132 -0.252942 0.396472 -0.169938 -0.582877 0.794591
0.182229 -0.0648212 0.380711 0.0186952 -0.0702446 -0.997355
-0.156207 -0.202177 0.395068 0.0202699 -0.0853329 -0.996146
-0.0773747 0.230715 0.58483 0.164924 -0.986042 -0.0228159
0.136481 0.127537 0.355626 0.15739 -0.122558 -0.979902
-0.174771 0.0525595 0.371224 -0.175875 -0.0899729 -0.980292
-0.00883913 0.233721 0.603907 0.0117632 -0.999931 0.000323494
-0.194211 -0.107231 0.395264 0.00128994 0.0967132 0.995311
0.189975 0.126823 0.364277 0.146893 -0.110021 -0.983015
-0.189941 0.219743 0.198927 -0.396305 -0.917637 -0.0297515
-0.131131 0.234606 0.640265 -0.0995649 0.994887 -0.0169108
-0.0500096 0.23278 0.611853 0.0443477 -0.999016 -0.000257419
0.198956 -0.0159638 0.387878 -0.000811386 0.0671389 0.997743
0.013016 -0.231565 0.408713 0.00684714 0.0573705 0.99833
-0.0681363 0.216183 0.258821 -0.000861036 -0.920981 0.389607
0.228376 -0.161543 0.33508 0.869048 0.393794 0.29947
0.106056 -0.149833 0.362789 0.967817 0.251655 0
0.166988 0.217002 0.629442 -0.199317 -0.979496 0.0293267
-0.123109 0.0186457 0.367254 -0.0816607 -0.1411 -0.986622
0.16266 -0.0289617 0.387123 -0.0666193 0.125624 0.989839
0.0818201 0.238439 0.69958 0.0595072 -0.000475648 0.998228
0.0885887 0.228269 0.59165 -0.099456 -0.995034 -0.00404892
-0.118455 0.225061 0.610355 0.219645 -0.975326 -0.0222673
0.217006 -0.161432 0.390135 -0.000678541 -0.110706 -0.993853
0.00655976 0.267301 0.517473 -0.062263 0.680169 0.730406
-0.0879579 0.0754697 0.3539 -0.17126 -0.131057 -0.97647
-0.18134 0.225962 0.484433 -0.214202 0.976788 0.00150193
0.0570634 0.232156 0.408873 -0.0902333 -0.995908 -0.00495305
0.0833432 0.240595 0.392716 0.0956967 0.993804 0.0565253
-0.0119154 -0.0267554 0.367659 -0.0186774 -0.20558 -0.978462
-0.0686396 0.24139 0.681855 -0.077921 0.996957 -0.00218124
-0.225733 -0.141361 0.398809 0.000564104 0.111211 0.993797
-0.0216962 0.23354 0.511994 0.0117632 -0.999931 0.000323494
0.199439 0.209228 0.614496 -0.244687 -0.968817 0.0390059
0.164084 0.211542 0.356716 0.221273 0.968006 -0.118332
0.00798664 0.180907 0.344956 -0.0592143 0.046211 0.997175
-0.100665 0.240722 0.388075 -0.108024 0.994068 0.012612
0.240418 -0.190931 0.229895 0.370335 -0.914163 0.164795
0.196674 0.121887 0.365517 0.0251013 -0.107185 -0.993922
0.0562454 -0.202798 0.406816 0.00229793 0.0619848 0.998074
-0.160335 0.214043 0.355052 -0.192724 -0.06414 -0.979154
-0.0577225 0.243015 0.521309 -0.0636265 0.997963 0.00474457
-0.21207 0.150854 0.363543 -0.0336145 -0.054016 -0.997974
0.114165 0.226136 0.400395 -0.132749 -0.989597 -0.0554506
-0.245544 -0.0283497 0.388664 0.00249886 0.0717504 0.99742
0.195402 0.0782107 0.38056 -0.0104636 0.0872809 0.996129
-0.0121086 -0.024575 0.377804 0.0185117 0.205777 0.978424
-0.0776916 -0.266155 0.380297 0.0985816 -0.793885 0.600024
0.251 -0.196026 0.087312 -0.912219 0.368605 -0.178852
0.181464 -0.210852 0.40542 0.00427717 0.084398 0.996423
-0.0688106 0.0626903 0.363054 0.13638 0.173758 0.975299
0.132705 0.233788 0.659741 0.111593 0.993753 0.00135449
0.183017 0.22496 0.655964 0.199318 0.979496 -0.0293265
0.00531967 0.179927 0.291575 -0.319183 0.249188 0.914345
0.124451 0.0290299 0.366122 0.151515 -0.123926 -0.980656
0.0985253 0.20321 0.342772 0.198132 -0.0561057 -0.978568
-0.242035 -0.046292 0.379529 -0.00250745 -0.0717495 -0.99742
-0.232381 -0.175487 0.295823 -0.344647 -0.923258 0.169745
0.0275035 -0.174371 0.394327 -0.00789968 -0.138044 -0.990395
0.21095 0.217599 0.443404 0.207724 0.978153 0.00819513
-0.0345017 -0.036736 0.370187 -0.0186774 -0.20558 -0.978462
0.0117821 0.233382 0.538701 -0.0304663 -0.999536 0
-0.0829485 0.131467 0.345413 -0.185092 -0.123118 -0.974978
-0.183339 -0.23757 0.407315 0.083181 -0.617474 0.782181
-0.00162594 0.192165 0.276037 -0.948834 -0.0770725 -0.306226
0.0295242 0.233112 0.490363 -0.0140035 -0.999902 -0.000674653
-0.0162837 0.175223 0.335828 -0.0413998 -0.0458105 -0.998092
0.248605 0.20546 0.5698 0.962605 -0.00767554 0.2708
-0.187273 0.240038 0.180034 0.394492 0.918407 0.0300821
-0.239006 -0.168052 0.39134 -1.77113e-05 -0.112093 -0.993698
0.113863 0.234853 0.516395 0.199318 0.979496 -0.0293265
0.260438 -0.204356 0.0220068 -0.912219 0.368605 -0.178852
0.195303 0.210344 0.451403 -0.195208 -0.980627 -0.0162839
0.167793 0.155901 0.369181 -0.157007 0.0529127 0.986179
0.0198655 0.233662 0.259794 0.00255031 0.928482 0.371369
0.0617715 -0.103671 0.383484 -0.00421129 -0.163772 -0.986489
-0.0944681 0.229839 0.488085 0.065261 -0.997867 -0.00133179
0.220136 0.252707 0.0138328 -0.914555 0.383592 -0.128244
-0.267352 -0.138915 0.398559 0.000564104 0.111211 0.993797
0.267708 -0.203619 0.0940135 0.910159 -0.373695 0.178784
0.196916 -0.166453 0.362343 0.189764 0.379611 0.905475
0.117671 -0.271593 0.375782 -0.0762691 -0.714559 0.695405
-0.26818 0.0830764 0.381042 0.0183997 0.0706235 0.997333
-0.0333402 0.233517 0.517703 0.0330583 -0.999453 -0.000769184
0.138352 0.222694 0.690612 -0.111585 -0.993754 -0.0013568
-0.00358785 -0.201568 0.407019 -0.0031718 0.0574634 0.998343
-0.0603228 0.109633 0.354686 0.171286 0.140633 0.975132
0.283028 -0.203589 0.00222509 0.967918 0.251265 0
0.138231 -0.155926 0.40077 0.0085837 0.122425 0.992441
-0.24022 -0.182396 0.155889 0.897468 0.39586 -0.194539
-0.173666 0.126386 0.363376 -0.188851 -0.107808 -0.97607
-0.289036 -0.186579 0.400707 -0.969526 -0.243045 0.0308025
0.270054 -0.242103 0.394384 0.274792 0.121991 -0.953733
-0.160724 -0.260741 0.378697 0.0332136 0.606215 -0.794607
0.219497 -0.10227 0.394453 0.00174008 0.093527 0.995615
0.208816 0.206243 0.5739 -0.21762 -0.975973 0.0109173
-0.151888 0.0675897 0.376187 0.17573 0.0899746 0.980318
-0.0603852 -0.155913 0.361653 0.0171833 0.924509 0.380772
0.143759 -0.0277805 0.375207 0.0667843 -0.125808 -0.989804
-0.119396 0.131984 0.36274 0.175966 0.123348 0.976638
0.197486 0.241348 0.179145 -0.391708 0.919581 0.0305796
-0.250546 0.144896 0.375351 -0.883673 0.464766 -0.0558109
0.0400586 0.232716 0.523295 -0.0333208 -0.999444 -0.00137862
0.0365277 0.232803 0.545313 -0.0333208 -0.999444 -0.00137862
0.175982 -0.188705 0.403669 0.0181807 0.0700281 0.997379
0.241285 -0.259732 0.392276 -0.322629 -0.120205 0.938862
0.26352 -0.208851 0.0039658 0 0 1
-0.185447 0.214077 0.573119 0.292066 -0.956388 -0.00444853
0.0838929 -0.264548 0.381758 0.0203422 -0.766584 0.641822
-0.0526366 -0.261905 0.369487 0.00932184 0.798768 -0.601567
0.182817 0.072714 0.379851 -0.146606 0.123973 0.981395
-0.0635763 0.242809 0.486309 -0.0636265 0.997963 0.00474457
0.0571939 0.258953 0.481714 0.0086796 0.999962 0.000420567
-0.169006 -0.0791683 0.392306 0.0236944 0.0964611 0.995055
-0.139066 0.234004 0.667273 -0.132854 0.991086 -0.00990683
0.158426 -0.0794282 0.381366 0.0182039 -0.123877 -0.992131
0.246603 -0.174615 0.205631 0.376841 0.924572 -0.0561835
0.281828 -0.150818 0.388916 -0.000305006 -0.1115 -0.993764
-0.0695204 -0.205145 0.396652 0.0100739 -0.0643185 -0.997879
0.0814916 0.239163 0.641258 0.0943366 0.995529 0.00469185
-0.130989 0.20708 0.349739 -0.190335 -0.0675415 -0.979393
0.165361 0.227569 0.623128 0.199318 0.979496 -0.0293265
-0.146107 0.21702 0.355035 -0.197816 0.972932 -0.119469
0.0619174 0.256429 0.498075 0.965884 -0.00772961 0.258859
-0.0204364 0.268281 0.499593 -0.275417 0.944348 -0.179866
0.242933 0.209987 0.530202 0.195886 0.980501 0.0157067
0.20564 -0.156407 0.400057 0.000602225 0.11089 0.993832
-0.206811 -0.12406 0.386463 -0.00118677 -0.0969212 -0.995291
0.147678 -0.281864 0.357166 0.14354 0.584515 -0.798585
0.0300581 0.0168351 0.358348 0.0427745 -0.224123 -0.973622
0.13092 0.221638 0.492889 -0.244687 -0.968817 0.0390059
0.175516 0.149572 0.37075 -0.157007 0.0529127 0.986179
0.117041 0.128078 0.362248 -0.206008 0.140526 0.968408
-0.0701728 0.0887449 0.359429 0.171286 0.140633 0.975132
-0.223402 -0.174679 0.314849 0.403313 -0.913835 0.0473805
0.175677 0.120655 0.373275 -0.157569 0.12277 0.979847
0.069932 0.229667 0.674921 -0.0902333 -0.995908 -0.00495305
0.209837 0.153703 0.37444 -0.0593949 0.0548709 0.996725
-0.260508 -0.185419 0.155062 -0.897231 -0.396582 0.194162
-0.0798417 -0.167267 0.346171 -0.00638889 -0.38563 -0.922631
0.250375 -0.0630566 0.391021 0.00190655 0.0712454 0.997457
0.206383 0.206854 0.594471 -0.0956965 -0.993804 -0.0565297
-0.249279 -0.143577 0.399071 0.000564104 0.111211 0.993797
-0.00341272 -0.23494 0.40894 -0.0031718 0.0574634 0.998343
0.0977956 0.0112375 0.365499 0.150374 -0.201 -0.967981
-0.113805 -0.252008 0.383134 0.0345604 0.724605 -0.688298
-0.0934508 0.239326 0.545792 -0.163978 0.986206 0.0225802
-0.0406332 0.0186446 0.3583 -0.0313232 -0.209224 -0.977366
-0.254657 -0.263096 0.394749 0.083181 -0.617474 0.782181
-0.262287 0.101011 0.368966 -0.03391 -0.0826706 -0.996
0.136367 0.220863 0.507829 -0.244687 -0.968817 0.0390059
0.0954673 0.2335 0.250682 0.000814757 0.920914 -0.389764
0.142507 0.110267 0.358754 0.15739 -0.122558 -0.979902
0.00142163 0.227845 0.264719 0.00282108 0.394219 0.919012
-0.20889 0.207488 0.552474 0.245116 -0.969453 -0.00893531
-0.247082 0.110926 0.367626 -0.03391 -0.0826706 -0.996
0.199437 -0.114205 0.395609 0.00174008 0.093527 0.995615
0.176403 0.22473 0.439605 0.195886 0.980501 0.0157067
0.0555381 0.231673 0.531812 -0.0849934 -0.996369 -0.00500965
-0.110648 0.228691 0.431768 0.164924 -0.986042 -0.0228159
0.114112 -0.00028695 0.369376 0.086736 -0.125738 -0.988265
0.0311055 -0.12947 0.387897 -0.00404005 -0.142619 -0.989769
-0.151029 -0.0983725 0.39374 0.0236944 0.0964611 0.995055
-0.0336097 0.241595 0.505735 0.259578 -0.00220574 0.96572
-0.000657991 0.167758 0.279181 -0.948834 -0.0770725 -0.306226
0.19655 0.220603 0.619803 0.244631 0.968832 -0.0389807
0.127847 -0.267511 0.381093 -0.0762691 -0.714559 0.695405
-0.100913 0.22948 0.452963 0.107578 -0.994118 -0.0125293
-0.244518 -0.118493 0.385966 -0.00118677 -0.0969212 -0.995291
0.0831099 0.239597 0.484249 0.111593 0.993753 0.00135449
0.0428871 -0.0962377 0.382305 0.00576306 -0.175503 -0.984462
-0.286825 0.0149924 0.376225 -0.987743 0.155037 -0.0181105
-0.22799 -0.179065 0.241254 0.922036 -0.372982 -0.103608
-0.00482031 -0.125458 0.387292 0.000382216 -0.175463 -0.984486
-0.0200886 0.269143 0.503579 -0.275005 0.944265 -0.18093
0.166924 0.216425 0.589268 -0.244687 -0.968817 0.0390059
0.233447 0.0828309 0.370108 0.0103667 -0.0891386 -0.995965
-0.268714 -0.135675 0.387722 -0.000470868 -0.1112 -0.993798
-0.0714609 -0.256507 0.378443 -0.0819157 0.796549 -0.598999
0.0226548 0.281688 0.514046 0.883173 0.460296 -0.0901814
0.163351 0.228925 0.65475 0.199318 0.979496 -0.0293265
-0.0402637 -0.0708725 0.377581 -0.00648649 -0.219771 -0.97553
-0.0647457 0.23256 0.429754 0.0099807 -0.999944 0.00352282
0.00677309 -0.179608 0.405724 0.00771819 0.138048 0.990395
0.172152 -0.0169563 0.376256 0.0673333 -0.0681283 -0.995402
0.0380421 0.11975 0.340968 0.0602344 -0.14822 -0.987118
-0.0211297 0.233832 0.633061 0.0330583 -0.999453 -0.000769184
0.171533 0.213881 0.529936 -0.0956965 -0.993804 -0.0565297
0.228812 -0.242556 0.404557 0.00701187 -0.588001 0.80883
0.197969 0.209769 0.618707 -0.244687 -0.968817 0.0390059
-0.205022 0.150781 0.363309 -0.0336145 -0.054016 -0.997974
-0.00191252 0.261916 0.495221 0.0893538 -0.979413 -0.181015
0.00293724 0.236229 0.28053 -0.320413 -0.186415 0.928754
-0.114606 0.226182 0.661032 0.0945471 -0.995353 0.018232
0.0553445 -0.265842 0.366995 0.0537293 0.766805 -0.639627
-0.171362 -0.277821 0.362077 -0.0856154 0.722776 -0.685758
-0.147011 0.0530679 0.366309 -0.140642 -0.131952 -0.981228
0.192976 0.217586 0.210384 0.39168 -0.919591 -0.0306317
0.0233715 0.2244 0.333462 0.0593608 -0.0462025 -0.997167
0.224032 0.0139861 0.385883 -0.000811386 0.0671389 0.997743
0.10742 0.0446414 0.361518 0.151515 -0.123926 -0.980656
-0.26386 -0.173589 0.391965 -1.77113e-05 -0.112093 -0.993698
0.221022 0.204893 0.448361 -0.2245 -0.974474 -0.000400066
-0.0564242 -0.223058 0.397933 0.00384327 -0.0642663 -0.997925
-0.202937 0.227271 0.139857 -0.396305 -0.917637 -0.0297515
0.0566849 -0.0167152 0.366462 0.0239105 -0.202219 -0.979048
-0.132677 0.223873 0.629905 0.0996422 -0.994879 0.0169281
-0.0682619 0.104179 0.356867 0.171286 0.140633 0.975132
-0.132395 0.0321614 0.367025 -0.140642 -0.131952 -0.981228
0.079658 0.228935 0.638087 -0.094285 -0.995534 -0.0046951
0.0257058 -0.232748 0.398657 -0.00289386 -0.0678932 -0.997688
-0.20704 -0.168424 0.355512 -0.604912 -0.389275 0.694656
-0.0938116 -0.167689 0.367483 -0.711559 -0.702627 0
-0.00788057 -0.0911266 0.381172 0.000382216 -0.175463 -0.984486
0.0550901 -0.0232411 0.378369 -0.0239061 0.202214 0.97905
0.0802302 0.11714 0.356004 -0.206008 0.140526 0.968408
0.00492697 0.0936646 0.29518 -0.446317 -0.231268 -0.864475
0.112702 0.0974342 0.365395 -0.190937 0.122271 0.973957
0.203505 0.124822 0.365373 0.0251013 -0.107185 -0.993922
-0.0288697 0.228205 0.246238 -0.0014073 0.375449 -0.926842
0.166796 -0.131206 0.386986 -0.00841811 -0.122427 -0.992442
-0.0665458 0.0125478 0.360979 -0.0790358 -0.208296 -0.974867
-0.220166 -0.0727097 0.381511 -0.000683781 -0.0759951 -0.997108
-0.10046 -0.0816561 0.391182 0.0230309 0.132202 0.990955
-0.0799981 -0.275379 0.354515 -0.0819157 0.796549 -0.598999
0.0291148 0.232907 0.641432 -0.0483093 -0.998828 -0.00299351
0.218231 -0.187623 0.403452 -0.00121303 0.0843745 0.996433
-0.111051 0.217584 0.262037 -0.000861036 -0.920981 0.389607
0.212096 -0.159947 0.389973 -0.000678541 -0.110706 -0.993853
0.014237 0.289062 0.511161 0.319151 0.939361 -0.125477
0.210349 0.216084 0.552021 0.217664 0.975962 -0.0109522
-0.256912 -0.200546 0.395141 0.000156876 -0.119558 -0.992827
0.23762 0.0438872 0.373369 0.00106327 -0.0738487 -0.997269
-0.112184 -0.140007 0.38886 0.00757275 -0.125958 -0.992007
-0.0254961 0.233493 0.506099 0.0117632 -0.999931 0.000323494
0.285553 -0.129698 0.397072 0.0001144 0.0967917 0.995305
-0.266476 -0.202882 0.0109073 -0.149582 -0.00281474 -0.988745
0.288103 -0.0765059 0.381494 -0.00188863 -0.0714613 -0.997442
-0.111375 0.207462 0.345947 -0.167526 -0.0696322 -0.983406
0.129634 0.222186 0.454846 -0.0956965 -0.993804 -0.0565297
0.203093 0.217466 0.530904 0.217664 0.975962 -0.0109522
-0.0902839 0.215072 0.256146 -0.000861036 -0.920981 0.389607
0.16632 -0.203073 0.404854 0.0181807 0.0700281 0.997379
-0.187178 0.0903034 0.368349 -0.0204485 -0.10813 -0.993927
0.0416796 0.141849 0.349333 -0.060678 0.0599216 0.996357
0.199065 0.211718 0.656486 0.802632 -0.00724802 0.59643
-0.210856 0.187268 0.372347 0.0537904 0.0768119 0.995594
0.0360173 -0.155237 0.354512 0.0180525 0.923687 -0.382722
-0.0178648 -0.267338 0.376068 -0.00708049 -0.798267 0.602262
0.205378 -0.27249 0.371862 0.274792 0.121991 -0.953733
-0.187308 -0.114811 0.395991 0.00128994 0.0967132 0.995311
0.100834 0.00812991 0.377214 -0.150331 0.200972 0.967993
0.118937 0.211078 0.346454 0.198132 -0.0561057 -0.978568
-0.270897 -0.20783 0.0115902 -0.149582 -0.00281474 -0.988745
0.0373507 0.242821 0.665198 0.0707038 0.997487 0.00459378
-0.181486 0.0333529 0.37352 -0.0097333 -0.090831 -0.995819
0.0394269 0.242759 0.6466 0.0707038 0.997487 0.00459378
0.15387 -0.0757631 0.391365 -0.018695 0.0702596 0.997354
-0.174866 0.0125111 0.374698 -0.140333 -0.0726384 -0.987436
-0.167841 0.22802 0.448945 -0.219129 0.975444 0.0221674
0.031964 -0.0698412 0.377352 0.00555515 -0.198823 -0.98002
-0.0784051 -0.169704 0.35995 0.25135 -0.967896 0
0.157402 0.229768 0.64245 0.199318 0.979496 -0.0293265
0.142476 0.160916 0.364777 -0.160088 0.05777 0.985411
0.271914 0.0482995 0.373079 0.00106327 -0.0738487 -0.997269
-0.2755 0.0464423 0.383771 0.0183997 0.0706235 0.997333
-0.138101 0.0822519 0.37237 0.17573 0.0899746 0.980318
-0.256405 -0.0338506 0.389087 0.00249886 0.0717504 0.99742
0.222054 0.213795 0.580609 0.217664 0.975962 -0.0109522
-0.03672 0.23337 0.563358 0.0330583 -0.999453 -0.000769184
0.170717 -0.0662157 0.391008 -0.018695 0.0702596 0.997354
-0.09355 0.192264 0.343964 -0.184609 -0.0482089 -0.981629
0.118101 0.119426 0.353211 0.190774 -0.122055 -0.974016
-0.0748081 0.242434 0.414501 -0.0636265 0.997963 0.00474457
-0.019619 0.227702 0.264845 0.00282108 0.394219 0.919012
-0.12612 0.234228 0.588152 -0.219129 0.975444 0.0221674
-0.196664 0.224685 0.156182 0.350655 -0.921008 -0.169661
-0.161572 -0.0438049 0.388396 0.0810838 0.0756315 0.993834
0.267673 -0.0836014 0.382171 -0.00172164 -0.093527 -0.995615
-0.0158701 0.244374 0.676689 0.0221784 0.999742 -0.0048133
-0.266458 -0.188326 0.0442163 0.347785 0.922005 -0.170152
0.0630248 0.0195953 0.369715 -0.0239061 0.202214 0.97905
0.156252 0.210271 0.363939 -0.170936 0.0700588 0.982788
-0.0628983 0.23172 0.625602 0.065261 -0.997867 -0.00133179
-0.0786567 -0.261797 0.386222 0.0985816 -0.793885 0.600024
0.0912365 0.22844 0.412911 -0.244687 -0.968817 0.0390059
0.0155536 -0.0170962 0.365522 0.0427745 -0.224123 -0.973622
-0.243195 -0.22991 0.406522 -0.0423242 -0.22227 0.974066
-0.158011 0.220455 0.634446 0.214086 -0.976814 -0.00145145
-0.28296 -0.133053 0.387435 -0.000470868 -0.1112 -0.993798
-0.235864 -0.177067 0.280158 -0.344647 -0.923258 0.169745
-0.18657 0.21403 0.509663 0.292066 -0.956388 -0.00444853
0.195002 0.0904495 0.379329 -0.0249252 0.106994 0.993947
-0.0516563 0.243347 0.479261 -0.0330719 0.999453 0.00077061
0.0409373 0.232704 0.510313 -0.0333208 -0.999444 -0.00137862
-0.272756 -0.201864 0.0163732 0 0 1
-0.0408008 -0.105651 0.394376 0.00625721 0.167858 0.985791
0.000130029 0.250705 0.284843 -0.899213 -0.314946 0.303685
-0.0392774 0.0272812 0.367006 0.0313231 0.209213 0.977368
0.00303501 0.244045 0.581818 0.0279484 0.999609 0
0.0328803 0.233059 0.447964 -0.0333208 -0.999444 -0.00137862
-0.229701 0.213877 0.440441 -0.246087 0.969244 0.00269215
-0.232612 -0.0769724 0.381895 -0.000926501 -0.0974461 -0.99524
0.160124 0.227301 0.557675 0.244631 0.968832 -0.0389807
0.224572 -0.181396 0.28685 -0.376248 -0.924813 0.0561907
-0.0601101 0.0412833 0.365651 0.13638 0.173758 0.975299
0.0397314 -0.0545287 0.37429 0.00555515 -0.198823 -0.98002
0.241639 -0.182922 0.39253 -0.000305006 -0.1115 -0.993764
-0.00406072 0.19189 0.334556 -0.0413998 -0.0458105 -0.998092
0.0772336 -0.155128 0.401733 0.0107665 0.138019 0.990371
0.0835522 -0.169676 0.361923 -0.712879 -0.701287 0
-0.11666 0.225702 0.599976 0.219645 -0.975326 -0.0222673
-0.126576 -0.186228 0.404714 -0.0202828 0.0799489 0.996593
-0.0829719 -0.134121 0.388336 0.00757275 -0.125958 -0.992007
0.106053 0.22649 0.566487 -0.111585 -0.993754 -0.0013568
-0.0429297 -0.0365003 0.380895 0.0185117 0.205777 0.978424
-0.00293069 -0.155565 0.367456 -0.948607 -0.0771654 -0.306904
-0.297372 -0.0788566 0.383458 -0.999684 -0.0248092 0.00411611
-0.229793 0.145881 0.364409 -0.0336145 -0.054016 -0.997974
0.117303 0.226129 0.393007 -0.132749 -0.989597 -0.0554506
0.0478604 -0.138839 0.389178 -0.00404005 -0.142619 -0.989769
0.0947163 0.23867 0.407305 0.0956967 0.993804 0.0565253
0.000782077 -0.0135945 0.325989 -0.445706 -0.231152 -0.864821
0.224588 0.214675 0.41981 0.229656 0.973272 -0.000137944
0.063698 -0.0702101 0.388192 -0.00557294 0.198642 0.980056
-0.149284 -0.228332 0.407398 -0.0100167 0.0689379 0.997571
0.215637 -0.167952 0.321041 -0.842376 0.355729 -0.404796
0.182325 -0.264274 0.387346 -0.169938 -0.582877 0.794591
0.0911723 -0.0776016 0.390218 -0.023444 0.164135 0.986159
0.0153121 0.26858 0.28514 0.900307 0.390522 -0.192196
0.0139805 -0.26682 0.376905 0.00656431 -0.798345 0.602164
0.0390547 0.243022 0.579667 0.0473057 0.998876 0.00292013
0.0860351 -0.00719076 0.367498 0.150374 -0.201 -0.967981
0.218176 -0.142523 0.388028 -0.000678541 -0.110706 -0.993853
-0.211016 0.00240906 0.386326 0.00256019 0.0734461 0.997296
-0.0758336 -0.204389 0.39654 0.0100739 -0.0643185 -0.997879
0.0679654 -0.03343 0.380761 -0.00557294 0.198642 0.980056
0.0455561 0.232467 0.523021 -0.0483093 -0.998828 -0.00299351
0.105984 0.236901 0.577302 0.111593 0.993753 0.00135449
-0.162536 0.229445 0.438644 -0.219129 0.975444 0.0221674
0.146687 -0.240188 0.396263 -0.03098 0.717022 -0.696361
0.251753 0.197841 0.461432 -0.229566 -0.973293 6.76289e-05
0.243027 -0.170573 0.248162 0.376841 0.924572 -0.0561835
-0.0941928 -0.211986 0.396818 0.0195142 -0.0747325 -0.997013
-0.0830717 -0.265283 0.36836 -0.0819157 0.796549 -0.598999
0.162806 -0.146405 0.388895 -0.00841811 -0.122427 -0.992442
-0.0950209 -0.151198 0.369819 0 0 1
0.0427308 0.236169 0.702166 0.0590801 -0.000532895 0.998253
-0.235933 -0.185697 0.208969 0.406254 -0.912568 0.046662
0.0330934 0.0464721 0.363321 -0.0435554 0.172224 0.984094
0.0107952 -0.120947 0.37176 0.445777 0.231167 0.86478
0.239324 0.251255 0.0039658 0 0 1
0.244831 0.209902 0.449654 0.229656 0.973272 -0.000137944
0.143017 -0.0137217 0.384484 -0.0671653 0.0681217 0.995414
-0.00101125 0.244024 0.505101 0.00274099 0.999996 -0.000980491
-0.134503 0.225915 0.245471 -0.0014073 0.375449 -0.926842
-0.118808 -0.0195518 0.382877 0.0815212 0.141103 0.986633
-0.111695 -0.219668 0.397051 0.0195142 -0.0747325 -0.997013
0.000981932 0.275985 0.311555 -0.436147 0.892205 -0.117245
-0.266547 -0.208202 0.0353601 0.406254 -0.912568 0.046662
0.20127 0.237004 0.199528 0.35239 0.920285 0.169991
0.176177 0.226747 0.230146 -0.862983 0.377513 -0.335775
-0.242057 -0.189691 0.184108 0.403313 -0.913835 0.0473805
-0.123582 -0.253382 0.394268 0.103797 -0.721295 0.684806
0.077675 -0.14593 0.389933 -0.0107688 -0.138017 -0.990371
0.0688644 0.232942 0.261257 0.00255031 0.928482 0.371369
-0.0524607 -0.25599 0.377344 0.00932184 0.798768 -0.601567
0.128868 0.23227 0.485031 0.244631 0.968832 -0.0389807
0.16259 0.226191 0.469449 0.132751 0.989597 0.0554493
-0.0395948 0.243705 0.410171 -0.0117582 0.999931 -0.000323723
0.0837106 0.218477 0.247446 -0.00280815 -0.394178 -0.91903
-0.11574 0.113292 0.364431 0.185259 0.123088 0.97495
-0.00992506 0.233716 0.626914 0.0117632 -0.999931 0.000323494
-0.105844 0.222229 0.343959 -0.167526 -0.0696322 -0.983406
-0.0188888 0.243977 0.500416 -0.0117582 0.999931 -0.000323723
0.0564311 -0.265921 0.366992 0.0537293 0.766805 -0.639627
-0.0174368 0.220925 0.33372 -0.0383663 -0.0494067 -0.998042
-0.197523 0.0671793 0.381033 0.00971526 0.0908308 0.995819
0.018079 0.257519 0.28152 0.899311 0.313717 -0.304666
0.0842389 -0.131342 0.398342 0.0107665 0.138019 0.990371
0.116068 -0.269991 0.377253 -0.0762691 -0.714559 0.695405
0.038886 -0.16338 0.392704 -0.00789968 -0.138044 -0.990395
-0.199618 0.210588 0.47046 0.245116 -0.969453 -0.00893531
-0.249762 -0.258921 0.397524 0.083181 -0.617474 0.782181
0.218891 -0.0616965 0.380565 -0.00270201 -0.0699747 -0.997545
-0.0686894 -0.056641 0.375085 -0.0235553 -0.20552 -0.978369
0.13668 -0.216556 0.406341 0.0181807 0.0700281 0.997379
0.166166 -0.0445789 0.378854 0.0667843 -0.125808 -0.989804
0.0652395 0.135702 0.351138 -0.060678 0.0599216 0.996357
-0.0152529 0.163586 0.336464 -0.0415007 -0.0601951 -0.997324
0.0116456 0.2587 0.368456 0.43455 -0.900413 -0.0205539
-0.0127076 -0.0576422 0.374417 -0.00648649 -0.219771 -0.97553
-0.107285 0.0218494 0.364914 -0.136157 -0.139805 -0.980773
0.00119752 -0.166574 0.34532 -0.00638889 -0.38563 -0.922631
-0.116309 0.237743 0.448947 -0.163978 0.986206 0.0225802
-0.0864529 0.229428 0.606335 0.0779189 -0.996957 0.00221662
-0.177482 0.232111 0.215571 0.915568 0.381186 -0.128185
-0.233114 0.250194 0 0 0 -1
0.0152738 -0.262952 0.382019 0.00656431 -0.798345 0.602164
0.191398 0.115639 0.376215 -0.146738 0.109832 0.983059
0.0268519 0.233127 0.524333 -0.0140035 -0.999902 -0.000674653
0.148764 0.218165 0.493164 -0.0956965 -0.993804 -0.0565297
-0.115345 0.0540212 0.372088 0.17124 0.131054 0.976474
0.19098 0.225145 0.177196 -0.898707 -0.38385 -0.212094
-0.0216588 0.0436548 0.352767 -0.0311806 -0.185286 -0.98219
0.0594138 0.220723 0.263935 0.00139162 -0.376367 0.926469
-0.261271 -0.0531323 0.390486 0.00249886 0.0717504 0.99742
0.283875 -0.133078 0.397406 0.000602225 0.11089 0.993832
-0.203364 0.218822 0.60717 -0.292378 0.956292 0.00450913
-0.0234047 0.22682 0.340279 -0.0191711 0.992471 -0.120967
0.0456924 0.232045 0.617576 -0.0689508 -0.99761 -0.00447065
-0.0709934 -0.14792 0.363661 0.713524 0.700631 0
0.236658 -0.0983272 0.383608 -0.00172164 -0.093527 -0.995615
0.128716 0.234171 0.69222 0.105031 0.994464 0.00301026
-0.0872991 0.240346 0.545923 -0.163978 0.986206 0.0225802
-0.0501165 0.243382 0.498993 -0.0330719 0.999453 0.00077061
0.160572 0.211291 0.364617 -0.170936 0.0700588 0.982788
-0.0862033 0.231219 0.433125 0.0443477 -0.999016 -0.000257419
0.0499678 0.242402 0.56189 0.0707038 0.997487 0.00459378
0.0866618 0.228754 0.503009 -0.111585 -0.993754 -0.0013568
-0.000840475 0.0272123 0.329882 -0.895615 0.121358 0.427956
-0.163201 -0.0073416 0.374501 -0.140333 -0.0726384 -0.987436
-0.191107 0.0874598 0.368739 -0.0204485 -0.10813 -0.993927
-0.192701 0.172199 0.361962 -0.0598976 -0.00208001 -0.998202
-0.0140153 0.0526168 0.3614 0.0311807 0.185292 0.982189
0.160356 0.226392 0.512056 0.0956967 0.993804 0.0565253
0.168554 0.224901 0.507022 0.217664 0.975962 -0.0109522
0.255374 -0.17502 0.39164 -0.000305006 -0.1115 -0.993764
-0.106472 0.162074 0.358407 0.184704 0.0571819 0.981129
-0.000531591 0.102884 0.34194 -0.0386584 -0.147579 -0.988294
-0.0151182 -0.126734 0.398077 -0.000380494 0.175665 0.98445
-0.0825594 -0.259441 0.389312 -0.0370199 -0.724225 0.688569
-0.171166 -0.110557 0.395401 0.0236944 0.0964611 0.995055
0.0780152 0.215506 0.252944 -0.00257175 -0.928054 -0.372436
-0.0422618 0.243515 0.663885 -0.0443917 0.999014 0.000266198
0.0155688 -0.0970773 0.35826 0.94785 0.0777279 0.309092
-0.110615 -0.173358 0.393107 0.00757275 -0.125958 -0.992007
-0.160846 -0.177053 0.392661 0.0202033 -0.126037 -0.99182
0.202374 -0.175716 0.357888 0.0944112 -0.921989 0.375529
0.0881284 -0.159136 0.369819 0 0 1
0.0854907 0.163642 0.342614 0.208059 -0.0613176 -0.976193
0.00946572 -0.0191876 0.326265 0.317699 -0.249426 -0.914797
-0.195937 -0.15536 0.400381 1.26456e-05 0.112298 0.993675
0.0155004 0.20742 0.344173 -0.0592143 0.046211 0.997175
-0.0818478 0.240565 0.387366 0.00129756 -1.16802e-05 -0.999999
0.114752 0.0660603 0.359902 0.190135 -0.170208 -0.966891
0.179335 0.221771 0.22548 -0.823596 -0.372279 -0.427899
0.00900262 0.0135969 0.33877 0.266611 0.930786 -0.250112
0.207145 0.0715384 0.381268 -0.0104636 0.0872809 0.996129
-0.0547838 -0.0637485 0.37625 -0.0186774 -0.20558 -0.978462
-0.196129 0.0748942 0.380316 0.00971526 0.0908308 0.995819
0.119637 -0.123497 0.38645 -0.0106521 -0.123653 -0.992268
0.0130421 0.0242491 0.355894 0.0427745 -0.224123 -0.973622
-0.121867 -0.0834989 0.391817 -0.00773376 0.132485 0.991155
-0.0100994 -0.122881 0.397392 -0.000380494 0.175665 0.98445
-0.0150802 0.233567 0.417208 -0.00273992 -0.999996 0.000980442
-0.0223467 0.25821 0.481535 0.707102 -0.00600854 -0.707086
0.263197 -0.0364778 0.389099 0.00259043 0.0699952 0.997544
0.0938759 -0.0536388 0.387118 -0.0858492 0.198546 0.976324
0.0240066 -0.0142327 0.365151 0.0239105 -0.202219 -0.979048
0.0947467 0.237206 0.465038 0.199318 0.979496 -0.0293265
-0.0483062 0.0611728 0.350575 -0.0388481 -0.17625 -0.983579
-0.167901 0.218097 0.503553 0.132839 -0.991088 0.00994337
-0.185511 0.225076 0.438317 -0.292378 0.956292 0.00450913
0.0335084 0.128997 0.349829 -0.0602358 0.148044 0.987145
0.149248 0.101766 0.371392 -0.157569 0.12277 0.979847
0.0257615 0.0801067 0.356602 -0.0555941 0.142533 0.988228
-0.224437 -0.0514298 0.379892 -0.000683781 -0.0759951 -0.997108
-0.117207 0.226757 0.245785 -0.0014073 0.375449 -0.926842
0.187116 0.0148153 0.385506 -0.0671653 0.0681217 0.995414
0.00874938 0.233474 0.48737 -0.0279248 -0.99961 0
-0.176418 -0.15212 0.352014 0.0180525 0.923687 -0.382722
-0.00897169 0.244021 0.479395 0.00274099 0.999996 -0.000980491
-0.0856065 -0.0743015 0.389805 0.0235567 0.205714 0.978329
-0.0291108 -0.173167 0.351587 -0.0172138 -0.924509 -0.380772
0.135281 0.231433 0.465876 0.0956967 0.993804 0.0565253
-0.23648 -0.186505 0.197931 0.406254 -0.912568 0.046662
0.290542 -0.141027 0.398291 0.000405055 0.111309 0.993786
-0.126754 0.235428 0.662859 -0.0995649 0.994887 -0.0169108
-0.10629 0.227875 0.498558 0.164924 -0.986042 -0.0228159
-0.0858126 0.114605 0.348086 -0.185092 -0.123118 -0.974978
-0.179147 0.145236 0.373133 0.0336226 0.054001 0.997975
0.284883 -0.151041 0.399415 0.000405055 0.111309 0.993786
-0.0204125 -0.155738 0.391704 0.00320296 -0.142678 -0.989764
0.0695155 -0.174299 0.349876 -0.0172138 -0.924509 -0.380772
-0.202506 0.219149 0.593469 -0.292378 0.956292 0.00450913
-0.0132457 0.21111 0.334045 -0.0383663 -0.0494067 -0.998042
0.234692 -0.157004 0.400106 0.000602225 0.11089 0.993832
0.243755 -0.0896012 0.382776 -0.00172164 -0.093527 -0.995615
0.156212 -0.159535 0.360661 0.017273 0.925642 0.378007
0.189646 -0.117661 0.385507 -0.00824108 -0.0934739 -0.995588
-0.117935 -0.157496 0.346516 0.00831911 0.384096 -0.923256
0.17356 0.176506 0.368927 -0.160182 0.0526171 0.985684
0.132579 0.137081 0.364567 -0.160088 0.05777 0.985411
0.0903263 0.0579666 0.356524 0.190135 -0.170208 -0.966891
0.0131402 -0.0455957 0.334853 0.89527 -0.121503 -0.428637
0.226507 0.212688 0.570512 0.217664 0.975962 -0.0109522
-0.100563 0.0092872 0.376286 0.136287 0.139801 0.980756
0.0374719 -0.209778 0.407293 0.00684714 0.0573705 0.99833
-0.0439013 0.233236 0.428865 0.0330583 -0.999453 -0.000769184
-0.032262 0.233511 0.571386 0.0330583 -0.999453 -0.000769184
-0.166376 0.220154 0.259012 -0.204627 -0.372808 0.905065
0.25324 -0.201967 0.0743875 -0.914408 -0.39535 -0.0869271
-0.191564 0.149384 0.373326 0.0336226 0.054001 0.997975
-0.150703 -0.219635 0.406783 -0.0100167 0.0689379 0.997571
-0.178344 -0.0343213 0.388981 0.000594545 0.0761836 0.997094
0.206327 -0.191919 0.393394 0.00102913 -0.0892607 -0.996008
-0.263907 -0.203669 0.0786101 -0.34717 -0.922247 0.1701
0.238691 -0.16742 0.27096 0.376841 0.924572 -0.0561835
-0.197788 0.238318 0.192585 -0.352531 0.920259 0.16984
0.243748 0.0443808 0.383762 -0.00105599 0.0736546 0.997283
0.0977603 -0.0512505 0.376385 0.0858472 -0.198726 -0.976288
-0.219531 0.134614 0.375153 0.033922 0.0826285 0.996003
0.19711 -0.127097 0.386379 -0.000191872 -0.0965985 -0.995323
-0.0746465 0.0288137 0.359349 -0.136255 -0.173943 -0.975284
0.170528 0.214182 0.520364 -0.21762 -0.975973 0.0109173
0.24706 -0.104908 0.394665 0.0001144 0.0967917 0.995305
-0.0177754 0.243998 0.523416 -0.0117582 0.999931 -0.000323723
-0.263831 -0.185124 0.0669382 0.347785 0.922005 -0.170152
-0.0617041 0.0185507 0.369903 0.0791588 0.208291 0.974858
0.106321 0.046137 0.371654 -0.151484 0.123921 0.980661
0.206065 0.233658 0.188876 0.898372 0.38494 0.211541
0.00336003 -0.213327 0.397512 0.00311687 -0.0634881 -0.997978
-0.019514 0.233568 0.518242 0.0117632 -0.999931 0.000323494
0.0120687 0.267757 0.492579 -0.325123 -0.936286 0.132903
0.0572409 -0.274342 0.369726 -0.0626573 -0.764949 0.641036
0.111926 -0.27162 0.36318 0.0650987 0.715275 -0.695804
0.178808 0.141288 0.371719 -0.157007 0.0529127 0.986179
-0.15992 -0.239364 0.39504 0.0332136 0.606215 -0.794607
-0.271703 -0.190003 0.0263106 -0.405235 0.913004 -0.0470003
0.178076 -0.0984142 0.394243 0.00840719 0.0934727 0.995586
0.184257 0.109196 0.365395 0.146893 -0.110021 -0.983015
0.129358 0.150777 0.363112 -0.205911 0.0579703 0.976852
