-0.165989 0.103406 0.332335 -0.00655731 0.0528139 0.998583
0.107509 -0.210193 0.347864 -0.0157778 -0.119326 0.99273
0.222884 0.191403 0.348196 0.259766 0.956138 0.135358
-0.247364 -0.077883 0.338266 -0.723414 0.0811146 0.685632
-0.206733 0.17943 0.42224 0.393627 -0.918283 -0.0425917
-0.120236 -0.0882917 0.32994 0.00647882 -0.0522315 -0.998614
-0.261994 -0.268777 0.196644 -0.94681 0.32173 -0.00634731
0.181319 0.195413 0.321869 0.420362 0.866886 0.267965
0.264294 0.186158 0.296167 0.28105 0.935146 0.215667
0.237735 0.172739 0.493422 -0.250632 -0.964469 0.08357
0.27741 0.230719 0.119322 0.694314 0.681406 0.231549
0.25826 0.156152 0.404736 -0.258051 -0.966046 -0.012852
-0.269931 0.229136 0.097019 0.689667 -0.68616 -0.231396
0.259929 0.176325 0.483499 0.248524 0.951155 -0.183141
0.282291 0.164486 0.0197676 0.130269 -0.00051207 0.991479
-0.227664 -0.124817 0.330838 0.0109273 -0.0527013 -0.998551
-0.0471473 0.215598 0.319488 0.0706427 -0.993296 -0.091502
0.253149 -0.270461 0.186672 -0.75032 0.651184 -0.113929
0.0705662 0.00182681 0.338301 0.00326822 0.0525791 0.998611
0.182913 0.209251 0.299559 0.236843 0.965695 0.106481
-0.199958 -0.0576719 0.327598 0.0109273 -0.0527013 -0.998551
-0.0877589 0.16248 0.316934 0.00304276 -0.0525532 -0.998614
0.184596 -0.105923 0.343129 0.0112044 0.0526391 0.998551
0.115034 0.142277 0.33076 0.00326822 0.0525791 0.998611
-0.260091 -0.278086 0.101745 0.303966 0.942929 -0.135972
-0.223808 0.254215 0.616894 -0.453012 0.863583 -0.221369
-0.224421 0.152828 0.31653 0.231159 -0.145134 -0.96203
0.0490608 0.242747 0.532598 0.108489 0.895021 -0.432628
0.207104 0.179649 0.376698 -0.351712 -0.931316 -0.0946046
0.240427 0.0523675 0.328767 0.969888 0.0631379 0.235226
-0.00565948 -0.233785 0.293523 0.0370875 -0.990779 0.130312
-0.0128508 0.251842 0.54307 -0.114444 0.8946 -0.431965
-0.165289 0.274644 0.606077 -0.287913 0.919534 -0.267513
-0.180692 0.242605 0.574271 -0.287071 0.72147 -0.630136
0.0579849 -0.0343859 0.327318 -0.00238133 -0.0526365 -0.998611
0.0929656 -0.147245 0.333132 -0.011067 -0.0517541 -0.998599
0.252354 0.19717 0.568453 -0.964661 -0.24962 0.0843708
-0.240874 -0.16693 0.332907 0.0386572 -0.0577636 -0.997582
0.157794 0.110697 0.31905 -0.00696731 -0.0527421 -0.998584
0.21453 -0.186233 0.334 -0.0120916 -0.056108 -0.998352
-0.130105 0.277719 0.596095 -0.197788 0.215778 -0.956201
-0.244575 -0.122915 0.331279 -0.239668 -0.0396726 -0.970044
0.232791 -0.185569 0.346787 0.0112044 0.0526391 0.998551
0.265064 0.163189 0.343892 0.25543 -0.947677 -0.191479
0.0344714 -0.0341441 0.340299 0.00237118 0.0524043 0.998623
-0.168905 -0.0627658 0.328206 0.0109273 -0.0527013 -0.998551
0.264683 -0.288343 0.0350999 0.15669 0.987617 0.0078602
0.15811 0.19051 0.314905 -0.011067 -0.0517541 -0.998599
0.215295 0.0857174 0.332114 0.0383576 0.0573974 0.997614
-0.121637 0.239078 0.566878 0.113319 -0.73286 0.670876
0.00319158 0.280432 0.592892 -0.115269 -0.686464 0.717969
-0.246609 0.219419 0.616428 0.325999 -0.717098 0.616032
-0.225888 0.187355 0.465615 -0.476756 0.879007 0.00704503
0.193702 0.200219 0.351831 0.324067 0.940525 0.101948
-0.0597535 0.251035 0.571117 0.0790068 -0.689303 0.720152
0.249639 0.216227 0.589507 0.447827 0.772162 -0.450796
-0.240555 0.165271 0.383918 0.447071 -0.893538 -0.0414342
0.13949 -0.143177 0.345521 0.0068972 0.0522113 0.998612
0.0034487 -0.102936 0.331087 -0.00343602 -0.052312 -0.998625
0.262686 0.198874 0.571668 0.967199 -0.237891 0.0890726
-0.0656956 -0.232224 0.321096 0.0362441 -0.968248 0.247349
-0.204692 -0.197464 0.334924 0.0109273 -0.0527013 -0.998551
-0.110372 0.201078 0.398328 0.129326 -0.987365 -0.0915728
-0.187935 0.0561152 0.334245 -0.0333114 0.0522299 0.998079
0.127727 -0.236466 0.330638 -0.117983 -0.892201 0.435957
-0.201395 -0.207282 0.335478 0.0109273 -0.0527013 -0.998551
-0.284109 -0.162002 0.0158823 -0.925399 0.00364133 0.378977
0.0848956 -0.148936 0.333291 -0.00238133 -0.0526365 -0.998611
-0.190067 0.205316 0.508918 -0.375663 0.8694 -0.320969
0.105158 0.204165 0.482113 -0.136624 -0.98389 0.115298
0.131948 -0.156298 0.333332 -0.00696731 -0.0527421 -0.998584
0.284598 0.208316 0 0 0 -1
0.158304 -0.204926 0.34862 0.0068972 0.0522113 0.998612
0.0282673 0.292558 0.592451 0.114387 0.682227 -0.722137
-0.0116206 0.0715009 0.321936 0.00195833 -0.0523332 -0.998628
0.0551604 0.208187 0.373992 -0.10604 -0.990164 -0.0912723
0.0304255 0.00739785 0.338129 0.00237118 0.0524043 0.998623
0.264079 -0.280378 0.130761 0.950882 0.309504 -0.00547825
-0.0464863 0.222867 0.461905 -0.127226 0.985688 -0.110601
0.126211 0.167628 0.316444 -0.011067 -0.0517541 -0.998599
0.126903 0.213806 0.47985 0.218613 0.969425 -0.111464
0.255439 -0.285783 0.0871068 -0.979613 0.191218 -0.061596
0.0364881 0.137247 0.318391 -0.00343602 -0.052312 -0.998625
-0.249783 0.213705 0.610963 0.498411 -0.717653 0.486375
0.283651 -0.111234 0.0179566 0.621162 -0.00243958 0.783678
-0.0514988 0.220651 0.407369 -0.0977767 0.99505 0.017779
-0.174107 0.0142993 0.336895 -0.0333114 0.0522299 0.998079
-0.163823 0.250186 0.594641 0.287749 -0.728236 0.621991
-0.256612 0.17808 0.329411 0.723632 0.681174 0.111172
0.0598536 -0.0544345 0.341298 0.00326822 0.0525791 0.998611
0.172636 -0.123149 0.344172 0.0112044 0.0526391 0.998551
-0.00825684 0.213104 0.326113 0.0205786 -0.276515 0.960789
0.048743 -0.219464 0.318381 0.0438463 0.969169 -0.242464
0.00293438 -0.221096 0.291174 0.0448051 0.990362 -0.131055
-0.261681 0.194778 0.223493 0.689665 -0.686162 -0.231397
-0.227418 -0.0872613 0.341302 -0.0115013 0.0561662 0.998355
-0.246696 0.200585 0.541658 -0.251919 0.912753 -0.321587
0.118769 -0.158778 0.34648 0.0068972 0.0522113 0.998612
0.22432 0.187246 0.432132 0.304556 0.952467 0.00726958
-0.180355 0.204157 0.48068 -0.212876 0.975861 -0.0487653
0.219189 -0.223056 0.33576 0.0251056 0.116497 -0.992874
-0.0258429 0.12874 0.318899 0.00304276 -0.0525532 -0.998614
-0.113387 -0.237465 0.315984 0.12205 -0.984056 0.129377
-0.139288 0.213297 0.484321 -0.212876 0.975861 -0.0487653
-0.282509 0.168869 0.0124095 -0.784763 0.00306442 -0.619788
-0.256872 0.163755 0.351939 0.43748 -0.874052 -0.21129
0.095511 0.203551 0.377405 -0.10604 -0.990164 -0.0912723
0.260491 0.157571 0.440123 0.261 -0.94642 0.190181
-0.0667455 -0.237565 0.282166 0.0370875 -0.990779 0.130312
0.153995 -0.122387 0.331388 -0.00696731 -0.0527421 -0.998584
0.0143765 0.124798 0.319119 -0.00343602 -0.052312 -0.998625
0.253303 -0.241989 0.344466 0.286027 -0.426066 0.858287
0.118277 0.214854 0.478093 0.134968 0.984375 -0.113088
-0.0107647 -0.219342 0.305977 -0.0369524 0.990687 -0.131049
-0.0759351 0.192199 0.328283 -0.00284307 0.0524247 0.998621
-0.228259 0.112316 0.318542 0.266002 -0.0692677 -0.961481
-0.106423 0.224696 0.308766 -0.0969447 0.987614 0.123368
0.166584 0.040377 0.335619 0.0112039 0.0526391 0.998551
-0.205149 0.173342 0.326373 0.16052 -0.201446 0.966257
0.0612142 0.040628 0.336289 0.00326822 0.0525791 0.998611
-0.00628958 -0.0442393 0.340894 -0.00284307 0.0524247 0.998621
0.275715 0.225531 0.0172294 -0.779652 -0.128615 0.612863
0.123188 0.209498 0.310473 -0.0780649 -0.988274 -0.131229
0.102105 0.249959 0.57713 -0.0901052 -0.735163 0.671876
0.0436035 0.288199 0.603962 -0.00330023 0.287576 0.957752
-0.0371239 0.215541 0.327845 0.0706427 -0.993296 -0.091502
0.0938245 -0.179212 0.347721 0.0068972 0.0522113 0.998612
0.0985232 0.210817 0.511161 -0.121392 -0.881605 0.456111
0.0654137 0.0251338 0.337091 0.00326822 0.0525791 0.998611
-0.230656 0.0198556 0.330953 0.959626 -0.0416581 0.278176
0.0999462 -0.229711 0.271219 0.129841 0.982963 -0.130099
0.0906961 -0.0939566 0.343278 0.00326822 0.0525791 0.998611
-0.262554 0.168624 0.332337 -0.261639 -0.945995 -0.191411
-0.218147 0.195344 0.341431 -0.315876 0.93949 0.132589
-0.0253492 -0.201357 0.335316 -0.00433619 0.115467 -0.993302
0.179178 0.243056 0.595043 -0.25657 -0.737765 0.6244
-0.125238 0.243135 0.571919 0.113319 -0.73286 0.670876
0.0909546 0.216521 0.460001 0.134968 0.984375 -0.113088
0.121545 0.163148 0.329629 0.0068972 0.0522113 0.998612
-0.179987 -0.242859 0.261177 -0.143461 0.699892 -0.699693
0.149324 0.197624 0.327524 0.0112039 0.0526391 0.998551
-0.0901896 0.168471 0.329488 -0.00284307 0.0524247 0.998621
0.243226 -0.157549 0.33204 -0.0120916 -0.056108 -0.998352
-0.283386 0.0474336 0.0156353 -0.925399 0.00364133 0.378977
-0.262052 -0.262261 0.266875 -0.977261 -0.202155 0.0639821
-0.261627 0.169616 0.483969 -0.72042 -0.678093 0.145552
-0.146421 0.255337 0.592644 0.2414 -0.711758 0.659642
0.275989 0.223229 0.145626 0.694314 0.681406 0.231549
0.131146 0.198745 0.471134 -0.20519 -0.972067 0.113941
-0.177303 -0.238663 0.275057 -0.192595 0.972785 -0.128826
-0.0245763 -0.038661 0.327684 0.00195833 -0.0523332 -0.998628
0.228204 0.132739 0.326748 -0.68701 0.00484344 0.726632
0.147498 -0.246465 0.290284 -0.129859 -0.98303 0.129568
-0.257967 0.175354 0.469171 -0.240138 0.953201 -0.183686
-0.235919 0.0839345 0.321815 -0.688478 0.000653973 -0.725257
-0.258433 -0.262705 0.298027 -0.748594 -0.653055 0.114565
0.231045 0.0517469 0.323737 -0.724399 -0.0754848 -0.685236
0.0312999 -0.133813 0.332622 -0.00238133 -0.0526365 -0.998611
-0.00019329 0.0992878 0.333376 -0.00284307 0.0524247 0.998621
-0.104438 0.209771 0.509901 0.116013 -0.894296 0.432175
-0.206272 0.183267 0.362048 0.342604 -0.929058 -0.139549
0.0496756 0.212819 0.314892 0.0223122 0.272704 -0.961839
0.243627 0.0138615 0.328111 0.960955 0.0343752 -0.274561
-0.0554447 0.148047 0.330659 -0.00284307 0.0524247 0.998621
-0.154054 0.20937 0.470198 -0.212876 0.975861 -0.0487653
0.10551 0.279702 0.594687 0.00312766 -0.289014 -0.95732
-0.0144634 0.224873 0.379612 -0.0969447 0.987614 0.123368
0.189766 0.181863 0.327686 0.0016952 0.0144368 0.999894
-0.00042726 0.209569 0.321871 0.0695274 -0.970053 0.23273
0.041835 0.207132 0.432397 -0.136624 -0.98389 0.115298
-0.0349809 0.143959 0.31807 0.00304276 -0.0525532 -0.998614
-0.0583593 -0.165768 0.334278 0.00195833 -0.0523332 -0.998628
0.174933 0.197418 0.309491 -0.237343 -0.965714 -0.105189
0.219614 -0.248958 0.276892 0.200462 0.97214 -0.121482
-0.0680415 0.0614962 0.322309 0.00304276 -0.0525532 -0.998614
0.214066 -0.225232 0.348241 -0.0262938 -0.121541 0.992238
-0.15678 0.202059 0.3113 0.229167 -0.964939 -0.127968
0.247969 -0.253865 0.315445 -0.741096 0.66146 -0.115097
-0.105695 0.133682 0.318395 0.00304276 -0.0525532 -0.998614
0.201251 0.184843 0.491066 -0.352114 -0.93434 0.0549933
0.231162 0.174178 0.345227 -0.45071 -0.882695 -0.133082
-0.261151 0.167429 0.454265 -0.969568 -0.23659 0.062954
-0.0440671 0.0284465 0.33697 -0.00284307 0.0524247 0.998621
-0.184521 -0.0392825 0.326796 0.0109273 -0.0527013 -0.998551
0.116235 -0.0218859 0.33934 0.0068972 0.0522113 0.998612
-0.257674 -0.276621 0.195444 -0.30629 -0.942159 0.136101
0.10781 -0.102105 0.330639 -0.00696731 -0.0527421 -0.998584
-0.00223258 0.297376 0.594262 -0.12235 0.951259 -0.283084
0.0328398 0.0415094 0.336333 0.00237118 0.0524043 0.998623
-0.175863 0.0771355 0.333548 -0.0333114 0.0522299 0.998079
0.230133 -0.14055 0.331243 -0.0120916 -0.056108 -0.998352
0.277305 -0.228433 0.00525614 0.00375653 0.999993 -2.525e-05
-0.09225 -0.224757 0.338583 0.0923798 -0.744937 0.660707
0.195264 -0.103161 0.342864 0.0112044 0.0526391 0.998551
-0.211246 0.192129 0.38766 -0.318219 0.948009 0.00398668
-0.133985 0.197588 0.453748 0.133865 -0.984262 0.115365
-0.201772 0.0421137 0.334516 -0.0333114 0.0522299 0.998079
-0.134186 0.244189 0.55689 -0.258574 0.711359 -0.653535
-0.0830863 0.255042 0.559994 -0.0792704 0.692571 -0.716981
-0.207336 -0.0355658 0.32635 0.0109273 -0.0527013 -0.998551
0.0704335 0.21296 0.324951 0.0547803 0.698314 0.713692
0.262582 0.179876 0.508544 0.964291 0.251006 -0.0844939
0.156922 0.0518677 0.335122 0.0112039 0.0526391 0.998551
0.0825595 0.153771 0.330262 0.00326822 0.0525791 0.998611
0.140336 -0.242436 0.259507 -0.0333588 -0.25256 -0.967006
-0.083806 -0.137182 0.332716 0.00304276 -0.0525532 -0.998614
0.174362 -0.189565 0.334673 -0.0120916 -0.056108 -0.998352
-0.167734 -0.0296352 0.326471 0.0108825 -0.0527023 -0.998551
0.0519237 -0.0933623 0.330441 -0.00238133 -0.0526365 -0.998611
-0.144861 0.212597 0.494646 -0.212876 0.975861 -0.0487653
0.0766113 -0.1987 0.348809 -0.00540166 -0.11938 0.992834
0.259199 -0.286948 0.132877 0.310014 -0.940946 0.136058
0.282389 -0.2278 0.0106559 0.785383 -0.00309408 -0.619002
0.142635 -0.0760977 0.329022 -0.00696731 -0.0527421 -0.998584
-0.124061 -0.0575002 0.328305 0.00647882 -0.0522315 -0.998614
-0.0809568 -0.222015 0.30562 -0.0370727 0.990707 -0.130861
-0.0806607 0.222776 0.344377 -0.0969447 0.987614 0.123368
-0.102761 -0.241887 0.272346 0.1223 -0.983973 0.129766
0.105125 0.286442 0.600033 0.109937 0.965771 0.234947
-0.0368862 0.209736 0.384009 0.0986767 -0.994956 -0.0180158
-0.111888 -0.0672343 0.341722 -0.010569 0.0518808 0.998597
0.244965 -0.0682017 0.337704 0.726071 0.0754606 0.683466
-0.187293 -0.0519014 0.327432 0.0109273 -0.0527013 -0.998551
-0.184607 0.26479 0.601456 -0.287071 0.72147 -0.630136
-0.0365514 0.0961786 0.320579 0.00304276 -0.0525532 -0.998614
-0.249732 -0.26167 0.30944 0.191656 -0.973973 0.121013
0.0488174 -0.167652 0.347271 0.00237118 0.0524043 0.998623
-0.089256 0.223039 0.503662 -0.114444 0.8946 -0.431965
0.260062 0.166834 0.393794 -0.255463 0.966807 -0.00471369
0.26544 -0.285043 0.103445 0.950882 0.309504 -0.00547825
0.0520883 0.213245 0.316021 0.0222463 0.2716 -0.962153
-0.0316411 0.20919 0.31677 0.0493565 -0.700485 -0.711959
0.236438 0.102821 0.318874 0.687892 -0.00481869 -0.725797
-0.131249 0.246115 0.577141 0.2414 -0.711758 0.659642
-0.149851 0.207513 0.520073 0.171317 -0.873782 0.455143
0.127251 -0.117349 0.331308 -0.00696731 -0.0527421 -0.998584
-0.0209233 -0.0060191 0.338846 -0.00284307 0.0524247 0.998621
0.0612035 0.0948591 0.320527 -0.00343602 -0.052312 -0.998625
0.192014 0.19697 0.288893 -0.184454 -0.682289 -0.707431
-0.206197 0.192067 0.293601 0.252195 -0.962145 -0.103319
-0.147582 -0.0619327 0.3412 -0.00655731 0.0528139 0.998583
-0.0577667 0.0323852 0.336725 -0.00284307 0.0524247 0.998621
0.00467893 0.229237 0.468535 0.133582 0.984847 -0.110598
-0.0206922 0.282317 0.579442 -0.0792704 0.692571 -0.716981
0.199787 -0.212503 0.348577 0.0112044 0.0526391 0.998551
-0.0717781 0.00872922 0.337935 -0.00197215 0.0526852 0.998609
-0.0213654 -0.0974924 0.330773 0.00195833 -0.0523332 -0.998628
0.134163 0.223917 0.54898 -0.293605 -0.844259 0.448355
0.138107 -0.0192395 0.32605 -0.00696731 -0.0527421 -0.998584
0.189237 -0.0657085 0.327579 -0.0342782 -0.0519229 -0.998063
0.0903302 0.232161 0.522231 0.119765 0.881372 -0.45699
0.0271842 -0.133061 0.332592 -0.00238133 -0.0526365 -0.998611
0.0244926 0.20944 0.431543 -0.136624 -0.98389 0.115298
0.114446 0.161804 0.316842 -0.00238133 -0.0526365 -0.998611
0.0419601 -0.0448672 0.340844 0.00237118 0.0524043 0.998623
0.0840722 0.277146 0.599094 -0.109967 -0.963423 -0.244382
-0.251568 -0.267217 0.267704 0.191656 -0.973973 0.121013
0.141649 0.205955 0.431071 0.149678 0.9875 -0.0494051
-0.0846394 -0.0191171 0.326501 0.00304276 -0.0525532 -0.998614
-0.0403797 0.256953 0.557118 -0.0792704 0.692571 -0.716981
0.104043 0.198322 0.430524 -0.137519 -0.990336 -0.0179568
-0.222693 -0.249859 0.333584 0.150797 -0.743835 0.65113
0.0711423 -0.172092 0.347451 0.00237118 0.0524043 0.998623
0.130081 0.228825 0.555548 -0.293605 -0.844259 0.448355
-0.239596 0.0716853 0.328433 -0.968269 0.0709318 0.239634
0.174945 0.264858 0.613018 -0.0569253 0.294444 0.953972
0.162338 -0.182778 0.334519 -0.00696731 -0.0527421 -0.998584
-0.279075 -0.132122 0.0199772 -0.130144 0.000508691 0.991495
0.00305301 0.0245593 0.324409 -0.00343602 -0.052312 -0.998625
0.165787 0.203235 0.449841 0.149678 0.9875 -0.0494051
0.124836 -0.239081 0.321683 -0.126995 -0.961349 0.244294
-0.153993 0.194635 0.380477 0.200818 -0.975444 -0.0904477
0.165154 -0.218777 0.347757 -0.0254503 -0.119164 0.992548
-0.234414 -0.0669492 0.340079 -0.0115013 0.0561662 0.998355
-0.121219 0.275463 0.596381 0.056019 -0.722578 -0.689015
-0.283323 0.0242102 0.0136533 -0.991575 0.00388636 -0.129478
-0.169787 -0.148389 0.345552 -0.0333114 0.0522299 0.998079
0.117811 0.180136 0.315868 -0.00238133 -0.0526365 -0.998611
-0.033108 0.28712 0.602426 0.067498 -0.240432 0.968316
0.180251 -0.239379 0.287851 0.204363 0.970426 -0.128486
0.0843702 0.213564 0.512705 -0.121392 -0.881605 0.456111
-0.100841 0.225475 0.511743 -0.100149 0.883797 -0.457026
0.0361495 0.14756 0.317852 -0.00343602 -0.052312 -0.998625
-0.283051 -0.0385398 0.0120707 -0.784763 0.00306442 -0.619788
0.161029 -0.00854717 0.338261 0.0112039 0.0526391 0.998551
-0.0104201 0.259192 0.555968 -0.0792704 0.692571 -0.716981
-0.0174509 -0.00999133 0.339064 -0.00284307 0.0524247 0.998621
0.0818829 -0.0386737 0.327487 -0.00238133 -0.0526365 -0.998611
0.236666 0.172492 0.487368 -0.250632 -0.964469 0.08357
-0.183636 0.207421 0.323411 -0.210274 0.971742 0.107247
-0.0231966 0.208156 0.322785 0.0695274 -0.970053 0.23273
-0.232787 0.183665 0.459118 -0.476756 0.879007 0.00704503
-0.078317 -0.187594 0.34828 -0.00197215 0.0526852 0.998609
-0.0780172 -0.00836085 0.325955 0.00304276 -0.0525532 -0.998614
0.211651 0.193305 0.358559 0.324067 0.940525 0.101948
-0.0931095 0.256843 0.562842 -0.0792704 0.692571 -0.716981
-0.272446 -0.291135 0.0194572 0.228388 -0.579613 -0.782232
0.105466 -0.0903317 0.330043 -0.011067 -0.0517541 -0.998599
-0.269119 0.239354 0.0918632 0.723343 0.674006 0.149969
-0.0897714 -0.0723529 0.329286 0.00304276 -0.0525532 -0.998614
0.203925 -0.071168 0.34108 0.0112044 0.0526391 0.998551
0.144091 -0.248143 0.262436 -0.0930314 -0.703512 -0.704568
-0.0938532 0.282335 0.59083 -0.112375 0.737079 -0.666398
0.120921 0.0623117 0.321961 -0.011067 -0.0517541 -0.998599
-0.233969 -0.143293 0.344379 -0.0115013 0.0561662 0.998355
-0.0448322 0.208909 0.386157 0.0986767 -0.994956 -0.0180158
-0.0142453 0.077852 0.334462 -0.00284307 0.0524247 0.998621
0.24372 -0.00783405 0.331352 0.969216 0.0632343 0.237953
0.0854133 0.216934 0.456984 0.134968 0.984375 -0.113088
0.234761 0.0551378 0.33202 -0.237219 0.0416746 0.970562
-0.273076 -0.0390963 0.0151828 0.991652 -0.0038828 0.128883
0.202209 -0.0162131 0.324594 -0.0120916 -0.056108 -0.998352
0.230948 0.197574 0.564006 -0.251374 -0.912497 0.322738
0.197274 0.11414 0.317947 -0.0342782 -0.0519229 -0.998063
0.274865 0.122451 0.0135602 -0.926566 0.00361491 -0.376114
-0.0124729 0.141369 0.331132 -0.00284307 0.0524247 0.998621
-0.0217688 -0.197692 0.348605 0.00447059 -0.11943 0.992833
-0.27358 -0.160462 0.0154024 0.991617 -0.00388426 0.129151
-0.112769 0.0442054 0.335923 -0.010569 0.0518808 0.998597
0.152855 0.142668 0.317443 -0.011067 -0.0517541 -0.998599
0.284755 -0.00565545 0.0125877 0.991739 -0.00389268 -0.128211
-0.126048 0.209709 0.436261 -0.141443 0.983507 -0.112727
0.226499 0.186094 0.407104 0.484526 0.874685 -0.0126921
-0.173257 -0.034623 0.326674 0.0109273 -0.0527013 -0.998551
-0.163135 -0.173828 0.334131 0.0108825 -0.0527023 -0.998551
-0.0683913 0.204902 0.442551 0.129033 -0.985132 0.113423
0.254835 0.165586 0.436221 -0.717891 0.680889 -0.144994
-0.0368433 0.214026 0.485841 0.127787 -0.985058 0.115461
0.177627 -0.00840807 0.338067 0.0112044 0.0526391 0.998551
0.20732 0.198251 0.329688 0.259766 0.956138 0.135358
-0.152727 0.197788 0.314631 0.0108825 -0.0527023 -0.998551
0.143373 0.195578 0.327698 0.0112039 0.0526391 0.998551
0.264678 0.200293 0.204338 -0.964053 -0.236167 -0.121762
0.245836 0.175882 0.386315 0.449378 0.893148 0.0185977
-0.0694468 0.210497 0.327203 -0.0159696 0.236284 0.971553
0.179752 0.188534 0.315829 -0.102171 -0.222152 -0.969644
0.278011 -0.0180038 0.0197788 -0.378942 0.00148603 0.925419
0.256967 -0.256126 0.325455 0.975573 -0.201189 0.0882011
-0.135318 0.0201891 0.336937 -0.00655731 0.0528139 0.998583
0.115275 0.198586 0.446492 -0.136624 -0.98389 0.115298
-0.137495 -0.0684834 0.341613 -0.00655731 0.0528139 0.998583
-0.217961 -0.247427 0.269669 -0.192595 0.972785 -0.128826
-0.273086 0.234615 0.0203584 0.76481 -0.372468 0.525674
-0.167984 0.197091 0.50689 0.171317 -0.873782 0.455143
0.0329886 0.108564 0.332804 0.00326822 0.0525791 0.998611
-0.282927 -0.107832 0.0180301 -0.621325 0.0024252 0.783549
0.170001 -0.156198 0.332948 -0.0342782 -0.0519229 -0.998063
-0.270314 0.229575 0.133054 0.26719 0.931274 0.247668
0.0443493 0.106418 0.319979 -0.00343602 -0.052312 -0.998625
0.015583 0.179058 0.329149 0.00326822 0.0525791 0.998611
-0.199447 0.0994222 0.331594 -0.0333114 0.0522299 0.998079
-0.0411572 -0.0471178 0.328094 0.00195833 -0.0523332 -0.998628
-0.053701 0.283582 0.585438 -0.112375 0.737079 -0.666398
0.0201826 0.166885 0.316895 -0.00343602 -0.052312 -0.998625
-0.240107 -0.137777 0.331248 0.0386572 -0.0577636 -0.997582
0.0696177 0.128897 0.331614 0.00326822 0.0525791 0.998611
-0.0351215 -0.160004 0.334022 0.00195833 -0.0523332 -0.998628
-0.262981 -0.281328 0.0787297 -0.189659 0.974314 -0.121413
0.163664 0.190589 0.422597 -0.142177 -0.985622 -0.091293
0.232984 0.170104 0.366074 -0.45071 -0.882695 -0.133082
0.0178753 0.259125 0.574878 -0.115269 -0.686464 0.717969
-0.00349732 0.212564 0.410711 0.0986767 -0.994956 -0.0180158
0.0707267 0.244933 0.567422 -0.0901052 -0.735163 0.671876
-0.146798 0.21103 0.473823 -0.141443 0.983507 -0.112727
0.105117 -0.238068 0.311513 -0.129859 -0.98303 0.129568
0.124362 0.210851 0.450513 0.134968 0.984375 -0.113088
-0.23865 0.19188 0.515191 -0.120217 0.910026 -0.396737
-0.25821 0.185574 0.269008 0.963089 -0.249156 -0.101884
-0.0291451 -0.111326 0.344353 -0.00197215 0.0526852 0.998609
0.164568 -0.236908 0.28157 0.204363 0.970426 -0.128486
-0.104663 0.0516713 0.322714 0.00304276 -0.0525532 -0.998614
0.0485044 0.194719 0.328217 0.00326822 0.0525791 0.998611
0.00172413 0.215344 0.315441 0.0225536 0.274608 -0.961292
-0.0405308 -0.234076 0.30123 0.0370875 -0.990779 0.130312
0.258982 0.176581 0.4751 0.485073 0.859427 -0.161522
0.248056 0.203971 0.594574 -0.432569 -0.776967 0.457391
0.0630351 0.225397 0.321014 0.0776633 0.989273 0.12372
-0.0134796 0.211658 0.315955 0.0159487 -0.234061 -0.972091
0.036474 0.223788 0.458415 0.133582 0.984847 -0.110598
0.0746872 -0.0220028 0.326625 -0.00238133 -0.0526365 -0.998611
-0.133663 0.244306 0.576073 0.2414 -0.711758 0.659642
0.0318148 0.295284 0.597992 0.109937 0.965771 0.234947
-0.281364 -0.224698 0.0196307 -0.62088 0.00242682 0.783902
0.197961 0.185976 0.322928 0.420243 0.868875 0.261634
-0.0758229 0.181155 0.328863 -0.00284307 0.0524247 0.998621
-0.149706 0.237194 0.57427 0.2414 -0.711758 0.659642
0.0608736 0.286156 0.590276 0.11437 0.689832 -0.714879
0.0452602 0.0550893 0.322665 -0.00343602 -0.052312 -0.998625
0.164545 0.0858182 0.320317 -0.00696731 -0.0527421 -0.998584
0.254753 0.158768 0.438689 -0.697344 -0.705221 0.127963
0.282628 0.139512 0.00988218 0.37686 -0.00147466 -0.926269
0.225583 -0.00776739 0.337097 0.0383576 0.0573974 0.997614
-0.195775 0.210996 0.530987 -0.375663 0.8694 -0.320969
-0.185955 -0.0709007 0.340958 -0.0333114 0.0522299 0.998079
0.0646818 0.226697 0.309583 0.0776633 0.989273 0.12372
-0.263242 -0.286645 0.113311 -0.320063 -0.937602 0.135877
-0.0970583 0.21041 0.316115 -0.0203665 0.275119 -0.961195
-0.261968 -0.285445 0.124591 -0.320063 -0.937602 0.135877
-0.209482 -0.243332 0.28791 -0.192595 0.972785 -0.128826
-0.0237864 0.223661 0.391319 -0.0977767 0.99505 0.017779
0.102867 0.202186 0.38365 -0.106036 -0.990125 -0.0917009
0.149531 -0.218705 0.347509 -0.0157778 -0.119326 0.99273
-0.279431 0.14192 0.00964138 -0.374951 0.00144688 -0.927044
0.224315 0.0534614 0.32041 -0.0120916 -0.056108 -0.998352
0.203597 0.144659 0.329172 0.0383576 0.0573974 0.997614
0.24369 -0.0062484 0.326468 0.686067 -0.0049854 -0.727521
-0.149272 0.19808 0.357783 0.200478 -0.973764 -0.107671
0.208777 -0.123897 0.330566 -0.0120916 -0.056108 -0.998352
0.0656311 0.214482 0.307175 -0.0780649 -0.988274 -0.131229
0.087971 0.205118 0.369172 -0.10604 -0.990164 -0.0912723
0.273091 0.239866 0.0609862 -0.964388 -0.234955 -0.121459
-0.125161 0.0665185 0.321811 0.00647882 -0.0522315 -0.998614
-0.116153 0.124516 0.331715 -0.010569 0.0518808 0.998597
0.236357 0.17344 0.332526 -0.45071 -0.882695 -0.133082
0.284154 -0.136748 0.0165636 0.925169 -0.00363356 0.379537
0.276384 0.203186 0 0 0 -1
-0.274516 -0.128413 0.017919 0.785672 -0.00306657 0.618636
-0.249913 -0.10236 0.333041 -0.961101 0.0419902 -0.272986
-0.187573 -0.0665273 0.328201 0.0109273 -0.0527013 -0.998551
-0.0466663 -0.0628712 0.328909 0.00195833 -0.0523332 -0.998628
0.0165581 0.186346 0.328762 0.00326822 0.0525791 0.998611
-0.224891 0.172252 0.402385 0.447071 -0.893538 -0.0414342
0.105991 -0.0391868 0.340315 0.0068972 0.0522113 0.998612
-0.236703 0.120576 0.320826 -0.961562 0.042125 -0.271336
-0.110261 -0.210299 0.334666 -0.0569913 0.459985 -0.886096
-0.0727593 0.042612 0.323288 0.00304276 -0.0525532 -0.998614
-0.0190883 -0.0802452 0.342747 -0.00284307 0.0524247 0.998621
-0.204181 0.207122 0.562319 0.270007 -0.733878 0.623314
-0.182418 -0.134398 0.344472 -0.0115013 0.0561662 0.998355
0.15806 0.0208007 0.323796 -0.00696731 -0.0527421 -0.998584
-0.122606 0.198331 0.410302 0.200818 -0.975444 -0.0904477
-0.191974 0.250916 0.588926 -0.287071 0.72147 -0.630136
0.251791 -0.2683 0.207875 -0.741096 0.66146 -0.115097
0.162162 0.20732 0.492589 0.218613 0.969425 -0.111464
-0.263835 0.160629 0.411159 -0.970487 -0.2392 0.0306416
-0.0835753 -0.11398 0.344386 -0.00197215 0.0526852 0.998609
-0.0204727 0.21387 0.358842 0.0706427 -0.993296 -0.091502
0.0736761 0.228739 0.511267 0.119765 0.881372 -0.45699
0.262513 0.187319 0.542759 0.968566 -0.232883 0.0874438
-0.154201 0.0164146 0.324188 0.0108825 -0.0527023 -0.998551
-0.0444611 0.211873 0.35743 0.0978434 -0.986555 -0.130907
0.0334126 0.181712 0.328951 0.00326822 0.0525791 0.998611
-0.0782328 -0.1181 0.331729 0.00304276 -0.0525532 -0.998614
0.0108662 -0.105684 0.34411 0.00237118 0.0524043 0.998623
-0.164732 -0.233381 0.296778 -0.122048 0.98393 -0.130331
0.0536501 0.134232 0.31849 -0.00343602 -0.052312 -0.998625
0.263723 -0.279943 0.119677 0.655929 0.751105 -0.0748264
-0.00740556 0.232219 0.290178 -0.0672539 0.958997 -0.275321
-0.0112891 0.0540593 0.322851 0.00195833 -0.0523332 -0.998628
-0.208691 -0.244743 0.276078 -0.192595 0.972785 -0.128826
-0.25372 -0.267126 0.271849 0.191656 -0.973973 0.121013
0.263948 0.196471 0.235729 -0.717002 0.680665 0.150347
0.198906 -0.242038 0.297437 0.204363 0.970426 -0.128486
-0.205616 0.0973646 0.318969 0.0386572 -0.0577636 -0.997582
0.140693 0.21494 0.338624 0.217605 0.96851 0.120985
0.242909 -0.155897 0.344953 0.0383576 0.0573974 0.997614
-0.204565 0.198097 0.354279 -0.315876 0.93949 0.132589
0.119046 0.284028 0.603344 0.109548 0.963625 0.243774
-0.231119 0.17356 0.3647 0.43748 -0.874052 -0.21129
0.196465 0.194869 0.289758 -0.184362 -0.68167 -0.708051
0.181934 0.211055 0.520245 0.204029 0.918139 -0.339695
-0.101697 0.204453 0.370573 0.0978434 -0.986555 -0.130907
-0.155632 0.205544 0.39769 -0.210588 0.973182 0.0925725
-0.273564 0.0724201 0.0113511 0.614732 -0.00239929 -0.788732
0.1379 -0.206082 0.348821 0.0068972 0.0522113 0.998612
-0.167552 0.202021 0.292852 0.223217 -0.939887 -0.25843
-0.173703 0.263486 0.594994 -0.287071 0.72147 -0.630136
-0.0812523 0.0537085 0.335543 -0.00197215 0.0526852 0.998609
-0.00922384 -0.234328 0.29041 0.0370875 -0.990779 0.130312
-0.194034 0.187552 0.48338 0.393413 -0.917785 0.0538201
-0.151161 0.102069 0.3197 0.0108825 -0.0527023 -0.998551
0.162667 0.205818 0.480516 0.218613 0.969425 -0.111464
0.0574242 0.209626 0.355752 -0.10604 -0.990164 -0.0912723
-0.208269 0.179903 0.456992 0.393413 -0.917785 0.0538201
-0.169578 0.0387045 0.335733 -0.00655731 0.0528139 0.998583
0.243975 0.171273 0.495225 -0.250632 -0.964469 0.08357
0.179858 0.209705 0.302233 0.236843 0.965695 0.106481
0.135429 -0.23005 0.304067 0.129866 0.982954 -0.130141
-0.0542396 0.232919 0.543842 0.101337 -0.884126 0.456126
0.0276062 -0.232765 0.309676 -0.0448097 -0.990459 0.130318
-0.235235 0.234208 0.599618 -0.522839 0.701537 -0.484238
-0.0143699 0.217629 0.322747 0.0706427 -0.993296 -0.091502
-0.181135 0.179901 0.327994 -0.0333114 0.0522299 0.998079
0.220769 -0.14952 0.345022 0.0112044 0.0526391 0.998551
0.189492 0.188199 0.472788 -0.352114 -0.93434 0.0549933
0.17418 0.211165 0.551172 -0.293605 -0.844259 0.448355
-0.01975 -0.212315 0.345015 0.017252 -0.460666 0.887406
0.108294 0.197946 0.423154 -0.106036 -0.990125 -0.0917009
0.0340515 0.21889 0.509607 -0.121392 -0.881605 0.456111
0.1064 0.213382 0.398371 0.105051 0.989942 0.0947542
0.1589 0.204337 0.524869 -0.190238 -0.920005 0.342638
-0.138089 -0.0721102 0.328978 0.00647882 -0.0522315 -0.998614
-0.0856543 -0.0873894 0.342979 -0.00197215 0.0526852 0.998609
0.138687 -0.106685 0.343619 0.0068972 0.0522113 0.998612
-0.155285 0.218166 0.546072 0.302991 -0.893354 0.331836
0.249766 -0.193017 0.33535 0.237901 -0.0416177 -0.970397
0.199729 0.0192318 0.3228 -0.0342782 -0.0519229 -0.998063
-0.0935656 0.0841238 0.333914 -0.00197215 0.0526852 0.998609
0.228519 -0.245866 0.315627 0.204363 0.970426 -0.128486
-0.257314 0.215281 0.611938 -0.667481 -0.459526 0.585922
-0.226287 -0.126706 0.343534 -0.0115013 0.0561662 0.998355
0.200687 -0.0884017 0.342025 0.0112044 0.0526391 0.998551
0.284599 -0.0898659 0.0139324 0.991773 -0.00389437 -0.127949
-0.247673 0.207957 0.599369 0.426663 -0.780115 0.45758
0.00389538 -0.140088 0.333031 -0.00343602 -0.052312 -0.998625
0.0927155 0.26993 0.597224 -0.115269 -0.686464 0.717969
0.055719 0.211771 0.334461 -0.10604 -0.990164 -0.0912723
0.194137 0.22566 0.562791 0.270694 0.787886 -0.553137
-0.0295549 -0.134965 0.3456 -0.00197215 0.0526852 0.998609
0.247699 0.186942 0.287445 0.0778944 0.261316 -0.962105
0.239395 0.239622 0.625071 0.515784 0.425218 0.743745
-0.194208 0.20859 0.522635 -0.375663 0.8694 -0.320969
0.227015 -0.264654 0.265311 -0.196529 -0.958853 -0.204882
0.173599 -0.0225566 0.325872 -0.0342782 -0.0519229 -0.998063
-0.111229 -0.131142 0.33224 0.00647882 -0.0522315 -0.998614
-0.194577 0.187695 0.319543 -0.417117 0.872218 -0.255438
0.227214 0.106828 0.330441 0.0383576 0.0573974 0.997614
-0.068236 -0.132615 0.345399 -0.00197215 0.0526852 0.998609
-0.259225 0.21934 0.606243 -0.940565 0.333654 0.0633475
-0.0863703 0.205819 0.327538 -0.00284307 0.0524247 0.998621
-0.0636099 0.2152 0.318652 -0.0693397 0.968886 -0.237595
0.134655 0.136372 0.330917 0.0112039 0.0526391 0.998551
0.181185 0.159032 0.316164 -0.0342782 -0.0519229 -0.998063
-0.00510771 0.0369704 0.323758 0.00195833 -0.0523332 -0.998628
-0.23534 0.182452 0.388148 -0.442011 0.896913 -0.0131498
-0.157791 -0.0500692 0.340506 -0.00655731 0.0528139 0.998583
-0.142033 0.224467 0.550935 0.302991 -0.893354 0.331836
0.0919097 0.22755 0.541744 -0.121392 -0.881605 0.456111
0.0696218 0.218861 0.454908 0.134968 0.984375 -0.113088
0.0223573 -0.119826 0.344825 0.00237118 0.0524043 0.998623
-0.246405 -0.195283 0.34716 -0.0115013 0.0561662 0.998355
0.199803 -0.106699 0.329708 -0.0120916 -0.056108 -0.998352
-0.114261 -0.171039 0.334307 0.00647882 -0.0522315 -0.998614
-0.212766 0.0943878 0.318864 0.0386572 -0.0577636 -0.997582
0.207582 0.185804 0.324894 -0.258215 -0.955314 -0.143874
-0.165246 0.15335 0.31684 0.0108825 -0.0527023 -0.998551
0.131794 -0.188749 0.347957 0.0068972 0.0522113 0.998612
-0.165385 -0.12147 0.344232 -0.00655731 0.0528139 0.998583
0.0160124 0.164757 0.329901 0.00326822 0.0525791 0.998611
0.143819 0.194384 0.31954 -0.248872 -0.930104 -0.270129
-0.0449076 0.18328 0.31597 0.00304276 -0.0525532 -0.998614
-0.123585 0.213399 0.521485 0.171317 -0.873782 0.455143
-0.184982 -0.0060147 0.337595 -0.0333114 0.0522299 0.998079
0.034436 0.152051 0.317623 -0.00343602 -0.052312 -0.998625
0.12436 0.0601063 0.322037 -0.011067 -0.0517541 -0.998599
-0.157962 0.219037 0.55086 0.302991 -0.893354 0.331836
0.253971 0.203056 0.569072 -0.719135 0.654202 -0.234234
-0.143055 0.138352 0.330711 -0.010569 0.0518808 0.998597
-0.100123 0.205869 0.361074 0.0978434 -0.986555 -0.130907
-0.236108 0.109817 0.319486 -0.688632 0.000678587 -0.72511
-0.0757391 -0.0701507 0.342089 -0.00197215 0.0526852 0.998609
0.203523 0.186361 0.508839 -0.34032 -0.879395 0.332935
-0.213103 0.156671 0.328143 -0.0333114 0.0522299 0.998079
-0.168787 -0.129555 0.331733 0.0109273 -0.0527013 -0.998551
-0.1726 0.211077 0.311919 -0.210274 0.971742 0.107247
0.208721 0.257256 0.618786 0.12702 0.689269 0.713284
0.214686 -0.212031 0.348385 0.0112044 0.0526391 0.998551
-0.282198 -0.0021677 0.0111698 -0.784017 0.00305436 -0.620732
0.00140633 0.232233 0.310312 0.105156 0.990844 0.0846739
-0.17853 0.212975 0.517738 -0.316985 0.889698 -0.32857
-0.138841 0.105223 0.332477 -0.010569 0.0518808 0.998597
-0.192852 0.171788 0.328027 -0.0333114 0.0522299 0.998079
0.271582 0.232912 0.107163 -0.717855 0.679824 0.150079
0.225182 0.159257 0.327691 0.196046 0.181524 0.963647
0.077563 0.0168605 0.337487 0.00326822 0.0525791 0.998611
-0.0727751 0.189562 0.32843 -0.00284307 0.0524247 0.998621
0.147611 0.202803 0.514484 -0.190238 -0.920005 0.342638
-0.24821 -0.254416 0.264328 -0.185098 0.934918 -0.302765
0.0530891 0.2153 0.507734 -0.121392 -0.881605 0.456111
-0.0267109 0.257918 0.574079 0.0790068 -0.689303 0.720152
-0.00837169 -0.0772439 0.329737 0.00195833 -0.0523332 -0.998628
-0.234862 0.168562 0.455762 0.42232 -0.903081 0.0780428
-0.0638421 -0.0890897 0.343112 -0.00197215 0.0526852 0.998609
-0.116765 0.230485 0.524921 -0.100149 0.883797 -0.457026
-0.0820902 0.217791 0.457549 -0.125864 0.985595 -0.112966
0.11385 0.204542 0.326085 -0.0221317 -0.268868 0.962923
-0.259165 0.158415 0.372094 0.24448 -0.945074 -0.216946
-0.16521 -0.203063 0.348549 -0.00655731 0.0528139 0.998583
0.188568 -0.223399 0.347803 -0.0254503 -0.119164 0.992548
0.0709721 0.216009 0.292943 -0.07602 -0.962386 -0.260835
0.201466 0.0429605 0.335092 0.0112044 0.0526391 0.998551
0.255022 0.197194 0.545059 0.137582 0.933818 -0.330235
-0.252262 -0.266527 0.274358 0.191656 -0.973973 0.121013
0.178186 0.188605 0.404372 -0.209182 -0.977849 -0.0073592
0.250075 0.195622 0.538551 0.137582 0.933818 -0.330235
-0.248761 0.160678 0.439746 0.42232 -0.903081 0.0780428
-0.145861 0.252303 0.589165 0.2414 -0.711758 0.659642
-0.213307 -0.16176 0.345656 -0.0115013 0.0561662 0.998355
0.0320792 0.171331 0.316621 -0.00343602 -0.052312 -0.998625
0.267345 0.216004 0.163145 -0.967304 0.253132 0.0157088
0.170181 0.211423 0.51418 0.204029 0.918139 -0.339695
0.155299 0.191594 0.424777 -0.142177 -0.985622 -0.091293
-0.121239 0.158826 0.317009 0.00647882 -0.0522315 -0.998614
0.000480433 -0.223788 0.26999 0.0448051 0.990362 -0.131055
-0.172706 -0.0210749 0.325965 0.0109273 -0.0527013 -0.998551
-0.222249 -0.160763 0.345497 -0.0115013 0.0561662 0.998355
0.172421 0.203939 0.369621 0.217605 0.96851 0.120985
0.179692 0.208418 0.314281 0.236843 0.965695 0.106481
0.198129 0.237545 0.578633 0.464183 0.637235 -0.615196
-0.255111 0.165138 0.349863 0.43748 -0.874052 -0.21129
0.173945 0.192474 0.494707 -0.20519 -0.972067 0.113941
0.16487 0.203747 0.457289 0.149678 0.9875 -0.0494051
0.213968 -0.142065 0.331524 -0.0120916 -0.056108 -0.998352
-0.0467773 0.109739 0.319835 0.00304276 -0.0525532 -0.998614
-0.212557 -0.115807 0.330528 0.0109273 -0.0527013 -0.998551
-0.175277 0.167576 0.31598 0.0109273 -0.0527013 -0.998551
0.241984 0.197471 0.57231 -0.251374 -0.912497 0.322738
0.103867 0.204348 0.3161 -0.017678 -0.233941 -0.97209
-0.211018 0.187519 0.32209 0.342604 -0.929058 -0.139549
-0.0922297 -0.170577 0.34731 -0.00655731 0.0528139 0.998583
-0.192659 0.190009 0.345808 0.252195 -0.962145 -0.103319
-0.241381 -0.231399 0.347939 0.0249932 -0.121699 0.992252
-0.125723 0.189762 0.328224 -0.010569 0.0518808 0.998597
0.0309678 0.173066 0.329415 0.00326822 0.0525791 0.998611
-0.283171 -0.0144039 0.0123408 -0.784763 0.00306442 -0.619788
-0.260415 0.167271 0.437427 -0.688758 0.713468 -0.128746
0.0871206 -0.0155011 0.326253 -0.00238133 -0.0526365 -0.998611
0.0548265 0.0494426 0.335845 0.00326822 0.0525791 0.998611
-0.249499 0.183474 0.517212 0.970422 0.225451 -0.0863289
0.247481 0.160909 0.440132 -0.429281 -0.885711 0.176731
-0.281973 -0.202857 0.0101314 -0.374951 0.00144688 -0.927044
0.254507 -0.2819 0.113983 -0.979613 0.191218 -0.061596
0.0654576 -0.0577819 0.328533 -0.00238133 -0.0526365 -0.998611
0.0550214 -0.124183 0.332058 -0.00238133 -0.0526365 -0.998611
0.164014 0.206719 0.490998 0.218613 0.969425 -0.111464
-0.0206526 0.148896 0.330714 -0.00284307 0.0524247 0.998621
0.254628 0.160071 0.401975 -0.966388 -0.254961 -0.0330208
-0.0408445 0.0220231 0.324469 0.00304276 -0.0525532 -0.998614
0.201305 -0.0938979 0.328971 -0.0120916 -0.056108 -0.998352
0.275942 0.236708 0.0617434 -0.250254 -0.928167 -0.275463
0.151261 0.00964212 0.337411 0.0112039 0.0526391 0.998551
-0.0514375 0.0861226 0.321063 0.00304276 -0.0525532 -0.998614
-0.110593 0.21436 0.394977 -0.127265 0.987383 0.0942253
-0.283331 0.0252934 0.013751 -0.991651 0.00389016 -0.128893
0.0629758 0.215815 0.298719 -0.0780649 -0.988274 -0.131229
0.0440945 0.2466 0.539324 0.108489 0.895021 -0.432628
0.0293256 0.210384 0.380168 -0.106036 -0.990125 -0.0917009
-0.224828 0.175675 0.368882 0.288738 -0.946782 -0.142244
0.201785 0.0702438 0.333523 0.0383576 0.0573974 0.997614
-0.125453 -0.0144047 0.338834 -0.010569 0.0518808 0.998597
0.276142 -0.0472958 0.0189601 -0.783198 0.00307275 0.621765
0.185836 0.0312928 0.335882 0.0112044 0.0526391 0.998551
0.092233 0.206664 0.327445 0.00326822 0.0525791 0.998611
0.123423 0.211744 0.321132 0.076598 0.968593 -0.236559
0.174907 0.265492 0.613775 -0.0581215 0.289964 0.955271
-0.113624 0.215891 0.373596 -0.0969447 0.987614 0.123368
-0.102024 -0.119868 0.344563 -0.00655731 0.0528139 0.998583
-0.275041 0.237202 0.0238701 0.339874 -0.528262 0.778091
-0.175392 0.0769451 0.333573 -0.0333114 0.0522299 0.998079
0.176457 0.0769978 0.320594 -0.0342782 -0.0519229 -0.998063
0.18104 0.200143 0.43425 0.149678 0.9875 -0.0494051
0.0692088 0.212654 0.31648 0.0568772 0.710361 -0.701535
-0.0691869 0.260238 0.581134 0.113319 -0.73286 0.670876
-0.252923 -0.27417 0.198831 0.664615 -0.743629 0.0728207
0.0389862 0.181292 0.328955 0.00326822 0.0525791 0.998611
0.126127 0.215461 0.360649 0.217605 0.96851 0.120985
-0.248286 0.216568 0.613998 0.323652 -0.717481 0.616822
0.263923 0.166406 0.376341 0.693262 0.696238 0.186118
-0.21951 -0.139505 0.344332 -0.0115013 0.0561662 0.998355
-0.163301 0.0640493 0.321574 0.0108825 -0.0527023 -0.998551
0.084248 0.21115 0.315219 0.0222191 0.271825 -0.96209
0.185344 0.0400042 0.322214 -0.0342782 -0.0519229 -0.998063
0.0830361 -0.111032 0.344202 0.00326822 0.0525791 0.998611
0.0687376 0.0478277 0.322964 -0.00343602 -0.052312 -0.998625
-0.255693 -0.195617 0.339043 -0.961101 0.0419902 -0.272986
-0.0417976 0.280033 0.598132 0.113319 -0.73286 0.670876
0.184254 0.0422779 0.322133 -0.0342782 -0.0519229 -0.998063
0.0263945 0.256406 0.573645 -0.115269 -0.686464 0.717969
0.140815 0.202497 0.509888 -0.190238 -0.920005 0.342638
-0.100508 0.0193419 0.337319 -0.00197215 0.0526852 0.998609
-0.152651 -0.248835 0.265459 0.119152 -0.958642 -0.258473
-0.228391 0.0761452 0.329284 0.686785 -0.0004685 0.72686
-0.140762 0.224105 0.548802 0.302991 -0.893354 0.331836
0.0635001 0.0112561 0.337828 0.00326822 0.0525791 0.998611
0.0697241 -0.144153 0.345989 0.00237118 0.0524043 0.998623
-0.040979 -0.086518 0.343021 -0.00197215 0.0526852 0.998609
-0.0387054 -0.152091 0.3336 0.00195833 -0.0523332 -0.998628
-0.227818 0.243869 0.604888 -0.6043 0.65007 -0.460685
0.256613 -0.283363 0.157665 -0.198122 -0.972635 0.12136
-0.0644115 -0.0701255 0.34211 -0.00197215 0.0526852 0.998609
-0.0548461 -0.22596 0.334775 0.0279883 -0.747697 0.66345
0.225608 0.246973 0.624418 -0.157076 0.330413 0.930674
-0.095922 -0.184536 0.348024 -0.00655731 0.0528139 0.998583
-0.118726 0.213426 0.291452 0.0680568 -0.963631 -0.258427
-0.0744805 0.224917 0.332097 -0.0969447 0.987614 0.123368
0.279658 0.220716 0.00944674 -0.129782 0.000503996 -0.991542
0.0500671 0.148617 0.330639 0.00326822 0.0525791 0.998611
-0.20199 -0.223095 0.347965 0.0249932 -0.121699 0.992252
0.0328237 0.230669 0.291427 0.0752394 0.958397 -0.275342
0.263386 0.181966 0.513022 0.964646 0.249797 -0.0840213
0.00263617 -0.15941 0.334048 -0.00343602 -0.052312 -0.998625
-0.278721 0.251711 0.0266368 -0.307743 0.78323 -0.540226
0.209943 -0.0632883 0.340598 0.0112044 0.0526391 0.998551
0.205465 0.181537 0.464198 -0.399651 -0.91324 0.0792008
0.226361 0.187159 0.370788 0.447106 0.885689 0.125105
-0.112527 0.220762 0.335464 -0.0969447 0.987614 0.123368
0.154779 0.205275 0.457259 0.149678 0.9875 -0.0494051
-0.238367 -0.10779 0.338439 0.959626 -0.0416581 0.278176
0.204543 0.232789 0.597707 -0.466666 -0.653236 0.596243
0.0286694 0.00990072 0.338002 0.00237118 0.0524043 0.998623
-0.10494 -0.203818 0.335593 -0.0141874 0.115338 -0.993225
-0.0172396 0.0316367 0.336879 -0.00284307 0.0524247 0.998621
0.247888 -0.0833441 0.334443 0.969216 0.0632343 0.237953
0.260219 0.171698 0.452837 0.485073 0.859427 -0.161522
-0.0878001 0.237821 0.5608 0.101337 -0.884126 0.456126
-0.0377685 -0.133488 0.345506 -0.00197215 0.0526852 0.998609
-0.0737009 0.228006 0.298537 -0.0701986 0.993916 0.0848769
-0.138694 0.216945 0.329158 -0.228935 0.965966 0.120407
0.190484 -0.232164 0.329056 0.157464 0.73955 -0.654425
-0.203512 0.180781 0.422895 0.393627 -0.918283 -0.0425917
0.183767 0.187777 0.445424 -0.142532 -0.988084 0.0580969
0.0292175 0.2529 0.548626 0.108489 0.895021 -0.432628
0.226403 -0.252689 0.262764 0.194212 0.933012 -0.302937
-0.205192 -0.119734 0.330816 0.0109273 -0.0527013 -0.998551
-0.0195344 0.0995658 0.333307 -0.00284307 0.0524247 0.998621
0.231163 0.138362 0.316566 0.242378 -0.041359 -0.9693
0.237928 0.0261972 0.323043 0.242378 -0.041359 -0.9693
0.048743 0.112344 0.332553 0.00326822 0.0525791 0.998611
-0.103867 0.223401 0.321138 -0.0969447 0.987614 0.123368
-0.071801 -0.173779 0.347564 -0.00197215 0.0526852 0.998609
-0.141071 -0.214417 0.347734 0.0148312 -0.119342 0.992742
-0.266136 0.186352 0.299902 -0.434637 0.875683 0.210403
0.118433 0.223586 0.30072 0.0776633 0.989273 0.12372
0.142436 0.280232 0.603069 0.22487 0.940544 0.254581
0.129704 -0.221615 0.32951 0.0983586 0.744562 -0.660267
0.152873 0.215858 0.306454 0.236843 0.965695 0.106481
-0.0476185 -0.238117 0.272528 0.0370875 -0.990779 0.130312
0.20562 0.200291 0.318539 0.259766 0.956138 0.135358
0.147755 0.192863 0.443571 -0.142532 -0.988084 0.0580969
0.275562 0.103615 0.0116622 -0.926339 0.00361077 -0.376673
-0.0416512 0.258273 0.558534 -0.0792704 0.692571 -0.716981
0.0505165 0.111574 0.332588 0.00326822 0.0525791 0.998611
-0.0696709 0.21234 0.505883 0.116013 -0.894296 0.432175
0.0288797 0.209976 0.385088 -0.106036 -0.990125 -0.0917009
0.100192 0.201174 0.397666 -0.106036 -0.990125 -0.0917009
0.13637 -0.240084 0.259867 0.0347355 0.262983 -0.964175
0.115584 0.218345 0.344412 0.0776633 0.989273 0.12372
0.173156 0.15715 0.32939 0.0112039 0.0526391 0.998551
-0.242638 0.200316 0.537719 -0.251919 0.912753 -0.321587
0.0614335 0.210542 0.34116 -0.10604 -0.990164 -0.0912723
0.192998 0.197434 0.390814 0.304546 0.95249 0.00378766
-0.148111 0.24463 0.58171 0.2414 -0.711758 0.659642
0.0478023 0.161357 0.317089 -0.00343602 -0.052312 -0.998625
0.198185 0.257676 0.61637 -0.201488 -0.224142 0.9535
-0.159332 0.0384665 0.335813 -0.00655731 0.0528139 0.998583
0.100117 0.149613 0.317525 -0.00343602 -0.052312 -0.998625
0.179296 -0.126443 0.344271 0.0112044 0.0526391 0.998551
0.246227 -0.148397 0.343342 0.271837 0.06737 0.959982
0.131966 0.0605758 0.33492 0.0068972 0.0522113 0.998612
0.205841 0.158576 0.328285 0.0383576 0.0573974 0.997614
-0.139798 0.200509 0.353454 0.200478 -0.973764 -0.107671
-0.0504652 -0.200691 0.335503 -0.004315 0.115312 -0.99332
-0.269277 0.208585 0.205637 -0.242302 0.930264 0.275496
0.17472 -0.0984067 0.329779 -0.0342782 -0.0519229 -0.998063
-0.208335 0.129074 0.329746 -0.0333114 0.0522299 0.998079
-0.0953218 -0.208376 0.334703 -0.0569913 0.459985 -0.886096
0.261805 -0.285587 0.136271 0.752311 -0.648883 0.113924
-0.0244278 0.244876 0.560395 0.101337 -0.884126 0.456126
-0.167388 -0.00960402 0.338303 -0.00655731 0.0528139 0.998583
0.273318 0.200922 0.219277 0.694314 0.681406 0.231549
-0.0610124 0.225069 0.529899 0.116013 -0.894296 0.432175
-0.194194 0.184611 0.434393 0.393413 -0.917785 0.0538201
-0.0516556 0.215398 0.325541 -0.0492089 0.699571 0.712867
-0.0259116 0.150982 0.330589 -0.00284307 0.0524247 0.998621
0.273299 0.245614 0.0526664 -0.967304 0.253132 0.0157088
-0.00617476 -0.0125209 0.32635 0.00195833 -0.0523332 -0.998628
-0.150849 0.184265 0.328244 -0.010569 0.0518808 0.998597
0.21505 0.0201195 0.335897 0.0383576 0.0573974 0.997614
0.162427 0.16543 0.316157 -0.011067 -0.0517541 -0.998599
-0.209833 0.254045 0.602245 -0.467441 0.722674 -0.509158
0.0507891 0.199246 0.327971 0.00326822 0.0525791 0.998611
0.254238 0.170965 0.423402 0.484526 0.874685 -0.0126921
0.24677 0.235549 0.617383 0.673506 0.702954 -0.228571
0.159641 -0.233982 0.298522 0.129841 0.982963 -0.130099
-0.200645 0.100309 0.318991 0.0386572 -0.0577636 -0.997582
0.0455439 0.211667 0.347417 -0.10604 -0.990164 -0.0912723
-0.198103 0.00774671 0.324165 0.0109273 -0.0527013 -0.998551
-0.24366 -0.00261454 0.333269 -0.723414 0.0811146 0.685632
-0.0482774 0.223752 0.523755 0.116013 -0.894296 0.432175
0.206016 0.201036 0.312522 0.259766 0.956138 0.135358
0.262379 0.184108 0.518922 0.692486 0.680929 -0.238325
0.181688 0.189455 0.468849 -0.142532 -0.988084 0.0580969
0.2523 -0.277533 0.162398 -0.97644 0.206201 -0.0636136
0.215825 0.182367 0.33292 -0.258215 -0.955314 -0.143874
-0.156622 0.153815 0.316909 0.0108825 -0.0527023 -0.998551
-0.170023 0.202756 0.410848 -0.14227 0.989819 0.00415869
-0.136674 -0.139533 0.345376 -0.00655731 0.0528139 0.998583
0.150879 0.276322 0.599614 0.290874 0.70245 -0.649582
-0.258301 -0.247596 0.338297 -0.733439 -0.478413 0.482896
-0.190798 -0.15382 0.345468 -0.0115013 0.0561662 0.998355
-0.121783 0.203023 0.366336 0.0978434 -0.986555 -0.130907
0.196646 0.123304 0.317492 -0.0342782 -0.0519229 -0.998063
0.0255667 0.226067 0.465539 0.133582 0.984847 -0.110598
0.263215 0.184004 0.536354 0.719411 -0.653364 0.235721
0.204468 -0.137244 0.331368 -0.0120916 -0.056108 -0.998352
0.190681 0.205824 0.512185 0.301164 0.894278 -0.331009
-0.263198 0.162186 0.437995 -0.969684 -0.236148 0.0628266
0.160671 0.192259 0.327679 0.0112039 0.0526391 0.998551
0.264133 0.172557 0.484244 0.964208 0.262578 -0.0368177
0.22644 0.245462 0.612725 0.114589 -0.307209 -0.944718
0.255774 -0.288098 0.0746033 -0.979613 0.191218 -0.061596
-0.0975513 0.216506 0.463562 -0.125864 0.985595 -0.112966
0.253381 -0.262824 0.319732 0.28962 -0.925438 0.244303
0.259948 0.178655 0.316347 -0.716837 0.68826 0.111544
-0.0212479 0.0744853 0.334618 -0.00284307 0.0524247 0.998621
0.0263245 -0.231995 0.315092 -0.0448097 -0.990459 0.130318
-0.275272 -0.103234 0.0105544 0.614732 -0.00239929 -0.788732
0.0247503 0.226353 0.350132 0.105156 0.990844 0.0846739
-0.187826 -0.237874 0.296751 -0.192595 0.972785 -0.128826
0.182182 -0.0942079 0.342539 0.0112044 0.0526391 0.998551
-0.00564589 0.0374123 0.336609 -0.00284307 0.0524247 0.998621
-0.198794 0.00184818 0.336722 -0.0333114 0.0522299 0.998079
0.253365 0.164493 0.458092 -0.966048 -0.255901 0.0355896
0.1026 0.260044 0.588231 -0.0901052 -0.735163 0.671876
-0.27921 0.0974547 0.00948251 -0.379998 0.00149611 -0.924986
0.239294 0.183845 0.500644 0.175898 0.984382 0.00724907
-0.0167794 0.216438 0.315158 -0.0201489 0.272928 -0.961823
-0.176508 0.131153 0.330699 -0.0333114 0.0522299 0.998079
0.17594 0.196695 0.324471 0.18125 0.683122 0.707455
-0.00712509 0.294304 0.601066 0.00495081 0.292152 0.956359
0.278794 0.0504602 0.00947327 -0.129782 0.000503996 -0.991542
-0.215636 0.202217 0.292869 -0.245982 0.934445 -0.257499
0.240127 -0.187277 0.346795 0.0112044 0.0526391 0.998551
0.180863 0.235223 0.586479 -0.25657 -0.737765 0.6244
-0.0134917 -0.222592 0.282176 -0.0369524 0.990687 -0.131049
0.0607308 0.190584 0.328395 0.00326822 0.0525791 0.998611
0.0636176 -0.0870802 0.330082 -0.00238133 -0.0526365 -0.998611
0.237104 0.0891804 0.319596 0.687892 -0.00481869 -0.725797
-0.0866192 0.217629 0.383393 -0.0977767 0.99505 0.017779
-0.0930505 0.276025 0.602411 0.113319 -0.73286 0.670876
0.192208 0.207309 0.29269 0.253067 0.931483 -0.261336
-0.190785 -0.244462 0.331813 0.179221 -0.88404 0.431688
-0.13117 -0.0896598 0.329941 0.00647882 -0.0522315 -0.998614
