-0.0564764 -0.0306518 0.340043 -0.00197215 0.0526852 0.998609
-0.0732596 0.203524 0.424369 0.129326 -0.987365 -0.0915728
-0.00596481 0.229142 0.287653 -0.0161722 0.242185 -0.970095
0.113424 0.221369 0.535523 -0.121392 -0.881605 0.456111
0.0350139 -0.144944 0.346113 0.00237118 0.0524043 0.998623
-0.0527845 0.208216 0.380855 0.0986767 -0.994956 -0.0180158
-0.184235 -0.128383 0.331502 0.0109273 -0.0527013 -0.998551
0.107154 -0.0488933 0.340815 0.0068972 0.0522113 0.998612
-0.0125346 -0.132474 0.345508 -0.00284307 0.0524247 0.998621
-0.182219 0.205139 0.34686 -0.210274 0.971742 0.107247
0.25643 0.181497 0.326628 0.28105 0.935146 0.215667
-0.037533 0.176511 0.329216 -0.00284307 0.0524247 0.998621
-0.267446 0.22325 0.121881 0.689667 -0.68616 -0.231396
-0.180138 0.188785 0.40973 0.134761 -0.990852 -0.00723964
0.252107 -0.257476 0.334029 0.279841 -0.708921 0.647394
0.0635666 0.0368895 0.323555 -0.00343602 -0.052312 -0.998625
0.264575 0.15798 0.424486 0.720127 -0.69352 0.0211498
-0.220866 0.189841 0.44299 -0.385551 0.922658 0.00719393
0.190134 -0.114884 0.34354 0.0112044 0.0526391 0.998551
-0.105485 -0.168441 0.334228 0.00647882 -0.0522315 -0.998614
0.0345313 0.208647 0.393415 -0.137519 -0.990336 -0.0179568
-0.174597 0.242188 0.590262 0.287749 -0.728236 0.621991
0.180103 -0.252809 0.283663 -0.199135 -0.971565 0.128086
-0.250545 0.184239 0.28735 0.0714038 -0.246625 -0.966477
-0.180453 0.189786 0.444553 0.199415 -0.978231 0.0574187
0.216075 0.172783 0.324903 0.43162 0.572875 0.696792
0.0794822 0.123762 0.31895 -0.00343602 -0.052312 -0.998625
0.161093 0.191648 0.455633 -0.142532 -0.988084 0.0580969
0.0512204 0.212698 0.491513 -0.135526 -0.984258 0.113443
-0.250709 0.228072 0.611265 -0.365842 0.670167 -0.645783
-0.00570506 0.218773 0.491712 0.129033 -0.985132 0.113423
-0.0854497 0.0206234 0.337281 -0.00197215 0.0526852 0.998609
0.284235 -0.237227 0.00810494 0.989477 -0.00407504 0.14463
-0.198242 0.0989608 0.331659 -0.0333114 0.0522299 0.998079
0.142927 0.166199 0.329252 0.0112039 0.0526391 0.998551
0.0961506 0.194816 0.31517 -0.00343602 -0.052312 -0.998625
0.225688 -0.250716 0.272846 0.200462 0.97214 -0.121482
-0.105634 0.276534 0.604138 0.109224 -0.68459 0.720699
0.162545 -0.249615 0.261469 -0.0930314 -0.703512 -0.704568
0.155781 -0.217406 0.334636 0.0607056 0.459534 -0.886083
-0.107286 -0.0419276 0.327599 0.00647882 -0.0522315 -0.998614
-0.0708109 0.167721 0.31671 0.00304276 -0.0525532 -0.998614
-0.259289 0.170499 0.371248 -0.242933 0.945561 0.216559
-0.0268391 -0.014573 0.339278 -0.00284307 0.0524247 0.998621
0.142031 -0.115039 0.344032 0.0068972 0.0522113 0.998612
-0.220167 0.201745 0.530064 -0.288531 0.875886 -0.386747
-0.0237424 0.215178 0.342121 0.0706427 -0.993296 -0.091502
-0.173569 0.215312 0.555084 0.302991 -0.893354 0.331836
0.167366 0.213715 0.293652 0.236843 0.965695 0.106481
-0.0665229 0.0959545 0.3205 0.00304276 -0.0525532 -0.998614
0.0320946 0.261585 0.561527 0.0903042 0.739366 -0.667221
0.22595 -0.0948878 0.328728 -0.0120916 -0.056108 -0.998352
0.274248 -0.189797 0.0172673 -0.785383 0.00306052 0.619003
0.0614038 0.168137 0.316687 -0.00343602 -0.052312 -0.998625
0.0762503 0.203037 0.405232 -0.106036 -0.990125 -0.0917009
-0.118816 0.241498 0.546668 -0.100149 0.883797 -0.457026
-0.102127 0.15474 0.317298 0.00304276 -0.0525532 -0.998614
0.227413 -0.0341054 0.338542 0.0383576 0.0573974 0.997614
-0.00970662 0.226737 0.454094 -0.127226 0.985688 -0.110601
0.0898998 -0.167206 0.34712 0.0068972 0.0522113 0.998612
0.219151 0.185249 0.521877 -0.34032 -0.879395 0.332935
-0.00381624 0.212343 0.42114 0.0986767 -0.994956 -0.0180158
0.1977 0.245657 0.606449 -0.466666 -0.653236 0.596243
0.21371 -0.0782441 0.341344 0.0112044 0.0526391 0.998551
-0.0211089 0.26702 0.582178 0.0790068 -0.689303 0.720152
0.075086 0.236922 0.556546 -0.109668 -0.894774 0.432843
-0.0435967 0.222961 0.520862 0.116013 -0.894296 0.432175
-0.211106 0.199918 0.325796 -0.315876 0.93949 0.132589
0.026406 0.0658048 0.335074 0.00237118 0.0524043 0.998623
0.230054 0.0605406 0.328416 -0.962149 -0.0346848 0.270307
-0.271654 0.19613 0 0 0 -1
-0.227005 -0.112527 0.342728 -0.0115013 0.0561662 0.998355
-0.231507 0.184372 0.488973 -0.148605 0.970773 -0.18846
-0.117185 0.0287406 0.33668 -0.010569 0.0518808 0.998597
0.0771518 0.21326 0.309528 -0.0780649 -0.988274 -0.131229
0.0418645 0.207159 0.419306 -0.137519 -0.990336 -0.0179568
-0.109756 0.214806 0.462329 -0.125864 0.985595 -0.112966
0.164956 -0.154873 0.333027 -0.00696731 -0.0527421 -0.998584
-0.0415253 0.226409 0.343857 -0.0701986 0.993916 0.0848769
0.0767846 -0.0579544 0.328515 -0.00238133 -0.0526365 -0.998611
-0.224249 0.172666 0.400387 0.447071 -0.893538 -0.0414342
0.0913294 0.2246 0.30962 0.0776633 0.989273 0.12372
-0.267323 0.21844 0.171697 0.26719 0.931274 0.247668
-0.251592 -0.25205 0.301295 0.303966 0.942929 -0.135972
-0.194698 0.188387 0.355943 0.252195 -0.962145 -0.103319
-0.0887585 0.205019 0.375975 0.0978434 -0.986555 -0.130907
-0.277744 0.0915037 0.00934123 0.130389 -0.000513361 -0.991463
-0.0059935 -0.217457 0.318237 -0.0362811 0.969553 -0.242177
-0.158429 -0.228561 0.322699 -0.119608 0.96347 -0.239623
-0.152132 0.0113239 0.324479 0.0108825 -0.0527023 -0.998551
-0.210332 0.25731 0.61965 -0.124402 0.694261 0.708891
-0.200408 0.195694 0.404985 -0.318219 0.948009 0.00398668
0.0246259 0.224965 0.454593 0.133582 0.984847 -0.110598
0.238486 0.165021 0.398247 -0.45459 -0.890504 -0.018709
0.00170574 -0.0483307 0.341122 0.00237118 0.0524043 0.998623
0.0223823 0.0275748 0.337089 0.00237118 0.0524043 0.998623
-0.147351 0.198472 0.357816 0.200478 -0.973764 -0.107671
0.123042 0.222942 0.302972 0.0776633 0.989273 0.12372
-0.243045 0.197688 0.569692 0.244155 -0.91445 0.322753
-0.23528 0.0533577 0.333204 -0.267115 0.0693144 0.961169
0.158808 0.211977 0.542634 -0.293605 -0.844259 0.448355
-0.119123 0.218826 0.345779 -0.0969447 0.987614 0.123368
-0.0731802 0.219984 0.372613 -0.0969447 0.987614 0.123368
-0.0411637 -0.203175 0.335174 -0.00433619 0.115467 -0.993302
0.134389 -0.0432482 0.340332 0.0068972 0.0522113 0.998612
0.0222126 0.00386018 0.325428 -0.00343602 -0.052312 -0.998625
0.259559 0.194113 0.538237 0.137582 0.933818 -0.330235
0.0553806 -0.122721 0.344898 0.00237118 0.0524043 0.998623
0.128656 0.00174546 0.338019 0.0068972 0.0522113 0.998612
-0.125333 0.197709 0.444743 0.133865 -0.984262 0.115365
-0.177952 -0.237798 0.336961 0.150804 -0.739154 0.656437
-0.231718 0.18543 0.374838 -0.434637 0.875683 0.210403
0.0531248 0.223421 0.349196 0.105156 0.990844 0.0846739
-0.0612256 -0.124823 0.332127 0.00195833 -0.0523332 -0.998628
0.199655 -0.193813 0.347594 0.0112044 0.0526391 0.998551
0.229019 0.193888 0.287778 0.0751727 0.247807 -0.965889
0.183832 -0.0879161 0.342189 0.0112044 0.0526391 0.998551
-0.103992 -0.229578 0.268494 -0.12231 0.983952 -0.12992
0.00620831 -0.107643 0.331324 -0.00343602 -0.052312 -0.998625
0.176768 0.115092 0.331566 0.0112044 0.0526391 0.998551
0.0535961 -0.230968 0.326162 -0.0439469 -0.968279 0.245975
-0.135956 -0.0580955 0.341074 -0.00655731 0.0528139 0.998583
-0.196151 -0.237351 0.313971 -0.197018 0.97288 -0.121192
0.136935 -0.167476 0.346809 0.0068972 0.0522113 0.998612
-0.153779 -0.218481 0.347435 0.0148312 -0.119342 0.992742
0.19004 -0.250538 0.317098 -0.203645 -0.971595 0.120551
-0.182025 -0.00840081 0.325194 0.0109273 -0.0527013 -0.998551
-0.121809 -0.220359 0.344561 0.0571788 -0.460101 0.886023
-0.0108856 -0.0443376 0.328008 0.00195833 -0.0523332 -0.998628
-0.138401 0.108003 0.319526 0.0108825 -0.0527023 -0.998551
0.161558 0.208358 0.500437 0.218613 0.969425 -0.111464
0.0740804 -0.207964 0.334291 0.0208844 0.461628 -0.886828
0.079523 0.203965 0.450032 -0.136624 -0.98389 0.115298
0.122764 0.246771 0.557383 0.0903042 0.739366 -0.667221
-0.0104158 -0.0991642 0.343765 -0.00284307 0.0524247 0.998621
0.231296 0.178671 0.31517 -0.292343 -0.931456 -0.216623
0.11289 0.157912 0.317051 -0.00238133 -0.0526365 -0.998611
0.0486656 -0.104187 0.343941 0.00237118 0.0524043 0.998623
0.103714 -0.111929 0.331186 -0.00696731 -0.0527421 -0.998584
0.23637 -0.163122 0.332436 -0.0120916 -0.056108 -0.998352
0.188156 0.179544 0.319248 -0.421173 -0.869279 -0.258782
0.230485 -0.197842 0.34746 0.0112044 0.0526391 0.998551
0.103982 0.24692 0.574056 -0.0901052 -0.735163 0.671876
0.0347077 -0.17797 0.334941 -0.00238133 -0.0526365 -0.998611
-0.0814286 -0.0978754 0.330655 0.00304276 -0.0525532 -0.998614
0.166784 0.0432763 0.335464 0.0112039 0.0526391 0.998551
-0.143082 0.247295 0.582744 0.2414 -0.711758 0.659642
-0.242272 0.186145 0.503135 -0.120217 0.910026 -0.396737
-0.174018 0.204609 0.52668 0.302991 -0.893354 0.331836
-0.119275 -0.123131 0.344623 -0.00655731 0.0528139 0.998583
-0.266131 -0.284929 0.0987943 -0.981297 -0.182397 0.0615469
-0.203284 -0.0835282 0.34137 -0.0115013 0.0561662 0.998355
0.244376 0.179579 0.29361 -0.292343 -0.931456 -0.216623
0.246632 0.180715 0.343964 0.447106 0.885689 0.125105
0.0611794 -0.225126 0.280635 0.0448164 0.990359 -0.131072
-0.244982 -0.184049 0.344785 0.685162 -0.000304507 0.728391
0.213503 -0.241419 0.321769 0.200747 0.950168 -0.238497
0.126007 -0.0812798 0.329412 -0.00696731 -0.0527421 -0.998584
-0.172088 -0.140424 0.345059 -0.0333114 0.0522299 0.998079
-0.103753 0.197841 0.327908 -0.00284307 0.0524247 0.998621
-0.254271 0.172604 0.415013 -0.476095 0.879176 0.0195687
0.257261 -0.278064 0.19873 0.310014 -0.940946 0.136058
0.202109 0.0188064 0.336358 0.0112044 0.0526391 0.998551
-0.09097 0.216938 0.394462 -0.127265 0.987383 0.0942253
-0.167178 -0.036999 0.339753 -0.00655731 0.0528139 0.998583
-0.0408884 0.0198214 0.324585 0.00304276 -0.0525532 -0.998614
-0.143332 -0.242588 0.305268 0.12205 -0.984056 0.129377
0.0846655 0.0657964 0.321973 -0.00238133 -0.0526365 -0.998611
0.176971 0.201182 0.442686 0.149678 0.9875 -0.0494051
0.011881 0.128902 0.331797 0.00237118 0.0524043 0.998623
0.254989 -0.254195 0.293627 0.217593 0.968632 -0.120022
-0.134628 0.19718 0.396025 0.200818 -0.975444 -0.0904477
0.194771 0.183915 0.383087 -0.352948 -0.934633 -0.0434649
0.157593 -0.24528 0.30939 -0.129859 -0.98303 0.129568
-0.244539 -0.251727 0.277232 -0.197018 0.97288 -0.121192
0.0283696 0.216746 0.312289 -0.0780649 -0.988274 -0.131229
0.0615503 -0.234606 0.307359 -0.0448097 -0.990459 0.130318
-0.0495296 -0.234826 0.298089 0.0370875 -0.990779 0.130312
0.241038 0.211218 0.599236 -0.503909 -0.713908 0.486222
0.210295 0.198557 0.321818 0.259766 0.956138 0.135358
-0.281602 -0.179522 0.0100172 -0.379998 0.00149611 -0.924986
0.09112 0.205023 0.472802 -0.136624 -0.98389 0.115298
-0.279015 -0.131556 0.0199847 -0.130144 0.000508691 0.991495
-0.144998 0.208191 0.519547 0.171317 -0.873782 0.455143
-0.0765985 0.220942 0.478922 -0.125864 0.985595 -0.112966
-0.281529 0.0392414 0.0186832 -0.62088 0.00242682 0.783902
-0.207354 -0.246405 0.333978 0.150797 -0.743835 0.65113
0.00404739 0.240599 0.516867 0.108489 0.895021 -0.432628
-0.10827 -0.239348 0.296835 0.12205 -0.984056 0.129377
-0.0672 -0.188667 0.348359 -0.00197215 0.0526852 0.998609
0.195225 0.000445649 0.323932 -0.0342782 -0.0519229 -0.998063
-0.188023 -0.214013 0.348709 0.0248406 -0.119359 0.99254
-0.191379 0.233454 0.587776 0.270007 -0.733878 0.623314
-0.0307836 -0.00258628 0.325781 0.00195833 -0.0523332 -0.998628
-0.191558 0.13142 0.317542 0.0386572 -0.0577636 -0.997582
-0.157505 -0.00996372 0.338386 -0.00655731 0.0528139 0.998583
0.138541 -0.207185 0.335836 0.0152215 0.115226 -0.993223
-0.24403 0.178082 0.313884 0.288738 -0.946782 -0.142244
0.165196 0.0283975 0.323345 -0.00696731 -0.0527421 -0.998584
0.00665644 0.21261 0.388354 -0.137519 -0.990336 -0.0179568
0.18533 0.187025 0.411249 -0.209182 -0.977849 -0.0073592
-0.202985 0.201174 0.51282 -0.375663 0.8694 -0.320969
0.0779478 -0.0179983 0.339321 0.00326822 0.0525791 0.998611
-0.10264 0.239857 0.565122 0.0790068 -0.689303 0.720152
0.237902 0.230727 0.598002 0.52812 0.697471 -0.484379
-0.0516111 0.265174 0.583756 0.0790068 -0.689303 0.720152
0.000954617 0.229257 0.345631 -0.0701986 0.993916 0.0848769
-0.0299607 0.217538 0.316869 -0.0513334 0.715236 -0.696995
-0.20881 -0.18086 0.346782 -0.0115013 0.0561662 0.998355
0.12222 0.213343 0.381233 0.105051 0.989942 0.0947542
-0.246796 -0.080514 0.335209 -0.969237 0.0707508 0.235743
0.112948 0.282674 0.604363 0.0617093 0.722311 0.68881
0.262913 0.191238 0.235883 -0.964053 -0.236167 -0.121762
-0.238568 0.0961491 0.323647 -0.961562 0.042125 -0.271336
0.0702015 0.21206 0.506026 -0.121392 -0.881605 0.456111
0.128853 0.209493 0.44616 0.218613 0.969425 -0.111464
0.119615 0.214834 0.479523 0.134968 0.984375 -0.113088
0.136814 -0.232849 0.2843 0.129841 0.982963 -0.130099
0.126129 -0.227117 0.316944 0.129866 0.982954 -0.130141
-0.07463 0.235069 0.55254 0.101337 -0.884126 0.456126
0.0579724 0.192768 0.315409 -0.00343602 -0.052312 -0.998625
-0.170005 0.0414038 0.322697 0.0108825 -0.0527023 -0.998551
-0.22281 -0.255484 0.315673 0.195813 -0.972229 0.128171
-0.211595 0.225631 0.588345 0.467579 -0.717273 0.516613
0.265016 0.169989 0.314821 0.25314 -0.948243 -0.191715
0.00469059 0.0484214 0.323154 -0.00343602 -0.052312 -0.998625
0.277456 0.212516 0.162402 0.966252 -0.257046 -0.0168619
0.0650351 -0.0983226 0.330671 -0.00238133 -0.0526365 -0.998611
-0.256462 0.182523 0.536114 -0.272353 -0.90613 0.323654
-0.174791 -0.0964664 0.342668 -0.0333114 0.0522299 0.998079
-0.104379 0.200708 0.446963 0.127787 -0.985058 0.115461
-0.221235 -0.00714554 0.336866 -0.0115013 0.0561662 0.998355
-0.145956 0.271624 0.591671 -0.287071 0.72147 -0.630136
0.0192053 0.247646 0.535247 0.108489 0.895021 -0.432628
-0.0165195 -0.0876995 0.330269 0.00195833 -0.0523332 -0.998628
-0.139946 0.0941702 0.33304 -0.010569 0.0518808 0.998597
-0.145694 0.215859 0.324561 -0.228935 0.965966 0.120407
0.0506642 -0.22202 0.300504 0.0448051 0.990362 -0.131055
-0.0469979 0.196921 0.328118 -0.00284307 0.0524247 0.998621
-0.0928812 0.257854 0.563793 -0.0792704 0.692571 -0.716981
0.233152 0.0978649 0.317843 0.241236 -0.0414442 -0.969581
0.0875208 0.218488 0.364209 0.105156 0.990844 0.0846739
-0.152999 0.178316 0.32853 -0.010569 0.0518808 0.998597
0.0861493 0.228571 0.542185 -0.121392 -0.881605 0.456111
-0.0195539 -0.230849 0.319717 0.0362441 -0.968248 0.247349
-0.0700964 -0.177502 0.33487 0.00195833 -0.0523332 -0.998628
0.154211 0.206618 0.392918 0.219233 0.975665 0.00387982
-0.0819586 0.186045 0.315712 0.00304276 -0.0525532 -0.998614
-0.24515 -0.0559421 0.331435 -0.960051 0.0417174 -0.276699
0.243875 0.1832 0.477043 0.175898 0.984382 0.00724907
0.159 0.0765857 0.333796 0.0112039 0.0526391 0.998551
-0.046376 0.221656 0.450985 -0.127226 0.985688 -0.110601
0.178175 -0.0365952 0.339547 0.0112044 0.0526391 0.998551
-0.0314214 0.24338 0.530465 -0.114444 0.8946 -0.431965
0.18189 0.1984 0.521693 -0.190238 -0.920005 0.342638
-0.068366 -0.0614831 0.341646 -0.00197215 0.0526852 0.998609
0.0654539 0.246559 0.544595 0.108489 0.895021 -0.432628
0.115766 0.0633731 0.321963 -0.011067 -0.0517541 -0.998599
-0.128338 -0.238159 0.322311 0.119355 -0.962326 0.244299
-0.262113 0.176111 0.48245 -0.963829 0.264125 -0.0356599
-0.272488 0.236034 0.0141281 0.932021 0.172827 -0.318539
-0.277708 -0.0505868 0.00941953 0.130669 -0.000516133 -0.991426
0.272346 0.220803 0.00232404 0.00443997 0.99999 -0.000418345
0.0158912 -0.217291 0.342455 -0.020837 -0.46052 0.887405
-0.178973 0.203493 0.461367 -0.212876 0.975861 -0.0487653
-0.0617377 0.143337 0.318021 0.00304276 -0.0525532 -0.998614
0.032735 0.216528 0.502659 -0.135526 -0.984258 0.113443
0.274611 0.0135332 0.0131389 -0.926566 0.00361491 -0.376114
-0.0589849 -0.239064 0.264546 0.0361153 -0.964811 -0.260451
-0.268251 0.185065 0.279399 -0.96138 0.255198 0.103064
-0.0734604 0.273934 0.596817 0.113319 -0.73286 0.670876
-0.214751 -0.256529 0.295421 0.191656 -0.973973 0.121013
0.150681 0.215846 0.311439 0.236843 0.965695 0.106481
0.19538 0.126726 0.33052 0.0383576 0.0573974 0.997614
-0.17048 -0.234188 0.298652 -0.192595 0.972785 -0.128826
0.286068 0.19461 0.00713485 0.989626 -0.00377804 0.143618
0.0358238 0.276453 0.576904 0.11437 0.689832 -0.714879
-0.233312 0.178517 0.332749 0.288738 -0.946782 -0.142244
0.240978 -0.240421 0.331755 0.0987069 0.463591 -0.880534
-0.0990401 0.23361 0.527082 -0.100149 0.883797 -0.457026
0.0732296 0.286913 0.592983 0.11437 0.689832 -0.714879
0.16164 -0.103368 0.343252 0.0112039 0.0526391 0.998551
0.111816 0.198306 0.415187 -0.106036 -0.990125 -0.0917009
-0.0535453 -0.216203 0.326476 -0.0280329 0.748882 -0.662111
0.284102 0.247623 0.045864 0.96318 0.239274 0.122608
-0.0180106 0.22488 0.37677 -0.0969447 0.987614 0.123368
-0.0500856 0.28197 0.583046 -0.112375 0.737079 -0.666398
0.277787 -0.285422 0.0133335 0.342105 -0.442983 -0.828692
0.0799882 0.15848 0.330022 0.00326822 0.0525791 0.998611
-0.0103359 0.292898 0.588518 -0.0792704 0.692571 -0.716981
-0.21089 0.146904 0.315896 0.0386572 -0.0577636 -0.997582
-0.191998 -0.0436196 0.326943 0.0109273 -0.0527013 -0.998551
-0.0872942 -0.0741039 0.342275 -0.00197215 0.0526852 0.998609
0.0524359 0.223432 0.474531 0.133582 0.984847 -0.110598
0.246555 -0.0990163 0.331062 0.686474 -0.0049382 -0.727138
0.225156 0.171402 0.440271 -0.250632 -0.964469 0.08357
-0.0310381 0.222424 0.417926 -0.127265 0.987383 0.0942253
0.0818146 -0.222233 0.309611 0.129866 0.982954 -0.130141
-0.195566 0.0703024 0.320892 0.0109273 -0.0527013 -0.998551
-0.225454 0.0189586 0.32274 0.0386572 -0.0577636 -0.997582
-0.038553 -0.100628 0.330904 0.00195833 -0.0523332 -0.998628
-0.145282 0.194251 0.322116 0.245392 -0.939784 0.237884
0.087403 0.20889 0.336338 -0.0780649 -0.988274 -0.131229
0.187805 0.0290911 0.322697 -0.0342782 -0.0519229 -0.998063
0.0605222 0.211599 0.326051 0.0181136 0.23752 0.971214
-0.160992 0.202562 0.299966 0.229167 -0.964939 -0.127968
-0.224275 0.239842 0.621301 0.585045 -0.789226 0.186669
0.279261 -0.02548 0.0200679 0.130473 -0.000511653 0.991452
0.263189 0.160296 0.449496 0.717064 -0.681789 0.144855
-0.030145 0.234197 0.511108 -0.114444 0.8946 -0.431965
-0.228593 0.121135 0.317814 0.266002 -0.0692677 -0.961481
0.0462988 0.253373 0.553887 0.108489 0.895021 -0.432628
0.22143 -0.129838 0.343977 0.0112044 0.0526391 0.998551
-0.0455887 0.253548 0.553925 -0.100149 0.883797 -0.457026
-0.121952 -0.199678 0.348654 -0.00655731 0.0528139 0.998583
0.0973586 -0.191476 0.335432 -0.00696731 -0.0527421 -0.998584
-0.0941341 0.20936 0.339241 0.0978434 -0.986555 -0.130907
0.189656 0.234443 0.589171 -0.25657 -0.737765 0.6244
0.0868591 0.218425 0.471687 0.134968 0.984375 -0.113088
0.264124 0.173627 0.491649 0.964208 0.262578 -0.0368177
-0.0686164 -0.221853 0.303353 -0.0370727 0.990707 -0.130861
-0.251679 0.178126 0.364003 -0.434637 0.875683 0.210403
-0.0982676 -0.186371 0.348105 -0.00655731 0.0528139 0.998583
-0.12272 -0.0399665 0.340202 -0.00655731 0.0528139 0.998583
0.00677404 0.212125 0.315994 -0.017678 -0.233941 -0.97209
0.11805 0.0190588 0.324235 -0.011067 -0.0517541 -0.998599
0.223472 -0.185579 0.333855 -0.0120916 -0.056108 -0.998352
0.0863819 0.257213 0.564029 0.0903042 0.739366 -0.667221
-0.106247 0.106292 0.33272 -0.00197215 0.0526852 0.998609
0.262002 0.15758 0.372255 0.259756 -0.946622 -0.190875
-0.135044 -0.00730009 0.338393 -0.00655731 0.0528139 0.998583
-0.25896 0.173257 0.462819 -0.688758 0.713468 -0.128746
0.114147 0.205556 0.504726 -0.135526 -0.984258 0.113443
-0.28449 -0.223127 0.0155403 -0.925399 0.00364133 0.378977
0.219404 -0.112186 0.329779 -0.0120916 -0.056108 -0.998352
-0.202478 -0.0977401 0.329685 0.0109273 -0.0527013 -0.998551
-0.23015 -0.157842 0.332554 0.0109273 -0.0527013 -0.998551
-0.110286 0.206566 0.348227 0.0978434 -0.986555 -0.130907
-0.211139 0.184223 0.343738 0.342604 -0.929058 -0.139549
0.133731 0.198267 0.384249 -0.209182 -0.977849 -0.0073592
0.0742204 0.18031 0.316006 -0.00343602 -0.052312 -0.998625
-0.00792463 0.229303 0.474906 -0.127226 0.985688 -0.110601
0.254849 0.209599 0.585169 -0.272622 0.906766 -0.321639
-0.0301262 -0.169812 0.347437 -0.00197215 0.0526852 0.998609
0.184173 0.0880497 0.319754 -0.0342782 -0.0519229 -0.998063
-0.00153261 -0.235668 0.278032 0.0370875 -0.990779 0.130312
0.264973 0.164804 0.406287 0.701538 0.712167 0.0257403
0.017159 0.21296 0.366371 -0.10604 -0.990164 -0.0912723
0.124575 0.203756 0.327478 0.0112039 0.0526391 0.998551
0.0288929 -0.189705 0.348476 0.00237118 0.0524043 0.998623
0.226775 0.195695 0.30888 0.447106 0.885689 0.125105
0.172173 0.190721 0.314738 -0.011067 -0.0517541 -0.998599
0.222752 0.109994 0.33043 0.0383576 0.0573974 0.997614
-0.0534738 0.20632 0.314732 0.00304276 -0.0525532 -0.998614
-0.0625462 -0.150099 0.333449 0.00195833 -0.0523332 -0.998628
-0.188334 0.254565 0.611108 0.287749 -0.728236 0.621991
0.21683 0.250631 0.606298 0.464183 0.637235 -0.615196
-0.241408 0.208937 0.595198 0.426663 -0.780115 0.45758
0.113979 0.197432 0.435111 -0.136624 -0.98389 0.115298
0.171051 0.253024 0.602764 -0.290612 -0.699243 0.653149
0.233056 0.173802 0.49166 -0.250632 -0.964469 0.08357
-0.25868 0.181123 0.32061 0.264264 0.945291 0.191282
0.0371457 -0.218699 0.319342 0.0438463 0.969169 -0.242464
-0.2457 0.17682 0.439296 -0.476756 0.879007 0.00704503
0.0925691 0.03897 0.336273 0.00326822 0.0525791 0.998611
-0.23469 0.208896 0.555844 -0.251919 0.912753 -0.321587
-0.0157693 0.2243 0.399656 -0.0977767 0.99505 0.017779
0.142672 -0.0315546 0.326669 -0.00696731 -0.0527421 -0.998584
-0.253385 -0.275838 0.186017 0.664615 -0.743629 0.0728207
0.00232397 -0.147982 0.34635 0.00237118 0.0524043 0.998623
0.151722 0.206489 0.464886 0.218613 0.969425 -0.111464
0.23107 -0.247262 0.309138 0.204363 0.970426 -0.128486
0.229035 -0.0645629 0.340232 0.0383576 0.0573974 0.997614
0.084667 0.00712502 0.325066 -0.00238133 -0.0526365 -0.998611
-0.261429 0.15986 0.38863 -0.718458 -0.695257 0.0208678
-0.221428 0.0353443 0.334473 -0.0115013 0.0561662 0.998355
-0.165333 -0.0796328 0.329136 0.0108825 -0.0527023 -0.998551
-0.0612448 0.210673 0.353933 0.0978434 -0.986555 -0.130907
0.0534258 0.219301 0.439409 0.134968 0.984375 -0.113088
-0.218868 0.145323 0.328544 -0.0333114 0.0522299 0.998079
0.0609359 -0.0565572 0.341407 0.00326822 0.0525791 0.998611
-0.282359 -0.262909 0.00382812 -0.00381499 -0.999993 5.83755e-06
0.252307 0.225752 0.609971 0.365822 0.666502 -0.649577
-0.242087 0.180191 0.519804 0.206144 -0.915398 0.345763
-0.182985 0.189925 0.316207 -0.119638 0.241567 -0.962981
0.207606 -0.260079 0.271276 -0.199135 -0.971565 0.128086
0.165065 0.162491 0.329199 0.0112039 0.0526391 0.998551
0.254122 0.163521 0.349507 -0.292343 -0.931456 -0.216623
-0.0159302 0.172118 0.316646 0.00304276 -0.0525532 -0.998614
0.0986971 0.213552 0.443392 0.134968 0.984375 -0.113088
0.0506111 0.174793 0.329259 0.00326822 0.0525791 0.998611
0.103718 0.18147 0.328734 0.00326822 0.0525791 0.998611
-0.0533861 0.237937 0.525011 -0.114444 0.8946 -0.431965
-0.0602146 0.217522 0.291588 0.0680568 -0.963631 -0.258427
-0.218216 -0.211007 0.34837 -0.0115013 0.0561662 0.998355
-0.193472 0.162783 0.315652 0.0386572 -0.0577636 -0.997582
0.0938802 0.110954 0.319571 -0.00238133 -0.0526365 -0.998611
-0.164742 0.207083 0.363519 -0.210274 0.971742 0.107247
0.255611 -0.288629 0.0755477 -0.979613 0.191218 -0.061596
-0.185929 0.0167488 0.336372 -0.0333114 0.0522299 0.998079
0.282234 -0.094785 0.0191305 0.620881 -0.0024406 0.783901
-0.0606931 0.217748 0.426865 -0.127265 0.987383 0.0942253
-0.162369 0.244474 0.568351 -0.258574 0.711359 -0.653535
0.168435 0.112316 0.31889 -0.00696731 -0.0527421 -0.998584
0.225412 0.241312 0.600391 0.270694 0.787886 -0.553137
-0.100654 -0.125196 0.344854 -0.00655731 0.0528139 0.998583
0.223137 -0.0147419 0.337592 0.0383576 0.0573974 0.997614
-0.0311581 0.227616 0.486526 -0.125864 0.985595 -0.112966
-0.0985902 0.20547 0.481189 0.127787 -0.985058 0.115461
0.226554 0.139105 0.328609 0.0383576 0.0573974 0.997614
-0.0492285 0.122828 0.319138 0.00304276 -0.0525532 -0.998614
-0.283203 -0.00815707 0.0166158 -0.925399 0.00364133 0.378977
0.138802 0.110321 0.319275 -0.011067 -0.0517541 -0.998599
-0.0659603 0.255962 0.558989 -0.0792704 0.692571 -0.716981
-0.084389 -0.0242916 0.339652 -0.00197215 0.0526852 0.998609
-0.247466 -0.146219 0.342881 -0.271636 0.0695021 0.959887
0.200941 0.198142 0.347978 0.324067 0.940525 0.101948
-0.254991 -0.281749 0.140312 0.664615 -0.743629 0.0728207
-0.113172 0.210661 0.513791 0.101337 -0.884126 0.456126
-0.211376 0.221659 0.562662 -0.248514 0.735447 -0.630364
-0.283741 -0.0891595 0.0160812 -0.925399 0.00364133 0.378977
0.211839 -0.228106 0.347834 -0.0254503 -0.119164 0.992548
0.174886 -0.00467184 0.324897 -0.0342782 -0.0519229 -0.998063
0.252548 0.172502 0.386482 0.449378 0.893148 0.0185977
-0.238125 0.165125 0.424748 0.418555 -0.908015 -0.0178967
0.270797 0.229047 0.120912 -0.717855 0.679824 0.150079
0.053948 0.0268404 0.337038 0.00326822 0.0525791 0.998611
0.0542879 0.0504485 0.335794 0.00326822 0.0525791 0.998611
-0.0422654 -0.0263015 0.327001 0.00195833 -0.0523332 -0.998628
-0.123336 0.21201 0.402385 -0.127265 0.987383 0.0942253
0.195763 -0.110251 0.329957 -0.0120916 -0.056108 -0.998352
-0.16269 0.0913908 0.332992 -0.00655731 0.0528139 0.998583
-0.0430531 0.0481212 0.323089 0.00304276 -0.0525532 -0.998614
-0.237108 -0.221809 0.34876 -0.0115013 0.0561662 0.998355
-0.112659 0.169199 0.316505 0.00304276 -0.0525532 -0.998614
0.0517938 0.255572 0.576524 -0.0901052 -0.735163 0.671876
-0.0153691 0.218627 0.311145 0.0706427 -0.993296 -0.091502
0.16418 0.204147 0.412727 0.149098 0.984334 0.0941065
-0.249552 -0.252916 0.336312 0.150797 -0.743835 0.65113
0.25513 0.186873 0.552849 -0.216908 -0.920315 0.325532
0.191468 0.187064 0.466157 -0.352114 -0.93434 0.0549933
-0.0100803 0.138752 0.331276 -0.00284307 0.0524247 0.998621
-0.239886 -0.123167 0.333314 0.725427 -0.0811613 -0.683497
-0.0118747 -0.078601 0.342682 -0.00284307 0.0524247 0.998621
0.0656816 -0.00729142 0.325871 -0.00238133 -0.0526365 -0.998611
0.109196 0.210139 0.313969 -0.0780649 -0.988274 -0.131229
-0.0231368 0.205963 0.327711 -0.00284307 0.0524247 0.998621
0.0946798 -0.241462 0.275254 -0.129976 -0.983038 0.129392
-0.22411 -0.2604 0.279088 0.191656 -0.973973 0.121013
-0.098506 0.223925 0.28827 -0.0465994 0.678778 -0.732864
0.251686 0.185151 0.509614 0.137582 0.933818 -0.330235
-0.257719 -0.259518 0.320298 -0.744886 -0.639366 0.190672
-0.184425 -0.0473884 0.339778 -0.0333114 0.0522299 0.998079
0.21699 0.178879 0.35399 -0.258215 -0.955314 -0.143874
-0.205182 0.190586 0.309871 0.252195 -0.962145 -0.103319
-0.135195 0.202493 0.503855 0.199415 -0.978231 0.0574187
0.206565 0.205787 0.563005 -0.291992 -0.774656 0.560936
0.0933224 0.214781 0.398249 0.105051 0.989942 0.0947542
0.149983 -0.248661 0.276114 -0.129859 -0.98303 0.129568
-0.013985 0.25624 0.552205 -0.100149 0.883797 -0.457026
-0.131694 -0.139968 0.332569 0.00647882 -0.0522315 -0.998614
0.0624462 -0.191589 0.335593 -0.00238133 -0.0526365 -0.998611
-0.140647 0.196085 0.448659 0.133865 -0.984262 0.115365
-0.0568665 -0.0456503 0.327982 0.00304276 -0.0525532 -0.998614
0.273978 -0.145219 0.0161956 -0.991255 0.00387705 0.131904
0.136345 0.141161 0.330646 0.0112039 0.0526391 0.998551
-0.170873 0.257285 0.606215 0.287749 -0.728236 0.621991
-0.112469 0.0141528 0.324633 0.00647882 -0.0522315 -0.998614
-0.0760318 0.21628 0.515745 0.116013 -0.894296 0.432175
0.145927 0.193595 0.321527 -0.252449 -0.936203 0.244526
0.0330429 0.208723 0.435558 -0.136624 -0.98389 0.115298
0.0701501 0.206836 0.371235 -0.10604 -0.990164 -0.0912723
0.152235 0.276229 0.602439 0.29491 0.917163 -0.268029
-0.135002 0.260219 0.574661 -0.258574 0.711359 -0.653535
-0.153907 -0.0986009 0.343098 -0.00655731 0.0528139 0.998583
0.251946 -0.273895 0.218481 -0.671108 -0.737803 0.072533
-0.277232 0.194395 0.020052 -0.13035 0.000508266 0.991468
0.248705 0.180068 0.529329 -0.216908 -0.920315 0.325532
-0.120339 -0.180403 0.334758 0.00647882 -0.0522315 -0.998614
0.00881418 0.114501 0.319678 -0.00343602 -0.052312 -0.998625
0.238175 0.242152 0.617276 0.434699 0.613791 -0.659013
-0.21976 -0.0683644 0.327945 0.0109273 -0.0527013 -0.998551
-0.076935 -0.0592206 0.328635 0.00304276 -0.0525532 -0.998614
-0.0506835 -0.08419 0.342879 -0.00197215 0.0526852 0.998609
0.00283754 -0.135463 0.332793 -0.00343602 -0.052312 -0.998625
-0.231744 0.223798 0.580767 -0.522839 0.701537 -0.484238
0.0608223 0.23002 0.510368 0.119765 0.881372 -0.45699
-0.183709 -0.1718 0.346561 -0.0115013 0.0561662 0.998355
0.183213 0.190678 0.35269 -0.237343 -0.965714 -0.105189
0.141201 0.206594 0.301363 -0.237343 -0.965714 -0.105189
-0.259499 0.157262 0.413887 -0.273157 -0.961958 0.00462818
0.256482 -0.243896 0.341486 0.969859 -0.0627183 0.235456
0.1607 0.135259 0.330683 0.0112039 0.0526391 0.998551
0.18799 -0.174413 0.346702 0.0112044 0.0526391 0.998551
0.248958 0.165073 0.464589 -0.429281 -0.885711 0.176731
-0.21054 0.179082 0.457217 0.345127 -0.935069 0.0808331
0.0186865 0.147578 0.317911 -0.00343602 -0.052312 -0.998625
0.220379 0.173601 0.396928 -0.352948 -0.934633 -0.0434649
-0.143956 0.051052 0.335248 -0.00655731 0.0528139 0.998583
-0.0840672 0.222105 0.347072 -0.0969447 0.987614 0.123368
0.0580251 -0.219248 0.342428 -0.020837 -0.46052 0.887405
-0.175113 0.158189 0.329331 -0.0333114 0.0522299 0.998079
0.171162 -0.227258 0.345249 -0.0972274 -0.458586 0.883315
-0.236378 0.195188 0.52209 -0.120217 0.910026 -0.396737
0.14517 -0.245492 0.29533 -0.129859 -0.98303 0.129568
-0.241723 0.179488 0.400547 -0.442011 0.896913 -0.0131498
0.189576 -0.203734 0.335285 -0.0120916 -0.056108 -0.998352
0.126063 0.215967 0.497079 0.134968 0.984375 -0.113088
-0.0984135 -0.240245 0.280715 0.12205 -0.984056 0.129377
0.224899 0.0918078 0.331394 0.0383576 0.0573974 0.997614
0.107568 0.216317 0.287778 -0.0233293 -0.302883 -0.952742
0.206145 0.180492 0.455577 -0.399651 -0.91324 0.0792008
-0.0383281 -0.184134 0.33528 0.00195833 -0.0523332 -0.998628
0.178204 -0.0994689 0.329715 -0.0342782 -0.0519229 -0.998063
-0.0960728 0.0391235 0.336284 -0.00197215 0.0526852 0.998609
0.177331 -0.0586491 0.340719 0.0112044 0.0526391 0.998551
0.137237 -0.137264 0.345228 0.0068972 0.0522113 0.998612
0.124073 -0.153312 0.346157 0.0068972 0.0522113 0.998612
0.104211 -0.074662 0.342183 0.0068972 0.0522113 0.998612
-0.122576 0.206168 0.327316 -0.0573017 0.231884 0.971054
0.112279 -0.206667 0.335494 0.0152215 0.115226 -0.993223
-0.124438 0.0443672 0.322975 0.00647882 -0.0522315 -0.998614
0.0677828 -0.0743176 0.329399 -0.00238133 -0.0526365 -0.998611
-0.0222525 -0.0253932 0.326993 0.00195833 -0.0523332 -0.998628
-0.146088 0.0675943 0.321575 0.0108825 -0.0527023 -0.998551
0.206237 0.183402 0.498506 -0.352114 -0.93434 0.0549933
-0.0640454 -0.0204702 0.326634 0.00304276 -0.0525532 -0.998614
-0.212936 -0.142287 0.331922 0.0109273 -0.0527013 -0.998551
0.180015 -0.144292 0.332061 -0.0120916 -0.056108 -0.998352
0.23925 0.0072841 0.323233 0.241236 -0.0414442 -0.969581
0.0634763 -0.173786 0.347559 0.00237118 0.0524043 0.998623
0.204297 0.25865 0.605148 0.464183 0.637235 -0.615196
-0.2647 -0.295094 0.0515734 -0.320063 -0.937602 0.135877
0.261803 0.184715 0.290847 -0.714917 0.690182 0.111998
-0.0786425 0.209456 0.493119 0.127787 -0.985058 0.115461
0.181815 0.206786 0.324357 0.236843 0.965695 0.106481
-0.215444 0.169711 0.327653 -0.153185 0.213286 0.964906
-0.213395 0.180436 0.485067 0.345127 -0.935069 0.0808331
-0.0362807 -0.0530472 0.341271 -0.00284307 0.0524247 0.998621
0.112424 0.204946 0.351154 -0.0780649 -0.988274 -0.131229
-0.201468 -0.0689351 0.328176 0.0109273 -0.0527013 -0.998551
-0.230971 0.240847 0.604761 -0.6043 0.65007 -0.460685
0.0891871 0.220198 0.346168 0.0776633 0.989273 0.12372
-0.0822027 0.239174 0.534151 -0.100149 0.883797 -0.457026
0.162597 0.0582884 0.33472 0.0112039 0.0526391 0.998551
0.0314105 -0.0424682 0.340744 0.00237118 0.0524043 0.998623
0.266746 0.166775 0.359787 0.964042 0.245097 0.102711
0.0974802 -0.148896 0.34611 0.0068972 0.0522113 0.998612
-0.134791 0.222329 0.293382 -0.228935 0.965966 0.120407
0.133757 0.200737 0.49283 -0.20519 -0.972067 0.113941
-0.114053 0.210637 0.314733 0.0978434 -0.986555 -0.130907
0.275766 0.0819125 0.0178472 -0.783198 0.00307275 0.621765
-0.103522 -0.103375 0.330838 0.00647882 -0.0522315 -0.998614
-0.161808 -0.154605 0.333131 0.0108825 -0.0527023 -0.998551
-0.185941 0.193132 0.333129 0.252195 -0.962145 -0.103319
0.201281 -0.0503893 0.340015 0.0112044 0.0526391 0.998551
0.19645 0.217198 0.548165 0.301164 0.894278 -0.331009
0.118166 0.146867 0.330504 0.0068972 0.0522113 0.998612
0.111076 0.107711 0.319701 -0.00238133 -0.0526365 -0.998611
-0.030327 0.210851 0.450914 0.129033 -0.985132 0.113423
0.233309 0.0231337 0.335022 0.0383576 0.0573974 0.997614
0.0300489 -0.133863 0.332628 -0.00238133 -0.0526365 -0.998611
0.0585677 0.0143224 0.324755 -0.00343602 -0.052312 -0.998625
-0.124191 -0.161185 0.333727 0.00647882 -0.0522315 -0.998614
0.240655 -0.134908 0.334139 -0.724399 -0.0754848 -0.685236
-0.084955 0.164331 0.32972 -0.00284307 0.0524247 0.998621
0.102213 -0.23685 0.317848 -0.129859 -0.98303 0.129568
0.0424195 -0.013309 0.326258 -0.00343602 -0.052312 -0.998625
-0.0487329 -0.123276 0.344945 -0.00197215 0.0526852 0.998609
0.0901161 -0.0850338 0.329911 -0.00238133 -0.0526365 -0.998611
-0.0434164 0.111852 0.332594 -0.00284307 0.0524247 0.998621
-0.14444 -0.163064 0.34657 -0.00655731 0.0528139 0.998583
0.0443943 0.0789938 0.334324 0.00326822 0.0525791 0.998611
-0.146031 0.209647 0.376973 -0.210274 0.971742 0.107247
0.177593 0.197736 0.300568 -0.237343 -0.965714 -0.105189
0.243475 -0.154764 0.344866 0.0383576 0.0573974 0.997614
0.240349 -0.264479 0.289723 -0.203645 -0.971595 0.120551
-0.0224329 -0.234248 0.294771 0.0370875 -0.990779 0.130312
-0.121825 0.190977 0.328202 -0.010569 0.0518808 0.998597
-0.108558 0.202607 0.384407 0.129326 -0.987365 -0.0915728
-0.0296082 0.094316 0.333554 -0.00284307 0.0524247 0.998621
-0.0319752 0.210322 0.3785 0.0986767 -0.994956 -0.0180158
0.0850692 -0.127439 0.332158 -0.00238133 -0.0526365 -0.998611
0.127621 0.116033 0.332051 0.0068972 0.0522113 0.998612
0.063335 -0.239763 0.268778 -0.0448097 -0.990459 0.130318
-0.117681 -0.0754501 0.329285 0.00647882 -0.0522315 -0.998614
0.140181 0.245365 0.561267 0.270392 0.727606 -0.630458
-0.051972 0.21235 0.488289 0.127787 -0.985058 0.115461
0.0585457 0.241547 0.561915 -0.109668 -0.894774 0.432843
0.177676 -0.130583 0.344507 0.0112044 0.0526391 0.998551
-0.0215158 0.210506 0.422167 0.129326 -0.987365 -0.0915728
-0.207554 0.0777395 0.332458 -0.0333114 0.0522299 0.998079
-0.0257781 0.114269 0.332517 -0.00284307 0.0524247 0.998621
0.22039 0.2041 0.536595 0.376184 0.8462 -0.3774
0.111657 0.0436815 0.335944 0.0068972 0.0522113 0.998612
0.0312097 -0.102605 0.3439 0.00237118 0.0524043 0.998623
-0.168018 0.14454 0.317275 0.0108825 -0.0527023 -0.998551
0.104076 0.229294 0.548353 -0.121392 -0.881605 0.456111
0.208511 0.195437 0.287256 -0.0791764 -0.291656 -0.953241
-0.0491984 0.17933 0.316165 0.00304276 -0.0525532 -0.998614
0.0425583 0.229795 0.298694 0.0776633 0.989273 0.12372
-0.0481436 0.0700091 0.321921 0.00304276 -0.0525532 -0.998614
-0.042054 0.292682 0.60167 -0.0565923 0.726079 0.685279
0.15801 -0.230023 0.322414 0.127121 0.962057 -0.241424
0.163514 -0.0577626 0.327908 -0.00696731 -0.0527421 -0.998584
-0.237223 0.172789 0.355252 0.43748 -0.874052 -0.21129
0.0386146 -0.0784324 0.342614 0.00237118 0.0524043 0.998623
0.117203 -0.0278961 0.326678 -0.011067 -0.0517541 -0.998599
-0.0388974 -0.229654 0.327229 0.0362439 -0.968249 0.247347
-0.0278015 0.161793 0.330016 -0.00284307 0.0524247 0.998621
0.0876473 0.222204 0.502325 0.119765 0.881372 -0.45699
0.00222166 0.22327 0.509862 -0.109668 -0.894774 0.432843
-0.0420805 0.210837 0.464162 0.129033 -0.985132 0.113423
-0.24273 -0.16185 0.345322 -0.0115013 0.0561662 0.998355
-0.0710278 0.0597069 0.335252 -0.00284307 0.0524247 0.998621
0.00489092 0.22649 0.444334 0.133582 0.984847 -0.110598
-0.215578 -0.0409138 0.338831 -0.0115013 0.0561662 0.998355
0.178336 0.206266 0.505137 0.204029 0.918139 -0.339695
0.0966387 -0.213965 0.332369 0.0607454 0.460732 -0.885458
0.244823 -0.254511 0.274059 0.200462 0.97214 -0.121482
-0.191866 -0.229595 0.330181 -0.152796 0.74677 -0.647293
-0.0901463 0.146276 0.330653 -0.00284307 0.0524247 0.998621
-0.0415062 0.217439 0.303858 0.0706427 -0.993296 -0.091502
-0.133583 -0.201901 0.335796 0.00647882 -0.0522315 -0.998614
0.119558 0.275543 0.595989 0.00312766 -0.289014 -0.95732
0.178162 -0.210449 0.348712 0.0112044 0.0526391 0.998551
0.0113592 -0.0130474 0.339247 0.00237118 0.0524043 0.998623
-0.230016 0.185076 0.470603 -0.476756 0.879007 0.00704503
0.209602 -0.126559 0.330706 -0.0120916 -0.056108 -0.998352
0.22759 0.169248 0.421018 -0.424322 -0.904533 -0.0420777
-0.218377 -0.171837 0.333422 0.0109273 -0.0527013 -0.998551
6.31472e-06 -0.0899391 0.330418 -0.00343602 -0.052312 -0.998625
-0.0347391 0.239975 0.553187 0.101337 -0.884126 0.456126
0.140354 0.208231 0.407755 0.149098 0.984334 0.0941065
-0.191213 0.186323 0.38369 0.345943 -0.93823 -0.00686347
-0.0733651 0.204743 0.446827 0.129033 -0.985132 0.113423
-0.0828269 -0.146639 0.333217 0.00304276 -0.0525532 -0.998614
0.101204 0.0673762 0.334749 0.00326822 0.0525791 0.998611
0.0937952 -0.0670598 0.328954 -0.00238133 -0.0526365 -0.998611
0.116939 -0.244697 0.273037 -0.129976 -0.983038 0.129392
-0.19614 0.000441387 0.324572 0.0109273 -0.0527013 -0.998551
-0.25509 -0.26485 0.292291 -0.304799 -0.942662 0.135961
-0.127706 0.0869933 0.320724 0.00647882 -0.0522315 -0.998614
0.203464 -0.179001 0.333727 -0.0120916 -0.056108 -0.998352
0.135869 0.0216966 0.323904 -0.00696731 -0.0527421 -0.998584
-0.025162 0.293325 0.602383 -0.0565923 0.726079 0.685279
-0.0804771 0.205282 0.391205 0.0986767 -0.994956 -0.0180158
0.0863347 -0.226179 0.284312 0.129866 0.982954 -0.130141
0.19066 -0.0721585 0.341281 0.0112044 0.0526391 0.998551
-0.0249581 0.285002 0.582507 -0.0792704 0.692571 -0.716981
-0.142981 -0.0360165 0.33986 -0.00655731 0.0528139 0.998583
0.247639 -0.250211 0.313108 0.200462 0.97214 -0.121482
0.204153 0.205101 0.522656 0.376184 0.8462 -0.3774
-0.0698541 -0.226492 0.268585 -0.0369524 0.990687 -0.131049
0.23208 -0.175063 0.346241 0.0112044 0.0526391 0.998551
0.210198 0.233416 0.581699 0.270694 0.787886 -0.553137
0.153547 0.191373 0.432439 -0.142532 -0.988084 0.0580969
0.108216 0.0804959 0.321142 -0.00238133 -0.0526365 -0.998611
0.00351262 -0.227061 0.330191 -0.0407464 -0.897763 0.43859
0.0762917 0.270298 0.594938 -0.115269 -0.686464 0.717969
-0.139949 0.213415 0.489563 -0.212876 0.975861 -0.0487653
0.0918086 0.0227923 0.324223 -0.00238133 -0.0526365 -0.998611
0.13135 0.165524 0.316496 -0.011067 -0.0517541 -0.998599
0.204426 0.103855 0.331488 0.0383576 0.0573974 0.997614
-0.205467 0.194718 0.437017 -0.296307 0.953903 -0.0476568
0.202348 0.175733 0.314847 -0.00166254 -0.014228 -0.999897
-0.20196 0.18606 0.501308 0.345127 -0.935069 0.0808331
-0.172373 -0.176405 0.334166 0.0109273 -0.0527013 -0.998551
-0.150254 0.224963 0.559778 0.302991 -0.893354 0.331836
-0.0645275 0.208251 0.467215 0.127787 -0.985058 0.115461
-0.101432 0.224394 0.315106 -0.0969447 0.987614 0.123368
0.0416787 -0.0942732 0.330513 -0.00238133 -0.0526365 -0.998611
0.141641 -0.0197052 0.339051 0.0068972 0.0522113 0.998612
-0.127832 -0.230324 0.285284 -0.12231 0.983952 -0.12992
0.0777563 0.0834534 0.33398 0.00326822 0.0525791 0.998611
-0.164136 0.195977 0.349123 0.200478 -0.973764 -0.107671
0.125547 -0.165161 0.333845 -0.00696731 -0.0527421 -0.998584
0.178948 0.223067 0.549955 0.308119 0.838981 -0.448524
0.259126 -0.278511 0.113544 -0.311274 0.940558 -0.135862
-0.219553 0.173943 0.422065 0.393627 -0.918283 -0.0425917
0.118698 0.199137 0.455255 -0.136624 -0.98389 0.115298
0.0162841 0.210864 0.410879 -0.137519 -0.990336 -0.0179568
-0.23078 0.0738622 0.330824 0.239127 0.0396628 0.970178
-0.0834209 -0.22023 0.318778 -0.11949 0.963183 -0.240835
-0.107771 0.0641322 0.322049 0.00647882 -0.0522315 -0.998614
-0.152909 0.151183 0.32994 -0.010569 0.0518808 0.998597
0.183499 -0.231184 0.328483 0.157464 0.73955 -0.654425
0.216938 0.155116 0.31514 -0.0342782 -0.0519229 -0.998063
-0.036473 0.271518 0.588168 0.0790068 -0.689303 0.720152
0.128704 0.200708 0.368488 -0.207482 -0.969718 -0.128836
-0.0301602 -0.198292 0.34857 0.00447059 -0.11943 0.992833
-0.146324 0.122985 0.318649 0.0108825 -0.0527023 -0.998551
0.024722 0.222753 0.396228 0.135705 0.990591 0.0177096
0.250838 -0.269767 0.25021 -0.671108 -0.737803 0.072533
-0.236699 0.19528 0.301623 -0.277813 0.951194 0.134347
0.0511455 -0.173402 0.334661 -0.00238133 -0.0526365 -0.998611
0.28122 0.139236 0.0198952 0.130269 -0.00051207 0.991479
0.0882454 0.239521 0.56385 -0.0901052 -0.735163 0.671876
0.0579052 0.239837 0.528795 0.108489 0.895021 -0.432628
-0.170474 0.213084 0.290519 -0.223044 0.940198 -0.257446
0.159471 -0.0342862 0.326696 -0.00696731 -0.0527421 -0.998584
0.206418 -0.00505666 0.337567 0.0112044 0.0526391 0.998551
-0.0857309 -0.00611173 0.338691 -0.00197215 0.0526852 0.998609
0.0332374 -0.201802 0.335335 0.00523056 0.115275 -0.99332
0.274768 0.233383 0.0740161 -0.250254 -0.928167 -0.275463
0.232526 0.189913 0.329256 0.447106 0.885689 0.125105
0.00807543 -0.206791 0.333344 0.0209178 0.461004 -0.887152
-0.016152 0.211715 0.388281 0.0986767 -0.994956 -0.0180158
0.158324 0.204049 0.443501 0.149678 0.9875 -0.0494051
0.13544 -0.0862937 0.342575 0.0068972 0.0522113 0.998612
0.199797 0.195196 0.40695 0.304546 0.95249 0.00378766
-0.155237 0.19782 0.493851 0.199415 -0.978231 0.0574187
-0.281765 -0.239389 0.0193589 -0.621325 0.0024252 0.783549
-0.14264 0.20625 0.305021 0.229167 -0.964939 -0.127968
-0.193611 0.0535267 0.321798 0.0109273 -0.0527013 -0.998551
0.00968414 -0.222689 0.281443 0.0448051 0.990362 -0.131055
0.234564 -0.214228 0.348278 0.0112044 0.0526391 0.998551
-0.269876 0.211059 0.159374 -0.264421 -0.931982 -0.247975
0.132111 0.0392482 0.336034 0.0068972 0.0522113 0.998612
0.0410009 0.149152 0.317752 -0.00343602 -0.052312 -0.998625
-0.0106271 -0.00970423 0.326194 0.00195833 -0.0523332 -0.998628
-0.191003 0.120268 0.330785 -0.0333114 0.0522299 0.998079
-0.176374 0.259302 0.591421 -0.287071 0.72147 -0.630136
0.186297 0.149236 0.316498 -0.0342782 -0.0519229 -0.998063
0.240501 0.0503683 0.328998 0.969888 0.0631379 0.235226
0.124827 0.0476011 0.32268 -0.011067 -0.0517541 -0.998599
0.250861 0.199829 0.548991 0.253011 0.885227 -0.390331
-0.0697384 -0.199421 0.335734 -0.004315 0.115312 -0.99332
-0.170614 -0.25148 0.266153 0.191656 -0.973973 0.121013
-0.176652 0.208059 0.33132 -0.210274 0.971742 0.107247
0.0473911 0.20667 0.403984 -0.137519 -0.990336 -0.0179568
0.123179 -0.0977702 0.330302 -0.00696731 -0.0527421 -0.998584
-0.254376 -0.263103 0.218423 0.303966 0.942929 -0.135972
0.284056 0.237542 0.0150437 0.758056 0.374743 -0.533779
-0.0845193 0.11295 0.319551 0.00304276 -0.0525532 -0.998614
0.146813 -0.00178768 0.338064 0.0112039 0.0526391 0.998551
-0.0199045 0.215867 0.482621 0.129033 -0.985132 0.113423
-0.195406 0.0869704 0.319967 0.0386572 -0.0577636 -0.997582
-0.209895 0.191 0.294515 0.252195 -0.962145 -0.103319
0.220383 -0.0717643 0.327496 -0.0120916 -0.056108 -0.998352
0.206701 0.192882 0.431806 0.304556 0.952467 0.00726958
0.0422772 0.226323 0.487997 0.133582 0.984847 -0.110598
0.212169 0.19217 0.367385 0.324067 0.940525 0.101948
-0.118085 0.145932 0.317704 0.00647882 -0.0522315 -0.998614
-0.239328 -0.0400109 0.338506 -0.0115013 0.0561662 0.998355
0.281856 0.156841 0.00954046 0.37686 -0.00147466 -0.926269
-0.172925 0.104488 0.332214 -0.0333114 0.0522299 0.998079
0.0973592 0.14574 0.317737 -0.00343602 -0.052312 -0.998625
-0.0728624 0.289531 0.602483 -0.0551726 0.718793 0.693031
-0.0621565 0.221638 0.523106 0.116013 -0.894296 0.432175
0.237585 0.200651 0.577874 -0.251374 -0.912497 0.322738
-0.198224 -0.183217 0.334243 0.0109273 -0.0527013 -0.998551
0.116131 -0.0545335 0.32807 -0.011067 -0.0517541 -0.998599
0.00444499 -0.190564 0.348579 0.00237118 0.0524043 0.998623
0.18661 0.104111 0.332035 0.0112044 0.0526391 0.998551
-0.149623 -0.246667 0.280265 0.1223 -0.983973 0.129766
-0.0551485 -0.0975992 0.330712 0.00195833 -0.0523332 -0.998628
-0.263758 -0.292999 0.0682511 -0.320063 -0.937602 0.135877
-0.103072 0.0810401 0.334058 -0.00197215 0.0526852 0.998609
-0.261023 0.20595 0.572825 -0.687303 0.686193 -0.238232
0.0230403 -0.0729482 0.342363 0.00237118 0.0524043 0.998623
-0.190676 0.19511 0.303148 0.252195 -0.962145 -0.103319
0.221693 -0.160846 0.332486 -0.0120916 -0.056108 -0.998352
0.235853 0.184475 0.355866 0.447106 0.885689 0.125105
0.157308 0.195006 0.36534 -0.207482 -0.969718 -0.128836
-0.108148 0.0332161 0.323664 0.00647882 -0.0522315 -0.998614
-0.241377 0.0151167 0.324402 -0.688632 0.000678587 -0.72511
0.148937 0.203998 0.518428 -0.190238 -0.920005 0.342638
-0.163062 -0.1296 0.331798 0.0108825 -0.0527023 -0.998551
-0.0394037 -0.0439752 0.327933 0.00195833 -0.0523332 -0.998628
-0.233021 0.190349 0.344144 -0.277813 0.951194 0.134347
-0.145425 0.20888 0.453337 -0.141443 0.983507 -0.112727
0.0927479 0.00158055 0.338241 0.00326822 0.0525791 0.998611
0.0480383 -0.130442 0.332404 -0.00238133 -0.0526365 -0.998611
0.112488 0.211992 0.406144 0.105051 0.989942 0.0947542
-0.0407261 -0.22227 0.292295 -0.0369524 0.990687 -0.131049
0.0534897 0.106482 0.319944 -0.00343602 -0.052312 -0.998625
0.0139931 0.282066 0.578828 0.11437 0.689832 -0.714879
0.181498 -0.0282014 0.325894 -0.0342782 -0.0519229 -0.998063
-0.275405 0.15492 0.00965004 0.618577 -0.00244333 -0.78572
-0.117294 -0.0945836 0.330289 0.00647882 -0.0522315 -0.998614
0.196881 -0.240444 0.306253 0.204363 0.970426 -0.128486
0.210035 0.17668 0.426534 -0.400901 -0.916096 -0.00689055
0.117 0.213672 0.521597 -0.121392 -0.881605 0.456111
-0.250982 0.168584 0.48651 0.231185 -0.955447 0.183505
0.162372 -0.0783557 0.341926 0.0112039 0.0526391 0.998551
0.0609064 -0.0331081 0.327243 -0.00238133 -0.0526365 -0.998611
-0.195274 -0.124256 0.343753 -0.0115013 0.0561662 0.998355
0.193786 0.0869466 0.332859 0.0112044 0.0526391 0.998551
0.216203 -0.0377187 0.325633 -0.0120916 -0.056108 -0.998352
-0.228772 0.132686 0.327924 0.241814 0.0394862 0.969519
-0.0908985 0.286468 0.602794 -0.0557891 0.721159 0.690519
-0.0907396 -0.205315 0.348077 0.014829 -0.119436 0.992731
0.0663266 0.220773 0.363798 0.105156 0.990844 0.0846739
0.0548282 0.205214 0.431428 -0.136624 -0.98389 0.115298
0.232936 0.129724 0.316428 0.241236 -0.0414442 -0.969581
-0.0639579 0.000695616 0.325521 0.00304276 -0.0525532 -0.998614
0.0170404 0.268705 0.566423 0.11437 0.689832 -0.714879
0.101745 0.275371 0.598148 -0.109843 -0.963103 -0.245698
0.00995121 0.218894 0.495969 -0.135526 -0.984258 0.113443
-0.019933 0.105568 0.320134 0.00195833 -0.0523332 -0.998628
-0.0872513 0.213808 0.307958 0.0706427 -0.993296 -0.091502
0.160709 0.0439109 0.322557 -0.00696731 -0.0527421 -0.998584
-0.0976798 0.246156 0.551044 -0.100149 0.883797 -0.457026
0.098876 -0.238625 0.301027 -0.129976 -0.983038 0.129392
0.110338 0.0333102 0.323581 -0.011067 -0.0517541 -0.998599
0.0974156 0.205328 0.357205 -0.0780649 -0.988274 -0.131229
-0.265452 0.205173 0.181757 0.24143 -0.930497 -0.275476
-0.170358 0.192498 0.369 0.200478 -0.973764 -0.107671
-0.149691 0.266879 0.607106 0.287628 -0.920835 0.263313
-0.0464309 -0.151458 0.333552 0.00195833 -0.0523332 -0.998628
-0.126272 -0.0565433 0.328241 0.00647882 -0.0522315 -0.998614
-0.0749646 -0.116366 0.331648 0.00304276 -0.0525532 -0.998614
-0.0239652 -0.224231 0.272743 -0.0369524 0.990687 -0.131049
0.179305 0.188525 0.383167 -0.209182 -0.977849 -0.0073592
-0.118819 0.215771 0.370471 -0.0969447 0.987614 0.123368
0.261014 0.167038 0.436812 0.254929 0.94949 -0.182976
-0.26362 0.171134 0.32222 -0.723677 -0.681128 -0.111162
-0.193448 0.221928 0.555841 -0.288531 0.875886 -0.386747
-0.0457721 0.14117 0.318184 0.00304276 -0.0525532 -0.998614
-0.164214 0.190958 0.40867 0.134761 -0.990852 -0.00723964
-0.0535228 0.0787884 0.334301 -0.00284307 0.0524247 0.998621
0.195239 -0.139086 0.331584 -0.0120916 -0.056108 -0.998352
0.156847 0.242493 0.5651 0.270392 0.727606 -0.630458
-0.168163 0.202984 0.420133 -0.14227 0.989819 0.00415869
-0.213372 0.191793 0.422065 -0.296763 0.954846 -0.0141782
-0.175549 0.130307 0.317944 0.0109273 -0.0527013 -0.998551
0.21809 -0.256535 0.316153 -0.203645 -0.971595 0.120551
-0.153514 0.0504199 0.3224 0.0108825 -0.0527023 -0.998551
-0.0142562 -0.219185 0.340697 0.027999 -0.747636 0.663518
