0.096801 -0.00874987 0.432884 0.000570011 -0.0948639 -0.99549
0.0262421 -0.19057 0.455902 0.00102487 -0.169866 0.985467
0.0533299 0.207484 0.665954 -0.118581 -0.964688 0.235191
0.0475383 0.22286 0.726101 -0.118581 -0.964688 0.235191
0.184175 0.18173 0.683128 0.923169 -0.334919 0.188646
0.202846 -0.215645 0.157412 0.660839 -0.749589 0.0375137
0.0892804 0.0192645 0.43021 0.000570011 -0.0948639 -0.99549
-0.120952 0.0901143 0.431309 -0.000572879 0.0948459 0.995492
0.207638 -0.214714 0.0721378 0.833629 -0.55101 0.0380755
0.0675443 0.152877 0.425433 -0.000586651 0.0969976 0.995284
0.187069 -0.207862 0.0896417 -0.991815 0.122747 -0.0351624
0.181995 0.204488 0.238682 -0.998322 0.0461984 -0.0349218
0.197147 -0.223632 0.44032 0.00384284 -0.637554 0.770396
-0.115642 0.201082 0.659704 -0.296811 0.928569 -0.222854
0.207215 -0.218821 0.0134468 0.481929 -0.875608 0.0324614
-0.0456566 -0.152101 0.446463 0.000570011 -0.0948639 -0.99549
0.00168245 -0.0541629 0.445126 -0.00056988 0.0948417 0.995492
-0.20712 0.196281 0.175918 -0.997707 -0.0579773 0.0349075
-0.164784 0.181266 0.64028 -0.325845 0.922321 -0.207724
-0.177114 -0.197189 0.4222 0.901574 -0.373371 0.218539
0.178018 0.163251 0.585193 -0.0531214 -0.968576 0.242977
-0.16799 0.183011 0.6912 0.381911 -0.902921 0.197172
-0.162501 0.154457 0.553258 0.0293429 -0.209615 -0.977344
0.192288 -0.0172871 0.441674 0.997937 0.0639521 -0.00556149
-0.20887 0.21623 0.0388138 -0.747051 0.66361 0.0391982
-0.0765465 0.0888516 0.431455 -0.000572879 0.0948459 0.995492
-0.175093 0.203746 0.566131 0.948777 0.314668 -0.0283806
0.0592874 0.20312 0.617362 0.118494 0.964704 -0.235172
0.109767 0.217832 0.754439 -0.285997 -0.931952 0.222868
0.20051 -0.198123 0.187346 0.648351 0.761314 0.00647691
-0.0604962 0.0715016 0.425146 0.000572774 -0.0948677 -0.99549
0.171678 0.19628 0.522774 -0.99835 0.0455823 -0.034919
0.14261 0.189665 0.674895 -0.34137 -0.916578 0.208211
-0.0509943 0.201101 0.640103 0.130275 -0.963183 0.235176
-0.124881 -0.0172848 0.441539 -0.000572879 0.0948459 0.995492
0.197416 -0.200468 0.00786578 -0.256965 0.966014 -0.0280427
-0.197742 0.177834 0.413214 -0.997696 -0.0581795 0.0349084
-0.185354 -0.0775363 0.434085 -0.993649 0.106771 0.035512
-0.0247096 0.135903 0.41904 0.000565021 -0.0941946 -0.995554
0.0673883 0.237232 0.761376 0.118494 0.964704 -0.235172
-0.132339 0.190687 0.671621 0.243998 -0.945355 0.21626
-0.00902674 0.207752 0.655365 0.045905 -0.969869 0.239261
0.139873 0.188341 0.627844 0.23284 0.948181 -0.21619
0.195787 -0.147828 0.45416 -0.00056988 0.0948417 0.995492
0.042215 0.230892 0.722682 0.118494 0.964704 -0.235172
0.157935 -0.158544 0.45516 -0.00056988 0.0948417 0.995492
0.202737 0.201888 0.209676 0.998311 -0.0464454 0.0348957
-0.171688 0.108399 0.429542 -0.000567522 0.0945739 0.995518
-0.173543 0.156205 0.500995 0.997676 0.058527 -0.0348908
-0.106834 0.183845 0.611662 0.297234 -0.928425 0.222886
-0.184486 0.101945 0.430145 -0.000572879 0.0948459 0.995492
-0.0841024 0.183269 0.590121 0.15942 -0.960837 0.226666
-0.201455 0.169369 0.292916 -0.997676 -0.0585178 0.0348919
-0.101973 0.102043 0.422213 0.000555602 -0.0920236 -0.995757
0.0899092 -0.200731 0.453411 0.00202318 -0.33629 0.941756
0.193429 -0.218745 0.0583581 -0.448055 -0.894005 0.00141517
0.207186 0.200757 0.0808837 0.998311 -0.0464454 0.0348957
-0.0220017 0.24635 0.781135 -0.0456772 0.969872 -0.239293
0.175734 0.153483 0.564831 -0.313078 -0.926692 0.207901
-0.184763 0.137894 0.523089 -0.187535 -0.954067 0.233638
-0.0410411 0.185175 0.572832 0.0742906 -0.967606 0.241289
0.0843924 0.217866 0.731346 -0.208984 -0.948851 0.236659
0.172476 -0.173145 0.448574 0.000477952 -0.0795427 -0.996831
0.181132 0.21177 0.440834 -0.212219 0.977162 0.0108691
-0.0331092 0.138481 0.418791 0.000565021 -0.0941946 -0.995554
-0.147287 0.114776 0.428952 -0.000565325 0.0941968 0.995553
-0.2003 -0.207174 0.435414 -0.929564 -0.366579 0.0391347
-0.0655105 0.0794531 0.424386 0.000572774 -0.0948677 -0.99549
0.0826416 0.0678142 0.433551 -0.000572879 0.0948459 0.995492
-0.176847 0.191947 0.46627 0.997697 0.0581603 -0.0349086
-0.137761 0.188096 0.666413 0.243998 -0.945355 0.21626
-0.204281 -0.125001 0.447209 -0.998635 0.0520305 -0.0045248
0.0111786 0.0274675 0.437354 -0.000572879 0.0948459 0.995492
0.0818576 0.0804458 0.432347 -0.000572879 0.0948459 0.995492
-0.11344 -0.238807 0.407501 -0.00565747 0.938792 -0.344437
0.0909964 -0.203421 0.443962 -0.0025041 0.41645 -0.909155
0.0261723 0.0264933 0.429485 0.000572774 -0.0948677 -0.99549
0.195679 0.13843 0.32752 0.998322 -0.0462147 0.0348935
0.183134 0.178551 0.171854 -0.998304 0.046611 -0.0348691
-0.0783431 -0.0806021 0.439631 0.000572774 -0.0948677 -0.99549
0.1564 -0.186383 0.448411 -0.000482405 0.0799905 -0.996795
-0.193588 0.183697 0.541719 -0.997696 -0.0581795 0.0349084
0.172413 0.139696 0.42687 -0.998304 0.046611 -0.0348691
-0.17643 0.152195 0.551041 0.0194274 0.245717 0.969147
0.163988 0.1964 0.739266 -0.371319 -0.907337 0.197135
-0.00214183 -0.0480291 0.436571 0.000570011 -0.0948639 -0.99549
0.205006 -0.218697 0.441765 0.998203 0.0501032 0.0328842
-0.173153 0.20099 0.600259 0.948052 0.316852 -0.0283289
0.156072 0.213081 0.762012 0.341286 0.916622 -0.208153
-0.0232072 0.184912 0.566284 0.0742906 -0.967606 0.241289
0.183017 0.110409 0.42181 0.949126 0.313437 -0.0302749
0.148313 -0.0239712 0.442333 -0.00056988 0.0948417 0.995492
0.0512176 0.212217 0.684303 -0.118581 -0.964688 0.235191
-0.203399 0.192283 0.275621 -0.997696 -0.0581795 0.0349084
0.00303501 -0.0381439 0.4436 -0.00056988 0.0948417 0.995492
-0.0696887 0.177232 0.554396 0.15942 -0.960837 0.226666
-0.195711 0.151039 0.426403 -0.997676 -0.0585178 0.0348919
0.183109 -0.0359687 0.435528 0.000570011 -0.0948639 -0.99549
-0.131727 -0.225183 0.440676 0.00382975 -0.637031 0.770829
-0.016476 -0.066544 0.446295 -0.00056988 0.0948417 0.995492
0.140645 0.0140242 0.430739 0.000570011 -0.0948639 -0.99549
-0.181935 0.188008 0.314286 0.997697 0.0581603 -0.0349086
0.123647 -0.160221 0.447334 0.000570011 -0.0948639 -0.99549
0.158935 0.0712559 0.412332 0.559821 -0.0146732 -0.828484
0.0742591 0.200795 0.653954 -0.208984 -0.948851 0.236659
-0.166236 0.0359324 0.41358 -0.164293 -0.0785664 -0.983278
-0.190128 -0.163297 0.447447 0.000570011 -0.0948639 -0.99549
-0.186636 0.140748 0.236981 0.305838 -0.933681 -0.186287
-0.142554 0.111235 0.421328 0.000567654 -0.0945851 -0.995517
-0.102406 -0.219781 0.434723 -0.00384098 0.637242 -0.770654
0.182172 -0.0672981 0.438513 0.000570011 -0.0948639 -0.99549
0.0800257 0.153685 0.422475 0.161074 0.982489 -0.0936478
-0.207338 -0.212571 0.217674 -0.929564 -0.366579 0.0391347
0.154541 -0.00251265 0.436652 -0.396063 0.0423582 0.917246
0.0984876 0.078253 0.432565 -0.000572879 0.0948459 0.995492
0.188737 0.202201 0.0429029 -0.998322 0.0461984 -0.0349218
-0.180714 0.179534 0.335044 0.997697 0.0581603 -0.0349086
0.190065 0.198914 0.000593836 -0.998322 0.0461984 -0.0349218
0.182984 -0.207632 0.212609 -0.989885 -0.138337 -0.031483
0.143988 -0.0152274 0.433529 0.000570011 -0.0948639 -0.99549
-0.158684 -0.109256 0.442316 0.000572774 -0.0948677 -0.99549
0.0590934 0.125596 0.428027 -0.000559903 0.0929361 0.995672
-0.192606 0.204285 0.0363935 0.997699 0.0581132 -0.0349084
0.182619 -0.22934 0.435063 0.00422527 -0.702412 0.711758
-0.152113 0.0160585 0.438347 -0.000572879 0.0948459 0.995492
0.118008 0.0986242 0.422664 0.000572774 -0.0948677 -0.99549
-0.192864 -0.21728 0.341106 -0.00824005 -0.999781 0.0192437
0.0690812 0.180555 0.565661 -0.147864 -0.962689 0.226642
0.0873262 0.189807 0.616863 -0.147864 -0.962689 0.226642
0.197649 -0.197142 0.332374 0.823885 0.566484 0.0176043
-0.197015 0.179333 0.0265541 0.305838 -0.933681 -0.186287
-0.201691 0.164576 0.278128 -0.997676 -0.0585178 0.0348919
-0.206721 0.210391 0.177329 -0.978467 0.202682 0.0390281
-0.203708 0.172676 0.234054 -0.997676 -0.0585178 0.0348919
-0.209847 0.203175 0.109441 -0.997707 -0.0579773 0.0349075
-0.168256 -0.202223 0.453433 0.00202318 -0.33629 0.941756
0.170019 0.154005 0.558549 -0.313078 -0.926692 0.207901
0.169381 0.157835 0.537925 -0.998304 0.046611 -0.0348691
-0.197564 0.186761 0.433206 -0.997696 -0.0581795 0.0349084
0.0430441 -0.0507938 0.444828 -0.00056988 0.0948417 0.995492
-0.173503 0.173269 0.530706 0.997697 0.0581603 -0.0349086
0.20049 0.205122 0.278269 0.998311 -0.0464454 0.0348957
-0.190242 0.190791 0.0815127 0.997697 0.0581603 -0.0349086
0.165568 0.0490321 0.435388 -0.00056988 0.0948417 0.995492
-0.12831 0.0557794 0.434576 -0.000572879 0.0948459 0.995492
-0.0483287 0.234177 0.774091 0.130275 -0.963183 0.235176
-0.188369 0.209475 0.490181 -0.316043 0.948304 0.0289325
0.149392 0.0955924 0.422971 0.000572774 -0.0948677 -0.99549
-0.189357 -0.107489 0.442129 0.000572774 -0.0948677 -0.99549
-0.202012 0.203275 0.332291 -0.978745 0.201335 0.0390221
0.0595114 -0.162469 0.447511 0.000570011 -0.0948639 -0.99549
0.095187 -0.000403687 0.440057 -0.00056988 0.0948417 0.995492
-0.181086 -0.0747924 0.442997 -0.526575 0.135894 0.839197
0.0682758 0.0204294 0.438057 -0.00056988 0.0948417 0.995492
-0.198336 0.205646 0.41221 -0.978467 0.202682 0.0390281
0.191271 0.172227 0.498376 0.998323 -0.0461926 0.0348946
-0.175116 0.151505 0.562401 0.324696 -0.922711 0.207792
0.136324 0.11397 0.416301 -0.965909 -0.133713 -0.221676
-0.20013 0.193176 0.370551 -0.997696 -0.0581795 0.0349084
-0.17228 0.14982 0.526434 0.997714 0.0579358 -0.0347742
-0.178568 -0.0653817 0.443053 -0.526575 0.135894 0.839197
-0.183031 0.203248 0.308334 0.997699 0.0581132 -0.0349084
-0.182564 0.146715 0.239716 0.976993 -0.197235 -0.0811342
0.120153 0.193848 0.630755 0.23284 0.948181 -0.21619
0.192213 0.217282 0.0360614 -0.67267 0.739873 -0.0101203
0.0478265 0.0691842 0.425429 0.000572774 -0.0948677 -0.99549
0.189331 -0.197232 0.199982 -0.46185 0.886382 -0.0319809
-0.197078 -0.216454 0.4471 0.00297948 -0.49479 0.869007
-0.191546 0.196504 0.621422 -0.997707 -0.0579773 0.0349075
-0.0303823 0.21874 0.671259 -0.0744889 0.967575 -0.241351
0.17699 0.160997 0.575983 -0.0531479 -0.968578 0.242965
-0.101868 -0.0736134 0.446919 -0.000572879 0.0948459 0.995492
0.151982 -0.043449 0.444191 -0.00056988 0.0948417 0.995492
-0.154622 0.166389 0.596447 0.325137 -0.922564 0.207752
0.00681822 0.242394 0.762282 0.034041 0.970349 -0.239298
-0.143881 0.196766 0.712696 0.352743 -0.912272 0.208162
0.112286 -0.0973471 0.449303 -0.00056988 0.0948417 0.995492
-0.0417886 0.106002 0.421881 0.000550555 -0.0917462 -0.995782
-0.187273 -0.214765 0.264974 0.819691 -0.572556 -0.0169205
-0.182131 0.187918 0.308543 0.997697 0.0581603 -0.0349086
-0.0467132 0.0995787 0.43045 -0.000572879 0.0948459 0.995492
-0.153736 0.0527535 0.426879 0.000572774 -0.0948677 -0.99549
0.0753238 0.194688 0.629764 -0.147864 -0.962689 0.226642
0.16418 -0.146502 0.44605 0.000570011 -0.0948639 -0.99549
-0.00228385 0.227019 0.732653 -0.0103654 -0.970088 0.242531
0.202652 0.207015 0.21893 0.998311 -0.0464454 0.0348957
-0.0903781 0.0403214 0.436071 -0.000572879 0.0948459 0.995492
-0.158639 -0.1497 0.44617 0.000570011 -0.0948639 -0.99549
-0.0137906 0.246791 0.781353 -0.0456772 0.969872 -0.239293
-0.0442975 0.23615 0.779939 0.130275 -0.963183 0.235176
-0.197772 0.155884 0.375621 -0.997676 -0.0585178 0.0348919
-0.203065 0.191915 0.00990718 0 0 1
0.0440003 -0.241997 0.418051 0.00543303 -0.904161 0.427157
0.0152389 -0.22864 0.436748 0.00422527 -0.702412 0.711758
-0.192835 0.137066 0.249854 -0.209208 -0.963299 -0.168186
-0.199347 0.156194 0.331098 -0.997676 -0.0585178 0.0348919
0.100224 0.0518931 0.435078 -0.000572879 0.0948459 0.995492
0.203194 -0.217709 0.10313 0.481929 -0.875608 0.0324614
-0.0416683 0.222059 0.688045 -0.0744889 0.967575 -0.241351
-0.0952177 0.0885247 0.423504 0.000572774 -0.0948677 -0.99549
0.0897055 0.0855715 0.431863 -0.000572879 0.0948459 0.995492
0.190896 0.126793 0.440382 0.950053 -0.297804 0.0933408
-0.0505189 0.034606 0.436638 -0.000572879 0.0948459 0.995492
-0.0198778 0.123466 0.420229 0.000576844 -0.0956416 -0.995416
0.120679 -0.0600195 0.445752 -0.00056988 0.0948417 0.995492
-0.107827 -0.00286622 0.440175 -0.000572879 0.0948459 0.995492
-0.16366 -0.0340327 0.439375 0.739989 -0.011715 0.672517
-0.182536 -0.189631 0.416048 0.442645 0.722345 -0.531304
-0.210876 0.183616 0.00616146 -0.798476 -0.602026 0
-0.197045 0.200582 0.470772 -0.978745 0.201335 0.0390221
0.133713 0.174718 0.561457 0.23284 0.948181 -0.21619
-0.202821 -0.205438 0.368466 -0.993491 0.10935 0.0319232
-0.197055 0.167206 0.415092 -0.997676 -0.0585178 0.0348919
-0.0918099 0.174358 0.557771 0.15942 -0.960837 0.226666
-0.16735 0.179507 0.636472 -0.324349 0.922818 -0.207857
0.206009 -0.21969 0.00790106 0.481929 -0.875608 0.0324614
0.0197214 0.23551 0.769359 -0.0341175 -0.970356 0.239258
-0.0111062 -0.0810542 0.44768 -0.00056988 0.0948417 0.995492
0.203866 -0.21854 0.0707392 0.481929 -0.875608 0.0324614
-0.117535 0.214073 0.751846 0.297234 -0.928425 0.222886
0.176016 0.154629 0.343669 -0.998304 0.046611 -0.0348691
0.177296 -0.0821956 0.439929 0.000570011 -0.0948639 -0.99549
-0.19621 0.215815 0.0423434 0.663967 0.747693 -0.010126
-0.2033 0.193158 0.279922 -0.997696 -0.0581795 0.0349084
-0.105611 0.205681 0.700985 0.297234 -0.928425 0.222886
-0.201751 0.161448 0.271165 -0.997676 -0.0585178 0.0348919
0.023766 0.02995 0.429155 0.000572774 -0.0948677 -0.99549
0.169866 -0.0586961 0.422832 0.164728 -0.076645 -0.983357
-0.199619 -0.0360536 0.440941 -0.998635 0.0520305 -0.0045248
0.182169 -0.211637 0.420449 0.254889 0.966291 0.0362234
0.200858 -0.198866 0.237666 0.823885 0.566484 0.0176043
0.160273 -0.202944 0.45247 0.00202169 -0.336221 0.941781
-0.0876526 -0.047521 0.444441 -0.000572879 0.0948459 0.995492
0.179873 -0.130547 0.444538 0.000570011 -0.0948639 -0.99549
0.202984 -0.201205 0.21343 0.823885 0.566484 0.0176043
-0.179337 -0.0867877 0.446037 -0.526575 0.135894 0.839197
-0.20619 0.171985 0.072025 -0.669209 -0.735602 -0.105116
0.131894 -0.125966 0.444074 0.000570011 -0.0948639 -0.99549
0.193022 0.18618 0.466774 0.998323 -0.0461926 0.0348946
0.181776 0.183678 0.217607 -0.998304 0.046611 -0.0348691
0.192949 0.16235 0.123124 -0.29698 -0.936537 -0.186284
-0.0589447 -0.135226 0.444848 0.000570011 -0.0948639 -0.99549
0.19606 0.186507 0.000590352 0 0 -1
-0.115387 0.0127087 0.438687 -0.000572879 0.0948459 0.995492
-0.0908537 0.204594 0.650335 -0.160025 0.960749 -0.226613
-0.18017 0.1768 0.346053 0.997697 0.0581603 -0.0349086
-0.0793338 0.182629 0.584058 0.15942 -0.960837 0.226666
0.0518404 -0.134149 0.452775 -0.00056988 0.0948417 0.995492
-0.208567 0.18898 0.122432 -0.997696 -0.0581795 0.0349084
-0.178436 0.195633 0.426981 0.997699 0.0581132 -0.0349084
-0.0166696 -0.049719 0.444692 -0.00056988 0.0948417 0.995492
0.196644 -0.203991 0.452018 0.00202169 -0.336221 0.941781
0.180545 0.18398 0.673058 0.371166 0.907383 -0.197209
-0.0866822 -0.112335 0.44265 0.000570011 -0.0948639 -0.99549
-0.195715 0.139713 0.238279 -0.209618 -0.963215 -0.168157
-0.193873 0.118831 0.407193 -0.948112 -0.316138 0.033758
-0.147669 -0.226866 0.439364 0.00384284 -0.637554 0.770396
0.0440222 -0.238966 0.402461 -0.00593591 0.984174 -0.177108
0.134708 -0.0870625 0.448336 -0.00056988 0.0948417 0.995492
-0.194597 0.166194 0.483686 -0.997676 -0.0585178 0.0348919
-0.156955 0.0619763 0.433969 -0.000572879 0.0948459 0.995492
-0.197943 0.202254 0.439607 -0.978745 0.201335 0.0390221
0.195407 -0.19607 0.402803 0.823885 0.566484 0.0176043
0.103649 -0.190925 0.447719 -0.00100994 0.167465 -0.985878
0.0728764 -0.244718 0.411334 0.00565333 -0.938962 0.343975
0.062143 0.152238 0.41754 0.000586735 -0.0970064 -0.995284
-0.200722 0.167528 0.310785 -0.997676 -0.0585178 0.0348919
-0.184814 0.175649 0.211329 0.997676 0.058527 -0.0348908
-0.186196 0.210014 0.467516 0.202394 0.979245 0.0107988
-0.164358 -0.029285 0.420687 0.358776 -0.126644 -0.924793
-0.0536553 0.150824 0.425561 -0.000575964 0.0955977 0.99542
0.0223058 0.231935 0.722074 0.034041 0.970349 -0.239298
-0.101882 -0.237204 0.427515 0.00489915 -0.815871 0.578213
-0.0962049 0.0125427 0.438714 -0.000572879 0.0948459 0.995492
0.195561 0.14723 0.342539 0.998322 -0.0462147 0.0348935
-0.182606 0.175371 0.274007 0.997676 0.058527 -0.0348908
0.133719 -0.0124665 0.441229 -0.00056988 0.0948417 0.995492
-0.132462 0.00936337 0.438996 -0.000572879 0.0948459 0.995492
0.131441 -0.0720036 0.438932 0.000570011 -0.0948639 -0.99549
0.0560835 -0.160449 0.447317 0.000570011 -0.0948639 -0.99549
-0.134924 0.0949255 0.422871 0.000572774 -0.0948677 -0.99549
-0.170304 0.176727 0.642999 0.0646406 -0.9679 0.242883
0.179755 0.190137 0.283819 -0.99835 0.0455823 -0.034919
0.0105144 -0.126034 0.444011 0.000570011 -0.0948639 -0.99549
0.155053 -0.0447291 0.430419 -0.965909 -0.133713 -0.221676
-0.073816 0.221714 0.739028 0.220106 -0.946337 0.236641
-0.00229222 0.196046 0.608766 -0.0103654 -0.970088 0.242531
0.175863 0.208042 0.673159 -0.216139 0.976303 0.0107384
-0.150466 0.0627519 0.426463 0.773268 -0.0197895 0.63377
-0.0702322 0.20227 0.657939 0.220106 -0.946337 0.236641
0.131175 0.179762 0.617502 -0.23276 -0.948183 0.216269
0.195079 -0.196063 0.417931 0.823885 0.566484 0.0176043
-0.120046 0.145151 0.42423 -0.258263 0.961716 -0.0916618
-0.0785689 -0.182394 0.448816 3.65471e-05 -0.00607695 -0.999982
-0.121221 -0.145001 0.445743 0.000570011 -0.0948639 -0.99549
0.0566272 0.223863 0.7348 -0.118581 -0.964688 0.235191
0.209056 -0.210759 0.0700859 0.99433 -0.100488 0.0347902
0.180091 -0.228002 0.424394 -0.00489544 0.815276 -0.579052
-0.205247 -0.163017 0.447412 0.000572774 -0.0948677 -0.99549
-0.0354183 0.233756 0.765917 0.0742906 -0.967606 0.241289
-0.187256 0.173331 0.137624 0.997676 0.058527 -0.0348908
0.0147783 -0.166135 0.455801 -0.00056988 0.0948417 0.995492
-0.0744376 0.198623 0.647264 0.220106 -0.946337 0.236641
0.163765 0.184819 0.686483 -0.313078 -0.926692 0.207901
-0.204324 0.185537 0.237939 -0.997696 -0.0581795 0.0349084
-0.0190557 0.233133 0.760172 0.045905 -0.969869 0.239261
0.154495 -0.130208 0.444492 0.000570011 -0.0948639 -0.99549
0.203083 -0.199818 0.0454869 0.220303 0.975356 -0.0121218
-0.0497836 0.132837 0.419316 0.000567899 -0.0942494 -0.995549
0.169472 0.175346 0.652851 -0.313078 -0.926692 0.207901
-0.203628 -0.200243 0.221507 -0.658178 0.752834 0.00654841
0.0229752 0.196652 0.579864 0.0630095 0.968387 -0.241365
0.127083 0.0859705 0.423875 0.000572774 -0.0948677 -0.99549
-0.132355 0.173269 0.595501 0.243998 -0.945355 0.21626
-0.0684774 0.130591 0.427488 -0.000572237 0.0949717 0.99548
-0.185632 0.204471 0.23604 0.997699 0.0581132 -0.0349084
-0.210077 0.186395 0.0749306 -0.997676 -0.0585178 0.0348919
-0.192387 0.14997 0.519678 -0.997676 -0.0585178 0.0348919
0.180503 0.209826 0.576671 0.0478775 0.99864 0.0206214
0.0447114 0.205461 0.620881 0.0630095 0.968387 -0.241365
0.051677 -0.210096 0.449726 0.00249739 -0.415829 0.909439
-0.179433 0.137899 0.301868 0.997676 0.058527 -0.0348908
0.0212607 0.239895 0.754202 0.034041 0.970349 -0.239298
0.165683 0.184694 0.650709 0.313249 0.926649 -0.207836
0.171883 0.18379 0.500614 -0.99835 0.0455823 -0.034919
-0.0159819 -0.0612078 0.445787 -0.00056988 0.0948417 0.995492
-0.19872 0.142917 0.326764 -0.997676 -0.0585178 0.0348919
0.202486 0.182164 0.0191555 0.219055 -0.961082 -0.168331
0.178171 -0.239139 0.40143 0.00108305 -0.179892 -0.983686
0.190885 -0.174072 0.434175 0.904187 0.300602 -0.303454
-0.16649 -0.173192 0.448404 0.000570011 -0.0948639 -0.99549
-0.19415 0.142475 0.456697 -0.997676 -0.0585178 0.0348919
0.180222 0.0539614 0.426956 0.000570011 -0.0948639 -0.99549
-0.0462542 -0.0099472 0.432916 0.000572774 -0.0948677 -0.99549
0.176204 0.176753 0.367861 -0.998304 0.046611 -0.0348691
-0.0246525 -0.134226 0.452738 -0.00056988 0.0948417 0.995492
-0.191464 0.200478 0.611281 -0.978745 0.201335 0.0390221
0.0806142 0.232505 0.781606 0.135048 0.200392 0.970363
-0.178989 0.198415 0.415811 0.997699 0.0581132 -0.0349084
0.0755225 0.192472 0.620482 -0.147864 -0.962689 0.226642
-0.115683 -0.0660349 0.446189 -0.000572879 0.0948459 0.995492
0.211272 0.19583 0 0 0 -1
0.187911 0.205566 0.0709867 -0.998322 0.0461984 -0.0349218
-0.17723 0.167684 0.414833 0.997676 0.058527 -0.0348908
-0.142308 0.17472 0.576436 -0.244181 0.945331 -0.216159
0.188156 0.125684 0.322956 0.220677 -0.960731 -0.168216
-0.192983 -0.00956486 0.432795 0.000572774 -0.0948677 -0.99549
0.195704 0.147571 0.20784 0.219055 -0.961082 -0.168331
0.193291 -0.211155 0.41546 0.660839 -0.749589 0.0375137
-0.00613675 0.0863814 0.42376 0.000572774 -0.0948677 -0.99549
0.191335 -0.179943 0.429676 0.904724 0.301064 -0.301387
0.137956 0.185635 0.650547 -0.23276 -0.948183 0.216269
-0.183959 0.208957 0.52143 0.202394 0.979245 0.0107988
0.0312627 -0.087007 0.448272 -0.00056988 0.0948417 0.995492
0.137077 -0.0302882 0.442929 -0.00056988 0.0948417 0.995492
0.0373545 -0.220115 0.443803 0.00341407 -0.567888 0.823099
0.0475859 0.218617 0.675037 0.118494 0.964704 -0.235172
-0.0952731 -0.115536 0.44295 0.000570011 -0.0948639 -0.99549
-0.174863 0.16418 0.476649 0.997676 0.058527 -0.0348908
0.192637 0.158108 0.440596 0.998322 -0.0462147 0.0348935
-0.0366861 -0.0996105 0.441466 0.000570011 -0.0948639 -0.99549
0.0888481 0.225161 0.764528 -0.208984 -0.948851 0.236659
0.142136 -0.233472 0.430584 0.00457867 -0.7625 0.646972
-0.0335691 -0.00236429 0.432201 0.000572774 -0.0948677 -0.99549
0.145865 -0.213797 0.447438 0.00297441 -0.495256 0.868742
-0.003166 0.194022 0.600635 -0.0103654 -0.970088 0.242531
0.187459 0.200687 0.0774381 -0.998322 0.0461984 -0.0349218
-0.186688 -0.197792 0.339879 0.45218 0.891352 -0.0320192
-0.186583 0.15854 0.162649 0.976087 -0.201399 -0.0818089
-0.138612 -0.0253959 0.434335 0.000572774 -0.0948677 -0.99549
-0.200581 0.195502 0.361534 -0.997707 -0.0579773 0.0349075
0.011055 -0.179403 0.456734 -3.17952e-05 0.00528465 0.999986
0.128557 0.0394049 0.428314 0.000570011 -0.0948639 -0.99549
-0.185881 0.19923 0.220189 0.997699 0.0581132 -0.0349084
-0.135736 -0.141443 0.445396 0.000570011 -0.0948639 -0.99549
0.124109 0.20192 0.706308 -0.285997 -0.931952 0.222868
-0.204963 0.201121 0.245614 -0.997707 -0.0579773 0.0349075
-0.138785 0.211715 0.734248 -0.244181 0.945331 -0.216159
0.049576 -0.0783063 0.439486 0.000570011 -0.0948639 -0.99549
0.118234 -0.0822606 0.439902 0.000570011 -0.0948639 -0.99549
-0.0665117 0.180136 0.564471 0.15942 -0.960837 0.226666
0.168733 -0.037953 0.421026 0.164728 -0.076645 -0.983357
0.0579112 0.114088 0.421169 0.000577547 -0.0962334 -0.995359
0.189696 0.142747 0.503499 0.950053 -0.297804 0.0933408
-0.00805365 0.0596488 0.426306 0.000572774 -0.0948677 -0.99549
-0.162753 0.106324 0.429745 -0.000565426 0.0942247 0.995551
0.196908 -0.203659 0.436383 -0.953458 0.298028 0.0457978
-0.198468 -0.209261 0.412484 0.950196 0.308308 0.0455498
-0.0191909 0.0957687 0.422857 0.000572774 -0.0948677 -0.99549
0.114042 0.0359326 0.428636 0.000570011 -0.0948639 -0.99549
-0.170046 -0.135378 0.441494 0.975183 -0.0823605 0.20551
-0.0554245 0.0449578 0.435649 -0.000572879 0.0948459 0.995492
0.144498 -0.174807 0.448693 0.000477952 -0.0795427 -0.996831
0.202224 0.18154 0.197367 0.998322 -0.0462147 0.0348935
0.0029795 0.23843 0.778816 -0.0341175 -0.970356 0.239258
0.0259134 0.133366 0.419309 0.000567899 -0.0942494 -0.995549
-0.17098 0.190655 0.731994 0.381911 -0.902921 0.197172
0.167871 -0.0471004 0.444548 -0.00056988 0.0948417 0.995492
0.115457 -0.0583258 0.437619 0.000570011 -0.0948639 -0.99549
-0.137938 0.17623 0.614743 0.243998 -0.945355 0.21626
0.193324 0.148686 0.198368 0.220677 -0.960731 -0.168216
-0.184731 0.20944 0.324544 0.666033 0.745852 -0.0102166
0.172026 -0.00376907 0.440422 -0.00056988 0.0948417 0.995492
0.174287 0.0564941 0.434682 -0.00056988 0.0948417 0.995492
-0.172398 0.169129 0.5554 0.997697 0.0581603 -0.0349086
-0.197077 0.128709 0.318557 -0.951047 -0.308752 -0.0134466
0.118944 -0.0366655 0.435557 0.000570011 -0.0948639 -0.99549
0.0539344 -0.125424 0.451945 -0.00056988 0.0948417 0.995492
-0.192512 0.214142 0.211534 0.202813 0.979158 0.0107848
-0.15962 -0.224624 0.430617 -0.00423675 0.704341 -0.709849
-0.0575869 0.232202 0.771131 0.130275 -0.963183 0.235176
0.0554886 0.190899 0.599016 -0.118581 -0.964688 0.235191
-0.184849 -0.21139 0.290865 0.939106 -0.342786 -0.0240363
-0.197815 -0.220731 0.15968 -0.00824005 -0.999781 0.0192437
0.095829 0.0545983 0.426847 0.000572774 -0.0948677 -0.99549
0.00278915 -0.220667 0.443566 0.00341407 -0.567888 0.823099
0.0550919 0.217029 0.672305 0.118494 0.964704 -0.235172
0.192977 0.17528 0.453626 0.998323 -0.0461926 0.0348946
0.042761 0.00367182 0.439639 -0.000572879 0.0948459 0.995492
0.193383 0.175349 0.442108 0.998323 -0.0461926 0.0348946
-0.108373 0.195216 0.661078 0.297234 -0.928425 0.222886
-0.091663 -0.0269805 0.434513 0.000572774 -0.0948677 -0.99549
-0.188785 -0.196897 0.335188 0.45218 0.891352 -0.0320192
-0.142149 0.178031 0.627653 0.352743 -0.912272 0.208162
0.100079 -0.223464 0.430217 -0.00424255 0.703866 -0.71032
-0.182455 0.185114 0.679657 0.0646764 -0.967899 0.242876
0.0471327 0.232965 0.733664 0.118494 0.964704 -0.235172
-0.194355 -0.181656 0.440971 -0.926212 -0.092587 0.365458
-0.197437 -0.221399 0.0139965 0.456074 -0.88994 0.00152426
0.0334072 -0.139047 0.445265 0.000570011 -0.0948639 -0.99549
0.0340373 0.206759 0.656144 -0.0626087 -0.96843 0.241294
0.128755 0.187283 0.611229 0.23284 0.948181 -0.21619
-0.0379062 0.0255469 0.437509 -0.000572879 0.0948459 0.995492
-0.169161 0.0624253 0.415842 -0.876178 0.0454489 -0.479839
-0.112079 0.176837 0.588219 0.243998 -0.945355 0.21626
-0.111157 0.196062 0.632815 -0.296811 0.928569 -0.222854
-0.169784 -0.0275 0.419281 -0.111471 -0.0838803 -0.990221
0.17819 0.116188 0.378729 -0.29698 -0.936537 -0.186284
-0.117779 0.0165765 0.430348 0.000572774 -0.0948677 -0.99549
-0.0594083 0.0581726 0.426417 0.000572774 -0.0948677 -0.99549
-0.19815 0.158704 0.132536 -0.209208 -0.963299 -0.168186
0.192397 -0.0194189 0.436796 0.997937 0.0639173 -0.00608423
-0.198715 0.134566 0.312887 -0.997676 -0.0585178 0.0348919
0.00383994 0.205557 0.613753 -0.0204532 0.969916 -0.242578
0.0722764 0.222377 0.738731 -0.208984 -0.948851 0.236659
-0.0693481 -0.0839955 0.447927 -0.00056988 0.0948417 0.995492
-0.056279 -0.166899 0.455833 -0.00056988 0.0948417 0.995492
0.194798 0.190916 0.422224 0.998323 -0.0461926 0.0348946
0.0858272 0.22971 0.780097 -0.208984 -0.948851 0.236659
-0.193612 0.187815 0.547891 -0.997696 -0.0581795 0.0349084
-0.0520458 0.223076 0.696949 -0.130049 0.963221 -0.235143
-0.0794925 -0.000683106 0.432014 0.000572774 -0.0948677 -0.99549
0.201136 0.175442 0.0557793 0.219055 -0.961082 -0.168331
0.135856 0.129802 0.409606 -0.748683 -0.149562 -0.645836
0.18861 0.174873 0.578025 0.998323 -0.0461926 0.0348946
-0.0238238 -0.063023 0.445955 -0.00056988 0.0948417 0.995492
0.0352621 0.188696 0.583968 -0.0626087 -0.96843 0.241294
0.106741 -0.0747139 0.439176 0.000570011 -0.0948639 -0.99549
0.196158 -0.220061 0.0625872 -0.242045 -0.9702 0.0112829
-0.169991 0.200235 0.715441 0.926629 0.304664 0.220315
0.191806 0.147882 0.450842 0.998322 -0.0462147 0.0348935
0.199242 0.179313 0.279711 0.998322 -0.0462147 0.0348935
-0.167663 -0.213515 0.448672 0.00297948 -0.49479 0.869007
-0.137957 -0.203133 0.444634 -0.00201652 0.335361 -0.942087
-0.182326 0.154877 0.247642 0.997676 0.058527 -0.0348908
0.109297 -0.0259392 0.43453 0.000570011 -0.0948639 -0.99549
0.172361 0.0166389 0.438478 -0.00056988 0.0948417 0.995492
0.0886564 0.208907 0.663946 0.148136 0.962657 -0.2266
0.186145 0.0776405 0.431027 0.997937 0.0639173 -0.00608423
-0.186084 0.165426 0.157858 0.997676 0.058527 -0.0348908
0.203373 -0.200013 0.122906 0.648351 0.761314 0.00647691
0.145181 0.0379194 0.423581 -0.965909 -0.133713 -0.221676
0.180428 0.178388 0.687311 -0.370465 -0.907656 0.197272
-0.200804 0.175347 0.321561 -0.997676 -0.0585178 0.0348919
0.107003 -0.104371 0.449969 -0.00056988 0.0948417 0.995492
-0.143418 -0.173015 0.456366 -0.00056988 0.0948417 0.995492
-0.190216 0.053639 0.434744 -0.000572879 0.0948459 0.995492
0.118003 0.209823 0.696002 0.28541 0.932135 -0.222856
0.177397 0.141998 0.533714 -0.301046 -0.928749 0.216326
0.147302 0.120991 0.428524 -0.000592588 0.0982033 0.995166
0.0994329 -0.238276 0.424155 0.00517646 -0.862246 0.506463
-0.191519 -0.13773 0.442585 -0.993649 0.106771 0.035512
0.165377 0.199387 0.711348 -0.951946 0.304951 -0.0283609
0.155958 -0.157713 0.455079 -0.00056988 0.0948417 0.995492
0.11229 0.0353248 0.428693 0.000570011 -0.0948639 -0.99549
0.182454 -0.0510342 0.444931 -0.00056988 0.0948417 0.995492
-0.1638 0.0437267 0.412574 -0.111471 -0.0838803 -0.990221
-0.0838879 0.0947904 0.430885 -0.000572879 0.0948459 0.995492
-0.182218 0.161102 0.261175 0.997676 0.058527 -0.0348908
-0.158614 -0.113345 0.450672 -0.000572879 0.0948459 0.995492
-0.192162 -0.165723 0.447677 0.000570011 -0.0948639 -0.99549
0.197238 -0.241606 0.41693 0.00543303 -0.904161 0.427157
0.0211526 0.216705 0.693295 -0.0341175 -0.970356 0.239258
-0.0148745 0.23088 0.750238 0.045905 -0.969869 0.239261
-0.200922 -0.20256 0.417723 -0.993491 0.10935 0.0319232
-0.127085 0.128791 0.419655 0.000567899 -0.0942494 -0.995549
-0.180912 -0.104569 0.449823 -0.000572879 0.0948459 0.995492
-0.174141 0.12565 0.433664 0.98017 -0.196456 0.0259412
0.0631808 0.115702 0.421017 0.000579897 -0.0959591 -0.995385
-0.18272 -0.194885 0.40674 0.459129 0.818889 -0.344415
-0.209893 0.204874 0.110954 -0.997707 -0.0579773 0.0349075
0.197685 0.156753 0.294385 0.998322 -0.0462147 0.0348935
-0.0231314 -0.232023 0.433461 0.00458457 -0.762143 0.647392
0.0685646 0.228912 0.728274 0.208332 0.948999 -0.236639
0.192878 0.161456 0.12783 -0.0410393 -0.982147 -0.183582
-0.170597 0.177384 0.670481 0.381911 -0.902921 0.197172
-0.0266354 0.14127 0.426493 -0.000569379 0.0949173 0.995485
-0.183287 0.144944 0.235442 0.976087 -0.201399 -0.0818089
0.21039 0.197763 0.00990718 0 0 1
-0.164273 -0.213023 0.439815 -0.00298802 0.496222 -0.868191
0.0446502 0.194106 0.608113 -0.0626087 -0.96843 0.241294
0.194281 0.218815 0.0107053 -0.67267 0.739873 -0.0101203
0.127763 0.219597 0.74938 0.28541 0.932135 -0.222856
0.09396 -0.0313768 0.443008 -0.00056988 0.0948417 0.995492
-0.202673 0.194427 0.299943 -0.997707 -0.0579773 0.0349075
-0.0547643 0.0864133 0.423729 0.000572774 -0.0948677 -0.99549
0.0676815 0.205098 0.631993 0.208332 0.948999 -0.236639
0.158475 -0.0531947 0.439358 -0.772128 -0.0288884 0.63481
-0.125284 0.188462 0.617303 -0.244181 0.945331 -0.216159
-0.167929 -0.0736012 0.44688 -0.000572879 0.0948459 0.995492
0.0940562 0.211496 0.713378 -0.147864 -0.962689 0.226642
0.0612336 0.00253514 0.431789 0.000570011 -0.0948639 -0.99549
-0.001571 0.132736 0.419353 0.000567899 -0.0942494 -0.995549
0.121877 -0.144323 0.445818 0.000570011 -0.0948639 -0.99549
-0.0294847 0.00448431 0.43952 -0.000572879 0.0948459 0.995492
0.186098 0.214768 0.258701 -0.67267 0.739873 -0.0101203
-0.00575931 -0.0132966 0.433259 0.000572774 -0.0948677 -0.99549
-0.193079 0.123183 0.330097 -0.668698 -0.736052 -0.105214
0.172245 -0.023699 0.423936 0.876499 0.0562609 -0.478105
-0.0664083 -0.0229543 0.442113 -0.000572879 0.0948459 0.995492
0.0630468 0.192041 0.608955 -0.208984 -0.948851 0.236659
-0.159387 0.178764 0.620706 -0.325845 0.922321 -0.207724
0.00744617 0.158917 0.416865 0.000523436 -0.0883478 -0.99609
-0.153032 0.184763 0.63737 -0.325845 0.922321 -0.207724
-0.0318708 -0.232195 0.420205 -0.00520293 0.863209 -0.50482
0.143396 0.0905156 0.423452 0.000572774 -0.0948677 -0.99549
0.0979918 0.221793 0.759097 -0.208984 -0.948851 0.236659
0.178772 0.171933 0.287903 -0.998304 0.046611 -0.0348691
0.205333 0.213996 0.111446 0.738263 0.673373 0.0392
-0.167109 0.0533747 0.434783 -0.000572879 0.0948459 0.995492
-0.212654 0.21068 0.000590352 0 0 -1
0.101922 -0.21333 0.438585 -0.00342004 0.566379 -0.824138
0.00265008 0.22358 0.685915 -0.0204532 0.969916 -0.242578
-0.0393309 0.00473852 0.431521 0.000572774 -0.0948677 -0.99549
-0.192639 -0.218361 0.130109 0.674245 -0.738471 -0.00732264
-0.169159 0.195022 0.70827 -0.38154 0.903064 -0.197238
-0.0460422 -0.0403482 0.435814 0.000572774 -0.0948677 -0.99549
0.204605 0.199272 0.152731 0.998311 -0.0464454 0.0348957
-0.11958 0.22169 0.750818 -0.296811 0.928569 -0.222854
0.0807952 -0.190897 0.447747 -0.00100923 0.167563 -0.985861
-0.12407 0.0791527 0.424381 0.000572774 -0.0948677 -0.99549
0.0186524 0.239411 0.751871 0.034041 0.970349 -0.239298
0.165104 -0.069094 0.444288 -0.396063 0.0423582 0.917246
-0.1941 0.069011 0.431484 -0.998632 0.0519108 -0.00632496
-0.193954 0.202593 0.537914 -0.978745 0.201335 0.0390221
0.106681 0.197332 0.629252 0.28541 0.932135 -0.222856
0.164724 0.166669 0.568896 0.313249 0.926649 -0.207836
0.185165 0.21315 0.395983 -0.216139 0.976303 0.0107384
-0.141191 0.167677 0.581026 0.243998 -0.945355 0.21626
-0.0960294 -0.243744 0.40197 0.00108342 -0.179868 -0.98369
0.17474 0.133797 0.352374 -0.998304 0.046611 -0.0348691
0.0332114 0.0818162 0.424217 0.000572774 -0.0948677 -0.99549
-0.138397 0.171619 0.558457 -0.244181 0.945331 -0.216159
-0.166351 -0.189421 0.448251 -0.00100923 0.167563 -0.985861
-0.19503 0.179284 0.493152 -0.997696 -0.0581795 0.0349084
0.163339 0.0814995 0.424322 0.000570011 -0.0948639 -0.99549
-0.0255206 0.183298 0.560524 0.0742906 -0.967606 0.241289
0.0542473 -0.0764934 0.439316 0.000570011 -0.0948639 -0.99549
-0.0854654 0.0791866 0.4244 0.000572774 -0.0948677 -0.99549
0.176218 0.190586 0.735528 -0.370465 -0.907656 0.197272
0.203365 -0.204794 0.24154 0.992287 0.119786 0.031916
0.160157 0.0226026 0.429933 0.000570011 -0.0948639 -0.99549
-0.165323 0.106624 0.41302 -0.876178 0.0454489 -0.479839
-0.00141768 0.237746 0.742873 0.00899248 0.970091 -0.242577
-0.20486 0.192872 0.234857 -0.997696 -0.0581795 0.0349084
0.124184 0.181357 0.616971 -0.23276 -0.948183 0.216269
0.115693 0.169197 0.554519 -0.23276 -0.948183 0.216269
0.145521 0.0396139 0.426075 -0.963155 -0.0871948 0.254418
0.00274132 0.137445 0.418909 0.000565021 -0.0941946 -0.995554
-0.194997 0.215041 0.064743 0.663967 0.747693 -0.010126
-0.0144832 -0.243752 0.402061 0.00108342 -0.179868 -0.98369
0.1945 0.215795 0.240876 0.30146 0.953042 0.0288598
0.0672877 0.0778407 0.424616 0.000572774 -0.0948677 -0.99549
-0.157059 0.186243 0.688428 0.325137 -0.922564 0.207752
0.0623138 -0.0692007 0.446593 -0.00056988 0.0948417 0.995492
0.19877 0.19633 0.315757 0.998311 -0.0464454 0.0348957
0.168532 0.174192 0.583895 -0.99835 0.0455823 -0.034919
0.0402662 0.239036 0.755109 0.118494 0.964704 -0.235172
0.0413711 0.187335 0.547288 0.0630095 0.968387 -0.241365
0.137429 0.213105 0.73382 0.23284 0.948181 -0.21619
-0.186188 0.211172 0.362198 0.202813 0.979158 0.0107848
0.145999 -0.159466 0.447275 0.000570011 -0.0948639 -0.99549
-0.170153 -0.00551455 0.417546 -0.164293 -0.0785664 -0.983278
-0.0340836 0.219374 0.707832 0.0742906 -0.967606 0.241289
0.0810673 0.199958 0.620968 0.148136 0.962657 -0.2266
-0.0274499 0.0669735 0.425597 0.000572774 -0.0948677 -0.99549
0.198112 0.192724 0.329792 0.998323 -0.0461926 0.0348946
0.192866 0.145101 0.416832 0.998322 -0.0462147 0.0348935
-0.200596 0.169879 0.318335 -0.997676 -0.0585178 0.0348919
0.152509 0.193514 0.708071 -0.34137 -0.916578 0.208211
0.191697 0.119261 0.377432 0.679406 -0.726238 -0.104814
-0.0248724 0.199777 0.62641 0.0742906 -0.967606 0.241289
0.177243 0.163721 0.32071 -0.998304 0.046611 -0.0348691
0.019103 -0.00629763 0.432606 0.000572774 -0.0948677 -0.99549
0.182639 0.172284 0.663378 -0.370465 -0.907656 0.197272
0.178064 -0.197174 0.409168 -0.821591 0.568808 -0.0380375
-0.177188 0.196523 0.464148 0.997699 0.0581132 -0.0349084
-0.138715 0.0774963 0.42453 0.000572774 -0.0948677 -0.99549
-0.188954 -0.211347 0.147497 0.991048 -0.129758 -0.0314191
0.0540467 -0.11286 0.442781 0.000570011 -0.0948639 -0.99549
0.186294 -0.21093 0.12303 -0.989885 -0.138337 -0.031483
-0.210272 0.216059 0.0150009 -0.747051 0.66361 0.0391982
-0.0723289 0.154516 0.417238 0.000590961 -0.0977051 -0.995215
0.169341 0.20474 0.639821 -0.673439 0.739173 -0.0101543
0.061367 -0.155312 0.446831 0.000570011 -0.0948639 -0.99549
-0.15711 0.113003 0.421149 0.000577547 -0.0962334 -0.995359
0.0863984 -0.0210679 0.434052 0.000570011 -0.0948639 -0.99549
0.188834 0.202218 0.592259 0.975779 0.215246 0.0390451
-0.00964293 -0.06659 0.438335 0.000570011 -0.0948639 -0.99549
0.128714 -0.196315 0.446393 -0.00152624 0.253402 -0.96736
-0.00787714 -0.208206 0.450753 0.00249926 -0.415645 0.909524
0.190087 0.206346 0.0098015 -0.998322 0.0461984 -0.0349218
0.0996314 0.0284721 0.429339 0.000570011 -0.0948639 -0.99549
0.177186 0.178845 0.342528 -0.99835 0.0455823 -0.034919
0.168764 0.0123109 0.438888 -0.00056988 0.0948417 0.995492
0.175296 0.121487 0.367344 -0.73324 -0.662189 -0.154484
0.00275578 0.067527 0.433532 -0.000572879 0.0948459 0.995492
-0.126257 -0.0141253 0.441238 -0.000572879 0.0948459 0.995492
-0.189861 0.168523 0.103077 0.741747 -0.652668 -0.154388
-0.123228 0.194309 0.640553 -0.244181 0.945331 -0.216159
-0.176266 0.169736 0.607009 -0.324349 0.922818 -0.207857
-0.0990864 -0.23411 0.417625 -0.00520293 0.863209 -0.50482
0.0473237 0.189865 0.558989 0.0630095 0.968387 -0.241365
-0.0529718 0.109364 0.421557 0.000567654 -0.0945851 -0.995517
-0.113734 0.168277 0.551235 0.0162488 -0.228269 -0.973463
0.201335 0.219512 0.0466617 0.304884 0.95195 0.0289386
-0.108659 -0.243703 0.416387 0.00544137 -0.90381 0.427899
0.0408308 0.185924 0.574286 -0.0626087 -0.96843 0.241294
0.0758371 0.237054 0.767329 0.208332 0.948999 -0.236639
0.180763 -0.160064 0.455317 -0.00056988 0.0948417 0.995492
-0.0468961 0.196606 0.620476 0.0742906 -0.967606 0.241289
-0.201812 -0.18457 0.448729 -0.000480456 0.0798888 -0.996804
-0.17425 0.130804 0.438232 0.997714 0.0579358 -0.0347742
-0.0282948 -0.223784 0.441318 0.00382975 -0.637031 0.770829
0.0438075 -0.178962 0.4488 3.6505e-05 -0.00608279 -0.999981
0.0596247 0.130101 0.427608 -0.000572237 0.0949717 0.99548
0.192833 0.183272 0.46833 0.998323 -0.0461926 0.0348946
0.174381 0.17543 0.418271 -0.99835 0.0455823 -0.034919
0.141113 0.0547414 0.426859 0.000570011 -0.0948639 -0.99549
-0.148239 0.0552086 0.426648 0.000572774 -0.0948677 -0.99549
-0.000555485 -0.148966 0.454156 -0.00056988 0.0948417 0.995492
0.198523 0.196539 0.323115 0.998311 -0.0464454 0.0348957
0.159915 0.0435571 0.435906 -0.00056988 0.0948417 0.995492
0.149622 0.17009 0.599468 -0.31412 -0.926361 0.207808
-0.104511 0.225497 0.7486 -0.160025 0.960749 -0.226613
0.0941892 0.174569 0.556617 -0.147864 -0.962689 0.226642
0.186849 0.183476 0.639786 0.998323 -0.0461926 0.0348946
0.209067 -0.216566 0.0140505 0.833629 -0.55101 0.0380755
-0.200671 0.155393 0.154638 -0.209618 -0.963215 -0.168157
0.137592 -0.101415 0.449705 -0.00056988 0.0948417 0.995492
-0.0414904 -0.0549519 0.445176 -0.000572879 0.0948459 0.995492
-0.204245 -0.124134 0.449136 -0.998635 0.0520305 -0.0045248
0.0914476 -0.148512 0.4462 0.000570011 -0.0948639 -0.99549
-0.183391 0.179526 0.258515 0.997676 0.058527 -0.0348908
0.0542462 -0.0795989 0.439611 0.000570011 -0.0948639 -0.99549
-0.0568538 0.231705 0.768692 0.130275 -0.963183 0.235176
0.181858 0.16832 0.194709 -0.998304 0.046611 -0.0348691
0.171166 0.148499 0.546581 -0.722971 -0.675365 0.145584
-0.208411 -0.202862 0.0419344 -0.658178 0.752834 0.00654841
0.205127 -0.217439 0.436455 0.997283 0.0572732 0.0463301
-0.194263 -0.206954 0.0309712 0.937656 0.345371 -0.0390001
0.00935568 0.161192 0.424143 -0.00623111 0.995468 -0.0948974
-0.178073 -0.013911 0.425032 -0.900394 0.0517266 -0.43199
-0.162499 -0.19573 0.447006 -0.00152564 0.253481 -0.967339
0.171905 0.171261 0.483599 -0.998304 0.046611 -0.0348691
-0.157499 -0.195671 0.455201 0.00152267 -0.252905 0.96749
-0.101479 0.180543 0.590788 0.15942 -0.960837 0.226666
-0.0685367 -0.000676125 0.439989 -0.000572879 0.0948459 0.995492
0.144944 0.0769712 0.428538 -0.738761 -0.0203782 0.673659
0.131932 0.175669 0.563712 0.23284 0.948181 -0.21619
-0.108788 -0.167573 0.447901 0.000570011 -0.0948639 -0.99549
-0.0968883 0.073376 0.432918 -0.000572879 0.0948459 0.995492
-0.169705 0.186946 0.66204 0.997697 0.0581603 -0.0349086
-0.121769 0.20426 0.716618 0.297234 -0.928425 0.222886
-0.14923 -0.167284 0.455816 -0.00056988 0.0948417 0.995492
-0.02918 0.229011 0.71223 -0.0456772 0.969872 -0.239293
-0.19416 0.148835 0.18553 0.0589532 -0.981203 -0.183754
-0.0362886 -0.24322 0.416488 0.00544137 -0.90381 0.427899
0.0934621 0.220137 0.714796 0.148136 0.962657 -0.2266
-0.191904 0.209015 0.466663 -0.314012 0.948979 0.0288856
0.0117254 -0.138907 0.445239 0.000570011 -0.0948639 -0.99549
0.168441 -0.218784 0.434196 -0.00384544 0.636828 -0.770996
-0.159243 0.0261427 0.429412 0.000572774 -0.0948677 -0.99549
-0.0885837 -0.067122 0.446308 -0.000572879 0.0948459 0.995492
0.196761 -0.200351 0.0178854 -0.256965 0.966014 -0.0280427
0.151768 0.0205981 0.434315 -0.738761 -0.0203782 0.673659
0.206741 0.192465 0.0825896 0.998323 -0.0461926 0.0348946
0.188776 0.167675 0.105378 -0.73324 -0.662189 -0.154484
0.199183 -0.124183 0.449625 0.997937 0.0639521 -0.00556149
-0.177606 0.175015 0.673208 0.381988 -0.902891 0.197163
0.16238 0.0420348 0.436053 -0.00056988 0.0948417 0.995492
-0.206896 -0.221309 0.0706187 -0.469765 -0.882195 0.0324412
-0.170696 0.0333713 0.431835 -0.569226 0.13841 0.810447
-0.153473 0.175764 0.598105 -0.325845 0.922321 -0.207724
-0.180188 -0.157599 0.44691 0.000570011 -0.0948639 -0.99549
0.0161751 -0.0502034 0.436788 0.000570011 -0.0948639 -0.99549
0.155185 0.181259 0.619505 0.314644 0.926205 -0.207713
-0.0435374 0.202905 0.6447 0.0742906 -0.967606 0.241289
0.175137 0.128768 0.346519 -0.974045 -0.211169 -0.081512
-0.079249 -0.0825352 0.447782 -0.000572879 0.0948459 0.995492
-0.200079 0.17527 0.342155 -0.997676 -0.0585178 0.0348919
-0.0586423 0.0725286 0.42505 0.000572774 -0.0948677 -0.99549
0.19579 0.184689 0.385589 0.998323 -0.0461926 0.0348946
-0.180646 0.195428 0.36347 0.997699 0.0581132 -0.0349084
-0.119097 -0.155829 0.454742 -0.00056988 0.0948417 0.995492
0.00854242 -0.164272 0.45562 -0.00056988 0.0948417 0.995492
-0.186969 0.211337 0.361995 0.202813 0.979158 0.0107848
-0.196324 0.199683 0.490131 -0.997707 -0.0579773 0.0349075
0.172043 0.150918 0.452462 -0.998304 0.046611 -0.0348691
0.181725 -0.21094 0.30153 -0.810137 -0.586002 -0.0167447
0.17242 0.181018 0.481625 -0.99835 0.0455823 -0.034919
-0.183151 -0.0911759 0.444354 -0.526575 0.135894 0.839197
0.174374 0.199073 0.449358 -0.998322 0.0461984 -0.0349218
-0.0962987 -0.231903 0.43412 0.00458457 -0.762143 0.647392
0.172207 0.185885 0.666172 0.36987 0.907877 -0.197371
-0.171174 0.168059 0.588596 0.997697 0.0581603 -0.0349086
0.20393 -0.199909 0.451958 0.999312 0.0352768 0.0114798
-0.0438305 0.196658 0.586879 -0.0744889 0.967575 -0.241351
0.123528 -0.0359529 0.435492 0.000570011 -0.0948639 -0.99549
-0.091509 0.00194045 0.431757 0.000572774 -0.0948677 -0.99549
0.188492 0.144756 0.218681 -0.29698 -0.936537 -0.186284
0.0858938 -0.0782316 0.447467 -0.00056988 0.0948417 0.995492
-0.0066104 0.23578 0.768515 0.045905 -0.969869 0.239261
0.0646501 -0.237303 0.408673 -0.00565747 0.938792 -0.344437
-0.0582046 0.208474 0.674295 0.130275 -0.963183 0.235176
0.0143809 -0.0782095 0.447424 -0.00056988 0.0948417 0.995492
0.0988701 -0.145409 0.445908 0.000570011 -0.0948639 -0.99549
-0.186406 -0.198658 0.326023 0.669701 0.741667 -0.0378169
0.193873 -0.195566 0.229601 0.000691882 0.999828 -0.0185642
0.0710895 0.218444 0.688516 0.208332 0.948999 -0.236639
-0.180646 -0.0325082 0.429977 -0.994581 0.102735 -0.0159228
0.182705 0.170073 0.172806 -0.998304 0.046611 -0.0348691
0.0377311 -0.2208 0.433182 -0.00384098 0.637242 -0.770654
0.163345 -0.22813 0.424356 -0.00489544 0.815276 -0.579052
-0.187891 -0.197503 0.45477 0.00152198 -0.25298 0.96747
0.124147 0.0253318 0.429652 0.000570011 -0.0948639 -0.99549
0.192349 0.136012 0.419574 0.998322 -0.0462147 0.0348935
0.0155266 -0.141517 0.453456 -0.00056988 0.0948417 0.995492
-0.0593985 -0.174596 0.448579 0.000477952 -0.0795427 -0.996831
0.0796314 0.187796 0.568359 0.148136 0.962657 -0.2266
-0.212376 -0.210907 0.0878481 -0.992983 -0.113015 0.0348309
-0.168836 -0.073222 0.424967 0.358776 -0.126644 -0.924793
-0.0601612 -0.134449 0.452739 -0.00056988 0.0948417 0.995492
-0.0561841 0.202413 0.614595 -0.130049 0.963221 -0.235143
0.0625259 0.0753365 0.424852 0.000572774 -0.0948677 -0.99549
-0.191627 0.070848 0.433104 -0.000572879 0.0948459 0.995492
0.128506 0.0429121 0.427979 0.000570011 -0.0948639 -0.99549
-0.19394 0.1318 0.444896 -0.997813 -0.0563943 0.0344728
0.0265358 -0.0447393 0.444242 -0.00056988 0.0948417 0.995492
-0.197867 0.177298 0.408774 -0.997696 -0.0581795 0.0349084
0.196292 -0.174681 0.456667 -0.000484598 0.0806487 0.996742
0.119756 -0.0459305 0.444409 -0.00056988 0.0948417 0.995492
0.0152811 -0.240517 0.4212 0.00518214 -0.862409 0.506186
-0.208604 0.211345 0.125174 -0.978467 0.202682 0.0390281
0.128566 -0.00385343 0.440405 -0.00056988 0.0948417 0.995492
-0.202072 0.150968 0.244416 -0.997676 -0.0585178 0.0348919
0.185578 0.211308 0.161382 -0.952656 0.30272 -0.0284134
0.119286 0.144764 0.426243 0.246834 0.964717 -0.0916172
-0.035682 0.204692 0.616576 -0.0744889 0.967575 -0.241351
-0.182597 -0.076916 0.447187 -0.000572879 0.0948459 0.995492
-0.125666 0.210805 0.713567 -0.296811 0.928569 -0.222854
-0.0588323 -0.244834 0.413183 0.00565333 -0.938962 0.343975
0.189931 -0.215247 0.326482 0.0205067 -0.999604 0.0192709
-0.202757 -0.21432 0.298201 -0.650681 -0.758424 0.0375148
-0.0131863 0.2271 0.701428 -0.0456772 0.969872 -0.239293
-0.0973287 0.216553 0.70561 -0.160025 0.960749 -0.226613
-0.203345 0.193908 0.279865 -0.997707 -0.0579773 0.0349075
0.056136 -0.162604 0.447522 0.000570011 -0.0948639 -0.99549
0.149324 0.00939818 0.422901 -0.951822 -0.138015 -0.273838
-0.100934 0.210695 0.683319 -0.160025 0.960749 -0.226613
-0.159205 0.187467 0.697224 0.325137 -0.922564 0.207752
0.101033 0.132205 0.419462 0.000567899 -0.0942494 -0.995549
0.116759 0.208551 0.724603 -0.285997 -0.931952 0.222868
0.135872 -0.22557 0.427681 -0.00457818 0.76244 -0.647043
0.0377365 0.184718 0.568644 -0.0626087 -0.96843 0.241294
-0.196351 -0.197876 0.23116 -0.0131456 0.999742 -0.0185474
0.19108 -0.199556 0.112735 -0.679419 0.732775 -0.0378302
-0.185058 -0.0618546 0.445751 -0.000572879 0.0948459 0.995492
-0.11109 -0.225316 0.440463 0.00382975 -0.637031 0.770829
0.20498 0.17977 0.116164 0.998322 -0.0462147 0.0348935
0.0625294 0.11421 0.42116 0.000577547 -0.0962334 -0.995359
0.152275 0.206807 0.766205 -0.34137 -0.916578 0.208211
0.112303 -0.00517906 0.432553 0.000570011 -0.0948639 -0.99549
-0.201865 0.204715 0.328551 -0.978745 0.201335 0.0390221
-0.0573764 -0.0836751 0.439936 0.000570011 -0.0948639 -0.99549
-0.205514 0.198123 0.224878 -0.997707 -0.0579773 0.0349075
-0.0573829 -0.206832 0.451517 0.00249926 -0.415645 0.909524
-0.203914 -0.117637 0.450791 -0.998635 0.0520305 -0.0045248
-0.212688 -0.218615 0.020876 -0.826928 -0.561016 0.038088
-0.132748 0.0233598 0.429693 0.000572774 -0.0948677 -0.99549
-0.200924 0.150691 0.27678 -0.997676 -0.0585178 0.0348919
-0.188812 0.125138 0.313781 0.0516812 -0.981652 -0.183542
-0.0260474 -0.234035 0.417002 -0.00518337 0.86259 -0.505876
0.0333862 -0.0894246 0.448503 -0.00056988 0.0948417 0.995492
0.0441093 0.181654 0.557999 -0.0626087 -0.96843 0.241294
-0.098813 -0.199974 0.453983 0.00152198 -0.25298 0.96747
-0.188404 0.0347372 0.428576 0.000572774 -0.0948677 -0.99549
0.0651888 -0.225556 0.439386 0.00384284 -0.637554 0.770396
-0.210386 0.20039 0.0894043 -0.997707 -0.0579773 0.0349075
0.200522 -0.198683 0.247517 0.823885 0.566484 0.0176043
0.0702436 0.18674 0.592691 -0.147864 -0.962689 0.226642
0.123953 0.1681 0.558599 -0.23276 -0.948183 0.216269
0.0297199 0.145286 0.426141 -0.000573826 0.0956586 0.995414
-0.0743035 0.204279 0.669761 0.220106 -0.946337 0.236641
0.197333 -0.202704 0.421218 0.992287 0.119786 0.031916
-0.195248 -0.197759 0.2367 -0.0131456 0.999742 -0.0185474
-0.169006 0.191644 0.702101 0.0646406 -0.9679 0.242883
-0.0395493 0.197324 0.621094 0.0742906 -0.967606 0.241289
-0.149764 0.179138 0.607269 -0.325845 0.922321 -0.207724
0.178597 0.200856 0.330995 -0.998322 0.0461984 -0.0349218
0.182335 -0.211606 0.295307 -0.810137 -0.586002 -0.0167447
-0.0218969 -0.135845 0.444928 0.000570011 -0.0948639 -0.99549
0.13479 0.218254 0.752761 0.28541 0.932135 -0.222856
-0.194594 0.15239 0.460615 -0.997676 -0.0585178 0.0348919
-0.204814 0.170019 0.197976 -0.997676 -0.0585178 0.0348919
0.167683 0.175624 0.613283 0.313249 0.926649 -0.207836
