0.167496 0.219799 0.0458518 -0.174227 -0.963194 -0.204699
-0.182446 0.202686 0.789264 -0.000162689 0.00114187 0.999999
-0.0163099 0.204114 0.717504 0.000736787 -0.99832 0.057937
0.167425 0.164312 0.389626 -0.172965 0.963756 0.203121
0.110967 -0.242017 0.346607 -6.80399e-07 0.000572286 -1
-0.00898925 0.179089 0.473005 0.00070511 -0.955541 0.294858
-0.0901293 0.192407 0.587528 0.0641969 -0.995546 0.0690467
0.163631 0.231297 0.00499771 -0.749645 -0.647404 -0.137482
-0.134141 0.195499 0.469017 -0.113461 0.969696 -0.21637
-0.153889 -0.229496 0.00214618 1 0.000571008 0
-0.0758607 -0.224987 0.405607 -0.00624618 0.982247 -0.187487
-0.176431 0.217548 0.0577464 -0.747418 -0.649858 -0.138025
0.0720672 -0.238974 0.428883 0.00025856 -0.860185 0.509982
-0.169581 0.185811 0.628497 0.134369 -0.988731 0.0659929
0.0771774 0.0243157 0.414036 0.000244123 -0.0146029 -0.999893
0.105033 0.200785 0.736067 -0.0646929 -0.99643 0.0542434
-0.109093 0.0526985 0.413714 5.69672e-06 -0.00761999 -0.999971
0.122423 -0.0312453 0.415063 -9.43043e-05 -0.0215831 -0.999767
0.066082 -0.095467 0.416513 0.000218393 -0.0232618 -0.999729
-0.0155153 -0.0133889 0.433564 -1.37918e-05 0.0184802 0.999829
0.00777074 0.22217 0.663235 -0.000736728 0.998387 -0.0567753
-0.0114461 0.228089 0.775654 -0.000737114 0.998762 -0.0497416
-0.0518948 0.21509 0.562622 -0.0733045 0.994125 -0.0796341
-0.138781 0.126472 0.434417 0.0032697 -0.0723395 0.997375
-0.0625101 0.192051 0.560909 0.0641404 -0.994459 0.0832898
0.109436 -0.226705 0.372584 0.00494068 0.999403 -0.0341881
0.02193 0.20403 0.715562 0.000750408 -0.998318 0.0579692
-0.0212541 0.15547 0.415496 -4.90087e-05 0.0651995 -0.997872
0.182888 0.0290232 0.426707 1 0.000747463 0.00017647
0.0799779 -0.203198 0.437486 -0.000226954 0.013331 0.999911
0.0175329 -0.131851 0.436149 -1.65991e-05 0.022083 0.999756
0.145635 0.197296 0.489095 0.138087 0.974466 -0.177052
-0.165761 0.178127 0.315992 0.499065 0.847897 0.178896
-0.138138 0.178304 0.504535 0.126495 -0.976835 0.172605
0.16401 0.227702 0.0773121 -0.754314 0.642324 0.135759
-0.0348413 0.188892 0.520051 0.000743733 -0.989439 0.144948
0.00518158 -0.17635 0.437071 -1.41399e-05 0.0188112 0.999823
-0.0636004 -0.0656643 0.415821 -0.000201923 -0.0229369 -0.999737
0.133295 0.216496 0.719825 0.150376 0.987286 -0.051507
0.098358 0.21886 0.681449 0.0697056 0.996036 -0.0552678
0.136757 0.210214 0.615026 0.147911 0.987442 -0.0555094
-0.174509 0.0419066 0.413799 -3.07215e-05 -0.00762002 -0.999971
0.0298263 -0.0392221 0.434049 -1.62312e-05 0.0217513 0.999763
0.130016 -0.0580651 0.415655 3.65657e-05 -0.0231728 -0.999731
-0.103486 -0.0276398 0.414981 -0.00021213 -0.0215908 -0.999767
-0.111333 0.211094 0.568757 -0.154734 0.984769 -0.0792924
-0.183082 0.191392 0.647124 -1 -0.000558479 3.39545e-05
0.175641 0.191082 0.730705 -0.137964 -0.989155 0.0503733
0.0228871 0.196946 0.448253 -0.000717659 0.954744 -0.297427
-0.100736 0.180662 0.494251 0.0557833 -0.983218 0.173696
-0.0269015 0.191048 0.535428 0.000747173 -0.994015 0.109246
-0.0386781 -0.0507008 0.434298 0.000268261 0.0217515 0.999763
0.0331697 0.22796 0.772385 -0.000750744 0.998763 -0.0497117
-0.107148 0.0789656 0.432938 3.95455e-05 -0.0147181 0.999892
0.0330907 -0.232086 0.435505 0.000312382 -0.415584 0.909555
0.0548819 0.204072 0.736947 -0.0641049 -0.996392 0.0556099
0.112875 0.194691 0.645389 -0.132043 -0.989161 0.0642277
-0.0477726 -0.22827 0.346614 -3.84817e-06 0.000572314 -1
-0.0508449 -0.084813 0.416258 -6.73664e-05 -0.0232702 -0.999729
-0.140934 0.120041 0.414015 -0.00173504 0.0344721 -0.999404
0.0830081 0.181329 0.491833 -0.0538119 -0.974429 0.218157
0.181128 -0.201049 0.437466 -2.75018e-05 0.0131532 0.999914
0.16224 -0.189753 0.437317 -2.75018e-05 0.0131532 0.999914
0.00146388 0.137794 0.43493 4.75482e-05 -0.0644251 0.997923
-0.162204 0.181538 0.271787 0.939212 0.335927 0.070954
0.0733191 0.212873 0.553568 0.0718044 0.994201 -0.0800519
-0.0429563 0.218286 0.603234 -0.0720836 0.995985 -0.0530743
-0.00593037 -0.156485 0.417789 1.40166e-05 -0.0186472 -0.999826
0.139793 0.190957 0.643227 -0.132043 -0.989161 0.0642277
-0.148397 -0.0605992 0.434529 -5.32479e-05 0.021532 0.999768
-0.165019 -0.0316627 0.433924 -2.3566e-05 0.0189189 0.999821
0.131031 0.160141 0.441178 -0.0514608 -0.691889 0.720168
0.00624401 0.0973871 0.413639 -1.0416e-05 0.013959 -0.999903
-0.176262 0.20116 0.133991 -0.747418 -0.649858 -0.138025
-0.0985252 0.169365 0.417207 -0.00471563 0.130327 -0.99146
0.0623723 -0.23679 0.34661 2.92137e-06 0.000559591 -1
0.126 0.152056 0.415482 0.0047728 0.0678736 -0.997683
0.030534 0.0251074 0.414024 1.03693e-05 -0.0138954 -0.999903
-0.174318 -0.24669 0.338869 0.00076149 -1 0
0.0956016 -0.0293693 0.433881 -0.0001585 0.019008 0.999819
0.0599453 0.206017 0.778287 -0.064692 -0.996415 0.054512
-0.131394 -0.198549 0.418347 0.000149945 -0.0023205 -0.999997
-0.161603 0.188512 0.65467 0.133543 -0.989217 0.0601425
0.139322 0.21298 0.670665 0.148372 0.987542 -0.0524125
0.170105 0.180657 0.55822 -0.1349 -0.987407 0.0826403
0.1831 -0.245291 0.191705 0.999999 0.00114202 0
-0.052871 0.196645 0.450009 -0.0475485 0.953646 -0.297151
-0.181512 0.0749231 0.413601 -0.000180059 0.00168959 -0.999999
-0.0716051 0.221697 0.700385 -0.0717978 0.996027 -0.0526859
0.0668868 0.224614 0.74909 0.0712111 0.996159 -0.0509504
0.182772 0.192331 0.754525 1 0.000568561 -2.89543e-05
-0.11114 0.185414 0.528967 0.133018 -0.981901 0.134819
-0.0740508 -0.142097 0.436386 0.000307052 0.0220833 0.999756
0.00265319 -0.226783 0.356787 -0.000751571 0.999866 -0.0163817
-0.0153351 -0.0560967 0.415596 1.7116e-05 -0.0229368 -0.999737
0.108986 -0.165677 0.417996 0.000479068 -0.0189221 -0.999821
0.165593 0.156623 0.34594 -0.749645 -0.647404 -0.137482
0.178749 -0.0767549 0.434894 1.08215e-05 0.02344 0.999725
0.0856891 0.206611 0.505897 0.065041 0.988068 -0.139615
-0.0730849 0.085265 0.413611 -6.38047e-06 0.00122118 -0.999999
-0.0152288 0.195759 0.586122 0.000749954 -0.997715 0.0675575
0.0148026 0.164967 0.441749 0.000506284 -0.673542 0.739149
-0.0118817 -0.233154 0.435005 0.00047703 -0.634719 0.772743
-0.106714 -0.0749491 0.434847 0.000142342 0.023172 0.999732
-0.038523 0.166907 0.416624 -0.00392437 0.12653 -0.991955
-0.016492 0.191568 0.433996 -0.000696192 0.926191 -0.377054
-0.164276 0.0981641 0.433248 0.000510992 -0.0147179 0.999892
-0.0686957 0.220184 0.669034 -0.0712005 0.995855 -0.0565999
-0.171527 0.206048 0.636906 -0.149816 0.98708 -0.0568248
0.109475 -0.0912216 0.435229 -0.000204575 0.0231718 0.999731
-0.0134836 0.198425 0.626471 0.000750134 -0.997955 0.0639141
-0.106254 0.124726 0.434177 0.00120307 -0.067147 0.997742
-0.183097 0.205559 0.724035 -0.999999 -0.00113239 5.45649e-05
-0.1372 0.196863 0.74313 0.139281 -0.988809 0.0534498
0.154215 -0.244962 0.0489339 -0.999999 -0.00114279 0
0.162582 0.184909 0.229502 -0.764446 -0.630697 -0.133579
-0.0223482 0.207608 0.780266 0.000750549 -0.998507 0.0546269
-0.162067 0.0286781 0.43301 6.01455e-05 0.00774672 0.99997
0.133316 0.00292442 0.433325 4.79774e-06 0.0143298 0.999897
0.150968 0.0697093 0.432884 -1.15911e-05 -0.00165197 0.999999
-0.15388 -0.245085 0.221473 1 0.000571008 0
0.0973523 0.22258 0.751898 0.0712111 0.996159 -0.0509504
-0.0169233 0.0759784 0.413599 -9.00272e-07 0.00120655 -0.999999
0.0352692 0.215814 0.55706 -0.000735465 0.996804 -0.0798866
0.0087476 -0.0953671 0.416503 1.39894e-05 -0.023262 -0.999729
0.0806293 0.202758 0.7432 -0.0646929 -0.99643 0.0542434
-0.00576806 -0.105856 0.416747 1.39894e-05 -0.023262 -0.999729
0.0177776 -0.190196 0.437302 -1.00204e-05 0.0133312 0.999911
0.124344 0.196302 0.467728 0.124541 0.968415 -0.216011
0.169228 0.203511 0.587268 0.153392 0.985708 -0.0696411
0.0437823 -0.0278413 0.414975 0.000241233 -0.0216942 -0.999765
-0.039978 -0.104255 0.435516 0.000147373 0.0230439 0.999734
0.170416 0.173291 0.26221 -0.174227 -0.963194 -0.204699
0.094118 0.186305 0.52606 -0.0613897 -0.988836 0.135771
-0.179435 -0.165042 0.417984 -7.0312e-05 -0.0188451 -0.999822
0.0581406 0.089293 0.413616 4.50336e-06 0.00120656 -0.999999
0.178801 0.103686 0.433432 -0.00176715 -0.0369391 0.999316
-0.163066 0.215914 0.0862809 0.933148 -0.35167 -0.0745831
0.104436 0.217411 0.78926 7.80691e-05 0.00108773 0.999999
0.182723 0.170621 0.48854 -0.116106 -0.978142 0.172506
-0.125815 -0.0568587 0.434449 -5.24671e-06 0.0216443 0.999766
0.0522145 0.205274 0.755536 -0.0646929 -0.99643 0.0542434
-0.0059971 0.202505 0.689978 0.000736634 -0.998112 0.0614085
0.076617 0.21505 0.587744 0.0705816 0.995725 -0.0595806
-0.166119 0.236787 0.038863 0.490186 0.852874 0.179787
-0.176629 0.192805 0.487677 -0.140551 0.981305 -0.131475
0.103505 -0.245493 0.38975 0.000586883 -0.998558 0.0536746
-0.0452388 -0.169182 0.436938 0.000280019 0.0188115 0.999823
0.117077 -0.0118017 0.414666 -0.000128414 -0.0188988 -0.999821
-0.0406828 -0.12593 0.417186 -0.00022522 -0.0216661 -0.999765
0.00382719 0.185569 0.423553 -0.000504439 0.683685 -0.729777
0.179582 0.205733 0.143892 0.935381 -0.345944 -0.0733881
0.169408 0.0301731 0.41396 -0.000173136 -0.0139909 -0.999902
0.112649 0.211109 0.570189 0.153392 0.985708 -0.0696411
0.0529119 -0.194781 0.437367 -0.000226954 0.013331 0.999911
-0.114726 -0.134229 0.417381 -8.15081e-05 -0.0218459 -0.999761
0.0872026 -0.223887 0.40984 0.00461242 0.910884 -0.412638
-0.145401 0.21537 0.737275 -0.151871 0.98716 -0.0495054
-0.0855967 0.222401 0.733374 -0.0721021 0.996095 -0.0509471
-0.0959627 0.195125 0.634158 0.0634873 -0.995942 0.0637852
-0.173566 0.168719 0.368066 -0.174548 0.963451 0.203212
-0.0245443 -0.245205 0.396226 0.00074948 -0.997084 0.0763109
0.036718 0.202033 0.682099 -0.0625927 -0.996156 0.0612881
-0.0739261 -0.033174 0.415094 -0.00021213 -0.0215908 -0.999767
-0.0843815 0.17375 0.463175 0.0453776 -0.961129 0.272346
-0.121106 0.217106 0.698156 -0.150853 0.987211 -0.0515542
0.0470998 -0.216221 0.417985 0.00153656 0.162357 -0.986731
-0.0188056 0.203866 0.473736 -0.000729479 0.970475 -0.2412
0.0635992 0.186632 0.426894 0.0341401 0.877568 -0.478236
0.0633148 0.106764 0.433446 -0.000258639 -0.0333183 0.999445
0.183087 -0.241644 0.367678 1 0.000568312 -1.12691e-05
-0.0754109 0.215341 0.592907 -0.0720434 0.99543 -0.0626867
-0.0565327 -0.244798 0.401892 0.000885729 -0.997084 0.0763109
0.18277 0.186366 0.582381 1 0.000547535 -3.86838e-05
0.165531 0.18927 0.67211 -0.133679 -0.989261 0.0590945
0.173921 0.0664034 0.41361 -2.04737e-05 -0.00762001 -0.999971
0.0127897 -0.235725 0.432728 0.000545063 -0.725135 0.688607
-0.126272 0.183657 0.427537 -0.0733995 0.875712 -0.477223
-0.166818 0.211027 0.716354 -0.151873 0.987172 -0.049253
-0.0714077 0.0564607 0.413686 5.69672e-06 -0.00761999 -0.999971
-0.15148 0.203017 0.546788 -0.154734 0.984769 -0.0792924
0.183001 -0.114388 0.432806 1 0.000725408 -0.000417738
-0.0783904 0.200777 0.707261 0.0646881 -0.996349 0.0557241
-0.134471 0.199574 0.787311 0.140856 -0.988626 0.0527075
-0.18277 -0.233358 0.205851 -1 -0.000571009 0
0.151855 0.184821 0.577948 -0.134311 -0.987345 0.0843209
0.00104135 0.224032 0.789258 -7.85794e-07 0.00106473 0.999999
-0.15282 -0.225184 0.405743 -0.000147691 0.982676 -0.18533
0.179336 0.181802 0.277968 0.939026 0.336429 0.071032
-0.170831 0.0794133 0.432957 0.000135537 -0.0159263 0.999873
-0.0432837 0.186918 0.425932 -0.0348889 0.863081 -0.503859
-0.0322168 0.194507 0.570367 0.000735454 -0.996514 0.0834224
-0.0622482 0.199945 0.675635 0.0640897 -0.996147 0.0598682
0.174197 0.192964 0.252692 0.491621 0.852111 0.179489
-0.18304 0.126891 0.432828 -1 -0.000678631 2.89214e-05
0.161544 -0.235595 0.346604 0 0 1
0.175907 -0.246428 0.280647 0.000761464 -1 0
-0.0794104 -0.208553 0.437555 0.00020795 0.0131835 0.999913
0.146239 0.102142 0.413738 0.000413961 0.0163539 -0.999866
0.049487 -0.0612644 0.434532 -0.000255727 0.0217512 0.999763
0.0972094 0.170119 0.417289 0.00439738 0.126546 -0.991951
0.0320428 0.182144 0.484683 0.000716957 -0.97145 0.237243
-0.0890573 -0.235102 0.346611 -3.84817e-06 0.000572314 -1
0.169226 -0.0546992 0.415578 3.65657e-05 -0.0231728 -0.999731
0.0505288 0.145886 0.435789 -0.0031789 -0.12532 0.992111
0.0200386 0.119782 0.433873 2.50438e-05 -0.033318 0.999445
0.00479493 0.188099 0.514432 0.000743733 -0.989439 0.144948
0.160157 -0.227181 0.288268 -0.000761463 1 0
-0.11908 0.198169 0.720058 0.137967 -0.988891 0.055307
-0.17083 -0.00382477 0.43342 -2.69946e-05 0.0139959 0.999902
-0.0587847 0.204264 0.746389 0.0663152 -0.996248 0.0556019
-0.0222217 0.00618206 0.414311 1.38366e-05 -0.0185428 -0.999828
0.0791595 0.0816207 0.413606 -9.11339e-07 0.00122119 -0.999999
0.0889509 0.194628 0.617767 -0.0619985 -0.996013 0.0641435
-0.153884 -0.237943 0.195663 1 0.000571008 0
0.0544192 0.217205 0.59747 0.0705816 0.995725 -0.0595806
0.182659 -0.227164 0.020155 -0.000761463 1 0
0.00652421 0.192355 0.547092 0.000733612 -0.994019 0.109204
0.143151 0.0896755 0.433097 -0.000516839 -0.0159268 0.999873
-0.0592858 0.223277 0.713477 -0.0720981 0.99604 -0.0520153
-0.140715 0.0393798 0.432926 1.9407e-05 0.00764286 0.999971
0.168146 -0.189064 0.418313 3.34353e-05 -0.0131532 -0.999914
0.0197342 0.206248 0.754888 0.000750504 -0.998446 0.0557245
0.18036 -0.246425 0.0564417 0.000761464 -1 0
0.164285 0.188307 0.65339 -0.133671 -0.989197 0.0601756
-0.152193 0.177978 0.513864 0.127569 -0.985131 0.115075
-0.117577 0.212947 0.615112 -0.152135 0.986802 -0.0554734
0.0959088 -0.165034 0.436875 -0.000314587 0.0185231 0.999828
0.0842484 -0.197611 0.418336 0.000684872 -0.00311766 -0.999995
-0.0026468 -0.244716 0.402365 0.000747846 -0.994911 0.100756
-0.00846657 0.153163 0.436667 9.24634e-05 -0.125318 0.992117
-0.0836127 0.0597925 0.432868 1.67509e-06 -0.00160221 0.999999
0.0713529 0.0278958 0.433012 -0.000114034 0.0073587 0.999973
0.0462973 0.226379 0.754812 0.0712111 0.996159 -0.0509504
-0.134843 0.200963 0.503467 -0.140415 0.980356 -0.138513
0.147436 -0.240446 0.426332 0.000646581 -0.860185 0.509982
0.0675209 0.176655 0.469615 -0.0436525 -0.95463 0.294577
0.0229615 -0.153838 0.41774 1.40166e-05 -0.0186472 -0.999826
-0.159506 -0.114271 0.435763 -9.22921e-05 0.022962 0.999736
0.0350243 -0.0721536 0.415965 1.71146e-05 -0.0229368 -0.999737
-0.182763 -0.244892 0.234675 -1 -0.000571009 0
0.179217 0.22832 0.0327769 0.935381 -0.345944 -0.0733881
-0.0703595 0.158847 0.415788 -0.00224373 0.0678265 -0.997695
0.162996 0.186957 0.629506 -0.132028 -0.989045 0.0660134
0.127947 -0.104488 0.435537 -9.95116e-05 0.0229696 0.999736
-0.182776 -0.230941 0.428924 -1 -0.000210308 0.000461053
-0.0849624 0.219849 0.683958 -0.0717878 0.995888 -0.0552596
-0.151512 0.1964 0.77313 0.139312 -0.989035 0.049016
0.0423325 -0.174825 0.418083 0.000636586 -0.0135966 -0.999907
-0.116004 -0.16804 0.418031 -2.94811e-05 -0.0131533 -0.999914
0.0753443 0.196369 0.631646 -0.0619985 -0.996013 0.0641435
-0.180395 0.182608 0.260633 -1 -3.16581e-05 0.000149371
-0.0453178 0.199874 0.657192 0.0640642 -0.995751 0.0661522
-0.00661722 -0.226409 0.371692 -0.000737595 0.999415 -0.0341914
0.136479 -0.0655429 0.43464 2.04379e-05 0.021652 0.999766
0.134033 -0.0748626 0.416044 -2.05114e-06 -0.0230823 -0.999734
0.132324 -0.2462 0.367217 0.000737887 -0.999803 0.019827
0.161745 -0.246439 0.126732 0.000761464 -1 0
0.178076 0.15021 0.437687 -0.0230909 -0.306619 0.951552
-0.111897 0.161444 0.441216 0.0567154 -0.691611 0.72004
-0.0537039 0.206917 0.788652 0.0669155 -0.996269 0.0545045
-0.0487266 0.226904 0.769704 -0.072554 0.99613 -0.0496105
-0.148525 -0.0971761 0.416552 3.71246e-05 -0.0229621 -0.999736
-0.00487376 0.216231 0.56264 -0.000749271 0.996807 -0.0798489
0.163922 -0.0710965 0.415957 -2.05114e-06 -0.0230823 -0.999734
-0.147232 0.157506 0.41603 -0.00868321 0.13032 -0.991434
0.00380781 -0.225069 0.402996 -0.000732226 0.99214 -0.12513
0.0827292 -0.113244 0.435737 -0.00017006 0.0233547 0.999727
-0.141489 0.217777 0.774321 -0.152737 0.987091 -0.0481839
-0.0107526 -0.187042 0.43726 -1.00204e-05 0.0133312 0.999911
-0.18308 0.19136 0.758776 -0.999999 -0.00117015 -0.000290636
0.0168736 0.193964 0.563451 0.000749049 -0.996511 0.0834616
0.083099 0.159766 0.438826 -0.0098196 -0.284253 0.958699
0.175603 -0.163906 0.417968 7.03416e-05 -0.0188528 -0.999822
0.0252509 0.207354 0.490454 -0.000736825 0.980249 -0.197767
-0.146456 -0.246251 0.374219 0.000751402 -0.999634 0.0270441
0.166124 0.196683 0.505675 0.139476 0.984268 -0.108454
-0.0987702 -0.0210963 0.433719 0.000346337 0.0190152 0.999819
0.12088 -0.0135824 0.433584 -8.23269e-06 0.0190081 0.999819
-0.042028 -0.154039 0.417745 -0.000459414 -0.0186475 -0.999826
-0.156937 -0.227417 0.165208 -0.000762006 1 0
-0.0261268 -0.246104 0.376352 0.000751396 -0.999634 0.0270423
0.023572 0.227293 0.789255 -7.85794e-07 0.00106473 0.999999
-0.0565004 0.210755 0.521028 -0.0710283 0.991216 -0.111561
-0.165713 0.189314 0.677429 0.135206 -0.989261 0.0555218
-0.131314 -0.241662 0.422859 0.000723662 -0.962729 0.270466
-0.0794909 0.190089 0.551854 0.0639801 -0.991975 0.109051
-0.165946 -0.176849 0.418148 -2.94811e-05 -0.0131533 -0.999914
-0.0777834 -0.244792 0.402218 0.000885729 -0.997084 0.0763109
0.0172035 -0.245373 0.346605 -4.20629e-07 0.00055959 -1
-0.0184143 0.0983134 0.413652 -1.0416e-05 0.013959 -0.999903
0.0280838 0.20099 0.664976 0.000736406 -0.997802 0.0662545
-0.173076 0.153116 0.356902 -0.17266 -0.963459 -0.20478
0.154197 -0.229196 0.26747 -0.999999 -0.00114279 0
-0.0260024 0.133477 0.414373 -2.48299e-05 0.033033 -0.999454
0.0139187 -0.041502 0.41527 1.61891e-05 -0.0216943 -0.999765
0.0502873 0.220986 0.659139 0.0697056 0.996036 -0.0552678
-0.177157 0.200381 0.210025 -0.76678 0.62807 0.132576
0.0111477 0.00332401 0.414364 1.38366e-05 -0.0185428 -0.999828
-0.162331 0.157094 0.389203 0.939212 0.335927 0.070954
-0.183046 0.139024 0.41558 -1 -0.000696151 0.000279337
0.0219573 0.0180848 0.433101 -1.04278e-05 0.0139488 0.999903
-0.141664 -0.124335 0.435996 -9.22921e-05 0.022962 0.999736
0.116607 -0.237729 0.43058 0.000538512 -0.72966 0.68381
-0.16167 -0.24668 0.141795 0.00076149 -1 0
-0.182767 -0.237538 0.276411 -1 -0.000571009 0
-0.173602 0.191269 0.177845 -0.17266 -0.963459 -0.20478
0.141283 0.029775 0.413967 8.06689e-05 -0.014603 -0.999893
0.0575369 0.0139304 0.414183 0.000244123 -0.0146029 -0.999893
-0.0893542 0.219665 0.789259 -7.80206e-05 0.0010646 0.999999
0.169652 -0.0956357 0.435337 -0.000100388 0.023172 0.999731
0.0459218 0.0663235 0.413612 5.73457e-06 -0.00768423 -0.99997
-0.0387331 0.20436 0.724243 0.0655613 -0.996172 0.0578124
-0.00426965 0.225495 0.724295 -0.000750691 0.998694 -0.0510801
-0.131871 0.193733 0.673752 0.135206 -0.989261 0.0555218
0.166197 -0.246436 0.316579 0.000761464 -1 0
0.183101 -0.246095 0.00173792 0.999999 0.00114202 0
-0.139553 0.194613 0.707517 0.13682 -0.989204 0.0525036
-0.0304672 0.222857 0.675826 -0.000750461 0.998388 -0.0567439
-0.166605 0.144852 0.401316 0.501153 -0.84643 -0.180006
0.101487 0.0171969 0.414146 0.000244123 -0.0146029 -0.999893
0.120594 0.189944 0.589705 -0.13447 -0.988515 0.0689651
0.119977 0.175407 0.47694 -0.104769 -0.970472 0.217271
0.117658 0.198229 0.715142 -0.135166 -0.989259 0.0556481
-0.16593 0.18338 0.291569 0.499065 0.847897 0.178896
0.0269348 0.225653 0.726924 -0.000750691 0.998694 -0.0510801
0.0543182 -0.223674 0.437272 -0.000168618 -0.0203517 0.999793
0.0440154 0.207835 0.495274 0.0643924 0.978215 -0.197357
-0.0843909 0.137488 0.41454 -0.000883031 0.0344725 -0.999405
0.17785 0.0449595 0.432887 -3.12314e-05 0.00774664 0.99997
-0.0787652 0.213741 0.570828 -0.0732584 0.995532 -0.0595691
0.111203 0.220029 0.723065 0.150405 0.987479 -0.0475827
0.141626 0.131107 0.434698 -0.00439648 -0.0722912 0.997374
0.0594037 0.0474811 0.432865 -3.42622e-06 0.00764284 0.999971
-0.0978554 -0.170083 0.436968 0.000179677 0.0185234 0.999828
0.180504 0.202868 0.603734 0.150595 0.986626 -0.0623676
-0.169612 -0.226889 0.372331 -0.000150208 0.999421 -0.0340328
0.182763 0.194551 0.518909 0.999999 0.00105072 -0.000122736
-0.153879 -0.246671 0.116639 1 0.000571008 0
0.107607 0.13472 0.414461 0.000396227 0.0344732 -0.999406
0.154196 -0.228181 0.197247 -0.999999 -0.00114279 0
0.128147 0.199594 0.488103 0.138087 0.974466 -0.177052
0.0372854 0.212412 0.52325 0.0715863 0.991181 -0.111516
-0.156129 0.00618518 0.43328 -2.69946e-05 0.0139959 0.999902
-0.17977 0.215481 0.124003 -0.7517 0.645213 0.136555
0.0741541 0.192985 0.580031 -0.0627905 -0.994547 0.0832697
-0.107523 0.190745 0.579987 0.0641404 -0.994459 0.0832898
-0.0240748 -0.208113 0.418336 2.30128e-06 -0.00311815 -0.999995
-0.0452083 -0.0328008 0.433924 0.000139027 0.0184803 0.999829
-0.0954245 0.20363 0.779711 0.0663241 -0.996383 0.0531211
0.00797887 -0.246216 0.371081 0.000751524 -0.999803 0.019827
-0.139479 -0.00227155 0.414479 0.000148173 -0.0188985 -0.999821
0.0328635 0.19841 0.625696 0.000750134 -0.997955 0.0639141
0.138634 0.0449308 0.432886 -3.12314e-05 0.00774664 0.99997
0.102624 0.167882 0.449854 -0.0360323 -0.872823 0.486706
0.182783 0.16811 0.466834 1 0.000472985 -0.000108055
0.0882094 -0.226639 0.376217 0.00491452 0.999862 0.0158461
0.107645 0.0742717 0.432891 -1.91368e-06 -0.00160221 0.999999
0.101677 -0.243652 0.411396 0.000426045 -0.990576 0.136962
0.123231 -0.0531614 0.434372 2.04379e-05 0.021652 0.999766
-0.0604088 0.122833 0.414032 -0.000434296 0.0330327 -0.999454
-0.101102 0.143735 0.435716 0.00347594 -0.129554 0.991566
-0.168208 0.197639 0.230266 0.490186 0.852874 0.179787
0.168534 0.190404 0.699609 -0.135166 -0.989259 0.0556481
-0.0246381 -0.226461 0.370552 -0.000737595 0.999415 -0.0341914
-0.161844 0.193798 0.750642 0.139281 -0.988809 0.0534498
-0.0575196 0.147436 0.436033 0.00411556 -0.125314 0.992109
-0.178422 0.198877 0.547928 -0.154585 0.98476 -0.0796989
0.0626303 0.201982 0.70879 -0.0633376 -0.996314 0.0578528
-0.106832 0.216647 0.654872 -0.0711932 0.995752 -0.058386
-0.175014 -0.227431 0.138812 -0.000762006 1 0
-0.0646337 0.171639 0.455319 0.0436803 -0.92481 0.377913
-0.144768 0.191172 0.660336 0.135135 -0.988742 0.0642512
-0.178424 -0.227434 0.223639 -0.000762006 1 0
0.0378267 0.222872 0.676971 0.0702854 0.995919 -0.0566105
-0.182763 -0.245041 0.116493 -1 -0.000571009 0
0.162275 0.215278 0.786006 0.152003 0.987189 -0.0485142
0.00460809 0.201208 0.668775 0.000736634 -0.998112 0.0614085
0.0836934 0.127078 0.414188 0.000396227 0.0344732 -0.999406
0.156425 -0.227184 0.0602086 -0.000761463 1 0
-0.182792 -0.205806 0.419429 -0.999999 -0.000925276 0.000216805
-0.175231 -0.227431 0.0224997 -0.000762006 1 0
-0.100312 0.204107 0.495861 -0.0663571 0.985953 -0.153275
-0.177301 0.202689 0.596669 -0.152004 0.985949 -0.0692754
-0.0847211 0.210056 0.533144 -0.0731276 0.991727 -0.105496
0.182933 -0.0322331 0.432035 1 0.000721895 0.000150493
-0.0437652 0.198674 0.637604 0.0634836 -0.995884 0.0646881
0.170564 0.206756 0.643216 0.1479 0.987368 -0.0568414
0.109364 -0.220907 0.415121 0.00408548 0.701127 -0.713025
0.144397 0.061978 0.413644 -2.04737e-05 -0.00762001 -0.999971
-0.164677 0.169079 0.472069 0.0962515 -0.970189 0.222415
0.0308569 0.22085 0.640481 -0.000750352 0.998245 -0.0592101
-0.115633 0.191785 0.445646 -0.0996687 0.957519 -0.270597
0.182785 0.16872 0.43759 0.999999 0.00132777 0.000761069
-0.0329595 0.217908 0.588753 -0.000750329 0.998214 -0.0597296
0.117392 0.19627 0.680401 -0.133679 -0.989261 0.0590945
-0.00942995 0.0595617 0.432867 1.19028e-06 -0.00159507 0.999999
-0.168195 -0.148209 0.436521 -0.000114571 0.0217599 0.999763
-0.13365 0.189084 0.60451 0.134346 -0.98856 0.0685622
0.162474 0.208638 0.158975 -0.754314 0.642324 0.135759
-0.182502 0.206669 0.678152 -0.150846 0.987165 -0.0524445
-0.0654411 0.225614 0.76826 -0.072554 0.99613 -0.0496105
-0.129489 0.157969 0.415935 -0.00868321 0.13032 -0.991434
0.0882518 0.204247 0.780037 -0.0655937 -0.996468 0.0524309
-0.0718964 0.194398 0.599417 0.0636078 -0.995695 0.0674207
0.0483447 -0.245189 0.395741 0.000586016 -0.997084 0.0763109
0.0118715 0.075209 0.413599 -9.00272e-07 0.00120655 -0.999999
0.164951 0.0176063 0.433121 -0.000129505 0.0139907 0.999902
-0.180064 0.177138 0.303554 -0.7517 0.645213 0.136555
0.133067 -0.123117 0.417141 -1.97867e-05 -0.0218459 -0.999761
0.115487 0.202257 0.784508 -0.137953 -0.989071 0.0520417
0.0777191 0.220334 0.681848 0.0702854 0.995919 -0.0566105
0.0423838 0.147232 0.414967 0.00208121 0.0652007 -0.99787
-0.15415 0.180587 0.537698 0.133612 -0.986286 0.0968929
-0.0353223 0.213396 0.531913 -0.000733194 0.993726 -0.111843
0.0111478 -0.0672159 0.434657 -1.6259e-05 0.0217513 0.999763
-0.120838 0.205869 0.526898 -0.150045 0.983129 -0.104616
0.167505 -0.02346 0.433772 -4.18723e-05 0.0189256 0.999821
0.183089 -0.235745 0.255671 0.999999 0.00114202 0
-0.162701 0.0204311 0.414089 -5.64065e-05 -0.0139908 -0.999902
0.14547 -0.114713 0.435774 -9.95116e-05 0.0229696 0.999736
0.0254993 -0.11335 0.435726 -1.71947e-05 0.0230441 0.999734
-0.128562 -0.0813832 0.41619 3.61259e-05 -0.0231646 -0.999732
0.118269 0.0189398 0.433096 -0.000129505 0.0139907 0.999902
-0.100367 0.175637 0.472495 0.0453776 -0.961129 0.272346
-0.126804 0.167081 0.4527 0.0851844 -0.950676 0.29826
-0.156622 -0.245661 0.390171 0.000736909 -0.998479 0.0551312
-0.131113 -0.226648 0.386834 -0.0002997 0.996366 -0.085174
-0.0120081 0.192496 0.548502 0.000733612 -0.994019 0.109204
0.170139 0.161293 0.406262 -0.172965 0.963756 0.203121
0.182766 0.194058 0.536628 0.999999 0.00106801 -9.98448e-05
0.137624 -0.181464 0.418212 4.92536e-05 -0.0132008 -0.999913
-0.137284 0.00770885 0.433257 0.000111257 0.0143299 0.999897
-0.152459 -0.244093 0.409555 0.000595715 -0.990576 0.136965
-0.145572 -0.189089 0.437305 7.92541e-06 0.0131833 0.999913
-0.145966 -0.0860085 0.435102 6.98596e-05 0.0234477 0.999725
0.0651117 0.224269 0.789256 7.80691e-05 0.00108773 0.999999
-0.173536 0.176518 0.331113 -0.174548 0.963451 0.203212
-0.166935 -0.231854 0.435717 0.000253344 -0.421269 0.906936
0.163031 0.219838 0.0622349 -0.749645 -0.647404 -0.137482
-0.0411456 0.205245 0.742925 0.0663152 -0.996248 0.0556019
0.166928 0.174358 0.49978 -0.125708 -0.982345 0.138552
-0.174984 -0.227431 0.330603 -0.000762006 1 0
-0.0376661 0.0118041 0.433188 6.07374e-05 0.0139489 0.999903
0.0263082 -0.0901819 0.435191 -1.7371e-05 0.0232381 0.99973
-0.130599 0.207372 0.560123 -0.154734 0.984769 -0.0792924
-0.0469529 0.193571 0.567089 0.0641271 -0.994463 0.0832507
0.0924486 0.203705 0.490578 0.0592445 0.982164 -0.178451
-0.0461107 0.225207 0.732354 -0.0721021 0.996095 -0.0509471
-0.115863 -0.217269 0.417885 0 0.46571 -0.884937
-0.110834 -0.152074 0.417736 -4.24121e-05 -0.0189225 -0.999821
-0.0788315 0.15159 0.436646 0.00411556 -0.125314 0.992109
0.00590707 0.198683 0.63027 0.000750134 -0.997955 0.0639141
-0.0405368 -0.213631 0.418355 -0.000422023 -0.00311853 -0.999995
-0.166123 0.184148 0.597279 0.136037 -0.987984 0.073356
-0.0379589 -0.226033 0.38877 -0.0062497 0.996482 -0.0835758
-0.183084 0.189882 0.517417 -0.999999 -0.00104946 0.000122589
0.149154 -0.152147 0.417744 9.59411e-05 -0.0189224 -0.999821
-0.164324 0.186373 0.212397 0.499584 -0.847323 -0.180166
-0.171807 -0.246688 0.0691361 0.00076149 -1 0
-0.112234 0.098961 0.413668 -0.000401896 0.0142822 -0.999898
-0.154742 -0.0615816 0.415731 2.05057e-06 -0.0230823 -0.999734
0.00345797 0.197183 0.606947 0.000749953 -0.997715 0.0675575
-0.157893 0.188402 0.449445 -0.113593 0.970842 -0.211099
-0.153879 -0.246563 0.334273 1 0.000571008 0
0.0597374 0.187243 0.517877 -0.0586763 -0.987735 0.144698
0.035559 -0.246554 0.347627 0.000751621 -0.999932 0.011636
0.12259 0.221176 0.781683 0.152003 0.987189 -0.0485142
0.182762 0.206359 0.671607 1 0.000560066 -2.97247e-05
-0.114154 0.175953 0.418995 -0.0210948 0.287289 -0.957612
0.0276874 -0.137823 0.417441 1.40166e-05 -0.0186472 -0.999826
0.00486073 0.141744 0.414646 -2.48299e-05 0.033033 -0.999454
0.111407 0.216993 0.666883 0.149369 0.987263 -0.0547811
0.174744 -0.14001 0.436348 6.29335e-05 0.0217608 0.999763
0.0678511 -0.244219 0.40681 0.00044886 -0.995074 0.0991361
-0.0601779 0.0475848 0.432863 -7.69346e-06 0.00735876 0.999973
-0.171145 -0.0781418 0.43492 6.98596e-05 0.0234477 0.999725
-0.148081 0.0774249 0.413602 -5.10352e-06 0.00122118 -0.999999
-0.0732443 0.218879 0.651997 -0.0711932 0.995752 -0.058386
0.0837168 0.200924 0.713895 -0.0641033 -0.996368 0.056048
-0.0905715 0.184064 0.509909 0.0596889 -0.980195 0.188826
0.136247 0.212312 0.650221 0.148327 0.987243 -0.057887
0.13528 -0.0419121 0.415292 2.59935e-05 -0.0218619 -0.999761
-0.0237144 -0.173635 0.437019 -1.41399e-05 0.0188112 0.999823
-0.17375 0.190827 0.725169 0.137967 -0.988891 0.055307
-0.0683513 -0.0705901 0.43474 0.00016753 0.0232383 0.99973
0.173444 -0.24643 0.0187177 0.000761464 -1 0
0.170189 0.210814 0.718632 0.150376 0.987286 -0.051507
0.100113 -0.0636513 0.434597 -0.000300191 0.0216518 0.999765
-0.000400562 0.224154 0.698835 -0.000750624 0.998604 -0.0528223
-0.0135518 -0.246425 0.36054 0.000751593 -0.999895 0.0144391
0.17979 -0.227167 0.204451 -0.000761463 1 0
-0.107052 -0.226829 0.383165 -0.0062608 0.999598 -0.0276359
0.183083 -0.230496 0.319278 0.999999 0.00114202 0
0.0998316 0.191612 0.583422 -0.062866 -0.995742 0.0674239
-0.163559 -0.136932 0.417444 -8.15081e-05 -0.0218459 -0.999761
0.171494 0.149079 0.375217 -0.174579 -0.963135 -0.20468
-0.0542592 -0.0390816 0.415219 -0.000165109 -0.0216945 -0.999765
-0.114199 0.194299 0.644155 0.135135 -0.988742 0.0642512
0.156677 -0.227184 0.102795 -0.000761463 1 0
-0.152928 0.142099 0.414911 -0.00402002 0.067825 -0.997689
0.0264191 0.175117 0.417856 -0.000204647 0.277286 -0.960787
-0.166379 -0.227425 0.204761 -0.000762006 1 0
0.16821 -0.227175 0.0123155 -0.000761463 1 0
0.182805 0.142043 0.419768 1 0.000696152 -0.000279337
0.183099 -0.245054 0.109157 0.999999 0.00114202 0
0.0238485 0.186266 0.504088 0.000738094 -0.981936 0.189213
0.178504 -0.0528031 0.434365 -2.93406e-05 0.0215321 0.999768
0.134492 0.194271 0.685632 -0.135168 -0.989268 0.055489
0.181542 -0.246424 0.137388 0.000761464 -1 0
-0.0336135 0.124123 0.434049 4.84238e-05 -0.0644215 0.997923
-0.0795806 0.2044 0.489736 -0.0660794 0.981827 -0.177901
-0.0757907 0.199632 0.684855 0.064667 -0.996024 0.0612799
-0.114946 0.0427751 0.4329 1.9407e-05 0.00764286 0.999971
0.126722 0.0938039 0.433155 -0.00010327 -0.0147181 0.999892
0.104364 -0.0317318 0.415073 0.000199397 -0.0215829 -0.999767
0.0405487 -0.127631 0.436057 -0.000308896 0.0230439 0.999734
0.0985063 -0.0461815 0.434218 -0.000300191 0.0216518 0.999765
-0.0151779 0.219227 0.789263 -8.00071e-07 0.00106468 0.999999
0.10666 0.109803 0.433566 -0.000563597 -0.0343081 0.999411
0.182829 0.117156 0.425108 1 0.000548706 -2.30823e-05
-0.00997217 0.206593 0.761537 0.000750549 -0.998507 0.0546269
0.177345 0.211303 0.751041 0.150405 0.987479 -0.0475827
0.0548547 0.219274 0.635602 0.0696904 0.995818 -0.0590661
-0.166524 0.213178 0.759461 -0.152737 0.987091 -0.0481839
-0.0773668 -0.246473 0.360563 0.000751592 -0.999895 0.0144391
-0.168335 -0.226079 0.397128 -0.000290454 0.997997 -0.0632558
0.0126694 -0.245524 0.390364 0.000750526 -0.998476 0.0551829
-0.0589327 -0.239725 0.427765 0.0010234 -0.860787 0.508964
0.126271 -0.163094 0.417949 7.03416e-05 -0.0188528 -0.999822
-0.0296069 -0.0287674 0.414993 1.61883e-05 -0.0216943 -0.999765
-0.13114 0.171989 0.46941 0.104722 -0.95683 0.271128
-0.00172132 -0.161642 0.436794 -1.41399e-05 0.0188112 0.999823
-0.182852 -0.126796 0.430679 -1 -0.000774419 -0.000202997
-0.0351356 0.22163 0.654469 -0.000736621 0.998243 -0.0592425
-0.0630563 -0.159609 0.436763 0.000280019 0.0188115 0.999823
-0.0383597 0.223604 0.691127 -0.0717978 0.996027 -0.0526859
-0.124006 -0.0983243 0.43539 6.98596e-05 0.0234477 0.999725
-0.039991 0.215552 0.789267 -7.80206e-05 0.0010646 0.999999
-0.0329457 0.18624 0.504175 0.000724702 -0.981945 0.189163
0.115291 0.211903 0.589173 0.150597 0.986643 -0.0621055
0.107608 -0.192311 0.437349 -0.000277521 0.0131831 0.999913
-0.112302 -0.0774698 0.4161 3.61259e-05 -0.0231646 -0.999732
0.0040199 0.194121 0.44023 -0.000696192 0.926191 -0.377054
-0.182767 -0.236833 0.397564 -1 -0.000573142 4.29813e-05
-0.144424 -0.0370343 0.415185 1.16336e-05 -0.0215907 -0.999767
-0.0411565 0.0565207 0.432863 4.28572e-06 -0.00159507 0.999999
0.00683596 0.0469486 0.41376 5.73386e-06 -0.00768423 -0.99997
-0.0659051 0.0246454 0.433034 0.000101228 0.00764292 0.999971
0.177039 0.206228 0.18184 0.500405 0.847169 0.178605
0.0920727 0.189291 0.550827 -0.0626466 -0.992417 0.105757
-0.117693 -0.166372 0.4369 -0.000119889 0.0185232 0.999828
-0.0771002 -0.146517 0.417619 -0.000347322 -0.0189228 -0.999821
-0.0748896 0.195324 0.616332 0.0636216 -0.995911 0.0641374
-0.165752 -0.246683 0.054211 0.00076149 -1 0
-0.0799189 -0.24593 0.382891 0.000751099 -0.999239 0.0389874
-0.182505 -0.246696 0.0152515 0.00076149 -1 0
0.0690072 0.0897127 0.433089 -1.72416e-05 -0.0144352 0.999896
0.13244 -0.226746 0.370563 -0.00133863 0.999415 -0.0341885
-0.0205194 0.00437388 0.433291 -1.04106e-05 0.0139489 0.999903
-0.0833191 -0.161638 0.417906 -0.000459414 -0.0186475 -0.999826
-0.153882 -0.24135 0.0994786 1 0.000571008 0
-0.161713 -0.24668 0.237737 0.00076149 -1 0
-0.153883 -0.239532 0.283744 1 0.000571008 0
0.0479933 -0.00143235 0.433376 -0.000236338 0.0139487 0.999903
-0.00479268 0.227307 0.759834 -0.000750744 0.998763 -0.0497117
-0.168779 0.180872 0.561014 0.136488 -0.987044 0.0843544
-0.0241385 0.19942 0.456304 -0.000704419 0.954726 -0.297487
-0.0536107 -0.127538 0.436057 0.000264109 0.023355 0.999727
0.183007 -0.128474 0.421872 1 0.000761675 -0.000381492
-0.0799114 0.182336 0.497038 0.0557833 -0.983218 0.173696
-0.183082 0.188782 0.61673 -1 -0.000554203 3.69903e-05
-0.0246586 -0.203864 0.437484 -9.83922e-06 0.0133318 0.999911
-0.0556551 -0.10709 0.435584 0.000147373 0.0230439 0.999734
0.164855 0.185163 0.28368 -0.76649 0.628432 0.132538
-0.183046 0.169568 0.484086 0.107163 -0.979141 0.172622
0.104491 0.198687 0.697884 -0.0641033 -0.996368 0.056048
0.110001 0.221135 0.741586 0.151105 0.987293 -0.0491845
-0.153889 -0.22885 0.269649 1 0.000571008 0
0.0319998 0.20304 0.698379 0.000750408 -0.998318 0.0579692
-0.043064 0.0742613 0.432891 4.28572e-06 -0.00159507 0.999999
-0.0648246 -0.120165 0.417066 -0.000145231 -0.021846 -0.999761
0.012268 0.225946 0.732873 -0.000750691 0.998694 -0.0510801
-0.103069 0.209074 0.536631 -0.0731276 0.991727 -0.105496
0.146809 0.106322 0.433483 -0.000939366 -0.0343085 0.999411
0.127607 0.205645 0.533952 0.152922 0.98269 -0.104571
0.142422 0.197366 0.762943 -0.137953 -0.989071 0.0520417
-0.0946791 0.10028 0.413684 -7.28995e-05 0.0139525 -0.999903
0.0385534 0.197258 0.449591 0.0517404 0.953466 -0.297028
0.0147671 0.212187 0.520838 -0.000746959 0.99373 -0.111803
0.154078 0.155881 0.438932 -0.0230909 -0.306619 0.951552
-0.114382 0.196511 0.679784 0.136767 -0.988819 0.0594278
0.0640276 0.211201 0.529653 0.0715863 0.991181 -0.111516
-0.156665 -0.159301 0.436764 -0.000114571 0.0217599 0.999763
-0.170499 -0.227428 0.0474916 -0.000762006 1 0
0.103554 -0.208612 0.437563 -0.000226954 0.013331 0.999911
-0.1166 -0.0415185 0.415282 1.16336e-05 -0.0215907 -0.999767
0.161604 0.171455 0.315523 -0.999999 -0.00165994 -0.000218687
0.17288 -0.227172 0.17262 -0.000761463 1 0
0.181353 -0.224357 0.408706 -0.00131609 0.982588 -0.185796
-0.0115141 0.200205 0.653591 0.000750018 -0.9978 0.0662883
0.142998 -0.157458 0.43673 8.17166e-05 0.0218094 0.999762
-0.112739 0.188281 0.557033 0.135937 -0.987261 0.0826869
-0.183077 0.177415 0.431519 -1 -0.000782746 0.000362093
0.181483 -0.231941 0.435556 0.000312019 -0.422771 0.906236
-0.0894833 0.217761 0.65273 -0.0711932 0.995752 -0.058386
-0.0763485 0.194717 0.447577 -0.0475485 0.953646 -0.297151
-0.0942234 -0.237835 0.430625 0.000866132 -0.728512 0.685033
-0.00261952 0.190969 0.53454 0.000747173 -0.994015 0.109246
0.0821851 0.151597 0.415331 0.00150472 0.0678722 -0.997693
-0.167348 0.220306 0.0444272 0.499584 -0.847323 -0.180166
-0.0983099 -0.243477 0.413739 0.00102882 -0.990576 0.136962
0.00243334 -0.009728 0.433497 -1.37918e-05 0.0184802 0.999829
-0.0660174 0.0714064 0.413594 -9.02009e-07 0.00120655 -0.999999
0.167729 0.21878 0.131434 -0.174229 0.963542 0.203056
-0.106515 0.219887 0.714018 -0.0720981 0.99604 -0.0520153
-0.0771387 -0.205715 0.418346 -0.000422023 -0.00311853 -0.999995
-0.0411606 -0.066341 0.434639 0.00022729 0.0216445 0.999766
0.169281 0.00185193 0.414401 -0.000119775 -0.018919 -0.999821
0.116213 -0.136295 0.436271 8.17166e-05 0.0218094 0.999762
0.113288 0.192163 0.607225 -0.132836 -0.988417 0.0733887
-0.00642813 0.117994 0.413926 -8.19895e-06 0.0139525 -0.999903
0.116514 0.178994 0.420425 0.0578279 0.698887 -0.71289
-0.133363 0.218045 0.754036 -0.152742 0.987121 -0.047565
0.0578014 0.223476 0.714182 0.070609 0.996112 -0.0526904
-0.148351 0.212346 0.686785 -0.150846 0.987165 -0.0524445
0.0704731 -0.245495 0.390108 0.000742228 -0.998476 0.0551829
0.130193 0.184667 0.54368 -0.132021 -0.985666 0.105038
-0.0611073 -0.24635 0.366926 0.000737882 -0.999806 0.0197064
-0.145215 -0.156039 0.417812 -4.24121e-05 -0.0189225 -0.999821
-0.166295 0.203071 0.577957 -0.152004 0.985949 -0.0692754
0.137234 0.218693 0.777034 0.152003 0.987189 -0.0485142
-0.0401522 0.226617 0.7515 -0.0721021 0.996095 -0.0509471
0.0037783 0.175685 0.461944 0.000718239 -0.955521 0.294921
-0.0771042 0.196564 0.637838 0.0634836 -0.995884 0.0646881
-0.00239514 0.0285567 0.433003 -5.50121e-06 0.00735876 0.999973
0.0521709 0.197187 0.621899 -0.0621355 -0.996027 0.0637906
-0.167536 0.234409 0.0540063 0.490186 0.852874 0.179787
0.158622 -0.227183 0.228195 -0.000761463 1 0
0.0584182 0.214263 0.557489 0.0716714 0.99424 -0.0796812
0.154912 0.182262 0.553097 -0.134727 -0.986142 0.0968165
-0.109074 -0.246332 0.369652 0.000751523 -0.999803 0.019827
-0.0758888 0.0406727 0.432914 -7.69346e-06 0.00735876 0.999973
0.0663448 -0.226811 0.361763 0.00507235 0.999679 -0.024819
0.0836453 0.00681557 0.414309 0.000188214 -0.0185426 -0.999828
0.0768573 -0.131868 0.417324 0.000249769 -0.0218457 -0.999761
0.170765 -0.246432 0.164624 0.000761464 -1 0
-0.149996 0.198894 0.504183 -0.140415 0.980356 -0.138513
-0.0302555 0.180726 0.479065 0.00071685 -0.97145 0.237242
-0.146436 0.184919 0.572298 0.135937 -0.987261 0.0826869
-0.169157 0.178781 0.540004 0.133612 -0.986286 0.0968929
0.0403643 0.116339 0.413904 0.000160443 0.0139591 -0.999903
0.166154 0.107468 0.413834 0.000413961 0.0163539 -0.999866
0.107831 0.00268868 0.414392 0.000326429 -0.0188985 -0.999821
-0.0807588 0.201484 0.722339 0.0655613 -0.996172 0.0578124
-0.0293819 0.171894 0.452704 0.000695818 -0.925693 0.378274
-0.11373 0.00342542 0.433316 0.000111257 0.0143299 0.999897
-0.172705 0.154801 0.43927 0.055224 -0.729815 0.68141
-0.0494694 0.203781 0.476864 -0.0603348 0.978463 -0.197407
0.172351 0.198688 0.230574 0.491621 0.852111 0.179489
0.16658 -0.0397012 0.415245 2.59935e-05 -0.0218619 -0.999761
-0.119956 -0.225724 0.40167 -0.000279878 0.992477 -0.122429
0.182765 0.198324 0.618115 1 0.000552296 -3.49122e-05
0.104168 -0.180109 0.41819 0.000513278 -0.0132004 -0.999913
0.0228017 -0.168536 0.436924 -1.41399e-05 0.0188112 0.999823
0.172566 -0.227172 0.101406 -0.000761463 1 0
0.153716 0.187038 0.442508 0.0957415 0.932665 -0.347806
0.117952 0.119952 0.433926 -0.00176715 -0.0369391 0.999316
0.0931481 -0.0957123 0.416522 0.000120541 -0.0229871 -0.999736
0.174146 -0.24643 0.227203 0.000761464 -1 0
0.154208 -0.238908 0.146038 -0.999999 -0.00114279 0
-0.0118612 0.167981 0.416752 -9.33854e-05 0.126534 -0.991962
0.0888183 0.216243 0.789263 7.80691e-05 0.00108773 0.999999
0.0188089 0.201033 0.462225 -0.000716031 0.970462 -0.241253
0.1783 0.173288 0.331882 0.933895 0.349881 0.0736488
0.106422 0.0379883 0.413843 0.000244123 -0.0146029 -0.999893
-0.165706 0.158734 0.407755 0.499065 0.847897 0.178896
0.182778 0.181036 0.566353 1 0.000798403 0.00036908
-0.0742162 0.20468 0.77292 0.0663241 -0.996383 0.0531211
-0.153889 -0.229951 0.11236 1 0.000571008 0
-0.182979 0.0499678 0.423262 -1 -0.000783225 -0.000212222
0.0495142 0.169056 0.448128 -0.0320838 -0.858899 0.51114
0.039543 -0.226889 0.349212 0.00523375 0.999878 -0.0147352
0.0628303 0.172766 0.457381 -0.0381664 -0.925019 0.377999
0.0414933 -0.245951 0.380021 0.000737464 -0.999242 0.0389149
-0.10738 0.221066 0.738394 -0.0725527 0.996113 -0.0499543
0.0801694 -0.0684112 0.434695 -0.000255727 0.0217512 0.999763
-0.17964 0.227351 0.068634 -0.7517 0.645213 0.136555
-0.150012 -0.226913 0.371521 -0.000150208 0.999421 -0.0340328
0.0617471 0.206948 0.497131 0.065041 0.988068 -0.139615
0.179662 0.156523 0.393402 0.939026 0.336429 0.071032
0.154014 -0.22664 0.382732 -0.00120231 0.999622 -0.0274658
0.153233 -0.216603 0.418008 -0.000236957 0.157619 -0.9875
0.11514 -0.105195 0.416742 -2.66287e-06 -0.0229872 -0.999736
0.167096 -0.227176 0.306353 -0.000761463 1 0
-0.0749259 -0.226708 0.376905 -0.00611925 0.999856 0.015846
-0.0941282 0.0529158 0.413713 5.69672e-06 -0.00761999 -0.999971
0.0679348 0.151616 0.436585 -0.00407788 -0.12967 0.991549
0.1489 -0.182437 0.437203 -3.873e-05 0.0185232 0.999828
-0.183086 0.193156 0.534917 -0.999999 -0.00106706 9.92795e-05
0.0871253 0.115636 0.433756 -0.000563597 -0.0343081 0.999411
0.0562937 0.155031 0.415506 0.00208121 0.0652007 -0.99787
0.0342725 -0.195019 0.418295 2.34393e-06 -0.00311828 -0.999995
-0.117725 0.0267436 0.433022 1.9407e-05 0.00764286 0.999971
0.0594666 0.201028 0.68909 -0.0633314 -0.996217 0.0595099
-0.0982832 -0.0437899 0.434163 0.000268261 0.0217515 0.999763
0.00975689 0.150091 0.436277 9.24634e-05 -0.125318 0.992117
0.0396183 0.193441 0.559438 -0.062781 -0.994545 0.083297
0.146414 0.194957 0.474423 0.124541 0.968415 -0.216011
-0.102427 -0.204609 0.437508 0.00020795 0.0131835 0.999913
0.113697 0.200583 0.748152 -0.13648 -0.989178 0.0538486
-0.0675131 -0.0488977 0.415434 -0.000165109 -0.0216945 -0.999765
-0.0724483 0.211832 0.541335 -0.0731276 0.991727 -0.105496
-0.167259 -0.246586 0.357363 0.000751599 -0.999897 0.01432
-0.0283062 0.198367 0.625751 0.000750134 -0.997955 0.0639141
0.02554 -0.212271 0.437502 1.50202e-05 -0.0203516 0.999793
-0.148405 0.202203 0.5323 -0.154572 0.983733 -0.0915269
-0.15389 -0.227493 0.311094 1 0.000571008 0
0.0418072 0.216449 0.56996 0.0717588 0.995452 -0.0626601
-0.0985384 -0.118754 0.435863 0.000264109 0.023355 0.999727
0.170591 0.183198 0.590204 -0.132836 -0.988417 0.0733887
-0.17391 -0.246689 0.278789 0.00076149 -1 0
-0.0537855 0.202311 0.706016 0.0655613 -0.996172 0.0578124
-0.0696096 0.0687095 0.432882 4.28572e-06 -0.00159507 0.999999
-0.179365 -0.186047 0.437266 7.92541e-06 0.0131833 0.999913
-0.133575 0.215843 0.710454 -0.150853 0.987211 -0.0515542
-0.0282407 0.201253 0.669894 0.000736634 -0.998112 0.0614085
0.0774513 -0.0703054 0.41593 0.000223269 -0.0231726 -0.999731
-0.142149 0.17378 0.482588 0.107163 -0.979141 0.172622
0.154212 -0.241885 0.323903 -0.999999 -0.00114279 0
0.105228 0.196603 0.663889 -0.0625794 -0.995943 0.064668
0.105532 0.173321 0.46461 -0.0486766 -0.961179 0.271597
-0.14393 0.207194 0.587556 -0.152004 0.985949 -0.0692754
0.168756 -0.146347 0.417636 7.03416e-05 -0.0188528 -0.999822
-0.0280519 -0.112816 0.435713 -1.73214e-05 0.0230438 0.999735
-0.0900559 0.214941 0.604433 -0.0720836 0.995985 -0.0530743
-0.033966 0.0998384 0.413673 -8.19895e-06 0.0139525 -0.999903
0.164553 -0.244643 0.401865 0.00073588 -0.997084 0.0763109
0.174994 0.167263 0.296342 0.500317 -0.846907 -0.180089
0.167661 -0.0247236 0.414918 -9.43043e-05 -0.0215831 -0.999767
0.144459 0.216516 0.75473 0.151105 0.987293 -0.0491845
-0.116863 0.144223 0.41491 -0.00402002 0.067825 -0.997689
0.0868007 0.180064 0.420103 0.0253958 0.699833 -0.713855
0.0697099 -0.142218 0.436386 -0.000348748 0.021809 0.999762
-0.0740519 0.166339 0.445403 0.033895 -0.872894 0.486732
-0.18277 -0.232086 0.362679 -1 -0.000568466 1.41997e-05
-0.107789 0.198045 0.69278 0.0640897 -0.996147 0.0598682
0.145694 -0.229976 0.436423 0.000173326 -0.234848 0.972032
-0.162846 0.164946 0.358837 0.939212 0.335927 0.070954
0.0661394 0.204132 0.751165 -0.0646929 -0.99643 0.0542434
0.166939 0.213398 0.0764471 -0.174579 -0.963135 -0.20468
0.0785969 0.197696 0.654953 -0.0625794 -0.995943 0.064668
0.0410473 0.21991 0.630041 0.0696904 0.995818 -0.0590661
-0.105526 0.20002 0.7252 0.0655613 -0.996172 0.0578124
0.0387779 0.207357 0.777663 -0.064692 -0.996415 0.054512
0.113142 0.189733 0.573673 -0.1349 -0.987407 0.0826403
-0.0925591 0.11965 0.433904 0.000596977 -0.033319 0.999445
-0.0171738 0.219833 0.623562 -0.000750606 0.998583 -0.0532127
-0.170959 0.241369 0.025871 -0.172927 0.963726 0.203296
-0.146304 0.0564869 0.413686 3.2525e-05 -0.00778265 -0.99997
-0.112008 -0.200956 0.418355 0.000149945 -0.0023205 -0.999997
-0.177555 0.0608829 0.413651 3.2525e-05 -0.00778265 -0.99997
0.137034 0.200234 0.500495 0.139476 0.984268 -0.108454
-0.066224 0.190281 0.545818 0.0639801 -0.991975 0.109051
0.0859488 0.224165 0.767406 0.0712182 0.996258 -0.0489599
-0.1253 0.0981825 0.433228 0.000510992 -0.0147179 0.999892
0.144304 -0.0869131 0.416322 -2.66287e-06 -0.0229872 -0.999736
0.182711 -0.227164 0.081733 -0.000761463 1 0
0.114345 0.0468841 0.43287 -7.07456e-05 0.00764279 0.999971
0.0400854 0.0360605 0.413872 -3.5265e-05 -0.0138954 -0.999903
0.0655442 0.118804 0.413942 0.000160443 0.0139591 -0.999903
0.151588 -0.0881445 0.435162 -0.000100388 0.023172 0.999731
-0.165809 0.135431 0.414618 -0.00253191 0.0369367 -0.999314
0.140385 0.0759072 0.413603 4.5401e-06 0.00168975 -0.999999
-0.0686902 0.181078 0.48795 0.0550321 -0.969978 0.236883
0.0691118 0.12979 0.434446 -0.00105836 -0.0644257 0.997922
0.134199 -0.0218351 0.433741 -8.23269e-06 0.0190081 0.999819
0.173068 0.209453 0.700135 0.149412 0.987547 -0.0492713
0.161604 0.168422 0.3392 -0.999999 -0.00165994 -0.000218687
0.0414855 0.189596 0.526538 -0.0586763 -0.987735 0.144698
0.0104578 0.0902293 0.433096 1.06534e-05 -0.0144352 0.999896
-0.170803 -0.0603728 0.415703 2.05057e-06 -0.0230823 -0.999734
-0.180032 0.210308 0.743336 -0.152742 0.987121 -0.047565
0.0156726 -0.226649 0.363067 -0.000751467 0.999727 -0.0233354
0.1764 0.154013 0.362557 0.500317 -0.846907 -0.180089
-0.156131 -0.227417 0.0162516 -0.000762006 1 0
0.157372 -0.158718 0.436757 8.17166e-05 0.0218094 0.999762
0.107449 0.21609 0.643827 0.0694087 0.995878 -0.0583933
0.166276 0.190317 0.18562 -0.174579 -0.963135 -0.20468
0.0173253 0.17348 0.456499 0.000695819 -0.925693 0.378274
-0.175184 0.189475 0.464729 -0.127437 0.978233 -0.163768
-0.0667671 -0.166957 0.41799 -0.00062862 -0.0132011 -0.999913
-0.0885454 0.206126 0.503911 -0.0707751 0.987683 -0.139548
-0.111039 0.187621 0.43265 -0.086535 0.933455 -0.348101
-0.112651 0.0235867 0.414052 0.000189374 -0.014603 -0.999893
-0.003821 0.219033 0.60837 -0.000750607 0.998583 -0.0532127
-0.152388 0.131352 0.434807 0.00421626 -0.0671446 0.997734
-0.0311449 -0.0254236 0.433787 -1.37904e-05 0.0184802 0.999829
-0.0561076 0.157143 0.41564 -0.00224373 0.0678265 -0.997695
-0.106828 0.20091 0.743173 0.0655758 -0.996393 0.0538597
-0.139285 0.140711 0.435608 0.00819453 -0.137872 0.990416
-0.0824356 0.0930997 0.433144 0.000133752 -0.0144348 0.999896
-0.165084 0.177038 0.254194 0.499584 -0.847323 -0.180166
-0.0439041 0.0709974 0.413593 -9.02009e-07 0.00120655 -0.999999
0.0396263 0.090323 0.433097 -1.72416e-05 -0.0144352 0.999896
0.164088 -0.107845 0.416802 -1.31167e-05 -0.0229621 -0.999736
0.172544 0.177314 0.528324 -0.131875 -0.984572 0.115009
-0.146281 -0.241852 0.422222 0.000723466 -0.96273 0.270464
0.137687 -0.24358 0.411744 0.000744593 -0.990576 0.136962
0.115968 0.162158 0.416357 0.00988256 0.130222 -0.991436
0.0255193 0.207811 0.783317 0.000750346 -0.998507 0.0546265
0.0362028 -0.0519683 0.434326 -1.62312e-05 0.0217513 0.999763
0.124394 0.191724 0.623475 -0.132924 -0.989077 0.0636968
0.0609602 -0.189102 0.418286 0.000513278 -0.0132004 -0.999913
0.021869 -0.188046 0.418259 1.00346e-05 -0.0135969 -0.999908
-0.0945862 -0.103056 0.435497 0.000147373 0.0230439 0.999734
0.0415686 -0.158194 0.436731 -0.000314587 0.0185231 0.999828
0.0708087 -0.192329 0.437339 -0.000277521 0.0131831 0.999913
0.183079 -0.227278 0.347816 1 0.000570158 -9.33574e-06
-0.165823 0.190812 0.704369 0.13682 -0.989204 0.0525036
-0.178566 0.213276 0.141046 -0.7517 0.645213 0.136555
0.0940962 -0.236757 0.34661 -4.223e-07 0.000572286 -1
-0.173497 0.186968 0.197991 -0.17266 -0.963459 -0.20478
0.0472176 -0.0857376 0.416282 0.000218393 -0.0232618 -0.999729
0.0738847 0.22155 0.699231 0.070303 0.996169 -0.0519979
-0.07829 0.22354 0.745481 -0.0725527 0.996113 -0.0499543
