-0.0156165 0.155395 0.415491 -4.90087e-05 0.0651995 -0.997872
0.0450565 0.136787 0.414488 0.000802304 0.0330152 -0.999455
0.101856 -0.209512 0.418372 0.000432834 -0.00232034 -0.999997
0.0595737 0.193957 0.580646 -0.0627905 -0.994547 0.0832697
-0.168303 0.226675 0.0927876 0.490186 0.852874 0.179787
0.0677036 -0.128833 0.417255 0.000249769 -0.0218457 -0.999761
-0.134608 0.0953464 0.413627 -0.000180059 0.00168959 -0.999999
-0.183094 0.203238 0.736244 -0.999999 -0.00113239 5.45649e-05
0.0555256 0.0405679 0.432917 -0.000114034 0.0073587 0.999973
0.118694 -0.123189 0.435973 5.65006e-05 0.0233549 0.999727
-0.178906 -0.227434 0.246651 -0.000762006 1 0
0.154091 -0.123326 0.435974 5.65006e-05 0.0233549 0.999727
0.095979 -0.0756254 0.416058 0.000223269 -0.0231726 -0.999731
-0.0835916 0.196686 0.646075 0.0634836 -0.995884 0.0646881
-0.167565 -0.201396 0.418352 -1.94849e-06 -0.00185135 -0.999998
-0.163497 0.1915 0.711272 0.13682 -0.989204 0.0525036
-0.0661571 -0.21462 0.437468 0.000443477 -0.0203502 0.999793
0.0787574 -0.105843 0.435563 -0.00017006 0.0233547 0.999727
0.132011 0.21438 0.675979 0.149369 0.987263 -0.0547811
0.105891 0.219166 0.696825 0.070303 0.996169 -0.0519979
0.00453814 0.0814742 0.413606 -9.00272e-07 0.00120655 -0.999999
-0.0838516 -0.140072 0.436345 0.000307052 0.0220833 0.999756
-0.12205 0.208247 0.55431 -0.154734 0.984769 -0.0792924
0.106781 -0.077302 0.416099 0.000223269 -0.0231726 -0.999731
0.174456 0.133842 0.414578 0.00176184 0.0369401 -0.999316
-0.161101 0.20341 0.570636 -0.154779 0.985994 -0.0621249
0.143183 -0.216322 0.437442 2.86246e-05 -0.0213709 0.999772
-0.154116 -0.246674 0.00572576 0.00076149 -1 0
-0.0643384 0.0951142 0.413623 -6.38047e-06 0.00122118 -0.999999
0.0728799 0.212333 0.54646 0.0718044 0.994201 -0.0800519
0.0449526 -0.245749 0.385123 0.000737464 -0.999242 0.0389149
0.168114 0.19118 0.713026 -0.13649 -0.989249 0.0525065
0.14793 0.132128 0.434799 -0.00439648 -0.0722912 0.997374
-0.153884 -0.238427 0.313067 1 0.000571008 0
0.169378 0.190162 0.464123 0.113022 0.979955 -0.164057
-0.183087 0.193368 0.562715 -1 -0.000540889 4.37754e-05
0.0901038 0.221921 0.728405 0.0706201 0.996268 -0.0496316
0.0087566 0.173856 0.457435 0.000695819 -0.925693 0.378274
-0.177208 0.143599 0.410423 -0.764303 -0.630868 -0.133589
0.161357 0.183157 0.432728 0.0869987 0.954354 -0.285728
-0.162102 0.206383 0.61887 -0.149331 0.986818 -0.0623792
0.167345 -0.0415542 0.434122 -2.93406e-05 0.0215321 0.999768
-0.0860354 -0.100937 0.435447 0.000147373 0.0230439 0.999734
0.183094 -0.240481 0.323164 0.999999 0.00114202 0
-0.144931 -0.0687597 0.415897 3.61259e-05 -0.0231646 -0.999732
-0.000717007 -0.0900413 0.435187 -1.73397e-05 0.0232382 0.99973
-0.0118623 -0.0230584 0.433743 -1.37904e-05 0.0184802 0.999829
0.0682582 0.206755 0.498797 0.065041 0.988068 -0.139615
0.161605 0.172176 0.306027 -0.999999 -0.00165994 -0.000218687
0.182771 0.195348 0.762501 1 0.000568636 -2.81716e-05
0.026508 0.0298285 0.432994 -5.49123e-06 0.00735879 0.999973
0.171179 -0.224526 0.407885 -0.00131609 0.982588 -0.185796
0.0691431 0.0647702 0.432876 -1.91368e-06 -0.00160221 0.999999
-0.0851939 0.179238 0.419599 -0.0111567 0.287349 -0.957761
-0.115839 -0.236359 0.432217 0.000335009 -0.728513 0.685032
-0.129579 0.219051 0.762667 -0.152737 0.987091 -0.0481839
0.0674451 0.200371 0.686575 -0.0633314 -0.996217 0.0595099
-0.14625 0.0200638 0.433081 0.000111257 0.0143299 0.999897
-0.171745 0.219316 0.129745 -0.172927 0.963726 0.203296
0.0924604 0.215342 0.612284 0.0705963 0.995933 -0.0559867
-0.0856298 0.126352 0.414159 -0.000434296 0.0330327 -0.999454
0.0168443 0.192427 0.436044 -0.000696192 0.926191 -0.377054
-0.012227 0.205056 0.733958 0.000750503 -0.998446 0.0557245
-0.176402 0.230234 0.0729652 -0.76678 0.62807 0.132576
0.0951366 0.0813369 0.413606 -9.11339e-07 0.00122119 -0.999999
-0.172918 0.031919 0.413929 -5.64065e-05 -0.0139908 -0.999902
0.156995 0.147379 0.436614 -0.00943808 -0.13789 0.990403
-0.00979972 0.185513 0.500313 0.000724702 -0.981945 0.189163
-0.16857 0.165726 0.382606 0.499065 0.847897 0.178896
0.182803 0.146361 0.42572 1 0.000696152 -0.000279337
-0.142281 0.176663 0.497672 0.118072 -0.983344 0.138177
0.0431502 0.202284 0.468839 0.0584483 0.968803 -0.240841
-0.180406 0.192577 0.778113 0.139312 -0.989035 0.049016
0.108392 0.177488 0.480936 -0.0538119 -0.974429 0.218157
0.0790454 -0.0109765 0.433529 -0.0001585 0.019008 0.999819
-0.183081 0.183212 0.559917 -1 -0.000542501 4.63631e-05
-0.153821 0.183467 0.567179 0.136488 -0.987044 0.0843544
0.0568747 -0.226852 0.357225 0.00507197 0.999853 -0.0163814
-0.153881 -0.243291 0.3064 1 0.000571008 0
-0.10806 -0.0113049 0.433536 0.000346337 0.0190152 0.999819
-0.0684548 0.194998 0.447217 -0.0475485 0.953646 -0.297151
0.139347 -0.239313 0.346608 -4.29455e-07 0.000571335 -1
-0.0142736 0.213976 0.536925 -0.000733194 0.993726 -0.111843
-0.115822 0.0383934 0.413835 -5.64065e-05 -0.0139908 -0.999902
-0.180276 0.232941 0.00609158 -0.747418 -0.649858 -0.138025
-0.116716 0.218533 0.71263 -0.150853 0.987211 -0.0515542
0.171712 0.146865 0.385452 -0.174579 -0.963135 -0.20468
0.108783 -0.0456201 0.434209 -0.000300191 0.0216518 0.999765
0.00099827 -0.113208 0.435723 -1.71947e-05 0.0230441 0.999734
-0.086718 0.207773 0.514641 -0.0707751 0.987683 -0.139548
0.0325075 -0.222777 0.437288 1.50202e-05 -0.0203516 0.999793
0.172028 0.219962 0.0412296 -0.174227 -0.963194 -0.204699
-0.174067 0.208175 0.180584 -0.172927 0.963726 0.203296
0.180044 0.187596 0.235279 0.935381 -0.345944 -0.0733881
-0.178128 0.229087 0.0687563 -0.7517 0.645213 0.136555
-0.120713 -0.169079 0.418045 -2.94811e-05 -0.0131533 -0.999914
-0.0664172 0.0824243 0.413607 -9.02009e-07 0.00120655 -0.999999
-0.0829192 0.203625 0.763992 0.0663241 -0.996383 0.0531211
0.182766 0.202201 0.735822 1 0.000566196 -2.72828e-05
-0.0698675 0.200269 0.688952 0.064667 -0.996024 0.0612799
0.144234 0.195822 0.7381 -0.13648 -0.989178 0.0538486
-0.129326 0.196049 0.707713 0.137967 -0.988891 0.055307
0.0207954 0.195335 0.44318 -0.000696192 0.926191 -0.377054
-0.0606592 0.197002 0.628334 0.0634873 -0.995942 0.0637852
-0.0501602 0.169451 0.449029 0.0367357 -0.858761 0.511058
-0.00723566 -0.0967528 0.435343 -1.73397e-05 0.0232382 0.99973
0.170617 -0.246433 0.284496 0.000761464 -1 0
-0.0200788 0.0429404 0.413791 5.73386e-06 -0.00768423 -0.99997
0.171148 -0.246432 0.297854 0.000761464 -1 0
0.170575 0.153127 0.356957 -0.174579 -0.963135 -0.20468
-0.015191 0.0250845 0.414024 1.03684e-05 -0.0138954 -0.999903
0.134566 -0.159419 0.436773 9.09271e-05 0.0188825 0.999822
0.0537123 0.0520712 0.413721 5.73457e-06 -0.00768423 -0.99997
-0.157302 -0.174365 0.418116 -2.94811e-05 -0.0131533 -0.999914
0.125765 0.00700839 0.433266 4.79774e-06 0.0143298 0.999897
0.103074 0.19134 0.44115 0.0403159 0.936208 -0.349127
0.183087 -0.240889 0.357346 1 0.00056986 -8.16226e-06
-0.134873 0.215444 0.706608 -0.150853 0.987211 -0.0515542
-0.100511 -0.211906 0.437538 0.000443477 -0.0203502 0.999793
0.159711 -0.191239 0.437337 -2.75018e-05 0.0131532 0.999914
-0.0586314 0.164723 0.416425 -0.00392437 0.12653 -0.991955
-0.113842 0.221354 0.759958 -0.152737 0.987091 -0.0481839
-0.171899 0.163566 0.393927 -0.174548 0.963451 0.203212
-0.164005 0.207269 0.115006 0.499584 -0.847323 -0.180166
-0.0308011 0.223708 0.690851 -0.000750624 0.998604 -0.0528223
0.151401 0.196304 0.488132 0.138087 0.974466 -0.177052
0.0679459 -0.190118 0.437309 -0.000277521 0.0131831 0.999913
0.182777 0.185397 0.555136 0.999999 0.0010828 -8.7186e-05
0.154204 -0.235097 0.00924209 -0.999999 -0.00114279 0
-0.0820109 -0.0614704 0.415727 -9.57045e-05 -0.0231647 -0.999732
-0.151499 0.0980838 0.413672 -0.000401896 0.0142822 -0.999898
-0.134751 0.217209 0.741271 -0.151871 0.98716 -0.0495054
-0.0560486 0.0695813 0.413592 -9.02009e-07 0.00120655 -0.999999
0.0789019 0.195154 0.616187 -0.0621355 -0.996027 0.0637906
-0.0529223 -0.0321661 0.433914 0.000346337 0.0190152 0.999819
-0.142173 -0.00652429 0.433458 -2.69946e-05 0.0139959 0.999902
0.179128 0.231501 0.0448252 0.933895 0.349881 0.0736488
0.0861993 0.21349 0.573799 0.0717588 0.995452 -0.0626601
0.00336038 0.204897 0.730905 0.000750503 -0.998446 0.0557245
0.183082 -0.229473 0.296755 0.999999 0.00114202 0
-0.10794 0.195 0.644016 0.0634836 -0.995884 0.0646881
0.052389 0.197512 0.627194 -0.0621355 -0.996027 0.0637906
0.156192 -0.246443 0.228471 0.000761464 -1 0
0.0440233 -0.0252239 0.414919 0.000241233 -0.0216942 -0.999765
-0.0512589 0.193542 0.570058 0.0641271 -0.994463 0.0832507
0.115352 -0.198836 0.437436 -1.76579e-05 0.0131833 0.999913
0.11683 0.199752 0.480148 0.138087 0.974466 -0.177052
0.0325763 0.0417758 0.4138 5.73386e-06 -0.00768423 -0.99997
-0.121037 0.196919 0.702592 0.137967 -0.988891 0.055307
-0.18289 -0.0726161 0.423796 -1 -0.000719104 -0.000147413
-0.149877 -0.110862 0.435685 6.95829e-05 0.0233549 0.999727
-0.154984 -0.0881144 0.435152 6.98596e-05 0.0234477 0.999725
-0.039979 0.103189 0.433323 0.000596977 -0.033319 0.999445
-0.0889863 -0.0339204 0.43396 0.000346337 0.0190152 0.999819
0.15418 0.185483 0.591249 -0.13447 -0.988515 0.0689651
0.146362 0.189241 0.630461 -0.132028 -0.989045 0.0660134
-0.0443852 0.127721 0.414187 -0.000434296 0.0330327 -0.999454
0.154933 -0.246444 0.201751 0.000761464 -1 0
-0.157045 -0.111529 0.435701 -9.22921e-05 0.022962 0.999736
0.0432505 -0.103651 0.416698 0.000218393 -0.0232618 -0.999729
0.132201 0.0873829 0.433062 -0.00010327 -0.0147181 0.999892
-0.0975418 -0.0331868 0.4151 -0.00021213 -0.0215908 -0.999767
-0.0677575 0.162592 0.440717 0.0247157 -0.692514 0.72098
0.104706 -0.182483 0.418221 0.000513278 -0.0132004 -0.999913
-0.106852 -0.226848 0.373385 -0.00611925 0.999856 0.015846
-0.178065 0.211155 0.754591 -0.152742 0.987121 -0.047565
0.0622065 0.188437 0.52716 -0.0613897 -0.988836 0.135771
0.182775 0.182367 0.449976 1 0.000473834 -0.00010303
0.019974 -0.113125 0.416908 1.30294e-05 -0.0216659 -0.999765
0.162822 0.185599 0.608569 -0.132924 -0.989077 0.0636968
-0.133827 0.217724 0.748858 -0.152742 0.987121 -0.047565
0.0767963 -0.232344 0.435389 -6.24595e-05 -0.415585 0.909554
0.165465 -0.227177 0.00816089 -0.000761463 1 0
0.0146432 0.189709 0.430194 -0.000649149 0.863607 -0.504166
0.15697 -0.192051 0.437347 -2.75018e-05 0.0131532 0.999914
0.178756 0.20106 0.194157 0.933895 0.349881 0.0736488
0.027169 -0.0935081 0.41646 1.39894e-05 -0.023262 -0.999729
-0.0106481 0.181088 0.480492 0.00071685 -0.97145 0.237242
0.0473699 0.0333539 0.413909 -3.5265e-05 -0.0138954 -0.999903
-0.18305 0.145872 0.419399 -1 -0.000696151 0.000279337
0.00782838 0.033034 0.413914 1.03684e-05 -0.0138954 -0.999903
-0.172081 0.19355 0.774084 0.139312 -0.989035 0.049016
-0.00834372 0.187604 0.426618 -0.000637153 0.863559 -0.504247
0.0276584 -0.143548 0.436408 -1.65991e-05 0.022083 0.999756
0.0690036 0.211564 0.536081 0.0715863 0.991181 -0.111516
-0.128384 -0.104121 0.416713 4.72109e-05 -0.022987 -0.999736
-0.182688 0.200031 0.570655 -0.152004 0.985949 -0.0692754
-0.135171 0.000444368 0.433361 -2.69946e-05 0.0139959 0.999902
-0.0155946 -0.184968 0.418217 1.00346e-05 -0.0135969 -0.999908
-0.066358 0.220604 0.673473 -0.0712005 0.995855 -0.0565999
-0.141995 0.201656 0.517664 -0.149977 0.982682 -0.108828
-0.0852649 -0.246464 0.361578 0.000751592 -0.999895 0.0144391
0.180056 0.163972 0.346796 0.935381 -0.345944 -0.0733881
-0.0544611 0.122303 0.414012 -0.000434296 0.0330327 -0.999454
-0.151065 -0.149508 0.436552 -0.000114571 0.0217599 0.999763
-0.0873482 0.193676 0.603335 0.0636078 -0.995695 0.0674207
-0.163104 0.200554 0.158232 0.933148 -0.35167 -0.0745831
-0.029321 0.183187 0.489143 0.00071685 -0.97145 0.237242
0.127449 -0.0502951 0.43431 2.04379e-05 0.021652 0.999766
0.071926 -0.125092 0.436008 -0.000308896 0.0230439 0.999734
0.167465 0.189583 0.188063 -0.174579 -0.963135 -0.20468
-0.179861 -0.137588 0.436289 -0.000114571 0.0217599 0.999763
0.0337096 -0.069638 0.434714 -1.7371e-05 0.0232381 0.99973
-0.0956267 -0.246399 0.36573 0.000751523 -0.999803 0.019827
-0.144709 -0.19395 0.437369 7.92541e-06 0.0131833 0.999913
0.0850511 -0.100726 0.435445 -0.00017006 0.0233547 0.999727
-0.0739578 -0.00825042 0.433475 0.000209077 0.0143299 0.999897
0.176399 -0.227169 0.329469 -0.000761463 1 0
0.0303235 0.222528 0.669238 -0.000736728 0.998387 -0.0567753
0.145505 0.214503 0.71727 0.150376 0.987286 -0.051507
-0.097428 0.197099 0.665948 0.0640897 -0.996147 0.0598682
0.172913 0.197469 0.521151 0.148923 0.984556 -0.0920426
-0.0248584 -0.104379 0.416713 1.39894e-05 -0.023262 -0.999729
0.0763995 0.17548 0.418377 0.00959615 0.287369 -0.957772
0.0556737 0.144018 0.435569 -0.0031789 -0.12532 0.992111
-0.0498827 -0.108999 0.41682 -0.000145231 -0.021846 -0.999761
-0.086258 0.164491 0.416508 -0.00471563 0.130327 -0.99146
-0.161215 0.00561805 0.433288 -2.69946e-05 0.0139959 0.999902
-0.112669 0.220755 0.744235 -0.151871 0.98716 -0.0495054
0.0960354 0.180495 0.491321 -0.0538119 -0.974429 0.218157
0.0117717 0.186331 0.504474 0.000738094 -0.981936 0.189213
0.15024 -0.233788 0.434434 0.000572498 -0.634719 0.772743
-0.0156504 0.178152 0.469985 0.000718239 -0.955521 0.294921
0.128341 0.0719971 0.432887 -1.15911e-05 -0.00165197 0.999999
0.161567 0.226062 0.0619126 -1 3.25027e-06 0.000159526
0.162055 -0.22718 0.21005 -0.000761463 1 0
-0.0380494 0.200448 0.658788 0.0640642 -0.995751 0.0661522
-0.164289 -0.166466 0.436896 1.13521e-05 0.0188831 0.999822
0.161608 0.166943 0.334208 -0.999999 -0.00165994 -0.000218687
0.147791 0.158282 0.416124 0.00897278 0.138826 -0.990276
0.182899 0.0163472 0.420994 1 0.000744488 0.000173496
-0.125762 0.0604266 0.413656 -3.07215e-05 -0.00762002 -0.999971
-0.0820586 -0.240587 0.346607 -4.12978e-07 0.000559561 -1
0.182773 0.18698 0.567251 1 0.000798403 0.00036908
-0.177018 0.187823 0.678403 0.135206 -0.989261 0.0555218
0.175058 -0.0543498 0.41557 -2.05114e-06 -0.0230823 -0.999734
-0.0384174 0.00404823 0.433296 6.07374e-05 0.0139489 0.999903
0.12428 -0.219496 0.41649 -0.00105405 0.701132 -0.713031
-0.162876 0.194819 0.217808 0.939212 0.335927 0.070954
-0.130077 0.218873 0.760594 -0.152737 0.987091 -0.0481839
-0.0548042 0.195529 0.599991 0.0636078 -0.995695 0.0674207
0.0213445 0.21696 0.572228 -0.000750328 0.998214 -0.0597296
-0.134738 0.214904 0.69587 -0.150853 0.987211 -0.0515542
0.0609321 -0.171082 0.418044 0.000636586 -0.0135966 -0.999907
-0.13719 0.0185388 0.414121 0.000189374 -0.014603 -0.999893
0.158207 -0.227183 0.075008 -0.000761463 1 0
0.166028 0.194163 0.764657 -0.137953 -0.989071 0.0520417
0.0694606 -0.00529555 0.433435 -0.000236338 0.0139487 0.999903
-0.162893 -0.227422 0.134393 -0.000762006 1 0
0.155535 0.212379 0.705618 0.149412 0.987547 -0.0492713
-0.177625 -0.115377 0.416966 5.07934e-05 -0.0221885 -0.999754
0.161728 0.193932 0.748575 -0.137964 -0.989155 0.0503733
-0.18286 -0.115178 0.428112 -1 -0.000738091 -0.000166691
0.0549 -0.166792 0.436895 -0.000203487 0.0188111 0.999823
-0.172658 0.190105 0.466529 -0.127437 0.978233 -0.163768
0.0160067 0.197594 0.613157 0.000750134 -0.997955 0.0639141
-0.0428786 0.201703 0.683782 0.064667 -0.996024 0.0612799
-0.00968868 0.178649 0.418883 -0.000208454 0.27732 -0.960778
-0.16769 0.00699822 0.433268 -2.69946e-05 0.0139959 0.999902
0.105146 -0.242713 0.417384 0.00044322 -0.983016 0.18352
-0.032178 -0.225945 0.389666 -0.000749042 0.996501 -0.0835774
0.0732333 -0.213913 0.41837 0.000432834 -0.00232034 -0.999997
-0.182955 0.0180318 0.423336 -1 -0.000744488 -0.000173496
0.171762 0.205015 0.616595 0.150595 0.986626 -0.0623676
-0.0479554 -0.179579 0.418149 -0.000486149 -0.0135976 -0.999907
0.118696 -0.211076 0.437555 2.86246e-05 -0.0213709 0.999772
-0.0834319 -0.144257 0.436436 0.000207001 0.0218095 0.999762
-0.0841854 -0.243304 0.414874 0.00106313 -0.99052 0.137363
-0.00603582 -0.0274239 0.414964 1.61883e-05 -0.0216943 -0.999765
-0.121061 0.1863 0.431704 -0.0839009 0.904395 -0.418367
-0.15389 -0.227612 0.134963 1 0.000571008 0
0.0965444 0.173202 0.462727 -0.0436525 -0.95463 0.294577
0.183029 -0.161167 0.423968 1 0.000793834 0.000274369
0.0755408 0.217907 0.63689 0.0694087 0.995878 -0.0583933
0.125655 0.196894 0.710831 -0.135166 -0.989259 0.0556481
0.161643 0.158238 0.392821 -0.754314 0.642324 0.135759
-0.0519389 0.223572 0.709031 -0.0717978 0.996027 -0.0526859
-0.18277 -0.23259 0.0202788 -1 -0.000571009 0
-0.121216 -0.222663 0.43731 3.21808e-06 -0.0214115 0.999771
-0.0681266 -0.0388769 0.415217 -0.000165109 -0.0216945 -0.999765
-0.149709 -0.0577909 0.415643 2.05057e-06 -0.0230823 -0.999734
0.0629277 0.0393936 0.432927 -3.42622e-06 0.00764284 0.999971
-0.111897 0.0513237 0.413725 -3.07215e-05 -0.00762002 -0.999971
-0.0167576 -0.227436 0.437028 0.000175001 -0.232816 0.972521
0.0165214 0.218321 0.59504 -0.000750329 0.998214 -0.0597296
-0.113296 0.191844 0.604423 0.134346 -0.98856 0.0685622
0.09792 0.210875 0.550819 0.0718044 0.994201 -0.0800519
-0.0600881 0.171376 0.417289 -0.00471563 0.130327 -0.99146
-0.0759981 -0.165746 0.436882 0.000280019 0.0188115 0.999823
-0.095092 0.195365 0.637027 0.0634836 -0.995884 0.0646881
-0.00879448 0.168971 0.447221 0.000645943 -0.859341 0.511403
-0.183082 0.190596 0.634178 -1 -0.000556455 3.20343e-05
-0.180401 0.192012 0.222092 -1 -3.16581e-05 0.000149371
0.181871 0.162297 0.416996 0.00897278 0.138826 -0.990276
-0.173142 0.0581095 0.413673 3.2525e-05 -0.00778265 -0.99997
0.139604 -0.246406 0.353666 0.000737778 -0.999932 0.0116352
-0.126206 -0.242753 0.4181 0.00073871 -0.983016 0.183519
0.127872 -0.149895 0.417699 9.59411e-05 -0.0189224 -0.999821
-0.17688 0.161907 0.393898 -0.76678 0.62807 0.132576
0.183081 -0.229527 0.386155 1 0.000572017 -4.90004e-05
-0.0415178 0.200509 0.46135 -0.0538882 0.969065 -0.24085
-0.16308 -0.246681 0.0819621 0.00076149 -1 0
-0.0495976 0.196865 0.45019 -0.0475485 0.953646 -0.297151
0.162593 0.216761 0.0791133 -0.749645 -0.647404 -0.137482
0.113284 -0.0528186 0.415532 3.65657e-05 -0.0231728 -0.999731
-0.0609615 0.118394 0.433843 0.000596977 -0.033319 0.999445
-0.154403 0.0780442 0.413602 -5.10352e-06 0.00122118 -0.999999
0.182792 0.158101 0.421038 1 0.000925522 2.23009e-05
-0.0761137 0.21358 0.566016 -0.0731533 0.994103 -0.080044
0.00400606 0.204454 0.723087 0.000750408 -0.998318 0.0579692
-0.15301 0.0282006 0.433013 6.01455e-05 0.00774672 0.99997
0.0718854 0.0020311 0.433333 -0.000236338 0.0139487 0.999903
-0.0086797 -0.101883 0.416655 1.39894e-05 -0.023262 -0.999729
-0.142884 -0.245934 0.383996 0.000737471 -0.999239 0.0389874
0.0186937 -0.177137 0.418111 1.00346e-05 -0.0135969 -0.999908
0.128388 0.0768154 0.432906 -0.00010327 -0.0147181 0.999892
0.164248 0.178005 0.524728 -0.131875 -0.984572 0.115009
0.177029 -0.227169 0.052835 -0.000761463 1 0
0.0376587 -0.186507 0.418239 0.000636586 -0.0135966 -0.999907
0.111193 0.138046 0.41458 0.00236188 0.034474 -0.999403
-0.158838 0.214444 0.761047 -0.152737 0.987091 -0.0481839
-0.0608373 0.128179 0.434354 0.00120307 -0.067147 0.997742
-0.112117 -0.245161 0.397807 0.000749476 -0.997073 0.0764496
0.0113806 -0.226443 0.377618 -0.000737888 0.999812 0.0193698
0.179342 -0.246426 0.0871914 0.000761464 -1 0
0.112728 -0.235329 0.433143 0.000538512 -0.72966 0.68381
-0.183087 0.19374 0.674198 -1 -0.000684513 -0.000308417
0.160177 -0.24644 0.0392608 0.000761464 -1 0
-0.183083 0.193532 0.653509 -1 -0.000558479 3.39545e-05
0.150357 -0.215971 0.437449 2.86246e-05 -0.0213709 0.999772
-0.00960165 0.208353 0.495537 -0.000736825 0.980249 -0.197767
-0.168219 0.10795 0.433591 0.00105435 -0.0369167 0.999318
0.0238918 0.202263 0.685685 0.000736634 -0.998112 0.0614085
-0.00635753 0.22376 0.691483 -0.000750624 0.998604 -0.0528223
-0.000520762 -0.0199869 0.433687 -1.37918e-05 0.0184802 0.999829
-0.153883 -0.238992 0.307771 1 0.000571008 0
-0.065463 -0.112805 0.416906 -0.000145231 -0.021846 -0.999761
0.0937325 -0.0885474 0.435163 -0.000204575 0.0231718 0.999731
-0.136856 0.197738 0.758472 0.139312 -0.989035 0.049016
0.170572 0.0114772 0.414221 -0.000173136 -0.0139909 -0.999902
-0.166538 0.14581 0.396997 0.501153 -0.84643 -0.180006
-0.182797 -0.199815 0.420854 -0.999999 -0.000925276 0.000216805
0.183081 -0.228529 0.111859 0.999999 0.00114202 0
-0.0114852 0.103764 0.43334 2.45908e-05 -0.0333196 0.999445
-0.0740744 0.171317 0.455552 0.0399455 -0.934505 0.353702
0.165102 -0.24305 0.415298 0.000886852 -0.983016 0.183519
0.164489 0.19595 0.496922 0.139476 0.984268 -0.108454
0.0368513 0.201413 0.672149 -0.0625927 -0.996156 0.0612881
-0.179416 0.201281 0.581258 -0.152004 0.985949 -0.0692754
0.162428 0.177752 0.520478 -0.131875 -0.984572 0.115009
-0.180238 -0.167753 0.418029 -2.94811e-05 -0.0131533 -0.999914
-0.0433106 -0.01533 0.433601 0.000139027 0.0184803 0.999829
-0.183089 0.203616 0.656652 -1 -0.000558479 3.39545e-05
0.182771 0.193908 0.744437 1 0.000568561 -2.89543e-05
-0.124358 0.0736453 0.413597 -5.10352e-06 0.00122118 -0.999999
0.178584 0.221974 0.0969842 0.933895 0.349881 0.0736488
-0.0495475 0.192866 0.56066 0.0641271 -0.994463 0.0832507
0.130784 0.128703 0.4345 -0.0029663 -0.0671492 0.997739
0.0789197 0.165357 0.443758 -0.0320838 -0.858899 0.51114
0.161964 0.215088 0.125622 -0.754314 0.642324 0.135759
-0.182162 -0.246696 0.293907 0.00076149 -1 0
0.166622 0.199335 0.530937 0.148923 0.984556 -0.0920426
0.02911 0.107005 0.433447 2.50438e-05 -0.033318 0.999445
-0.110442 -0.182599 0.437201 -0.000119889 0.0185232 0.999828
-0.122465 0.198057 0.726518 0.138003 -0.98915 0.0503735
-0.167058 -0.227425 0.0918695 -0.000762006 1 0
0.0486241 0.00640145 0.41431 0.000188214 -0.0185426 -0.999828
-0.0235666 -0.205088 0.4375 -9.83922e-06 0.0133318 0.999911
0.0927619 0.216063 0.625763 0.0694293 0.996174 -0.0530843
-0.116305 0.215836 0.661459 -0.149833 0.987193 -0.0547772
0.00749572 -0.207794 0.437537 -9.83922e-06 0.0133318 0.999911
-0.153722 0.0475332 0.413755 -3.07215e-05 -0.00762002 -0.999971
0.16709 0.239507 0.032529 -0.174229 0.963542 0.203056
0.16029 0.0549274 0.413699 4.29926e-05 -0.00778264 -0.99997
-0.0186494 0.204438 0.476164 -0.000736825 0.980249 -0.197767
-0.176665 0.0349075 0.432962 6.01455e-05 0.00774672 0.99997
0.182763 0.197117 0.548223 0.999999 0.0010828 -8.7186e-05
-0.168953 -0.246685 0.240781 0.00076149 -1 0
-0.0918731 0.224641 0.787842 -0.0730041 0.996146 -0.0486259
-0.0722706 -0.119269 0.435868 0.000264109 0.023355 0.999727
-0.175352 -0.24669 0.306489 0.00076149 -1 0
0.0119335 0.218331 0.595264 -0.000750329 0.998214 -0.0597296
-0.0185601 -0.2455 0.391231 0.000736908 -0.998483 0.0550509
0.112767 0.109954 0.433576 -0.000939366 -0.0343085 0.999411
-0.0100863 0.207523 0.778536 0.000750346 -0.998507 0.0546265
-0.0880992 0.19869 0.682421 0.0640897 -0.996147 0.0598682
0.0681985 0.187547 0.523384 -0.0613897 -0.988836 0.135771
-0.154195 -0.0597419 0.43451 -5.32479e-05 0.021532 0.999768
0.111855 0.116829 0.433811 -0.000939366 -0.0343085 0.999411
0.181826 -0.246424 0.0139749 0.000761464 -1 0
0.133114 0.218512 0.760168 0.151125 0.987419 -0.0465217
-0.181865 -0.227436 0.316256 -0.000762006 1 0
-0.115047 -0.0176236 0.433657 1.7229e-05 0.019015 0.999819
0.050577 -0.245799 0.383745 0.000737464 -0.999242 0.0389149
-0.161953 0.233043 0.0245768 0.934809 0.347522 0.0732093
-0.182904 -0.0515689 0.422895 -1 -0.00071371 -0.000142016
-0.0998172 0.2028 0.769624 0.0663241 -0.996383 0.0531211
0.154058 -0.226898 0.365029 -0.00120239 0.999691 -0.0248193
-0.0691089 0.216251 0.600561 -0.0720836 0.995985 -0.0530743
-0.0490648 0.140596 0.435135 0.00180428 -0.0644203 0.997921
0.120622 0.20925 0.562399 0.153281 0.984995 -0.0793106
0.142908 -0.0582237 0.415659 3.65657e-05 -0.0231728 -0.999731
-0.0809987 0.125279 0.414122 -0.000434296 0.0330327 -0.999454
-0.0121359 0.219946 0.625621 -0.000750606 0.998583 -0.0532127
-0.103144 0.0828784 0.413608 -6.38047e-06 0.00122118 -0.999999
-0.170439 0.169284 0.27861 -0.172976 -0.963406 -0.204764
0.143702 0.208145 0.598359 0.150595 0.986626 -0.0623676
-0.183086 0.191827 0.550109 -1 -0.000540889 4.37754e-05
0.108037 0.0198852 0.433082 -7.96778e-05 0.0143297 0.999897
0.00649064 0.216932 0.571949 -0.000750328 0.998214 -0.0597296
-0.0330169 -0.0410629 0.415259 1.61883e-05 -0.0216943 -0.999765
-0.148977 0.179068 0.519629 0.127569 -0.985131 0.115075
-0.054094 0.19586 0.447686 -0.0475485 0.953646 -0.297151
-0.0461052 -0.023842 0.433759 0.000139027 0.0184803 0.999829
-0.0136302 -0.116759 0.416987 1.30294e-05 -0.0216659 -0.999765
-0.0317891 0.0462787 0.432873 -5.50121e-06 0.00735876 0.999973
0.166406 0.174817 0.338909 -0.174229 0.963542 0.203056
0.129273 -0.240582 0.426011 0.000723627 -0.962685 0.270624
-0.0791195 0.213054 0.562224 -0.0731533 0.994103 -0.080044
0.113773 -0.246098 0.372665 0.000737561 -0.999637 0.0269191
0.039232 0.217537 0.585024 0.0705816 0.995725 -0.0595806
-0.182771 -0.231581 0.00863016 -1 -0.000571009 0
0.10523 -0.151084 0.436592 -0.000348748 0.021809 0.999762
-0.107314 0.205404 0.508323 -0.0707751 0.987683 -0.139548
0.161597 0.184687 0.246537 -1 3.25027e-06 0.000159526
-0.150679 0.0067334 0.414307 0.000156492 -0.0189188 -0.999821
-0.0327233 0.208717 0.497978 -0.000742753 0.988136 -0.153582
-0.137812 0.190024 0.627228 0.133513 -0.988998 0.0636922
-0.127283 -0.207956 0.437554 -1.97686e-06 0.0131532 0.999914
-0.168561 0.223428 0.108891 0.490186 0.852874 0.179787
-0.152527 -0.0318985 0.433928 -2.3566e-05 0.0189189 0.999821
0.0654515 0.205558 0.490981 0.0643924 0.978215 -0.197357
0.0229908 -0.143008 0.436396 -1.65991e-05 0.022083 0.999756
-0.181677 -0.197674 0.437419 -1.97686e-06 0.0131532 0.999914
-0.154689 0.171421 0.476993 0.107163 -0.979141 0.172622
0.162451 0.0768469 0.43291 -0.00010327 -0.0147181 0.999892
-0.0172514 -0.0854037 0.416271 1.73636e-05 -0.0232702 -0.999729
0.00513871 0.191739 0.541497 0.000747173 -0.994015 0.109246
-0.176921 -0.0127861 0.414672 0.000156492 -0.0189188 -0.999821
-0.171821 0.176639 0.245173 -0.172976 -0.963406 -0.204764
0.179067 0.168861 0.342824 0.939026 0.336429 0.071032
0.182963 -0.0741211 0.431755 0.999999 0.00107118 -7.08366e-05
0.0329842 0.204076 0.474424 -0.000716031 0.970462 -0.241253
-0.0326359 0.107002 0.413773 -8.19895e-06 0.0139525 -0.999903
-0.0139756 0.195418 0.581082 0.000749049 -0.996511 0.0834616
0.0593198 -0.112805 0.435721 -0.000308896 0.0230439 0.999734
-0.0270153 0.104969 0.433381 2.45908e-05 -0.0333196 0.999445
-0.0598741 0.0647209 0.413623 5.69672e-06 -0.00761999 -0.999971
-0.156783 0.181229 0.547841 0.136212 -0.985053 0.105436
0.182765 0.202644 0.683265 1 0.000560066 -2.97247e-05
0.108699 0.217941 0.67794 0.0697056 0.996036 -0.0552678
0.0324412 0.0281255 0.433007 -5.49123e-06 0.00735879 0.999973
-0.146457 0.204526 0.555722 -0.154734 0.984769 -0.0792924
-0.149091 -0.13601 0.417422 -8.15081e-05 -0.0218459 -0.999761
0.0655948 0.130658 0.434499 -0.00105836 -0.0644257 0.997922
0.00810305 -0.0116333 0.433532 -1.37918e-05 0.0184802 0.999829
0.0939397 0.117311 0.433817 -0.000563597 -0.0343081 0.999411
-0.127512 -0.237922 0.430562 0.000545928 -0.726281 0.687398
-0.00617643 -0.23007 0.436395 0.000175001 -0.232816 0.972521
-0.182771 -0.230951 0.210926 -1 -0.000571009 0
-0.122756 0.181304 0.510239 0.126495 -0.976835 0.172605
0.120674 -0.242802 0.416842 0.000886852 -0.983016 0.183519
-0.11125 -0.0565439 0.434442 -5.24671e-06 0.0216443 0.999766
0.0633189 -0.226539 0.380516 0.0046215 0.999612 -0.0274655
-0.157399 -0.245567 0.391894 0.000736909 -0.998479 0.0551312
0.143699 0.213699 0.696173 0.149412 0.987547 -0.0492713
-0.038288 -0.246121 0.376036 0.000751395 -0.999634 0.0270423
0.165342 -0.227178 0.267404 -0.000761463 1 0
0.0160291 0.186511 0.505394 0.000738094 -0.981936 0.189213
-0.182769 -0.233822 0.218081 -1 -0.000571009 0
-0.0690717 0.222945 0.720682 -0.0720981 0.99604 -0.0520153
-0.075295 0.225867 0.788074 -0.0730041 0.996146 -0.0486259
0.117568 0.183113 0.517223 -0.125772 -0.982838 0.134947
0.179409 0.201848 0.586153 0.153392 0.985708 -0.0696411
0.0931014 -0.0444774 0.434179 -0.000300191 0.0216518 0.999765
-0.0792953 -0.11958 0.417056 -0.000145231 -0.021846 -0.999761
0.183008 -0.123035 0.433507 1 0.000725408 -0.000417738
0.14123 0.197268 0.757925 -0.137953 -0.989071 0.0520417
0.039893 0.213691 0.536298 0.0715863 0.991181 -0.111516
-0.145893 0.177715 0.421516 -0.0543837 0.698954 -0.713096
-0.0195876 -0.217109 0.417616 -0.000274969 0.457386 -0.889268
0.0829787 -0.180842 0.418188 0.000513278 -0.0132004 -0.999913
-0.0148297 0.206162 0.753803 0.000750504 -0.998446 0.0557245
0.0767946 0.203465 0.751606 -0.0646929 -0.99643 0.0542434
0.160218 0.201246 0.540303 0.152922 0.98269 -0.104571
-0.0164611 0.22619 0.789256 -7.85794e-07 0.00106473 0.999999
0.10506 0.216467 0.647427 0.0694087 0.995878 -0.0583933
0.0908824 0.17021 0.417273 0.00439738 0.126546 -0.991951
0.178891 0.173685 0.285799 0.939988 -0.333736 -0.0710078
0.0693789 0.0391216 0.413828 -3.5265e-05 -0.0138954 -0.999903
-0.171432 0.205575 0.628515 -0.149372 0.987086 -0.0578778
0.168578 -0.227175 0.107698 -0.000761463 1 0
0.0753753 -0.23881 0.346608 -4.223e-07 0.000572286 -1
0.177161 -0.227169 0.132215 -0.000761463 1 0
0.129642 -0.034461 0.433981 -8.23269e-06 0.0190081 0.999819
0.152259 0.144494 0.436167 -0.00943808 -0.13789 0.990403
0.143335 0.189475 0.627908 -0.132028 -0.989045 0.0660134
0.144051 -0.245597 0.387128 0.000751105 -0.999239 0.0389874
0.102695 0.186895 0.534642 -0.0615945 -0.992135 0.108968
-0.144491 0.192522 0.682691 0.136767 -0.988819 0.0594278
0.163064 0.164234 0.37256 -0.76649 0.628432 0.132538
-0.159105 -0.246678 0.262084 0.00076149 -1 0
0.0310815 0.202794 0.69422 0.000736634 -0.998112 0.0614085
0.1828 0.149192 0.42138 1 0.000696152 -0.000279337
0.154205 -0.236036 0.0192409 -0.999999 -0.00114279 0
0.0919937 0.195552 0.453306 0.04648 0.961479 -0.27092
0.00153952 -0.191261 0.418284 2.30128e-06 -0.00311815 -0.999995
0.076992 0.199486 0.681918 -0.0633314 -0.996217 0.0595099
0.00139894 -0.242851 0.346606 -4.20629e-07 0.00055959 -1
-0.0206807 0.224223 0.700436 -0.000750623 0.998604 -0.0528222
0.15661 0.191973 0.466141 0.113022 0.979955 -0.164057
0.00949341 0.223371 0.684327 -0.000750461 0.998388 -0.0567439
-0.0311843 0.198308 0.624857 0.000750134 -0.997955 0.0639141
-0.168884 -0.226954 0.380169 -0.000450915 0.999618 -0.0276364
0.18277 0.194922 0.722704 1 0.000565682 -3.00248e-05
0.0432708 0.220127 0.636318 0.0696904 0.995818 -0.0590661
0.14836 -0.223516 0.437288 1.93126e-05 -0.0214115 0.999771
-0.168303 0.186162 0.631185 0.133513 -0.988998 0.0636922
0.0598205 0.195793 0.607619 -0.0621119 -0.995649 0.0694628
-0.0098161 -0.0420852 0.415282 1.61891e-05 -0.0216943 -0.999765
0.130537 0.198525 0.753331 -0.137964 -0.989155 0.0503733
0.0139371 -0.226714 0.360348 -0.000751467 0.999727 -0.0233354
0.132595 -0.242418 0.418843 0.000886852 -0.983016 0.183519
-0.174491 0.165302 0.460641 0.09243 -0.931248 0.352469
0.00117148 0.193118 0.437771 -0.000696192 0.926191 -0.377054
-0.167511 -0.0664791 0.434655 -5.32479e-05 0.021532 0.999768
-0.0234446 0.095006 0.433165 1.07693e-05 -0.0144348 0.999896
-0.150833 0.185268 0.584007 0.136037 -0.987984 0.073356
-0.163914 -0.167368 0.418024 -2.94811e-05 -0.0131533 -0.999914
-0.110063 -0.194961 0.437383 7.92541e-06 0.0131833 0.999913
0.0775949 0.191112 0.56025 -0.062781 -0.994545 0.083297
-0.125215 -0.0769233 0.416087 3.61259e-05 -0.0231646 -0.999732
-0.0813845 0.199043 0.681119 0.0640897 -0.996147 0.0598682
0.0863489 -0.223793 0.410037 0.00461242 0.910884 -0.412638
-0.166082 0.197637 0.514568 -0.149977 0.982682 -0.108828
-0.153881 -0.242555 0.126675 1 0.000571008 0
-0.0971338 -0.245951 0.382693 0.000751099 -0.999239 0.0389874
-0.158637 -0.246678 0.0989156 0.00076149 -1 0
-0.133844 -0.121569 0.417106 -8.15081e-05 -0.0218459 -0.999761
-0.0904978 0.187728 0.4309 -0.0391814 0.877406 -0.478146
-0.180857 0.189393 0.468654 -0.127437 0.978233 -0.163768
0.169645 0.186681 0.447636 0.0997209 0.972296 -0.211415
0.154206 -0.237178 0.00122142 -0.999999 -0.00114279 0
-0.0137512 -0.187978 0.437272 -1.00204e-05 0.0133312 0.999911
-0.0309197 0.0157585 0.433133 -1.04106e-05 0.0139489 0.999903
-0.0879808 -0.145646 0.436467 0.000207001 0.0218095 0.999762
0.00584825 -0.117763 0.435828 -1.73214e-05 0.0230438 0.999735
0.00562588 0.0982179 0.41365 -1.0416e-05 0.013959 -0.999903
-0.114951 0.19634 0.678236 0.136767 -0.988819 0.0594278
-0.140944 0.160632 0.442724 0.0567154 -0.691611 0.72004
0.1545 -0.1112 0.41688 -1.31167e-05 -0.0229621 -0.999736
0.164015 0.149184 0.389973 -0.764446 -0.630697 -0.133579
-0.049601 0.19909 0.457523 -0.0534464 0.960944 -0.271533
0.133318 0.158128 0.439408 -0.0514608 -0.691889 0.720168
0.081772 0.21448 0.584455 0.0717588 0.995452 -0.0626601
-0.0887936 0.197607 0.665174 0.0640642 -0.995751 0.0661522
0.0684518 0.0448866 0.413776 -1.93388e-05 -0.00762001 -0.999971
-0.0903577 -0.237287 0.431203 0.000866132 -0.728512 0.685033
-0.0304236 -0.164014 0.417929 1.40166e-05 -0.0186472 -0.999826
0.0780722 -0.246492 0.350216 0.000737872 -0.999932 0.011636
0.111193 -0.104873 0.435546 5.65006e-05 0.0233549 0.999727
-0.162692 0.183291 0.244764 0.939899 -0.333962 -0.071127
-0.0334461 0.157161 0.437641 0.000202866 -0.274951 0.961458
-0.162941 -0.22617 0.395418 -0.000300626 0.999444 -0.0333527
-0.0921305 0.221946 0.73379 -0.0725527 0.996113 -0.0499543
0.0207384 0.221286 0.647967 -0.000750352 0.998245 -0.0592101
-0.174568 0.223754 0.02582 -0.172976 -0.963406 -0.204764
0.18283 0.114052 0.41846 1 0.000548706 -2.30823e-05
0.0369258 -0.133009 0.436175 -0.000233203 0.0220829 0.999756
-0.153889 -0.22884 0.0421553 1 0.000571008 0
-0.162829 0.134943 0.435092 0.00421626 -0.0671446 0.997734
-0.0821096 0.0534478 0.413709 5.69672e-06 -0.00761999 -0.999971
-0.142886 0.18768 0.602367 0.134346 -0.98856 0.0685622
0.116899 0.174539 0.418599 0.0225137 0.287309 -0.957573
0.108578 -0.0547549 0.434406 -0.000300191 0.0216518 0.999765
0.175468 0.189969 0.709322 -0.13649 -0.989249 0.0525065
-0.153881 -0.24238 0.315892 1 0.000571008 0
0.0207196 0.220355 0.632279 -0.000750352 0.998245 -0.0592101
-0.104613 0.141985 0.4355 0.00347594 -0.129554 0.991566
-0.152208 0.0548895 0.413699 3.2525e-05 -0.00778265 -0.99997
0.0896363 0.201316 0.727631 -0.0641049 -0.996392 0.0556099
-0.179479 0.170753 0.336959 -0.76678 0.62807 0.132576
-0.045939 -0.149605 0.417664 -0.000459414 -0.0186475 -0.999826
-0.00349808 -0.0127076 0.414661 1.38355e-05 -0.0185428 -0.999828
-0.176787 0.222441 0.107663 -0.76678 0.62807 0.132576
-0.159064 -0.232353 0.346612 -1.71737e-07 0.000571335 -1
-0.0952302 -0.232233 0.435514 0.000690876 -0.421269 0.906935
0.153115 0.129833 0.414392 0.00176184 0.0369401 -0.999316
-0.0102168 -0.167229 0.417976 1.02208e-05 -0.0135974 -0.999908
0.080866 0.204639 0.491457 0.0643924 0.978215 -0.197357
0.171934 -0.246432 0.328927 0.000761464 -1 0
-0.163888 0.107487 0.433569 0.00105435 -0.0369167 0.999318
-0.047045 -0.245736 0.387214 0.000756965 -0.999237 0.039042
-0.17599 -0.239785 0.346604 0 0 1
-0.0402405 -0.241533 0.422987 0.00118117 -0.962103 0.272682
-0.182765 -0.24089 0.048346 -1 -0.000571009 0
0.168269 0.201 0.133653 -0.174227 -0.963194 -0.204699
0.114339 -0.245937 0.378664 0.000737561 -0.999637 0.0269191
-0.127718 0.176889 0.488837 0.116389 -0.969332 0.216448
-0.154496 0.196871 0.494368 -0.140551 0.981305 -0.131475
-0.108484 -0.179409 0.437142 0.000179677 0.0185234 0.999828
-0.182994 0.0674582 0.425937 -1 -0.000844423 -0.000273418
-0.182762 -0.246542 0.325315 -1 -0.000571009 0
0.18278 0.175227 0.439582 1 0.000883666 -0.000264564
-0.0438386 0.21806 0.600182 -0.0720836 0.995985 -0.0530743
0.18308 -0.227835 0.0967003 0.999999 0.00114202 0
-0.0746944 0.202048 0.725192 0.0655613 -0.996172 0.0578124
-0.182765 -0.241086 0.376691 -1 -0.000565601 1.53017e-05
0.170134 -0.0908751 0.435226 1.08215e-05 0.02344 0.999725
-0.0847024 0.00214793 0.433329 0.000209077 0.0143299 0.999897
0.0585904 -0.0421569 0.415289 0.000199397 -0.0215829 -0.999767
0.121213 -0.22701 0.362101 -0.00120239 0.999691 -0.0248193
0.111753 0.216056 0.651308 0.148327 0.987243 -0.057887
-0.00586082 0.21443 0.789268 -8.00071e-07 0.00106468 0.999999
0.0243808 -0.196196 0.418299 2.34393e-06 -0.00311828 -0.999995
0.012663 -0.244471 0.404674 0.000747846 -0.994911 0.100756
-0.0186585 -0.152632 0.436608 -1.65992e-05 0.022083 0.999756
-0.0595241 0.197557 0.635857 0.0634873 -0.995942 0.0637852
-0.00698349 0.00141746 0.433333 -1.04106e-05 0.0139489 0.999903
-0.168181 -0.227426 0.087113 -0.000762006 1 0
-0.0447772 0.189125 0.525135 0.0627773 -0.987488 0.144662
-0.150456 0.195028 0.47842 -0.127147 0.975992 -0.176843
-0.1113 -0.241288 0.424138 0.000723662 -0.962729 0.270466
-0.0957085 0.185904 0.525038 0.0602194 -0.988907 0.135781
0.15493 -0.226274 0.388589 -0.00119817 0.99635 -0.0853525
-0.141208 -0.0190468 0.433685 1.7229e-05 0.019015 0.999819
0.0633454 0.188412 0.527487 -0.0613897 -0.988836 0.135771
0.0399188 0.205149 0.739005 -0.0641049 -0.996392 0.0556099
0.162419 0.191161 0.24136 -0.754314 0.642324 0.135759
-0.105766 -0.107275 0.435597 0.000264109 0.023355 0.999727
0.162709 0.210659 0.107212 -0.749645 -0.647404 -0.137482
-0.180413 0.214142 0.0991782 -0.999999 -0.00168929 -0.000228044
0.179117 0.155778 0.372949 0.939988 -0.333736 -0.0710078
-0.182788 -0.209071 0.422256 -0.999999 -0.000925276 0.000216805
0.16694 0.188719 0.66607 -0.133679 -0.989261 0.0590945
0.0423901 0.170441 0.450007 -0.0320838 -0.858899 0.51114
0.164354 0.196589 0.50255 0.139476 0.984268 -0.108454
0.182762 0.206832 0.689669 1 0.000562209 -3.15349e-05
0.141184 0.181447 0.527745 -0.131875 -0.984572 0.115009
-0.182801 -0.192686 0.431533 -1 -0.000909598 0.000232492
-0.167752 -0.246685 0.207029 0.00076149 -1 0
0.104419 0.222546 0.761321 0.0712182 0.996258 -0.0489599
0.179759 0.21865 0.0978652 0.939026 0.336429 0.071032
-0.15388 -0.244149 0.204518 1 0.000571008 0
0.179559 0.179632 0.266645 0.935381 -0.345944 -0.0733881
-0.168015 0.223377 0.0281332 0.499584 -0.847323 -0.180166
-0.0358709 -0.24654 0.353455 0.000751621 -0.999932 0.011636
-0.173759 0.207006 0.103935 -0.172976 -0.963406 -0.204764
0.0692697 -0.244311 0.346605 -4.223e-07 0.000572286 -1
0.0373597 0.00927857 0.433224 -0.000236338 0.0139487 0.999903
-0.164578 -0.246692 0.34863 0.000751626 -0.999932 0.011636
-0.0344681 0.178515 0.471207 0.000718239 -0.955521 0.294921
0.0339434 -0.09265 0.416441 1.39894e-05 -0.023262 -0.999729
-0.18276 0.0439226 0.413783 3.2525e-05 -0.00778265 -0.99997
-0.0872782 -0.224912 0.406383 -0.00636511 0.982656 -0.185326
-0.136963 0.209333 0.603995 -0.152135 0.986802 -0.0554734
0.171135 0.192892 0.753904 -0.137964 -0.989155 0.0503733
-0.169784 -0.20757 0.418363 -1.94849e-06 -0.00185135 -0.999998
0.016563 0.050701 0.413732 5.73386e-06 -0.00768423 -0.99997
-0.0129502 -0.0808209 0.434973 -1.73397e-05 0.0232382 0.99973
0.0392768 0.203179 0.471498 0.0584483 0.968803 -0.240841
-0.165557 0.206424 0.11468 0.499584 -0.847323 -0.180166
0.0921736 -0.194971 0.418333 0.000684872 -0.00311766 -0.999995
0.0668921 -0.0752378 0.434849 -0.000204575 0.0231718 0.999731
-0.053164 -0.243339 0.414382 0.00106313 -0.99052 0.137363
-0.14337 0.208325 0.603631 -0.152135 0.986802 -0.0554734
0.164091 0.188418 0.263825 -0.76649 0.628432 0.132538
-0.0182374 -0.241848 0.421812 0.000723186 -0.962104 0.272682
0.110648 0.034237 0.432966 -7.07456e-05 0.00764279 0.999971
-0.0526997 0.226145 0.76028 -0.072554 0.99613 -0.0496105
0.0282168 0.074822 0.432892 1.19002e-06 -0.00159507 0.999999
0.154196 -0.227861 0.34478 -0.999999 -0.00114279 0
0.154243 -0.0293138 0.415018 -9.43043e-05 -0.0215831 -0.999767
0.160643 0.192654 0.721375 -0.13649 -0.989249 0.0525065
0.183092 -0.238162 0.0716261 0.999999 0.00114202 0
0.177314 0.217998 0.0638627 0.489525 -0.85296 -0.181177
0.161615 0.159105 0.360783 -1 3.25027e-06 0.000159526
-0.137752 0.212015 0.651515 -0.149816 0.98708 -0.0568248
0.0410301 0.129132 0.414232 0.000802304 0.0330152 -0.999455
-0.113974 -0.0513266 0.434329 -5.24671e-06 0.0216443 0.999766
-0.130364 0.216865 0.720957 -0.151873 0.987172 -0.049253
0.154196 -0.227713 0.265958 -0.999999 -0.00114279 0
-0.161279 -0.0668919 0.415854 2.05057e-06 -0.0230823 -0.999734
0.00229699 -0.147515 0.436495 -1.65992e-05 0.022083 0.999756
0.096901 0.175038 0.46914 -0.0486766 -0.961179 0.271597
-0.123715 0.201308 0.494574 -0.140551 0.981305 -0.131475
-0.134597 0.183918 0.429295 -0.0733995 0.875712 -0.477223
0.0811319 0.189172 0.543228 -0.0626466 -0.992417 0.105757
-0.0795568 0.201415 0.719798 0.0655613 -0.996172 0.0578124
0.181199 -0.0276407 0.433852 -4.18723e-05 0.0189256 0.999821
0.0726774 -0.135613 0.417405 0.000249769 -0.0218457 -0.999761
0.183088 -0.234898 0.0124571 0.999999 0.00114202 0
0.0779106 0.0213902 0.433061 -0.000114034 0.0073587 0.999973
-0.0677491 -0.0205906 0.414821 -0.00021213 -0.0215908 -0.999767
0.154205 -0.235525 0.282338 -0.999999 -0.00114279 0
0.169151 0.241124 0.0266247 -0.174229 0.963542 0.203056
-0.0568747 -0.102463 0.435477 0.000147373 0.0230439 0.999734
-0.152947 0.208869 0.636972 -0.149372 0.987086 -0.0578778
-0.0440747 -0.246493 0.357404 0.000751592 -0.999895 0.0144391
-0.00234129 0.0505036 0.432853 1.19028e-06 -0.00159507 0.999999
-0.176776 0.163372 0.387556 -0.76678 0.62807 0.132576
-0.155585 -0.0244157 0.414908 0.000124266 -0.0218618 -0.999761
-0.0799128 0.115145 0.433746 0.000596977 -0.033319 0.999445
0.13207 0.188395 0.440188 0.0957415 0.932665 -0.347806
-0.169398 -0.235205 0 0 0 -1
0.177182 0.193158 0.776044 -0.13926 -0.989043 0.0489996
-0.0233177 0.128845 0.41422 -2.48299e-05 0.033033 -0.999454
0.0354458 0.0946627 0.413622 -9.00272e-07 0.00120655 -0.999999
-0.0424817 0.0688828 0.432882 4.28572e-06 -0.00159507 0.999999
0.182798 0.152192 0.436791 0.999999 0.00159304 3.8385e-05
-0.00088634 -0.0463104 0.415374 1.61891e-05 -0.0216943 -0.999765
-0.093969 -0.0623595 0.415748 -9.57045e-05 -0.0231647 -0.999732
-0.170431 0.104316 0.413779 -0.00113208 0.0163527 -0.999866
-0.17075 0.146161 0.387664 -0.17266 -0.963459 -0.20478
0.0956447 -0.246195 0.368816 0.000751519 -0.999803 0.019827
-0.144569 0.0724465 0.413595 -5.10352e-06 0.00122118 -0.999999
-0.15817 -0.246677 0.250377 0.00076149 -1 0
-0.175756 0.162441 0.395947 -0.174548 0.963451 0.203212
-0.104675 -0.0788498 0.434937 0.000142342 0.023172 0.999732
-0.161851 0.216057 0.103691 0.939212 0.335927 0.070954
-0.172104 -0.093352 0.435277 6.98596e-05 0.0234477 0.999725
0.160894 -0.241154 0 0 0 -1
-0.0703089 0.202213 0.723065 0.0655613 -0.996172 0.0578124
0.168208 -0.246434 0.262565 0.000761464 -1 0
-0.00487804 -0.120572 0.417069 1.30294e-05 -0.0216659 -0.999765
-0.00804885 0.0879132 0.413614 -9.00298e-07 0.00120655 -0.999999
-0.0800676 0.0747447 0.413598 -9.02009e-07 0.00120655 -0.999999
-0.182777 -0.223533 0.430391 -1 -0.000237404 0.000451114
-0.0392471 -0.246133 0.375625 0.000751395 -0.999634 0.0270423
-0.0235191 0.228486 0.783806 -0.000737114 0.998762 -0.0497416
-0.176356 0.176577 0.528657 0.127569 -0.985131 0.115075
-0.133077 0.173453 0.418662 -0.0210948 0.287289 -0.957612
-0.17535 0.156305 0.416119 -0.0106519 0.138679 -0.99028
-0.112473 0.143237 0.414826 -0.00402002 0.067825 -0.997689
-0.0924863 0.165822 0.445759 0.033895 -0.872894 0.486732
-0.141514 0.14061 0.414764 -0.00402002 0.067825 -0.997689
0.0232522 0.0408593 0.432913 -5.49123e-06 0.00735879 0.999973
0.12169 0.187931 0.566099 -0.1349 -0.987407 0.0826403
-0.156538 0.209439 0.656285 -0.149816 0.98708 -0.0568248
-0.14559 0.200528 0.512432 -0.149977 0.982682 -0.108828
0.128053 0.081663 0.432977 -0.00010327 -0.0147181 0.999892
0.175054 0.189774 0.704571 -0.13649 -0.989249 0.0525065
-0.147952 -0.229806 0.436516 0.000141234 -0.234848 0.972032
0.0540564 0.0358167 0.432952 -0.000114034 0.0073587 0.999973
0.172803 0.18238 0.583092 -0.13447 -0.988515 0.0689651
0.183082 -0.23263 0.368866 1 0.000565928 -2.02434e-05
-0.161919 0.200809 0.171849 0.933148 -0.35167 -0.0745831
0.140519 0.180278 0.517969 -0.125772 -0.982838 0.134947
0.0895257 0.179082 0.483406 -0.0538119 -0.974429 0.218157
-0.162133 0.204529 0.151641 0.933148 -0.35167 -0.0745831
0.0756017 0.22104 0.691773 0.070303 0.996169 -0.0519979
0.126324 0.18581 0.549547 -0.132021 -0.985666 0.105038
-0.138067 0.1777 0.420905 -0.0543837 0.698954 -0.713096
0.173637 -0.115449 0.435794 -9.95116e-05 0.0229696 0.999736
0.176137 0.0521902 0.413721 4.29926e-05 -0.00778264 -0.99997
-0.116125 0.0446923 0.413776 -3.07215e-05 -0.00762002 -0.999971
0.178016 0.169568 0.418471 0.0219157 0.304801 -0.952164
0.179996 0.210659 0.12595 0.935381 -0.345944 -0.0733881
0.0747973 -0.225566 0.437237 -0.000168618 -0.0203517 0.999793
-0.147358 0.209658 0.636009 -0.149372 0.987086 -0.0578778
0.0256814 -0.225773 0.392006 -0.000751255 0.999446 -0.0332829
0.0898115 0.123092 0.434036 -0.00105836 -0.0644257 0.997922
-0.0149311 -0.064157 0.43459 -1.6259e-05 0.0217513 0.999763
0.117299 -0.201978 0.418358 5.89874e-06 -0.00232054 -0.999997
0.0950664 0.179594 0.48706 -0.0538119 -0.974429 0.218157
-0.0122321 -0.127544 0.41722 1.62921e-05 -0.021674 -0.999765
0.00306032 -0.243354 0.413933 0.000731047 -0.990542 0.137205
0.00984525 -0.077631 0.434899 -1.7371e-05 0.0232381 0.99973
0.118426 0.198976 0.730633 -0.13648 -0.989178 0.0538486
-0.0688537 -0.0550574 0.434401 0.000268261 0.0217515 0.999763
-0.0849248 0.194512 0.448293 -0.0475485 0.953646 -0.297151
-0.000102744 0.036169 0.432947 -5.49123e-06 0.00735879 0.999973
0.00649559 -0.148216 0.417635 1.40166e-05 -0.0186472 -0.999826
0.0403195 -0.0535644 0.41554 0.000137313 -0.0229367 -0.999737
0.164666 -0.246437 0.194954 0.000761464 -1 0
-0.118742 0.197195 0.701807 0.137967 -0.988891 0.055307
-0.0617068 0.214524 0.564564 -0.0731533 0.994103 -0.080044
0.0303866 -0.00589243 0.433435 -1.04106e-05 0.0139489 0.999903
-0.152588 0.203313 0.552634 -0.154734 0.984769 -0.0792924
-0.175971 0.0297864 0.433002 6.01455e-05 0.00774672 0.99997
-0.00125057 0.0140662 0.433156 -1.04278e-05 0.0139488 0.999903
0.173694 0.228431 0.00496171 0.489525 -0.85296 -0.181177
0.168194 -0.227175 0.0790752 -0.000761463 1 0
-0.046132 -0.0129256 0.433557 0.000139027 0.0184803 0.999829
-0.0610951 -0.0716048 0.415957 -0.000201923 -0.0229369 -0.999737
0.00591693 -0.00365736 0.414494 1.38355e-05 -0.0185428 -0.999828
0.175715 0.163595 0.454605 -0.0928381 -0.9498 0.298766
0.045166 -0.0958169 0.416516 0.000218393 -0.0232618 -0.999729
-0.103943 0.195 0.640095 0.0634836 -0.995884 0.0646881
-0.171916 -0.246688 0.178658 0.00076149 -1 0
-0.0778699 0.221446 0.704172 -0.0717978 0.996027 -0.0526859
0.131714 0.190449 0.618953 -0.132924 -0.989077 0.0636968
-0.154552 -0.246675 0.208888 0.00076149 -1 0
0.177437 -0.225749 0.398217 -0.00133673 0.997997 -0.0632527
-0.0396526 -0.116653 0.416985 -0.00022522 -0.0216661 -0.999765
-0.170865 0.20266 0.582126 -0.152004 0.985949 -0.0692754
-0.072841 0.168678 0.44936 0.0367357 -0.858761 0.511058
0.163875 0.205141 0.59954 0.150595 0.986626 -0.0623676
0.180436 -0.227166 0.309425 -0.000761463 1 0
0.011592 0.225261 0.719604 -0.000750623 0.998604 -0.0528222
0.109255 0.163004 0.442387 -0.0259635 -0.692573 0.72088
0.171106 -0.227173 0.331621 -0.000761463 1 0
-0.0540569 -0.179406 0.41815 -0.000486149 -0.0135976 -0.999907
0.0386984 -0.226852 0.351436 0.00523375 0.999878 -0.0147352
0.0183733 -0.133657 0.436189 -1.65991e-05 0.022083 0.999756
-0.0358739 0.205944 0.483693 -0.000736825 0.980249 -0.197767
-0.0428362 0.0237011 0.433039 -7.69346e-06 0.00735876 0.999973
-0.163952 0.174344 0.499685 0.118072 -0.983344 0.138177
-0.0383695 0.187728 0.512822 0.0627773 -0.987488 0.144662
-0.109822 0.173854 0.46778 0.0453776 -0.961129 0.272346
-0.0615664 0.212603 0.541031 -0.0731276 0.991727 -0.105496
-0.0143277 -0.151753 0.436589 -1.65992e-05 0.022083 0.999756
0.154213 -0.243099 0.332667 -0.999999 -0.00114279 0
-0.0739173 0.0458703 0.413767 3.09807e-05 -0.00768422 -0.999971
-0.178927 0.211782 0.770612 -0.153474 0.987055 -0.0465544
0.155826 0.207115 0.611336 0.150595 0.986626 -0.0623676
-0.00411311 0.209886 0.505357 -0.000742753 0.988136 -0.153582
0.178259 -0.226034 0.391639 -0.0012019 0.999449 -0.0331626
-0.106722 -0.00825867 0.433482 0.000209077 0.0143299 0.999897
-0.104274 -0.0172446 0.414766 -0.000154955 -0.0188988 -0.999821
-0.164122 0.186117 0.273554 0.499065 0.847897 0.178896
-0.142766 -0.193467 0.437363 7.92541e-06 0.0131833 0.999913
0.171215 -0.183123 0.418235 3.34353e-05 -0.0131532 -0.999914
0.0639558 0.221878 0.692086 0.070303 0.996169 -0.0519979
-0.132548 -0.0603711 0.434525 -5.24671e-06 0.0216443 0.999766
0.182783 0.174938 0.50994 1 0.000512789 -7.23248e-05
0.179297 0.147801 0.412834 0.939988 -0.333736 -0.0710078
-0.146398 0.204637 0.556985 -0.154585 0.98476 -0.0796989
