-0.041417 0.191104 0.548344 0.0633765 -0.992007 0.109115
0.156583 -0.0874381 0.431664 4.1058e-05 0.02327 0.999729
-0.0410897 0.119227 0.410635 -0.000174248 0.0141475 -0.9999
0.137004 0.213778 0.710701 0.151122 0.98717 -0.0515485
-0.0295793 -0.242322 0.403372 0 -0.994812 0.10173
-0.0568991 0.0576854 0.410356 2.48153e-05 -0.00760652 -0.999971
-0.181749 -0.226281 0.051486 -1 0 0
0.180997 -0.225479 0.267972 0 1 0
0.0204858 0.192953 0.565552 0 -0.996525 0.083293
-0.164041 -0.134698 0.432755 -8.32038e-05 0.0220558 0.999757
0.0824637 0.210038 0.544432 0.0725039 0.99416 -0.0799323
-0.0838238 0.215962 0.63976 -0.070423 0.995809 -0.0583499
-0.150179 0.132918 0.411199 -0.00233234 0.0366782 -0.999324
-0.179998 0.194781 0.519978 -0.153935 0.983807 -0.0918072
-0.133895 -0.102642 0.413356 1.7439e-05 -0.0231792 -0.999731
-0.125063 -0.243838 0.381239 0 -0.999253 0.0386505
-0.161382 0.183078 0.590332 0.135136 -0.988113 0.0732814
-0.0798335 -0.0446407 0.412019 -0.00016825 -0.0218999 -0.99976
0.115376 0.00310092 0.429848 0.000164659 0.0146186 0.999893
-0.0626077 0.0139252 0.410864 -7.65974e-05 -0.0141835 -0.999899
-0.0560453 0.201702 0.472797 -0.0597973 0.978557 -0.197106
-0.105829 0.0216945 0.429585 0.000108683 0.00759889 0.999971
0.132797 -0.241302 0.411517 0.000150286 -0.990471 0.137724
0.00166359 0.106502 0.410458 -2.03875e-06 0.0138288 -0.999904
0.1747 0.149218 0.414123 0 0.208041 -0.97812
0.0691079 0.0190106 0.41079 7.20972e-05 -0.0144838 -0.999895
-0.154094 -0.13491 0.414076 5.62038e-05 -0.0220908 -0.999756
-0.0660678 -0.225239 0.347677 -0.00608859 0.999878 -0.0144095
0.201947 0.15261 0.3718 0.939463 -0.335178 -0.0711699
0.19992 0.171791 0.270033 0.490998 -0.852162 -0.180944
0.202829 0.189547 0.229896 0.939307 0.335631 0.0710975
0.0883167 0.175753 0.471671 -0.0493306 -0.961003 0.272101
-0.0952186 0.193385 0.625437 0.0629018 -0.995959 0.0641043
-0.161756 0.185314 0.623695 0.132763 -0.989101 0.0636629
-0.120116 0.112666 0.410558 -0.000388534 0.0141475 -0.9999
-0.0131229 -0.212859 0.433948 0 -0.0201747 0.999796
0.0868364 -0.223446 0.433743 -0.000171002 -0.0201747 0.999796
0.082563 0.184972 0.518481 -0.0621573 -0.988845 0.135359
-0.139206 0.186291 0.593099 0.133587 -0.98864 0.0688919
0.119021 0.209583 0.586866 0.151324 0.986534 -0.0620561
-0.0763567 -0.177373 0.433619 0.000336308 0.018366 0.999831
0.104689 0.213158 0.6168 0.0712859 0.995885 -0.0559552
-0.147906 -0.139792 0.432869 -8.32038e-05 0.0220558 0.999757
0.0647094 -0.167649 0.433431 -0.000331572 0.0187054 0.999825
0.174622 0.0674645 0.410281 -2.68335e-05 -0.00754047 -0.999972
-0.165561 -0.0636333 0.412459 -1.74196e-05 -0.0233042 -0.999728
-0.0155503 -0.230414 0.431944 6.28232e-05 -0.414662 0.909976
0.115703 0.192434 0.638104 -0.13291 -0.989073 0.0637948
-0.172751 -0.227006 0.343834 2.61891e-07 0.000575943 -1
-0.179272 0.210565 0.778288 -0.152889 0.987161 -0.0462318
-0.138568 0.156486 0.412649 -0.00874743 0.13111 -0.991329
-0.114224 -0.244456 0.356598 0 -0.999899 0.0142004
0.0854984 -0.00949204 0.430028 -0.000296115 0.0184996 0.999829
-0.127179 -0.111706 0.432231 -6.59776e-05 0.0232127 0.999731
-0.159928 0.172787 0.41619 -0.0241416 0.30575 -0.951806
0.154724 0.120054 0.430583 -0.00317842 -0.0679109 0.997686
-0.170703 -0.225479 0.191823 0 1 0
-0.091224 -0.0680753 0.431213 0.000241861 0.0218866 0.999761
0.027709 0.201873 0.70104 0 -0.998322 0.0579039
-0.00554356 0.146823 0.41168 0 0.0648211 -0.997897
-0.104418 -0.0998634 0.431955 0.000285377 0.0233289 0.999728
-0.105789 -0.160149 0.414565 -0.000513313 -0.0188067 -0.999823
0.0161876 0.214292 0.555552 0 0.996819 -0.0796929
0.126382 -0.224861 0.3822 -0.00043924 0.996406 -0.084703
0.143838 0.198547 0.505716 0.148876 0.979112 -0.138473
-0.189199 0.226009 0.0808223 0.479937 0.858422 0.181031
0.177264 -0.225479 0.217831 0 1 0
0.129707 0.185887 0.570593 -0.135153 -0.987239 0.0842164
0.10699 0.0856288 0.42957 -0.000123228 -0.0145866 0.999894
-0.0351317 0.20336 0.72693 0 -0.998447 0.0557052
-0.0767328 0.177378 0.476231 0.0500397 -0.974697 0.217859
-0.163617 -0.0332268 0.411777 -3.85052e-05 -0.0217156 -0.999764
0.0349571 -0.00601588 0.429958 0 0.0138881 0.999904
0.181459 -0.0447455 0.422786 1 0 0
0.105602 -0.224197 0.3932 0.00534424 0.998012 -0.0627917
-0.179239 0.060676 0.410333 2.62664e-05 -0.0077033 -0.99997
0.143006 0.215653 0.767758 0.152873 0.987055 -0.0484948
-0.102169 0.0709984 0.429415 4.78432e-07 -0.00161504 0.999999
-0.13464 -0.0103821 0.430048 -0.000127811 0.0184996 0.999829
0.133092 0.202522 0.525984 0.153628 0.982574 -0.10463
-0.111021 -0.223987 0.396827 0.000591218 0.997894 -0.0648629
-0.164293 0.208288 0.684491 -0.150098 0.987282 -0.052386
-0.0825303 0.088972 0.410299 -5.30805e-06 0.00119321 -0.999999
-0.166199 -0.244584 0.332161 0 -1 0
-0.131598 -0.0279012 0.41166 -3.85052e-05 -0.0217156 -0.999764
0.104507 0.14065 0.431974 -0.00412953 -0.12884 0.991657
0.129457 -0.087176 0.413001 0.000130581 -0.0231709 -0.999731
0.15259 0.159076 0.413143 0.00917304 0.137863 -0.990409
0.11438 0.200322 0.772932 -0.138768 -0.988957 0.0520402
-0.0191074 0.183139 0.491652 0 -0.981955 0.189113
-0.144931 0.0962776 0.429749 0.000647024 -0.0145931 0.999893
0.00514312 0.0573486 0.410359 0 -0.00760652 -0.999971
0.0481314 -0.181885 0.41485 0.00063856 -0.0135028 -0.999909
-0.154732 -0.225479 0.0854515 0 1 0
0.151697 0.195156 0.774811 -0.139936 -0.988931 0.0493218
0.0129828 -0.108861 0.413492 3.25854e-06 -0.0215078 -0.999769
-0.161277 -0.244584 0.0195597 0 -1 0
0.0146666 0.203993 0.738277 0 -0.998447 0.0557052
-0.163514 0.18863 0.682844 0.135824 -0.988954 0.0593507
-0.0852286 -0.230478 0.431942 0.000376318 -0.420242 0.907412
-0.0103076 0.201287 0.466065 0 0.970429 -0.241388
0.0926798 -0.143585 0.414248 0.000508878 -0.018908 -0.999821
-0.157218 -0.225479 0.0407785 0 1 0
-0.0264687 -0.224935 0.356046 0 0.999892 -0.0146986
0.201447 0.167404 0.29552 0.939463 -0.335178 -0.0711699
0.1671 0.17147 0.488274 -0.116794 -0.978078 0.172403
-0.120608 -0.21296 0.414992 0.000265994 0.156397 -0.987694
-0.153098 -0.228548 0.33205 1 0 0
-0.120161 0.211124 0.616713 -0.151362 0.986922 -0.0554516
-0.098898 -0.0386209 0.411892 -0.000216668 -0.021793 -0.999763
0.152528 -0.225911 0.295111 -1 0 0
0.0582652 -0.223885 0.394132 0.00534424 0.998012 -0.0627917
0.152483 -0.0554556 0.412267 1.54455e-05 -0.0230322 -0.999735
-0.107931 -0.0170997 0.411434 -7.58524e-06 -0.0187899 -0.999823
0.0457518 0.201439 0.70407 -0.0640922 -0.99627 0.0577848
-0.134197 -0.225294 0.358304 0.00059208 0.999694 -0.0247148
0.042388 -0.0151241 0.411376 1.88487e-05 -0.0180381 -0.999837
-0.119485 0.199474 0.770778 0.140062 -0.988756 0.0523776
0.144067 0.194187 0.734991 -0.137164 -0.989085 0.0538135
0.166815 -0.244584 0.107521 0 -1 0
-0.134041 0.21601 0.74618 -0.151867 0.987241 -0.0478757
0.116387 -0.0754715 0.431387 6.55579e-05 0.0233289 0.999728
-0.0360088 0.214587 0.559245 0 0.996819 -0.0796929
0.154245 0.18923 0.670386 -0.134245 -0.989168 0.0593636
0.185097 0.23438 0.0141806 -1 0 0
0.111888 -0.15529 0.414476 -7.03532e-05 -0.0188146 -0.999823
0.0755623 -0.146472 0.414294 0.000508878 -0.018908 -0.999821
0.00157427 -0.150453 0.433081 0 0.0219192 0.99976
0.181179 -0.228788 0.113438 1 0 0
-0.112682 0.194909 0.671136 0.135824 -0.988954 0.0593507
-0.0355178 0.217791 0.613013 0 0.998563 -0.0536001
-0.0252954 -0.221362 0.407653 0 0.909592 -0.415502
0.177503 -0.244584 0.181952 0 -1 0
-0.190157 0.19621 0.224648 0.498666 0.848073 0.179177
-0.0669343 -0.129382 0.413945 -0.000395052 -0.0215078 -0.999769
-0.0298544 0.223555 0.71583 0 0.998587 -0.0531323
-0.0278243 0.126367 0.430771 0 -0.0652312 0.99787
0.0927746 0.196173 0.666266 -0.0634914 -0.996103 0.0612109
0.0979402 -0.0674827 0.412543 6.221e-05 -0.0230322 -0.999735
-0.181749 -0.237502 0.20592 -1 0 0
0.185097 0.219261 0.0819665 -1 0 0
0.181459 0.208175 0.742557 1 0 0
0.0203187 -0.239432 0.343827 0 0.000563865 -1
0.139308 0.0344699 0.410571 6.87216e-05 -0.0144838 -0.999895
0.128775 -0.158442 0.414534 -9.88335e-05 -0.018737 -0.999824
-0.181459 0.0869279 0.422123 -1 0 0
0.160033 0.205431 0.621645 0.148656 0.987332 -0.0554746
-0.12395 0.217306 0.782924 -0.000161958 0.00104572 0.999999
-0.186554 0.143595 0.416608 0.939688 -0.334575 -0.0710412
0.15415 0.0531725 0.41039 3.65499e-05 -0.0077033 -0.99997
-0.00950865 -0.204787 0.414976 0 -0.00310173 -0.999995
0.0182866 0.187011 0.424742 0 0.863515 -0.504324
-0.194248 0.224396 0.0118179 -0.173523 -0.963297 -0.204812
0.0221112 -0.164602 0.414609 0 -0.0135028 -0.999909
-0.193369 0.172742 0.254019 -0.173523 -0.963297 -0.204812
-0.148365 0.214842 0.767412 -0.152889 0.987161 -0.0462318
-0.0832413 -0.0735717 0.412681 -5.15795e-05 -0.0231626 -0.999732
-0.0572541 -0.0341837 0.43048 0.00022815 0.0184996 0.999829
0.129894 0.167389 0.453891 -0.0829033 -0.932108 0.352565
-0.0578671 0.177919 0.474318 0.0500397 -0.974697 0.217859
-0.0990717 0.206949 0.525321 -0.0723505 0.991772 -0.10561
0.110701 0.2006 0.486059 0.138741 0.974408 -0.176863
-0.00563285 -0.0349018 0.430488 0 0.0186677 0.999826
-0.181459 -0.234788 0.401614 -1 0 0
-0.181459 0.196041 0.595174 -1 0 0
-0.153098 -0.240411 0.100496 1 0 0
0.0355646 -0.243467 0.388966 0 -0.998505 0.0546693
-0.0930076 0.18936 0.565911 0.0635365 -0.994512 0.0831247
0.0849785 0.222842 0.782923 7.57921e-05 0.00104576 0.999999
-0.138415 0.0306316 0.429518 6.6228e-05 0.00770142 0.99997
-0.0314573 0.138043 0.411238 0 0.0332937 -0.999446
0.181179 -0.23952 0.314022 1 0 0
-0.181459 -0.0325048 0.426563 -1 0 0
-0.0930031 0.197586 0.690046 0.0641081 -0.996369 0.0560338
0.105957 0.218418 0.713167 0.0710144 0.996118 -0.0520158
-0.0405086 -0.0657272 0.431149 0.000241861 0.0218866 0.999761
-0.149294 0.0507109 0.41041 -3.57909e-05 -0.00754333 -0.999972
-0.170503 0.174346 0.511543 0.126697 -0.985277 0.114792
-0.201113 0.154379 0.355024 -0.764791 -0.630271 -0.133618
-0.0612771 0.216361 0.61935 -0.0702962 0.995955 -0.0559592
-0.177147 -0.0203936 0.411499 -3.85052e-05 -0.0217156 -0.999764
0.136871 0.00755461 0.410967 -0.000130183 -0.0187899 -0.999823
-0.0808981 0.200392 0.725929 0.0648537 -0.99644 0.0538604
-0.154496 0.175968 0.507798 0.126697 -0.985277 0.114792
0.0484955 -0.2182 0.412386 0.00502215 0.689609 -0.724164
-0.140491 -0.18766 0.414948 -2.26308e-05 -0.0126361 -0.99992
0.152528 -0.242073 0.159313 -1 0 0
-0.103595 0.21004 0.563636 -0.0723612 0.99417 -0.0799332
-0.0620972 0.192224 0.576554 0.0636035 -0.995561 0.0693742
0.0866698 0.0927711 0.410304 5.4165e-06 0.00117854 -0.999999
-0.059593 0.182549 0.495873 0.0590063 -0.980244 0.188784
-0.0857553 0.223317 0.782085 -0.07221 0.996188 -0.0489435
0.167205 -0.225479 0.0829186 0 1 0
-0.0982475 0.199718 0.734343 0.0648537 -0.99644 0.0538604
0.135197 0.118418 0.430456 -0.0019177 -0.0366286 0.999327
0.120399 -0.157755 0.433267 9.96277e-05 0.0220558 0.999757
0.163213 -0.126189 0.432564 7.96098e-05 0.0232127 0.999731
0.163759 0.192369 0.480769 0.127167 0.983088 -0.13178
-0.149682 -0.157709 0.433263 -9.97123e-05 0.0220138 0.999758
-0.0540883 0.198559 0.665068 0.0635063 -0.996189 0.0597849
0.165308 -0.225479 0.167843 0 1 0
-0.00905479 0.194311 0.583043 0 -0.997717 0.0675336
0.0670054 0.166037 0.442943 -0.0327025 -0.85939 0.510274
0.170601 0.0196618 0.410778 -0.000171509 -0.0139033 -0.999903
-0.166073 -0.0784822 0.431455 -6.57662e-05 0.02327 0.999729
-0.0425416 0.0384508 0.429455 -2.16554e-06 0.00731039 0.999973
-0.146575 -0.152215 0.414414 7.06775e-05 -0.018737 -0.999824
-0.135253 0.2031 0.5341 -0.153935 0.983807 -0.0918072
0.102387 0.0298639 0.410635 7.20972e-05 -0.0144838 -0.999895
-0.153002 0.204286 0.586318 -0.151228 0.986047 -0.0695807
-0.188672 0.157012 0.339611 0.498665 -0.847843 -0.180265
0.00316776 -0.0247945 0.411577 0 -0.0218999 -0.99976
0.0766512 0.121004 0.410688 0.000428429 0.0347849 -0.999395
0.0889757 0.157908 0.412512 0.00210937 0.064821 -0.997895
0.0627126 -0.0534212 0.430889 -0.000251533 0.0216238 0.999766
-0.153098 -0.241619 0.213836 1 0 0
-0.149165 0.18939 0.661779 0.134419 -0.98935 0.0558394
0.0238017 0.155329 0.433958 0 -0.275521 0.961295
0.0701368 0.187309 0.530214 -0.06236 -0.99207 0.109122
0.181459 0.190568 0.596069 1 0 0
-0.124274 -0.224971 0.378893 0.00045452 0.999567 -0.0294294
0.0958453 0.20002 0.477053 0.060005 0.982151 -0.178268
0.0656689 -0.149777 0.433077 -0.000378991 0.0219192 0.99976
-0.168259 -0.239245 0.42082 0 -0.962822 0.270135
-0.0188937 0.200213 0.673419 0 -0.998117 0.0613346
-0.00751922 0.218044 0.617732 0 0.998563 -0.0536001
-0.0549759 -0.0743836 0.412699 -5.15795e-05 -0.0231626 -0.999732
0.181459 -0.0176872 0.429324 1 0 0
-0.0361823 -0.00286008 0.429914 0 0.0138881 0.999904
0.171292 -0.244584 0.0822582 0 -1 0
-0.164385 0.186348 0.646082 0.132792 -0.989318 0.0601311
0.0459865 0.213152 0.550121 0.0723432 0.994208 -0.0794841
0.132278 0.193741 0.696964 -0.135853 -0.989166 0.0556288
0.0414025 0.200651 0.685843 -0.0634914 -0.996103 0.0612109
-0.167097 -0.170588 0.433502 2.5029e-05 0.018731 0.999825
0.126672 0.0727693 0.429418 -1.28427e-05 -0.00166553 0.999999
-0.0562435 0.19574 0.623859 0.0627531 -0.995993 0.0637142
0.0166465 -0.00995249 0.430023 0 0.0186677 0.999826
-0.181459 0.0121902 0.4149 -1 0 0
-0.0492109 -0.104933 0.432057 0.000289232 0.023229 0.99973
0.00586288 0.186903 0.512461 0 -0.989427 0.145029
0.166602 -0.244584 0.0239048 0 -1 0
0.195792 0.239077 0.0292466 0.492664 0.851477 0.179638
0.0756743 -0.0321729 0.430446 -0.000223464 0.0186677 0.999826
-0.079019 0.203748 0.491055 -0.0655032 0.981897 -0.17773
0.152504 -0.225344 0.355233 -0.000592271 0.999866 -0.0163422
-0.116315 0.067183 0.410284 2.62664e-05 -0.0077033 -0.99997
-0.18797 0.157548 0.416347 0 0.978039 0.20842
-0.122698 0.197365 0.739432 0.138611 -0.988903 0.053453
-0.181749 -0.227598 0.0872757 -1 0 0
-0.100961 -0.0119713 0.430079 0.000293421 0.0186677 0.999826
-0.065475 0.221673 0.719928 -0.0714756 0.996142 -0.0509156
0.181459 0.197307 0.653222 1 0 0
0.0502076 0.175704 0.415238 0.0105761 0.277983 -0.960528
0.189551 0.196669 0.225159 -0.173523 0.963619 0.203295
-0.17437 0.180891 0.431058 -0.0985788 0.953423 -0.285074
-0.0907776 0.184708 0.520704 0.0595295 -0.988935 0.135885
0.0656264 0.197394 0.457186 0.0535195 0.974675 -0.217126
0.0318746 0.194094 0.579834 0 -0.997717 0.0675336
-0.00855362 0.004501 0.429811 0 0.0138881 0.999904
-0.0662016 0.207508 0.510094 -0.0701321 0.987657 -0.140057
-0.153098 -0.240395 0.320369 1 0 0
-0.134468 -0.0484705 0.430789 2.75867e-05 0.0218866 0.999761
-0.0392393 -0.137102 0.414098 -0.000513313 -0.0188067 -0.999823
0.146095 0.0358606 0.42948 -2.51248e-05 0.00770142 0.99997
-0.00656653 0.169552 0.446894 0 -0.85985 0.510547
0.189039 0.207471 0.0974328 -0.754404 -0.642066 -0.136477
-0.151957 -0.0107146 0.430052 -0.000127811 0.0184996 0.999829
-0.027332 0.195054 0.594024 0 -0.997717 0.0675336
-0.192167 0.203362 0.111944 0.498665 -0.847843 -0.180265
-0.133047 -0.156931 0.433248 -9.97123e-05 0.0220138 0.999758
0.181179 -0.229137 0.0521124 1 0 0
-0.0108876 0.0691315 0.410276 0 0.00117854 -0.999999
0.181459 -0.168219 0.419621 1 0 0
-0.181459 -0.243226 0.349477 -1 0 0
0.0430458 0.216394 0.595862 0.0702858 0.996093 -0.0534675
0.0628674 -0.0842143 0.412927 5.72856e-05 -0.0231212 -0.999733
-0.0870211 0.00908164 0.429754 0.000358303 0.0146186 0.999893
-0.0625921 -0.161747 0.433323 0.000454807 0.0187054 0.999825
0.159914 0.183252 0.590458 -0.133545 -0.988329 0.0732973
-0.0247515 0.197863 0.637139 0 -0.997781 0.0665898
-0.141953 0.173594 0.484351 0.115736 -0.969361 0.216666
0.114777 0.216177 0.691478 0.151122 0.98717 -0.0515485
0.010983 -0.224928 0.356559 0 0.999892 -0.0146986
0.0952058 -0.241724 0.408433 -0.000319156 -0.990713 0.135972
-0.0624561 0.188341 0.535406 0.0623905 -0.992408 0.105992
0.0966403 0.0674324 0.429409 -3.11402e-06 -0.00161569 0.999999
0.152528 -0.235145 0.115848 -1 0 0
-0.20362 0.213072 0.0936533 -1 0 0
-0.0912464 0.190875 0.439115 -0.046008 0.935961 -0.349084
-0.114409 -0.0526586 0.43088 2.75867e-05 0.0218866 0.999761
-0.0654065 -0.223981 0.393271 -0.00548171 0.998007 -0.062859
0.181459 -0.00760268 0.4144 1 0 0
0.181459 0.102993 0.416064 1 0 0
-0.20362 0.167943 0.326658 -1 0 0
-0.00717378 0.112879 0.43019 0 -0.0330951 0.999452
-0.165028 0.179182 0.54918 0.135322 -0.985199 0.105222
0.126819 0.184852 0.553564 -0.135608 -0.987287 0.082916
-0.165202 -0.122909 0.413811 2.352e-05 -0.0220061 -0.999758
0.0608604 -0.139099 0.414147 0.000508878 -0.018908 -0.999821
-0.148961 0.187586 0.44494 -0.0990113 0.957699 -0.270204
0.135875 0.205215 0.560869 0.153991 0.984894 -0.0791873
-0.0082664 0.224472 0.733717 0 0.998696 -0.0510461
0.0349537 0.198355 0.64451 0 -0.997781 0.0665898
-0.0308914 -0.223946 0.389975 0 0.999455 -0.0329997
-0.168041 -0.225479 0.00295043 0 1 0
0.0482618 0.03634 0.429472 -0.000110309 0.00731039 0.999973
-0.170122 -0.244584 0.216579 0 -1 0
0.000483286 0.200265 0.674264 0 -0.998117 0.0613346
0.132752 0.217824 0.779621 0.152873 0.987055 -0.0484948
0.137761 -0.18869 0.414961 2.33774e-05 -0.0130511 -0.999915
0.174762 0.155821 0.424495 0 0.978274 0.207318
-0.168373 0.121074 0.430707 0.00334987 -0.0718953 0.997407
-0.133109 0.184907 0.564393 0.135038 -0.987397 0.0825301
-0.102082 0.220703 0.752964 -0.07221 0.996188 -0.0489435
-0.17647 -0.214817 0.414683 0.000265994 0.156397 -0.987694
0.103432 -0.217607 0.43387 -0.000421619 -0.0212339 0.999774
0.0225986 0.126592 0.430786 0 -0.0652312 0.99787
-0.0790549 0.0435794 0.410463 2.48153e-05 -0.00760652 -0.999971
0.105217 0.188353 0.563143 -0.0633886 -0.994488 0.0835208
-0.203091 0.189665 0.236954 -0.75105 0.645948 0.13666
0.112793 0.209542 0.571031 0.151324 0.986534 -0.0620561
0.165896 0.210613 0.736173 0.15115 0.987351 -0.047881
0.0787633 -0.195403 0.41497 0.000537256 -0.00310172 -0.999995
0.0899462 -0.0536406 0.412223 0.000109609 -0.0231626 -0.999732
0.0412261 0.188589 0.525982 -0.0592959 -0.987687 0.144774
-0.181749 -0.241962 0.0276847 -1 0 0
0.161598 -0.0788186 0.412811 0.000131332 -0.0233042 -0.999728
0.00640728 -0.223849 0.392828 0 0.998022 -0.0628599
-0.0241492 0.192279 0.557481 0 -0.996525 0.083293
0.0127243 0.210356 0.782939 0 0.00102331 0.999999
-0.115132 -0.150285 0.433103 -8.32038e-05 0.0220558 0.999757
0.0721321 0.223552 0.766995 0.072197 0.996156 -0.0496043
-0.043869 -0.234471 0.34383 0 0.000563865 -1
-0.0804956 -0.103753 0.413381 -8.15675e-05 -0.0231127 -0.999733
0.156809 0.203058 0.576151 0.154102 0.985604 -0.0695494
0.197254 0.162475 0.388258 0.501753 0.846347 0.178717
-0.124513 0.186343 0.433141 -0.0858077 0.933498 -0.348165
-0.00832995 -0.243884 0.380059 0 -0.999251 0.0387052
0.103216 0.220283 0.746263 0.0714588 0.996192 -0.0499474
-0.0702936 0.189423 0.549835 0.0633765 -0.992007 0.109115
-0.181459 0.178353 0.449755 -1 0 0
0.0214657 0.210637 0.518046 0 0.993759 -0.111551
-0.111074 0.134917 0.41119 -0.0017275 0.034803 -0.999393
0.111642 -0.238193 0.343828 -3.41869e-07 0.00057694 -1
-0.0678829 -0.202444 0.414983 -0.000428744 -0.00310172 -0.999995
0.137725 0.194862 0.474239 0.127167 0.983088 -0.13178
0.119624 0.169958 0.414395 0.0220478 0.305765 -0.951852
0.14942 -0.018428 0.411459 1.87742e-05 -0.0191386 -0.999817
0.0359331 -0.240217 0.417277 0 -0.982943 0.183911
-0.0228796 -0.166241 0.414631 0 -0.0135028 -0.999909
0.0923236 -0.0958082 0.413197 7.49326e-05 -0.0231709 -0.999732
0.0147194 0.195387 0.598937 0 -0.997717 0.0675336
0.153485 0.0126521 0.429709 -0.000119552 0.0139022 0.999903
-0.021655 0.188802 0.525416 0 -0.989427 0.145029
-0.0888048 -0.141246 0.432897 0.000375769 0.0220558 0.999757
-0.166323 -0.0803392 0.412847 -0.000133128 -0.0230241 -0.999735
0.0873524 0.0366989 0.429471 1.1305e-06 0.00759602 0.999971
0.135334 -0.0280999 0.43038 -1.96422e-06 0.0184996 0.999829
-0.166175 -0.225479 0.213416 0 1 0
0.0744144 0.200519 0.72047 -0.0648364 -0.996322 0.0560312
-0.133548 0.189469 0.629426 0.132763 -0.989101 0.0636629
-0.02116 -0.0140374 0.411357 0 -0.0180381 -0.999837
-0.141489 0.178826 0.517779 0.132255 -0.981989 0.134931
0.155511 -0.0703841 0.431267 4.1058e-05 0.02327 0.999729
-0.153098 -0.230849 0.178157 1 0 0
0.170582 0.207827 0.782927 0.000170191 0.00109887 0.999999
-0.129265 0.195641 0.724282 0.137336 -0.989242 0.0503824
0.152528 -0.228924 0.00294048 -1 0 0
-0.0298944 -0.139384 0.432838 0 0.0219192 0.99976
-0.0421268 0.195045 0.59932 0.0628881 -0.995742 0.0674
0.114158 0.161032 0.438668 -0.0520331 -0.691977 0.720042
-0.0836758 0.166315 0.444788 0.0360013 -0.859292 0.510216
0.103016 0.182513 0.509903 -0.0621573 -0.988845 0.135359
0.0233956 -0.223556 0.39748 0 0.998022 -0.0628599
0.134903 0.207604 0.594131 0.151322 0.98652 -0.0622869
0.167471 -0.225479 0.0441575 0 1 0
0.154551 0.187031 0.446517 0.100475 0.972213 -0.211441
0.0573883 -0.0491335 0.412115 0.000109609 -0.0231626 -0.999732
-0.109945 0.197424 0.707929 0.137298 -0.988967 0.0556176
-0.18572 0.176388 0.289545 0.939553 0.33498 0.0709091
0.098388 -0.161185 0.433328 -0.000462811 0.018366 0.999831
-0.200284 0.19754 0.14721 -0.74869 -0.648429 -0.13785
0.0877953 0.19518 0.645654 -0.0634793 -0.995914 0.064236
-0.156887 0.193026 0.477131 -0.126274 0.976134 -0.176686
-0.0652722 -0.111785 0.413562 -0.000136445 -0.0220908 -0.999756
-0.162139 0.207752 0.668209 -0.150098 0.987282 -0.052386
-0.128736 -0.049956 0.412141 -6.43638e-06 -0.021793 -0.999763
-0.181459 0.178735 0.482167 -1 0 0
-0.05454 0.173599 0.458879 0.0446519 -0.961226 0.272125
-0.20362 0.208224 0.126971 -1 0 0
0.042698 0.217375 0.613696 0.0702858 0.996093 -0.0534675
-0.0948636 0.214302 0.624773 -0.0702852 0.9958 -0.0586739
0.0771782 0.202134 0.753119 -0.0654308 -0.996387 0.0541503
-0.138832 -0.0983898 0.43192 -6.57662e-05 0.02327 0.999729
-0.164352 0.164581 0.455963 0.0916861 -0.931388 0.352293
0.0648448 -0.194251 0.43387 -0.000204241 0.0136809 0.999906
-0.0501034 0.206393 0.782942 -6.94614e-05 0.00104576 0.999999
0.146068 -0.0978974 0.413251 -1.93589e-05 -0.0228095 -0.99974
0.0514491 -0.115899 0.413646 0.000164934 -0.0214997 -0.999769
0.0607699 0.0609291 0.429398 -2.39312e-07 -0.00160789 0.999999
-0.0154692 0.196596 0.617602 0 -0.99796 0.0638401
0.0150691 0.190905 0.543558 0 -0.994005 0.109335
0.188821 0.175795 0.321139 -0.767056 0.627762 0.132439
0.177572 -0.111774 0.432228 6.61115e-05 0.0231795 0.999731
-0.181749 -0.243483 0.282574 -1 0 0
0.187467 0.207581 0.162693 -0.752805 0.643998 0.136204
0.0159224 -0.230935 0.431704 6.28232e-05 -0.414662 0.909976
0.148932 -0.165531 0.433411 0.000107518 0.018731 0.999825
-0.181459 -0.0904946 0.414157 -1 0 0
0.159816 -0.156108 0.414487 -9.88335e-05 -0.018737 -0.999824
0.0636847 -0.244326 0.364283 0 -0.999806 0.0197222
0.0696662 0.216022 0.623801 0.0702665 0.99582 -0.0583506
-0.0863955 -0.019008 0.430206 0.00022815 0.0184996 0.999829
-0.0854184 0.102477 0.429862 0.000292713 -0.0340545 0.99942
0.10483 -0.239237 0.420843 -0.000474772 -0.962822 0.270135
0.120226 0.0468454 0.429395 -2.51248e-05 0.00770142 0.99997
-0.0495765 0.200804 0.697519 0.0648395 -0.996221 0.057782
-0.101556 0.187209 0.54782 0.0623905 -0.992408 0.105992
-0.181459 0.202042 0.636422 -1 0 0
0.1772 0.0877983 0.410308 5.92037e-06 0.00166368 -0.999999
0.162972 -0.028605 0.411678 5.82033e-06 -0.021708 -0.999764
-0.0625356 0.214482 0.58731 -0.071278 0.995489 -0.0626193
-0.0755274 0.22334 0.767463 -0.07221 0.996188 -0.0489435
0.059532 0.197572 0.654799 -0.0634793 -0.995914 0.064236
0.127451 0.216037 0.726602 0.151855 0.987163 -0.0494947
0.110694 -0.0244986 0.430313 -1.96422e-06 0.0184996 0.999829
0.179797 -0.225479 0.339668 0 1 0
-0.0392249 0.221919 0.689014 -0.071031 0.996065 -0.0529981
0.134282 0.149763 0.41213 0.00493824 0.0674159 -0.997713
0.0701349 0.198361 0.678441 -0.0640847 -0.996152 0.0597827
0.0700857 0.192415 0.586865 -0.0634662 -0.995706 0.0673975
0.164266 0.114762 0.410642 0.0010518 0.0141475 -0.999899
0.0931513 0.189988 0.437213 0.041021 0.936165 -0.34916
0.0882908 0.205914 0.510272 0.0699702 0.985659 -0.153556
-0.152214 0.170105 0.472223 0.106443 -0.979223 0.172605
0.161842 -0.244501 0.352711 0 -0.999917 0.0128772
0.0670969 0.209046 0.782938 6.79595e-05 0.00102331 0.999999
-0.162652 0.191983 0.743458 0.137336 -0.989242 0.0503824
0.00470488 0.220209 0.654946 0 0.998391 -0.0566982
-0.144935 0.0708677 0.410278 -4.06857e-06 0.00119321 -0.999999
0.0525499 -0.0242009 0.430292 -0.000223464 0.0186677 0.999826
-0.181459 0.167599 0.46323 -1 0 0
0.180515 -0.225779 0 0 0 -1
0.148231 0.149881 0.433844 -0.0195279 -0.284866 0.958368
-0.0352665 -0.202563 0.414969 0 -0.00310173 -0.999995
0.000689693 0.197781 0.452455 0 0.954751 -0.297406
-0.0715701 0.195822 0.64011 0.0627495 -0.995935 0.0646151
-0.0584661 -0.0480044 0.41209 -0.00016825 -0.0218999 -0.99976
-0.12095 0.20648 0.547616 -0.154102 0.984877 -0.0791859
-0.01611 -0.17354 0.433532 0 0.0187054 0.999825
-0.140447 0.0768974 0.429449 0.000125432 -0.0162669 0.999868
0.0184977 0.219006 0.634463 0 0.998269 -0.0588194
0.0265246 0.182028 0.486394 0 -0.971432 0.237317
0.0315004 -0.0866443 0.43163 0 0.0230976 0.999733
-0.0616313 -0.212385 0.433968 0.000415031 -0.0201747 0.999796
-0.0389904 0.0960001 0.429714 0.000122987 -0.0143084 0.999898
-0.153098 -0.243694 0.189918 1 0 0
-0.0608721 0.182519 0.419561 -0.0280642 0.700695 -0.712909
0.0882215 0.152189 0.433526 -0.00867117 -0.275511 0.961259
0.181459 0.167756 0.422119 1 0 0
0.0401804 0.222825 0.707366 0.0714475 0.996036 -0.0529965
-0.0350344 0.0578368 0.410356 0 -0.00760652 -0.999971
0.0647361 0.218741 0.664791 0.0704155 0.995989 -0.0552086
-0.00925774 -0.0740066 0.431338 0 0.0230976 0.999733
0.0366809 0.186623 0.51071 -0.0592959 -0.987687 0.144774
0.0300089 0.204431 0.746121 0 -0.998447 0.0557052
-0.163398 0.210316 0.721986 -0.151117 0.987274 -0.0495463
-0.119593 0.209886 0.593123 -0.151362 0.986922 -0.0554516
-0.102235 -0.102171 0.413345 -5.06586e-05 -0.0231792 -0.999731
-0.103888 0.208495 0.54469 -0.0723612 0.99417 -0.0799332
0.128713 0.21747 0.759677 0.152873 0.987055 -0.0484948
-0.105522 0.215183 0.652652 -0.070423 0.995809 -0.0583499
0.179081 -0.244584 0.117036 0 -1 0
0.00453207 -0.128493 0.4326 0 0.0219192 0.99976
0.142692 0.168784 0.462537 -0.0942665 -0.957881 0.271253
0.0600502 0.0214025 0.429582 -0.000110309 0.00731039 0.999973
0.0463597 0.2193 0.65153 0.0704016 0.995792 -0.0586734
0.120638 0.0742846 0.410284 0.000171504 0.00119369 -0.999999
0.0195083 -0.0755944 0.412726 0 -0.0231626 -0.999732
-0.0250377 0.207756 0.498404 0 0.988081 -0.153934
0.188417 0.16372 0.306706 -0.754404 -0.642066 -0.136477
-0.00457524 0.203722 0.733411 0 -0.998447 0.0557052
-0.0163525 -0.244583 0.346671 0 -0.999933 0.011614
-0.11288 0.217637 0.71383 -0.150104 0.987325 -0.0515566
-0.0679298 -0.244288 0.366201 0 -0.999806 0.0197222
0.177294 -0.223106 0.403255 -0.000433049 0.982363 -0.186983
-0.0657606 0.14816 0.411812 -0.0015068 0.064821 -0.997896
0.155831 0.091163 0.429669 -0.000688877 -0.0162669 0.999867
-0.0761099 0.199422 0.703369 0.0641081 -0.996369 0.0560338
-0.0127342 0.0732967 0.429418 0 -0.00160789 0.999999
0.0447463 0.0476273 0.410433 1.13212e-06 -0.00760652 -0.999971
-0.122124 0.188809 0.596116 0.133587 -0.98864 0.0688919
-0.181459 0.191032 0.772054 -1 0 0
0.0205125 0.0482665 0.429383 0 0.00731039 0.999973
0.15997 0.208599 0.678232 0.150099 0.987156 -0.054719
-0.0125297 -0.0900834 0.431709 0 0.0230976 0.999733
0.0170537 0.00758107 0.410967 0 -0.0180381 -0.999837
-0.0680539 0.164804 0.413294 -0.00384535 0.126485 -0.991961
0.0187047 -0.0687843 0.431217 0 0.0230976 0.999733
-0.0162191 0.205981 0.774491 0 -0.998527 0.0542666
0.00249417 0.202576 0.713174 0 -0.998322 0.0579039
-0.0770257 -0.0887937 0.413034 -5.06586e-05 -0.0231792 -0.999731
-0.181749 -0.228978 0.161043 -1 0 0
-0.00746048 -0.100234 0.413296 3.50341e-06 -0.0231212 -0.999733
-0.12557 -0.223418 0.401675 0.000437355 0.992281 -0.124008
-0.0493274 0.153917 0.412161 -0.0015068 0.064821 -0.997896
-0.141775 0.21347 0.718877 -0.151117 0.987274 -0.0495463
0.0349094 -0.129511 0.432622 0 0.0219192 0.99976
-0.180887 -0.244584 0.247488 0 -1 0
-0.168736 -0.0399725 0.430604 2.75867e-05 0.0218866 0.999761
-0.159617 0.00991767 0.41092 0.000130082 -0.0191387 -0.999817
0.0336654 0.178423 0.471684 0 -0.955429 0.295221
0.0672132 0.174248 0.462821 -0.0443359 -0.954489 0.294931
-0.120284 -0.0214788 0.430256 -0.000127811 0.0184996 0.999829
0.181459 -0.0754143 0.43074 1 0 0
0.110606 0.192026 0.621231 -0.13363 -0.98896 0.0640439
0.0604274 0.0862853 0.410296 5.4165e-06 0.00117854 -0.999999
0.179602 -0.162586 0.433352 0.000107518 0.018731 0.999825
-0.0945885 0.199141 0.71936 0.0648395 -0.996221 0.057782
-0.0830144 -0.149771 0.414359 -0.000513313 -0.0188067 -0.999823
-0.030681 -0.0349257 0.411799 0 -0.0218999 -0.99976
0.181459 -0.0587363 0.420398 1 0 0
-0.0540903 0.0415638 0.410479 2.48153e-05 -0.00760652 -0.999971
0.0973096 0.123669 0.41079 0.000428429 0.0347849 -0.999395
0.180554 -0.224509 0.38607 -0.00043924 0.996406 -0.084703
0.0767866 0.0604917 0.410335 1.13212e-06 -0.00760652 -0.999971
0.00965404 0.0862158 0.429574 0 -0.0143084 0.999898
-0.0421189 -0.108851 0.413494 -0.000136445 -0.0220908 -0.999756
0.0476908 0.223669 0.782925 7.57921e-05 0.00104576 0.999999
-0.0407296 0.205214 0.765802 0.0661784 -0.996337 0.0541477
0.099577 0.206592 0.522472 0.070414 0.99191 -0.105624
0.00573204 -0.221232 0.407938 0 0.909592 -0.415502
0.127987 -0.244144 0.372062 0 -0.999604 0.0281375
0.150135 -0.204622 0.434024 -7.7507e-06 0.0130801 0.999914
0.166821 -0.244584 0.275655 0 -1 0
-0.00615687 -0.1341 0.414035 0 -0.0214997 -0.999769
-0.138594 0.213687 0.782926 -0.000161958 0.00104572 0.999999
-0.0465307 -0.24314 0.394124 0.000137353 -0.997118 0.0758672
0.165731 0.20603 0.646979 0.149075 0.987133 -0.0578415
-0.176879 0.208559 0.72842 -0.151867 0.987241 -0.0478757
-0.0631904 -0.0495263 0.430802 0.000141012 0.0216239 0.999766
0.0507208 0.223378 0.732701 0.0718921 0.996112 -0.050914
0.181459 -0.195354 0.432342 1 0 0
0.0074879 0.223111 0.707488 0 0.998587 -0.0531323
0.0484823 0.0966945 0.410324 6.50211e-05 0.0141475 -0.9999
-0.161798 0.0616763 0.4294 -5.67906e-06 -0.00166553 0.999999
-0.177793 0.189341 0.732864 0.137336 -0.989242 0.0503824
0.167401 -0.0514099 0.412174 1.54455e-05 -0.0230322 -0.999735
0.0264758 0.206203 0.778588 0 -0.998527 0.0542666
-0.181459 -0.193853 0.417191 -1 0 0
0.0366144 0.187211 0.425109 0.0379183 0.862894 -0.503961
-0.0827866 0.202486 0.766886 0.0655958 -0.996449 0.0527851
0.167018 0.187912 0.678122 -0.135854 -0.989175 0.0554662
0.178774 -0.244584 0.0344966 0 -1 0
0.0780016 -0.110478 0.413534 0.000164934 -0.0214997 -0.999769
0.134395 -0.244605 0.344688 0 -0.999916 0.0129304
0.0952574 -0.158482 0.414529 0.00047784 -0.0188146 -0.999823
-0.0916537 -0.201933 0.414993 -0.000543225 -0.00276649 -0.999996
-0.181749 -0.244436 0.0553678 -1 0 0
-0.1687 -0.244584 0.125338 0 -1 0
0.177741 0.0340864 0.410577 -0.000171509 -0.0139033 -0.999903
-0.0561089 -0.218648 0.411999 -0.00451384 0.689611 -0.724166
0.0200631 0.224008 0.724642 0 0.998696 -0.0510461
-0.0591175 0.198183 0.458625 -0.0532344 0.969053 -0.241045
-0.181459 0.119835 0.414545 -1 0 0
-0.181459 0.188703 0.650095 -1 0 0
-0.0275243 0.224581 0.735852 0 0.998696 -0.0510461
-0.202621 0.196701 0.164021 -0.764791 -0.630271 -0.133618
-0.00633746 0.20936 0.508698 0 0.988081 -0.153934
0.169136 -0.244584 0.169652 0 -1 0
0.0681257 -0.0362307 0.411835 0.000173217 -0.0217929 -0.999763
0.0736511 0.0764635 0.410285 -1.77648e-07 0.00119369 -0.999999
-0.153098 -0.227553 0.29113 1 0 0
0.0599078 -0.105941 0.432084 -0.000289859 0.0232127 0.99973
0.052838 -0.244555 0.348509 0 -0.999916 0.0129304
-0.0571194 0.203455 0.753288 0.0655958 -0.996449 0.0527851
0.0310462 -0.0456642 0.412035 0 -0.0218999 -0.99976
-0.122315 0.0899294 0.410301 -4.06857e-06 0.00119321 -0.999999
-0.154762 -0.0689925 0.431235 -4.84641e-05 0.021709 0.999764
0.101517 0.0640252 0.410308 -2.45998e-05 -0.00754047 -0.999972
-0.167248 0.212033 0.769868 -0.152889 0.987161 -0.0462318
0.0411124 0.202156 0.470745 0.0591948 0.968727 -0.240964
-0.200326 0.146322 0.388521 -0.764791 -0.630271 -0.133618
0.00560954 -0.00018996 0.429877 0 0.0138881 0.999904
-0.165222 -0.199744 0.43396 7.73203e-06 0.0130506 0.999915
0.173949 0.165359 0.461716 -0.105394 -0.969424 0.221606
-0.00612131 0.211445 0.525241 0 0.993759 -0.111551
-0.0644691 0.0359349 0.429473 -2.16554e-06 0.00731039 0.999973
-0.00614705 0.222275 0.691779 0 0.998587 -0.0531323
-0.175702 0.0775635 0.41029 -0.000179379 0.00166368 -0.999999
-0.185453 0.229713 0.0248049 0.935794 -0.344895 -0.0730576
0.0289852 0.222037 0.687299 0 0.998587 -0.0531323
0.076711 -0.234509 0.428582 -0.000636079 -0.728286 0.685273
-0.0843682 -0.157363 0.433251 0.000375769 0.0220558 0.999757
-0.0358014 0.221336 0.67479 0 0.998391 -0.0566982
0.0925547 0.217123 0.671082 0.0704155 0.995989 -0.0552086
-0.0565245 -0.143501 0.432935 0.000325719 0.0219192 0.99976
0.0741692 0.0979325 0.429745 -0.000123228 -0.0145866 0.999894
0.0593118 -0.206728 0.414994 0.000431528 -0.00276649 -0.999996
0.146083 0.211652 0.69639 0.150142 0.987436 -0.0492742
0.0375922 0.0250334 0.429553 -0.000110309 0.00731039 0.999973
-0.0316642 0.184988 0.501258 0 -0.981955 0.189113
0.181179 -0.22774 0.322612 1 0 0
-0.186686 0.190752 0.192778 0.939688 -0.334575 -0.0710412
0.0149564 -0.172917 0.43352 0 0.0187054 0.999825
-0.0506896 -0.00887649 0.411268 -0.000333654 -0.0180381 -0.999837
0.0753208 0.106517 0.410465 6.50211e-05 0.0141475 -0.9999
0.107363 -0.145708 0.433002 -0.000321218 0.0220558 0.999757
0.156264 -0.224998 0.373807 -0.000440757 0.999848 0.0174055
-0.0894614 0.175046 0.469591 0.049004 -0.954281 0.294866
-0.0231289 0.153673 0.433483 0 -0.275521 0.961295
-0.181459 -0.00178507 0.421352 -1 0 0
-0.0804467 0.196175 0.65401 0.0634794 -0.995768 0.0664555
0.159866 -0.244584 0.312441 0 -1 0
0.03338 0.214539 0.558637 0 0.996819 -0.0796929
0.163189 0.190398 0.713915 -0.137174 -0.989155 0.0524944
0.152528 -0.228277 0.198555 -1 0 0
-0.0447609 0.212062 0.536122 -0.0723505 0.991772 -0.10561
0.167064 -0.225479 0.146634 0 1 0
-0.170757 -0.225479 0.289568 0 1 0
0.195965 0.233455 0.0554214 0.492664 0.851477 0.179638
-0.166898 0.189586 0.708806 0.135878 -0.989352 0.0521496
0.109013 -0.244112 0.373227 0 -0.999604 0.0281375
0.0593913 -0.136729 0.432789 -0.000321218 0.0220558 0.999757
-0.138797 0.212277 0.686653 -0.150104 0.987325 -0.0515566
-0.121731 -0.234544 0.428571 -0.000204591 -0.728286 0.685273
-0.0941547 0.129564 0.410987 -0.000879256 0.0348031 -0.999394
-0.173908 -0.244584 0.188933 0 -1 0
0.151088 0.212345 0.72513 0.15115 0.987351 -0.047881
0.150983 -0.142695 0.432932 8.3347e-05 0.0220138 0.999758
-0.0878382 0.198529 0.467168 -0.0595424 0.974334 -0.217088
-0.127672 0.192256 0.660813 0.134419 -0.98935 0.0558394
-0.0247503 0.201935 0.702116 0 -0.998322 0.0579039
-0.174119 -0.138147 0.414146 5.62038e-05 -0.0220908 -0.999756
0.0388901 -0.166545 0.414637 0.00063856 -0.0135028 -0.999909
0.0354539 -0.203276 0.433988 0 0.0136809 0.999906
-0.126011 0.197545 0.480033 -0.126274 0.976134 -0.176686
0.163772 0.20354 0.599903 0.151322 0.98652 -0.0622869
-0.00536322 0.172478 0.414151 0 0.277998 -0.960582
0.153129 -0.244584 0.235366 0 -1 0
-0.107975 0.176196 0.478118 0.0500397 -0.974697 0.217859
0.199338 0.197885 0.214718 0.501753 0.846347 0.178717
0.181459 0.201637 0.702196 1 0 0
0.154198 0.175976 0.418694 0.0568439 0.737959 -0.672447
0.0802887 0.0491832 0.42938 -2.39312e-07 -0.00160789 0.999999
-0.0739967 0.208467 0.782938 -6.94614e-05 0.00104576 0.999999
-0.0881611 -0.238309 0.343828 -3.51318e-06 0.00057694 -1
0.131918 0.0379842 0.429463 -6.53217e-05 0.00759602 0.999971
-0.152399 -0.244417 0.359338 0 -0.999899 0.0142004
-0.088633 -0.243382 0.390673 0.000151278 -0.998505 0.0546693
-0.188181 0.18882 0.254123 0.498666 0.848073 0.179177
0.1531 0.194008 0.756204 -0.138768 -0.988957 0.0520402
-0.181459 0.184561 0.538056 -1 0 0
0.0918433 0.219004 0.705116 0.0710144 0.996118 -0.0520158
-0.145445 0.191527 0.689753 0.135824 -0.988954 0.0593507
-0.0834125 -0.222802 0.404291 -0.00559173 0.982965 -0.183707
0.0989718 -0.203379 0.415002 0.000431528 -0.00276649 -0.999996
0.108757 -0.00957091 0.430037 -0.000296115 0.0184996 0.999829
0.152528 -0.227396 0.25177 -1 0 0
-0.0297199 0.0781453 0.429458 0 -0.0143084 0.999898
0.000303607 0.217388 0.782932 0 0.00102331 0.999999
-0.185933 0.168954 0.305388 0.939688 -0.334575 -0.0710412
0.153186 0.179766 0.538389 -0.135435 -0.986021 0.097058
0.0146524 0.15351 0.412115 0 0.0648211 -0.997897
-0.164931 0.196766 0.516422 -0.149478 0.983206 -0.104698
0.156294 -0.108678 0.413496 -1.93589e-05 -0.0228095 -0.99974
-0.0159148 -0.0528158 0.430869 0 0.0216239 0.999766
0.151568 -0.18528 0.414916 2.33774e-05 -0.0130511 -0.999915
-0.0769187 0.0470582 0.429392 -2.16554e-06 0.00731039 0.999973
0.164906 0.212341 0.769085 0.151879 0.987317 -0.0462391
0.0378125 -0.0972023 0.413226 5.72856e-05 -0.0231212 -0.999733
-0.132689 -0.155183 0.414471 9.57731e-05 -0.0188067 -0.999823
0.181459 0.172352 0.489832 1 0 0
-0.167733 -0.225479 0.0911492 0 1 0
0.0583917 -0.0812398 0.431512 -0.000294297 0.0230976 0.999733
0.0886864 0.200199 0.731437 -0.0654306 -0.996383 0.0542105
0.0258914 0.166714 0.442116 0 -0.85985 0.510547
-0.0897719 0.210275 0.554047 -0.0723612 0.99417 -0.0799332
0.102489 -0.0609068 0.431059 -0.000133684 0.0218866 0.99976
0.199262 0.199416 0.138143 0.490998 -0.852162 -0.180944
-0.020776 -0.0600751 0.412366 0 -0.0231626 -0.999732
-0.0855572 0.213965 0.607218 -0.0702962 0.995955 -0.0559592
-0.0982775 0.0168743 0.410824 4.72518e-05 -0.0144838 -0.999895
-0.168768 -0.225479 0.252258 0 1 0
0.0320028 -0.205928 0.41498 0 -0.00310173 -0.999995
0.129327 0.112989 0.41058 0.0010518 0.0141475 -0.999899
0.00480752 -0.198299 0.43392 0 0.0136809 0.999906
0.104786 0.0964458 0.410324 6.50211e-05 0.0141475 -0.9999
0.153001 0.188532 0.656033 -0.134236 -0.989101 0.0604925
-0.0689401 0.217573 0.649303 -0.070423 0.995809 -0.0583499
0.0595918 0.142052 0.431997 -0.00321667 -0.124437 0.992222
-0.0416603 0.103625 0.410419 -6.14916e-05 0.0138229 -0.999904
-0.148763 0.0214776 0.410751 0.000168755 -0.0144838 -0.999895
0.131062 -0.13535 0.432772 8.3347e-05 0.0220138 0.999758
0.179986 0.186812 0.690266 -0.135853 -0.989166 0.0556288
-0.172359 -0.224947 0.371259 0.000454648 0.999848 0.0174055
0.132081 0.101017 0.429844 -0.00111113 -0.0340717 0.999419
-0.191995 0.204306 0.191149 0.479937 0.858422 0.181031
0.0737062 0.194497 0.621669 -0.0625902 -0.995953 0.0644968
0.0870587 -0.244401 0.360506 0 -0.999806 0.0197222
0.181459 0.170341 0.435926 1 0 0
0.194501 0.140878 0.404912 -0.173383 -0.963333 -0.204765
-0.053703 0.0939831 0.410305 -5.30805e-06 0.00119321 -0.999999
0.101989 -0.225208 0.360777 0.00577389 0.999678 -0.0247144
-0.11376 0.0631502 0.429402 1.24534e-05 -0.00161504 0.999999
0.0060508 -0.0439349 0.430677 0 0.0216239 0.999766
0.187395 0.149625 0.378966 -0.766245 -0.628563 -0.133329
0.0745725 0.214311 0.598944 0.0712859 0.995885 -0.0559552
-0.0338335 0.22593 0.762578 0 0.998762 -0.0497341
0.187713 0.204566 0.178352 -0.767056 0.627762 0.132439
0.160659 -0.243415 0.390072 0 -0.99858 0.053282
0.0310619 0.0753078 0.429422 0 -0.00160789 0.999999
0.108342 0.0395536 0.42945 1.1305e-06 0.00759602 0.999971
0.181459 0.199379 0.670276 1 0 0
0.168587 -0.241694 0.408662 0.000150286 -0.990471 0.137724
0.0810779 -0.0311581 0.411726 0.000173217 -0.0217929 -0.999763
0.000747561 0.191575 0.549649 0 -0.994005 0.109335
0.195821 0.157433 0.32623 0.500544 -0.846797 -0.179974
0.0371629 0.0276784 0.410667 -4.62718e-05 -0.0141835 -0.999899
-0.0747855 0.192754 0.595949 0.0628881 -0.995742 0.0674
0.166873 -0.244121 0.372893 0 -0.999604 0.0281375
-0.157551 -0.225479 0.240495 0 1 0
0.112942 0.196011 0.690109 -0.135853 -0.989166 0.0556288
0.11652 -0.118852 0.432397 7.96098e-05 0.0232127 0.999731
0.0550349 0.217465 0.630806 0.0704016 0.995792 -0.0586734
-0.104669 0.105087 0.410446 -0.000174248 0.0141475 -0.9999
-0.0658734 -0.224902 0.364412 -0.00579317 0.999411 -0.0338321
-0.0847814 -0.0303645 0.411709 -0.000216668 -0.021793 -0.999763
-0.0522896 0.207175 0.501523 -0.065773 0.985942 -0.1536
0.160218 -0.225479 0.317965 0 1 0
-0.15455 0.120621 0.430628 0.00334987 -0.0718953 0.997407
-0.069712 -0.234784 0.428293 0.000634795 -0.726137 0.68755
-0.125239 -0.244305 0.365332 0 -0.999806 0.0197222
0.112709 0.207747 0.782936 0.000147973 0.00104573 0.999999
-0.13739 -0.0765757 0.431412 -4.07728e-05 0.0233289 0.999728
-0.116169 -0.0556908 0.412273 -0.000133128 -0.0230241 -0.999735
-0.0490856 0.225649 0.782922 -7.41756e-05 0.00102331 0.999999
0.0327542 0.17372 0.456874 0 -0.925518 0.378703
-0.139245 -0.244131 0.372519 0 -0.999604 0.0281375
0.0355502 -0.242387 0.402731 0 -0.994812 0.10173
-0.0340677 0.171239 0.413992 0 0.126489 -0.991968
0.081858 0.198253 0.6892 -0.0640847 -0.996152 0.0597827
0.152528 -0.230195 0.166305 -1 0 0
0.181459 0.19044 0.617624 1 0 0
0.055209 0.180852 0.485701 -0.0545965 -0.974464 0.217807
-0.102055 -0.203295 0.434005 0.000207984 0.0130801 0.999914
-0.11662 0.204172 0.517001 -0.149478 0.983206 -0.104698
0.169272 0.00467027 0.411017 1.87742e-05 -0.0191386 -0.999817
0.0900883 -0.179712 0.433665 -0.000331572 0.0187054 0.999825
0.145474 0.13089 0.411128 0.00224782 0.0347848 -0.999392
-0.103333 0.183209 0.515295 0.0595295 -0.988935 0.135885
-0.0230097 -0.203307 0.433989 0 0.0136809 0.999906
-0.000381492 -0.224649 0.374984 0 0.99978 0.0209879
0.143007 0.214155 0.736795 0.151855 0.987163 -0.0494947
-0.159751 -0.232649 0.430434 -0.000202637 -0.639692 0.768631
-0.0103282 0.174541 0.459122 0 -0.955429 0.295221
0.0176269 -0.0313074 0.41172 0 -0.0218999 -0.99976
-0.0754313 0.0772381 0.410285 0 0.001179 -0.999999
0.0367392 0.0518679 0.429384 -2.39312e-07 -0.00160789 0.999999
0.15243 0.171172 0.477027 -0.105508 -0.970472 0.216915
0.122855 0.182925 0.529641 -0.132734 -0.985547 0.105259
-0.138405 -0.00904638 0.411283 -1.29021e-05 -0.0187899 -0.999823
0.139594 -0.193 0.433872 -1.74413e-05 0.0130506 0.999915
-0.0418394 -0.0486604 0.43078 0.000141012 0.0216239 0.999766
0.0158666 0.179998 0.478088 0 -0.971432 0.237317
-0.181459 0.0258267 0.414062 -1 0 0
0.0117991 -0.244488 0.353812 0.000151489 -0.999899 0.0142004
0.172514 -0.244584 0.251877 0 -1 0
-0.200342 0.163996 0.305311 -0.74869 -0.648429 -0.13785
0.0793071 0.217547 0.661843 0.0704155 0.995989 -0.0552086
-0.0962584 -0.083125 0.431563 0.000285377 0.0233289 0.999728
-0.189491 0.160465 0.391978 0.498666 0.848073 0.179177
0.13537 0.195937 0.74534 -0.138782 -0.989059 0.0500229
-0.155053 0.0383636 0.410515 -6.59428e-05 -0.0138982 -0.999903
-0.0376054 0.112247 0.43017 0.000564463 -0.0330951 0.999452
0.157225 -0.231002 0.343824 0 0 1
0.129964 -0.225273 0.359277 -0.000592375 0.999694 -0.0247148
-0.153098 -0.227784 0.262734 1 0 0
-0.11443 0.117983 0.430407 0.0018191 -0.0340544 0.999418
0.0230976 0.0206024 0.429588 0 0.0138881 0.999904
-0.16698 -0.10905 0.413504 1.7439e-05 -0.0231792 -0.999731
-0.123159 0.213663 0.668385 -0.149082 0.987309 -0.0547275
-0.106074 0.211981 0.597673 -0.0702962 0.995955 -0.0559592
0.0596156 0.198511 0.669917 -0.0634914 -0.996103 0.0612109
0.0625984 0.0494265 0.410419 -2.45998e-05 -0.00754047 -0.999972
-0.0956227 -0.110893 0.432209 0.000283115 0.0232127 0.99973
-0.124097 0.203114 0.782939 -0.000155571 0.00109824 0.999999
0.0798476 0.216436 0.643102 0.0704016 0.995792 -0.0586734
0.14499 -0.146696 0.414311 -7.03532e-05 -0.0188146 -0.999823
-0.120312 0.194531 0.460957 -0.112692 0.969841 -0.216121
0.181179 -0.236349 0.337025 1 0 0
-0.0671029 -0.244511 0.352732 0 -0.999899 0.0142004
0.159147 0.199142 0.532497 0.153628 0.982574 -0.10463
-0.181459 0.178239 0.495624 -1 0 0
0.0344711 -0.224916 0.35724 0 0.99969 -0.0249162
-0.107237 -6.55963e-05 0.429895 0.000358303 0.0146186 0.999893
0.028587 0.211945 0.529699 0 0.993759 -0.111551
-0.00823351 0.187883 0.519146 0 -0.989427 0.145029
0.0136861 0.0414632 0.41048 0 -0.00760652 -0.999971
0.00907818 0.154122 0.433612 0 -0.275521 0.961295
0.0510048 -0.224673 0.378757 0.00533327 0.999559 -0.0291999
0.0723489 0.133566 0.43129 -0.00181825 -0.067912 0.99769
0.0742581 0.191253 0.574175 -0.0633886 -0.994488 0.0835208
0.105989 0.167605 0.449167 -0.0434137 -0.934446 0.35345
0.0203857 0.19849 0.646537 0 -0.997781 0.0665898
-0.181459 0.191952 0.550949 -1 0 0
-0.0641033 -0.242314 0.403528 0.000287754 -0.994812 0.10173
-0.0549738 0.223725 0.745393 -0.0719062 0.996159 -0.0499677
-0.153098 -0.228149 0.214258 1 0 0
-0.186177 0.238131 0.00352834 0.936431 0.343275 0.0725258
-0.142443 -0.240903 0.343826 0 0.00057694 -1
0.055953 0.195481 0.619588 -0.0628941 -0.995984 0.0637137
-0.197158 0.224737 0.0934289 -0.166439 0.964806 0.203587
0.186665 0.22094 0.0950989 -0.752805 0.643998 0.136204
-0.187179 0.222344 0.0374604 0.939688 -0.334575 -0.0710412
-0.15125 0.181534 0.55398 0.135594 -0.987179 0.0842113
-0.074517 -0.197526 0.433924 0.000207984 0.0130801 0.999914
-0.0582165 0.185043 0.508875 0.0595295 -0.988935 0.135885
-0.153146 0.205103 0.599599 -0.151362 0.986922 -0.0554516
-0.16833 -0.244602 0.345072 0 -0.999933 0.011614
-0.157717 0.0333906 0.429498 6.6228e-05 0.00770142 0.99997
0.201838 0.193868 0.176059 0.939463 -0.335178 -0.0711699
0.169497 0.0839701 0.429561 -0.000688877 -0.0162669 0.999867
-0.0214881 -0.243252 0.392631 0 -0.997118 0.0758672
-0.161689 -0.224845 0.382213 0.000439252 0.996585 -0.0825716
0.144332 -0.243511 0.388279 0 -0.99858 0.053282
0.0283375 0.138582 0.411256 0 0.0332937 -0.999446
-0.0132558 -0.00320165 0.411161 0 -0.0180381 -0.999837
0.118373 -0.00243088 0.411157 -0.000130183 -0.0187899 -0.999823
0.178075 -0.225479 0.254929 0 1 0
-0.0555696 0.219181 0.660842 -0.0704303 0.995912 -0.0565574
-0.00915241 -0.168332 0.414659 0 -0.0135028 -0.999909
0.00521797 0.221848 0.683812 0 0.998391 -0.0566982
0.138558 -0.238512 0.423106 0 -0.860334 0.509731
-0.18141 -0.225479 0.133412 0 1 0
0.181459 0.181675 0.531209 1 0 0
-0.171129 -0.225479 0.0593249 0 1 0
-0.04466 0.141754 0.431917 0.00399373 -0.124436 0.99222
0.16429 -0.244584 0.186821 0 -1 0
-0.12533 0.0349243 0.410561 -6.59428e-05 -0.0138982 -0.999903
0.0305446 -0.00549283 0.411202 0 -0.0180381 -0.999837
-0.0323671 0.191023 0.432912 0 0.926167 -0.377114
-0.070884 0.220155 0.698285 -0.071031 0.996065 -0.0529981
-0.1415 0.0637368 0.429403 1.24534e-05 -0.00161504 0.999999
0.0956633 0.192946 0.619015 -0.0625902 -0.995953 0.0644968
0.0165436 -0.197224 0.414953 0 -0.00310173 -0.999995
-0.0369396 0.201196 0.690093 0.0641081 -0.996369 0.0560338
-0.103208 0.167236 0.413781 -0.00480676 0.131114 -0.991356
-0.15114 -0.00570286 0.41122 0.000130082 -0.0191387 -0.999817
0.0244563 -0.182023 0.433691 0 0.0187054 0.999825
-0.160343 0.20534 0.621024 -0.148576 0.986936 -0.0623132
0.170565 -0.187216 0.433797 -1.74413e-05 0.0130506 0.999915
0.120645 -0.144613 0.432977 9.96277e-05 0.0220558 0.999757
0.185097 0.205711 0.13714 -1 0 0
-0.18017 0.201705 0.610724 -0.148576 0.986936 -0.0623132
0.0534411 0.204742 0.48757 0.0651142 0.978231 -0.19704
-0.0174152 -0.107169 0.432105 0 0.023229 0.99973
-0.0207132 0.219651 0.782929 0 0.00102331 0.999999
0.0728759 0.205923 0.503305 0.0699702 0.985659 -0.153556
0.165457 -0.201554 0.433984 -1.74413e-05 0.0130506 0.999915
-0.0895597 0.221416 0.749145 -0.0719062 0.996159 -0.0499677
-0.115156 0.00141674 0.411086 -1.29021e-05 -0.0187899 -0.999823
-0.0151799 0.19846 0.646077 0 -0.997781 0.0665898
0.0629748 0.220222 0.689027 0.0710144 0.996118 -0.0520158
-0.186507 0.188895 0.240834 0.936431 0.343275 0.0725258
0.181459 0.19887 0.757299 1 0 0
-0.172865 -0.244376 0.361756 0 -0.999806 0.0197222
-0.176725 0.207784 0.712148 -0.151119 0.987287 -0.0492668
0.135665 0.181804 0.535294 -0.132734 -0.985547 0.105259
0.17649 0.189949 0.474997 0.127167 0.983088 -0.13178
-0.135294 0.200953 0.513449 -0.149416 0.982795 -0.108578
-0.16251 -0.0921581 0.431774 -6.57662e-05 0.02327 0.999729
0.0896759 -0.22492 0.377391 0.00535187 0.999552 -0.029429
-0.0798911 0.120893 0.410684 -0.000410062 0.0332937 -0.999445
0.187514 0.22724 0.0700026 -0.752805 0.643998 0.136204
-0.20362 0.192046 0.207438 -1 0 0
-0.190676 0.21468 0.0626861 0.485119 -0.855378 -0.181625
0.00428824 0.225888 0.761744 0 0.998762 -0.0497341
0.130153 -0.0429396 0.411989 5.82033e-06 -0.021708 -0.999764
-0.00584982 0.193879 0.439929 0 0.954751 -0.297406
-0.191266 0.209106 0.16645 0.479937 0.858422 0.181031
-0.0171412 -0.0288379 0.430375 0 0.0186677 0.999826
-0.0220845 0.0946877 0.410306 -1.7381e-07 0.001179 -0.999999
0.108123 0.216496 0.679625 0.0704155 0.995989 -0.0552086
0.120547 0.14162 0.411507 0.00404233 0.072511 -0.99736
