0.030129 -0.0298658 0.430394 0 0.0186677 0.999826
0.123075 0.216519 0.722784 0.15115 0.987351 -0.047881
0.193007 0.225549 0.0912163 -0.173523 0.963619 0.203295
-0.0653596 0.0980906 0.410344 -6.14916e-05 0.0138229 -0.999904
-0.0639069 0.203031 0.753703 0.0655958 -0.996449 0.0527851
0.0455814 0.17989 0.479597 -0.0497984 -0.970227 0.237022
0.15751 0.159115 0.413194 0.00917304 0.137863 -0.990409
0.109216 -0.222222 0.433774 3.21751e-06 -0.0212339 0.999775
-0.089099 0.213968 0.611707 -0.0702962 0.995955 -0.0559592
0.120147 0.0283488 0.410658 6.87216e-05 -0.0144838 -0.999895
0.127138 -0.166595 0.433432 -2.4545e-05 0.018366 0.999831
0.166614 -0.225479 0.0973357 0 1 0
-0.160129 -0.143822 0.432957 -9.97123e-05 0.0220138 0.999758
-0.121891 -0.00175894 0.429922 0.000125712 0.0146186 0.999893
-0.185441 0.168969 0.3209 0.939553 0.33498 0.0709091
-0.0850369 0.203833 0.494091 -0.065773 0.985942 -0.1536
-0.0219459 0.187914 0.519356 0 -0.989427 0.145029
-0.00468244 0.222646 0.698751 0 0.998587 -0.0531323
0.08368 0.20998 0.544816 0.0725039 0.99416 -0.0799323
0.144892 0.201689 0.535488 0.153628 0.982574 -0.10463
-0.149309 0.190811 0.68667 0.135824 -0.988954 0.0593507
0.0804948 0.218699 0.68386 0.0709968 0.995872 -0.0565551
-0.00747884 0.217134 0.600775 0 0.998563 -0.0536001
-0.0328037 0.111887 0.430157 0 -0.0330951 0.999452
-0.179313 -0.225479 0.00989094 0 1 0
0.060021 0.217611 0.639263 0.0704016 0.995792 -0.0586734
-0.0997292 -0.0940284 0.431818 0.000285377 0.0233289 0.999728
-0.148436 -0.241624 0.40915 -0.0001503 -0.990713 0.135972
0.062618 0.0950686 0.410307 5.4165e-06 0.00117854 -0.999999
0.059289 0.0345235 0.410569 -4.62718e-05 -0.0141835 -0.999899
0.0841591 0.0546427 0.41038 -2.45998e-05 -0.00754047 -0.999972
0.0448086 0.0665432 0.429407 -2.39312e-07 -0.00160789 0.999999
-0.158096 -0.0273796 0.41165 -3.85052e-05 -0.0217156 -0.999764
-0.186736 0.217705 0.107434 0.936431 0.343275 0.0725258
-0.0798033 0.194969 0.450758 -0.0528064 0.961085 -0.271159
0.0603414 -0.240959 0.413352 -0.000323413 -0.982943 0.183911
0.0676245 -0.113624 0.4136 0.000164934 -0.0214997 -0.999769
-0.182272 0.139813 0.421888 0 -0.208082 0.978111
0.17229 0.165825 0.462966 -0.105394 -0.969424 0.221606
0.164713 -0.0664617 0.431179 4.76279e-05 0.0218867 0.99976
-0.138569 -0.0773405 0.43143 -4.07728e-05 0.0233289 0.999728
-0.0440112 -0.00161855 0.411135 -0.000333654 -0.0180381 -0.999837
-0.166254 0.190771 0.729484 0.137336 -0.989242 0.0503824
-0.0324977 0.171435 0.45129 0 -0.925518 0.378703
-0.190023 0.236402 0.033726 0.479937 0.858422 0.181031
0.138044 0.175319 0.490416 -0.116776 -0.977926 0.173272
0.0600012 0.178905 0.416272 0.0105761 0.277983 -0.960528
-0.14719 0.174418 0.49231 0.117401 -0.983311 0.138985
-0.108779 -0.108168 0.413485 -5.06586e-05 -0.0231792 -0.999731
0.0408448 0.220784 0.670798 0.0709968 0.995872 -0.0565551
0.185097 0.22913 0.0429467 -1 0 0
-0.149907 -0.205554 0.415006 0.000149445 -0.00276649 -0.999996
0.167301 -0.11903 0.413726 -5.65781e-05 -0.0220061 -0.999758
-0.145146 0.196004 0.773901 0.140062 -0.988756 0.0523776
0.0462311 -0.242013 0.406229 -0.000286552 -0.99066 0.136353
-0.0195708 -0.242987 0.396115 0 -0.997118 0.0758672
0.0556054 0.0891824 0.4103 5.4165e-06 0.00117854 -0.999999
0.101938 -0.0548551 0.412252 6.221e-05 -0.0230322 -0.999735
-0.176134 -0.244376 0.361738 0 -0.999806 0.0197222
-0.0507532 0.190875 0.551737 0.0635365 -0.994512 0.0831247
0.0140914 -0.175846 0.433575 0 0.0187054 0.999825
0.162556 -0.244584 0.174266 0 -1 0
-0.158732 -0.225479 0.00256148 0 1 0
0.107289 0.0125025 0.410887 7.20972e-05 -0.0144838 -0.999895
0.0414831 0.114655 0.410572 0.000170323 0.0138288 -0.999904
0.0923274 -0.165891 0.414662 0.00063856 -0.0135028 -0.999909
0.150453 -0.186096 0.414927 2.33774e-05 -0.0130511 -0.999915
0.171491 -0.240841 0.41403 0 -0.983204 0.18251
-0.0851454 0.157418 0.435052 0.00974478 -0.275508 0.961249
-0.153098 -0.241725 0.220126 1 0 0
0.156654 0.204339 0.595249 0.151322 0.98652 -0.0622869
-0.0644594 -0.215109 0.414518 -0.00386076 0.46743 -0.884022
-0.085988 0.0977866 0.429746 0.000122987 -0.0143084 0.999898
-0.0763155 0.196735 0.658465 0.0634794 -0.995768 0.0664555
-0.153098 -0.229268 0.208762 1 0 0
0.181459 0.197176 0.648627 1 0 0
-0.0101936 0.181314 0.483472 0 -0.971432 0.237317
0.130841 0.215923 0.734729 0.151855 0.987163 -0.0494947
-0.06824 0.205856 0.499882 -0.065773 0.985942 -0.1536
-0.167253 0.190327 0.723484 0.137336 -0.989242 0.0503824
0.094775 0.191729 0.442483 0.0471971 0.961346 -0.271269
-0.137864 -0.156296 0.433234 -9.97123e-05 0.0220138 0.999758
-0.166259 0.179955 0.559634 0.135594 -0.987179 0.0842113
0.0735296 0.160411 0.412763 0.0039553 0.131124 -0.991358
-0.129809 0.157416 0.412694 -0.00874743 0.13111 -0.991329
-0.0659958 0.0604736 0.410335 0 -0.00754333 -0.999972
0.181459 -0.0675562 0.428555 1 0 0
-0.153098 -0.242847 0.238716 1 0 0
-0.0315915 0.187284 0.42521 0 0.863515 -0.504324
-0.0904744 0.191617 0.441209 -0.0468454 0.953703 -0.297079
-0.111837 0.183525 0.424378 -0.0727157 0.875323 -0.47804
-0.20362 0.22136 0.070742 -1 0 0
-0.175659 0.206119 0.676183 -0.150098 0.987282 -0.052386
-0.0766215 0.221951 0.741192 -0.0719062 0.996159 -0.0499677
0.181179 -0.243508 0.156213 1 0 0
0.116953 -0.0240084 0.430304 -1.96422e-06 0.0184996 0.999829
-0.181111 0.176079 0.539902 0.132845 -0.98637 0.0970923
-0.0881433 -0.0829883 0.4129 -5.06586e-05 -0.0231792 -0.999731
0.0639372 -0.114679 0.413622 0.000164934 -0.0214997 -0.999769
-0.00305447 -0.128049 0.43259 0 0.0219192 0.99976
0.00309119 0.194657 0.442426 0 0.954751 -0.297406
-0.107049 -0.18254 0.414881 -0.000662867 -0.0126361 -0.99992
0.151327 0.199204 0.520705 0.149683 0.984419 -0.092267
-0.172298 0.190129 0.733349 0.137336 -0.989242 0.0503824
-0.132215 -0.242492 0.401848 0 -0.994978 0.100097
0.0475203 -0.224115 0.387204 0.00535191 0.996377 -0.0848828
-0.150008 0.0139924 0.410859 0.000168755 -0.0144838 -0.999895
-0.116996 0.161084 0.413066 -0.00874743 0.13111 -0.991329
-0.0217068 -0.224996 0.351945 0 0.999892 -0.0146986
-0.13865 0.0884172 0.42963 0.000647024 -0.0145931 0.999893
-0.139729 0.187511 0.612 0.133614 -0.988837 0.0659486
0.0465886 0.202709 0.475213 0.0651142 0.978231 -0.19704
0.195504 0.207303 0.0915264 -0.174787 -0.963094 -0.204692
-0.0146365 -0.175219 0.414752 0 -0.0135028 -0.999909
0.162736 -0.225479 0.321457 0 1 0
0.0496441 0.215331 0.585792 0.071271 0.995676 -0.0595796
0.0617242 -0.0826128 0.431544 -0.000294297 0.0230976 0.999733
0.0406777 0.00828799 0.429761 -0.000370008 0.0138881 0.999903
0.123042 0.0720871 0.410281 5.92037e-06 0.00166368 -0.999999
-0.112359 -0.00122392 0.429913 0.000125712 0.0146186 0.999893
0.161835 -0.22493 0.37003 -0.000440757 0.999848 0.0174055
0.201686 0.210934 0.14333 0.934025 0.349501 0.0738017
-0.131178 0.0558438 0.429391 -5.67906e-06 -0.00166553 0.999999
0.0281145 0.204253 0.74293 0 -0.998447 0.0557052
-0.00284621 0.193384 0.570706 0 -0.996525 0.083293
-0.181459 0.180902 0.54938 -1 0 0
0.0529745 -0.235671 0.343829 3.43355e-06 0.000563865 -1
-0.112604 0.214477 0.654309 -0.149082 0.987309 -0.0547275
-0.181459 -0.0346637 0.427677 -1 0 0
0.0530268 -0.0816473 0.412867 5.72856e-05 -0.0231212 -0.999733
0.176243 0.194847 0.514639 0.149683 0.984419 -0.092267
0.0587326 0.0309328 0.41062 -4.62718e-05 -0.0141835 -0.999899
0.158857 -0.217447 0.433875 1.25582e-05 -0.0211934 0.999775
0.0467756 -0.038532 0.411881 0.000213339 -0.0218998 -0.99976
-0.00175758 0.0361031 0.410548 0 -0.0141835 -0.999899
-0.172649 -0.225479 0.051571 0 1 0
-0.181459 0.156221 0.429703 -1 0 0
0.096722 0.196788 0.680727 -0.0640847 -0.996152 0.0597827
-0.0161108 -0.0283751 0.411656 0 -0.0218999 -0.99976
0.0513691 -0.0583115 0.430992 -0.000251533 0.0216238 0.999766
0.100848 0.198836 0.721145 -0.064838 -0.996346 0.055588
0.0416775 0.187491 0.518677 -0.0592959 -0.987687 0.144774
0.181459 -0.161155 0.419555 1 0 0
-0.17305 0.206315 0.672388 -0.150098 0.987282 -0.052386
0.181179 -0.242867 0.22089 1 0 0
0.0167278 0.217748 0.612207 0 0.998563 -0.0536001
0.0332201 0.218516 0.782931 0 0.00102331 0.999999
0.0409934 -0.243238 0.392832 -0.000151068 -0.997118 0.0758672
-0.157073 -0.225479 0.260082 0 1 0
-0.0640502 -0.244514 0.352524 0 -0.999899 0.0142004
-0.181459 0.128276 0.414225 -1 0 0
0.136352 -0.207214 0.434058 -7.7507e-06 0.0130801 0.999914
-0.175019 0.0483251 0.410428 2.62664e-05 -0.0077033 -0.99997
0.157309 -0.225479 0.209735 0 1 0
-0.102579 -0.202324 0.415 -0.000543225 -0.00276649 -0.999996
0.155979 0.1856 0.616549 -0.132891 -0.988934 0.0659551
0.0232281 0.216658 0.592 0 0.998215 -0.0597315
0.0926729 -0.122524 0.413799 0.000369525 -0.0220908 -0.999756
-0.100925 0.184403 0.522927 0.0595295 -0.988935 0.135885
0.108296 0.198513 0.724122 -0.0654306 -0.996383 0.0542105
0.180758 -0.154218 0.414449 -9.88335e-05 -0.018737 -0.999824
0.119551 -0.0829151 0.431561 6.55579e-05 0.0233289 0.999728
-0.0769098 -0.156146 0.433221 0.000375769 0.0220558 0.999757
-0.151373 -0.213111 0.414959 0.000265994 0.156397 -0.987694
-0.179427 -0.244584 0.100936 0 -1 0
-0.181749 -0.240918 0.0732913 -1 0 0
0.0596561 0.208752 0.516144 0.070414 0.99191 -0.105624
0.17155 -0.244584 0.0816858 0 -1 0
0.177142 -0.244584 0.0623595 0 -1 0
-0.131835 0.209016 0.611057 -0.151362 0.986922 -0.0554516
0.10808 0.200799 0.766356 -0.0661747 -0.99643 0.0524335
0.185451 0.199276 0.156069 -0.766245 -0.628563 -0.133329
-0.186678 0.149244 0.388361 0.939688 -0.334575 -0.0710412
0.0170571 0.210285 0.782939 0 0.00102331 0.999999
0.127706 0.00469784 0.429823 0.000164659 0.0146186 0.999893
0.0697036 0.201571 0.733831 -0.064838 -0.996346 0.055588
0.104198 -0.243165 0.393915 -0.000137351 -0.997107 0.0760071
0.0133058 -0.239915 0.343827 0 0.000563865 -1
-0.0784039 -0.0111079 0.411318 -0.000333654 -0.0180381 -0.999837
0.053079 0.216855 0.617641 0.0702858 0.996093 -0.0534675
-0.0648574 -0.0167731 0.430158 0.000293421 0.0186677 0.999826
-0.0563647 -0.12113 0.413764 -0.000395052 -0.0215078 -0.999769
-0.136775 -0.0113925 0.411327 -1.29021e-05 -0.0187899 -0.999823
-0.0286736 -0.224632 0.374192 0 0.99978 0.0209879
0.0611743 -0.0730539 0.412669 6.221e-05 -0.0230322 -0.999735
-0.200514 0.169027 0.349249 -0.765329 0.629768 0.132907
0.0842973 0.181146 0.495321 -0.0590114 -0.982947 0.174162
0.0148415 -0.239916 0.418352 0 -0.96265 0.270751
0.185097 0.170148 0.296718 -1 0 0
0.10126 0.136343 0.411233 0.000428429 0.0347849 -0.999395
0.094382 0.180868 0.419294 0.0258518 0.699852 -0.713819
-0.1595 0.206135 0.632339 -0.149064 0.987196 -0.0567834
0.12812 -0.24162 0.409224 0 -0.990713 0.135972
0.0730817 0.0383092 0.429459 1.1305e-06 0.00759602 0.999971
-0.181459 -0.236746 0.388419 -1 0 0
0.188875 0.191072 0.175489 -0.754404 -0.642066 -0.136477
0.0311243 0.21846 0.625194 0 0.998269 -0.0588194
-0.175729 -0.0775655 0.431433 -6.57662e-05 0.02327 0.999729
0.133398 0.216805 0.760898 0.151879 0.987317 -0.0462391
-0.11858 0.199956 0.488041 -0.126274 0.976134 -0.176686
-0.0576917 0.220368 0.684604 -0.0710225 0.995946 -0.0552062
0.0158287 0.20084 0.464268 0 0.970429 -0.241388
-0.12102 0.0541964 0.429388 1.24534e-05 -0.00161504 0.999999
0.0324641 -0.0590086 0.412342 0 -0.0231626 -0.999732
-0.181459 -0.0468301 0.413265 -1 0 0
-0.143331 0.19263 0.705116 0.137298 -0.988967 0.0556176
0.16592 0.186049 0.644089 -0.134236 -0.989101 0.0604925
-0.176076 0.119388 0.430611 0.00334987 -0.0718953 0.997407
-0.0559883 -0.241074 0.412727 0.000323455 -0.98285 0.184409
-0.110244 0.187198 0.554396 0.135038 -0.987397 0.0825301
-0.0513055 0.114267 0.410567 -6.14916e-05 0.0138229 -0.999904
-0.135231 0.179192 0.514214 0.126697 -0.985277 0.114792
-0.181459 0.172872 0.501156 -1 0 0
0.0121363 0.223283 0.710724 0 0.998587 -0.0531323
0.181459 0.188632 0.545985 1 0 0
0.16428 0.18877 0.686703 -0.135854 -0.989175 0.0554662
-0.20362 0.203763 0.136687 -1 0 0
-0.181459 0.185219 0.558316 -1 0 0
0.0996108 0.217417 0.685329 0.0710144 0.996118 -0.0520158
0.163587 0.166141 0.460467 -0.0942665 -0.957881 0.271253
0.163189 -0.244584 0.265473 0 -1 0
0.129062 0.182862 0.426108 0.0805741 0.875345 -0.476738
-0.14462 -0.225442 0.349833 0.0004407 0.999871 -0.0160577
-0.181459 0.190466 0.538005 -1 0 0
0.189563 0.181998 0.294713 -0.173523 0.963619 0.203295
0.0907475 0.199337 0.718353 -0.0648364 -0.996322 0.0560312
-0.0913913 0.171191 0.414333 -0.00967193 0.277985 -0.960537
0.119049 0.209137 0.579837 0.151324 0.986534 -0.0620561
-0.142387 0.194669 0.740602 0.138611 -0.988903 0.053453
0.0113748 0.0138836 0.429681 0 0.0138881 0.999904
0.0856946 0.219495 0.706136 0.0710144 0.996118 -0.0520158
0.172495 0.0603024 0.429398 -1.28427e-05 -0.00166553 0.999999
0.185097 0.163245 0.350097 -1 0 0
0.16658 0.191915 0.752368 -0.138768 -0.988957 0.0520402
-0.187796 0.217362 0.117959 0.498666 0.848073 0.179177
-0.155352 -0.225479 0.0900382 0 1 0
-0.0299627 0.0479139 0.429386 0 0.00731039 0.999973
-0.170273 0.198852 0.548703 -0.153965 0.984868 -0.0795585
-0.155593 -0.161819 0.433339 -0.000108368 0.018366 0.999831
-0.00300131 0.183258 0.49227 0 -0.981955 0.189113
-0.120215 0.21969 0.777842 -0.152889 0.987161 -0.0462318
-0.0216801 0.0392557 0.429449 0 0.00731039 0.999973
0.0131935 0.15724 0.434506 0 -0.275521 0.961295
-0.0594287 0.223219 0.741723 -0.0719062 0.996159 -0.0499677
0.103168 -0.000884678 0.429907 -6.91164e-05 0.0146186 0.999893
-0.15429 0.21411 0.771382 -0.152889 0.987161 -0.0462318
0.158434 -0.225479 0.0310798 0 1 0
-0.0941831 0.205447 0.78294 -6.94614e-05 0.00104576 0.999999
0.151087 0.0665065 0.429408 -1.28427e-05 -0.00166553 0.999999
-0.0990222 -0.120258 0.432428 0.000283115 0.0232127 0.99973
0.171049 0.179181 0.558328 -0.135153 -0.987239 0.0842164
0.180763 0.195766 0.531769 0.149683 0.984419 -0.092267
0.166116 0.0747623 0.429422 -1.28427e-05 -0.00166553 0.999999
0.131023 0.0907553 0.429648 -0.000112476 -0.0145866 0.999894
-0.181749 -0.237605 0.333466 -1 0 0
0.185097 0.190771 0.228203 -1 0 0
-0.167394 0.0953562 0.42975 0.000647024 -0.0145931 0.999893
0.0386091 -0.122663 0.413789 0.000164934 -0.0214997 -0.999769
0.177543 0.179261 0.569686 -0.135153 -0.987239 0.0842164
-0.0467266 -0.205432 0.434021 0.000207984 0.0130801 0.999914
-0.157348 -0.225479 0.199006 0 1 0
-0.0568926 -0.0359195 0.411825 -0.00016825 -0.0218999 -0.99976
0.0242279 0.186844 0.512056 0 -0.989427 0.145029
0.169865 -0.123492 0.413824 -5.65781e-05 -0.0220061 -0.999758
0.157059 -0.0530186 0.412211 1.54455e-05 -0.0230322 -0.999735
0.19119 0.194734 0.154343 -0.173383 -0.963333 -0.204765
0.175387 0.0851929 0.429585 -0.000688877 -0.0162669 0.999867
-0.0953832 0.207472 0.527705 -0.0723505 0.991772 -0.10561
0.152019 0.182232 0.563558 -0.135153 -0.987239 0.0842164
0.173543 -0.192134 0.414975 -0.000149822 -0.00229102 -0.999997
-0.127837 -0.240634 0.415165 0 -0.98285 0.184409
-0.160415 -0.244584 0.127143 0 -1 0
0.1169 0.0727378 0.410282 0.000171504 0.00119369 -0.999999
-0.148145 0.194245 0.747702 0.138611 -0.988903 0.053453
0.109723 0.21211 0.605709 0.148656 0.987332 -0.0554746
0.0178855 0.049748 0.410417 0 -0.00760652 -0.999971
-0.0814476 0.187122 0.535174 0.0623905 -0.992408 0.105992
0.0435734 -0.0904358 0.43172 -0.000294297 0.0230976 0.999733
-0.0231192 0.145033 0.411564 0 0.0648211 -0.997897
-0.0246261 -0.00193408 0.429901 0 0.0138881 0.999904
0.122354 -0.242358 0.40318 0 -0.994978 0.100097
-0.0185896 0.0436399 0.410464 0 -0.00760652 -0.999971
-0.17853 -0.244584 0.335504 0 -1 0
-0.187104 0.19707 0.157485 0.939688 -0.334575 -0.0710412
0.0871617 0.186112 0.529058 -0.06236 -0.99207 0.109122
-0.150491 -0.138816 0.414162 5.62038e-05 -0.0220908 -0.999756
0.122348 0.105738 0.41047 0.0010518 0.0141475 -0.999899
-0.131926 -0.114423 0.413625 2.352e-05 -0.0220061 -0.999758
-0.119885 0.0196678 0.429608 0.000125712 0.0146186 0.999893
0.191668 0.151548 0.35711 -0.173383 -0.963333 -0.204765
-0.175086 0.192313 0.490734 -0.139761 0.981478 -0.131022
0.0716703 0.185197 0.424279 0.0347628 0.87767 -0.478004
-0.202416 0.170092 0.288364 -0.764791 -0.630271 -0.133618
0.20165 0.159166 0.337005 0.939463 -0.335178 -0.0711699
0.180199 -0.244584 0.155127 0 -1 0
-0.101185 -0.243893 0.379825 0 -0.999253 0.0386505
0.165093 0.142161 0.411727 0.00404233 0.072511 -0.99736
-0.013341 0.0576707 0.410357 0 -0.00760652 -0.999971
-0.113843 0.189115 0.584441 0.133587 -0.98864 0.0688919
-0.179413 0.165742 0.414421 -0.0241416 0.30575 -0.951806
0.181459 0.19923 0.660466 1 0 0
-0.0090265 -0.0507217 0.430824 0 0.0216239 0.999766
0.144896 -0.0755202 0.412732 0.000131332 -0.0233042 -0.999728
0.0406245 0.188633 0.52604 -0.0592959 -0.987687 0.144774
-0.11371 -0.14069 0.414201 7.06775e-05 -0.018737 -0.999824
0.0484818 -0.0567904 0.412292 0.000109609 -0.0231626 -0.999732
-0.0591403 -0.0320006 0.411739 -0.00016825 -0.0218999 -0.99976
0.0549687 0.203911 0.758989 -0.0654308 -0.996387 0.0541503
-0.0541306 0.214942 0.585006 -0.0724646 0.99559 -0.0595744
0.0880062 -0.243625 0.386088 -8.30508e-06 -0.998504 0.0546693
-0.0677218 0.215616 0.614195 -0.0702962 0.995955 -0.0559592
0.0200867 -0.0775314 0.431419 0 0.0230976 0.999733
0.123752 0.192112 0.452417 0.111168 0.95644 -0.269933
0.202501 0.197341 0.168345 0.935587 -0.34543 -0.0731733
-0.0552044 0.19396 0.595504 0.0628881 -0.995742 0.0674
0.181459 0.0675082 0.424074 1 0 0
0.177617 -0.000921331 0.429901 -0.000119552 0.0139022 0.999903
0.0870229 0.0850997 0.410295 -1.77648e-07 0.00119369 -0.999999
-0.126537 0.192725 0.666391 0.134419 -0.98935 0.0558394
-0.0161655 -0.106295 0.432085 0 0.023229 0.99973
0.0226572 -0.0977152 0.413237 3.50341e-06 -0.0231212 -0.999733
-0.178324 0.139789 0.414049 0 -0.978013 -0.208542
-0.181459 -0.210345 0.416772 -1 0 0
-0.0265611 0.205017 0.756754 0 -0.998527 0.0542666
0.160852 0.101629 0.429897 -0.00111113 -0.0340717 0.999419
-0.201254 0.218669 0.109961 -0.75105 0.645948 0.13666
-0.0858245 0.0273351 0.42954 0.000108683 0.00759889 0.999971
-0.0847283 0.0169603 0.429642 7.32348e-05 0.0138881 0.999904
0.131891 -0.158159 0.433275 0.000107518 0.018731 0.999825
0.104423 0.172389 0.462712 -0.0493306 -0.961003 0.272101
0.124014 0.188766 0.439984 0.100475 0.972213 -0.211441
0.0368833 -0.102638 0.413351 5.72856e-05 -0.0231212 -0.999733
0.12018 0.195128 0.464232 0.125278 0.968384 -0.215725
-0.0173055 0.205779 0.770775 0 -0.998527 0.0542666
-0.122748 0.18837 0.591022 0.133587 -0.98864 0.0688919
-0.134845 0.00625749 0.410993 0.000130082 -0.0191387 -0.999817
-0.00160085 0.20159 0.696162 0 -0.998322 0.0579039
-0.181459 0.195748 0.749895 -1 0 0
0.181179 -0.226253 0.276815 1 0 0
-0.113626 0.208299 0.555985 -0.154102 0.984877 -0.0791859
0.152194 0.213863 0.759824 0.151879 0.987317 -0.0462391
0.0489782 0.221777 0.699521 0.0714475 0.996036 -0.0529965
0.181179 -0.24263 0.101407 1 0 0
0.0601033 0.204311 0.772537 -0.0654308 -0.996387 0.0541503
6.2421e-05 -0.193288 0.433852 0 0.0136809 0.999906
0.0483422 0.190731 0.548906 -0.0633887 -0.992345 0.105985
0.181459 0.184316 0.648286 1 0 0
0.13071 0.0884125 0.410303 0.000171504 0.00119369 -0.999999
-0.187652 0.24059 0.00757825 0.479937 0.858422 0.181031
-0.0539057 0.192625 0.575088 0.0635365 -0.994512 0.0831247
-0.0418902 -0.244336 0.363805 0 -0.999806 0.0197222
0.145353 0.193698 0.47292 0.127167 0.983088 -0.13178
-0.0237396 0.0991715 0.429759 0 -0.0143084 0.999898
0.166633 0.151418 0.412402 0.00493824 0.0674159 -0.997713
0.144431 0.0819331 0.42952 -0.000112476 -0.0145866 0.999894
-0.0857346 -0.244499 0.353574 0 -0.999899 0.0142004
-0.112664 0.219641 0.753198 -0.151863 0.987211 -0.0485024
0.0782296 -0.0231382 0.430279 -0.000296115 0.0184996 0.999829
0.143453 0.210336 0.664102 0.14912 0.98743 -0.0523939
-0.123504 0.211417 0.629991 -0.148616 0.987202 -0.0578456
0.104378 0.165774 0.445204 -0.0365692 -0.872962 0.486415
-0.166262 -0.224737 0.38349 0.000604042 0.996406 -0.084703
0.0773539 0.205741 0.504172 0.0657651 0.988008 -0.139693
0.0775268 0.202408 0.758582 -0.0654308 -0.996387 0.0541503
-0.181749 -0.230853 0.0397562 -1 0 0
-0.171768 -0.244584 0.025557 0 -1 0
-0.022885 -0.237156 0.425327 0.00013011 -0.858786 0.512335
-0.0245357 -0.191869 0.414936 0 -0.00310173 -0.999995
-0.00664255 -0.00553065 0.411203 0 -0.0180381 -0.999837
0.0133959 -0.0542295 0.4309 0 0.0216239 0.999766
0.14976 0.205666 0.599528 0.151322 0.98652 -0.0622869
-0.0934311 -0.149265 0.414354 -0.000513313 -0.0188067 -0.999823
0.203207 0.153075 0.386245 0.939463 -0.335178 -0.0711699
-0.145002 -0.105701 0.43209 -6.59776e-05 0.0232127 0.999731
-0.0803844 0.219716 0.702873 -0.0714716 0.996086 -0.0520141
-0.165942 0.173506 0.501694 0.117401 -0.983311 0.138985
0.0756813 0.20192 0.480732 0.060005 0.982151 -0.178268
0.181179 -0.238904 0.178929 1 0 0
0.0900177 0.213744 0.608527 0.0712859 0.995885 -0.0559552
-0.0471612 0.177574 0.470744 0.049004 -0.954281 0.294866
0.143901 0.161801 0.443498 -0.0705121 -0.871372 0.485529
0.0691605 -0.173534 0.41475 0.00063856 -0.0135028 -0.999909
0.159507 -0.239691 0.419232 0 -0.962822 0.270135
0.0676741 0.198006 0.67006 -0.0634914 -0.996103 0.0612109
-0.15232 0.208495 0.654589 -0.149082 0.987309 -0.0547275
0.0320033 0.193977 0.578103 0 -0.997717 0.0675336
-0.0849836 -0.10675 0.43211 0.000289232 0.023229 0.99973
-0.0691672 0.184534 0.50997 0.0595295 -0.988935 0.135885
0.0738071 0.207655 0.515279 0.070414 0.99191 -0.105624
0.134862 0.110709 0.430178 -0.00111113 -0.0340717 0.999419
0.0481645 -0.23332 0.34383 3.43355e-06 0.000563865 -1
-0.0688848 -0.0409778 0.411937 -0.00016825 -0.0218999 -0.99976
0.156067 -0.243478 0.388897 0 -0.99858 0.053282
-0.187162 0.16886 0.289579 0.939688 -0.334575 -0.0710412
-0.165967 0.134985 0.431687 0.00407845 -0.0679127 0.997683
-0.0408891 -0.0198509 0.41147 -0.000216668 -0.021793 -0.999763
0.126898 -0.22499 0.378213 -0.000440633 0.999567 -0.0294294
0.0854096 0.133363 0.411122 0.000428429 0.0347849 -0.999395
-0.119463 -0.223754 0.399012 0.000454486 0.992246 -0.124292
-0.111317 0.186924 0.431446 -0.0858077 0.933498 -0.348165
0.111629 -0.174944 0.414786 -0.000116013 -0.0126303 -0.99992
-0.163648 -0.225479 0.144308 0 1 0
-0.0904041 -0.223211 0.402326 -0.00546941 0.982547 -0.185933
0.0361249 0.202409 0.470574 0 0.970429 -0.241388
0.153484 0.213411 0.754413 0.151879 0.987317 -0.0462391
0.156406 -0.148594 0.414346 -9.88335e-05 -0.018737 -0.999824
-0.188895 0.216002 0.127453 0.498666 0.848073 0.179177
0.109078 0.208269 0.546742 0.153991 0.984894 -0.0791873
-0.0637934 -0.0607034 0.431045 0.000241861 0.0218866 0.999761
0.0224268 -0.133078 0.4327 0 0.0219192 0.99976
0.18817 0.204522 0.116114 -0.754404 -0.642066 -0.136477
-0.186125 0.187199 0.243837 0.939553 0.33498 0.0709091
0.149391 0.211148 0.696372 0.150142 0.987436 -0.0492742
-0.126543 0.199152 0.490187 -0.139761 0.981478 -0.131022
-0.0188038 0.218528 0.626345 0 0.998269 -0.0588194
0.174147 -0.225479 0.00140807 0 1 0
0.116424 0.183526 0.527254 -0.132595 -0.984511 0.114702
0.0721023 -0.187879 0.414936 0.000367608 -0.0126303 -0.99992
-0.0230088 0.219673 0.782929 0 0.00102331 0.999999
0.0416786 -0.0106343 0.411295 1.88487e-05 -0.0180381 -0.999837
-0.199821 0.204164 0.186754 -0.765329 0.629768 0.132907
-0.0259428 0.0795735 0.429479 0 -0.0143084 0.999898
-0.181459 0.190445 0.756203 -1 0 0
-0.0372855 -0.0409976 0.411932 -0.00016825 -0.0218999 -0.99976
0.181459 0.184978 0.603957 1 0 0
0.181459 0.202665 0.695132 1 0 0
0.17584 0.0686828 0.429412 -1.28427e-05 -0.00166553 0.999999
0.181459 -0.216703 0.418903 1 0 0
-0.164026 -0.0841896 0.431588 -6.57662e-05 0.02327 0.999729
-0.017258 0.190046 0.535757 0 -0.994005 0.109335
-0.0711487 0.213901 0.587877 -0.071278 0.995489 -0.0626193
-0.044875 0.22544 0.765173 -0.0719075 0.996177 -0.0496054
0.152407 0.190835 0.463316 0.113854 0.97984 -0.164166
0.192646 0.148311 0.371513 -0.173383 -0.963333 -0.204765
0.0438719 0.219247 0.647646 0.0704016 0.995792 -0.0586734
-0.181749 -0.241514 0.101887 -1 0 0
0.00681917 0.0930886 0.429672 0 -0.0143084 0.999898
-0.176047 -0.244584 0.247673 0 -1 0
0.00420998 0.195142 0.595323 0 -0.997717 0.0675336
0.0254975 0.21383 0.549773 0 0.996819 -0.0796929
0.0472217 -0.14341 0.414221 0.000508878 -0.018908 -0.999821
0.0449947 0.146685 0.43253 -0.00321667 -0.124437 0.992222
0.167653 0.0446997 0.429412 -2.51248e-05 0.00770142 0.99997
0.0293103 0.207214 0.494921 0 0.988081 -0.153934
0.121896 0.196345 0.470693 0.125278 0.968384 -0.215725
0.17839 0.197209 0.54397 0.153991 0.984894 -0.0791873
-0.203585 0.15348 0.405275 -0.75105 0.645948 0.13666
-0.181459 -0.0805803 0.427903 -1 0 0
-0.178677 0.208317 0.729124 -0.151867 0.987241 -0.0478757
-0.140537 -0.219341 0.411655 0.000414285 0.699257 -0.71487
-0.177703 0.179225 0.569498 0.135594 -0.987179 0.0842113
-0.155279 -0.00937497 0.411289 -1.29021e-05 -0.0187899 -0.999823
-0.0191127 0.205351 0.762898 0 -0.998527 0.0542666
0.110763 0.217098 0.697358 0.151122 0.98717 -0.0515485
0.181459 0.207542 0.725209 1 0 0
0.17307 -0.104962 0.413411 -1.93589e-05 -0.0228095 -0.99974
0.152804 -0.225479 0.215802 0 1 0
-0.156076 -0.221365 0.433792 -3.21088e-06 -0.0211934 0.999775
0.0883612 0.0283863 0.410656 7.20972e-05 -0.0144838 -0.999895
-0.155535 -0.224963 0.369047 0.000440505 0.999427 -0.0338379
-0.178059 -0.171123 0.433512 2.5029e-05 0.018731 0.999825
-0.177579 -0.112082 0.432236 -7.97013e-05 0.0231795 0.999731
-0.135116 -0.0895019 0.431714 -6.57662e-05 0.02327 0.999729
0.152528 -0.233283 0.267809 -1 0 0
0.192134 0.218078 0.0437054 -0.174787 -0.963094 -0.204692
-0.0844961 0.124346 0.430701 0.00115831 -0.0679132 0.99769
-0.0456855 -0.0660372 0.412505 -5.15795e-05 -0.0231626 -0.999732
0.0728434 -0.241821 0.407681 -0.000286552 -0.99066 0.136353
0.0287768 0.2042 0.479207 0 0.980311 -0.197459
0.0887547 0.194966 0.643284 -0.0634793 -0.995914 0.064236
-0.181459 0.194916 0.616188 -1 0 0
-0.0567431 0.19458 0.606256 0.0629018 -0.995959 0.0641043
0.024494 0.22178 0.682609 0 0.998391 -0.0566982
0.108495 -0.243581 0.386963 -0.000151289 -0.998579 0.053282
0.0578772 -0.0946004 0.43182 -0.000294297 0.0230976 0.999733
-0.0694076 0.196524 0.648705 0.0634794 -0.995768 0.0664555
-0.0109767 0.200141 0.672239 0 -0.998117 0.0613346
0.151525 0.201842 0.549352 0.153991 0.984894 -0.0791873
0.141124 0.187624 0.616931 -0.13363 -0.98896 0.0640439
-0.0561863 -0.22521 0.345483 -0.00608859 0.999878 -0.0144095
0.0731686 -0.0396606 0.41191 0.000173217 -0.0217929 -0.999763
-0.0287993 0.115748 0.410586 0 0.0138229 -0.999904
-0.0693375 0.214754 0.782932 -7.41756e-05 0.00102331 0.999999
-0.0552897 0.0497774 0.42938 4.78432e-07 -0.00161504 0.999999
-0.176305 -0.244584 0.112393 0 -1 0
-0.0877351 -0.111411 0.432219 0.000283115 0.0232127 0.99973
-0.107886 0.184709 0.426015 -0.0385248 0.877015 -0.478916
-0.0386802 0.199153 0.658744 0.0634794 -0.995768 0.0664555
-0.0216842 -0.196262 0.433892 0 0.0136809 0.999906
-0.154028 -0.197859 0.414987 -4.1031e-06 -0.00229102 -0.999997
0.116181 -0.155564 0.41448 -7.03532e-05 -0.0188146 -0.999823
-0.181459 0.196313 0.630887 -1 0 0
-0.0848317 -0.206191 0.434039 0.000207984 0.0130801 0.999914
0.149806 -0.0412353 0.411952 5.82033e-06 -0.021708 -0.999764
-0.130144 0.059919 0.429397 1.24534e-05 -0.00161504 0.999999
-0.0337572 0.0886609 0.410299 -1.7381e-07 0.001179 -0.999999
-0.172991 -0.244584 0.343079 0 -1 0
-0.041162 -0.00394781 0.429929 7.32348e-05 0.0138881 0.999904
0.181459 0.181039 0.592411 1 0 0
0.152528 -0.227318 0.101617 -1 0 0
-0.181749 -0.226981 0.0593022 -1 0 0
-0.0544826 0.0977696 0.429741 0.000122987 -0.0143084 0.999898
-0.0302808 0.198118 0.453534 0 0.954751 -0.297406
-0.168781 -0.225479 0.288116 0 1 0
0.142493 0.19477 0.478159 0.127167 0.983088 -0.13178
-0.0519986 -0.148832 0.433051 0.000325719 0.0219192 0.99976
0.101073 -0.0726565 0.43132 -0.000188787 0.0233289 0.999728
0.181179 -0.236583 0.295479 1 0 0
0.202007 0.205532 0.164848 0.934025 0.349501 0.0738017
-0.129645 0.0727141 0.429418 1.24534e-05 -0.00161504 0.999999
-0.0676015 0.217673 0.649387 -0.070423 0.995809 -0.0583499
0.0541133 0.223925 0.748195 0.0718921 0.996112 -0.050914
-0.0668736 -0.2264 0.433352 0.000513944 -0.231627 0.972805
-0.181459 0.0457815 0.428684 -1 0 0
0.140671 0.166347 0.453717 -0.0934807 -0.949805 0.29855
0.0903891 0.189112 0.560926 -0.0633886 -0.994488 0.0835208
-0.0829766 0.141501 0.411405 -0.0015068 0.064821 -0.997896
0.00413243 0.160811 0.435634 0 -0.673865 0.738854
0.180872 0.207256 0.714304 0.150142 0.987436 -0.0492742
-0.172169 0.0300833 0.429525 6.6228e-05 0.00770142 0.99997
-0.124897 0.0241337 0.410716 0.000168755 -0.0144838 -0.999895
0.0884645 0.192551 0.444298 0.0471971 0.961346 -0.271269
-0.110277 0.213206 0.626541 -0.148616 0.987202 -0.0578456
0.181179 -0.243786 0.159654 1 0 0
-0.0948229 -0.0412553 0.430628 0.000141012 0.0216239 0.999766
-0.198665 0.160922 0.394626 -0.174155 0.963525 0.203197
-0.178623 0.177739 0.553565 0.135594 -0.987179 0.0842113
0.175238 0.187199 0.685532 -0.135854 -0.989175 0.0554662
0.0738615 0.201791 0.479408 0.060005 0.982151 -0.178268
0.00767949 0.158682 0.434919 0 -0.275521 0.961295
-0.139504 -0.0305115 0.411717 -3.85052e-05 -0.0217156 -0.999764
0.122694 -0.223449 0.401436 -0.000437406 0.992246 -0.124292
0.129837 -0.105269 0.413419 -1.93589e-05 -0.0228095 -0.99974
-0.181459 0.190006 0.726417 -1 0 0
-0.122241 0.209894 0.600498 -0.151362 0.986922 -0.0554516
0.0920018 0.169349 0.452058 -0.0434137 -0.934446 0.35345
-0.135143 0.14782 0.411973 -0.00378982 0.0674162 -0.997718
-0.0879388 0.188391 0.550697 0.0633765 -0.992007 0.109115
-0.117433 0.0579913 0.410354 -3.57909e-05 -0.00754333 -0.999972
-0.122174 -0.24183 0.407679 -0.0001503 -0.990713 0.135972
-0.110218 0.21413 0.642153 -0.148616 0.987202 -0.0578456
0.181459 0.175079 0.452952 1 0 0
-0.155326 0.193477 0.752159 0.138642 -0.98913 0.0489842
0.0390191 -0.233935 0.42916 -0.000430213 -0.726137 0.68755
-0.146785 -0.0361139 0.430527 4.31111e-06 0.0188099 0.999823
-0.151464 -0.0595288 0.412364 -1.74196e-05 -0.0233042 -0.999728
-0.154695 0.18674 0.631129 0.132792 -0.989318 0.0601311
-0.144944 0.196141 0.775954 0.140062 -0.988756 0.0523776
0.20198 0.166247 0.351104 0.939307 0.335631 0.0710975
-0.156859 -0.225479 0.120625 0 1 0
0.187901 0.17754 0.244539 -0.754404 -0.642066 -0.136477
0.202942 0.204023 0.14244 0.935587 -0.34543 -0.0731733
0.159206 0.184919 0.612849 -0.132891 -0.988934 0.0659551
0.149376 -0.225411 0.351498 -0.000440752 0.999838 -0.0180057
0.0455731 0.193807 0.441289 0.0471971 0.961346 -0.271269
0.148871 -0.0326034 0.430463 -1.96422e-06 0.0184996 0.999829
0.0181249 0.165194 0.413221 0 0.126489 -0.991968
-0.0979816 -0.0416719 0.430637 0.000141012 0.0216239 0.999766
-0.0796261 0.195628 0.644943 0.0627495 -0.995935 0.0646151
0.095423 0.198241 0.704274 -0.0648364 -0.996322 0.0560312
-0.00205493 0.04509 0.410453 0 -0.00760652 -0.999971
0.199036 0.199792 0.206533 0.501753 0.846347 0.178717
0.0365385 0.189648 0.532276 -0.06236 -0.99207 0.109122
-0.125046 0.1986 0.769166 0.140062 -0.988756 0.0523776
-0.193272 0.183022 0.205584 -0.173523 -0.963297 -0.204812
-0.188574 0.14567 0.393224 0.498665 -0.847843 -0.180265
-0.00353732 0.197457 0.631057 0 -0.997781 0.0665898
-0.131779 0.0375614 0.410524 -6.59428e-05 -0.0138982 -0.999903
0.103923 0.210963 0.578365 0.0724304 0.995406 -0.0626141
-0.133614 0.190864 0.651697 0.134352 -0.988855 0.0641557
0.16878 -0.244584 0.0177865 0 -1 0
0.00400898 0.0345112 0.41057 0 -0.0141835 -0.999899
0.0794465 0.0606476 0.429398 -3.11402e-06 -0.00161569 0.999999
-0.147218 -0.0204354 0.430233 -0.000127811 0.0184996 0.999829
0.144438 0.193453 0.722447 -0.137164 -0.989085 0.0538135
-0.0225681 0.221009 0.669035 0 0.998391 -0.0566982
0.0529849 -0.224834 0.364178 0.00579333 0.99935 -0.0355683
-0.134847 -0.116406 0.432339 -6.59776e-05 0.0232127 0.999731
-0.0431278 0.196012 0.447853 -0.0468454 0.953703 -0.297079
-0.0969939 -0.244189 0.370471 0 -0.999604 0.0281375
-0.186296 0.231393 0.00607805 0.935794 -0.344895 -0.0730576
0.18724 0.178117 0.245536 -0.766245 -0.628563 -0.133329
-0.124796 0.0810867 0.41029 -4.06857e-06 0.00119321 -0.999999
0.12955 -0.11761 0.413696 -2.30841e-05 -0.0220908 -0.999756
-0.193166 0.213657 0.0614102 -0.173523 -0.963297 -0.204812
0.0672612 0.170743 0.452767 -0.038721 -0.924824 0.378419
-0.0998777 -0.238536 0.343827 -3.51318e-06 0.00057694 -1
0.152528 -0.241963 0.23327 -1 0 0
0.147105 0.2045 0.575088 0.154102 0.985604 -0.0695494
-0.168896 0.0713558 0.410279 -4.06857e-06 0.00119321 -0.999999
0.157565 -0.244584 0.0107557 0 -1 0
0.105649 0.00834262 0.429772 -6.91164e-05 0.0146186 0.999893
-0.201911 0.225586 0.0241225 -0.74869 -0.648429 -0.13785
-0.123922 0.144005 0.432566 0.00910393 -0.128835 0.991624
0.185097 0.201359 0.174607 -1 0 0
0.0996409 0.197794 0.701211 -0.0648364 -0.996322 0.0560312
-0.0738977 -0.243196 0.393443 0.000151066 -0.997107 0.0760071
-0.0666015 -0.0340589 0.43048 0.00022815 0.0184996 0.999829
-0.0222437 -0.164443 0.433362 0 0.0187054 0.999825
-0.0355488 0.141703 0.41136 0 0.0332937 -0.999446
-0.189553 0.16011 0.39383 0.498666 0.848073 0.179177
0.185097 0.152908 0.40335 -1 0 0
-0.117046 0.0701876 0.410277 -4.06857e-06 0.00119321 -0.999999
0.00667087 -0.0372359 0.41185 0 -0.0218999 -0.99976
-0.153098 -0.227542 0.226559 1 0 0
-0.181459 0.19332 0.678406 -1 0 0
-0.0538681 -0.0333398 0.411768 -0.00016825 -0.0218999 -0.99976
-0.170739 -0.0209746 0.430242 4.31111e-06 0.0188099 0.999823
0.00450303 -0.0681298 0.412553 0 -0.0231626 -0.999732
0.20224 0.150148 0.387264 0.939463 -0.335178 -0.0711699
-0.166595 -0.168845 0.414704 0.000112835 -0.0130511 -0.999915
-0.0655086 -0.0990439 0.41327 -8.15675e-05 -0.0231127 -0.999733
0.0782755 0.222336 0.782924 7.57921e-05 0.00104576 0.999999
0.00813208 -0.0144904 0.430107 0 0.0186677 0.999826
-0.181459 0.0981245 0.421451 -1 0 0
-0.153098 -0.234071 0.207386 1 0 0
-0.0847648 -0.0502614 0.430821 0.000241861 0.0218866 0.999761
-0.0148747 0.221373 0.675435 0 0.998391 -0.0566982
-0.202747 0.227669 0.0188634 -0.74869 -0.648429 -0.13785
-0.0666788 0.217643 0.647754 -0.070423 0.995809 -0.0583499
-0.0762732 -0.244522 0.351889 0 -0.999933 0.011614
0.181288 -0.234244 0.428878 0.00020461 -0.726137 0.68755
-0.0562158 0.199197 0.677729 0.0640886 -0.996065 0.0612085
0.0114329 0.0611517 0.41033 0 -0.00760652 -0.999971
0.181459 0.0526571 0.410521 1 0 0
-0.02704 0.223179 0.708761 0 0.998587 -0.0531323
0.124614 -0.244188 0.370505 0 -0.999604 0.0281375
0.112231 -0.193073 0.433873 -7.7507e-06 0.0130801 0.999914
-0.159101 -0.244584 0.286051 0 -1 0
-0.093348 0.193595 0.626868 0.0627531 -0.995993 0.0637142
-0.14895 -0.139855 0.414182 7.06775e-05 -0.018737 -0.999824
-0.181459 -0.187584 0.429056 -1 0 0
-0.147659 -0.18095 0.433695 2.5029e-05 0.018731 0.999825
0.0580315 0.202188 0.73128 -0.064838 -0.996346 0.055588
0.136613 -0.0233963 0.430293 -1.96422e-06 0.0184996 0.999829
-0.0980395 -0.0107831 0.430056 0.000293421 0.0186677 0.999826
0.0447672 0.0887285 0.42961 -2.75777e-05 -0.0143084 0.999898
0.181179 -0.235678 0.202449 1 0 0
0.181459 -0.228787 0.423164 1 0 0
-0.075505 -0.159918 0.433295 0.000454807 0.0187054 0.999825
0.0982946 -0.244518 0.351392 0 -0.999916 0.0129304
0.101195 0.0697488 0.410277 -1.77648e-07 0.00119369 -0.999999
-0.153098 -0.241202 0.122473 1 0 0
0.168965 -0.225479 0.0115648 0 1 0
-0.187096 0.21193 0.0876057 0.939688 -0.334575 -0.0710412
-0.0585606 -0.0257476 0.411602 -0.000216668 -0.021793 -0.999763
-0.188778 0.170729 0.274748 0.485119 -0.855378 -0.181625
-0.159074 -0.11352 0.43227 -7.97013e-05 0.0231795 0.999731
-0.172726 -0.0984694 0.43192 -6.57662e-05 0.02327 0.999729
0.0843339 -0.223963 0.395113 0.00534424 0.998012 -0.0627917
-0.158834 -0.244584 0.108391 0 -1 0
-0.0465371 0.0145022 0.429673 7.32348e-05 0.0138881 0.999904
-0.0500977 -0.0907529 0.413078 -8.15675e-05 -0.0231127 -0.999733
0.0706127 0.193038 0.44292 0.0471971 0.961346 -0.271269
-0.172151 0.210761 0.758933 -0.152889 0.987161 -0.0462318
-0.181083 0.187369 0.703697 0.135878 -0.989352 0.0521496
-0.0830062 0.133964 0.411131 -0.000879256 0.0348031 -0.999394
0.161255 0.20386 0.598843 0.151322 0.98652 -0.0622869
-0.181459 0.196777 0.675061 -1 0 0
-0.0269191 0.175902 0.463525 0 -0.955429 0.295221
0.181459 0.198833 0.765455 1 0 0
-0.166563 -0.159094 0.414542 7.06775e-05 -0.018737 -0.999824
-0.0918279 -0.0142632 0.411379 -0.000333654 -0.0180381 -0.999837
0.0049211 0.141084 0.411339 0 0.0332937 -0.999446
0.00443663 0.0145446 0.429672 0 0.0138881 0.999904
-0.179465 0.205239 0.670491 -0.150098 0.987282 -0.052386
0.166556 0.196305 0.514476 0.149683 0.984419 -0.092267
0.159302 -0.225479 0.119188 0 1 0
0.175171 0.18034 0.57899 -0.133545 -0.988329 0.0732973
0.0443064 0.211075 0.782938 6.79595e-05 0.00102331 0.999999
-0.117359 -0.0657889 0.431167 2.75867e-05 0.0218866 0.999761
-0.105796 -0.0453768 0.41204 -0.000216668 -0.021793 -0.999763
0.0916478 0.00395507 0.429835 -6.91164e-05 0.0146186 0.999893
-0.0494344 0.209886 0.519662 -0.0703904 0.991294 -0.111274
0.169246 -0.225479 0.212052 0 1 0
0.0356538 0.22415 0.727431 0 0.998696 -0.0510461
0.0983305 0.192039 0.607596 -0.0625902 -0.995953 0.0644968
0.0327976 -0.0401169 0.411913 0 -0.0218999 -0.99976
-0.181521 -0.244584 0.0856339 0 -1 0
0.181179 -0.237019 0.131746 1 0 0
-0.0298142 0.197541 0.632316 0 -0.997781 0.0665898
-0.093091 0.0196345 0.429605 7.32348e-05 0.0138881 0.999904
-0.175327 0.176848 0.539806 0.132845 -0.98637 0.0970923
0.0481137 -0.223565 0.39794 0.00534498 0.992231 -0.124291
-0.0580482 0.221046 0.697833 -0.071031 0.996065 -0.0529981
0.0361971 -0.223864 0.392438 0 0.999455 -0.0329997
-0.105344 0.21146 0.587993 -0.071278 0.995489 -0.0626193
-0.186407 0.225902 0.0305746 0.935794 -0.344895 -0.0730576
0.14427 0.166777 0.456213 -0.0934807 -0.949805 0.29855
0.0314059 0.0728464 0.41028 0 0.00117854 -0.999999
-0.178938 -0.225479 0.0636683 0 1 0
0.0656243 0.16667 0.413546 0.00463525 0.126488 -0.991957
0.136452 0.208532 0.613653 0.148656 0.987332 -0.0554746
0.0941029 0.197705 0.693314 -0.0640922 -0.99627 0.0577848
0.0819713 0.117219 0.410614 0.000170323 0.0138288 -0.999904
-0.0138211 0.191285 0.547021 0 -0.994005 0.109335
-0.125135 -0.206155 0.415011 0.000149445 -0.00276649 -0.999996
0.111962 0.190183 0.596157 -0.135316 -0.988431 0.0685053
-0.16392 -0.177735 0.433636 2.5029e-05 0.018731 0.999825
-0.0624005 0.214001 0.579348 -0.0724646 0.99559 -0.0595744
0.187695 0.193848 0.168955 -0.754404 -0.642066 -0.136477
0.166195 0.208564 0.695803 0.150142 0.987436 -0.0492742
-0.131394 0.0794748 0.42949 0.000125432 -0.0162669 0.999868
0.0882239 0.0170706 0.429643 -6.91164e-05 0.0146186 0.999893
0.0482376 0.19311 0.439483 0.0454914 0.925208 -0.376724
0.0641995 -0.17338 0.433538 -0.000331572 0.0187054 0.999825
-0.120554 0.171655 0.41491 -0.0206506 0.286258 -0.95793
-0.059516 0.192742 0.581626 0.0636035 -0.995561 0.0693742
-0.20362 0.172709 0.292763 -1 0 0
0.093315 0.214056 0.618391 0.0702858 0.996093 -0.0534675
0.102491 0.200952 0.762213 -0.0661747 -0.99643 0.0524335
0.0902084 -0.224936 0.37495 0.00533774 0.999765 0.0209876
0.163077 0.171907 0.488029 -0.116794 -0.978078 0.172403
0.0966798 0.222414 0.779877 0.072197 0.996156 -0.0496043
-0.200616 0.164038 0.372304 -0.765329 0.629768 0.132907
-0.181749 -0.22618 0.170936 -1 0 0
-0.135189 -0.228892 0.343833 2.61891e-07 0.000575943 -1
0.164254 -0.190881 0.414972 4.95538e-06 -0.00276649 -0.999996
0.178433 -0.00493098 0.429956 -0.000119552 0.0139022 0.999903
-0.138176 0.190799 0.660284 0.134419 -0.98935 0.0558394
0.152528 -0.230513 0.191981 -1 0 0
0.153278 -0.244584 0.00762123 0 -1 0
-0.0313865 -0.171575 0.433495 0 0.0187054 0.999825
-0.118297 -0.174919 0.433584 -0.000108368 0.018366 0.999831
0.14396 0.0530948 0.41039 3.65499e-05 -0.0077033 -0.99997
-0.0326376 -0.241132 0.412385 0 -0.982943 0.183911
0.130471 0.216021 0.735557 0.151855 0.987163 -0.0494947
0.0902464 0.199035 0.470268 0.0591948 0.968727 -0.240964
0.181459 -0.201216 0.416668 1 0 0
0.173403 0.0421197 0.429432 -2.51248e-05 0.00770142 0.99997
0.142442 0.0379773 0.429464 -2.51248e-05 0.00770142 0.99997
0.0635746 -0.0677782 0.412548 6.221e-05 -0.0230322 -0.999735
-0.174331 -0.0575275 0.412317 -1.74196e-05 -0.0233042 -0.999728
0.166983 0.184588 0.623554 -0.132891 -0.988934 0.0659551
-0.0169375 0.202351 0.709294 0 -0.998322 0.0579039
-0.0687403 0.0924985 0.410304 -5.30805e-06 0.00119321 -0.999999
-0.12345 -0.0679985 0.412557 -0.000133128 -0.0230241 -0.999735
-0.075551 0.148836 0.41187 -0.0015068 0.064821 -0.997896
0.137821 0.000724509 0.429879 0.000164659 0.0146186 0.999893
-0.100583 0.201846 0.776914 0.0655958 -0.996449 0.0527851
0.075106 0.201031 0.730468 -0.064838 -0.996346 0.055588
0.0166252 0.174789 0.41482 0 0.277998 -0.960582
-0.124773 0.0473086 0.429391 2.59104e-05 0.00759889 0.999971
-0.0553409 0.0696813 0.410277 0 0.001179 -0.999999
-0.0515337 -0.052901 0.412201 -0.000116042 -0.0230241 -0.999735
0.194105 0.205294 0.188164 -0.173352 0.963648 0.203303
0.094753 0.207215 0.525109 0.070414 0.99191 -0.105624
0.131216 0.216042 0.738267 0.151855 0.987163 -0.0494947
0.0461365 0.219579 0.656185 0.0704155 0.995989 -0.0552086
0.0601669 0.122117 0.41072 0.000428429 0.0347849 -0.999395
-0.0949176 0.0568411 0.429392 4.78432e-07 -0.00161504 0.999999
-0.112177 0.197023 0.70632 0.137298 -0.988967 0.0556176
-0.160521 -0.000437316 0.411118 0.000130082 -0.0191387 -0.999817
-0.181459 0.184059 0.518966 -1 0 0
-0.181749 -0.241291 0.279289 -1 0 0
-0.11348 -0.130554 0.432668 -8.32038e-05 0.0220558 0.999757
0.0302106 0.146292 0.432453 0 -0.124437 0.992227
-0.0112312 -0.0870885 0.412992 0 -0.0231127 -0.999733
0.143808 0.208627 0.634749 0.148645 0.987259 -0.056787
-0.0893893 0.0106992 0.410912 -7.65974e-05 -0.0141835 -0.999899
-0.0249186 0.2178 0.613173 0 0.998563 -0.0536001
-0.163153 0.15541 0.436952 0.0546652 -0.728872 0.682465
0.181179 -0.232619 0.192535 1 0 0
-0.128221 -0.176506 0.414807 -2.26308e-05 -0.0126361 -0.99992
0.117202 -0.224904 0.381271 -0.000440633 0.999567 -0.0294294
-0.0287501 -0.00589606 0.429956 0 0.0138881 0.999904
-0.153098 -0.241596 0.0895497 1 0 0
-0.051849 0.163401 0.438538 0.0256894 -0.673643 0.73861
0.109877 0.193845 0.452844 0.111168 0.95644 -0.269933
0.0793388 0.201183 0.477906 0.060005 0.982151 -0.178268
-0.0536199 0.202018 0.723154 0.0648537 -0.99644 0.0538604
0.190811 0.164238 0.379958 -0.173352 0.963648 0.203303
0.0142759 -0.23429 0.428784 0 -0.726137 0.68755
-0.133915 0.192307 0.676374 0.135824 -0.988954 0.0593507
0.142546 0.195235 0.751359 -0.138782 -0.989059 0.0500229
0.0885255 -0.0020669 0.429922 -0.000370008 0.0138881 0.999903
-0.123223 0.206497 0.55225 -0.154102 0.984877 -0.0791859
0.0969415 0.218663 0.705553 0.0710144 0.996118 -0.0520158
-0.186368 0.182089 0.271204 0.939553 0.33498 0.0709091
-0.0833281 -0.244487 0.354416 0 -0.999899 0.0142004
0.144016 -0.0484887 0.412109 5.82033e-06 -0.021708 -0.999764
-0.113871 -0.187351 0.433798 1.74779e-05 0.0130801 0.999914
-0.00142066 0.211754 0.527998 0 0.993759 -0.111551
-0.0600807 -0.192916 0.433856 0.000401674 0.0136809 0.999906
0.152528 -0.22802 0.0138889 -1 0 0
0.0665713 0.19223 0.580822 -0.0634662 -0.995706 0.0673975
0.173801 -0.0420244 0.430648 -2.62426e-05 0.021709 0.999764
0.0576448 -0.224786 0.433711 -0.000171002 -0.0201747 0.999796
0.0525863 -0.106845 0.432103 -0.000282579 0.023229 0.99973
0.164379 -0.225479 0.104153 0 1 0
0.0843884 -0.0408338 0.430618 -0.000133684 0.0218866 0.99976
0.17863 0.127776 0.431221 -0.00430316 -0.0719439 0.997399
0.181459 0.177781 0.436684 1 0 0
-0.0598974 -0.184709 0.433744 0.000401674 0.0136809 0.999906
-0.0411802 0.0609439 0.410332 2.48153e-05 -0.00760652 -0.999971
-0.0138055 0.167506 0.44345 0 -0.85985 0.510547
0.142246 0.0561835 0.410367 -2.68335e-05 -0.00754047 -0.999972
-0.11739 0.113859 0.410574 -0.000388534 0.0141475 -0.9999
-9.51141e-05 0.185041 0.501531 0 -0.981955 0.189113
-0.181459 -0.0106725 0.425813 -1 0 0
-0.0224389 -0.156631 0.414466 0 -0.018908 -0.999821
-0.0643099 0.193213 0.592961 0.0628881 -0.995742 0.0674
0.0920521 -0.242741 0.399353 -0.000137035 -0.994812 0.10173
0.197189 0.14968 0.366511 0.500544 -0.846797 -0.179974
0.0891451 -0.242929 0.396988 -0.000137351 -0.997107 0.0760071
-0.0259076 0.204694 0.75083 0 -0.998447 0.0557052
0.159074 -0.225479 0.140431 0 1 0
0.00619322 0.217728 0.611828 0 0.998563 -0.0536001
-0.061674 0.199575 0.689607 0.0640886 -0.996065 0.0612085
-0.0913085 0.201505 0.758954 0.0655958 -0.996449 0.0527851
-0.131213 0.18057 0.520398 0.132255 -0.981989 0.134931
0.133553 -0.13258 0.432711 8.3347e-05 0.0220138 0.999758
-0.164063 0.0566595 0.429392 -5.67906e-06 -0.00166553 0.999999
0.150957 0.201952 0.549619 0.153991 0.984894 -0.0791873
0.0778653 -0.0773255 0.412769 6.221e-05 -0.0230322 -0.999735
0.099979 -0.141177 0.414206 0.000508878 -0.018908 -0.999821
-0.0610763 -0.160489 0.433299 0.000454807 0.0187054 0.999825
0.00876831 -0.106773 0.413447 3.50341e-06 -0.0231212 -0.999733
-0.178253 0.210245 0.768081 -0.152889 0.987161 -0.0462318
-0.176733 -0.203534 0.43401 7.73203e-06 0.0130506 0.999915
0.168606 0.174034 0.506833 -0.126451 -0.98221 0.13883
0.0454756 -0.224699 0.366868 0.00564108 0.999412 -0.0338321
-0.00221903 -0.0485449 0.430777 0 0.0216239 0.999766
0.0329548 -0.16402 0.433354 0 0.0187054 0.999825
0.17477 -0.0879238 0.413023 -1.93589e-05 -0.0228095 -0.99974
-0.13863 0.196699 0.484708 -0.139761 0.981478 -0.131022
-0.132512 -0.24451 0.352777 0 -0.999899 0.0142004
0.124715 0.169442 0.458614 -0.0942665 -0.957881 0.271253
0.109883 -0.0982438 0.431919 6.55579e-05 0.0233289 0.999728
0.0460078 -0.199836 0.433943 -0.000204241 0.0136809 0.999906
-0.0729744 -0.198617 0.433938 0.000207984 0.0130801 0.999914
-0.0212153 0.22687 0.781457 0 0.998762 -0.0497341
-0.0919372 -0.219593 0.433827 0.000172736 -0.0212339 0.999774
-0.168135 0.191768 0.75389 0.138642 -0.98913 0.0489842
0.10352 0.175169 0.472444 -0.0497984 -0.970227 0.237022
-0.0712184 -0.114626 0.413625 -0.000136445 -0.0220908 -0.999756
0.141751 0.209736 0.648431 0.149075 0.987133 -0.0578415
-0.190337 0.159294 0.324271 0.498665 -0.847843 -0.180265
0.0405737 -0.0362324 0.430514 -0.000223464 0.0186677 0.999826
-0.15622 -0.135875 0.414097 5.62038e-05 -0.0220908 -0.999756
0.181179 -0.238884 0.0123988 1 0 0
0.107025 0.221309 0.772617 0.0718992 0.99621 -0.0489446
0.181459 -0.234614 0.362283 1 0 0
-0.165236 0.0421946 0.410475 -3.57909e-05 -0.00754333 -0.999972
0.11538 -0.244509 0.352113 0 -0.999916 0.0129304
-0.152055 -0.177895 0.414824 0.000112835 -0.0130511 -0.999915
0.171701 -0.11449 0.413626 -5.65781e-05 -0.0220061 -0.999758
0.152528 -0.234683 0.14986 -1 0 0
-0.185423 0.222175 0.069304 0.939553 0.33498 0.0709091
0.152035 -0.0952826 0.413191 -1.93589e-05 -0.0228095 -0.99974
-0.185441 0.168121 0.324899 0.939553 0.33498 0.0709091
0.176763 -0.235887 0 0 0 -1
-0.168804 0.207283 0.678472 -0.150098 0.987282 -0.052386
-0.169878 0.112792 0.430325 0.00116685 -0.0366489 0.999327
0.0273405 -0.1496 0.433062 0 0.0219192 0.99976
0.163386 -0.225479 0.0987833 0 1 0
-0.0944785 -0.19138 0.414965 -0.000543225 -0.00276649 -0.999996
-0.0685996 -0.220077 0.433813 0.000172736 -0.0212339 0.999774
0.156375 0.0307983 0.429519 -2.51248e-05 0.00770142 0.99997
0.00155465 0.0978759 0.410339 -2.03875e-06 0.0138288 -0.999904
0.177155 -0.0784919 0.431455 4.1058e-05 0.02327 0.999729
-0.181459 0.0851504 0.410928 -1 0 0
-0.0440123 0.16729 0.44363 0.0360013 -0.859292 0.510216
0.0216348 0.193211 0.568643 0 -0.996525 0.083293
0.126807 0.206425 0.558291 0.153991 0.984894 -0.0791873
0.0498576 0.216376 0.604493 0.0702858 0.996093 -0.0534675
0.0594712 0.207189 0.505326 0.0699702 0.985659 -0.153556
-0.0321412 0.220978 0.668481 0 0.998391 -0.0566982
0.0192722 0.203137 0.47393 0 0.980311 -0.197459
-0.133212 0.113238 0.410576 -0.00112194 0.0162323 -0.999868
0.082351 0.192828 0.444217 0.0471971 0.961346 -0.271269
0.0819642 0.194649 0.631987 -0.0625821 -0.995825 0.0664593
0.166267 -0.225479 0.245747 0 1 0
-0.192729 0.200717 0.122829 0.498665 -0.847843 -0.180265
-0.0847775 0.126547 0.410875 -0.000410062 0.0332937 -0.999445
-0.0502394 0.217111 0.618838 -0.0702962 0.995955 -0.0559592
0.0810114 -0.0397311 0.411913 0.000173217 -0.0217929 -0.999763
-0.181749 -0.240023 0.340387 -1 0 0
-0.110591 0.220425 0.762659 -0.151863 0.987211 -0.0485024
0.181459 0.0345793 0.424471 1 0 0
0.181179 -0.241255 0.210149 1 0 0
-0.0682801 0.217494 0.647158 -0.070423 0.995809 -0.0583499
-0.169986 -0.193825 0.414978 -4.1031e-06 -0.00229102 -0.999997
-0.140579 0.20749 0.607771 -0.151362 0.986922 -0.0554516
-0.20362 0.170086 0.30335 -1 0 0
0.0723034 -0.22468 0.382122 0.0053241 0.996407 -0.084522
-0.087445 0.219183 0.702363 -0.0714716 0.996086 -0.0520141
-0.104108 -0.0519103 0.430862 0.000241861 0.0218866 0.999761
