0.0786907 0.193537 0.724953 -0.0121206 -0.995312 0.0959495
0.151813 -0.00858869 0.433743 -0.550834 0.0073708 -0.834582
-0.142999 0.12457 0.441995 0.550566 0.011252 -0.834716
-0.0728077 0.210834 0.814593 0.0011026 2.77331e-06 0.999999
-0.198379 -0.175659 0.444952 -0.923414 -0.0496732 0.380579
-0.175392 -0.231688 0.317014 0.927417 -0.374029 0
-0.169033 0.192787 0.782153 0.0777233 -0.992372 0.09569
-0.0846729 0.188475 0.612154 -0.0191648 0.99604 -0.0868198
0.0151205 0.18991 0.679015 -0.013216 -0.995331 0.0956147
0.0682689 0.11118 0.449003 0.00141946 0.0104239 -0.999945
-0.0281367 0.193006 0.652251 -0.0176923 0.996116 -0.0862579
0.116406 0.184086 0.63569 -0.0318872 -0.99488 0.0959019
0.180841 -0.187551 0.423429 -0.00197345 0.622522 -0.7826
0.149858 0.219898 0.00722126 0.197547 0.332292 0.922257
0.100548 -0.120161 0.446492 -0.000378736 0.0111554 -0.999938
0.0693582 -0.237688 0.40042 0.00285597 -0.984377 0.176052
0.0548613 0.179851 0.579794 -0.013216 -0.995331 0.0956147
0.176319 0.094328 0.00813439 -0.387633 -0.00106013 -0.921813
-0.177121 -0.111014 0.456823 8.73309e-06 -0.00300977 0.999995
0.160251 0.19725 0.536634 0.05923 0.995254 -0.0772068
-0.146884 0.0595118 0.438555 0.550566 0.011252 -0.834716
0.184231 -0.237182 0.301418 -0.379339 -0.925258 0
0.00989488 -0.0921913 0.4468 0.00141946 0.0104239 -0.999945
0.183246 -0.236778 0.248011 -0.379339 -0.925258 0
-0.0251061 0.222166 0.785568 -0.0183474 0.996119 -0.086086
0.14099 0.202312 0.716153 -0.512479 0.856103 -0.0667363
-0.0904738 0.22252 0.803617 -0.018459 0.996092 -0.0863725
-0.105517 0.220375 0.786596 -0.0805381 0.993024 -0.0861261
0.0927346 0.182252 0.609661 -0.0121206 -0.995312 0.0959495
0.159505 0.0325416 0.457187 -0.00255885 -0.00301729 0.999992
0.0515689 0.199162 0.725244 0.0119135 0.996156 -0.0867783
-0.195676 0.0303364 0.0240783 -0.925281 -0.00349299 0.379265
-0.124939 0.21945 0.794092 -0.0805381 0.993024 -0.0861261
0.126905 0.195201 0.761091 -0.0719379 -0.993794 0.0848421
-0.0167289 -0.163716 0.456663 8.73309e-06 -0.00300977 0.999995
0.00437308 0.194675 0.666867 0.0132677 0.996185 -0.0862566
-0.06358 0.237738 0.023757 -0.002749 0.925912 0.37773
0.199177 -0.21204 0.418738 0.923414 0.332768 -0.191238
0.0240503 0.164479 0.461104 0.0112335 0.785996 -0.61813
0.154587 0.18521 0.667528 -0.0719379 -0.993794 0.0848421
-0.184175 -0.214808 0.295624 0.375582 0.926789 0
-0.171891 0.201859 0.611754 -0.037732 0.996294 -0.0772899
-0.175323 -0.221435 0.299447 0.920883 0.38984 0
0.0713734 -0.161146 0.456663 6.73202e-06 -0.00226541 0.999997
-0.173627 -0.222888 0.047925 0.926716 -0.350405 -0.135701
0.0974729 -0.174169 0.456036 0.000386197 -0.12996 0.991519
0.0720944 -0.0138124 0.447689 -0.000378736 0.0111554 -0.999938
-0.0445618 -0.046223 0.447323 0.000227563 0.0109777 -0.99994
0.0854518 0.193276 0.723097 -0.0121206 -0.995312 0.0959495
0.11501 0.191857 0.715837 -0.0318872 -0.99488 0.0959019
0.184658 -0.205763 0.403806 -0.00234723 0.863001 -0.505197
0.190464 -0.215398 0.340965 0.38089 0.92462 0
-0.126584 0.19529 0.773635 0.0777233 -0.992372 0.09569
-0.128338 -0.00561221 0.457139 8.73309e-06 -0.00300977 0.999995
-0.151941 -0.0574704 0.433573 0.554409 0.0116928 -0.832162
-0.143866 0.146246 0.461178 0.0212986 -0.506632 0.861899
-0.0680937 0.201022 0.80499 0.0179787 -0.995256 0.0956169
0.0197993 -0.0730589 0.456849 -0.00123717 -0.0018639 0.999997
0.144858 -0.145761 0.437186 -0.554487 0.00689105 -0.832164
0.0296488 0.19486 0.672842 0.0119135 0.996156 -0.0867783
0.166978 -0.218132 0.360251 0 0 -1
-0.151233 0.159858 0.472305 0.0309764 -0.780221 0.624736
0.0142408 -0.199082 0.437076 -0.00184006 0.622729 -0.782435
0.0563015 0.201999 0.809905 -0.0121206 -0.995312 0.0959495
-0.112335 0.184214 0.6472 0.0777233 -0.992372 0.09569
-0.00147096 0.146527 0.459614 0.00439869 -0.172801 0.984947
-0.0469298 -0.0798247 0.446953 0.000227563 0.0109777 -0.99994
0.143618 0.220893 0.00760593 -0.0482746 -0.383359 -0.922337
-0.179104 0.0978775 0.0261373 0.379402 0.00142383 0.925231
-0.110578 0.20409 0.814684 0.00548898 -2.7588e-05 0.999985
0.150284 -0.215236 0.38033 -0.558004 0.825916 -0.0805865
0.0105275 -0.10804 0.446636 0.00141946 0.0104239 -0.999945
0.173932 -0.22786 0.248871 -0.923067 -0.384639 0
0.156347 0.206146 0.651517 -0.24946 0.965464 -0.0751655
0.144863 0.210346 0.814898 -0.00575093 -5.79423e-05 0.999983
-0.175803 -0.181135 0.0239652 0.921882 0.0706079 0.380983
0.147454 0.174939 0.551121 -0.0318872 -0.99488 0.0959019
-0.197356 0.193126 0.695959 -0.922976 -0.383395 0.0335251
0.196821 -0.185875 0.019397 0.923622 0.051402 0.379842
0.15821 0.0553373 0.430986 0.00305038 0.0115606 -0.999929
0.10688 -0.218447 0.385836 -0.00255129 0.881235 0.472672
-0.145293 0.0650094 0.439678 0.550566 0.011252 -0.834716
0.0191245 -0.0674726 0.447071 0.00141946 0.0104239 -0.999945
-0.180909 0.200123 0.595091 -0.0619769 0.995262 -0.0749103
-0.157795 0.170266 0.517987 0.0376826 -0.995771 0.0837846
-0.190338 -0.210175 0.0185986 -0.377375 -0.475863 -0.794445
-0.14829 0.194267 0.78066 0.0777233 -0.992372 0.09569
0.189923 0.114559 0.0268316 0.387165 0.00120367 0.92201
-0.0511093 -0.158344 0.456679 8.73309e-06 -0.00300977 0.999995
-0.0506048 0.185908 0.575182 -0.0191648 0.99604 -0.0868198
-0.150085 0.191564 0.539282 0.513835 0.855322 -0.0663138
0.0958575 -0.0577249 0.456897 6.73202e-06 -0.00226541 0.999997
-0.00923917 -0.0553571 0.456868 0.00125039 -0.00185662 0.999997
0.00159464 0.223246 0.793423 0.012599 0.996208 -0.086084
0.124303 -0.149213 0.45669 6.73202e-06 -0.00226541 0.999997
-0.196987 -0.152398 0.44917 -0.923692 -0.00150812 0.383132
0.177507 -0.206198 0.00280198 0.440433 0.886607 -0.141237
0.103588 -0.0595131 0.456893 6.73202e-06 -0.00226541 0.999997
0.00963349 0.00934715 0.447858 0.00141946 0.0104239 -0.999945
-0.190817 -0.216508 0.172967 -0.39102 0.920382 0
0.173027 0.188407 0.470759 0.0302508 0.927942 -0.371496
-0.0212657 0.198795 0.717691 -0.0176923 0.996116 -0.0862579
-0.169828 0.185485 0.704284 0.0376826 -0.995771 0.0837846
0.179984 0.0341391 0.00666228 -0.387633 -0.00106013 -0.921813
0.190384 0.199719 0.599827 0.380073 0.921643 -0.0782175
0.131058 0.0122974 0.447542 -0.287463 0.00944631 -0.957745
-0.0676603 -0.0245061 0.457023 0.00251229 -0.00144189 0.999996
0.0703195 0.19528 0.683254 0.0119135 0.996156 -0.0867783
0.191307 0.109071 0.434532 0.383016 0.0120593 -0.923663
-0.172185 0.187848 0.733428 0.0376826 -0.995771 0.0837846
-0.197301 -0.227284 0.194037 -0.920883 -0.389838 0
-0.0200206 0.177044 0.480945 -0.0182315 0.928434 -0.371049
-0.156254 0.0740899 0.432548 0.554409 0.0116928 -0.832162
-0.0234333 0.19154 0.634357 -0.0176923 0.996116 -0.0862579
0.0848654 -0.215962 0.421639 -0.00249 0.862954 -0.505276
-0.135104 -0.033692 0.457055 8.73309e-06 -0.00300977 0.999995
0.00554254 0.223811 0.814143 0.00809883 0.706842 0.707325
0.102116 0.00986005 0.447942 -0.000378736 0.0111554 -0.999938
0.0783269 0.197765 0.768767 -0.0121206 -0.995312 0.0959495
-0.047565 -0.0645777 0.456915 0.00251229 -0.00144189 0.999996
0.00582803 0.182665 0.602311 -0.013216 -0.995331 0.0956147
0.114912 0.184897 0.643609 -0.0318872 -0.99488 0.0959019
0.184899 0.109771 0.431884 0.383016 0.0120593 -0.923663
0.0382172 0.0535297 0.457108 -0.00123717 -0.0018639 0.999997
0.0929963 0.13485 0.449738 0.00277358 0.181302 -0.983424
0.117505 0.185892 0.654794 -0.0318872 -0.99488 0.0959019
-0.176425 0.204479 0.649251 -0.0619769 0.995262 -0.0749103
-0.0329066 0.1731 0.508046 0.0190736 -0.995204 0.0959476
-0.125964 0.219026 0.790161 -0.0805381 0.993024 -0.0861261
0.179239 0.10003 0.0272344 -0.377053 -0.00104013 0.926191
0.0567761 0.1955 0.683921 0.0119135 0.996156 -0.0867783
-0.155981 0.186329 0.704583 0.0777233 -0.992372 0.09569
0.0451893 0.200021 0.787982 -0.0121206 -0.995312 0.0959495
-0.0134524 0.205941 0.75483 -0.0143738 0.780846 -0.624559
-0.0426836 0.191877 0.705021 0.0179787 -0.995256 0.0956169
-0.183399 0.0623809 0.00615976 0.385146 0.00143561 -0.922854
-0.0466961 0.238913 0.0210024 -0.00274348 0.925853 0.377873
-0.182465 -0.2155 0.337047 0.375582 0.926789 0
-0.157445 0.0711158 0.431714 0.287302 0.0121394 -0.957763
0.0228948 0.171676 0.49169 -0.0131591 -0.982896 0.183692
0.0446928 0.238199 0.0234157 -0.002749 0.925912 0.37773
-0.0109361 -0.240495 0.376598 0.00296623 -0.999987 0.00415434
-0.144578 0.174892 0.567023 0.0376826 -0.995771 0.0837846
-0.186316 -0.221304 0.0262007 -0.375679 -0.731587 -0.568899
-0.0790649 0.194893 0.684547 -0.0191648 0.99604 -0.0868198
0.00688387 0.120068 0.457193 -0.00123717 -0.0018639 0.999997
0.196397 0.184178 0.557872 0.999987 0.00269107 0.00443604
0.196651 -0.166247 0.449069 0.923941 0.00394011 0.382515
0.11057 0.238316 0.0105874 -0.00273144 0.92179 -0.387679
0.108472 0.115523 0.449098 0.00100218 0.0105586 -0.999944
-0.109715 -0.148379 0.45671 8.73309e-06 -0.00300977 0.999995
0.174293 0.0669399 0.0115851 -0.926121 -0.00263548 -0.377216
-0.188801 0.20044 0.605832 -0.0619769 0.995262 -0.0749103
0.174154 0.217693 0.808219 0.072437 0.993645 -0.0861545
0.0817149 -0.103569 0.456794 6.73202e-06 -0.00226541 0.999997
-0.163739 -0.209787 0.395469 -0.101773 0.994795 0.00500226
-0.0139123 -0.177835 0.444734 -0.000490628 0.139696 -0.990194
0.169908 0.224535 0.000221444 0.510795 0.859703 0
0.185497 0.106875 0.00546887 0.377037 0.00118836 -0.926198
-0.0196513 -0.137636 0.456739 0.00251229 -0.00144189 0.999996
0.166683 0.206406 0.659598 0.05923 0.995254 -0.0772068
-0.158351 0.0537177 0.457318 8.73309e-06 -0.00300977 0.999995
0.0922912 0.194066 0.732157 -0.0121206 -0.995312 0.0959495
0.0856283 0.186541 0.653258 -0.0121206 -0.995312 0.0959495
0.0909902 0.0512999 0.457144 6.73202e-06 -0.00226541 0.999997
-0.083262 -0.219112 0.386026 -0.00256406 0.881244 0.472655
-0.173789 -0.0805742 0.0170796 0.925141 0.00349832 -0.379607
-0.197375 0.161849 0.463396 -0.923505 -0.299203 0.240034
-0.137965 0.0119283 0.457192 8.73309e-06 -0.00300977 0.999995
-0.141604 0.239206 0.0175951 -0.163428 0.91105 0.378522
-0.168723 0.177976 0.61454 0.0376826 -0.995771 0.0837846
-0.126495 -0.00456011 0.457143 8.73309e-06 -0.00300977 0.999995
0.118072 0.0492234 0.457139 6.73202e-06 -0.00226541 0.999997
-0.109206 0.186712 0.598557 -0.0290557 0.995802 -0.0867972
0.194612 0.177738 0.0206332 0.926117 0.00279425 0.377225
-0.197438 0.183723 0.49415 -0.925183 0.377855 -0.0355204
0.0952865 0.179953 0.510737 0.0119135 0.996156 -0.0867783
-0.160679 0.200918 0.59414 -0.037732 0.996294 -0.0772899
-0.143708 -0.217597 0.382872 -0.00256406 0.881244 0.472655
0.177372 -0.0663723 0.00787626 -0.387633 -0.00106013 -0.921813
0.176523 -0.216752 0.144218 -0.386736 0.922191 0
-0.144224 -0.176055 0.436135 0.554043 0.116576 -0.824285
-0.11872 0.18334 0.563053 -0.0290557 0.995802 -0.0867972
0.103368 0.0249671 0.457085 6.73202e-06 -0.00226541 0.999997
-0.0076528 -0.0719355 0.456835 0.00125039 -0.00185662 0.999997
-0.177728 -0.21742 0.29879 0.375582 0.926789 0
0.141586 -0.0826029 0.439889 -0.554487 0.00689105 -0.832164
-0.0660475 0.1033 0.448919 -0.00148324 0.0104154 -0.999945
-0.0950302 0.186762 0.662107 0.0190736 -0.995204 0.0959476
0.065444 0.034998 0.448205 0.00141946 0.0104239 -0.999945
-0.185477 -0.183548 0.454915 0.000385499 -0.129961 0.991519
-0.197609 0.194221 0.798954 -0.999972 -0.00271637 -0.0069503
-0.176882 0.166451 0.0222915 0.922444 0.00348812 0.386114
0.166983 0.209782 0.703344 0.05923 0.995254 -0.0772068
0.19707 -0.225824 0.262321 0.925243 -0.379375 0
0.0990379 -0.0409643 0.447376 -0.000378736 0.0111554 -0.999938
-0.192096 0.0317107 0.0268806 -0.386572 -0.00145933 0.922258
-0.190015 0.204838 0.665262 -0.0619769 0.995262 -0.0749103
0.107995 0.185939 0.591689 0.0898705 0.9922 -0.0863819
0.163273 0.0740059 0.457322 -0.00255885 -0.00301729 0.999992
-0.0748466 0.230569 0.00583642 -0.00111413 0.378593 -0.925563
0.0388772 0.0543844 0.448369 0.00141946 0.0104239 -0.999945
-0.0154125 0.187259 0.651827 0.0179787 -0.995256 0.0956169
0.105545 0.172656 0.513504 -0.0318872 -0.99488 0.0959019
-0.138831 0.018766 0.443318 0.550566 0.011252 -0.834716
-0.196351 0.0969718 0.437328 -0.923654 0.00417848 -0.383205
0.18468 0.196528 0.81468 -0.0548004 -0.705928 0.706161
-0.178212 -0.217224 0.120102 0.375582 0.926789 0
-0.180422 0.10242 0.457465 8.73309e-06 -0.00300977 0.999995
-0.118367 -0.103726 0.456844 8.73309e-06 -0.00300977 0.999995
0.110053 -0.240114 0.38359 0.00290126 -0.999987 0.0041524
-0.102462 0.194085 0.741546 0.0777233 -0.992372 0.09569
0.137632 0.163567 0.455623 -0.535526 0.432745 -0.72522
-0.0738273 0.208039 0.814594 0.00110194 -5.53844e-06 0.999999
-0.127268 0.0570113 0.448464 -0.00108429 0.0111131 -0.999938
-0.160033 -0.147177 0.428657 -3.55809e-05 0.011548 -0.999933
0.173041 -0.225069 0.330828 -0.924887 0.380243 0
0.191968 -0.219619 0.0280177 0.383612 -0.56727 -0.728729
0.0558964 0.181779 0.60001 -0.013216 -0.995331 0.0956147
-0.0866963 0.184941 0.641565 0.0190736 -0.995204 0.0959476
0.0561309 -0.130979 0.446388 -0.000378736 0.0111554 -0.999938
-0.135472 0.1933 0.760218 0.0777233 -0.992372 0.09569
0.1866 -0.236939 0.198709 0.385095 -0.922877 0
0.0223449 0.176618 0.479765 0.0127297 0.928306 -0.371598
0.0680432 0.186523 0.582407 0.0119135 0.996156 -0.0867783
-0.196938 -0.195204 0.019237 -0.921753 -0.201868 -0.33109
-0.137366 0.210987 0.814831 0.00549055 -4.72681e-05 0.999985
-0.0297698 0.171808 0.494029 0.0190736 -0.995204 0.0959476
0.124349 0.210359 0.764431 0.0617683 0.780347 -0.622288
-0.179 0.178568 0.626203 0.0376826 -0.995771 0.0837846
0.12578 0.197918 0.791957 -0.0719379 -0.993794 0.0848421
-0.170086 -0.0567463 0.429701 -3.55809e-05 0.011548 -0.999933
0.193022 0.0310599 0.434222 0.382091 0.012094 -0.924045
-0.0854675 -0.15446 0.456691 8.73309e-06 -0.00300977 0.999995
0.126661 0.117266 0.449131 -0.000378736 0.0111554 -0.999938
-0.0319323 0.185487 0.636489 0.0179787 -0.995256 0.0956169
-0.083145 -0.211531 0.360933 -0.00296622 0.999986 0.00436537
0.189582 0.187526 0.724326 -0.0719379 -0.993794 0.0848421
0.0753645 0.171968 0.500569 -0.013216 -0.995331 0.0956147
-0.0412518 0.229497 0.00535744 -0.00111413 0.378593 -0.925563
0.0105782 0.0962295 0.457153 -0.00123717 -0.0018639 0.999997
-0.0665325 0.194551 0.737339 0.0179787 -0.995256 0.0956169
-0.184177 -0.201276 0.0115917 0.387671 -0.471348 -0.792175
0.134205 0.176495 0.476759 -0.531953 0.782213 -0.324297
0.19076 -0.151501 0 0 0 1
-0.0556703 0.177584 0.559081 0.0190736 -0.995204 0.0959476
-0.0988771 0.16672 0.466011 -0.0346434 0.785585 -0.617783
0.0376749 0.0236662 0.457051 -0.00123717 -0.0018639 0.999997
0.137244 -0.170206 0.441831 -0.554918 0.113489 -0.824127
-0.059678 -0.222171 0.411744 -0.00246582 0.862954 -0.505276
0.122358 -0.0310587 0.456958 6.73202e-06 -0.00226541 0.999997
0.178922 -0.0377797 0.00719183 -0.387633 -0.00106013 -0.921813
0.195398 -0.0334984 0.436307 0.924225 0.00963533 -0.381728
-0.112365 0.177117 0.573614 0.0777233 -0.992372 0.09569
-0.0759256 -0.0530281 0.447241 0.000227563 0.0109777 -0.99994
-0.1474 0.172993 0.545725 0.0376826 -0.995771 0.0837846
0.146139 0.210321 0.766708 0.0719885 0.76571 -0.639144
0.0351332 -0.0735848 0.447028 0.00100218 0.0105586 -0.999944
0.127766 0.171586 0.472746 0.0254818 0.785856 -0.617885
-0.191922 -0.235975 0.137479 -0.374475 -0.927237 0
0.152919 0.0983724 0.433957 -0.550834 0.0073708 -0.834582
-0.195745 0.0271918 0.452874 -0.923737 -0.00151146 0.383024
0.183584 0.194126 0.505436 0.0316055 0.996738 -0.0742617
0.106188 0.0444902 0.448326 -0.000378736 0.0111554 -0.999938
-0.188868 0.0196831 0.00592952 -0.378719 -0.00141165 -0.925511
-0.177954 -0.03264 0.025867 0.379402 0.00142383 0.925231
0.176035 -0.235526 0.360251 0 0 -1
-0.167684 0.0865895 0.457417 8.73309e-06 -0.00300977 0.999995
-0.147711 0.197666 0.636394 0.513835 0.855322 -0.0663138
-0.0500893 0.221856 0.787337 -0.018459 0.996092 -0.0863725
0.0510334 0.194881 0.676018 0.0119135 0.996156 -0.0867783
0.107397 0.0882937 0.44881 0.00100218 0.0105586 -0.999944
-0.167134 -0.211796 0.365024 -0.00292795 0.999989 0.00370616
-0.183923 -0.21183 0.360951 -0.00350968 0.999981 0.00510691
-0.0500522 0.216221 0.0169747 0.00274156 -0.925217 -0.379428
0.0367497 -0.0525431 0.447251 0.00141946 0.0104239 -0.999945
0.0801584 -0.218417 0.360251 0 0 -1
0.0584608 -0.240355 0.361677 0.00290153 -0.999987 0.00415431
0.0159002 0.183947 0.54474 0.0132677 0.996185 -0.0862566
0.102973 -0.0271644 0.447528 -0.000378736 0.0111554 -0.999938
-0.0199221 -0.111287 0.446614 0.000227563 0.0109777 -0.99994
0.0967551 -0.169706 0.456621 0.000386197 -0.12996 0.991519
0.0391125 0.185307 0.634412 -0.013216 -0.995331 0.0956147
0.0886872 0.237619 0.00908069 -0.00269718 0.922188 -0.386732
0.0478969 0.1948 0.734158 -0.0121206 -0.995312 0.0959495
0.0933675 0.222997 0.803889 0.0124859 0.996185 -0.0863747
0.0774803 0.223738 0.810131 0.0124859 0.996185 -0.0863747
-0.132628 0.181338 0.633848 0.0777233 -0.992372 0.09569
0.139924 0.171903 0.517121 -0.0318872 -0.99488 0.0959019
0.193491 -0.216645 0.146397 0.38089 0.92462 0
-0.0614877 0.19593 0.692854 -0.0176923 0.996116 -0.0862579
-0.187085 0.208944 0.717388 -0.0619769 0.995262 -0.0749103
0.0739456 0.182514 0.610011 -0.0121206 -0.995312 0.0959495
0.185281 -0.213263 0.331915 0.38089 0.92462 0
0.183309 -0.213906 0.0751919 -0.386736 0.922191 0
-0.00132812 0.188829 0.665524 0.0179787 -0.995256 0.0956169
-0.0268423 0.147522 0.459927 0.0106652 -0.506742 0.862032
0.0898074 0.109752 0.457276 -0.00123717 -0.0018639 0.999997
-0.149041 -0.0758105 0.435247 0.554409 0.0116928 -0.832162
-0.0426227 0.221098 0.776992 -0.018459 0.996092 -0.0863725
0.0384211 -0.134173 0.446359 -0.000378736 0.0111554 -0.999938
0.16659 -0.205868 0.40371 -0.00234723 0.863001 -0.505197
-0.15813 0.167401 0.489225 0.0374286 -0.982296 0.183559
0.0579609 -0.0531619 0.447255 -0.000378736 0.0111554 -0.999938
-0.192329 0.0507123 0.433529 -0.383435 0.0098368 -0.923515
-0.145325 0.175419 0.465164 0.525915 0.662531 -0.533354
0.132535 0.177559 0.482731 -0.530247 0.828333 -0.180835
-0.0151811 -0.211333 0.361588 -0.00296622 0.999986 0.00436537
0.180673 -0.210775 0.364406 -0.00317436 0.999987 0.00408383
-0.177813 -0.178652 0.00892482 0.412885 -0.0815049 -0.907129
0.0732052 0.222541 0.795707 0.0124859 0.996185 -0.0863747
-0.0931879 -0.219196 0.386128 -0.00256406 0.881244 0.472655
0.177532 -0.012658 0.430242 -3.16737e-05 0.0118252 -0.99993
0.131785 0.182939 0.540782 -0.518893 0.852186 -0.0672945
0.0578319 -0.149307 0.45669 6.73202e-06 -0.00226541 0.999997
-0.0818672 -0.187795 0.454192 0.00106853 -0.360225 0.932865
-0.0677088 0.180463 0.516496 -0.0191648 0.99604 -0.0868198
0.034396 0.00909565 0.447891 0.00141946 0.0104239 -0.999945
0.145236 -0.206501 0.419238 -0.556332 0.515914 -0.651404
0.0378534 0.156467 0.465215 -0.0076807 -0.5068 0.862029
0.109738 0.216688 0.0172443 0.00273209 -0.922022 0.387127
0.0351531 0.179722 0.575732 -0.013216 -0.995331 0.0956147
0.00366866 -0.107456 0.456765 -0.00123717 -0.0018639 0.999997
-0.0247962 0.214973 0.766384 -0.0143738 0.780846 -0.624559
-0.186892 -0.0164222 0.430561 -0.382492 0.00980729 -0.923907
-0.187358 0.00178859 0.430948 -0.382492 0.00980729 -0.923907
-0.195582 -0.0770446 0.0233181 -0.925281 -0.00349299 0.379265
-0.198139 0.195424 0.700682 -0.922976 -0.383395 0.0335251
-0.193802 -0.0804635 0.453622 -0.382882 -0.00394246 0.923789
-0.176673 0.0285535 0.0230335 0.92206 0.00346032 0.38703
-0.126559 -0.10608 0.446651 -0.00108429 0.0111131 -0.999938
-0.169246 0.180039 0.639297 0.0376826 -0.995771 0.0837846
-0.176367 -0.218971 0.177352 0.920883 0.38984 0
0.184713 0.154645 0.0289671 0.387165 0.00120367 0.92201
-0.0197864 -0.157962 0.45668 8.73309e-06 -0.00300977 0.999995
-0.0200071 -0.0244958 0.44752 -0.00148324 0.0104154 -0.999945
0.0387744 -0.0345372 0.447442 0.00141946 0.0104239 -0.999945
-0.169737 -0.0385967 0.45704 8.73309e-06 -0.00300977 0.999995
-0.192864 -0.193646 0.448792 -0.382329 -0.334388 0.8614
-0.0248325 0.182047 0.599346 0.0179787 -0.995256 0.0956169
-0.173883 -0.224838 0.143252 0.920883 0.38984 0
0.008958 0.154356 0.454606 0.00790845 0.514487 -0.857462
-0.192053 0.10708 0.0270171 -0.386237 -0.00144844 0.922398
-0.0748827 0.191472 0.706956 0.0190736 -0.995204 0.0959476
0.0537504 -0.102653 0.456796 6.73202e-06 -0.00226541 0.999997
0.194912 0.189228 0.706439 0.924977 -0.379333 0.022899
0.0384298 0.0121819 0.457031 -0.00123717 -0.0018639 0.999997
-0.124434 0.219969 0.799518 -0.0780366 0.992868 -0.0901303
-0.114694 0.129427 0.449256 -0.00108429 0.0111131 -0.999938
0.00467202 0.221375 0.026307 0.00111714 -0.378284 0.925689
-0.177466 0.014454 0.0250502 0.92206 0.00346032 0.38703
0.183371 0.203624 0.0069755 -0.353424 -0.136565 0.925441
0.185988 0.214236 0.775338 0.05923 0.995254 -0.0772068
0.0808003 0.177064 0.554343 -0.0121206 -0.995312 0.0959495
-0.194753 -0.233303 0.172309 -0.920883 -0.389838 0
0.00746585 0.199877 0.727396 0.0119135 0.996156 -0.0867783
-0.0992488 -0.219515 0.416481 -0.00255961 0.86322 -0.504821
-0.190023 0.0872251 0.0278359 -0.386237 -0.00144844 0.922398
-0.0272733 0.202005 0.750227 -0.0143738 0.780846 -0.624559
-0.00203512 0.181681 0.591254 0.0179787 -0.995256 0.0956169
0.0556833 0.195516 0.742572 -0.0121206 -0.995312 0.0959495
-0.197514 0.1578 0.459126 -0.923173 -0.194572 0.331501
0.194348 0.206184 0.81457 0.687318 0.0551387 0.724261
0.135318 0.19635 0.683381 -0.518893 0.852186 -0.0672945
0.000722371 -0.211292 0.363035 -0.00290773 0.999986 0.00436537
0.0249561 0.0532168 0.448337 0.00141946 0.0104239 -0.999945
0.147888 -0.210854 0.360775 -0.00290673 0.999986 0.00435054
0.0337484 0.0481481 0.448297 0.00141946 0.0104239 -0.999945
-0.0926744 -0.206689 0.431279 -0.00179222 0.622131 -0.782911
0.176873 0.0493054 0.430973 0.00305038 0.0115606 -0.999929
-0.0268919 0.188523 0.600223 -0.0176923 0.996116 -0.0862579
-0.0363912 0.202875 0.751525 -0.0143738 0.780846 -0.624559
0.0935776 0.187669 0.599077 0.0119135 0.996156 -0.0867783
-0.115618 0.170616 0.50318 0.0376826 -0.995771 0.0837846
0.0164928 0.196804 0.693316 0.0132677 0.996185 -0.0862566
0.0728888 0.0275382 0.457091 6.73202e-06 -0.00226541 0.999997
0.0551165 -0.143232 0.446252 -0.000378736 0.0111554 -0.999938
-0.132642 0.197041 0.74168 0.506326 0.859691 -0.0675721
0.0969579 0.0549259 0.448446 -0.000378736 0.0111554 -0.999938
-0.0663304 0.223155 0.805802 -0.0183474 0.996119 -0.086086
0.19261 0.186928 0.709151 0.385587 -0.920381 0.0649749
-0.043073 0.133763 0.457564 0.0044976 -0.172095 0.98507
0.080936 -0.182169 0.444083 -0.000368077 0.138583 -0.990351
0.160534 0.0425583 0.430845 0.00305038 0.0115606 -0.999929
0.00129068 0.224197 0.804394 0.012599 0.996208 -0.086084
-0.151369 0.115686 0.457436 0.00251229 -0.00144189 0.999996
-0.161444 -0.16923 0.456647 8.73309e-06 -0.00300977 0.999995
0.189992 0.00430115 0.0269464 0.387165 0.00120367 0.92201
0.173981 0.122723 0.0119622 -0.926121 -0.00263548 -0.377216
-0.0447473 0.216559 0.0180258 0.00273209 -0.922022 0.387127
0.177561 -0.194279 0.011671 -0.381956 -0.332424 -0.862325
-0.155278 0.21702 0.79374 -0.0780366 0.992868 -0.0901303
-0.195031 -0.232645 0.222847 -0.920883 -0.389838 0
-0.0601337 0.187979 0.601055 -0.0191648 0.99604 -0.0868198
0.173696 0.134581 0.0125785 -0.926121 -0.00263548 -0.377216
0.0558624 -0.22486 0.360251 0 0 -1
0.195265 0.188729 0.68394 0.924977 -0.379333 0.022899
0.157569 0.182548 0.638874 -0.0719379 -0.993794 0.0848421
0.123817 -0.0496821 0.456915 6.73202e-06 -0.00226541 0.999997
0.170346 0.222328 0.0259259 0.237221 0.305145 0.922287
0.196995 -0.216641 0.0424547 0.922881 0.331606 0.195778
0.153413 0.192958 0.757287 -0.0719379 -0.993794 0.0848421
0.0638869 0.230909 0.00580827 -0.00110783 0.378776 -0.925488
0.158061 -0.0851795 0.429465 -0.287475 0.00987762 -0.957737
0.122911 0.210708 0.814771 -0.00604018 -0.00398785 0.999974
0.179824 0.0462635 0.00671569 -0.387633 -0.00106013 -0.921813
0.125319 -2.60025e-05 0.457028 6.73202e-06 -0.00226541 0.999997
-0.174646 -0.00368616 0.0156986 0.925141 0.00349832 -0.379607
-0.0134984 -0.0135545 0.447624 -0.00148324 0.0104154 -0.999945
-0.154567 0.146219 0.461427 0.0212986 -0.506632 0.861899
-0.174254 -0.155557 0.456688 8.73309e-06 -0.00300977 0.999995
0.182981 -0.207342 0.401117 -0.00234723 0.863001 -0.505197
-0.152818 0.184198 0.470971 0.526224 0.789388 -0.316155
0.103821 0.181278 0.531918 0.0232313 0.996652 -0.0783863
0.152522 -0.0596141 0.456893 6.73202e-06 -0.00226541 0.999997
-0.123682 0.18641 0.679185 0.0777233 -0.992372 0.09569
-0.112448 0.0385789 0.448243 -0.00108429 0.0111131 -0.999938
-0.183812 -0.238002 0.146466 0.388838 -0.921306 0
0.194648 -0.118195 0.0226631 0.923768 0.00262484 0.382945
0.0625708 0.104121 0.457232 -0.00123717 -0.0018639 0.999997
-0.00515182 -0.218752 0.435666 0.00178539 -0.615315 0.78828
0.0903458 0.0865263 0.457224 6.73202e-06 -0.00226541 0.999997
-0.181182 -0.0455798 0.00691581 0.384566 0.00145008 -0.923096
-0.150252 0.071735 0.457369 0.00251229 -0.00144189 0.999996
-0.195442 -0.221194 0.178809 -0.927237 0.374475 0
0.146097 0.159902 0.447185 -0.535526 0.432745 -0.72522
0.133159 0.0558753 0.45719 -0.00255885 -0.00301729 0.999992
-0.0864149 0.124588 0.449171 -0.00148324 0.0104154 -0.999945
0.00974727 0.186642 0.574922 0.0132677 0.996185 -0.0862566
0.190069 0.200965 0.612973 0.380073 0.921643 -0.0782175
0.116552 -0.208485 0.429352 -0.00183519 0.622707 -0.782453
0.172269 0.164239 0.0158739 -0.926121 -0.00263548 -0.377216
-0.186335 0.188367 0.745961 0.0376826 -0.995771 0.0837846
-0.124361 0.183221 0.565972 -0.0953002 0.992382 -0.0780805
0.193929 0.100111 0.4529 0.923941 0.00394011 0.382515
-0.112728 -0.118729 0.456799 8.73309e-06 -0.00300977 0.999995
-0.0271218 0.075405 0.448571 -0.00148324 0.0104154 -0.999945
0.119278 -0.0629928 0.447122 -0.000378736 0.0111554 -0.999938
0.0695676 -0.179917 0.455293 0.000378024 -0.130049 0.991507
-0.196671 -0.228771 0.201407 -0.920883 -0.389838 0
-0.0214499 0.174132 0.47374 -0.0181742 0.928228 -0.371567
0.0707567 -0.151408 0.456685 6.73202e-06 -0.00226541 0.999997
0.0516892 -0.0894346 0.456826 6.73202e-06 -0.00226541 0.999997
-0.185935 -0.238393 0.195007 -0.374475 -0.927237 0
0.192913 -0.234304 0.285956 0.385095 -0.922877 0
-0.159342 0.157925 0.439006 0.266091 0.497138 -0.825863
-0.183235 -0.215189 0.309625 0.375582 0.926789 0
-0.129985 0.172456 0.531513 0.0376826 -0.995771 0.0837846
-0.0517188 0.0130228 0.457048 0.00125039 -0.00185662 0.999997
-0.195605 0.0876758 0.0247784 -0.925281 -0.00349299 0.379265
0.0374939 0.188063 0.662884 -0.013216 -0.995331 0.0956147
-0.073113 -0.0590716 0.456978 8.73309e-06 -0.00300977 0.999995
-0.165794 0.201247 0.015898 0.731537 -0.566756 -0.379001
0.191367 -0.21577 0.170646 0.38089 0.92462 0
0.105151 0.0279589 0.457091 6.73202e-06 -0.00226541 0.999997
-0.183317 -0.087115 0.429366 -0.00310788 0.0118162 -0.999925
-0.0318388 -0.188441 0.453885 0.00106853 -0.360225 0.932865
0.168777 0.0141491 0.457155 -0.00255885 -0.00301729 0.999992
-0.0636741 0.0562554 0.457143 0.00125039 -0.00185662 0.999997
-0.193335 -0.164328 0.0073374 0.992835 0.0093262 -0.119126
0.106202 -0.0842345 0.456837 6.73202e-06 -0.00226541 0.999997
0.121844 0.172197 0.473476 0.0326938 0.924304 -0.380255
0.133673 0.170632 0.501859 -0.0318872 -0.99488 0.0959019
-0.0259595 0.0147445 0.447937 -0.00148324 0.0104154 -0.999945
-0.106572 0.107159 0.448999 -0.00108429 0.0111131 -0.999938
-0.142838 -0.13243 0.438585 0.554409 0.0116928 -0.832162
0.13396 0.0729785 0.457244 -0.00255885 -0.00301729 0.999992
-0.00253229 -0.13149 0.456718 0.00125039 -0.00185662 0.999997
0.134955 -0.218564 0.386205 -0.00255129 0.881235 0.472672
0.0030529 0.196846 0.69174 0.0132677 0.996185 -0.0862566
-0.0472053 -0.211211 0.441647 0.00178539 -0.615315 0.78828
-0.192455 -0.155873 0.453859 -0.382882 -0.00394246 0.923789
-0.115303 0.0697924 0.457279 0.00251229 -0.00144189 0.999996
-0.170965 0.201105 0.601579 -0.037732 0.996294 -0.0772899
-0.197609 0.196077 0.798227 -0.999972 -0.00271637 -0.0069503
0.0595957 0.191978 0.643868 0.0119135 0.996156 -0.0867783
-0.174681 -0.222952 0.270953 0.920883 0.38984 0
0.164088 -0.134581 0.456723 6.73202e-06 -0.00226541 0.999997
0.0683663 0.0157163 0.457064 6.73202e-06 -0.00226541 0.999997
-0.180464 -0.179071 7.73545e-06 0.0562908 0.0900182 0.994348
-0.196159 -0.113872 0.0125298 -0.922522 -0.00349895 -0.385929
0.196497 -0.0126998 0.0166518 0.923914 0.00265908 -0.382591
0.0103019 0.0134288 0.447902 0.00141946 0.0104239 -0.999945
-0.0142854 -0.0546719 0.447197 -0.00148324 0.0104154 -0.999945
-0.186309 -0.160669 0 0 0 1
0.196347 -0.0619363 0.437888 0.924414 0.00961528 -0.381269
0.128542 0.188171 0.625639 -0.210336 0.974601 -0.0768836
0.0135588 0.196657 0.749031 -0.013216 -0.995331 0.0956147
0.194177 -0.00123933 0.434277 0.382091 0.012094 -0.924045
0.188521 -0.119661 0.0277049 0.382445 0.001055 0.923978
-0.0097342 -0.239829 0.389731 0.00285606 -0.984377 0.176052
-0.187222 -0.228775 0.0364057 -0.375679 -0.731587 -0.568899
-0.191157 -0.231454 0.0451446 -0.375125 -0.865358 -0.332319
-0.0724118 0.195813 0.751579 0.0179787 -0.995256 0.0956169
-0.175894 0.195818 0.0076417 0.35984 -0.136831 -0.922926
-0.081926 0.238069 0.0228135 -0.00274348 0.925853 0.377873
-0.189451 -0.212237 0.391931 -0.384718 0.909898 -0.155171
0.0346139 0.21735 0.0148323 0.00274156 -0.925217 -0.379428
-0.152847 0.177429 0.6009 0.0376826 -0.995771 0.0837846
-0.0473257 -0.240661 0.362448 0.00296604 -0.999987 0.00415298
-0.196696 -0.218561 0.380448 -0.92481 0.380409 0.00403567
-0.104489 0.186973 0.599972 -0.0290557 0.995802 -0.0867972
-0.102742 -0.218703 0.385158 -0.00256406 0.881244 0.472655
0.125473 0.0955561 0.448889 -0.000378736 0.0111554 -0.999938
0.108806 -0.237687 0.399772 0.00292494 -0.984282 0.176577
-0.00998403 0.18768 0.655193 0.0179787 -0.995256 0.0956169
-0.159254 -0.210048 0.39065 -0.00306329 0.995559 -0.0940905
-0.129373 0.182617 0.644475 0.0777233 -0.992372 0.09569
-0.0165129 0.237085 0.00854321 -0.00269718 0.922188 -0.386732
-0.00786322 0.211178 0.761249 -0.0143738 0.780846 -0.624559
0.189652 0.211305 0.738586 0.0316055 0.996738 -0.0742617
-0.198131 0.159419 0.452232 -0.924948 0.196157 -0.325566
-0.189454 0.208308 0.0149855 -0.72933 0.564973 -0.385854
0.0965705 -0.0487272 0.456918 6.73202e-06 -0.00226541 0.999997
-0.174034 0.194182 0.0247642 0.861477 -0.328942 0.386852
-0.148945 0.169608 0.506191 0.0376826 -0.995771 0.0837846
-0.0487293 0.0296961 0.457075 0.00125039 -0.00185662 0.999997
0.0224654 0.132461 0.44916 0.00141946 0.0104239 -0.999945
0.174441 0.0335121 0.0226291 -0.921959 -0.00263141 0.387278
-0.158785 -0.0896345 0.456887 8.73309e-06 -0.00300977 0.999995
0.177216 -0.216462 0.308472 -0.386736 0.922191 0
0.00856434 0.0794866 0.457119 -0.00123717 -0.0018639 0.999997
-0.159277 -0.0117567 0.430221 -3.55809e-05 0.011548 -0.999933
0.172624 -0.239985 0.370924 0.00290126 -0.999987 0.0041524
-0.120723 -0.112894 0.446574 0.000227563 0.0109777 -0.99994
-0.000883818 -0.0301858 0.456904 0.00125039 -0.00185662 0.999997
0.19589 0.183489 0.571897 0.924977 -0.379333 0.022899
0.132505 -0.126798 0.445574 -0.554487 0.00689105 -0.832164
0.051807 -0.211138 0.3618 -0.00290673 0.999986 0.00435054
-0.0233653 -0.216895 0.382227 -0.00263188 0.881074 0.472972
0.164273 0.195267 0.512534 0.0316055 0.996738 -0.0742617
0.126359 0.176319 0.558427 -0.0318872 -0.99488 0.0959019
-0.144829 -0.0820916 0.437966 0.554409 0.0116928 -0.832162
-0.136706 -0.0568084 0.456985 8.73309e-06 -0.00300977 0.999995
-0.0340724 0.113752 0.457213 0.00125039 -0.00185662 0.999997
-0.0196553 0.0839925 0.45714 0.00125039 -0.00185662 0.999997
-0.150105 -0.188396 0.428663 0.553953 0.30899 -0.773085
-0.0897642 0.196694 0.707569 -0.0191648 0.99604 -0.0868198
-0.141758 0.184488 0.51254 0.513835 0.855322 -0.0663138
0.0662919 -0.0188212 0.456986 6.73202e-06 -0.00226541 0.999997
-0.145362 0.167623 0.487809 0.0374286 -0.982296 0.183559
-0.192599 -0.235702 0.296078 -0.374475 -0.927237 0
-0.0186717 -0.137598 0.446326 0.000227563 0.0109777 -0.99994
-0.182376 0.0655091 0.457354 8.73309e-06 -0.00300977 0.999995
0.193956 -0.0208176 0.0104883 0.921498 0.00281617 -0.388373
-0.0771095 0.181769 0.606754 0.0190736 -0.995204 0.0959476
0.106831 0.00180449 0.457032 6.73202e-06 -0.00226541 0.999997
-0.0646092 0.217879 0.0213087 0.0027226 -0.92192 0.38737
-0.124974 -0.0081349 0.457132 8.73309e-06 -0.00300977 0.999995
0.0323225 -0.0829828 0.456841 6.73202e-06 -0.00226541 0.999997
-0.0422608 0.147154 0.451857 -0.00467222 0.181427 -0.983393
-0.0263159 -0.106422 0.446666 0.000227563 0.0109777 -0.99994
-0.0792992 0.188826 0.615 -0.0191648 0.99604 -0.0868198
0.0940002 0.193321 0.724649 -0.0121206 -0.995312 0.0959495
-0.188157 0.195749 0.815063 0.0586383 -0.704446 0.707331
0.195055 0.176978 0.467157 0.923007 0.305073 -0.234495
0.178165 -0.234694 0.116347 -0.379339 -0.925258 0
0.131064 -0.169287 0.445682 -0.287978 0.131384 -0.948582
0.174766 -0.22986 0.311831 -0.923067 -0.384639 0
-0.0104975 0.184798 0.625287 0.0179787 -0.995256 0.0956169
0.140672 0.112283 0.442163 -0.550834 0.0073708 -0.834582
-0.0918801 0.199666 0.795351 0.0179787 -0.995256 0.0956169
-0.174622 -0.171313 0.427993 -0.000428633 0.139116 -0.990276
-0.0362308 0.174792 0.526265 0.0190736 -0.995204 0.0959476
0.102633 0.126551 0.449209 0.00100218 0.0105586 -0.999944
0.17856 -0.0495057 0.456988 -0.00255885 -0.00301729 0.999992
0.103211 0.171539 0.501139 -0.0318872 -0.99488 0.0959019
-0.156029 0.126984 0.433433 0.550566 0.011252 -0.834716
-0.17981 0.00691827 0.430466 -0.00310788 0.0118162 -0.999925
-0.143035 0.172878 0.464265 0.525915 0.662531 -0.533354
0.0857985 0.176103 0.545005 -0.0121206 -0.995312 0.0959495
-0.189551 0.204813 0.66455 -0.0619769 0.995262 -0.0749103
0.114684 0.180434 0.524416 0.0232313 0.996652 -0.0783863
0.0296928 -0.202347 0.434441 -0.00184006 0.622729 -0.782435
-0.142321 0.0560472 0.441518 0.550566 0.011252 -0.834716
-0.105121 0.180811 0.529486 -0.0290557 0.995802 -0.0867972
0.106094 -0.0647755 0.456881 6.73202e-06 -0.00226541 0.999997
0.136462 -0.0743308 0.443372 -0.554487 0.00689105 -0.832164
-0.00281535 0.196271 0.684765 -0.0176923 0.996116 -0.0862579
-0.185137 -0.044635 0.0288307 0.379367 0.00142268 0.925245
-0.00419376 -0.16224 0.446058 0.000227563 0.0109777 -0.99994
0.072309 -0.0879248 0.446862 -0.000378736 0.0111554 -0.999938
-0.0996326 0.185478 0.581199 -0.0290557 0.995802 -0.0867972
-0.0514233 0.128044 0.457261 0.00125039 -0.00185662 0.999997
0.0760932 0.223712 0.813441 0.00797509 0.703987 0.710168
0.0329783 0.153202 0.463252 -0.0076807 -0.5068 0.862029
0.0846253 -0.213115 0.360251 0 0 -1
0.0646224 0.201684 0.807685 -0.0121206 -0.995312 0.0959495
0.0906723 -0.238563 0.395181 0.00285597 -0.984377 0.176052
0.124848 0.182788 0.557354 0.0232313 0.996652 -0.0783863
-0.0460441 0.111495 0.448975 -0.00148324 0.0104154 -0.999945
-0.0270524 0.192383 0.707355 0.0179787 -0.995256 0.0956169
-0.103004 0.177858 0.573697 0.0777233 -0.992372 0.09569
0.194231 -0.218033 0.137727 0.922877 0.385096 0
-0.0859359 0.0742899 0.457211 0.00251229 -0.00144189 0.999996
0.0759316 0.0911254 0.457225 -0.00123717 -0.0018639 0.999997
-0.00437216 -0.100757 0.446702 -0.00148324 0.0104154 -0.999945
-0.150058 0.218817 0.809016 -0.0780366 0.992868 -0.0901303
-0.166214 0.174117 0.567551 0.0376826 -0.995771 0.0837846
-0.177162 -0.19303 0.00100468 0.0284996 0.0725087 0.99696
0.096385 0.151221 0.462653 -0.0076807 -0.5068 0.862029
0.0999753 -0.143083 0.446236 -0.000378736 0.0111554 -0.999938
-0.195747 -0.0029884 0.0235966 -0.925281 -0.00349299 0.379265
-0.196201 -0.0626593 0.435215 -0.923931 0.00419765 -0.382535
0.0839373 0.185996 0.647394 -0.0121206 -0.995312 0.0959495
0.109603 -0.00271679 0.447798 -0.000378736 0.0111554 -0.999938
0.106214 0.181562 0.606114 -0.0318872 -0.99488 0.0959019
-0.197429 0.210131 0.79057 -0.998549 0.053847 2.9723e-05
-0.0927032 -0.163488 0.446024 0.000227563 0.0109777 -0.99994
0.186248 -0.214352 0.438204 0.38415 -0.567384 0.728357
0.151837 0.0432224 0.4572 -0.00255885 -0.00301729 0.999992
-0.10038 -0.240752 0.378572 0.00296623 -0.999987 0.00415434
0.174662 0.220132 0.00913545 0.564966 0.728717 -0.387021
-0.0583874 0.110481 0.448983 -0.00148324 0.0104154 -0.999945
-0.0761207 -0.232998 0.360251 0 0 -1
-0.189833 -0.127994 0.430595 -0.382492 0.00980729 -0.923907
-0.192049 0.205913 0.682091 -0.637395 0.766969 -0.0740645
0.186806 0.194893 0.525576 0.380073 0.921643 -0.0782175
-0.0210538 0.116953 0.448995 -0.00148324 0.0104154 -0.999945
-0.0685262 0.186795 0.589314 -0.0191648 0.99604 -0.0868198
-0.197024 0.189483 0.716564 -0.999972 -0.00271637 -0.0069503
0.163718 0.211328 0.00686446 -0.237698 -0.306376 -0.921756
0.19416 0.203364 0.693635 0.998172 0.0596466 -0.0097434
0.195385 -0.206 0.0236023 0.924357 -0.232683 -0.302361
0.19578 0.151761 0.446561 0.92336 0.201809 -0.326618
0.0562443 -0.158176 0.45667 6.73202e-06 -0.00226541 0.999997
-0.120071 0.20129 0.753649 -0.0774303 0.779136 -0.622055
-0.128116 -0.091859 0.446811 -0.00108429 0.0111131 -0.999938
-0.0858118 0.201017 0.808269 0.0179787 -0.995256 0.0956169
-0.0497512 0.184567 0.559619 -0.0191648 0.99604 -0.0868198
0.194143 0.0633742 0.0115443 0.921498 0.00281617 -0.388373
0.14647 0.205164 0.710663 -0.512479 0.856103 -0.0667363
0.170212 0.18672 0.698465 -0.0719379 -0.993794 0.0848421
0.185816 0.175776 0.453205 0.381793 0.726922 -0.570805
-0.177398 -0.112099 0.456819 8.73309e-06 -0.00300977 0.999995
0.101629 -0.237216 0.40252 0.00292494 -0.984282 0.176577
-0.153893 0.216045 0.00797859 0.198957 -0.33031 -0.922665
-0.159235 -0.203211 0.409899 -0.00265527 0.863302 -0.504681
-0.197184 0.190224 0.739329 -0.999972 -0.00271637 -0.0069503
-0.191299 0.181784 0.46433 -0.38643 0.725131 -0.569962
-0.0917702 0.195055 0.747478 0.0190736 -0.995204 0.0959476
0.0172694 0.19119 0.628606 0.0132677 0.996185 -0.0862566
0.112376 0.19676 0.72054 0.0898705 0.9922 -0.0863819
-0.0594231 -0.0378111 0.456983 0.00251229 -0.00144189 0.999996
-0.0526428 0.141783 0.450915 -0.00467222 0.181427 -0.983393
-0.052356 -0.214065 0.376794 -0.00263188 0.881074 0.472972
-0.0597281 0.197626 0.712077 -0.0176923 0.996116 -0.0862579
-0.176048 0.0672443 0.0211951 0.922444 0.00348812 0.386114
-0.125082 0.186853 0.613011 -0.0953002 0.992382 -0.0780805
-0.174243 -0.0543831 0.0162143 0.925141 0.00349832 -0.379607
0.0382367 0.188319 0.598666 0.0132677 0.996185 -0.0862566
0.17856 -0.192666 0.012083 -0.166957 -0.116845 -0.979016
-0.00711071 -0.148187 0.456693 0.00125039 -0.00185662 0.999997
-0.0151679 0.195924 0.683287 -0.0176923 0.996116 -0.0862579
-0.173139 -0.101254 0.456852 8.73309e-06 -0.00300977 0.999995
-0.0523244 0.195034 0.739693 0.0179787 -0.995256 0.0956169
0.0534505 -0.223163 0.40949 -0.00257614 0.8632 -0.504856
0.193817 -0.231221 0.053283 0.924866 -0.374384 -0.0667768
0.101567 0.240498 0.0181941 -0.002749 0.925912 0.37773
0.142598 -0.209611 0.417688 -0.557234 0.715903 -0.420682
-0.197053 -0.101926 0.436843 -0.923931 0.00419765 -0.382535
0.125655 -0.211215 0.372008 -0.00280558 0.969069 0.246773
0.101259 0.039972 0.448278 -0.000378736 0.0111554 -0.999938
-0.176303 -0.157116 0.0102473 0.925141 0.00349832 -0.379607
0.0391823 0.0802468 0.448639 0.00141946 0.0104239 -0.999945
-0.0465259 0.193189 0.658135 -0.0176923 0.996116 -0.0862579
-0.0515538 0.18884 0.609037 -0.0191648 0.99604 -0.0868198
0.0825106 0.181082 0.596234 -0.0121206 -0.995312 0.0959495
0.101957 0.172411 0.509769 -0.0318872 -0.99488 0.0959019
0.109477 0.144528 0.451584 0.00389553 0.181312 -0.983418
0.00434786 0.185671 0.562879 0.0132677 0.996185 -0.0862566
-0.102708 0.196872 0.770647 0.0777233 -0.992372 0.09569
-0.149586 -0.232243 0.417263 0.00249089 -0.858518 0.512777
0.0810219 0.0535385 0.448416 0.00100218 0.0105586 -0.999944
0.180572 0.112826 0.0277917 -0.377053 -0.00104013 0.926191
0.0046328 -0.168305 0.456647 6.73202e-06 -0.00226541 0.999997
0.0175046 -0.096397 0.446767 0.00141946 0.0104239 -0.999945
0.0379317 0.19258 0.647814 0.0119135 0.996156 -0.0867783
0.139794 -0.216451 0.437127 0.00182845 -0.615296 0.788294
-0.198588 -0.0630257 0.445662 -0.923692 -0.00150812 0.383132
0.183831 0.136703 0.458933 -0.0080639 -0.173021 0.984885
-0.0632862 0.0372948 0.448227 -0.00148324 0.0104154 -0.999945
-0.0776048 -0.210991 0.441888 0.00178539 -0.615315 0.78828
0.117483 -0.163145 0.456658 6.73202e-06 -0.00226541 0.999997
-0.00409347 -0.21133 0.368583 -0.00296622 0.999986 0.00436537
0.174834 -0.220706 0.321753 -0.924887 0.380243 0
0.0686491 -0.173963 0.456074 0.000386197 -0.12996 0.991519
-0.0471397 -0.00824119 0.457003 0.00125039 -0.00185662 0.999997
-0.189082 0.191021 0.492217 -0.384682 0.919879 -0.0764369
-0.0702713 0.157178 0.457085 -0.0109627 0.514843 -0.857214
-0.0147087 0.196891 0.694357 -0.0176923 0.996116 -0.0862579
0.183845 0.199871 0.58266 0.0316055 0.996738 -0.0742617
0.17444 0.0190882 0.0225288 -0.921959 -0.00263141 0.387278
-0.00373238 0.194609 0.726134 0.0179787 -0.995256 0.0956169
0.19644 -0.0195227 0.0164669 0.923914 0.00265908 -0.382591
-0.0656058 -0.232932 0.415702 0.00249089 -0.858518 0.512777
0.0672237 -0.239257 0.391683 0.00285597 -0.984377 0.176052
-0.0776641 0.0370606 0.457137 0.00251229 -0.00144189 0.999996
0.061634 0.120484 0.449091 0.00141946 0.0104239 -0.999945
0.0934376 -0.0820392 0.456842 6.73202e-06 -0.00226541 0.999997
-0.191405 -0.230771 0.0436452 -0.375125 -0.865358 -0.332319
-0.184349 0.172585 0.557496 0.0376826 -0.995771 0.0837846
-0.0375199 0.0957852 0.457184 0.00125039 -0.00185662 0.999997
0.18245 0.112458 0.43172 0.00305038 0.0115606 -0.999929
-0.19658 0.18641 0.6539 -0.999972 -0.00271637 -0.0069503
-0.0450119 -0.0946923 0.456865 0.00251229 -0.00144189 0.999996
0.0243414 -0.0816174 0.446931 0.00141946 0.0104239 -0.999945
-0.070917 0.198441 0.77865 0.0179787 -0.995256 0.0956169
0.0170095 0.130776 0.457226 -0.00123717 -0.0018639 0.999997
0.171627 0.217627 0.805334 0.072437 0.993645 -0.0861545
0.0675605 0.173002 0.51025 -0.013216 -0.995331 0.0956147
0.00284208 0.179086 0.489486 0.0132001 0.984602 -0.17431
-0.0189235 -0.139636 0.456735 0.00251229 -0.00144189 0.999996
0.19441 0.0150657 0.0118258 0.921498 0.00281617 -0.388373
-0.168733 0.206356 0.668176 -0.037732 0.996294 -0.0772899
-0.0837919 -0.222007 0.433303 0.00178533 -0.615315 0.788279
-0.0684749 0.18418 0.630045 0.0190736 -0.995204 0.0959476
-0.0825454 0.123453 0.449153 -0.00148324 0.0104154 -0.999945
0.0371022 0.224307 0.810863 0.0124859 0.996185 -0.0863747
0.125977 0.183375 0.56516 0.0232313 0.996652 -0.0783863
0.180886 -0.23581 0.118833 -0.379339 -0.925258 0
-0.0980619 0.0668836 0.448552 0.000227563 0.0109777 -0.99994
0.111392 0.180922 0.601199 -0.0318872 -0.99488 0.0959019
0.115162 0.195524 0.709244 0.0898705 0.9922 -0.0863819
-0.00924905 0.201872 0.747653 -0.0176712 0.984645 -0.173674
-0.191399 0.199905 0.610791 -0.384682 0.919879 -0.0764369
0.174649 -0.171103 0.456408 0.000386197 -0.12996 0.991519
-0.0768419 -0.123652 0.446465 0.000227563 0.0109777 -0.99994
0.102628 -0.238595 0.394808 0.00285597 -0.984377 0.176052
0.0067504 -0.126666 0.446436 0.00141946 0.0104239 -0.999945
0.17485 -0.219739 0.0634684 -0.924861 0.374383 0.0668537
-0.190795 -0.212456 0.438193 -0.380184 -0.569151 0.729059
0.103425 -0.0179152 0.456987 6.73202e-06 -0.00226541 0.999997
0.172961 -0.164793 0.0164798 -0.924038 -0.00277399 -0.382291
0.15403 -0.0599736 0.456894 -0.00255885 -0.00301729 0.999992
0.0976564 0.148285 0.452229 0.00389553 0.181312 -0.983418
-0.196898 -0.219061 0.381195 -0.92481 0.380409 0.00403567
-0.105702 -0.216415 0.380875 -0.00263188 0.881074 0.472972
-0.0592712 0.190853 0.633828 -0.0191648 0.99604 -0.0868198
0.124224 0.197076 0.736493 0.0898705 0.9922 -0.0863819
0.145405 0.191548 0.544796 -0.518893 0.852186 -0.0672945
-0.0838827 0.167524 0.480579 0.0181464 -0.924687 0.380295
0.166522 0.079548 0.431291 0.00305038 0.0115606 -0.999929
-0.123991 0.190347 0.65609 -0.0953002 0.992382 -0.0780805
0.194268 0.182572 0.6222 0.924977 -0.379333 0.022899
0.0400437 0.191969 0.641087 0.0119135 0.996156 -0.0867783
-0.0969716 0.047051 0.4572 0.00251229 -0.00144189 0.999996
0.156489 0.192352 0.483061 -0.257777 0.951537 -0.167715
0.174485 -0.0284387 0.0118081 -0.924038 -0.00277399 -0.382291
-0.186707 0.200837 0.815088 0.00541126 -0.00393911 0.999978
0.149909 0.180193 0.606439 -0.0318872 -0.99488 0.0959019
0.0984995 -0.0867284 0.446865 -0.000378736 0.0111554 -0.999938
0.106326 -0.239177 0.360251 0 0 -1
0.0492565 -0.0598403 0.447184 -0.000378736 0.0111554 -0.999938
0.00312322 -0.0871054 0.456802 -0.00123717 -0.0018639 0.999997
-0.0262092 0.186294 0.643813 0.0179787 -0.995256 0.0956169
-0.0312535 -0.167669 0.456651 8.73309e-06 -0.00300977 0.999995
0.0309773 -0.216666 0.382104 -0.00262713 0.881074 0.472972
-0.182007 0.176806 0.0272269 0.376456 -0.0470174 0.92524
-0.0219083 0.199084 0.721163 -0.0176923 0.996116 -0.0862579
0.152435 0.185953 0.674407 -0.0719379 -0.993794 0.0848421
0.185919 -0.239746 0.373896 0.385964 -0.922506 0.00383067
-0.0507759 0.183399 0.546442 -0.0191648 0.99604 -0.0868198
0.102633 -0.223638 0.408428 -0.00257614 0.8632 -0.504856
-0.0691121 -0.216011 0.422321 -0.00255961 0.86322 -0.504821
-0.149174 -0.240895 0.378871 0.00296604 -0.999987 0.00415298
0.195341 0.202981 0.78451 0.999987 0.00269107 0.00443604
0.0242151 0.0696059 0.45712 -0.00123717 -0.0018639 0.999997
0.0547682 -0.225582 0.360251 0 0 -1
-0.0493793 0.189089 0.611411 -0.0191648 0.99604 -0.0868198
-0.0728958 -0.0580491 0.447187 0.000227563 0.0109777 -0.99994
-0.162836 0.016503 0.430547 -3.55809e-05 0.011548 -0.999933
-0.0504576 -0.219106 0.386196 -0.00263188 0.881074 0.472972
-0.172904 -0.210677 0.385906 -0.101773 0.994795 0.00500226
0.0771883 0.187598 0.663154 -0.0121206 -0.995312 0.0959495
-0.059651 -0.184606 0.443798 -0.00114079 0.369265 -0.929324
-0.155631 0.173121 0.55095 0.0376826 -0.995771 0.0837846
-0.165144 -0.0612217 0.456972 8.73309e-06 -0.00300977 0.999995
-0.033759 0.198123 0.76836 0.0179787 -0.995256 0.0956169
-0.190966 0.0208007 0.432644 -0.383435 0.0098368 -0.923515
0.0916708 -0.223379 0.394945 -0.00262713 0.881074 0.472972
0.00614028 0.19231 0.702754 -0.013216 -0.995331 0.0956147
0.129628 -0.240057 0.38361 0.00290126 -0.999987 0.0041524
-0.196063 0.0524947 0.452208 -0.923737 -0.00151146 0.383024
0.0284609 -0.23641 0.408221 0.00292494 -0.984282 0.176577
-0.129161 -0.219567 0.360251 0 0 -1
0.0102307 -0.223142 0.409744 -0.00249 0.862954 -0.505276
-0.122961 0.0402308 0.448273 -0.00108429 0.0111131 -0.999938
-0.0113478 0.190331 0.683038 0.0179787 -0.995256 0.0956169
-0.11152 0.174408 0.544839 0.0777233 -0.992372 0.09569
-0.196906 0.166381 0.470831 -0.922971 -0.299685 0.241481
0.030552 -0.0494744 0.447275 0.00141946 0.0104239 -0.999945
-0.115775 0.204126 0.756667 -0.0774303 0.779136 -0.622055
-0.18215 -0.156224 0.0277776 0.379367 0.00142268 0.925245
0.18071 0.00950205 0.457172 -0.00255885 -0.00301729 0.999992
-0.0595596 -0.0625082 0.447141 0.000227563 0.0109777 -0.99994
-0.195845 -0.00773726 0.452495 -0.923737 -0.00151146 0.383024
-0.0142489 0.18396 0.617266 0.0179787 -0.995256 0.0956169
0.192299 -0.129154 0.00797486 0.381945 0.0010639 -0.924185
0.16038 -0.024451 0.457017 -0.00255885 -0.00301729 0.999992
0.19448 0.204542 0.733668 0.998172 0.0596466 -0.0097434
0.0886443 0.098408 0.448898 0.00100218 0.0105586 -0.999944
0.151363 0.18837 0.701806 -0.0719379 -0.993794 0.0848421
-0.166871 -0.211787 0.362859 -0.00292795 0.999989 0.00370616
-0.120008 -0.240798 0.381414 0.00296623 -0.999987 0.00415434
-0.173305 0.206707 0.676271 -0.0619769 0.995262 -0.0749103
0.022877 0.199032 0.719804 0.0119135 0.996156 -0.0867783
-0.103384 0.182556 0.622729 0.0777233 -0.992372 0.09569
0.0498041 0.190783 0.628808 0.0119135 0.996156 -0.0867783
-0.174351 0.134428 0.45862 0.00890284 -0.172986 0.984884
-0.0250794 -0.112668 0.446598 0.000227563 0.0109777 -0.99994
-0.115101 -0.0910822 0.446814 0.000227563 0.0109777 -0.99994
-0.196231 0.185359 0.686936 -0.37954 -0.922667 0.0680779
0.0294349 0.193903 0.661805 0.0132677 0.996185 -0.0862566
-0.178048 -0.21729 0.0799823 0.375582 0.926789 0
0.07406 0.0966407 0.457232 -0.00123717 -0.0018639 0.999997
0.180749 -0.21498 0.340757 -0.386736 0.922191 0
0.0701785 0.0391842 0.457117 6.73202e-06 -0.00226541 0.999997
0.0126415 -0.235081 0.360251 0 0 -1
0.0264304 0.223747 0.02725 0.00111714 -0.378284 0.925689
-0.0864726 0.199334 0.790876 0.0179787 -0.995256 0.0956169
0.0873497 0.200782 0.74672 0.0119628 0.985091 -0.171616
-0.0553772 0.183204 0.545219 -0.0191648 0.99604 -0.0868198
-0.0318343 0.221387 0.778023 -0.018459 0.996092 -0.0863725
0.0959753 0.232967 0.00661231 -0.00110783 0.378776 -0.925488
