0.156372 -0.0204409 0.375532 0.0512468 0.00199173 -0.998684
0.101999 0.0149733 0.137156 0.315628 0.948883 0.000246632
0.053241 0.161564 0.482085 -0.0252579 -0.99447 -0.101936
0.0277167 -0.0703467 0.3711 0.00490104 -1.87264e-06 -0.999988
0.177213 0.0607767 0.382613 0.591341 0.209875 -0.778632
0.14041 0.184621 0.694805 -0.151076 -0.93643 0.316662
-0.106219 0.218352 0.756253 0.0183011 -0.849199 0.527755
0.0214074 0.107979 0.426044 -0.00570899 0.0788957 0.996867
0.0348505 0.101715 0.129681 -0.804572 0.593856 6.67694e-05
-0.102937 0.209157 0.561236 -0.168999 0.966183 -0.194757
0.183752 0.0790941 0.367673 1 0 0
0.144326 0.251739 0.0401948 -0.0120103 2.10897e-05 0.999928
-0.0397001 0.229431 0.554178 0.0148892 0.999888 -0.00144473
-0.14015 -0.0767881 0.436157 0.0435689 -0.054203 0.997579
-0.151941 0.261179 0.068735 0.808417 0.588611 -0.000124335
-0.0475319 0.0195827 0.433188 0.0251127 0.0790028 0.996558
0.204743 -0.0350803 0.40482 0.763786 -0.0656817 -0.642119
-0.10968 0.012493 0.134297 -0.314825 0.94915 0.000233566
-0.0961804 0.241623 0.663457 0.075026 -0.795435 0.601377
0.0940623 -0.00270584 0.435654 -0.0483285 0.07696 0.995862
0.0905833 0.209041 0.323306 -0.403428 0.329445 -0.853646
-0.0868181 0.0969753 0.352107 -0.381509 0.000911826 -0.924365
0.0999149 0.171907 0.306292 0.403899 0.329144 -0.85354
-0.0126053 0.0906665 0.284555 -0.382104 -0.836307 -0.393175
-0.0392091 0.203759 0.508912 -0.0401062 0.979493 -0.197444
0.0118079 0.0700976 0.349146 3.04765e-07 0.000824058 -1
0.128688 0.182774 0.683751 -0.151076 -0.93643 0.316662
0.0582853 -0.0678786 0.294664 -0.000319037 -0.147614 -0.989045
0.0678285 -0.167247 0.37318 -0.0380692 -0.0743304 -0.996507
0.206369 -0.0138205 0.437474 0.449552 0.10619 0.88692
-0.124414 0.165395 0.600184 0.162909 -0.96718 0.194995
0.00598383 0.0302121 0.305482 7.76863e-05 0.147711 0.989031
0.0456885 0.128973 0.349194 3.04765e-07 0.000824058 -1
-0.00119651 -0.211444 0.0975203 -0.429663 -0.281554 0.857973
0.154831 -0.0140375 0.0992853 -0.333493 -0.394966 -0.856028
0.0632449 -0.00736202 0.311094 8.42755e-05 0.147854 0.989009
-0.0423915 0.201921 0.713685 0.0448655 -0.942551 0.331035
0.0536098 -0.0118993 0.37144 0.0175957 0.00730737 -0.999818
-0.0719668 -0.0644627 0.433804 0.0124148 -0.067965 0.99761
0.0703656 -0.144004 0.366157 -0.000396299 -0.971911 -0.235347
0.0869849 0.234247 0.673446 0.0563659 0.978712 -0.197348
0.00775046 0.0203301 0.0635906 0.228888 -0.865253 -0.446036
-0.0215503 0.232479 0.6478 -0.0402176 0.979485 -0.197463
-0.176754 -0.0560865 0.377927 -0.619268 -0.0466587 -0.783792
0.00916879 -0.0977668 0.331419 0.924275 -0.170425 -0.341573
0.0640723 -0.108645 0.334777 0 0.799993 -0.600009
0.0393758 0.0262603 0.373276 3.36858e-07 0.000826167 1
0.195246 0.0114369 0.395947 0.760686 0.073617 -0.644932
0.126841 0.220955 0.644228 0.251887 0.948659 -0.191309
0.0815999 -0.0364506 0.43572 -0.0124524 -0.0759498 0.997034
-0.0273216 0.182517 0.641331 0.022921 -0.980006 0.197643
0.00476858 0.219766 0.754886 -0.0285107 -0.855378 0.517219
-0.00710438 0.165262 0.405005 -0.0631804 0.917875 0.391809
0.0107464 0.0810973 0.297879 -2.91901e-05 0.147789 0.989019
0.083609 0.228504 0.541212 -0.217674 0.898754 -0.380603
-0.0237435 0.152371 0.381304 -0.0911188 0.860545 -0.501158
0.0295029 -0.0799998 0.431818 -0.00770933 -0.0756767 0.997103
-0.13823 0.242353 0.0937854 0.808417 0.588611 -0.000124335
-0.113269 0.224791 0.552093 -0.969334 0.245556 -0.00972855
-0.0777747 0.152286 0.105583 0.501867 0.123408 -0.856096
0.0129261 0.0552524 0.0701121 0 0 -1
-0.111066 0.175328 0.322561 -0.993311 0.0418188 -0.107627
0.264697 -0.0420889 0.0389482 -1 0 0
0.00258862 -0.114592 0.33612 0.383743 -0.411638 -0.826617
-0.0180734 0.0270171 0.0892493 -0.808794 -0.588092 0
-0.0050227 -0.129633 0.348981 2.5826e-07 0.000824031 -1
-0.165701 0.190767 0.562192 -0.386749 0.886373 -0.254496
-0.00443374 0.219855 0.581693 -0.0402176 0.979485 -0.197463
0.0019058 0.13031 0.377115 0.0465849 0.0770917 -0.995935
0.0891992 0.207782 0.503509 -0.00181215 -0.999945 -0.0102917
0.148195 0.0910856 0.431033 -0.0483285 0.07696 0.995862
0.164195 0.121174 0.41315 0.499235 0.866426 -0.0083241
0.0143187 -0.0872665 0.349016 2.5826e-07 0.000824031 -1
0.0734243 0.000497494 0.284443 -5.64861e-05 -0.147893 -0.989003
-0.111422 0.143577 0.328046 -0.926765 -0.134835 0.35061
0.0660959 0.0482297 0.373258 2.95262e-07 0.000826203 1
0.0717892 -0.136266 0.349683 1 -0.000469251 0.000237596
-0.163713 0.260332 0.052671 1 0 0
0.116023 0.203608 0.113903 -0.166151 0.497704 0.851284
-0.0507489 -0.121422 0.328127 0.999975 0.00417973 -0.00578957
-0.145204 0.240062 4.733e-05 0.012013 -4.91012e-06 -0.999928
0.00929895 -0.0127155 0.435503 -0.00204632 0.0778378 0.996964
-0.0529134 0.164313 0.457244 -0.00381862 -0.99501 -0.0997031
0.190435 0.000591412 0.389034 0.760686 0.073617 -0.644932
0.049277 0.188775 0.468983 0.106138 0.890629 -0.44217
-0.0320007 -0.129494 0.373405 2.95262e-07 0.000826203 1
-0.140307 0.0748556 0.374968 -0.0345197 -0.00374716 -0.999397
0.12703 -0.156677 0.429301 -0.0557606 -0.0719182 0.995851
-0.0606328 0.0591776 0.373249 3.36858e-07 0.000826167 1
-0.00780698 0.0317579 0.247766 -0.894579 -0.446909 0
0.210999 0.163867 0.620682 0.84416 0.498644 -0.196845
-0.0383192 -0.10512 0.430015 0.00184022 -0.075342 0.997156
-0.157056 0.264547 0.0504673 0 0 -1
0.0119602 0.0097317 0.308543 8.42755e-05 0.147854 0.989009
0.0392669 0.144734 0.30154 1.39869e-05 0.0342951 -0.999412
-0.00410703 0.17423 0.447858 -0.0632643 -0.413736 -0.908196
-0.0641938 0.259244 0.679999 0.0224402 -0.506693 0.861834
0.0692944 0.148672 0.421183 0.0370368 0.388675 0.92063
-0.019754 0.230192 0.773818 0.0506363 -0.854641 0.516744
0.152327 0.0950024 0.430931 -0.0483285 0.07696 0.995862
0.0884059 0.228224 0.499681 -0.338513 0.940543 0.0280643
0.206272 -0.00767876 0.436788 0.449552 0.10619 0.88692
0.133167 -0.131374 0.374415 0.0585395 -0.0134356 -0.998195
0.100419 -0.026386 0.312001 0.000174103 0.146992 0.989138
0.129467 0.160945 0.480973 0.334031 -0.0959215 -0.937668
-0.202359 0.171184 0.676178 -0.184135 -0.871113 0.455254
0.142827 0.153517 0.515213 -0.11417 -0.993439 -0.00666834
0.12849 0.0614495 0.432367 -0.0483285 0.07696 0.995862
0.0729198 0.0274533 0.432819 -0.0126347 0.0783879 0.996843
-0.175079 -0.0484483 0.376434 -0.057173 0.0015444 -0.998363
-0.0630465 0.209048 0.737864 0.0646868 -0.941697 0.330186
-0.0938792 0.10549 0.313372 -0.000130245 -0.359809 0.933026
-0.110517 0.2343 0.385307 -0.988061 0.152128 0.0243328
0.116052 -0.0444454 0.37331 0.0567503 0.00606488 -0.99837
-0.0661819 0.0813698 0.366537 0.00133103 -1.2064e-06 0.999999
0.0735327 0.0618043 0.430184 -0.0257299 0.0752278 0.996834
0.162531 -0.00682875 0.100169 -0.0597276 0.484818 -0.872573
0.266214 -0.0419639 0.0584629 0.999808 0.00417635 0.0191592
-0.131818 0.0647868 0.374713 -0.0345197 -0.00374716 -0.999397
-0.138576 0.0991829 0.429949 0.0482437 0.0769129 0.99587
-0.134818 -0.143196 0.43097 0.0635756 -0.0726696 0.995328
-0.0773231 -0.0562041 0.371695 -0.00480295 0.0077148 -0.999959
0.0688674 0.222206 0.608555 0.0563659 0.978712 -0.197348
-0.0906463 0.202534 0.517718 -0.168999 0.966183 -0.194757
0.00806783 0.0598559 0.0905947 0.308337 0.951277 0
0.100925 0.240495 0.715253 0.228778 0.970229 0.0794711
-0.052559 -0.0563773 0.349042 2.5826e-07 0.000824031 -1
0.0244295 -0.161061 0.374377 -0.0380692 -0.0743304 -0.996507
0.0724791 -0.105127 0.31128 1 -0.000447686 -6.67898e-05
-0.102278 0.18696 0.684313 0.0755276 -0.938225 0.337682
-0.0340224 0.0917035 0.162865 0.258537 0.541692 0.79983
-0.188907 -0.019335 0.115038 -0.422032 0.341354 0.839861
0.100731 0.20102 0.317905 0.403899 0.329144 -0.85354
0.0970584 0.211604 0.580796 -0.0357983 -0.980461 0.193428
-0.0472521 0.225767 0.543945 0.0185007 -0.0495745 -0.998599
-0.184211 0.0967564 0.415608 -0.787053 0.615474 -0.0417086
0.043771 -0.134778 0.371903 0.00516497 -0.0222583 -0.999739
0.172176 -0.105311 0.378959 0.627715 -0.159473 -0.761934
-0.0779091 0.210684 0.539566 0.799588 -0.0272458 -0.599931
-0.0274509 -0.0678915 0.371363 -0.0145545 5.56114e-06 -0.999894
0.0664937 -0.100789 0.349005 3.04765e-07 0.000824058 -1
0.176574 0.0698667 0.37688 -0.0231625 0.381291 0.924165
0.0247256 -0.057496 0.371085 0.00490104 -1.87264e-06 -0.999988
-0.0852805 0.224992 0.498302 0.99151 0.129984 -0.00352568
0.0268313 0.118241 0.37698 -0.0559729 0.00965829 -0.998386
-0.0197938 0.0302625 0.275477 -0.0668136 0.0487682 -0.996573
-0.0208218 0.0519534 0.176854 -0.817466 0.351866 0.456003
0.141783 0.204393 0.73887 -0.107806 -0.811046 0.574963
0.00206021 0.16861 0.569434 -0.0234766 -0.979993 0.197644
0.0228418 0.0454293 0.166714 0.784116 0.620614 0
0.00812355 -0.0999525 0.430221 -0.00189348 -0.0769956 0.99703
-0.121843 0.19573 0.512827 -0.386749 0.886373 -0.254496
0.0428868 -0.0591857 0.304058 -0.858942 -0.506457 0.0756323
0.261301 -0.0382591 0.0610375 0.315572 0.948613 -0.0233852
-0.0147195 0.0842283 0.339749 -0.923195 0.337778 0.183351
0.0847 0.0030958 0.143595 -0.302828 -0.953045 -0.000157045
0.00434909 0.0709588 0.428877 -0.00570899 0.0788957 0.996867
0.241797 -0.0383334 0.0163765 -0.0105214 0.875977 -0.482238
-0.0853808 0.230083 0.599122 0.97633 0.214656 -0.0265154
0.00975351 -0.117762 0.350559 0.315198 -0.898295 0.306133
-0.130177 0.0172809 0.435867 0.0482437 0.0769129 0.99587
-0.0246426 -0.0304346 0.349063 2.5826e-07 0.000824031 -1
-0.0980357 0.231283 0.539074 0.19223 0.931559 -0.308619
-0.0142638 -0.10661 0.371333 -0.00583169 -0.0743951 -0.997212
-0.0934235 -0.198121 0.41773 -0.153785 -0.914249 0.374831
-0.21628 -0.0366655 0.102424 -0.157913 -0.500336 0.851309
-0.0536857 -0.0799997 0.432294 0.0360222 -0.0773146 0.996356
0.0149622 0.0667729 0.300019 -2.91901e-05 0.147789 0.989019
0.0836825 0.132312 0.316622 -0.992865 0.0432498 -0.111122
-0.190701 -0.0677378 0.438517 0.0337862 -0.0398994 0.998632
0.123161 0.128945 0.380812 0.22453 0.586087 -0.778517
0.0877958 0.210186 0.445067 -0.000699342 -0.996689 -0.0813013
0.0423344 0.0693621 0.429163 -0.00204632 0.0778378 0.996964
-0.0312116 0.0796172 0.168065 -0.607165 -0.0994779 0.788324
0.15708 0.0893801 0.376707 0.528573 0.342823 -0.776584
-0.183117 0.18845 0.712334 -0.223751 -0.723633 0.65291
0.191914 0.185232 0.704769 0.750778 0.628817 0.202292
0.187586 0.174146 0.68481 -0.11824 -0.922829 0.366614
-0.0689316 0.0729444 0.373237 3.36858e-07 0.000826167 1
0.093298 0.125961 0.289958 -0.403826 0.329421 -0.853467
0.138264 0.0572202 0.374159 -0.000107218 -0.380892 0.92462
-0.161301 -0.135895 0.378625 -0.575502 -0.296416 -0.762191
0.0418653 0.0167057 0.147776 -0.302828 -0.953045 -0.000157045
0.0104029 -0.0810377 0.338216 0.924478 0.16955 0.341458
0.182792 0.167433 0.540337 0.745517 0.467313 -0.475208
0.0386952 -0.101839 0.349004 2.5826e-07 0.000824031 -1
0.0150391 -0.0343739 0.435298 -0.00189348 -0.0769956 0.99703
0.100113 0.0882315 0.291596 -0.000218451 0.978259 -0.207389
0.123214 0.206328 0.566919 0.251887 0.948659 -0.191309
-0.168414 0.201512 0.616643 -0.381425 0.906154 -0.182757
-0.206218 -0.00636368 0.4366 -0.449519 0.110005 0.886471
-0.169691 -0.116557 0.435142 0.0635756 -0.0726696 0.995328
0.0964379 0.102883 0.279565 -0.403826 0.329421 -0.853467
0.11159 0.222197 0.432137 0.98827 0.152194 0.0126013
-0.173656 -0.0187472 0.120862 -0.157913 -0.500336 0.851309
0.157416 -0.0464927 0.437063 0.00266784 0.013361 0.999907
0.0241691 0.034667 0.371262 0.0175957 0.00730737 -0.999818
-0.0531663 0.161873 0.40509 -0.151586 0.917183 0.368507
-0.0959476 0.178046 0.308695 0.40391 0.329143 -0.853535
0.110906 0.198617 0.328418 0.993396 0.0409622 -0.107179
0.0974199 0.125731 0.425976 -0.0257299 0.0752278 0.996834
0.0493314 0.138172 0.307126 -0.000290433 -0.815523 -0.578724
0.0836682 -0.184287 0.425267 -0.0373819 -0.0702521 0.996829
0.183158 0.259191 0.0189503 0.991244 0.115675 -0.0636803
0.104051 0.106959 0.37352 0.0530313 0.0062426 -0.998573
-0.0249462 0.0320736 0.115422 -0.652113 0.634127 -0.41549
0.0433709 -0.166526 0.374061 -0.0380692 -0.0743304 -0.996507
-0.082953 0.228711 0.540706 0.19223 0.931559 -0.308619
0.0992799 -0.00316632 0.357297 0.382365 -0.00032743 -0.924011
-0.193398 0.150323 0.551075 -0.205737 -0.974884 -0.0852869
0.0660655 -0.0218977 0.313267 8.12095e-05 0.147885 0.989005
0.212289 -0.0214478 0.425895 0.991743 -0.108065 0.0690508
-0.0153767 0.0870045 0.373226 3.36858e-07 0.000826167 1
-0.000456974 0.139646 0.349202 1.63436e-07 0.000441916 -1
0.161139 0.0112979 0.375945 0.04808 0.00356403 -0.998837
0.107929 0.0504865 0.432216 -0.0483285 0.07696 0.995862
-0.134622 0.136379 0.422797 -0.0707926 0.415659 0.906761
0.110184 0.0754342 0.374283 0.00010673 0.381142 0.924517
0.24072 -0.04248 0.0313878 -0.0105214 0.875976 0.482239
0.0571877 -0.144163 0.366836 -0.000396299 -0.971911 -0.235347
-0.0200076 0.143322 0.372065 0.000295541 0.816688 0.577079
-0.0317082 0.0683032 0.155977 -0.812924 -0.58237 -5.01038e-05
0.116423 0.0821031 0.430185 -0.0483285 0.07696 0.995862
0.00819691 -0.238302 0.0284613 0.00035703 0.875866 0.482555
0.0631315 -0.141576 0.356152 -0.000304526 -0.971652 -0.236414
0.082215 -0.101123 0.431073 -0.0373819 -0.0702521 0.996829
-0.16751 0.0656237 0.370487 0.000372779 -3.21413e-07 1
-0.116629 0.0971968 0.429039 0.0482437 0.0769129 0.99587
-0.143742 -0.0748806 0.316864 0.694117 -0.711842 0.107157
-0.0162544 0.13603 0.373187 2.7833e-07 0.000769128 1
-0.00407079 -0.0718572 0.373357 2.95262e-07 0.000826203 1
-0.169225 0.23591 0.0161003 -0.000356655 -0.874924 -0.48426
0.0792509 -0.1801 0.373703 -0.0380692 -0.0743304 -0.996507
0.0109743 -0.248104 0.00275602 -1 0.000446588 -0.000245977
-0.00166684 -0.17384 0.0872582 -0.44177 0.2071 -0.872897
-0.153257 0.066573 0.433178 0.0482437 0.0769129 0.99587
-0.0827089 0.21195 0.533412 0.702948 0.0546255 -0.70914
-0.201522 0.180212 0.645216 -0.853162 0.521307 -0.0187818
-0.0216435 0.231458 0.64275 -0.0402176 0.979485 -0.197463
-0.0332198 0.0704144 0.142541 -0.812924 -0.58237 -5.01038e-05
-0.0636234 0.146215 0.301589 1.22243e-05 0.0343235 -0.999411
0.0922717 -0.0108224 0.304892 -0.999949 -0.0100564 0.00105206
0.0449923 0.161408 0.492027 -0.0444976 -0.997084 0.0620009
0.13855 0.233302 0.00668326 -0.991205 -0.115221 -0.0650897
-0.0842725 0.21564 0.397547 0.928113 -0.367443 -0.0599315
-0.0288284 0.165455 0.552091 0.0195026 -0.997914 0.061533
-0.151001 0.223509 0.709937 -0.383631 0.91598 -0.117505
0.0841849 0.219063 0.597345 0.0563659 0.978712 -0.197348
-0.0907857 0.150772 0.11479 -0.812924 -0.58237 -5.01038e-05
0.165765 -0.0422342 0.310895 -0.000189872 -0.146858 -0.989157
-0.0475355 0.133602 0.424159 0.00583029 0.0780269 0.996934
-0.196949 0.063668 0.404139 -0.719998 0.264905 -0.641426
0.00394049 -0.182785 0.0864895 0.479163 0.194986 -0.855794
0.161475 0.108193 0.389663 0.688182 0.457889 -0.562799
0.0659897 0.229744 0.553087 -0.0106596 0.999941 -0.0022811
-0.0225675 -0.246282 0.00630185 -0.991735 0.000445673 -0.128305
-0.0265248 0.0736062 0.279045 -0.675366 0.0216106 -0.737166
0.143459 -0.00238693 0.103943 -0.0597276 0.484818 -0.872573
-0.0498174 0.191928 0.686444 0.0646868 -0.941697 0.330186
0.0448719 0.163901 0.305778 0.000133951 0.37611 -0.926575
-0.0618359 -0.13671 0.349939 0 0 1
0.145075 0.120938 0.385775 0.482482 0.72298 -0.494481
-0.00761349 -0.073329 0.373358 2.95262e-07 0.000826203 1
0.0244935 0.0195731 0.276792 -8.5274e-05 -0.240941 -0.97054
-0.187573 0.189565 0.612779 -0.656447 0.739483 -0.149142
0.110316 0.218728 0.615326 0.169656 0.966056 -0.194813
-0.100955 0.0150748 0.3579 -0.38985 -0.000194636 -0.920879
0.242097 -0.0382849 0.0237975 -0.0105214 0.875976 0.482239
0.0874598 0.176686 0.312296 -0.403428 0.329445 -0.853646
0.270416 -0.064106 0.00254552 -1 0.000451911 -0.000248393
0.0631382 -0.0924443 0.349012 3.04765e-07 0.000824058 -1
0.00134815 -0.0699997 0.432521 -0.00189348 -0.0769956 0.99703
0.108671 0.150213 0.362247 0.000295541 0.816688 0.577079
-0.139046 -0.0245039 0.305401 -0.694119 0.711944 -0.106469
-0.104265 0.0482719 0.359294 -0.38985 -0.000194636 -0.920879
-0.180992 0.0257594 0.382813 -0.616641 0.0583165 -0.785082
-0.050483 -0.0825237 0.303846 1 -0.000562739 8.43502e-05
0.0807438 0.176075 0.627432 -0.0906961 -0.976228 0.196856
-0.0726174 0.154524 0.39591 -0.17014 0.817489 -0.55024
-0.0946872 0.0692762 0.355327 -0.381509 0.000911826 -0.924365
0.0362011 -0.0139275 0.371141 0.00490104 -1.87264e-06 -0.999988
0.109152 -0.0184886 0.372881 0.999969 -0.000397679 -0.00791023
-0.0073862 0.0607675 0.0858825 -0.307627 0.950537 -0.0429457
-0.09578 -0.0402877 0.372163 -0.053009 0.00622938 -0.998575
-0.00813613 0.0103635 0.349097 2.5826e-07 0.000824031 -1
-0.125098 -0.102731 0.373566 -0.0587911 -0.015992 -0.998142
0.0630307 -0.0245432 0.436395 -0.0124524 -0.0759498 0.997034
0.184426 0.247653 0.0223191 0.991704 -0.00179722 0.128527
0.100208 0.0280047 0.373274 2.95262e-07 0.000826203 1
0.232265 -0.0371788 0.0994767 0.0715982 -0.614138 0.785944
0.248344 -0.042481 0.0099953 1 0 0
0.0329963 -0.0376002 0.349057 3.04765e-07 0.000824058 -1
-0.00756868 -0.178858 0.0916222 -0.99998 -0.00626142 -0.000227858
-0.00735255 0.117223 0.373201 3.13518e-07 0.000768923 1
0.0834348 0.110761 0.310448 -0.992865 0.0432498 -0.111122
-0.00156421 0.0235954 0.0169284 -0.257467 -0.965042 -0.0490324
0.113149 0.188034 0.691893 -0.151076 -0.93643 0.316662
0.138467 0.26633 0.0202939 -0.991037 0.117 0.0644682
-0.136835 0.13876 0.410628 -0.485768 0.864601 0.128428
0.0535967 -0.117568 0.314656 0 -0.833051 -0.553196
0.0598003 -0.163774 0.425818 -0.0373819 -0.0702521 0.996829
0.15375 0.238038 0.0781738 0.809018 -0.587784 -0.000340957
0.0470724 -0.0758766 0.371195 0.00490104 -1.87264e-06 -0.999988
-0.163513 -0.0218206 0.118812 0.302181 -0.953251 -0.000318667
-0.0126032 0.0804241 0.31822 -0.923988 -0.352852 -0.147449
0.0894908 0.136647 0.309256 -0.000290433 -0.815523 -0.578724
0.00700262 -0.0958259 0.370998 0.00490104 -1.87264e-06 -0.999988
-0.149414 0.109602 0.380499 -0.53252 0.345991 -0.772472
-0.0626826 0.118163 0.373638 0.0389093 0.07712 -0.996262
0.196314 -0.116388 0.41181 0.932551 -0.355556 -0.0626797
0.149258 0.218277 0.664427 0.384624 0.91656 -0.109467
0.0374953 0.163728 0.523949 -0.0444976 -0.997084 0.0620009
-0.0198357 -0.0297659 0.435675 0.00184022 -0.075342 0.997156
0.102604 0.218513 0.615215 -0.00528642 -0.978091 0.208109
0.0468689 -0.0166602 0.349075 3.04765e-07 0.000824058 -1
0.0962335 0.133337 0.327341 -0.000582247 -0.978093 0.208166
0.0617181 0.161612 0.479519 -0.0252579 -0.99447 -0.101936
0.0767057 0.0362369 0.349118 3.04765e-07 0.000824058 -1
0.110157 0.0712882 0.27915 0.988758 0.00953407 -0.149219
0.022479 0.266676 0.677529 0.0536505 0.865766 0.497566
0.0105418 0.0517434 0.0701121 0 0 -1
-0.135401 0.182641 0.685559 0.148215 -0.930192 0.335821
0.110699 0.231429 0.620867 0.97312 0.227829 -0.0336394
-0.0739146 -0.0366315 0.435724 0.0124148 -0.067965 0.99761
0.00142414 0.123227 0.292915 0.383192 0.83014 0.405008
0.109114 0.0579028 0.362193 1 -3.8076e-05 -9.22005e-06
0.111899 0.215496 0.402037 0.926637 -0.370986 -0.0609402
0.1414 0.0632786 0.376655 -0.000106659 -0.380889 0.924621
-0.0885456 0.0637802 0.366567 0.00133089 -1.66326e-06 0.999999
-0.0478516 0.0438154 0.373261 3.36858e-07 0.000826167 1
-0.125372 0.224749 0.0979697 0.805067 0.593184 -0.000214273
-0.0139426 -0.211355 0.393667 -0.0883321 -0.952211 -0.29239
0.123201 0.192635 0.505456 0.331954 0.841836 -0.425582
-0.0584425 0.177873 0.312664 0.00027488 0.771684 -0.636007
-0.127005 -0.0043699 0.374045 -0.053009 0.00622938 -0.998575
0.102288 0.160503 0.544237 -0.0750136 -0.995686 0.0546105
0.154726 0.153282 0.545486 -0.146615 -0.987759 0.0532553
0.100918 0.038534 0.278757 0 -0.147641 -0.989041
0.101642 0.253637 0.660589 0.2786 0.84439 -0.457589
0.270243 -0.0817491 0.0217084 0.000316623 0.966374 -0.257139
0.063375 -0.0369467 0.371429 0.0175957 0.00730737 -0.999818
-0.067659 0.0145642 0.433925 0.0126931 0.0741973 0.997163
0.0286365 0.183275 0.64531 -0.0235517 -0.979997 0.197616
0.185773 0.0768965 0.398696 0.70119 0.32763 -0.633239
0.0728831 0.226322 0.630118 0.0563659 0.978712 -0.197348
0.153321 -0.0403461 0.375336 0.0512468 0.00199173 -0.998684
-0.00394507 -0.0104872 0.373306 3.36858e-07 0.000826167 1
-0.0432375 0.0633095 0.373245 3.36858e-07 0.000826167 1
0.0543852 -0.0924839 0.300007 0.0722274 -0.12294 -0.989782
-0.0677965 -0.00268807 0.3733 3.36858e-07 0.000826167 1
0.0546947 0.211438 0.74318 -0.062616 -0.937885 0.341249
0.0300023 0.167841 0.451828 0.0410486 -0.41431 -0.90921
0.0846212 -0.134193 0.351051 0.389919 0.000605262 -0.920849
-0.137451 -0.01371 0.438089 0.0345125 0.0597809 0.997615
0.0637123 -0.126573 0.371823 0.00516497 -0.0222583 -0.999739
0.0375029 -0.186754 0.423777 -0.00770933 -0.0756767 0.997103
-0.172188 -0.0799338 0.316508 -2.78162e-05 -0.146833 -0.989161
0.0166559 -0.270039 0.0273264 -0.000481673 -0.861126 0.508391
-0.15714 0.186382 0.705516 0.148215 -0.930192 0.335821
0.0165294 0.0986127 0.280555 0.88554 -0.414872 -0.209045
0.142849 0.0869333 0.375167 0.027933 -0.00440339 -0.9996
-0.137268 -0.156629 0.430145 0.0635756 -0.0726696 0.995328
-0.0362838 -0.111468 0.37339 2.95262e-07 0.000826203 1
0.0625376 -0.0950336 0.373376 2.95262e-07 0.000826203 1
0.267496 -0.0346668 0.0261144 0.000306892 0.96637 0.257154
0.163332 0.185932 0.706653 -0.11824 -0.922829 0.366614
0.10378 0.0804575 0.296706 0.741316 0.0992628 0.663775
-0.0515321 0.210637 0.740141 0.0646868 -0.941697 0.330186
0.096439 0.210358 0.561735 0.169608 0.966066 -0.194808
-0.0958531 0.237406 0.657839 0.075026 -0.795435 0.601377
0.175075 0.207424 0.663762 0.372901 0.919555 -0.123948
-0.243334 -0.0374786 0.0302477 0.992614 0.0243891 -0.118838
-0.107429 0.0825832 0.360626 -0.38985 -0.000194636 -0.920879
0.0195605 0.00778776 0.308833 8.42755e-05 0.147854 0.989009
0.166819 0.0962846 0.386509 0.688182 0.457889 -0.562799
-0.165083 -0.0655724 0.314376 -2.78162e-05 -0.146833 -0.989161
-0.056253 -0.102761 0.301372 0.72715 -0.101655 -0.678911
-0.020553 0.121666 0.424935 0.00583029 0.0780269 0.996934
-0.1041 0.132052 0.292944 -0.403599 0.329457 -0.853561
-0.282171 -0.0630443 0.0086313 -0.991668 0.000450751 -0.128819
0.0513421 0.0126313 0.308106 7.41293e-05 0.147836 0.989012
-0.0217077 0.156941 0.351395 0.000316325 0.855102 0.518459
-0.0109519 0.247412 0.719712 -0.0402176 0.979485 -0.197463
0.081951 0.0620358 0.287158 0.00281274 0.984825 -0.173529
0.0432391 -0.0568671 0.315448 -0.63556 -0.27519 0.721342
0.00855757 -0.0262904 0.157137 0.999974 -0.00714659 9.1394e-05
-0.0825416 0.157732 0.350126 -0.000920465 0.85643 0.516262
-0.0153132 -0.264045 0.0348073 0.00024154 0.862356 -0.506302
-0.266235 -0.0451174 0.0669485 -0.994072 -0.107135 0.0185249
0.0428568 0.232972 0.654673 0.04089 0.979461 -0.197443
-0.275807 -0.0641496 6.49201e-05 -0.0120141 0 -0.999928
-0.103079 0.194495 0.114261 0.80503 0.593235 0.000158314
-0.0293652 0.0391251 0.165323 -0.314825 0.94915 0.000233566
-0.0273814 0.132759 0.376146 0.0389093 0.07712 -0.996262
-0.0330485 0.143551 0.37676 0.0389093 0.07712 -0.996262
0.0519727 -0.132658 0.371898 0.00516497 -0.0222583 -0.999739
0.0592416 0.192047 0.68917 -0.0771687 -0.941004 0.329479
0.0556182 -0.00116304 0.349087 3.04765e-07 0.000824058 -1
-0.100269 0.233412 0.456926 -0.398466 0.912718 0.0903917
0.0149992 0.198836 0.483288 0.0728167 0.893659 -0.4428
-0.209277 -0.0409133 0.43496 -0.454167 -0.0839236 0.886955
-0.0509374 0.00551361 0.434386 0.0126931 0.0741973 0.997163
0.136521 0.180616 0.681108 -0.151076 -0.93643 0.316662
0.0846397 0.222822 0.585814 -0.985155 0.170579 -0.0193003
-0.0730536 0.157806 0.303287 0.00013398 0.37611 -0.926575
0.0679177 0.229801 0.559054 -0.0170848 0.999807 -0.00971862
0.106198 0.176034 0.638952 -0.0906441 -0.976239 0.19683
0.193795 -0.0414841 0.314236 0.0022033 0.147161 0.98911
-0.168003 0.255576 0.0275932 0.000397363 0.876148 0.482042
0.155804 0.0574042 0.434005 -0.0483285 0.07696 0.995862
-0.0846161 0.24088 0.705451 -0.0557537 0.978757 -0.197295
-0.0401446 -0.11569 0.42922 0.00184022 -0.075342 0.997156
0.183002 0.232674 0.0191668 0.991052 -0.117451 -0.0634065
-0.199402 0.067903 0.418819 -0.890621 0.454237 0.0215252
-0.0579722 0.150191 0.349206 1.63436e-07 0.000441916 -1
-0.00767615 -0.161933 0.0977857 -0.99998 -0.00639115 8.08182e-05
-0.0795584 0.222917 0.614906 -0.0557901 0.978754 -0.197302
-0.109889 -0.00483152 0.115753 0.301943 -0.953326 0.000274131
-0.069903 0.138498 0.376575 -0.096519 0.573957 -0.813178
-0.0479597 -0.0680129 0.433017 0.0360222 -0.0773146 0.996356
-0.134417 0.0870139 0.374719 -0.0345197 -0.00374716 -0.999397
0.0972338 0.150233 0.330654 -0.000132808 -0.359784 0.933035
-0.0274469 -0.0315898 0.311185 0.634602 -0.275069 0.722231
-0.045794 -0.21059 0.405267 -0.0595627 -0.923981 0.377771
0.0911509 0.158271 0.102889 0.272376 -0.439557 -0.855921
-0.0384046 0.245836 0.758549 -0.0702473 0.996024 0.0547893
-0.111354 0.0795088 0.290883 -0.993155 0.00738364 -0.116567
0.162311 0.164109 0.625913 -0.163668 -0.967043 0.195041
-0.0990665 -0.0654775 0.43436 0.0635756 -0.0726696 0.995328
-0.14237 0.246796 0.0429366 0 0 -1
-0.0404004 0.0241294 0.276848 -0.083574 -0.14736 -0.985546
0.00782174 0.266294 0.679774 0.0536505 0.865766 0.497566
-0.00633709 -0.172036 0.0900498 -0.44177 0.2071 -0.872897
-0.0520042 0.222743 0.763587 0.0250666 -0.872288 0.48835
0.0855812 0.0354222 0.304697 4.36675e-05 0.147639 0.989041
-0.0435874 0.245805 0.752457 -0.0702473 0.996024 0.0547893
-0.0338306 0.21238 0.742304 0.0448655 -0.942551 0.331035
0.141993 -0.112578 0.433324 -0.0557606 -0.0719182 0.995851
0.106733 -0.131397 0.373406 2.95262e-07 0.000826203 1
0.0812855 0.164628 0.116823 -0.804572 0.593856 6.67694e-05
-0.0605664 -0.0997023 0.349006 2.5826e-07 0.000824031 -1
0.0627832 0.23203 0.655538 0.0563659 0.978712 -0.197348
0.170609 0.183483 0.547141 0.695104 0.626317 -0.352927
-0.0102769 -0.059395 0.315271 -0.924701 -0.169414 -0.34092
-0.039421 -0.123794 0.3734 2.95262e-07 0.000826203 1
0.0338523 -0.0245624 0.349068 3.04765e-07 0.000824058 -1
-0.119924 0.206744 0.73922 0.0434098 -0.816218 0.57611
-0.0377767 0.162632 0.509141 0.0195026 -0.997914 0.061533
0.183274 -0.028219 0.104718 -0.302851 -0.953038 -0.000300672
-0.0724611 0.181348 0.649592 0.089936 -0.976303 0.196834
0.00249321 0.11569 0.283964 0.0604277 0.511249 -0.857306
-0.247896 -0.0331795 0.0742888 -0.309373 0.950941 -0.000310928
0.0765982 -0.0128842 0.349078 3.04765e-07 0.000824058 -1
0.00779734 0.00606871 0.434032 -0.00570899 0.0788957 0.996867
-0.0256238 0.21358 0.554872 -0.0401062 0.979493 -0.197444
0.153918 -0.0973118 0.375173 0.0585395 -0.0134356 -0.998195
0.0069056 0.0858261 0.289195 0.381688 -0.83665 -0.392849
0.152862 0.259387 0.019805 0.000357167 0.87618 -0.481984
0.180689 0.148988 0.541546 -0.11417 -0.993439 -0.00666834
-0.0421407 0.0828674 0.13893 -0.812924 -0.58237 -5.01038e-05
-0.0591766 0.221002 0.599645 -0.0557537 0.978757 -0.197295
0.094036 0.0657125 0.300174 0.000118216 0.147955 0.988994
-0.201886 0.178176 0.619309 -0.656447 0.739483 -0.149142
-0.0430742 0.00892289 0.371591 -0.0145545 5.56114e-06 -0.999894
0.17874 0.150869 0.566839 -0.146615 -0.987759 0.0532553
-0.00426211 0.0537067 0.275583 -0.0668136 0.0487682 -0.996573
-0.116138 -0.0414843 0.373237 -0.053009 0.00622938 -0.998575
-0.265235 -0.0512171 0.0310997 0.000388803 0.875846 0.48259
0.0391636 0.0215645 0.277446 0.0867697 -0.237871 -0.967413
0.198283 -0.000424081 0.438972 -0.436564 0.00625674 0.899651
0.125141 0.0664914 0.354109 0 0 -1
0.0581942 0.014232 0.307866 7.41293e-05 0.147836 0.989012
0.0762921 0.212142 0.560764 0.0566462 0.978707 -0.197292
0.04725 0.0624661 0.289256 0.0001631 0.986334 -0.164757
0.0933805 0.217602 0.325288 -0.403428 0.329445 -0.853646
-0.146545 0.00727215 0.375156 -0.0530297 0.00627881 -0.998573
-0.158277 0.105912 0.384931 -0.527177 0.345881 -0.776177
0.149785 -0.105671 0.434259 -0.0557606 -0.0719182 0.995851
-0.0085356 0.045948 0.227256 -0.894128 0.447811 0
-0.0224996 0.132158 0.37629 0.0389093 0.07712 -0.996262
-0.108177 -0.034432 0.309754 3.18747e-05 -0.146936 -0.989146
0.0608375 0.213519 0.747206 -0.0149902 -0.849413 0.527516
0.155244 0.0888709 0.431546 -0.0483285 0.07696 0.995862
-0.00839878 0.21259 0.566566 0.0143388 -0.999549 0.0263958
0.161779 0.0751175 0.374405 0.000160505 0.381393 0.924413
0.0591843 0.18604 0.666917 -0.0906961 -0.976228 0.196856
-0.0397292 0.0356915 0.148864 -0.314825 0.94915 0.000233566
-0.0980286 0.152309 0.331678 0.000206522 0.346929 -0.937892
-0.113991 0.0110647 0.127871 -0.314825 0.94915 0.000233566
-0.0650104 -0.0721161 0.320779 0.000201796 0.147458 0.989068
0.0945896 0.241634 0.363329 -0.396009 0.906989 -0.143344
-0.0713808 0.237359 0.684239 -0.0557537 0.978757 -0.197295
0.0804639 0.183007 0.323576 0.000343126 0.963274 0.268521
0.00817833 -0.0795896 0.138763 0.999974 -0.00714659 9.1394e-05
0.013678 0.212525 0.567243 -0.0150019 -0.999524 0.0269551
0.0231612 -0.187165 0.376373 -0.0380692 -0.0743304 -0.996507
-0.0549299 -0.121259 0.334942 -1 0.000305238 0.000157735
0.00451972 0.163581 0.500071 -0.0199727 -0.998701 0.0468677
-0.085123 0.226969 0.437106 0.988415 0.151136 0.0138872
-0.00863001 -0.0122885 0.129478 -0.99998 -0.00639115 8.08182e-05
0.164855 0.212974 0.718718 0.66222 0.744262 0.0868189
-0.030011 -0.109075 0.348998 2.5826e-07 0.000824031 -1
0.206052 0.160862 0.591764 0.857421 0.480666 -0.183819
-0.143844 -0.131273 0.375102 -0.0491467 -0.00809524 -0.998759
0.0704525 0.162151 0.473566 0.0160498 -0.98979 -0.14163
0.165734 0.264551 0.0464757 -1 0 0
0.267272 -0.0629274 0.0429366 0 0 -1
-0.126785 0.102992 0.429083 0.0482437 0.0769129 0.99587
-0.177949 0.065692 0.370491 0.000372662 -1.78649e-07 1
-0.130185 -0.121712 0.432242 0.0635756 -0.0726696 0.995328
0.0332706 0.173351 0.309613 0.00013398 0.37611 -0.926575
-0.138031 0.232701 0.0126832 0.991128 -0.116963 -0.0631302
0.0598218 0.229678 0.553081 -0.0106596 0.999941 -0.0022811
0.0213735 -0.0408512 0.371069 0.00490104 -1.87264e-06 -0.999988
-0.0192002 0.219005 0.754927 0.0305872 -0.871911 0.488708
0.10363 0.210249 0.444073 -0.00182995 -0.996643 -0.0818475
0.0593444 0.12759 0.375247 -0.0559729 0.00965829 -0.998386
-0.0803985 0.0502256 0.431434 0.0126931 0.0741973 0.997163
0.0459243 -0.174088 0.424804 -0.00770933 -0.0756767 0.997103
0.131404 0.164502 0.60193 -0.163605 -0.967064 0.194987
0.181054 0.0917291 0.430661 0.290826 0.339794 0.894405
-0.0867837 -0.117953 0.351929 -0.38985 -0.000194636 -0.920879
-0.174396 0.258686 0.0385558 -0.0114691 0.875999 0.482176
-0.140597 0.22852 0.0272388 0.0106346 -0.876165 0.481895
0.120863 0.160122 0.571366 -0.163668 -0.967043 0.195041
-0.0663799 0.098886 0.373216 3.36858e-07 0.000826167 1
0.199689 0.182144 0.632501 0.711125 0.698006 -0.0841911
0.00739241 -0.189989 0.0956489 0.999999 -0.00126071 -4.72201e-05
0.135392 -0.026757 0.306064 -0.694559 -0.711464 0.106802
0.187637 -0.0439176 0.436948 0.00266784 0.013361 0.999907
0.0346787 -0.142801 0.427091 -0.00770933 -0.0756767 0.997103
0.00129605 -0.223262 0.0270634 0.000309778 0.965627 0.259931
-0.0746359 -0.101054 0.431344 0.0124148 -0.067965 0.99761
0.00901949 -0.171446 0.424719 -0.00770933 -0.0756767 0.997103
0.00857113 0.0852269 0.29209 0.381688 -0.83665 -0.392849
-0.202189 0.0512334 0.40857 -0.760854 0.0726364 -0.644846
-0.0664806 -3.51071e-05 0.373298 3.36858e-07 0.000826167 1
0.00907533 0.21245 0.561898 -0.0150019 -0.999524 0.0269551
0.125402 -0.101057 0.373551 0.0585395 -0.0134356 -0.998195
0.158945 -0.170372 0.404147 0.614393 -0.69554 -0.372486
0.0434161 -0.0624808 0.373349 2.95262e-07 0.000826203 1
0.00102054 0.147143 0.378376 0.0465849 0.0770917 -0.995935
-0.0703306 0.0758068 0.429305 0.0251127 0.0790028 0.996558
-0.192701 0.156203 0.546975 -0.798753 0.488427 -0.351331
0.0839592 0.213689 0.418634 -0.925488 -0.37742 -0.0320456
-0.0534056 -0.020447 0.286991 -0.00961195 -0.240723 -0.970546
0.167578 -0.00723701 0.120977 0.432757 0.437887 0.78802
0.0546656 0.0747246 0.428871 -0.0126347 0.0783879 0.996843
-0.0364381 0.164986 0.454502 0.0374028 -0.99261 -0.115442
0.0549948 0.163819 0.540825 -0.0646195 -0.995954 0.0624488
-0.182907 0.200735 0.666021 -0.682903 0.726506 0.0763757
-0.0812843 0.174791 0.621102 0.089936 -0.976303 0.196834
-0.147105 -0.0913447 0.374766 -0.057173 0.0015444 -0.998363
-0.0898871 0.230156 0.654088 -0.168999 0.966183 -0.194757
0.0247132 0.0379902 0.177545 0.867496 0.197017 0.456765
0.0703066 0.161252 0.4809 -0.0252579 -0.99447 -0.101936
0.170602 -0.0241942 0.112798 -0.302828 -0.953045 -0.000157045
0.0546989 -0.009165 0.435468 -0.0126347 0.0783879 0.996843
0.101732 0.139662 0.373184 3.13518e-07 0.000768923 1
-0.0843117 0.168096 0.127869 0.193898 0.507116 0.839784
0.174206 0.200036 0.721248 0.766622 0.547362 0.335685
-0.0804311 0.156111 0.329804 -0.000131507 -0.369248 0.929331
-0.0919985 0.231616 0.663166 -0.168999 0.966183 -0.194757
-0.0138376 0.162972 0.497857 0.0425312 -0.997997 0.0468346
0.0595672 0.170966 0.592341 -0.0906961 -0.976228 0.196856
0.0301666 0.119405 0.349187 3.04765e-07 0.000824058 -1
0.148013 -0.153995 0.376018 0.10037 -0.0370702 -0.994259
-0.0113004 0.020048 0.107029 -0.308959 -0.951075 0
0.164419 0.0576553 0.345269 -0.0236917 -0.366703 -0.930036
-0.0283693 -0.119802 0.373397 2.95262e-07 0.000826203 1
-0.163804 0.194634 0.572916 -0.381425 0.906154 -0.182757
-0.17307 -0.094733 0.436619 0.0435689 -0.054203 0.997579
0.00780723 0.0629151 0.34914 3.04765e-07 0.000824058 -1
0.0938229 0.159959 0.302832 -0.403826 0.329421 -0.853467
0.0342467 0.185402 0.656526 -0.0235517 -0.979997 0.197616
-0.0378067 0.178081 0.620536 0.0226602 -0.980031 0.197548
-0.107527 0.0858417 0.279303 -0.392099 -0.0341187 -0.91929
0.149357 0.238454 0.039419 0.999999 -0.00175596 0.000111937
-0.0704462 0.224783 0.621589 -0.0557537 0.978757 -0.197295
0.0121176 0.210444 0.734552 -0.0444419 -0.937198 0.345956
-0.148868 0.131399 0.410104 -0.555177 0.831442 -0.0219865
0.02572 0.0893426 0.151442 -0.804572 0.593856 6.67694e-05
-0.113278 0.225093 0.568433 -0.963636 0.267196 -0.00335357
0.126225 0.0879984 0.430205 -0.0483285 0.07696 0.995862
-0.0833752 0.226487 0.632785 0.976126 0.188407 -0.108081
0.00662709 0.166033 0.553222 -0.0199727 -0.998701 0.0468677
-0.0904322 -0.02763 0.304428 -0.980862 -0.192568 0.0287563
-0.181953 0.25868 0.00315423 -0.990966 0.117486 -0.064677
0.0410207 0.160207 0.331449 -0.000131536 -0.369248 0.929331
0.0015367 -0.0641235 0.149183 0.526239 -0.286757 0.800527
-0.0270518 0.0741797 0.289363 -1 0.000464268 -7.75514e-05
0.0072019 -0.0349781 0.122836 0.566577 0.187356 -0.802426
0.11169 0.236938 0.647713 0.974819 0.202545 -0.0932945
0.19787 -0.0462683 0.39779 0.763786 -0.0656817 -0.642119
0.0920851 0.00616833 0.28994 -0.999949 -0.0100615 0.00104344
-0.085243 0.232781 0.397424 0.988502 0.149272 0.0241089
0.0968801 0.117905 0.318188 -0.000131469 -0.359784 0.933036
0.1896 0.152662 0.592057 -0.163668 -0.967043 0.195041
-0.0926795 0.0482505 0.373258 3.36858e-07 0.000826167 1
-0.157418 0.106343 0.430094 0.0213888 0.118134 0.992767
0.059859 0.13092 0.113886 -0.479284 0.092991 -0.87272
0.243762 -0.0746068 0.0393048 -0.000474378 -0.860918 0.508744
-0.107207 0.208619 0.464732 0.00109501 -0.996674 -0.0814786
-0.00802455 -0.0722674 0.317563 -0.384106 -0.411304 -0.826615
0.199421 0.0586897 0.432242 0.425462 0.107563 0.898561
-0.186545 0.152146 0.586377 0.162909 -0.96718 0.194995
-0.060573 -0.0853991 0.371389 -0.00480295 0.0077148 -0.999959
0.110529 0.236833 0.731958 0.208078 0.971648 0.112265
-0.0860346 0.219622 0.618789 0.0045539 -0.981181 0.193036
-0.0781152 -0.0157043 0.436311 0.0126931 0.0741973 0.997163
-0.134259 0.139614 0.41425 -0.277111 0.945556 0.170683
0.0705498 0.182441 0.325619 0.000343126 0.963274 0.268521
-0.0739079 -0.0428382 0.373333 3.36858e-07 0.000826167 1
0.104706 0.112029 0.427304 -0.0483285 0.07696 0.995862
0.0721999 -0.159405 0.372598 0.00516497 -0.0222583 -0.999739
0.0901934 -0.0302327 0.296441 0.980744 -0.193155 0.0288439
-0.144789 0.195082 0.545439 -0.386749 0.886373 -0.254496
-0.00861651 -0.0141134 0.152152 -0.99998 -0.00639115 8.08182e-05
0.222907 -0.0306198 0.102663 0.400642 0.322163 0.857728
-0.14191 0.22701 0.708671 -0.37064 0.921259 -0.117935
0.0823582 0.14697 0.386992 0.158663 0.81963 -0.550484
-0.0931064 0.240046 0.394992 0.399955 0.904506 0.148004
0.047304 0.239994 0.69061 0.0566462 0.978707 -0.197292
0.00523432 -0.110372 0.358592 0.38371 0.411332 0.826784
0.00656994 -0.156685 0.0939733 0.566577 0.187356 -0.802426
-0.243955 -0.0378226 0.0233323 0.0113349 0.875994 0.482188
0.0780098 0.250383 0.671593 -0.108895 -0.807188 0.580164
0.0843645 0.223378 0.632805 -0.826849 -0.500364 0.256818
0.128198 0.205051 0.567147 0.251887 0.948659 -0.191309
0.148907 0.158024 0.584496 -0.163668 -0.967043 0.195041
-0.0966733 0.215187 0.399712 0 -0.986855 -0.161608
0.0218766 0.0382555 0.304279 7.76863e-05 0.147711 0.989031
-0.175677 -0.0188857 0.376538 -0.0530297 0.00627881 -0.998573
-0.0260745 0.0899926 0.140226 0.80503 0.593235 0.000158314
-0.0665333 0.170104 0.457544 -0.246456 -0.263747 -0.932575
0.00934091 0.0346927 0.229428 0.894128 -0.447812 0
0.12578 0.219325 0.634745 0.251887 0.948659 -0.191309
-0.204517 -0.0897538 0.425873 -0.994192 -0.105565 0.0209146
-0.075486 0.129413 0.135419 -0.812869 -0.582446 -0.0002741
-0.0160464 0.1131 0.28338 -0.0601836 0.511445 -0.857206
0.106248 -0.105777 0.373385 2.95262e-07 0.000826203 1
0.0597935 -0.123095 0.371725 0.00516497 -0.0222583 -0.999739
0.0153526 0.211614 0.543038 0.040754 0.979462 -0.197468
0.190882 0.0492617 0.395076 0.758114 0.071568 -0.648183
0.016363 -0.138161 0.348974 2.5826e-07 0.000824031 -1
-0.122307 0.234287 0.729731 -0.323162 0.944506 0.0589486
-0.127367 -0.087899 0.373641 -0.057173 0.0015444 -0.998363
0.116451 0.160069 0.565998 -0.146615 -0.987759 0.0532553
0.125185 0.210934 0.111104 0.5944 -0.0783047 0.800348
-0.010072 -0.0913384 0.344308 -0.924483 0.170161 0.341141
-0.104946 0.0465329 0.303049 0 0.147642 0.989041
-0.0882516 0.152961 0.339276 1 -0.000226795 -0.000164838
0.15537 -0.0535944 0.312585 -0.000403752 -0.14697 -0.989141
0.0985121 0.0716222 0.354109 0 0 -1
-0.00179175 0.0513396 0.263893 0 1 0
0.0195536 0.1003 0.296774 0.923684 0.333358 0.188892
-0.0703255 0.209356 0.74017 0.0646868 -0.941697 0.330186
-0.162209 0.0258293 0.436576 0.0345125 0.0597809 0.997615
0.150753 -0.176464 0.402011 0.614393 -0.69554 -0.372486
0.050497 -0.0309906 0.373323 2.95262e-07 0.000826203 1
-0.0727746 -0.0682185 0.433558 0.0124148 -0.067965 0.99761
-0.162709 -0.00509298 0.120529 -0.314825 0.94915 0.000233566
-0.0526592 -0.0272151 0.288595 -1.48873e-05 -0.147651 -0.98904
0.105514 -0.136867 0.373411 2.95262e-07 0.000826203 1
-0.0502482 0.175899 0.612399 0.0900155 -0.976305 0.196791
-0.163554 0.23521 0.0429366 0 0 -1
-0.00475071 0.135759 0.373187 2.7833e-07 0.000769128 1
0.167084 0.107787 0.39662 0.690349 0.53155 -0.490788
-0.268615 -0.0769993 0.0322762 0.000238911 0.862356 -0.506302
-0.0153357 0.227865 0.623645 -0.0402176 0.979485 -0.197463
0.10965 0.204414 0.543762 0.169656 0.966056 -0.194813
0.0811552 0.171581 0.335974 -0.000131536 -0.369248 0.929331
0.0434474 0.223736 0.608981 0.04089 0.979461 -0.197443
0.112191 0.222435 0.629975 0.835345 -0.538631 0.109887
0.00927345 -0.0579526 0.311837 0.924344 -0.170329 -0.341432
0.0919081 0.161848 0.554497 -0.0750136 -0.995686 0.0546105
0.0444767 -0.120941 0.428826 -0.00770933 -0.0756767 0.997103
0.0804996 0.160019 0.506607 -0.0646195 -0.995954 0.0624488
0.0622805 0.159003 0.407802 0.171637 0.914079 0.367424
0.165215 0.0299572 0.43602 0.00266784 0.013361 0.999907
0.000504832 0.073425 0.299025 -2.91901e-05 0.147789 0.989019
-0.0717786 0.0488414 0.277228 -4.38919e-05 -0.147644 -0.989041
0.11161 -0.00088403 0.436363 -0.0479406 0.0766336 0.995906
-0.0744224 0.0986518 0.349169 2.5826e-07 0.000824031 -1
-0.270399 -0.0402543 0.0212367 0.999999 -0.00109118 -0.000103135
0.156219 -0.015523 0.0994299 -0.333493 -0.394966 -0.856028
-0.16893 0.242384 0.00833893 0 0 -1
0.0289316 -0.153624 0.37365 -0.0380692 -0.0743304 -0.996507
0.0792224 0.101214 0.349172 3.04765e-07 0.000824058 -1
0.023249 -0.242006 0.0266517 0.991247 0.115654 0.063669
-0.100271 0.190687 0.108957 0.805067 0.593184 -0.000214273
-0.0933791 0.231048 0.478081 0.36603 0.930197 0.0274952
-0.18712 -0.0913607 0.437416 0.0435689 -0.054203 0.997579
-0.0197248 0.0276373 0.18297 -0.611973 -0.727831 0.309437
-0.0586182 -0.126881 0.349939 0 0 1
0.118079 0.220802 0.632373 0.169656 0.966056 -0.194813
-0.00618599 0.154656 0.349208 1.63477e-07 0.000441917 -1
0.210334 -0.00823622 0.429671 0.988368 0.135071 0.0698937
0.107785 0.147589 0.329636 -0.000132808 -0.359784 0.933035
0.00492427 -0.188828 0.0856634 0.479163 0.194986 -0.855794
0.096305 -0.053877 0.435005 -0.0557606 -0.0719182 0.995851
-0.0557344 0.168353 0.577473 0.0900155 -0.976305 0.196791
0.0778971 0.173014 0.610938 -0.0906441 -0.976239 0.19683
0.0210018 0.15396 0.383132 0.0934208 0.828653 -0.551912
-0.0438166 0.146162 0.378888 -0.096519 0.573957 -0.813178
0.0260891 0.21017 0.735604 -0.0444419 -0.937198 0.345956
0.0930326 0.241735 0.368382 -0.409184 0.902435 -0.134835
-0.0573163 0.206982 0.529572 -0.0557901 0.978754 -0.197302
0.108351 0.228545 0.489467 0.366717 0.930185 0.0165532
-0.00393566 0.152906 0.358035 0.00034473 0.854905 0.518784
-0.0514568 -0.141284 0.355122 -0.000396324 -0.971971 -0.2351
0.248161 -0.0424076 0.0592173 -0.619208 -0.407586 -0.67116
0.011463 0.039605 0.371075 0.0175957 0.00730737 -0.999818
0.00948764 0.0570683 0.0600507 0.25386 0.859181 -0.444255
-0.234828 -0.0445344 0.0819525 0.307497 -0.951549 -0.000202032
-0.0409595 -0.210824 0.40547 -0.0658271 -0.915465 0.396976
0.0917996 -0.0156201 0.299909 1 -0.00040515 6.05012e-05
0.0144164 0.168844 0.572063 -0.0234766 -0.979993 0.197644
-0.0785193 0.237693 0.687916 -0.0557537 0.978757 -0.197295
-0.0718002 0.233012 0.662792 -0.0557537 0.978757 -0.197295
-0.0436902 0.220793 0.594326 -0.0401062 0.979493 -0.197444
0.14254 0.223827 0.0277 -1 0 0
-0.173158 -0.0493804 0.376323 -0.057173 0.0015444 -0.998363
-0.00572823 -0.175718 0.376439 -0.00583169 -0.0743951 -0.997212
0.152908 -0.0540224 0.312649 0.000668938 -0.146979 -0.989139
0.0782162 0.159888 0.50215 -0.0646195 -0.995954 0.0624488
0.0970211 0.00809029 0.356359 0.382365 -0.00032743 -0.924011
-0.0264465 0.0281935 0.371349 -0.0145545 5.56114e-06 -0.999894
-0.137388 -0.148847 0.374927 -0.0491467 -0.00809524 -0.998759
-0.0171644 0.0567617 0.180758 -0.880918 0.358431 0.309048
-0.0420224 0.111638 0.12495 0.805067 0.593184 -0.000214273
-0.0178021 -0.227359 0.0151313 -0.0105208 0.875796 -0.482566
0.149391 0.261667 0.0315241 1 0 0
0.0084371 0.101199 0.325933 0.383139 0.8315 0.402258
0.0240842 0.08163 0.276686 0.680309 0.0130673 -0.732809
0.136994 -0.00451739 0.135532 0.421707 0.312284 0.851259
0.0173458 0.104268 0.300426 0.919208 0.350282 0.179886
0.0238747 0.162885 0.50062 -0.0444976 -0.997084 0.0620009
0.146801 0.229205 0.0288199 -0.011468 -0.875997 0.48218
-0.274917 -0.0760229 0.036583 -0.000238506 -0.861136 0.508375
0.0730401 -0.113984 0.334073 -0.999521 -0.0189927 0.0244163
0.165734 0.260655 0.0449838 -1 0 0
-0.107901 0.16008 0.4851 0.0567114 -0.987424 -0.147569
-0.0832098 0.2093 0.499893 0.910098 -0.41391 -0.0200141
-0.0133975 0.143362 0.423196 0.00583029 0.0780269 0.996934
-0.0736694 -0.176882 0.425499 0.0360222 -0.0773146 0.996356
0.0848816 0.13252 0.305991 -0.992862 0.0432557 -0.111152
0.186159 -0.0738261 0.319039 -0.000763429 0.147067 0.989126
-0.141875 0.00181819 0.118031 -0.314825 0.94915 0.000233566
0.0717843 0.227865 0.569733 -0.0841962 0.912499 0.400321
0.0228293 -0.236901 0.0239119 0.991247 0.115654 0.063669
0.0132899 -0.246099 2.78024e-05 0.012014 -5.3653e-06 -0.999928
0.156895 0.178089 0.509851 0.674457 0.638863 -0.370083
-0.193363 0.187792 0.629476 -0.656447 0.739483 -0.149142
-0.101695 0.0882823 0.306735 -0.000130245 -0.359809 0.933026
-0.0488616 0.139886 0.323362 -0.000131507 -0.369248 0.929331
-0.0178276 -0.021911 0.373316 3.36858e-07 0.000826167 1
0.118292 0.198322 0.115076 0.542123 -0.0280158 0.839832
0.094767 0.0829958 0.373229 2.95262e-07 0.000826203 1
-0.100375 0.0751691 0.276648 -0.392099 -0.0341187 -0.91929
-0.0308384 -0.0359417 0.290948 0.63475 -0.474242 -0.610071
0.0817072 -0.0833078 0.349851 0.389919 0.000605262 -0.920849
0.00168799 0.0713498 0.373239 3.36858e-07 0.000826167 1
0.00441217 0.0610409 0.188751 0.308337 0.951277 0
-0.0126256 0.098132 0.274225 -0.0601914 0.510484 -0.857778
-0.0917573 0.00353686 0.296554 -1 0.000407114 -6.09864e-05
-0.197086 0.186868 0.649963 -0.710706 0.698411 -0.0843716
0.00843047 -0.044369 0.134045 0.999974 -0.00714659 9.1394e-05
0.0771437 0.162759 0.470074 0.0160498 -0.98979 -0.14163
-0.176937 0.236039 0.0401871 -0.01201 2.17653e-05 0.999928
-0.153141 0.0263756 0.375593 -0.0345197 -0.00374716 -0.999397
-0.160708 0.269238 0.0248906 -0.000310399 -0.96611 -0.25813
-0.0449961 0.136555 0.309456 -0.000332503 -0.815275 -0.579074
-0.00856636 -0.0219952 0.149365 -0.99998 -0.00639115 8.08182e-05
-0.0326328 -0.0146116 0.349076 2.5826e-07 0.000824031 -1
-0.0505234 0.101562 0.426764 0.0251127 0.0790028 0.996558
-0.033199 0.0152671 0.307717 2.5154e-05 0.147852 0.989009
-0.103386 0.241306 0.663937 0.075026 -0.795435 0.601377
0.0700867 -0.146673 0.372303 0.00516497 -0.0222583 -0.999739
0.0861997 0.241115 0.707282 0.0563659 0.978712 -0.197348
0.0314002 -0.106895 0.371218 0.00516497 -0.0222583 -0.999739
0.0831163 0.15275 0.349199 -0.00269767 0.000441915 -0.999996
-0.0668512 -0.00369212 0.373301 3.36858e-07 0.000826167 1
-0.149994 0.266779 0.0301515 -0.00027707 -0.862373 -0.506273
-0.020727 -0.0314505 0.292461 -0.000319162 -0.83114 -0.556063
0.0115119 0.0401345 0.261883 0.894579 0.44691 0
0.0914552 -0.0763861 0.373361 2.95262e-07 0.000826203 1
-0.10925 -0.00805133 0.294596 -0.763271 -0.638919 0.0959122
-0.147302 0.233495 0.0979298 -0.513581 -0.0251075 0.857674
0.198888 0.0230188 0.436764 0.425462 0.107563 0.898561
0.0773076 -0.123664 0.343457 1 0 0
-0.196611 -0.0323048 0.0940719 0.301943 -0.953326 0.000274131
-0.141312 0.210317 0.610295 -0.250875 0.948917 -0.191359
0.0793049 -0.181654 0.373817 -0.0380692 -0.0743304 -0.996507
0.111235 0.229633 0.393155 0.988333 0.15032 0.0245516
-0.0527587 0.0782333 0.373233 3.36858e-07 0.000826167 1
0.0073583 0.214491 0.744903 -0.0444419 -0.937198 0.345956
0.248344 -0.0435314 0.0309838 1 0 0
0.263596 -0.0432682 0.0878857 0.44075 0.447031 0.778398
-0.127136 0.17434 0.479869 -0.49287 0.589851 -0.639652
-0.128299 0.157394 0.553581 0.148359 -0.986258 0.0726958
-0.0800169 0.180098 0.646844 0.089936 -0.976303 0.196834
-0.168009 0.183151 0.541139 -0.651358 0.678653 -0.339358
0.0579079 0.104659 0.13643 0.812506 -0.582953 -5.69831e-05
-0.0714548 0.137629 0.107311 -0.355018 -0.483454 -0.800147
-0.0180236 0.184624 0.650704 0.022921 -0.980006 0.197643
0.0674195 0.145841 0.129269 -0.804572 0.593856 6.67694e-05
0.144721 0.25084 0.0723229 -0.808059 0.589102 -0.000175087
-0.098954 0.242471 0.389909 -0.404885 0.902367 0.147654
0.00787828 0.0854172 0.427752 -0.00570899 0.0788957 0.996867
0.0204098 0.219487 0.583133 0.040754 0.979462 -0.197468
-0.0985654 0.232711 0.486063 -0.366408 0.930454 -5.3106e-05
0.105165 0.120374 0.359689 0.382365 -0.00032743 -0.924011
-0.0016933 -0.239359 0.0778663 -0.314017 -0.949224 0.0191713
-0.147698 0.210181 0.61799 -0.250875 0.948917 -0.191359
-0.0376643 0.139082 0.423672 0.00583029 0.0780269 0.996934
0.0281336 0.10177 0.373213 3.36858e-07 0.000826167 1
-0.252779 -0.0742125 0.0370302 0.000236327 0.862354 -0.506306
0.121861 0.071711 0.374245 0.0530313 0.0062426 -0.998573
-0.0555066 -0.0853676 0.373368 2.95262e-07 0.000826203 1
0.195753 0.0396995 0.399716 0.758114 0.071568 -0.648183
0.114825 0.159872 0.557867 -0.146615 -0.987759 0.0532553
0.109463 0.238629 0.384802 0.40562 0.902299 0.146044
0.00607749 0.0250002 0.274267 0.0672415 0.0158757 -0.99761
-0.0876692 0.0618917 0.299543 0.000369127 0.830645 0.556802
0.0804987 0.162837 0.55686 -0.0750136 -0.995686 0.0546105
0.030309 -0.0154328 0.285749 0.0867697 -0.237871 -0.967413
0.0962222 0.231286 0.564313 -0.0655979 0.997843 0.00254272
-0.182545 0.230506 0.0208682 -0.99124 -0.11572 0.0636528
-0.018759 0.183621 0.319656 0.00027488 0.771684 -0.636007
0.0180171 -0.212741 0.3984 0.0714858 -0.953502 -0.292786
0.0248666 0.151619 0.328034 -0.000131536 -0.369248 0.929331
0.021696 0.0470278 0.0777318 0.87549 0.483236 0
-0.0841247 -0.0485253 0.373338 3.36858e-07 0.000826167 1
-0.025308 0.244442 0.707904 -0.0402176 0.979485 -0.197463
