0.203781 0.159415 0.642467 0.220909 -0.928576 0.298237
0.0822441 0.218095 0.755183 -0.0149902 -0.849413 0.527516
-0.0801778 0.162345 0.548777 0.0753142 -0.995181 0.0627916
0.0919355 0.0217211 0.296418 -0.999949 -0.0100564 0.00105206
-0.0547376 -0.10142 0.339488 -0.999507 0.0198186 -0.0243607
-0.0891565 0.0879122 0.278545 0.399314 0.0419953 -0.915852
-0.200196 0.0127948 0.437276 -0.449519 0.110005 0.886471
0.130233 0.0801522 0.431006 -0.0483285 0.07696 0.995862
0.155483 0.152032 0.519738 -0.11417 -0.993439 -0.00666834
0.0179039 0.172533 0.336183 -5.73932e-05 -0.161114 0.986936
-0.0264447 0.016648 0.349102 2.5826e-07 0.000824031 -1
0.0372082 0.190075 0.680011 -0.0206927 -0.943133 0.331771
-0.063331 -0.102708 0.299876 -0.000128605 -0.148081 -0.988975
-0.0304847 0.221426 0.594782 -0.0401062 0.979493 -0.197444
-0.104672 0.014153 0.137843 -0.314825 0.94915 0.000233566
-0.0227218 0.107122 0.373209 3.13518e-07 0.000768923 1
0.162185 0.154006 0.575716 -0.163668 -0.967043 0.195041
-0.0732574 -0.110593 0.321406 0.999975 0.00417563 -0.00579012
0.105201 0.159471 0.33496 1 -0.000229239 -0.000166426
0.235849 -0.0543956 0.0248087 -0.991041 0.117001 0.0644109
-0.0662593 0.0353617 0.349117 2.5826e-07 0.000824031 -1
-0.275129 -0.0460848 0.0429366 0 0 -1
-0.016323 -0.231213 0.00810091 -0.0114601 0.875998 -0.482178
0.122655 0.0321677 0.37404 0.0530313 0.0062426 -0.998573
0.00862583 -0.0167744 0.15431 0.999974 -0.00714659 9.1394e-05
0.0503692 0.156175 0.418775 0.0172471 0.391492 0.92002
-0.104392 -0.0183558 0.437224 0.0345125 0.0597809 0.997615
0.0939271 0.230221 0.500726 -0.364504 0.930563 0.0344807
-0.125576 0.118679 0.427815 0.0488226 0.0762323 0.995894
0.141098 0.22565 0.0817336 0.0123612 -0.685461 -0.728005
0.111912 0.0739993 0.290955 0.988758 0.00953407 -0.149219
-0.115676 -0.020408 0.31112 -0.000226406 0.146893 0.989152
-0.0619749 0.203016 0.511212 -0.0557901 0.978754 -0.197302
0.0578716 -0.208249 0.407318 0.173913 -0.911311 0.373184
0.159353 0.124026 0.419576 0.499235 0.866426 -0.0083241
-0.196742 -0.0112975 0.439996 0.0345125 0.0597809 0.997615
0.117384 0.0668252 0.377831 0.00010673 0.381142 0.924517
0.124532 0.126705 0.37967 0.367679 0.511494 -0.77665
-0.164563 -0.118906 0.376185 -0.0725804 -0.0213017 -0.997135
0.0563734 0.0493969 0.275889 3.19023e-06 0.0107861 -0.999942
0.0353609 0.0808652 0.349155 3.04765e-07 0.000824058 -1
-0.170203 -0.0812199 0.437228 0.0435689 -0.054203 0.997579
-0.0404496 -0.186008 0.376191 0.0493738 -0.028561 -0.998372
-0.111282 0.0363264 0.284585 -0.528017 -0.125526 -0.839905
0.0882578 0.242498 0.642012 -0.206109 0.894519 -0.396679
0.141272 0.162944 0.487339 0.502513 -0.019415 -0.864352
-0.0357599 0.207171 0.727734 0.0448655 -0.942551 0.331035
0.0122326 -0.00760556 0.43511 -0.00204632 0.0778378 0.996964
0.0527587 0.0705185 0.374865 0.0465849 0.0770917 -0.995935
-0.198465 0.182946 0.673455 -0.797052 0.587931 0.138008
-0.0446631 0.22554 0.618073 -0.0401062 0.979493 -0.197444
0.129507 0.217634 0.631268 0.251887 0.948659 -0.191309
-0.136468 0.229926 0.721982 -0.323162 0.944506 0.0589486
0.0349503 0.161913 0.49293 -0.0444976 -0.997084 0.0620009
-0.0477105 0.120637 0.425181 0.0251127 0.0790028 0.996558
0.117249 -0.00461944 0.296551 0.694654 0.711433 -0.106393
0.020892 -0.179976 0.424163 -0.00770933 -0.0756767 0.997103
0.0217991 -0.230944 0.0291308 0.991247 0.115654 0.063669
0.200144 0.0293044 0.403705 0.758114 0.071568 -0.648183
0.037533 0.155702 0.329659 -0.000131536 -0.369248 0.929331
0.033798 0.141961 0.301798 -0.000332503 -0.815275 -0.579074
0.0731974 0.245406 0.663436 -0.10337 -0.821448 0.560837
-0.0691831 0.0627945 0.291243 0.000486883 0.984922 -0.172997
0.0974249 -0.0395302 0.436103 -0.0557606 -0.0719182 0.995851
0.0862031 -0.0787887 0.432797 -0.0373819 -0.0702521 0.996829
0.0148861 0.10784 0.306038 0.919208 0.350282 0.179886
-0.0344888 0.014562 0.371466 -0.0145545 5.56114e-06 -0.999894
0.0438194 -0.0275012 0.43593 -0.0124524 -0.0759498 0.997034
0.116609 0.0101187 0.11687 0.315628 0.948883 0.000246632
-0.251393 -0.0481298 0.0429366 0 0 -1
-0.203892 -0.0959975 0.415009 -0.93386 -0.357376 0.0136916
-0.134649 0.0198108 0.374603 -0.0530297 0.00627881 -0.998573
-0.148972 0.0648804 0.365514 -0.208403 0.00017085 -0.978043
0.00747775 -0.00829746 0.349081 3.04765e-07 0.000824058 -1
0.055707 0.240425 0.695152 0.0563659 0.978712 -0.197348
-0.0891478 -0.0508898 0.434942 0.0124148 -0.067965 0.99761
-0.0104776 0.165583 0.548345 0.0195026 -0.997914 0.061533
0.167629 0.176846 0.52873 0.608377 0.741231 -0.283644
-0.0147455 -0.0316622 0.292774 -0.000319162 -0.83114 -0.556063
-0.0515497 0.0960003 0.150409 -0.812924 -0.58237 -5.01038e-05
-0.0672468 0.242004 0.758613 -0.159626 0.980936 0.110835
-0.175166 0.17675 0.542073 -0.651358 0.678653 -0.339358
0.0481457 0.174613 0.310127 0.00013398 0.37611 -0.926575
0.0658242 0.179001 0.459201 0.229418 0.613403 -0.755715
0.124176 0.207506 0.741289 0.0013433 -0.817818 0.575475
-0.183638 0.18003 0.565562 -0.700433 0.639272 -0.317371
0.259432 -0.0357809 0.028621 0.000273467 0.861117 0.508407
0.0435296 0.0261774 0.373276 2.95262e-07 0.000826203 1
-0.186458 0.0769191 0.397967 -0.739208 0.350394 -0.575148
-0.0535623 0.211638 0.551606 -0.0557537 0.978757 -0.197295
0.0872382 -0.0040846 0.373301 2.95262e-07 0.000826203 1
-0.115352 -0.052132 0.436375 0.0635756 -0.0726696 0.995328
0.10589 0.210256 0.443937 -0.00182995 -0.996643 -0.0818475
-0.0288673 0.153806 0.356569 0.00034473 0.854905 0.518784
-0.149576 0.0822336 0.431791 0.0482437 0.0769129 0.99587
-0.135234 0.218708 0.104871 -0.524803 -0.00479348 0.851211
0.141245 0.25612 0.0401577 -0.0120103 2.10897e-05 0.999928
0.106289 0.0815504 0.360168 0.382365 -0.00032743 -0.924011
-0.139692 0.119617 0.382196 -0.36632 0.509391 -0.778672
-0.0532949 -0.0803393 0.371393 -0.00480295 0.0077148 -0.999959
0.00231309 -0.069507 0.339615 0.383341 0.411445 0.826899
-0.0550106 0.056123 0.27614 -4.38919e-05 -0.147644 -0.989041
-0.0493251 0.182503 0.318286 0.00027488 0.771684 -0.636007
0.102759 0.210401 0.56745 0.169656 0.966056 -0.194813
-0.0153712 0.0551831 0.19798 -0.794581 0.607156 0.00189468
0.179084 0.25921 0.0372539 0.01228 0.87596 0.482227
-0.183671 -0.0424082 0.439291 0.0337862 -0.0398994 0.998632
0.0408224 0.109806 0.134155 -0.804572 0.593856 6.67694e-05
0.0541091 0.136919 0.322198 -0.000131507 -0.369248 0.929331
0.176801 0.205124 0.691484 0.641556 0.765759 0.0449374
-0.025169 -0.144386 0.367888 -0.000347261 -0.971707 -0.236188
-0.0856377 0.165647 0.310632 0.992898 0.0424882 -0.11112
-0.0113158 -0.248228 0.0402531 -0.0120102 1.59612e-05 0.999928
-0.0822141 -0.0350595 0.373327 3.36858e-07 0.000826167 1
0.029223 -0.0360662 0.349059 3.04765e-07 0.000824058 -1
-0.20131 -0.0588488 0.437325 -0.445142 -0.0846688 0.891448
-0.142689 0.243767 0.0705046 0.740404 -0.0345076 -0.671276
0.044291 0.210172 0.541864 0.04089 0.979461 -0.197443
-0.172236 0.161438 0.620515 0.16297 -0.967181 0.194938
0.0817674 0.161247 0.529613 -0.0750136 -0.995686 0.0546105
0.113449 -0.00748546 0.373355 0.0512468 0.00199173 -0.998684
0.140337 0.168191 0.627721 -0.163605 -0.967064 0.194987
-0.109372 0.2074 0.526487 0.00107591 -0.999907 -0.0136012
-0.176646 -0.10929 0.435984 0.0435689 -0.054203 0.997579
0.00677689 -0.0766109 0.373361 2.95262e-07 0.000826203 1
0.136609 0.229852 0.721972 0.323889 0.944226 0.0594467
0.235947 -0.0415823 0.069985 -0.619208 -0.407586 -0.67116
-0.261156 -0.0631085 0.0319166 0 0 1
-0.0572555 0.245467 0.733614 -0.102507 0.99319 0.0553692
0.0427458 0.212092 0.56735 -0.0150019 -0.999524 0.0269551
-0.0933893 0.180008 0.342109 -0.000133063 -0.35981 0.933026
0.140026 0.0303921 0.435324 -0.0479406 0.0766336 0.995906
-0.193854 -0.04898 0.393281 -0.763933 -0.0647379 -0.64204
0.110105 0.202951 0.323086 0.404123 0.329087 -0.853456
-0.0302294 0.0979392 0.349169 3.04765e-07 0.000824058 -1
-0.0952206 -0.000183666 0.122949 0.301943 -0.953326 0.000274131
-0.162753 0.247591 0.00833893 0 0 -1
-0.0588308 0.0984863 0.372344 -0.0176144 0.00737475 -0.999818
0.112084 0.0349199 0.285166 0.642378 -0.113613 -0.75792
-0.0846622 0.00671953 0.308996 3.67743e-05 0.147864 0.989008
0.16104 0.188763 0.713041 -0.11824 -0.922829 0.366614
-0.0713253 0.162799 0.473056 -0.00381862 -0.99501 -0.0997031
-0.0319528 0.0308205 0.124507 -0.652113 0.634127 -0.41549
-0.195971 0.0121634 0.396832 -0.760854 0.0726364 -0.644846
0.152297 0.247082 0.0319166 0 0 1
-0.0531944 0.0170364 0.307453 2.5154e-05 0.147852 0.989009
-0.10914 -0.0434389 0.365977 -0.999999 0.000301013 0.00122501
0.0149389 0.0247245 0.0678984 0.690918 -0.485442 0.535703
0.0513367 -0.0753458 0.349026 3.04765e-07 0.000824058 -1
0.0874747 0.237675 0.392968 -0.39996 0.904773 0.146347
-0.0482368 0.160832 0.331685 -0.000131507 -0.369248 0.929331
-0.100527 0.161022 0.481629 0.0567114 -0.987424 -0.147569
-0.183114 0.253915 0.0279634 -0.990966 0.117486 0.0646772
-0.0843174 0.1239 0.306478 0.992923 0.0423819 -0.110943
0.00076884 0.229866 0.63056 0.040754 0.979462 -0.197468
-0.122442 0.207641 0.572232 -0.251228 0.948843 -0.191263
0.026553 0.139348 0.349202 1.63436e-07 0.000441916 -1
-0.111543 0.226611 0.621118 -0.973293 0.224874 -0.046177
-0.0368334 0.0754564 0.162706 -0.812869 -0.582446 -0.0002741
0.00690614 -0.0614765 0.43319 -0.00189348 -0.0769956 0.99703
0.155711 0.218242 0.685756 0.372901 0.919555 -0.123948
0.0198965 -0.212758 0.398913 0.0714858 -0.953502 -0.292786
0.101789 0.213809 0.407654 -0.000692386 -0.986775 -0.162093
0.138051 0.0813649 0.365486 0.0323389 0.9862 0.162367
-0.109026 0.0658695 0.361306 -0.38985 -0.000194636 -0.920879
0.101395 0.0784026 0.276033 0.161928 -0.0365027 -0.986127
0.120338 -0.0082242 0.120564 -0.302828 -0.953045 -0.000157045
-0.0205398 0.0338748 0.197296 0 0 1
0.112038 0.225197 0.388178 0.988222 0.150979 0.0249678
0.0455754 0.144574 0.370259 0.000295541 0.816688 0.577079
0.0154693 0.220108 0.585195 0.040754 0.979462 -0.197468
0.0834765 0.129853 0.373192 3.13518e-07 0.000768923 1
0.204306 0.0418813 0.422916 0.992596 0.119923 0.0193025
-0.00148484 0.0373813 0.431512 0.00210593 0.0788937 0.996881
0.199223 -0.0651015 0.401325 0.763786 -0.0656817 -0.642119
0.102681 -0.0352732 0.294583 0.181604 -0.294043 -0.938381
-0.0484432 0.0779746 0.349152 2.5826e-07 0.000824031 -1
0.167235 -0.00671702 0.120642 0.315453 0.948941 -0.000193382
0.0878051 0.153541 0.104253 0.272376 -0.439557 -0.855921
-0.0709569 0.00750363 0.13113 0.301943 -0.953326 0.000274131
0.165941 0.224426 0.026337 0.00024321 0.966078 -0.258252
0.00786669 0.112335 0.373205 3.13518e-07 0.000768923 1
-0.0532371 -0.00840635 0.311257 3.67743e-05 0.147864 0.989008
-0.02336 0.159494 0.41623 -0.056346 0.926697 0.371562
-0.190797 0.149435 0.570119 0.114395 -0.993187 0.0222119
0.141398 0.23532 0.000521588 -0.0122911 -0.875398 -0.483247
0.0139986 0.172009 0.587705 -0.0234766 -0.979993 0.197644
-0.0114378 0.203928 0.504111 -0.0401062 0.979493 -0.197444
-0.111118 0.122781 0.302593 -0.993361 0.0417333 -0.107202
0.164977 -0.158717 0.395885 0.76203 -0.489827 -0.423533
-0.0376368 0.0435683 0.30349 6.56475e-05 0.147726 0.989028
-0.0777374 0.236312 0.680841 -0.0557537 0.978757 -0.197295
-0.0811023 -0.115131 0.373393 2.95262e-07 0.000826203 1
-0.0340161 0.181749 0.638299 0.0226602 -0.980031 0.197548
0.160292 0.104098 0.430404 -0.0218019 0.117778 0.992801
-0.0473389 0.162064 0.50494 0.0753142 -0.995181 0.0627916
0.0389565 -0.0750317 0.432268 -0.00770933 -0.0756767 0.997103
-0.0319469 0.135274 0.373188 2.7833e-07 0.000769128 1
0.206159 0.15741 0.583234 0.857421 0.480666 -0.183819
0.0783735 0.240424 0.755891 0.148818 0.987275 0.0560399
-0.000444524 -0.0971324 0.349008 2.5826e-07 0.000824031 -1
-0.079752 -0.0850283 0.373368 3.36858e-07 0.000826167 1
-0.0235668 0.0888109 0.372893 0.0389093 0.07712 -0.996262
0.216766 -0.0231863 0.101935 0.315453 0.948941 -0.000193382
0.199458 0.178813 0.612113 0.714352 0.672785 -0.192513
-0.120273 -0.130475 0.373727 -0.0587911 -0.015992 -0.998142
0.160884 0.0513532 0.358991 -0.000277776 -0.986802 0.161934
-0.143306 -0.0561069 0.437378 0.0337862 -0.0398994 0.998632
-0.106693 -0.121837 0.360358 -0.38985 -0.000194636 -0.920879
-0.173861 -0.0804216 0.31658 -2.78162e-05 -0.146833 -0.989161
0.0877384 -0.0530949 0.352424 0.389919 0.000605262 -0.920849
-0.0960387 0.0419882 0.373263 3.36858e-07 0.000826167 1
-0.00357467 0.0910614 0.347319 -0.101788 -0.18012 0.978364
0.0120973 0.0816512 0.311442 0.923785 -0.353355 -0.14752
-0.0912678 0.0587516 0.301225 0 0.147593 0.989048
0.200238 -0.0828919 0.435564 0.444642 -0.0833664 0.891821
0.210359 -0.0339889 0.43398 0.991743 -0.108065 0.0690508
0.183102 0.234198 0.0223018 0.990976 -0.117442 0.0646003
-0.106679 -0.00552127 0.288178 -0.643037 -0.104817 -0.758628
0.0554565 -0.0933212 0.321504 -0.736748 0.096037 0.669313
0.0236132 0.0487517 0.302711 7.76863e-05 0.147711 0.989031
-0.10336 0.162565 0.343565 0 0.809229 0.587493
0.255664 -0.0374818 0.0533652 0 0 -1
0.196556 -0.0446563 0.314702 0.0022033 0.147161 0.98911
-0.00527524 0.0927705 0.427137 0.00210593 0.0788937 0.996881
-0.0086414 0.150473 0.349207 1.63477e-07 0.000441917 -1
0.192192 0.15643 0.612917 -0.163668 -0.967043 0.195041
0.0397973 0.246218 0.719748 0.04089 0.979461 -0.197443
0.094916 0.016459 0.373284 2.95262e-07 0.000826203 1
0.0434042 -0.113186 0.37142 0.00516497 -0.0222583 -0.999739
0.18643 0.0361622 0.38837 0.760686 0.073617 -0.644932
-0.0882188 0.145845 0.301576 1.22243e-05 0.0343235 -0.999411
0.0976011 0.0853544 0.305637 -0.000131469 -0.359784 0.933036
0.0339461 0.177789 0.618736 -0.0235517 -0.979997 0.197616
0.241917 -0.0361901 0.0958757 0.400642 0.322163 0.857728
0.110688 0.0996418 0.288563 0.993364 0.0411062 -0.107419
-0.0538767 -0.122633 0.348987 2.5826e-07 0.000824031 -1
-0.129936 -0.171277 0.428537 0.0547616 -0.0843061 0.994934
-0.141192 -0.0694435 0.374461 -0.057173 0.0015444 -0.998363
0.0741013 -0.0378162 0.373329 2.95262e-07 0.000826203 1
-0.00829729 -0.0643117 0.132252 -0.99998 -0.00639115 8.08182e-05
-0.0306294 0.0667987 0.14016 -0.812924 -0.58237 -5.01038e-05
0.276413 -0.0516639 7.19814e-05 0.0120141 -5.42931e-06 -0.999928
0.0148838 0.201779 0.711432 -0.0444419 -0.937198 0.345956
0.138975 -0.154559 0.375126 0.10037 -0.0370702 -0.994259
-0.259834 -0.052202 0.0662526 0.302139 -0.952989 -0.0229045
0.0836901 0.0715006 0.294972 -0.984505 0.0562478 -0.16609
-0.175949 -0.153594 0.418607 -0.828953 -0.554087 -0.0763269
-0.159745 0.0810411 0.366303 -0.00817716 6.70367e-06 -0.999967
-0.100704 -0.140935 0.428956 0.0635756 -0.0726696 0.995328
-0.102056 0.162703 0.570633 0.0900155 -0.976305 0.196791
0.0819857 0.202874 0.724652 -0.062616 -0.937885 0.341249
0.0548333 0.103025 0.120451 0.347695 -0.484963 -0.802446
-0.0191019 -0.0151614 0.371242 -0.0145545 5.56114e-06 -0.999894
-0.238831 -0.0302246 0.0917246 -0.309373 0.950941 -0.000310928
0.163239 0.212836 0.725384 0.750778 0.628817 0.202292
0.140308 0.203644 0.576119 0.251958 0.948638 -0.191321
-0.191387 -0.0698326 0.392447 -0.763933 -0.0647379 -0.64204
-0.113741 -0.110829 0.431987 0.0635756 -0.0726696 0.995328
0.173636 0.193628 0.588666 0.381923 0.90595 -0.182729
-0.0413115 0.171505 0.588315 0.0226602 -0.980031 0.197548
-0.163481 0.205684 0.736271 -0.554182 0.595756 0.581341
0.161271 -0.059458 0.313454 -0.000403752 -0.14697 -0.989141
-0.0143095 -0.2279 0.0350207 0.000276248 0.86111 0.508418
0.178364 0.00235858 0.436354 0.00266784 0.013361 0.999907
-0.171272 0.232017 0.0419651 -0.000240775 -0.861149 0.508353
0.0731183 -0.108167 0.349559 -1 0.0002424 0.000285758
-0.135481 0.140126 0.406553 -0.485768 0.864601 0.128428
0.148246 0.0271361 0.375368 0.0530313 0.0062426 -0.998573
0.156573 -0.0226392 0.375538 0.0512468 0.00199173 -0.998684
0.0612259 0.127744 0.147562 -0.166151 0.497704 0.851284
0.074096 0.0595672 0.373248 2.95262e-07 0.000826203 1
-0.0670672 0.0357295 0.372026 -0.0176144 0.00737475 -0.999818
-0.184239 -0.0347818 0.309805 0.000271036 -0.146908 -0.98915
0.105983 0.196624 0.503332 0.242205 0.839609 -0.486203
0.0994832 -0.123665 0.3734 2.95262e-07 0.000826203 1
-0.0042679 0.245438 0.708557 -0.0402176 0.979485 -0.197463
-0.118911 0.236473 0.712841 -0.197001 0.976694 0.0852025
-0.0793718 -0.160138 0.427004 0.0360222 -0.0773146 0.996356
0.118386 0.2015 0.536924 0.169656 0.966056 -0.194813
0.0217652 0.0819657 0.276388 0.0180903 0.0182461 -0.99967
0.0836769 0.195359 0.345861 -0.927807 -0.133959 0.348179
-0.10087 0.208339 0.468247 0.00109501 -0.996674 -0.0814786
-0.063969 -0.112144 0.430172 0.0360222 -0.0773146 0.996356
-0.140724 -0.0844353 0.435637 0.0635756 -0.0726696 0.995328
-0.0523669 0.161554 0.400093 -0.17014 0.817489 -0.55024
-0.0944986 0.179376 0.649881 0.089936 -0.976303 0.196834
0.0262523 -0.107866 0.429678 -0.00770933 -0.0756767 0.997103
0.114844 -0.0863652 0.433696 -0.0557606 -0.0719182 0.995851
0.0414886 0.108426 0.153995 -0.281836 0.546966 0.788287
-0.0950981 -0.0706968 0.433726 0.0635756 -0.0726696 0.995328
0.18375 0.0631598 0.367491 1 -0.000755872 0
-0.105846 0.00144433 0.372958 -0.053009 0.00622938 -0.998575
-0.0317531 0.164557 0.459715 0.0374028 -0.99261 -0.115442
-0.0973084 0.235679 0.442586 0.365992 0.926074 0.091858
-0.264224 -0.0385134 0.0775887 -0.351602 0.935921 -0.0206941
-0.0603321 -0.0279376 0.436147 0.0124148 -0.067965 0.99761
0.0432238 0.114669 0.373203 3.13518e-07 0.000768923 1
-0.00785207 -0.134321 0.104656 -0.99998 -0.00639115 8.08182e-05
-0.098073 0.143478 0.294505 -0.403599 0.329457 -0.853561
-0.060329 -0.0908931 0.431689 0.0360222 -0.0773146 0.996356
0.123593 -0.0567549 0.30731 -0.69468 -0.71147 0.105972
0.157256 0.189387 0.543747 0.386756 0.888583 -0.246655
-0.100726 0.153164 0.40471 -0.176127 0.934091 0.31057
0.0277899 -0.0335236 0.304422 -0.858978 -0.506368 0.0758142
0.0663612 0.183841 0.320604 0.000343126 0.963274 0.268521
0.00877241 0.00373339 0.154214 0.999974 -0.00714659 9.1394e-05
0.213407 0.155951 0.624694 0.198726 -0.975913 0.0900065
0.00801035 0.0300521 0.201414 0.000747707 -0.000571344 1
-0.00567781 0.075119 0.318568 -0.382608 -0.839324 -0.386195
-0.101858 0.172979 0.0991776 -0.236423 -0.427406 -0.872599
-0.158831 0.265348 0.0325948 -0.00027707 -0.862373 -0.506273
0.0923959 -0.0230371 0.306142 -0.999949 -0.0100615 0.00104344
-0.0105034 -0.0874606 0.37337 2.95262e-07 0.000826203 1
0.0414679 0.22871 0.633244 0.04089 0.979461 -0.197443
0.0839708 -0.108852 0.373388 2.95262e-07 0.000826203 1
0.049003 0.062299 0.429776 -0.0126347 0.0783879 0.996843
0.0966388 -0.0246385 0.372327 0.0567503 0.00606488 -0.99837
-0.0561664 -0.0242974 0.287973 -0.00961195 -0.240723 -0.970546
0.0454333 0.20052 0.494252 0.0566462 0.978707 -0.197292
-0.196599 0.0740407 0.428458 -0.913869 0.401034 -0.0633615
-0.0807133 0.147284 0.366494 0.000329201 0.816395 0.577494
-0.111947 0.199524 0.340094 -0.993311 0.0418188 -0.107627
0.0421243 0.222913 0.604622 0.04089 0.979461 -0.197443
-0.00744259 -0.111895 0.337011 -0.384106 -0.411304 -0.826615
0.117208 -0.0532275 0.436222 -0.0557606 -0.0719182 0.995851
-0.00561812 0.023798 0.349108 3.04765e-07 0.000824058 -1
0.0339227 0.0712263 0.160109 0.812506 -0.582953 -5.69831e-05
0.00394506 0.031909 0.305228 7.76863e-05 0.147711 0.989031
0.00970087 -0.00151001 0.281755 0.067509 -0.271623 -0.960033
-0.0962478 0.136189 0.340423 -0.000582593 -0.978093 0.208166
-0.0637391 0.240616 0.698238 -0.0557537 0.978757 -0.197295
0.144837 -0.123186 0.374989 0.0585395 -0.0134356 -0.998195
-0.0987609 0.0301433 0.433352 0.0482437 0.0769129 0.99587
0.0978216 -0.0864569 0.356672 0.389919 0.000605262 -0.920849
0.0101653 0.0549346 0.0393968 0.284584 0.957408 -0.048798
-0.00787352 0.02395 0.0430793 -0.257467 -0.965042 -0.0490324
0.0348681 -0.0166443 0.371135 0.00490104 -1.87264e-06 -0.999988
-0.0980315 -0.0324879 0.30231 0.694152 -0.711927 0.10636
-0.112053 0.101532 0.310201 -0.927765 -0.134005 0.348275
0.0709337 0.116746 0.349184 3.04765e-07 0.000824058 -1
-0.0854566 0.236843 0.371104 0.988518 0.149444 -0.022329
0.00801846 -0.102236 0.117113 0.999974 -0.00714659 9.1394e-05
-0.0637527 0.113036 0.133471 -0.812924 -0.58237 -5.01038e-05
0.19946 0.184176 0.65418 0.840698 0.540901 -0.025566
0.158673 0.168273 0.64351 -0.163605 -0.967064 0.194987
-0.0449219 0.164031 0.534098 0.0195026 -0.997914 0.061533
0.110224 0.103021 0.428268 -0.0483285 0.07696 0.995862
-0.00645047 0.0290426 0.259357 -0.894579 -0.446909 0
0.126846 0.107413 0.374629 0.027933 -0.00440339 -0.9996
-0.0526707 -0.206162 0.414836 -0.153785 -0.914249 0.374831
0.0774403 0.180549 0.648097 -0.0906961 -0.976228 0.196856
0.0647191 -0.0499803 0.291989 -6.73511e-05 -0.147786 -0.989019
-0.161007 0.123368 0.412909 -0.555177 0.831442 -0.0219865
-0.141187 -0.127168 0.374906 -0.0587911 -0.015992 -0.998142
-0.0881484 0.102046 0.352661 -0.381509 0.000911826 -0.924365
0.0681875 0.172382 0.603331 -0.0906961 -0.976228 0.196856
0.042815 0.209332 0.735103 -0.0206927 -0.943133 0.331771
-0.0351426 -0.175389 0.424645 0.00755221 -0.0769967 0.997003
0.0360801 -0.0430975 0.373333 2.95262e-07 0.000826203 1
0.05923 -0.0875787 0.431546 -0.0124524 -0.0759498 0.997034
-0.156035 0.171878 0.658771 0.16297 -0.967181 0.194938
-0.187042 -0.136519 0.416432 -0.837814 -0.543886 -0.0474915
0.0847248 0.230877 0.374484 -0.988032 0.14989 -0.0363991
-0.0209544 0.0333459 0.431873 0.00210593 0.0788937 0.996881
0.178136 0.204051 0.649797 0.382206 0.90586 -0.182582
-0.0925413 0.211298 0.432153 0.00109501 -0.996674 -0.0814786
0.101623 0.170933 0.611546 -0.0906441 -0.976239 0.19683
-0.13787 0.233003 0.0255364 0.991083 -0.116958 0.0638327
-0.0885334 0.118632 0.373016 -0.0176144 0.00737475 -0.999818
-0.176533 0.0521738 0.435418 0.0482437 0.0769129 0.99587
0.00801451 -0.0468133 0.373336 2.95262e-07 0.000826203 1
0.0746287 0.0202845 0.433405 -0.0126347 0.0783879 0.996843
0.0348107 0.0898819 0.427545 -0.00204632 0.0778378 0.996964
0.0771516 0.115562 0.42622 -0.0257299 0.0752278 0.996834
-0.201644 -0.0180036 0.105865 -0.314825 0.94915 0.000233566
-0.182762 0.0602469 0.386878 -0.757643 0.0739999 -0.648461
0.0073753 -0.203044 0.0817051 0.999999 -0.00126071 -4.72201e-05
-0.0342393 0.0177526 0.277327 -0.00961195 -0.240723 -0.970546
0.0041798 0.212183 0.549241 -0.0150019 -0.999524 0.0269551
0.0933841 0.147041 0.326225 -0.000131536 -0.369248 0.929331
0.183877 -0.106912 0.390221 0.80259 -0.21372 -0.556932
-0.0732868 0.209197 0.554707 0.0349472 -0.986699 0.158757
-0.0507771 -0.105027 0.324916 0.998387 -0.0567009 0.00284473
0.136374 0.159748 0.582527 -0.163668 -0.967043 0.195041
0.0914588 0.233066 0.441182 -0.399376 0.912292 0.0906698
-0.0225998 -0.21242 0.398951 -0.0713075 -0.941177 -0.330304
-0.103074 0.15903 0.524303 0.148359 -0.986258 0.0726958
0.0707723 -0.13488 0.372044 0.00516497 -0.0222583 -0.999739
-0.0739003 0.154348 0.108727 0.568753 0.181479 -0.802238
0.18922 0.0663558 0.39706 0.70119 0.32763 -0.633239
-0.00743544 0.0587868 0.301213 6.2231e-05 0.147789 0.989019
0.0686013 0.202093 0.508707 0.0566462 0.978707 -0.197292
-0.0498825 0.063421 0.294864 0.000486883 0.984922 -0.172997
0.0259871 0.222164 0.544522 -0.0185376 -0.0499562 -0.998579
0.0880936 0.178229 0.337117 -5.73807e-05 -0.161114 0.986936
0.0103517 0.0158859 0.172254 0.829021 -0.559171 0.00715095
0.0100017 0.0945283 0.295871 6.22524e-05 0.14784 0.989011
-0.121846 -0.00589725 0.437081 0.0345125 0.0597809 0.997615
-0.0520888 0.0924499 0.427526 0.0251127 0.0790028 0.996558
-0.116742 -0.192113 0.392736 -0.337175 -0.875648 -0.345766
-0.0898348 0.00412526 0.285503 -0.739731 -0.099376 -0.665525
-0.0298041 0.0669925 0.371601 -0.0176144 0.00737475 -0.999818
-0.0635274 0.252074 0.660384 0.321317 -0.242412 -0.915419
-0.080924 0.153436 0.414671 -0.151586 0.917183 0.368507
0.0123801 0.0108904 0.373289 3.36858e-07 0.000826167 1
0.0930851 0.153926 0.406042 0.171637 0.914079 0.367424
0.121402 0.140066 0.422206 0.0769341 0.413347 0.907318
-0.00685115 -0.233349 0.0558887 -0.999711 -0.00639212 -0.0231608
-0.146763 -0.147475 0.43142 0.0635756 -0.0726696 0.995328
-0.0117192 -0.0122569 0.311831 5.28603e-05 0.147838 0.989012
0.125372 -0.163523 0.428721 -0.0887823 -0.0391868 0.99528
-0.0120774 0.219728 0.58262 -0.0402176 0.979485 -0.197463
0.0193254 0.230253 0.636312 0.04089 0.979461 -0.197443
0.0326451 0.00668285 0.308997 8.42755e-05 0.147854 0.989009
0.00550824 -0.0657983 0.145988 0.454807 -0.296569 0.839761
-0.00862674 -0.012584 0.146496 -0.99998 -0.00639115 8.08182e-05
0.0376453 0.0764171 0.135125 0.812506 -0.582953 -5.69831e-05
-0.211023 -0.0310563 0.0852719 0.332987 -0.35659 -0.872905
-0.0770911 0.0103994 0.372086 -0.0145545 5.56114e-06 -0.999894
0.106673 0.0998313 0.36032 0.382365 -0.00032743 -0.924011
0.118649 0.223473 0.646112 0.169656 0.966056 -0.194813
0.148633 0.0641949 0.375429 0.027933 -0.00440339 -0.9996
0.0732521 -0.201929 0.388229 0.190688 -0.923515 -0.332802
-0.111434 0.167054 0.597573 0.162909 -0.96718 0.194995
-0.104554 0.053079 0.277851 -0.528017 -0.125526 -0.839905
-0.0609864 0.137371 0.131234 0.80503 0.593235 0.000158314
-0.136125 0.216845 0.635866 -0.250875 0.948917 -0.191359
-0.0210059 0.245018 0.768217 -0.0715681 0.871067 0.485922
-0.0837544 0.0852838 0.296836 0.992965 0.0379808 -0.112151
-0.103808 0.0992161 0.373464 -0.0530297 0.00627881 -0.998573
-0.00730503 0.136667 0.322089 -0.000131507 -0.369248 0.929331
0.139207 0.22576 0.691768 0.384624 0.91656 -0.109467
0.109012 0.238447 0.711978 0.169608 0.966066 -0.194808
0.0597074 -0.0907583 0.371257 0.00490104 -1.87264e-06 -0.999988
-0.0410944 -0.00997055 0.373306 3.36858e-07 0.000826167 1
0.0837038 -0.0544043 0.434422 -0.0373819 -0.0702521 0.996829
-0.111159 0.223811 0.430306 -0.988281 0.152044 0.0135088
-0.154548 0.207897 0.619364 -0.381377 0.906178 -0.18274
-0.169057 0.0836341 0.382769 -0.599637 0.213078 -0.771384
-0.0182812 0.234351 0.656419 -0.0402176 0.979485 -0.197463
-0.0222021 -0.0737384 0.432357 0.00184022 -0.075342 0.997156
-0.0936862 -0.198099 0.417676 -0.153785 -0.914249 0.374831
0.169907 0.0216045 0.376211 0.027933 -0.00440339 -0.9996
0.0387245 -0.210726 0.396894 0.0714858 -0.953502 -0.292786
-0.188609 -0.0764098 0.4381 0.0337862 -0.0398994 0.998632
-0.106276 0.208536 0.323493 -0.403419 0.329468 -0.853642
0.0221443 0.049503 0.169889 0.999285 -0.0372017 0.00680982
-0.120982 0.0793185 0.430631 0.0482437 0.0769129 0.99587
0.180564 0.150876 0.571993 -0.146615 -0.987759 0.0532553
-0.108231 0.240086 0.659951 -0.885872 0.370562 0.279133
-0.0480522 0.233957 0.660771 -0.0557537 0.978757 -0.197295
-0.109117 0.0469937 0.362438 -0.999999 0.000301013 0.00122501
0.0614873 0.162864 0.532308 -0.0646195 -0.995954 0.0624488
0.147884 0.0895919 0.431133 -0.0483285 0.07696 0.995862
-0.00953726 0.182688 0.318528 0.00027488 0.771684 -0.636007
-0.105065 0.074759 0.278073 -0.159409 0.0740158 -0.984434
-0.0421253 -0.10931 0.373388 2.95262e-07 0.000826203 1
-0.0595453 0.065966 0.365408 0.999988 -0.000906356 -0.00478225
-0.137522 0.171543 0.641635 0.162909 -0.96718 0.194995
-0.0398169 0.0985205 0.373216 3.36858e-07 0.000826167 1
0.113428 -0.0179999 0.310753 0.000174103 0.146992 0.989138
-0.095282 0.116598 0.317655 -0.000130245 -0.359809 0.933026
0.170334 -0.00858742 0.0986579 -0.0597276 0.484818 -0.872573
-0.0831284 0.224674 0.631854 0.976126 0.188407 -0.108081
-0.104752 0.218064 0.373466 -0.00035864 -0.971577 0.236724
0.0458348 0.0651973 0.349142 3.04765e-07 0.000824058 -1
-0.14038 0.0619033 0.432915 0.0482437 0.0769129 0.99587
0.10443 -0.0607032 0.373348 2.95262e-07 0.000826203 1
0.0300046 -0.10766 0.349 2.5826e-07 0.000824031 -1
-0.0655623 0.0236687 0.123146 0.00343339 0.596978 -0.80225
0.0951757 0.157055 0.303007 0.000133951 0.37611 -0.926575
-0.0835045 0.215432 0.595053 0.993875 -0.101696 0.0432446
0.110001 -0.197763 0.408545 0.27407 -0.913602 0.300362
-0.0398785 0.177073 0.61577 0.0226602 -0.980031 0.197548
-0.0842265 0.141616 0.120288 -0.812924 -0.58237 -5.01038e-05
0.0242286 -0.15259 0.373753 -0.0380692 -0.0743304 -0.996507
-0.0433534 0.167165 0.567019 0.0226602 -0.980031 0.197548
-0.0107652 0.0193613 0.128926 -0.748653 -0.575423 -0.329252
0.0591725 0.160644 0.494509 -0.0646195 -0.995954 0.0624488
0.0700927 0.244084 0.717407 0.0563659 0.978712 -0.197348
-0.140577 0.00173891 0.374804 -0.0530297 0.00627881 -0.998573
-0.176599 -0.0167478 0.0932816 0.0376155 0.516186 -0.85565
0.0796818 0.138218 0.137995 0.542123 -0.0280158 0.839832
-0.0298406 -0.0415998 0.434799 0.00184022 -0.075342 0.997156
-0.0966268 0.219356 0.617689 0.0045539 -0.981181 0.193036
-0.0846035 -0.144029 0.366507 -0.000347261 -0.971707 -0.236188
0.0975489 0.187516 0.685203 -0.0771687 -0.941004 0.329479
0.0884007 0.149819 0.343055 -1 0.00030914 -6.57937e-05
0.108786 0.158391 0.497797 -0.0422438 -0.979273 -0.198092
-0.141533 0.154008 0.510246 0.0785323 -0.879497 -0.46938
-0.274549 -0.0637784 0.040206 -0.01201 2.17745e-05 0.999928
-0.0443929 0.245715 0.752979 -0.102507 0.99319 0.0553692
-0.133823 0.225927 0.677882 -0.250875 0.948917 -0.191359
0.110544 0.137695 0.301782 0.993396 0.0409622 -0.107179
-0.0919073 0.229724 0.502785 0.341437 0.939303 0.0336344
-0.15255 0.0249253 0.375578 -0.0345197 -0.00374716 -0.999397
0.0847949 0.224509 0.592808 -0.985155 0.170579 -0.0193003
0.0932037 0.1021 0.373213 3.36858e-07 0.000826167 1
-0.0608274 -0.0745952 0.295672 0.000202189 -0.147711 -0.989031
-0.161194 -0.119545 0.434381 0.0635756 -0.0726696 0.995328
-0.0541519 -0.198993 0.378867 -0.0999468 -0.590571 -0.800772
0.0165791 -0.243485 0.0441983 0 0 1
-0.0203854 -0.136072 0.348976 2.5826e-07 0.000824031 -1
-0.072383 0.0187103 0.307203 2.5154e-05 0.147852 0.989009
-0.0959998 0.0635481 0.355863 -0.381509 0.000911826 -0.924365
-0.0240906 -0.113454 0.429345 0.00755221 -0.0769967 0.997003
-0.126027 -0.0394507 0.373774 -0.053009 0.00622938 -0.998575
0.00792586 0.00979593 0.433738 -0.00570899 0.0788957 0.996867
0.00523108 -0.0479789 0.327551 0.383341 0.411445 0.826899
0.101146 0.00999808 0.435016 -0.0483285 0.07696 0.995862
-0.153125 0.222074 0.705686 -0.383631 0.91598 -0.117505
-0.0679621 0.183938 0.320427 0.000343126 0.963274 0.268521
-0.0574738 0.0298046 0.153604 -0.314825 0.94915 0.000233566
0.0310584 0.0214336 0.132266 -0.353515 -0.481403 -0.802046
0.0519699 0.0963817 0.143108 0.812506 -0.582953 -5.69831e-05
0.13658 0.0503861 0.356628 0.0308334 -0.960794 0.275544
-0.0287866 0.148831 0.30168 1.22243e-05 0.0343235 -0.999411
0.0751021 0.163615 0.463858 0.0160498 -0.98979 -0.14163
-0.144031 -0.0148344 0.104201 0.332987 -0.35659 -0.872905
-0.198926 0.176768 0.603131 -0.713548 0.673681 -0.192363
0.00787497 -0.122368 0.112321 0.999975 -0.00708665 -0.000265431
-0.148903 0.184643 0.697063 0.148215 -0.930192 0.335821
0.0900096 0.162231 0.558864 -0.0750136 -0.995686 0.0546105
0.237283 -0.069395 0.0343215 -0.991216 -0.115666 0.0641224
-0.270402 -0.0443308 0.026683 0.999999 -0.00109118 -0.000103135
0.0893765 0.0130218 0.353161 0.389919 0.000605262 -0.920849
0.166268 -0.0457519 0.375989 0.0512468 0.00199173 -0.998684
-0.193681 0.156848 0.615674 0.16297 -0.967181 0.194938
-0.105649 0.228939 0.338476 -0.414342 0.750931 -0.514221
0.0504668 -0.061344 0.293688 -6.73511e-05 -0.147786 -0.989019
-0.000414194 0.200936 0.487029 -0.0402176 0.979485 -0.197463
0.0139531 0.0904913 0.332227 0.923872 0.338767 0.178036
0.190156 0.1759 0.572184 0.695104 0.626317 -0.352927
-0.0186569 0.0343417 0.0576825 -0.998617 -0.0154937 -0.0502384
0.102275 0.178473 0.309941 0.403899 0.329144 -0.85354
0.0847689 0.212592 0.565422 0.0563659 0.978712 -0.197348
0.0860611 0.0418878 0.351776 0.389919 0.000605262 -0.920849
-0.161372 0.166526 0.63668 0.16297 -0.967181 0.194938
-0.0689509 -0.1888 0.424404 0.0360222 -0.0773146 0.996356
0.188075 0.0723471 0.433774 0.357003 0.247068 0.900837
0.00456928 -0.0944674 0.430637 -0.00189348 -0.0769956 0.99703
0.0840399 0.21042 0.455897 -0.911329 -0.410367 -0.0328284
0.156683 0.21429 0.657129 0.384624 0.91656 -0.109467
0.0187639 0.237048 0.669906 0.04089 0.979461 -0.197443
-0.069521 0.175703 0.620246 0.0900155 -0.976305 0.196791
-0.0316221 0.197589 0.483753 -0.0749041 0.882905 -0.463538
-0.0603112 0.0512551 0.430999 0.0251127 0.0790028 0.996558
0.178868 0.048421 0.358177 0.00979639 -0.923135 -0.384352
-0.235828 -0.0581184 0.0143765 0.9918 -0.000450141 -0.127796
-0.0112042 0.0698145 0.135989 0.80503 0.593235 0.000158314
0.0693104 0.148405 0.112252 -0.804572 0.593856 6.67694e-05
-0.0151796 0.090131 0.305499 -0.142862 -0.470657 0.870673
0.152913 -0.0962838 0.3751 0.0585395 -0.0134356 -0.998195
0.0389615 0.0589526 0.373324 0.0465849 0.0770917 -0.995935
0.259142 -0.061418 0.00833893 0 0 -1
-0.00204737 0.223032 0.568713 0.0192397 0.152699 0.988085
-0.155825 0.202146 0.593511 -0.381377 0.906178 -0.18274
-0.0077818 0.200433 0.706336 0.0197485 -0.937945 0.346222
-0.158944 0.180888 0.519213 -0.651358 0.678653 -0.339358
-0.103608 0.168666 0.123455 -0.812869 -0.582446 -0.0002741
-0.255724 -0.0767386 0.0327263 0.000238911 0.862356 -0.506302
0.175598 0.0735794 0.384921 0.596589 0.218236 -0.772305
0.0555915 -0.0278474 0.371358 0.0175957 0.00730737 -0.999818
0.0710879 0.142896 0.372622 0.000295541 0.816688 0.577079
-0.143573 0.115033 0.428759 0.0223952 0.116964 0.992884
0.135937 0.186848 0.699257 -0.151076 -0.93643 0.316662
-0.0488802 0.184896 0.656411 0.0900155 -0.976305 0.196791
-0.125799 0.00714805 0.127887 -0.314825 0.94915 0.000233566
0.0184413 0.0794816 0.149633 -0.804572 0.593856 6.67694e-05
0.111284 0.0537726 0.281689 0.527114 -0.0815923 -0.845868
0.0612667 -0.00237288 0.435017 -0.0126347 0.0783879 0.996843
-0.0892172 0.0948726 0.428224 0.0126931 0.0741973 0.997163
0.254195 -0.0626111 0.0429366 0 0 -1
-0.173754 0.207018 0.698757 -0.600552 0.799069 -0.0287347
0.0773981 0.258706 0.677991 0.273181 0.709122 0.650014
-0.0958292 -0.0885181 0.432471 0.0635756 -0.0726696 0.995328
-0.163913 0.212755 0.668261 -0.383631 0.91598 -0.117505
-0.0945622 -0.130907 0.373406 2.95262e-07 0.000826203 1
-0.172254 0.171572 0.67081 0.16297 -0.967181 0.194938
-0.00201525 0.147898 0.365581 0.000329201 0.816395 0.577494
-0.0645569 -0.00725635 0.435509 0.0126931 0.0741973 0.997163
-0.163524 -0.00923994 0.12369 -0.422032 0.341354 0.839861
0.0341754 0.164755 0.538085 -0.0444976 -0.997084 0.0620009
0.038763 0.121258 0.425093 -0.00570899 0.0788957 0.996867
-0.259245 -0.0699157 0.0178375 0 -0.875226 -0.483714
0.103978 0.186917 0.485349 0.203741 0.861908 -0.464332
-0.0593428 -0.207995 0.397187 -0.193707 -0.922749 -0.333185
0.082476 0.23055 0.653826 0.0563659 0.978712 -0.197348
0.111912 0.217868 0.458816 0.987936 0.15427 0.0134963
-0.138349 0.253398 0.00108704 0.99186 -0.000405406 -0.127332
0.0152033 -0.14076 0.352859 -0.000304526 -0.971652 -0.236414
0.123877 0.160204 0.485619 -0.0422438 -0.979273 -0.198092
0.177584 -0.0802896 0.380174 0.633521 -0.0485207 -0.772203
-0.109321 0.0399629 0.30403 0 0.147642 0.989041
-0.0285159 0.202138 0.712422 0.0448655 -0.942551 0.331035
0.0892225 0.233538 0.670571 0.0563659 0.978712 -0.197348
-0.0100102 0.0558485 0.0569275 -0.283023 0.957884 -0.048547
0.0485543 -0.131747 0.34898 2.5826e-07 0.000824031 -1
-0.0582502 -0.139023 0.349939 0 0 1
-0.177147 0.253487 7.13254e-05 -0.0120254 5.45794e-06 -0.999928
0.0600675 0.0109226 0.144297 -0.302828 -0.953045 -0.000157045
0.110379 0.228025 0.661485 0.169608 0.966066 -0.194808
0.137977 0.130659 0.393063 0.482482 0.72298 -0.494481
0.0331848 0.240996 0.772834 0.0837292 0.87024 0.485461
0.0746216 0.127954 0.114048 0.812522 -0.582931 0.000104276
-0.133959 0.204591 0.736969 -0.00395571 -0.817843 0.575428
-0.0679571 0.18089 0.461575 -0.242151 0.526698 -0.814832
0.0572704 0.256597 0.660727 0.012912 0.673076 -0.739461
-0.0109373 0.154921 0.302125 0.000133951 0.37611 -0.926575
-0.0773542 -0.119513 0.344328 -0.999997 0.00152329 -0.00191639
-0.0311402 0.211864 0.551532 0.0141418 -0.999537 0.0269554
-0.0598613 -0.0457992 0.316846 2.9666e-05 0.147795 0.989018
0.154904 0.163962 0.618971 -0.163668 -0.967043 0.195041
0.14115 0.0970929 0.375183 0.0872418 0.0407615 -0.995353
0.0777115 0.222813 0.539874 -0.705463 -0.0328039 -0.707987
0.0558169 0.176442 0.617765 -0.0906961 -0.976228 0.196856
0.0782454 0.0223916 0.306645 7.41293e-05 0.147836 0.989012
0.05531 -0.125951 0.371766 0.00516497 -0.0222583 -0.999739
-0.124831 -0.0573825 0.310582 0.694152 -0.711927 0.10636
0.152513 -0.00932239 0.129606 0.421707 0.312284 0.851259
0.125771 0.156594 0.527198 -0.146615 -0.987759 0.0532553
0.0311261 -0.0246363 0.288085 0.0867697 -0.237871 -0.967413
-0.0109664 0.0169148 0.158412 -0.83258 -0.553904 0
0.110145 -0.00498772 0.134273 -0.302828 -0.953045 -0.000157045
0.162868 0.250589 0.0763378 0.809018 -0.587784 -0.000340957
0.0972574 0.162675 0.472213 -0.0181095 -0.989336 -0.144522
-0.0920799 0.23036 0.484068 0.36603 0.930197 0.0274952
0.237248 -0.0533356 0.00342946 -0.991674 0.000450081 -0.128771
0.112789 0.210343 0.523154 0.987919 0.154952 0.00262204
0.109113 0.0474537 0.363611 1 -3.8076e-05 -9.22005e-06
-0.109152 -0.0727004 0.362717 -0.999999 0.000301013 0.00122501
-0.0868609 0.229071 0.34134 0.389619 0.758973 -0.521686
-0.134597 -0.143615 0.374747 -0.0491467 -0.00809524 -0.998759
0.00215157 0.179625 0.335808 0.000343069 0.963273 0.268522
-0.141772 -0.0218202 0.438696 0.0337862 -0.0398994 0.998632
0.150869 -0.0115864 0.0996976 -0.333493 -0.394966 -0.856028
-0.135181 0.238165 0.093856 0.808417 0.588611 -0.000124335
-0.105572 0.121261 0.373621 -0.0511885 0.0133419 -0.9986
0.0767766 -0.151988 0.427285 -0.0373819 -0.0702521 0.996829
-0.11454 0.204886 0.0916129 0.501867 0.123408 -0.856096
0.109667 0.219072 0.329095 0.403899 0.329144 -0.85354
0.0275799 -0.0796107 0.373363 2.95262e-07 0.000826203 1
0.00827325 -0.260872 0.0402223 0.000241539 0.862356 -0.506302
0.0711484 0.186641 0.471507 0.165553 0.855281 -0.491006
-0.0268118 0.251498 0.664088 0.0715938 -0.94765 0.31118
-0.0889427 0.0193716 0.133404 -0.314825 0.94915 0.000233566
0.0416904 -0.0409018 0.31611 -8.19512e-05 0.147698 0.989033
0.0944951 0.182528 0.117855 -0.804649 0.593751 -0.000243852
-0.104832 0.234047 0.752505 -0.305598 0.865877 0.396065
0.0980146 -0.127267 0.356727 0.389919 0.000605262 -0.920849
-0.186831 -0.0273534 0.384178 -0.619268 -0.0466587 -0.783792
-0.141974 0.199442 0.557214 -0.251228 0.948843 -0.191263
-0.0832028 0.202795 0.724042 0.0755276 -0.938225 0.337682
-0.0772638 -0.094443 0.303956 -0.999346 0.0170554 0.0318976
0.0945105 -2.00383e-05 0.135032 -0.302828 -0.953045 -0.000157045
-0.00810677 -0.0943323 0.115477 -0.99998 -0.00639115 8.08182e-05
0.0825467 -0.0674526 0.307201 0.980745 -0.193152 0.0288271
0.00767433 0.0478162 0.240296 0.894579 0.44691 0
-0.147317 0.168843 0.493473 -0.585568 0.0223909 -0.810314
0.00733538 0.149938 0.422206 0.0162854 0.388669 0.921233
-0.0125044 0.0362866 0.304576 6.56475e-05 0.147726 0.989028
0.0067274 0.110058 0.425796 -0.00570899 0.0788957 0.996867
0.14643 0.227951 0.0977356 0.809018 -0.587784 -0.000340957
-0.124783 0.171208 0.629328 0.162909 -0.96718 0.194995
0.112757 0.0454758 0.301849 0.74499 0.098242 0.659802
-0.239463 -0.0722383 0.00562065 0.0113438 -0.875247 -0.483543
0.0205929 0.0490263 0.0830638 0.87549 0.483236 0
-0.0568882 -0.178466 0.375162 0.0493738 -0.028561 -0.998372
-0.154587 -0.0497948 0.315483 -4.15755e-06 0.147003 0.989136
-0.059267 -0.0592884 0.371584 -0.00480295 0.0077148 -0.999959
0.106568 -0.0462236 0.360329 0.382365 -0.00032743 -0.924011
-0.198368 0.166615 0.574574 -0.813487 0.469729 -0.34292
-0.083696 0.17226 0.330513 0.992923 0.0423819 -0.110943
0.0844 -0.0322792 0.314817 8.12095e-05 0.147885 0.989005
0.0162082 -0.187813 0.376687 -0.0380692 -0.0743304 -0.996507
-0.0665402 -0.0521739 0.434573 0.0124148 -0.067965 0.99761
-0.0574919 -0.121041 0.372662 -0.00583169 -0.0743951 -0.997212
-0.142688 0.129017 0.395998 -0.502545 0.709038 -0.494686
-0.0153373 0.212765 0.546061 0.0202998 -0.811884 -0.583465
0.079573 -0.0549483 0.318207 8.12095e-05 0.147885 0.989005
-0.110025 0.227636 0.47028 -0.987751 0.155517 0.0127103
-0.0240759 -0.190063 0.377117 0.0493738 -0.028561 -0.998372
-0.00970453 -0.0473205 0.317268 0 0.893099 -0.44986
-0.126605 0.18915 0.699706 0.148215 -0.930192 0.335821
0.141463 0.180936 0.496938 0.490527 0.596035 -0.635709
0.0108389 0.0691829 0.137859 -0.804572 0.593856 6.67694e-05
0.19303 -0.126677 0.421318 0.932551 -0.355556 -0.0626797
-0.128139 0.0673805 0.362391 0.000254383 -2.19401e-07 -1
0.00155753 0.0716302 0.34611 0.378921 -0.894235 -0.238251
0.0235144 -0.245905 0.0146628 0.991797 -0.000441254 -0.127825
-0.0780057 0.133581 0.319179 -0.000244178 -0.685641 0.72794
0.0761769 -0.0055962 0.285354 -5.64861e-05 -0.147893 -0.989003
0.275909 -0.068276 0.0429366 0 0 -1
-0.00757772 0.0372699 0.0701121 0 0 -1
-0.085505 0.239589 0.753689 -0.159626 0.980936 0.110835
-0.00402046 0.248175 0.752614 -0.0533269 0.995628 0.0766942
-0.161802 -0.021018 0.0999477 0.332987 -0.35659 -0.872905
0.082513 -0.00761542 0.350242 0.389919 0.000605262 -0.920849
-0.142948 0.156151 0.566612 0.148359 -0.986258 0.0726958
-0.101408 0.232105 0.556633 0.704951 0.709255 0.00148662
-0.107016 0.198875 0.513771 -0.168999 0.966183 -0.194757
0.0831603 0.0489092 0.431405 -0.0257299 0.0752278 0.996834
-0.160997 0.0996522 0.383988 -0.527177 0.345881 -0.776177
-0.114355 0.0223899 0.434706 0.0482437 0.0769129 0.99587
-0.0464484 0.242164 0.701031 -0.0557537 0.978757 -0.197295
-0.14888 -0.000505392 0.118073 -0.314825 0.94915 0.000233566
-0.0490356 0.0030013 0.349091 2.5826e-07 0.000824031 -1
-0.0168255 0.181204 0.633606 0.022921 -0.980006 0.197643
-0.0327956 0.0379936 0.139558 -0.314825 0.94915 0.000233566
0.0157647 -0.164135 0.425326 -0.00770933 -0.0756767 0.997103
-0.0497318 0.229594 0.562534 0.0146854 0.999889 -0.00241319
0.0267155 0.171962 0.309048 0.00013398 0.37611 -0.926575
0.00139899 -0.0448485 0.434463 -0.00189348 -0.0769956 0.99703
-0.0789312 0.204318 0.522465 -0.0557901 0.978754 -0.197302
0.0479807 0.0619665 0.286266 0.0001631 0.986334 -0.164757
0.0126775 0.247774 0.748665 0.0733442 0.994358 0.0766305
-0.109358 -0.166088 0.373654 -0.0587911 -0.015992 -0.998142
-0.00749639 -0.195593 0.0824932 -1 -0.000592559 -0.00026936
0.103136 0.240902 0.38833 0.40562 0.902299 0.146044
-0.098867 0.210543 0.743431 0.0183011 -0.849199 0.527755
-0.005896 -0.0593133 0.116571 -0.44177 0.2071 -0.872897
-0.0022432 -0.0161213 0.123874 -0.571048 0.182716 -0.800324
0.0913118 0.16939 0.100635 -0.569483 0.188878 -0.800009
0.0170441 0.0409783 0.371183 0.0175957 0.00730737 -0.999818
0.0762081 -0.0879062 0.315776 0 -0.989033 0.147693
-0.0261203 0.183041 0.318948 0.00027488 0.771684 -0.636007
-0.00539372 -0.0170508 0.435829 0.00210593 0.0788937 0.996881
0.139844 0.224708 0.020472 -0.0121571 -0.876145 0.481895
-0.0837178 0.23288 0.66551 -0.0557901 0.978754 -0.197302
0.031195 0.0425864 0.275815 3.19023e-06 0.0107861 -0.999942
-0.0927212 -0.190445 0.378039 -0.14301 -0.661249 -0.736409
0.0252579 0.157138 0.388624 0.0934208 0.828653 -0.551912
-0.151049 0.153635 0.549021 0.148359 -0.986258 0.0726958
-0.109083 0.147958 0.353177 -1 0.000443066 -0.000553623
-0.107447 0.216738 0.606082 0.0324994 -0.977549 0.208188
-0.0446037 0.0616455 0.373247 3.36858e-07 0.000826167 1
0.0560946 -0.119896 0.429045 -0.0124524 -0.0759498 0.997034
0.105221 0.236264 0.746717 0.208078 0.971648 0.112265
0.0345755 0.186604 0.662529 -0.0235517 -0.979997 0.197616
-0.012846 0.0018176 0.280224 -0.0679531 -0.238685 -0.968717
-0.0898953 -0.126694 0.429787 0.0124148 -0.067965 0.99761
0.237681 -0.0367515 0.0209157 -0.0105214 0.875976 0.482239
-0.111094 0.178971 0.656398 0.162909 -0.96718 0.194995
-0.04095 0.135634 0.423961 0.00583029 0.0780269 0.996934
-0.0226645 0.0335935 0.0876195 -0.999077 0 -0.0429475
-0.102828 0.242702 0.374265 -0.409474 0.902306 -0.134816
0.011663 0.0722687 0.299198 -2.91901e-05 0.147789 0.989019
-0.0228273 0.161043 0.331772 -0.000131536 -0.369248 0.929331
-0.117889 0.0827746 0.374109 -0.0530297 0.00627881 -0.998573
-0.0563749 0.123498 0.34919 3.04765e-07 0.000824058 -1
0.0633816 -0.108442 0.312303 -0.000543011 -0.989053 -0.147556
-0.208245 0.16948 0.645247 -0.839037 0.543897 -0.013853
0.153755 -0.174411 0.425292 0.187818 -0.386535 0.902948
0.0249434 0.245431 0.712771 0.04089 0.979461 -0.197443
-0.0264756 0.0216009 0.16209 0.301943 -0.953326 0.000274131
0.170444 0.269979 0.0271887 0.000310355 0.965971 0.258651
0.145823 0.199173 0.561334 0.373879 0.89362 -0.248308
-0.191315 0.193601 0.658712 -0.682903 0.726506 0.0763757
-0.0794233 -0.0365589 0.435798 0.0124148 -0.067965 0.99761
0.09864 -0.0763347 0.373361 2.95262e-07 0.000826203 1
0.0129404 0.163832 0.473064 -0.02872 -0.992895 -0.115475
-0.0970709 -0.0232513 0.372338 -0.053009 0.00622938 -0.998575
0.0489614 -0.0621116 0.433357 -0.0124524 -0.0759498 0.997034
-0.0376855 0.0269737 0.432447 0.00583029 0.0780269 0.996934
0.0866237 0.241899 0.730404 0.11237 0.987592 0.109708
0.0614951 0.150578 0.386351 0.158663 0.81963 -0.550484
-0.102477 -0.0345879 0.436804 0.0435689 -0.054203 0.997579
-0.128878 -0.0361641 0.313458 -0.000264312 0.147191 0.989108
0.0550358 0.0161819 0.280193 0.0867697 -0.237871 -0.967413
0.138509 0.264966 0.0234166 -0.991037 0.117 0.0644682
0.122384 0.175724 0.478645 0.33386 0.590068 -0.73509
0.166294 0.150708 0.531895 -0.11417 -0.993439 -0.00666834
-0.111582 0.0034143 0.108303 0.0376155 0.516186 -0.85565
0.011624 0.0198489 0.0831285 0.423064 -0.9061 0
0.00760701 -0.159616 0.097297 0.999975 -0.00708665 -0.000265431
0.0363617 0.134764 0.376605 -0.0559729 0.00965829 -0.998386
-0.189665 0.167948 0.5564 -0.798753 0.488427 -0.351331
0.104928 -0.175252 0.373493 0.0523638 -0.016782 -0.998487
-0.155372 -0.105452 0.375393 -0.0587911 -0.015992 -0.998142
-0.0103673 0.0246818 0.274572 -0.0668136 0.0487682 -0.996573
-0.0508622 -0.0631231 0.349036 2.5826e-07 0.000824031 -1
-0.013866 0.0485394 0.373257 3.36858e-07 0.000826167 1
-0.0872931 -0.0225217 0.313368 0.000198635 0.147911 0.989001
-0.0679737 0.149726 0.349206 1.63436e-07 0.000441916 -1
-0.188237 0.0887541 0.429188 -0.360978 0.240485 0.901034
0.0496093 0.162741 0.401158 0.0934208 0.828653 -0.551912
0.194725 0.15068 0.547425 0.200919 -0.975249 -0.0923132
-0.0219402 0.047271 0.159996 -0.999232 -0.0391816 0
0.0739101 -0.11846 0.42954 -0.0373819 -0.0702521 0.996829
0.110456 0.228081 0.344987 0.991131 0.110379 -0.0739958
-0.0552517 0.191325 0.685922 0.0755276 -0.938225 0.337682
0.137556 -0.152922 0.430225 -0.0887823 -0.0391868 0.99528
-0.0229011 -0.0380188 0.373329 3.36858e-07 0.000826167 1
0.0379422 -0.0911571 0.431036 -0.00770933 -0.0756767 0.997103
-0.151615 0.221813 0.728308 -0.470879 0.818056 0.330239
-0.162215 0.186393 0.54084 -0.374497 0.895021 -0.242258
-0.189544 0.169442 0.672896 0.148215 -0.930192 0.335821
0.106271 0.175537 0.340413 -0.000132808 -0.359784 0.933035
0.119936 0.234571 0.732839 0.228778 0.970229 0.0794711
0.0583625 0.110135 0.375133 -0.0559729 0.00965829 -0.998386
-0.0858404 0.102501 0.284675 0.992898 0.0424882 -0.11112
-0.186005 0.162138 0.540205 -0.765925 0.476162 -0.432005
-0.111606 0.230078 0.672542 -0.168935 0.966192 -0.194768
0.0702478 0.081932 0.37323 3.36858e-07 0.000826167 1
0.00378811 0.0638502 0.16497 -0.348096 0.937459 0
-0.0801833 0.0132971 0.157033 -0.157913 -0.500336 0.851309
-0.0165808 -0.131815 0.373227 -0.00583169 -0.0743951 -0.997212
-0.156666 -0.0282267 0.375471 -0.053009 0.00622938 -0.998575
0.124906 -0.0356517 0.313374 0.000174103 0.146992 0.989138
0.108369 0.207881 0.547814 0.00876561 -0.996775 0.0797626
-0.195437 0.176111 0.688332 -0.208443 -0.857229 0.470861
0.113121 0.207764 0.102119 -0.804649 0.593751 -0.000243852
0.120088 0.179948 0.669039 -0.163605 -0.967064 0.194987
0.0123835 0.0915856 0.373222 3.36858e-07 0.000826167 1
0.00942213 0.0294604 0.349112 3.04765e-07 0.000824058 -1
-0.0149439 0.1645 0.465652 0.0374028 -0.99261 -0.115442
-0.108043 0.209582 0.565399 0.0545434 -0.995328 0.0796635
0.166293 0.108936 0.396752 0.690349 0.53155 -0.490788
-0.0826434 0.0284338 0.350316 -0.381509 0.000911826 -0.924365
0.0720557 0.228053 0.569299 -0.0475066 0.939434 0.339421
-0.126873 0.232278 0.736901 -0.323162 0.944506 0.0589486
-0.195054 -0.0569096 0.316551 0.000378633 0.14708 0.989125
0.00175508 -0.114106 0.358258 0.130276 -0.698542 0.70361
-0.0581595 0.132741 0.424485 0.0251127 0.0790028 0.996558
0.000469767 -0.249187 0.0319166 0 0 1
-0.167663 0.210798 0.714832 -0.79848 0.531895 0.28199
0.13013 -0.0916736 0.434169 -0.0557606 -0.0719182 0.995851
0.190229 -0.0215909 0.386552 0.617828 0.0542037 -0.784443
0.121186 0.214417 0.60436 0.251887 0.948659 -0.191309
0.118066 -0.0788378 0.373216 0.0567503 0.00606488 -0.99837
