-0.0930673 0.209041 0.554409 0.0162597 -0.996692 0.0796248
0.113527 -0.19743 0.403344 0.274788 -0.771555 -0.573755
-0.105676 0.128729 0.380227 -0.10031 0.268811 -0.957955
0.213714 -0.00774661 0.600262 0 0 1
-0.0568304 0.0819739 0.375 -2.27605e-06 0.000806431 1
-0.105917 0.000452556 0.144471 -0.104479 -0.590618 0.800159
-0.0388454 0.0354625 0.277313 -0.0206949 0.0122562 -0.999711
0.113198 0.0275545 0.289448 0.562563 -0.579549 -0.589615
-0.00382009 -0.239019 0.0134739 -0.00197421 0.707065 -0.707145
-0.0164237 0.155541 0.391287 -0.0873514 0.774968 -0.625935
-0.220828 0.118131 0.365945 -0.90169 -0.257752 -0.347159
-0.0489834 0.0927707 0.132674 -0.78154 -0.610762 -0.127139
-0.0472237 -0.0206814 0.43889 0.0121399 0.0711571 0.997391
-0.0554246 0.160245 0.502732 0.0562852 -0.997916 0.0315555
0.00353421 -0.0457649 0.350704 -2.23628e-06 0.000791199 -1
0.0292807 0.197839 0.513212 0.0553302 0.962109 -0.266991
0.215559 0.054653 0.600262 0 0 1
0.0505665 -0.0199157 0.374444 0.0292884 0.00349355 -0.999565
0.0349348 0.149344 0.300567 -8.92524e-05 0.0315492 -0.999502
0.193365 0.126622 0.36082 -0.934441 -0.143111 0.326097
0.00816864 0.202943 0.700045 -0.0599154 -0.956246 0.286364
-0.0469653 0.115842 0.350832 -2.23636e-06 0.000791199 -1
0.277876 -0.0726715 0.0417764 0.0019347 -0.691053 0.722802
0.0850138 0.232398 0.44447 -0.47944 0.874066 0.0783986
-0.238561 -0.075499 0.0354497 0.956105 -0.20573 0.208661
0.117214 0.164082 0.335267 -0.0780468 -0.400687 0.912885
-0.0175423 0.0258011 0.0711184 -0.788706 -0.613912 -0.0324961
-0.0794025 0.179427 0.634394 0.0759623 -0.971932 0.222663
0.00508945 0.163376 0.513622 -0.0161625 -0.998181 0.0580794
-0.0103116 0.0539564 0.01788 -0.285557 0.957162 -0.0479369
-0.0133496 0.220835 0.598649 -0.0615634 0.972908 -0.222844
0.212514 0.149716 0.350427 0.926797 0.141711 -0.347801
0.102392 -0.135616 0.432138 -0.0552423 -0.0702901 0.995996
-0.0127594 0.249833 0.751116 -0.026985 0.99624 -0.0823241
-0.0830697 0.218315 0.497652 0.999997 0.00224871 0.000707027
0.172973 -0.0477298 0.593018 -0.876745 -0.110964 0.467979
-0.271629 -0.0780433 0.0189749 0.999996 0.00283234 -5.32063e-05
-0.227753 -0.0611824 0.578542 -0.112185 -0.165163 -0.979865
0.139289 0.168043 0.614923 -0.176606 -0.955129 0.237778
0.0789157 -0.0950845 0.434012 -0.0373356 -0.0689338 0.996922
0.119665 0.209457 0.596649 0.194354 0.956174 -0.218991
-0.0357877 0.0379093 0.151254 -0.287079 0.950129 -0.121819
-0.191769 -0.0631045 0.396973 -0.700555 -0.0525105 -0.711664
-0.211882 -0.0630363 0.423978 -0.942176 -0.123854 -0.311391
-0.00854056 0.0819595 0.350805 -2.23636e-06 0.000791199 -1
-0.011699 0.106219 0.314934 -0.379298 0.832815 0.403178
-0.100106 0.174062 0.127394 -0.674637 -0.170575 0.71817
-0.0451701 0.155943 0.35539 -0.00241694 0.855083 0.518485
0.00669977 -0.198576 0.0979131 0.946545 -0.105122 0.304961
0.0800449 0.0839023 0.431538 -0.0323076 0.0721965 0.996867
0.118376 0.165063 0.586096 -0.158212 -0.978486 0.132414
-0.0353089 -0.129381 0.350638 -2.23628e-06 0.000791199 -1
0.0696088 0.00718268 0.374974 0.0269158 0.00046671 -0.999638
0.00655278 0.177545 0.601647 -0.0704809 -0.972308 0.222821
0.20019 -0.0286971 0.574055 -0.0672077 -0.121347 -0.990332
-0.135386 0.211709 0.622415 -0.199525 0.955103 -0.219017
0.0691317 0.029761 0.375042 -2.27606e-06 0.000806431 1
-0.0410618 -0.0789671 0.373922 -0.0290819 0.000330137 -0.999577
-0.204175 0.152606 0.389272 0.324191 0.780289 0.534835
0.0978082 0.219348 0.382775 0.00275898 -0.986812 -0.161847
0.209073 0.0276212 0.427971 0.954633 0.167257 0.246374
0.0673978 -0.0232356 0.314942 -0.000345806 0.147774 0.989021
0.0579881 0.203009 0.710687 -0.0599154 -0.956246 0.286364
0.125095 0.178725 0.651178 -0.159791 -0.962254 0.220307
0.0736487 -0.118316 0.320847 -0.999324 -0.0271684 -0.0247584
-0.0669889 0.0136926 0.374895 -0.0272578 0.00333406 -0.999623
0.212331 0.152748 0.592542 0.875828 0.421308 -0.235424
0.120106 -0.00533586 0.137805 0.0262766 -0.717422 0.696143
0.246929 0.0527069 0.597734 0.173328 0.0532382 0.983424
-0.213345 0.084773 0.418006 0.134807 -0.896364 -0.422325
0.231208 0.111418 0.425177 0.99989 -0.00188969 0.0146813
0.184542 -0.078877 0.598463 -0.214591 -0.0625803 0.974697
-0.0369771 0.169943 0.575069 0.0742232 -0.987021 0.142408
-0.11047 -0.0405384 0.298526 -0.160356 -0.282028 -0.94591
-0.111156 -0.177299 0.429433 0.0384061 -0.0989292 0.994353
-0.0968308 0.0732123 0.357541 -0.38177 -0.000345432 -0.924257
-0.0547311 -0.101854 0.433292 0.0362606 -0.0766216 0.996401
-0.0910026 0.232896 0.679256 -0.21672 0.960487 -0.174634
-0.135765 0.179598 0.664014 0.170561 -0.934504 0.312428
0.0062984 -0.102815 0.333808 0.383953 -0.412601 -0.826039
-0.112349 0.186558 0.673024 0.146124 -0.946119 0.288974
0.0135404 -0.143601 0.362899 0.00274296 -0.971845 -0.235606
-0.0842217 0.212091 0.357267 0.926745 -0.21803 0.305953
-0.0228555 0.0548415 0.30323 -0.000412611 0.147718 0.989029
0.0546193 0.059734 0.350787 -2.23636e-06 0.000791199 -1
0.19835 0.187235 0.68984 0.826604 0.533183 0.180119
-0.111335 -0.117505 0.376435 -0.0271991 -0.024573 -0.999328
0.236164 -0.05574 0.0314438 -0.999996 -0.00294897 0
-0.0122117 0.0597167 0.080049 -0.196754 0.97995 -0.0313898
-0.0788943 -0.14245 0.357075 0.00274296 -0.971845 -0.235606
0.0631071 0.163183 0.542763 -0.0584748 -0.988285 0.140976
-0.103968 -0.044413 0.375763 -0.0290819 0.000330137 -0.999577
0.0312822 0.132694 0.374956 -2.53539e-06 0.000896847 1
-0.00301368 -0.211357 0.0700635 -0.655352 0.420817 -0.627238
-0.0734585 -0.112119 0.31793 0.999958 0.00727131 -0.00562053
-0.0599943 0.192772 0.50225 -0.0604477 0.962609 -0.264065
-0.139875 0.161448 0.589935 0.167749 -0.973611 0.154731
0.128039 0.0701056 0.37627 0.0438194 0.00247223 -0.999036
-0.0301312 0.152432 0.300671 -8.92524e-05 0.0315492 -0.999502
0.0505964 0.228338 0.570873 -0.0195438 0.915592 0.401633
0.103634 -0.0447185 0.375866 0.0269158 0.00046671 -0.999638
-0.117419 -0.102405 0.435549 0.0639601 -0.0705544 0.995455
-0.204656 0.129969 0.335129 -0.731186 -0.116044 -0.672235
-0.00343761 -0.0320189 0.12205 -0.734675 0.141129 -0.663577
0.105644 0.173063 0.11039 0.71672 -0.624568 -0.310205
0.111225 0.0905502 0.304339 0.999931 -0.00150698 0.011627
-0.0766352 0.22532 0.635715 -0.0615712 0.972906 -0.222851
-0.21104 0.0714469 0.481882 0.998453 -0.0409571 -0.0376152
0.0633363 0.0115042 0.131347 -0.326212 -0.937404 -0.121898
-0.107954 -0.0200834 0.439987 0.0342453 0.0605255 0.997579
0.0207454 -0.196964 0.425159 -0.00234828 -0.101173 0.994866
-0.00264566 -0.0130637 0.35073 -2.23628e-06 0.000791199 -1
-0.0490147 0.0267702 0.168627 -0.442947 0.565153 0.695988
-0.00262805 -0.257297 0.0430858 -0.000703765 0.247899 -0.968786
-0.153126 0.183081 0.333357 -0.168728 0.983957 -0.0579668
0.00965506 0.0350451 0.26322 0.925035 -0.379881 0
-0.185083 0.16546 0.642599 0.166443 -0.95652 0.239511
0.113515 0.0512097 0.363379 0.00271515 -0.961547 0.274627
0.0309564 0.128107 0.427206 -0.00534148 0.0781929 0.996924
-0.173171 0.22307 0.0270262 0.00270604 -0.962788 0.270244
-0.0443311 0.162598 0.332373 0.00109847 -0.401565 0.91583
-0.0544015 -0.102546 0.310169 0.999996 0.00280763 -1.39598e-05
0.0693745 0.230916 0.656856 0.0560608 0.973239 -0.222851
0.147274 0.0725103 0.435437 -0.0497148 0.0731501 0.996081
-0.13267 -0.0558002 0.376595 -0.0290819 0.000330137 -0.999577
-0.221793 0.131035 0.428641 -0.518757 0.77561 0.359611
0.0315396 -0.0226679 0.288666 0.0043587 -0.232127 -0.972676
-0.0895051 0.235223 0.42708 0.512844 0.855071 0.0764553
-0.141463 0.116089 0.38425 -0.532906 0.569346 -0.625984
0.0369501 0.267168 0.681719 0.0591551 0.931809 0.358095
-0.159082 0.142838 0.306625 -0.301291 0.00198626 -0.95353
0.0301255 0.161669 0.499346 -0.0506572 -0.998218 0.0315476
-0.240046 -0.0440418 0.0073923 0.0199257 0.706993 -0.70694
0.0741871 0.175826 0.615525 -0.0703766 -0.972349 0.222676
0.148909 0.228414 0.0126051 0.00282841 -0.965817 -0.25921
0.093453 0.18821 0.346349 0.00104289 -0.368115 0.92978
0.148016 -0.0149087 0.107852 -0.326212 -0.937404 -0.121898
0.0524919 0.235433 0.676261 0.0575816 0.982283 -0.178337
0.176346 0.143385 0.312347 0.303001 0.015938 -0.952857
-0.158656 0.191983 0.56676 -0.354036 0.902824 -0.244063
-0.0873077 0.216938 0.613618 0.00761202 -0.963093 0.26906
0.208719 -0.0283059 0.109048 0.129221 -0.563873 0.815689
-0.112233 0.101513 0.296829 -0.999902 -0.00727926 0.0119643
0.0337259 0.0227686 0.308045 -0.000416608 0.147974 0.988991
-0.0990913 0.163886 0.565458 0.0742232 -0.987021 0.142408
0.130494 -0.129013 0.376656 0.1297 -0.0926409 -0.987216
-0.00602874 -0.175792 0.427087 0.00677525 -0.0763599 0.997057
-0.246103 -0.041252 0.598402 -0.158877 -0.0185031 0.987125
-0.0960358 0.0154999 0.285374 0.00118244 -0.147705 -0.989031
-0.156852 0.0682915 0.372152 0.0307432 8.881e-05 0.999527
0.106562 0.229887 0.494392 0.475554 0.879548 0.0156108
0.147315 0.192918 0.709468 -0.11914 -0.901158 0.416797
0.000573227 -0.0762215 0.434672 -0.00196698 -0.076386 0.997076
-0.239387 0.0197884 0.57403 -0.353396 -0.00685182 -0.935449
-0.0117979 0.0251023 0.0439188 -0.815162 -0.577139 -0.0492143
0.0168026 0.058447 0.374569 0.0296172 0.0259148 -0.999225
-0.223438 0.0678455 0.6002 -0.000800385 -0.0308506 0.999524
0.0211462 0.0479761 0.350778 -2.23636e-06 0.000791199 -1
0.186823 -0.0211478 0.0922637 -0.361258 -0.654922 -0.663754
0.0245652 0.17087 0.575685 -0.0690437 -0.984952 0.158438
0.0850539 -0.138199 0.352618 0.389746 0.00182799 -0.920921
0.210849 0.104303 0.467566 -0.988243 0.123616 0.0899732
-0.0609606 0.2369 0.687893 -0.063037 0.981417 -0.181238
-0.227731 -0.0352808 0.102402 -0.0716899 -0.599151 0.79742
-0.111245 0.196816 0.538754 -0.20652 0.949623 -0.235725
-0.0223261 -0.0294475 0.350717 -2.23628e-06 0.000791199 -1
0.210971 -0.0382392 0.41698 0.956869 -0.0390713 -0.287881
-0.184378 -0.0235538 0.599808 0.175727 -0.00976032 0.98439
0.048644 0.104662 0.374981 -2.27605e-06 0.000806431 1
0.193149 0.0874282 0.415384 0.829948 0.432501 -0.35232
-0.0684072 0.158467 0.33059 0.00109847 -0.401565 0.91583
0.173507 0.229892 0.0100956 0.00222537 -0.707109 -0.707101
0.0959137 0.212297 0.434835 0.00249006 -0.996675 -0.081445
0.0948983 0.0460655 0.376563 0.0296172 0.0259148 -0.999225
0.0162868 0.0847591 0.298776 -0.000421253 0.147773 0.989021
-0.102074 0.152803 0.350806 0.00257049 0.000756795 -0.999996
-0.195798 0.166564 0.365642 0.27277 0.702779 0.657037
-0.10163 0.218399 0.750297 0.0154142 -0.829263 0.558647
0.0248765 0.0873436 0.160696 -0.774215 0.620277 0.125887
0.18112 0.203646 0.664191 0.489089 0.861992 -0.133277
-0.00243205 0.0992187 0.429308 0.00221576 0.0782151 0.996934
-0.0218331 0.184198 0.319102 -0.00281738 0.995903 -0.0903881
0.0287163 0.0648917 0.148271 0.790769 -0.599895 -0.121698
0.206858 0.043358 0.538626 -0.987449 0.0336313 -0.154318
-0.000715118 0.170641 0.451071 -0.0166606 -0.490547 -0.871256
0.0856605 -0.0550163 0.300577 0.981338 -0.190131 0.0287242
-0.106933 0.20883 0.469957 0.00404168 -0.99667 -0.081439
0.0717926 0.209907 0.566119 0.0575533 0.962783 -0.264077
-0.100134 0.145612 0.295919 -0.000937187 0.349674 -0.936871
-0.146802 0.0913519 0.433889 0.0614858 0.0544231 0.996623
0.0648973 0.202043 0.535944 0.0575533 0.962783 -0.264077
-0.14026 0.203888 0.73177 0.120898 -0.895403 0.428528
0.0729429 0.180945 0.314573 -0.00219347 0.775357 -0.63152
-0.171225 0.0225956 0.583102 0.790926 -0.0194025 -0.611605
-0.0745408 0.0109098 0.156492 -0.0462212 -0.694391 0.718112
0.179377 -0.0936876 0.439407 -0.0895561 -0.036554 0.995311
-0.195049 -0.01417 0.4414 -0.18367 0.0146613 0.982879
0.0868871 0.229157 0.765391 0.0048826 -0.82931 0.558767
0.147786 0.115603 0.431326 -0.00680892 0.143058 0.989691
-0.193383 -0.0260511 0.574072 0.0754688 -0.118989 -0.990023
-0.157696 -0.0279242 0.44155 0.0338113 -0.0420035 0.998545
-0.129906 0.1309 0.317172 0.0357089 -0.998861 -0.0316347
-0.171146 -0.0713248 0.316686 0.000381763 -0.147811 -0.989016
-0.0305984 0.0487874 0.433349 0.00495033 0.0775234 0.996978
-0.0387752 0.0569801 0.350785 -2.23628e-06 0.000791199 -1
-0.108801 0.0844186 0.374997 -2.27605e-06 0.000806431 1
0.152449 0.0078075 0.438616 0.00872334 0.012649 0.999882
0.10459 0.0101185 0.286256 -0.000372141 -0.147709 -0.989031
-0.0930414 -0.0643509 0.35607 -0.389672 -0.00141949 -0.920952
-0.0122159 -0.201681 0.423692 -0.0096636 -0.462167 0.88674
-0.0411146 0.00147143 0.437081 0.00495033 0.0775234 0.996978
-0.00250953 -0.122799 0.347474 0.00193572 -0.894276 0.447511
-0.0104586 0.264526 0.668562 -0.00471893 0.579343 -0.81507
0.0354838 0.00933435 0.436476 -0.00265333 0.0773819 0.996998
-0.0836233 0.140976 0.128047 -0.829176 -0.544613 0.12595
-0.232512 -0.0209962 0.600262 0 0 1
0.131153 0.155403 0.533623 -0.118241 -0.992843 0.0167647
-0.1892 0.017636 0.600262 0 0 1
-0.0455165 0.115919 0.143271 0.772352 0.620561 0.135564
-0.154819 0.221958 0.698249 -0.373902 0.924246 -0.0772486
0.119995 0.0975645 0.376397 0.0536005 0.0869731 -0.994768
-0.202419 0.175003 0.601581 -0.61057 0.76817 -0.192663
0.0797493 -0.150161 0.374063 0.0302746 0.0177303 -0.999384
-0.0117289 -0.0293392 0.4383 0.00239634 -0.0750394 0.997178
0.0418876 0.221248 0.607719 0.0560689 0.97324 -0.222844
0.00203351 -0.101965 0.136152 0.64641 -0.258472 0.717876
-0.0876875 -0.019292 0.314283 -0.000686022 0.14779 0.989019
-0.0349552 0.239189 0.691368 -0.0608422 0.982082 -0.178361
-0.227401 -0.0982915 0.598488 -0.11478 -0.162936 0.979937
-0.0619937 -0.208676 0.415052 -0.0919468 -0.8333 0.545121
0.107024 0.0599197 0.434353 -0.0497148 0.0731501 0.996081
0.271644 -0.0443478 0.0107474 -0.999996 -0.002914 -4.29636e-05
-0.109539 0.178427 0.314473 -0.522252 0.312601 -0.793431
-0.194983 0.0322837 0.401731 -0.695123 0.0818291 -0.714219
0.1466 -0.0293625 0.312934 0.689338 0.716708 -0.10556
-0.0306379 0.0519053 0.373889 0.00011602 0.0258427 -0.999666
0.232266 0.0160014 0.600262 0 0 1
0.150905 0.22267 0.692133 0.21122 0.948365 -0.236622
0.00045495 0.0689104 0.277158 -8.21922e-05 0.0288323 -0.999584
0.0741227 0.223748 0.626749 0.0560608 0.973239 -0.222851
0.214104 0.131997 0.429894 -0.250083 0.82763 0.50248
-0.107377 0.166483 0.587439 0.0758499 -0.971904 0.222822
0.159991 -0.0787343 0.321398 -0.00044376 0.147635 0.989042
0.012716 0.0942895 0.331486 0.928738 0.325949 0.176642
-0.112474 0.198564 0.336994 -0.9999 -0.00754502 0.0119563
-0.200824 0.0668123 0.600107 0.15894 0.125752 0.979247
-0.0434378 0.143623 0.38063 -0.113168 0.749121 -0.652695
-0.111612 0.146337 0.328321 -0.929628 -0.137895 0.341726
-0.112476 0.215529 0.560725 -0.999861 -0.0166463 0.000527718
-0.0190424 0.215466 0.735428 0.045592 -0.915125 0.400584
-0.0415826 0.224689 0.756937 0.0350442 -0.852046 0.522292
-0.0826644 0.16002 0.480648 0.0304908 -0.992137 -0.121383
0.17631 -0.0180829 0.438735 0.00872334 0.012649 0.999882
0.101766 0.240311 0.406334 0.513432 0.846892 0.138423
-0.0459716 -0.0503156 0.293338 0.000549171 -0.147731 -0.989027
-0.151357 0.125673 0.427293 -0.24449 0.449769 0.85903
0.0175039 0.0533452 0.0704943 0.824899 0.565184 -0.010425
0.150952 0.226085 0.720966 0.38466 0.923055 0.00243877
0.106617 0.205287 0.568728 0.211484 0.941857 -0.261112
-0.0849456 0.0765371 0.282374 0.774086 -0.00817672 -0.633028
0.154105 0.246221 0.066706 0.282494 -0.725761 -0.62727
0.224158 0.0780093 0.510683 0.919773 0.30486 0.247139
0.107433 0.129086 0.37496 -2.53117e-06 0.000896823 1
-0.129895 0.0053216 0.132556 -0.402896 0.858155 0.318191
-0.0863827 0.112921 0.429656 0.0307468 0.0787002 0.996424
-0.175646 0.0245957 0.4396 0.0342453 0.0605255 0.997579
-0.25378 0.0138578 0.597742 -0.168558 -0.0029607 0.985687
-0.0861623 0.227653 0.522189 0.474535 0.879883 0.0249703
-0.109765 -0.181497 0.380024 -0.129386 -0.306033 -0.943188
0.207661 0.084198 0.596753 -0.192366 0.726592 0.65959
0.0973177 0.109479 0.315881 0.00098659 -0.349595 0.9369
0.170651 0.0925034 0.393083 0.646306 0.382413 -0.66034
0.184814 0.174271 0.672924 -0.132762 -0.931437 0.33882
-0.122694 0.22529 0.676491 -0.153195 0.962725 -0.222915
0.0283069 0.0389735 0.277078 -3.01832e-05 0.0107355 -0.999942
0.175731 0.178634 0.550814 0.560592 0.77293 -0.297179
0.221115 -0.0724314 0.600262 0 0 1
-0.0670253 -0.0545786 0.350697 -2.23628e-06 0.000791199 -1
0.0944918 0.214075 0.593584 -0.0423286 -0.989016 0.141621
0.113603 -0.170339 0.377865 0.0529919 -0.00726691 -0.998569
0.0512483 0.168266 0.571126 -0.0690437 -0.984952 0.158438
0.0557784 0.112665 0.428669 -0.0323076 0.0721965 0.996867
0.224914 0.0867635 0.421215 0.524126 -0.768357 -0.367315
-0.26749 -0.0430239 0.0601778 -0.999261 0.0377224 -0.00743015
0.0270525 0.158972 0.395474 0.0811958 0.746981 -0.659868
0.0602307 -0.0103458 0.438261 -0.0125638 0.0777862 0.996891
-0.176788 0.145957 0.345242 0.631674 -0.30996 0.710572
0.187995 -0.10224 0.58578 -0.262154 -0.112826 -0.958408
0.0586707 -0.113125 0.350651 -2.23628e-06 0.000791199 -1
0.000969589 0.00282167 0.375063 -2.27605e-06 0.000806431 1
-0.0423421 0.165128 0.456318 -0.0844535 -0.467063 -0.880182
-0.181564 -0.0181072 0.119456 -0.43594 0.37976 0.815928
0.00154176 -0.0201631 0.166048 0.64641 -0.258472 0.717876
-0.0485863 0.0627572 0.432452 0.0307468 0.0787002 0.996424
-0.0201996 0.180839 0.62038 0.0758499 -0.971904 0.222822
0.0529919 -0.111337 0.30589 0.00237082 -0.833162 -0.553024
-0.128083 0.0158293 0.37646 -0.0258907 -0.00883994 -0.999626
-0.112281 0.241168 0.654235 -0.854458 0.508472 -0.106574
-0.0376466 -0.0529166 0.436588 0.00239634 -0.0750394 0.997178
0.0612864 0.142066 0.323238 0.00113653 -0.401747 0.91575
-0.025139 0.145686 0.324933 0.00113653 -0.401747 0.91575
-0.106497 -0.0126712 0.290699 -0.75886 -0.644223 0.0954361
-0.168865 0.259675 0.0204351 -0.00269859 0.966093 -0.258179
-0.12066 -0.066242 0.43832 0.0639601 -0.0705544 0.995455
0.0433856 -0.14172 0.37365 -0.00796633 -0.0245273 -0.999667
-0.231402 0.0970371 0.445825 -0.998614 0.0384929 0.0358791
-0.17568 -0.071216 0.590619 0.985728 -0.159328 0.0543556
-0.268745 -0.0351317 0.0259747 -0.00273756 0.962775 0.27029
-0.0539695 -0.127795 0.431269 0.0362606 -0.0766216 0.996401
0.0221169 0.0411884 0.192157 0.998977 0.0174583 0.0417075
0.250495 -0.0760085 0.0364927 -0.00193336 0.690624 -0.723211
0.0752259 0.160209 0.525581 -0.0506572 -0.998218 0.0315476
0.176153 -0.00442331 0.577319 -0.370141 0.00809829 -0.92894
-0.00714873 0.062174 0.1842 -0.130487 0.889854 0.437187
-0.0907296 0.00159985 0.355047 -0.38177 -0.000345432 -0.924257
0.108928 0.22971 0.606636 0.901634 0.420944 -0.0993131
-0.168131 0.179748 0.682131 0.170561 -0.934504 0.312428
0.173176 0.163294 0.350279 -0.62981 -0.313551 0.710651
-0.112303 0.210638 0.501062 -0.911258 -0.411801 -0.00545857
0.037542 0.0670768 0.432 -0.00265333 0.0773819 0.996998
0.00403812 0.213324 0.563817 -0.0120736 -0.999583 0.0262377
-0.184282 0.0753596 0.584735 0.401244 0.81315 -0.421652
0.201396 0.0597949 0.56816 -0.861571 0.204914 -0.464441
-0.0766921 -0.106591 0.350656 -2.23628e-06 0.000791199 -1
-0.22617 0.104169 0.391357 -0.924845 -0.295008 -0.240067
-0.109423 -0.142554 0.369575 -0.999996 -0.00282028 6.20251e-05
-0.079863 -0.016963 0.375079 -2.27605e-06 0.000806431 1
0.0279662 -0.0694497 0.435245 -0.00196698 -0.076386 0.997076
0.0182532 -0.0870042 0.375136 -2.27606e-06 0.000806431 1
0.000412687 0.00572074 0.176384 0.64641 -0.258472 0.717876
0.0519932 0.18488 0.648026 -0.0704809 -0.972308 0.222821
-0.229757 0.0786926 0.477119 -0.993586 0.000523608 0.113081
-0.209252 0.0668669 0.519462 0.985938 0.166947 0.0074025
-0.148155 0.25337 0.043871 0.000689894 -0.247939 -0.968775
0.042626 -0.139341 0.430058 -0.00642886 -0.07529 0.997141
0.153011 -0.00225722 0.123543 0.350647 0.928028 0.125738
0.0869578 0.237366 0.350404 -0.536019 0.751741 -0.384147
0.150441 0.135572 0.414011 0.473853 0.834289 -0.281824
0.00746543 0.0627879 0.124044 -0.307734 0.860386 -0.406245
-0.0742553 0.221995 0.542417 0.173674 0.222306 -0.959384
0.100981 0.0306178 0.436203 -0.0497148 0.0731501 0.996081
0.0313627 -0.207256 0.391696 0.136337 -0.84744 -0.513086
-0.0801436 0.12723 0.377597 -0.0762051 0.251586 -0.96483
0.204163 0.107936 0.382744 -0.931888 -0.33194 0.146288
-0.0196137 0.0463287 0.20236 -0.00211436 0.00146388 0.999997
0.0805936 0.157534 0.350861 -0.00258424 0.000742432 -0.999996
-0.0946416 0.233745 0.601797 -0.00673638 0.995328 -0.0963116
-0.04809 0.198858 0.69665 0.0641018 -0.950737 0.303299
0.0701964 -0.161132 0.429119 -0.0373356 -0.0689338 0.996922
-0.0241226 0.0567228 0.277269 -0.0172252 0.0120012 -0.99978
-0.0932881 0.131584 0.354137 0.00377672 -0.614252 -0.789101
0.170142 0.0429588 0.592576 -0.850074 0.165393 0.50002
0.193216 0.0139822 0.398648 0.70028 0.0353258 -0.712994
0.251445 -0.0331657 0.0838326 0.381935 0.908083 0.171788
0.0683845 0.148725 0.127435 -0.700776 0.631628 0.331601
0.222393 0.140905 0.374618 0.972757 0.086602 -0.215044
-0.00689186 -0.159588 0.109874 -0.940349 -0.118292 0.318985
-0.129485 -0.156381 0.432457 0.0583145 -0.0781026 0.995238
-0.0461077 0.16144 0.523909 0.0562852 -0.997916 0.0315555
-0.0306654 -0.0438519 0.373713 -0.0272578 0.00333406 -0.999623
-0.226342 0.116722 0.449969 -0.460659 0.786677 0.411015
-0.0401371 -0.11745 0.374496 -0.0271991 -0.024573 -0.999328
0.120609 0.223082 0.757124 -9.23781e-05 -0.797682 0.603079
-0.100634 -0.0920721 0.37514 -2.27605e-06 0.000806431 1
0.0169871 -0.043549 0.437207 -0.00196698 -0.076386 0.997076
0.0317613 0.0385769 0.160292 0.350647 0.928028 0.125738
-0.086581 -0.114369 0.375158 -2.27605e-06 0.000806431 1
-0.213422 -0.0718814 0.600262 0 0 1
0.0120155 0.233578 0.654055 0.0560608 0.973239 -0.222851
-0.195595 -0.0417817 0.312262 0.000300836 -0.147714 -0.98903
-0.012294 -0.0797703 0.33434 -0.924521 0.168585 0.341819
-0.0486917 0.207281 0.552344 -0.0630922 0.961642 -0.266955
-0.187754 0.142184 0.318867 -0.536647 -0.0571613 -0.841869
0.0231852 0.185029 0.331958 -0.00178789 0.631989 0.774975
-0.113121 -0.0123037 0.376067 -0.0272578 0.00333406 -0.999623
-0.152127 0.166116 0.621263 0.179001 -0.95899 0.219767
-0.163542 0.220033 0.724493 -0.519337 0.853603 -0.040631
0.117839 0.158514 0.490108 -0.0109266 -0.985677 -0.16829
0.0662354 0.0532018 0.375898 0.0296172 0.0259148 -0.999225
-0.047611 -0.0539767 0.319485 -0.000526658 0.147967 0.988992
-0.00654785 0.0817195 0.299221 -0.000415089 0.147802 0.989017
-0.00155443 0.118823 0.375622 0.00011602 0.0258427 -0.999666
-0.0137452 0.146117 0.370496 -0.00230781 0.816344 0.577562
-0.265555 -0.0668515 0.0451484 0.000692879 -0.247738 0.968827
0.093072 -0.0534507 0.356179 0.389746 0.00182799 -0.920921
0.166335 0.271479 0.0234789 0.00274702 -0.962903 -0.269835
0.172775 -0.121878 0.387728 0.727939 -0.209107 -0.652977
0.0723374 0.0864404 0.376164 -0.0309871 -0.0441623 -0.998544
-0.0226322 0.0547225 0.138396 -0.999543 0.0229434 -0.0196561
-0.0770216 -0.0277282 0.438985 0.0123219 -0.0669062 0.997683
0.105014 0.153692 0.359792 -0.00108266 0.856496 0.516153
0.22768 0.0711262 0.484017 0.960652 -0.277058 -0.0196529
0.182178 -0.0788651 0.388897 0.715925 -0.0497543 -0.696403
-0.0432739 0.037631 0.305791 -0.000415879 0.147718 0.989029
-0.0934126 0.0194863 0.436586 0.0121399 0.0711571 0.997391
0.191617 0.0698482 0.435455 0.506708 0.206893 0.836924
0.0210682 -0.0638757 0.35069 -2.23628e-06 0.000791199 -1
-0.161533 0.268512 0.0658098 -0.273654 0.9618 -0.00743426
0.157829 0.0342498 0.438234 0.00872334 0.012649 0.999882
0.00288134 -0.126416 0.0998064 0.557913 0.176567 -0.810899
0.0176524 -0.120685 0.375163 -2.27606e-06 0.000806431 1
0.000473857 0.0155841 0.350753 -2.23636e-06 0.000791199 -1
0.0921088 0.00581692 0.305899 -0.999996 -0.00281002 0.000122566
-0.0610386 -0.105038 0.374759 -0.0271991 -0.024573 -0.999328
-0.210316 0.173104 0.659106 -0.878353 0.477091 0.0296769
0.200745 0.189012 0.664902 0.857036 0.502744 0.11286
-0.0367192 0.22605 0.627872 -0.0615634 0.972908 -0.222844
0.160319 0.226369 0.0351187 0.00197971 -0.690689 0.72315
-0.00747067 -0.0536702 0.331168 -0.384025 0.412511 0.82605
0.0648977 -0.194066 0.425965 0.0355831 -0.476729 0.87833
-0.0729855 0.240428 0.711179 -0.063037 0.981417 -0.181238
0.247863 -0.0398392 0.010062 -0.00205588 0.707091 -0.707119
0.255735 0.00795157 0.593065 0.894201 -0.0084525 0.447586
0.00302503 0.032331 0.070443 0 0 -1
0.16805 0.198645 0.605647 0.364092 0.9079 -0.207736
0.0336437 0.0840651 0.375733 0.0296172 0.0259148 -0.999225
-0.0200812 0.102322 0.350821 -2.23636e-06 0.000791199 -1
0.0133926 -0.0140886 0.313547 -0.000417779 0.147868 0.989007
-0.094033 0.00123016 0.120857 0.36175 -0.87261 -0.328159
0.0389318 0.113467 0.35083 -2.23636e-06 0.000791199 -1
-0.110126 0.238937 0.369541 -0.95208 0.305489 -0.0148141
-0.0274524 0.0304628 0.350764 -2.23628e-06 0.000791199 -1
-0.075642 0.207872 0.726151 0.055549 -0.908278 0.414662
-0.0780935 0.0730463 0.375007 -2.27605e-06 0.000806431 1
0.0875941 0.20893 0.498398 0.00152572 -0.999946 -0.0102397
0.122205 -0.0292879 0.376373 0.0269158 0.00046671 -0.999638
0.00946328 0.230118 0.763861 -0.0125554 -0.844976 0.534657
0.0728174 0.0295818 0.307051 -0.000178562 0.147989 0.988989
0.232271 0.0573506 0.573728 0.435373 0.150376 -0.887602
0.0912754 0.0117421 0.375057 -2.27606e-06 0.000806431 1
0.137434 0.0184202 0.377106 0.0296172 0.0259148 -0.999225
-0.0535124 0.0561521 0.374172 -0.0258907 -0.00883994 -0.999626
-0.157373 -0.0364074 0.377745 -0.173687 0.00121514 -0.9848
-0.194697 0.118726 0.355042 0.893104 -0.394209 0.216712
0.0188466 0.205546 0.538822 0.0553302 0.962109 -0.266991
0.115544 -0.110945 0.434608 -0.0552423 -0.0702901 0.995996
0.106019 0.0495688 0.280072 0.528015 -0.0800493 -0.845454
-0.0608555 0.0479437 0.277847 0.000178329 -0.0620289 -0.998074
0.13738 0.265353 0.0164699 -0.956239 0.282457 -0.0763243
-0.00267902 -0.150835 0.428975 0.00677525 -0.0763599 0.997057
-0.207987 0.134665 0.407373 0.962628 0.144532 0.229039
0.0330837 0.209936 0.557787 0.0575533 0.962783 -0.264077
0.196953 0.170596 0.35657 0.423762 0.899635 0.105276
0.102391 -0.00995099 0.289256 -0.000357961 -0.147941 -0.988996
-0.231021 -0.0865772 0.582876 -0.0920454 -0.144242 -0.985252
-0.23488 0.0524241 0.573934 -0.452209 0.15334 -0.878632
0.0919509 0.145642 0.296613 -0.521802 0.297015 -0.799691
-0.0448628 -0.0894901 0.35067 -2.23628e-06 0.000791199 -1
0.07795 -0.0429516 0.437763 -0.011899 -0.0755806 0.997069
0.0505806 -0.0990025 0.331093 -0.999449 -0.0223609 0.0245355
0.223235 0.0222076 0.568473 0.815146 -0.189689 -0.547317
0.0957417 0.259696 0.669626 0.340816 0.861331 -0.376768
-0.0264779 0.0140358 0.375054 -2.27605e-06 0.000806431 1
-0.188818 0.189788 0.711068 -0.0886755 -0.81205 0.576812
-0.15567 -0.0495851 0.313441 -2.47231e-05 -0.147853 -0.989009
-0.0185759 0.108472 0.291373 -0.881034 0.368791 0.296265
0.119036 -0.0184211 0.439239 0.00872334 0.012649 0.999882
0.137201 -0.152974 0.433074 -0.0565965 -0.0802798 0.995164
-0.155438 0.153272 0.549893 0.138654 -0.983484 0.116337
0.114628 -0.0290938 0.310496 0.000571447 -0.147403 -0.989076
0.0188809 0.244428 0.71494 0.0549855 0.981889 -0.1813
0.110232 0.0694669 0.282471 0.830182 0.0363454 -0.556306
-0.148528 0.231583 0.0826261 -0.726852 -0.667435 -0.161913
0.0487453 0.188604 0.487081 0.0618754 0.942873 -0.327355
0.0529311 0.030394 0.130452 0.219883 0.918281 -0.32926
-0.0168543 0.165727 0.413479 -0.0288208 0.839168 0.543108
0.162461 0.169175 0.50611 0.779007 0.267803 -0.566948
-0.0588706 -0.00478454 0.312123 -0.000424962 0.14781 0.989016
-0.0282681 0.0262126 0.130991 0.0578378 -0.918146 -0.391999
-0.0945899 0.191414 0.347827 0.00100185 -0.36812 0.929778
-0.175591 0.180526 0.556504 -0.438942 0.859505 -0.261882
-0.134848 -0.126206 0.376871 -0.120054 -0.0830786 -0.989285
0.242859 -0.0450879 0.59884 0.162641 -0.0180039 0.986521
-0.0895996 -0.195496 0.424234 -0.0490065 -0.474407 0.878941
-0.100853 0.237924 0.764083 -0.323663 0.0675659 0.943757
0.0780023 -0.0720648 0.43557 -0.0373356 -0.0689338 0.996922
0.0280269 0.217324 0.740787 -0.0509818 -0.911638 0.407819
0.18699 -0.0391218 0.391544 0.705468 -0.00786365 -0.708698
-0.0837033 0.162437 0.547398 0.0742232 -0.987021 0.142408
0.0798509 -0.201179 0.394709 0.229613 -0.805148 -0.546823
-0.0561174 -0.164127 0.375464 0.0504453 0.107455 -0.992929
-0.141543 0.240311 0.0978547 0.247165 0.537591 0.806167
0.148453 0.257721 0.0863995 -0.745442 0.643924 0.172273
-0.189309 0.0795108 0.405093 -0.645885 0.323693 -0.691416
-0.0384337 0.19031 0.490254 -0.0666545 0.944324 -0.322194
0.0884393 0.134037 0.317872 0.00191339 -0.688167 0.725549
0.00753154 -0.0548419 0.143077 0.990953 -0.0467113 0.125821
0.125144 0.082142 0.433626 -0.0497148 0.0731501 0.996081
-0.0497363 0.2527 0.66472 0.0697621 -0.561113 -0.824794
0.0989602 0.0162132 0.137952 0.350647 0.928028 0.125738
0.103762 0.225722 0.653862 0.201065 0.958654 -0.201385
-0.0163404 -0.00627529 0.437616 0.00221576 0.0782151 0.996934
0.0353433 -0.037428 0.373937 0.0292884 0.00349355 -0.999565
-0.185033 0.263175 0.0287262 -0.95655 0.281523 0.075875
0.00886381 -0.273224 0.0229969 0.00268927 -0.962862 0.26998
-0.201937 -0.113041 0.420281 -0.916576 -0.215323 -0.336935
-0.118669 0.192581 0.695939 0.146124 -0.946119 0.288974
-0.08278 0.0895393 0.302476 0.999982 0.000571226 0.00602549
0.142341 0.143866 0.304515 0.0719627 0.0308493 -0.99693
0.00897357 0.194354 0.671531 -0.0599154 -0.956246 0.286364
0.0906978 0.108297 0.28356 -0.521689 0.29706 -0.799747
-0.0686694 0.152729 0.300683 -8.90979e-05 0.0315518 -0.999502
-0.146913 0.247537 0.0688197 0.777555 0.0446883 -0.627225
-0.20806 -0.0211809 0.411418 -0.696976 -0.0116744 -0.717
0.230939 -0.0598448 0.578839 0.108921 -0.158376 -0.981353
-0.223719 0.141963 0.388931 -0.907537 0.419829 -0.010986
-0.0674819 0.158126 0.401285 -0.109982 0.74687 -0.655811
-0.137925 -0.013926 0.114461 0.339294 -0.932085 -0.126872
0.152936 0.0817017 0.377762 0.142285 0.000841009 -0.989825
-0.0594121 -0.162649 0.428787 0.0362606 -0.0766216 0.996401
0.151759 0.215907 0.662167 0.335165 0.931263 -0.142874
0.00684066 0.16766 0.548005 -0.0690437 -0.984952 0.158438
-0.00860338 0.0401465 0.276492 -0.0668285 0.0485827 -0.996581
0.12785 0.184721 0.334951 -0.0347321 0.632095 0.774112
-0.0721418 0.197495 0.697459 0.0641018 -0.950737 0.303299
-0.0184546 0.168254 0.555769 0.0652301 -0.985196 0.158538
-0.109995 0.0602853 0.373537 -0.999996 -0.00282028 6.20251e-05
-0.178561 0.0349076 0.385796 -0.704789 0.0698618 -0.705969
-0.0828358 0.133413 0.307572 0.999982 0.000571226 0.00602549
-0.17311 0.207418 0.660643 -0.467788 0.874286 -0.129611
0.0155427 0.137831 0.303676 0.00150704 -0.533681 -0.845685
-0.205667 -0.0818244 0.412875 -0.710964 -0.0815147 -0.698488
0.0648861 0.230847 0.552294 -0.0140923 0.999898 -0.00240222
0.212914 0.0811541 0.57482 0.187455 0.459467 -0.868188
-0.0727313 0.180863 0.335135 -0.00178789 0.631989 0.774975
0.0405248 -0.20875 0.418358 0.096635 -0.832777 0.54511
0.110933 0.229271 0.364093 0.999946 -0.00991956 0.00316113
-0.0100834 -0.0308927 0.291697 0.00198669 -0.701745 -0.712426
0.184611 0.244877 0.026288 0.999996 0.00273298 -6.81422e-05
-0.0756444 -0.13 0.337228 0.00308021 -0.999886 -0.0147922
-0.0294696 0.189491 0.660769 0.0746231 -0.955264 0.286185
-0.209039 0.0149059 0.41448 -0.951976 0.0590068 -0.300434
-0.0931642 0.208466 0.488099 0.00403194 -0.999898 -0.0136689
-0.126451 0.189084 0.521039 -0.252058 0.934872 -0.249962
-0.130376 0.154528 0.524102 0.127255 -0.991109 0.0388418
-0.0281036 0.21599 0.581572 -0.0615712 0.972906 -0.222851
-0.0854241 0.0424241 0.434852 0.0121399 0.0711571 0.997391
0.0759553 -0.0498758 0.318926 -0.000564251 0.147774 0.989021
-0.170086 -0.0153915 0.380135 -0.349629 0.007432 -0.936859
-0.117988 0.212305 0.107985 0.69201 0.648313 0.31751
0.192514 -0.0178132 0.396495 0.698022 0.0313035 -0.715392
0.185613 0.0722527 0.399384 0.695187 0.185523 -0.694475
0.118039 0.198261 0.552638 0.211484 0.941857 -0.261112
0.116229 0.14516 0.400565 0.216643 0.706849 -0.673372
-0.00268954 0.220279 0.546122 0.0199906 0.182735 -0.982959
-0.0907332 0.0743532 0.432639 0.0121399 0.0711571 0.997391
-0.0222507 0.177952 0.456869 -0.031513 0.875799 -0.481645
0.0919653 0.173679 0.307515 -0.521844 0.312666 -0.793674
-0.0565567 -0.0608221 0.374379 -0.0290819 0.000330137 -0.999577
0.064639 -0.168077 0.374127 -0.00796633 -0.0245273 -0.999667
0.197029 -0.0503174 0.313703 0.000417995 -0.147734 -0.989027
0.164199 -0.0391996 0.439108 0.00872334 0.012649 0.999882
0.126717 -0.100861 0.376361 0.0302746 0.0177303 -0.999384
0.0817962 -0.0457019 0.375269 0.0292884 0.00349355 -0.999565
0.0739299 -0.0669775 0.295876 0.000626858 -0.147752 -0.989024
0.0210734 0.0972518 0.277974 -8.21922e-05 0.0288323 -0.999584
-0.00714833 0.237434 0.672217 -0.0608422 0.982082 -0.178361
0.131942 0.200143 0.570687 0.211484 0.941857 -0.261112
0.059598 0.215011 0.584939 0.0560689 0.97324 -0.222844
-0.0494384 0.0033806 0.375063 -2.27605e-06 0.000806431 1
-0.194855 0.141441 0.36876 0.933944 -0.139246 0.329181
0.0754761 0.16039 0.411324 0.126177 0.991011 -0.0444694
0.0508754 -0.11747 0.431792 -0.011899 -0.0755806 0.997069
0.0447587 0.247496 0.746849 0.0617863 0.991398 -0.115378
-0.00734654 -0.0213516 0.373152 -0.0272578 0.00333406 -0.999623
-0.125463 -0.077705 0.376378 -0.0290819 0.000330137 -0.999577
0.109444 0.209755 0.355602 0.00165904 -0.585486 0.810681
-0.0225128 -0.260868 0.0337423 -0.955133 -0.210773 0.208076
0.084891 0.198921 0.702871 -0.0688861 -0.950933 0.301632
-0.134259 0.164185 0.483519 -0.452635 -0.102473 -0.885788
0.0983592 -0.123978 0.375166 -2.27606e-06 0.000806431 1
-0.0239102 -0.236517 0.0160096 -0.999996 -0.00291296 -0.000118439
0.0647375 0.232574 0.770431 -0.00737679 -0.840746 0.541379
0.0545702 0.142699 0.381323 0.108579 0.746698 -0.656241
-0.0279923 0.174572 0.5957 0.0758499 -0.971904 0.222822
0.156491 -0.0729982 0.439558 -0.0552423 -0.0702901 0.995996
0.276068 -0.0454944 0.0417857 0.0019273 -0.690669 -0.723169
-0.0659729 -0.0963522 0.325808 -0.000421952 0.147877 0.989006
-0.0501392 -0.0410017 0.350708 -2.23628e-06 0.000791199 -1
-0.0199594 0.211512 0.560792 -0.0630922 0.961642 -0.266955
-0.19533 0.00214656 0.399939 -0.698256 0.0311469 -0.71517
0.00284329 -0.224639 0.0293711 -0.00273466 0.962566 0.271032
-0.0349165 0.0763021 0.374519 0.00011602 0.0258427 -0.999666
0.093271 0.0986407 0.374986 -2.27605e-06 0.000806431 1
-0.0653049 0.13952 0.113995 0.531262 0.147401 -0.834286
-0.0374292 -0.147997 0.429429 0.00677525 -0.0763599 0.997057
0.0335595 0.0198887 0.146555 -0.326212 -0.937404 -0.121898
0.0814206 0.199045 0.528616 0.0575533 0.962783 -0.264077
-0.00635821 -0.145613 0.375183 -2.27606e-06 0.000806431 1
-0.131823 -0.0426697 0.315886 -0.000601828 0.147941 0.988996
0.000440991 0.0576961 0.037566 0.280217 0.95874 -0.0479176
-0.107863 0.0908377 0.432002 0.0456513 0.0732108 0.996271
0.0531677 0.212321 0.732747 -0.0509818 -0.911638 0.407819
0.0207444 0.175942 0.452951 0.0328713 0.875497 -0.482105
0.0289625 0.162459 0.522475 -0.0506572 -0.998218 0.0315476
0.13653 0.215426 0.0987208 0.830391 -0.45754 0.317975
-0.0503174 -0.143146 0.360281 0.00274296 -0.971845 -0.235606
-0.0836975 0.211916 0.577404 0.0161766 -0.991597 0.128351
0.00850866 0.22228 0.60383 0.0560689 0.97324 -0.222844
0.152371 -0.119193 0.378608 0.1297 -0.0926409 -0.987216
-0.0177352 -0.00513478 0.312195 -0.000412997 0.147868 0.989007
0.0821858 0.0567232 0.433576 -0.0323076 0.0721965 0.996867
-0.0869232 0.229719 0.658037 -0.063037 0.981417 -0.181238
0.0848566 0.106754 0.353001 0.382579 0.00091967 -0.923922
-0.126156 0.208988 0.602123 -0.199665 0.955109 -0.218863
0.169938 0.163023 0.617523 -0.176606 -0.955129 0.237778
-0.184912 -0.0792884 0.440198 -0.00355621 -0.0459718 0.998936
-0.117546 -0.196179 0.41918 -0.210264 -0.852475 0.478619
-0.0969532 0.157934 0.501883 0.070859 -0.996989 0.0314883
-0.181438 -0.152132 0.424712 -0.750417 -0.608913 0.257096
-0.0438931 0.0152001 0.350752 -2.23628e-06 0.000791199 -1
0.109395 0.210314 0.459272 0.0014966 -0.996638 -0.081918
0.108657 0.18407 0.495029 0.152221 0.933404 -0.32494
-0.19891 0.0631587 0.570789 0.436986 0.106788 -0.893106
-0.0896662 0.230876 0.475203 0.474535 0.879883 0.0249703
-0.130188 -0.00992166 0.440134 0.0342453 0.0605255 0.997579
-0.216975 0.0187166 0.600262 0 0 1
0.127247 0.160905 0.566087 -0.138045 -0.978749 0.151638
0.15506 0.256475 0.0469558 -0.379443 -0.924919 0.0234223
0.00728937 0.0180395 0.112172 0.398799 -0.916978 -0.0105485
-0.00742159 0.0101096 0.136292 -0.992378 0.0204751 -0.121522
-0.0812742 0.195472 0.516962 -0.0604477 0.962609 -0.264065
0.0325933 -0.00974125 0.375074 -2.27606e-06 0.000806431 1
0.0140752 0.00654119 0.281085 0.0682748 -0.271387 -0.960046
-0.0886168 0.0937121 0.37499 -2.27605e-06 0.000806431 1
-0.0832712 -0.0644063 0.375155 -0.0290819 0.000330137 -0.999577
-0.162008 0.17254 0.513613 -0.484431 0.819153 -0.307107
-0.0290104 0.0772009 0.171175 -0.674637 -0.170575 0.71817
-0.00930048 0.0328735 0.23542 -0.922781 -0.385324 0
0.000282209 0.193504 0.492091 0.0216128 0.932997 -0.359236
-0.113672 0.0391643 0.287072 -0.889369 -0.0700385 -0.451794
-0.0409632 0.100945 0.375155 0.00011602 0.0258427 -0.999666
-0.156105 0.205855 0.617436 -0.369225 0.905805 -0.207824
-0.030584 0.231156 0.648473 -0.0615634 0.972908 -0.222844
-0.0630369 0.0820548 0.431374 0.0307468 0.0787002 0.996424
0.0430777 0.201693 0.529958 0.0553302 0.962109 -0.266991
0.168024 0.0757373 0.34614 -0.21407 0.373596 -0.902552
-0.169974 0.174713 0.321931 -0.30952 0.746331 -0.589226
-0.0795136 0.00275824 0.310993 -0.000127941 0.147963 0.988993
0.146595 -0.0702507 0.37701 0.0269158 0.00046671 -0.999638
-0.124903 -0.186864 0.395182 -0.372537 -0.718587 -0.587239
-0.0308455 0.135491 0.350848 -2.23636e-06 0.000791199 -1
0.12352 0.184663 0.672277 -0.16377 -0.944567 0.284556
-0.104017 0.213718 0.413592 0.00301675 -0.986818 -0.161809
-0.100801 0.153489 0.415863 -0.168384 0.852633 0.494634
-0.0264848 -0.0655028 0.373527 -0.0272578 0.00333406 -0.999623
0.0515818 -0.0554629 0.37435 0.0292884 0.00349355 -0.999565
0.228392 -0.0955823 0.584315 0.0659549 -0.141334 -0.987762
-0.10726 0.0606542 0.281811 0.0355755 0.983829 -0.175543
-0.159585 0.236818 0.0147755 0.00200546 -0.706471 -0.707739
-0.148503 -0.167215 0.432106 0.0362807 -0.111799 0.993068
0.0306198 0.253528 0.665842 -0.0695551 -0.561268 -0.824706
-0.179819 0.172049 0.665257 0.166443 -0.95652 0.239511
0.0616659 0.133223 0.113576 -0.679258 0.302148 -0.668816
-0.121745 0.181053 0.496403 -0.249812 0.896739 -0.365313
0.104684 -0.0754158 0.375836 0.0292884 0.00349355 -0.999565
0.152315 -0.0270089 0.377185 0.0269158 0.00046671 -0.999638
0.0873153 0.217165 0.747275 -0.0262241 -0.841143 0.540176
-0.233957 -0.00348303 0.573437 -0.259078 -0.0699103 -0.963323
0.0368551 -0.162938 0.374222 -0.00796633 -0.0245273 -0.999667
-0.0942574 0.15952 0.331083 0.00109847 -0.401565 0.91583
0.000966094 -0.100002 0.375146 -2.27606e-06 0.000806431 1
-0.0566022 -0.125749 0.351591 0 0 1
0.0358833 0.134865 0.350847 -2.23636e-06 0.000791199 -1
0.0850752 0.229388 0.491939 -0.547868 0.836245 0.0231168
-0.277223 -0.0462478 0.0410148 0.00193357 -0.690655 -0.723181
0.0429997 -0.0419015 0.292119 0.000291053 -0.147775 -0.989021
0.0827628 0.0210964 0.124642 0.273314 0.953509 -0.126967
0.0126074 0.10365 0.350822 -2.23636e-06 0.000791199 -1
0.0500629 0.197687 0.691259 -0.0599154 -0.956246 0.286364
-0.0746768 0.106302 0.375379 -0.0415039 0.118994 -0.992027
0.0395882 -0.0889078 0.375138 -2.27606e-06 0.000806431 1
0.0699438 0.161013 0.478854 -0.0317811 -0.992155 -0.120907
0.0141727 0.00791022 0.43653 -0.00265333 0.0773819 0.996998
-0.170618 0.104889 0.400753 -0.581281 0.490065 -0.649576
0.103466 -0.0368362 0.301119 -0.689436 -0.716552 0.105975
0.126228 -0.184079 0.39273 0.356777 -0.728183 -0.585201
-0.111779 -0.0182365 0.308784 0.000710456 -0.147867 -0.989007
-0.179353 -0.104276 0.4388 -0.0063701 -0.0682013 0.997651
0.170941 -0.0618325 0.315412 0.000484895 -0.14781 -0.989016
-0.210447 0.100245 0.446863 0.998411 -0.0558688 -0.00740428
0.126058 0.0491947 0.376144 -0.0309871 -0.0441623 -0.998544
0.204273 0.053627 0.429134 0.957372 0.164599 0.237374
0.109807 0.227842 0.43828 0.948501 0.315929 0.0231081
-0.175692 0.045679 0.438323 0.0342453 0.0605255 0.997579
-0.0623379 -0.068948 0.321717 -0.000415933 0.147774 0.989021
-0.23028 0.0729597 0.575151 -0.452209 0.15334 -0.878632
0.181347 -0.00718448 0.599462 -0.176831 -0.0132984 0.984151
-0.163533 0.167198 0.344466 0.275401 -0.134279 0.951905
0.0130056 0.18041 0.314124 -0.00219347 0.775357 -0.63152
-0.127152 0.213609 0.745051 0.0409208 -0.796998 0.602594
0.236276 -0.0566669 0.00888836 -0.95566 0.0733906 -0.28518
-0.20602 0.11044 0.39433 0.964144 -0.100811 0.245488
-0.01041 0.0469444 0.373763 0.00011602 0.0258427 -0.999666
0.188243 0.0307085 0.600262 0 0 1
0.123421 -0.00397463 0.376417 0.0269158 0.00046671 -0.999638
0.123909 -0.193055 0.421042 0.215084 -0.851247 0.478663
-0.20921 -0.0404904 0.574723 0.0686162 -0.122221 -0.990128
0.107753 0.0609797 0.376191 -0.0309871 -0.0441623 -0.998544
-0.0187624 0.246395 0.725517 -0.0608422 0.982082 -0.178361
-0.0870352 -0.189203 0.379675 -0.222439 -0.796522 -0.562204
-0.0461624 -0.197222 0.379211 -0.0567245 -0.319723 -0.945812
0.0931767 -0.111602 0.356108 0.389746 0.00182799 -0.920921
-0.138591 0.0592112 0.367297 0.0543768 -0.924041 0.378407
0.0338233 0.154649 0.422491 0.031802 0.44836 0.893287
0.210693 0.0923694 0.405161 -0.961725 -0.272556 0.0282472
0.0869939 0.0848203 0.286446 -0.999996 -0.00282006 -7.94693e-06
0.0665575 -0.0434708 0.350706 -2.23636e-06 0.000791199 -1
-0.0392499 0.242583 0.711517 -0.0608422 0.982082 -0.178361
0.01152 0.0504654 0.0148945 0.687751 0.516886 -0.509732
-0.203322 -0.0494175 0.407679 -0.703953 -0.0252445 -0.709798
0.13443 0.166446 0.309127 0.0779725 0.376047 -0.923314
-0.00907368 0.191323 0.661566 0.0746231 -0.955264 0.286185
-0.179431 0.0787202 0.368449 -0.918788 -0.00257081 -0.394744
0.129375 0.105899 0.432076 -0.0419121 0.0854327 0.995462
0.163143 0.180432 0.534329 0.42843 0.862719 -0.268634
-0.0549712 0.227174 0.637822 -0.0615634 0.972908 -0.222844
-0.0773208 -0.101812 0.302528 0.00038347 -0.124409 -0.992231
0.0820317 0.183662 0.333209 -0.0017845 0.631934 0.77502
0.213353 0.155427 0.384296 0.522729 0.801204 0.291249
0.11365 0.0178223 0.306942 -0.000439212 0.147642 0.989041
0.143699 0.0615659 0.376935 0.0438194 0.00247223 -0.999036
0.0156464 0.162182 0.332119 0.00109847 -0.401565 0.91583
-0.185185 -0.0994753 0.590008 0.84554 -0.528085 0.0786673
-0.130734 0.151657 0.331191 0.080309 -0.400263 0.912875
0.120252 0.032512 0.376963 0.0296172 0.0259148 -0.999225
-0.0864253 -0.141205 0.376339 -0.0271991 -0.024573 -0.999328
0.0883918 0.135768 0.427557 -0.017679 0.125473 0.99194
-0.0320207 -0.206802 0.420648 -0.030656 -0.461454 0.886634
0.230251 -0.0216085 0.600262 0 0 1
0.068727 -0.0925654 0.325299 -0.000395174 0.147875 0.989006
-0.0145804 0.147327 0.425257 -0.000284601 0.101383 0.994847
-0.0831059 0.227959 0.374295 0.999928 -0.0120233 0.000489144
0.0138111 0.13392 0.374955 -2.53539e-06 0.000896847 1
0.0220188 -0.120781 0.431327 -0.00642886 -0.07529 0.997141
-0.0629921 0.141115 0.426387 0.00536424 0.0717613 0.997407
-0.150099 -0.0764722 0.377095 -0.0290819 0.000330137 -0.999577
0.187309 -0.0638024 0.579846 -0.0818348 -0.159837 -0.983746
-0.156331 0.129109 0.321762 0.133965 -0.990104 -0.0418157
-0.0901468 0.0477889 0.354789 -0.38177 -0.000345432 -0.924257
0.27172 -0.0712475 0.0248545 -0.999996 -0.00288625 5.23802e-06
-0.0911129 0.21104 0.443693 0.00404168 -0.99667 -0.081439
0.126888 0.0851461 0.356148 -0.00271506 0.961547 0.274627
-0.171426 0.0078735 0.597419 0.885441 0.0173204 0.464429
-0.132448 0.175076 0.644333 0.179001 -0.95899 0.219767
0.190725 -0.123415 0.434564 0.495828 -0.261507 0.828111
-0.0323146 -0.0404115 0.311994 0.860195 -0.504307 0.0757498
0.110968 0.218083 0.4781 0.999955 -0.00944543 0.000173157
0.00436063 0.250945 0.762187 0.0260747 0.998333 0.0515011
-0.0180319 0.0240883 0.182793 -0.624795 -0.64664 0.437593
-0.0749826 0.0159454 0.117496 -0.0927401 0.74223 -0.663697
0.19651 -0.00872418 0.572021 -0.279196 -0.0639687 -0.958101
0.023798 0.0454294 0.142736 0.849363 0.527532 -0.0171078
0.213619 0.0600252 0.474239 -0.130186 -0.909005 -0.395932
-0.0237447 0.070899 0.431596 0.00495033 0.0775234 0.996978
-0.186543 -0.0539767 0.599795 0.195176 -0.0236307 0.980483
0.037231 0.189484 0.662235 -0.0688861 -0.950933 0.301632
0.0742479 0.0106158 0.350749 -2.23636e-06 0.000791199 -1
0.0491852 0.0243475 0.435414 -0.0125638 0.0777862 0.996891
-0.063039 0.135634 0.378621 -0.0452371 0.256298 -0.965539
0.16 0.259425 0.0160329 -0.00274268 0.966131 -0.258039
-0.112165 0.0273527 0.436864 0.0456513 0.0732108 0.996271
0.0615947 0.149535 0.350858 -2.11901e-06 0.00074968 -1
0.0954674 -0.154646 0.430514 -0.0373356 -0.0689338 0.996922
0.0345554 0.11542 0.376055 -0.0309871 -0.0441623 -0.998544
-0.119264 0.142348 0.423739 -0.0788801 0.4828 0.872171
-0.211413 0.101288 0.377056 0.325617 -0.900154 -0.289304
0.111293 0.112179 0.301277 0.999931 -0.00150698 0.011627
0.0144949 0.0224298 0.192934 0.832716 -0.552191 0.0408609
0.00577212 -0.0171995 0.438456 -0.00265333 0.0773819 0.996998
-0.126981 0.048277 0.436005 0.0456513 0.0732108 0.996271
-0.0888343 0.158747 0.134345 -0.674637 -0.170575 0.71817
0.00865725 0.155496 0.350863 -2.11901e-06 0.00074968 -1
0.284977 -0.0488738 0.0252961 0.999996 0.00285284 0.000165921
-0.215527 0.153585 0.608784 0.0448569 -0.981715 0.184997
-0.0116507 0.0199959 0.0996791 -0.335141 -0.942111 -0.010353
0.1683 0.154562 0.568146 -0.158212 -0.978486 0.132414
0.15566 -0.144864 0.434742 -0.0248641 -0.0910059 0.99554
-0.0506299 -0.0403272 0.374269 -0.0272578 0.00333406 -0.999623
-0.0230128 0.0509152 0.160536 -0.999981 -0.00617732 0
-0.206181 0.0375209 0.548304 0.953669 -0.177326 -0.243045
0.0314163 0.249874 0.762526 0.0700769 0.994455 0.0784169
-0.0170961 0.197215 0.508617 -0.0630922 0.961642 -0.266955
-0.0643279 0.126054 0.35084 -2.23636e-06 0.000791199 -1
0.0613248 -0.00508235 0.28526 0.108398 -0.230484 -0.96702
0.0811492 -0.181366 0.428015 -0.0150463 -0.124705 0.99208
0.0207063 0.0389591 0.374179 0.0296172 0.0259148 -0.999225
0.246631 -0.0467337 0.0441472 -0.000707286 0.24772 0.968831
-0.0120829 -0.0820684 0.375132 -2.27606e-06 0.000806431 1
0.18963 0.194615 0.706949 0.804826 0.545793 0.233164
-0.0974317 0.224108 0.641901 -0.199665 0.955109 -0.218863
-0.152678 0.213074 0.645779 -0.25217 0.950385 -0.182148
-0.0362749 0.229345 0.567358 0.0143557 0.916725 0.399261
-0.203461 -0.0530769 0.439143 -0.557517 -0.0374061 0.829322
-0.00728332 -0.0424407 0.3751 -2.27606e-06 0.000806431 1
-0.0804862 0.223471 0.757119 0.00593499 -0.840558 0.54169
-0.0994158 0.0866814 0.286287 -0.00232334 0.936514 -0.350622
-0.106513 0.231335 0.339364 -0.523378 0.621927 -0.58248
0.0991603 0.172377 0.337182 -0.0752713 -0.157944 0.984575
0.0642465 -0.0361982 0.375095 -2.27606e-06 0.000806431 1
-0.0249669 0.087825 0.140862 0.814929 0.566561 -0.122064
-0.00660323 0.0935323 0.374967 0.00011602 0.0258427 -0.999666
-0.0781664 0.165579 0.566289 0.0742232 -0.987021 0.142408
-0.0536886 0.160674 0.482884 0.0399508 -0.994334 -0.0985088
0.010653 -0.0292996 0.29022 0.00067212 -0.240955 -0.970536
-0.152366 0.0997021 0.381358 -0.366085 0.261962 -0.892949
0.00692838 -0.145892 0.0999303 0.941729 0.0743947 -0.328043
0.0477436 0.0515932 0.375024 -2.27605e-06 0.000806431 1
-0.0442519 0.0588422 0.27815 -0.00131015 0.465336 -0.885133
-0.018914 -0.171936 0.375258 -0.0271991 -0.024573 -0.999328
0.100845 0.233696 0.690419 0.161216 0.970871 -0.177253
-0.0536593 -0.0712133 0.350684 -2.23628e-06 0.000791199 -1
0.00592104 0.229862 0.562306 -0.0175262 0.999842 -0.00303506
-0.186535 0.186364 0.598352 -0.41761 0.880251 -0.225301
-0.0699538 0.120862 0.126635 -0.78154 -0.610762 -0.127139
-0.101016 -0.0913482 0.435279 0.0639601 -0.0705544 0.995455
-0.120327 0.0737158 0.363927 0.000349967 9.94934e-07 -1
-0.0877124 -0.0895419 0.353854 -0.389672 -0.00141949 -0.920952
0.0712724 0.160803 0.302992 -0.00106422 0.376866 -0.926267
-0.030195 0.249946 0.760389 -0.0581605 0.989834 -0.129788
0.0648402 0.24868 0.668396 -0.102138 -0.821813 0.560527
-0.0667516 0.0332324 0.375039 -2.27605e-06 0.000806431 1
0.0959482 0.0864663 0.357574 0.382579 0.00091967 -0.923922
-0.0843062 0.226306 0.454166 0.938676 0.343426 0.0307478
-0.236172 -0.0587044 0.0253901 0.999996 0.00270457 0
-0.106922 0.0306261 0.375781 -0.0258907 -0.00883994 -0.999626
-0.109853 0.0101411 0.371561 -0.999996 -0.00282028 6.20251e-05
-0.267451 -0.0599976 0.00933334 0.000729197 -0.258102 -0.966117
-0.0830341 0.202956 0.335193 0.999982 0.00044546 0.00599343
