-0.047463 0.0588947 0.394442 0 0 -1
0.140762 -0.112496 0.415984 0 0 1
0.110891 0.175522 0.395072 -1.56122e-05 0.0866962 -0.996235
0.0358917 0.0779136 0.115308 0.0869358 0.118999 0.989081
0.1029 -0.117706 0.394442 0 0 -1
-0.154867 0.102109 0.415984 0 0 1
-0.164444 0.225023 0.705659 0.00017646 -0.979902 0.199477
0.0172585 0.110606 0.394442 0 0 -1
-0.138433 0.264292 0.0249928 0.992508 0.112457 0.0477692
-0.0541311 -0.00232419 0.314561 0 0 -1
0.0314748 -0.0343478 0.322252 0.000198427 -1 9.30469e-05
-0.176879 -0.0486675 0.0712289 0.317286 -0.947666 0.0354773
-0.0404881 -0.0327199 0.415984 0 0 1
0.139619 0.242936 0.746252 -4.14341e-05 0.198993 0.980001
-0.150674 0.0260956 0.415984 0 0 1
0.167511 0.227837 0.719144 0.00020402 -0.979891 0.199534
-0.0540649 -0.129831 0.394442 0 0 -1
-0.000397995 -0.00159116 0.171288 0.577954 -0.816069 0
-0.103334 0.215916 0.546841 -0.000206564 0.992081 -0.125604
0.0679336 0.229544 0.619647 -0.000204031 0.979914 -0.199422
-0.07025 -0.0014211 0.317671 -0.452751 -0.000100391 -0.891637
-0.11394 0.147712 0.0632766 0.0277809 -0.0385939 -0.998869
0.0920773 0.225357 0.707043 0.00020402 -0.979891 0.199534
-0.0127398 0.0413189 0.314561 0 0 -1
-0.139564 0.19243 0.52719 0.000176766 -0.997157 0.0753552
-0.00206312 0.0221281 0.1243 0 0 -1
-0.016617 0.23713 0.657009 -0.000204031 0.979914 -0.199422
0.155704 0.240086 0.671357 -0.000204025 0.979914 -0.199422
-0.109537 0.15643 0.394442 0 0 -1
0.133767 0.195224 0.0772617 0.798225 -0.601266 0.0362735
-0.104431 0.0326143 0.394442 0 0 -1
-0.109231 0.194873 0.552077 0.00020658 -0.992126 0.12524
0.0663753 0.228961 0.724769 0.00020402 -0.979891 0.199534
0.0149239 0.145655 0.394442 0 0 -1
0.0354641 0.205985 0.611959 0.00017646 -0.979902 0.199477
-0.053293 0.215002 0.539536 -0.000206564 0.992081 -0.125604
0.105725 0.148825 0.415984 0 0 1
0.105448 0.220689 0.576095 -0.000204031 0.979914 -0.199422
0.1106 -0.113166 0.415984 0 0 1
-0.183544 0.219144 0.567967 -0.000205038 0.984554 -0.175081
0.104185 -0.00756151 0.345335 0.452752 4.75783e-05 -0.891636
0.138079 0.191626 0.446842 0.000208213 -1 0
-0.15136 0.213106 0.469217 -0.00017727 1 0
-0.157034 0.231472 0.737329 0.00020402 -0.979891 0.199534
-0.00870335 0.245615 0.698695 -0.000204025 0.979914 -0.199422
0.116233 -0.0198527 0.0980477 0.300289 0.953203 0.0350778
0.139623 0.0642538 0.415984 0 0 1
0.143896 0.169404 0.394539 -1.80743e-05 0.0868068 -0.996225
-0.00693485 0.225011 0.597449 -0.000204031 0.979914 -0.199422
-0.0989112 0.251554 0.74441 -9.21333e-05 0.442482 0.896777
-0.0271619 0.213128 0.455637 -0.00017727 1 0
-0.0120974 0.0273314 0.216607 -0.244951 0.969536 0
-0.0189095 0.00910409 0.291685 0 0 1
-0.127287 0.191571 0.469775 0.000208213 -1 0
0.0240434 0.251263 0.744557 -4.14341e-05 0.198993 0.980001
-0.141284 0.0832274 0.415984 0 0 1
0.0794734 0.0173116 0.394442 0 0 -1
0.135686 0.216744 0.552985 -0.000206606 0.99208 -0.125604
-0.0179872 -0.030209 0.0846075 -0.999211 0.0172225 0.0357909
0.0203784 -0.144952 0.394442 0 0 -1
-0.123277 -0.123217 0.415984 0 0 1
0.157841 0.207565 0.619603 0.00020402 -0.979891 0.199534
-0.178949 -0.056505 0.415984 0 0 1
0.131578 0.248858 0.714487 -0.000204025 0.979914 -0.199422
0.271669 -0.0540291 0.0487961 0.0823165 0.082394 0.993195
0.0574093 -0.0757782 0.394442 0 0 -1
-0.0437741 0.0123682 0.0892219 -0.604557 0.794922 0.0510852
0.0867333 -0.00919835 0.336473 0.452752 4.75783e-05 -0.891636
0.0312162 0.210826 0.635745 0.00017646 -0.979902 0.199477
0.0557492 0.221852 0.689871 0.00020402 -0.979891 0.199534
0.06791 -0.181379 0.413734 0.000231176 -0.966635 0.256159
0.103051 0.119688 0.394442 0 0 -1
0.0242113 0.0586113 0.415984 0 0 1
0.100623 -0.160982 0.394442 0 0 -1
0.127304 0.237257 0.747405 -3.53031e-05 0.199142 0.979971
0.0814484 -0.164212 0.415984 0 0 1
0.103649 0.0520753 0.378499 -0.288817 -6.37568e-05 0.957384
0.0388277 0.232874 0.636036 -0.000204025 0.979914 -0.199422
-0.150935 0.0368737 0.386365 0 0 1
-0.145401 0.0131989 0.355828 -0.452717 -0.000152242 -0.891654
-0.18959 -0.100925 0.411526 -1 -0.000213615 0
-0.0421882 0.0542933 0.314561 0 0 -1
-0.00283497 0.0486441 0.354957 0 0 1
0.07208 0.0755782 0.394442 0 0 -1
0.0266045 -0.179793 0.394887 6.28172e-05 -0.262662 -0.964888
-0.00464499 0.236166 0.65226 -0.000204031 0.979914 -0.199422
0.143588 0.113169 0.394442 0 0 -1
0.0519377 0.0867192 0.0795369 0.798264 -0.601253 0.0356189
-0.186004 0.259515 0.0434666 -0.447137 -0.456555 0.769172
0.169334 0.228992 0.644628 1 0.000599869 -0.000122122
0.148214 -0.0448513 0.394442 0 0 -1
-0.0120612 -0.0295263 0.120607 -0.000205887 -0.147422 0.989074
-0.00994533 -0.156587 0.10167 0.000714465 -0.147381 0.989079
0.121723 0.191622 0.449525 0.000208213 -1 0
-0.13447 0.252091 0.730646 -0.000204025 0.979914 -0.199422
0.0587526 0.0742171 0.415984 0 0 1
0.0238878 0.0383152 0.314561 0 0 1
-0.1684 0.149498 0.415984 0 0 1
0.0060512 0.0215759 0.156858 0.916206 0.400708 0
0.126446 -0.0343253 0.382174 0.00028254 -1 -0.000264773
0.159218 0.244958 0.0444727 -0.626281 -0.779591 0.00310849
0.115268 0.00872128 0.350964 0.452752 4.75783e-05 -0.891636
0.034328 0.191604 0.46001 0.000208213 -1 0
-0.301912 -0.064422 0.00534157 -0.786075 0.488488 -0.378769
0.152677 0.255856 0.0606625 -0.813749 0.580171 0.034842
-0.0676029 0.232527 0.742417 0.00020402 -0.979891 0.199534
0.0238249 0.0351073 0.314561 0 0 1
-0.0013846 0.237038 0.747399 1.01222e-05 -0.0570987 0.998369
0.11581 -0.0652633 0.394442 0 0 -1
0.0418217 -0.172393 0.394442 0 0 -1
-0.0853263 -0.165653 0.415984 0 0 1
-0.0647006 0.0550888 0.314846 -0.452751 -0.000100391 -0.891637
0.080388 0.104365 0.394442 0 0 -1
0.15466 0.175763 0.417362 6.88806e-05 -0.330741 0.943722
-0.0550071 -0.089171 0.394442 0 0 -1
-0.0457034 0.011546 0.0789446 -0.608362 0.792035 0.0507515
-0.00665959 -0.120964 0.0648783 0.000203898 0.0475543 -0.998869
-0.0298122 0.107993 0.394442 0 0 -1
0.0963463 0.0643934 0.371438 -0.000283025 1 0.000262961
0.060002 0.012944 0.415984 0 0 1
0.175396 0.237543 0.0375674 -0.433599 -0.708591 0.556679
-0.0190778 0.0287614 0.193646 -0.461006 0.887397 0
0.0798063 0.0391817 0.394442 0 0 -1
0.209712 -0.0490317 0.0907227 0.300289 0.953203 0.0350778
-0.16786 0.207843 0.621268 0.00017646 -0.979902 0.199477
0.00716659 0.0690629 0.415984 0 0 1
-0.155723 0.222351 0.0592331 0.0279566 -0.0384492 -0.998869
-0.133419 0.21311 0.464407 -0.00017727 1 0
0.139437 -0.0343197 0.374974 0.00028254 -1 -0.000264773
-0.0258261 0.06437 0.344073 -0.000198391 1 -0.000194835
-0.147714 0.214265 0.530418 -0.000207623 0.997168 -0.0752114
-0.017739 0.00507942 0.177035 -0.5458 -0.837916 0
0.0853626 -0.0261417 0.0738323 -0.325138 -0.944988 0.035819
-0.12377 -0.0314068 0.378368 0.288817 6.37397e-05 0.957384
-0.0173774 -0.0428306 0.107705 -0.999211 0.0172225 0.0357909
-0.290457 -0.0510387 0.0303033 -0.70729 0.706921 0.00173222
-0.186795 0.251383 0.0509471 -0.998917 0.0458318 0.00801628
0.0957163 0.034087 0.376105 -0.288817 -6.37568e-05 0.957384
0.121725 -0.0346179 0.0645844 -0.0452164 0.01468 -0.998869
0.110012 0.198783 0.576172 0.000177298 -0.984555 0.175075
-0.186774 -0.0436773 0.415984 0 0 1
-0.0188126 0.0242421 0.270844 -0.789763 0.613412 0
-0.174671 0.235393 0.0272189 0.709235 -0.704971 0.00109036
-0.189647 0.200128 0.431966 -1 0 0
0.0418284 0.191177 0.435504 0.00020691 -0.993743 0.111694
0.162651 0.19123 0.435749 0.00020691 -0.993743 0.111694
-0.159904 0.172794 0.394839 -1.56122e-05 0.0866962 -0.996235
0.0415221 0.206127 0.612651 0.00017646 -0.979902 0.199477
0.235184 -0.0727883 0.0588874 -0.0452164 0.01468 -0.998869
-0.0167321 0.00857584 0.1243 0 0 -1
0.112549 0.191621 0.483591 0.000208213 -1 0
-0.00165126 -0.230229 0.0633738 0.999338 0.00892106 0.0352853
0.103503 -0.0281906 0.108943 0.140143 -0.0455422 0.989083
0.000654001 0.0446827 0.0847416 -0.556992 0.82895 0.0510101
0.0551168 0.159416 0.415984 0 0 1
-0.00464099 -0.0210618 0.109439 0.993062 -0.110185 0.0410826
0.160223 0.0399014 0.378206 1 0.000220693 0
-0.0196558 0.253636 0.738118 -0.000204025 0.979914 -0.199422
-0.0276138 0.0136858 0.207228 -0.999998 -0.00216744 0
0.0866251 0.14308 0.0636082 -0.0279275 -0.0384726 -0.998869
-0.182404 -0.160232 0.415984 0 0 1
-0.0472294 0.191587 0.499796 0.000208213 -1 0
0.0416746 0.158699 0.394442 0 0 -1
0.0927748 0.171897 0.416389 2.66606e-05 -0.111458 0.993769
0.0869428 -0.137417 0.415984 0 0 1
-0.0181977 0.0310037 0.394442 0 0 -1
-0.112813 0.195513 0.403841 -0.000103342 0.573848 -0.818962
0.105554 0.247983 0.71021 -0.000204025 0.979914 -0.199422
0.0585576 0.22854 0.614722 -0.000204031 0.979914 -0.199422
0.169409 -0.0991035 0.404078 1 0.000245396 0
0.169376 0.0330782 0.399082 1 0.000245396 0
0.263115 -0.0473808 0.00780016 -0.707513 0.706689 -0.00386982
0.168138 0.228404 0.721132 0.259231 -0.94639 0.19273
-0.13935 0.266507 0.0281718 0.831976 0.467023 0.29951
-0.0103804 0.213131 0.48932 -0.00017727 1 0
0.166308 0.199283 0.40708 -0.000147224 0.707107 -0.707107
-0.00346725 0.191793 0.510837 0.000208149 -0.999689 0.0249178
0.0154375 -0.123571 0.394442 0 0 -1
-0.237398 -0.0667967 0.0598632 0.045272 0.0145466 -0.998869
-0.118201 0.0110412 0.415984 0 0 1
-0.118913 -0.169661 0.394442 0 0 -1
-0.163014 -0.177336 0.415984 0 0 1
-0.121572 0.151683 0.415984 0 0 1
-0.164965 0.234766 0.645543 -0.000204031 0.979914 -0.199422
-0.0838895 0.129179 0.0859695 0.818506 0.5734 0.0355091
-0.15042 0.128791 0.415984 0 0 1
0.158037 -0.0575166 0.415984 0 0 1
-0.0500799 0.22988 0.621417 -0.000204031 0.979914 -0.199422
-0.111714 0.16918 0.0814197 0.818506 0.5734 0.0355091
-0.189612 0.00214243 0.400547 -1 -0.000213615 0
-0.14802 0.221233 0.0777683 0.818506 0.573355 0.0362228
0.026226 0.222512 0.585137 -0.000204031 0.979914 -0.199422
0.0142008 0.194307 0.547404 0.000175862 -0.992055 0.125807
-0.112415 0.0491289 0.374937 0.288844 9.65676e-05 0.957376
0.163545 0.234154 0.067273 0.79822 -0.601265 0.0363909
-0.0152285 0.250274 0.721594 -0.000204025 0.979914 -0.199422
-0.0812887 0.101862 0.415984 0 0 1
0.169337 0.220077 0.667182 1 1.29957e-05 6.37078e-05
-0.18122 -0.0527398 0.394442 0 0 -1
-0.0767847 -0.181764 0.409873 0.000208207 -1 0
0.0682942 0.0565695 0.367834 -0.288817 -6.37568e-05 0.957384
0.164115 -0.048085 0.0624676 -0.0452164 0.01468 -0.998869
-0.00126209 -0.0343505 0.35074 0.000146595 -1 0.000219241
-0.0179772 0.21313 0.453005 -0.00017727 1 0
0.0457508 0.210675 0.634991 0.00017646 -0.979902 0.199477
-0.176516 0.213703 0.523044 -0.000207623 0.997168 -0.0752114
-0.130677 0.23151 0.73749 0.00020402 -0.979891 0.199534
0.138382 0.213158 0.466092 -0.00017727 1 0
-0.038147 0.225865 0.709672 0.00020402 -0.979891 0.199534
0.0180023 -0.0202847 0.415984 0 0 1
0.169334 0.226776 0.630092 1 0.000599869 -0.000122122
0.0143183 0.187085 0.425685 0.000152546 -0.847276 0.531153
0.0386876 0.0697188 0.0895198 0.798264 -0.601253 0.0356189
0.129051 0.239127 0.666671 -0.000204025 0.979914 -0.199422
0.0813834 -0.04595 0.394442 0 0 -1
0.050107 -0.142154 0.394442 0 0 -1
0.0232268 -0.0137345 0.354957 0 0 1
-0.10782 0.0499895 0.37355 0.288844 9.65676e-05 0.957376
0.104897 0.157888 0.0939947 0.798264 -0.601253 0.0356189
0.129946 0.0641678 0.359464 0.113567 0.967945 -0.22402
0.156568 0.238471 0.663422 -0.000204025 0.979914 -0.199422
-0.0445918 0.0486376 0.0793217 -0.803224 -0.594626 0.0353687
-0.00628799 0.164126 0.415984 0 0 1
0.0932074 0.21315 0.440419 -0.00017727 1 0
-0.0971276 0.20839 0.623893 0.00017646 -0.979902 0.199477
-0.117024 0.145712 0.0664963 -0.803217 -0.594646 0.0351919
0.103355 0.0177922 0.394442 0 0 -1
0.0612043 0.162755 0.415984 0 0 1
0.0645763 0.0131638 0.394442 0 0 -1
-0.147426 -0.0390036 0.0659607 0.317286 -0.947666 0.0354773
-0.177685 0.247212 0.00978933 -0.581813 -0.582605 -0.567508
-0.000876996 0.0231992 0.220884 0.677004 0.735979 0
-0.0854852 0.246439 0.702819 -0.000204025 0.979914 -0.199422
0.166892 0.0210633 0.415984 0 0 1
-0.294491 -0.0786959 0.00565609 -0.467882 -0.468501 -0.749395
-0.0190855 -0.0817699 0.0787564 -0.999211 0.0172225 0.0357909
-0.0177322 -0.0568896 0.104564 -0.999211 0.0172225 0.0357909
0.0719315 0.0271879 0.394442 0 0 -1
0.163645 0.00371443 0.415984 0 0 1
-0.131401 0.137304 0.394442 0 0 -1
-0.189623 0.0537003 0.399481 -1 -0.000213615 0
-0.0437467 0.00895163 0.314561 0 0 1
-0.114599 0.213113 0.475823 -0.00017727 1 0
0.15406 -0.113119 0.415984 0 0 1
0.0520646 0.214391 0.531539 -0.000207623 0.997168 -0.0752114
-0.117378 0.0775762 0.415984 0 0 1
-0.0833472 -0.0166116 0.0911319 0.31733 -0.947655 0.0353714
0.086365 0.133381 0.0956409 0.798264 -0.601253 0.0356189
0.112557 0.149594 0.394442 0 0 -1
0.0092154 0.0929344 0.415984 0 0 1
0.0150554 -0.00315392 0.415984 0 0 1
-0.0871129 0.243686 0.689294 -0.000204031 0.979914 -0.199422
-0.144303 -0.0366995 0.0998039 0.31733 -0.947655 0.0353714
0.0890521 0.23363 0.639703 -0.000204025 0.979914 -0.199422
-0.0215545 0.0254534 0.1243 0 0 -1
-0.0980871 0.122377 0.104167 -0.803224 -0.594626 0.0353687
-0.153731 0.0154222 0.360057 -0.452717 -0.000152242 -0.891654
0.094927 0.145863 0.10132 0.610807 -0.330376 0.71956
-0.173254 -0.159963 0.394442 0 0 -1
0.0288696 0.142029 0.394442 0 0 -1
-0.000609081 0.0214494 0.314561 0 0 1
-0.0396712 0.0150083 0.107932 -0.77851 0.624991 0.0575247
-0.0257287 0.184056 0.422315 0.000125531 -0.708159 0.706053
-0.0920254 0.0368387 0.368786 0.288844 9.65676e-05 0.957376
0.0182621 0.0541528 0.354957 0 0 1
0.153343 0.255429 0.0817013 -0.745197 0.620648 0.243881
-0.189657 0.23649 0.705911 -1 0 0
0.0142176 -0.109962 0.394442 0 0 -1
-0.0428268 0.046586 0.0849124 -0.803224 -0.594626 0.0353687
0.152687 -0.142654 0.394442 0 0 -1
-0.000888634 0.0333644 0.291685 0 0 -1
-0.0485804 0.199628 0.580806 0.00017646 -0.979902 0.199477
0.0139176 0.166967 0.394442 0 0 -1
-0.0106188 0.221871 0.582025 -0.000204031 0.979914 -0.199422
0.035066 0.229622 0.72805 0.00020402 -0.979891 0.199534
0.160241 0.219996 0.680645 0.00020402 -0.979891 0.199534
-0.0507043 0.0922271 0.415984 0 0 1
0.299644 -0.0762182 0.0220023 0.707748 -0.706465 -6.96447e-05
-0.159689 -0.0203067 0.363088 -0.452751 -0.000100391 -0.891637
0.00395252 0.238812 0.665251 -0.000204025 0.979914 -0.199422
-0.26762 -0.0830935 0.0460537 0.706398 -0.70781 0.00273702
0.158094 0.268137 0.00127165 -0.167869 -0.168456 -0.97131
-0.257726 -0.0584677 0.0175462 0.697268 0.698271 -0.161973
-0.0514782 0.0588218 0.0941514 -0.803224 -0.594626 0.0353687
-0.0530385 0.228064 0.720485 0.00020402 -0.979891 0.199534
-0.0750576 0.231915 0.739421 0.00020402 -0.979891 0.199534
-0.113636 -0.167167 0.394442 0 0 -1
-0.107878 0.216005 0.661309 0.00017646 -0.979902 0.199477
0.146011 -0.0289111 0.415984 0 0 1
0.132666 0.0241311 0.359799 0.452752 4.75783e-05 -0.891636
-0.282119 -0.0615626 0.0647716 -0.292386 0.955623 0.0359797
-0.00391493 -0.285558 0.0687261 0 -0.996246 0.0865707
0.11246 0.0239846 0.349538 0.452752 4.75783e-05 -0.891636
0.0749232 0.0684339 0.394442 0 0 -1
0.174877 -0.056285 0.0911269 -0.325138 -0.944988 0.035819
-0.0481459 -0.0102693 0.312537 -1 -0.000167818 0
-0.0473533 -0.00664759 0.355313 0.288844 9.65676e-05 0.957376
0.117728 0.191799 0.509996 0.000239085 -0.999675 0.0254933
-0.153977 0.209384 0.42179 -0.000188752 0.906506 -0.422194
0.00489718 -0.0510014 0.415984 0 0 1
-0.00638257 0.21709 0.555953 -0.000206606 0.99208 -0.125604
-0.199849 -0.0555706 0.092535 0.31733 -0.947655 0.0353714
0.0840204 0.0433002 0.372577 -0.288817 -6.37568e-05 0.957384
0.150041 0.253832 0.0334897 -0.642665 -0.642738 0.416976
-0.0936139 0.242267 0.682327 -0.000204031 0.979914 -0.199422
-0.180477 0.217554 0.66898 0.00017646 -0.979902 0.199477
-0.121628 -0.167195 0.394442 0 0 -1
0.0263968 0.244574 0.745915 -4.14341e-05 0.198993 0.980001
0.0527284 0.202268 0.593687 0.00017646 -0.979902 0.199477
-0.130071 0.218519 0.673677 0.00017646 -0.979902 0.199477
0.0145914 0.0579466 0.314561 0 0 -1
-0.0882776 0.216098 0.548251 -0.000206564 0.992081 -0.125604
-0.0629373 0.192405 0.526645 0.000238504 -0.997243 0.0742105
0.0692907 0.0484524 0.415984 0 0 1
0.124287 0.201389 0.589304 0.00017646 -0.979902 0.199477
-0.0218836 0.0530158 0.394442 0 0 -1
0.0448087 0.0221455 0.415984 0 0 1
-0.00268334 -0.0310375 0.394442 0 0 -1
-0.147097 0.236405 0.653579 -0.000204031 0.979914 -0.199422
-0.182018 -0.0585033 0.394442 0 0 -1
0.301159 -0.0747025 0.00973611 0.707824 -0.706387 -0.00175505
-0.10236 0.191707 0.508219 0.000208149 -0.999689 0.0249178
0.0933692 0.166346 0.394442 0 0 -1
-0.176075 0.213102 0.48513 -0.00017727 1 0
-0.180676 -0.0981407 0.415984 0 0 1
0.126549 0.12989 0.415984 0 0 1
0.148612 0.214226 0.652324 0.00020402 -0.979891 0.199534
-0.126745 0.236779 0.655394 -0.000204031 0.979914 -0.199422
-0.18422 0.226652 0.605692 -0.000204031 0.979914 -0.199422
-0.102507 -0.136108 0.394442 0 0 -1
-0.157523 0.0358399 0.415984 0 0 1
0.035373 -0.0730176 0.415984 0 0 1
0.159737 0.0188889 0.38573 0.701739 0.000154886 0.712434
-0.124019 -0.0280643 0.109052 -0.0559874 -0.278596 0.958775
-0.0308713 -0.00405829 0.111104 -0.27332 -0.960202 0.0575261
-0.0577687 0.191585 0.468199 0.000208213 -1 0
-0.138928 0.219105 0.567691 -0.000205038 0.984554 -0.175081
0.128265 0.250721 0.723643 -0.000204025 0.979914 -0.199422
-0.117768 0.201805 0.591564 0.00017646 -0.979902 0.199477
0.142994 0.0259926 0.394442 0 0 -1
0.174684 0.272682 0.0479127 0.240392 0.240967 0.940291
-0.00608723 0.00703433 0.291685 0 0 -1
0.0645709 0.0151405 0.415984 0 0 1
0.0818099 0.0643906 0.351654 -0.000222755 1 -0.000104456
0.276299 -0.0722236 0.0665824 0.947338 -0.308177 0.0870446
-0.00696796 0.0221569 0.1243 0 0 -1
-0.0556742 -0.0343614 0.338831 0.000266597 -1 0.000162934
0.00959654 0.213135 0.453849 -0.00017727 1 0
-0.13949 0.22463 0.595712 -0.000204031 0.979914 -0.199422
-0.0444766 0.0496178 0.0984174 -0.803224 -0.594626 0.0353687
0.0992039 0.213151 0.468501 -0.00017727 1 0
0.0708075 -0.143247 0.394442 0 0 -1
-0.148109 0.191566 0.498109 0.000208213 -1 0
0.0446086 0.186159 0.398332 -7.61183e-05 0.422681 -0.906278
-0.182195 0.144256 0.415984 0 0 1
0.133625 0.248076 0.710639 -0.000204025 0.979914 -0.199422
-0.153143 -0.103447 0.394442 0 0 -1
-0.189652 0.193022 0.430363 -0.999998 0.00089772 0.00156684
0.0398392 0.204144 0.602912 0.00017646 -0.979902 0.199477
-0.120818 0.0685192 0.415984 0 0 1
0.0476706 -0.0682952 0.394442 0 0 -1
-0.0472924 0.0534648 0.099147 -0.803224 -0.594626 0.0353687
-0.158818 0.193672 0.542643 0.000175862 -0.992055 0.125807
-0.139048 0.0169475 0.352601 -0.452717 -0.000152242 -0.891654
-0.0526286 0.213124 0.502352 -0.00017727 1 0
0.00225567 0.0151919 0.291101 0.986531 0.163573 0
0.0885346 -0.181729 0.400399 0.000208207 -1 0
0.0661874 0.137571 0.394442 0 0 -1
0.0476256 -0.143749 0.415984 0 0 1
0.105164 0.235993 0.651297 -0.000204025 0.979914 -0.199422
-0.0170852 -0.00275108 0.15993 -0.460188 -0.887822 0
-0.266613 -0.074145 0.0584322 0.0452183 0.0146832 -0.998869
-0.282502 -0.066897 8.46874e-05 0 0 -1
0.169334 0.240867 0.715429 1 1.29957e-05 6.37078e-05
-0.0383241 0.06503 0.071538 0.818506 0.5734 0.0355091
-0.0182871 -0.137275 0.104296 -0.688155 -0.0917321 0.719741
0.109261 0.0492326 0.394442 0 0 -1
0.00461921 0.210335 0.633356 0.00017646 -0.979902 0.199477
-0.075806 0.223568 0.590429 -0.000204031 0.979914 -0.199422
0.169412 -0.112233 0.399951 1 0.000245396 0
-0.108388 -0.000322632 0.373726 0.288817 6.37397e-05 0.957384
-0.157282 -0.00733891 0.361864 -0.452717 -0.000152242 -0.891654
-0.124047 0.0258851 0.344984 -0.452717 -0.000152242 -0.891654
-0.0187845 0.00576043 0.265034 -0.5458 -0.837916 0
-0.0252798 0.209794 0.630723 0.00017646 -0.979902 0.199477
-0.0372127 0.209374 0.42172 -0.000160792 0.907043 -0.421037
-0.0556543 0.191586 0.499807 0.000208213 -1 0
0.29469 -0.0608391 0.00382276 0.327416 0.327856 -0.886177
0.00764345 0.215867 0.546266 -0.000206564 0.992081 -0.125604
-0.140247 0.199304 0.579296 0.00017646 -0.979902 0.199477
-0.263876 -0.0524787 0.0290709 0.67481 0.675781 0.296566
0.0144054 -0.00408452 0.0880546 0.260681 -0.963706 0.0575851
-0.00509851 0.0384888 0.314561 0 0 1
0.139744 0.226074 0.0589264 -0.0279275 -0.0384726 -0.998869
0.113253 0.191621 0.440062 0.000208213 -1 0
-0.291598 -0.0870118 0.0701226 0.124009 -0.990913 0.0520933
-0.134213 0.21639 0.550635 -0.000206564 0.992081 -0.125604
-0.161446 0.24477 0.694697 -0.000204031 0.979914 -0.199422
0.0724639 -0.0346147 0.415984 0 0 1
0.292861 -0.083011 0.0290935 0.707762 -0.70645 0.00126586
-0.189628 0.0794447 0.412928 -1 -0.000213615 0
0.124395 0.0616598 0.415984 0 0 1
0.101224 0.194665 0.550105 0.000175862 -0.992055 0.125807
0.0418374 0.204264 0.603502 0.00017646 -0.979902 0.199477
0.00626118 0.171851 0.394754 -1.80743e-05 0.0868068 -0.996225
-0.146004 -0.0377856 0.0859655 0.31733 -0.947655 0.0353714
0.265119 -0.0863438 0.0217361 -0.704935 -0.705961 0.0684545
0.121739 0.212213 0.064821 -0.813749 0.580171 0.034842
0.0818593 0.140241 0.394442 0 0 -1
0.0138985 0.0579477 0.114231 -0.81374 0.580152 0.0353666
-0.170637 -0.0462109 0.0812257 0.31733 -0.947655 0.0353714
-0.145505 0.25575 0.00549887 0.817092 -0.457109 -0.351299
0.228906 -0.0540629 0.0632967 0.300278 0.953168 0.0361111
-0.17053 0.24813 0.711216 -0.000204031 0.979914 -0.199422
0.0329453 0.202124 0.592997 0.00017646 -0.979902 0.199477
-0.18231 0.0752714 0.415984 0 0 1
-0.254117 -0.0764326 0.0381901 0.81826 -0.0611338 0.571588
-0.0363344 -0.0106286 0.354957 0 0 1
-0.0404367 0.147775 0.415984 0 0 1
-0.152921 -0.168438 0.394442 0 0 -1
-0.111989 -0.0180228 0.0662574 0.045272 0.0145466 -0.998869
0.158122 -0.181715 0.403665 0.000208207 -1 0
-0.115821 -0.0155907 0.340812 -0.452751 -0.000100391 -0.891637
-0.00852043 -0.0228653 0.312227 0.000167732 -1 0
0.0797966 0.14002 0.103977 0.0866359 0.119198 0.989083
0.00737986 0.213135 0.481381 -0.00017727 1 0
0.16319 0.0701157 0.415984 0 0 1
-0.0770863 0.246142 0.701351 -0.000204025 0.979914 -0.199422
-0.0397037 0.22697 0.607108 -0.000204031 0.979914 -0.199422
-0.187231 0.0350395 0.394442 0 0 -1
0.157712 0.262599 0.0459265 -0.390706 -0.375006 0.840666
0.0156876 0.216535 0.551534 -0.000206606 0.99208 -0.125604
0.0607924 -0.0218143 0.323301 0.452752 4.75783e-05 -0.891636
-0.103354 0.19182 0.512772 0.000208149 -0.999689 0.0249178
0.199804 0.255123 0.0115437 0.760447 -0.645538 -0.070716
0.15177 0.163408 0.394442 0 0 -1
0.0187154 0.206663 0.615307 0.00017646 -0.979902 0.199477
-0.16588 0.236953 0.0346047 -0.0295933 -0.906339 0.421514
0.0774023 0.0403325 0.331741 0.452717 0.000100408 -0.891654
0.169412 -0.113109 0.402287 1 0.000245396 0
0.0596102 0.0408269 0.394442 0 0 -1
-0.00327772 -0.216676 0.0603223 0.000203898 0.0475543 -0.998869
-0.00459837 0.00829072 0.314561 0 0 1
0.112141 0.0226317 0.381059 -0.288817 -6.37568e-05 0.957384
-0.0945834 -0.0374172 0.394442 0 0 -1
0.024067 0.0744816 0.0769763 -0.81374 0.580152 0.0353666
0.056344 0.21328 0.508356 -0.000177214 0.99968 -0.0253008
0.0608466 0.0997968 0.100631 0.798264 -0.601253 0.0356189
-0.168866 0.044339 0.394442 0 0 -1
0.0709338 0.193671 0.542312 0.000175862 -0.992055 0.125807
-0.144003 0.0643426 0.358514 -0.000266579 1 -0.000162841
0.146277 0.0219596 0.386365 0 0 1
0.0625783 0.0539685 0.415984 0 0 1
0.0882796 0.198485 0.574517 0.000205022 -0.984645 0.174567
-0.0203804 -0.182714 0.0911793 -0.999211 0.0172225 0.0357909
-0.00649926 -0.283776 0.078249 0.000483651 -0.830773 0.556612
0.130767 -0.181721 0.410133 0.000208207 -1 0
0.0777201 0.0419929 0.331902 0.452717 0.000100408 -0.891654
0.13839 -0.0163809 0.362703 0.452752 4.75783e-05 -0.891636
-0.175779 0.289207 0.030783 -0.707677 0.706534 -0.00201258
-0.129226 0.194855 0.0705855 0.818522 0.573387 0.035337
-0.0125309 -0.147965 0.0635919 0 0.0475419 -0.998869
-0.116668 0.100158 0.394442 0 0 -1
-0.189648 0.19488 0.521727 -1 -0.000557197 1.39872e-05
-0.125141 -0.0397203 0.415984 0 0 1
0.264724 -0.0457734 0.0183626 -0.707778 0.706435 -0.000225301
0.111205 0.0215318 0.394442 0 0 -1
0.00911961 -0.247706 0.0422418 0.512667 0.513158 0.688361
-0.16179 0.259495 0.0488383 0.0820863 0.0822046 0.993229
0.0888259 0.213149 0.471171 -0.00017727 1 0
0.0194719 -0.0306459 0.314561 0 0 -1
0.106176 -0.0328941 0.0846166 -0.325138 -0.944988 0.035819
0.0819294 0.201453 0.589654 0.00017646 -0.979902 0.199477
0.0708515 0.124929 0.106579 0.0866359 0.119198 0.989083
-0.0185048 -0.0182281 0.103105 -0.941454 -0.333279 0.0508935
-0.0849181 0.0437613 0.325114 -0.452751 -0.000100391 -0.891637
-0.149715 0.244324 0.692493 -0.000204031 0.979914 -0.199422
-0.0777376 0.0734444 0.394442 0 0 -1
0.144743 0.0225752 0.386365 0 0 1
0.0175187 0.218043 0.671204 0.00020402 -0.979891 0.199534
-0.282113 -0.0894313 0.0449548 -0.37664 -0.395849 0.837524
-0.0191343 0.192787 0.531635 0.000176766 -0.997157 0.0753552
0.0318567 0.240346 0.672763 -0.000204025 0.979914 -0.199422
0.0984075 0.156955 0.394442 0 0 -1
-0.0134056 0.196957 0.56602 0.000205022 -0.984645 0.174567
0.156621 0.0245537 0.415984 0 0 1
0.0687664 -0.091137 0.394442 0 0 -1
0.124341 -0.105081 0.394442 0 0 -1
0.0478635 0.016677 0.415984 0 0 1
-0.0839108 0.0335586 0.324603 -0.452751 -0.000100391 -0.891637
-0.129475 0.162548 0.0667828 -0.803217 -0.594646 0.0351919
-0.151927 -0.0122072 0.386365 0 0 1
-0.153655 0.0643416 0.368297 -0.000266579 1 -0.000162841
-0.0283156 0.0845684 0.415984 0 0 1
-0.0082849 0.0498419 0.415984 0 0 1
-0.0171781 -0.249776 0.0105161 -0.707842 0.706371 -0.000959007
-0.129186 -0.0780918 0.415984 0 0 1
-0.0793464 0.232403 0.74182 0.00020402 -0.979891 0.199534
-0.165879 0.190112 0.43165 0.000167295 -0.943952 0.330084
-0.0057905 0.213132 0.485758 -0.00017727 1 0
0.0572546 0.253363 0.736698 -0.000204025 0.979914 -0.199422
-0.0573026 0.0763054 0.115538 -0.0863409 0.119438 0.98908
-0.0407347 0.00776769 0.0698623 0.0451084 0.0146577 -0.998875
0.00964419 0.0181791 0.1243 0 0 1
-0.0380914 0.000108243 0.301527 -0.711583 -0.380911 -0.590386
-0.0370021 0.211423 0.42771 -0.000171193 0.965716 -0.259602
-0.042569 0.213126 0.494709 -0.00017727 1 0
-0.0798756 -0.180303 0.395255 0.000167751 -0.701429 -0.71274
-0.019123 0.00619141 0.27696 -0.788803 -0.614646 0
-0.0219437 0.0107968 0.207604 -0.945047 -0.326934 0
-0.265345 -0.0571511 0.0841585 -0.292373 0.955639 0.0356583
-0.189601 -0.0489099 0.402825 -1 -0.000213615 0
0.120299 0.178231 0.0922115 0.798264 -0.601253 0.0356189
-0.0262369 0.0643686 0.337072 -0.000198391 1 -0.000194835
-0.0288629 0.213128 0.483612 -0.00017727 1 0
0.0765327 0.191613 0.454924 0.000208213 -1 0
-0.182356 0.118654 0.415984 0 0 1
0.159753 -0.0480245 0.10006 0.140143 -0.0455422 0.989083
-0.159522 -0.0692705 0.415984 0 0 1
0.0540017 -0.00610262 0.36352 -0.28879 -3.21792e-05 0.957392
-0.0224555 0.0334939 0.0702344 0.0277254 -0.0381561 -0.998887
-0.188757 -0.0856186 0.415685 -0.707115 -0.000128599 0.707099
-0.106989 0.225991 0.602367 -0.000204031 0.979914 -0.199422
-0.153942 0.0742036 0.394442 0 0 -1
-0.273838 -0.080967 0.0756656 0.317275 -0.947726 0.0339334
0.119758 -0.0973489 0.415984 0 0 1
0.0435678 0.0464072 0.314563 0.452717 0.000100408 -0.891654
0.0185051 0.144766 0.415984 0 0 1
0.0632688 0.0130319 0.324562 0.452717 0.000100408 -0.891654
-0.0682175 0.16363 0.415984 0 0 1
-0.14281 0.213108 0.455333 -0.00017727 1 0
-0.138317 0.163103 0.415984 0 0 1
-0.0152941 0.00576784 0.237379 0 0 1
-0.0899817 0.0309874 0.415984 0 0 1
-0.155261 -0.177746 0.415984 0 0 1
-0.181116 0.0499002 0.415984 0 0 1
-0.0103197 -0.0833162 0.415984 0 0 1
-0.156286 -0.16727 0.394442 0 0 -1
-0.0336463 0.213127 0.479181 -0.00017727 1 0
0.0919653 -0.014381 0.33913 0.452752 4.75783e-05 -0.891636
0.0543483 -0.181737 0.401246 0.000208207 -1 0
-0.00100398 -0.281035 0.0578871 0.999338 0.00892106 0.0352853
0.0561856 0.0598313 0.415984 0 0 1
-0.0487631 0.0261887 0.394442 0 0 -1
-0.102301 0.206523 0.614725 0.00017646 -0.979902 0.199477
0.0290867 0.0471138 0.394442 0 0 -1
-0.151624 0.173788 0.416695 7.89554e-05 -0.330084 0.943951
-0.146921 -0.0386625 0.0705584 0.317286 -0.947666 0.0354773
-0.0917263 0.140472 0.0842557 0.818506 0.5734 0.0355091
0.0180672 -0.00294112 0.314561 0 0 1
0.168448 0.191908 0.504107 0.355684 -0.934159 0.0289037
0.166706 0.192344 0.525095 0.000238504 -0.997243 0.0742105
0.00221741 0.0154226 0.174806 0.986531 0.163573 0
0.086743 0.191615 0.452132 0.000208213 -1 0
0.0734327 0.116394 0.098723 0.798264 -0.601253 0.0356189
-0.0142992 0.219168 0.676761 0.00020402 -0.979891 0.199534
0.00411068 0.0458304 0.415984 0 0 1
0.0867397 0.167583 0.415984 0 0 1
-0.0180529 0.170646 0.416252 2.32557e-05 -0.111692 0.993743
-0.0320747 0.186782 0.39863 -8.79032e-05 0.422192 -0.906507
0.0196091 0.197433 0.568666 0.000205022 -0.984645 0.174567
-0.0365498 0.0231562 0.0888035 -0.977679 0.201089 0.0608841
-0.189647 0.207645 0.460528 -1 0 0
0.127869 0.154166 0.394442 0 0 -1
0.041287 -0.122802 0.415984 0 0 1
0.00784849 0.015493 0.218865 0.990672 0.136272 0
-0.157631 0.0385417 0.394442 0 0 -1
0.171903 -0.048517 0.0983156 0.140143 -0.0455422 0.989083
-0.132453 -0.0343779 0.368573 0.000161753 -1 -0.00047627
-0.18961 -0.00339021 0.397379 -1 -0.000213615 0
0.0288161 -0.0150145 0.415984 0 0 1
-0.0218364 -0.214856 0.0660494 -0.999211 0.0172326 0.0357814
0.112197 0.0315777 0.394442 0 0 -1
-0.231031 -0.0551173 0.0603227 0.0452183 0.0146832 -0.998869
-0.132838 0.205353 0.414384 -0.000170513 0.818962 -0.573848
0.15719 0.189913 0.430907 0.000196406 -0.943294 0.331959
-0.0744366 -0.00966231 0.319797 -0.452751 -0.000100391 -0.891637
0.103117 0.182396 0.420792 9.41548e-05 -0.531153 0.847276
-0.074376 0.191582 0.482241 0.000208213 -1 0
-0.100109 -0.0444829 0.415984 0 0 1
-0.164379 0.0550542 0.415984 0 0 1
-0.128906 -0.0242463 0.415984 0 0 1
0.218849 -0.0513789 0.0762243 0.300324 0.953214 0.0344818
0.102799 -0.0543886 0.415984 0 0 1
0.212419 -0.0695388 0.0822358 -0.325138 -0.944988 0.035819
0.23989 -0.0792024 0.076581 -0.325115 -0.945018 0.0352201
0.0597044 0.230427 0.623993 -0.000204031 0.979914 -0.199422
-0.170042 0.235619 0.64974 -0.000204031 0.979914 -0.199422
0.0892736 -0.0569613 0.415984 0 0 1
0.169337 0.219078 0.620541 1 0.000599869 -0.000122122
0.0570043 0.196727 0.56464 0.000205022 -0.984645 0.174567
-0.0637732 0.191584 0.465064 0.000208213 -1 0
-0.0671782 0.223609 0.590622 -0.000204031 0.979914 -0.199422
-0.016436 -0.0387253 0.0687916 0.000203898 0.0475543 -0.998869
0.0919435 0.0632658 0.339327 0.437158 0.259679 -0.86108
-0.0376834 0.155521 0.415984 0 0 1
-0.0673162 0.14486 0.394442 0 0 -1
-0.0488951 0.0643663 0.348709 -0.000266579 1 -0.000162841
0.0996227 0.222467 0.692844 0.00020402 -0.979891 0.199534
0.0551149 -0.0343421 0.327876 0.000222034 -1 0.000104117
0.00231035 0.00725627 0.354957 0 0 1
-0.27812 -0.0819053 0.0837616 0.265862 -0.917293 0.296464
-0.0461266 -0.0243185 0.314561 0 0 -1
0.106525 -0.00884413 0.346523 0.452752 4.75783e-05 -0.891636
0.0473135 -0.168108 0.415984 0 0 1
-0.0494258 0.209306 0.421578 -0.000160792 0.907043 -0.421037
-0.0722737 -0.106358 0.394442 0 0 -1
0.0783386 0.216751 0.553131 -0.000206606 0.99208 -0.125604
0.153706 0.274337 0.0375575 -0.70761 0.7066 -0.00192745
-0.172935 0.0544498 0.3698 -0.452717 -0.000152242 -0.891654
0.054566 0.191608 0.489636 0.000208213 -1 0
0.00307439 0.191598 0.491524 0.000208213 -1 0
0.154095 0.130062 0.415984 0 0 1
-0.114421 0.199645 0.580946 0.00017646 -0.979902 0.199477
-0.0137966 -0.276024 0.0574969 0 0.0475419 -0.998869
-0.0668723 0.201656 0.590787 0.00017646 -0.979902 0.199477
-0.0452232 -0.0343573 0.349137 0.000146595 -1 0.000219241
0.106355 -0.00660836 0.379312 -0.288817 -6.37568e-05 0.957384
-0.00448127 -0.038088 0.0948968 0.999335 0.00894223 0.0353624
-0.0624462 0.201127 0.588182 0.00017646 -0.979902 0.199477
-0.170603 0.0774471 0.394442 0 0 -1
-0.0303144 0.253441 0.737169 -0.000204025 0.979914 -0.199422
0.00602649 0.206839 0.616183 0.00017646 -0.979902 0.199477
-0.0381374 0.213127 0.449785 -0.00017727 1 0
0.185173 0.258845 0.0484351 0.0819905 0.0821086 0.993245
0.0931343 0.232678 0.635022 -0.000204025 0.979914 -0.199422
0.0509879 0.0696891 0.415984 0 0 1
0.144514 0.226194 0.603106 -0.000204025 0.979914 -0.199422
0.0164673 0.208458 0.624125 0.00017646 -0.979902 0.199477
0.291018 -0.0784398 0.000482298 0.113883 -0.281693 -0.952722
0.020563 0.227012 0.715247 0.00020402 -0.979891 0.199534
0.156199 0.197059 0.566393 0.000205022 -0.984645 0.174567
-0.019741 -0.113871 0.0759022 -0.999211 0.0172225 0.0357909
0.123501 -0.0220967 0.0968065 0.300289 0.953203 0.0350778
-0.020405 -0.156117 0.0776932 -0.999211 0.0172225 0.0357909
0.0600258 0.172365 0.394798 -1.80743e-05 0.0868068 -0.996225
-0.238757 -0.0694708 0.0689342 0.317286 -0.947666 0.0354773
-0.00246413 -0.233709 0.0873601 0.999335 0.00894223 0.0353624
0.058553 -0.0575421 0.415984 0 0 1
-0.139671 0.17133 0.394711 -1.56122e-05 0.0866962 -0.996235
0.122365 0.213155 0.446758 -0.00017727 1 0
0.0310821 0.0336464 0.314561 0 0 -1
-0.174307 -0.0343884 0.380472 0 -1 0
-0.172757 -0.0843733 0.394442 0 0 -1
0.153988 0.196988 0.565998 0.000205022 -0.984645 0.174567
-0.173666 0.246776 0.0066982 -0.469301 -0.470139 -0.74748
-0.177586 0.21553 0.543906 -0.000206564 0.992081 -0.125604
-0.0575649 0.138034 0.394442 0 0 -1
-0.00147827 0.0192979 0.0704493 0 0 -1
-0.0123065 0.245497 0.698115 -0.000204025 0.979914 -0.199422
-0.0125244 0.243608 0.688837 -0.000204025 0.979914 -0.199422
0.0373105 0.233229 0.637786 -0.000204025 0.979914 -0.199422
-0.160486 0.204373 0.0657032 -0.803217 -0.594646 0.0351919
-0.11839 0.230239 0.731233 0.00020402 -0.979891 0.199534
-0.0202076 -0.170756 0.394442 0 0 -1
-0.0330867 0.049283 0.0693284 0.0277809 -0.0385939 -0.998869
-0.0653021 -0.00194329 0.394442 0 0 -1
0.100926 -0.0136932 0.415984 0 0 1
-0.161 0.293102 0.0184614 0.697011 0.69767 -0.165625
-0.0163291 -0.181998 0.0619721 0 0.0475419 -0.998869
0.105293 0.113802 0.415984 0 0 1
0.115828 0.203231 0.0762715 -0.81374 0.580152 0.0353744
-0.0416685 -0.0855158 0.415984 0 0 1
0.094924 0.17412 0.0728388 -0.81374 0.580152 0.0353744
-0.114993 0.240359 0.672977 -0.000204031 0.979914 -0.199422
0.086123 -0.0622614 0.415984 0 0 1
-0.189641 0.138287 0.407432 -1 -0.000213615 0
-0.0131892 0.145639 0.394442 0 0 -1
0.0952623 0.09999 0.394442 0 0 -1
0.0285638 -0.0805845 0.394442 0 0 -1
-0.139768 0.192906 0.533497 0.000176766 -0.997157 0.0753552
0.0740092 -0.0208782 0.109637 -0.325138 -0.944988 0.035819
0.169415 -0.126359 0.411927 1 0.000245396 0
-0.131786 -0.0307911 0.34892 -0.452751 -0.000100391 -0.891637
-0.0623881 0.213665 0.649773 0.00017646 -0.979902 0.199477
-0.126033 0.190576 0.0660489 0.818522 0.573387 0.035337
0.171199 -0.0480918 0.098435 0.140143 -0.0455422 0.989083
-0.0104619 0.0313913 0.354957 0 0 1
-0.108202 -0.0253419 0.0802166 0.31733 -0.947655 0.0353714
-0.162399 0.225287 0.706953 0.00017646 -0.979902 0.199477
-0.189609 -0.0107236 0.403855 -1 -0.000213615 0
-0.0388907 0.203816 0.601371 0.00017646 -0.979902 0.199477
0.136413 0.200986 0.587313 0.00017646 -0.979902 0.199477
-0.0548295 0.244645 0.693975 -0.000204025 0.979914 -0.199422
-0.059131 0.213306 0.51021 -0.00020815 0.999695 -0.024691
0.0807759 0.108407 0.394442 0 0 -1
0.143952 -0.136911 0.394442 0 0 -1
-0.0736478 0.191946 0.517561 0.000239085 -0.999675 0.0254933
-0.0248965 0.0444617 0.119169 0.56428 0.824015 0.0508746
-0.0225793 -0.260912 0.0674825 -0.999211 0.0172326 0.0357814
-0.158799 0.181684 0.420376 0.000110421 -0.530205 0.84787
0.0409828 0.204267 0.603516 0.00017646 -0.979902 0.199477
0.0584704 0.011393 0.415984 0 0 1
0.114999 0.230263 0.731114 0.00020402 -0.979891 0.199534
0.0586146 0.0877319 0.394442 0 0 -1
0.051531 0.177052 0.395386 -4.66917e-05 0.259284 -0.965801
0.25306 -0.0574541 0.0307026 -0.707778 0.706434 -0.00141802
0.132029 0.191625 0.460758 0.000208213 -1 0
0.118971 -0.0535028 0.394442 0 0 -1
-0.11197 -0.000568867 0.394442 0 0 -1
-0.18857 0.232682 0.636306 -0.261456 0.945818 -0.192533
0.000843748 0.213133 0.484518 -0.00017727 1 0
0.292692 -0.0410999 0.0279848 0.67548 0.676128 0.294241
-0.0374277 0.216564 0.551843 -0.000206606 0.99208 -0.125604
0.0980005 0.213151 0.449948 -0.00017727 1 0
-0.0912629 0.209998 0.631787 0.00017646 -0.979902 0.199477
-0.153218 -0.0716251 0.394442 0 0 -1
-0.059167 0.0941512 0.0817296 0.818506 0.5734 0.0355091
0.168967 -0.18103 0.40123 0.707107 -0.707107 0
0.255201 -0.0775531 0.0851763 0.140143 -0.0455422 0.989083
0.0739675 0.214489 0.532778 -0.000207623 0.997168 -0.0752114
-0.0422696 0.191588 0.491547 0.000208213 -1 0
0.0975705 0.248347 0.712008 -0.000204025 0.979914 -0.199422
-0.152128 0.234149 0.642501 -0.000204031 0.979914 -0.199422
-0.00044331 0.252197 0.744103 -0.000105065 0.444616 0.895721
-0.117695 -0.0435527 0.415984 0 0 1
-0.0589638 0.227095 0.607743 -0.000204031 0.979914 -0.199422
-0.177291 0.213186 0.506342 -0.00020815 0.999695 -0.024691
-0.252406 -0.0528984 0.0761993 -0.292415 0.955653 0.0349511
-0.00181148 -0.26893 0.077754 0.999356 0.00891158 0.0347669
-0.0226856 0.0131903 0.156612 -1 0 0
-0.0792326 -0.0343666 0.363021 0.000161753 -1 -0.00047627
-0.0695254 -0.151917 0.415984 0 0 1
-0.0020016 -0.257307 0.0802398 0.999356 0.00891158 0.0347669
-0.11241 0.248492 0.745114 -4.14341e-05 0.198993 0.980001
-0.0184588 -0.101069 0.105539 -0.999211 0.0172225 0.0357909
-0.175701 -0.173781 0.415984 0 0 1
-0.0328194 0.036049 0.354957 0 0 1
-0.0288521 -0.131447 0.415984 0 0 1
-0.0693356 0.213121 0.452794 -0.00017727 1 0
0.138137 -0.0259079 0.0750813 0.300324 0.953214 0.0344818
-0.0444448 -0.0960941 0.394442 0 0 -1
-0.293866 -0.0652464 0.0671564 -0.292386 0.955623 0.0359797
0.128702 0.191624 0.463073 0.000208213 -1 0
-0.104901 0.12598 0.415984 0 0 1
-0.011022 0.031432 0.181719 0.0714139 0.997447 0
0.0726919 -0.00513484 0.0708354 0.300324 0.953214 0.0344818
0.0513558 0.0311763 0.318515 0.452717 0.000100408 -0.891654
-0.095283 0.0137088 0.415984 0 0 1
-0.0426551 -0.0745333 0.394442 0 0 -1
0.250763 -0.0707466 0.0582122 -0.0452164 0.01468 -0.998869
-0.189585 -0.123075 0.405954 -1 -0.000213615 0
-0.0394182 0.0422409 0.0916743 -0.868468 -0.494036 0.041129
-0.105283 0.185399 0.397993 -8.79032e-05 0.422192 -0.906507
-0.0101033 -0.0383455 0.415984 0 0 1
0.00174945 0.018245 0.196092 0.986531 0.163573 0
-0.0577299 0.208358 0.6237 0.00017646 -0.979902 0.199477
-0.0179826 -0.0733118 0.105477 -0.999211 0.0172225 0.0357909
0.1003 0.233328 0.638207 -0.000204025 0.979914 -0.199422
-0.0423506 0.170727 0.416262 2.32557e-05 -0.111692 0.993743
-0.0296157 0.191744 0.509096 0.000208149 -0.999689 0.0249178
-0.0483096 -0.00353946 0.415984 0 0 1
-0.166827 0.154986 0.394442 0 0 -1
-0.188564 -0.0671401 0.415786 -0.252521 -4.59245e-05 0.967591
-0.0193626 -0.0969704 0.0783341 -0.999211 0.0172225 0.0357909
-0.189623 0.0540468 0.406407 -1 -0.000213615 0
-0.00949458 0.0193775 0.314561 0 0 -1
0.137133 0.0662478 0.394442 0 0 -1
0.153594 0.0590232 0.415984 0 0 1
-0.0178057 -0.255884 0.00179822 -0.341433 -0.00385714 -0.939898
-0.1896 -0.0495719 0.401511 -1 -0.000213615 0
0.0115691 -0.151953 0.394442 0 0 -1
0.142935 0.1901 0.431446 0.000196406 -0.943294 0.331959
-0.145325 0.256519 0.00517796 0.766341 -0.113315 -0.632361
0.110798 0.0793173 0.394442 0 0 -1
0.160239 -0.0305837 0.379494 1 0.000220693 0
-0.00948603 -0.282665 0.0560814 0.183708 -0.982953 0.00739124
-0.0483169 -0.00456914 0.0994973 0.31733 -0.947655 0.0353714
-0.00158721 0.0132387 0.415984 0 0 1
0.1602 -0.0278147 0.384717 0.9709 0.000214294 0.239484
-0.0149506 -0.00716355 0.12394 0.000245874 -0.147605 0.989046
-0.158412 -0.0287909 0.394442 0 0 -1
0.0713939 0.191288 0.436436 0.00020691 -0.993743 0.111694
-0.161704 -0.12413 0.394442 0 0 -1
0.0572375 0.207118 0.617508 0.00017646 -0.979902 0.199477
-0.0443377 -0.11356 0.394442 0 0 -1
0.0141697 -0.0630751 0.415984 0 0 1
0.169354 0.124074 0.399068 1 0.000245396 0
-0.26386 -0.0614829 0.0407497 0.510235 0.510495 0.692137
0.139758 0.237178 0.0699588 -0.813749 0.580171 0.034842
-0.0261848 0.0485295 0.314561 0 0 -1
-0.0384377 -0.00830555 0.415984 0 0 1
0.00189103 0.0218058 0.237379 0 0 1
-0.0498012 0.0778744 0.067759 0.0279566 -0.0384492 -0.998869
-0.115558 -0.0232985 0.110553 -0.140192 -0.0454288 0.989082
-0.160731 0.215407 0.542908 -0.000206564 0.992081 -0.125604
-0.18609 0.254951 0.0532795 -0.881264 0.472603 0.00438766
-0.0259388 0.143388 0.415984 0 0 1
0.1694 -0.0647584 0.412529 1 0.000245396 0
0.130644 0.118849 0.394442 0 0 -1
0.123072 0.233567 0.63936 -0.000204025 0.979914 -0.199422
-0.012378 0.191837 0.512688 0.000239085 -0.999675 0.0254933
-0.00372849 -0.286398 0.0590575 0 -0.996246 0.0865707
0.254546 -0.0619731 0.0588848 0.300278 0.953168 0.0361111
-0.189657 0.235136 0.675057 -1 0 0
-0.184144 0.0600684 0.394442 0 0 -1
0.0652717 0.130765 0.101777 -0.81374 0.580152 0.0353666
0.0740276 0.1445 0.07792 -0.81374 0.580152 0.0353666
-0.0768431 0.21419 0.652366 0.00017646 -0.979902 0.199477
-0.179426 0.181299 0.396539 -5.40511e-05 0.259604 -0.965715
0.0338751 0.0016192 0.415984 0 0 1
0.257612 -0.0761353 0.0325776 -0.674487 -0.677119 0.294241
0.0711956 -0.107963 0.415984 0 0 1
0.0553754 0.220326 0.574333 -0.000204997 0.984554 -0.17508
0.0757608 0.156183 0.415984 0 0 1
-0.0294086 0.0643697 0.346046 -0.000198391 1 -0.000194835
0.104502 0.172549 0.0978929 0.0866359 0.119198 0.989083
0.044691 0.0230498 0.415984 0 0 1
0.0942461 0.230335 0.731488 0.00020402 -0.979891 0.199534
-0.00311964 -0.186194 0.0938696 0.999335 0.00894223 0.0353624
-0.163051 0.204096 0.412598 -0.000170513 0.818962 -0.573848
-0.00352249 0.0136433 0.1243 0 0 -1
-0.0769326 -0.129198 0.394442 0 0 -1
-0.189635 0.111437 0.406957 -1 -0.000213615 0
-0.143372 0.191667 0.506973 0.000208149 -0.999689 0.0249178
0.0944849 -0.14936 0.415984 0 0 1
-0.00846236 0.0272939 0.289737 0.0819968 0.996633 0
-0.0908044 0.221428 0.687932 0.00017646 -0.979902 0.199477
0.0136144 -0.0639336 0.394442 0 0 -1
0.0671436 0.109736 0.394442 0 0 -1
-0.0215478 0.0203864 0.180237 -0.945564 0.325436 0
0.0962512 0.253001 0.734882 -0.000204025 0.979914 -0.199422
0.0436542 0.170076 0.416187 2.32557e-05 -0.111692 0.993743
-0.0620695 0.191584 0.473399 0.000208213 -1 0
0.0853161 -0.0164143 0.335753 0.452752 4.75783e-05 -0.891636
0.292661 -0.0543514 0.00655926 0.469492 0.469903 -0.747508
0.15766 -0.0289158 0.394442 0 0 -1
-0.123887 -0.025666 0.394442 0 0 -1
-0.00389353 -0.0998643 0.0939089 0.999335 0.00894223 0.0353624
-0.119821 0.232542 0.63457 -0.000204031 0.979914 -0.199422
0.0689305 0.239944 0.670746 -0.000204025 0.979914 -0.199422
-0.0515107 -0.130209 0.415984 0 0 1
0.131861 -0.0110248 0.394442 0 0 -1
-0.172454 0.252033 0.730396 -0.000204031 0.979914 -0.199422
-0.149264 0.263158 0.0456041 0.385003 0.385177 0.838696
-0.0688093 0.00215077 0.106324 -0.292373 0.955639 0.0356583
0.0200944 0.0679829 0.0921738 -0.81374 0.580152 0.0353666
0.11781 0.0643993 0.35816 -0.000222755 1 -0.000104456
0.0651629 0.216066 0.547745 -0.000206606 0.99208 -0.125604
0.276233 -0.0695378 0.0678853 0.773211 0.62945 0.0770554
-0.0699251 0.170667 0.416256 2.32557e-05 -0.111692 0.993743
0.106945 0.103778 0.415984 0 0 1
0.143967 -0.158972 0.394442 0 0 -1
-0.185665 0.199477 0.407346 -0.000147224 0.707107 -0.707107
-0.0390545 0.209453 0.62906 0.00017646 -0.979902 0.199477
0.0787123 0.249491 0.717652 -0.000204025 0.979914 -0.199422
-0.138792 0.13933 0.394442 0 0 -1
-0.0959194 0.211892 0.641094 0.00017646 -0.979902 0.199477
-0.123522 0.0578238 0.415984 0 0 1
-0.161222 0.207138 0.617797 0.00017646 -0.979902 0.199477
-0.052339 0.00770446 0.0925302 -0.292373 0.955639 0.0356583
-0.0932892 0.174694 0.395003 -1.56122e-05 0.0866962 -0.996235
-0.00120468 0.211311 0.638153 0.00017646 -0.979902 0.199477
-0.163195 0.04618 0.386473 0.354287 -0.935137 0
-0.0812319 0.118944 0.415984 0 0 1
0.117666 -0.135412 0.394442 0 0 -1
0.107183 0.0910864 0.415984 0 0 1
0.0187368 -0.245964 0.0284578 0.675071 0.67604 0.295379
-0.0710587 0.195883 0.560015 0.00020658 -0.992126 0.12524
0.0588309 0.0173456 0.364977 -0.28879 -3.21792e-05 0.957392
-0.0624448 0.00181243 0.394442 0 0 -1
-0.176647 -0.0169868 0.415984 0 0 1
0.121299 0.154054 0.394442 0 0 -1
0.154433 0.24771 0.0295306 -0.675245 -0.67558 0.296033
-0.00138639 0.0236678 0.182363 0.677004 0.735979 0
-0.149993 0.214543 0.534113 -0.000207623 0.997168 -0.0752114
-0.0437775 0.172974 0.416514 2.66606e-05 -0.111458 0.993769
-0.00433222 -0.252009 0.0484117 0.0821489 0.0821464 0.993229
0.132863 -0.0252609 0.102653 0.300289 0.953203 0.0350778
0.026213 0.223542 0.590195 -0.000204031 0.979914 -0.199422
0.121253 0.21045 0.0826738 -0.81374 0.580152 0.0353666
-0.0624733 -0.0158059 0.394442 0 0 -1
-0.0926402 -0.0343713 0.338603 0.000266597 -1 0.000162934
0.169343 0.194707 0.504749 1 0 0
-0.0363956 -0.102446 0.415984 0 0 1
-0.093132 0.211609 0.6397 0.00017646 -0.979902 0.199477
0.0258323 0.198101 0.57242 0.000177298 -0.984555 0.175075
0.012792 0.213136 0.45581 -0.00017727 1 0
-0.269034 -0.0487586 0.0158471 0 0 -1
-0.0716917 0.0698358 0.394442 0 0 -1
0.159551 0.0286086 0.415984 0 0 1
-0.100622 -0.0343709 0.364801 0.000161753 -1 -0.00047627
-0.0313306 0.0131936 0.124171 -0.141939 -0.0461776 0.988798
-0.110671 -0.0301217 0.415984 0 0 1
-0.160227 0.215541 0.54397 -0.000206564 0.992081 -0.125604
-0.169598 0.041494 0.368109 -0.452717 -0.000152242 -0.891654
-0.174728 0.214237 0.53013 -0.000207623 0.997168 -0.0752114
-0.112929 0.0374876 0.375093 0.288844 9.65676e-05 0.957376
0.155632 0.196436 0.562884 0.000205022 -0.984645 0.174567
-0.1568 0.21785 0.670415 0.00017646 -0.979902 0.199477
-0.123629 -0.0672561 0.394442 0 0 -1
-0.0354637 0.010898 0.314561 0 0 1
-0.0238397 0.0247108 0.222419 -0.854621 0.519252 0
0.0295966 0.0643789 0.350616 -0.000222755 1 -0.000104456
0.0539956 0.241533 0.678573 -0.000204025 0.979914 -0.199422
0.00228125 0.0418063 0.415984 0 0 1
-0.0993186 0.237318 0.658018 -0.000204031 0.979914 -0.199422
-0.102449 0.0748802 0.394442 0 0 -1
0.0378494 0.21314 0.474769 -0.00017727 1 0
0.00902244 0.250744 0.723877 -0.000204025 0.979914 -0.199422
-0.157712 0.241895 0.0146788 0.7075 -0.706713 0.000421309
-0.0220187 -0.216515 0.0617567 -0.999211 0.0172326 0.0357814
0.114599 0.211693 0.639917 0.00020402 -0.979891 0.199534
-0.0214572 0.0144963 0.237379 0 0 1
-0.0719256 0.109111 0.0659374 0.0279566 -0.0384492 -0.998869
0.0801509 0.198956 0.577177 0.000177298 -0.984555 0.175075
0.129353 0.20548 0.609391 0.00020402 -0.979891 0.199534
0.169034 0.0615451 0.395246 0.707099 0.000130634 -0.707115
-0.174288 0.210681 0.425039 -0.000171193 0.965716 -0.259602
0.0386626 0.230327 0.731504 0.00020402 -0.979891 0.199534
0.120849 0.179063 0.0939135 0.798264 -0.601253 0.0356189
-0.00638406 -0.0810682 0.415984 0 0 1
-0.0123207 -0.0285304 0.394442 0 0 -1
-0.0679092 0.252188 0.731054 -0.000204025 0.979914 -0.199422
-0.152369 0.0148569 0.394442 0 0 -1
-0.0101752 -0.0343565 0.317478 0.000198427 -1 9.30469e-05
-0.0300727 -0.00497644 0.103767 -0.490341 -0.869408 0.0607939
-0.000503838 0.204073 0.602599 0.00017646 -0.979902 0.199477
-0.10327 0.242422 0.683102 -0.000204031 0.979914 -0.199422
-0.0681726 -0.143027 0.394442 0 0 -1
-0.00564551 0.237129 0.656993 -0.000204025 0.979914 -0.199422
0.0124192 0.0320296 0.118357 0.997022 -0.0516007 0.0573141
-0.262073 -0.0552742 0.0313425 0.674901 0.676206 0.295386
0.147494 -0.139728 0.394442 0 0 -1
0.1546 0.267917 0.00290716 -0.469707 -0.172478 -0.86581
-0.0439986 0.0855737 0.415984 0 0 1
-0.115204 0.238634 0.664501 -0.000204031 0.979914 -0.199422
0.114356 0.180106 0.396203 -4.66917e-05 0.259284 -0.965801
0.0309038 0.16402 0.394442 0 0 -1
-0.0384328 0.222263 0.691983 0.00020402 -0.979891 0.199534
0.0537994 -0.0147868 0.0868935 -0.325138 -0.944988 0.035819
0.0547965 0.0269474 0.415984 0 0 1
0.0248825 0.201652 0.409478 -0.000147224 0.707107 -0.707107
0.0385398 0.187168 0.42581 0.000152546 -0.847276 0.531153
0.0594683 0.212927 0.436824 -0.000176605 0.996246 -0.0865693
0.0540421 0.18364 0.421883 0.000125531 -0.708159 0.706053
-0.076414 0.10556 0.394442 0 0 -1
0.132637 0.191821 0.510705 0.000239085 -0.999675 0.0254933
0.00739403 0.0489741 0.394442 0 0 -1
0.0212773 0.245546 0.698322 -0.000204025 0.979914 -0.199422
0.0987753 0.0502116 0.342593 0.452717 0.000100408 -0.891654
-0.0537041 0.133398 0.415984 0 0 1
0.00186054 0.213334 0.510874 -0.000177214 0.99968 -0.0253008
-0.00407484 -0.216034 0.0603527 0.000203898 0.0475543 -0.998869
0.112138 0.124565 0.415984 0 0 1
0.07448 0.116233 0.394442 0 0 -1
0.156486 0.221683 0.688936 0.00020402 -0.979891 0.199534
0.0890476 -0.172334 0.415984 0 0 1
-0.11782 -0.179659 0.394841 6.28172e-05 -0.262662 -0.964888
-0.125384 0.219013 0.56716 -0.000205038 0.984554 -0.175081
0.0153187 0.204229 0.412735 -0.000170513 0.818962 -0.573848
-0.0999862 0.234912 0.747013 9.99387e-05 -0.554954 0.831881
