0.255545 -0.066716 0.058055 -0.0452164 0.01468 -0.998869
0.0057486 -0.00423599 0.292831 0.531274 -0.599129 -0.598992
-0.154605 0.245004 0.0331412 0.707694 -0.706514 -0.00269673
-0.149983 0.200719 0.586253 0.00017646 -0.979902 0.199477
-0.051047 -0.0343627 0.328577 0.000146595 -1 0.000219241
0.0968272 0.212884 0.43625 -0.000176605 0.996246 -0.0865693
0.044586 0.191952 0.516655 0.000239085 -0.999675 0.0254933
-0.0471524 0.0338842 0.309183 0 0 -1
0.0477333 0.191607 0.492954 0.000208213 -1 0
-0.00655513 -0.126735 0.0646036 0.000203898 0.0475543 -0.998869
0.111138 -0.010562 0.348866 0.452752 4.75783e-05 -0.891636
0.0273726 -0.16226 0.415984 0 0 1
0.0211149 0.00321037 0.354957 0 0 1
0.0817917 0.0722709 0.415984 0 0 1
-0.0402033 0.12317 0.415984 0 0 1
-0.0346946 0.162255 0.415984 0 0 1
0.0268052 0.214429 0.53211 -0.000207623 0.997168 -0.0752114
0.00125426 0.238938 0.747059 -3.53031e-05 0.199142 0.979971
-0.117528 0.232928 0.744438 0.00020402 -0.979891 0.199534
-0.148723 0.202914 0.0922704 -0.0866481 0.119193 0.989083
-0.0623364 0.217678 0.559578 -0.000205038 0.984554 -0.175081
-0.00416981 0.053011 0.354957 0 0 1
-0.176618 0.240124 0.0579642 0.0279566 -0.0384492 -0.998869
-0.0784752 0.0798421 0.394442 0 0 -1
0.0956095 -0.0343306 0.369395 0.00028254 -1 -0.000264773
0.10313 0.186082 0.0653295 -0.813749 0.580171 0.034842
-0.142498 0.0374765 0.415984 0 0 1
0.129586 0.224239 0.593517 -0.000204025 0.979914 -0.199422
0.144129 -0.0094533 0.365617 0.452752 4.75783e-05 -0.891636
-0.0881778 0.197727 0.570432 0.000177298 -0.984555 0.175075
-0.0889825 -0.135105 0.394442 0 0 -1
-0.173891 0.231883 0.739366 0.00020402 -0.979891 0.199534
0.0353913 0.0976173 0.394442 0 0 -1
-0.13859 0.208724 0.0624462 0.818522 0.573387 0.035337
-0.167984 0.220826 0.0884243 -0.0866481 0.119193 0.989083
0.163407 -0.0525196 0.0863511 -0.325138 -0.944988 0.035819
0.0714812 0.140265 0.0888119 -0.81374 0.580152 0.0353666
-0.0619214 -0.142203 0.415984 0 0 1
-0.0195701 -0.116981 0.0821706 -0.999211 0.0172225 0.0357909
-0.0550568 0.189147 0.428994 0.000150177 -0.847362 0.531015
-0.00377031 -0.077768 0.0848391 0.999335 0.00894223 0.0353624
-0.179201 -0.0451933 0.394442 0 0 -1
0.00805732 0.0139749 0.129456 0.990672 0.136272 0
-0.0987768 -0.135179 0.415984 0 0 1
-0.0840169 0.235889 0.65098 -0.000204031 0.979914 -0.199422
-0.035159 -0.0702817 0.394442 0 0 -1
0.0757236 0.196747 0.56473 0.000205022 -0.984645 0.174567
0.0734817 0.144459 0.0659632 -0.813749 0.580171 0.034842
-0.149177 0.0643388 0.378888 -0.000161731 1 0.000476392
-0.0758878 0.146036 0.394442 0 0 -1
-0.154299 0.0880192 0.415984 0 0 1
0.00305119 0.215831 0.660353 0.00020402 -0.979891 0.199534
-0.166291 -0.0157526 0.392877 -0.123024 0.992404 0
0.0856861 0.0579986 0.394442 0 0 -1
0.149855 -0.0186075 0.415984 0 0 1
-0.0223523 0.191592 0.455239 0.000208213 -1 0
0.0673389 0.0785195 0.394442 0 0 -1
-0.012604 0.0122722 0.291685 0 0 1
0.125798 0.193575 0.40245 -0.000119354 0.573248 -0.819382
-0.00393206 0.00426418 0.244561 0.401619 -0.915807 0
0.00139642 0.0847602 0.415984 0 0 1
-0.0318412 -0.00337285 0.117937 -0.27332 -0.960202 0.0575261
0.0382476 0.24562 0.698669 -0.000204025 0.979914 -0.199422
0.165276 0.215836 0.54576 -0.000206606 0.99208 -0.125604
-0.0529211 0.0312024 0.356989 0.288844 9.65676e-05 0.957376
0.150454 -0.00159736 0.394442 0 0 -1
-0.117928 0.0503394 0.394442 0 0 -1
-0.0288556 0.224879 0.59682 -0.000204031 0.979914 -0.199422
-0.288843 -0.0859559 0.0766299 0.316622 -0.947922 0.0345747
-0.00859255 0.00762676 0.415984 0 0 1
-0.189655 0.215862 0.571255 -1 -8.30148e-05 -0.000545844
0.166776 -0.17631 0.394442 0 0 -1
0.0679687 0.0503091 0.394442 0 0 -1
0.169333 0.216635 0.576643 1 0.000599869 -0.000122122
0.158328 0.213161 0.469379 -0.00017727 1 0
-0.109872 0.133298 0.415984 0 0 1
0.163925 -0.0891356 0.394442 0 0 -1
0.0600161 -0.00268576 0.322908 0.452717 0.000100408 -0.891654
0.0816513 -0.000542864 0.415984 0 0 1
0.052607 0.0594319 0.415984 0 0 1
0.0721714 0.215441 0.542794 -0.000206564 0.992081 -0.125604
-0.146928 -0.169765 0.415984 0 0 1
0.11124 0.223456 0.697688 0.00020402 -0.979891 0.199534
-0.0551697 0.226393 0.712283 0.00020402 -0.979891 0.199534
-0.062804 0.213119 0.439275 -0.000176605 0.996246 -0.0865693
0.0288671 -0.00562324 0.102333 -0.325138 -0.944988 0.035819
0.135659 0.242121 0.681379 -0.000204025 0.979914 -0.199422
-0.0389098 -0.0356448 0.394442 0 0 -1
-0.00999539 0.229835 0.621156 -0.000204031 0.979914 -0.199422
-0.187348 0.192016 0.521342 0.000208149 -0.999689 0.0249178
-0.137607 0.230661 0.625346 -0.000204031 0.979914 -0.199422
0.143132 0.069345 0.394442 0 0 -1
0.0369357 -0.0640567 0.394442 0 0 -1
0.0542835 0.210879 0.425626 -0.000171193 0.965716 -0.259602
0.0649708 -0.0141254 0.366828 -0.28879 -3.21792e-05 0.957392
-0.185591 0.241154 0.676957 -0.000204031 0.979914 -0.199422
0.0725082 0.213919 0.650893 0.00020402 -0.979891 0.199534
-0.0419062 -0.0971806 0.415984 0 0 1
-0.223487 -0.0642784 0.0710657 0.317286 -0.947666 0.0354773
-0.144115 0.191567 0.457827 0.000208213 -1 0
-0.250868 -0.0518607 0.0610452 -0.292386 0.955623 0.0359797
0.201552 0.264444 0.012195 0.808593 0.423053 -0.408906
-0.10014 0.045226 0.415984 0 0 1
-0.172646 0.228576 0.615136 -0.000204031 0.979914 -0.199422
-0.189633 0.101094 0.397911 -1 -0.000213615 0
0.144707 -0.0465246 0.074753 -0.325115 -0.945018 0.0352201
0.0658222 -0.138013 0.394442 0 0 -1
0.00776323 0.0161129 0.173269 0.990672 0.136272 0
0.00890687 0.0482785 0.069435 -0.0279435 -0.0383513 -0.998873
-0.00782334 0.0403166 0.108585 -0.111647 0.991875 0.060984
0.00870213 -0.00113633 0.123628 0.139109 -0.044701 0.989268
-0.182555 0.214047 0.527624 -0.000207623 0.997168 -0.0752114
-0.3069 -0.0779763 0.0340637 -0.707418 0.706789 0.00306878
-0.186209 -0.0514052 0.0817702 0.31733 -0.947655 0.0353714
-0.108296 0.206269 0.415683 -0.000170524 0.818962 -0.573848
0.169398 -0.0551204 0.410985 1 0.000245396 0
-0.130267 0.222544 0.693451 0.00017646 -0.979902 0.199477
-0.0527737 0.191586 0.469742 0.000208213 -1 0
-0.28785 -0.0636437 0.0734745 -0.292386 0.955623 0.0359797
0.00138783 -0.000326412 0.221417 0.577954 -0.816069 0
0.037507 -0.0343445 0.342756 0.000222034 -1 0.000104117
-0.0695232 0.191883 0.515005 0.000208149 -0.999689 0.0249178
0.136747 0.213158 0.451776 -0.00017727 1 0
0.0677412 0.223604 0.69846 0.00020402 -0.979891 0.199534
-0.101578 0.250528 0.744701 -4.14341e-05 0.198993 0.980001
0.0459586 0.00145842 0.394442 0 0 -1
-0.154554 -0.128639 0.394442 0 0 -1
-0.122337 -0.166474 0.394442 0 0 -1
-0.0953888 -0.0856315 0.415984 0 0 1
0.11846 -0.0933134 0.394442 0 0 -1
0.155799 0.106504 0.415984 0 0 1
-0.183698 0.246439 0.0436898 -0.622779 -0.782394 0.00244602
0.160227 0.0227855 0.381705 1 0.000220693 0
0.0441965 0.235449 0.648684 -0.000204025 0.979914 -0.199422
-0.000906182 0.023226 0.263037 0.677004 0.735979 0
0.0993174 -0.0795843 0.415984 0 0 1
0.133383 0.214343 0.530686 -0.000207623 0.997168 -0.0752114
-0.00289232 -0.199826 0.0908926 0.999335 0.00894223 0.0353624
-0.16536 0.113339 0.394442 0 0 -1
0.0178207 0.196795 0.565069 0.000205022 -0.984645 0.174567
-0.0609717 0.0774267 0.0674655 0.0277809 -0.0385939 -0.998869
0.0255914 0.191602 0.48446 0.000208213 -1 0
-0.166108 0.235068 0.0173623 0.334922 -0.938954 -0.0786986
-0.088157 0.20025 0.408099 -0.000147224 0.707107 -0.707107
-0.0738465 -0.0142732 0.068512 0.317286 -0.947666 0.0354773
-0.129216 0.00300927 0.394442 0 0 -1
-0.252283 -0.0728137 0.0882393 0.121728 -0.687952 0.715475
0.054088 0.207257 0.618193 0.00017646 -0.979902 0.199477
-0.151901 0.229804 0.729131 0.00020402 -0.979891 0.199534
0.110928 0.253149 0.743475 -0.000199667 0.834592 0.550869
0.148616 0.0124237 0.367897 0.452752 4.75783e-05 -0.891636
-0.0319847 0.0166056 0.314561 0 0 1
0.156985 0.24726 0.0440325 -0.901493 -0.432782 0.00321192
0.143798 -0.171998 0.415984 0 0 1
-0.106153 0.131032 0.0665558 -0.803217 -0.594646 0.0351919
-0.105809 0.213115 0.449214 -0.00017727 1 0
-0.188642 0.185134 0.398019 -0.403321 0.281487 -0.870688
-0.0416466 0.196837 0.565377 0.000205022 -0.984645 0.174567
-0.128593 0.0195268 0.415984 0 0 1
-0.0625888 0.250527 0.722887 -0.000204025 0.979914 -0.199422
-0.126587 0.173511 0.416596 7.89554e-05 -0.330084 0.943951
0.0215957 0.242814 0.684899 -0.000204025 0.979914 -0.199422
0.047997 -0.118618 0.415984 0 0 1
0.141145 0.0443287 0.386365 0 0 1
-0.0399726 0.0146156 0.108121 -0.77851 0.624991 0.0575247
-0.080563 0.215309 0.657867 0.00017646 -0.979902 0.199477
-0.161697 0.238605 0.664404 -0.000204031 0.979914 -0.199422
-0.108361 -0.0343728 0.366119 0.000161753 -1 -0.00047627
-0.160017 0.0295045 0.386365 0 0 1
0.135088 0.191625 0.474499 0.000208213 -1 0
-0.170577 -0.0464836 0.0732711 0.317275 -0.947726 0.0339334
-0.103514 0.224622 0.703634 0.00017646 -0.979902 0.199477
0.12339 0.191912 0.514378 0.000239085 -0.999675 0.0254933
0.209325 -0.068964 0.0692386 -0.325121 -0.944983 0.0361156
-0.0220404 -0.22612 0.0657764 -0.999211 0.0172326 0.0357814
-0.190482 0.264114 0.00635537 -0.469846 -0.470485 -0.746919
-0.00324392 -0.105519 0.0769809 0.999335 0.00894223 0.0353624
0.0927671 0.0201867 0.394442 0 0 -1
-0.0253607 -0.0128887 0.314561 0 0 1
0.0212112 -0.0479957 0.415984 0 0 1
-0.166484 0.191793 0.512213 0.000208149 -0.999689 0.0249178
0.109574 0.162388 0.0653778 0.79822 -0.601265 0.0363909
0.0144061 0.17949 0.418981 0.000110421 -0.530205 0.84787
0.123682 0.00831652 0.394442 0 0 -1
-0.0351943 0.0681696 0.394442 0 0 -1
-0.0392182 0.213126 0.483557 -0.00017727 1 0
-0.0249152 0.246755 0.70431 -0.000204025 0.979914 -0.199422
0.104956 0.0327792 0.394442 0 0 -1
0.169393 -0.0340102 0.396712 1 0.000245396 0
-0.132798 -0.0343802 0.373404 0.000161753 -1 -0.00047627
0.0853597 0.23913 0.666733 -0.000204025 0.979914 -0.199422
-0.163001 -0.0264359 0.100143 -0.292373 0.955639 0.0356583
-0.0536814 -0.00593877 0.394442 0 0 -1
-0.144229 -0.0531686 0.415984 0 0 1
0.0978467 -0.0342772 0.343908 0.119677 -0.964547 -0.235214
-0.114 0.191428 0.438021 0.00020691 -0.993743 0.111694
0.035067 0.191604 0.448024 0.000208213 -1 0
0.0609594 0.249499 0.744916 -4.14341e-05 0.198993 0.980001
0.112567 0.228811 0.723984 0.00020402 -0.979891 0.199534
-0.0931139 0.172266 0.416436 2.66606e-05 -0.111458 0.993769
0.0751007 0.0938316 0.415984 0 0 1
-0.129097 0.237475 0.658818 -0.000204031 0.979914 -0.199422
0.157592 0.0716952 0.415984 0 0 1
0.0890119 0.232253 0.740915 0.00020402 -0.979891 0.199534
0.268639 -0.067522 0.0826396 0.350514 0.892657 0.283377
-0.00286053 -0.133553 0.394442 0 0 -1
-0.06613 0.120425 0.415984 0 0 1
-0.18378 0.114243 0.415984 0 0 1
0.00613295 0.213134 0.442819 -0.00017727 1 0
-0.0256552 0.0475345 0.0791349 0.746813 0.663738 0.0414996
0.0873881 -0.0149085 0.394442 0 0 -1
-0.0322983 0.200469 0.584923 0.00017646 -0.979902 0.199477
-0.113187 -0.181771 0.407378 0.000208207 -1 0
0.06075 0.238657 0.664432 -0.000204025 0.979914 -0.199422
-0.126875 0.203393 0.59937 0.00017646 -0.979902 0.199477
0.146177 0.134707 0.415984 0 0 1
-0.102037 0.21535 0.658088 0.00017646 -0.979902 0.199477
0.150006 0.12923 0.394442 0 0 -1
0.0186899 0.0643751 0.324793 -0.000198391 1 -0.000194835
0.079362 0.131474 0.394442 0 0 -1
0.168554 0.184033 0.421837 0.711372 -0.481805 0.511677
0.0877294 -0.0438423 0.394442 0 0 -1
-0.063826 0.213912 0.525514 -0.000207623 0.997168 -0.0752114
0.0788293 0.17265 0.394823 -1.80743e-05 0.0868068 -0.996225
-0.0114346 0.119206 0.394442 0 0 -1
0.0510075 -0.043237 0.394442 0 0 -1
-0.00817797 0.190144 0.431661 0.000196406 -0.943294 0.331959
0.23587 -0.0562483 0.0630751 0.300278 0.953168 0.0361111
0.118288 -0.0485326 0.394442 0 0 -1
-0.0238911 0.0024367 0.138025 -0.853068 -0.5218 0
-0.125811 0.130189 0.394442 0 0 -1
0.0273587 0.0895095 0.415984 0 0 1
0.126518 -0.0416185 0.415984 0 0 1
-0.169087 0.0725829 0.415984 0 0 1
-0.066254 0.103484 0.0943924 0.818506 0.5734 0.0355091
-0.159077 0.216814 0.554018 -0.000206564 0.992081 -0.125604
-0.277112 -0.101474 0.0296701 0.340356 -0.930427 0.135884
-0.0322321 -0.00493222 0.0900507 -0.27332 -0.960202 0.0575261
0.134575 0.230092 0.0668929 -0.813749 0.580171 0.034842
0.136941 0.213158 0.490504 -0.00017727 1 0
-0.000259492 -0.235284 0.0157703 0.0860148 0.966057 -0.243589
0.143303 0.0644046 0.379478 -0.000283025 1 0.000262961
-0.0093724 0.0313139 0.149485 0.0714139 0.997447 0
0.122155 -0.0386317 0.0782901 -0.325138 -0.944988 0.035819
-0.117926 0.233962 0.641543 -0.000204031 0.979914 -0.199422
-0.104634 0.250325 0.721936 -0.000204025 0.979914 -0.199422
-0.159737 -0.0343845 0.367498 0.000266597 -1 0.000162934
0.104315 0.0451152 0.345406 0.452717 0.000100408 -0.891654
-0.0624145 0.155258 0.415984 0 0 1
-0.0265752 0.0461609 0.117659 0.746813 0.663738 0.0414996
-0.0388173 0.242142 0.681658 -0.000204025 0.979914 -0.199422
-0.0868284 0.192499 0.527988 0.000176766 -0.997157 0.0753552
0.0870204 -0.111812 0.415984 0 0 1
-0.0712888 0.00127936 0.109347 -0.292373 0.955639 0.0356583
0.0603682 0.124774 0.0872282 -0.81374 0.580152 0.0353666
0.0579018 0.245731 0.699194 -0.000204025 0.979914 -0.199422
-0.0813895 0.191035 0.43447 0.00020691 -0.993743 0.111694
0.0494196 -0.077405 0.415984 0 0 1
-0.090064 0.200796 0.586582 0.00017646 -0.979902 0.199477
0.0231774 -0.274784 0.0170919 0.707597 -0.706613 -0.00218616
0.169342 0.2039 0.586634 1 0.000599869 -0.000122122
-0.040082 0.0934373 0.394442 0 0 -1
0.128301 0.0309133 0.394442 0 0 -1
-0.100621 0.241519 0.678661 -0.000204031 0.979914 -0.199422
-0.00634046 -0.0804874 0.415984 0 0 1
-0.00449989 -0.0297492 0.0933143 0.999335 0.00894223 0.0353624
-0.0545308 0.206467 0.614408 0.00017646 -0.979902 0.199477
-0.000881845 -0.262739 0 0 0 -1
-0.054802 -0.0791973 0.394442 0 0 -1
-0.0380894 0.152937 0.394442 0 0 -1
0.120982 0.233942 0.641203 -0.000204025 0.979914 -0.199422
0.0240621 0.206414 0.614076 0.00017646 -0.979902 0.199477
0.166773 -0.139748 0.394442 0 0 -1
0.016506 -0.145884 0.415984 0 0 1
-0.111601 0.173334 0.394885 -1.56122e-05 0.0866962 -0.996235
-0.127176 -0.122998 0.394442 0 0 -1
0.0293779 -0.127903 0.394442 0 0 -1
0.00540864 0.00407917 0.173849 0.775982 -0.630755 0
-0.0730154 0.213127 0.503218 -0.000177214 0.99968 -0.0253008
0.146041 -0.138383 0.394442 0 0 -1
0.013172 0.192263 0.524494 0.000238504 -0.997243 0.0742105
-0.0342714 0.19171 0.507797 0.000208149 -0.999689 0.0249178
0.062948 0.152569 0.415984 0 0 1
0.13032 0.222147 0.691243 0.00020402 -0.979891 0.199534
0.00736985 -0.0495844 0.394442 0 0 -1
0.0276882 0.112486 0.394442 0 0 -1
-0.0928396 -0.0719591 0.394442 0 0 -1
0.00909217 0.0526316 0.0908497 -0.81374 0.580152 0.0353666
0.0565072 -0.0489098 0.415984 0 0 1
-0.183348 -0.149707 0.415984 0 0 1
-0.0859115 -0.0326094 0.325638 -0.436754 -0.263166 -0.860227
0.0828882 0.201693 0.590836 0.00017646 -0.979902 0.199477
-0.184682 0.191559 0.453145 0.000208213 -1 0
-0.0827259 -0.108221 0.415984 0 0 1
-0.127282 0.213111 0.500082 -0.00017727 1 0
-0.0208381 0.0275768 0.170552 -0.682857 0.730552 0
0.108981 -0.142063 0.415984 0 0 1
0.130169 0.205559 0.609778 0.00020402 -0.979891 0.199534
-0.143852 0.215035 0.0817533 0.818506 0.5734 0.0355091
-0.0616238 -0.0425654 0.415984 0 0 1
-0.166818 0.0436341 0.366697 -0.452717 -0.000152242 -0.891654
0.0512435 0.0388892 0.415984 0 0 1
0.232743 -0.0589276 0.0892161 0.139985 -0.0461117 0.989079
-0.00615063 -0.114891 0.415984 0 0 1
0.267594 -0.0886075 0.0238787 -0.704935 -0.705961 0.0684545
0.255216 -0.0851068 0.059979 -0.325121 -0.944983 0.0361156
0.0607713 0.21332 0.509916 -0.000177214 0.99968 -0.0253008
0.0358821 0.221216 0.578758 -0.000204031 0.979914 -0.199422
-0.0132548 0.0643701 0.331453 -0.000198391 1 -0.000194835
0.142056 0.206751 0.0860338 0.798264 -0.601253 0.0356189
0.0879832 -0.155317 0.394442 0 0 -1
0.164094 -0.0844105 0.415984 0 0 1
0.023568 0.138397 0.415984 0 0 1
-0.0202701 0.0643712 0.348207 -0.000146595 1 -6.87422e-05
0.169361 0.0943503 0.410042 1 0.000245396 0
-0.178085 0.228613 0.0736294 -0.803182 -0.594641 0.0360712
-0.14808 -0.173913 0.394442 0 0 -1
-0.00245503 -0.232767 0.0868649 0.999335 0.00894223 0.0353624
-0.175213 -0.165123 0.394442 0 0 -1
0.277239 -0.0708829 0.0606364 0.989955 -0.106476 0.0930184
-0.189657 0.231538 0.694528 -1 0 0
0.100818 0.19513 0.553774 0.000175862 -0.992055 0.125807
-0.0184932 -0.0666547 0.0880189 -0.999211 0.0172225 0.0357909
-0.0107366 -0.279309 0.0101679 -0.580677 -0.582003 -0.569286
0.110148 0.19162 0.449164 0.000208213 -1 0
0.113149 -0.0210095 0.107896 0.209409 0.19384 0.958423
-0.189657 0.230278 0.635506 -1 0 0
0.0674865 -0.0918157 0.415984 0 0 1
-0.0211874 0.221246 0.578962 -0.000204031 0.979914 -0.199422
-0.182767 -0.125329 0.394442 0 0 -1
-0.268665 -0.0626323 0.00533642 0.46835 0.468979 -0.748804
0.0252049 0.072504 0.116485 -0.502988 0.485061 0.715345
-0.100649 0.100651 0.415984 0 0 1
0.169343 0.198663 0.450043 1 0 0
0.25016 -0.0628111 0.0170239 -0.96555 -0.089613 -0.244301
-0.0259265 0.00576424 0.199538 -0.853068 -0.5218 0
-0.110593 0.0482983 0.374387 0.288844 9.65676e-05 0.957376
-0.134709 -0.151131 0.394442 0 0 -1
-0.0925402 -0.051624 0.415984 0 0 1
-0.0518032 -0.00731504 0.415984 0 0 1
0.0618348 0.0992416 0.0691875 0.79822 -0.601265 0.0363909
-0.0985751 -0.120022 0.394442 0 0 -1
0.0028421 0.248587 0.713285 -0.000204025 0.979914 -0.199422
-0.0171498 -0.0323026 0.108994 -0.999211 0.0172225 0.0357909
0.00430875 0.0653879 0.415984 0 0 1
-0.17118 0.0036528 0.394442 0 0 -1
-0.182402 0.214367 0.653328 0.00017646 -0.979902 0.199477
0.0744617 0.136016 0.415984 0 0 1
-0.108944 0.214736 0.536559 -0.000207623 0.997168 -0.0752114
-0.0455642 0.176305 0.417566 7.89554e-05 -0.330084 0.943951
0.139974 0.175749 0.395092 -1.56122e-05 0.0866962 -0.996235
-0.093008 -0.173632 0.394442 0 0 -1
-0.0015144 0.0294142 0.201092 0.575498 0.817803 0
0.112774 -0.0261867 0.381247 -0.28879 -3.21792e-05 0.957392
-0.17984 0.0413419 0.415984 0 0 1
-0.0870483 -0.000969514 0.394442 0 0 -1
-0.148256 -0.0101036 0.415984 0 0 1
-0.0278024 0.00397039 0.291685 0 0 -1
-0.0665756 -0.0403526 0.394442 0 0 -1
0.0894239 0.137348 0.0940442 0.798264 -0.601253 0.0356189
-0.153036 0.245135 0.696485 -0.000204031 0.979914 -0.199422
0.0385552 0.0930073 0.106434 -0.81374 0.580152 0.0353666
-0.0430191 -0.0056807 0.354957 0 0 1
-0.121753 -0.0343778 0.346278 0.000266597 -1 0.000162934
-0.0156889 -0.00342572 0.178791 -0.20361 -0.979052 0
-0.0501058 0.0145586 0.415984 0 0 1
0.0961248 0.0173228 0.415984 0 0 1
-0.15088 0.171512 0.394727 -1.56122e-05 0.0866962 -0.996235
0.0659135 0.231715 0.630318 -0.000204025 0.979914 -0.199422
-0.163041 0.189769 0.430668 0.000167295 -0.943952 0.330084
-0.0770351 0.109142 0.394442 0 0 -1
-0.142086 0.0480043 0.354139 -0.452717 -0.000152242 -0.891654
0.0917097 0.23459 0.644417 -0.000204025 0.979914 -0.199422
0.106265 -0.181362 0.413765 0.000231176 -0.966635 0.256159
-0.00275391 -0.0132582 0.314561 0 0 -1
0.217775 -0.0713579 0.0828609 -0.325138 -0.944988 0.035819
-0.293437 -0.0540263 0.00737302 -0.707106 0.707085 0.00566003
0.0333573 -0.00887844 0.415984 0 0 1
-0.0310731 0.220959 0.68557 0.00020402 -0.979891 0.199534
0.200838 -0.0612933 0.0936275 0.140143 -0.0455422 0.989083
-0.000129119 -0.0968128 0.415984 0 0 1
0.0243666 -0.0866394 0.394442 0 0 -1
-0.100537 -0.159422 0.415984 0 0 1
-0.0458724 0.248516 0.712986 -0.000204025 0.979914 -0.199422
0.0784538 0.213147 0.440491 -0.00017727 1 0
-0.172408 0.195549 0.557535 0.00020658 -0.992126 0.12524
0.0403049 0.0289301 0.314561 0 0 -1
-0.16551 0.217383 0.668129 0.00017646 -0.979902 0.199477
-0.130329 0.19434 0.0941668 0.500412 0.477517 0.722195
-0.187532 0.0648044 0.415984 0 0 1
-0.0717914 0.221218 0.578876 -0.000204031 0.979914 -0.199422
-0.084111 -0.0323897 0.394442 0 0 -1
0.132657 0.189366 0.429365 0.000167295 -0.943952 0.330084
0.0599067 0.19161 0.47433 0.000208213 -1 0
0.0641819 0.103317 0.0853 0.798264 -0.601253 0.0356189
0.108412 -0.126492 0.394442 0 0 -1
-0.011596 -0.244185 0.0326636 -0.707675 0.706537 0.000755136
0.166966 0.00697821 0.394442 0 0 -1
0.043906 0.0607358 0.360477 -0.288817 -6.37568e-05 0.957384
-0.131284 -0.0734797 0.415984 0 0 1
0.00408046 0.00244518 0.138259 0.775982 -0.630755 0
-0.0890866 0.191579 0.488694 0.000208213 -1 0
0.282017 -0.0517691 0.0466641 0.240578 0.240809 0.940283
-0.0614787 0.229232 0.618247 -0.000204031 0.979914 -0.199422
-0.147925 0.0855057 0.394442 0 0 -1
-0.0973754 -0.0144895 0.415984 0 0 1
-0.25316 -0.053717 0.0883856 -0.316417 0.902308 0.29278
-0.137765 0.209532 0.629539 0.00017646 -0.979902 0.199477
-0.105743 0.0105939 0.415984 0 0 1
-0.168848 0.215332 0.0600402 -0.803217 -0.594646 0.0351919
0.292585 -0.0832705 0.0389409 0.682912 -0.723267 0.102546
-0.189239 0.212375 0.465537 -0.707107 0.707107 0
0.000385687 0.205821 0.415011 -0.000170524 0.818962 -0.573848
-0.0197979 -0.156435 0.0947952 -0.999211 0.0172225 0.0357909
0.161961 0.251561 0.727738 -0.000204025 0.979914 -0.199422
-0.160008 0.213105 0.49397 -0.00017727 1 0
-0.010151 -0.0133251 0.394442 0 0 -1
-0.140767 -0.0362112 0.0646881 0.0448517 0.0158244 -0.998868
-0.176032 0.213102 0.441557 -0.00017727 1 0
0.0968523 0.206398 0.415806 -0.000170524 0.818962 -0.573848
0.111348 0.189084 0.428846 0.000150177 -0.847362 0.531015
0.137921 -0.104733 0.415984 0 0 1
-0.10604 0.205526 0.609829 0.00017646 -0.979902 0.199477
-0.0384535 0.0454328 0.415984 0 0 1
-0.124001 0.219554 0.5702 -0.000205038 0.984554 -0.175081
-0.17068 0.127198 0.415984 0 0 1
0.102971 0.0625005 0.378296 -0.288817 -6.37568e-05 0.957384
-0.0534696 0.190448 0.400341 -7.61183e-05 0.422681 -0.906278
-0.149849 0.19018 0.0686778 -0.803217 -0.594646 0.0351919
-0.0293519 0.0268202 0.123951 -0.0876158 0.120507 0.988838
-0.118316 0.148213 0.394442 0 0 -1
0.0739257 0.0158214 0.329973 0.452717 0.000100408 -0.891654
0.0674698 -0.119792 0.394442 0 0 -1
0.167951 0.191979 0.512333 0.260579 -0.965135 0.0247626
-0.0572353 0.149264 0.394442 0 0 -1
-0.0799544 -0.000564372 0.0877079 -0.292373 0.955639 0.0356583
-0.0692851 0.0830826 0.0976334 -0.803224 -0.594626 0.0353687
0.0741663 -0.0193876 0.330092 0.452752 4.75783e-05 -0.891636
-0.166779 -0.173147 0.415984 0 0 1
-0.106808 0.0707497 0.394442 0 0 -1
-0.106068 -0.0363803 0.394442 0 0 -1
0.0492646 0.228749 0.61576 -0.000204031 0.979914 -0.199422
-0.233443 -0.0466019 0.0603368 0.045677 0.0132119 -0.998869
3.47346e-05 -0.169355 0.394442 0 0 -1
-0.0716504 0.253709 0.742561 -0.000199667 0.834592 0.550869
0.0748268 0.19127 0.436265 0.00020691 -0.993743 0.111694
0.0328575 0.213139 0.465974 -0.00017727 1 0
-0.00625574 0.0378931 0.291685 0 0 -1
0.0902494 0.0643937 0.36296 -0.000222755 1 -0.000104456
-0.140822 0.150888 0.415984 0 0 1
-0.25983 -0.0559214 0.019464 0.697293 0.697965 -0.16318
-0.00747193 0.226257 0.603572 -0.000204031 0.979914 -0.199422
0.0826139 -0.00835611 0.0734446 0.300289 0.953203 0.0350778
-0.186236 -0.0926065 0.415984 0 0 1
-0.0249669 0.142678 0.415984 0 0 1
0.13884 0.202898 0.410798 -0.000170513 0.818962 -0.573848
-0.140248 0.272281 0.0180376 0.696964 0.698284 -0.163218
-0.0961602 -0.0186649 0.330829 -0.452751 -0.000100391 -0.891637
-0.00943851 0.191595 0.488142 0.000208213 -1 0
-0.0759831 0.0496818 0.394442 0 0 -1
0.264969 -0.045531 0.0330823 -0.707469 0.706744 0.000580312
0.133656 -0.00578149 0.394442 0 0 -1
-0.000105057 0.0286931 0.0704405 -0.0277858 -0.0382532 -0.998882
-0.0191985 -0.0204275 0.0760276 -0.942226 -0.331064 0.0510581
-0.124718 0.157844 0.0956673 -0.803224 -0.594626 0.0353687
0.166289 0.17572 0.395089 -1.80743e-05 0.0868068 -0.996225
-0.0791562 -0.169605 0.415984 0 0 1
0.151267 0.229276 0.72623 0.00020402 -0.979891 0.199534
-0.00611605 0.198908 0.576991 0.000177298 -0.984555 0.175075
0.165092 0.285726 0.0311781 -0.707857 0.706356 -0.0004832
0.0874899 0.247945 0.710042 -0.000204025 0.979914 -0.199422
-0.120535 0.00641409 0.37739 0.288817 6.37397e-05 0.957384
0.05787 -0.0153766 0.108282 -0.325138 -0.944988 0.035819
0.0220357 0.0459383 0.354957 0 0 1
0.0408593 0.0725709 0.0889912 0.798264 -0.601253 0.0356189
-0.0697018 -0.00766051 0.415984 0 0 1
-0.0907127 0.232584 0.634748 -0.000204031 0.979914 -0.199422
0.0247024 -0.0707505 0.415984 0 0 1
-0.124464 -0.0139911 0.0825985 -0.292373 0.955639 0.0356583
-0.155262 0.230158 0.622891 -0.000204031 0.979914 -0.199422
-0.0549813 0.238731 0.664913 -0.000204031 0.979914 -0.199422
-0.118912 -0.0185116 0.394442 0 0 -1
-0.154932 -0.0663823 0.394442 0 0 -1
0.101075 0.10105 0.394442 0 0 -1
0.126673 0.0486553 0.394442 0 0 -1
-0.0751248 0.247945 0.710211 -0.000204025 0.979914 -0.199422
-0.0403484 0.0329721 0.394442 0 0 -1
-0.189425 0.198284 0.568401 -0.949825 -0.309144 0.0475604
0.132365 0.20443 0.0599663 -0.0279275 -0.0384726 -0.998869
0.141457 0.0826864 0.415984 0 0 1
0.0048319 0.124932 0.415984 0 0 1
0.122569 0.10192 0.394442 0 0 -1
-0.150635 -0.0140065 0.386365 0 0 1
0.15442 0.00130917 0.415984 0 0 1
-0.16211 0.213105 0.469609 -0.00017727 1 0
0.0893438 0.191616 0.462734 0.000208213 -1 0
0.151533 0.23974 0.669663 -0.000204025 0.979914 -0.199422
0.0314829 -0.00404451 0.120249 0.0550072 -0.275647 0.959684
-0.0469026 0.191587 0.44881 0.000208213 -1 0
0.0714496 0.208513 0.624347 0.00020402 -0.979891 0.199534
0.111613 0.197495 0.568907 0.000205022 -0.984645 0.174567
0.106293 0.183675 0.39717 -8.79032e-05 0.422192 -0.906507
0.160181 0.040919 0.415984 0 0 1
0.0608673 0.0339807 0.323345 0.452717 0.000100408 -0.891654
-0.304687 -0.0830309 0.0173039 -0.697095 -0.698446 -0.161962
0.106223 0.210647 0.634791 0.00020402 -0.979891 0.199534
-0.0153437 0.0155341 0.1243 0 0 1
0.169335 0.235975 0.681675 1 0.000599869 -0.000122122
0.0695741 -0.181733 0.408331 0.000208207 -1 0
-0.164652 0.213325 0.511877 -0.00020815 0.999695 -0.024691
-0.0171869 0.0262095 0.415984 0 0 1
0.0203879 0.0449984 0.0823515 0.798264 -0.601253 0.0356189
-0.0307784 -0.0239845 0.415984 0 0 1
0.158964 0.256384 0.00617847 -0.469837 -0.470496 -0.746918
-0.0136555 -0.16189 0.0629292 0 0.0475419 -0.998869
-0.0496867 0.220359 0.682644 0.00020402 -0.979891 0.199534
0.100904 -0.031794 0.0657788 -0.325121 -0.944983 0.0361156
-0.0188927 -0.112213 0.0652936 0 0.0475419 -0.998869
-0.293778 -0.0909249 0.0434969 -0.264921 -0.964254 0.00562075
0.0307396 0.00777421 0.0791971 0.300289 0.953203 0.0350778
0.0173004 -0.0920328 0.415984 0 0 1
-0.0223548 -0.151994 0.415984 0 0 1
0.0296854 0.200863 0.408687 -0.000147224 0.707107 -0.707107
0.110534 0.12705 0.394442 0 0 -1
0.0239113 0.00279155 0.394442 0 0 -1
-0.107951 -0.0580438 0.394442 0 0 -1
-0.0883495 0.0166662 0.394442 0 0 -1
0.00441216 0.0283146 0.1243 0 0 -1
0.108499 -0.0254329 0.415984 0 0 1
-0.0966013 0.133353 0.105219 -0.0866481 0.119193 0.989083
-0.285345 -0.0681839 0.0489287 -0.0808067 -0.0808478 0.993445
0.036352 0.0246457 0.394442 0 0 -1
-0.0213584 0.214173 0.528859 -0.000207623 0.997168 -0.0752114
-0.101917 0.0486541 0.333744 -0.452717 -0.000152242 -0.891654
0.0110833 0.213285 0.508878 -0.000177214 0.99968 -0.0253008
0.0979375 0.0658148 0.415984 0 0 1
0.00346019 0.0207919 0.314561 0 0 -1
0.127172 -0.0643053 0.394442 0 0 -1
0.27655 -0.0353102 0.0154756 -0.34009 0.930897 -0.133305
-0.265355 -0.0785536 0.0641842 0.317286 -0.947666 0.0354773
-0.123359 0.227908 0.611804 -0.000204031 0.979914 -0.199422
-0.148674 0.215014 0.656477 0.00017646 -0.979902 0.199477
0.0603272 0.0277972 0.365429 -0.28879 -3.21792e-05 0.957392
-0.0218334 0.0439936 0.0927761 0.56428 0.824015 0.0508746
-0.189641 0.140694 0.402085 -1 -0.000213615 0
-0.0916279 0.0670318 0.415984 0 0 1
0.148959 0.0318342 0.394442 0 0 -1
-0.173461 -0.0137838 0.37008 -0.452717 -0.000152242 -0.891654
-0.189599 -0.0579237 0.397647 -1 -0.000213615 0
0.129883 0.245361 0.697302 -0.000204025 0.979914 -0.199422
0.0659532 -0.0791083 0.394442 0 0 -1
-0.189041 0.212573 0.493456 -0.707107 0.707107 0
-0.159495 0.0349352 0.415984 0 0 1
0.053377 0.214444 0.653493 0.00020402 -0.979891 0.199534
0.0472031 0.0823573 0.394442 0 0 -1
-0.00641671 -0.109696 0.108659 -0.000205887 -0.147422 0.989074
0.0489672 0.0443988 0.362003 -0.288817 -6.37568e-05 0.957384
0.0703063 0.221827 0.581726 -0.000204031 0.979914 -0.199422
-0.272944 -0.0439866 0.0293331 -0.707111 0.707103 -4.04578e-05
-0.00673284 0.112333 0.415984 0 0 1
0.0542263 0.090964 0.0999007 0.798264 -0.601253 0.0356189
0.017515 -0.0226704 0.394442 0 0 -1
0.102503 0.134506 0.415984 0 0 1
-0.12959 0.193393 0.539917 0.000176766 -0.997157 0.0753552
-0.0168061 0.250941 0.74462 -4.14341e-05 0.198993 0.980001
0.0926653 0.191616 0.49202 0.000208213 -1 0
-0.00228617 -0.206675 0.0754413 0.999356 0.00891158 0.0347669
-0.171183 -0.0918194 0.394442 0 0 -1
-0.154886 -0.0894641 0.415984 0 0 1
-0.016968 -0.225183 0.0914538 0.000714465 -0.147381 0.989079
0.0477025 -0.0343435 0.330516 0.000222034 -1 0.000104117
-0.0914003 0.191578 0.469702 0.000208213 -1 0
-0.0522283 0.0713457 0.415984 0 0 1
-0.0468745 0.213325 0.510881 -0.00020815 0.999695 -0.024691
0.00499398 0.215894 0.546483 -0.000206564 0.992081 -0.125604
0.145332 -0.0608006 0.394442 0 0 -1
-0.0515173 0.0822586 0.09744 0.818506 0.5734 0.0355091
0.158093 0.153756 0.415984 0 0 1
0.019112 0.220732 0.576394 -0.000204031 0.979914 -0.199422
-0.104384 0.130041 0.0900152 -0.803224 -0.594626 0.0353687
0.186153 0.274942 0.00705823 0.469847 0.470486 -0.746918
0.139406 0.192208 0.523346 0.000238504 -0.997243 0.0742105
0.0230302 0.213137 0.442416 -0.00017727 1 0
0.0821071 0.0445965 0.372 -0.288817 -6.37568e-05 0.957384
-0.0315109 -0.0273206 0.354957 0 0 1
-0.0171181 -0.278741 0.0462922 -0.917849 -0.396866 0.00710676
0.02834 0.200685 0.585931 0.00017646 -0.979902 0.199477
0.16935 0.140412 0.411185 1 0.000245396 0
-0.0921159 0.0267525 0.368815 0.288844 9.65676e-05 0.957376
0.098013 -0.0283243 0.109406 -0.128093 -0.688048 0.71427
-0.189615 0.0190849 0.404027 -1 -0.000213615 0
-0.0407753 0.234718 0.746877 9.99387e-05 -0.554954 0.831881
-0.00341438 0.192449 0.527055 0.000238504 -0.997243 0.0742105
0.151617 -0.073492 0.415984 0 0 1
-0.118854 0.173946 0.0983779 -0.0866481 0.119193 0.989083
0.154027 0.194852 0.551509 0.000175862 -0.992055 0.125807
-0.122728 0.0967125 0.394442 0 0 -1
0.138392 0.234631 0.644571 -0.000204025 0.979914 -0.199422
-0.0343104 -0.00353203 0.314561 0 0 -1
-0.107309 0.0168615 0.394442 0 0 -1
-0.162308 0.191563 0.477543 0.000208213 -1 0
-0.0795618 0.12389 0.0716714 0.818506 0.573355 0.0362228
-0.182078 0.0866026 0.394442 0 0 -1
0.0135231 0.156407 0.415984 0 0 1
-0.00769071 0.0493416 0.305449 0.0794012 0.80329 -0.590272
-0.0982988 0.227787 0.719175 0.00020402 -0.979891 0.199534
-0.170571 -0.133346 0.394442 0 0 -1
0.0179085 0.0428664 0.10193 0.798264 -0.601253 0.0356189
-0.13038 0.19157 0.468445 0.000208213 -1 0
0.161214 -0.1525 0.415984 0 0 1
-0.017595 -0.052673 0.106365 -0.999211 0.0172225 0.0357909
-0.0405655 0.213827 0.650549 0.00017646 -0.979902 0.199477
-0.112041 -0.0223017 0.415984 0 0 1
-0.071067 0.224231 0.701681 0.00020402 -0.979891 0.199534
0.100688 0.240399 0.672952 -0.000204025 0.979914 -0.199422
-0.149127 0.122883 0.394442 0 0 -1
-0.189608 -0.0166415 0.413644 -1 -0.000213615 0
0.0936085 0.243961 0.69046 -0.000204025 0.979914 -0.199422
0.0112132 0.245387 0.697555 -0.000204025 0.979914 -0.199422
0.159511 0.260568 0.0691526 0.585733 0.805821 0.0870001
-0.161574 0.283174 0.00870526 0.5818 0.582616 -0.56751
-0.00382064 -0.0573786 0.0811055 0.999335 0.00894223 0.0353624
-0.0394433 0.252007 0.730135 -0.000204025 0.979914 -0.199422
0.0474679 -0.00381772 0.0684001 -0.0451607 0.0148948 -0.998869
-0.0505374 0.213124 0.458128 -0.00017727 1 0
0.0952278 0.251685 0.728412 -0.000204025 0.979914 -0.199422
-0.077509 0.0170607 0.321355 -0.452751 -0.000100391 -0.891637
-0.0242011 0.213129 0.476246 -0.00017727 1 0
0.118208 -0.170022 0.394442 0 0 -1
-0.023023 -0.271609 0.0602449 -0.999211 0.0172326 0.0357814
-0.0920165 0.191812 0.512359 0.000208149 -0.999689 0.0249178
-0.146239 0.239745 0.669991 -0.000204031 0.979914 -0.199422
0.0180105 0.214456 0.653588 0.00020402 -0.979891 0.199534
-0.10464 0.225296 0.598948 -0.000204031 0.979914 -0.199422
0.153393 0.155849 0.394442 0 0 -1
-0.129872 -0.0162198 0.0979815 -0.292373 0.955639 0.0356583
-0.0670663 0.136854 0.415984 0 0 1
-0.14514 0.223643 0.59087 -0.000204031 0.979914 -0.199422
-0.138558 0.213109 0.439957 -0.00017727 1 0
-0.117004 0.177131 0.0750025 0.818506 0.573355 0.0362228
-0.163326 0.0156319 0.386365 0 0 1
-0.28749 -0.0480683 0.0228813 -0.707583 0.70663 0.000185452
-0.00469041 0.0516509 0.394442 0 0 -1
-0.078033 -0.0421965 0.415984 0 0 1
-0.160201 0.239325 0.0664776 0.818522 0.573387 0.035337
0.202846 -0.0462053 0.0725903 0.300278 0.953168 0.0361111
0.185524 0.270474 0.0452943 0.385611 0.386168 0.837961
0.133291 -0.0201537 0.386365 0 0 1
-0.0183442 0.0291426 0.22368 -0.461006 0.887397 0
0.0420107 0.0752531 0.415984 0 0 1
-0.0634332 0.00719661 0.394442 0 0 -1
0.0429403 0.100019 0.0923048 -0.81374 0.580152 0.0353666
0.130293 0.177796 0.418076 6.88806e-05 -0.330741 0.943722
-0.0950976 -0.150248 0.394442 0 0 -1
-0.11159 -0.0260028 0.092904 0.31733 -0.947655 0.0353714
0.0249095 0.0578142 0.394442 0 0 -1
-0.0794188 0.218584 0.564693 -0.000205038 0.984554 -0.175081
-0.0155213 0.191594 0.470693 0.000208213 -1 0
0.140775 0.238014 0.079702 -0.81374 0.580152 0.0353744
-0.192223 -0.0527812 0.0968421 0.26759 -0.919034 0.289433
-0.164873 0.224065 0.592961 -0.000204031 0.979914 -0.199422
0.0680496 -0.135447 0.415984 0 0 1
-0.147448 0.0189701 0.415984 0 0 1
-0.127645 0.160762 0.078229 -0.803224 -0.594626 0.0353687
-0.0568741 -0.0343609 0.343733 0.000266597 -1 0.000162934
-0.0037026 -0.0604495 0.415984 0 0 1
-0.103911 0.192753 0.401905 -0.000103342 0.573848 -0.818962
-0.0322124 -0.0842189 0.415984 0 0 1
-0.122196 0.110159 0.415984 0 0 1
-0.121875 0.0643487 0.360255 -0.000266579 1 -0.000162841
0.192364 0.252367 0.00135964 0.509254 -0.372047 -0.776042
0.281771 -0.0766422 0.00112932 -0.167583 -0.168325 -0.971382
-0.063144 0.194833 0.551678 0.00020658 -0.992126 0.12524
-0.0213448 -0.0343573 0.332141 0.000198427 -1 9.30469e-05
0.235396 -0.0775219 0.0801814 -0.325115 -0.945018 0.0352201
-0.00328284 -0.16152 0.092242 0.999335 0.00894223 0.0353624
0.0736104 0.226609 0.713211 0.00020402 -0.979891 0.199534
-0.0618024 -0.0736313 0.415984 0 0 1
0.0781538 0.10133 0.394442 0 0 -1
0.0240774 0.228184 0.720999 0.00020402 -0.979891 0.199534
0.0343168 0.208988 0.626713 0.00017646 -0.979902 0.199477
-0.110498 -0.155519 0.394442 0 0 -1
-0.14053 0.0669913 0.394442 0 0 -1
0.159405 0.228846 0.0703992 0.79822 -0.601265 0.0363909
-0.183361 0.281621 0.0379689 -0.707068 0.707139 0.00310993
0.0376651 -0.167743 0.394442 0 0 -1
0.0446261 0.183502 0.397119 -5.40511e-05 0.259604 -0.965715
0.00167002 0.0113064 0.18726 0.986394 -0.164399 0
-0.0129051 0.0384599 0.0703105 0.0280795 -0.0375083 -0.998902
0.0922716 -0.0124826 0.1029 0.300289 0.953203 0.0350778
-0.00891505 -0.0729314 0.394442 0 0 -1
0.158714 -0.0207621 0.394442 0 0 -1
-0.0638763 -0.00961974 0.103772 0.31733 -0.947655 0.0353714
0.129387 -0.161999 0.415984 0 0 1
0.109116 0.0160039 0.394442 0 0 -1
-0.0541733 0.0629742 0.102755 -0.803224 -0.594626 0.0353687
-0.110699 -0.0185016 0.111462 -0.140192 -0.0454288 0.989082
-0.0364232 -0.0515016 0.394442 0 0 -1
0.00216667 0.0268238 0.159202 0.575498 0.817803 0
0.150899 0.225598 0.708169 0.00020402 -0.979891 0.199534
-0.0630892 -0.0954746 0.394442 0 0 -1
-0.148632 0.263229 0.00388603 0.327386 0.327831 -0.886197
-0.015092 -0.0228664 0.30963 0.000167732 -1 0
0.026172 0.248867 0.745043 -4.14341e-05 0.198993 0.980001
0.0765546 0.213763 0.523144 -0.000207623 0.997168 -0.0752114
0.0510188 0.19068 0.43315 0.000196406 -0.943294 0.331959
0.143299 0.198446 0.574232 0.000205022 -0.984645 0.174567
-0.0942413 -0.0200532 0.0966595 0.31733 -0.947655 0.0353714
-0.111086 0.164638 0.415984 0 0 1
0.119103 0.176663 0.0925478 0.798264 -0.601253 0.0356189
-0.0736153 0.0871429 0.0675793 -0.803217 -0.594646 0.0351919
-0.00320162 -0.0785195 0.0689264 0.999338 0.00892106 0.0352853
-0.122252 -0.0510437 0.394442 0 0 -1
0.00625424 0.00681062 0.354957 0 0 1
-0.175889 0.0424521 0.394442 0 0 -1
-0.174156 0.263729 0.0484304 -0.0821921 -0.0823106 0.993212
0.16937 0.0572766 0.398975 1 0.000245396 0
-0.171063 0.254208 0.0765243 0.818506 0.573355 0.0362228
-0.17568 0.258338 0.00200931 -0.327955 -0.328814 -0.885623
0.0464045 0.223584 0.59038 -0.000204031 0.979914 -0.199422
0.0547262 -3.58671e-05 0.0860869 0.300289 0.953203 0.0350778
0.00276016 0.240798 0.675014 -0.000204025 0.979914 -0.199422
-0.0805937 0.166085 0.394442 0 0 -1
0.0655582 -0.0190938 0.0800016 -0.325138 -0.944988 0.035819
0.166457 0.237656 0.659404 -0.000204025 0.979914 -0.199422
-0.0779582 0.158028 0.415984 0 0 1
0.11152 -0.017461 0.0733983 0.300324 0.953214 0.0344818
0.114382 0.213343 0.648021 0.00020402 -0.979891 0.199534
-0.00301954 0.191801 0.511183 0.000208149 -0.999689 0.0249178
-0.0191823 -0.0818008 0.0760685 -0.999211 0.0172225 0.0357909
-0.12827 0.00612494 0.347131 -0.452751 -0.000100391 -0.891637
0.139422 0.211138 0.637168 0.00020402 -0.979891 0.199534
0.026862 0.00639351 0.415984 0 0 1
0.068534 -0.0403958 0.394442 0 0 -1
0.116389 0.0616907 0.415984 0 0 1
-0.0227617 0.0443045 0.415984 0 0 1
0.0672367 0.0652147 0.415984 0 0 1
0.169341 0.211347 0.610597 1 0.000599869 -0.000122122
0.126298 0.228172 0.612846 -0.000204025 0.979914 -0.199422
-0.0302369 0.195216 0.554661 0.00020658 -0.992126 0.12524
0.0286195 0.118405 0.415984 0 0 1
0.0981167 0.192831 0.531857 0.000238504 -0.997243 0.0742105
0.169343 0.197699 0.493859 1 0 0
-0.173053 0.171162 0.394697 -1.56122e-05 0.0866962 -0.996235
-0.00930372 0.0731962 0.415984 0 0 1
-0.121634 -0.0858425 0.415984 0 0 1
0.0101863 0.191599 0.474601 0.000208213 -1 0
0.0565511 0.021239 0.415984 0 0 1
0.148037 0.215676 0.659444 0.00020402 -0.979891 0.199534
0.0741999 0.191613 0.451916 0.000208213 -1 0
0.115563 0.0643995 0.369171 -0.000283025 1 0.000262961
0.103402 0.226161 0.71098 0.00020402 -0.979891 0.199534
0.169343 0.206634 0.533768 1 0 0
-0.0128282 0.00287757 0.218024 -0.244937 -0.969539 0
-0.0311286 0.192359 0.40162 -0.000103342 0.573848 -0.818962
0.0826043 0.191702 0.5065 0.000208149 -0.999689 0.0249178
0.106083 0.233002 0.636599 -0.000204025 0.979914 -0.199422
-0.0494745 -0.171299 0.394442 0 0 -1
0.169418 -0.138301 0.409765 1 0.000245396 0
-0.095552 -0.00952425 0.114022 -0.140109 -0.0456491 0.989083
-0.0127977 0.24872 0.713956 -0.000204025 0.979914 -0.199422
0.169352 0.132627 0.397664 1 0.000245396 0
-0.136286 0.242325 0.746366 -3.53031e-05 0.199142 0.979971
0.135636 -0.025344 0.0811723 0.300289 0.953203 0.0350778
-0.0686249 0.0812437 0.0817117 -0.803224 -0.594626 0.0353687
0.0497555 0.143336 0.394442 0 0 -1
-0.189657 0.211466 0.589732 -1 0 0
0.0738453 0.127692 0.0645582 -0.0279275 -0.0384726 -0.998869
-0.279908 -0.0835116 0.0619033 0.317286 -0.947666 0.0354773
-0.104823 0.146223 0.0635881 0.0279566 -0.0384492 -0.998869
0.0906791 0.0388276 0.394442 0 0 -1
-0.056768 -0.00842975 0.0718828 0.31733 -0.947655 0.0353714
-0.17507 -0.0293995 0.080606 -0.292373 0.955639 0.0356583
0.0354028 0.192613 0.529124 0.000238504 -0.997243 0.0742105
0.0496326 0.195378 0.555809 0.00020658 -0.992126 0.12524
-0.0672724 -0.181593 0.413036 0.000201561 -0.968084 0.250627
-0.0692763 0.232951 0.636527 -0.000204031 0.979914 -0.199422
0.0192422 0.0678407 0.0748985 -0.81374 0.580152 0.0353666
-0.138066 0.00670376 0.415984 0 0 1
-0.0192612 -0.101592 0.0833894 -0.999211 0.0172225 0.0357909
0.072281 0.233866 0.746285 0.000133973 -0.560174 0.828375
-0.0458788 0.00119957 0.314561 0 0 -1
-0.0178609 -0.0759438 0.110141 -0.999211 0.0172225 0.0357909
-0.0442286 0.236235 0.652641 -0.000204031 0.979914 -0.199422
0.145013 0.213159 0.477711 -0.00017727 1 0
0.0200242 0.0238108 0.301544 0.771586 0.234634 -0.591271
-0.116256 -0.00832864 0.3761 0.288817 6.37397e-05 0.957384
0.00670338 0.232469 0.634079 -0.000204031 0.979914 -0.199422
-0.0643399 -0.0272245 0.360439 0.288817 6.37397e-05 0.957384
0.158092 -0.181715 0.406372 0.000208207 -1 0
0.147648 0.259179 0.0304178 -0.775968 -0.52516 0.349402
0.00059026 -0.245054 0.0039703 0.469854 0.470488 -0.746913
0.0566617 -0.181736 0.400005 0.000208207 -1 0
-0.141451 0.191568 0.484569 0.000208213 -1 0
0.0562146 0.204231 0.603323 0.00017646 -0.979902 0.199477
-0.189654 0.207138 0.515936 -1 0 -0.000552352
0.160239 -0.0322141 0.38439 1 0.000220693 0
-0.0959101 -0.0890952 0.394442 0 0 -1
0.0484823 -0.0343314 0.415984 0 0 1
0.0939504 0.170346 0.394622 -1.80743e-05 0.0868068 -0.996225
-0.017618 -0.171199 0.415984 0 0 1
-0.233639 -0.068081 0.06028 0.317286 -0.947666 0.0354773
0.00181956 0.0178221 0.248661 0.986531 0.163573 0
0.061109 0.213144 0.439343 -0.00017727 1 0
-0.189603 -0.0390379 0.403789 -1 -0.000213615 0
-0.0183328 -0.0363956 0.0779348 -0.999211 0.0172225 0.0357909
-0.00173827 0.23587 0.650804 -0.000204031 0.979914 -0.199422
0.143437 0.203017 0.597284 0.00020402 -0.979891 0.199534
0.107271 0.0353009 0.379591 -0.288817 -6.37568e-05 0.957384
-0.120582 0.19247 0.527677 0.000176766 -0.997157 0.0753552
-0.00455541 -0.214808 0.0929883 0.25033 -0.139252 0.958094
0.0681765 -0.0193581 0.0967962 -0.325138 -0.944988 0.035819
-0.155424 0.181617 0.420333 0.000110421 -0.530205 0.84787
-0.0555972 0.0628737 0.0687401 -0.803217 -0.594646 0.0351919
-0.0386508 0.0645013 0.415984 0 0 1
-0.0990333 0.0643516 0.340627 -0.000266579 1 -0.000162841
-0.179845 -0.0227654 0.386139 -0.257733 -2.70905e-05 0.966216
-0.0241008 0.24289 0.685318 -0.000204025 0.979914 -0.199422
-0.0222593 0.0117091 0.164514 -0.945047 -0.326934 0
-0.0651578 0.0675737 0.394442 0 0 -1
0.0416276 0.0462199 0.314561 0 0 -1
-0.158075 0.282831 0.039148 0.512599 0.513084 0.688468
-0.13532 0.253066 0.735437 -0.000204025 0.979914 -0.199422
0.0246478 0.0300215 0.314561 0 0 -1
-0.285843 -0.0500452 0.0412315 -0.113072 0.764281 0.634893
-0.264375 -0.0903315 0.0334763 0.707658 -0.706554 0.00127494
-0.0266087 0.0270543 0.354957 0 0 1
-0.189595 -0.0737616 0.397033 -1 -0.000213615 0
-0.0668374 0.203174 0.598242 0.00017646 -0.979902 0.199477
0.157526 0.0181517 0.415984 0 0 1
0.0884643 0.00719194 0.337353 0.452717 0.000100408 -0.891654
-0.085745 0.215822 0.546068 -0.000206564 0.992081 -0.125604
0.254822 -0.0556886 0.0308005 -0.707778 0.706434 -0.00141802
0.306591 -0.0692559 0.0282528 0.707871 -0.706338 0.0023504
0.146032 0.214967 0.538911 -0.000207623 0.997168 -0.0752114
0.276712 -0.087846 0.00989864 -0.581282 -0.582322 -0.568342
0.000655377 0.0208461 0.289157 0.878579 0.477596 0
0.169337 0.221146 0.630682 1 0.000599869 -0.000122122
-0.126673 0.17716 0.0617857 0.0279566 -0.0384492 -0.998869
-0.135341 0.0507497 0.415984 0 0 1
-0.095644 -0.00533485 0.0869125 -0.292373 0.955639 0.0356583
0.0550543 -0.0228605 0.394442 0 0 -1
-0.17852 0.0992403 0.415984 0 0 1
0.108928 0.0726221 0.394442 0 0 -1
0.146743 -0.0137496 0.386365 0 0 1
0.0430883 0.213362 0.511703 -0.000177214 0.99968 -0.0253008
0.02563 0.0093122 0.094628 0.411945 0.910284 0.0410455
-0.0684278 -0.157957 0.415984 0 0 1
0.00119676 -0.0343531 0.329761 0.000198427 -1 9.30469e-05
-0.0109105 0.170428 0.416227 2.32557e-05 -0.111692 0.993743
0.201084 0.25637 0.0249034 0.707935 -0.706275 0.00183087
0.0878669 0.101772 0.415984 0 0 1
0.0356178 0.232644 0.634911 -0.000204031 0.979914 -0.199422
-0.067489 0.0929589 0.394442 0 0 -1
-0.167742 0.229157 0.725968 0.00017646 -0.979902 0.199477
-0.0326431 0.0643653 0.327005 -0.000198391 1 -0.000194835
0.169733 -0.0551968 0.0730729 -0.325115 -0.945018 0.0352201
0.154486 0.219006 0.566794 -0.000204997 0.984554 -0.17508
-0.116857 0.21705 0.666452 0.00017646 -0.979902 0.199477
0.153903 0.121327 0.415984 0 0 1
-0.205699 -0.0432017 0.0968646 -0.140109 -0.0456491 0.989083
-0.0392744 0.106754 0.415984 0 0 1
0.0241284 -0.0333251 0.31477 5.13789e-05 -0.260702 -0.965419
-0.0866914 0.240449 0.67339 -0.000204031 0.979914 -0.199422
-0.0784974 0.0642872 0.363098 0.0752855 0.965182 0.250512
-0.089138 0.213117 0.457875 -0.00017727 1 0
0.0331398 -0.148267 0.415984 0 0 1
0.0473552 0.00719071 0.316481 0.452717 0.000100408 -0.891654
-0.0514789 0.00709314 0.115966 -0.292373 0.955639 0.0356583
-0.189553 0.165164 0.395891 -0.964335 -0.000205996 -0.264685
0.143328 -0.181718 0.404505 0.000208207 -1 0
-0.136978 0.105185 0.415984 0 0 1
0.0814992 0.149122 0.415984 0 0 1
-0.00260571 0.183455 0.397109 -5.40511e-05 0.259604 -0.965715
0.09698 0.248281 0.745165 -4.14341e-05 0.198993 0.980001
0.0581357 0.0608522 0.36477 -0.288817 -6.37568e-05 0.957384
-0.115781 0.221885 0.690202 0.00017646 -0.979902 0.199477
0.169334 0.21794 0.59147 1 0.000599869 -0.000122122
0.169343 0.204623 0.474501 1 0 0
-0.0973271 0.194382 0.548162 0.00020658 -0.992126 0.12524
0.0515467 0.220072 0.572909 -0.000204997 0.984554 -0.17508
-0.0382098 0.0916038 0.415984 0 0 1
-0.0601418 0.091653 0.113271 0.1239 0.25936 0.9578
0.0218283 -0.250533 0.031849 0.675068 0.676025 0.295421
0.16023 0.00802049 0.3804 1 0.000220693 0
-0.173024 -0.159307 0.415984 0 0 1
0.0658609 0.0364845 0.415984 0 0 1
0.12101 -0.0183437 0.394442 0 0 -1
0.0314292 -0.00742894 0.0779512 -0.325138 -0.944988 0.035819
0.12831 0.238704 0.747111 -3.53031e-05 0.199142 0.979971
-0.00409888 -0.0432086 0.0853854 0.999335 0.00894223 0.0353624
-0.190724 0.258856 0.0397418 -0.523953 -0.510599 0.681735
-0.0146794 0.00374712 0.0704493 0 0 -1
-0.0378936 0.0398601 0.0952993 -0.869289 -0.492599 0.0410271
-0.0766155 -0.137485 0.415984 0 0 1
-0.0226856 0.0158921 0.228248 -1 0 0
0.116227 0.20425 0.603364 0.00020402 -0.979891 0.199534
-0.0439719 0.213126 0.444895 -0.00017727 1 0
-0.0305881 -0.111471 0.394442 0 0 -1
0.141519 -0.0318648 0.415984 0 0 1
-0.0887243 0.212854 0.645815 0.00017646 -0.979902 0.199477
0.164701 0.209541 0.422001 -0.000160792 0.907043 -0.421037
0.1199 0.213155 0.501327 -0.00017727 1 0
0.0107946 0.218337 0.672653 0.00020402 -0.979891 0.199534
0.0802428 0.23241 0.633718 -0.000204025 0.979914 -0.199422
0.0100182 0.0290777 0.394442 0 0 -1
-0.0806403 -0.00142395 0.365355 0.288817 6.37397e-05 0.957384
-0.189587 -0.110678 0.404801 -1 -0.000213615 0
0.00202413 0.00502648 0.314561 0 0 1
-0.0781531 -0.0806989 0.415984 0 0 1
-0.113565 0.143077 0.100666 -0.803224 -0.594626 0.0353687
0.158847 -0.127407 0.394442 0 0 -1
-0.154488 -0.0242798 0.394442 0 0 -1
-0.0607661 -0.159018 0.394442 0 0 -1
0.148471 0.243338 0.746171 -4.14341e-05 0.198993 0.980001
0.0545447 0.213143 0.459619 -0.00017727 1 0
-0.185894 0.251586 0.728216 -0.000204031 0.979914 -0.199422
0.0589785 0.180368 0.419525 9.41548e-05 -0.531153 0.847276
0.133348 0.08018 0.394442 0 0 -1
-0.115929 -0.141285 0.415984 0 0 1
-0.189647 0.196886 0.48644 -1 0 0
-0.143374 -0.0364252 0.0988164 0.31733 -0.947655 0.0353714
0.107034 0.220671 0.684015 0.00020402 -0.979891 0.199534
-0.00296861 0.217512 0.558574 -0.000205038 0.984554 -0.175081
0.0324309 0.0643794 0.34935 -0.000222755 1 -0.000104456
0.119459 0.214023 0.526474 -0.000207623 0.997168 -0.0752114
-0.189647 0.203669 0.436169 -1 0 0
-0.0149694 -0.00357535 0.201625 -0.20361 -0.979052 0
-0.127442 0.211578 0.639579 0.00017646 -0.979902 0.199477
-0.170955 0.21258 0.644537 0.00017646 -0.979902 0.199477
0.0596061 0.216357 0.550054 -0.000206606 0.99208 -0.125604
0.13623 -0.0343224 0.381757 0.00028254 -1 -0.000264773
-0.167231 0.208968 0.626793 0.00017646 -0.979902 0.199477
-0.0978503 0.213406 0.514607 -0.00020815 0.999695 -0.024691
-0.105887 0.191575 0.468755 0.000208213 -1 0
-0.011518 0.0143672 0.237379 0 0 1
-0.163043 0.267736 0.000806535 0.169577 0.169291 -0.970868
0.131246 -0.138436 0.415984 0 0 1
-0.00915682 0.223386 0.589464 -0.000204031 0.979914 -0.199422
-0.0411182 0.0480209 0.354957 0 0 1
-0.00694266 0.21489 0.538324 -0.000207623 0.997168 -0.0752114
-0.0706968 -0.0343637 0.349551 0.000266597 -1 0.000162934
0.169343 0.209488 0.504824 1 0 0
0.0107112 -0.034124 0.353991 0.000283526 -0.96812 0.250486
0.147217 0.191628 0.466583 0.000208213 -1 0
-0.104051 0.138839 0.394442 0 0 -1
0.021817 0.0567667 0.119089 0.0869358 0.118999 0.989081
-0.0108454 -0.232843 0.0595521 0 0.0475419 -0.998869
0.169107 0.212247 0.44509 0.964616 0.263661 0
-0.189639 0.132372 0.413912 -1 -0.000213615 0
-0.0941779 -0.0337726 0.368878 0.204795 -0.705607 0.678364
-0.033177 0.032161 0.314561 0 0 1
-0.10728 0.163958 0.0635644 0.818522 0.573387 0.035337
0.0101094 0.0588654 0.314561 0 0 -1
-0.0796144 0.0374932 0.365042 0.288844 9.65676e-05 0.957376
0.0925155 0.207856 0.621096 0.00020402 -0.979891 0.199534
0.00378084 0.170488 0.394636 -1.80743e-05 0.0868068 -0.996225
0.169401 -0.0692778 0.413823 1 0.000245396 0
0.0960173 0.00367927 0.376194 -0.288817 -6.37568e-05 0.957384
