-0.176974 0.201386 0.741797 -0.218545 0.242339 -0.945256
-0.210006 0.17719 0.205353 0.999922 0.000913422 -0.0124525
-0.0547137 -0.0492604 0.437596 -4.15526e-05 0.0422159 0.999108
0.206739 0.141042 0.357087 -0.712199 -0.285692 -0.641212
0.0434415 0.156655 0.672746 0.0640354 0.888533 -0.454321
0.128726 0.123818 0.431051 0.0143576 0.0866668 0.996134
-0.0809091 0.174302 0.400797 0.093174 -0.921775 -0.376364
0.192175 -0.225472 0.257515 0.948777 -0.315896 0.00570873
-0.142166 -0.226188 0.428659 -0.079679 -0.696718 0.712906
0.0281548 0.128076 0.52475 0.0616821 0.981701 0.180164
-0.0559038 0.170757 0.698068 -0.078908 0.812204 -0.578012
0.20704 0.0968721 0.545432 -0.985135 -0.165069 -0.0475617
-0.190399 -0.120561 0.41458 -0.989949 -0.00584695 -0.141307
-0.22469 0.182792 0.176822 -0.925188 -0.371338 -0.0783268
-0.198126 0.118584 0.4284 -0.977764 0.194576 0.0782183
0.0199365 0.151697 0.687106 -0.0199095 -0.878278 0.477735
0.120285 0.104788 0.561415 -0.199177 -0.96746 0.156041
0.240535 -0.0172289 0.602853 -0.166984 -0.0158257 0.985833
-0.0569251 0.179775 0.404586 -0.0420704 0.948875 0.312836
-0.149037 -0.0408715 0.437238 -4.152e-05 0.0422158 0.999108
-0.135882 0.160836 0.378214 -0.157308 0.827097 -0.539597
0.0595836 0.0917321 0.374837 -0.00212945 -0.0280468 -0.999604
0.0400375 0.0500116 0.376373 -0.000914084 -0.0501005 -0.998744
0.182526 -0.244149 0.0426997 0.24312 -0.968615 0.0517438
-0.179981 0.194068 0.759218 0.306388 -0.276578 0.910841
-0.110647 0.122965 0.630621 0.0944291 -0.941309 0.324068
0.110637 0.139872 0.641865 0.0625641 0.945692 -0.318986
-0.0915743 0.148251 0.688561 0.0925046 -0.884031 0.458183
-0.178779 0.117388 0.455668 0.803506 -0.5369 -0.257132
0.0052155 -0.212016 0.438793 0.00406136 -0.124065 0.992266
0.176966 0.106197 0.483338 -0.724566 -0.660211 -0.1978
0.210189 0.138607 0.459135 -0.548192 0.820566 0.161729
0.176765 -0.135735 0.439405 0.0992709 0.0632807 0.993046
-0.173725 -0.246265 0.00506902 0.24311 -0.968573 0.0525787
-0.0656276 0.121532 0.550006 -0.0914614 0.995094 0.0377281
0.0765558 0.126428 0.587985 0.0486944 0.966471 -0.252116
0.172449 0.122623 0.661531 -0.286101 -0.891342 0.351648
0.0888887 0.13597 0.626028 0.0625641 0.945692 -0.318986
-0.141067 0.0142697 0.377911 3.30308e-05 -0.0322542 -0.99948
-0.148768 0.142598 0.695657 0.198198 -0.856867 0.475917
0.136434 -0.0632132 0.380721 4.91077e-05 -0.049938 -0.998752
0.270479 -0.0414675 0.591243 0.894329 -0.0214878 -0.446894
0.0606572 0.112241 0.57335 -0.0475381 -0.985276 0.16423
0.0214713 0.0219389 0.377647 -0.000570477 -0.0312675 -0.999511
0.247576 -0.0563215 0.603181 -0.0999024 -0.00485509 0.994985
0.113463 0.117422 0.482903 -0.184454 -0.947473 -0.261287
-0.191926 0.192111 0.762437 -0.435575 0.0286167 0.899697
0.16634 -0.234166 0.153808 -0.717249 -0.695992 0.0339012
-0.0510997 0.245699 0.766359 -0.06748 0.997721 0
0.0419116 0.17026 0.42443 0.0785729 0.8201 0.5668
-0.168415 -0.227997 0.128367 0.696803 0.715395 -0.0517268
-0.0834639 0.180089 0.393847 -0.100129 0.990041 -0.0989611
-0.147833 0.0948121 0.432045 -0.00208087 0.0664677 0.997786
-0.156212 -0.000963486 0.37892 -0.168024 -0.0481888 -0.984604
-0.149752 0.15445 0.717692 0.181468 -0.864178 0.469326
0.0518326 0.200457 0.730129 0.0553183 0.623775 -0.779644
-0.223254 0.155668 0.288463 -0.925188 -0.371338 -0.0783268
0.0458607 -0.103531 0.439768 -0.00216976 0.0422135 0.999106
0.118806 0.0497432 0.376253 -0.00242436 -0.0570735 -0.998367
-0.118937 -0.0608158 0.438081 -4.11507e-05 0.0422158 0.999109
0.0398202 -0.240393 0.413082 0.0332088 -0.999448 0
0.0523733 -0.000831592 0.378334 2.51853e-05 -0.0262867 -0.999654
-0.0989961 0.143504 0.650794 -0.0665673 0.94547 -0.318835
-0.0132047 0.18079 0.396137 0.0289221 -0.923533 -0.382427
-0.0530696 0.12286 0.548397 -0.116093 0.989804 0.0825308
-0.0821224 0.173236 0.402468 -0.10679 0.926539 0.360722
-0.250418 0.0198918 0.58351 -0.00869458 -0.0305547 -0.999495
-0.113769 0.125185 0.49774 -0.126572 0.958862 0.254092
-0.0854968 0.0372215 0.37695 5.32096e-05 -0.0512352 -0.998687
-0.0316784 0.17351 0.37715 0.0696944 -0.662694 0.74564
0.0902558 -0.223046 0.393857 0.0164942 -0.270472 -0.962587
-0.217031 0.121796 0.404525 -0.434019 -0.870512 -0.232027
-0.116901 0.147327 0.666608 -0.0947435 0.935607 -0.340092
0.141698 -0.0789648 0.381601 3.41602e-05 -0.0333087 -0.999445
0.0812458 0.0068567 0.435334 -3.71097e-05 0.0377022 0.999289
0.177398 -0.232309 0.00670777 -0.000756676 0.997785 -0.0665184
0.00365925 -0.0917477 0.38194 0.000673379 -0.033891 -0.999425
-0.267741 -0.0382903 0.588233 -0.554233 -0.0369024 -0.831544
0.0798052 0.144146 0.648425 0.0424726 0.946079 -0.321139
0.00348676 0.146947 0.447862 -0.0643726 -0.803422 -0.59192
0.133248 -0.0470378 0.379912 4.91077e-05 -0.049938 -0.998752
0.192653 0.108693 0.470876 0.764115 0.587961 0.265387
0.095855 0.114707 0.595165 -0.0914875 -0.961189 0.26028
-0.0786579 -0.0442466 0.437383 -4.15526e-05 0.0422159 0.999108
-0.182978 0.129583 0.672671 0.765071 -0.586408 0.266067
-0.00499987 -0.150518 0.383913 -0.000576945 -0.0322191 -0.999481
0.0366154 0.142379 0.67067 -0.0199095 -0.878278 0.477735
0.137401 0.218928 0.759307 -0.0863456 -0.578755 0.810917
0.00805124 0.147624 0.65429 -0.00818626 0.952895 -0.30319
-0.0850411 0.166849 0.403346 -0.119264 0.848449 0.515664
0.195978 0.0907401 0.407783 0.877018 0.0406978 0.478732
-0.176054 0.135205 0.65062 -0.318521 0.871955 -0.371805
0.0880665 0.233913 0.749627 0.0548012 0.55384 -0.830818
-0.165448 -0.128023 0.38564 -0.408763 -0.0313336 -0.912103
0.215932 0.204867 0.0556266 -0.435142 -0.875269 -0.211082
0.22311 0.145959 0.390581 0.925564 0.37128 0.07405
-0.0991981 0.108717 0.530268 0.116052 -0.978423 -0.170941
-0.0382427 0.11326 0.568988 0.0212747 -0.994466 0.10288
-0.132004 0.123415 0.431019 -0.0145377 0.0866528 0.996132
-0.00222848 0.159175 0.697061 0.0481581 -0.773026 0.632544
0.156128 0.109463 0.536117 0.246884 0.959573 0.135158
0.166522 0.121405 0.607704 0.271841 0.897484 -0.347311
-0.167863 -0.235558 0.138695 0.707488 -0.705874 0.0346661
-0.224131 0.158769 0.314103 -0.999987 -0.000910086 0.00499142
0.192666 0.125035 0.434176 0.66591 0.680675 0.305361
-0.19229 0.0932254 0.487612 0.595261 -0.75804 -0.266533
-0.121623 0.167829 0.400922 -0.155615 0.96774 0.198148
0.188442 -0.21604 0.303292 0.615951 0.785812 -0.0557063
-0.141534 0.118127 0.628914 0.180651 -0.944382 0.274788
0.207281 0.115925 0.549 -0.891651 0.444939 0.0835965
0.192832 -0.213941 0.389316 0.721725 0.690482 -0.0484524
-0.142017 0.14967 0.414848 -0.136493 0.800486 0.583602
-0.102112 0.119486 0.564523 -0.0850016 0.980857 -0.175198
0.0376127 -0.187026 0.385718 6.91801e-05 -0.0712764 -0.997457
-0.0198175 0.234734 0.761207 0.0151416 -0.707021 0.70703
0.219877 0.130399 0.38001 0.823524 -0.548074 -0.146365
0.0442095 0.0862759 0.432596 0.00160758 0.0344637 0.999405
-0.105277 0.121296 0.520185 -0.0850265 0.980712 0.175993
-0.223447 0.11875 0.474635 -0.985567 -0.165325 -0.0364177
0.0101846 0.119414 0.515696 -0.0609487 -0.970051 -0.23513
-0.0818848 -0.167743 0.442108 0.0012344 0.0249719 0.999687
0.195792 0.124698 0.421734 0.907273 0.343906 0.242041
0.0253646 0.0259622 0.377519 -0.000570477 -0.0312675 -0.999511
0.170967 -0.227596 0.327627 -0.395321 -0.917236 0.0489856
-0.249764 0.10316 0.587624 -0.356588 0.933206 -0.0444009
0.00632266 0.0727425 0.433124 0.00160758 0.0344637 0.999405
-0.145144 -0.1501 0.384228 -0.0538224 -0.0277566 -0.998165
-0.0160159 0.231532 0.762935 -0.0075109 -0.488426 0.872573
0.175932 0.0982721 0.560751 -0.88858 -0.445078 0.111049
0.166116 -0.237127 0.0641746 -0.9999 -0.00075828 -0.0140957
0.106456 0.163041 0.714648 -0.173681 -0.794825 0.581453
0.0377906 0.174439 0.375616 0.0669073 0.623393 -0.779041
-0.223084 0.203096 0.0681425 -0.697611 -0.699201 -0.156387
0.248664 0.102974 0.598933 0.321812 0.847133 0.422851
-0.106428 0.150769 0.67193 -0.101304 0.893793 -0.436888
-0.160572 -0.0305819 0.436583 -0.012974 0.0491042 0.998709
0.190075 0.085767 0.570242 -0.373016 -0.90155 0.219242
-0.0161596 0.168512 0.709533 0.0481581 -0.773026 0.632544
0.269683 -0.0269484 0.600829 0.703901 -0.0110409 0.710212
-0.0106574 0.220091 0.755745 0.0133651 -0.514471 0.857404
0.178129 0.119897 0.473385 0.595222 0.746121 0.298352
0.0349842 0.140703 0.633051 0.0122256 0.946524 -0.3224
0.109785 0.110868 0.585885 -0.0914875 -0.961189 0.26028
0.114602 -0.226674 0.393602 0.00101683 -0.999999 0
0.170613 -0.0730828 0.438434 0.19594 0.0328747 0.980065
-0.196173 0.134862 0.688114 -0.96263 0.248572 -0.107497
0.189547 -0.235411 0.135619 0.707115 -0.706311 0.0333696
-0.0165627 0.221232 0.740397 -0.00953788 0.411679 -0.911279
0.230763 0.106047 0.571357 0.666294 0.334003 -0.666704
-0.0399488 -0.133459 0.441035 0.00200243 0.0405092 0.999177
-0.223328 0.132842 0.407444 -0.985567 -0.165325 -0.0364177
0.0977898 0.181962 0.733053 -0.0847006 -0.601239 0.794568
-0.194027 -0.221192 0.377134 -0.700249 -0.713102 0.0337226
0.223412 0.226478 0.0226472 0.698126 0.700518 0.147966
-0.192718 0.0962153 0.478021 0.591931 -0.774153 -0.224285
-0.0865887 0.148869 0.371869 -0.0525591 0.0524573 0.997239
0.150759 -0.153703 0.384307 0.0494863 -0.0524392 -0.997397
-0.0239805 0.150558 0.660455 -0.0026197 0.876808 -0.480833
-0.143926 -0.165933 0.384603 -0.0538224 -0.0277566 -0.998165
0.116199 0.0696578 0.432969 0.00504765 0.036095 0.999336
-0.126995 0.23461 0.75841 -0.177736 0.95468 -0.238739
0.0432522 -0.00294574 0.435703 -3.71097e-05 0.0377022 0.999289
0.0361674 0.135123 0.65396 -0.0127327 -0.944506 0.328248
-0.270294 0.0574173 0.594232 -0.706722 -0.000671922 0.707491
-0.190225 -0.130538 0.402924 -0.747167 -0.0232608 -0.66423
0.14799 0.0144022 0.435161 -0.00092473 0.0344548 0.999406
-0.0812755 0.140892 0.373007 0 0 -1
-0.19791 0.123082 0.397685 -0.285242 -0.857355 0.428462
0.237229 0.0956603 0.603833 0 0 1
-0.0586944 0.136203 0.658745 0.0241822 -0.944373 0.327987
-0.0666551 0.242112 0.761425 -0.056287 0.941474 -0.332354
0.193264 0.127154 0.670484 0.952698 0.2777 -0.123484
-0.188801 -0.239395 0.0973209 -0.553197 -0.832005 0.0417313
-0.108604 0.159889 0.409347 -0.119262 0.848458 0.515651
0.195857 -0.144 0.41595 0.893678 0.0392231 0.44699
-0.101128 -0.208373 0.387314 7.44434e-05 -0.0767227 -0.997052
0.0291989 0.17076 0.374437 -0.0463133 -0.663656 0.746603
-0.113859 -0.169688 0.384684 0.00332484 -0.0556715 -0.998444
0.0178398 -0.121884 0.382971 0.000673224 -0.0338908 -0.999425
0.196527 0.103437 0.463977 0.999998 0.00207041 0.000426908
0.178635 -0.0702571 0.391262 0.613768 -0.0252851 -0.789081
0.0305685 0.0949432 0.374802 -0.000651427 -0.0278403 -0.999612
0.131529 -0.0706009 0.438505 -4.27462e-05 0.042216 0.999109
0.0980885 0.172051 0.397835 0.144393 0.920409 0.363316
-0.133232 0.155252 0.712147 0.184019 -0.769897 0.611061
-0.0761041 -0.0905637 0.381946 -0.000737234 -0.0338925 -0.999425
0.223697 0.142053 0.380892 0.999999 0.000950774 -5.09782e-05
0.181805 0.151868 0.697223 0.400296 0.842347 -0.360853
0.155158 0.0749965 0.432946 -0.00785101 0.0410526 0.999126
-0.216321 0.158337 0.371438 -0.311218 0.931877 0.186408
0.117391 0.0605129 0.433294 0.00504765 0.036095 0.999336
-0.177527 0.0703987 0.429936 -0.445525 0.092358 0.890493
-0.11028 0.167533 0.72165 0.183735 -0.655781 0.732252
-0.192386 -0.218099 0.312201 -0.723435 0.688592 -0.0498295
-0.0640208 0.137582 0.663108 0.0241822 -0.944373 0.327987
0.270268 0.0837126 0.590918 0.999999 0.00113756 -0.000284243
-0.193765 0.170557 0.752183 -0.567549 -0.445627 0.692318
0.01002 -0.0467021 0.379833 0.000960258 -0.0483295 -0.998831
0.0858287 0.11617 0.597044 -0.0914875 -0.961189 0.26028
-0.0493299 -0.17147 0.384725 -0.00127448 -0.0586646 -0.998277
-0.184775 -0.155127 0.436998 -0.705631 0.0634456 0.705734
0.162716 0.0789911 0.432885 -0.0121024 0.0375073 0.999223
-0.0977789 -0.0637284 0.380714 -0.00187189 -0.0499399 -0.99875
0.0273444 0.177546 0.402182 0.0419264 0.920503 0.388479
-0.120795 0.104392 0.538586 0.202449 -0.978799 -0.0311115
-0.224543 0.176833 0.234921 -0.999987 -0.000910086 0.00499142
0.258784 -0.0881056 0.589762 0.0155411 -0.123369 -0.992239
0.172956 -0.234136 0.221212 -0.395321 -0.917236 0.0489856
-0.175291 -0.223984 0.141213 0.157479 0.985408 -0.0645916
-0.0170883 -0.241099 0.411395 -0.0300607 -0.961108 -0.274531
0.132943 0.00263667 0.37829 2.60185e-05 -0.0249734 -0.999688
0.00266565 0.173123 0.374029 0.0162585 0.554675 -0.831908
0.165234 -0.143121 0.441084 0.0157522 0.0307889 0.999402
0.181848 0.011454 0.39095 0.664221 -0.0235006 -0.747167
-0.137918 0.120451 0.499424 -0.242857 0.933471 0.263916
-0.0948005 0.121702 0.620985 0.088149 -0.96146 0.260431
0.023677 0.115711 0.528924 -0.039732 -0.977726 -0.206089
-0.0783099 -0.0221373 0.378886 -0.000571735 -0.0262872 -0.999654
0.032931 0.0270944 0.377479 -0.000570477 -0.0312675 -0.999511
-0.176749 -0.235481 0.211406 0.0337796 -0.997906 0.0551598
0.053971 -0.0614654 0.438038 -3.98707e-05 0.0405073 0.999179
0.18949 -0.224109 0.194642 0.721725 0.690482 -0.0484524
-0.209891 0.18449 0.198774 0.946961 0.316613 0.0549647
0.188823 0.166608 0.72641 0.674689 0.63245 -0.380528
-0.189216 0.116879 0.656977 0.597862 -0.731944 0.326832
-0.0979546 0.0299618 0.377322 5.32096e-05 -0.0512352 -0.998687
-0.240599 -0.07631 0.599519 0.884833 -0.146579 0.442249
-0.130549 0.104215 0.568767 0.199315 -0.958601 0.203366
0.0544319 0.219684 0.755939 -0.0121524 -0.479104 0.877674
0.122519 -0.023103 0.436498 -4.12849e-05 0.0422157 0.999109
-0.164916 -0.214962 0.355772 0.696803 0.715395 -0.0517268
0.152442 0.185615 0.730581 0.0937671 0.713386 -0.694469
0.187768 0.0954835 0.486964 -0.404062 -0.867836 -0.289128
0.240167 -0.0704243 0.599749 -0.879312 -0.18401 0.439261
0.195184 -0.0304068 0.413111 0.706896 0.023873 0.706915
0.0784943 -0.226489 0.394623 0.0164942 -0.270472 -0.962587
0.024208 -0.217489 0.437611 -0.00745362 -0.242507 0.970121
-0.223955 0.148011 0.347434 -0.999987 -0.000913485 0.00498899
0.260653 -0.0700052 0.587978 0.100221 -0.089966 -0.99089
-0.174219 -0.21169 0.331389 0.157479 0.985408 -0.0645916
-0.155051 0.199679 0.738366 -0.0969488 0.167761 -0.981049
-0.194628 -0.218591 0.395097 -0.975214 -0.210009 0.0696703
0.000362489 0.126443 0.539057 0.019285 0.992093 0.124017
-0.188945 -0.23168 0.246207 -0.416526 -0.90783 0.0484887
0.0843886 0.162172 0.374272 0.103097 0.482367 -0.869881
-0.218044 0.113323 0.444249 -0.697623 -0.698684 -0.158626
0.173741 0.0925378 0.508571 -0.357242 -0.91582 -0.183444
0.0427805 -0.0235099 0.378913 2.54949e-05 -0.0256128 -0.999672
0.0798412 0.128333 0.502006 0.111794 0.958142 0.263566
0.023897 0.176776 0.38066 0.0194648 0.831873 -0.554624
-0.0315912 0.154123 0.422435 -0.0131282 0.530019 0.847884
-0.0797298 -0.0234354 0.436504 -4.15526e-05 0.0422159 0.999108
0.0821086 0.243734 0.765332 0.0655329 0.99785 0
-0.184762 0.112935 0.647614 0.279836 -0.902222 0.328158
-0.182023 -0.208442 0.380065 -0.205939 0.97652 -0.0632305
-0.108269 0.161986 0.376117 -0.0552057 0.338459 -0.93936
-0.113875 0.14116 0.68127 0.143314 -0.868195 0.475078
-0.108513 0.232464 0.763532 0.0379652 -0.545751 0.837087
-0.0295085 -0.183051 0.385429 7.06816e-05 -0.0712764 -0.997457
-0.232528 -0.00175892 0.599329 0.994525 -0.104495 0
-0.0404147 -0.0401253 0.379502 4.69612e-05 -0.0483305 -0.998831
0.0284413 -0.224334 0.389084 0.000797526 -0.800027 -0.599963
0.127594 0.223338 0.756126 -0.102647 -0.795844 0.596738
-0.0196336 0.135801 0.464888 0.0445911 -0.896406 -0.440986
-0.0340767 0.139282 0.373007 0 0 -1
0.19474 0.117654 0.418304 0.529815 -0.792461 -0.302161
0.192542 0.186706 0.760538 0.526034 -0.233167 0.817876
-0.190662 -0.238475 0.0351718 -0.999909 -0.00114309 -0.0134413
-0.181612 -0.0960064 0.393439 -0.665614 -0.0259065 -0.745847
0.180054 0.128199 0.639767 0.396742 0.852941 -0.339244
0.00720202 0.124529 0.559964 0.0193162 0.993699 -0.110404
0.232063 0.0346754 0.602229 -0.166907 -0.0153388 0.985853
-0.102032 0.129692 0.647651 0.0944291 -0.941309 0.324068
0.141589 0.145974 0.668336 0.0485853 0.938474 -0.341916
-0.222187 0.202001 0.0684716 -0.437037 -0.876082 -0.203666
-0.193114 -0.224904 0.317576 -0.700249 -0.713102 0.0337226
0.0940096 0.107549 0.555177 -0.086842 -0.99561 -0.0349189
0.160575 0.124982 0.428863 0.220013 0.330552 0.917785
0.116359 0.122796 0.587398 0.12063 0.955189 -0.270302
0.0325032 0.172612 0.376288 -0.0463133 -0.663656 0.746603
-0.203891 0.155725 0.367211 0.315147 0.949043 0
0.176466 0.0202282 0.386455 0.487798 -0.0276908 -0.872517
0.194658 0.0839656 0.544658 0.708311 -0.705901 0
-0.182741 0.122293 0.465087 -0.619358 0.719898 0.313277
-0.0223711 0.242262 0.769259 -0.020389 -1.5491e-05 0.999792
-0.146905 0.223913 0.745774 -0.158683 0.671466 -0.723846
-0.214416 0.123483 0.546984 -0.312029 0.931132 0.188762
0.0744401 -0.136091 0.441206 -0.00216976 0.0422135 0.999106
0.0550506 0.11401 0.58234 -0.0475381 -0.985276 0.16423
-0.0720474 0.124243 0.625215 0.0232543 -0.944633 0.327304
0.0702261 0.130073 0.49988 0.115852 0.957828 0.26295
0.145735 0.0188403 0.377773 3.11303e-05 -0.0322542 -0.99948
0.186036 0.101745 0.413084 0.998184 0.0596776 0.00819395
-0.0333647 0.125595 0.574692 -0.0212568 0.993659 -0.110404
0.0960605 0.128951 0.492742 0.118986 0.959508 0.255318
0.0611946 -0.00692631 0.435853 -3.71097e-05 0.0377022 0.999289
0.165242 0.131381 0.635683 0.150075 0.934683 -0.322249
0.134645 0.122857 0.373758 0.0398364 -0.0770025 -0.996235
-0.117558 0.144707 0.423082 -0.0874089 0.535571 0.839954
-0.0387143 0.0337295 0.37719 0.00100943 -0.0499544 -0.998751
0.195275 0.109721 0.458661 0.912314 0.375672 0.162952
0.190724 -0.0934137 0.414174 0.992266 -0.00330557 -0.124084
0.00163181 0.135542 0.468013 -0.0434096 -0.908197 -0.416286
0.153198 0.0690739 0.433174 -0.00785101 0.0410526 0.999126
-0.0159799 0.152066 0.368746 5.97114e-05 -0.0624008 -0.998051
-0.191625 0.00113154 0.399418 -0.748732 -0.033038 -0.662049
0.0633353 0.127947 0.509521 0.0896594 0.974129 0.207444
-0.192116 -0.0913861 0.40368 -0.747209 -0.0232463 -0.664182
-0.00231549 0.151829 0.424323 -0.0131277 0.530021 0.847883
-0.0275755 0.243875 0.756183 -0.0078513 0.857445 -0.514516
-0.00499352 0.17074 0.405544 -0.0220231 0.847739 0.529957
-0.0579333 0.16752 0.406867 -0.0615502 0.849714 0.523639
0.168486 0.139386 0.656227 0.16889 0.906734 -0.386406
0.20896 0.125991 0.515676 -0.926935 0.369509 0.0652289
-0.107359 0.217906 0.756618 0.0800527 -0.47726 0.875108
-0.185172 -0.235841 0.193526 -0.35295 -0.934341 0.049336
-0.00309925 -0.054433 0.437758 0.00200243 0.0405092 0.999177
-0.0441842 0.167393 0.710513 0.0809167 -0.793887 0.602657
-0.174103 0.181682 0.731981 -0.166773 0.672308 -0.721241
0.183706 0.148887 0.686978 0.486517 0.798449 -0.354655
-0.157869 -0.227572 0.403278 -0.323655 -0.702988 -0.633289
-0.189484 0.143153 0.684254 -0.664354 0.684645 -0.299824
0.189642 -0.221423 0.235171 0.721725 0.690482 -0.0484524
0.0777278 0.122812 0.619816 -0.0168768 -0.965094 0.26136
-0.18924 -0.0588557 0.426401 -0.919933 0.0186653 0.39163
0.00102195 0.153772 0.369552 -0.0282537 0.0664894 0.997387
0.0127355 0.139819 0.429064 0.0147351 0.315988 0.948649
-0.197734 0.115451 0.440141 -0.976052 0.190755 0.104567
0.221139 0.215331 0.011741 0.438017 -0.876525 -0.19961
0.0934539 0.00242503 0.435502 -3.71097e-05 0.0377022 0.999289
0.113899 -0.236219 0.40921 0.0736516 -0.92131 -0.381791
-0.102461 0.140229 0.373007 0 0 -1
0.128291 0.167886 0.707408 0.161773 0.76252 -0.626413
0.21993 0.117227 0.568604 0.595465 0.803053 -0.0229702
0.22296 0.10732 0.54267 0.999984 0.000815027 0.00564441
0.048169 0.238743 0.753114 0.021966 0.799841 -0.59981
-0.19115 -0.236891 0.104525 -0.705911 -0.707519 0.033283
-0.18681 -0.24552 0 0 0 -1
-0.0511137 0.16975 0.407236 0 0 1
-0.1113 0.0749723 0.43293 -0.00582352 0.0410546 0.99914
0.213344 0.115094 0.434869 -0.307644 -0.9262 -0.217964
0.196283 0.132259 0.692317 0.866084 -0.456387 0.203982
0.0762024 0.0350576 0.434325 0.00142196 0.034651 0.999398
-0.0768405 -0.181259 0.442064 5.19152e-05 -0.0525767 0.998617
0.172355 0.127679 0.374578 0.0402215 -0.00857447 -0.999154
-0.24358 0.104562 0.596738 -0.218625 0.572226 -0.790418
-0.208101 0.137501 0.42811 0.979939 0.197016 0.0300782
0.143713 -0.194792 0.385725 -0.0322362 -0.0686872 -0.997117
-0.195689 -0.159496 0.410864 -0.894368 -0.0136529 -0.447123
-0.092845 0.12747 0.465468 0.126073 -0.907153 -0.40147
-0.141813 -0.142762 0.441428 -0.0158123 0.0307596 0.999402
-0.0233235 0.181333 0.408416 -0.0265304 0.873836 0.485496
-0.0150424 0.147439 0.446573 0.0680865 -0.829923 -0.553708
0.175576 -0.0260009 0.387675 0.55426 -0.0410056 -0.831333
-0.00315006 0.114505 0.431625 -0.00255543 0.0525785 0.998613
-0.184524 0.130412 0.647053 -0.488404 0.79733 -0.35458
-0.000189136 0.177011 0.701348 -0.0479275 0.779982 -0.623964
-0.026041 -0.172416 0.44224 -2.9041e-05 0.029411 0.999567
-0.156535 0.218388 0.745444 -0.155017 0.617131 -0.77144
0.0215766 0.16752 0.69025 0.0243626 0.815191 -0.57868
0.187303 -0.220419 0.405745 0.389679 -0.873707 0.29118
-0.178285 0.152297 0.701813 0.999999 0.00110826 -5.77e-05
-0.186388 0.082271 0.541555 0.448126 -0.89397 0
0.106547 0.127635 0.492718 0.152113 0.956721 0.248087
0.183459 0.209495 0.760418 0.743545 0.620925 -0.248178
0.126747 0.14302 0.423313 0.0850817 0.528065 0.844931
0.189954 0.172627 0.753137 -0.480483 -0.498672 0.721431
-0.224143 0.154393 0.31097 -0.999987 -0.000913485 0.00498899
-0.0888006 -0.212332 0.438854 -0.00888562 -0.241585 0.970339
-0.0680807 0.17957 0.387177 -0.0823167 0.936593 -0.340614
0.0185837 0.124245 0.496148 -0.0599311 -0.953855 -0.294226
-0.0122083 0.131012 0.639881 0.013839 -0.950638 0.309992
-0.0219077 0.146392 0.369101 5.97114e-05 -0.0624008 -0.998051
0.239552 -0.0574948 0.589912 -0.552983 -0.0759743 -0.829721
0.0760471 0.129284 0.430462 -0.00914719 0.0995255 0.994993
0.0752615 0.111099 0.532817 -0.0882391 -0.980969 -0.172956
0.0941885 0.190812 0.739123 -0.0646372 -0.546304 0.835089
0.0113088 0.130272 0.478341 -0.0625878 -0.95261 -0.297687
-0.101806 0.171205 0.399951 -0.15386 0.968189 0.197326
0.223696 0.141679 0.394798 1 0.000913493 3.10968e-05
0.137265 0.0679291 0.433096 -0.00785101 0.0410526 0.999126
-0.0556271 0.158307 0.418044 -0.0580969 0.603546 0.795209
0.16801 0.121553 0.609251 0.271841 0.897484 -0.347311
0.231882 0.0482427 0.602676 -0.28996 -0.0607064 0.955111
0.137935 0.133843 0.63452 0.0485853 0.938474 -0.341916
0.0881484 0.127965 0.638119 -0.0926269 -0.941289 0.324645
0.104517 0.165064 0.377064 0.048241 0.340046 -0.93917
-0.189254 0.117666 0.462022 -0.666787 0.683336 0.297401
-0.0788061 0.0126949 0.377912 0.000782244 -0.0323014 -0.999478
0.218064 0.17017 0.200044 0.309461 -0.925919 -0.216581
-0.191351 0.108597 0.645021 0.596563 -0.749567 0.286812
0.087338 0.224601 0.759748 -0.0353656 -0.611132 0.790738
-0.112733 0.177808 0.732567 0.148841 -0.559188 0.81557
-0.0362932 0.0194098 0.434964 -0.00162107 0.0376998 0.999288
-0.133492 0.00495943 0.378212 3.15007e-05 -0.0322542 -0.99948
-0.0905771 0.120955 0.56715 -0.0850016 0.980857 -0.175198
0.153589 0.0958496 0.53969 -0.304088 -0.952293 -0.025852
-0.219285 0.23039 0.00982846 -0.00111512 0.980298 0.19752
0.0419659 0.177315 0.378277 0.0669073 0.623393 -0.779041
0.0945698 -0.0735104 0.381219 0.00193657 -0.0491191 -0.998791
0.213704 0.205995 0.127343 -0.441298 0.880086 0.175226
0.14208 0.103281 0.57731 -0.299032 -0.933483 0.197961
0.181188 0.0794132 0.426453 0.62613 0.106588 0.772399
-0.156565 0.123161 0.609154 -0.0789033 0.942414 -0.325008
-0.0374327 0.144016 0.448726 0.11018 -0.830837 -0.5455
-0.0493603 0.113549 0.431557 -0.00255543 0.0525785 0.998613
0.190801 -0.133334 0.426225 0.989929 0.00540943 0.141464
-0.104551 -0.0161609 0.436196 -3.67502e-05 0.0377014 0.999289
-0.0432592 0.19139 0.734729 0.0762058 -0.610187 0.788584
0.211129 0.171982 0.284557 -0.891868 0.444793 0.0820375
0.190729 0.0276998 0.414192 0.999412 0.0342747 0
0.170409 -0.235147 0.186738 -0.241069 -0.968969 0.0546334
0.0635271 0.112521 0.57586 -0.0475381 -0.985276 0.16423
-0.209037 0.133879 0.46973 0.891026 0.446658 0.0810539
0.172856 0.00144943 0.434856 0.195988 0.0247071 0.980295
-0.161024 0.155813 0.378683 -0.179332 0.819301 -0.544597
0.14984 -0.129076 0.440868 0.0144877 0.0344663 0.999301
0.142473 -0.0939541 0.439493 -4.13308e-05 0.042216 0.999109
0.245124 -0.0405919 0.58675 -0.110264 -0.0535816 -0.992457
-0.177565 -0.212822 0.307209 0.156829 0.985439 -0.065685
0.177611 0.134829 0.650059 0.319805 0.865874 -0.38469
0.180321 0.0954269 0.384752 0.529111 -0.0571004 -0.846629
0.0837646 -0.094261 0.382089 0.000816841 -0.0344752 -0.999405
-0.178864 0.10593 0.508016 -0.00165569 0.970154 0.242484
-0.0687385 0.168893 0.715652 0.0855435 -0.744911 0.661656
-0.0569384 0.135291 0.4299 -0.0102426 0.14145 0.989892
0.0176657 -0.0667541 0.438251 -3.98707e-05 0.0405073 0.999179
-0.073297 0.118375 0.602639 0.0506987 -0.963979 0.261102
0.216084 0.21617 0.00844127 -0.435142 -0.875269 -0.211082
-0.173373 -0.237913 0.157309 0.24311 -0.968573 0.0525787
-0.0692048 0.0238278 0.434744 -0.00162107 0.0376998 0.999288
-0.00878405 0.116323 0.431515 -0.00255543 0.0525785 0.998613
-0.131674 -0.228831 0.426965 -0.0531939 -0.700628 0.711542
0.0424292 0.126559 0.582031 0.0188558 0.969965 -0.242512
-0.0505317 0.14586 0.649827 -0.0447182 0.945985 -0.321113
-0.0368585 -0.134034 0.383393 -0.000606905 -0.0338922 -0.999425
0.0854912 -0.0583817 0.380457 0.00193657 -0.0491191 -0.998791
-0.173037 0.0161883 0.383705 -0.487844 -0.0295563 -0.872431
-0.14603 0.118633 0.633607 0.180651 -0.944382 0.274788
-0.153452 0.139308 0.422307 -0.131879 0.525211 0.840691
0.0839597 0.152964 0.67143 0.100936 0.889409 -0.445829
-0.131764 0.230055 0.764552 0.0796744 -0.534289 0.841539
-0.0343411 0.0650825 0.37563 0.00063219 -0.0278291 -0.999612
-0.0691169 -0.191141 0.386004 6.85749e-05 -0.0712764 -0.997457
-0.177098 -0.227847 0.0810988 -0.000756772 0.997906 -0.0646793
0.0572655 -0.156135 0.441848 -0.00151165 0.0294096 0.999566
-0.225116 0.199312 0.124177 -0.999987 -0.00113753 0.00494051
-0.190116 0.108571 0.445073 0.648385 -0.718034 -0.25303
0.206843 0.116245 0.534434 -0.980308 0.195168 0.0300967
-0.269969 -0.00918361 0.600635 -0.707129 -0.000699892 0.707084
0.025252 -0.0302251 0.379085 2.54949e-05 -0.0256128 -0.999672
0.181742 -0.237369 0.172727 -0.0354521 -0.997879 0.0545917
-0.0649662 0.159225 0.372418 0.0374709 -0.132002 0.990541
0.212314 0.200656 0.144261 -0.701214 0.699215 0.139274
-0.253681 -0.0652269 0.587084 0.110372 -0.0524064 -0.992508
-0.186627 -0.227331 0.344288 -0.35295 -0.934341 0.049336
0.137462 0.0281733 0.377471 0.00182403 -0.0322523 -0.999478
0.18525 0.0386851 0.39303 0.706893 -0.0220865 -0.706976
-0.23396 -0.0161738 0.597 0.995856 -0.0909424 0
0.165764 -0.2342 0.0905348 -0.94861 0.314762 -0.0326229
-0.0216012 0.197374 0.739401 0.0377283 -0.653328 0.756134
-0.0655706 -0.234823 0.400823 -0.0494466 -0.854562 -0.516989
-0.109666 0.118985 0.53094 -0.0850265 0.980712 0.175993
-0.159422 -0.142505 0.441141 -0.0158123 0.0307596 0.999402
0.115273 0.123769 0.634171 -0.130316 -0.937713 0.322043
0.08568 0.159697 0.685254 0.100936 0.889409 -0.445829
0.0885192 0.0474659 0.376399 -0.00341319 -0.0519457 -0.998644
0.155593 -0.0682728 0.438408 -4.13308e-05 0.042216 0.999109
-0.0679444 0.123799 0.527818 -0.114002 0.971976 0.205589
-0.214518 0.141695 0.319606 0.308834 -0.925088 -0.220985
0.072112 -0.0592717 0.437955 -0.00216976 0.0422135 0.999106
0.0979099 0.135273 0.625732 0.0625641 0.945692 -0.318986
0.190766 -0.226001 0.309099 0.701609 -0.711766 0.0336761
-0.108546 0.135137 0.447901 0.109577 -0.834254 -0.540382
0.1943 0.111956 0.624336 0.805399 0.551597 -0.216963
-0.160771 -0.140649 0.441063 -0.0158123 0.0307596 0.999402
0.0937963 0.108697 0.535709 -0.115558 -0.990707 -0.0717378
-0.15724 -0.076574 0.438746 -4.152e-05 0.0422158 0.999108
-0.191207 0.108217 0.643729 0.596563 -0.749567 0.286812
0.184636 0.0110461 0.42993 0.629519 0.0474519 0.775535
0.129722 0.132051 0.373007 0 0 -1
0.0564436 0.138536 0.476975 0.11012 0.910438 0.398719
0.25092 -0.083997 0.603334 -0.110345 -0.00536448 0.993879
0.190809 0.0928922 0.409879 0.428185 0.0242041 0.903367
-0.110824 -0.0671726 0.43835 -4.14121e-05 0.0422159 0.999109
-0.18385 -0.23451 0.228187 -0.35295 -0.934341 0.049336
-0.185499 0.102372 0.517363 -0.592389 0.788354 0.166051
0.0451903 0.135475 0.461706 -0.117008 -0.895994 -0.428373
-0.0543439 0.145684 0.678648 0.0574344 -0.877898 0.47539
0.173398 -0.22814 0.0800887 -0.447428 0.89231 -0.0599317
0.0933543 0.139973 0.427319 0.0316868 0.393603 0.918734
0.196495 0.136156 0.695769 1 0.000633901 0.000129978
-0.0548223 0.108094 0.374147 0.00255617 -0.0477019 -0.998858
0.0215119 0.160618 0.369439 0.0347008 0.164323 -0.985796
-0.150373 -0.226934 0.395498 0.000935871 -1 4.04707e-05
-0.0245078 -0.0840486 0.439001 0.00200243 0.0405092 0.999177
-0.184009 -0.222695 0.170578 -0.447352 0.892411 -0.0589809
0.224659 0.194157 0.150757 0.999987 0.000913482 0.00495926
-0.233392 0.0833516 0.603833 0 0 1
0.206375 0.116207 0.515223 -0.989909 0.140495 0.018489
-0.173907 0.0756809 0.431199 -0.445525 0.092358 0.890493
0.120869 0.119123 0.572537 0.115882 0.978819 -0.168772
0.0548182 -0.0782839 0.3814 0.00116383 -0.0491199 -0.998792
0.112698 0.0281458 0.434575 -0.00527372 0.0376965 0.999275
-0.221516 0.102872 0.513257 -0.889605 -0.445954 -0.0986308
0.194314 0.168775 0.738122 0.819437 0.38919 -0.420778
0.0729677 -0.0352893 0.379306 0.00116386 -0.0491199 -0.998792
0.194603 -0.209454 0.412112 0.983325 -0.162505 0.0816281
0.102058 -0.0806078 0.381583 0.00193657 -0.0491191 -0.998791
-0.163272 0.109186 0.566658 -0.295675 0.933205 -0.204216
-0.190741 -0.00355614 0.420224 -0.989962 0.00257518 0.141309
-0.12645 0.218317 0.758025 0.0821315 -0.390239 0.917043
0.0652693 0.152354 0.370087 0.0462528 -0.0663502 -0.996724
0.19285 -0.22189 0.348229 0.999937 0.000763967 -0.011195
-0.166074 -0.226801 0.279894 0.718729 -0.694459 0.0340007
-0.133665 0.0973185 0.374228 0.00452937 -0.0492805 -0.998775
0.00537389 0.137259 0.621815 0.0122256 0.946524 -0.3224
0.103289 -0.14182 0.38373 0.00119372 -0.0302647 -0.999541
0.0309923 0.119671 0.373556 -0.00159399 -0.0665411 -0.997782
0.0500408 0.163091 0.433676 0.0785729 0.8201 0.5668
-0.0642736 0.118185 0.431274 -0.00255544 0.0525785 0.998613
0.19286 0.0952342 0.568859 0.791055 0.594453 -0.144421
-0.169305 -0.0780795 0.385667 -0.405857 -0.0308516 -0.913416
0.100171 0.0926308 0.43222 0.00504765 0.036095 0.999336
0.0510622 0.123636 0.489453 -0.114908 -0.950215 -0.289633
0.257505 -0.000500264 0.603419 0.0714386 0.00122098 0.997444
0.000878114 0.157057 0.367862 0.120355 9.87303e-05 -0.992731
0.0283642 -0.0542927 0.380208 4.88949e-05 -0.0491211 -0.998793
-0.0856626 0.0495796 0.433805 -0.00168777 0.0347263 0.999395
0.0759897 0.119917 0.492107 -0.109788 -0.952587 -0.283768
-0.0922218 0.0115059 0.435172 -0.00162107 0.0376998 0.999288
0.17942 0.110299 0.588768 0.239101 0.909197 -0.340869
-0.0934709 0.242055 0.76581 -0.138558 0.990354 0
0.0743518 0.110193 0.565022 -0.0475381 -0.985276 0.16423
0.20783 0.126465 0.388033 0.326845 -0.926045 -0.188713
-0.0937975 -0.209789 0.439441 -0.00888562 -0.241585 0.970339
-0.103721 -0.163508 0.384379 -0.00113396 -0.0302659 -0.999541
-0.0826109 0.153781 0.441881 -0.095787 0.822578 0.560526
-0.118939 0.133327 0.626199 -0.127057 0.954403 -0.270131
0.0450661 -0.050908 0.380043 4.88949e-05 -0.0491211 -0.998793
0.0133163 0.138807 0.484977 0.0413732 0.951703 0.304221
-0.0254153 0.115777 0.373824 0.00172855 -0.0665377 -0.997782
-0.122313 -0.146459 0.441604 -2.4526e-05 0.025002 0.999687
0.0990344 0.217514 0.755614 -0.015242 -0.519988 0.854037
0.00166474 0.226919 0.75972 0.00631377 -0.554685 0.832037
0.191709 0.169925 0.734145 0.815879 0.392616 -0.424493
-0.0997608 0.169968 0.381553 -0.13471 0.803247 -0.580214
0.183629 0.0976433 0.387037 0.684156 -0.0907018 -0.723673
0.164406 0.0918904 0.546824 -0.376768 -0.926025 -0.0228639
-0.168025 0.155663 0.381069 -0.199245 0.83315 -0.51591
0.1408 0.199083 0.750896 -0.171277 -0.401886 0.899529
-0.166878 0.223191 0.764225 -0.0621221 -0.0623334 0.99612
0.113119 -0.0345636 0.379287 4.76535e-05 -0.0499371 -0.998752
0.107384 -0.169022 0.384675 0.00218392 -0.0553716 -0.998463
-0.046694 0.161927 0.436775 -0.121523 0.821058 0.55776
-0.21263 0.156042 0.269183 0.438144 -0.874787 -0.206828
-0.00701805 0.245127 0.767863 -0.0430804 0.706362 0.706538
0.195436 -0.156963 0.417929 0.893678 0.0392231 0.44699
0.129217 -0.233476 0.405547 0.0736516 -0.92131 -0.381791
-0.174263 -0.146046 0.39041 -0.485362 -0.0247351 -0.873963
0.000446592 0.167073 0.434128 0.0450663 0.849408 0.525809
0.0638019 0.174114 0.37664 0.03004 0.706803 -0.706773
-0.102488 0.111156 0.514066 0.116086 -0.978425 -0.170905
-0.186693 0.128058 0.683747 0.291535 -0.875697 0.384918
-0.1511 0.153112 0.411632 0.316315 0.000179944 0.948654
-0.0786227 0.11623 0.595755 0.0506987 -0.963979 0.261102
-0.0910579 0.158428 0.684034 -0.101304 0.893793 -0.436888
-0.178865 0.106865 0.58595 0.6949 0.696488 -0.178938
0.125476 -0.0840725 0.381764 4.91107e-05 -0.049938 -0.998752
-0.191042 -0.233994 0.0757268 -0.999937 -0.00113703 -0.0111991
0.0924944 0.171842 0.38274 0.16178 0.976509 -0.142325
-0.137749 -0.0540524 0.437795 -4.152e-05 0.0422158 0.999108
0.0556431 0.117256 0.431351 0.00245279 0.0525834 0.998614
0.102886 0.100231 0.374269 -0.00708769 -0.0499656 -0.998726
0.0214666 0.0700319 0.433193 0.00160758 0.0344637 0.999405
-0.0204453 0.245412 0.764732 -0.0325347 0.948253 -0.315845
0.0536995 -0.0569736 0.437856 -3.98707e-05 0.0405073 0.999179
0.0560908 0.212554 0.738067 0.0688014 0.472882 -0.878435
-0.192593 0.106296 0.480883 -0.807122 0.552681 0.207598
-0.215307 0.13978 0.326519 0.308834 -0.925088 -0.220985
-0.198208 0.126073 0.404876 -0.757663 -0.531288 0.37905
-0.0741081 -0.191835 0.441319 0.00664746 -0.09483 0.995471
0.194731 0.133066 0.416387 0.813579 0.349413 0.464758
-0.0461488 0.169715 0.424621 -0.0831849 0.850773 0.518908
0.0608197 -0.0693211 0.438357 -3.98707e-05 0.0405073 0.999179
0.186735 0.0959164 0.411285 0.993766 0.111483 0
0.0348075 0.116358 0.523709 -0.039732 -0.977726 -0.206089
0.00890819 0.179769 0.394215 0.0226939 0.994776 0.0995222
0.0789641 0.142643 0.426847 0.0655106 0.494977 0.866433
-0.0296351 -0.00257382 0.378384 0.000507757 -0.0256124 -0.999672
-0.167697 0.114463 0.430231 -0.149778 0.044785 0.987705
-0.158824 -0.220958 0.385294 0.349175 -0.464684 -0.813724
-0.196682 0.117606 0.657733 -1 -0.000790906 -9.76093e-05
0.16034 0.0938343 0.535901 -0.298305 -0.94572 -0.128946
0.128566 -0.116276 0.382862 3.45555e-05 -0.0338925 -0.999425
0.0447329 0.102227 0.374441 -0.00362629 -0.0477615 -0.998852
-0.134366 -0.167836 0.442138 -2.4526e-05 0.025002 0.999687
-0.0659902 0.14317 0.644055 -0.0447182 0.945985 -0.321113
-0.102768 0.228145 0.744337 -0.0335141 0.504402 -0.862818
0.0342024 0.152381 0.423522 0.0120917 0.52999 0.847918
0.078272 0.0291902 0.377376 -0.00111579 -0.0501308 -0.998742
-0.175475 -0.241997 0.0917888 0.24311 -0.968573 0.0525787
-0.185144 0.112503 0.601632 -0.575539 0.765639 -0.287318
0.165877 0.12393 0.614367 0.150075 0.934683 -0.322249
0.0811644 0.159163 0.372672 0.020469 -0.132083 0.991027
0.0641415 -0.0384108 0.37945 0.00116386 -0.0491199 -0.998792
0.2213 0.11416 0.58368 0.362251 0.924875 0.115675
0.0885715 -0.238973 0.417732 0.054464 -0.9984 -0.0152328
-0.0946082 0.236249 0.767616 -0.0285367 -3.35919e-05 0.999593
0.0383877 0.160052 0.678991 -0.000314125 0.888657 -0.458572
0.0733355 0.0374868 0.434245 0.00142196 0.034651 0.999398
0.164734 -0.228266 0.177743 -0.94861 0.314762 -0.0326229
0.181859 -0.0826048 0.435435 0.446968 0.0312615 0.894004
0.0863764 -0.182669 0.441834 -0.00719505 -0.0537233 0.99853
-0.0899525 0.123175 0.5185 -0.115331 0.971843 0.205477
0.0922266 0.0146731 0.377849 3.19711e-05 -0.0322534 -0.99948
-0.11683 0.193623 0.731889 -0.0557166 0.513727 -0.856143
-0.182614 0.122669 0.656389 0.765071 -0.586408 0.266067
0.0132557 0.0484852 0.433949 0.00160758 0.0344637 0.999405
-0.00718409 0.149261 0.373007 0 0 -1
0.249217 -0.0467883 0.586629 -0.110264 -0.0535816 -0.992457
-0.142589 0.114172 0.616016 0.180651 -0.944382 0.274788
-0.0135916 0.0108794 0.377997 0.000631393 -0.0312463 -0.999512
-0.213209 0.0886292 0.545984 0.309069 -0.925445 -0.219152
-0.0211125 0.168265 0.430287 -0.0468466 0.851261 0.522647
-0.133368 0.162711 0.721596 0.192082 -0.769349 0.609267
-0.0660821 -0.196937 0.440646 0.00606319 -0.1309 0.991377
0.212253 0.168121 0.221053 -0.696645 -0.697437 -0.16813
0.222024 0.109447 0.493919 0.946745 -0.31469 -0.0681432
-0.188022 0.143108 0.685492 -0.55143 0.762233 -0.339007
0.00110023 0.230656 0.752043 -0.0319853 -0.948164 0.316167
0.103706 0.231797 0.762605 -0.0611326 -0.539702 0.839634
-0.0864707 0.179994 0.715321 -0.0951785 0.766977 -0.634576
-0.183738 -0.21993 0.210338 -0.447352 0.892411 -0.0589809
-0.131006 0.129375 0.656193 0.135195 -0.931154 0.338637
0.208044 0.115955 0.559517 -0.926935 0.369509 0.0652289
0.210117 0.196553 0.126188 -0.99995 -0.000910055 -0.00993228
0.018686 0.180194 0.381091 0.0270476 0.922755 -0.384436
-0.172417 -0.229996 0.06995 0.445698 0.892931 -0.063455
-0.22405 0.174989 0.206261 -0.925188 -0.371338 -0.0783268
0.0470458 -0.217779 0.437661 -0.00336158 -0.351183 0.936301
0.185268 0.158658 0.713764 0.564777 0.707787 -0.42434
0.163949 -0.227423 0.217365 -0.9999 -0.00075828 -0.0140957
-0.1887 0.0374748 0.423121 -0.864939 0.0868447 0.494307
0.193858 0.140304 0.704711 0.999999 0.00106593 -7.11704e-05
-0.0448127 -0.0612731 0.380546 -0.000879316 -0.049122 -0.998792
-0.0336842 -0.049227 0.437595 -4.15526e-05 0.0422159 0.999108
-0.0265 0.0233768 0.377598 0.000631393 -0.0312463 -0.999512
-0.111162 0.123625 0.632688 0.0944291 -0.941309 0.324068
0.120995 0.0819632 0.374945 -0.00136659 -0.0321718 -0.999481
-0.208441 0.128297 0.412234 0.972057 -0.226558 -0.0614594
-0.149713 -0.233875 0.41738 -0.156659 -0.985346 -0.067456
-0.189818 -0.230786 0.0945609 -0.831878 0.553428 -0.041193
0.175135 -0.160784 0.392622 0.5564 -0.022509 -0.83061
0.078238 0.102237 0.431984 0.00504765 0.036095 0.999336
-0.150175 0.016635 0.435076 0.000856863 0.0344566 0.999406
0.19305 0.153724 0.722362 0.950801 0.264389 -0.161483
-0.049524 0.15836 0.426919 0.0766262 -0.783699 -0.616397
-0.162297 -0.0667588 0.438331 -4.152e-05 0.0422158 0.999108
-0.0150455 -0.235266 0.399293 -0.0102105 -0.64013 -0.768199
-0.0644376 0.074198 0.432985 -0.00168777 0.0347263 0.999395
0.0484543 -0.165326 0.44208 -2.44512e-05 0.0250024 0.999687
-0.177834 -0.0879107 0.390451 -0.485505 -0.0300638 -0.873717
0.188752 0.101725 0.409869 0 0 1
0.120013 -0.0199567 0.37885 0.0029705 -0.0250439 -0.999682
0.160442 0.132452 0.676831 -0.141117 -0.920016 0.36559
-0.221473 0.136833 0.450801 -0.890473 0.44422 0.0986256
0.003171 -0.16185 0.441935 -0.00151165 0.0294096 0.999566
0.208044 0.0906432 0.55942 -0.888291 -0.445173 -0.112961
-0.138272 0.0039926 0.378243 3.15007e-05 -0.0322542 -0.99948
0.0700378 0.18092 0.392897 0.0840244 0.977098 -0.195498
0.0627264 0.234269 0.765093 -0.023976 -0.621472 0.783069
-0.240389 -0.00553909 0.585712 0.32506 -0.0627408 -0.94361
-0.191079 -0.225366 0.192804 -0.723435 0.688592 -0.0498295
0.062223 0.174897 0.413326 0.101643 0.853902 0.510412
-0.00994363 -0.131404 0.440892 0.00200243 0.0405092 0.999177
0.133647 -0.226954 0.428446 0.0545873 -0.700545 0.711517
-0.126644 0.105218 0.523704 0.196512 -0.966862 -0.162977
0.0130943 0.154709 0.436361 -0.0638377 -0.796745 -0.600934
-0.0310725 0.229607 0.748742 0.0595355 -0.706248 -0.705457
-0.23897 -0.0489551 0.601743 0.705127 -0.075228 0.70508
-0.100263 0.129412 0.430639 -0.015596 0.272823 0.961938
0.160099 -0.107427 0.439973 0.0144877 0.0344663 0.999301
0.0936215 0.143624 0.64961 0.0650319 0.945078 -0.320311
0.101575 0.171973 0.3907 0.140175 0.988141 0.0626809
-0.18679 0.0950275 0.411595 -0.98414 0.108319 -0.140482
-0.0151243 -0.226801 0.393806 0.000976539 -1 0
-0.216642 0.196356 0.0883508 0.43794 -0.873899 -0.210973
-0.0705265 0.161277 0.420261 0.0936489 -0.773858 -0.626398
-0.18999 -0.147342 0.403185 -0.747225 -0.0196947 -0.664279
-0.0327184 0.0147755 0.435132 -3.39144e-05 0.0344557 0.999406
-0.0416017 0.11952 0.603282 0.0208017 -0.972363 0.232547
-0.22299 0.172503 0.272164 -0.890593 0.443773 0.0995504
0.00636861 0.121016 0.605327 -0.0188329 -0.969967 0.242506
-0.0371154 0.148812 0.373007 0 0 -1
0.124908 0.115104 0.609362 -0.122083 -0.953019 0.277219
0.167792 -0.236607 0.00343265 -0.831675 0.553608 -0.0428424
-0.19016 0.14375 0.369377 0.364932 0.183033 -0.912866
0.193598 0.110963 0.619205 0.805399 0.551597 -0.216963
-0.100647 -0.222014 0.393523 0.00409461 -0.275877 -0.961184
0.15928 0.0193218 0.435004 -0.00182837 0.0332274 0.999446
-0.135842 0.231735 0.755152 -0.161233 0.866038 -0.473267
0.189109 -0.238689 0.0755295 0.707115 -0.706311 0.0333696
0.130646 0.109234 0.431811 0 0 1
0.0787098 0.167735 0.373846 0.0255453 -0.127079 0.991564
-0.236326 -0.0413783 0.591975 0.891046 -0.0868674 -0.445523
0.0257531 0.0812961 0.432798 0.00160758 0.0344637 0.999405
-0.183993 0.181311 0.750481 0.718345 -0.350041 0.601208
0.0504318 -0.0340433 0.379219 0.00116386 -0.0491199 -0.998792
0.14401 0.114908 0.51984 0.21113 0.962777 0.168771
-0.0417039 0.243482 0.767297 -0.0450826 0.428603 0.902368
0.105947 0.0568563 0.433483 0.00504765 0.036095 0.999336
-0.185613 0.121387 0.667752 0.291535 -0.875697 0.384918
-0.177452 0.0978728 0.551547 0.706701 0.707512 0
0.0545801 0.112666 0.534478 -0.0882391 -0.980969 -0.172956
-0.0912933 -0.175506 0.384987 -0.00207727 -0.0553749 -0.998464
0.179675 -0.035508 0.390957 0.613768 -0.0252851 -0.789081
0.14784 0.0998144 0.569667 -0.299032 -0.933483 0.197961
0.208886 0.11899 0.554253 -0.548192 0.820566 0.161729
0.193233 0.141561 0.702639 0.952698 0.2777 -0.123484
0.0749931 0.143875 0.64699 0.0424726 0.946079 -0.321139
0.16207 0.052966 0.378246 0.178772 -0.0372952 -0.983183
-0.0519298 0.176614 0.385226 0.0749815 -0.925847 0.370386
0.0188491 -0.134378 0.441013 -0.00216976 0.0422135 0.999106
0.185662 -0.228529 0.314267 0.354608 -0.933654 0.050429
0.159801 -0.0445885 0.437299 0.0128773 0.0491298 0.998709
-0.17435 -0.213156 0.308701 0.157479 0.985408 -0.0645916
0.0424758 0.127455 0.52314 0.112751 0.977867 0.176245
-0.078035 0.17166 0.406426 -0.0954633 0.828264 0.552146
0.206661 0.120685 0.470607 -0.98508 -0.165377 -0.0476222
-0.0952136 0.113972 0.592744 0.093365 -0.960114 0.263559
-0.0348594 0.12031 0.605983 0.0208017 -0.972363 0.232547
-0.0663133 0.127406 0.510754 -0.0920912 0.979714 0.177989
0.0343613 -0.184264 0.38552 6.91801e-05 -0.0712764 -0.997457
-0.0136653 0.242102 0.753415 -0.0171119 0.799907 -0.599879
-0.149976 0.110484 0.549399 -0.234404 0.972139 0
0.108115 0.118203 0.483844 -0.184454 -0.947473 -0.261287
0.217469 0.168891 0.319157 0.309404 0.931757 0.189995
-0.182756 -0.211333 0.423482 -0.785834 -0.437658 0.436943
0.141295 0.146877 0.67077 0.0485853 0.938474 -0.341916
-0.00486731 0.153439 0.665603 -0.0026197 0.876808 -0.480833
-0.0752578 -0.128581 0.440908 0.00200243 0.0405092 0.999177
-0.226652 0.0818063 0.570077 -0.207572 -0.478784 -0.853042
-0.224288 0.198643 0.0957555 -0.946268 -0.316741 -0.0652105
-0.0653014 -0.226361 0.433069 -0.0342725 -0.639796 0.76778
0.169676 -0.230592 0.264305 -0.241069 -0.968969 0.0546334
0.166156 0.115107 0.375135 0.0594875 -0.0747568 -0.995426
0.191454 -0.121882 0.417963 -4.6377e-05 0.0507804 0.99871
-0.00216991 0.124303 0.557055 -0.0212578 0.993659 -0.110403
0.05214 0.167659 0.407236 0 0 1
-0.156515 0.141425 0.696773 0.198198 -0.856867 0.475917
-0.0706334 0.117782 0.501056 0.111427 -0.950454 -0.290207
0.14146 0.161386 0.380879 0.190533 0.814861 -0.547447
0.144722 0.22579 0.763058 -0.0759476 -0.535304 0.841238
-0.0904897 0.124379 0.430995 0.00417195 0.0463792 0.998915
0.217415 0.155457 0.262017 0.309461 -0.925919 -0.216581
-0.181132 -0.231077 0.0304644 -0.00113491 0.997785 -0.0665184
0.0219457 0.177245 0.403477 0.0419264 0.920503 0.388479
-0.226714 0.0763441 0.574951 0.0865361 -0.772307 -0.629328
-0.0770654 0.147454 0.373007 0 0 -1
0.185222 0.106108 0.408648 0.977595 0.210496 0
-0.0527961 -0.207365 0.38724 7.41085e-05 -0.0767226 -0.997052
-0.206111 0.107954 0.553377 0.9896 0.142432 0.0200987
0.221155 0.156857 0.270112 0.826296 -0.550027 -0.121265
0.0542047 0.0565323 0.376023 -0.00247365 -0.0517527 -0.998657
-0.0771371 0.00686038 0.435371 -0.00162107 0.0376998 0.999288
-0.177196 0.0770254 0.429449 -0.433657 0.087393 0.89683
0.221493 0.142205 0.338871 0.826296 -0.550027 -0.121265
-0.128349 0.119764 0.582765 -0.118931 0.974809 -0.188688
-0.18713 0.0958862 0.542145 -0.707777 0.706436 0
-0.0490246 0.245839 0.765787 -0.06748 0.997721 0
-0.163522 -0.0538535 0.382423 -0.164337 -0.0330332 -0.985851
0.107499 -0.176994 0.442279 5.20308e-05 -0.0525761 0.998617
0.0850789 -0.124329 0.440732 -0.00216976 0.0422135 0.999106
0.182362 0.180161 0.733298 0.309287 0.551373 -0.774809
0.230399 0.021883 0.591153 -0.890513 -0.0953546 -0.444854
-0.0945273 0.154143 0.373315 -0.0538738 0.17394 -0.983281
0.122149 0.160831 0.695754 0.100384 0.893936 -0.436808
-0.127309 0.223791 0.756286 0.130416 -0.793141 0.594911
-0.0285994 -0.19617 0.440518 0.00606319 -0.1309 0.991377
-0.11603 0.0435586 0.434066 0.00445238 0.0322938 0.999469
-0.0496844 -0.208381 0.439035 0.00606319 -0.1309 0.991377
-0.108895 0.160105 0.375476 -0.0552057 0.338459 -0.93936
-0.173288 -0.0141557 0.435521 -0.101992 0.0247702 0.994477
-0.00775691 -0.0623107 0.380577 4.69612e-05 -0.0483305 -0.998831
-0.0389213 0.113085 0.544597 0.0424742 -0.996272 -0.0750817
0.133486 -0.130746 0.383353 3.45555e-05 -0.0338925 -0.999425
-0.143225 -0.0124475 0.37866 2.55747e-05 -0.0249734 -0.999688
0.0863515 0.125656 0.430919 -0.00914719 0.0995255 0.994993
0.00137999 -0.18882 0.44111 9.27478e-05 -0.0948386 0.995493
0.135707 0.224425 0.744433 0.00930713 0.367987 -0.929784
0.161785 0.0457541 0.434119 -0.00188986 0.0343448 0.999408
0.179469 0.160683 0.737448 -0.342712 -0.64121 0.686585
0.000568374 0.154505 0.667551 0.0200413 0.87664 -0.480729
-0.156457 0.114633 0.506516 -0.273152 0.939687 0.205855
0.184155 0.150715 0.691711 0.486517 0.798449 -0.354655
-0.24089 -0.0756409 0.591332 0.986555 -0.16343 0
-0.148924 0.0529063 0.433793 0.0077692 0.0410672 0.999126
0.17718 -0.227725 0.075469 -0.000756676 0.997785 -0.0665184
0.00238506 0.135309 0.615492 0.00849724 0.972769 -0.231619
-0.0998812 0.119418 0.48341 0.120226 -0.953701 -0.275682
0.0322697 -0.150704 0.383925 0.000619981 -0.0312105 -0.999513
0.210907 0.0962318 0.521069 -0.696321 -0.697698 -0.168386
-0.214367 0.165088 0.335214 0.309827 0.932667 0.184769
0.136877 0.150624 0.705324 -0.19219 -0.863024 0.467175
-0.210384 0.175182 0.255138 0.890819 0.446681 0.0831745
-0.234068 0.0777921 0.603833 0 0 1
0.241314 -0.052237 0.602367 -0.196134 -0.0213218 0.980345
-0.168162 -0.241856 0.0069831 0.999931 0.000758304 -0.0117229
-0.0386376 0.152956 0.435588 0.09446 -0.796133 -0.597704
0.0820281 0.147735 0.37213 0 0 1
0.0557254 -0.1123 0.382681 0.00157439 -0.0338899 -0.999424
-0.220193 0.202004 0.0646626 -0.307773 -0.926484 -0.216572
-0.137619 -0.20787 0.386453 0.0810271 -0.0960407 -0.992074
0.0333935 0.198803 0.727506 0.0526279 0.623864 -0.779759
0.105276 -0.163924 0.442047 -2.53164e-05 0.0250024 0.999687
0.172225 -0.123154 0.439842 0.195948 0.0339807 0.980025
0.129828 0.0811959 0.374952 -0.0029685 -0.0329925 -0.999451
0.184566 0.111216 0.410461 0.983498 0.13268 -0.122992
0.171425 0.0889494 0.558977 -0.384615 -0.899889 0.205598
0.216781 0.147801 0.423874 0.438702 0.880423 0.179987
0.224703 0.192681 0.142234 0.999987 0.000910089 0.00496248
-0.181809 0.194893 0.754945 0.667014 -0.430726 0.607921
-0.166241 -0.227924 0.167194 0.947716 0.317587 -0.0311965
0.18024 -0.0560443 0.392054 0.613768 -0.0252851 -0.789081
-0.141097 0.157593 0.376703 -0.106315 0.365919 -0.924554
-0.194144 0.162309 0.743863 0.00160816 -0.707135 0.707077
-0.0320565 0.1454 0.467008 -0.0413507 0.910823 0.410721
-0.141114 0.197196 0.750088 0.183213 -0.323292 0.928394
-0.223735 0.167857 0.236356 -0.925188 -0.371338 -0.0783268
-0.233375 0.109274 0.587623 -0.326267 0.943053 0.064818
0.071423 0.159296 0.37264 -0.0429493 -0.132047 0.990313
0.0373257 0.112793 0.548786 -0.0193562 -0.996922 -0.0759699
-0.168067 0.122859 0.615902 -0.161912 0.920247 -0.356272
0.115358 0.107534 0.524621 -0.194514 -0.967107 -0.163919
0.0582564 0.181111 0.400789 0.0266837 0.949059 0.313968
-0.166307 -0.227968 0.260987 0.718729 -0.694459 0.0340007
0.0584828 0.0156137 0.377822 -0.00069603 -0.0312716 -0.999511
0.0652742 0.11116 0.54186 -0.0893503 -0.993322 -0.0729935
