-0.137487 0.129868 0.622832 -0.200224 0.942712 -0.266843
0.11402 0.0179658 0.434966 -0.00527372 0.0376965 0.999275
-0.122507 0.116144 0.543935 -0.142314 0.989192 0.0353087
-0.195442 0.140929 0.366178 0.447241 0.000408645 -0.894413
0.188217 -0.239969 0.0673391 0.707115 -0.706311 0.0333696
-0.169423 -0.225421 0.158339 0.314312 0.947238 -0.0628287
0.104201 -0.0489571 0.380007 4.9459e-05 -0.0499371 -0.998752
-0.122723 0.134227 0.467178 -0.146549 0.892778 0.425994
-0.221997 0.148113 0.39398 -0.891277 0.444625 0.0890666
0.079555 -0.0783285 0.438776 -0.00216976 0.0422135 0.999106
-0.192253 0.0956744 0.395571 -0.848843 -0.0553345 -0.525742
0.193035 0.145268 0.408574 0.496614 0.542534 0.677519
0.217403 0.151021 0.406595 0.439013 0.881046 0.176143
-0.0374039 0.0020216 0.435571 -3.39144e-05 0.0344557 0.999406
-0.027954 0.153929 0.691635 0.0216916 -0.877696 0.478726
0.19005 0.128709 0.652171 0.617894 0.720437 -0.314925
-0.0683011 0.0393282 0.376859 0.00124665 -0.0514781 -0.998673
-0.149084 -0.146432 0.384031 0.00314149 -0.0525461 -0.998613
-0.175964 -0.20876 0.371964 0.156829 0.985439 -0.065685
-0.106514 0.181051 0.719757 -0.118475 0.766798 -0.63086
0.109509 0.118134 0.483113 -0.184454 -0.947473 -0.261287
-0.114844 -0.165209 0.442073 -2.47436e-05 0.0250022 0.999687
0.0511444 -0.166682 0.442114 -2.44512e-05 0.0250024 0.999687
-0.0467693 0.177883 0.387928 0.0424303 -0.956936 0.287182
0.0248571 0.136414 0.620074 0.0122256 0.946524 -0.3224
0.177268 0.115306 0.424903 0.632498 0.195267 0.749545
0.101294 0.0157 0.377816 3.05327e-05 -0.0322547 -0.99948
0.0955459 0.167783 0.718763 -0.114096 -0.747407 0.654496
-0.139173 0.104457 0.579326 0.283236 -0.938166 0.199052
0.158454 -0.0322563 0.381137 0.164312 -0.0327098 -0.985866
0.0176753 0.158497 0.368951 0.0347008 0.164323 -0.985796
-0.0511797 0.153731 0.421954 -0.0383518 0.529656 0.847345
-0.0410937 0.112387 0.373977 0.00255617 -0.0477019 -0.998858
0.000648929 -0.222548 0.436029 0.00463705 -0.274794 0.961492
-0.127569 -0.209735 0.43881 -0.0190458 -0.231293 0.972698
0.0975191 -0.0633119 0.438181 -0.00216976 0.0422135 0.999106
-0.0784817 0.0856019 0.432565 -0.00168777 0.0347263 0.999395
-0.169168 -0.239901 0.0768846 0.707488 -0.705874 0.0346661
0.10579 0.12759 0.373463 -0.00522577 -0.0581303 -0.998295
-0.188656 -0.130561 0.430721 -0.895188 0.0130349 0.445499
0.168082 -0.224753 0.40371 0.264371 -0.943935 0.197722
0.170606 0.153305 0.409825 0.166193 0.61601 0.770007
0.182402 -0.0356872 0.433571 0.447049 0.0302527 0.893998
0.190877 -0.12435 0.416224 0.992266 -0.00330557 -0.124084
-0.153168 0.0854578 0.432514 0.0120282 0.0375297 0.999223
-0.149044 -0.059376 0.438019 -4.152e-05 0.0422158 0.999108
-0.240989 -0.0709927 0.595091 0.702268 -0.121424 -0.701481
-0.0684472 -0.154729 0.384071 -0.000678074 -0.0312119 -0.999512
0.12337 0.146272 0.421391 0.106729 0.662418 0.741492
0.12301 -0.156438 0.44186 -2.47426e-05 0.0250019 0.999687
-0.141041 -0.223622 0.395179 -0.0765558 -0.591755 -0.802474
0.0531062 0.137893 0.626471 0.0424726 0.946079 -0.321139
0.174583 0.168376 0.718928 0.0888623 0.867901 -0.488724
0.0780258 0.167576 0.403962 0.117569 0.848679 0.515675
-0.18164 0.132353 0.648718 -0.318521 0.871955 -0.371805
-0.00783795 -0.142497 0.383656 -0.000576945 -0.0322191 -0.999481
-0.224446 0.217237 0.059731 -0.890593 0.443773 0.0995504
0.0261251 -0.0200622 0.436359 -3.98707e-05 0.0405073 0.999179
0.0682212 0.157406 0.42567 -0.0934107 -0.784748 -0.612735
-0.0583153 -0.240062 0.41346 -0.0519371 -0.987542 -0.148534
0.0744342 -0.132916 0.383409 0.00157439 -0.0338899 -0.999424
-0.219239 0.101259 0.502634 -0.697323 -0.698966 -0.158704
-0.223786 0.153048 0.351774 -0.890593 0.443773 0.0995504
-0.176626 0.111394 0.426451 -0.626258 0.208059 0.75134
-0.11452 0.200699 0.735833 -0.045752 0.488912 -0.871132
-0.0117161 -0.0605576 0.380492 4.69612e-05 -0.0483305 -0.998831
-0.086478 -0.234602 0.402458 -0.0494466 -0.854562 -0.516989
-0.0923634 0.122207 0.622027 0.088149 -0.96146 0.260431
0.084759 0.209863 0.75089 -0.0253394 -0.520531 0.853467
0.134518 0.145453 0.665476 0.137835 0.931178 -0.337505
0.178738 -0.239099 0.139853 0.0011406 -0.998488 0.0549628
-0.0854518 0.063886 0.37559 0.00200352 -0.0296064 -0.99956
-0.193477 -0.205985 0.418426 -0.666204 -0.33405 0.66677
0.216488 0.209957 0.113359 -0.000557668 0.980298 0.197526
0.193203 -0.221029 0.332402 0.948777 -0.315896 0.00570873
-0.189414 0.0630812 0.414496 -0.98698 0.0773583 0.141015
-0.0857155 -0.121421 0.440639 0.00200243 0.0405092 0.999177
-0.269186 0.0222207 0.602059 -0.891301 -0.0154833 0.453148
-0.153973 0.14075 0.420879 -0.171289 0.682162 0.710855
-0.0421964 0.156822 0.445387 -0.12297 0.830834 0.542764
0.00102193 0.155631 0.451598 0.0394151 0.824675 0.564232
-0.207491 0.0862426 0.595294 0.700212 -0.139248 -0.700224
0.101409 0.134071 0.659641 -0.0934659 -0.941414 0.324044
-0.0999244 0.115223 0.497905 0.120226 -0.953701 -0.275682
0.1615 0.112673 0.62534 -0.326239 -0.89384 0.307602
-0.252017 -0.0196915 0.584865 0.110372 -0.0524064 -0.992508
0.0935045 -0.219825 0.436166 0.0151188 -0.390244 0.920587
-0.213021 0.170379 0.30389 0.699741 0.701341 0.135952
0.16143 0.0950004 0.523952 -0.372322 -0.919999 -0.122386
0.0381747 0.0758879 0.375327 -0.00212945 -0.0280468 -0.999604
0.221314 0.195974 0.176969 0.698942 0.699737 0.147813
0.262618 0.0331874 0.603012 0.0714386 0.00122098 0.997444
-0.0949536 0.110837 0.579416 0.0923978 -0.982169 0.16373
-0.0916383 0.11032 0.373885 0 0 -1
0.236723 -0.0439792 0.598503 -0.891408 -0.0831817 -0.445502
0.210781 0.106628 0.602399 -0.186343 0.0929332 0.978079
0.0621576 0.161322 0.684511 0.0640354 0.888533 -0.454321
-0.0461575 0.151911 0.689159 0.0574344 -0.877898 0.47539
0.184351 -0.225099 0.386979 0.351692 -0.934295 0.0583615
-0.0953224 -0.0918283 0.382012 -0.00129228 -0.0344767 -0.999405
0.00416779 0.120079 0.514511 -0.0609487 -0.970051 -0.23513
0.124124 -0.181506 0.44204 5.20308e-05 -0.0525761 0.998617
-0.173594 -0.211323 0.433293 -0.340372 -0.397975 0.851917
0.0612686 0.00421484 0.435433 -3.71097e-05 0.0377022 0.999289
-0.0961552 0.141711 0.373007 0 0 -1
0.0454223 -0.198873 0.44025 -0.00580612 -0.130915 0.991377
-0.144491 0.131464 0.373382 -0.0373125 -0.00803957 -0.999271
0.265268 -0.0556661 0.588123 0.196085 -0.0351602 -0.979956
0.233104 0.00723277 0.601491 -0.705599 -0.0648584 0.705637
0.0766873 0.0205465 0.377659 3.09022e-05 -0.0322535 -0.99948
-0.257544 0.0767391 0.603833 0 0 1
-0.198333 0.124069 0.417542 -0.985455 0.105608 0.133138
0.00560332 -0.175354 0.44233 -2.44512e-05 0.0250024 0.999687
-0.0965113 -0.0101219 0.378575 2.60679e-05 -0.0262866 -0.999654
-0.0307434 -0.221559 0.388514 0.000107914 -0.11047 -0.993879
-0.0593357 0.133981 0.652395 0.0241822 -0.944373 0.327987
-0.126598 -0.0440181 0.437371 -4.11507e-05 0.0422158 0.999109
0.167865 -0.241933 0.0269239 -0.705873 -0.707481 0.0348438
0.167069 -0.153249 0.441367 0.0157522 0.0307889 0.999402
0.151404 0.0134588 0.377946 3.0687e-05 -0.0322539 -0.99948
-0.215876 0.157056 0.253403 0.308834 -0.925088 -0.220985
-0.121958 0.140192 0.425499 -0.0884998 0.527792 0.844751
-0.127989 0.0696169 0.433053 -0.00582352 0.0410546 0.99914
-0.191912 0.0342853 0.412337 -0.0433993 0.0433202 0.998118
0.190788 -0.0930147 0.414681 0.992266 -0.00330557 -0.124084
0.122451 0.123447 0.463909 -0.206718 -0.866394 -0.454564
-0.187796 -0.224399 0.389467 -0.150937 -0.988218 0.0253576
0.171544 -0.101444 0.439225 0.195932 0.0339837 0.980028
-0.00449454 0.02258 0.377637 0.000631393 -0.0312463 -0.999512
0.176876 0.13993 0.67933 -0.934279 -0.32679 0.142586
0.0885192 0.173684 0.392915 0.140175 0.988141 0.0626809
0.141001 0.153093 0.374863 0.0602043 0.378655 -0.923577
-0.169889 0.092258 0.51673 0.374712 -0.91935 -0.119944
0.114343 -0.216396 0.387956 0.000118379 -0.110472 -0.993879
0.00101765 0.142675 0.669785 -0.0190683 -0.877753 0.478734
0.179772 0.117476 0.608157 0.239101 0.909197 -0.340869
0.191507 -0.22824 0.215355 0.948777 -0.315896 0.00570873
-0.26311 0.0562783 0.583313 -0.431811 -0.037971 -0.901164
0.129354 0.102831 0.539225 -0.200597 -0.979217 -0.029907
0.2489 -0.0126387 0.584856 -0.104507 -0.0523751 -0.993144
-0.168429 -0.228584 0.28208 0.466237 -0.883396 0.0472778
-0.169842 -0.234577 0.184022 0.466237 -0.883396 0.0472778
-0.0738505 0.181126 0.396542 -0.0434343 0.979636 -0.196026
0.0381571 -0.13341 0.441014 -0.00216976 0.0422135 0.999106
0.195191 0.107295 0.464247 0.912515 0.369179 0.176132
-0.043886 -0.0392692 0.437174 -4.15526e-05 0.0422159 0.999108
-0.059614 0.182826 0.729082 0.0920701 -0.645295 0.758365
0.147554 -0.18261 0.441808 0.0161893 -0.057356 0.998222
-0.16899 -0.0160074 0.383033 -0.318478 -0.0239897 -0.947627
0.165952 -0.201924 0.438346 0.111519 -0.323228 0.939727
0.190462 0.0237098 0.420648 1 0.000949632 0
-0.20767 0.110604 0.488961 0.985372 -0.163175 -0.0491552
0.221824 0.172578 0.203364 0.826296 -0.550027 -0.121265
-0.13321 0.116494 0.373885 0 0 -1
0.0756302 -0.0361552 0.379352 0.00116386 -0.0491199 -0.998792
0.117806 0.0995921 0.43188 0.00504765 0.036095 0.999336
-0.059672 0.216673 0.740092 -0.0128216 0.257743 -0.966128
0.174352 -0.0547249 0.387866 0.554519 -0.0267418 -0.831741
-0.0396838 0.120203 0.504745 0.0617596 -0.952649 -0.297736
0.128769 0.102618 0.374157 0.0399764 -0.0558543 -0.997638
-0.111084 0.00994662 0.378006 -0.00373467 -0.0320156 -0.99948
-0.222814 0.111102 0.563541 -0.838271 0.334355 -0.430707
0.154845 0.115759 0.374352 0.0691047 -0.0868426 -0.993822
0.0679655 0.168831 0.715357 -0.0845669 -0.739246 0.668105
-0.188607 0.100733 0.514055 -0.592418 0.788332 0.166056
0.0512478 0.221364 0.740927 0.019558 0.409197 -0.912237
0.0078037 0.0140938 0.435145 0.00141401 0.0344571 0.999405
0.036829 0.0301726 0.377371 -0.000914084 -0.0501005 -0.998744
-0.145177 0.031744 0.377347 3.11294e-05 -0.0322532 -0.99948
0.0416828 0.115298 0.527416 -0.039732 -0.977726 -0.206089
-0.0861714 -0.0550896 0.437841 -4.15526e-05 0.0422159 0.999108
0.0638152 -0.00637336 0.37848 2.51853e-05 -0.0262867 -0.999654
0.188778 -0.190312 0.427242 0.952841 -0.271213 0.136151
0.186785 0.0571251 0.423308 0.828628 0.0899473 0.552526
0.22731 0.103698 0.568551 0.691653 0.323778 -0.645588
-0.116658 -0.0463279 0.379864 5.1205e-05 -0.049938 -0.998752
-0.137179 0.119361 0.503959 -0.242857 0.933471 0.263916
-0.186553 -0.243459 0.0460936 -0.553197 -0.832005 0.0417313
-0.0715091 0.142154 0.371145 -0.0621182 -0.195894 -0.978656
-0.193106 0.0802063 0.54524 0.000797971 -1 -3.47084e-05
-0.106995 0.114074 0.597287 0.093365 -0.960114 0.263559
-0.186245 -0.178111 0.399874 -0.664337 -0.000637598 -0.747433
0.137335 -0.098533 0.439686 -4.13308e-05 0.042216 0.999109
-0.0682052 0.116443 0.506997 0.114722 -0.978561 -0.171047
-0.154827 -0.170638 0.441894 -0.026901 0.00155601 0.999637
-0.0416376 -0.024275 0.378934 0.000507757 -0.0256124 -0.999672
-0.12321 0.127872 0.648948 0.135195 -0.931154 0.338637
0.128208 -0.128368 0.383272 3.45555e-05 -0.0338925 -0.999425
0.0188579 0.15825 0.696573 -0.0267672 -0.773676 0.633016
-0.0848028 0.180616 0.730325 0.108123 -0.6036 0.789922
-0.236092 0.104535 0.602803 -0.198672 0.692758 0.693265
0.183265 0.123496 0.63215 0.724581 0.646621 -0.238459
0.193577 0.083226 0.534407 0.705952 -0.70506 -0.0672478
-0.178955 -0.211597 0.322631 -0.00113491 0.997785 -0.0665184
-0.186182 -0.235152 0.201075 -0.241478 -0.96895 0.0531431
0.0661866 -0.114545 0.382773 0.00157439 -0.0338899 -0.999424
-0.106665 0.161532 0.712803 0.147994 -0.794653 0.588748
-0.156546 -0.207019 0.384359 0.259641 0.0374474 -0.964979
0.00410131 0.145869 0.64888 -0.00818626 0.952895 -0.30319
-0.0426349 0.1228 0.617091 0.0208017 -0.972363 0.232547
-0.0124043 -0.0642566 0.438174 0.00200243 0.0405092 0.999177
0.0791912 0.150118 0.689479 -0.118582 -0.883028 0.454093
-0.101356 0.129891 0.457203 0.100812 -0.833686 -0.542959
-0.0719589 0.0371845 0.434254 -0.00148178 0.0344607 0.999405
-0.0123069 0.118522 0.43139 -0.00255543 0.0525785 0.998613
0.0238097 0.218349 0.738959 0.0213318 0.408781 -0.912383
0.0742909 0.243545 0.767082 0.0620324 0.705568 0.705922
-0.169856 0.090297 0.562276 0.383147 -0.891668 0.241095
-0.10049 0.149319 0.667801 -0.0929571 0.889557 -0.447266
-0.139328 0.21064 0.755942 0.133028 -0.43543 0.890339
-0.00555281 0.169572 0.407389 -0.0220231 0.847739 0.529957
-0.174171 -0.23015 0.304007 0.24311 -0.968573 0.0525787
0.0646464 0.124822 0.578041 0.0466448 0.992803 -0.1103
0.181988 0.18302 0.738136 0.596261 0.413505 -0.688103
0.0591041 0.0738272 0.375348 -0.00137749 -0.0288194 -0.999584
0.0147494 0.116948 0.373763 -0.00159604 -0.0665462 -0.997782
-0.0345974 0.186461 0.715862 -0.048951 0.781447 -0.622049
-0.250554 -0.0100399 0.60379 0.0799278 -0.0213902 0.996571
0.148884 0.15456 0.689019 0.123631 0.865171 -0.485999
-0.0221851 0.0222591 0.434874 -3.39144e-05 0.0344557 0.999406
-0.22122 0.171492 0.20032 -0.825335 -0.551475 -0.121231
0.211854 0.1323 0.498954 -0.701367 0.700566 0.131497
-0.0301725 0.242852 0.768172 -0.0450826 0.428603 0.902368
-0.120686 -0.235228 0.420877 -0.0654045 -0.861457 0.503602
0.0626577 0.146274 0.371592 -0.045426 -4.95363e-05 0.998968
0.176744 0.207139 0.746745 0.552972 0.447661 -0.702724
0.219965 0.222028 0.0541174 -0.00111608 0.980767 0.195177
-0.00676728 0.155277 0.692527 0.027274 -0.792694 0.60901
0.206942 0.130997 0.428984 -0.985044 -0.165579 -0.0476738
0.0367194 -0.152883 0.383996 0.000619981 -0.0312105 -0.999513
-0.000246636 0.169442 0.374535 0.0107124 0.447194 -0.894373
0.0550699 0.116661 0.593643 -0.0484701 -0.97144 0.232284
0.0913419 0.0803904 0.375097 -0.00267078 -0.0296955 -0.999555
0.143781 -0.210999 0.392038 0.0306901 -0.107032 -0.993782
-0.102172 0.110704 0.516871 0.116086 -0.978425 -0.170905
0.166607 -0.232534 0.192952 -0.717249 -0.695992 0.0339012
0.173246 0.132165 0.434003 -0.744022 -0.613368 -0.264974
0.0906391 -0.147822 0.383896 0.00119371 -0.0302647 -0.999541
-0.0599768 0.161215 0.370513 -0.0381498 0.116701 -0.992434
-0.167457 0.112039 0.629561 0.278187 -0.90819 0.312734
-0.101735 -0.189444 0.3859 6.4611e-05 -0.0665481 -0.997783
0.0857359 0.167349 0.421987 0.0754469 0.800667 0.59434
-0.168382 -0.230632 0.0930885 0.830629 0.555015 -0.0448804
-0.155344 0.125646 0.616064 -0.0789033 0.942414 -0.325008
0.0965359 0.162374 0.693052 0.100936 0.889409 -0.445829
-0.0326108 0.124734 0.542632 -0.0213146 0.996316 0.0830643
-0.219281 0.112201 0.454631 -0.697623 -0.698684 -0.158626
0.218262 0.124708 0.532345 0.69903 0.699824 0.146979
-0.213593 0.134816 0.487495 0.310312 0.93306 0.18195
0.170524 -0.22572 0.35917 -0.395321 -0.917236 0.0489856
0.0942052 0.201312 0.734749 0.0804541 0.53512 -0.840936
-0.161321 0.158696 0.406442 -0.220205 0.890896 0.397259
-0.160933 0.205323 0.757056 0.198153 -0.329433 0.923152
-0.00251066 -0.124725 0.383056 -0.000606905 -0.0338922 -0.999425
-0.176338 0.150262 0.721989 0.266006 -0.832401 0.486158
0.0282659 -0.0992544 0.382211 0.000673379 -0.033891 -0.999425
-0.0316725 0.196772 0.739383 0.0377283 -0.653328 0.756134
-0.129113 -0.152658 0.384029 3.08578e-05 -0.0302658 -0.999542
0.0184099 -0.137152 0.441129 -0.00216976 0.0422135 0.999106
-0.099884 0.237867 0.753831 -0.0884725 0.881881 -0.463096
-0.185543 0.1968 0.760055 0.60211 -0.348739 0.718223
-0.167727 0.0904437 0.538089 0.37764 -0.925079 -0.0402096
-0.15324 0.224258 0.747676 -0.218301 0.652917 -0.725289
-0.0155806 0.0523878 0.37628 0.00100943 -0.0499544 -0.998751
0.232249 0.100735 0.603833 0 0 1
0.00146876 0.184361 0.725471 -0.0522564 -0.706166 0.706115
-0.02658 -0.12299 0.440584 0.00200243 0.0405092 0.999177
-0.0190789 -0.0427467 0.437316 0.00200243 0.0405092 0.999177
-0.133833 -0.0597675 0.380536 4.91098e-05 -0.0499371 -0.998752
-0.187136 -0.151885 0.400227 -0.665586 -0.021948 -0.745998
-0.223496 0.137655 0.373587 -0.925483 -0.37146 -0.0741457
0.182546 -0.240037 0.11959 0.24312 -0.968615 0.0517438
0.209878 0.159543 0.273224 -0.923977 -0.370645 -0.094278
0.120382 0.234258 0.751658 0.099702 0.68656 -0.720205
0.145496 0.193483 0.734729 0.128219 0.339298 -0.9319
-0.0450302 0.0887708 0.374958 0.00139027 -0.0279336 -0.999609
0.0251992 0.129499 0.477893 -0.0625878 -0.95261 -0.297687
-0.027389 -0.138412 0.383536 -0.000606905 -0.0338922 -0.999425
0.11467 0.121219 0.625877 -0.122083 -0.953019 0.277219
0.150463 0.149611 0.411419 -0.405147 -0.507675 0.760343
0.179071 -0.207905 0.377651 0.205072 0.97658 -0.0650907
0.216144 0.16702 0.33049 0.309404 0.931757 0.189995
-0.211909 0.200239 0.138899 0.946877 0.316587 0.0565332
-0.192235 -0.0879958 0.403695 -0.747209 -0.0232463 -0.664182
0.094631 -0.236102 0.422081 0.0469312 -0.860635 0.507055
0.246968 -0.0889928 0.591233 -0.247555 -0.620834 -0.743829
-0.189126 0.101969 0.503033 -0.620964 0.740261 0.257713
0.147665 0.231688 0.755046 0.137485 0.775695 -0.615951
0.148341 0.103945 0.588332 -0.281433 -0.921403 0.267979
0.18882 0.0735757 0.394847 0.749409 -0.0666774 -0.658741
-0.168002 -0.238953 0.0173334 0.9999 0.00113699 -0.0140964
-0.182084 0.0991197 0.543563 -0.317126 0.948384 0
-0.00167328 -0.205901 0.387131 7.62865e-05 -0.0767237 -0.997052
0.0396766 0.0521574 0.433784 0.00142196 0.034651 0.999398
0.213744 0.165933 0.221816 -0.823413 -0.551029 -0.135491
0.176742 -0.0108084 0.434752 0.104171 0.0485483 0.993374
0.0939243 0.137976 0.446581 -0.107375 -0.829319 -0.548362
0.130348 0.115982 0.562535 0.137842 0.972412 -0.188186
-0.193965 0.15971 0.729619 -0.80943 0.500443 -0.307213
0.0900158 -0.130528 0.441005 -0.00216976 0.0422135 0.999106
-0.101653 0.1701 0.404682 -0.0954633 0.828264 0.552146
0.127464 0.155974 0.711263 -0.173681 -0.794825 0.581453
0.177109 0.129756 0.453052 0.48698 0.78999 0.372513
-0.137126 0.114485 0.613499 0.180651 -0.944382 0.274788
0.195088 0.104114 0.60621 0.724408 0.644761 -0.243961
0.0486004 0.15853 0.418664 0.0424782 0.602954 0.796644
0.21217 0.115393 0.436934 -0.6656 -0.725401 -0.175414
0.063533 -0.0925677 0.439343 -0.00216976 0.0422135 0.999106
0.10801 -0.0846324 0.381788 3.47585e-05 -0.0338921 -0.999426
0.0419221 0.194871 0.72519 0.0894556 0.708819 -0.699695
0.0465217 -0.102848 0.382346 0.00157439 -0.0338899 -0.999424
0.214748 0.133894 0.353429 -0.307516 -0.92536 -0.22168
0.171375 0.117552 0.647804 -0.286101 -0.891342 0.351648
0.0489032 0.100254 0.37452 -0.00362629 -0.0477615 -0.998852
-0.223297 0.138031 0.412756 -0.979628 0.194769 0.0489341
0.158933 0.143476 0.66481 0.0194967 0.934821 -0.354583
-0.0402087 0.123934 0.561059 -0.0212568 0.993659 -0.110404
-0.0642932 0.122205 0.616178 0.0168196 -0.972436 0.232563
0.0875906 0.148013 0.661334 0.0650319 0.945078 -0.320311
0.0972187 -0.196189 0.386392 7.44058e-05 -0.0766376 -0.997059
-0.0103102 0.122136 0.610596 0.0306376 -0.969681 0.242446
0.0958005 0.0288364 0.434513 0.00141401 0.0344571 0.999405
0.0888436 0.108611 0.544876 -0.115558 -0.990707 -0.0717378
0.00381904 0.23103 0.749469 -0.0641708 -0.892496 -0.446468
0.191028 -0.0143735 0.40117 0.780519 -0.0296734 -0.624428
0.0919219 -0.232102 0.399218 0.0376167 -0.628723 -0.776719
-0.0664176 0.150078 0.450639 -0.0978015 0.839878 0.53389
-0.044878 0.235683 0.747345 -0.0103777 0.444487 -0.895725
0.112496 0.142176 0.455108 0.11069 0.85424 0.507959
0.0305492 0.120006 0.507978 -0.0609487 -0.970051 -0.23513
0.0916891 0.118161 0.491513 -0.111377 -0.954347 -0.277159
0.179969 0.10985 0.634252 -0.378522 -0.869915 0.316178
-0.162503 0.122851 0.654373 0.197969 -0.911198 0.361285
-0.176517 0.12313 0.620649 -0.240943 0.905067 -0.350427
-0.175784 0.111896 0.487659 0.797618 0.549232 0.249297
0.0395695 0.150666 0.373007 0 0 -1
-0.191935 0.147111 0.699732 -0.764365 0.590601 -0.258721
0.256893 -0.0696035 0.603635 0.0904677 0.00439815 0.99589
-0.0392083 0.125842 0.430935 -0.00255544 0.0525785 0.998613
0.183784 -0.220726 0.195429 0.230901 0.970938 -0.0629685
-0.0535984 -0.0112333 0.436028 -3.39144e-05 0.0344557 0.999406
0.178075 0.0884069 0.567694 -0.326606 -0.912445 0.246522
0.0128673 0.164257 0.437612 0.0450663 0.849408 0.525809
0.0985174 0.1203 0.530853 0.0825504 0.974639 0.208001
-0.0153821 0.147447 0.464261 -0.0451524 0.908144 0.416217
0.0703034 -0.189896 0.385925 7.2179e-05 -0.0712769 -0.997457
0.00621496 0.137658 0.490072 0.0602311 0.958608 0.278286
-0.0711191 0.124538 0.522565 -0.114002 0.971976 0.205589
-0.252799 0.0362254 0.603617 -0.0625858 0.000947724 0.998039
-0.227804 0.046316 0.590843 0.943979 -0.0991843 -0.314747
-0.103934 0.0656405 0.433299 0.00445238 0.0322938 0.999469
0.0662985 0.132005 0.494573 0.115852 0.957828 0.26295
0.189399 -0.239495 0.0387847 0.999937 0.000763967 -0.011195
-0.0285389 0.168017 0.709871 0.0481581 -0.773026 0.632544
0.0513831 0.111364 0.556083 -0.0893249 -0.993327 -0.0729511
0.141492 0.0468247 0.433997 -0.00785101 0.0410526 0.999126
0.18103 0.149661 0.713623 -0.716648 -0.599877 0.355759
-0.248927 0.0935371 0.577384 -0.348844 0.115884 -0.929989
0.0859543 0.126198 0.507177 0.111794 0.958142 0.263566
-0.0944877 0.143189 0.425689 -0.0529673 0.533798 0.843952
0.0791709 -0.207203 0.439487 -0.0150396 -0.103769 0.994488
-0.0547103 0.139854 0.474052 -0.112534 0.9152 0.386969
0.0805751 0.11198 0.431607 -0.00321843 0.0525778 0.998612
-0.0619124 -0.133901 0.441097 0.00200243 0.0405092 0.999177
0.15096 0.118955 0.637286 -0.189883 -0.928356 0.31953
-0.0189283 0.178115 0.414408 -0.0495934 0.853402 0.518889
0.0352546 0.222806 0.757683 -0.0122632 -0.510712 0.859665
0.166729 -0.0816735 0.438975 -4.13308e-05 0.042216 0.999109
-0.152577 0.0724818 0.375768 -0.0573931 -0.0390644 -0.997587
0.187899 0.203664 0.760005 0.928345 0.332516 0.166162
0.107299 0.0467953 0.43384 0.00504765 0.036095 0.999336
0.0435991 -0.00268516 0.37838 2.54949e-05 -0.0256128 -0.999672
-0.0424195 0.16751 0.428835 -0.0831849 0.850773 0.518908
-0.212496 0.213458 0.0747077 0.946877 0.316587 0.0565332
0.0378702 0.239049 0.768021 -0.0107678 -0.554605 0.832044
-0.123825 0.0342063 0.37712 -0.00311597 -0.0570738 -0.998365
-0.0932198 0.172875 0.386496 -0.140991 0.980071 -0.139935
-0.0688173 0.237161 0.765121 0.0194266 -0.554518 0.831945
-0.0730708 0.172963 0.720826 0.097365 -0.745882 0.658924
0.18255 -0.136691 0.396998 0.666575 -0.0419146 -0.744258
-0.208261 0.0927859 0.548538 0.88922 -0.443473 -0.112341
-0.00627877 -0.116216 0.440269 0.00200243 0.0405092 0.999177
0.0771109 0.234943 0.747576 0.0314522 0.706903 -0.70661
-0.0293131 0.175265 0.378355 -0.0194887 0.76809 -0.640045
0.00198603 0.180701 0.397521 -0.0278306 -0.948319 -0.316096
0.0959424 -0.0207945 0.436391 -3.98707e-05 0.0405073 0.999179
-0.220648 0.214498 0.088692 -0.00111512 0.980298 0.19752
-0.184513 0.192625 0.742502 -0.382986 0.334431 -0.861091
0.193916 -0.180248 0.410276 0.829059 -0.0134721 -0.558998
-0.0673418 0.140132 0.669423 0.0440928 -0.884497 0.464458
-0.0718488 0.0661312 0.433253 -0.00168777 0.0347263 0.999395
0.130934 -0.17066 0.384629 -0.00878658 -0.0530521 -0.998553
-0.0144778 0.129358 0.591702 -0.0208061 0.972592 -0.231584
0.13098 -0.085243 0.38181 3.33306e-05 -0.0338921 -0.999425
0.163686 -0.226323 0.236005 -0.9999 -0.00075828 -0.0140957
-0.178574 0.12272 0.665801 0.29419 -0.87772 0.378232
-0.190808 0.112564 0.618219 -0.806572 0.548548 -0.220309
-0.178635 -0.0682628 0.390237 -0.485519 -0.0291384 -0.873741
0.00127278 0.131746 0.373007 0 0 -1
0.141891 0.120725 0.591342 0.197214 0.926828 -0.319526
0.171168 0.0670851 0.432347 0.195594 0.0654204 0.9785
0.0672177 0.110446 0.549191 -0.0893249 -0.993327 -0.0729511
-0.194972 0.118626 0.650464 -0.953333 0.275571 -0.123359
0.0535792 -0.0399692 0.379514 0.00116386 -0.0491199 -0.998792
0.211274 0.171452 0.289011 -0.891868 0.444793 0.0820375
0.0313186 0.179785 0.397112 -0.0606199 -0.923225 -0.379448
-0.0477684 0.033386 0.377194 0.00250447 -0.0503203 -0.99873
0.189112 0.0964596 0.542463 0.5994 0.800449 0
-0.175829 0.0349786 0.384414 -0.490377 -0.0723368 -0.868503
0.0898769 0.139194 0.373007 0 0 -1
0.00519249 0.0787917 0.375267 -0.000575815 -0.0277461 -0.999615
-0.115707 0.12455 0.499103 -0.151276 0.950549 0.271243
-0.160205 -0.147855 0.441294 -0.0158123 0.0307596 0.999402
0.114517 0.117312 0.549012 0.140262 0.989481 0.0353993
-0.0317482 0.143866 0.449874 0.0680865 -0.829923 -0.553708
-0.082261 0.150602 0.666563 -0.0929571 0.889557 -0.447266
0.0665125 0.17557 0.400323 0.0740886 0.930631 0.35838
-0.183692 -0.210853 0.348272 -0.205939 0.97652 -0.0632305
-0.0750066 0.162711 0.411716 -0.106108 0.754883 0.647219
-0.190032 0.0853214 0.508612 0.239482 -0.953744 -0.181716
-0.0720718 0.112651 0.577775 0.0484706 -0.993522 0.102786
0.0295464 0.168087 0.374214 0.0107124 0.447194 -0.894373
-0.192116 0.0993582 0.587387 -0.718353 0.674866 -0.168894
0.00522925 0.113481 0.550143 -0.0403365 -0.992601 -0.114527
-0.129842 -0.0630992 0.438177 -4.11507e-05 0.0422158 0.999109
-0.0296835 0.133395 0.500205 -0.061652 0.951015 0.302934
-0.146295 0.161244 0.382002 -0.179332 0.819301 -0.544597
0.0726316 -0.16524 0.384408 0.000717906 -0.0302652 -0.999542
-0.179233 -0.240709 0.117295 0.0377586 -0.997776 0.0549257
0.0336222 -0.0967187 0.439467 -3.98707e-05 0.0405073 0.999179
0.0687824 -0.03939 0.437144 -3.98707e-05 0.0405073 0.999179
0.0341294 -0.21701 0.388016 0.000107881 -0.11047 -0.993879
-0.0456214 0.174003 0.718369 0.089983 -0.739241 0.667402
-0.0801397 -0.0693587 0.380981 -0.00106839 -0.0491223 -0.998792
0.0804257 0.121251 0.614227 -0.0168768 -0.965094 0.26136
0.177587 0.0598366 0.385158 0.557388 -0.0378826 -0.829387
-0.100982 0.0263761 0.377465 3.34968e-05 -0.0322539 -0.99948
0.069768 0.0879463 0.432501 0.00142196 0.034651 0.999398
-0.16695 0.0719761 0.432987 -0.195872 0.0525475 0.979221
-0.108391 -0.118633 0.382954 -0.00129228 -0.0344767 -0.999405
-0.143486 0.120096 0.592812 -0.200224 0.942712 -0.266843
-0.072803 0.171269 0.418388 -0.0969388 0.801345 0.590296
0.245715 0.0772045 0.576562 0.246131 -0.189908 -0.95045
-0.13455 0.123016 0.431016 -0.0145377 0.0866528 0.996132
-0.168006 -0.140824 0.387203 -0.408313 -0.0257286 -0.912479
-0.190424 -0.161806 0.42718 -0.989945 -0.00100284 0.14145
-0.0594736 -0.0562971 0.437893 -4.15526e-05 0.0422159 0.999108
0.104395 0.147372 0.422662 0.065374 0.53476 0.842471
0.192779 0.140775 0.687534 0.76343 0.591846 -0.258637
-0.119616 0.103879 0.373984 0.00649295 -0.0499513 -0.998731
0.186181 0.0986122 0.418227 0.998184 0.0596776 0.00819395
-0.0102028 0.0567855 0.433669 -0.00148178 0.0344607 0.999405
-0.136521 0.170903 0.731446 0.206877 -0.656121 0.725746
-0.0196191 0.142474 0.67024 0.0207582 -0.878236 0.477776
-0.123934 0.235832 0.760479 -0.180381 0.933154 -0.310946
0.214731 0.183309 0.147493 -0.435142 -0.875269 -0.211082
-0.208298 0.136351 0.44205 0.979939 0.197016 0.0300782
0.138598 0.0427668 0.376653 5.84096e-05 -0.0605183 -0.998167
0.121609 0.127986 0.649014 -0.130316 -0.937713 0.322043
0.0667403 0.119233 0.605893 -0.0168768 -0.965094 0.26136
-0.00588279 0.222425 0.757071 0.0133651 -0.514471 0.857404
0.0518496 0.174751 0.380432 0.0534141 0.758205 -0.649825
0.18046 -0.229449 0.316669 -0.0354521 -0.997879 0.0545917
0.174208 0.13387 0.645784 0.16889 0.906734 -0.386406
0.0685055 0.124495 0.523496 0.0896594 0.974129 0.207444
0.0741765 -0.163104 0.442025 -2.44512e-05 0.0250024 0.999687
-0.166231 -0.196693 0.439439 -0.220037 -0.275612 0.935747
-0.11348 0.0277699 0.434573 0.00475105 0.0344601 0.999395
-0.131297 -0.0974869 0.43963 -4.11507e-05 0.0422158 0.999109
-0.224298 0.161013 0.281068 -0.999987 -0.000913485 0.00498899
-0.051584 -0.00862632 0.37853 2.52302e-05 -0.0256128 -0.999672
-0.0543613 0.115034 0.522816 0.0895985 -0.97485 -0.204057
0.21897 0.155665 0.380264 0.699948 0.700347 0.139952
0.143201 -0.0107386 0.43602 0.00655482 0.0250081 0.999666
-0.134338 0.104128 0.520892 0.196512 -0.966862 -0.162977
0.0359573 0.124324 0.563153 0.0193162 0.993699 -0.110404
0.127911 0.0780958 0.432622 -0.0057436 0.0410552 0.99914
0.0696159 0.163017 0.373058 -0.0429493 -0.132047 0.990313
0.0438888 0.147854 0.441895 -0.0968937 -0.830954 -0.547838
0.138104 0.0720542 0.375229 -0.0029685 -0.0329925 -0.999451
0.110088 0.168319 0.381886 0.150319 0.798687 -0.582669
-0.0481047 -0.232533 0.427985 -0.0103437 -0.70596 0.708176
-0.0858793 0.109429 0.538266 0.0885889 -0.993383 -0.0730909
0.172423 0.196001 0.757365 -0.249982 -0.260743 0.932482
-0.19776 0.0777282 0.409436 -0.956328 0.0123386 0.292036
-0.211468 0.191156 0.182386 0.946877 0.316587 0.0565332
0.148598 -0.0900176 0.381969 3.41791e-05 -0.0333272 -0.999444
0.252986 0.0143697 0.603684 0.0630733 0.00306524 0.998004
0.21247 0.201339 0.082844 -0.824315 -0.550066 -0.133908
0.00546369 -0.0191905 0.378808 -0.000445985 -0.0249739 -0.999688
-0.223009 0.114423 0.516611 -1 -0.000977403 1.63529e-06
-0.116901 0.137318 0.373007 0 0 -1
-0.223575 0.0698455 0.59858 0.600729 -0.799453 0
0.178102 -0.232064 0.267668 0.0011406 -0.998488 0.0549628
-0.205883 0.104703 0.563945 0.989313 0.142391 0.0313805
0.181497 0.035025 0.389795 0.663703 -0.0447991 -0.746654
-0.0704918 -0.0936354 0.382046 -0.000737234 -0.0338925 -0.999425
-9.64405e-05 -0.238642 0.403663 -0.0258893 -0.813443 -0.581069
-0.130818 0.197835 0.735423 -0.119452 0.492126 -0.862289
-0.102454 0.18654 0.737338 0.119883 -0.604857 0.787259
-0.168775 -0.227376 0.4217 -0.377618 -0.883456 0.277326
0.163452 0.0216275 0.434935 -0.00182837 0.0332274 0.999446
-0.195432 -0.212969 0.400063 -0.972601 -0.213795 0.0913205
0.102159 0.121215 0.573785 0.0880857 0.980601 -0.175109
0.21051 0.118699 0.563849 -0.69893 0.698132 0.155268
-0.25999 -0.0781708 0.588836 -0.0112131 -0.0905247 -0.995831
-0.18995 0.166036 0.745309 0.426606 -0.615193 0.662982
0.265378 -0.0213581 0.602726 0.19624 0.000194232 0.980556
-0.0811585 0.108493 0.557576 0.0902884 -0.982359 0.163762
-0.0367022 -0.0926754 0.38199 -0.000606697 -0.0338924 -0.999425
0.00295551 -0.0940632 0.439358 -3.98707e-05 0.0405073 0.999179
0.185628 0.13888 0.667086 0.486586 0.798412 -0.354644
0.270105 0.0840797 0.593465 0.707491 0.000804812 0.706722
-0.0504522 0.112983 0.570791 0.0484706 -0.993522 0.102786
-0.0675205 0.159107 0.436645 -0.0992737 0.820646 0.562747
0.205312 0.0954645 0.589523 -0.999999 -0.00113994 -0.000285064
-0.0633789 -0.176196 0.44233 5.19152e-05 -0.0525767 0.998617
-0.0858937 -0.18804 0.441707 5.19152e-05 -0.0525767 0.998617
0.0137815 0.123575 0.616466 -0.0283859 -0.97219 0.232469
0.187082 -0.216703 0.278898 0.615951 0.785812 -0.0557063
-0.0587454 0.0543403 0.376111 0.00250447 -0.0503203 -0.99873
0.0292045 0.125632 0.536737 0.0396627 0.995759 0.0830118
0.16431 0.227514 0.759842 0.340571 0.888397 -0.307836
0.177124 0.11158 0.590573 0.239101 0.909197 -0.340869
0.190179 -0.199846 0.398745 0.776898 0.29696 -0.555198
0.183712 0.104916 0.573621 0.586729 0.784314 -0.201498
-0.160107 -0.00642584 0.435793 -0.00660408 0.0249951 0.999666
-0.168378 -0.0311068 0.436507 -0.012974 0.0491042 0.998709
0.0175557 0.158583 0.419603 0.0136871 0.599917 0.799945
-0.00846301 0.162276 0.426105 0.0666082 -0.811903 -0.57998
-0.113024 0.156625 0.374615 -0.0287661 0.176361 -0.983905
0.0258082 0.0832053 0.432732 0.00160758 0.0344637 0.999405
-0.17559 -0.227836 0.348998 0.0337796 -0.997906 0.0551598
-0.207164 0.105919 0.514652 0.985372 -0.163175 -0.0491552
0.209249 0.17403 0.243402 -0.999922 -0.00090982 -0.0124186
-0.223747 0.129768 0.434424 -0.999983 -0.0011375 0.00564556
-0.0340632 0.130619 0.373007 0 0 -1
0.0234888 -0.048818 0.437524 -3.98707e-05 0.0405073 0.999179
-0.192528 -0.228241 0.259194 -0.705911 -0.707519 0.033283
0.169137 0.182362 0.731437 0.139279 0.671633 -0.727674
0.14161 0.0253991 0.434776 -0.00092473 0.0344548 0.999406
-0.182857 0.106105 0.383882 -0.640778 -0.0549497 -0.765757
0.170443 -0.240246 0.0949493 -0.464837 -0.884088 0.0481254
-0.123834 0.216436 0.757014 0.0482258 -0.414415 0.908809
0.155318 0.031893 0.377817 0.178772 -0.0372952 -0.983183
-0.166301 -0.102882 0.38517 -0.405857 -0.0308509 -0.913416
0.11298 0.219574 0.757661 -0.056376 -0.492934 0.868238
0.00625203 0.139201 0.627867 -0.00818626 0.952895 -0.30319
0.0307214 0.131263 0.599936 0.0188558 0.969965 -0.242512
-0.216805 0.176158 0.282094 -0.311134 0.931631 0.187776
-0.00328961 -0.172426 0.384782 5.82518e-05 -0.058742 -0.998273
-0.0880169 -0.155241 0.441804 0.0012344 0.0249719 0.999687
-0.0822909 0.0169332 0.434983 -0.00162107 0.0376998 0.999288
-0.136407 -0.134024 0.441174 -4.152e-05 0.0422158 0.999108
-0.0979244 -0.23848 0.413974 -0.0353578 -0.999322 -0.0102621
-0.0292537 0.117853 0.518758 0.0633164 -0.976663 -0.205233
0.26038 0.0384874 0.583289 0.379119 -0.0284282 -0.924911
0.223272 0.135259 0.401993 0.986008 -0.16343 -0.032848
-0.0852343 -0.145978 0.383827 -0.00134648 -0.0302661 -0.999541
0.0192593 0.0272295 0.434676 0.00141401 0.0344571 0.999405
-0.17547 -0.215188 0.276393 -0.000756772 0.997906 -0.0646793
-0.0190297 -0.201843 0.439775 -0.00306057 -0.0994894 0.995034
-0.0996375 -0.173719 0.44228 0.0012344 0.0249719 0.999687
-0.068697 -0.172254 0.384796 -0.00127448 -0.0586646 -0.998277
-0.0914576 0.0976867 0.432113 -0.00582352 0.0410546 0.99914
-0.0663321 0.130888 0.604205 -0.0401342 0.966835 -0.25223
-0.223538 0.195015 0.1063 -0.697611 -0.699201 -0.156387
-0.157143 0.0191648 0.378306 -0.178675 -0.0376587 -0.983187
-0.214754 0.121215 0.405906 0.230769 -0.940136 -0.250778
0.225279 0.219701 0.0210147 0.999985 0.0017066 0.0051309
0.216551 0.140201 0.326005 0.309461 -0.925919 -0.216581
0.0848771 0.142131 0.460768 0.0927452 0.905627 0.41381
0.0485318 -0.149111 0.441628 -0.00151165 0.0294096 0.999566
-0.17199 -0.113759 0.439494 -0.195988 0.033595 0.980031
-0.165393 -0.0774461 0.383907 -0.405857 -0.0308516 -0.913416
0.179288 0.151339 0.379009 0.123858 0.610545 -0.782236
-0.131206 0.125129 0.488432 -0.151276 0.950549 0.271243
0.17021 0.159378 0.39244 0.203355 0.953803 -0.221149
0.074943 0.202997 0.733978 0.0804541 0.53512 -0.840936
0.133866 -0.0696951 0.438467 -4.27462e-05 0.042216 0.999109
0.167016 0.151811 0.720052 -0.229092 -0.840186 0.491532
0.160097 0.0934274 0.558063 -0.299032 -0.933483 0.197961
-0.058073 -0.0734115 0.438616 -4.15526e-05 0.0422159 0.999108
-0.191004 -0.0603006 0.419675 -0.989936 0.00365729 0.141466
-0.206737 0.125378 0.455181 0.985422 -0.163333 -0.0476038
0.166566 -0.189292 0.387724 0.235488 0.235927 -0.942806
-0.0843114 0.118981 0.607388 0.088149 -0.96146 0.260431
0.131646 -0.233358 0.40573 0.0736516 -0.92131 -0.381791
0.182823 -0.229869 0.0545677 0.445755 0.893033 -0.061598
0.208428 0.0865284 0.573174 -0.886844 -0.444331 -0.126796
-0.258225 -0.0283851 0.603377 -0.0711994 -6.89834e-05 0.997462
0.185911 0.0908485 0.504292 -0.436382 -0.875302 -0.208367
0.250926 0.0749888 0.603833 0 0 1
-0.0966766 -0.155842 0.384139 -0.00113396 -0.0302659 -0.999541
-0.111322 0.164129 0.698989 -0.148449 0.800003 -0.581342
0.180209 -0.23566 0.20298 -0.0354521 -0.997879 0.0545917
0.18039 0.164857 0.73534 -0.761942 -0.458352 0.457555
0.0900443 0.110877 0.373804 -0.0101131 -0.0712771 -0.997405
0.216584 0.0766642 0.588325 -0.43542 -0.873428 -0.21802
-0.144164 -0.021451 0.436347 -0.012974 0.0491042 0.998709
0.0894574 0.132489 0.482524 0.118986 0.959508 0.255318
-0.112418 0.0758929 0.375185 0.00461223 -0.0320635 -0.999475
-0.0491289 -0.224523 0.389235 0.000781259 -0.800029 -0.599961
-0.253366 0.0932491 0.603833 0 0 1
0.115656 -0.0332965 0.379224 4.76535e-05 -0.0499371 -0.998752
-0.211422 0.149036 0.407523 0.546797 0.822374 0.157206
0.194502 0.0708007 0.410641 0.110243 0.0552659 0.992367
-0.0890539 0.125635 0.507368 -0.115331 0.971843 0.205477
0.121226 -0.103954 0.439914 -4.27462e-05 0.042216 0.999109
-0.015193 0.136399 0.493414 -0.0435575 0.959433 0.278553
0.103946 0.134956 0.625976 0.0625641 0.945692 -0.318986
-0.0927022 0.134517 0.65892 0.0954756 -0.94102 0.324602
0.22058 0.0993381 0.523967 0.890576 -0.444021 -0.0985873
0.268419 -0.0721875 0.590305 0.552553 -0.0873885 -0.828884
-0.0169008 0.128524 0.523027 -0.0632031 0.974942 0.213291
0.0774626 0.148 0.435807 -0.117762 -0.770536 -0.626423
-0.206712 0.120124 0.473709 0.985422 -0.163333 -0.0476038
0.223093 0.161672 0.262642 0.926024 -0.369353 -0.0778281
-0.166522 -0.220415 0.258742 0.696803 0.715395 -0.0517268
-0.143211 -0.196727 0.385733 0.102236 -0.0728743 -0.992087
-0.0659861 0.194583 0.739386 0.0650246 -0.608899 0.790578
-0.093044 -0.0859936 0.439146 -4.15526e-05 0.0422159 0.999108
-0.179739 0.150668 0.689134 -0.221029 0.891177 -0.396168
0.222413 0.127364 0.418436 0.969055 -0.240952 -0.053611
-0.124739 0.109337 0.4316 0.0106108 0.00850552 0.999907
-0.267615 -0.0283849 0.587709 -0.554233 -0.0369024 -0.831544
-0.125229 -0.214271 0.387766 7.19489e-05 -0.0767146 -0.997053
-0.182765 -0.231353 0.289654 0.00113574 -0.998515 0.0544646
-0.190359 0.105032 0.454484 0.62088 -0.738717 -0.262309
0.114085 0.001172 0.4356 -0.00527372 0.0376965 0.999275
-0.145611 0.153326 0.687097 -0.106642 0.88627 -0.450725
0.0831828 -0.094712 0.439477 -0.00216976 0.0422135 0.999106
0.0343853 0.0113477 0.377971 -0.000570477 -0.0312675 -0.999511
0.206809 0.123942 0.456232 -0.985044 -0.165579 -0.0476738
0.123342 0.119847 0.515462 0.162762 0.975762 0.146277
0.122452 0.0660447 0.375455 -0.00157674 -0.0321653 -0.999481
-0.122051 0.139971 0.681566 0.143391 -0.868162 0.475114
-0.26843 0.0406062 0.586894 -0.701829 -0.0303303 -0.7117
0.00966254 0.123919 0.499021 -0.0599311 -0.953855 -0.294226
-0.183881 -0.225583 0.125903 -0.447352 0.892411 -0.0589809
-0.0414156 0.129348 0.593485 -0.0108399 0.970079 -0.242548
-0.0391067 0.0888301 0.432519 -0.00168777 0.0347263 0.999395
0.127033 0.188607 0.728874 0.103269 0.584319 -0.804927
0.162576 0.0906388 0.432313 0.00194875 0.0664717 0.997786
0.175198 0.106072 0.497044 -0.971628 -0.231588 -0.0480222
0.209744 0.0934936 0.537223 -0.696321 -0.697698 -0.168386
0.223379 0.123853 0.465525 0.986071 -0.16344 -0.0308292
0.2087 0.158241 0.359543 -0.292098 0.951078 0.100646
-0.0835142 0.137234 0.62913 -0.0645247 0.945085 -0.320392
0.221697 0.106932 0.500992 0.946745 -0.31469 -0.0681432
-0.0856088 0.124568 0.473938 0.113632 -0.901391 -0.41783
-0.177395 -0.139035 0.439586 -0.195708 0.0650265 0.978504
-0.136277 -0.0433278 0.379713 4.91098e-05 -0.0499371 -0.998752
0.180231 0.126035 0.6741 -0.288393 -0.879425 0.378737
0.0262045 0.056527 0.376059 -0.00103674 -0.0499564 -0.998751
0.0431602 0.240412 0.755192 0.0392048 0.799341 -0.599598
0.19023 0.0391807 0.412232 0.997859 0.0653986 0
0.122383 0.175453 0.71562 0.131551 0.71409 -0.687583
0.00640316 -0.0734737 0.438523 -3.98707e-05 0.0405073 0.999179
0.0282064 0.147408 0.369015 0.039742 -0.0623154 -0.997265
-0.0507779 0.167158 0.408295 -0.0615502 0.849714 0.523639
0.260094 0.0886615 0.581081 0.465987 0.0669725 -0.882253
0.0441483 0.168818 0.712302 -0.0784756 -0.802015 0.592126
-0.0672647 0.0197138 0.377694 0.000782244 -0.0323014 -0.999478
-0.151287 0.146534 0.374234 -0.0489405 0.16578 -0.984948
-0.165465 0.168066 0.738938 0.253675 -0.713389 0.653242
-0.215487 0.222393 0.0469691 0.438442 0.881906 0.173236
0.0995551 0.107 0.557041 -0.086842 -0.99561 -0.0349189
0.171652 -0.0580689 0.437609 0.104209 0.0489566 0.99335
-0.0848156 0.0388558 0.376866 5.32096e-05 -0.0512352 -0.998687
-0.153769 0.219321 0.762123 0.167966 -0.57655 0.799611
0.190596 0.129272 0.430562 0.784339 0.536509 0.311399
-0.0578559 0.127777 0.513085 -0.0920912 0.979714 0.177989
0.156093 -0.226344 0.392474 0.0513291 -0.983015 -0.176204
-0.211822 0.142233 0.329527 0.825072 -0.548588 -0.135305
-0.026918 0.139193 0.481959 -0.0435575 0.959433 0.278553
0.0729736 -0.227912 0.431351 0.0348856 -0.639746 0.767794
-0.143922 0.131286 0.666485 0.129529 -0.931865 0.338894
-0.180498 0.0975495 0.582134 0.844946 -0.518832 0.129919
-0.223308 0.157551 0.335977 -0.890593 0.443773 0.0995504
-0.0877372 0.143055 0.45811 -0.0882536 0.844954 0.527507
0.128 -0.228411 0.427445 0.0545871 -0.700546 0.711516
0.155889 0.137981 0.649635 0.0839174 0.931709 -0.353378
-0.0121484 -0.0806616 0.438839 0.00200243 0.0405092 0.999177
0.124183 0.195276 0.746014 -0.190506 -0.524803 0.829632
-0.168592 -0.240236 0.0582964 0.707488 -0.705874 0.0346661
-0.138946 -0.174738 0.442303 -0.0133585 0.0259862 0.999573
-0.112274 0.117802 0.612815 0.121319 -0.957202 0.262768
-0.180151 -0.235045 0.220806 0.0377586 -0.997776 0.0549257
0.110966 -0.132775 0.383441 -0.00212114 -0.0344783 -0.999403
-0.190378 -0.211478 0.379777 -0.616792 0.785316 -0.0533414
-0.0400933 0.158079 0.675278 -0.0207594 0.888948 -0.457537
0.145253 -0.0740388 0.381437 3.41602e-05 -0.0333087 -0.999445
0.160161 -0.231553 0.418904 0.112556 -0.93004 0.349794
0.0292739 0.109527 0.374135 -0.00111471 -0.0476399 -0.998864
-0.19107 -0.0330742 0.418511 -0.989936 0.00365729 0.141466
-0.00583993 -0.234317 0.426824 -0.0103437 -0.70596 0.708176
-0.21847 0.161493 0.235519 -0.307877 -0.926452 -0.216562
0.0384416 0.132528 0.501202 0.0413732 0.951703 0.304221
-0.0666098 0.126469 0.631254 0.0232543 -0.944633 0.327304
0.110663 0.12598 0.596161 0.0889589 0.95772 -0.273602
0.18038 0.172484 0.748314 -0.421172 -0.527521 0.737791
0.0949153 0.121692 0.620453 -0.0865792 -0.960719 0.263673
-0.100015 0.206415 0.737466 -0.0220923 0.369302 -0.929047
-0.192325 0.0224587 0.399426 -0.747187 -0.0221766 -0.664244
0.0803525 -0.0621347 0.438094 -0.00216976 0.0422135 0.999106
0.188318 -0.00270756 0.426801 0.894359 0.0120501 0.447187
0.0575833 0.233371 0.764226 -0.0242785 -0.618384 0.785501
-0.116912 -0.0771095 0.43877 -4.14121e-05 0.0422159 0.999109
-0.218924 0.121808 0.541243 -0.700622 0.69903 0.143129
0.170859 0.114027 0.375843 0.179912 -0.147817 -0.972513
0.234178 -0.00847613 0.590096 -0.890513 -0.0953546 -0.444854
0.0115438 -0.178847 0.38516 5.70149e-05 -0.0587425 -0.998273
-0.0128538 -0.0205888 0.436386 -4.15526e-05 0.0422159 0.999108
0.18466 -0.227155 0.346751 0.354608 -0.933654 0.050429
-0.0504588 -0.196244 0.386385 7.37365e-05 -0.0766413 -0.997059
0.182774 -0.112612 0.436028 0.446972 0.0312608 0.894001
0.0209845 -0.0259746 0.378976 2.54949e-05 -0.0256128 -0.999672
0.0241871 -0.239868 0.408016 0.032474 -0.961033 -0.27452
0.00314806 -0.0759814 0.381243 0.000960258 -0.0483295 -0.998831
-0.0969663 0.135811 0.471671 -0.114283 0.906615 0.406189
0.085651 -0.0235206 0.378932 2.60566e-05 -0.0262867 -0.999654
-0.13654 0.146035 0.419546 -0.10703 0.655796 0.747313
-0.180099 -0.106915 0.392468 -0.665614 -0.0259065 -0.745847
0.106124 0.148482 0.692266 -0.0953474 -0.871457 0.481115
-0.191692 -0.0948238 0.417261 -3.85345e-05 0.0338728 0.999426
-0.132932 0.10139 0.554065 0.203478 -0.978624 -0.029877
-0.158047 0.108538 0.541485 -0.234404 0.972139 0
-0.011835 -0.019563 0.378819 2.42659e-05 -0.0249734 -0.999688
0.205872 0.110332 0.522863 -0.98508 -0.165377 -0.0476222
-0.149777 0.102155 0.504903 0.288715 -0.923124 -0.25394
-0.0550893 0.120352 0.498606 0.111427 -0.950454 -0.290207
0.0774256 0.04004 0.376821 -0.00247365 -0.0517527 -0.998657
-0.146553 -0.12346 0.38309 0.00199435 -0.0333585 -0.999442
-0.148535 0.0701118 0.433082 0.0077692 0.0410672 0.999126
-0.214449 0.217729 0.00599296 0.698032 -0.696445 -0.166482
0.0472705 -0.214819 0.43827 0.00406136 -0.124065 0.992266
-0.129789 0.135119 0.636249 -0.135419 0.939672 -0.314132
0.223791 0.152413 0.333448 0.999987 0.000910089 0.00496248
0.026379 0.127147 0.430879 0.00422479 0.0905721 0.995881
-0.0258927 0.128262 0.632975 0.0335719 -0.944179 0.327718
0.0378485 -0.0559585 0.437815 -3.98707e-05 0.0405073 0.999179
0.195771 0.153444 0.73432 0.939796 -0.292005 0.177527
-0.155093 0.150292 0.712145 0.198198 -0.856867 0.475917
0.163383 -0.223195 0.3166 -0.705873 -0.707481 0.0348438
-0.0628254 0.229076 0.754345 0.0516197 -0.893127 0.446832
0.209804 0.185068 0.172987 -0.888115 -0.446083 -0.11073
0.121047 0.129755 0.613941 0.125509 0.953932 -0.27251
-0.123074 0.147546 0.695716 0.143314 -0.868195 0.475078
-0.168216 -0.22383 0.368809 0.466237 -0.883396 0.0472778
0.0999524 0.0736719 0.432906 0.00504765 0.036095 0.999336
0.185937 -0.24068 0.0831202 0.555198 -0.830593 0.0432482
-0.0281752 0.113693 0.571087 0.0212747 -0.994466 0.10288
0.168593 0.105977 0.535112 0.288803 0.944062 0.159187
-0.191905 -0.188964 0.42059 -0.164188 0.06288 0.984423
-0.177962 0.104436 0.618121 0.327684 -0.887874 0.322958
-0.0840372 0.15508 0.418385 -0.0900283 0.655516 0.749796
0.221282 0.114456 0.552914 0.925356 0.371027 0.0778093
-0.104825 0.126633 0.639579 0.0944291 -0.941309 0.324068
0.120076 0.130717 0.429784 0.044512 0.268688 0.962198
0.113602 -0.0147782 0.436156 -3.36961e-05 0.0344557 0.999406
-0.181206 0.126622 0.426107 0.813382 -0.54097 -0.213919
-0.209644 0.180537 0.204716 0.99995 0.000909845 -0.00996635
0.169761 -0.0214563 0.383933 0.406089 -0.0224163 -0.913559
0.137255 -0.141863 0.441483 0.0133083 0.026012 0.999573
0.0486509 -0.199993 0.386681 7.78156e-05 -0.0766364 -0.997059
0.053236 -0.185117 0.441464 -0.00719505 -0.0537233 0.99853
-0.0882551 0.0741193 0.432955 0.00445238 0.0322938 0.999469
0.247907 0.103442 0.598572 0.321812 0.847133 0.422851
0.178749 -0.155224 0.394638 0.666575 -0.0419146 -0.744258
0.123125 -0.0414819 0.437275 -4.12849e-05 0.0422157 0.999109
0.0885732 -0.0464847 0.379878 0.00193657 -0.0491191 -0.998791
0.055651 0.207882 0.748455 -0.0385055 -0.647206 0.761342
-0.181785 -0.232535 0.00860329 -0.00113491 0.997785 -0.0665184
0.219583 0.20067 0.159865 0.309404 0.931757 0.189995
0.083985 0.154841 0.675182 0.100936 0.889409 -0.445829
0.0433575 0.124007 0.5492 0.0892541 0.992566 0.0827407
-0.138072 -0.0171427 0.378778 2.439e-05 -0.0249734 -0.999688
-0.172749 0.110958 0.586378 -0.273267 0.909358 -0.313678
0.0104914 0.049357 0.433924 0.00160758 0.0344637 0.999405
0.050763 0.167751 0.426834 0.0785729 0.8201 0.5668
0.195093 0.120691 0.38938 0.448741 -0.893662 0.000254867
0.0487055 0.115972 0.373737 -0.00368184 -0.0712738 -0.99745
-0.20391 0.154833 0.378193 0.0750831 0.991431 0.106897
-0.0141729 -0.0454919 0.379763 4.69612e-05 -0.0483305 -0.998831
0.085217 0.135791 0.429714 -0.00335557 0.141463 0.989938
0.0170081 0.196441 0.72451 0.0526279 0.623864 -0.779759
0.127211 0.124204 0.494195 0.127039 0.953689 0.27265
0.192874 -0.220209 0.314147 0.947757 0.3176 -0.0297955
-0.254361 0.0598671 0.603746 0.00928547 -0.0415902 0.999092
-0.216575 0.168711 0.319424 -0.311134 0.931631 0.187776
0.192586 -0.223618 0.291812 0.948777 -0.315896 0.00570873
0.11292 0.169796 0.397204 0.161523 0.985509 0.0517881
-0.0038492 0.126045 0.541052 -0.0414275 0.991425 0.123936
-0.212012 0.178354 0.25685 0.89079 0.446536 0.0842547
0.0664711 -0.223682 0.388761 0.000104442 -0.110484 -0.993878
-0.13846 0.165752 0.395702 -0.167572 0.984101 0.0588617
-0.105374 -0.211347 0.438888 -0.0222561 -0.239974 0.970524
-0.145063 0.117046 0.627518 0.180651 -0.944382 0.274788
0.209355 0.110693 0.469829 -0.899304 -0.423894 -0.107548
0.191128 0.116415 0.417866 0.000547034 -0.961603 -0.274443
-0.0905714 0.141022 0.442461 0.109577 -0.834254 -0.540382
-0.221139 0.186431 0.133196 -0.437037 -0.876082 -0.203666
-0.248967 0.0476571 0.582346 -0.0302993 -0.106479 -0.993853
-0.132816 -0.232933 0.404506 -0.0997251 -0.838135 -0.536269
0.097831 0.183933 0.734549 -0.0847006 -0.601239 0.794568
0.0573951 0.172796 0.700954 0.0767999 0.81656 -0.572129
0.176842 0.133726 0.40958 0.866793 0.4965 -0.0464414
0.166591 -0.235963 0.122339 -0.705873 -0.707481 0.0348438
0.147782 0.124987 0.65211 -0.193693 -0.922014 0.33522
0.196511 0.117941 0.658753 1 0.000782217 7.15515e-05
0.0546312 -0.0188649 0.3788 0.000606864 -0.0256123 -0.999672
-0.120978 -0.175143 0.384946 0.00627528 -0.052897 -0.99858
-0.180137 -0.238732 0.15383 0.0377586 -0.997776 0.0549257
0.0544095 0.0613668 0.433444 0.00142196 0.034651 0.999398
-0.19013 0.111676 0.475299 -0.535377 0.790752 0.296787
-0.0133665 0.183515 0.710491 -0.048951 0.781447 -0.622049
-0.136119 0.141139 0.687944 0.143391 -0.868162 0.475114
0.172929 -0.214235 0.290614 -0.447428 0.89231 -0.0599317
0.0550104 0.132258 0.465753 -0.117008 -0.895994 -0.428373
0.145388 0.164782 0.707675 0.157483 0.73773 -0.656471
0.216298 0.0883597 0.550237 0.309746 -0.92678 -0.212451
-0.00814233 0.206785 0.746402 0.000644019 -0.650771 0.759274
0.0240246 0.17174 0.424453 0.0477774 0.851352 0.522415
-0.138535 0.166502 0.708469 -0.144902 0.762209 -0.630905
0.14085 -0.221237 0.432983 0.0726229 -0.624092 0.777969
0.154082 -0.0932682 0.439464 -4.13308e-05 0.042216 0.999109
-0.0208315 -0.152951 0.441668 -2.9041e-05 0.029411 0.999567
0.25971 -0.00705853 0.60327 0.0714386 0.00122098 0.997444
0.0388678 -0.240973 0.417198 0.0166975 -0.989537 -0.143313
-0.0301542 0.113423 0.431613 -0.00255543 0.0525785 0.998613
0.222428 0.138086 0.366071 0.891222 -0.444725 -0.0891209
0.165028 -0.232275 0.141118 -0.9999 -0.00075828 -0.0140957
-0.00272497 -0.109377 0.382536 -0.000606905 -0.0338922 -0.999425
