0.0808604 0.184063 0.692155 0.00174928 -0.963762 0.266757
0.189486 0.260377 0.00870425 0.0207424 0.036142 -0.999131
-0.0243807 0.0659971 0.426634 0.0014503 0.120279 0.992739
-0.0414986 -0.0197973 0.347339 -0.0470849 -0.0713544 -0.996339
-0.236574 -0.204693 0.325409 -0.734561 -0.676902 0.047162
-0.175611 -0.0852489 0.375771 -0.382919 -0.000687959 0.923782
-0.0618758 0.206477 0.461708 -0.001762 0.988782 -0.149355
0.0470547 0.205482 0.453817 -0.00181662 0.988782 -0.149355
-0.0374084 0.148662 0.378272 -0.000662425 0.382455 0.923974
-0.195386 0.237137 0.718938 -0.764071 0.634304 -0.117703
0.223992 -0.20767 0.286801 -0.675841 -0.735264 0.0512449
-0.0960745 0.145017 0.493228 0.00175635 -0.999374 0.0353232
0.116225 -0.235992 0.370169 0.0505107 -0.0396618 -0.997936
-0.0463765 0.196466 0.737799 0.00175313 -0.963763 0.266755
-0.139534 -0.201195 0.451079 0.0321003 0.0269668 0.999121
-0.179333 0.164003 0.619384 -0.14266 -0.953933 0.263931
0.0483996 0.146819 0.537055 0.00175042 -0.999374 0.035323
-0.0861541 -0.278368 0.404466 0.00213187 -0.999939 0.0108783
0.0707 -0.203453 0.366577 0.050958 -0.0386223 -0.997954
-0.205713 0.104045 0.391991 -0.999159 0.0409662 -0.00198892
-0.186317 0.185323 0.346747 -0.172853 0.934594 -0.310895
-0.109986 0.0270258 0.43148 0.00145778 0.120272 0.99274
-0.101926 -0.11298 0.352784 -0.0339322 0.0304776 -0.998959
-0.221391 -0.102587 0.000815028 -2.74492e-05 -0.000504523 -1
0.0579031 0.0825026 0.424707 -0.00187744 0.120273 0.992739
-0.205166 0.0523721 0.409456 -0.898223 0.0856181 0.43112
0.0659339 0.218674 0.540926 -0.00181662 0.988782 -0.149355
-0.17986 -0.154169 0.354174 -0.0339322 0.0304776 -0.998959
0.163845 0.134541 0.362852 0.769464 0.511677 -0.382246
0.0932221 -0.184758 0.367003 0.050958 -0.0386223 -0.997954
0.106476 0.144723 0.474858 0.00175042 -0.999374 0.035323
0.127188 0.271119 0.0275052 -0.00116057 0.688542 0.725196
0.237647 -0.0575204 0.0225821 0.997003 0.0210145 0.0744551
-0.0606866 -0.138682 0.446613 0.0320843 0.0331749 0.998934
-0.0077882 0.144987 0.487994 0.00175635 -0.999374 0.0353232
-0.192698 0.0186449 0.356441 -0.0787855 -0.108315 -0.99099
-0.233642 0.00300357 0.0126201 -0.757931 0.0133464 -0.652198
0.186813 -0.0538255 0.441466 -0.00186986 0.120266 0.99274
-0.220581 0.0965755 0.00831955 -0.0752255 0.00135163 -0.997166
0.000969902 0.109746 0.340173 0.0469638 -0.0482745 -0.997729
-0.129271 0.154414 0.37398 -0.306114 0.871839 0.382349
0.0553569 -0.272362 0.430677 -0.016881 -0.835991 0.548483
0.15896 -0.148545 0.353273 0.0454961 0.0310123 -0.998483
0.149312 0.136486 0.348344 -0.00120145 0.960097 -0.279666
0.218807 0.0900409 0.574778 -0.739783 -0.0372653 -0.671813
0.203645 0.0663871 0.410663 0.897785 0.0868036 0.431796
-0.123498 0.204538 0.449593 -0.00175445 0.988781 -0.149362
0.0121663 -0.0791533 0.442691 -0.0017542 0.0331331 0.999449
0.234474 -0.142289 0.0284503 0.65241 0.0137505 0.757742
0.114738 0.247545 0.749059 -0.00170858 0.995231 0.0975319
-7.45091e-05 0.253737 0.0219367 0.00174314 -0.999682 -0.0251564
-0.200619 -0.0367126 0.4323 -0.599629 0.117897 0.791546
0.0472264 0.022302 0.346581 0.0469638 -0.0482745 -0.997729
0.147853 0.146964 0.536205 0.00175042 -0.999374 0.035323
-0.174369 -0.150537 0.449849 0.00152995 0.0841522 0.996452
0.191876 -0.0701261 0.362491 0.503297 0.0439324 -0.862996
-0.00178637 -0.232201 0.364304 -0.0508192 -0.0398377 -0.997913
-0.218804 0.0442201 0.576613 0.73473 -0.0346917 -0.677472
0.24172 0.0240265 0.597651 0.734619 -0.0203124 0.678175
-0.00681797 0.207157 0.465557 -0.001762 0.988782 -0.149355
-0.177927 0.106883 0.421905 0.00145778 0.120272 0.99274
-0.077392 0.274079 0.0141589 -0.00126823 0.724122 -0.68967
0.0524311 0.169834 0.640933 0.00174768 -0.963763 0.266755
0.0890129 0.120384 0.341696 0.0223901 -0.0722327 -0.997136
-0.175586 0.221615 0.563703 -0.00176023 0.98949 -0.144588
-0.193915 -0.21131 0.373223 -0.0503755 -0.0388096 -0.997976
-0.222075 -0.0289262 0.578876 0.706851 0.0370032 -0.706394
-0.111251 0.136632 0.350344 -0.00214709 0.960036 -0.27987
-0.00493905 0.189549 0.712536 0.00175313 -0.963763 0.266755
-0.119651 0.237289 0.771313 8.85728e-05 0.0696112 0.997574
0.186413 0.232362 0.653181 0.354688 0.923508 -0.146047
0.1525 0.10034 0.422725 -0.00186986 0.120266 0.99274
0.15984 0.169331 0.638409 0.00174928 -0.963762 0.266757
0.0172176 0.00648674 0.433839 -0.00187744 0.120273 0.992739
0.220328 0.0997494 0.00835508 -0.65294 -0.0137654 -0.757285
0.201558 -0.110191 0.440963 0.605309 0.0801734 0.791942
0.187434 -0.188392 0.371954 0.050958 -0.0386223 -0.997954
-0.101074 0.215505 0.521937 -0.00175445 0.988781 -0.149362
0.240458 -0.210976 0.074603 0.739349 -0.653782 -0.161034
0.0660672 0.199844 0.416266 -0.00176202 0.988775 -0.149404
-0.0286686 0.246686 0.755317 -0.00171924 0.99523 0.097537
0.169254 0.197958 0.402566 -0.00176202 0.988775 -0.149404
0.0469755 0.140237 0.381252 -0.00165823 0.998806 -0.0488338
-0.0834264 -0.217914 0.449732 0.031962 0.0273652 0.999114
-0.0686489 0.163093 0.617373 0.00175466 -0.963762 0.266757
-0.122638 0.191805 0.721459 0.00175313 -0.963763 0.266755
0.21304 -0.122388 0.391668 0.955086 0.0165134 -0.295867
0.0601132 -0.026189 0.437879 -0.00186986 0.120266 0.99274
0.0540439 0.239815 0.685458 -0.00176202 0.989489 -0.144593
0.106075 0.0200341 0.432366 -0.00186986 0.120266 0.99274
0.233838 -0.0179478 0.576535 -8.57555e-05 0.0500239 -0.998748
-0.107827 0.235655 0.658963 -0.00176023 0.98949 -0.144588
0.0445194 0.197089 0.739453 0.00174928 -0.963762 0.266757
-0.0764519 0.23725 0.669491 -0.00176023 0.98949 -0.144588
0.107477 0.153683 0.582218 0.00174768 -0.963763 0.266755
-0.168669 0.232527 0.638298 -0.00176023 0.98949 -0.144588
-0.173161 -0.0775242 0.443682 0.00152995 0.0841522 0.996452
-0.1593 0.0620348 0.37154 0.923914 0.00156463 0.382596
-0.0930982 0.147973 0.562904 0.00175466 -0.963762 0.266757
-0.0169807 0.217449 0.533817 -0.00175445 0.988781 -0.149362
-0.00951585 -0.219729 0.447417 0.031962 0.0273652 0.999114
-0.146933 0.244724 0.721497 -0.00176023 0.98949 -0.144588
0.21969 -0.0992894 0.5661 -0.999895 -0.00704621 0.0126323
-0.0799609 0.0441025 0.345056 -0.0216393 -0.0484365 -0.998592
-0.202296 0.178584 0.397531 -0.998113 -0.0611297 0.00587486
0.197262 0.209179 0.561854 0.869695 0.485438 -0.0893323
-0.00946875 0.150735 0.572336 0.00175313 -0.963763 0.266755
-0.178748 0.143507 0.435285 -0.211511 -0.976766 0.034506
-0.0547764 -0.0965403 0.350879 -0.0459539 0.00943421 -0.998899
0.18733 0.211383 0.521407 0.354701 0.924512 -0.139514
-0.176506 -0.265116 0.444644 0.0297618 -0.419199 0.907406
0.0780951 0.151273 0.573703 0.00174768 -0.963763 0.266755
-0.243599 0.118343 0.598163 -0.740023 -0.0228506 0.672193
0.12302 0.216805 0.527857 -0.00181662 0.988782 -0.149355
-0.179179 0.203325 0.447095 -0.206414 0.967474 -0.146245
-0.142032 -0.0813737 0.355036 -0.0459539 0.00943421 -0.998899
0.239501 0.184586 0.604964 0.739694 -0.0206033 0.672628
0.211406 0.18833 0.020946 -0.99701 -0.0209939 -0.0743703
0.0204658 -0.275404 0.387347 0.0137235 -0.974916 -0.222148
-0.152455 0.145145 0.499719 0.00180752 -0.999373 0.0353685
0.21989 -0.159189 0.504506 -0.99959 -0.0254123 0.0132234
0.181809 -0.00257715 0.352783 0.0620422 -0.0705534 -0.995577
0.108591 0.257523 0.0112525 0.00119908 -0.689053 -0.72471
0.101832 -0.188452 0.449493 -0.0321934 0.0272518 0.99911
0.201371 0.166199 0.427779 0.998345 -0.0572924 0.00496745
0.180804 0.00363275 0.434494 -0.00186986 0.120266 0.99274
0.0162312 0.143381 0.441373 0.00175059 -0.999374 0.0353232
-0.22838 -0.164961 0.00173758 0.0111917 -0.15323 -0.988127
0.149136 -0.220219 0.371231 0.050958 -0.0386223 -0.997954
0.210951 -0.0481708 0.388802 0.957296 0.0153735 -0.288701
0.10706 -0.118617 0.444411 -0.0321964 0.0833842 0.995997
-0.0108714 -0.108488 0.44401 0.0320843 0.0331749 0.998934
-0.237497 -0.0901341 0.577102 -0.712087 -0.323599 0.62307
0.176581 -0.265969 0.375589 0.0286287 -0.84427 -0.535153
-0.0536838 -0.242067 0.367341 -0.0503755 -0.0388096 -0.997976
-0.0969463 0.224187 0.580346 -0.00175468 0.98949 -0.144593
-0.0073075 0.2328 0.6382 -0.00175468 0.98949 -0.144593
-0.123209 -0.172066 0.359026 -0.0268608 -0.833128 -0.552428
-0.0371725 0.241636 0.699029 -0.00175468 0.98949 -0.144593
-0.147764 0.214834 0.518038 -0.00175445 0.988781 -0.149362
-0.053393 0.154445 0.586028 0.00175466 -0.963762 0.266757
-0.119973 0.193306 0.375197 -0.001762 0.988782 -0.149355
-0.134343 0.260482 0.0296091 4.54228e-05 -0.0250977 0.999685
-0.153329 0.202754 0.760288 0.00174788 -0.957656 0.28791
0.177077 -0.187013 0.451878 -0.0320571 0.0268595 0.999125
0.116471 -0.257242 0.445957 -0.0297099 -0.418775 0.907604
-0.0446072 -0.231496 0.448862 0.031962 0.0273652 0.999114
-0.0461645 0.191162 0.360131 -0.001762 0.988782 -0.149355
-0.125634 0.180742 0.681511 0.00175466 -0.963762 0.266757
0.110534 -0.0793478 0.44287 -0.0017542 0.0331331 0.999449
-0.0811938 0.0135215 0.433074 0.0014503 0.120279 0.992739
0.130988 0.231219 0.625676 -0.0018167 0.989497 -0.144544
-0.00794362 0.141033 0.393145 -0.00190904 0.994155 -0.107946
-0.214032 -0.16018 0.427236 -0.899439 0.0597608 0.432941
0.139659 0.141252 0.393012 -0.00155694 0.994149 -0.108003
-0.213302 -0.0816883 0.410309 -0.999283 0.037829 -0.00164268
0.140584 -0.117215 0.353409 0.0454961 0.0310123 -0.998483
0.184602 0.183842 0.684442 0.146096 -0.954707 0.259212
0.200765 0.159997 0.477983 0.998345 -0.0572924 0.00496745
0.218114 -0.21574 0.402705 0.952395 0.018221 -0.304322
0.169434 0.0213863 0.378614 -0.382585 -0.000668421 0.92392
0.0294126 -0.107791 0.349206 0.0338789 0.00957771 -0.99938
-0.147363 0.152887 0.581016 0.00175466 -0.963762 0.266757
-0.208871 0.0271126 0.393938 -0.999159 0.0409662 -0.00198892
0.171569 0.243599 0.709912 -0.0018167 0.989497 -0.144544
0.0867804 0.140775 0.410077 -0.00231695 0.894015 0.448032
-0.057142 0.144213 0.468556 0.00175635 -0.999374 0.0353232
-0.0562308 0.226475 0.595511 -0.00175468 0.98949 -0.144593
-0.154209 0.034761 0.430608 0.00145778 0.120272 0.99274
-0.219318 0.202972 0.606662 0.0922523 0.89722 0.43184
0.179395 -0.244791 0.453505 -0.0320571 0.0268595 0.999125
-0.201492 0.201864 0.676024 -0.996829 -0.0774062 0.0184367
-0.191876 0.11302 0.348266 -0.752614 -0.0457344 -0.656871
-0.218325 -0.202897 0.210893 0.999241 -0.0388407 0.00283697
-0.0314876 0.149633 0.339034 -0.000132545 -0.0672387 -0.997737
-0.212498 -0.17386 0.356316 0.300479 -0.237184 -0.923827
0.010792 -0.186353 0.446503 -0.0321934 0.0272518 0.99911
0.240762 0.139233 0.572264 0.74438 -0.0222033 -0.667387
0.0909025 0.161347 0.338228 -0.000144097 -0.0672387 -0.997737
0.0962177 0.206934 0.462834 -0.00181662 0.988782 -0.149355
0.08294 -0.00211092 0.349444 0.0469638 -0.0482745 -0.997729
-0.0516077 0.0653929 0.426746 0.0014503 0.120279 0.992739
-0.105676 0.199829 0.418211 -0.001762 0.988782 -0.149355
0.0570731 0.211955 0.49655 -0.00181662 0.988782 -0.149355
0.0108116 0.0352939 0.344239 0.0469638 -0.0482745 -0.997729
0.214328 -0.166522 0.393362 0.955086 0.0165134 -0.295867
-0.160805 0.192558 0.370728 -0.001762 0.988782 -0.149355
0.115988 0.196194 0.391518 -0.00176202 0.988775 -0.149404
-0.0350907 0.200343 0.420781 -0.001762 0.988782 -0.149355
-0.071695 -0.0383561 0.439346 0.0014503 0.120279 0.992739
0.158218 0.0586119 0.367723 -0.924008 -0.00162015 0.382369
-0.0990209 -0.0171613 0.349868 -0.0470849 -0.0713544 -0.996339
-0.230914 -0.219558 0.0825921 -0.0443477 -0.998598 -0.0289111
0.0947002 -0.149056 0.351024 0.0338789 0.00957771 -0.99938
0.221114 -0.1574 0.000699892 0.0064886 -0.11837 -0.992948
-0.215955 -0.211474 0.400607 -0.955214 0.0152007 -0.295526
0.200734 0.168052 0.563187 0.998733 -0.0486885 0.0126924
-0.163245 0.0293433 0.37631 0.382538 0.000667518 0.92394
0.201507 0.200194 0.625655 0.998733 -0.0486885 0.0126924
-0.160571 0.141397 0.394215 0.00180752 -0.999373 0.0353685
-0.0281848 0.193692 0.376668 -0.001762 0.988782 -0.149355
-0.224457 0.17772 0.00871123 -0.073188 0.00126412 -0.997317
-0.0466383 0.222406 0.567553 -0.00175468 0.98949 -0.144593
0.219834 -0.175574 0.356563 0.299431 0.238065 -0.92394
0.00841602 0.171894 0.648662 0.00174768 -0.963763 0.266755
-0.141261 -0.0395708 0.439595 0.0014503 0.120279 0.992739
0.132062 0.15464 0.372991 0.130803 0.914411 0.383072
-0.121766 0.0687194 0.426446 0.00145778 0.120272 0.99274
0.113188 0.0498078 0.347352 0.0223901 -0.0722327 -0.997136
-0.185131 -0.127174 0.357685 -0.76786 0.0444424 -0.639074
-0.178809 -0.0600628 0.363976 -0.923946 -0.00165998 -0.382519
0.144206 0.238537 0.770339 -0.00114681 0.756399 0.65411
-0.106469 -0.266447 0.441612 0.0310192 -0.429472 0.902547
0.142082 -0.0191525 0.352996 0.0223901 -0.0722327 -0.997136
-0.207755 -0.133744 0.436387 -0.889681 0.0641882 0.452049
0.0536249 0.144762 0.478597 0.00175059 -0.999374 0.0353232
-0.119992 0.0459045 0.346343 -0.0470849 -0.0713544 -0.996339
-0.143665 -0.263645 0.372722 -0.0503755 -0.0388096 -0.997976
0.0269436 0.192595 0.368753 -0.00176202 0.988775 -0.149404
-0.218418 -0.209013 0.147995 0.999199 -0.0399803 0.00176572
0.0472488 -0.119426 0.444088 -0.0017542 0.0331331 0.999449
0.0534861 0.0571966 0.345188 0.0469638 -0.0482745 -0.997729
0.177481 0.142915 0.412597 0.146056 -0.988657 0.0349872
-0.202155 0.184297 0.480967 -0.998113 -0.0611297 0.00587486
-0.0881626 0.142055 0.409118 0.00180752 -0.999373 0.0353685
0.0252993 -0.06173 0.442119 -0.00186986 0.120266 0.99274
-0.17427 -0.00568953 0.376386 -0.382919 -0.000687959 0.923782
-0.142872 0.237053 0.668954 -0.00176023 0.98949 -0.144588
0.130166 0.24455 0.716934 -0.00176202 0.989489 -0.144593
0.0477091 -0.237393 0.449081 -0.0320571 0.0268595 0.999125
-0.245332 0.0255331 0.586308 -0.962517 -0.0224118 -0.270293
-0.13953 0.165521 0.337979 -0.000144006 -0.0671726 -0.997741
-0.0664199 0.116592 0.420565 0.00145778 0.120272 0.99274
0.211125 -0.25643 0.440246 0.858533 -0.186588 0.477605
-0.182254 0.187186 0.701595 -0.14266 -0.953933 0.263931
0.026462 0.0994825 0.42259 -0.00187744 0.120273 0.992739
0.145705 0.0493804 0.428885 -0.00186986 0.120266 0.99274
-0.194606 -0.277652 0.414171 -0.232763 -0.972456 0.0123143
-0.233428 0.143645 0.569136 -0.212458 -0.0287628 -0.976747
-0.162419 0.143851 0.463665 0.00180752 -0.999373 0.0353685
-0.145694 0.114904 0.343046 -0.0216393 -0.0484365 -0.998592
0.103089 -0.0900603 0.352544 0.0454961 0.0310123 -0.998483
0.134142 0.145311 0.490131 0.00175042 -0.999374 0.035323
0.0967911 0.174234 0.656539 0.00174928 -0.963762 0.266757
0.209141 0.0352605 0.387279 0.999009 0.0444562 -0.00193179
-0.0488529 0.183186 0.689837 0.00175313 -0.963763 0.266755
-0.133712 -0.13462 0.448443 0.00152995 0.0841522 0.996452
-0.210554 0.152188 0.592485 0.960597 -0.0359645 0.275607
-0.201126 0.0048563 0.42615 -0.530644 0.114865 0.839775
-0.147571 0.26382 0.000759043 0 0 -1
-0.0983338 0.0954948 0.342961 -0.0216393 -0.0484365 -0.998592
-0.0256718 -0.0326693 0.43859 0.0014503 0.120279 0.992739
0.0182498 -0.0329594 0.347891 0.0469638 -0.0482745 -0.997729
-0.234826 -0.185431 0.460218 -0.731793 -0.636939 0.24246
0.00506607 0.146787 0.538271 0.00175059 -0.999374 0.0353232
0.0414017 -0.176704 0.362537 0.0335704 -0.776573 -0.629133
-0.239126 -0.181277 0.033442 -0.998107 0.0465583 0.0401833
0.194399 0.196002 0.428847 0.869789 0.489079 -0.0653365
-0.0122651 0.152088 0.357552 -0.000666645 0.382551 -0.923934
0.147661 -0.24751 0.372218 0.0505107 -0.0396618 -0.997936
-0.0462288 0.100814 0.422447 0.00145778 0.120272 0.99274
-0.0654766 -0.16764 0.351283 -0.0200634 -0.776892 -0.629314
-0.0123902 0.00605566 0.345437 -0.0216393 -0.0484365 -0.998592
0.00747505 0.147737 0.339157 -0.000144097 -0.0672387 -0.997737
0.181518 0.154381 0.340278 0.260933 -0.0644416 -0.963204
0.102551 -0.0384636 0.352126 0.0469638 -0.0482745 -0.997729
-0.0133937 0.274995 0.015896 -0.00175104 0.999683 0.02513
-0.100068 -0.141088 0.447958 0.0320843 0.0331749 0.998934
0.237657 -0.2163 0.137215 0.737306 -0.674847 0.0310141
0.158413 -0.0834455 0.366833 -0.923885 -0.00161993 -0.382666
0.154986 0.238564 0.675655 -0.0018167 0.989497 -0.144544
-0.174599 0.146821 0.548182 0.00180752 -0.999373 0.0353685
-0.231287 -0.08486 0.0292715 -0.653038 0.0114853 0.757238
-0.0832741 0.247173 0.749379 -0.00171924 0.99523 0.097537
-0.197761 0.220474 0.759794 -0.709395 0.0276489 0.704268
0.0356624 0.222757 0.772312 0.000140096 0.0696113 0.997574
0.173814 0.159641 0.603308 0.00174928 -0.963762 0.266757
0.149855 -0.119182 0.445842 -0.0321964 0.0833842 0.995997
0.0510923 -0.177418 0.447525 -0.0321964 0.0833842 0.995997
0.220027 0.0981807 0.603353 -0.744364 -0.037629 0.666713
-0.195048 0.217776 0.594158 -0.871398 0.484469 -0.0771659
0.0762543 0.24609 0.761487 -0.0011503 0.756368 0.654146
0.0240909 0.236173 0.660905 -0.00176202 0.989489 -0.144593
-0.202214 0.188883 0.518521 -0.998113 -0.0611297 0.00587486
0.064642 0.244947 0.720453 -0.00176202 0.989489 -0.144593
-0.051183 0.211836 0.49706 -0.00175445 0.988781 -0.149362
-0.223332 0.080315 0.571798 0.243248 -0.0319104 -0.969439
-0.184388 -0.229288 0.453278 0.0321003 0.0269668 0.999121
-0.0398958 -0.268537 0.436267 0.0196752 -0.838405 0.544692
-0.0667463 0.137204 0.351964 -0.00214709 0.960036 -0.27987
0.218172 -0.251627 0.400737 0.952395 0.018221 -0.304322
0.155991 0.206836 0.461479 -0.00176202 0.988775 -0.149404
-0.207799 0.218052 0.022168 0.935673 -0.346199 -0.0682831
-0.0606144 -0.205392 0.36623 -0.0508192 -0.0398377 -0.997913
0.199422 -0.165313 0.448272 0.610844 0.0809886 0.787598
-0.0267388 0.0237103 0.43176 0.0014503 0.120279 0.992739
0.231457 0.0353636 0.0100434 0.75751 0.0159803 -0.652628
-0.211785 -0.224757 0.437422 -0.900683 0.028067 0.433569
0.00832592 0.0764009 0.425352 -0.00187744 0.120273 0.992739
0.0940123 0.0994724 0.422719 -0.00187744 0.120273 0.992739
0.214968 -0.0968997 0.408838 0.999127 0.0417415 -0.00169259
0.0284499 0.226416 0.594081 -0.00176202 0.989489 -0.144593
0.187595 0.0646683 0.348881 0.484566 -0.0781155 -0.87126
0.0719186 0.157144 0.372634 -0.00161632 0.923955 0.382497
0.226467 -0.195283 0.193655 -0.0436413 0.996622 -0.0695702
0.233431 -0.0465655 0.573553 -0.00345303 0.156315 -0.987701
-0.0215508 -0.0787745 0.349518 -0.0459539 0.00943421 -0.998899
-0.0380028 0.206338 0.765174 0.0013965 -0.694092 0.719885
0.102336 0.197417 0.74026 0.00174928 -0.963762 0.266757
0.143196 -0.0450335 0.440319 -0.00186986 0.120266 0.99274
0.0528905 -0.14439 0.349651 0.0338789 0.00957771 -0.99938
0.211903 0.175684 0.598661 -0.738647 -0.0371882 0.673066
0.066305 0.22727 0.599455 -0.0018167 0.989497 -0.144544
0.0989305 0.221192 0.557437 -0.0018167 0.989497 -0.144544
-0.166379 -0.00479662 0.356792 0.382634 0.000666496 -0.9239
0.207281 0.0766196 0.377028 0.999009 0.0444562 -0.00193179
0.0281617 0.215766 0.522134 -0.00181662 0.988782 -0.149355
-0.228004 0.0839187 0.0295427 -0.653038 0.0114853 0.757238
-0.102035 0.11041 0.421366 0.00145778 0.120272 0.99274
-0.133494 -0.188604 0.369271 -0.0508192 -0.0398377 -0.997913
0.164612 0.274775 0.0166455 0.0922408 0.995417 0.0252493
-0.0831138 0.202469 0.435426 -0.001762 0.988782 -0.149355
-0.16192 -0.178182 0.451176 0.0320843 0.0331749 0.998934
-0.199438 -0.0770267 0.369361 -0.697458 -0.0314012 -0.715937
0.102995 0.0884196 0.344326 0.0223901 -0.0722327 -0.997136
-0.112355 -0.248383 0.370548 -0.0503755 -0.0388096 -0.997976
-0.218492 -0.159629 0.497078 0.999523 -0.0264588 0.0159314
0.219983 -0.190432 0.416394 -0.999265 -0.0374854 0.00794882
0.0111624 0.242654 0.765346 -0.00114681 0.756399 0.65411
0.0970138 -0.22745 0.368857 0.0505107 -0.0396618 -0.997936
-0.147284 0.165283 0.6258 0.00175466 -0.963762 0.266757
0.137495 0.195174 0.731926 0.00174928 -0.963762 0.266757
-0.0154106 0.0794762 0.341941 -0.0216393 -0.0484365 -0.998592
-0.199803 0.183073 0.642034 -0.757587 -0.633835 0.155933
0.205018 0.127534 0.377276 0.999013 0.0443572 -0.00233314
0.145801 0.123973 0.369158 -0.599881 -0.702623 0.382706
0.174073 0.146114 0.51088 0.00175042 -0.999374 0.035323
0.117905 0.1119 0.421259 -0.00187744 0.120273 0.992739
0.190393 -0.162209 0.359347 0.751015 -0.00917648 -0.660221
0.0111939 -0.200096 0.363426 0.0505107 -0.0396618 -0.997936
-0.0111855 -0.278259 0.399805 0.00213187 -0.999939 0.0108783
0.160782 0.187531 0.704159 0.00174928 -0.963762 0.266757
-0.214086 -0.244076 0.393233 -0.952615 0.0124035 -0.303926
0.213732 0.0540918 0.58873 -0.960458 -0.039514 0.275605
0.183276 0.149306 0.554037 0.215811 -0.97564 0.0393976
-0.0429044 0.142239 0.412 0.00175635 -0.999374 0.0353232
-0.0890338 0.196045 0.392967 -0.001762 0.988782 -0.149355
0.216467 -0.0414758 0.0231303 -0.757349 -0.015966 0.652815
0.220708 -0.213879 0.0887143 -0.673346 -0.739042 -0.0205497
0.153519 0.0320381 0.349544 0.0223901 -0.0722327 -0.997136
-0.0374029 0.208006 0.471539 -0.001762 0.988782 -0.149355
0.0251971 0.142216 0.403538 -0.00155118 0.994156 -0.107946
0.211436 -0.0154254 0.407502 0.999013 0.0443572 -0.00233314
0.197069 -0.0313015 0.363192 0.697635 -0.0518606 -0.714574
-0.20095 0.16619 0.528822 -0.998547 -0.0537509 0.00392749
0.201668 0.212662 0.674086 0.997086 -0.0749163 0.0143665
0.217538 0.177509 0.571323 -0.739783 -0.0372653 -0.671813
-0.20906 -0.156127 0.382204 -0.697458 -0.0314012 -0.715937
-0.156446 0.185036 0.697225 0.00175466 -0.963762 0.266757
-0.15571 -0.238873 0.452618 0.031962 0.0273652 0.999114
0.201274 0.220763 0.743652 0.997086 -0.0749163 0.0143665
0.0218545 0.144692 0.478183 0.00175059 -0.999374 0.0353232
-0.096497 0.199772 0.750026 0.00174788 -0.957656 0.28791
-0.11518 0.232265 0.635849 -0.00176023 0.98949 -0.144588
-0.138363 0.22355 0.576494 -0.00175468 0.98949 -0.144593
0.220035 -0.245311 0.422302 0.999681 0.025232 0.0013098
-0.157719 -0.238886 0.372468 -0.0503755 -0.0388096 -0.997976
-0.245469 0.204113 0.582141 -0.431899 0.893488 -0.12305
-0.223229 -0.0224207 0.0295406 0.0742279 -0.00130441 0.99724
-0.179793 0.0746894 0.368654 -0.923956 -0.00166 0.382495
0.0280272 0.275035 0.0171789 -0.00175226 0.999683 0.02513
-0.0991875 0.146444 0.533754 0.00175635 -0.999374 0.0353232
0.20057 0.203875 0.713523 0.998733 -0.0486885 0.0126924
0.219706 -0.194713 0.309504 -0.999102 -0.0422825 0.00282734
0.229267 0.181805 0.0110868 0.75751 0.0159803 -0.652628
0.0438365 0.117034 0.340925 0.0223901 -0.0722327 -0.997136
0.0336235 -0.277667 0.421896 -0.0162643 -0.838389 0.544829
0.0271247 0.243021 0.707727 -0.00176202 0.989489 -0.144593
-0.168637 -0.111839 0.446573 0.00152995 0.0841522 0.996452
0.115636 0.137248 0.351104 -0.00120145 0.960097 -0.279666
-0.19115 0.0850107 0.42149 -0.530644 0.114865 0.839775
0.174859 0.192877 0.368874 -0.00176202 0.988775 -0.149404
-0.162491 0.0871491 0.345397 -0.0470849 -0.0713544 -0.996339
0.220554 -0.196586 0.254183 -0.736411 0.674885 -0.0472059
0.167227 -0.0202878 0.437366 -0.00186986 0.120266 0.99274
0.205462 -0.0992547 0.374497 0.697427 -0.0143017 -0.716513
-0.183064 0.213612 0.526405 -0.357598 0.925528 -0.124587
-0.117584 -0.0653015 0.442564 0.00152995 0.0841522 0.996452
0.0867754 0.232215 0.633051 -0.0018167 0.989497 -0.144544
0.247334 0.0936626 0.586513 0.961259 -0.0190322 -0.274989
-0.166333 0.03881 0.349041 -0.0470849 -0.0713544 -0.996339
0.236267 0.00125937 0.600932 0.222646 -0.412679 0.883246
0.218724 -0.00428681 0.0266573 -0.757349 -0.015966 0.652815
-0.059679 0.0121956 0.346164 -0.0216393 -0.0484365 -0.998592
0.131029 -0.275445 0.394337 0.0135443 -0.975161 -0.221084
0.223031 -0.0423533 0.592836 -0.706697 -0.112012 0.698593
-0.192995 0.12773 0.414481 -0.530644 0.114865 0.839775
0.122614 0.207936 0.469156 -0.00176202 0.988775 -0.149404
-0.134607 0.227397 0.602773 -0.00176023 0.98949 -0.144588
-0.110235 -0.216382 0.369195 -0.0508192 -0.0398377 -0.997913
-0.0210086 0.146383 0.528141 0.00175635 -0.999374 0.0353232
0.0472718 -0.0147848 0.348378 0.0469638 -0.0482745 -0.997729
-0.0889425 0.207369 0.467929 -0.00175445 0.988781 -0.149362
0.0252423 -0.24794 0.447495 -0.0281265 -0.429591 0.902585
0.0512283 0.188461 0.350338 -0.00170886 0.922795 -0.385287
-0.0443588 -0.132537 0.350059 -0.0459539 0.00943421 -0.998899
0.205263 0.0377407 0.413101 0.88835 0.0904286 0.450175
0.225985 0.126323 0.00873348 0.0731679 0.0015711 -0.997318
-0.218302 -0.19537 0.305924 0.999236 -0.0389844 0.00283989
0.0785734 -0.278088 0.403393 0.00127712 -0.999924 0.0122881
-0.138494 0.173079 0.653909 0.00175466 -0.963762 0.266757
-0.167274 -0.204218 0.371602 -0.0503755 -0.0388096 -0.997976
0.0678609 -0.0753965 0.351394 0.0454961 0.0310123 -0.998483
-0.169185 -0.27458 0.39033 -0.0102667 -0.975212 -0.221035
0.0313483 0.151072 0.3571 -0.000672651 0.382551 -0.923934
-0.209138 -0.00553562 0.3848 -0.957742 -0.00125322 -0.287627
0.135306 0.157505 0.595845 0.00174768 -0.963763 0.266755
0.0746361 0.192482 0.722612 0.00174928 -0.963762 0.266757
-0.17102 0.247547 0.744016 -0.00170862 0.99524 0.0974397
0.229959 -0.188265 0.0590785 -0.0555102 0.857914 0.510787
0.232374 0.0135765 0.572625 0.218382 -0.0279305 -0.975463
0.200661 0.232764 0.021762 -0.855697 -0.514478 -0.0556288
-0.030073 -0.125044 0.445177 0.0320843 0.0331749 0.998934
0.00817271 0.181421 0.683082 0.00174768 -0.963763 0.266755
-0.152663 0.142572 0.427022 0.00180752 -0.999373 0.0353685
-0.088829 0.14395 0.462694 0.00180752 -0.999373 0.0353685
0.140049 -0.190976 0.450794 -0.0321934 0.0272518 0.99911
-0.118666 0.141301 0.389364 0.00180752 -0.999373 0.0353685
-0.192554 0.143171 0.354409 -0.532247 -0.846432 -0.0163496
-0.180788 0.248542 0.0176685 0.456388 -0.889046 -0.0361623
-0.105493 0.169849 0.337683 -0.000144006 -0.0671726 -0.997741
0.222905 0.158351 0.606294 -0.212446 -0.0318539 0.976653
0.083747 0.237933 0.672219 -0.00176202 0.989489 -0.144593
0.181591 -0.137369 0.448391 -0.0321964 0.0833842 0.995997
-0.202344 0.177107 0.374002 -0.998113 -0.0611297 0.00587486
-0.0668949 0.141305 0.386833 0.00180752 -0.999373 0.0353685
-0.0541506 0.247282 0.737876 -0.00176023 0.98949 -0.144588
0.169112 -0.0522072 0.355924 0.0469638 -0.0482745 -0.997729
0.0618755 0.195106 0.384959 -0.00176202 0.988775 -0.149404
0.164888 0.114651 0.343815 0.0223901 -0.0722327 -0.997136
0.0989954 0.14373 0.447141 0.00175059 -0.999374 0.0353232
0.248293 0.160949 0.58935 0.952372 -0.0183058 0.30439
-0.221323 -0.135694 0.000831394 -0.000856384 -0.000458292 -1
0.204251 0.0190438 0.370168 0.957296 0.0153735 -0.288701
0.104191 0.22836 0.771911 0.000139761 0.0696087 0.997574
-0.231534 -0.0582106 0.592821 -0.00177657 -0.293714 0.955892
-0.158421 -0.0565729 0.369905 0.924309 0.00161289 0.381642
-0.117544 -0.278403 0.407412 0.00213187 -0.999939 0.0108783
0.100255 -0.264868 0.370509 0.0505107 -0.0396618 -0.997936
0.235915 -0.12732 0.00120644 0.990672 0.0550272 0.124668
-0.0170726 -0.259089 0.366154 -0.0503755 -0.0388096 -0.997976
0.096939 0.0561851 0.427969 -0.00187744 0.120273 0.992739
0.155492 0.2165 0.52544 -0.00176202 0.988775 -0.149404
0.0681014 0.160386 0.606692 0.00174768 -0.963763 0.266755
0.0939762 -0.270384 0.434879 -0.016881 -0.835991 0.548483
-0.218577 -0.20477 0.273824 0.999241 -0.0388407 0.00283697
0.00276578 0.214895 0.516677 -0.00181662 0.988782 -0.149355
0.103703 -0.00579215 0.43549 -0.00186986 0.120266 0.99274
0.160234 -0.000826403 0.372342 -0.923886 -0.00160513 0.382665
-0.220765 0.0762338 0.603273 0.217449 -0.0311971 0.975573
0.137469 0.197757 0.401609 -0.00176202 0.988775 -0.149404
-0.179827 0.19781 0.411522 -0.206414 0.967474 -0.146245
0.222313 -0.0868289 0.0288019 -0.756954 -0.0159424 0.653273
0.145187 -0.25268 0.449002 -0.0297099 -0.418775 0.907604
0.0353638 -0.0202361 0.437111 -0.00187744 0.120273 0.992739
0.150388 0.0234036 0.432041 -0.00186986 0.120266 0.99274
-0.0288742 0.229029 0.612659 -0.00175468 0.98949 -0.144593
-0.0885081 0.185923 0.699983 0.00175313 -0.963763 0.266755
-0.139972 0.132599 0.358631 0.211893 -0.318529 -0.923927
0.157132 0.0774008 0.425512 -0.00186986 0.120266 0.99274
-0.234716 -0.111595 0.0267237 -0.652478 0.0114942 0.75772
-0.237347 -0.0168235 0.594121 -0.707466 -0.0364946 0.705804
-0.0974554 -0.193322 0.449515 0.0321003 0.0269668 0.999121
-0.23159 -0.198974 0.103213 0.039953 0.998777 0.0291091
0.0934642 -0.23297 0.45043 -0.0320571 0.0268595 0.999125
-0.0291417 0.118919 0.340325 -0.0216393 -0.0484365 -0.998592
0.109758 -0.144632 0.446676 -0.0321964 0.0833842 0.995997
0.125115 -0.142604 0.352117 0.0338789 0.00957771 -0.99938
0.179302 0.142147 0.383309 0.146056 -0.988657 0.0349872
-0.201064 0.159653 0.410498 -0.998547 -0.0537509 0.00392749
0.0226105 -0.105966 0.443599 -0.0017542 0.0331331 0.999449
-0.161346 -0.116679 0.371851 0.878046 -0.287125 0.382875
-0.0611482 -0.274968 0.387067 -0.0101987 -0.974959 -0.222149
-0.163707 0.134105 0.370238 -0.702603 0.600177 0.382277
-0.221251 0.0174456 0.0294455 0.0742279 -0.00130441 0.99724
-0.094024 0.0534815 0.428252 0.00145778 0.120272 0.99274
-0.233898 0.147609 0.605965 -0.238706 -0.0271832 0.970711
-0.207327 0.0639951 0.378468 -0.957742 -0.00125322 -0.287627
-0.225875 0.0228763 0.00861901 -0.0752255 0.00135163 -0.997166
0.171218 -0.113103 0.354932 0.0454961 0.0310123 -0.998483
-0.0301746 -0.14755 0.445927 0.0320843 0.0331749 0.998934
0.0809074 0.0266976 0.347954 0.0469638 -0.0482745 -0.997729
0.180246 -0.0196971 0.369044 0.923885 0.00161327 0.382667
0.185596 0.228955 0.62965 0.354688 0.923508 -0.146047
-0.191943 0.0331204 0.42847 -0.599629 0.117897 0.791546
0.24037 -0.168752 0.0227754 0.997267 0.0472799 0.0567732
0.240754 -0.0861665 0.570177 0.999968 0.00410767 -0.00692872
-0.190214 0.147962 0.471719 -0.75704 -0.652848 0.0260628
0.114452 -0.00677375 0.351153 0.0469638 -0.0482745 -0.997729
-0.2066 -0.103723 0.434398 -0.889681 0.0641882 0.452049
0.202009 0.185944 0.501009 0.998746 -0.0497572 0.00554372
0.221075 -0.213741 0.149953 -0.675686 -0.736425 0.0335489
0.143653 0.139445 0.413024 -0.00231241 0.893987 0.448087
0.218739 0.119856 0.573199 -0.739783 -0.0372653 -0.671813
0.0698542 -0.167211 0.351423 0.0200778 -0.837164 -0.546584
0.11181 0.155179 0.33864 -0.000144102 -0.0672387 -0.997737
0.104739 0.186985 0.346565 -0.00171415 0.922818 -0.385233
-0.23976 -0.128131 0.54727 -0.999807 0.0146712 -0.0130388
0.0235029 0.202076 0.431554 -0.00181662 0.988782 -0.149355
0.00724107 0.064354 0.342665 0.0469638 -0.0482745 -0.997729
-0.00683028 0.202027 0.756964 0.00179854 -0.957468 0.288533
0.152441 0.0620767 0.347344 0.0223901 -0.0722327 -0.997136
-0.209787 -0.179145 0.383738 -0.768251 -0.000450714 -0.640148
-0.0652142 0.146131 0.52323 0.00175635 -0.999374 0.0353232
-0.0474339 -0.27816 0.416015 0.00213187 -0.999939 0.0108783
-0.146667 0.210182 0.487229 -0.00175445 0.988781 -0.149362
0.0403264 0.0176289 0.432533 -0.00187744 0.120273 0.992739
-0.174675 -0.134031 0.375997 0.30365 -0.232615 0.923952
-0.00038768 0.143701 0.451236 0.00175635 -0.999374 0.0353232
-0.214988 0.0235708 0.585207 0.953291 -0.0359139 -0.299912
0.0344089 -0.25199 0.366664 0.0505107 -0.0396618 -0.997936
-0.0028354 0.22133 0.559655 -0.00175468 0.98949 -0.144593
-0.167886 -0.101693 0.355368 -0.0339322 0.0304776 -0.998959
0.0875443 -0.065419 0.442368 -0.0017542 0.0331331 0.999449
-0.238902 0.118204 0.571189 -0.739251 -0.0249181 -0.672969
-0.139553 0.194955 0.386345 -0.001762 0.988782 -0.149355
0.237861 -0.216458 0.106516 0.737302 -0.675276 -0.0197262
0.228246 0.0538729 0.57161 -0.243379 -0.0324557 -0.969388
-0.127005 -0.0262145 0.351839 -0.0470849 -0.0713544 -0.996339
0.233485 -0.214542 0.216943 0.0425587 -0.996668 0.0695775
0.223808 -0.184708 0.457308 -0.679261 -0.685506 0.262082
0.0122232 0.165047 0.623901 0.00174768 -0.963763 0.266755
-0.212453 0.125271 0.0209023 0.997 -0.0175114 -0.0753946
-0.216597 0.182302 0.0288507 0.757117 -0.0133168 0.653143
0.20428 -0.212198 0.37591 0.768299 -0.00704006 -0.640052
-0.0676344 -0.105367 0.44573 0.0320843 0.0331749 0.998934
-0.0775613 -0.067954 0.442727 0.00152995 0.0841522 0.996452
-0.233617 0.0637543 0.013832 -0.757562 0.0133256 -0.652627
0.178897 0.217967 0.5436 0.354701 0.924512 -0.139514
0.220325 0.198461 0.568705 -0.237691 -0.0326684 -0.970791
0.103997 0.200325 0.419003 -0.00176202 0.988775 -0.149404
0.214135 0.116995 0.597869 -0.738647 -0.0371882 0.673066
0.0298612 0.0560263 0.427862 -0.00187744 0.120273 0.992739
-0.23471 -0.198628 0.407634 -0.733806 -0.674574 0.0804899
0.164718 0.0863002 0.357715 -0.382681 -0.000664857 -0.92388
0.00795662 0.2296 0.616121 -0.00176202 0.989489 -0.144593
-0.0984311 0.255751 0.0125975 0.00124368 -0.689166 -0.724603
0.0287677 0.253947 0.0155736 0.0017351 -0.999686 -0.0250108
-0.169013 -0.202134 0.452051 0.0321003 0.0269668 0.999121
-0.0861694 -0.240212 0.368908 -0.0503755 -0.0388096 -0.997976
-0.113049 0.24757 0.744808 -0.00171924 0.99523 0.097537
0.0823464 0.145336 0.493397 0.00175042 -0.999374 0.035323
0.141008 0.259567 0.0116707 -0.991679 -0.00186868 0.128719
0.203338 -0.080533 0.4366 0.605309 0.0801734 0.791942
-0.0370229 0.174868 0.337462 -0.000872986 0.359516 -0.933138
-0.200429 0.20297 0.719872 -0.757587 -0.633835 0.155933
-0.201098 0.181469 0.611695 -0.996829 -0.0774062 0.0184367
-0.232643 -0.184631 0.353168 0.0404038 0.996758 -0.0695746
0.0716392 0.183062 0.340517 -0.000872987 0.359516 -0.933138
0.110024 0.229601 0.61486 -0.0018167 0.989497 -0.144544
-0.193045 -0.102036 0.365372 -0.492719 -0.0321336 -0.869595
-0.129444 0.144493 0.480108 0.00180752 -0.999373 0.0353685
-0.167955 -0.03284 0.378305 0.382514 0.000666287 0.92395
0.200634 0.184762 0.401515 0.726835 0.683234 -0.0700127
-0.0123932 -0.249541 0.446424 0.0310192 -0.429472 0.902547
0.0782575 0.0935402 0.343399 0.0223901 -0.0722327 -0.997136
0.153639 0.144793 0.474513 0.00175042 -0.999374 0.035323
-0.0409587 -0.225547 0.366033 -0.0508192 -0.0398377 -0.997913
-0.235345 -0.161753 0.511135 -0.724356 -0.5935 0.350807
-0.103098 -0.0836401 0.353224 -0.0459539 0.00943421 -0.998899
-0.129308 0.216638 0.529769 -0.00175445 0.988781 -0.149362
-0.131203 0.241077 0.69635 -0.00176023 0.98949 -0.144588
-0.0555928 0.157648 0.370878 -0.0016156 0.923966 0.382471
-0.200527 0.0877605 0.361026 -0.904111 -0.00649625 -0.427249
0.0928531 0.138861 0.362507 -0.00152171 0.992388 -0.123141
0.152555 0.202396 0.432137 -0.00176202 0.988775 -0.149404
0.156738 -0.190868 0.370483 0.050958 -0.0386223 -0.997954
0.0454086 -0.0716593 0.350487 0.0454961 0.0310123 -0.998483
-0.152117 -0.167163 0.353457 -0.0200634 -0.776892 -0.629314
0.0193648 0.146127 0.377924 0.000672695 -0.382577 0.923923
0.210468 0.245831 0.0286014 0.499433 0.441386 0.745484
0.0186273 0.150738 0.572162 0.00174768 -0.963763 0.266755
-0.0230848 -0.194821 0.447169 0.031962 0.0273652 0.999114
-0.0228006 -0.0678069 0.44263 0.00152995 0.0841522 0.996452
0.125242 -0.208985 0.369576 0.050958 -0.0386223 -0.997954
0.105648 -0.168593 0.354855 0.0200778 -0.837164 -0.546584
0.0249836 0.191263 0.718533 0.00174768 -0.963763 0.266755
0.183704 -0.220793 0.452998 -0.0320571 0.0268595 0.999125
-0.147868 0.188011 0.350145 -0.0017088 0.922795 -0.385288
-0.102371 0.215639 0.772822 7.93767e-05 0.0695406 0.997579
-0.239431 -0.202458 0.0656924 -0.99856 0.0518753 0.0136598
0.150686 0.191403 0.359406 -0.00176202 0.988775 -0.149404
0.238488 -0.0935197 0.0214867 0.997003 0.0210145 0.0744551
-0.0684434 -0.11938 0.351292 -0.0459539 0.00943421 -0.998899
-0.239684 -0.212552 0.140862 -0.999195 0.0400813 -0.00191524
0.224214 -0.0186513 0.00837515 0.0731679 0.0015711 -0.997318
0.178682 -0.0925857 0.35591 0.0454961 0.0310123 -0.998483
-0.156125 -0.136764 0.448658 0.00152995 0.0841522 0.996452
0.213529 0.15859 0.0246133 -0.756954 -0.0159424 0.653273
0.221907 -0.104207 0.027907 -0.757349 -0.015966 0.652815
0.0745014 0.20955 0.480414 -0.00181662 0.988782 -0.149355
0.0906892 0.246082 0.727903 -0.00176202 0.989489 -0.144593
-0.214656 -0.117231 0.414994 -0.999283 0.037829 -0.00164268
0.0759912 0.204247 0.445293 -0.00181662 0.988782 -0.149355
-0.036599 0.16832 0.636046 0.00175313 -0.963763 0.266755
-0.174952 0.243565 0.713907 -0.00176023 0.98949 -0.144588
0.113031 0.141559 0.385029 0.00175059 -0.999374 0.0353232
0.13316 0.226258 0.591689 -0.0018167 0.989497 -0.144544
-0.0993171 0.138044 0.362821 0.0016175 -0.923925 -0.38257
-0.0566783 0.0207937 0.432157 0.0014503 0.120279 0.992739
0.169241 0.229878 0.771796 0.000139761 0.0696087 0.997574
-0.130532 -0.0604568 0.354458 -0.0470849 -0.0713544 -0.996339
-0.166863 0.170623 0.337639 -0.000144006 -0.0671726 -0.997741
-0.0704075 -0.0145582 0.34833 -0.0470849 -0.0713544 -0.996339
0.234119 0.211333 0.587608 0.00666345 -0.999977 0.00161865
0.240124 -0.194399 0.27783 0.675984 0.735135 -0.051201
0.158158 0.232129 0.631562 -0.0018167 0.989497 -0.144544
0.173932 0.224266 0.577536 -0.0018167 0.989497 -0.144544
-0.180388 0.20161 0.755812 -0.104794 -0.962621 0.249757
-0.0643043 0.170529 0.644208 0.00175313 -0.963763 0.266755
-0.239116 -0.101272 0.557729 -0.697749 0.443426 -0.562601
-0.117625 0.208567 0.4762 -0.00175445 0.988781 -0.149362
0.115788 0.147517 0.553461 0.00175042 -0.999374 0.035323
-0.23874 -0.211075 0.200069 -0.734574 -0.676888 0.0471601
0.146389 -0.0818454 0.354772 0.0454961 0.0310123 -0.998483
-0.217943 -0.181704 0.0340422 0.998061 -0.0501927 -0.0367984
-0.120222 0.150372 0.571751 0.00175466 -0.963762 0.266757
-0.163262 -0.0473153 0.440565 0.0014503 0.120279 0.992739
0.238889 0.0802263 0.60244 0.739694 -0.0206033 0.672628
0.204652 0.0136936 0.419162 0.897785 0.0868036 0.431796
0.0188728 0.206098 0.458237 -0.00181662 0.988782 -0.149355
0.0700109 0.177911 0.669997 0.00174768 -0.963763 0.266755
-0.0755643 0.231464 0.629887 -0.00175468 0.98949 -0.144593
-0.00492224 0.201957 0.431112 -0.001762 0.988782 -0.149355
-0.138666 -0.00621095 0.435549 0.00145778 0.120272 0.99274
0.0379863 0.143961 0.456687 0.00175059 -0.999374 0.0353232
0.230325 0.0944654 0.027725 0.652985 0.0137818 0.757246
0.224735 -0.0753641 0.00832406 0.0731679 0.0015711 -0.997318
0.222912 -0.209676 0.0613588 -0.665828 -0.694666 -0.272235
-0.127201 0.15823 0.600187 0.00175466 -0.963762 0.266757
-0.218625 -0.150904 0.519908 0.999523 -0.0264588 0.0159314
0.0359971 0.175537 0.661644 0.00174768 -0.963763 0.266755
-0.201458 -0.272682 0.392071 -0.22522 -0.954541 -0.19526
0.12083 -0.234419 0.451347 -0.0320571 0.0268595 0.999125
-0.0751353 0.213551 0.508695 -0.00175445 0.988781 -0.149362
-0.144006 0.0981913 0.422908 0.00145778 0.120272 0.99274
-0.0195972 0.195128 0.73279 0.00175313 -0.963763 0.266755
0.211713 -0.15203 0.370222 0.723168 0.574905 0.382768
-0.0616896 -0.0398346 0.349728 -0.0470849 -0.0713544 -0.996339
-0.0336794 -0.0428451 0.34862 -0.0470849 -0.0713544 -0.996339
0.0808828 0.147308 0.549259 0.00175042 -0.999374 0.035323
0.0500101 0.151019 0.572971 0.00174768 -0.963763 0.266755
-0.142987 0.0533461 0.346896 -0.0470849 -0.0713544 -0.996339
0.0237593 0.179119 0.339042 -0.000872987 0.359516 -0.933138
0.0635274 0.138871 0.361511 0.00160867 -0.923956 -0.382496
-0.0771531 0.221339 0.560618 -0.00175468 0.98949 -0.144593
-0.199692 0.15739 0.487165 -0.439893 -0.895199 0.0715041
-0.0943922 -0.118313 0.447005 0.00152995 0.0841522 0.996452
-0.0744007 -0.219464 0.367493 -0.0508192 -0.0398377 -0.997913
-0.099442 0.157294 0.596622 0.00175466 -0.963762 0.266757
0.18075 -0.0940525 0.444737 -0.0321964 0.0833842 0.995997
-0.222615 -0.19229 0.431343 0.679983 -0.714095 0.166406
-0.221135 -0.21073 0.23544 0.677929 -0.733337 0.0512748
0.226054 -0.176649 0.484311 -0.682391 -0.683102 0.26022
-0.199624 -0.167575 0.447286 -0.611158 0.0779631 0.78766
0.240196 -0.150847 0.520686 0.726974 -0.591166 0.34933
0.192129 0.144387 0.361656 0.450628 -0.892613 0.0132602
0.176706 0.1754 0.659262 0.215456 -0.941089 0.260635
0.122781 0.115569 0.342803 0.0223901 -0.0722327 -0.997136
-0.0684518 0.192144 0.366894 -0.001762 0.988782 -0.149355
-0.205829 0.240336 0.00848878 -0.0397756 0.0390698 -0.998444
0.24089 -0.192217 0.36009 0.999089 0.0423939 -0.00481898
0.201473 0.205862 0.652109 0.997086 -0.0749163 0.0143665
-0.229195 -0.209759 0.298674 -0.0390929 -0.99681 0.0695775
0.178044 0.0926399 0.423706 -0.00186986 0.120266 0.99274
0.183982 0.154584 0.578085 0.215456 -0.941089 0.260635
-0.066465 0.179044 0.674985 0.00175313 -0.963763 0.266755
0.200715 0.161516 0.505613 0.998345 -0.0572924 0.00496745
0.0727767 0.198852 0.745638 0.00174928 -0.963762 0.266757
-0.199286 0.206379 0.570462 -0.871398 0.484469 -0.0771659
-0.0472985 -0.201764 0.448134 0.031962 0.0273652 0.999114
-0.0724409 0.0686922 0.3437 -0.0216393 -0.0484365 -0.998592
-0.042539 -0.0512218 0.440862 0.0014503 0.120279 0.992739
0.240915 -0.160318 0.496036 0.999427 0.0298346 -0.0160125
0.234583 -0.17828 0.403585 0.677472 0.730355 -0.0872577
0.239083 -0.110553 0.563923 0.717453 -0.43126 0.547061
-0.218481 -0.20881 0.184719 0.999241 -0.0388407 0.00283697
-0.0908196 0.144122 0.339406 -0.000168326 -0.0469373 -0.998898
0.198734 0.135174 0.407045 0.897785 0.0868036 0.431796
-0.201556 0.187553 0.437564 -0.871199 0.488312 -0.0506248
-0.0678704 0.200575 0.752521 0.00174788 -0.957656 0.28791
0.217156 0.0801461 0.0269015 -0.756954 -0.0159424 0.653273
0.206286 -0.044346 0.42757 0.88835 0.0904286 0.450175
-0.106122 0.158264 0.365248 -0.00161013 0.923966 -0.38247
0.159151 0.123909 0.419882 -0.00187744 0.120273 0.992739
-0.101445 0.23958 0.685746 -0.00176023 0.98949 -0.144588
0.17813 0.0669349 0.373789 0.923885 0.00161327 0.382667
-0.138403 0.021124 0.432237 0.00145778 0.120272 0.99274
-0.175784 0.207982 0.473107 -0.206414 0.967474 -0.146245
-0.125427 -0.152638 0.352372 -0.0339322 0.0304776 -0.998959
-0.137975 -0.107257 0.354183 -0.0339322 0.0304776 -0.998959
0.118992 0.161585 0.610694 0.00174768 -0.963763 0.266755
0.182111 0.23739 0.679061 0.244791 0.959411 -0.140028
0.0487518 -0.0490679 0.440629 -0.00186986 0.120266 0.99274
0.172975 0.0240535 0.35722 0.382682 0.00066859 -0.92388
0.0748323 0.214942 0.51611 -0.00181662 0.988782 -0.149355
0.0644568 0.231996 0.631822 -0.00176202 0.989489 -0.144593
-0.0726388 -0.263221 0.36912 -0.0503755 -0.0388096 -0.997976
-0.238264 -0.127258 0.0153256 -0.757562 0.0133256 -0.652627
-0.147671 0.246453 0.755603 -0.00170862 0.99524 0.0974397
-0.0212476 0.156293 0.592493 0.00175313 -0.963763 0.266755
0.0749735 0.128259 0.419196 -0.00187744 0.120273 0.992739
-0.100499 0.140201 0.385867 -0.001823 0.998805 -0.0488338
0.124951 0.146166 0.514768 0.00175042 -0.999374 0.035323
0.216537 0.0452301 0.0253311 -0.757349 -0.015966 0.652815
0.215138 -0.192087 0.394575 0.955094 0.0160086 -0.295869
-0.205429 -0.0697759 0.431883 -0.889681 0.0641882 0.452049
-0.122922 0.109951 0.342793 -0.0216393 -0.0484365 -0.998592
0.15616 0.161546 0.338205 -0.000144102 -0.0672387 -0.997737
-0.220995 -0.164754 0.469087 0.731699 0.636749 -0.243243
-0.216304 -0.0724118 0.0158822 0.997 -0.0175114 -0.0753946
0.0160905 -0.214726 0.447447 -0.0321934 0.0272518 0.99911
0.216088 -0.146579 0.400158 0.955086 0.0165134 -0.295867
0.0951314 0.162545 0.614317 0.00174768 -0.963763 0.266755
0.229406 0.203866 0.0264476 0.65101 0.0523631 0.757261
-0.213183 0.23855 0.0298965 0.0548483 -0.0299702 0.998045
0.0203632 -0.083187 0.349135 0.0338789 0.00957771 -0.99938
0.0300486 0.14738 0.553823 0.00175042 -0.999374 0.035323
0.0748313 0.0126114 0.433206 -0.00186986 0.120266 0.99274
0.219748 -0.120154 0.550868 -0.999757 -0.0139001 0.0170889
-0.0219371 0.144189 0.466128 0.00175635 -0.999374 0.0353232
0.137534 0.235783 0.656833 -0.0018167 0.989497 -0.144544
-0.20414 0.124161 0.368119 -0.904111 -0.00649625 -0.427249
-0.0549964 0.0432267 0.344557 -0.0216393 -0.0484365 -0.998592
-0.0558799 -0.0659894 0.351218 -0.0459539 0.00943421 -0.998899
-0.21712 -0.184163 0.410377 -0.999761 0.0218403 0.000624127
0.0858485 -0.170675 0.448084 -0.0321964 0.0833842 0.995997
0.080815 0.168814 0.63706 0.00174768 -0.963763 0.266755
-0.093845 0.119482 0.3417 -0.0216393 -0.0484365 -0.998592
0.19869 -0.190217 0.450633 0.61258 0.0326986 0.789732
-0.0781736 0.209895 0.484524 -0.00175445 0.988781 -0.149362
0.111707 0.233409 0.640908 -0.0018167 0.989497 -0.144544
0.180949 0.179416 0.340363 0.228493 0.350317 -0.908333
-0.0421775 0.237684 0.672046 -0.00175468 0.98949 -0.144593
0.136663 0.21358 0.506339 -0.00176202 0.988775 -0.149404
-0.00963049 -0.0192146 0.346603 -0.0216393 -0.0484365 -0.998592
-0.00616287 -0.167858 0.445831 0.0320843 0.0331749 0.998934
0.237276 -0.12136 0.0256575 0.65241 0.0137505 0.757742
-0.0124222 0.00447817 0.43407 0.0014503 0.120279 0.992739
0.166296 -0.163463 0.450081 -0.0321964 0.0833842 0.995997
0.178776 0.260511 0.0296922 -0.00787637 -0.0349779 0.999357
0.131484 -0.0885238 0.443211 -0.0017542 0.0331331 0.999449
0.117258 0.14253 0.405102 -0.00155694 0.994149 -0.108003
-0.0606487 0.242265 0.70362 -0.00176023 0.98949 -0.144588
-0.234974 0.0397487 0.0230441 -0.997162 0.0175379 0.0732213
-0.164687 0.146076 0.526639 0.00180752 -0.999373 0.0353685
-0.0423622 -0.263541 0.367604 -0.0503755 -0.0388096 -0.997976
-0.0998109 -0.157602 0.35135 -0.0339322 0.0304776 -0.998959
0.108266 0.145564 0.498572 0.00175042 -0.999374 0.035323
0.151662 0.176179 0.663205 0.00174928 -0.963762 0.266757
-0.195977 0.198747 0.463236 -0.733608 0.673469 -0.090879
0.0719707 -0.228687 0.367639 0.0505107 -0.0396618 -0.997936
-0.201593 -0.249501 0.449059 -0.585853 -0.107182 0.803298
-0.0472737 -0.167657 0.350724 -0.0200634 -0.776892 -0.629314
0.0183336 0.219274 0.545476 -0.00181662 0.988782 -0.149355
0.195942 -0.272362 0.38683 0.206949 -0.879697 -0.428141
-0.186065 0.225428 0.617028 -0.357632 0.924024 -0.135198
-0.198483 0.167268 0.351546 -0.966275 -0.0608554 -0.250218
-0.142114 0.231005 0.627555 -0.00176023 0.98949 -0.144588
0.00907467 -0.266252 0.367053 0.0305685 -0.835258 -0.549008
0.201903 0.188281 0.541076 0.998746 -0.0497572 0.00554372
0.192579 -0.129851 0.361362 0.723141 0.57494 -0.382769
0.216163 -0.127883 0.420859 0.889585 0.0637133 0.452304
-0.0948381 -0.00507051 0.435347 0.0014503 0.120279 0.992739
-0.248061 0.138201 0.586685 -0.962517 -0.0224118 -0.270293
0.185067 0.208678 0.497733 0.354701 0.924512 -0.139514
-0.0153725 0.179014 0.674543 0.00175313 -0.963763 0.266755
-0.179778 0.150612 0.569795 -0.211375 -0.943303 0.255929
0.191739 0.147289 0.439084 0.447542 -0.893532 0.0361565
0.137267 0.241069 0.693022 -0.0018167 0.989497 -0.144544
-0.21122 -0.0965256 0.390428 -0.957288 0.0137585 -0.288808
-0.0540502 0.202961 0.438339 -0.001762 0.988782 -0.149355
0.0638968 0.142374 0.404432 -0.00155694 0.994149 -0.108003
0.237217 -0.210606 0.241197 0.737094 -0.674143 0.0471522
-0.099201 0.0325426 0.346317 -0.0470849 -0.0713544 -0.996339
-0.224111 0.107973 0.0297768 0.0742279 -0.00130441 0.99724
-0.0114216 -0.0519798 0.440909 0.0014503 0.120279 0.992739
-0.141628 -0.0681753 0.442844 0.00152995 0.0841522 0.996452
-0.218205 -0.233973 0.417595 -0.999757 0.0219993 0.00123628
0.0727986 -0.0252779 0.350087 0.0469638 -0.0482745 -0.997729
0.0449929 -0.27441 0.384497 0.0135443 -0.975161 -0.221084
-0.100216 0.190776 0.717597 0.00175313 -0.963763 0.266755
-0.214954 0.129038 0.599799 0.744446 -0.0347083 0.66678
-0.241168 0.191137 0.603313 -0.740023 -0.0228506 0.672193
0.0845642 -0.119009 0.44414 -0.0017542 0.0331331 0.999449
0.0919682 0.195471 0.387016 -0.00176202 0.988775 -0.149404
-0.171944 0.0159563 0.35706 -0.383014 -0.000667158 -0.923742
-0.040696 0.148406 0.564124 0.00175466 -0.963762 0.266757
-0.185482 0.18164 0.67945 -0.211375 -0.943303 0.255929
-0.0496563 0.238161 0.770433 -0.00118376 0.75607 0.65449
-0.00835938 0.138305 0.34516 0.00181806 -0.992003 0.1262
-0.17149 0.125005 0.343115 -0.0216393 -0.0484365 -0.998592
-0.094846 0.238323 0.770163 -0.00118376 0.75607 0.65449
-0.245306 0.0896676 0.593296 -0.952048 -0.0213863 0.3052
0.0838101 -0.0414819 0.439777 -0.00186986 0.120266 0.99274
-0.159255 0.00586518 0.371662 0.924309 0.00161289 0.381642
0.176695 -0.223889 0.37278 0.050958 -0.0386223 -0.997954
0.166363 0.116245 0.377809 0.360896 0.12677 0.92395
-0.0200803 0.210591 0.488452 -0.001762 0.988782 -0.149355
-0.222727 -0.199101 0.0794211 0.737507 0.65584 0.161114
0.19066 0.223261 0.605945 0.354688 0.923508 -0.146047
-0.222185 -0.139522 0.541027 0.689168 -0.546117 0.476238
0.22091 -0.197837 0.375796 -0.675846 -0.731844 0.0873889
-0.0910222 0.168195 0.635952 0.00175466 -0.963762 0.266757
0.0811806 -0.0552142 0.35193 0.0469638 -0.0482745 -0.997729
0.00470803 0.142422 0.414805 0.00175059 -0.999374 0.0353232
-0.216048 -0.156123 0.403593 -0.957288 0.0137585 -0.288808
-0.233418 -0.145201 0.501436 -0.685086 0.626485 -0.371718
-0.0784824 -0.151376 0.447606 0.0320843 0.0331749 0.998934
-0.0243125 0.186399 0.701282 0.00175313 -0.963763 0.266755
-0.096586 -0.0418144 0.351519 -0.0470849 -0.0713544 -0.996339
-0.136875 0.0304073 0.34825 -0.0470849 -0.0713544 -0.996339
0.202156 0.0552064 0.365147 0.957296 0.0153735 -0.288701
