-0.198442 0.231624 0.709063 -0.764071 0.634304 -0.117703
0.184166 -0.137125 0.448453 -0.0321964 0.0833842 0.995997
0.0232724 0.25593 0.0255428 0.00121923 -0.724126 0.689666
0.0527457 0.141041 0.373355 0.00175059 -0.999374 0.0353232
0.0833819 -0.0704155 0.352256 0.0454961 0.0310123 -0.998483
-0.00775112 -0.165535 0.445804 0.0320843 0.0331749 0.998934
-0.0273804 0.188298 0.708163 0.00175313 -0.963763 0.266755
-0.162698 -0.0663737 0.358271 0.38261 0.000667644 -0.92391
-0.148977 0.144414 0.478877 0.00180752 -0.999373 0.0353685
-0.103795 0.247113 0.737324 -0.00176023 0.98949 -0.144588
-0.106733 0.21104 0.492441 -0.00175445 0.988781 -0.149362
0.177412 0.235976 0.66116 0.244791 0.959411 -0.140028
0.0748112 -0.25565 0.445369 -0.0281265 -0.429591 0.902585
0.102833 -0.160487 0.35119 0.0338789 0.00957771 -0.99938
0.218723 -0.193039 0.411908 0.999677 0.0254006 0.000536476
0.129434 0.147675 0.55724 0.00175042 -0.999374 0.035323
0.0845909 0.222679 0.567798 -0.0018167 0.989497 -0.144544
-0.14438 -0.09653 0.354727 -0.0339322 0.0304776 -0.998959
-0.0941935 -0.127525 0.447318 0.0320843 0.0331749 0.998934
-0.00448021 -0.190521 0.446456 0.031962 0.0273652 0.999114
0.18932 -0.149287 0.449638 -0.0321964 0.0833842 0.995997
0.231797 -0.143583 0.539273 0.0209903 -0.754201 0.656308
-0.0807281 0.154527 0.586504 0.00175466 -0.963762 0.266757
-0.171447 -0.156814 0.353808 -0.0339322 0.0304776 -0.998959
0.0457365 -0.252416 0.446003 -0.0281265 -0.429591 0.902585
-0.129034 -0.0162322 0.436749 0.0014503 0.120279 0.992739
-0.0312343 0.228818 0.611246 -0.00175468 0.98949 -0.144593
-0.19487 0.240845 0.73557 -0.764071 0.634304 -0.117703
0.16359 0.164391 0.620539 0.00174928 -0.963762 0.266757
0.0551452 0.243802 0.712729 -0.00176202 0.989489 -0.144593
-0.025557 0.00380243 0.345831 -0.0216393 -0.0484365 -0.998592
-0.23306 0.177642 0.0160779 -0.997083 0.0175633 0.0742739
-0.19146 0.147116 0.414311 -0.75704 -0.652848 0.0260628
0.114905 0.2634 0.0085421 -4.52524e-05 0.0250701 -0.999686
-0.144521 0.16259 0.338177 -0.000144006 -0.0671726 -0.997741
-0.0581093 0.215213 0.772848 7.93767e-05 0.0695406 0.997579
-0.098457 0.140458 0.3645 0.00180752 -0.999373 0.0353685
-0.247512 0.113873 0.586746 -0.962517 -0.0224118 -0.270293
0.18886 -0.0899609 0.359722 0.503297 0.0439324 -0.862996
-0.237021 -0.183723 0.394366 -0.679562 0.728444 -0.0869721
0.13557 -0.262746 0.372212 0.0505107 -0.0396618 -0.997936
-0.19353 0.157306 0.567772 -0.757587 -0.633835 0.155933
0.0215245 0.0914705 0.342025 0.0469638 -0.0482745 -0.997729
-0.037523 0.1906 0.716546 0.00175313 -0.963763 0.266755
0.216043 0.0123835 0.590851 -0.961901 -0.0392865 0.270559
0.200395 -0.108672 0.369753 0.697427 -0.0143017 -0.716513
0.0321877 0.204212 0.762989 0.00136121 -0.694092 0.719885
-0.120481 -0.17962 0.368249 -0.0508192 -0.0398377 -0.997913
-0.219558 0.00122142 0.578232 0.678307 -0.383841 -0.626551
0.129667 0.0611297 0.346901 0.0223901 -0.0722327 -0.997136
-0.0910306 -0.0778671 0.443584 0.00152995 0.0841522 0.996452
-0.219786 -0.0478196 0.0107395 0.653122 -0.011472 -0.757166
0.170304 -0.242169 0.453143 -0.0320571 0.0268595 0.999125
-0.0654071 -0.13604 0.446677 0.0320843 0.0331749 0.998934
-0.151976 0.241405 0.698848 -0.00176023 0.98949 -0.144588
0.146165 0.147522 0.359495 0.383326 0.840393 -0.383146
0.123035 0.165954 0.626451 0.00174928 -0.963762 0.266757
0.068939 0.133406 0.343193 0.00158111 0.0612564 -0.998121
-0.10444 -0.101668 0.445615 0.00152995 0.0841522 0.996452
-0.0639525 0.137909 0.342834 0.00176093 -0.992057 0.125775
-0.144594 0.197693 0.742878 0.00175313 -0.963763 0.266755
0.223927 0.0100631 0.00839932 0.0731679 0.0015711 -0.997318
0.202229 0.195628 0.548197 0.998746 -0.0497572 0.00554372
-0.0361751 0.161157 0.610163 0.00175313 -0.963763 0.266755
0.0280083 -0.161917 0.445481 -0.0321964 0.0833842 0.995997
0.194247 0.185592 0.665159 0.614136 -0.766109 0.189508
-0.0868036 0.124576 0.3413 -0.0216393 -0.0484365 -0.998592
0.128204 0.20453 0.446547 -0.00176202 0.988775 -0.149404
-0.162539 0.192207 0.368422 -0.001762 0.988782 -0.149355
0.201214 0.184327 0.403292 0.726835 0.683234 -0.0700127
-0.000893608 -0.202703 0.363081 -0.0508192 -0.0398377 -0.997913
-0.067387 -0.122283 0.351216 -0.0459539 0.00943421 -0.998899
-0.0536038 -0.111695 0.350682 -0.0459539 0.00943421 -0.998899
-0.126052 0.0632379 0.427117 0.00145778 0.120272 0.99274
0.0433838 0.141178 0.377691 0.00175059 -0.999374 0.0353232
-0.220132 -0.19664 0.249243 0.73413 0.677368 -0.0471925
-0.0559198 0.141364 0.387936 0.00180752 -0.999373 0.0353685
-0.167459 0.199881 0.419281 -0.00175445 0.988781 -0.149362
-0.155943 -0.0159893 0.352474 -0.0470849 -0.0713544 -0.996339
0.22588 -0.173545 0.0157678 -0.659149 -0.356956 -0.661895
-0.01752 0.202038 0.4318 -0.001762 0.988782 -0.149355
-0.230019 -0.170418 0.441147 0.035307 0.973351 -0.226585
-0.173877 0.169283 0.640428 0.00175466 -0.963762 0.266757
-0.0150637 -0.232474 0.364991 -0.0508192 -0.0398377 -0.997913
-0.0136414 0.200873 0.424036 -0.001762 0.988782 -0.149355
-0.129424 -0.14449 0.352756 -0.0339322 0.0304776 -0.998959
0.0730653 -0.277885 0.421972 0.00148321 -0.99994 0.0108783
-0.0315986 0.0343744 0.430475 0.0014503 0.120279 0.992739
-0.131862 0.138378 0.414175 -0.000799769 0.893972 0.448122
-0.0857414 -0.228187 0.450087 0.031962 0.0273652 0.999114
-0.150773 0.245154 0.762171 -0.00114659 0.756399 0.65411
-0.134298 -0.126216 0.447734 0.00152995 0.0841522 0.996452
0.177654 -0.0375786 0.37531 0.382586 0.000668168 0.92392
0.0487084 0.144634 0.475199 0.00175059 -0.999374 0.0353232
0.0182282 0.273294 0.0252588 -0.00120709 0.689142 0.724625
-0.157377 0.0487033 0.347909 -0.0470849 -0.0713544 -0.996339
-0.021145 -0.249306 0.446837 0.0310192 -0.429472 0.902547
-0.127656 -0.27392 0.385522 -0.0101987 -0.974959 -0.222149
0.138386 0.140237 0.358297 0.00176154 -0.992009 0.126158
0.111429 -0.0680555 0.353607 0.0454961 0.0310123 -0.998483
-0.0622908 -0.167415 0.447619 0.0320843 0.0331749 0.998934
-0.132386 0.141331 0.398093 -0.00191437 0.994149 -0.107997
-0.232651 -0.0995977 0.576572 -0.0137797 -0.461525 0.88702
-0.135712 -0.24755 0.451421 0.0297618 -0.419199 0.907406
0.236975 -0.216254 0.0800371 0.739349 -0.653782 -0.161034
0.238094 -0.0766235 0.0219929 0.997003 0.0210145 0.0744551
-0.162799 0.253179 0.000759043 0 0 -1
0.0153093 0.141639 0.392116 0.00175059 -0.999374 0.0353232
0.184609 0.236334 0.676199 0.244791 0.959411 -0.140028
0.0038054 -0.261644 0.440304 -0.0281265 -0.429591 0.902585
0.0311277 0.140122 0.358889 0.00176154 -0.992009 0.126158
-0.0684659 0.136254 0.348716 -0.00214709 0.960036 -0.27987
0.0214932 0.156551 0.373853 -0.00161632 0.923955 0.382497
0.044176 0.225051 0.584539 -0.0018167 0.989497 -0.144544
-0.0835132 0.194998 0.385966 -0.001762 0.988782 -0.149355
0.0474131 0.145701 0.505453 0.00175059 -0.999374 0.0353232
-0.201887 0.21056 0.691152 -0.996829 -0.0774062 0.0184367
0.214725 -0.243102 0.435861 0.898879 0.0312501 0.437081
0.174412 -0.221953 0.452731 -0.0320571 0.0268595 0.999125
0.000266169 0.203504 0.441294 -0.00181662 0.988782 -0.149355
0.201337 0.160966 0.374209 0.998345 -0.0572924 0.00496745
0.243597 0.100549 0.59791 0.734619 -0.0203124 0.678175
0.154183 0.0388233 0.349068 0.0223901 -0.0722327 -0.997136
-0.0937077 -0.170818 0.356107 -0.0200634 -0.776892 -0.629314
0.0111869 0.068465 0.342652 0.0469638 -0.0482745 -0.997729
0.0982084 0.232246 0.771641 0.000139761 0.0696087 0.997574
-0.164107 0.212685 0.504005 -0.00175445 0.988781 -0.149362
-0.0448584 -0.151355 0.349674 -0.0339322 0.0304776 -0.998959
-0.195751 -0.179828 0.451414 -0.61273 0.0280549 0.789794
0.122549 0.226174 0.591241 -0.0018167 0.989497 -0.144544
0.234914 -0.196733 0.0785442 0.673598 0.719668 0.168356
0.241059 -0.206354 0.209133 0.999105 0.0422048 -0.00283297
-0.167143 -0.0955546 0.356409 0.38261 0.000667644 -0.92391
-0.16344 0.134841 0.364851 -0.702612 0.600185 -0.38225
0.238023 -0.074693 0.0223939 0.997003 0.0210145 0.0744551
0.157134 0.249114 0.00583213 0.497494 -0.857809 0.129085
-0.222699 -0.0237526 0.0294994 0.0742279 -0.00130441 0.99724
-0.0182475 -0.135392 0.44514 0.0320843 0.0331749 0.998934
0.192743 0.23174 0.763915 0.709496 0.0298385 0.704078
0.0676429 0.26757 0.0086488 -4.52524e-05 0.0250701 -0.999686
-0.215444 0.180695 0.573314 0.739827 -0.0343531 -0.671919
0.166899 0.238272 0.673508 -0.0018167 0.989497 -0.144544
-0.161819 0.162064 0.614268 0.00175466 -0.963762 0.266757
0.0872533 -0.0318341 0.351085 0.0469638 -0.0482745 -0.997729
-0.159191 -0.27332 0.433215 0.0196752 -0.838405 0.544692
0.178513 0.18633 0.697234 0.215456 -0.941089 0.260635
0.163567 0.217647 0.532939 -0.00176202 0.988775 -0.149404
-0.216533 -0.166512 0.417721 -0.999263 0.0383737 0.000674523
0.15428 0.157751 0.596611 0.00174928 -0.963762 0.266757
-0.179082 0.108259 0.42174 0.00145778 0.120272 0.99274
-0.168814 -0.0798862 0.356065 -0.0339322 0.0304776 -0.998959
0.199365 0.0233188 0.36148 0.753737 -0.0374472 -0.656108
-0.226854 -0.107725 0.572434 -0.0137797 -0.461525 0.88702
0.240319 -0.125116 0.536822 0.686817 0.549043 -0.476271
0.152563 0.206497 0.459278 -0.00176202 0.988775 -0.149404
0.220786 -0.0250334 0.581133 -0.707731 0.0341833 -0.705654
-0.238298 -0.21167 0.198408 -0.734574 -0.676888 0.0471601
-0.0394029 -0.122129 0.445379 0.0320843 0.0331749 0.998934
-0.0749023 -0.00686424 0.347991 -0.0470849 -0.0713544 -0.996339
-0.0120791 0.2294 0.61499 -0.00175468 0.98949 -0.144593
-0.218433 -0.204742 0.223597 0.999241 -0.0388407 0.00283697
0.0541412 0.187041 0.703088 0.00174928 -0.963762 0.266757
0.0806054 -0.15436 0.446549 -0.0321964 0.0833842 0.995997
-0.195799 0.0519171 0.423079 -0.530644 0.114865 0.839775
0.140682 0.246484 0.760345 -0.00170914 0.99523 0.097537
-0.202095 -0.116668 0.440329 -0.611158 0.0779631 0.78766
0.124118 -0.00682324 0.35161 0.0469638 -0.0482745 -0.997729
0.138921 0.0807708 0.42507 -0.00186986 0.120266 0.99274
-0.034388 0.194116 0.379548 -0.001762 0.988782 -0.149355
-0.172051 -0.0909575 0.444814 0.00152995 0.0841522 0.996452
0.173034 0.207988 0.468901 -0.00176202 0.988775 -0.149404
-0.199096 -0.0642053 0.36843 -0.697442 -0.0495361 -0.714927
0.181631 -0.0960284 0.355937 0.0454961 0.0310123 -0.998483
0.13349 -0.0304679 0.353195 0.0469638 -0.0482745 -0.997729
0.115832 0.156732 0.373536 0.130509 0.91472 0.382432
-0.159468 -0.157444 0.353382 -0.0339322 0.0304776 -0.998959
0.0343271 0.189164 0.710889 0.00174768 -0.963763 0.266755
0.239414 -0.198236 0.0692769 0.666318 0.692909 0.275494
0.158893 0.174173 0.655911 0.00174928 -0.963762 0.266757
0.201791 0.178491 0.473436 0.998746 -0.0497572 0.00554372
-0.0626898 0.140721 0.370122 0.00180752 -0.999373 0.0353685
0.202349 0.188632 0.463859 0.998746 -0.0497572 0.00554372
0.00735444 0.146144 0.519971 0.00175059 -0.999374 0.0353232
-0.0759089 -0.275979 0.392181 -0.0101987 -0.974959 -0.222149
-0.170663 0.237467 0.771016 -0.00118376 0.75607 0.65449
-0.238434 0.0208429 0.574281 -0.739251 -0.0249181 -0.672969
0.155965 0.146891 0.339192 -0.000144102 -0.0672387 -0.997737
0.141259 0.219704 0.546829 -0.00181662 0.988782 -0.149355
-0.205943 -0.0677559 0.375292 -0.697458 -0.0314012 -0.715937
0.168313 0.230749 0.621987 -0.0018167 0.989497 -0.144544
0.000841475 0.141203 0.380503 0.00175059 -0.999374 0.0353232
0.0943653 0.146943 0.538276 0.00175042 -0.999374 0.035323
-0.131664 -0.168153 0.354027 -0.0200634 -0.776892 -0.629314
0.103622 0.0432874 0.429544 -0.00186986 0.120266 0.99274
0.102519 0.222299 0.564967 -0.0018167 0.989497 -0.144544
-0.108766 0.110432 0.342462 -0.0216393 -0.0484365 -0.998592
-0.202509 0.192694 0.508134 -0.998113 -0.0611297 0.00587486
0.111537 0.165667 0.625489 0.00174768 -0.963763 0.266755
-0.000312984 -0.181095 0.446065 0.031962 0.0273652 0.999114
-0.230333 -0.0642351 0.0297811 -0.653038 0.0114853 0.757238
-0.0421493 0.138404 0.346428 0.00181806 -0.992003 0.1262
-0.220358 -0.165977 0.371238 -0.725357 0.572364 0.382435
-0.205771 0.231647 0.0275408 0.643984 -0.383787 0.661809
-0.244849 0.0792983 0.580182 -0.961191 -0.0221961 -0.274989
0.164413 0.025775 0.376539 -0.382585 -0.000668421 0.92392
0.14262 -0.154637 0.448576 -0.0321964 0.0833842 0.995997
0.198652 0.161786 0.353528 0.966572 -0.0574013 -0.249885
0.212947 -0.0497204 0.399648 0.999009 0.0444562 -0.00193179
-0.0124959 -0.126889 0.444673 0.0320843 0.0331749 0.998934
0.220208 -0.21189 0.173111 -0.675686 -0.736425 0.0335489
-0.231264 -0.186579 0.326065 0.0404038 0.996758 -0.0695746
-0.193056 -0.156018 0.376365 0.300402 -0.237127 0.923867
0.237306 -0.191044 0.431448 0.736086 -0.659067 0.154299
-0.196944 -0.0633256 0.438967 -0.605438 0.0791144 0.791951
-0.0369181 0.140916 0.374316 0.00180752 -0.999373 0.0353685
0.164169 -0.0473155 0.355454 0.0469638 -0.0482745 -0.997729
0.235657 0.145254 0.605482 0.238775 -0.026543 0.970712
-0.00563206 0.239745 0.685706 -0.00175468 0.98949 -0.144593
0.170397 -0.133678 0.369264 -0.713352 -0.587492 0.382076
0.0601168 0.142302 0.408663 0.00175059 -0.999374 0.0353232
0.232063 -0.0343512 0.00903891 0.75751 0.0159803 -0.652628
-0.0402663 -0.00205926 0.434902 0.0014503 0.120279 0.992739
0.196273 0.152151 0.470968 0.75999 -0.647838 0.0521532
0.137142 0.18783 0.348445 -0.00171415 0.922818 -0.385233
-0.200643 0.151055 0.399891 -0.998547 -0.0537509 0.00392749
-0.117944 -0.181727 0.44986 0.0321003 0.0269668 0.999121
0.143188 0.150054 0.372346 0.383489 0.840752 0.382194
0.1891 -0.126932 0.375143 0.713337 0.587057 0.382772
-0.112597 0.139602 0.37407 -0.00182299 0.998805 -0.0488337
0.0262104 0.142393 0.412911 0.00175059 -0.999374 0.0353232
-0.149431 0.146759 0.545174 0.00175635 -0.999374 0.0353232
-0.0524143 -0.18426 0.364968 -0.0508192 -0.0398377 -0.997913
0.0414116 0.0679164 0.344101 0.0469638 -0.0482745 -0.997729
-0.239545 -0.205245 0.207652 -0.999194 0.0400205 -0.0029678
-0.193617 -0.242885 0.453942 0.0321003 0.0269668 0.999121
-0.166451 0.00799312 0.433869 0.00145778 0.120272 0.99274
0.148485 0.225148 0.583895 -0.0018167 0.989497 -0.144544
-0.192471 -0.225342 0.453432 0.0321003 0.0269668 0.999121
0.0555045 0.169575 0.639976 0.00174768 -0.963763 0.266755
0.0977715 0.157793 0.338466 -0.000144102 -0.0672387 -0.997737
-0.00342451 -0.0235783 0.34668 -0.0216393 -0.0484365 -0.998592
-0.180718 -0.115839 0.446929 0.00152995 0.0841522 0.996452
-0.105402 0.243376 0.764306 -0.00114659 0.756399 0.65411
0.115914 0.227396 0.59969 -0.0018167 0.989497 -0.144544
-0.211017 -0.024628 0.406553 -0.999159 0.0409669 -0.00191892
-0.0644129 0.0236029 0.345713 -0.0216393 -0.0484365 -0.998592
-0.0888574 0.202706 0.437058 -0.001762 0.988782 -0.149355
0.162109 -0.181731 0.370403 0.050958 -0.0386223 -0.997954
0.0385005 -0.0477774 0.349562 0.0469638 -0.0482745 -0.997729
-0.202294 0.186812 0.483396 -0.998113 -0.0611297 0.00587486
-0.0199708 0.148618 0.378302 -0.000662425 0.382455 0.923974
-0.236669 -0.195956 0.240178 -0.679054 0.7323 -0.0512036
-0.14678 0.21691 0.531773 -0.00175445 0.988781 -0.149362
0.0469496 0.202449 0.433738 -0.00181662 0.988782 -0.149355
0.239809 0.0976011 0.572586 0.74438 -0.0222033 -0.667387
0.189573 -0.12997 0.358507 0.299477 0.238093 -0.923918
-0.113847 0.0538159 0.42824 0.00145778 0.120272 0.99274
-0.118423 -0.0621312 0.442295 0.0014503 0.120279 0.992739
0.151233 0.146428 0.37072 0.600223 0.702605 0.382203
0.143034 -0.163846 0.449361 -0.0321964 0.0833842 0.995997
-0.222768 -0.205545 0.331157 0.678341 -0.732956 0.0512759
-0.175676 0.167521 0.337866 -0.261165 -0.0653002 -0.963083
-0.203221 -0.0757369 0.37299 -0.697458 -0.0314012 -0.715937
0.0425612 -0.277755 0.399031 0.0137235 -0.974916 -0.222148
-0.182871 -0.27851 0.410243 0.00204733 -0.999922 0.0122829
0.227534 -0.209536 0.292282 0.0425587 -0.996668 0.0695775
0.190523 0.147844 0.46786 0.447542 -0.893532 0.0361565
-0.193932 -0.109913 0.445924 -0.605438 0.0791144 0.791951
0.171215 0.142629 0.405235 -0.00155694 0.994149 -0.108003
-0.170513 0.218484 0.542469 -0.00175445 0.988781 -0.149362
-0.214798 0.00288305 0.0183101 0.997 -0.0175114 -0.0753946
-0.124119 0.0685948 0.344913 -0.0470849 -0.0713544 -0.996339
0.188004 0.241199 0.715461 0.244791 0.959411 -0.140028
0.0928399 0.0391805 0.430022 -0.00187744 0.120273 0.992739
-0.00962832 0.19837 0.744435 0.00175313 -0.963763 0.266755
-0.0462932 0.154925 0.587713 0.00175466 -0.963762 0.266757
-0.020951 0.114573 0.340359 -0.0216393 -0.0484365 -0.998592
-0.00690736 0.240009 0.687528 -0.00175468 0.98949 -0.144593
0.237382 -0.08337 0.56399 0.700944 0.32861 -0.633003
-0.0874536 0.214379 0.51432 -0.00175445 0.988781 -0.149362
-0.162925 0.225215 0.588185 -0.00176023 0.98949 -0.144588
-0.158744 -0.253086 0.373072 -0.0503755 -0.0388096 -0.997976
-0.135729 0.142331 0.41934 0.00180752 -0.999373 0.0353685
0.217692 -0.113694 0.0219357 -0.996953 -0.0210116 -0.0751168
0.145328 0.234842 0.771453 0.000139761 0.0696087 0.997574
0.0590021 0.195833 0.734819 0.00174928 -0.963762 0.266757
0.218626 0.120164 0.00945209 -0.65294 -0.0137654 -0.757285
0.044417 0.235039 0.652891 -0.00176202 0.989489 -0.144593
0.0583832 0.235524 0.656044 -0.00176202 0.989489 -0.144593
-0.0950208 -0.213463 0.368304 -0.0508192 -0.0398377 -0.997913
-0.096858 -0.275255 0.389967 -0.0101987 -0.974959 -0.222149
0.106857 0.138963 0.363159 -0.00152171 0.992388 -0.123141
-0.248558 0.199597 0.590855 -0.952048 -0.0213863 0.3052
-0.239675 -0.212138 0.144716 -0.999195 0.0400813 -0.00191524
-0.0482389 0.224375 0.581041 -0.00175468 0.98949 -0.144593
0.184905 -0.075296 0.443301 -0.0321964 0.0833842 0.995997
-0.246901 0.185121 0.578812 -0.961191 -0.0221961 -0.274989
-0.21249 0.0972535 0.592061 0.960597 -0.0359645 0.275607
0.072149 0.18628 0.70022 0.00174928 -0.963762 0.266757
-0.0424964 -0.187083 0.44758 0.0321003 0.0269668 0.999121
-0.0326581 -0.0218952 0.437295 0.0014503 0.120279 0.992739
-0.0109706 -0.174747 0.358319 -0.0200634 -0.776892 -0.629314
0.128311 -0.156018 0.448229 -0.0321964 0.0833842 0.995997
0.0415645 -0.0465533 0.440311 -0.00186986 0.120266 0.99274
-0.219695 -0.106631 0.553026 0.720449 0.429285 -0.544672
-0.18585 -0.175198 0.451846 0.0320843 0.0331749 0.998934
0.0967825 0.18469 0.694313 0.00174928 -0.963762 0.266757
0.233595 -0.106575 0.0090494 0.75751 0.0159803 -0.652628
0.20195 0.0348945 0.420517 0.897785 0.0868036 0.431796
0.0632885 -0.222667 0.449185 -0.0321934 0.0272518 0.99911
0.236735 -0.213735 0.203997 0.737094 -0.674143 0.0471522
-0.0833738 0.175078 0.660769 0.00175313 -0.963763 0.266755
0.146319 -0.259407 0.445935 -0.0297099 -0.418775 0.907604
0.239001 0.151388 0.604496 0.739694 -0.0206033 0.672628
-0.16125 0.143867 0.46405 0.00180752 -0.999373 0.0353685
-0.0309624 0.167056 0.631443 0.00175313 -0.963763 0.266755
0.233241 0.1726 0.0165252 0.997093 0.0210473 0.0732356
-0.111384 0.241297 0.766698 -0.00118376 0.75607 0.65449
0.114668 0.140067 0.375478 -0.00165823 0.998806 -0.0488338
0.159845 -0.00186429 0.36303 -0.924009 -0.00160534 -0.382368
0.0502428 0.176853 0.666304 0.00174768 -0.963763 0.266755
0.0070799 -0.216084 0.447194 -0.0321934 0.0272518 0.99911
0.23787 0.00497706 0.601102 0.243617 -0.0262586 0.969516
0.187845 0.185754 0.346859 0.169222 0.935166 -0.311171
-0.237704 -0.203325 0.103065 -0.678239 0.734527 0.0215149
0.0800555 0.228432 0.607235 -0.0018167 0.989497 -0.144544
0.164487 0.247112 0.734049 -0.00176202 0.989489 -0.144593
0.201615 0.194018 0.59344 0.998733 -0.0486885 0.0126924
0.216111 -0.233711 0.432339 0.898879 0.0312501 0.437081
-0.234744 -0.0471089 0.0257221 -0.652478 0.0114942 0.75772
0.0290818 0.228712 0.609786 -0.00176202 0.989489 -0.144593
0.079854 0.140815 0.365613 0.00175059 -0.999374 0.0353232
-0.205162 -0.225852 0.378471 -0.736798 -0.0117943 -0.67601
0.0275036 -0.0869697 0.442977 -0.0017542 0.0331331 0.999449
-0.0855691 -0.0111411 0.348801 -0.0470849 -0.0713544 -0.996339
-0.0720268 0.17126 0.646899 0.00175313 -0.963763 0.266755
0.0462344 -0.263196 0.367708 0.0505107 -0.0396618 -0.997936
0.105346 0.154345 0.338697 -0.000144102 -0.0672387 -0.997737
0.0544581 0.0356553 0.346276 0.0469638 -0.0482745 -0.997729
-0.214054 0.0260895 0.588101 0.961986 -0.0362159 0.270685
0.102316 0.162597 0.614456 0.00174768 -0.963763 0.266755
0.137471 0.142656 0.414845 0.00175042 -0.999374 0.035323
0.00545073 -0.163992 0.445492 -0.0017542 0.0331331 0.999449
-0.0970052 0.178372 0.672759 0.00175313 -0.963763 0.266755
-0.194131 0.19523 0.422272 -0.733608 0.673469 -0.090879
-0.245353 0.0362941 0.589319 -0.953841 -0.0216684 0.29953
0.0822714 0.113496 0.342044 0.0223901 -0.0722327 -0.997136
0.225636 -0.187573 0.356209 -0.299663 -0.23824 -0.92382
0.0813216 0.219955 0.54922 -0.00181662 0.988782 -0.149355
-0.105748 0.101219 0.342844 -0.0216393 -0.0484365 -0.998592
-0.147013 -0.0813759 0.355265 -0.0459539 0.00943421 -0.998899
-0.0405136 0.170593 0.337623 -0.000144006 -0.0671726 -0.997741
-0.141814 -0.211412 0.370597 -0.0503755 -0.0388096 -0.997976
0.218052 -0.129272 0.0215168 -0.996953 -0.0210116 -0.0751168
0.0740098 0.254765 0.0138214 0.00115588 -0.689633 -0.724158
0.191493 -0.125025 0.367757 0.71336 0.586933 0.382919
-0.192399 0.198362 0.72853 -0.610417 -0.764518 0.207129
0.0667845 0.104724 0.342332 0.0223901 -0.0722327 -0.997136
0.208805 0.201616 0.583745 -0.951299 -0.039163 -0.305773
-0.154171 0.270717 0.0126751 0 0 1
-0.160291 -0.273843 0.432449 0.0196752 -0.838405 0.544692
0.203299 -0.0223558 0.429105 0.600142 0.114334 0.79168
-0.0069583 0.180955 0.6815 0.00175313 -0.963763 0.266755
0.219918 -0.210346 0.130495 -0.999046 -0.043633 0.00193966
-0.0268094 0.192468 0.368552 -0.001762 0.988782 -0.149355
0.225171 -0.0761321 0.586343 -0.703851 -0.210848 0.678334
-0.160183 -0.0454254 0.360295 0.923915 0.00161221 -0.382595
-0.165854 -0.0416538 0.354781 -0.0470849 -0.0713544 -0.996339
0.186921 -0.174562 0.451677 -0.0321964 0.0833842 0.995997
-0.174537 0.183955 0.693442 0.00175466 -0.963762 0.266757
0.227393 0.0250859 0.602944 -0.217312 -0.031687 0.975588
-0.0835124 -0.15576 0.447913 0.0320843 0.0331749 0.998934
-0.0279732 -0.270417 0.432975 0.0193015 -0.835935 0.548489
-0.138785 0.0665372 0.345753 -0.0470849 -0.0713544 -0.996339
-0.232251 -0.0752216 0.565441 0.00666742 0.461622 -0.887052
0.162279 0.0397077 0.349186 0.0223901 -0.0722327 -0.997136
-0.162834 0.168874 0.638879 0.00175466 -0.963762 0.266757
0.0164393 0.148965 0.565768 0.00174768 -0.963763 0.266755
0.176042 -0.24383 0.453372 -0.0320571 0.0268595 0.999125
0.202177 -0.200944 0.373262 0.768299 -0.00704006 -0.640052
-0.200889 0.197799 0.582885 0.00161668 -0.923844 0.382766
0.103689 0.0942342 0.34392 0.0223901 -0.0722327 -0.997136
0.180176 0.136245 0.347382 -0.00120145 0.960097 -0.279666
-0.0670747 -0.207054 0.448911 0.031962 0.0273652 0.999114
-0.193753 0.205977 0.500373 -0.357598 0.925528 -0.124587
0.243419 0.0118029 0.579391 0.739346 -0.0219301 -0.672968
0.233625 0.118718 0.0244387 0.652985 0.0137818 0.757246
0.219648 0.0443967 0.576363 -0.734109 -0.0368234 -0.678032
0.225308 -0.198337 0.0878824 -0.740183 0.672113 0.0198337
-0.183497 -0.0970083 0.357819 -0.76786 0.0444424 -0.639074
0.0602893 0.138413 0.37182 0.00160864 -0.923939 0.382537
0.165265 -0.0911719 0.357616 -0.382606 -0.000668458 -0.923911
-0.0116383 -0.106867 0.348797 -0.0459539 0.00943421 -0.998899
0.198501 0.19327 0.46239 0.726835 0.683234 -0.0700127
-0.0128293 0.146167 0.521637 0.00175635 -0.999374 0.0353232
0.0533384 -0.035311 0.438972 -0.00186986 0.120266 0.99274
0.172514 0.220947 0.554837 -0.0018167 0.989497 -0.144544
-0.00644271 -0.198005 0.446724 0.031962 0.0273652 0.999114
-0.192764 -0.0185364 0.36051 -0.0787855 -0.108315 -0.99099
-0.176096 0.242089 0.704527 -0.357632 0.924024 -0.135198
-0.186853 0.200509 0.747261 -0.14266 -0.953933 0.263931
-0.128595 0.133519 0.418606 0.00145778 0.120272 0.99274
-0.202169 0.184729 0.483071 -0.998113 -0.0611297 0.00587486
0.199161 -0.0342119 0.365446 0.697635 -0.0518606 -0.714574
0.0198955 0.0957886 0.341739 0.0469638 -0.0482745 -0.997729
0.221557 -0.136625 0.0115922 -0.65294 -0.0137654 -0.757285
-0.227198 0.210521 0.591587 0.00275025 -0.999985 0.00480051
-0.208619 0.184534 0.581437 -0.000669908 0.382816 0.923824
0.133756 0.197558 0.400335 -0.00176202 0.988775 -0.149404
0.0582593 -0.121552 0.350052 0.0338789 0.00957771 -0.99938
0.0900531 -0.209579 0.44969 -0.0321934 0.0272518 0.99911
-0.222569 -0.200674 0.1384 0.734134 0.678299 -0.030949
-0.229074 -0.052702 0.0299358 0.0741853 -0.00130474 0.997244
0.0885077 0.191681 0.361974 -0.00176202 0.988775 -0.149404
0.0210443 -0.2452 0.448436 -0.0320571 0.0268595 0.999125
-0.186189 -0.136689 0.35623 -0.300273 0.236959 -0.923952
-0.181125 0.19291 0.38094 -0.206414 0.967474 -0.146245
-0.0376938 -0.0933208 0.444368 0.0320843 0.0331749 0.998934
0.0498235 0.224685 0.581966 -0.0018167 0.989497 -0.144544
-0.222381 0.157469 0.0297128 0.0742279 -0.00130441 0.99724
0.0646854 0.147016 0.541813 0.00175042 -0.999374 0.035323
0.0889748 0.094571 0.343565 0.0223901 -0.0722327 -0.997136
0.0703508 -0.111531 0.350558 0.0338789 0.00957771 -0.99938
-0.005426 0.0921152 0.423441 0.0014503 0.120279 0.992739
-0.0300233 0.178752 0.673693 0.00175313 -0.963763 0.266755
0.155903 0.147023 0.537491 0.00175042 -0.999374 0.035323
0.0441486 0.180019 0.677782 0.00174768 -0.963763 0.266755
0.1416 0.190817 0.35563 -0.00176202 0.988775 -0.149404
-0.21419 -0.189404 0.430138 -0.900683 0.028067 0.433569
0.00982175 0.216344 0.526181 -0.00181662 0.988782 -0.149355
-0.107445 0.246461 0.756225 -0.00170862 0.99524 0.0974397
-0.00881013 0.0243238 0.43166 0.0014503 0.120279 0.992739
-0.207372 0.0629642 0.379185 -0.999159 0.0409662 -0.00198892
-0.134912 0.198322 0.408579 -0.00175445 0.988781 -0.149362
0.0770527 0.223434 0.573058 -0.0018167 0.989497 -0.144544
-0.0832126 0.0777714 0.343493 -0.0216393 -0.0484365 -0.998592
0.14083 0.169309 0.638454 0.00174928 -0.963762 0.266757
0.197771 -0.0697769 0.366422 0.697427 -0.0143017 -0.716513
-0.175826 0.115851 0.367037 -0.840527 0.383872 -0.382304
0.0805327 -0.12948 0.44448 -0.0017542 0.0331331 0.999449
-0.225044 -0.199192 0.101248 0.0433245 0.998661 0.0282776
0.0220542 -0.145142 0.444896 -0.0017542 0.0331331 0.999449
0.0991109 0.223747 0.772234 0.000140096 0.0696113 0.997574
-0.226905 0.168824 0.607564 0.212547 -0.0309216 0.976662
0.0874135 -0.00122376 0.349611 0.0469638 -0.0482745 -0.997729
0.116103 0.164823 0.622411 0.00174768 -0.963763 0.266755
-0.118275 -0.27492 0.389477 -0.0101987 -0.974959 -0.222149
-0.125694 -0.277373 0.400634 -0.0102667 -0.975212 -0.221035
-0.0236818 0.222714 0.772322 8.85728e-05 0.0696112 0.997574
-0.064989 -0.23265 0.449546 0.031962 0.0273652 0.999114
-0.106722 0.193865 0.37874 -0.001762 0.988782 -0.149355
-0.011862 0.142081 0.40599 0.00175635 -0.999374 0.0353232
-0.213054 -0.0754519 0.402837 -0.999283 0.037829 -0.00164268
0.0290882 0.13909 0.350806 0.00176729 -0.992003 0.1262
0.213114 0.145947 0.577921 -0.734109 -0.0368234 -0.678032
0.226612 0.095226 0.029917 -0.0742356 -0.00156463 0.99724
0.113155 0.146397 0.521902 0.00175042 -0.999374 0.035323
-0.210271 -0.15277 0.370604 -0.725357 0.572364 0.382435
0.19888 0.263101 0.0234556 0.613872 0.787864 0.0493029
0.0672513 0.20461 0.447796 -0.00181662 0.988782 -0.149355
0.154739 0.244436 0.715853 -0.0018167 0.989497 -0.144544
0.127334 0.176328 0.663904 0.00174928 -0.963762 0.266757
-0.169597 0.212597 0.503485 -0.00175445 0.988781 -0.149362
0.166507 -0.0509136 0.37735 -0.38251 -0.00066456 0.923951
-0.0551703 0.202095 0.757491 0.00179854 -0.957468 0.288533
-0.0183598 -0.278269 0.400227 0.00213187 -0.999939 0.0108783
-0.0851723 -0.0722353 0.4431 0.00152995 0.0841522 0.996452
-0.246107 0.146182 0.594758 -0.952048 -0.0213863 0.3052
-0.157835 0.000325568 0.368255 0.923914 0.00156463 0.382596
-0.00193836 -0.0161647 0.346288 -0.0216393 -0.0484365 -0.998592
-0.000688553 -0.136797 0.444623 0.0320843 0.0331749 0.998934
-0.231346 0.162449 0.607008 -0.238706 -0.0271832 0.970711
0.202034 0.177391 0.419752 0.998746 -0.0497572 0.00554372
0.0589505 -0.278052 0.408473 0.00148321 -0.99994 0.0108783
-0.221166 0.0892915 0.00835384 -0.0752255 0.00135163 -0.997166
-0.127634 0.2732 0.0133269 -0.00122135 0.724724 -0.689038
0.236134 -0.19758 0.178209 0.675976 0.736147 -0.0338443
-0.160421 -0.0907988 0.374895 0.924309 0.00161289 0.381642
0.240185 -0.212415 0.161706 0.737093 -0.675081 0.0309807
-0.176008 0.145829 0.517809 -0.211511 -0.976766 0.034506
0.147011 0.00281179 0.351516 0.0223901 -0.0722327 -0.997136
-0.0556112 0.208864 0.477435 -0.001762 0.988782 -0.149355
-0.174965 0.143939 0.466785 0.00180752 -0.999373 0.0353685
0.155786 -0.277157 0.403399 0.0137235 -0.974916 -0.222148
0.234578 0.184763 0.606828 0.238775 -0.026543 0.970712
0.179614 -0.00945766 0.370528 0.923885 0.00161327 0.382667
0.105971 0.145961 0.509915 0.00175042 -0.999374 0.035323
0.215387 -0.106869 0.410204 0.999127 0.0417415 -0.00169259
0.137359 -0.167099 0.353731 0.0200778 -0.837164 -0.546584
0.0545928 -0.24677 0.448966 -0.0281265 -0.429591 0.902585
-0.190435 0.212146 0.536672 -0.357598 0.925528 -0.124587
0.240797 -0.201907 0.182678 0.999105 0.0422048 -0.00283297
0.233975 -0.185577 0.327979 -0.0436413 0.996622 -0.0695702
0.0839503 -0.185153 0.448827 -0.0321934 0.0272518 0.99911
0.0913358 0.0539506 0.346561 0.0223901 -0.0722327 -0.997136
0.104974 0.193895 0.376433 -0.00176202 0.988775 -0.149404
-0.239657 -0.206454 0.229322 -0.999239 0.0389017 -0.00283398
0.182766 0.243168 0.719798 0.244791 0.959411 -0.140028
0.0883146 0.240513 0.689819 -0.00176202 0.989489 -0.144593
0.0993789 -0.105734 0.443726 -0.0017542 0.0331331 0.999449
0.223958 -0.183524 0.37564 -0.736405 0.67177 -0.0802072
0.161953 0.118757 0.343452 0.0223901 -0.0722327 -0.997136
-0.0680912 -0.202949 0.448831 0.031962 0.0273652 0.999114
0.0534658 0.231352 0.627555 -0.00176202 0.989489 -0.144593
-0.0933731 0.173787 0.656171 0.00175466 -0.963762 0.266757
0.0894933 0.234781 0.650582 -0.00176202 0.989489 -0.144593
0.181125 0.237491 0.678029 0.244791 0.959411 -0.140028
0.101377 -0.172228 0.360213 0.0335704 -0.776573 -0.629133
-0.204911 0.195752 0.595081 0.000670036 -0.382889 -0.923794
0.182569 0.0583459 0.348513 0.0620422 -0.0705534 -0.995577
0.202051 0.189499 0.525285 0.998746 -0.0497572 0.00554372
-0.0137883 0.0635068 0.42692 0.0014503 0.120279 0.992739
-0.143845 0.137641 0.35609 -0.00193389 0.992385 -0.123163
0.0161989 -0.27817 0.39922 0.0137235 -0.974916 -0.222148
0.202292 0.210042 0.61551 0.869695 0.485438 -0.0893323
0.154011 0.246281 0.72849 -0.00176202 0.989489 -0.144593
-0.0371762 0.142066 0.406815 0.00175635 -0.999374 0.0353232
-0.115658 0.179784 0.339429 -0.00087076 0.359483 -0.933151
-0.134611 0.134355 0.359871 0.511823 -0.7694 -0.382178
-0.239512 -0.208371 0.138998 -0.999194 0.0400929 -0.0019174
-0.198767 0.163108 0.353656 -0.966275 -0.0608554 -0.250218
-0.199526 -0.266178 0.376128 -0.0268772 -0.844709 -0.53455
0.162199 -0.118206 0.370443 -0.839049 -0.386725 0.382676
0.144711 -0.174777 0.365672 0.0335704 -0.776573 -0.629133
-5.99027e-06 -0.0997906 0.443372 0.0320843 0.0331749 0.998934
-0.159143 -0.0154776 0.362933 0.924309 0.0015653 -0.381643
-0.0546409 0.228198 0.607285 -0.00175468 0.98949 -0.144593
0.216613 -0.188031 0.399555 0.955094 0.0160086 -0.295869
0.213999 -0.117313 0.423625 0.889585 0.0637133 0.452304
0.220325 0.00289227 0.598358 -0.738647 -0.0371882 0.673066
-0.231493 -0.190514 0.447849 -0.0352826 -0.973258 0.226991
-0.178788 0.0603379 0.371019 -0.923956 -0.00166 0.382495
-0.000265916 0.224326 0.772207 8.85728e-05 0.0696112 0.997574
0.0419404 -0.103381 0.443547 -0.0017542 0.0331331 0.999449
-0.0397495 0.192773 0.724412 0.00175313 -0.963763 0.266755
0.140279 -0.255012 0.447765 -0.0297099 -0.418775 0.907604
-0.211135 -0.221367 0.438553 -0.900683 0.028067 0.433569
0.0173802 0.126639 0.340631 0.0113364 0.319059 -0.947667
0.159478 0.179703 0.675885 0.00174928 -0.963762 0.266757
-0.147925 0.245782 0.728749 -0.00176023 0.98949 -0.144588
-0.155958 -0.269843 0.43845 0.0196752 -0.838405 0.544692
0.154867 0.0658379 0.426909 -0.00186986 0.120266 0.99274
-0.211932 0.183134 0.0142176 0.997086 -0.0175421 -0.0742453
0.234448 0.103765 0.570503 0.21271 -0.0282493 -0.976707
-0.198884 -0.0709535 0.368555 -0.697458 -0.0314012 -0.715937
-0.13258 0.194143 0.729972 0.00175313 -0.963763 0.266755
-0.195707 0.205636 0.51211 -0.733608 0.673469 -0.090879
-0.155822 0.269598 0.0126751 0 0 1
-0.0428256 0.223622 0.575824 -0.00175468 0.98949 -0.144593
0.0727614 -0.0868909 0.35126 0.0454961 0.0310123 -0.998483
0.0447122 0.239601 0.684109 -0.00176202 0.989489 -0.144593
-0.00240085 0.224966 0.584533 -0.00175468 0.98949 -0.144593
0.226816 -0.171797 0.00518292 -0.363681 -0.924185 0.116696
-0.239369 -0.201682 0.196385 -0.999194 0.0400205 -0.0029678
-0.183362 0.159504 0.340494 -0.261475 -0.065442 -0.962989
-0.140095 0.210753 0.490932 -0.00175445 0.988781 -0.149362
0.200604 0.216279 0.632965 0.869695 0.485438 -0.0893323
-0.128402 0.161324 0.611375 0.00175466 -0.963762 0.266757
0.151494 0.138728 0.36071 -0.00152171 0.992388 -0.123141
-0.102158 0.21454 0.772898 7.93767e-05 0.0695406 0.997579
-0.00574829 0.102215 0.422218 0.0014503 0.120279 0.992739
0.192631 0.26437 0.0256892 0.308236 0.607377 0.732177
0.180831 0.217551 0.545757 0.354701 0.924512 -0.139514
0.126917 -0.277261 0.402075 0.0137235 -0.974916 -0.222148
0.184812 0.0267349 0.431703 -0.00186986 0.120266 0.99274
-0.18281 0.170081 0.639051 -0.211375 -0.943303 0.255929
-0.0438624 0.243546 0.712186 -0.00176023 0.98949 -0.144588
0.247705 0.130344 0.589349 0.952372 -0.0183058 0.30439
0.00976394 -0.0475174 0.440368 -0.00187744 0.120273 0.992739
0.146754 0.178575 0.338718 -0.000870761 0.359483 -0.933151
-0.233645 -0.0470109 0.594995 -0.00193164 -0.156311 0.987706
0.180577 0.101814 0.345308 0.0620422 -0.0705534 -0.995577
-0.233355 0.0227127 0.572694 -0.218307 -0.0290048 -0.975449
0.240563 -0.145283 0.510896 0.68301 0.629376 -0.370654
-0.197179 0.186927 0.670448 -0.757587 -0.633835 0.155933
-0.075469 0.192353 0.723129 0.00175313 -0.963763 0.266755
-0.23974 -0.133764 0.539391 -0.999807 0.0146712 -0.0130388
0.22002 -0.210946 0.0782973 -0.998873 -0.0464177 -0.00990585
0.0046646 0.240351 0.689728 -0.00176202 0.989489 -0.144593
0.0931924 0.131591 0.34312 0.00158111 0.0612564 -0.998121
-0.081314 -0.234403 0.368437 -0.0503755 -0.0388096 -0.997976
0.22161 -0.196973 0.388443 -0.675846 -0.731844 0.0873889
-0.217705 -0.148555 0.0152041 0.996937 -0.0214755 -0.0752021
-0.180543 -0.221327 0.45294 0.0321003 0.0269668 0.999121
-0.0783356 0.253625 0.0209849 0.00173695 -0.999685 -0.0250211
0.2122 -0.0549306 0.392586 0.957296 0.0153735 -0.288701
0.0911722 0.14006 0.376135 -0.00165823 0.998806 -0.0488338
0.120667 0.220495 0.552393 -0.0018167 0.989497 -0.144544
0.126566 0.186938 0.702241 0.00174928 -0.963762 0.266757
-0.0444469 0.147255 0.553981 0.00175635 -0.999374 0.0353232
-0.191276 0.227724 0.641428 -0.248147 0.956781 -0.151635
0.167956 0.140641 0.385412 -0.00165867 0.998805 -0.0488381
0.234828 -0.0476441 0.0119235 0.757741 0.0159763 -0.652359
0.0338298 0.0516798 0.344529 0.0469638 -0.0482745 -0.997729
0.0646998 0.236671 0.663814 -0.00176202 0.989489 -0.144593
0.0309289 0.143275 0.437633 0.00175059 -0.999374 0.0353232
-0.234384 -0.051431 0.593558 -0.7073 -0.11077 0.698181
0.239248 0.197731 0.605645 0.739694 -0.0206033 0.672628
-0.220643 -0.137161 0.541468 0.69371 -0.541673 0.474717
0.0812277 0.197946 0.403524 -0.00176202 0.988775 -0.149404
-0.0937195 0.223503 0.772273 7.93767e-05 0.0695406 0.997579
0.174679 0.111537 0.374774 0.871524 0.306136 0.383048
0.17917 -0.202471 0.45236 -0.0320571 0.0268595 0.999125
0.0242461 -0.207949 0.447525 -0.0321934 0.0272518 0.99911
0.0325225 0.143465 0.442937 0.00175059 -0.999374 0.0353232
-0.204806 0.125383 0.375772 -0.999159 0.0409662 -0.00198892
0.100524 -0.243251 0.369663 0.0505107 -0.0396618 -0.997936
0.160172 0.0587461 0.372441 -0.923886 -0.00160513 0.382665
0.101931 0.147095 0.542196 0.00175042 -0.999374 0.035323
-0.193986 0.228805 0.652684 -0.248147 0.956781 -0.151635
0.0426923 -0.270866 0.375945 0.0305685 -0.835258 -0.549008
0.0796025 0.221214 0.557832 -0.0018167 0.989497 -0.144544
-0.197373 0.196485 0.457739 -0.733608 0.673469 -0.090879
0.147071 0.0804598 0.425123 -0.00186986 0.120266 0.99274
-0.167617 0.26861 0.00166216 -0.991586 -0.00172302 0.129436
-0.135564 0.139615 0.375192 -0.00182299 0.998805 -0.0488337
-0.147889 -0.271572 0.435498 0.0196752 -0.838405 0.544692
-0.217766 0.0999897 0.0285284 0.757426 -0.0133102 0.652785
-0.226946 -0.205951 0.3545 -0.0390929 -0.99681 0.0695775
0.191445 0.161322 0.588129 0.758523 -0.628759 0.171188
-0.035917 0.217249 0.532712 -0.00175445 0.988781 -0.149362
0.043183 0.234051 0.646148 -0.00176202 0.989489 -0.144593
-0.175386 0.191783 0.365766 -0.00175445 0.988781 -0.149362
-0.078269 0.246446 0.732451 -0.00176023 0.98949 -0.144588
-0.110545 -0.00829555 0.349778 -0.0470849 -0.0713544 -0.996339
0.0058917 -0.128144 0.444304 -0.0017542 0.0331331 0.999449
0.180576 -0.258966 0.44726 -0.0297099 -0.418775 0.907604
0.0527827 0.151529 0.37715 -0.000672555 0.382497 0.923956
0.0731365 0.126631 0.419389 -0.00187744 0.120273 0.992739
0.240962 -0.20541 0.256975 0.736914 -0.67434 0.0471528
0.0459113 0.194962 0.384193 -0.00176202 0.988775 -0.149404
0.220643 -0.192615 0.412923 -0.676897 -0.716887 0.166985
0.19759 0.150065 0.425865 0.75999 -0.647838 0.0521532
0.0302543 -0.146303 0.348866 0.0338789 0.00957771 -0.99938
0.140736 -0.199944 0.451059 -0.0320571 0.0268595 0.999125
0.208378 -0.179785 0.363026 -0.723032 -0.574878 -0.383067
-0.0966013 -0.0189789 0.349884 -0.0470849 -0.0713544 -0.996339
0.194344 0.219719 0.762813 0.709274 0.0300639 0.704292
0.197706 0.21901 0.619599 0.869695 0.485438 -0.0893323
-0.0139998 0.233661 0.644172 -0.00175468 0.98949 -0.144593
0.0824193 -0.108301 0.351035 0.0454961 0.0310123 -0.998483
-0.149385 0.104294 0.422177 0.00145778 0.120272 0.99274
-0.0430344 0.144564 0.477795 0.00175635 -0.999374 0.0353232
-0.242467 0.0971437 0.598688 -0.740023 -0.0228506 0.672193
-0.0307784 0.237984 0.673962 -0.00175468 0.98949 -0.144593
0.0314654 0.110663 0.341108 0.0223901 -0.0722327 -0.997136
-0.239643 -0.193284 0.386781 -0.999276 0.0377851 -0.00451838
0.235726 -0.146514 0.0107405 0.759011 -0.0484522 -0.649272
0.141491 0.0477845 0.348134 0.0223901 -0.0722327 -0.997136
0.0173002 0.262531 0.00852455 -4.36779e-05 0.0250996 -0.999685
0.210261 -0.0769222 0.425288 0.889585 0.0637133 0.452304
0.219644 -0.0710659 0.581946 -0.99999 -0.00333817 0.00285145
0.115281 0.204964 0.449572 -0.00176202 0.988775 -0.149404
0.160511 -0.143684 0.448238 -0.0321964 0.0833842 0.995997
-0.206579 0.221861 0.0194425 0.934207 -0.35125 -0.062293
-0.102676 -0.164358 0.448814 0.0320843 0.0331749 0.998934
0.231836 -0.218342 0.153195 0.0425655 -0.998051 0.045634
0.160103 0.0795884 0.372363 -0.923886 -0.00160513 0.382665
0.0443811 0.247787 0.745362 -0.00170858 0.995231 0.0975319
0.229876 0.107846 0.0278689 0.652985 0.0137818 0.757246
-0.101216 0.141653 0.400499 -0.00190904 0.994155 -0.107946
0.220108 0.110632 0.029457 -0.074191 -0.00156256 0.997243
0.000720039 -0.186265 0.446176 -0.0321934 0.0272518 0.99911
0.218196 -0.190505 0.42484 0.900375 0.0321463 0.433925
0.175893 0.198302 0.405647 0.354701 0.924512 -0.139514
0.129505 0.138259 0.342869 0.00176729 -0.992003 0.1262
-0.124314 0.127728 0.342045 -0.0201185 0.0211129 -0.999575
0.115428 0.142772 0.419235 0.00175059 -0.999374 0.0353232
-0.121037 -0.0920527 0.444828 0.00152995 0.0841522 0.996452
0.132414 0.146702 0.529561 0.00175042 -0.999374 0.035323
0.0567593 -0.051864 0.350619 0.0469638 -0.0482745 -0.997729
-0.0988907 0.229052 0.613667 -0.00175468 0.98949 -0.144593
0.0882726 0.228279 0.771919 0.000139761 0.0696087 0.997574
0.0357548 0.139651 0.339594 -0.000180036 -0.0467909 -0.998905
0.219651 -0.230043 0.421403 0.999681 0.025232 0.0013098
0.11691 0.217539 0.532792 -0.00181662 0.988782 -0.149355
-0.21224 0.104755 0.59217 0.960597 -0.0359645 0.275607
-0.239539 -0.191384 0.3799 -0.999239 0.0387153 -0.0048044
0.129372 0.155997 0.590435 0.00174768 -0.963763 0.266755
-0.207735 0.0307156 0.379972 -0.957742 -0.00125322 -0.287627
-0.219549 -0.100892 0.000911876 0.869648 0.464541 0.167076
0.014502 -0.0244695 0.347304 0.0469638 -0.0482745 -0.997729
-0.0752876 0.00720595 0.433831 0.0014503 0.120279 0.992739
-0.125673 0.234372 0.650395 -0.00176023 0.98949 -0.144588
-0.147699 0.232732 0.639445 -0.00176023 0.98949 -0.144588
0.0895952 -0.0308052 0.351145 0.0469638 -0.0482745 -0.997729
-0.0876858 0.140444 0.339578 -0.000174453 -0.0467909 -0.998905
-0.127405 -0.278246 0.422451 0.00204733 -0.999922 0.0122829
-0.107722 0.193656 0.377372 -0.001762 0.988782 -0.149355
-0.165477 0.057823 0.377213 0.382538 0.000667518 0.92394
-0.146401 0.194444 0.383045 -0.001762 0.988782 -0.149355
-0.179115 0.0100563 0.433638 0.00145778 0.120272 0.99274
0.0640398 -0.157477 0.446274 -0.0321964 0.0833842 0.995997
-0.106096 0.187783 0.349414 -0.0017088 0.922795 -0.385288
0.0634221 0.139813 0.356009 0.00176154 -0.992009 0.126158
-0.109372 0.0808388 0.42496 0.00145778 0.120272 0.99274
-0.226081 -0.0247449 0.576235 -9.21378e-05 0.0500269 -0.998748
0.118209 -0.169453 0.356634 0.0200778 -0.837164 -0.546584
-0.0352616 0.0428528 0.429454 0.0014503 0.120279 0.992739
-0.0444271 -0.0626873 0.350549 -0.0470849 -0.0713544 -0.996339
0.212805 0.145841 0.0141971 -0.996953 -0.0210116 -0.0751168
0.00271568 -0.185653 0.362423 0.0505107 -0.0396618 -0.997936
0.20124 0.159864 0.381087 0.998345 -0.0572924 0.00496745
-0.022803 0.160854 0.608981 0.00175313 -0.963763 0.266755
0.176039 -0.155398 0.353838 0.0454961 0.0310123 -0.998483
-0.0648205 0.23431 0.649232 -0.00175468 0.98949 -0.144593
-0.0757199 0.245862 0.728424 -0.00176023 0.98949 -0.144588
0.0260992 -0.105841 0.443601 -0.0017542 0.0331331 0.999449
0.0253424 0.144408 0.377208 0.000672695 -0.382577 0.923923
0.116827 0.14209 0.399863 0.00175059 -0.999374 0.0353232
0.0735106 -0.24678 0.449551 -0.0281265 -0.429591 0.902585
-0.0201028 -0.272873 0.377686 -0.0268772 -0.844709 -0.53455
0.155252 0.0910111 0.345311 0.0223901 -0.0722327 -0.997136
0.0355157 0.235934 0.771392 0.000139761 0.0696087 0.997574
0.0831299 -0.0424934 0.351407 0.0469638 -0.0482745 -0.997729
-0.225745 -0.15801 0.476638 0.0353128 0.933411 -0.357068
-0.173272 0.0413228 0.357591 -0.382594 -0.000687376 -0.923916
0.0770962 -0.168205 0.447594 -0.0321964 0.0833842 0.995997
-0.0196449 0.187247 0.704317 0.00175313 -0.963763 0.266755
0.168435 -0.0776688 0.356294 -0.382606 -0.000668458 -0.923911
-0.0800924 0.242332 0.704316 -0.00176023 0.98949 -0.144588
0.121715 -0.265971 0.442101 -0.0297099 -0.418775 0.907604
-0.217425 0.0661104 0.0274421 0.757426 -0.0133102 0.652785
0.104159 0.178711 0.672663 0.00174928 -0.963762 0.266757
0.201922 0.185011 0.508219 0.998746 -0.0497572 0.00554372
-0.107422 0.234278 0.64953 -0.00176023 0.98949 -0.144588
-0.0691962 -0.145102 0.350692 -0.0339322 0.0304776 -0.998959
0.193477 0.194619 0.70415 0.614136 -0.766109 0.189508
0.232266 0.0979959 0.025987 0.652985 0.0137818 0.757246
0.026637 0.211747 0.495544 -0.00181662 0.988782 -0.149355
-0.145057 0.204945 0.452541 -0.00175445 0.988781 -0.149362
0.128384 0.267812 0.00865214 -4.52524e-05 0.0250701 -0.999686
-0.213424 0.0511547 0.589216 0.961986 -0.0362159 0.270685
0.048252 -0.264782 0.367873 0.0505107 -0.0396618 -0.997936
-0.228605 -0.158265 0.000894976 0.0641237 -0.00943553 -0.997897
-0.116546 -0.0956836 0.353728 -0.0459539 0.00943421 -0.998899
0.108623 -0.224729 0.369337 0.0505107 -0.0396618 -0.997936
0.0399281 0.1963 0.393121 -0.00176202 0.988775 -0.149404
-0.10016 0.17628 0.338065 -0.000872986 0.359516 -0.933138
0.0158496 -0.083821 0.442853 -0.0017542 0.0331331 0.999449
0.194811 0.242244 0.741638 0.761273 0.640513 -0.101024
-0.218519 -0.212413 0.127773 0.999199 -0.0399803 0.00176572
-0.149344 0.137164 0.416565 -0.000807169 0.894017 0.448032
0.216154 -0.0101283 0.0139554 -0.653622 -0.013757 -0.756696
0.205764 0.0134759 0.374885 0.957296 0.0153735 -0.288701
0.0790465 0.146738 0.533222 0.00175042 -0.999374 0.035323
0.14061 0.241976 0.699192 -0.0018167 0.989497 -0.144544
0.0693957 0.202634 0.434689 -0.00181662 0.988782 -0.149355
0.0638507 0.137924 0.3638 0.00161201 -0.923939 -0.382537
0.116267 0.152769 0.338802 -0.000144102 -0.0672387 -0.997737
-0.0359681 0.213426 0.507409 -0.001762 0.988782 -0.149355
-0.0280502 0.167073 0.631484 0.00175313 -0.963763 0.266755
-0.0254319 0.260157 0.00852581 0.00120891 -0.689633 -0.724158
-0.179728 0.248998 0.0198485 0.456388 -0.889046 -0.0361623
0.0200471 0.215793 0.522408 -0.00181662 0.988782 -0.149355
-0.197844 0.201402 0.507276 -0.871199 0.488312 -0.0506248
-0.0523917 0.15735 0.362813 -0.00161013 0.923966 -0.38247
-0.199266 -0.015709 0.365234 -0.697442 -0.0495361 -0.714927
-0.0959164 0.142032 0.408856 0.00180752 -0.999373 0.0353685
0.172367 -0.258461 0.373904 0.0505107 -0.0396618 -0.997936
0.0950712 0.112869 0.342377 0.0223901 -0.0722327 -0.997136
-0.239674 0.0215294 0.575617 -0.739251 -0.0249181 -0.672969
-0.0795668 -0.267481 0.439327 0.0196752 -0.838405 0.544692
-0.225128 0.0658975 0.571822 0.243248 -0.0319104 -0.969439
0.230798 -0.19578 0.0764484 -0.0522711 0.97046 0.235534
-0.137448 -0.259518 0.372247 -0.0503755 -0.0388096 -0.997976
-0.0829346 -0.0766325 0.443468 0.00152995 0.0841522 0.996452
0.221618 0.205701 0.603084 -0.095853 0.896966 0.431584
-0.125919 -0.181559 0.450112 0.0321003 0.0269668 0.999121
-0.0742313 0.12519 0.340998 -0.0216393 -0.0484365 -0.998592
0.182557 -0.0555266 0.441664 -0.00186986 0.120266 0.99274
0.155094 -0.261764 0.373161 0.0505107 -0.0396618 -0.997936
-0.196883 0.117609 0.353673 -0.697442 -0.0495361 -0.714927
-0.161291 -0.275538 0.429877 0.0196752 -0.838405 0.544692
-0.198239 -0.108139 0.36877 -0.768206 -0.0100993 -0.640124
0.235419 0.0438393 0.0148514 0.757741 0.0159763 -0.652359
-0.218313 -0.206765 0.0824938 0.999075 -0.0426024 -0.0058723
-0.157938 0.196061 0.737068 0.00175313 -0.963763 0.266755
-0.170379 0.14329 0.448212 0.00180752 -0.999373 0.0353685
-0.103916 0.152629 0.357842 -0.000662677 0.382601 -0.923914
-0.23745 -0.207071 0.277634 -0.734574 -0.676888 0.0471601
-0.098911 -0.191823 0.449521 0.0321003 0.0269668 0.999121
-0.162855 0.238352 0.770007 -0.00118376 0.75607 0.65449
-0.0544208 0.146857 0.543217 0.00175635 -0.999374 0.0353232
0.173114 0.214249 0.510339 -0.00176202 0.988775 -0.149404
0.221907 -0.198682 0.0426489 -0.66324 -0.647035 -0.37611
-0.216722 0.164982 0.603643 0.744446 -0.0347083 0.66678
0.169466 0.14191 0.408239 -0.00231241 0.893987 0.448087
0.206721 -0.0225094 0.376143 0.957296 0.0153735 -0.288701
-0.183943 0.223601 0.598932 -0.357632 0.924024 -0.135198
0.0892436 -0.0524153 0.352174 0.0469638 -0.0482745 -0.997729
0.240816 -0.170845 0.482193 0.730849 -0.637541 0.243724
0.23756 -0.0358465 0.0176198 0.997093 0.0210473 0.0732356
-0.161133 0.104698 0.344076 -0.0470849 -0.0713544 -0.996339
0.0357604 0.071074 0.42605 -0.00187744 0.120273 0.992739
0.159307 -0.232628 0.37223 0.050958 -0.0386223 -0.997954
0.0521822 0.191825 0.363357 -0.00176202 0.988775 -0.149404
-0.0652993 0.132043 0.342393 -0.00215848 0.319059 -0.947732
0.00266436 0.167272 0.632002 0.00174768 -0.963763 0.266755
-0.185755 0.215949 0.551428 -0.357632 0.924024 -0.135198
-0.0409367 0.130475 0.34181 -0.00215848 0.319059 -0.947732
-0.151771 0.222864 0.57196 -0.00175468 0.98949 -0.144593
-0.219379 -0.125423 0.0122667 0.653122 -0.011472 -0.757166
-0.119536 -0.273555 0.431421 0.0196752 -0.838405 0.544692
0.0839425 0.141022 0.371277 0.00175059 -0.999374 0.0353232
0.187419 -0.262252 0.445968 -0.0297099 -0.418775 0.907604
-0.152293 0.209728 0.484294 -0.00175445 0.988781 -0.149362
0.00912549 -0.161205 0.348006 0.0338789 0.00957771 -0.99938
0.231052 -0.037487 0.00885766 0.0752324 0.0015625 -0.997165
0.0508074 0.0474926 0.345531 0.0469638 -0.0482745 -0.997729
0.0916075 0.197734 0.741475 0.00174928 -0.963762 0.266757
-0.164571 0.0337852 0.357568 0.382634 0.000666496 -0.9239
-0.154129 -0.106541 0.446103 0.00152995 0.0841522 0.996452
0.187016 -0.131897 0.377242 0.29537 0.243013 0.92396
0.0951831 0.167194 0.631114 0.00174768 -0.963763 0.266755
-0.225755 0.209893 0.0291329 -0.652759 0.0501424 0.755904
-0.239462 -0.190228 0.373177 -0.999239 0.0387153 -0.0048044
-0.11017 0.00134321 0.434592 0.0014503 0.120279 0.992739
0.232026 -0.193161 0.220558 -0.0436413 0.996622 -0.0695702
0.0787669 0.234501 0.648797 -0.00176202 0.989489 -0.144593
0.103852 0.203655 0.441041 -0.00176202 0.988775 -0.149404
-0.161617 -0.0701628 0.443042 0.00152995 0.0841522 0.996452
-0.128107 0.0800262 0.344356 -0.0216393 -0.0484365 -0.998592
-0.139176 0.144236 0.473341 0.00180752 -0.999373 0.0353685
