0.233382 -0.125592 0.284252 0.000293811 -0.339632 -0.940558
-0.24805 -0.12579 0.317942 -0.999984 0.00178825 0.00529235
0.247345 0.109782 0.242438 0.999998 0.00066807 -0.00196136
-5.23031e-06 0.266813 0.621337 -0.000672344 0.965976 -0.258631
0.124086 -0.133074 0.321817 -4.84971e-05 0.0706877 0.997499
-0.0264467 -0.00340803 0.287545 -0.000214128 0.313452 0.949604
-0.0977076 -0.162023 0.307561 4.48057e-05 -0.0654458 -0.997856
0.015854 0.182363 0.399837 -0.000623713 0.909119 -0.416535
0.154938 0.22131 0.521294 0.000625443 -0.949226 0.314593
0.0478703 0.150856 0.369156 0.000623755 -0.909185 0.416391
0.243833 -0.00696575 0.202229 0.000387459 -0.826596 -0.562796
-0.0182176 0.156878 0.382405 0.000623755 -0.909185 0.416391
0.227237 0.043878 0.28033 -0.000213489 0.247283 0.968943
-0.0992301 0.0120452 0.200762 0 0 1
-0.254723 0.014957 0.163345 -1 -0.000689984 2.09998e-05
0.243076 0.061335 0.127009 -0.000972015 0.999534 0.0305105
0.222158 -0.0845753 0.302629 -0.999986 0.00171763 0.00501563
0.179155 0.0693468 0.261979 -0.000294902 0.464902 0.885362
-0.197232 0.142007 0.338374 0.000556302 -0.877259 0.480017
0.0920352 -0.157456 0.30727 4.48989e-05 -0.065446 -0.997856
0.191756 0.20077 0.439891 -0.000672576 0.912795 -0.408418
0.247341 0.105272 0.358445 0.999997 0.00212312 0.00152332
-0.222021 0.0778991 0.220827 0.996446 -0.0097829 0.0836606
0.0769122 0.243253 0.554477 -0.000627848 0.948895 -0.31559
0.225016 0.0595141 0.018695 -1 -0.000637432 0
-0.25476 0.0732206 0.0548132 -0.999999 -0.000632517 -0.00102325
-0.222777 -0.0424374 0.261319 0.999998 0.000316524 -0.00190764
0.244913 0.220823 0.00678236 1.75956e-05 -0.0356919 -0.999363
-0.0546774 0.0372176 0.182187 -0.000680715 1 0
-0.0803572 0.220314 0.485804 -0.000598732 0.948916 -0.315528
-0.155564 -0.0568586 0.295277 0.000183992 -0.291606 -0.956538
-0.133691 0.0888 0.253066 -0.00066625 0.958112 0.286393
0.225057 0.0107359 0.0460604 -1 -0.000634598 0.000373237
0.22214 -0.0353309 0.282207 -0.999986 0.00171763 0.00501563
0.0721796 0.267056 0.62206 -0.000672344 0.965976 -0.258631
0.0758982 0.210091 0.487609 0.000648841 -0.949205 0.314658
0.247244 0.253455 0.634743 0.999996 0.00155482 0.00214024
-0.160346 -0.0339422 0.30475 -0.000215829 0.292972 0.956121
0.194645 0.0296559 0.165012 0.000680674 -0.999961 -0.00875218
-0.168121 0.266027 0.618843 -0.00063582 0.964973 -0.262349
0.0910413 0.00888256 0.274312 0.000213925 -0.311715 -0.950176
0.222221 -0.217159 0.324483 -0.999999 -0.00110234 0.000321084
0.0433347 0.0294665 0.174882 0.000680674 -0.999961 -0.00875218
0.247423 -0.0711406 0.391249 0.999895 0.0110751 0.00934069
0.220541 0.0319186 0.219462 -0.9847 -0.033135 -0.171081
-0.0929781 0.00816464 0.290995 -0.000196249 0.312876 0.949794
-0.0542783 -0.243416 0.326437 5.18813e-05 -0.0813227 0.996688
0.0582005 -0.205776 0.326966 -4.84971e-05 0.0706877 0.997499
0.247441 -0.116057 0.0353311 1 0.000636983 -0.000430025
0.170275 -0.153013 0.306526 0.416361 0.266975 -0.869119
-0.238687 0.277602 0.63958 -0.000792142 0.958536 -0.284969
-0.136321 -0.18233 0.308891 4.48057e-05 -0.0654458 -0.997856
0.0563662 0.137904 0.305758 -0.000552768 0.871729 -0.489988
-0.191694 0.0347109 0.265775 0.000195718 -0.311757 -0.950162
0.0496485 0.232709 0.522828 -0.000627848 0.948895 -0.31559
0.191833 0.218392 0.480595 -0.00069708 0.94605 -0.324019
0.177532 -0.227527 0.308812 -3.60212e-05 0.0557821 -0.998443
-0.033941 -0.104146 0.303768 4.48057e-05 -0.0654458 -0.997856
-0.111419 0.247567 0.567824 -0.000598732 0.948916 -0.315528
0.0766575 0.186885 0.409615 -0.000623713 0.909119 -0.416535
0.200087 0.147317 0.326703 -0.000582496 0.877489 -0.479597
-0.24842 0.147279 0.256694 -0.999949 -0.00965473 0.00285079
-0.147519 0.161942 0.380497 0.000553909 -0.908932 0.416945
-0.0607601 0.0643232 0.264725 0.000264603 -0.409641 0.912247
-0.197446 -0.200194 0.320898 -0.592303 0.518301 0.61688
-0.0822447 -0.0462537 0.308924 -0.000196249 0.312876 0.949794
-0.027614 0.195532 0.334004 0.00015659 -0.247199 -0.968965
-0.178429 0.169626 0.399343 0.50531 -0.859022 -0.0821125
0.128088 0.0749242 0.265859 -0.000320369 0.464637 0.885501
0.0941867 0.0261467 0.192788 0 0 -1
-0.224446 0.21025 0.43291 -0.000811671 0.936956 -0.349448
-0.0521774 0.137607 0.305538 0.000301428 -0.475359 -0.879792
-0.223341 -0.00745952 0.381605 0.998772 0.0121059 0.0480474
-0.00849131 -0.0665002 0.313679 0.000345401 -0.550663 0.834728
-0.0787326 0.173093 0.417897 0.00056889 -0.909132 0.416507
-0.00040254 0.0100962 0.192788 0 0 -1
0.225022 0.0625243 0.0732653 -1 -0.000806369 -0.000130268
0.22267 0.0783782 0.360171 -0.999317 0.0084443 0.0359895
0.222125 -0.163855 0.316768 -0.999993 -9.37632e-05 0.00371302
0.0887606 0.0909603 0.250599 -0.000294902 0.464902 0.885362
0.224596 -0.180602 0.000449883 -0.844816 -0.226961 0.484535
0.24746 -0.147316 0.0347002 0.999963 0.000640408 0.00861434
0.0928971 -0.239156 0.320279 5.7526e-05 -0.0841541 0.996453
-0.246447 0.20626 0.500646 0.000740842 -0.899671 0.436567
0.12868 0.168138 0.393627 0.000621256 -0.908847 0.41713
-0.16393 0.2295 0.513739 -0.000596074 0.946023 -0.324098
0.232775 -0.0455751 0.010654 0 0.0356917 -0.999363
0.0274429 -0.135668 0.305838 4.48989e-05 -0.065446 -0.997856
-0.254615 -0.137159 0.0139555 -1 -0.000664987 -0.000623328
0.0955628 -0.0216214 0.300849 -0.000222969 0.312815 0.949814
-0.0477469 -0.153638 0.323266 -4.84971e-05 0.0706877 0.997499
-0.19687 0.00981289 0.200762 0 0 1
0.161385 0.207255 0.367858 -0.000613882 0.96912 -0.246591
-0.23503 -0.0714207 0.400005 0 0.105802 0.994387
0.00626728 -0.191374 0.318596 -4.56915e-05 0.0668434 0.997764
-0.061091 -0.022835 0.284684 0.000195718 -0.311757 -0.950162
0.230944 0.0260157 0.415888 -0.00392702 0.105673 0.994393
-0.123685 0.180919 0.396888 -0.000568826 0.909067 -0.41665
-0.22295 0.175242 0.410379 0.999998 0.000710894 -0.00197678
0.249379 0.0549228 0.212086 0.882456 0.0206275 0.469943
-0.142377 0.158529 0.345951 -0.000663342 0.988664 -0.150141
-0.222705 -0.159079 0.309594 1 0.000174239 3.61405e-05
0.247555 -0.246579 0.30045 1 0.000913238 8.41736e-05
-0.0265714 0.0227523 0.200762 0 0 1
-0.243237 0.0740633 0.384526 -0.000550776 0.105819 0.994385
0.0595242 0.0347226 0.274976 -0.000206534 0.313475 0.949597
0.235216 0.20646 0.421944 -0.000406541 0.936958 -0.349441
0.0463043 -0.0266495 0.302494 -0.000222969 0.312815 0.949814
-0.0568969 0.272153 0.64953 -0.000564153 0.849878 -0.52698
-0.249589 0.229118 0.0365243 -5.4168e-05 0.109931 0.993939
-0.173587 0.252984 0.584231 -0.000598732 0.948916 -0.315528
-0.0999656 0.256743 0.59539 -0.000627848 0.948895 -0.31559
-0.106147 0.201936 0.369542 0.000637313 -0.969042 0.246895
0.179477 -0.265897 0.306435 -0.00025646 0.39577 -0.918349
0.205161 0.162098 0.353093 -0.208702 0.801058 -0.561025
-0.15927 0.207717 0.45596 -0.000575159 0.912829 -0.408342
-0.146195 0.0293667 0.171548 0.0006807 -0.999961 -0.00875195
0.242777 0.00414545 0.0815942 0.000972343 -0.999539 0.0303322
0.191551 0.226707 0.554042 0.000696941 -0.94614 0.323758
-0.120498 0.0493461 0.277426 -0.000222969 0.312815 0.949814
-0.226801 -0.0859685 0.313392 -0.000205124 0.247293 0.968941
-0.0236093 0.194573 0.464706 0.00056889 -0.909132 0.416507
-0.247768 -0.0527008 0.25624 0.000248964 -0.573429 -0.819255
0.0128201 0.0854743 0.253455 -0.000294902 0.464902 0.885362
0.0699833 -0.272896 0.310522 0.000658838 -0.999907 0.0136505
-0.201421 -0.0266834 0.295188 -0.000214128 0.313452 0.949604
-0.132178 -0.119486 0.302117 0.326178 -0.322908 -0.888447
0.223491 0.142858 0.370246 0.000501718 -0.608849 0.793286
-0.00556405 0.158395 0.344465 -0.000663342 0.988664 -0.150141
0.247356 0.0225919 0.134912 0.999999 0.00120238 -0.00010367
-0.103477 -0.121023 0.320952 -4.83924e-05 0.0706875 0.997499
-0.165158 0.0238072 0.285828 -0.000196249 0.312876 0.949794
-0.241351 0.0532985 0.0127544 2.44038e-05 -0.0356949 -0.999363
-0.202881 0.206143 0.476926 0.000621256 -0.908847 0.41713
-0.186291 0.255698 0.650555 0.000643119 -0.968813 0.24779
0.175247 -0.0243864 0.294514 -0.000206534 0.313475 0.949597
0.247437 0.00906788 0.285033 1 0.000415572 0.000298664
-0.0324212 0.0651284 0.193162 -0.000638169 1 0
0.194753 0.244332 0.594508 0.537776 -0.819041 -0.199919
-0.0468187 0.182325 0.399847 -0.000623713 0.909119 -0.416535
0.0864669 0.231999 0.571159 0.000625696 -0.949029 0.315187
0.0728758 -0.102383 0.312637 -4.56602e-05 0.0668435 0.997763
-0.244572 0.102066 0.266422 0.0012993 -0.989397 0.145228
0.13338 0.0373456 0.138533 -0.000680715 1 0
0.124039 -0.235348 0.308769 0.000159066 -0.246346 -0.969182
0.224995 0.0879806 0.0292637 -0.999996 -0.000647414 -0.0027887
-0.176899 -0.11301 0.320263 -6.70539e-05 0.0910207 0.995849
-0.0639614 -0.0802684 0.318001 -0.000565355 0.825823 0.563929
0.197209 -0.145872 0.32329 -6.69562e-05 0.0910131 0.99585
0.165005 -0.193511 0.326102 -4.84971e-05 0.0706877 0.997499
-0.0098421 0.225195 0.550863 0.000625696 -0.949029 0.315187
0.135499 -0.11823 0.302061 -0.0445564 -0.107579 -0.993198
0.0862866 0.208825 0.457487 -0.000623713 0.909119 -0.416535
-0.232388 -0.000195757 0.0190021 1 0.000683762 0
0.221783 0.234337 0.516145 -0.999999 -0.00154743 -0.000700001
0.22211 0.119342 0.274233 -0.999957 -0.00917548 0.00134645
0.152682 0.00869521 0.290878 -0.000222969 0.312815 0.949814
-0.254596 0.0861563 0.205752 -0.775605 0.0427502 0.62977
-0.228372 0.182714 0.452103 0 -0.899733 0.436441
0.244677 -0.088712 0.270938 0.000295442 -0.339633 -0.940558
0.112882 0.0635619 0.192788 0 0 -1
-0.260745 -0.00374387 0.398406 -0.962429 -0.00132865 0.27153
0.222797 0.0260588 0.375967 -0.999317 0.0084443 0.0359895
-0.0287388 0.0297024 0.142327 0.0006807 -0.999961 -0.00875195
0.231401 -0.0139712 0.394085 0.00371466 -0.106532 -0.994302
-0.0114378 0.126895 0.321574 0.000633553 -0.95435 -0.298689
-0.212694 0.249153 0.606037 0.000648841 -0.949205 0.314658
0.0175339 0.161549 0.354407 -0.000623713 0.909119 -0.416535
-0.157624 -0.237427 0.32044 5.54602e-05 -0.0841751 0.996451
0.139854 0.151771 0.333439 -0.000453698 0.683464 -0.729985
0.229726 0.0325882 0.192788 0 0 1
-0.232719 0.198387 0.484413 0 -0.899733 0.436441
0.247237 0.208392 0.0334287 0.999999 0.000673169 0.0013429
0.0542749 0.029784 0.139456 0.0006807 -0.999961 -0.00875195
-0.102704 0.227846 0.541537 0.000648841 -0.949205 0.314658
-0.213693 0.0324264 0.137009 0 0 -1
0.0923906 0.194271 0.334345 0.00015659 -0.247199 -0.968965
0.105896 0.197612 0.46443 0.51245 -0.48843 0.70628
-0.154499 0.23794 0.572091 0.000648841 -0.949205 0.314658
0.247344 0.0539577 0.0951893 1 0.000733673 0.000118524
-0.222799 -0.00178823 0.250503 1 7.36078e-05 -0.0007216
-0.232488 0.138986 0.0197618 1 0.000728843 0
-0.0667964 0.219534 0.533927 0.00059885 -0.949049 0.315129
-0.107324 -0.193668 0.318745 -4.56915e-05 0.0668434 0.997764
-0.223009 0.228631 0.524713 0.999997 -0.000304536 -0.00220685
-0.114595 0.26008 0.655482 0.000362882 -0.521363 0.853335
0.104873 -0.100134 0.319482 -4.84971e-05 0.0706877 0.997499
-0.232412 0.0303584 0.0396846 1 0.000686205 -0.000274491
0.131982 0.050503 0.277104 -0.000222969 0.312815 0.949814
-0.228661 0.147738 0.374212 0.000525387 -0.608889 0.793256
-0.247288 0.0432947 0.375654 -0.999329 0.00842918 0.0356334
0.0115296 -0.271521 0.304946 -7.83993e-05 0.118985 -0.992896
0.00539716 0.215658 0.522116 0.00059885 -0.949049 0.315129
0.223746 0.118844 0.220711 -0.000351145 0.426259 -0.904601
0.20591 0.207068 0.369288 -0.000156587 0.2472 0.968965
0.0384955 -0.0498728 0.310141 -0.000196249 0.312876 0.949794
0.237546 -0.0428247 0.379146 0.000208893 -0.241535 -0.970392
-0.254839 0.206464 0.0133004 -1 -0.000637678 1.28497e-06
-0.200279 -0.270181 0.305123 -7.83993e-05 0.118985 -0.992896
-0.248482 0.257276 0.588603 -1 -0.000922613 -0.000100032
0.146244 0.254891 0.627501 0.000579902 -0.873581 -0.486678
-0.0745797 0.136002 0.327258 0.000556302 -0.877259 0.480017
-0.229732 0.103026 0.331482 0.00105116 -0.800263 -0.599649
-0.217941 0.096665 0.382381 0.00391869 -0.104989 -0.994466
0.231054 -0.252924 0.323143 0.000122132 -0.28099 0.959711
0.24731 0.0919635 0.0404588 1 0.000636983 -0.000430025
0.119247 -0.202713 0.310239 4.48989e-05 -0.065446 -0.997856
-0.24777 0.00184877 0.371951 -0.999329 0.00842918 0.0356334
0.225702 0.140093 0.236307 -0.000696919 0.807366 -0.59005
0.141185 0.198002 0.429584 0.0220255 0.917914 -0.396167
-0.154745 -0.166446 0.324168 -4.83924e-05 0.0706875 0.997499
0.236718 -0.110163 0.319645 -0.000312551 0.247293 0.968941
-0.222994 0.181981 0.347509 0.999998 0.000495759 0.00169091
0.161855 0.164074 0.3597 -0.000623713 0.909119 -0.416535
0.0522402 -0.150701 0.306825 4.48989e-05 -0.065446 -0.997856
-0.0742446 -0.240419 0.326682 5.18813e-05 -0.0813227 0.996688
0.108833 -0.0558611 0.294543 -0.309117 -0.0199849 -0.950814
-0.176741 0.221884 0.540696 0.000696915 -0.946112 0.323838
-0.114412 0.1285 0.325774 0.000582417 -0.877323 0.479899
0.116273 0.140239 0.311821 -0.000660096 0.983925 -0.178582
-0.254746 0.04614 0.0440022 -1 -0.000686485 -0.000368184
-0.253256 -0.0971485 0.0438513 5.38524e-05 -0.109291 0.99401
-0.232429 0.0523562 0.163257 1 0.000689985 -6.95882e-05
-0.248412 0.121413 0.365347 -0.999925 -0.00855044 -0.00882199
0.231067 -0.159466 0.296483 0.000295442 -0.339633 -0.940558
0.235237 0.00497037 0.10902 0.000972343 -0.999539 0.0303322
-0.127303 0.216248 0.506598 0.000648841 -0.949205 0.314658
0.0527409 0.167422 0.40532 0.000623755 -0.909185 0.416391
0.146809 0.20932 0.503326 0.000696941 -0.94614 0.323758
0.221125 0.00397962 0.221509 -0.9847 -0.033135 -0.171081
-0.168515 0.0368537 0.200762 0 0 1
-0.246553 -0.16951 0.299993 0.000147457 -0.339632 -0.940558
0.017943 0.259564 0.641394 0.000614312 -0.968789 0.247885
-0.208287 -0.124927 0.32135 -6.70539e-05 0.0910207 0.995849
-0.206894 0.0756553 0.265354 -0.000320369 0.464637 0.885501
-0.0554614 0.255805 0.59248 -0.000627848 0.948895 -0.31559
0.247213 0.178896 0.365814 0.999998 0.00165008 0.000682016
0.162349 0.0296219 0.166388 0.000680674 -0.999961 -0.00875218
-0.167156 0.0701465 0.250772 0.000321295 -0.465972 -0.8848
-0.248417 0.198285 0.363401 -0.999998 -0.000581432 0.00170097
0.240894 0.156662 0.29127 -0.000422712 0.980069 -0.198657
0.246863 0.0337506 0.37171 0.998801 0.0120301 0.0474645
0.158579 0.00703411 0.200762 0 0 1
0.215684 -0.021452 0.418557 -0.944517 -0.0604179 0.322859
0.244986 -0.0550542 0.258121 0.000496048 -0.573431 -0.819253
0.225121 -0.0955839 0.0350017 -1 -0.000634598 0.000373237
0.017663 -0.216171 0.3277 -4.84971e-05 0.0706877 0.997499
0.0303806 0.195324 0.428104 -0.000623713 0.909119 -0.416535
-0.0224057 0.245749 0.562181 -0.000627848 0.948895 -0.31559
-0.0596557 0.158798 0.38666 0.000623755 -0.909185 0.416391
-0.254949 -0.0544107 0.405468 -0.951408 -0.12487 0.281479
-0.232425 0.0440914 0.133932 1 0.000792886 -5.29648e-05
0.207281 0.0528406 0.200762 0 0 1
-0.0578207 0.198292 0.47287 0.00056889 -0.909132 0.416507
0.0367403 0.136841 0.339416 0.000190207 -0.285508 0.958376
0.122516 0.207137 0.36749 -0.000613882 0.96912 -0.246591
0.20803 0.169941 0.40986 0.000672464 -0.91291 0.408161
-0.183021 0.189472 0.454164 0.000672482 -0.912943 0.408086
-0.0867648 0.157782 0.342374 -0.00059303 0.88387 -0.467733
-0.120913 -0.273003 0.311871 0.000658805 -0.999907 0.0136517
0.168527 0.25075 0.610097 0.000625443 -0.949226 0.314593
0.162572 0.0517498 0.276701 -0.000222969 0.312815 0.949814
0.157961 -0.245428 0.309597 -5.92591e-05 0.0892719 -0.996007
0.0681659 -0.175067 0.32479 -4.84971e-05 0.0706877 0.997499
0.00313841 -0.00523493 0.295431 -0.000222969 0.312815 0.949814
-0.0410402 0.253593 0.641948 0.000643119 -0.968813 0.24779
-0.248732 0.0284788 0.192788 0 0 -1
0.232651 0.262328 0.587176 -0.000415208 0.958557 -0.284902
0.211758 0.255197 0.647529 0.00066811 -0.968684 0.248296
-0.242952 -0.0499329 0.423905 -0.00372462 0.105716 0.994389
-0.232515 0.177274 0.0178053 1 0.000702176 0.00054146
-0.232405 0.0150074 0.191984 1 0.000689983 6.95277e-05
-0.138238 -0.0967671 0.302786 5.4217e-05 -0.0859275 -0.996301
0.0989184 -0.124065 0.30508 4.48989e-05 -0.065446 -0.997856
-0.0534691 -0.272959 0.311834 0.000658805 -0.999907 0.0136517
0.0904089 -0.0769781 0.299246 0.000116107 -0.190368 -0.981713
0.242286 0.0888219 0.382989 0 0.105807 0.994387
0.141086 0.241415 0.548822 -0.000627848 0.948895 -0.31559
-0.134673 0.189779 0.452821 0.547989 -0.824052 -0.143689
0.222306 0.011845 0.267751 -0.999924 0.000942137 -0.0122522
0.0876244 0.223881 0.546712 0.000625696 -0.949029 0.315187
0.247345 0.12509 0.328322 0.999998 0.00209408 0.000642025
-0.243903 -0.0646468 0.00998384 -1.75875e-05 0.0356914 -0.999363
-0.0485038 -0.202296 0.326714 -4.84971e-05 0.0706877 0.997499
-0.232308 -0.117747 0.0156325 1 0.000685783 4.10469e-05
0.222289 0.0356384 0.253838 -1 -0.00055834 0.00026594
0.179164 0.0312122 0.200762 0 0 1
-0.0635944 0.242596 0.552781 -0.000627848 0.948895 -0.31559
0.215847 0.133769 0.307703 0.000301428 -0.475359 -0.879792
0.103151 0.243581 0.605999 0.000625696 -0.949029 0.315187
-0.0727717 0.247668 0.614769 0.000326245 -0.494831 0.868989
-0.038015 -0.0864413 0.318504 -4.83924e-05 0.0706875 0.997499
0.227725 0.228272 0.480438 -0.000406541 0.936958 -0.349441
0.0340898 -0.103563 0.319721 -4.83924e-05 0.0706875 0.997499
0.2474 -0.0236175 0.230647 1 0.000942222 -7.20436e-05
-0.254725 0.0193541 0.109262 -1 -0.000557827 3.52598e-05
0.0769468 0.146741 0.350877 0.000635199 -0.946743 -0.321989
-0.108037 0.176544 0.42547 0.00056889 -0.909132 0.416507
-0.247978 -0.248898 0.317404 -1 -0.000278618 -0.00056575
-0.10826 0.193826 0.461035 -0.512947 -0.488982 0.705536
-0.0940655 0.0374322 0.200762 0 0 1
0.223362 0.0374069 0.150932 -0.000680715 1 0
-0.185446 0.00532132 0.292713 -0.000215829 0.292972 0.956121
0.249144 0.206747 0.365643 -0.000613882 0.96912 -0.246591
-0.0980094 -0.0920487 0.318899 -4.83924e-05 0.0706875 0.997499
-0.0211376 0.0633319 0.253405 6.64958e-05 -0.0964382 -0.995339
0.085357 0.0373129 0.171246 -0.000680715 1 0
0.0586912 -0.236318 0.309005 0.000159066 -0.246346 -0.969182
0.0464685 0.0535593 0.192788 0 0 -1
-0.174523 0.168009 0.36879 -0.000568826 0.909067 -0.41665
-0.0180492 -0.124202 0.314095 -4.56602e-05 0.0668435 0.997763
-0.208011 -0.22056 0.310763 -0.000220115 0.340868 -0.940111
0.033433 0.0553665 0.268156 -0.000206534 0.313475 0.949597
-0.143576 -0.00596058 0.295638 -0.000196249 0.312876 0.949794
-0.0745915 -0.159543 0.323683 -4.84971e-05 0.0706877 0.997499
-0.0455467 0.0472403 0.270821 -0.000206534 0.313475 0.949597
-0.21878 0.131669 0.319715 -0.70163 -0.625334 0.341574
0.172687 -0.0814183 0.301481 6.32955e-05 -0.0859275 -0.996301
-0.107459 0.0543711 0.192788 0 0 -1
-0.220125 -0.0553865 0.292256 0.000851772 -0.312805 -0.949817
0.0208301 -0.153112 0.316033 -4.56602e-05 0.0668435 0.997763
-0.222354 -0.038849 0.396766 0.00401618 -0.10591 -0.994368
0.00276458 0.241585 0.58277 0.000625443 -0.949226 0.314593
0.0207642 0.23072 0.567438 0.000625696 -0.949029 0.315187
-0.17187 -0.267183 0.319356 0.000476483 -0.717712 0.69634
0.127532 -0.182233 0.325301 -4.84971e-05 0.0706877 0.997499
0.247357 0.0315735 0.0693674 1 0.00054061 -0.000157603
0.183195 0.141694 0.316436 -0.000582496 0.877489 -0.479597
0.247349 0.0356976 0.013553 1 0.00066247 -0.000570202
-0.221709 -0.0407495 0.423013 -0.00399641 0.106123 0.994345
0.229544 -0.194446 0.307092 -7.15155e-05 0.0822124 -0.996615
0.246618 0.0667553 0.274495 -0.000213489 0.247283 0.968943
0.110994 0.0696647 0.251127 0.000309614 -0.466227 -0.884665
0.0745907 0.274385 0.659186 -0.000166939 0.253392 0.967364
-0.245226 0.225207 0.473061 -0.000776725 0.936958 -0.349441
-0.0333357 0.259804 0.60446 -0.000627848 0.948895 -0.31559
-0.232283 -0.154424 0.0176337 1 0.000685783 4.10469e-05
0.14554 -0.0720026 0.316478 -0.000215551 0.292997 0.956113
-0.0142594 0.0848853 0.26058 -0.000320369 0.464637 0.885501
-0.239152 0.159991 0.0442077 -0.00736226 0.110897 0.993805
0.166242 0.241274 0.545573 0.243217 0.835447 -0.492822
0.243175 0.229181 0.565092 0.000415048 -0.958603 0.284747
0.136365 0.19049 0.45594 0.000672464 -0.91291 0.408161
0.107014 0.172817 0.41702 0.000623755 -0.909185 0.416391
0.207771 0.0622524 0.265713 -0.000294902 0.464902 0.885362
0.215714 0.0620348 0.407921 -0.946259 0.121321 0.299792
0.224931 0.192364 0.332143 -0.000418096 0.969369 -0.245609
-0.14514 0.205176 0.474733 0.000621256 -0.908847 0.41713
-0.222752 0.0219259 0.416353 -0.00392593 0.105678 0.994393
-0.085714 0.0293941 0.173121 0.0006807 -0.999961 -0.00875195
-0.232464 0.109447 0.0256236 0.999987 0.000706293 -0.00497421
-0.0291447 -0.040867 0.290607 0.000195718 -0.311757 -0.950162
-0.248169 -0.141823 0.291029 -0.999995 -0.00311471 -0.000265398
0.204982 -0.100138 0.303098 6.32955e-05 -0.0859275 -0.996301
-0.142714 0.252822 0.639198 0.000643119 -0.968813 0.24779
-0.187916 0.0292431 0.182421 0.0006807 -0.999961 -0.00875195
-0.119825 0.0292671 0.184979 0.000680674 -0.999961 -0.00875218
-0.0381914 0.205689 0.362198 -0.000613882 0.96912 -0.246591
0.211488 0.238361 0.53886 -0.00069708 0.94605 -0.324019
0.0135162 0.0294683 0.172356 0.000680674 -0.999961 -0.00875218
0.100999 0.236067 0.532822 -0.000627848 0.948895 -0.31559
0.22517 -0.159651 0.0146125 -1 -0.000704759 0.000488367
0.0511519 0.201828 0.368712 0.000637313 -0.969042 0.246895
-0.135386 -0.0401968 0.287691 -0.412276 -0.605247 -0.680958
0.221769 0.210424 0.450382 -1 -0.000310358 0.000115536
0.166384 0.190314 0.441886 0.000621256 -0.908847 0.41713
0.137114 0.149265 0.365549 0.000623755 -0.909185 0.416391
-0.233891 0.0542219 0.200762 0 0 1
0.0515363 0.254067 0.643553 0.00066811 -0.968684 0.248296
0.247456 -0.048783 0.302455 1 0.000415572 0.000298664
0.120042 0.249386 0.572833 -0.000627848 0.948895 -0.31559
-0.156793 -0.134376 0.31477 -4.56915e-05 0.0668434 0.997764
0.166219 0.221917 0.490943 -0.00069708 0.94605 -0.324019
0.247269 0.155651 0.0133782 1 0.00066247 -0.000570202
0.215946 -0.271256 0.304962 -7.71868e-05 0.119115 -0.99288
-0.225231 0.134966 0.231214 -0.000601641 0.697735 -0.716356
-0.0123152 0.0295904 0.156401 0.0006807 -0.999961 -0.00875195
0.124688 0.261769 0.649747 0.000614312 -0.968789 0.247885
-0.2324 0.0144826 0.0674467 1 0.000912258 -0.000265948
-0.198434 -0.175512 0.317524 -4.56915e-05 0.0668434 0.997764
0.140162 0.170628 0.41219 0.000623755 -0.909185 0.416391
0.250516 0.0168062 0.211626 0.882456 0.0206275 0.469943
0.0031461 0.0120718 0.273246 0.000213925 -0.311715 -0.950176
0.08584 0.152616 0.372943 0.000623755 -0.909185 0.416391
-0.1375 0.0371612 0.137455 -0.000680715 1 0
-0.173966 -0.162579 0.305791 -0.397279 0.261228 -0.879732
-0.164599 0.146518 0.325685 -0.000582512 0.877489 -0.479597
-0.0418434 -0.219 0.311287 -0.000233314 0.34008 -0.940396
0.247279 0.193858 0.434829 1 0.000378708 0.000795558
-0.224989 0.250634 0.638306 0 -0.958565 0.284876
-0.242859 -0.232514 0.329214 0.000244218 -0.28099 0.959711
-0.177003 -0.180122 0.323662 -0.592303 0.518301 0.61688
0.247493 -0.158017 0.33119 1 0.000588382 0.00042286
0.246329 -0.0180069 0.0116382 -0.000122002 0.0356934 -0.999363
0.013235 0.198874 0.460766 0.000621256 -0.908847 0.41713
-0.105049 -0.0590877 0.305906 -0.000214128 0.313452 0.949604
-0.08568 -0.179875 0.325123 -4.84971e-05 0.0706877 0.997499
0.225666 -0.184431 0.335005 -0.000108518 0.124888 0.992171
0.0191422 -0.0842929 0.302468 4.48057e-05 -0.0654458 -0.997856
-0.0618145 -0.0564358 0.312282 -0.000196249 0.312876 0.949794
0.0779135 0.00493558 0.200762 0 0 1
0.0236356 0.222715 0.492827 -0.000598732 0.948916 -0.315528
-0.21526 0.0343188 0.204909 0.830185 0.000416875 0.557488
0.0666937 0.252443 0.582129 -0.000627848 0.948895 -0.31559
-0.121944 -0.247296 0.319604 5.54602e-05 -0.0841751 0.996451
-0.2085 0.00471759 0.397394 0.960811 0.0221308 0.276319
-0.199143 0.179739 0.393472 -0.000575159 0.912829 -0.408342
-0.00922443 0.16758 0.405759 0.000623755 -0.909185 0.416391
-0.138281 -0.206615 0.310483 4.48989e-05 -0.065446 -0.997856
0.158987 0.037363 0.190076 -0.000680715 1 0
0.20437 0.206286 0.494334 0.000696941 -0.94614 0.323758
0.112686 0.0373315 0.169407 -0.000680715 1 0
0.108385 0.213548 0.515558 0.000625696 -0.949029 0.315187
0.261735 -0.0147645 0.39438 0.958985 -0.0229522 0.282527
0.0517865 0.21393 0.468148 -0.000477968 0.763876 -0.645363
0.25135 0.0533464 0.387018 0.0038261 -0.105608 -0.994401
-0.061777 -0.185822 0.309123 4.48989e-05 -0.065446 -0.997856
0.0430053 0.251877 0.613746 0.000625443 -0.949226 0.314593
0.176955 0.191242 0.457556 0.000672464 -0.91291 0.408161
-0.248403 0.155188 0.292402 -0.999972 -0.00743072 0.000478496
-0.0158507 0.0180814 0.287747 -0.000222969 0.312815 0.949814
-0.222969 0.245872 0.541385 1 0.000788227 -0.00022877
0.222635 0.0915133 0.408902 -0.00331792 0.106976 0.994256
0.22141 0.0947358 0.259205 -0.975831 -0.0504456 0.212624
-0.248312 0.145181 0.327109 -0.999972 -0.00743072 0.000478496
0.0050212 -0.132538 0.314654 -4.56602e-05 0.0668435 0.997763
-0.247926 0.0329987 0.256042 -1 -0.000513533 0.00043227
-0.0918254 0.254335 0.621432 0.000625443 -0.949226 0.314593
0.18507 -0.0924279 0.318405 -6.69562e-05 0.0910131 0.99585
-0.0128749 0.186675 0.447453 0.00056889 -0.909132 0.416507
0.079467 0.0383283 0.264649 0.000213925 -0.311715 -0.950176
0.222349 0.0400958 0.360231 -0.999317 0.0084443 0.0359895
-0.232448 0.0815068 0.038349 1 0.000686205 -0.000274491
0.122979 0.00413553 0.292373 -0.000222969 0.312815 0.949814
-0.248429 0.235184 0.516975 -0.999999 -0.00086404 -0.00125951
0.191455 0.247621 0.565937 -0.00069708 0.94605 -0.324019
-0.0459358 -0.248301 0.309351 -5.92591e-05 0.0892719 -0.996007
-0.222816 0.0415473 0.252561 0.999998 0.000656625 -0.00211326
0.178632 0.00962945 0.284771 -0.515118 0.654075 0.553931
-0.246884 0.184371 0.426226 0.708298 -0.640937 0.295827
-0.222756 -0.0177846 0.276788 0.999998 0.000316524 -0.00190764
0.206026 0.253261 0.617596 0.000625443 -0.949226 0.314593
-0.127407 0.235822 0.583093 0.000625696 -0.949029 0.315187
-0.0532414 0.231732 0.570633 0.000625696 -0.949029 0.315187
-0.25871 0.0272709 0.141146 -1 0 0
-0.248413 0.2733 0.661493 -0.00165165 0.297319 0.954777
-0.143435 0.195259 0.334055 0.00015659 -0.247199 -0.968965
0.0734766 0.0694809 0.261873 -0.000306209 0.464775 0.885429
-0.177723 -0.0856995 0.30183 5.4217e-05 -0.0859275 -0.996301
0.154461 -0.169264 0.324383 -4.84971e-05 0.0706877 0.997499
-0.13522 0.0301276 0.267291 0.000213925 -0.311715 -0.950176
0.247347 0.0533976 0.239468 0.999993 0.000944669 -0.00366325
-0.216838 0.155612 0.338414 -0.000592189 0.882705 -0.469927
0.174359 0.0892978 0.252117 -0.00066625 0.958112 0.286393
0.149448 0.06632 0.252902 0.000321295 -0.465972 -0.8848
0.165934 -0.0555765 0.304808 -0.000206534 0.313475 0.949597
0.205896 -0.21365 0.309145 -0.329192 -0.326033 -0.886191
-0.246597 0.00686605 0.181371 0.000486844 -0.999537 0.0304212
0.235569 0.216969 0.523989 0.000415048 -0.958603 0.284747
-0.241721 0.0176748 0.390678 0.00397078 -0.106463 -0.994309
0.12492 0.216384 0.474898 -0.000672576 0.912795 -0.408418
0.163015 0.141118 0.340665 0.000190207 -0.285508 0.958376
0.0681125 0.0373012 0.190738 -0.000680715 1 0
0.225074 -0.022251 0.0213727 -1 -0.000728811 0
-0.0946242 0.19464 0.340848 0.000613896 -0.96912 0.246591
-0.0548955 -0.0336105 0.304765 -0.000196249 0.312876 0.949794
0.0908058 0.189427 0.440067 0.000621256 -0.908847 0.41713
-0.0256785 0.00295959 0.192788 0 0 -1
-0.232428 0.0551483 0.0436934 1 0.000686205 -0.000274491
0.0242411 -0.244983 0.326305 5.18813e-05 -0.0813227 0.996688
0.0331203 -0.121679 0.321005 -4.84971e-05 0.0706877 0.997499
-0.251898 -0.15177 0.0378456 5.38524e-05 -0.109291 0.99401
-0.106234 0.0838592 0.241893 0.000497832 -0.749651 -0.661833
0.238485 -0.100475 0.00869302 -3.52179e-05 0.0356947 -0.999363
-0.176785 0.243745 0.607047 0.000625696 -0.949029 0.315187
0.053751 0.15646 0.339687 -0.000561527 0.885588 -0.464471
-0.0731447 0.0403476 0.273091 -0.000206534 0.313475 0.949597
-0.24217 0.0609153 0.412136 -0.00381141 0.105725 0.994388
-0.187538 0.191348 0.419408 -0.000575159 0.912829 -0.408342
-0.248384 0.0993906 0.238359 -0.984437 0.175737 -0.000361991
-0.11554 0.165741 0.363755 -0.000623713 0.909119 -0.416535
-0.0920429 -0.0297971 0.303501 -0.000196249 0.312876 0.949794
-0.0129501 0.24915 0.605629 0.000625443 -0.949226 0.314593
0.11981 0.234437 0.527885 -0.000627848 0.948895 -0.31559
0.00598207 0.202187 0.34833 -0.000637312 0.969042 -0.246895
-0.222732 -0.100008 0.275356 0.999998 0.000316524 -0.00190764
-0.207916 0.205463 0.45099 -0.000575159 0.912829 -0.408342
0.128761 -0.250579 0.325843 5.18813e-05 -0.0813227 0.996688
-0.115653 0.0172217 0.27153 0.000213925 -0.311715 -0.950176
-0.248164 -0.106262 0.289871 -0.999984 0.00178825 0.00529235
-0.0997663 -0.226673 0.30887 -3.60212e-05 0.0557821 -0.998443
0.0865172 -0.00323545 0.287513 -0.000206534 0.313475 0.949597
-0.0884622 0.0670695 0.265967 0.000264603 -0.409641 0.912247
0.221783 0.195282 0.414217 -0.999997 0.00109188 -0.0023614
0.121797 -0.0318007 0.304208 -0.000222969 0.312815 0.949814
-0.204394 0.216485 0.507474 0.000648841 -0.949205 0.314658
0.168037 0.194747 0.340616 0.000613896 -0.96912 0.246591
-0.113588 -0.165378 0.324095 -4.83924e-05 0.0706875 0.997499
-0.248225 0.133727 0.279545 -0.999961 -0.00876576 0.000854276
-0.19128 0.0602185 0.253695 6.45779e-05 -0.0962939 -0.995353
-0.0755754 0.0226402 0.192788 0 0 -1
0.147346 -0.0101023 0.295399 0.544679 -0.238352 0.80406
-0.161172 0.235172 0.530292 -0.000596074 0.946023 -0.324098
-0.248415 0.175422 0.377393 -0.999993 0.00145245 -0.00338944
-0.25484 0.185273 0.0402626 -1 -0.000675331 -0.000208715
-0.227916 0.105749 0.290886 0.000804749 -0.963556 0.267504
-0.0270661 -0.144299 0.315441 -4.56915e-05 0.0668434 0.997764
0.247513 -0.193488 0.331905 1 0.000332674 6.88767e-05
0.0404106 0.205699 0.45073 -0.000568826 0.909067 -0.41665
0.206071 0.0355975 0.263694 0.436351 -0.606236 -0.664888
-0.0887758 -0.14017 0.306128 4.48057e-05 -0.0654458 -0.997856
0.112151 0.16221 0.380735 0.000621256 -0.908847 0.41713
-0.128961 0.152812 0.334581 -0.000458686 0.683709 -0.729755
-0.179913 -0.0389462 0.289811 0.000183992 -0.291606 -0.956538
0.030565 0.253665 0.585875 -0.000627848 0.948895 -0.31559
-0.102337 0.164069 0.398231 0.00056889 -0.909132 0.416507
-0.222937 0.212069 0.469649 1 0.000507268 0.0007256
-0.212135 -0.10454 0.303453 5.4217e-05 -0.0859275 -0.996301
0.190798 -0.041854 0.300284 -0.000206534 0.313475 0.949597
0.0674068 0.196211 0.346621 0.000613896 -0.96912 0.246591
-0.0327261 0.220477 0.519163 0.000648841 -0.949205 0.314658
-0.00671624 0.154318 0.36369 0.000553909 -0.908932 0.416945
0.0799126 -0.210258 0.310732 4.48989e-05 -0.065446 -0.997856
-0.0861162 0.187278 0.448869 0.00056889 -0.909132 0.416507
-0.0427488 -0.12748 0.321412 -4.83924e-05 0.0706875 0.997499
-0.038239 0.0418909 0.200762 0 0 1
0.150545 -0.129711 0.318566 -0.526143 -0.35565 0.772455
-0.126092 -0.0146276 0.298497 -0.000196249 0.312876 0.949794
-0.168882 0.0650413 0.198216 -0.000638169 1 0
0.248746 0.256736 0.607987 0.706761 0.675302 -0.210847
-0.175749 0.197658 0.352913 0.000613896 -0.96912 0.246591
0.243406 -0.060925 0.425169 -0.00397636 0.105791 0.99438
-0.195035 0.237995 0.538594 -0.000596074 0.946023 -0.324098
0.0466722 0.20522 0.490602 0.00059885 -0.949049 0.315129
-0.0165892 -0.0283712 0.303047 -0.000196249 0.312876 0.949794
0.224048 0.015258 0.200762 0 0 1
-0.140347 -0.235541 0.322721 -0.000443496 0.686865 0.726785
0.21312 -0.0275346 0.301622 0.705075 0.208269 0.677859
-0.157899 -0.0693159 0.309271 -0.000214128 0.313452 0.949604
0.147947 0.245036 0.592894 0.000625443 -0.949226 0.314593
0.224733 -0.0738882 0.390682 0.000551879 -0.638057 -0.769989
0.232292 0.0565599 0.192788 0 0 1
0.247313 0.0904023 0.0155151 1 0.00066247 -0.000570202
0.226062 0.0621195 0.100839 -0.000484079 0.999537 0.0304211
0.0215054 -0.0230884 0.284785 0.000213925 -0.311715 -0.950176
0.0925438 0.161696 0.354614 -0.000623713 0.909119 -0.416535
0.244464 0.240035 0.512154 -0.000415028 0.958557 -0.284902
0.232064 0.00588045 0.139024 0.000485029 -0.999537 0.0304215
-0.251163 -0.0494531 0.0490953 5.38524e-05 -0.109291 0.99401
0.221776 0.142753 0.348439 -0.999999 -0.00103938 -0.000134964
0.10913 0.0370812 0.274209 -0.000206534 0.313475 0.949597
-0.240776 -0.0678548 0.308767 -0.000107178 0.247282 0.968943
-0.136277 -0.0692163 0.309243 -0.000214128 0.313452 0.949604
0.0210387 0.0379897 0.281199 -0.000222969 0.312815 0.949814
-0.0466566 0.00306346 0.292686 -0.000222969 0.312815 0.949814
-0.146067 0.220029 0.486062 -0.000596074 0.946023 -0.324098
0.225035 0.0396692 0.0584668 -0.999997 -0.000440043 -0.00220295
-0.194935 0.198927 0.357948 0.000613896 -0.96912 0.246591
-0.240351 -0.174438 0.333709 -5.4244e-05 0.124854 0.992175
-0.0748257 -0.0651901 0.298578 0.000195718 -0.311757 -0.950162
-0.254695 -0.00844537 0.031947 -1 -0.000671353 0.000556033
-0.110258 -0.131992 0.30559 4.48057e-05 -0.0654458 -0.997856
-0.238641 -0.0360565 0.242145 0.000329637 -0.765975 -0.64287
0.247184 0.276782 0.645829 0.999996 0.00155482 0.00214024
0.225615 0.144563 0.00950577 0 -0.0356934 -0.999363
0.0123667 0.142282 0.338642 0.000534682 -0.877379 0.479797
0.185838 -0.249784 0.325905 5.18813e-05 -0.0813227 0.996688
-0.222853 -0.0634963 0.387343 0.999894 0.0111382 0.00940168
-0.149917 0.226101 0.553862 0.00059885 -0.949049 0.315129
0.0280795 0.0266678 0.200762 0 0 1
0.203123 0.271952 0.659846 -0.000166939 0.253392 0.967364
-0.222764 -0.0683338 0.264053 0.999998 0.000316524 -0.00190764
-0.110707 0.0777748 0.264276 -0.000320369 0.464637 0.885501
-0.056747 0.212526 0.512801 0.00059885 -0.949049 0.315129
0.100136 0.148805 0.329548 -0.000582496 0.877489 -0.479597
-0.251224 0.260281 0.624389 -0.706873 0.675132 -0.211014
0.238501 0.187302 0.460931 0.000389547 -0.899704 0.436501
-0.146821 0.0378655 0.281201 -0.000222969 0.312815 0.949814
-0.160358 -0.19014 0.309402 4.48057e-05 -0.0654458 -0.997856
-0.249137 0.239934 0.569532 -0.70649 -0.671539 0.223399
0.246611 0.1942 0.00773324 0.000122001 -0.0356933 -0.999363
-0.108796 0.214007 0.51736 0.00059885 -0.949049 0.315129
-0.144969 -0.111831 0.320157 -6.70539e-05 0.0910207 0.995849
-0.209002 0.0898802 0.244002 -0.000586702 0.924904 -0.3802
-0.217537 0.0340556 0.277849 -0.782531 0.189792 0.592979
-0.0121319 0.236014 0.532887 -0.000627848 0.948895 -0.31559
-0.132956 -0.135595 0.314853 -4.56915e-05 0.0668434 0.997764
-0.0226109 0.147517 0.32734 -0.000582496 0.877489 -0.479597
0.0906806 -0.260839 0.325008 5.39624e-05 -0.0812822 0.996691
0.231483 0.246375 0.00557672 0 0 1
-0.0930176 0.15542 0.366206 0.000553909 -0.908932 0.416945
-0.222858 0.0674327 0.247676 0.999993 0.00102309 -0.00367311
-0.232539 0.219953 0.00834297 1 0.000702176 0.00054146
-0.0564377 -0.14775 0.306626 4.48057e-05 -0.0654458 -0.997856
-0.0456724 0.0156867 0.272049 0.000213925 -0.311715 -0.950176
0.105293 0.240689 0.579863 0.000625443 -0.949226 0.314593
-0.137098 0.170447 0.412201 0.00056889 -0.909132 0.416507
0.25079 0.025607 0.160822 0.00273127 -0.997773 -0.0666517
0.0642241 -0.253523 0.325606 5.18813e-05 -0.0813227 0.996688
-0.25473 0.0272795 0.0846509 -1 -0.000557827 3.52598e-05
-0.222653 -0.261323 0.299368 0.999999 0.00109918 -0.00070573
0.240961 0.258052 0.662279 0 -0.958583 0.284814
0.217724 -0.0508023 0.303244 -0.000206534 0.313475 0.949597
-0.179852 -0.21113 0.310778 4.48989e-05 -0.065446 -0.997856
0.175543 0.219904 0.534194 0.000696941 -0.94614 0.323758
0.0270106 -0.0489168 0.293259 0.000195718 -0.311757 -0.950162
0.200731 -0.0716716 0.299868 0.000214802 -0.291606 -0.956538
-0.248269 0.126146 0.245692 -0.999948 -0.0090318 0.00478043
-0.210476 0.0375524 0.39908 0.958583 0.0838577 0.272187
-0.0385534 0.0771363 0.264638 -0.000320369 0.464637 0.885501
-0.0587032 0.188607 0.413574 -0.000568826 0.909067 -0.41665
-0.0473226 0.0744989 0.248523 0.000321295 -0.465972 -0.8848
-0.228138 0.120958 0.391479 0.350577 0.900903 0.255871
-0.0844302 0.221969 0.523771 0.000648841 -0.949205 0.314658
-0.163627 0.146995 0.361043 0.000623755 -0.909185 0.416391
-0.0986986 0.0321536 0.137009 0 0 -1
0.186963 0.0497425 0.260929 0.000213925 -0.311715 -0.950176
0.0734058 0.176155 0.386202 -0.000623713 0.909119 -0.416535
-0.258731 0.0493196 0.197823 -1 -0.00078817 0
0.0613875 -0.0125513 0.297854 -0.000222969 0.312815 0.949814
0.213873 0.203251 0.470003 0.000621256 -0.908847 0.41713
0.0361874 0.217238 0.509248 0.000648841 -0.949205 0.314658
-0.226202 0.203449 0.353885 -0.000637312 0.969042 -0.246895
0.229922 0.162558 0.0439212 0 0.109924 0.99394
0.12384 0.0867942 0.239725 0.000331309 -0.493855 -0.869544
0.22513 -0.102551 0.275929 0.000293811 -0.339632 -0.940558
0.239424 -0.221142 0.304889 -7.14361e-05 0.0822125 -0.996615
-0.0704659 -0.248915 0.309298 -5.92606e-05 0.0892719 -0.996007
-0.232513 0.180078 0.0400828 0.999998 0.000585669 -0.0017106
-0.20014 0.127062 0.320641 0.000633553 -0.95435 -0.298689
0.221567 -0.00367071 0.287686 -0.000206534 0.313475 0.949597
-0.201914 0.270419 0.643677 -0.00064309 0.968768 -0.247966
0.183542 -0.172166 0.320534 -0.60373 -0.438715 0.665612
0.157913 0.188166 0.408106 -0.0594381 0.885589 -0.460651
0.177315 0.252404 0.636728 0.00066811 -0.968684 0.248296
-0.0631385 0.168006 0.40677 0.000623755 -0.909185 0.416391
-0.197438 -0.0991446 0.318994 -6.70539e-05 0.0910207 0.995849
0.0720781 0.202637 0.444003 -0.000623713 0.909119 -0.416535
-0.124926 0.0106028 0.200762 0 0 1
-0.247914 0.00372982 0.249632 -1 -0.000488753 0.000373119
-0.0223514 0.252955 0.630775 0.000579902 -0.873581 -0.486678
-0.0753927 0.198309 0.472931 0.00056889 -0.909132 0.416507
-0.183646 -0.0149618 0.282499 0.000183992 -0.291606 -0.956538
0.0417449 0.239714 0.543906 -0.000627848 0.948895 -0.31559
-0.0946785 0.20657 0.477695 0.000621256 -0.908847 0.41713
-0.227005 0.106291 0.216148 -0.000162447 0.412654 -0.910888
0.244854 0.00646966 0.391971 0.00400695 -0.105407 -0.994421
-0.0276388 -0.167511 0.32425 -4.84971e-05 0.0706877 0.997499
-0.196293 -0.160521 0.324604 -6.70539e-05 0.0910207 0.995849
-0.0714045 0.237538 0.588149 0.000625696 -0.949029 0.315187
-0.0781682 0.259834 0.655316 0.000362882 -0.521363 0.853335
-0.0991239 -0.253818 0.319052 5.54602e-05 -0.0841751 0.996451
-0.238788 0.173909 0.433964 0.000740842 -0.899671 0.436567
-0.147885 0.212961 0.514566 0.000696915 -0.946112 0.323838
0.225148 -0.13716 0.0364497 -1 -0.000634598 0.000373237
0.130522 0.219672 0.522306 0.522306 -0.833604 -0.179723
-0.13229 0.163385 0.383622 0.000553909 -0.908932 0.416945
-0.083691 0.200757 0.364854 0.000637313 -0.969042 0.246895
0.116306 -0.271395 0.317555 5.54602e-05 -0.0841751 0.996451
0.193697 0.17841 0.415909 0.000621256 -0.908847 0.41713
-0.12673 0.0397093 0.200762 0 0 1
-0.158626 0.12833 0.313333 0.000556302 -0.877259 0.480017
0.247691 0.109826 0.38997 0.91629 0.329502 0.227688
0.0723198 -0.188905 0.309331 4.48989e-05 -0.065446 -0.997856
-0.237705 0.0615068 0.111161 -0.000972496 0.999537 0.030422
-0.224195 0.149919 0.259447 -0.000845115 0.980096 -0.198523
0.059351 -0.0386108 0.289885 0.000213925 -0.311715 -0.950176
0.202525 0.14505 0.356247 0.000623755 -0.909185 0.416391
0.201018 0.0294184 0.192649 0.000680674 -0.999961 -0.00875218
0.221787 0.155226 0.334709 -0.999925 -0.00866766 -0.00867468
0.138489 -0.103242 0.31939 -6.69562e-05 0.0910131 0.99585
-0.0392346 0.156635 0.381905 0.000623755 -0.909185 0.416391
0.221781 0.158059 0.388745 -0.999999 0.00105299 -0.000230404
-0.0155331 -0.0980243 0.319326 -4.83924e-05 0.0706875 0.997499
0.130836 0.00379215 0.192788 0 0 -1
-0.219664 0.00938161 0.211861 0.882823 0.0206641 0.469251
0.0732313 0.179265 0.43115 0.000623755 -0.909185 0.416391
0.182193 0.150872 0.36899 0.000623755 -0.909185 0.416391
0.228663 0.245821 0.621117 0 -0.958583 0.284814
0.243743 0.233168 0.0361121 0 0.109924 0.99394
-0.0487102 0.224674 0.549372 0.000625696 -0.949029 0.315187
-0.0367366 -0.0211192 0.300654 -0.000196249 0.312876 0.949794
-0.20346 0.169703 0.369372 -0.161605 0.946135 -0.280558
-0.194632 0.0371223 0.151154 -0.000680715 1 0
0.0194891 -0.0675039 0.313005 0.000366529 -0.551061 0.834465
-0.258526 0.0370788 0.173891 -0.000680715 1 0
-0.228981 -0.107619 0.318918 -0.000205124 0.247293 0.968941
-0.138473 0.253716 0.586365 -0.000627848 0.948895 -0.31559
-0.0403839 0.184168 0.442019 0.00056889 -0.909132 0.416507
-0.248025 -0.189991 0.31369 -0.999995 -0.00311471 -0.000265398
-0.0426637 0.208379 0.482686 0.000648841 -0.949205 0.314658
0.247404 -0.00117323 0.241943 0.999999 0.000337207 -0.00107805
-0.208631 -0.0181299 0.39666 0.957082 -0.045896 0.286162
-0.254677 -0.0475748 0.0226727 -1 -0.00063429 0
0.0460714 0.172512 0.378291 -0.000623713 0.909119 -0.416535
-0.254719 0.00348619 0.0529549 -0.999986 -0.000675322 0.00519395
0.0639815 0.0903051 0.244615 -0.000586689 0.924904 -0.3802
0.247829 0.0908989 0.226757 0.996443 -0.00988016 0.0836876
0.0133805 0.0661695 0.265533 0.000264603 -0.409641 0.912247
0.00994788 -0.247478 0.309422 -5.92591e-05 0.0892719 -0.996007
0.247287 0.125029 0.0350271 1 0.000636983 -0.000430025
0.113993 -0.161915 0.307563 4.48989e-05 -0.065446 -0.997856
-0.232561 0.238423 0.0243844 1 0.000728843 0
-0.0639381 -0.223023 0.323064 0.000440925 -0.68285 0.730559
-0.0176616 0.230184 0.515367 -0.000598732 0.948916 -0.315528
-0.122854 0.234072 0.527261 -0.000598732 0.948916 -0.315528
0.224325 -0.0473962 0.252748 0.000496067 -0.573431 -0.819253
-0.219086 -0.0699596 0.410082 0.934254 -0.205137 0.291699
-0.0256537 0.181823 0.398721 -0.000623713 0.909119 -0.416535
0.222853 0.198224 0.355274 -0.000418096 0.969369 -0.245609
0.218199 0.0518238 0.232915 -0.998052 -0.0514215 -0.0353336
-0.13138 0.178615 0.430022 0.00056889 -0.909132 0.416507
-0.200279 -0.00492688 0.288007 -0.000214128 0.313452 0.949604
0.0742635 0.253313 0.64055 0.00066811 -0.968684 0.248296
0.159891 0.0259378 0.277898 -0.000206534 0.313475 0.949597
0.199465 0.0794483 0.256681 -0.000294902 0.464902 0.885362
0.249068 0.042033 0.414258 -0.00402221 0.10576 0.994384
0.222084 -0.134174 0.304921 -0.999986 0.00171763 0.00501563
-0.0506359 -0.175264 0.324798 -4.84971e-05 0.0706877 0.997499
0.246624 0.0788054 0.365322 0.998801 0.0120301 0.0474645
0.107731 -0.00763069 0.279733 0.000213925 -0.311715 -0.950176
-0.211015 0.0718974 0.385981 0.95087 0.158631 0.265863
0.0335147 0.17429 0.420346 0.000623755 -0.909185 0.416391
0.113833 0.0291923 0.200762 0 0 1
-0.134472 0.244299 0.558038 -0.000598732 0.948916 -0.315528
0.139533 0.249412 0.572871 -0.000627848 0.948895 -0.31559
-0.133034 0.0695924 0.261743 -0.000306209 0.464775 0.885429
0.247332 0.138573 0.30392 0.999998 0.00209408 0.000642025
0.00544649 0.029273 0.192788 0 0 -1
-0.23347 0.0293171 0.17043 0.0006807 -0.999961 -0.00875195
-0.0534307 0.0372184 0.149558 -0.000680715 1 0
-0.0570955 -0.102918 0.319671 -4.83924e-05 0.0706875 0.997499
-0.23733 -0.00784563 0.203046 0.000581723 -0.826741 -0.562583
-0.188546 0.21735 0.478319 -0.000596074 0.946023 -0.324098
-0.247119 0.0979758 0.36741 -0.999409 0.0124297 0.0320401
-0.158204 0.169387 0.407903 -0.52729 -0.466212 0.71036
-0.133098 6.3166e-05 0.277156 0.000195718 -0.311757 -0.950162
0.057823 0.192846 0.422655 -0.000623713 0.909119 -0.416535
-0.00188181 0.144714 0.322187 -0.000582512 0.877489 -0.479597
-0.135268 -0.167922 0.324274 -4.83924e-05 0.0706875 0.997499
-0.254777 0.0927478 0.0408451 -1 -0.000686485 -0.000368184
-0.182766 0.210625 0.507815 0.000696915 -0.946112 0.323838
0.0108415 -0.172299 0.308239 4.48989e-05 -0.065446 -0.997856
0.0656061 -0.0669814 0.31333 0.000366529 -0.551061 0.834465
0.208163 0.217897 0.528258 0.000696941 -0.94614 0.323758
-0.0882973 -0.0743514 0.310752 -4.56602e-05 0.0668435 0.997763
-0.248163 0.115935 0.342465 -0.999925 -0.00855044 -0.00882199
0.170765 0.200307 0.477839 0.000672464 -0.91291 0.408161
0.221833 0.146912 0.268404 -0.999951 -0.00959806 0.0022953
0.232636 0.0403229 0.388149 -9.07592e-05 0.105803 0.994387
-0.232597 0.042897 0.357734 0.000103716 -0.241501 -0.9704
-0.168946 0.040142 0.273138 -0.000214128 0.313452 0.949604
-0.124539 -0.114755 0.319114 -0.592303 0.518301 0.61688
-0.0754284 0.258581 0.637795 0.000638291 -0.968725 0.248138
-0.254744 0.0543874 0.0689762 -1 -0.000676283 -0.000208242
-0.115014 0.198335 0.333526 -0.000637312 0.969042 -0.246895
-0.19241 -0.124962 0.305215 5.4217e-05 -0.0859275 -0.996301
-0.227438 0.0371 0.18987 -0.000680715 1 0
0.147768 -0.183123 0.308955 4.48989e-05 -0.065446 -0.997856
-0.222976 0.167775 0.385222 0.999998 0.00195822 0.000176932
-0.238864 0.20343 0.414658 -0.000776725 0.936958 -0.349441
0.208477 0.0299499 0.394043 -0.961693 0.0600105 0.267479
0.204979 0.0901911 0.24412 -0.000586689 0.924904 -0.3802
0.247355 0.0269383 0.102561 1 0.00054061 0.0001493
-0.24757 0.0606874 0.363631 -0.999329 0.00842918 0.0356334
-0.0707921 0.184586 0.442973 0.00056889 -0.909132 0.416507
-0.0174572 0.0419439 0.200762 0 0 1
0.0526234 0.00927643 0.290663 -0.000222969 0.312815 0.949814
0.0321771 -0.198562 0.326453 -4.84971e-05 0.0706877 0.997499
-0.0278642 0.204131 0.447403 -0.000568826 0.909067 -0.41665
0.113285 0.257082 0.631455 0.000638291 -0.968725 0.248138
-0.0749271 0.226984 0.505851 -0.000598732 0.948916 -0.315528
0.0620237 0.229489 0.546156 0.000625443 -0.949226 0.314593
-0.185025 0.0138264 0.270166 -0.141915 -0.420166 -0.896281
0.057588 0.0232157 0.200762 0 0 1
0.172873 -0.126008 0.305327 6.32955e-05 -0.0859275 -0.996301
-0.238454 0.216231 0.522543 0 -0.958565 0.284876
-0.24751 -0.0172007 0.385885 -0.999963 0.00741908 -0.00438798
-0.094796 0.253773 0.642788 0.000643119 -0.968813 0.24779
0.110353 0.184757 0.443085 0.000623755 -0.909185 0.416391
0.222052 0.116132 0.250376 -0.999949 -0.00705952 0.00723521
0.102561 0.127305 0.320506 0.000633553 -0.95435 -0.298689
-0.0893324 0.192259 0.421584 -0.000568826 0.909067 -0.41665
0.00201364 0.181446 0.422811 0.000621256 -0.908847 0.41713
0.102168 0.0457287 0.200762 0 0 1
0.143568 -0.234634 0.320658 5.7526e-05 -0.0841541 0.996453
-0.259074 0.0491564 0.395571 -0.960304 0.100932 0.260054
-0.216438 0.208752 0.491763 -0.707246 -0.66891 0.228829
-0.0678936 0.130403 0.309424 0.000301443 -0.475359 -0.879792
-0.0809593 0.00134155 0.195151 0.00068066 -1 0
0.0491735 -0.0947557 0.312125 -4.56602e-05 0.0668435 0.997763
-0.045737 0.146197 0.324952 -0.000582512 0.877489 -0.479597
0.0429947 -0.25302 0.308923 -5.92591e-05 0.0892719 -0.996007
0.115907 0.1443 0.342216 0.000534682 -0.877379 0.479797
0.0124757 0.153033 0.373964 0.000623755 -0.909185 0.416391
-0.0495841 0.200431 0.341584 -0.000637312 0.969042 -0.246895
0.193259 -0.0250666 0.285659 0.000214802 -0.291606 -0.956538
-0.101359 0.138485 0.339933 0.000199017 -0.285927 0.958251
-0.123011 -0.0532089 0.306814 0.518008 0.64481 0.562038
-0.164302 0.037143 0.163157 -0.000680715 1 0
-0.162331 0.214845 0.502439 0.000648841 -0.949205 0.314658
-0.223034 0.190951 0.393707 0.999997 0.00237689 -0.000520664
0.212438 0.23914 0.588286 0.658017 -0.713805 0.239784
0.182575 -0.204479 0.319482 -4.56602e-05 0.0668435 0.997763
-0.252451 0.0908974 0.394555 -0.945906 0.214912 0.243052
0.24734 0.0592744 0.0697826 0.999999 0.000683512 -0.00152099
-0.178139 -0.0598051 0.306127 -0.000214128 0.313452 0.949604
-0.0286419 0.150765 0.355974 0.000553909 -0.908932 0.416945
0.135248 0.180581 0.431355 0.51245 -0.48843 0.70628
0.00837011 0.216776 0.471551 -0.000507646 0.764452 -0.644681
0.0935527 0.266926 0.628734 -0.000663034 0.998813 0.04871
-0.0845603 0.0489212 0.261137 0.000213925 -0.311715 -0.950176
0.015159 -0.205067 0.310389 4.48989e-05 -0.065446 -0.997856
-0.179908 0.175994 0.424006 0.000672482 -0.912943 0.408086
0.0662018 0.0157298 0.27206 0.000213925 -0.311715 -0.950176
0.225111 -0.075172 0.0446721 -1 -0.000634598 0.000373237
-0.254657 -0.0706923 0.0334225 -0.999992 -0.000687872 -0.00402059
-0.12716 -0.196323 0.326287 -4.84971e-05 0.0706877 0.997499
-0.060634 0.0493901 0.200762 0 0 1
-0.254622 -0.11628 0.0320097 -1 -0.000671353 0.000556033
-0.180159 0.275317 0.658898 -0.000166939 0.253392 0.967364
-0.0737368 -0.108098 0.313014 -4.56602e-05 0.0668435 0.997763
-0.182437 0.247921 0.564198 -0.152406 0.889484 -0.430801
0.247544 -0.237654 0.323532 1 0.000466159 0.000614662
0.0385806 0.248336 0.569836 -0.000627848 0.948895 -0.31559
-0.210175 0.0569427 0.269733 -0.0006276 0.935727 0.352724
0.00127071 0.165811 0.388733 0.000553909 -0.908932 0.416945
0.23337 0.197211 0.395671 -0.000424058 0.977329 -0.211728
-0.225331 0.043991 0.413997 -0.00405231 0.105635 0.994397
-0.191544 0.0487661 0.2776 -0.000196249 0.312876 0.949794
0.24664 -0.121229 0.00795146 -0.000122002 0.0356934 -0.999363
-0.222697 -0.201215 0.333218 0.999999 0.00114147 -0.000701834
