-0.161598 0.166183 0.402928 0.00056889 -0.909132 0.416507
-0.0534261 0.0533208 0.200762 0 0 1
-0.258721 0.0328198 0.166049 -0.999999 -0.00146896 -0.000210011
-0.0437968 -0.109327 0.304107 4.48057e-05 -0.0654458 -0.997856
-0.228434 0.0408094 0.159043 1 0.000293582 0.000164375
0.104627 0.221929 0.485415 -0.209302 0.967709 -0.140467
-0.231983 0.0458986 0.200762 0 0 -1
-0.203005 0.0815189 0.255458 -0.000306209 0.464775 0.885429
-0.254732 0.0312318 0.0784491 -1 -0.000557827 3.52598e-05
-0.116429 -0.0338291 0.297566 -0.000214128 0.313452 0.949604
-0.0578769 0.158088 0.385106 0.000623755 -0.909185 0.416391
0.0785053 -0.0802908 0.318074 -4.83924e-05 0.0706875 0.997499
-0.13369 0.200974 0.479814 0.000672482 -0.912943 0.408086
-0.0174726 0.240677 0.580073 0.000625443 -0.949226 0.314593
0.225037 0.026226 0.0631936 -1 -0.000675934 0.000520623
-0.0257589 0.154361 0.363808 0.000553909 -0.908932 0.416945
0.218561 0.0389727 0.261681 -0.112197 -0.310826 -0.943821
-0.251438 0.224332 0.0370536 -5.4168e-05 0.109931 0.993939
-0.246291 0.269006 0.671627 0.000296961 -0.342933 0.93936
-0.151683 0.231357 0.519139 -0.000596074 0.946023 -0.324098
0.254073 -0.0157534 0.41851 0.945864 -0.0327146 0.322909
0.246931 0.202931 0.412468 -0.000405677 0.936958 -0.34944
0.0413463 0.138365 0.339869 0.000190207 -0.285508 0.958376
0.212439 -0.00343445 0.410507 -0.948143 -0.0171915 0.317379
0.0429143 0.161572 0.354418 -0.000623713 0.909119 -0.416535
0.239963 0.0374182 0.189886 -0.000680715 1 0
-0.0495717 -0.241859 0.309929 -5.92591e-05 0.0892719 -0.996007
-0.0881487 -0.0811811 0.31121 -4.56602e-05 0.0668435 0.997763
-0.248481 0.256171 0.59469 -1 -0.000922551 -0.000100122
-0.232414 0.0304301 0.191816 1 0.000661096 -0.000133863
-0.0159143 -0.162595 0.323902 -4.84971e-05 0.0706877 0.997499
-0.198992 0.197389 0.471901 0.000672482 -0.912943 0.408086
0.177459 0.139654 0.340226 0.000190207 -0.285508 0.958376
0.126869 0.267038 0.62694 -0.000695126 0.998707 0.0508298
-0.044889 0.150486 0.355387 0.000553909 -0.908932 0.416945
-0.114334 0.154864 0.336881 -0.000592189 0.882705 -0.469927
0.101763 -0.272829 0.313883 0.000658838 -0.999907 0.0136505
0.155685 0.137432 0.305703 0.000301428 -0.475359 -0.879792
-0.208811 0.139221 0.340175 0.000199017 -0.285927 0.958251
0.156152 0.230026 0.514642 -0.00069708 0.94605 -0.324019
0.211916 0.00350428 0.200762 0 0 -1
0.197974 0.202004 0.369023 0.000637313 -0.969042 0.246895
0.0876438 0.227023 0.538664 0.000625443 -0.949226 0.314593
-0.152539 0.237003 0.569263 0.000648841 -0.949205 0.314658
0.102596 0.182257 0.437639 0.000623755 -0.909185 0.416391
0.225044 0.0311285 0.0911831 -1 -0.000726099 -6.21081e-05
0.0182283 0.1331 0.334022 0.000584464 -0.877302 0.479939
0.20776 0.0180606 0.393585 -0.962815 0.0375944 0.267531
-0.00583422 0.0384167 0.200762 0 0 1
-0.214167 -0.00489614 0.393179 0.00385563 -0.104624 -0.994504
-0.22274 -0.0699428 0.295296 1 0.000426087 0.000532274
-0.0377697 0.235784 0.532247 -0.000598732 0.948916 -0.315528
0.247349 0.0297543 0.0389327 1 0.000636983 -0.000430025
0.223439 0.105836 0.374902 -0.999412 0.0133612 0.0315731
-0.0173424 -0.0801668 0.300748 0.000293735 -0.481994 -0.876175
-0.184546 -0.214092 0.327543 -4.84971e-05 0.0706877 0.997499
-0.2097 -0.0260709 0.398987 0.955209 -0.06917 0.287734
-0.12892 0.0431538 0.192788 0 0 -1
-0.23227 0.0268935 0.173315 0 0.997651 0.0685007
0.255926 -0.00594767 0.413788 0.945887 -0.0156485 0.324119
0.160814 0.0882847 0.255472 -0.00066056 0.958028 0.286673
-0.249505 0.0555392 0.213857 -0.984712 -0.033139 -0.171008
-0.0157675 0.00472201 0.292147 -0.000222969 0.312815 0.949814
-0.247584 -0.0228411 0.393094 -0.999963 0.00741908 -0.00438798
0.131071 0.192795 0.461105 0.000672464 -0.91291 0.408161
-0.0160101 -0.152381 0.306932 4.48989e-05 -0.065446 -0.997856
0.166811 0.0890461 0.25163 -0.000294902 0.464902 0.885362
0.153997 0.189287 0.410948 -0.208702 0.801058 -0.561025
-0.238839 -0.0642406 0.384396 0.000104898 -0.241502 -0.9704
0.167159 -0.18003 0.325147 -4.84971e-05 0.0706877 0.997499
0.0266572 0.271908 0.659827 -0.000166939 0.253392 0.967364
-0.105381 -0.200673 0.326596 -4.84971e-05 0.0706877 0.997499
0.150054 0.204814 0.490149 0.000696941 -0.94614 0.323758
-0.222646 -0.272929 0.303715 1 0.000412887 0.000108189
0.197766 0.0606152 0.200762 0 0 1
0.231298 0.159309 0.30305 0.0316557 0.977461 -0.208728
0.228808 0.237003 0.591437 0 -0.958583 0.284814
-0.0318966 0.206006 0.484469 0.00057716 -0.914675 -0.404189
0.174128 0.049919 0.269985 -0.000206534 0.313475 0.949597
-0.144295 0.164261 0.385548 0.000553909 -0.908932 0.416945
-0.22923 0.180305 0.447136 0 -0.899733 0.436441
-0.163192 0.163473 0.397014 0.00056889 -0.909132 0.416507
0.123845 0.173251 0.379788 -0.000623713 0.909119 -0.416535
0.225054 0.0156476 0.107194 -1 -0.00075669 -5.04089e-05
-0.0736922 -0.252204 0.319187 5.54602e-05 -0.0841751 0.996451
-0.247911 0.00824605 0.265452 -1 -0.000469505 0.000293998
0.224703 0.0281882 0.133017 0 0 -1
-0.1631 0.172964 0.379585 -0.000568826 0.909067 -0.41665
0.169776 0.0509669 0.269638 -0.000206534 0.313475 0.949597
0.154476 0.146126 0.345618 0.000553909 -0.908932 0.416945
-0.254737 0.048661 0.114833 -1 -0.000794057 5.28982e-05
0.222333 0.0028398 0.36852 -0.999317 0.0084443 0.0359895
-0.216965 -0.00124222 0.276292 0.511721 -0.261452 -0.818403
0.176658 -0.00227314 0.295117 -0.000215551 0.292997 0.956113
0.193283 -0.065007 0.307928 -0.000214128 0.313452 0.949604
-0.218065 0.0292395 0.180492 0.0006807 -0.999961 -0.00875195
0.165088 0.152425 0.359334 0.000553909 -0.908932 0.416945
-0.234286 0.0978236 0.408237 -0.003927 0.105309 0.994432
0.240642 0.201332 0.0074784 1.75956e-05 -0.0356919 -0.999363
-0.0290067 0.149265 0.330546 -0.000582496 0.877489 -0.479597
0.166763 0.153391 0.361437 0.000553909 -0.908932 0.416945
-0.133206 -0.0888851 0.311724 -4.56602e-05 0.0668435 0.997763
-0.232535 0.203294 0.0218292 1 0.000702176 0.00054146
0.18191 -0.141425 0.322883 -6.69562e-05 0.0910131 0.99585
-0.0423872 0.170379 0.398749 0.000553909 -0.908932 0.416945
-0.0464443 -0.239556 0.309812 0.000163713 -0.246628 -0.96911
0.247361 0.106696 0.249625 0.999998 0.00066807 -0.00196136
-0.133895 -0.251607 0.319241 5.54602e-05 -0.0841751 0.996451
0.151654 0.214341 0.51799 0.000696941 -0.94614 0.323758
-0.248273 0.108584 0.225259 -0.999887 -0.0139987 0.00555797
0.00847913 -0.0469342 0.30192 -0.000214128 0.313452 0.949604
0.247331 0.061707 0.0646537 0.999998 0.000683512 -0.00200459
0.0459543 0.250279 0.575665 -0.000627848 0.948895 -0.31559
0.175828 -0.179257 0.307661 -0.329192 -0.326033 -0.886191
-0.23243 0.0539834 0.170721 1 0.000689985 -6.95882e-05
0.165656 -0.237181 0.320442 5.7526e-05 -0.0841541 0.996453
0.122628 0.204442 0.472735 0.000621256 -0.908847 0.41713
0.247285 0.139912 0.34643 0.999997 0.00212312 0.00152332
-0.13104 -0.25751 0.308531 -5.92606e-05 0.0892719 -0.996007
0.221769 0.219817 0.467294 -1 -0.000765852 -0.000192907
0.17811 0.202974 0.350992 -0.000613882 0.96912 -0.246591
0.247431 0.024316 0.2847 1 0.000415572 0.000298664
0.0162939 -0.219666 0.311032 -0.000233314 0.34008 -0.940396
0.139096 -0.056385 0.311691 -0.000215551 0.292997 0.956113
-0.240993 0.0514008 0.387103 0.00382606 -0.105506 -0.994411
0.00651376 0.248143 0.602551 0.000625443 -0.949226 0.314593
-0.222869 0.128897 0.31609 0.999998 0.00211293 0.000663638
0.247283 0.195596 0.471817 1 0.000646368 -0.000241853
-0.0413211 0.230206 0.566014 0.000625696 -0.949029 0.315187
0.0697431 0.245868 0.562353 -0.000627848 0.948895 -0.31559
-0.222853 0.115091 0.335058 0.999998 0.00211293 0.000663638
0.225363 -0.0620388 0.399173 0.00383358 -0.106145 -0.994343
-0.0356619 -0.19339 0.318729 -4.56915e-05 0.0668434 0.997764
-0.143878 0.0611631 0.253606 6.64958e-05 -0.0964382 -0.995339
0.240965 0.264294 0.669789 0.000148545 -0.342934 0.939359
0.229706 0.0750487 0.272237 -0.000227397 0.263392 0.964689
-0.238715 0.00586691 0.148387 0.000970981 -0.999539 0.0303324
0.0287664 0.1333 0.307892 0.000301428 -0.475359 -0.879792
-0.0166087 -0.248007 0.309376 -5.92591e-05 0.0892719 -0.996007
0.218411 0.0341356 0.263283 0 -0.309581 -0.950873
-0.219731 0.249428 0.568046 -0.140855 0.938511 -0.31521
0.101947 0.207323 0.479205 0.000648841 -0.949205 0.314658
-0.081815 -0.260802 0.32502 5.39624e-05 -0.0812822 0.996691
0.117412 0.196068 0.345934 0.000637313 -0.969042 0.246895
-0.155034 -0.13535 0.314835 -4.56915e-05 0.0668434 0.997764
-0.0909795 0.0588166 0.26699 -0.000206534 0.313475 0.949597
-0.242017 -0.0622162 0.0100706 -1.75875e-05 0.0356914 -0.999363
-0.00719441 -0.2171 0.327765 -4.84971e-05 0.0706877 0.997499
0.23471 0.245561 0 0 0 -1
0.0860404 0.190323 0.442027 0.000621256 -0.908847 0.41713
-0.127016 0.196787 0.349366 0.000613896 -0.96912 0.246591
0.0804483 0.244813 0.609754 0.000625696 -0.949029 0.315187
0.239023 0.224391 0.470018 -0.000405677 0.936958 -0.34944
-0.0840412 0.215947 0.505602 0.000648841 -0.949205 0.314658
-0.222932 0.149205 0.336139 0.999996 0.00231473 0.00170339
-0.24859 -0.0604193 0.42122 -0.918047 -0.196706 0.344232
0.246019 -0.0555293 0.292649 -0.708995 0.192606 0.678401
-0.0749781 0.236621 0.567951 0.000648841 -0.949205 0.314658
-0.143124 -0.0213074 0.282895 0.310072 -0.0199095 -0.950504
-0.0655689 -0.0979326 0.312333 -4.56602e-05 0.0668435 0.997763
0.141313 0.244462 0.557985 -0.000627848 0.948895 -0.31559
-0.222775 0.0260995 0.283769 1 0.000426087 0.000532274
0.1872 0.222319 0.492071 -0.00069708 0.94605 -0.324019
-0.24431 -0.137738 0.326601 -0.000205124 0.247293 0.968941
-0.103758 -0.00980276 0.280399 0.000195718 -0.311757 -0.950162
0.0124805 0.275773 0.656292 -0.00067685 0.972449 -0.233113
0.101089 0.132687 0.333167 0.000584464 -0.877302 0.479939
0.0311083 -0.0534877 0.31133 -0.000196249 0.312876 0.949794
-0.168896 -0.132539 0.322048 -6.70539e-05 0.0910207 0.995849
-0.209408 0.0594261 0.387048 0.954705 0.130303 0.267507
-0.122541 0.269084 0.660542 -0.00016082 0.253617 0.967305
0.207076 -0.0829494 0.311342 -4.56602e-05 0.0668435 0.997763
-0.248606 -0.190858 0.317817 -0.708343 0.0559867 -0.703645
0.119549 -0.226355 0.308879 -3.60212e-05 0.0557821 -0.998443
0.195817 -0.168307 0.32534 -6.69562e-05 0.0910131 0.99585
0.0339922 0.242866 0.586575 0.000625443 -0.949226 0.314593
0.250464 0.165526 0.380799 0.707482 -0.641653 0.296227
-0.218164 -0.20637 0.31959 -4.56915e-05 0.0668434 0.997764
-0.172504 0.0790744 0.246068 0.000321295 -0.465972 -0.8848
0.221781 0.230947 0.525722 -0.999999 -0.00154743 -0.000700001
0.16647 -0.179626 0.317816 -4.56602e-05 0.0668435 0.997763
0.241605 -0.0168618 0.372685 0.000208893 -0.241535 -0.970392
-0.108593 0.219682 0.51692 0.000648841 -0.949205 0.314658
0.152064 -0.0765656 0.301062 6.32955e-05 -0.0859275 -0.996301
0.225798 0.0033742 0.367646 0.000103791 -0.241518 -0.970396
-0.254764 0.0756326 0.0379481 -1 -0.000686485 -0.000368184
0.219309 0.266044 0.61797 -0.000635707 0.964801 -0.262979
-0.205905 0.225094 0.533446 0.000648841 -0.949205 0.314658
-0.212264 0.0532368 0.400118 0.958385 0.100327 0.26727
-0.00952746 0.167916 0.406493 0.000623755 -0.909185 0.416391
-0.203996 0.228999 0.561543 0.000696915 -0.946112 0.323838
-0.0739597 0.252104 0.636209 0.000643119 -0.968813 0.24779
0.0606903 -0.137283 0.314975 -4.56602e-05 0.0668435 0.997763
-0.0803331 0.149158 0.352539 0.000553909 -0.908932 0.416945
-0.215885 -0.0154341 0.291472 -0.000214128 0.313452 0.949604
-0.166799 -0.00987128 0.279756 -0.412276 -0.605247 -0.680958
0.083312 0.0621038 0.25353 6.45779e-05 -0.0962939 -0.995353
0.0628244 0.168348 0.369177 -0.000623713 0.909119 -0.416535
0.000197291 0.235062 0.580552 0.000625696 -0.949029 0.315187
-0.114735 0.147115 0.361233 0.000623755 -0.909185 0.416391
0.247349 0.0388196 0.129485 1 0 -0.000162061
-0.248021 -0.0484888 0.297378 -0.999984 0.00178825 0.00529235
0.247252 0.238545 0.565616 1 0.000510095 0.000231902
-0.0087679 0.143273 0.319559 -0.000582512 0.877489 -0.479597
-0.0231553 0.029696 0.143496 0.0006807 -0.999961 -0.00875195
-0.0603255 -0.251438 0.325783 5.39624e-05 -0.0812822 0.996691
-0.166359 0.251858 0.580831 -0.000598732 0.948916 -0.315528
-0.135209 0.234704 0.562291 0.000648841 -0.949205 0.314658
0.129406 -0.0190594 0.300014 -0.000222969 0.312815 0.949814
-0.245886 0.035667 0.200762 0 0 -1
0.111225 0.222698 0.487407 0.0214033 0.941764 -0.335592
-0.211057 0.188972 0.439506 0.000553909 -0.908932 0.416945
0.0810724 0.176724 0.387431 -0.000623713 0.909119 -0.416535
0.0903083 0.0448513 0.262512 0.000213925 -0.311715 -0.950176
-0.248461 0.242992 0.537011 -0.999999 -0.000856094 -0.00127228
0.25744 0.0793328 0.38428 0.00378453 -0.105416 -0.994421
-0.106874 -0.177791 0.324975 -4.84971e-05 0.0706877 0.997499
0.240081 -0.127804 0.285052 0.000295442 -0.339633 -0.940558
0.159669 -0.14284 0.304708 0.235909 0.124017 -0.963829
0.247222 0.233157 0.021455 1 0.00066247 -0.000570202
0.152783 0.0373588 0.159897 -0.000680715 1 0
0.0126904 0.162218 0.355873 -0.000623713 0.909119 -0.416535
-0.143525 0.270088 0.660275 -0.00016082 0.253617 0.967305
-0.104018 -0.231255 0.308604 -4.06258e-05 0.0629174 -0.998019
-0.0262012 -0.261981 0.318358 5.54602e-05 -0.0841751 0.996451
-0.0983349 -0.245213 0.319779 5.54602e-05 -0.0841751 0.996451
0.0175696 0.242788 0.586371 0.000625443 -0.949226 0.314593
0.153116 0.0294985 0.179765 0.000680674 -0.999961 -0.00875218
-0.248419 0.213888 0.513756 -1 -0.000136242 0.000978953
-0.0481414 -0.209009 0.32719 -4.84971e-05 0.0706877 0.997499
-0.128326 0.203135 0.470261 0.000621256 -0.908847 0.41713
-0.245024 0.239655 0.601397 0.000830098 -0.958604 0.28474
0.224947 0.167677 0.0243148 -1 -0.000637432 0
-0.00730421 0.143904 0.341531 0.000199017 -0.285927 0.958251
-0.0452296 0.236047 0.566156 0.000625443 -0.949226 0.314593
-0.232323 -0.0955074 0.0226363 1 0.000683762 0
0.0263052 0.148667 0.329384 -0.000582496 0.877489 -0.479597
-0.106044 -0.221735 0.310313 -0.000220115 0.340868 -0.940111
-0.166558 -0.180967 0.317891 -4.56915e-05 0.0668434 0.997764
-0.0562799 0.177636 0.414588 0.000553909 -0.908932 0.416945
-0.156359 0.126665 0.322002 0.000633553 -0.95435 -0.298689
-0.121313 0.127388 0.32375 0.000582417 -0.877323 0.479899
-0.102375 -0.177035 0.324921 -4.84971e-05 0.0706877 0.997499
0.0230338 -0.106924 0.319959 -4.83924e-05 0.0706875 0.997499
-0.103742 0.257788 0.59854 -0.000627848 0.948895 -0.31559
0.183243 0.0678778 0.262751 -0.000294902 0.464902 0.885362
-0.175236 -0.16108 0.30681 -0.397279 0.261228 -0.879732
-0.0533574 0.26019 0.64402 0.000638291 -0.968725 0.248138
-0.234485 0.0611558 0.41214 -0.00381141 0.105725 0.994388
0.218233 0.0683798 0.249516 -0.027037 -0.465802 -0.884476
0.0432137 0.219453 0.515918 0.000648841 -0.949205 0.314658
0.22252 -0.0737732 0.310354 -0.000213489 0.247283 0.968943
0.204775 -0.14131 0.315251 -4.56602e-05 0.0668435 0.997763
0.0171432 -0.189829 0.318493 -4.56915e-05 0.0668434 0.997764
0.0945217 0.02653 0.200762 0 0 1
0.00962307 0.173097 0.417777 0.000623755 -0.909185 0.416391
-0.15766 0.252667 0.583248 -0.000598732 0.948916 -0.315528
0.198636 0.203018 0.484798 0.000696941 -0.94614 0.323758
0.149717 0.24224 0.601867 0.000625696 -0.949029 0.315187
0.200088 0.171876 0.374847 0.147623 0.946743 -0.286155
0.0171728 0.180461 0.433846 0.000623755 -0.909185 0.416391
-0.228005 0.024389 0.389811 0 0.105802 0.994387
-0.0192372 0.0135905 0.192788 0 0 -1
0.124527 0.127804 0.312044 0.000556302 -0.877259 0.480017
-0.225051 0.23961 0.601211 0 -0.958565 0.284876
-0.0795833 0.135771 0.339025 0.000584464 -0.877302 0.479939
-0.152678 0.26128 0.656231 0.000362882 -0.521363 0.853335
0.0846302 0.246777 0.598276 0.000625443 -0.949226 0.314593
-0.0985673 0.225078 0.550683 0.00059885 -0.949049 0.315129
0.169802 -0.190587 0.318551 -4.56602e-05 0.0668435 0.997763
-0.130355 0.23619 0.533643 -0.000598732 0.948916 -0.315528
-0.0605732 0.259155 0.639997 0.000638291 -0.968725 0.248138
-0.232439 0.0713704 0.0239897 1 0.000728843 0
0.129008 0.0569861 0.200762 0 0 1
-0.211804 0.00125249 0.194965 0.00068066 -1 0
0.210274 -0.0282031 0.39552 0.00399289 -0.105489 -0.994412
-0.116963 -0.156042 0.316223 -4.56915e-05 0.0668434 0.997764
-0.11674 -0.197611 0.309894 4.48989e-05 -0.065446 -0.997856
-0.0382877 0.0881189 0.252049 -0.000294902 0.464902 0.885362
0.247426 -0.084047 0.0102472 1 0.00065961 -0.000491034
-0.0670394 0.167454 0.367421 -0.000623713 0.909119 -0.416535
0.129932 0.0224947 0.200762 0 0 1
0.151968 -0.194849 0.326196 -4.84971e-05 0.0706877 0.997499
-0.202527 -0.151706 0.307521 5.4217e-05 -0.0859275 -0.996301
-0.0524352 0.201847 0.369051 0.000637313 -0.969042 0.246895
-0.118525 0.253336 0.641141 0.000643119 -0.968813 0.24779
0.0780387 0.18212 0.424165 0.000621256 -0.908847 0.41713
-0.0825788 -0.18211 0.308879 4.48989e-05 -0.065446 -0.997856
0.0425207 -0.22911 0.321126 -4.56915e-05 0.0668434 0.997764
0.248218 0.0769104 0.252712 0.706089 0.208354 0.676776
0.222068 0.114936 0.342513 -0.999925 -0.00866766 -0.00867468
0.253214 -0.0389838 0.41658 0.941564 -0.0794743 0.327325
0.0956401 -0.18095 0.325208 -4.84971e-05 0.0706877 0.997499
0.027932 -0.212729 0.320028 -4.56915e-05 0.0668434 0.997764
0.163989 0.0914334 0.247205 -0.000586689 0.924904 -0.3802
-0.237639 -0.179862 0.00557672 0 0 1
0.221993 0.130884 0.366983 5.69129e-05 -0.132006 0.991249
-0.073528 0.247906 0.601994 0.000625443 -0.949226 0.314593
-0.205405 -0.187142 0.327037 -6.70539e-05 0.0910207 0.995849
0.213387 0.00689872 0.413317 -0.949299 0.00254943 0.314365
-0.24879 -0.0682599 0.0470273 5.38524e-05 -0.109291 0.99401
0.241811 0.0605694 0.192788 0 0 -1
-0.00807048 -0.191381 0.318596 -4.56915e-05 0.0668434 0.997764
-0.166519 0.151934 0.371832 0.00056889 -0.909132 0.416507
-0.0427359 -0.172723 0.324619 -4.84971e-05 0.0706877 0.997499
0.2223 0.0148002 0.248814 -1 -0.00055834 0.00026594
0.102003 0.0295493 0.169987 0.000680674 -0.999961 -0.00875218
0.0885461 0.14831 0.328655 -0.000582496 0.877489 -0.479597
0.225467 0.243766 0.00596265 0 -0.0356934 -0.999363
0.125681 -0.0798985 0.317256 -6.69562e-05 0.0910131 0.99585
-0.241675 0.231158 0.48901 -0.000811671 0.936956 -0.349448
0.222131 -0.111566 0.306559 -0.999986 0.00171763 0.00501563
0.122355 0.21807 0.479805 -0.00069708 0.94605 -0.324019
0.247339 0.124406 0.33473 0.999992 0.00252217 0.00322514
-0.249059 0.0465144 0.413633 -0.003927 0.105186 0.994445
0.0978989 -0.251354 0.319249 5.7526e-05 -0.0841541 0.996453
0.213215 -0.0225372 0.293912 -0.000206534 0.313475 0.949597
-0.137763 -0.0859746 0.317794 -6.70539e-05 0.0910207 0.995849
0.197402 0.257546 0.59255 -0.209302 0.967709 -0.140467
-0.222715 -0.15407 0.31905 1 0.000647444 0.000691413
-0.0180731 0.0293259 0.186178 0.000680674 -0.999961 -0.00875218
0.234873 0.025958 0.192788 0 0 1
0.243396 -0.106914 0.042699 0.00731498 -0.108321 0.994089
0.121476 -0.105935 0.312878 -4.56602e-05 0.0668435 0.997763
0.18081 -0.0778984 0.311002 -4.56602e-05 0.0668435 0.997763
-0.235398 -0.179953 0 0 0 -1
0.220804 -0.174379 0.317467 -4.56602e-05 0.0668435 0.997763
-0.178061 0.236189 0.584296 0.00059885 -0.949049 0.315129
0.0465565 0.000899732 0.286139 -0.000206534 0.313475 0.949597
0.230471 0.158462 0.0443742 0 0.109924 0.99394
-0.193206 0.0240422 0.200762 0 0 1
-0.109598 -0.0798257 0.31314 0.526928 -0.355251 0.772103
0.0699679 0.166009 0.389075 0.000553909 -0.908932 0.416945
-0.192817 -0.0516798 0.310177 -0.000215829 0.292972 0.956121
0.23285 0.109712 0.311018 0.000434814 -0.992867 -0.119224
-0.244224 0.174859 0.0425258 -5.4168e-05 0.109931 0.993939
0.17391 0.252982 0.583536 -0.000627848 0.948895 -0.31559
0.151777 0.216818 0.525227 0.000696941 -0.94614 0.323758
-0.0326779 0.219097 0.532544 0.00059885 -0.949049 0.315129
0.19878 0.150288 0.354629 0.000621256 -0.908847 0.41713
-0.154814 -0.124137 0.305146 5.4217e-05 -0.0859275 -0.996301
0.244826 -0.0935658 0.301997 -0.706276 0.159562 0.689721
0.247087 -0.250618 0.308826 -0.70682 0.16914 -0.686875
-0.222724 -0.137728 0.319479 1 0.000426087 0.000532274
0.232628 0.110847 0.01071 0 -0.0356934 -0.999363
0.0269247 0.0287433 0.284246 -0.000222969 0.312815 0.949814
-0.173779 0.140646 0.340593 0.000199017 -0.285927 0.958251
-0.222917 0.138298 0.251806 0.999998 0.00217229 -0.000589932
0.17349 0.085068 0.260552 -0.000320369 0.464637 0.885501
0.00856793 0.177031 0.388209 -0.000623713 0.909119 -0.416535
-0.0647475 0.216511 0.507266 0.000648841 -0.949205 0.314658
0.0800842 0.212531 0.465583 -0.000568826 0.909067 -0.41665
-0.221815 0.261288 0.604288 -0.140855 0.938511 -0.31521
0.0289237 0.00533234 0.200762 0 0 1
-0.0112819 -0.211439 0.31994 -4.56915e-05 0.0668434 0.997764
-0.243415 0.249939 0.636014 0.000830098 -0.958604 0.28474
-0.248103 -0.133341 0.310542 -0.999984 0.00178825 0.00529235
0.1207 0.176276 0.386395 -0.000623713 0.909119 -0.416535
0.134874 0.132122 0.308565 0.000301428 -0.475359 -0.879792
-0.232472 0.129026 0.0297964 0.999995 0.000674114 0.00302992
-0.184338 0.0371293 0.180152 -0.000680715 1 0
-0.158661 -0.261289 0.308194 -5.92606e-05 0.0892719 -0.996007
-0.248442 0.205133 0.450847 -1 -0.000655704 -0.000257332
-0.229998 0.0251292 0.192788 0 0 -1
-0.181796 -0.0253672 0.294758 -0.000214128 0.313452 0.949604
0.114168 0.00625799 0.192788 0 0 -1
-0.0293437 0.0568507 0.270298 -0.0006276 0.935727 0.352724
0.0181039 -0.248479 0.32602 5.18813e-05 -0.0813227 0.996688
-0.24792 0.0117746 0.245568 -1 -0.000513533 0.00043227
0.133282 -0.18045 0.31787 -4.56602e-05 0.0668435 0.997763
0.194698 0.152909 0.360345 0.000621256 -0.908847 0.41713
0.242204 0.0410397 0.200762 0 0 1
0.132248 -0.0464645 0.308587 -0.626908 0.684269 0.372508
-0.124212 0.153577 0.36223 0.000553909 -0.908932 0.416945
0.101329 -0.0756872 0.31085 -4.56602e-05 0.0668435 0.997763
0.0484003 -0.247466 0.309421 -5.92591e-05 0.0892719 -0.996007
-0.000502616 -0.0585922 0.313005 -0.000196249 0.312876 0.949794
0.0469357 0.158145 0.371961 0.000553909 -0.908932 0.416945
-0.243113 0.0860588 0.409458 -0.00331671 0.104373 0.994533
0.0264316 0.0796723 0.26333 -0.000320369 0.464637 0.885501
-0.22275 -0.0479616 0.296703 1 0.000426087 0.000532274
-0.197643 0.24318 0.605386 0.00059885 -0.949049 0.315129
0.0179084 0.263044 0.611738 -0.00055149 0.833493 -0.55253
0.225096 -0.0486991 0.0486073 -1 -0.000634598 0.000373237
-0.0698306 0.237183 0.587078 0.000625696 -0.949029 0.315187
0.225037 0.040653 0.0564025 -0.999998 -0.000632262 0.0017849
-0.248015 -0.198419 0.317958 -1 -0.000644854 0.00024596
0.0189808 0.236705 0.585463 0.000625696 -0.949029 0.315187
-0.190207 0.00819282 0.200762 0 0 1
-0.182293 0.23485 0.562828 0.000648841 -0.949205 0.314658
-0.206482 0.257724 0.654081 0.000362882 -0.521363 0.853335
0.0289497 0.173856 0.406232 0.000621256 -0.908847 0.41713
-0.0865959 -0.264125 0.318181 5.54602e-05 -0.0841751 0.996451
0.19639 0.23266 0.522245 -0.00069708 0.94605 -0.324019
-0.225044 0.163321 0.325367 0.0316567 0.97746 -0.208732
-0.0642654 -0.217423 0.327785 -4.84971e-05 0.0706877 0.997499
-0.06988 0.0912252 0.24706 -0.000586702 0.924904 -0.3802
-0.248046 -0.0263055 0.285117 -0.999984 0.00178825 0.00529235
0.113805 0.22793 0.541349 0.000625443 -0.949226 0.314593
0.139884 0.0377214 0.274004 -0.000206534 0.313475 0.949597
-0.0418857 -0.239644 0.320246 5.7526e-05 -0.0841541 0.996453
-0.136838 0.0547182 0.200762 0 0 1
0.107042 0.167358 0.391959 0.000621256 -0.908847 0.41713
0.142438 0.223818 0.546413 0.000625696 -0.949029 0.315187
-0.254723 0.014093 0.131999 -1 -0.000396489 -2.64138e-05
-0.00712878 0.23577 0.582698 0.000625696 -0.949029 0.315187
-0.214363 -0.215994 0.308754 -0.142281 0.0453639 -0.988786
0.209897 -0.0700162 0.309585 -0.000214128 0.313452 0.949604
0.0554206 -0.252907 0.325657 5.18813e-05 -0.0813227 0.996688
0.247341 0.0446881 0.180005 1 0.000733673 0.000118524
0.0481286 0.246558 0.597688 0.000625443 -0.949226 0.314593
0.0727534 0.263805 0.612832 -0.00055149 0.833493 -0.55253
-0.240654 0.0629119 0.200762 0 0 1
-0.175497 -0.263646 0.323004 0.000476483 -0.717712 0.69634
0.247567 -0.259722 0.29969 1 0.000913238 8.41736e-05
-0.0165389 -0.138187 0.322172 -4.84971e-05 0.0706877 0.997499
-0.230343 0.214929 0.518514 0 -0.899733 0.436441
-0.0745148 0.226824 0.555897 0.00059885 -0.949049 0.315129
0.0576271 -0.217456 0.320346 -4.56915e-05 0.0668434 0.997764
0.0355644 -0.0300055 0.287057 0.000213925 -0.311715 -0.950176
0.168603 0.0148647 0.272367 0.000213925 -0.311715 -0.950176
0.22113 0.041546 0.165298 0 0.997776 -0.0666497
-0.0650625 0.188601 0.4385 0.000621256 -0.908847 0.41713
-0.0306968 0.219054 0.47918 -0.000630142 0.998696 -0.05104
0.141071 0.140165 0.311324 -0.000660096 0.983925 -0.178582
0.0453449 0.185058 0.430615 0.000621256 -0.908847 0.41713
-0.0574475 0.0807003 0.255938 -0.000306209 0.464775 0.885429
0.221749 0.241994 0.594901 -1 -9.33938e-05 -0.000346753
-0.0784733 0.0372014 0.154798 -0.000680715 1 0
0.171908 0.186709 0.434024 0.000621256 -0.908847 0.41713
-0.24833 0.147456 0.324921 -0.999972 -0.00743072 0.000478496
0.0836819 0.159058 0.34841 -0.000678176 0.988509 -0.151158
-0.191501 0.00327946 0.293337 -0.000215829 0.292972 0.956121
-0.222968 0.169242 0.340142 0.999998 0.00163545 0.000673596
-0.251419 -0.0418153 0.0499351 5.38524e-05 -0.109291 0.99401
-0.102874 -0.0832803 0.31135 -4.56602e-05 0.0668435 0.997763
-0.228501 0.224237 0.549483 0 -0.958565 0.284876
0.093956 -0.259145 0.325146 5.39624e-05 -0.0812822 0.996691
0.230899 -0.106905 0.0427434 0.000107758 -0.109291 0.99401
0.029168 0.206704 0.495104 0.00059885 -0.949049 0.315129
-0.00880039 0.159328 0.38774 0.000623755 -0.909185 0.416391
-0.186457 0.262019 0.651503 0.000638291 -0.968725 0.248138
-0.166823 0.0371413 0.175599 -0.000680715 1 0
-0.200207 -0.0240289 0.28526 0.000183992 -0.291606 -0.956538
0.237149 0.0269344 0.200762 0 0 -1
-0.190987 0.014505 0.272734 -0.412276 -0.605247 -0.680958
-0.0950556 0.211427 0.491991 0.000648841 -0.949205 0.314658
0.143448 -0.139035 0.304887 -0.326246 -0.323941 -0.888046
0.088723 -0.176685 0.324906 -4.84971e-05 0.0706877 0.997499
-0.229242 0.0370841 0.140384 -0.00273097 -0.997661 0.0683077
0.174008 0.172972 0.379104 -0.000623713 0.909119 -0.416535
0.0861191 0.253652 0.585725 -0.000627848 0.948895 -0.31559
-0.243129 0.0123645 0.288294 -0.000107178 0.247282 0.968943
-0.238464 -0.0255946 0.421332 -0.00415496 0.105438 0.994417
-0.0831559 -0.0221843 0.29373 -0.000214128 0.313452 0.949604
0.255388 0.0396128 0.204264 0.829606 0.000702601 0.558349
-0.214897 0.0584039 0.192788 0 0 -1
-0.0686495 -0.0172445 0.292103 -0.000214128 0.313452 0.949604
0.00703137 0.196973 0.349767 0.000613896 -0.96912 0.246591
0.215664 0.199831 0.360449 0.000637313 -0.969042 0.246895
0.221776 0.156203 0.374895 -0.999998 0.00124725 -0.00162508
0.242953 -0.176885 0.00596371 -3.52179e-05 0.0356947 -0.999363
0.0268327 -0.01787 0.283074 0.000213925 -0.311715 -0.950176
0.0564984 0.161511 0.379286 0.000553909 -0.908932 0.416945
0.247221 0.218355 0.525254 0.999998 0.000255525 -0.0020287
-0.0505511 0.171396 0.400977 0.000553909 -0.908932 0.416945
-0.241912 0.196442 0.480405 0.000740842 -0.899671 0.436567
0.0655127 0.218994 0.476708 -0.000663234 0.998747 -0.050034
0.159817 0.180222 0.394948 -0.000623713 0.909119 -0.416535
-0.116125 -0.0845335 0.301498 -0.237162 0.111074 -0.965099
-0.222969 0.187816 0.331099 0.999998 0.000495759 0.00169091
-0.0657631 0.0142353 0.192788 0 0 -1
-0.211573 0.256642 0.630574 0.000638291 -0.968725 0.248138
-0.228287 0.102982 0.272529 0.000826387 -0.989465 0.14477
-0.235852 0.00508495 0.122528 0.000970981 -0.999539 0.0303324
-0.00703402 0.169507 0.371811 -0.000623713 0.909119 -0.416535
0.18675 -0.248989 0.309276 -5.92591e-05 0.0892719 -0.996007
0.0057833 0.158314 0.343883 -0.000663342 0.988664 -0.150141
-0.0147901 0.0604442 0.192788 0 0 -1
0.247561 -0.266651 0.318769 1 0.000466159 0.000614662
0.0947398 0.15464 0.364256 0.000553909 -0.908932 0.416945
-0.0199625 -0.224651 0.309235 -0.000220115 0.340868 -0.940111
-0.187896 0.24545 0.612203 0.000625696 -0.949029 0.315187
0.242953 0.160316 0.405305 0.000388049 -0.899704 0.436501
-0.139802 0.255407 0.649295 0.000643119 -0.968813 0.24779
0.0966911 0.253641 0.641769 0.00066811 -0.968684 0.248296
-0.000336885 0.266236 0.619206 -0.00063582 0.964973 -0.262349
-0.123859 0.0637414 0.192788 0 0 -1
-0.242778 -0.132334 0.0399821 5.38524e-05 -0.109291 0.99401
-0.0211168 0.233902 0.577102 0.000625696 -0.949029 0.315187
-0.106161 -0.272951 0.314966 0.000658805 -0.999907 0.0136517
-0.246839 0.0910619 0.376937 -0.999329 0.00842918 0.0356334
0.247479 -0.157956 0.018678 1 0.00065961 -0.000491034
-0.116508 0.224705 0.549594 0.00059885 -0.949049 0.315129
-0.0706676 0.254636 0.646102 0.000643119 -0.968813 0.24779
0.221768 0.212157 0.444528 -1 -0.000310358 0.000115536
-0.0432371 -0.118228 0.313694 -4.56602e-05 0.0668435 0.997763
0.150922 0.151239 0.369838 0.000623755 -0.909185 0.416391
0.227189 0.122249 0.0103028 0 -0.0356934 -0.999363
0.123793 0.153543 0.335108 -0.000453698 0.683464 -0.729985
0.221745 0.26444 0.599333 -1 -0.000191449 -0.000710812
-0.246158 0.221089 0.538895 0.000830098 -0.958604 0.28474
-0.248456 0.229261 0.488679 -1 -0.000719953 0.000352034
-0.100968 -0.0346104 0.288539 0.000195718 -0.311757 -0.950162
-0.21862 -0.0182685 0.292407 -0.000214128 0.313452 0.949604
0.0587857 0.185369 0.431274 0.000621256 -0.908847 0.41713
-0.222751 -0.0480137 0.299523 1 0.000426087 0.000532274
0.221797 0.180066 0.400927 -0.999997 0.00109188 -0.0023614
-0.242396 0.00259047 0.290788 -0.000107178 0.247282 0.968943
-0.228882 -0.273572 0.317189 0.000244383 -0.28099 0.959711
0.0841103 0.0881511 0.255742 -0.00066056 0.958028 0.286673
0.215894 -0.0495408 0.411734 -0.951318 -0.124075 0.282135
0.150097 -0.124408 0.305188 6.32955e-05 -0.0859275 -0.996301
-0.122543 0.086312 0.25297 -0.000294902 0.464902 0.885362
0.0958713 -0.0578328 0.2962 0.000213925 -0.311715 -0.950176
0.161731 0.251981 0.635117 0.000643119 -0.968813 0.24779
-0.170908 0.225814 0.535548 0.000648841 -0.949205 0.314658
0.0823442 0.0640008 0.264752 -0.000306209 0.464775 0.885429
-0.248469 0.24187 0.55845 -1 -0.000520015 -0.000217058
0.0946944 -0.123053 0.305013 4.48989e-05 -0.065446 -0.997856
-0.0884635 -0.267973 0.318486 0.000464779 -0.71736 0.696703
0.146876 0.140647 0.340528 0.000190207 -0.285508 0.958376
-0.23329 0.0061606 0.157892 0.000970981 -0.999539 0.0303324
0.130965 0.14555 0.357446 0.000623755 -0.909185 0.416391
0.0446832 -0.0036253 0.287632 -0.000206534 0.313475 0.949597
-0.0239247 -0.111981 0.320315 -4.83924e-05 0.0706875 0.997499
0.19684 -0.136675 0.31494 -4.56602e-05 0.0668435 0.997763
-0.105464 -0.145609 0.322694 -4.83924e-05 0.0706875 0.997499
0.0309226 -0.181042 0.325212 -4.84971e-05 0.0706877 0.997499
0.222265 -0.0333249 0.267586 -0.999924 0.000942137 -0.0122522
0.171144 0.0377439 0.192788 0 0 -1
0.246863 -0.0220461 0.392974 0.999895 0.0110751 0.00934069
-0.147118 -0.1208 0.304859 5.4217e-05 -0.0859275 -0.996301
0.205622 0.0509019 0.269667 -0.000206534 0.313475 0.949597
0.174607 0.235513 0.564108 0.000625443 -0.949226 0.314593
0.0862631 -0.219292 0.32047 -4.56915e-05 0.0668434 0.997764
-0.235567 -0.0710737 0.388083 0.000275334 -0.639731 -0.768598
-0.165867 0.0191496 0.200762 0 0 1
0.0149018 0.166558 0.365344 -0.000623713 0.909119 -0.416535
-0.0570184 0.225036 0.499961 -0.000598732 0.948916 -0.315528
-0.133552 0.219664 0.526334 -0.51988 -0.835027 -0.180151
0.241575 0.14913 0.254111 -0.000422712 0.980069 -0.198657
0.247274 0.144419 0.0276463 1 0.000685834 -0.000234791
-0.248416 0.118947 0.368184 -0.999925 -0.00855044 -0.00882199
-0.0512996 -0.234091 0.308423 -4.06258e-05 0.0629174 -0.998019
0.0805781 -0.165415 0.307791 4.48989e-05 -0.065446 -0.997856
0.217546 -0.204951 0.32112 0.704259 0.0539672 0.707889
-0.1944 -0.017869 0.299817 -0.000215829 0.292972 0.956121
-0.0566348 0.224811 0.532286 0.000648841 -0.949205 0.314658
0.222986 0.0402682 0.377882 -0.999317 0.0084443 0.0359895
0.21155 0.198574 0.459816 0.000621256 -0.908847 0.41713
-0.161791 0.0554507 0.268086 -0.000206534 0.313475 0.949597
-0.0931135 0.255549 0.626002 0.000638291 -0.968725 0.248138
0.225179 -0.17621 0.01002 -1 -0.000704759 0.000488367
-0.124844 -0.261826 0.324846 0.000476483 -0.717712 0.69634
0.0162385 -0.199971 0.310055 4.48989e-05 -0.065446 -0.997856
0.0461104 -0.200165 0.310069 4.48989e-05 -0.065446 -0.997856
-0.0435787 -0.0962033 0.312218 -4.56602e-05 0.0668435 0.997763
0.256812 0.0700293 0.198957 0.923733 -0.112092 0.366268
0.115108 0.203382 0.352753 -0.000613882 0.96912 -0.246591
-0.104791 0.233531 0.525599 -0.000598732 0.948916 -0.315528
0.21214 0.0445119 0.275924 -0.626908 0.684269 0.372508
-0.0166885 0.188128 0.412469 -0.000623713 0.909119 -0.416535
0.133774 0.169896 0.410602 0.000623755 -0.909185 0.416391
0.212598 0.206699 0.452713 -0.19164 0.895856 -0.400893
-0.253671 0.0295151 0.146232 0.0006807 -0.999961 -0.00875195
0.221391 0.0685761 0.411332 -0.0036992 0.105606 0.994401
0.00386728 0.246034 0.562984 -0.000627848 0.948895 -0.31559
-0.223651 -0.0870608 0.270225 0.000295006 -0.339656 -0.940549
-0.248436 0.229635 0.5265 -0.999999 -0.00086404 -0.00125951
-0.0341432 0.0372316 0.160117 -0.000680715 1 0
-0.232371 -0.0246881 0.0238414 1 0.000683762 0
0.0994789 0.0510654 0.26959 -0.000206534 0.313475 0.949597
-0.0145892 0.138397 0.306714 -0.000552768 0.871729 -0.489988
0.246786 0.220776 0.53679 0.000415048 -0.958603 0.284747
-0.234186 0.268055 0.607454 -0.000792142 0.958536 -0.284969
-0.254727 0.0230391 0.153838 -1 -0.000396489 -2.64138e-05
-0.0106855 -0.134772 0.305777 4.48989e-05 -0.065446 -0.997856
-0.251364 0.00698452 0.18534 0.000486844 -0.999537 0.0304212
0.0467244 0.14195 0.340936 0.000199017 -0.285927 0.958251
-0.246577 -0.0798256 0.296069 0.703117 -0.19477 -0.683879
0.25466 0.0245807 0.415751 0.94735 0.0449405 0.31703
0.244226 0.228612 0.526043 -0.70866 0.662434 -0.242861
0.0551537 0.206289 0.451999 -0.000623713 0.909119 -0.416535
0.225048 0.0222123 0.135976 -1 -0.00075669 -5.04089e-05
-0.195345 -0.111207 0.320097 -6.70539e-05 0.0910207 0.995849
-0.24832 0.146196 0.326136 -0.999972 -0.00743072 0.000478496
0.16406 -0.113156 0.304218 6.32955e-05 -0.0859275 -0.996301
0.247416 -0.0630159 0.0221023 1 0.000683794 0
0.209228 0.240441 0.57891 0.000625443 -0.949226 0.314593
0.176094 0.246249 0.55887 0.243217 0.835447 -0.492822
0.256476 0.199727 0.359934 0.000637313 -0.969042 0.246895
0.230043 0.0126506 0.0127335 0 0.0356917 -0.999363
-0.101637 0.251803 0.613809 0.000625443 -0.949226 0.314593
0.247377 0.11048 0.283451 0.999999 0.00154793 0.00020526
0.201251 -0.164323 0.316793 -4.56602e-05 0.0668435 0.997763
-0.229053 0.0398423 0.144315 0.00270675 0.997773 -0.0666507
-0.230477 0.2367 0.591421 0 -0.958565 0.284876
-0.232482 0.0215399 0.363049 0.000104898 -0.241502 -0.9704
-0.216209 0.0231899 0.390189 0.00381138 -0.105608 -0.994401
0.114186 0.0757548 0.247918 0.000309614 -0.466227 -0.884665
-0.247955 0.0962795 0.265201 -1 -0.000513533 0.00043227
-0.259085 0.0475552 0.396163 -0.959408 0.104175 0.262078
0.12031 0.147855 0.327786 -0.000582496 0.877489 -0.479597
0.199634 -0.0579423 0.295683 0.000214802 -0.291606 -0.956538
-0.151138 0.0524093 0.258177 0.000468137 -0.697991 -0.716106
0.180869 0.18104 0.434731 0.000672464 -0.91291 0.408161
0.104554 -0.0141054 0.298376 -0.000222969 0.312815 0.949814
-0.232401 0.0193074 0.136914 1 -1.33809e-05 0.000183093
0.178489 -0.211612 0.31996 -4.56602e-05 0.0668435 0.997763
0.222853 0.236169 0.588631 0 -0.958583 0.284814
-0.254739 0.0468649 0.10285 -1 0 0.000356437
-0.254712 0.00797579 0.0176404 -1 -0.00063429 0
-0.0754013 -0.135787 0.321999 -4.83924e-05 0.0706875 0.997499
0.186086 -0.187794 0.306991 -0.329192 -0.326033 -0.886191
0.206842 -0.242953 0.309816 -5.92591e-05 0.0892719 -0.996007
-0.0101033 0.251592 0.579724 -0.000627848 0.948895 -0.31559
-0.0628805 0.205459 0.475227 0.000621256 -0.908847 0.41713
0.0238381 0.0480522 0.261447 0.000213925 -0.311715 -0.950176
0.195238 0.201408 0.344794 -0.000613882 0.96912 -0.246591
-0.10833 0.15497 0.337072 -0.000592189 0.882705 -0.469927
-0.238275 0.17302 0.432131 0.000740842 -0.899671 0.436567
0.245012 -0.184812 0.305639 0.000295442 -0.339633 -0.940558
0.201598 -0.181102 0.32651 -6.69562e-05 0.0910131 0.99585
-0.249473 -0.00494897 0.198777 0.000581723 -0.826741 -0.562583
0.147314 0.0297499 0.15059 0.000680674 -0.999961 -0.00875218
0.239063 0.206985 0.369314 -0.000156587 0.2472 0.968965
-0.205711 -0.229409 0.32112 5.7526e-05 -0.0841541 0.996453
0.198712 0.189852 0.415479 -0.000672576 0.912795 -0.408418
0.00296172 -0.214056 0.32755 -4.84971e-05 0.0706877 0.997499
0.0901177 -0.153276 0.306995 4.48989e-05 -0.065446 -0.997856
-0.0751701 0.233653 0.525908 -0.000598732 0.948916 -0.315528
0.12327 -0.140156 0.322319 -4.84971e-05 0.0706877 0.997499
-0.130932 0.1406 0.340571 0.000199017 -0.285927 0.958251
0.226645 -0.0827349 0.268774 0.000293811 -0.339632 -0.940558
0.24735 0.114476 0.252511 0.999997 0.00176099 -0.00180481
0.138559 0.22296 0.494048 -0.00069708 0.94605 -0.324019
-0.153807 0.172572 0.413257 -0.52729 -0.466212 0.71036
-0.12854 0.25757 0.597933 -0.000627848 0.948895 -0.31559
-0.141765 -0.249047 0.325982 5.39624e-05 -0.0812822 0.996691
0.183763 0.202448 0.483164 0.000696941 -0.94614 0.323758
0.0314266 0.128116 0.317772 0.000663948 -0.953866 -0.300232
-0.0221396 -0.255161 0.318934 5.54602e-05 -0.0841751 0.996451
-0.0303836 0.159878 0.375842 0.000553909 -0.908932 0.416945
0.12192 0.0297812 0.14504 0.0006807 -0.999961 -0.00875195
0.0891299 -0.164863 0.324068 -4.84971e-05 0.0706877 0.997499
0.0186148 -0.113766 0.304401 4.48057e-05 -0.0654458 -0.997856
-0.178984 0.148533 0.364425 0.000623755 -0.909185 0.416391
0.20229 0.183286 0.439719 0.000672464 -0.91291 0.408161
-0.120421 -0.202841 0.319358 -4.56915e-05 0.0668434 0.997764
-0.222775 0.0296302 0.281718 1 0.000426087 0.000532274
-0.07034 0.00623734 0.275143 0.000213925 -0.311715 -0.950176
0.238522 -0.136282 0.0395126 0.000107758 -0.109291 0.99401
0.185416 0.157211 0.369734 0.000621256 -0.908847 0.41713
-0.222986 0.262027 0.607117 0.999999 0.00124357 -0.000369451
-0.253149 0.00438974 0.100113 0.000486844 -0.999537 0.0304212
-0.242382 -0.274698 0.296374 0.000550604 -0.633665 -0.773607
0.172597 -0.265466 0.318053 5.7526e-05 -0.0841541 0.996453
0.00670097 -0.0868838 0.318538 -4.83924e-05 0.0706875 0.997499
-0.184527 0.0422138 0.27976 -0.000196249 0.312876 0.949794
0.225036 0.0451897 0.0485993 -1 -0.000634598 0.000373237
0.161444 -0.131054 0.314562 -4.56602e-05 0.0668435 0.997763
-0.195877 -0.0798244 0.317228 -6.70539e-05 0.0910207 0.995849
0.100479 0.129484 0.309978 0.000301443 -0.475359 -0.879792
0.20685 0.207369 0.454614 -0.000672576 0.912795 -0.408418
0.104305 0.156135 0.367504 0.000553909 -0.908932 0.416945
-0.234023 0.0466224 0.200762 0 0 1
0.233297 0.123305 0.395309 -0.491141 0.809075 0.322765
-0.248475 0.250549 0.636742 -0.999999 -0.000102999 0.00116649
0.0112068 0.0755572 0.265484 -0.000320369 0.464637 0.885501
0.0532069 0.0294348 0.179279 0.000680674 -0.999961 -0.00875218
-0.120554 -0.210618 0.3273 -4.84971e-05 0.0706877 0.997499
-0.194475 0.0775121 0.264384 -0.000320369 0.464637 0.885501
-0.170584 0.227593 0.508187 -0.000596074 0.946023 -0.324098
-0.160398 0.0650468 0.199638 -0.000638169 1 0
0.247275 0.151826 0.0192341 1 0.00066247 -0.000570202
-0.258018 0.0776458 0.200774 -0.925202 -0.1132 0.362197
-0.235832 -0.163896 0.0365115 5.38524e-05 -0.109291 0.99401
-0.16072 -0.126887 0.305383 5.4217e-05 -0.0859275 -0.996301
-0.043602 0.246044 0.596318 0.000625443 -0.949226 0.314593
0.173006 0.163615 0.358682 -0.000623713 0.909119 -0.416535
-0.135232 0.0295384 0.152781 0.0006807 -0.999961 -0.00875195
0.222168 -0.0336292 0.287266 -0.999986 0.00171763 0.00501563
-0.248461 0.229998 0.549915 -1 -0.000520015 -0.000217058
0.0149945 0.275298 0.654513 -0.000590868 0.848917 -0.528526
0.215441 0.249477 0.568462 -0.204992 0.927794 -0.311732
0.0721934 -0.03656 0.305764 -0.000222969 0.312815 0.949814
-0.254722 0.0231623 0.024852 -1 -0.00063429 0
0.221779 0.155207 0.370205 -0.999999 0.000730956 0.000732292
0.22309 0.0445241 0.379765 -0.999317 0.0084443 0.0359895
-0.122052 0.0622976 0.253498 6.64958e-05 -0.0964382 -0.995339
0.135217 0.161479 0.392221 0.000623755 -0.909185 0.416391
-0.0504308 0.0145189 0.200762 0 0 1
0.0465775 0.214607 0.51887 0.000625696 -0.949029 0.315187
-0.0317119 0.0323308 0.200762 0 0 1
-0.232385 -0.00887128 0.040608 1 0.000686205 -0.000274491
-0.0715223 0.253146 0.617802 0.000625443 -0.949226 0.314593
-0.0745459 -0.166768 0.316944 -4.56915e-05 0.0668434 0.997764
0.247465 -0.0588143 0.286827 1 0.000415572 0.000298664
0.0261416 0.0372726 0.147562 -0.000680715 1 0
0.221801 0.182212 0.3733 -0.999999 0.000730956 0.000732292
-0.155666 0.175212 0.384482 -0.000568826 0.909067 -0.41665
0.224917 0.215518 0.0147832 -1 -0.000637511 1.25592e-06
0.231111 0.010083 0.391367 -9.07592e-05 0.105803 0.994387
0.022609 -0.19714 0.326352 -4.84971e-05 0.0706877 0.997499
0.129444 0.217187 0.508902 0.000625443 -0.949226 0.314593
0.0118855 0.0429394 0.272254 -0.000206534 0.313475 0.949597
0.247354 0.127057 0.300862 0.999999 0.00156849 -0.000233806
-0.24453 0.185342 0.330563 -8.43639e-05 0.102451 -0.994738
0.140009 0.233708 0.576197 0.000625696 -0.949029 0.315187
-0.227137 0.246146 0.623204 0 -0.958565 0.284876
0.221749 0.243761 0.556905 -1 -0.000412561 0.000119739
-0.192371 -0.226693 0.308872 -3.79848e-05 0.0555661 -0.998455
0.174597 -0.0164017 0.283013 0.000214802 -0.291606 -0.956538
-0.122986 -0.167354 0.307909 4.48057e-05 -0.0654458 -0.997856
-0.223494 -0.00600106 0.387341 0.999894 0.0111382 0.00940168
0.247415 -0.0611985 0.0193904 1 0.000683794 0
-0.0800861 -0.102769 0.319659 -4.83924e-05 0.0706875 0.997499
0.0358023 0.0135233 0.192788 0 0 -1
-0.0439163 -0.126013 0.314215 -4.56602e-05 0.0668435 0.997763
-0.00488311 0.0372515 0.184805 -0.000680715 1 0
0.222181 -0.0251024 0.275089 -0.999924 0.000942137 -0.0122522
-0.123251 0.00131276 0.196155 0.00068066 -1 0
0.214375 0.0243094 0.192788 0 0 -1
-0.0599111 0.24203 0.551073 -0.000627848 0.948895 -0.31559
0.0218916 0.0569515 0.200762 0 0 1
-0.194017 0.040498 0.263876 0.000195718 -0.311757 -0.950162
0.195349 -0.107559 0.31299 -4.56602e-05 0.0668435 0.997763
0.168421 0.152968 0.373589 0.000623755 -0.909185 0.416391
-0.170176 -0.233802 0.308446 -4.06258e-05 0.0629174 -0.998019
0.152528 0.173784 0.405892 0.000621256 -0.908847 0.41713
-0.104958 -0.0331628 0.304607 -0.000196249 0.312876 0.949794
0.0392856 -0.200814 0.31923 -4.56915e-05 0.0668434 0.997764
0.210653 0.0418888 0.278238 -0.626908 0.684269 0.372508
-0.112348 0.18914 0.439741 0.000553909 -0.908932 0.416945
0.0631635 -0.223608 0.320758 -4.56915e-05 0.0668434 0.997764
0.183224 0.00706028 0.200762 0 0 1
-0.217855 0.0537515 0.412991 -0.00392707 0.105274 0.994436
-0.101161 0.0127413 0.192788 0 0 -1
-0.234399 0.0454659 0.357094 0.000103716 -0.241501 -0.9704
0.23183 -0.058325 0.0480786 0.00731498 -0.108321 0.994089
0.102164 -0.20227 0.326719 -4.84971e-05 0.0706877 0.997499
-0.117689 0.254465 0.645554 0.000643119 -0.968813 0.24779
0.225027 0.0552009 0.0804941 -1 -0.000726099 -6.21081e-05
-0.153785 -0.235824 0.308845 0.000159066 -0.246346 -0.969182
0.0697151 -0.032726 0.304501 -0.000222969 0.312815 0.949814
0.219944 0.0216246 0.227572 -0.998052 -0.0514215 -0.0353336
-0.0128843 -0.234877 0.308627 0.000159066 -0.246346 -0.969182
-0.111413 0.156765 0.382298 0.000623755 -0.909185 0.416391
0.0501558 0.237474 0.587714 0.000625696 -0.949029 0.315187
0.101452 -0.0846774 0.300487 -0.326246 -0.323941 -0.888046
-0.0915725 -0.128547 0.314383 -4.56915e-05 0.0668434 0.997764
-0.171743 -0.273 0.314528 0.000658805 -0.999907 0.0136517
-0.200234 0.039771 0.275012 -0.545561 -0.245156 0.801412
0.175518 0.251619 0.63341 0.000579902 -0.873581 -0.486678
0.0145267 0.188722 0.438644 0.000621256 -0.908847 0.41713
-0.222913 0.116207 0.370039 0.999996 0.00231473 0.00170339
0.255759 0.053491 0.200762 0 0 -1
-0.254735 0.0396684 0.114457 -1 0 0.000356437
0.113951 0.21739 0.527115 0.000625696 -0.949029 0.315187
0.050008 -0.0789536 0.300103 0.000293735 -0.481994 -0.876175
-0.230679 0.0486556 0.279034 -0.000107178 0.247282 0.968943
0.222315 -0.00938132 0.253992 -1 -0.00057346 0.000302026
0.247311 0.0909989 0.04116 1 0.000636983 -0.000430025
0.232904 -0.000488138 0.0614734 -0.00687075 -0.792223 0.610193
0.00364074 0.252438 0.58224 -0.000627848 0.948895 -0.31559
0.138818 0.137698 0.330118 0.000534682 -0.877379 0.479797
0.149179 -0.163421 0.31673 -4.56602e-05 0.0668435 0.997763
0.240483 0.00152304 0.198832 -0.000704456 1 0
-0.223506 -0.0481555 0.25307 0.000495627 -0.573174 -0.819433
0.246214 -0.00116766 0.392565 0 0.105807 0.994387
-0.0409764 -0.0128572 0.290661 -0.000214128 0.313452 0.949604
-0.0686026 0.214507 0.518789 0.00059885 -0.949049 0.315129
-0.107893 0.0296805 0.138672 0.0006807 -0.999961 -0.00875195
-0.249113 0.0952636 0.218173 -0.984437 0.175737 -0.000361991
0.185732 0.0647337 0.253282 6.45779e-05 -0.0962939 -0.995353
-0.247813 0.16375 0.323923 0.0316567 0.97746 -0.208732
-0.222846 0.0484361 0.245542 0.999993 0.00102309 -0.00367311
0.222042 -0.114512 0.289752 -0.999986 0.00171763 0.00501563
0.199054 -0.16804 0.325316 -6.69562e-05 0.0910131 0.99585
0.224802 0.24201 0.608289 0 -0.958583 0.284814
-0.252812 -0.133724 0.00751697 -2.44018e-05 0.035692 -0.999363
-0.207955 0.187802 0.411509 -0.000575159 0.912829 -0.408342
-0.163799 0.165535 0.363376 -0.000623713 0.909119 -0.416535
-0.240452 0.0649957 0.197321 -0.000638169 1 0
-0.1189 -0.219837 0.326082 0.000469103 -0.683748 0.729718
0.206725 0.0270455 0.286139 -0.000215551 0.292997 0.956113
0.155373 0.237417 0.569893 0.000625443 -0.949226 0.314593
-0.084538 -0.157996 0.307297 4.48057e-05 -0.0654458 -0.997856
0.186481 -0.0363499 0.305562 -0.000215551 0.292997 0.956113
0.066829 -0.0432649 0.291414 0.000213925 -0.311715 -0.950176
0.104322 -0.256296 0.318831 5.7526e-05 -0.0841541 0.996453
-0.24825 0.13163 0.263496 -0.999949 -0.00965473 0.00285079
-0.123168 -0.179367 0.317786 -4.56915e-05 0.0668434 0.997764
-0.124491 -0.152594 0.315992 -4.56915e-05 0.0668434 0.997764
0.201115 0.0569622 0.270427 -0.00066749 0.93643 0.350854
0.22009 0.033166 0.221813 -0.9847 -0.033135 -0.171081
-0.11734 0.196175 0.346939 0.000613896 -0.96912 0.246591
-0.221533 0.206769 0.478317 0.000621256 -0.908847 0.41713
0.00693206 0.238604 0.540638 -0.000627848 0.948895 -0.31559
0.248881 0.0263196 0.186156 -0.00273092 0.997647 0.0685023
0.0966252 0.0533778 0.257395 0.000468137 -0.697991 -0.716106
-0.214563 0.0701352 0.196889 -0.00019458 0.275746 -0.961231
-0.0331529 0.27533 0.65892 -0.000166939 0.253392 0.967364
-0.232457 0.102353 0.0307706 0.999995 0.000674114 0.00302992
-0.212785 -0.101609 0.312572 -4.56915e-05 0.0668434 0.997764
-0.0132215 0.0108578 0.290127 -0.000222969 0.312815 0.949814
0.226178 0.196868 0.348792 0.000637313 -0.969042 0.246895
-0.0931852 0.236943 0.535839 -0.000598732 0.948916 -0.315528
0.187856 0.163226 0.382835 0.000621256 -0.908847 0.41713
0.0419861 0.225909 0.535394 0.000648841 -0.949205 0.314658
0.105941 -0.032385 0.287853 0.000213925 -0.311715 -0.950176
-0.203961 -0.0247566 0.285481 0.000183992 -0.291606 -0.956538
0.0774781 -0.272929 0.307702 0.000658838 -0.999907 0.0136505
-0.223017 0.234385 0.507241 0.999995 0.00156657 0.00275823
-0.0217598 -0.149473 0.322972 -4.84971e-05 0.0706877 0.997499
0.214519 0.170005 0.40427 0.651539 -0.692474 0.3098
-0.0764307 0.173684 0.381032 -0.000623713 0.909119 -0.416535
0.135712 0.129124 0.314798 0.000663948 -0.953866 -0.300232
0.153028 0.261711 0.609593 -0.00055149 0.833493 -0.55253
-0.0108336 0.273462 0.651592 -0.000564153 0.849878 -0.52698
-0.0707233 0.183305 0.440176 0.00056889 -0.909132 0.416507
-0.0695525 0.140625 0.314624 -0.00065311 0.983837 -0.179064
0.108358 0.222669 0.543022 0.000625696 -0.949029 0.315187
0.207535 0.0517198 0.200762 0 0 1
0.222655 -0.0235117 0.388155 -0.999963 0.00742714 -0.00431182
0.101434 -0.0926444 0.318951 -4.84971e-05 0.0706877 0.997499
0.129831 0.0321441 0.200762 0 0 1
-0.106855 0.204818 0.44901 -0.000568826 0.909067 -0.41665
0.247415 0.016649 0.259838 1 0.000158502 -0.000651477
-0.0157172 -0.106002 0.30389 4.48057e-05 -0.0654458 -0.997856
-0.171083 -0.251603 0.319243 5.54602e-05 -0.0841751 0.996451
-0.23113 -0.0731815 0.265212 0.000147457 -0.339632 -0.940558
-0.24843 0.167218 0.387957 -0.999996 0.0014424 -0.00231531
-0.118806 0.223587 0.546231 0.00059885 -0.949049 0.315129
0.139771 -0.193341 0.318734 -4.56602e-05 0.0668435 0.997763
-0.254742 0.0403301 0.18784 0.00273092 -0.997647 0.0685005
-0.254631 -0.119855 0.0409034 -1 -0.000686485 -0.000368184
