0.20849 0.230824 0.448572 0 -0.768602 0.639727
0.210522 0.181193 0 0 0 -1
-0.209411 0.0477666 0.386638 0 -0.0614261 0.998112
-0.0212713 -0.274809 0.314177 0 0.200784 0.979635
-0.0599203 0.100962 0.211258 0 0.195758 -0.980652
0.110691 -0.0139914 0.26072 0 0.200784 0.979635
-0.216862 -0.0182863 0.367563 0 0.0613677 -0.998115
-0.179827 0.190767 0.413586 -1 0 0
-0.116376 0.142094 0.388309 0 -0.780099 0.625656
-0.0714944 0.264394 0.488894 0 0.768601 -0.639729
-0.0709552 -0.0412239 0.220414 0 -0.200778 -0.979637
-0.189309 -0.21325 0.303632 0 0.994841 -0.101444
-0.0540198 -0.275608 0.28375 0 -0.200788 -0.979635
0.0890523 0.275031 0.478257 0 0.7686 -0.639729
0.127719 0.24359 0.440482 0 0.7686 -0.639729
-0.209032 -0.127939 0.360821 0 0.0613677 -0.998115
-0.187448 -0.109248 0.0149861 0 0 1
-0.15794 0.222239 0.414829 0 0.7686 -0.639729
-0.0428717 -0.20657 0.254301 0 -0.200778 -0.979637
-0.168505 -0.00838917 0.22898 0 0.200788 0.979635
-0.0871989 0.264017 0.541288 0 -0.867126 0.498089
0.0813163 0.221896 0.437834 0 -0.768601 0.639729
-0.0743862 0.172853 0.425766 0 -0.76863 0.639694
-0.195001 -0.21129 0.267421 0 0.997475 0.0710224
-0.0459906 0.182054 0.366283 0 0.780169 -0.625569
0.0894703 0.31215 0.592876 0 0.984951 -0.172835
0.177817 0.00675607 0.245674 0.923704 0.0769212 0.375305
0.0617544 -0.292827 0.287279 0.00012128 -0.201974 -0.979391
-0.132269 0.267368 0.492462 0 0.767655 -0.640864
-0.00174823 0.314018 0.603522 0 0.984951 -0.172835
-0.0589871 0.0124965 0.2247 0 0.200788 0.979635
-0.129461 -0.224842 0.273345 0 0.200788 0.979635
-0.0492388 0.124254 0.205868 0 0.520592 -0.853806
0.0970896 0.284692 0.517106 0 -0.867011 0.498288
0.149569 0.00418907 0.211106 0 -0.200778 -0.979637
0.158886 0.153159 0.34623 0 -0.947429 0.319966
-0.0913834 0.134677 0.254184 0 -0.98847 0.151416
-0.154409 0.329637 0.627131 0 1 0
0.169198 0.246978 0.444553 0 0.7686 -0.639729
0.0221145 0.137997 0.219694 0 0.78098 -0.624556
0.133755 0.253124 0.522324 0 -0.867126 0.498089
0.121049 0.11283 0.309489 0 -0.988473 0.1514
-0.224785 0.196508 0.393301 -1 0 0
-0.099461 0.193368 0.450416 0 -0.76863 0.639694
0.0478287 0.281313 0.590533 0 -0.984985 0.172637
-0.000452027 0.236654 0.455566 0 -0.768601 0.639729
-0.0913434 0.121649 0.346603 0 -0.947459 0.319878
0.114999 0.134846 0.375648 0 -0.877585 0.47942
0.145637 0.314651 0.657284 0 -1 0
0.200008 -0.138023 0.0149861 0 0 1
-0.0361454 0.161772 0.324895 0 0.947538 -0.319643
0.0948676 0.205903 0.41862 0 -0.768601 0.639729
-0.0190276 -0.233229 0.275064 0 0.200788 0.979635
0.156528 0.147993 0.242128 0 0.98872 -0.149776
0.0907359 -0.0664291 0.271467 0 0.200784 0.979635
0.0439653 0.242619 0.439315 0 0.7686 -0.639729
-0.179827 -0.265384 0.285007 -1 0 0
-0.164402 0.294839 0.670194 -0.13124 -0.858266 0.49614
-0.18934 0.24685 0.467826 0 -0.768602 0.639727
0.161889 0.16542 0.369103 0 0.877667 -0.479272
-0.121185 0.30048 0.514512 0 0.867084 -0.498163
-0.161765 0.126962 0.229967 0 -0.87758 0.479431
-0.111206 0.314651 0.638728 0 -1 0
-0.111546 0.0341086 0.22027 0 -0.200788 -0.979635
-0.141767 0.21526 0.47672 0 -0.76863 0.639694
0.00758585 0.140726 0.38641 0 -0.877585 0.47942
-0.158057 -0.252821 0.30967 0 0.200784 0.979635
0.168264 0.0485688 0.217306 0 -0.200788 -0.979635
0.179827 0.181842 0.00778629 -1 0 0
-0.163706 0.163719 0.414248 -0.131841 -0.76192 0.63411
-0.0980425 0.26617 0.491027 0 -0.767655 0.640864
0.0668231 0.110332 0.214932 0 -0.520614 0.853792
0.0866352 0.112666 0.308416 0 -0.988473 0.1514
-0.161165 0.289182 0.524918 0 -0.867011 0.498288
0.0926781 -0.107431 0.24928 0 -0.200788 -0.979635
-0.0725124 0.210274 0.47073 0 -0.76863 0.639694
0.0362612 0.249417 0.4709 0 -0.768601 0.639729
-0.0717269 0.00869489 0.210183 0 -0.200778 -0.979637
0.135609 0.283498 0.515028 0 -0.867011 0.498288
-0.145755 -0.0849046 0.229366 0 -0.200778 -0.979637
-0.0267957 0.255213 0.525962 0 -0.867126 0.498089
-0.0749515 0.310197 0.68679 0 -0.496384 0.868103
0.175166 0.292735 0.501031 0 0.867084 -0.498163
-0.185472 -0.224677 0.322692 0 -0.962294 0.272012
0.0979013 0.283026 0.600307 0 -0.984985 0.172637
-0.106033 0.0137297 0.209151 0 -0.200778 -0.979637
0.179827 -0.016643 0.227063 1 0 0
-0.0717569 0.0478489 0.248045 0 0.200784 0.979635
-0.0378988 0.19967 0.411131 0 0.768601 -0.639729
-0.136653 0.0569402 0.200295 0 -0.200778 -0.979637
0.0137644 0.244693 0.441807 0 0.7686 -0.639729
0.0626716 0.115739 0.328502 0 -0.988504 0.151197
-0.189143 0.250311 0.44856 0 0.768658 -0.63966
0.17105 -0.30413 0.308631 0.608126 -0.271113 0.74611
0.125267 -0.0397282 0.235404 0 0.200788 0.979635
0.0875416 -0.175104 0.263151 0 0.200788 0.979635
-0.169267 0.165968 0.337334 0 0.947538 -0.319643
-0.068026 0.0829091 0.195183 0 -0.161548 -0.986865
0.206639 -0.189984 0.346899 0 0.562627 -0.826711
0.179827 0.317887 0.633695 1 0 0
0.140048 0.0672629 0.213474 0 -0.200788 -0.979635
-0.124643 0.329637 0.608969 0 1 0
-0.0655356 0.199584 0.411028 0 0.768601 -0.639729
-0.117195 -0.227761 0.304534 0 0.200784 0.979635
0.122937 0.0131596 0.255155 0 0.200784 0.979635
0.0596376 0.303678 0.558185 0 -0.940203 0.340615
-0.0781169 0.112668 0.308433 0 -0.988473 0.1514
-0.0454485 0.203559 0.462661 0 -0.76863 0.639694
-0.137486 -0.061021 0.239768 0 0.200788 0.979635
0.179304 -0.140247 0.271522 0.991457 0.0261864 0.127775
-0.157256 0.113773 0.21703 0 0.520614 -0.853792
0.0158853 -0.258318 0.280206 0 0.200788 0.979635
-0.198245 -0.218374 0.155942 0 -0.99747 -0.0710823
0.152926 0.294295 0.533815 0 -0.867011 0.498288
0.132555 0.0777307 0.241921 0 0.200784 0.979635
-0.0474745 0.139178 0.283567 0 0.98847 -0.151416
-0.0336505 -0.175516 0.263235 0 -0.200788 -0.979635
-0.160469 0.0104995 0.225109 0 -0.200788 -0.979635
0.0456705 0.143398 0.228783 0 0.877578 -0.479434
-0.123466 0.314651 0.664486 0 -1 0
-0.0177607 -0.0584209 0.269826 0 0.200784 0.979635
0.108648 -0.217251 0.256491 0 -0.200778 -0.979637
0.143871 0.277032 0.572615 0 -0.940092 0.34092
0.0746795 0.167577 0.419427 0 -0.76863 0.639694
0.113093 0.176365 0.383133 0 -0.763487 0.645823
-0.00813282 0.28603 0.491436 0 0.767527 -0.641016
-0.0479873 0.159676 0.358584 0 0.877667 -0.479272
0.142214 0.0505135 0.201612 0 -0.200778 -0.979637
0.00806642 0.226624 0.490374 0 -0.76863 0.639694
-0.117784 -0.0207664 0.231517 0 -0.200788 -0.979635
-0.0785036 -0.326938 0.297897 0 -0.643534 0.765417
0.00748245 0.0657412 0.213786 0 0.200788 0.979635
-0.0522843 -0.321042 0.293059 0 -0.200713 -0.97965
0.140085 -0.0556449 0.238666 0 -0.200788 -0.979635
0.179827 -0.279191 0.29491 1 0 0
0.134959 -0.277237 0.268785 0 -0.200778 -0.979637
0.201087 -0.134726 0.360403 0 0.0613677 -0.998115
0.159073 0.27754 0.504661 0 0.867011 -0.498288
0.0397526 -0.212924 0.270902 0 -0.200788 -0.979635
-0.0530844 0.113134 0.311477 0 -0.988473 0.1514
-0.149076 -0.159369 0.290516 0 0.200784 0.979635
0.136915 -0.153278 0.243379 0 -0.200778 -0.979637
0.0781397 0.285886 0.649477 0 -0.984688 0.174328
0.119845 -0.076892 0.273612 0 0.200784 0.979635
0.0949973 0.329637 0.638334 0 1 0
-0.150303 -0.229068 0.304801 0 0.200784 0.979635
0.101538 0.146665 0.394007 0 -0.780099 0.625656
0.0947542 0.319249 0.557166 0 0.940112 -0.340867
0.0258197 0.314651 0.609504 0 -1 0
-0.0136705 0.314651 0.666207 0 1 0
-0.104306 0.216127 0.430904 0 -0.768601 0.639729
-0.147553 0.105829 0.263779 0 -0.988473 0.1514
0.0640585 0.0043681 0.256957 0 0.200784 0.979635
-0.179827 -0.224127 0.240298 1 0 0
-0.0353185 0.195359 0.382534 0 0.7686 -0.639729
-0.0602166 -0.0891526 0.245534 0 -0.200788 -0.979635
-0.0790941 -0.178268 0.29439 0 0.200784 0.979635
-0.0190859 -0.0697572 0.226261 0 -0.200778 -0.979637
-0.128563 0.235074 0.453667 0 -0.768601 0.639729
0.097913 -0.188468 0.29648 0 0.200784 0.979635
0.140424 0.0884314 0.194826 0 0.0212615 -0.999774
-0.140993 0.0472543 0.248167 0 0.200784 0.979635
0.0165629 0.314651 0.655608 0 -1 0
-0.179126 0.271271 0.497137 0 0.767655 -0.640864
-0.175869 0.214764 0.0149861 0 0 1
-0.0593813 0.315395 0.546538 0 0.940112 -0.340867
0.0311107 -0.0509699 0.268299 0 0.200784 0.979635
-0.179641 -0.0404259 0.248455 -0.991457 0.026191 0.127774
0.224785 -0.149249 0.370836 1 0 0
-0.179827 -0.21529 0.136759 1 0 0
0.177434 -0.0425503 0.256722 0.923704 0.0769212 0.375305
-0.0190073 0.0533512 0.216326 0 0.200788 0.979635
0.0423933 0.138819 0.281223 0 0.98847 -0.151416
0.0953679 0.152848 0.345312 0 0.947429 -0.319966
-0.0380407 0.314651 0.635538 0 1 0
0.0575122 -0.263203 0.281207 0 -0.200788 -0.979635
-0.00699645 0.227604 0.421275 0 0.7686 -0.639729
-0.132762 0.118642 0.337698 0 -0.947459 0.319878
-0.211426 -0.0542837 0 0 0 -1
-0.196149 -0.195428 0.0193095 0 -0.767947 -0.640513
-0.179827 -0.185128 0.266642 -1 0 0
0.117772 0.216213 0.431006 0 0.768601 -0.639729
0.117321 0.329637 0.623071 0 1 0
-0.0997673 0.305359 0.562825 0 -0.940203 0.340615
-0.0819972 -0.236297 0.306283 0 0.200784 0.979635
0.0385011 0.113967 0.316917 0 -0.988504 0.151197
-0.160045 0.279931 0.508821 0 0.867011 -0.498288
0.20302 -0.202229 0.140156 0 0.997475 0.0710224
-0.179528 0.14039 0.350643 -0.991449 -0.123631 0.0417676
0.126894 0.146057 0.393249 0 -0.780099 0.625656
0.208618 0.0997012 0 0 0 -1
0.169729 0.297665 0.671269 0.382044 -0.708158 0.593763
-0.0495177 -0.0215288 0.231673 0 -0.200788 -0.979635
0.185885 -0.101723 0 0 0 -1
0.0411798 -0.0710842 0.226533 0 -0.200778 -0.979637
-0.172462 0.260619 0.527256 -0.60765 -0.688627 0.39567
0.22103 -0.196242 0.360769 0 -0.56297 0.826477
-0.0462525 0.212442 0.426476 0 -0.768601 0.639729
-0.0606684 0.122981 0.224915 0 -0.781291 0.624167
0.114448 -0.00273901 0.227822 0 -0.200788 -0.979635
-0.220701 0.224197 0.44061 0 -0.768602 0.639727
0.0168329 0.212506 0.0149861 0 0 1
-0.178813 0.0813408 0.19544 0 -0.161548 -0.986865
0.111292 -0.174035 0.262931 0 -0.200788 -0.979635
-0.134548 0.23275 0.497735 0 -0.76863 0.639694
0.0832136 0.236797 0.455738 0 -0.768601 0.639729
-0.0320852 -0.0861504 0.275509 0 0.200784 0.979635
-0.0253337 0.271445 0.497346 0 0.767655 -0.640864
0.139744 0.314651 0.617568 0 -1 0
-0.0254996 0.172346 0.425156 0 -0.76863 0.639694
0.0755986 0.169246 0.344848 0 0.87757 -0.479449
0.115551 0.308531 0.572249 0 -0.984951 0.172835
-0.0311489 0.231697 0.426193 0 0.7686 -0.639729
0.0404615 -0.0950999 0.246753 0 -0.200788 -0.979635
-0.182147 -0.0447541 0.380944 0 -0.0614261 0.998112
0.177741 0.210117 0.0149861 0 0 1
0.182834 -0.213452 0.0868723 0 -0.99747 -0.0710823
-0.197629 -0.206618 0.201804 0 0.997475 0.0710224
0.151384 0.268764 0.470727 0 0.7686 -0.639729
-0.0528365 0.075175 0.211853 0 -0.200788 -0.979635
0.0850019 0.275188 0.501829 0 0.767655 -0.640864
-0.179627 0.220732 0.413019 0 0.7686 -0.639729
-0.0462701 0.311805 0.590909 0 -0.984951 0.172835
0.174244 -0.206861 0.254361 0 -0.200778 -0.979637
0.148975 -0.101176 0.247998 0 0.200788 0.979635
0.179827 0.135098 0.239901 1 0 0
-0.035885 0.304096 0.559339 0 -0.940203 0.340615
0.0858864 0.0526777 0.216464 0 0.200788 0.979635
-0.0711806 0.156309 0.296461 0 0.988473 -0.1514
0.179827 -0.118174 0.247185 1 0 0
-0.201209 0.00979428 0.369289 0 0.0613677 -0.998115
-0.121226 0.309179 0.575941 0 -0.984951 0.172835
0.114238 0.28636 0.520008 0 0.867011 -0.498288
0.031561 -0.107679 0.234034 0 -0.200778 -0.979637
-0.0956109 0.003501 0.257135 0 0.200784 0.979635
0.0030982 -0.0525903 0.23804 0 -0.200788 -0.979635
-0.0301386 0.154303 0.283366 0 0.988473 -0.1514
0.221913 0.252077 0.474106 0 -0.768602 0.639727
-0.151911 -0.0676456 0.271717 0 0.200784 0.979635
0.0548576 0.126659 0.36066 0 -0.877585 0.47942
-0.0678084 0.153004 0.40191 0 -0.772594 0.6349
-0.150236 0.284679 0.613348 0 -1 0
-0.163163 0.0822732 0.21047 0 -0.161992 -0.986792
0.0778578 0.0667229 0.19829 0 -0.200778 -0.979637
-0.0143544 0.239929 0.0149861 0 0 1
-0.197719 0.222052 0.0149861 0 0 1
0.13531 0.144747 0.319927 0 -0.988485 0.151318
-0.0304226 0.239767 0.459306 0 0.768601 -0.639729
0.178878 -0.0888352 0.262652 0.923864 0.0768382 0.374928
-0.223869 -0.11529 0 0 0 -1
-0.0414658 -0.0573223 0.23901 0 0.200788 0.979635
-0.0452873 0.080614 0.195559 0 -0.161548 -0.986865
0.13349 0.218679 0.0149861 0 0 1
0.0460624 -0.272532 0.26782 0 -0.200778 -0.979637
-0.146348 0.109308 0.286497 0 -0.988473 0.1514
0.19741 -0.0179977 0.382591 0 -0.0614261 0.998112
0.203382 -0.0346993 0.366553 0 0.0613677 -0.998115
-0.0943545 -0.176637 0.248167 0 -0.200778 -0.979637
-0.142827 0.154063 0.281802 0 0.988473 -0.1514
-0.066654 0.0574165 0.215493 0 -0.200788 -0.979635
-0.00200334 0.156406 0.352596 0 -0.877667 0.479272
0.224785 0.105203 0.383914 1 0 0
-0.0683648 -0.277727 0.314775 0 0.200784 0.979635
-0.0932597 -0.219154 0.272179 0 -0.200788 -0.979635
0.106368 0.298523 0.675731 0 -0.766367 0.642403
-0.045995 -0.256546 0.279843 0 0.200788 0.979635
-0.0157131 -0.054263 0.238383 0 -0.200788 -0.979635
-0.0142049 0.123168 0.225149 0 0.781291 -0.624167
0.209873 -0.205589 0.187349 0 0.997475 0.0710224
-0.0384045 -0.144701 0.28751 0 0.200784 0.979635
0.0392798 -0.257956 0.310722 0 0.200784 0.979635
-0.193467 0.186175 0 0 0 -1
0.0986734 0.154709 0.286017 0 0.988473 -0.1514
0.0114217 0.287985 0.657058 0 -0.939898 0.341454
-0.224785 -0.216769 0.296963 -1 0 0
-0.123863 -0.111953 0.280798 0 0.200784 0.979635
-0.000725195 0.0862662 0.209814 0 0.161992 0.986792
0.110485 -0.268009 0.266894 0 -0.200778 -0.979637
0.127179 0.2596 0.483133 0 -0.768601 0.639729
0.122259 0.148988 0.248667 0 0.988473 -0.1514
-0.0122875 0.217298 0.479169 0 -0.76863 0.639694
-0.104521 -0.0394384 0.235344 0 -0.200788 -0.979635
-0.0360117 0.144649 0.319287 0 0.988485 -0.151318
-0.0980274 0.141816 0.225888 0 0.877578 -0.479434
0.224785 -0.195992 0.0531415 1 0 0
-0.0192484 0.136456 0.265795 0 -0.98847 0.151416
0.00970763 0.274547 0.501061 0 0.767655 -0.640864
-0.191159 0.0976225 0.389706 0 -0.0614261 0.998112
0.223714 0.0569529 0.372189 0 0.0613677 -0.998115
0.190147 -0.194971 0.0491433 0 0.984882 0.173227
0.133086 -0.278789 0.314988 0 -0.000976474 0.999999
-0.0244685 -0.294439 0.287612 9.45777e-06 -0.201109 -0.979569
0.0868104 0.272631 0.560481 0 -0.940092 0.34092
-0.0297678 0.0172396 0.208431 0 -0.200778 -0.979637
0.00965175 -0.119186 0.28228 0 0.200784 0.979635
0.17916 -0.15215 0.258446 0 -0.200788 -0.979635
-0.179827 -0.202322 0.0681945 1 0 0
0.150515 -0.187568 0.250407 0 -0.200778 -0.979637
-0.155477 -0.15808 0.259661 0 0.200788 0.979635
-0.058541 -0.0448556 0.267046 0 0.200784 0.979635
-0.120298 0.299193 0.545804 0 -0.940203 0.340615
0.117784 -0.228631 0.274121 0 0.200788 0.979635
-0.209922 -0.204782 0.176012 0 0.997475 0.0710224
-0.111979 -0.299867 0.313242 0 -0.173687 0.984801
0.161747 0.211366 0 0 0 -1
-0.114675 0.140786 0.29406 0 -0.98847 0.151416
0.224785 -0.0603786 0.00721986 1 0 0
0.0619677 0.278567 0.506449 0 0.867011 -0.498288
-0.0471442 -0.235825 0.306187 0 0.200784 0.979635
0.145395 -0.306056 0.289989 0 -0.200713 -0.97965
0.0307074 0.0417225 0.218709 0 0.200788 0.979635
-0.0920978 0.189577 0 0 0 -1
-0.0614892 0.200814 0 0 0 -1
0.0208775 0.0117345 0.255447 0 0.200784 0.979635
0.184087 -0.051917 0 0 0 -1
0.0249668 0.281077 0.589188 0 -0.984985 0.172637
0.140276 -0.090636 0.230541 0 -0.200778 -0.979637
-0.184842 0.0367631 0.0149861 0 0 1
0.101843 -0.266997 0.312575 0 0.200784 0.979635
0.209737 0.20505 0.397169 0 0.646155 -0.763206
0.101544 -0.142774 0.287115 0 0.200784 0.979635
0.179827 0.305669 0.648183 1 0 0
-0.122573 0.0911773 0.209871 0 0.0215792 -0.999767
0.110858 -0.119646 0.251784 0 -0.200788 -0.979635
0.0743438 0.329637 0.653454 0 1 0
0.18401 -0.222365 0.211948 0 -0.99747 -0.0710823
0.0596014 0.329637 0.632479 0 1 0
-0.130939 -0.0104474 0.229402 0 -0.200788 -0.979635
-0.093043 0.241864 0.461825 0 -0.768601 0.639729
-0.10281 0.0462191 0.248379 0 0.200784 0.979635
-0.110297 0.323024 0.568117 0 0.984966 -0.172747
0.010207 0.270252 0.553921 0 -0.940092 0.34092
-0.111807 -0.149025 0.257805 0 -0.200788 -0.979635
0.0307483 0.162767 0.413647 0 -0.76863 0.639694
0.179827 0.319039 0.562136 1 0 0
0.123383 0.157642 0.30517 0 0.988473 -0.1514
0.0529227 0.2061 0.418856 0 0.768601 -0.639729
-0.138249 0.188569 0.444649 0 -0.76863 0.639694
0.207258 0.128681 0.0149861 0 0 1
0.0864799 0.133102 0.244006 0 -0.947238 0.32053
-0.173924 0.259653 0.45978 0 0.7686 -0.639729
-0.102774 0.249316 0.44736 0 0.7686 -0.639729
0.178825 0.113217 0.240172 0.923879 -0.335954 0.183255
-0.205068 0.236186 0.455014 0 -0.768602 0.639727
-0.0523153 -0.236045 0.275641 0 -0.200788 -0.979635
0.0330216 -0.122258 0.28291 0 0.200784 0.979635
0.0180553 0.257959 0.481162 0 -0.768601 0.639729
-0.0897441 -0.252485 0.263712 0 -0.200778 -0.979637
-0.216659 -0.175658 0.354993 0 0.411607 -0.911361
0.179827 -0.21635 0.28575 -1 0 0
0.0228326 -0.218353 0.302605 0 0.200784 0.979635
-0.178623 0.299327 0.546174 0 -0.940203 0.340615
-0.221378 -0.209344 0.0443654 0 -0.940021 -0.341118
0.0203168 -0.247508 0.308581 0 0.200784 0.979635
-0.0172651 -0.274917 0.268309 0 -0.200778 -0.979637
-0.1794 0.242911 0.48573 -0.991434 -0.100384 0.0835542
0.0702884 0.153415 0.27757 0 0.988473 -0.1514
0.142215 0.0298797 0.251728 0 0.200784 0.979635
0.137754 0.175398 0.381939 0 0.780184 -0.62555
-0.0793602 0.211581 0.0149861 0 0 1
-0.188706 -0.219798 0.175928 0 -0.99747 -0.0710823
0.0847537 0.0365188 0.20448 0 -0.200778 -0.979637
-0.0595947 0.286078 0.650562 0 -0.984688 0.174328
-0.0545418 0.136522 0.378716 0 -0.877585 0.47942
-0.224785 -0.215313 0.318508 -1 0 0
-0.211148 -0.101597 0.0149861 0 0 1
-0.153427 0.19593 0.383221 0 0.7686 -0.639729
0.155975 -0.240251 0.276503 0 0.200788 0.979635
0.132652 0.115791 0.328839 0 -0.988504 0.151197
-0.144348 0.281175 0.589745 0 -0.984985 0.172637
-0.17265 0.145447 0.233718 0 0.947387 -0.32009
0.191384 0.195309 0.408563 0 -0.645483 0.763775
-0.0277394 0.256873 0.479858 0 -0.768601 0.639729
-0.103433 0.107661 0.275743 0 -0.988473 0.1514
0.196826 0.00183356 0.0149861 0 0 1
0.187112 -0.177661 0.0233629 0 0.645239 0.763981
-0.170476 0.308589 0.572582 0 0.984951 -0.172835
0.201312 -0.106078 0.362165 0 0.0613677 -0.998115
0.0899421 0.209375 0.469649 0 -0.76863 0.639694
-0.00833569 -0.152037 0.258423 0 0.200788 0.979635
0.222576 -0.216513 0.129831 0 -0.99747 -0.0710823
0.109961 0.313798 0.602268 0 0.984951 -0.172835
-0.197467 -0.0483537 0.0149861 0 0 1
-0.125444 0.279713 0.508442 0 0.867011 -0.498288
-0.129413 0.227332 0.420948 0 0.7686 -0.639729
0.0920676 0.0467863 0.248263 0 0.200784 0.979635
-0.179827 0.182979 0.389527 1 0 0
-0.147715 -0.198325 0.26791 0 0.200788 0.979635
-0.0610188 0.268995 0.471004 0 0.7686 -0.639729
0.209177 -0.19635 0.0204147 0 -0.767947 -0.640513
-0.203473 0.0738607 0.0149861 0 0 1
-0.137971 0.0370417 0.219669 0 -0.200788 -0.979635
-0.0777354 -0.18038 0.264232 0 0.200788 0.979635
0.195925 0.0584838 0.372283 0 0.0613677 -0.998115
-0.208566 0.157808 0.378089 0 0.176251 -0.984345
0.0150107 -0.277511 0.31473 0 0.200784 0.979635
-0.130238 -0.118814 0.236316 0 -0.200778 -0.979637
0.136345 0.197886 0.455844 0 -0.76863 0.639694
-0.203529 0.197016 0.0149861 0 0 1
-0.139948 -0.274662 0.283556 0 0.200788 0.979635
0.0355182 0.131336 0.369222 0 -0.877585 0.47942
0.0875595 -0.275462 0.268421 0 -0.200778 -0.979637
0.101082 0.329637 0.609475 0 1 0
0.080195 -0.115879 0.281603 0 0.200784 0.979635
0.0193379 0.0718151 0.243133 0 0.200784 0.979635
-0.201359 -0.200578 0.116972 0 0.997475 0.0710224
0.1138 0.0290105 0.221315 0 0.200788 0.979635
0.15677 0.138634 0.280015 0 -0.98847 0.151416
0.185353 0.167286 0.395007 0 -0.176124 0.984368
0.0235336 0.30738 0.568404 0 0.940203 -0.340615
-0.150151 -0.111669 0.28074 0 0.200784 0.979635
-0.000188529 0.202113 0 0 0 -1
-0.00553899 0.329637 0.611068 0 1 0
-0.143774 0.241325 0.0106127 0 1 0
0.179827 -0.0509675 0.368774 -1 0 0
0.187559 0.119305 0.0149861 0 0 1
0.139542 0.326883 0.590123 0 0.984966 -0.172747
-0.0136008 0.104324 0.212366 0 -0.364766 0.931099
-0.0365249 0.287915 0.656865 0 -0.939898 0.341454
-0.011185 0.109206 0.285831 0 -0.988473 0.1514
-0.216582 -0.0371204 0.0149861 0 0 1
0.169425 -0.265329 0.281643 0 0.200788 0.979635
-0.0832903 -0.0622125 0.224715 0 -0.200778 -0.979637
0.0446213 0.194021 0.404344 0 -0.768601 0.639729
-0.0768938 0.284679 0.609766 0 -1 0
0.0624259 0.288862 0.524361 0 -0.867011 0.498288
-0.185309 0.127759 0 0 0 -1
0.0127119 0.00165984 0.226921 0 -0.200788 -0.979635
0.142709 0.240836 0 0 0 -1
-0.161571 0.0472713 0.2481 -0.130398 0.19907 0.971271
-0.178934 0.19591 0.432726 -0.923685 -0.294502 0.2451
0.0740651 -0.00941271 0.22919 0 0.200788 0.979635
0.0203929 -0.238669 0.276179 0 -0.200788 -0.979635
-0.205055 -0.0115747 0.382986 0 -0.0614261 0.998112
-0.0464031 -0.295297 0.287788 9.45777e-06 -0.201109 -0.979569
0.121667 0.0616773 0.214619 0 0.200788 0.979635
0.138673 -0.0276604 0.217634 0 -0.200778 -0.979637
-0.115029 -0.277958 0.284232 0 -0.200788 -0.979635
-0.0902975 -0.13513 0.254957 0 -0.200788 -0.979635
-0.166579 0.277 0.569879 -0.382956 -0.868451 0.314862
-0.207639 -0.166791 0.00179702 0 -0.175012 -0.984566
0.0554719 0.312933 0.597338 0 0.984951 -0.172835
-0.0765684 0.180598 0.388217 0 -0.768601 0.639729
0.156927 -0.163543 0.291372 0 0.200784 0.979635
-0.125989 0.16285 0.413746 0 -0.76863 0.639694
-0.0444769 0.314651 0.616811 0 1 0
-0.0367158 -0.208999 0.300688 0 0.200784 0.979635
0.151127 0.289571 0.661425 0 -0.939898 0.341454
-0.171644 -0.110379 0.249884 0 0.200788 0.979635
-0.0127186 0.122255 0.348398 0 -0.947459 0.319878
0.109641 0.122269 0.224024 0 -0.781291 0.624167
-0.206057 0.179867 0.383299 0 0.345194 -0.938531
0.0329812 0.251649 0.520402 0 -0.767368 0.641207
0.0676484 0.268845 0.550041 0 -0.940092 0.34092
0.0564187 0.15093 0.339631 0 0.947429 -0.319966
0.114495 0.247959 0.469148 0 0.768601 -0.639729
-0.0181027 -0.0894015 0.245585 0 -0.200788 -0.979635
0.145694 0.116866 0.219138 0 -0.661394 0.750039
-0.0621585 0.314651 0.671732 0 1 0
-0.135713 -0.0496895 0.268037 0 0.200784 0.979635
0.00861697 0.0349217 0.204807 0 -0.200778 -0.979637
0.201529 0.0745108 0.388284 0 -0.0614261 0.998112
-0.208213 0.0775656 0.373456 0 0.0613677 -0.998115
0.179827 -0.213573 0.319537 -1 0 0
0.125998 0.239311 0.505619 0 -0.76863 0.639694
-0.0541527 0.0281478 0.221492 0 0.200788 0.979635
0.165069 0.314651 0.608627 0 -1 0
0.178972 -0.191285 0.283417 0.923864 0.0768382 0.374928
-0.0360962 0.314651 0.663852 0 1 0
0.0817768 0.260669 0.53546 0 -0.867126 0.498089
0.0659998 0.188874 0.00417774 0 -1 0
-0.214581 -0.0915543 0.378064 0 -0.0614261 0.998112
0.0191888 0.237931 0.50396 0 -0.76863 0.639694
-0.0891962 0.314651 0.622279 0 1 0
-0.158328 0.314651 0.664605 0 -1 0
0.0585704 0.306843 0.68399 0 -0.6466 0.76283
-0.0522314 0.0304753 0.251606 0 0.200784 0.979635
0.160779 0.21004 0.470447 0 -0.76863 0.639694
0.0614425 -0.196249 0.267484 0 -0.200788 -0.979635
-0.203763 0.101191 0 0 0 -1
-0.13992 -0.143046 0.25658 0 0.200788 0.979635
0.0815284 0.304827 0.561356 0 -0.940203 0.340615
0.221729 0.239509 0.0149861 0 0 1
-0.179827 -0.196118 0.0314347 1 0 0
-0.133426 0.145023 0.32173 0 -0.988485 0.151318
0.179827 0.213732 0.430632 1 0 0
0.0416408 0.288445 0.523635 0 0.867011 -0.498288
0.0825456 0.116118 0.330222 0 -0.947459 0.319878
-0.0327787 0.322544 0.566253 0 0.940112 -0.340867
0.101363 -0.278541 0.284351 0 0.200788 0.979635
0.214676 0.187889 0.38625 0 0.345194 -0.938531
0.0152198 0.292661 0.500903 0 0.867084 -0.498163
-0.155256 -0.0729953 0.242222 0 -0.200788 -0.979635
-0.11498 0.1378 0.274569 0 0.98847 -0.151416
0.113166 0.169448 0.345219 0 0.87757 -0.479449
0.179827 0.0236876 0.380591 -1 0 0
-0.179827 0.150448 0.00143982 1 0 0
0.0442531 -0.0955856 0.277443 0 0.200784 0.979635
0.0567609 -0.123574 0.28318 0 0.200784 0.979635
-0.214699 -0.0671249 0.0149861 0 0 1
0.182414 0.250468 0.472174 0 -0.768602 0.639727
0.112344 -0.0368065 0.219508 0 -0.200778 -0.979637
-0.178155 0.112312 0.21614 0 -0.520614 0.853792
-0.101473 0.286422 0.652504 0 -0.984688 0.174328
0.178823 0.125062 0.303506 0.923708 -0.37868 0.0580079
0.173839 0.00332716 0.226579 0 0.200788 0.979635
0.107046 -0.0571357 0.238971 0 0.200788 0.979635
0.0831456 -0.306006 0.289978 0 -0.200713 -0.97965
0.0309477 0.0998147 0.244061 0 -0.662823 0.748776
-0.136676 0.0740966 0.212074 0 -0.200788 -0.979635
-0.119296 0.105258 0.260053 0 -0.988473 0.1514
0.152964 0.0906451 0.20986 0 0.0215792 -0.999767
-0.100618 -0.0649101 0.271156 0 0.200784 0.979635
-0.223088 -0.0736817 0.379164 0 -0.0614261 0.998112
0.0764455 0.144702 0.31963 0 -0.988485 0.151318
-0.0711949 0.238713 0.0149861 0 0 1
-0.130963 0.254675 0.453799 0 0.7686 -0.639729
-0.16 -0.231145 0.274637 0 -0.200788 -0.979635
0.0248432 0.329637 0.66523 0 1 0
0.0982616 0.286144 0.491573 0 0.767527 -0.641016
-0.0212995 0.314351 0.605418 0 0.984951 -0.172835
0.102518 0.258462 0.481767 0 -0.768601 0.639729
0.179827 -0.242831 0.273994 1 0 0
0.170318 0.11789 0.220041 0 0.661394 -0.750039
0.179852 0.120379 0.376088 0 0.0613677 -0.998115
-0.0273876 -0.0269744 0.23279 0 -0.200788 -0.979635
0.167211 0.147161 0.32847 0 -0.947429 0.319966
0.061322 0.314651 0.661547 0 1 0
0.011294 0.131946 0.240589 0 -0.947238 0.32053
-0.000704199 0.279732 0.581513 0 -0.984985 0.172637
-0.128189 -0.199453 0.298732 0 0.200784 0.979635
-0.224785 0.046068 0.0148101 -1 0 0
-0.224785 0.0103619 0.00339889 -1 0 0
-0.104252 0.114154 0.20012 0 0.364363 -0.931257
-0.0278278 0.31492 0.545226 0 0.940112 -0.340867
-0.0981319 -0.236985 0.275834 0 0.200788 0.979635
0.224785 -0.211167 0.198639 1 0 0
-0.00719756 0.00404119 0.226433 0 -0.200788 -0.979635
0.106911 -0.154551 0.24364 0 -0.200778 -0.979637
0.0794431 -0.207616 0.269814 0 0.200788 0.979635
0.0711128 -0.0992356 0.2476 0 0.200788 0.979635
0.186433 0.088273 0.389131 0 -0.0614261 0.998112
-0.179458 0.149688 0.369572 -0.99141 -0.114805 0.062657
0.0585501 0.241998 0.461986 0 -0.768601 0.639729
0.133042 -0.171405 0.292983 0 0.200784 0.979635
0.148733 0.32277 0.566877 0 0.940112 -0.340867
0.14743 0.130887 0.237462 0 -0.947238 0.32053
-0.0781604 -0.211106 0.30112 0 0.200784 0.979635
-0.061195 0.141812 0.22588 0 0.877578 -0.479434
0.198132 -0.100642 0.0149861 0 0 1
-0.202815 -0.210631 0.0517003 0 -0.985093 -0.172023
0.0518551 -0.138546 0.255657 0 -0.200788 -0.979635
0.197796 -0.0328564 0 0 0 -1
0.224785 -0.212187 0.0897522 1 0 0
0.224785 -0.216074 0.293746 1 0 0
-0.180745 -0.0386426 0.0149861 0 0 1
-0.0793001 0.0503896 0.201637 0 -0.200778 -0.979637
0.0576361 -0.327964 0.296808 0 -0.765232 0.643755
0.215784 0.0253224 0.385257 0 -0.0614261 0.998112
-0.189832 -0.214065 0.0954818 0 -0.99747 -0.0710823
0.217998 0.0918902 0.0149861 0 0 1
0.208859 -0.22794 0.29018 0 -0.99747 -0.0710823
0.0846161 -0.310022 0.309634 0 -0.342039 0.939686
-0.075047 -0.238384 0.27612 0 0.200788 0.979635
-0.179827 -0.113622 0.37227 1 0 0
0.219706 -0.153377 0 0 0 -1
-0.168567 0.314651 0.643076 0 -1 0
-0.113794 0.209327 0.399316 0 0.7686 -0.639729
-0.060371 0.144304 0.31703 0 0.988485 -0.151318
-0.222826 0.0339406 0.385787 0 -0.0614261 0.998112
0.0105358 0.314651 0.628494 0 -1 0
-0.04952 0.202715 0.0149861 0 0 1
-0.138103 0.112009 0.215955 0 0.520614 -0.853792
0.0860444 0.0986307 0.195511 0 0.195939 -0.980616
0.0636324 -0.245243 0.277526 0 0.200788 0.979635
0.136585 -0.206989 0.269686 0 -0.200788 -0.979635
-0.141119 -0.122524 0.252374 0 -0.200788 -0.979635
-0.0937323 0.312966 0.597527 0 0.984951 -0.172835
0.0582053 0.13243 0.242021 0 0.947238 -0.32053
-0.205961 0.131321 0.376761 0 0.0613677 -0.998115
-0.0674291 -0.162215 0.260509 0 -0.200788 -0.979635
-0.110446 0.281899 0.59388 0 -0.984985 0.172637
-0.0968775 -0.211164 0.255243 0 -0.200778 -0.979637
0.0113027 0.163094 0.364843 0 -0.877667 0.479272
0.0443499 0.108831 0.214131 0 0.364766 -0.931099
0.138761 0.0212886 0.207601 0 -0.200778 -0.979637
-0.204696 -0.122824 0.0149861 0 0 1
-0.10736 0.144017 0.315155 0 0.988485 -0.151318
0.207275 0.150273 0.377926 0 0.0613677 -0.998115
-0.101681 0.255376 0.526246 0 -0.867126 0.498089
0.0805855 0.157805 0.306228 0 0.988473 -0.1514
0.194869 0.241096 0.460913 0 -0.768602 0.639727
0.173644 0.275061 0.552642 0.609117 -0.745692 0.270039
0.0535624 0.234775 0.0149861 0 0 1
0.0792734 -0.0450288 0.267081 0 0.200784 0.979635
0.0935481 -0.244111 0.277294 0 -0.200788 -0.979635
0.00162317 0.224563 0.441039 0 0.768601 -0.639729
0.00035204 0.164385 0.332642 0 0.947538 -0.319643
0.0119874 0.194299 0.381261 0 0.7686 -0.639729
-0.167564 0.285992 0.642056 -0.382741 -0.923856 0
-0.0864246 0.309028 0.529391 0 0.867084 -0.498163
-0.113615 0.129393 0.234416 0 -0.87758 0.479431
0.121992 0.187791 0.443714 0 -0.76863 0.639694
0.142241 0.201776 0.0149861 0 0 1
0.167195 0.239271 0.503761 0.382329 -0.71026 0.591062
0.108927 -0.249693 0.309029 0 0.200784 0.979635
-0.00795504 0.324077 0.574125 0 0.984966 -0.172747
0.0924314 -0.121414 0.236849 0 -0.200778 -0.979637
0.143575 0.30243 0.68025 0 -0.6466 0.76283
0.224785 -0.00960596 0.0104379 1 0 0
-0.179827 0.0351987 0.37097 1 0 0
0.191534 -0.0769395 0 0 0 -1
0.0150096 0.180066 0.434432 0 -0.76863 0.639694
0.074357 -0.0569062 0.238924 0 0.200788 0.979635
-0.0614569 -0.16641 0.291959 0 0.200784 0.979635
-0.170959 0.116345 0.313349 -0.60811 -0.784701 0.12019
-0.183664 -0.170962 0.37209 0 -0.245561 0.969381
-0.176842 -0.266964 0.30364 -0.793836 0.122107 0.595747
0.155602 -0.226487 0.258384 0 -0.200778 -0.979637
0.0842201 0.138116 0.276634 0 -0.98847 0.151416
0.084151 0.172256 0.37802 0 -0.780184 0.62555
-0.177105 0.113449 0.253508 -0.793776 -0.601199 0.0920833
0.148438 0.15602 0.294578 0 0.988473 -0.1514
0.17555 0.288072 0.588205 0.793474 -0.599433 0.105262
0.0487874 -0.059381 0.239432 0 0.200788 0.979635
-0.124382 0.285869 0.649382 0 -0.984688 0.174328
-0.0147334 0.188874 0.00343762 0 -1 0
-0.224785 -0.184908 0.0256356 -1 0 0
-0.100143 -0.0777417 0.243195 0 -0.200788 -0.979635
0.0723168 0.221373 0.413789 0 0.7686 -0.639729
0.0452001 0.0113467 0.255527 0 0.200784 0.979635
0.0144149 0.329637 0.612908 0 1 0
-0.0521473 0.249761 0.447896 0 0.7686 -0.639729
-0.116524 0.329637 0.648771 0 1 0
0.129684 0.21528 0.476744 0 -0.76863 0.639694
0.00471652 -0.0677695 0.225854 0 -0.200778 -0.979637
0.00725533 -0.307293 0.290242 0 -0.200713 -0.97965
0.00266644 0.147799 0.240847 0 0.98872 -0.149776
-0.179789 0.0443726 0.229926 -0.991457 0.026191 0.127774
-0.121495 0.325696 0.583353 0 0.984966 -0.172747
0.00990027 -0.12495 0.252871 0 -0.200788 -0.979635
-0.158277 -0.254085 0.279339 0 -0.200788 -0.979635
-0.0513569 0.10498 0.258236 0 -0.988473 0.1514
-0.122089 0.201672 0.0149861 0 0 1
-0.0493304 0.000922203 0.257663 0 0.200784 0.979635
-0.0302318 -0.327291 0.294339 0 -0.200713 -0.97965
-0.0701834 0.286012 0.519403 0 0.867011 -0.498288
0.063416 0.314174 0.543169 0 0.940112 -0.340867
0.206103 -0.0860784 0.378401 0 -0.0614261 0.998112
-0.179827 0.195666 0.00856395 -1 0 0
0.178374 0.158555 0.311113 0 0.98839 -0.151936
-0.0032264 -0.201936 0.253352 0 -0.200778 -0.979637
-0.180716 -0.128279 0 0 0 -1
0.163947 0.300383 0.514343 0 0.867084 -0.498163
0.150543 -0.141423 0.256247 0 -0.200788 -0.979635
0.179827 -0.222698 0.230901 -1 0 0
0.102432 0.233956 0 0 0 -1
-0.219127 -0.0430571 0.381049 0 -0.0614261 0.998112
-0.129252 0.166738 0.371139 0 0.780184 -0.62555
0.0393184 0.186383 0.371683 0 0.780169 -0.625569
-0.179196 0.287841 0.561521 -0.991446 -0.122708 0.0444696
-0.0402607 -0.214068 0.271137 0 -0.200788 -0.979635
-0.0293536 0.196986 0.454762 0 -0.76863 0.639694
-0.0923841 0.235294 0.430514 0 0.7686 -0.639729
-0.179827 -0.0918279 0.0125234 1 0 0
-0.165802 0.285301 0.623515 -0.130958 -0.991388 0
-0.131003 -0.0738103 0.227092 0 -0.200778 -0.979637
-0.179982 -0.205327 0.18367 0 0.997475 0.0710224
-0.155515 0.106993 0.197318 0 0.364363 -0.931257
-0.0277871 -0.119236 0.2517 0 -0.200788 -0.979635
0.0425804 0.314651 0.659444 0 1 0
-0.131022 0.26028 0.534783 0 -0.867126 0.498089
0.224785 -0.0577503 0.366025 1 0 0
0.111664 0.188874 0.000613464 0 -1 0
0.0867363 0.196019 0.453601 0 -0.76863 0.639694
-0.14128 0.135205 0.257627 0 -0.98847 0.151416
0.100248 0.0835052 0.210267 0 0.161992 0.986792
-0.0235819 0.264285 0.541756 0 -0.867126 0.498089
0.209806 -0.0475868 0.0149861 0 0 1
-0.0117573 0.169093 0.374076 0 -0.780184 0.62555
0.0720051 0.264994 0.489615 0 -0.768601 0.639729
0.179757 0.247784 0.487347 0.991434 -0.100388 0.0835485
0.00851594 -0.0973918 0.247222 0 -0.200788 -0.979635
0.0981216 0.214937 0.0149861 0 0 1
-0.0883642 -0.282643 0.285191 0 -0.200073 -0.979781
-0.18311 0.239164 0.435166 0 0.768658 -0.63966
0.126089 0.184405 0.392791 0 0.768601 -0.639729
0.044736 -0.173864 0.247598 0 -0.200778 -0.979637
0.160472 -0.188453 0.265887 0 0.200788 0.979635
0.224785 0.156859 0.392271 1 0 0
-0.12012 -0.112367 0.250292 0 -0.200788 -0.979635
0.0384824 -0.0340994 0.264841 0 0.200784 0.979635
0.128893 0.312068 0.592407 0 0.984951 -0.172835
-0.0763896 -0.170866 0.246984 0 -0.200778 -0.979637
0.213191 -0.223277 0.224739 0 -0.99747 -0.0710823
-0.222789 0.0730735 0.388196 0 -0.0614261 0.998112
-0.110932 0.0786647 0.241729 0 0.200784 0.979635
-0.168364 -0.226594 0.302624 -0.381069 0.185641 0.905717
-0.219924 -0.117209 0.376485 0 -0.0614261 0.998112
-0.200553 -0.227421 0.282897 0 -0.99747 -0.0710823
-0.0912997 0.168467 0.373296 0 0.780184 -0.62555
-0.00051187 0.14149 0.29866 0 -0.98847 0.151416
0.189574 -0.197932 0.0798134 0 0.997475 0.0710224
-0.0312687 0.314651 0.68477 0 1 0
0.0466398 -0.0202786 0.231417 0 0.200788 0.979635
0.0569207 0.158445 0.356329 0 0.877667 -0.479272
0.124639 0.204224 0 0 0 -1
-0.179396 0.163524 0.390321 -0.99142 -0.101982 0.0817694
0.115602 0.106073 0.265371 0 -0.988473 0.1514
0.0647189 -0.128596 0.238321 0 -0.200778 -0.979637
0.207023 0.216224 0 0 0 -1
-0.163109 0.241325 0.0102022 0 1 0
0.176156 0.200275 0.446436 0.793727 -0.467538 0.389109
0.0800036 -0.0288075 0.233165 0 -0.200788 -0.979635
-0.0342327 0.245051 0.442237 0 0.7686 -0.639729
0.19559 0.104328 0.375101 0 0.0613677 -0.998115
0.0998484 0.135864 0.261929 0 0.98847 -0.151416
0.0996972 0.130238 0.210949 0 0.661303 -0.750119
-0.0600402 0.314651 0.652859 0 1 0
-0.0372546 0.0659139 0.213751 0 0.200788 0.979635
0.149374 0.166014 0.337472 0 0.947538 -0.319643
0.0128373 0.109029 0.214209 0 -0.364766 0.931099
0.0541842 0.309641 0.578577 0 0.984951 -0.172835
0.181864 0.0883605 0 0 0 -1
0.169018 -0.117982 0.280084 0.381068 0.185657 0.905714
0.125914 0.299239 0.512352 0 0.867084 -0.498163
0.0632322 0.215666 0.43035 0 -0.768601 0.639729
0.0367735 0.141437 0.298311 0 0.98847 -0.151416
-0.0987413 0.197432 0.0149861 0 0 1
-0.179827 -0.146377 0.367681 1 0 0
0.0482509 -0.0776457 0.273766 0 0.200784 0.979635
0.148585 0.21243 0.426461 0 -0.768601 0.639729
-0.205861 0.0264798 0.0149861 0 0 1
-0.041663 0.116184 0.330417 0 -0.947459 0.319878
0.052875 0.314651 0.6181 0 -1 0
-0.179827 -0.07842 0.000107359 1 0 0
-0.150426 -0.00839752 0.228982 0 -0.200788 -0.979635
-0.0816695 0.28163 0.486167 0 0.767527 -0.641016
0.152084 0.14648 0.326454 0 -0.947429 0.319966
0.147994 0.30383 0.558604 0 -0.940203 0.340615
-0.154232 0.224043 0.487273 0 -0.76863 0.639694
-0.145486 0.239133 0.458544 0 0.768601 -0.639729
0.0473646 0.265648 0.544128 0 -0.867126 0.498089
-0.124084 -0.25 0.278501 0 -0.200788 -0.979635
0.0350551 -0.144999 0.25698 0 -0.200788 -0.979635
0.020184 -0.316382 0.306005 0 -0.499444 0.866346
-0.0168912 0.284679 0.619583 0 -1 0
-0.00669524 0.131588 0.239532 0 -0.947238 0.32053
-0.184578 0.0641306 0.37263 0 0.0613677 -0.998115
-0.0292192 0.221218 0.483879 0 -0.76863 0.639694
-0.0294224 -0.297475 0.313664 0 -0.173687 0.984801
0.0268023 0.150991 0.339813 0 -0.947429 0.319966
0.128781 0.162576 0.32728 0 0.947538 -0.319643
-0.123304 -0.176107 0.293947 0 0.200784 0.979635
-0.206125 0.241325 0.00537712 0 1 0
-0.126736 -0.0649228 0.271159 0 0.200784 0.979635
0.180562 -0.208821 0.0429239 0 -0.940021 -0.341118
-0.0242993 -0.102244 0.23292 0 -0.200778 -0.979637
0.144538 -0.219496 0.30284 0 0.200784 0.979635
0.149646 0.246699 0.444217 0 0.7686 -0.639729
0.15941 -0.0645995 0.240501 0 0.200788 0.979635
-0.179777 -0.0229839 0.243824 -0.991457 0.026191 0.127774
0.054606 0.149913 0.398057 0 -0.780099 0.625656
0.0670846 -0.231777 0.259468 0 -0.200778 -0.979637
0.22008 -0.200894 0.121407 0 0.997475 0.0710224
0.179157 0.274217 0.531321 0.92398 -0.331622 0.190495
-0.17756 0.141174 0.296593 0 -0.98847 0.151416
0.0576257 0.182135 0.390064 0 0.768601 -0.639729
0.21227 -0.15446 0.35919 0 0.0613677 -0.998115
0.215854 -0.212099 0.278786 0 0.997475 0.0710224
-0.11654 0.134552 0.253364 0 0.98847 -0.151416
-0.0745017 -0.144421 0.256862 0 0.200788 0.979635
0.107844 -0.100436 0.247846 0 -0.200788 -0.979635
0.215832 0.23827 0.434091 0 0.768658 -0.63966
-0.202746 -0.179107 0.024584 0 0.645239 0.763981
0.0310633 0.206915 0.419836 0 0.768601 -0.639729
0.122523 0.129894 0.235334 0 -0.87758 0.479431
0.075184 0.199709 0.0149861 0 0 1
-0.047654 0.152518 0.271716 0 0.988473 -0.1514
-0.106751 0.166835 0.339906 0 0.947538 -0.319643
-0.0759083 0.240518 0.43679 0 0.7686 -0.639729
-0.161918 0.192441 0.44913 -0.131841 -0.76192 0.63411
0.207148 -0.2135 0.0875417 0 -0.99747 -0.0710823
0.189381 -0.21665 0.131749 0 -0.99747 -0.0710823
0.224785 -0.0282878 0.376082 1 0 0
-0.0822397 0.284679 0.632038 0 -1 0
0.0205072 -0.159317 0.259915 0 0.200788 0.979635
0.179094 0.138464 0.278906 0 -0.98847 0.151416
0.143449 0.31323 0.540565 0 0.940112 -0.340867
0.0379763 0.0727398 0.197056 0 -0.200778 -0.979637
-0.111304 0.232831 0.0149861 0 0 1
0.128893 -0.0296031 0.26392 0 0.200784 0.979635
-0.166331 0.215215 0 0 0 -1
0.0459898 -0.233471 0.259815 0 -0.200778 -0.979637
0.0129066 -0.212637 0.270843 0 0.200788 0.979635
-0.047548 0.297768 0.509791 0 0.867084 -0.498163
0.0206523 0.178993 0.386289 0 0.768601 -0.639729
0.0099047 0.300931 0.550601 0 0.940203 -0.340615
-0.213408 0.207005 0 0 0 -1
-0.155494 -0.127127 0.23802 0 -0.200778 -0.979637
-0.205252 0.197889 0.410743 0 -0.645483 0.763775
0.0229676 -0.286329 0.285947 2.36564e-05 -0.201503 -0.979488
-0.179827 0.217094 0.430228 -1 0 0
0.187592 0.224846 0.0149861 0 0 1
0.151064 0.329637 0.623861 0 1 0
-0.057447 0.284679 0.613185 0 -1 0
-0.0218524 0.219376 0.41139 0 0.7686 -0.639729
0.19885 -0.207762 0.217865 0 0.997475 0.0710224
-0.200902 -0.0973383 0.362702 0 0.0613677 -0.998115
0.0716323 0.309139 0.575717 0 0.984951 -0.172835
-0.0121404 0.12598 0.207195 0 0.661303 -0.750119
-0.0866498 0.106822 0.270264 0 -0.988473 0.1514
0.0492732 0.297376 0.54079 0 0.940203 -0.340615
0.11614 0.151207 0.340452 0 -0.947429 0.319966
-0.0713865 0.10124 0.196033 0 0.195939 -0.980616
0.137613 -0.159381 0.259928 0 -0.200788 -0.979635
0.120064 0.237396 0 0 0 -1
-0.189369 0.000949025 0 0 0 -1
-0.0984221 0.15094 0.339662 0 0.947429 -0.319966
-0.178242 -0.282542 0.281318 0 -0.97968 0.200565
-0.171308 0.137931 0.275421 0 0.98847 -0.151416
-0.0104724 0.279169 0.507496 0 0.867011 -0.498288
-0.127748 0.328251 0.674822 0 0 1
0.223212 -0.188677 0.013053 0 -0.644598 -0.764522
0.0108461 -0.0306804 0.218253 0 -0.200778 -0.979637
-0.17021 -0.171035 0.262316 0 -0.200788 -0.979635
0.0893399 0.305381 0.523042 0 0.867084 -0.498163
-0.082439 -0.141045 0.286761 0 0.200784 0.979635
0.0783374 0.0230367 0.222539 0 0.200788 0.979635
-0.122061 -0.0157812 0.215199 0 -0.200778 -0.979637
0.178556 0.329637 0.646687 0 1 0
-0.0651524 0.30782 0.569619 0 -0.940203 0.340615
0.0149781 0.136645 0.26703 0 0.98847 -0.151416
0.121359 0.151641 0.265986 0 0.988473 -0.1514
0.174389 0.178451 0.385638 0 -0.768601 0.639729
0.0644947 0.211333 0.401726 0 0.7686 -0.639729
-0.082331 0.314651 0.669639 0 -1 0
-0.155081 0.251635 0.473564 0 0.768601 -0.639729
-0.15896 0.302542 0.555049 0 -0.940203 0.340615
0.0971957 -0.223098 0.272987 0 0.200788 0.979635
-0.192642 -0.144938 0 0 0 -1
0.173356 0.314651 0.673473 0 -1 0
-0.120278 -0.0442223 0.236325 0 -0.200788 -0.979635
-0.124544 0.149722 0.336053 0 0.947429 -0.319966
0.0720391 0.123786 0.352934 0 -0.947459 0.319878
-0.070991 -0.0171691 0.23078 0 -0.200788 -0.979635
-0.179338 0.0158178 0.224019 0 -0.200788 -0.979635
0.176739 0.0507195 0.238666 0.793636 0.122159 0.596003
0.215798 0.212241 0.426246 0 -0.768602 0.639727
-0.0212024 0.230275 0.447901 0 -0.768601 0.639729
0.096099 0.321637 0.674822 0 0 1
0.162466 0.28486 0.624562 0.130958 -0.991388 0
-0.219725 0.0351153 0 0 0 -1
0.213284 0.15449 0 0 0 -1
0.157205 -0.011539 0.229626 0 -0.200788 -0.979635
-0.0424353 0.279857 0.582231 0 -0.984985 0.172637
0.0173746 0.108518 0.281336 0 -0.988473 0.1514
-0.0255785 -0.275112 0.283648 0 -0.200788 -0.979635
0.159717 0.0661551 0.213702 0 0.200788 0.979635
0.156307 0.11051 0.294342 0 -0.988473 0.1514
-0.0705224 0.222804 0.438925 0 0.768601 -0.639729
0.201896 0.183324 0.0149861 0 0 1
-0.00394757 0.0414792 0.249351 0 0.200784 0.979635
-0.044028 -0.287974 0.314979 0 -0.000976474 0.999999
-0.194788 0.0647139 0 0 0 -1
0.11155 -0.0834174 0.244358 0 0.200788 0.979635
-0.040839 0.283155 0.601046 0 -0.984985 0.172637
-0.206293 -0.157059 0.374033 0 -0.0614261 0.998112
-0.160265 -0.271655 0.31353 0 0.200784 0.979635
-0.00775026 -0.0954478 0.231527 0 -0.200778 -0.979637
-0.208904 -0.212918 0.0793821 0 -0.99747 -0.0710823
-0.0226088 -0.137166 0.255375 0 0.200788 0.979635
0.127978 0.291639 0.529193 0 -0.867011 0.498288
-0.109496 0.174968 0.381403 0 -0.780184 0.62555
0.148928 0.0201281 0.223135 0 -0.200788 -0.979635
0.0555579 0.075457 0.1965 0 -0.200778 -0.979637
0.220152 0.204118 0 0 0 -1
-0.130145 0.110621 0.295066 0 -0.988473 0.1514
0.195319 0.132098 0.376809 0 0.0613677 -0.998115
0.179733 -0.16794 0.261682 0 -0.200788 -0.979635
-0.169473 0.186142 0.371381 0 0.780169 -0.625569
0.0754216 -0.0726582 0.226856 0 -0.200778 -0.979637
-0.104533 -0.284426 0.272117 0 -0.97968 0.200565
0.192783 0.166599 0.0149861 0 0 1
-0.0422214 0.0898293 0.209842 0 0.0215792 -0.999767
0.09556 0.291057 0.664522 0 -0.865852 0.5003
0.179827 -0.154962 0.369761 -1 0 0
-0.0484518 0.307551 0.52682 0 0.867084 -0.498163
0.0706003 -0.156137 0.243965 0 -0.200778 -0.979637
-0.22187 -0.209161 0.237522 0 0.997475 0.0710224
0.216412 -0.132805 0.0149861 0 0 1
-0.180391 -0.21763 0.338319 0 -0.812453 0.583027
0.0729924 -0.178756 0.29449 0 0.200784 0.979635
0.162969 -0.259424 0.310771 0.130398 0.199077 0.97127
0.188875 -0.0863055 0.378387 0 -0.0614261 0.998112
0.150849 0.25397 0.523797 0 -0.867126 0.498089
0.107289 0.0760404 0.242267 0 0.200784 0.979635
0.159803 0.241325 0.00155234 0 1 0
0.0774167 0.238838 0.0149861 0 0 1
-0.193336 0.181785 0.400025 0 -0.503566 0.863957
-0.112867 -0.202477 0.268761 0 0.200788 0.979635
-0.196333 -0.222151 0.20894 0 -0.99747 -0.0710823
-0.0725809 -0.202296 0.268724 0 0.200788 0.979635
-0.178711 -0.22009 0.257072 0 -0.200778 -0.979637
-0.088967 -0.0237472 0.232128 0 0.200788 0.979635
0.167851 -0.080694 0.272932 0.382237 0.185544 0.905245
0.179827 0.140145 0.329864 1 0 0
-0.0394446 0.0183439 0.223501 0 0.200788 0.979635
-0.0911676 -0.23039 0.259183 0 -0.200778 -0.979637
-0.156092 0.219508 0.0149861 0 0 1
0.110188 0.247196 0.444814 0 0.7686 -0.639729
0.0858335 0.120641 0.222466 0 -0.661394 0.750039
-0.197745 0.130226 0.391713 0 -0.0614261 0.998112
-0.206209 -0.203575 0.159062 0 0.997475 0.0710224
0.118308 0.303093 0.55657 0 0.940203 -0.340615
0.0786286 0.326517 0.588035 0 0.984966 -0.172747
0.0579682 0.142915 0.307958 0 0.98847 -0.151416
0.0310059 0.0950307 0.194966 0 0.0212615 -0.999774
-0.176565 -0.0794406 0.243543 0 -0.200788 -0.979635
0.169175 0.305853 0.564189 0 -0.940203 0.340615
-0.0357965 0.095713 0.24118 0 -0.365301 0.930889
0.0957173 0.222613 0.415278 0 0.7686 -0.639729
-0.164445 -0.141359 0.256234 0 0.200788 0.979635
-0.179827 0.275704 0.51359 -1 0 0
-0.156034 0.149897 0.336572 0 -0.947429 0.319966
0.15333 -0.125468 0.283568 0 0.200784 0.979635
-0.128773 0.0145635 0.224276 0 -0.200788 -0.979635
0.173616 0.141182 0.376957 0.608665 -0.696301 0.380384
-0.165724 -0.0466279 0.236818 0 0.200788 0.979635
-0.164625 0.152933 0.401081 -0.130423 -0.773463 0.620277
-0.0748108 0.122973 0.350525 0 -0.947459 0.319878
-0.0162639 -0.170807 0.26227 0 -0.200788 -0.979635
-0.21508 -0.210888 0.261778 0 0.997475 0.0710224
0.175287 -0.0672868 0.225755 0 -0.200778 -0.979637
0.0271027 0.233805 0.452143 0 0.768601 -0.639729
-0.207286 -0.0733676 0 0 0 -1
-0.194924 -0.167153 0.357597 0 0.245355 -0.969433
-0.160131 0.298185 0.510518 0 0.867084 -0.498163
0.0267477 0.113278 0.216729 0 -0.520614 0.853792
-0.124865 0.216459 0.47816 0 -0.76863 0.639694
-0.13206 -0.284611 0.271212 0 -0.97968 0.200565
-0.179827 0.310431 0.597069 -1 0 0
-0.0654974 0.210447 0.42408 0 0.768601 -0.639729
0.179825 -0.0582367 0.250677 0.991411 0.0262614 0.128118
0.212795 0.071543 0.373086 0 0.0613677 -0.998115
0.192786 -0.201128 0.124691 0 0.997475 0.0710224
-0.162951 0.058253 0.200026 0 -0.200778 -0.979637
0.0896215 0.162433 0.413246 0 -0.76863 0.639694
0.0728129 -0.260431 0.280639 0 -0.200788 -0.979635
0.170097 0.208714 0.421997 0 -0.768601 0.639729
-0.0673911 -0.104623 0.279296 0 0.200784 0.979635
0.0508636 0.0476968 0.202189 0 -0.200778 -0.979637
0.0184828 0.142915 0.307957 0 -0.98847 0.151416
0.141636 0.221564 0.414019 0 0.7686 -0.639729
-0.120364 -0.030058 0.264013 0 0.200784 0.979635
0.169819 -0.0921527 0.230851 0 -0.200778 -0.979637
-0.0814882 0.147529 0.32956 0 -0.947429 0.319966
0.197777 0.215911 0.407224 0 0.768482 -0.639871
-0.0942789 0.221918 0.48472 0 -0.76863 0.639694
0.101853 -0.160332 0.260123 0 -0.200788 -0.979635
0.051426 0.152708 0.272953 0 0.988473 -0.1514
0.207025 -0.141272 0 0 0 -1
-0.134294 0.148409 0.244877 0 0.98872 -0.149776
0.0449763 0.202648 0 0 0 -1
-0.0939463 0.00120199 0.211718 0 -0.200778 -0.979637
0.00542638 0.320699 0.561165 0 0.940112 -0.340867
-0.207961 -0.156634 0.0152113 0 0.175095 0.984551
-0.193571 -0.212682 0.28697 0 0.997475 0.0710224
0.0944815 0.069162 0.19779 0 -0.200778 -0.979637
0.0727014 -0.241592 0.307369 0 0.200784 0.979635
0.0426444 0.0813907 0.241171 0 0.200784 0.979635
-0.0116467 0.102234 0.247214 0 -0.878462 0.477813
0.106333 0.115725 0.200735 0 0.364363 -0.931257
0.224785 0.0141186 0.0144315 1 0 0
0.207669 -0.16131 0.0160429 0 0.175095 0.984551
0.217116 0.220044 0.0149861 0 0 1
-0.0711745 0.131077 0.238024 0 -0.947238 0.32053
0.0223379 0.00645548 0.210642 0 -0.200778 -0.979637
-0.0555685 -0.112048 0.234929 0 -0.200778 -0.979637
0.157503 0.229493 0.493822 0 -0.76863 0.639694
-0.181528 -0.0130984 0.367882 0 0.0613677 -0.998115
-0.0369152 0.214826 0.0149861 0 0 1
0.0126632 0.194799 0.405279 0 -0.768601 0.639729
0.179757 0.176131 0.357451 0 0.87757 -0.479449
-0.196108 0.218889 0.410802 0 0.768658 -0.63966
0.146245 0.0871631 0.240039 0 0.160226 0.98708
-0.208125 -0.190445 0.346586 0 0.562627 -0.826711
0.0236707 -0.168003 0.292286 0 0.200784 0.979635
-0.169954 -0.018475 0.215751 0 -0.200778 -0.979637
0.0248759 0.329637 0.626278 0 1 0
-0.0869042 -0.268591 0.267013 0 -0.200778 -0.979637
-0.194017 -0.00640354 0.0149861 0 0 1
0.222266 -0.00810701 0.3832 0 -0.0614261 0.998112
-0.026312 0.287592 0.493307 0 0.767527 -0.641016
0.037942 0.13161 0.239598 0 0.947238 -0.32053
0.216691 0.142773 0.0149861 0 0 1
-0.0199845 0.235351 0 0 0 -1
0.223112 0.120498 0.376096 0 0.0613677 -0.998115
0.0420132 0.224765 0.417864 0 0.7686 -0.639729
0.161581 0.103648 0.250271 0.129172 -0.93869 0.31965
0.174496 -0.102463 0.248262 0 -0.200788 -0.979635
0.0812288 -0.233201 0.275058 0 0.200788 0.979635
-0.208344 0.00759406 0.384166 0 -0.0614261 0.998112
0.156958 0.256381 0.455849 0 0.7686 -0.639729
0.0355418 0.256728 0.456266 0 0.7686 -0.639729
0.143996 0.164278 0.367011 0 -0.877667 0.479272
0.0846895 0.19222 0.378763 0 0.7686 -0.639729
0.0273329 0.293728 0.669145 0 -0.865852 0.5003
-0.214204 0.233886 0.428824 0 0.768658 -0.63966
-0.00344646 -0.249333 0.278365 0 -0.200788 -0.979635
-0.179827 0.123909 0.227866 -1 0 0
-0.161117 0.194132 0.404478 0 -0.768601 0.639729
0.201957 -0.228153 0.305239 0 -0.994898 0.100884
-0.0893422 0.200813 0.412505 0 -0.768601 0.639729
0.117988 0.284679 0.63438 0 -1 0
0.211532 0.113074 0.390657 0 -0.0614261 0.998112
-0.177488 0.329637 0.609016 0 1 0
-0.0497235 -0.141676 0.256299 0 -0.200788 -0.979635
0.0836722 0.292143 0.500001 0 0.867084 -0.498163
0.121568 0.314651 0.668354 0 1 0
0.0174952 0.309759 0.530992 0 0.940112 -0.340867
-0.114543 0.18581 0.394479 0 -0.768601 0.639729
-0.14789 -0.214513 0.271228 0 0.200788 0.979635
0.126784 0.0632817 0.198995 0 -0.200778 -0.979637
0.0381091 -0.262191 0.281 0 0.200788 0.979635
0.0961241 0.0638452 0.244767 0 0.200784 0.979635
-0.146783 0.0441699 0.202912 0 -0.200778 -0.979637
-0.0844153 -0.0473092 0.236957 0 -0.200788 -0.979635
-0.125246 0.192175 0 0 0 -1
-0.0316264 0.160696 0.360452 0 -0.877667 0.479272
