-0.214834 0.193717 0.714241 -0.979963 0.0931194 -0.17607
0.0660413 0.199367 0.3548 0.0590301 0.989224 -0.133981
-0.209995 0.00536967 0.487623 -0.965288 -0.251217 -0.0714737
-0.152607 -0.00683851 0.311767 0 0 -1
-0.0974298 -0.0118526 0.0908623 -0.0953445 -0.0314684 0.994947
0.036162 0.0538397 0.311767 0 0 -1
0.0176285 0.00737286 0.324851 0 0 1
0.143259 0.121546 0.324851 0 0 1
0.0871108 0.064555 0.324851 0 0 1
-0.0263115 0.153527 0.266786 0.067279 -0.964092 -0.256905
0.172043 -0.125878 0.351008 0 0 1
0.209155 0.144315 0.620743 0.262835 -0.96447 -0.0267644
-0.0740404 -0.163214 0.0599438 -0.000570559 0.0935914 -0.995611
0.17555 0.236298 0.686784 0.103891 0.984832 -0.138968
-0.11641 0.199953 0.427238 -0.144373 0.980558 -0.1329
-0.00333074 0.0357464 0.324851 0 0 -1
0.113047 0.25411 0.780764 0.0831016 0.996526 -0.00543219
-0.241858 0.0536825 0.00140407 0.0930261 0.000576591 -0.995664
0.14404 -0.000852573 0.0617179 -0.0574074 0.0181718 -0.998185
-0.150236 -0.203109 0.350271 -0.214729 -0.175734 0.960734
-0.118024 0.159565 0.56135 0.389261 -0.914582 0.109618
0.0312847 0.148527 0.338976 -0.00412554 -0.990919 0.134399
-0.0684838 0.220931 0.789297 -0.000518329 0.0812645 0.996692
0.0183579 -0.0445929 0.337935 0 0 1
0.182439 0.174858 0.784804 -0.497751 -0.867093 0.0198406
0.095059 0.0315043 0.337935 0 0 1
-0.01 0.218504 0.789525 -0.000519668 0.0812907 0.99669
0.247116 0.0319983 0.0428094 -0.669254 -0.003803 -0.743024
-0.156896 -0.256542 0.000484271 0.0929752 0.000602032 -0.995668
-0.119982 0.169544 0.681804 0.117366 -0.989007 0.0899449
0.00385569 0.0779136 0.351008 0 0 1
-0.137235 0.133237 0.392033 -0.274702 -0.952842 0.12896
-0.0303671 0.239743 0.0254376 -0.995165 -0.00643563 -0.0980094
0.0748783 0.0619071 0.295051 0.00427845 -0.689842 -0.723948
0.0426814 -0.0283027 0.222975 0.921937 0.387341 0
-0.0118222 -0.00452226 0.337935 0 0 1
0.20486 0.0568334 0.324851 0 0 1
0.204634 0.0394786 0.08175 0.104975 0.145785 0.983731
-0.0482618 0.0440313 0.337935 0 0 -1
0.0696167 0.166033 0.513668 -0.0584804 -0.996923 0.0522043
-0.140698 -0.0868876 0.324851 0 0 1
0.0767478 0.175169 0.661366 -0.0336195 -0.996433 0.0773982
-0.152403 0.222224 0.786595 -0.182188 0.100198 0.978145
-0.0429766 0.195239 0.333664 -0.0706172 0.988453 -0.134066
0.0918494 -0.228869 0.337935 0 0 -1
-0.0876104 0.138254 0.283909 0.459281 -0.878633 0.130636
0.191657 -0.152843 0.351008 0 0 1
0.15471 0.040089 0.351008 0 0 1
-0.0393586 0.124071 0.324851 0 0 1
0.207308 0.0319661 0.517153 -0.761256 -0.00472574 -0.648435
0.139447 -0.253741 0.0471509 0 0 1
-0.0475528 0.228349 0.577141 -0.0706864 0.988136 -0.13635
0.0910871 -0.0150779 0.351008 0 0 1
0.15147 0.0060486 0.311767 0 0 -1
0.0480957 0.17148 0.5971 -0.0336092 -0.997362 0.0643454
0.204014 0.170081 0.51971 0.93475 -0.241829 -0.26031
0.0328804 0.154868 0.385781 -0.00412554 -0.990919 0.134399
0.0386519 -0.185966 0.351008 0 0 1
-0.0872484 0.102294 0.351008 0 0 1
0.187175 0.225154 0.621001 0.132657 0.980715 -0.143528
0.0833925 0.189279 0.290718 0.083044 0.984062 -0.157246
0.0750415 0.206317 0.41006 0.0586407 0.989238 -0.134052
-0.139517 0.228518 0.64227 -0.143871 0.979159 -0.143351
-0.119749 0.0574987 0.324851 0 0 -1
-0.0455962 0.14458 0.328004 0.0705932 -0.988455 0.134066
0.0165123 -0.173205 0.324851 0 0 1
0.0334334 -0.0184249 0.311767 0 0 -1
0.112517 -0.128688 0.337935 0 0 1
-0.039477 -0.11021 0.0932849 0.000611071 -0.100237 0.994963
0.149909 0.217839 0.538997 0.103454 0.98429 -0.143072
0.113251 -0.0213131 0.324851 0 0 1
-0.00300963 -0.0417376 0.311767 0 0 1
-0.145865 0.183622 0.399494 -0.878813 0.472749 -0.0647834
-0.0093789 -0.104891 0.311767 0 0 -1
0.0250523 0.192592 0.768758 -0.00340804 -0.9384 0.345534
0.0149282 0.226502 0.547441 -0.0211396 0.990694 -0.134454
0.0253905 -0.0533281 0.104121 0.389659 -0.920959 0
0.186745 -0.120913 0.324851 0 0 -1
0.000821504 0.167327 0.523746 0.015574 -0.998673 0.049094
0.0598317 -0.0474786 0.0883745 0.998266 -0.0588578 0
-0.0345433 -0.034996 0.0673284 -0.451349 -0.892348 0
0.144255 0.138803 0.367339 -0.497925 -0.859418 0.116065
-0.170253 0.184012 0.519737 -0.95536 0.0826911 -0.283634
0.0727014 0.228785 0.78873 -0.000518329 0.0812645 0.996692
0.155135 -0.222399 0.0416171 0.625166 0.00387495 0.780482
-0.000602206 0.19982 0.0527801 -0.999905 0.0125185 0.00574235
0.202638 -0.0622937 0.324851 0 0 -1
-0.0232679 0.251331 0.737329 -0.0412906 0.990401 -0.131911
0.101112 0.238118 0.6517 0.0588769 0.988943 -0.136105
0.0473594 -0.0831325 0.337935 0 0 1
0.118424 0.150614 0.391477 -0.10574 -0.985391 0.133505
0.0597949 -0.236994 0.324851 0 0 -1
-0.116342 0.0651455 0.306385 0.00219502 -0.36111 0.932521
-0.0353122 0.20421 0.395769 -0.0706175 0.988453 -0.134066
-0.00184056 0.211733 0.441083 -0.0211256 0.990713 -0.13432
0.0958483 0.179362 0.723274 -0.0589993 -0.994487 0.0866913
-0.0558608 0.0753297 0.324851 0 0 -1
-0.181353 0.219461 0.633432 -0.497653 0.846291 -0.190085
-0.181433 -0.223329 0.0192289 -0.996868 -0.00596981 0.0788565
-0.0854834 0.182175 0.277512 -0.143933 0.967119 -0.209676
0.0515635 -0.0273906 0.337935 0 0 1
0.061129 -0.145008 0.337935 0 0 1
0.16931 0.0814139 0.295131 -0.00221317 0.360427 -0.932785
-0.171391 -0.144648 0.344952 -0.832846 -0.00515685 0.55348
0.0796769 0.247908 0.713977 0.0289023 0.990457 -0.13476
0.171027 0.102316 0.324851 0 0 1
-0.158009 0.169585 0.471815 -0.962287 0.0861951 -0.258021
-0.0629171 0.214826 0.488108 -0.0948559 0.985712 -0.139189
0.0659927 -0.00259316 0.324851 0 0 1
-0.000229764 0.226257 0.030365 -0.926446 0.376429 0
-0.0734063 -0.0119172 0.311767 0 0 -1
0.154649 -0.20246 0.324851 0 0 -1
-0.103316 -0.0855847 0.324851 0 0 -1
-0.0973999 0.0178232 0.324851 0 0 1
0.208616 0.0141209 0.335052 0.999981 0.00619101 0
0.249821 0.0406551 0.504478 0.197221 0.00121051 -0.980358
0.235797 0.0451298 0.353682 -0.539001 -0.80899 -0.23455
-0.18037 0.154173 0.748727 0.45897 -0.881359 0.112038
-0.0896959 0.112287 0.324851 0 0 1
0.102727 0.142663 0.321781 -0.083718 -0.987465 0.133804
0.159752 -0.0446786 0.351008 0 0 1
0.0538418 -0.000379638 0.0961966 0.0552936 0.0766902 0.995521
0.14783 0.104082 0.337935 0 0 -1
-0.0120206 -0.0158974 0.0653764 0 0 -1
0.130679 0.0504528 0.324851 0 0 1
-0.190031 0.2044 0.612252 -0.859273 0.447712 -0.247397
-0.0794261 0.158112 0.451831 0.118471 -0.990703 0.0668728
0.090024 0.1462 0.339942 -0.0835832 -0.98748 0.133782
0.0242286 0.0405162 0.337935 0 0 -1
-0.0621495 -0.211211 0.324851 0 0 -1
-0.046425 -0.121282 0.324851 0 0 1
0.141809 -0.0770169 0.324851 0 0 -1
-0.0470216 -0.099057 0.337935 0 0 -1
-0.142161 0.0324356 0.324851 0 0 -1
0.213782 0.237889 0.73319 0.132105 0.980993 -0.142133
0.159247 0.167586 0.647735 -0.106078 -0.99087 0.0832128
0.180586 0.17036 0.313047 0.86874 0.490861 -0.0659267
0.0965399 0.0877195 0.324851 0 0 1
0.137587 -0.0291954 0.351008 0 0 1
0.131934 0.0797575 0.351008 0 0 1
0.0550922 0.173139 0.625823 -0.0336195 -0.996433 0.0773982
-0.0586903 0.0907919 0.311767 0 0 -1
0.138459 -0.217956 0.337935 0 0 1
-0.124757 -0.0476414 0.324851 0 0 1
-0.00226463 0.0658477 0.0781732 -0.999924 0.0123544 0
0.130114 0.244905 0.716463 0.0830522 0.986994 -0.137645
-0.0257339 -0.00954709 0.0965077 -0.0536327 0.0747852 0.995756
-0.0808802 -0.0744421 0.311767 0 0 -1
-0.0458236 0.165203 0.522185 0.0714874 -0.996089 0.0519275
-0.145531 -0.114236 0.337935 0 0 1
0.0818847 -0.105755 0.0633798 -0.0574167 0.0182177 -0.998184
-0.00388184 0.192152 0.296935 -0.0211911 0.990793 -0.133715
0.0039799 0.174788 0.644494 0.0162521 -0.996917 0.076767
-0.156456 0.158231 0.687485 0.459191 -0.88001 0.121351
0.0199426 0.133325 0.0597227 -0.0546928 -0.0760738 -0.995601
-0.119928 0.0254919 0.337935 0 0 -1
0.139783 -0.167716 0.0719008 0.817102 0.576493 0
0.270264 0.0377624 0.0402132 0.389854 -0.920876 0
-0.133024 0.100913 0.324851 0 0 -1
0.109605 0.12651 0.331096 -0.00615253 0.999981 0
0.00930004 -0.00120501 0.351008 0 0 1
0.0445101 -0.0621503 0.324851 0 0 1
0.00927883 -0.207924 0.324851 0 0 1
0.00838749 0.171521 0.311596 -0.000506738 0.0810583 0.996709
0.0884258 -0.000668019 0.311767 0 0 -1
-0.181997 -0.0629557 0.528554 0.197548 0.00118358 0.980292
0.0210274 -0.0309171 0.324851 0 0 1
0.0147634 -0.055493 0.125207 -0.377925 -0.925836 0
0.0494016 0.197477 0.336668 0.0289124 0.990524 -0.13426
-0.168029 0.0104893 0.0798578 -0.320994 -0.947058 -0.00659362
0.128657 -0.178942 0.351008 0 0 1
-0.166414 -0.111391 0.350556 -0.285581 -0.0017562 0.958353
-0.0668225 0.223102 0.549266 -0.0706823 0.988026 -0.137142
0.196043 -0.091507 0.337935 0 0 1
0.123161 -0.0993096 0.311767 0 0 -1
0.195082 0.182392 0.490104 0.957425 0.0980025 -0.271539
0.00771872 0.245755 0.0293021 -0.00613362 0.999981 -3.9168e-05
0.20892 0.00586487 0.51545 -0.761256 -0.00472574 -0.648435
-0.00389484 -0.0187169 0.154559 -0.926589 0.376076 0
0.0652278 0.0608643 0.324851 0 0 -1
0.131103 -0.239311 0.326175 0.104065 -0.99457 0
0.171558 -0.157553 0.324851 0 0 1
0.0482038 0.00941646 0.351008 0 0 1
-0.133002 -0.151041 0.337935 0 0 -1
0.160373 0.2341 0.660023 0.103098 0.984781 -0.139916
0.250835 0.197672 0.74184 0.000509117 -0.0814075 -0.996681
-0.102304 0.0706057 0.337935 0 0 -1
-0.100921 -0.169786 0.337935 0 0 1
0.243271 0.00779458 0.486309 0.548008 -0.802891 -0.234634
-0.0606901 0.167612 0.582747 0.0704375 -0.99532 0.0661575
-0.141959 -0.00368757 0.337935 0 0 1
0.148419 -0.217211 0.025882 -0.00630804 0.99998 -0.000621332
0.23441 0.0255658 0.424361 -0.540396 -0.808151 -0.234232
-0.201786 0.165942 0.658124 -0.953535 -0.248945 -0.169697
0.139394 -0.128659 0.324851 0 0 -1
0.179728 -0.177931 0.351008 0 0 1
0.196282 -0.108882 0.311767 0 0 -1
-0.0920919 0.207558 0.458349 -0.115483 0.983046 -0.14242
-0.160606 -0.111337 0.311767 0 0 -1
-0.0867702 -0.0433543 0.337935 0 0 1
0.039249 -0.0136007 0.0653764 0 0 -1
-0.0307793 0.00023286 0.337935 0 0 -1
-0.204923 0.196916 0.662611 -0.975368 0.0905847 -0.201126
0.107753 0.229595 0.593469 0.0828009 0.986781 -0.139311
0.0772135 0.235822 0.624672 0.0589486 0.988944 -0.136069
-0.122993 -0.204386 0.324851 0 0 1
-0.148936 0.093827 0.347685 -0.647585 0.52328 0.553907
-0.0341667 -0.165293 0.324851 0 0 1
-0.0591179 0.0127958 0.063631 0.0357395 -0.0483751 -0.99819
0.0571228 0.228366 0.56563 0.0289814 0.990411 -0.135075
-0.126297 0.105063 0.351008 0 0 1
0.205433 0.223927 0.783161 0.162958 0.100307 0.981521
-0.0323765 0.190837 0.296783 -0.0707933 0.9868 -0.145652
-0.124192 0.22331 0.789074 -0.000518329 0.0812645 0.996692
0.16708 -0.0197045 0.324851 0 0 1
0.145991 0.134321 0.286631 0.543546 -0.480868 -0.687985
0.0377062 -0.15605 0.324851 0 0 -1
0.09754 -0.21063 0.337935 0 0 1
-0.0977166 -0.20306 0.0560045 -0.000599035 0.119501 -0.992834
-0.192458 0.166636 0.765241 -0.616472 -0.432184 0.658164
0.0218458 -0.109424 0.337935 0 0 1
-0.0766477 0.093241 0.324851 0 0 1
0.0378505 -0.0168042 0.113899 0.921937 0.387341 0
-0.147572 0.146502 0.414705 -0.786039 -0.612657 0.0824272
0.0958901 -0.130083 0.324851 0 0 1
0.0749399 -0.167796 0.324851 0 0 -1
0.0886631 -0.0321679 0.311767 0 0 -1
0.0923422 0.0071132 0.337935 0 0 1
0.168168 -0.0901519 0.311767 0 0 -1
0.0434659 0.149605 0.287458 -0.0326639 -0.984229 -0.173857
-0.162135 0.148954 0.641715 0.458674 -0.880241 0.121631
0.181473 -0.0358477 0.324851 0 0 -1
-0.0752534 0.0498934 0.351008 0 0 1
0.210055 -0.0415438 0.514463 -0.761256 -0.00472575 -0.648435
0.226672 0.156243 0.638982 0.777729 -0.618599 -0.111682
-0.101433 0.22552 0.590019 -0.0959525 0.985654 -0.138853
0.107506 0.160406 0.463475 -0.0836593 -0.994469 0.0635002
0.193307 0.083412 0.300849 0.231982 0.913413 -0.334458
-0.0251751 -0.0792106 0.311767 0 0 -1
-0.0623231 0.176714 0.70302 0.0712483 -0.9937 0.0865049
-0.0738799 0.216942 0.510568 -0.0948566 0.985728 -0.139074
0.160364 -0.125726 0.324851 0 0 1
-0.10259 -0.198906 0.337935 0 0 1
-0.0138467 0.12517 0.320476 -0.00609987 0.991318 -0.131343
0.13326 0.22961 0.608834 0.0834797 0.98678 -0.138911
0.0338763 0.111589 0.324851 0 0 -1
-0.024063 -0.0288566 0.337935 0 0 1
-0.0834863 -0.21108 0.324851 0 0 1
-0.1048 -0.116029 0.337935 0 0 1
0.0113771 -0.0758021 0.324851 0 0 1
-0.158565 0.241485 0.757589 -0.145073 0.985148 -0.0918522
0.0410016 0.0415433 0.324851 0 0 -1
0.128901 0.0369493 0.311767 0 0 -1
0.103729 -0.0467607 0.351008 0 0 1
-0.0559161 -0.073256 0.324851 0 0 1
-0.135537 -0.026789 0.351008 0 0 1
0.0269921 -0.0526504 0.201547 0.389659 -0.920959 0
-0.093597 -0.137468 0.337935 0 0 -1
0.0402013 0.184972 0.748227 -0.00364553 -0.938322 0.345742
0.175047 0.0424519 0.337935 0 0 -1
-0.152848 0.0422513 0.0792906 0.285852 0.958268 0.0033633
-0.00730181 0.181764 0.731488 0.0157094 -0.996277 0.0847622
0.226079 0.149836 0.725988 0.262658 -0.964683 0.0199399
-0.138493 0.178115 0.769675 0.389062 -0.906548 0.163712
0.136171 0.24156 0.787722 -0.000502798 0.0812044 0.996697
0.120912 0.105191 0.324851 0 0 1
0.0493151 0.0771442 0.337935 0 0 1
0.113982 -0.167708 0.337935 0 0 1
0.0917106 0.146501 0.288878 -0.0812597 -0.984548 -0.155122
-0.0415496 -0.10369 0.311767 0 0 -1
-0.0832371 -0.0940921 0.324851 0 0 1
0.00572753 0.153255 0.0838277 -0.106554 0.144427 0.983762
0.0568668 0.15979 0.426493 -0.0334213 -0.990377 0.1343
0.000224892 -0.0691429 0.0968713 0.000554913 -0.0934495 0.995624
0.208762 -0.00954315 0.328474 -0.999981 -0.00619101 0
-0.183482 -0.0321402 0.528816 0.197548 0.00118358 0.980292
-0.119056 -0.00540274 0.337935 0 0 -1
-0.00228406 -0.0919044 0.0779065 0.802593 -0.596527 0
0.102721 0.0612956 0.337935 0 0 1
0.0360821 0.0578323 0.0666335 0.999696 0.0246575 0
-0.22436 0.0522666 0.0255869 0.996818 0.00686433 0.079415
-0.041411 0.170055 0.599501 0.0459276 -0.996856 0.0645742
-0.201911 0.216278 0.76054 -0.76285 0.452722 0.46163
-0.0776087 -0.221909 0.311767 0 0 -1
0.215048 0.145851 0.661687 0.263498 -0.964659 0.00124302
-0.0440558 -0.100127 0.0636225 0.0572033 0.0189335 -0.998183
-0.172031 0.144307 0.575273 -0.271931 -0.961148 -0.0474055
0.178429 -0.0626705 0.311767 0 0 -1
-0.0866623 -0.180438 0.311767 0 0 -1
-0.0067691 0.205484 0.395773 -0.0211901 0.99071 -0.134331
0.232844 0.182277 0.629346 0.973602 0.105663 -0.202323
0.136771 -0.160973 0.311767 0 0 -1
-0.0467255 0.233598 0.614664 -0.0711642 0.98805 -0.13672
-0.118669 -0.230631 0.04576 0.922028 0.387124 0
-0.149251 0.220037 0.594567 -0.143913 0.978837 -0.14549
-0.192906 0.0514237 0.318251 0.553859 -0.832589 -0.00595556
0.081169 0.0795196 0.294608 -0.00221317 0.360427 -0.932785
-0.147218 0.13549 0.336231 -0.786039 -0.612657 0.0824272
0.183803 0.149157 0.354465 0.973512 -0.226452 0.0315305
-0.0595004 -0.128712 0.0907924 -0.0953994 -0.0315758 0.994938
-0.11514 0.0309858 0.0689717 0.286239 0.958158 0
0.119604 -0.145414 0.351008 0 0 1
0.208797 -0.13019 0.319773 0.832068 0.00510458 -0.554651
0.120987 0.223706 0.559662 0.0827992 0.986731 -0.139667
0.173673 0.245347 0.752794 0.103187 0.988681 -0.108911
0.0746919 -0.228064 0.324851 0 0 -1
0.128957 0.214669 0.502036 0.103287 0.984384 -0.142548
-0.0580916 -0.159082 0.324851 0 0 1
-0.00215513 -0.201 0.311767 0 0 -1
0.018233 0.239864 0.0590038 0.563682 0.786201 0.253278
-0.197927 0.0194887 0.488996 0.96478 0.253034 0.0719232
0.166346 0.0172026 0.351008 0 0 1
-0.0326965 0.0335238 0.324851 0 0 -1
-0.104543 0.113619 0.337935 0 0 -1
-0.0560817 -0.177964 0.351008 0 0 1
0.107656 0.206336 0.428235 0.0831233 0.987516 -0.133804
0.130669 -0.202845 0.337935 0 0 -1
-0.132947 0.14938 0.535078 0.458901 -0.879985 0.12262
0.011019 0.21985 0.498961 -0.0207897 0.99068 -0.134612
-0.00789431 0.188443 0.271143 -0.0414321 0.98947 -0.138679
-0.202193 0.022633 0.53252 0.197463 0.00119689 0.98031
0.253489 0.051606 0.0490002 0 0 1
0.22898 0.186703 0.742725 0.000537641 -0.0817251 -0.996655
0.141766 0.148474 0.428271 -0.497925 -0.859418 0.116065
-0.141016 -0.221475 0.336792 -0.63078 -0.775962 0
-0.0935435 0.164585 0.581408 0.0966016 -0.992976 0.0683153
0.0198972 0.0972379 0.324851 0 0 1
-0.100119 0.249346 0.786968 -0.000509357 0.0835726 0.996502
-0.122144 0.124283 0.30603 -0.228561 -0.84157 -0.489408
-0.00856266 0.0125173 0.324851 0 0 1
-0.174005 0.0245965 0.341225 -0.991342 -0.00613823 0.131162
-0.15818 -0.0603019 0.337935 0 0 -1
-0.0348034 0.0864995 0.337935 0 0 -1
-0.135329 0.209154 0.740712 0.00048702 -0.0809763 -0.996716
-0.0305775 -0.0496529 0.337935 0 0 -1
0.0787855 0.17303 0.635141 -0.0582977 -0.995194 0.0786731
0.20494 -0.00485118 0.347638 0.831706 0.00510236 0.555192
-0.0998388 -0.0212608 0.324851 0 0 1
-0.0666121 0.16453 0.538028 0.0958163 -0.99384 0.0556973
-0.117505 -0.10419 0.324851 0 0 1
-0.043642 0.213637 0.469069 -0.0710841 0.987948 -0.137501
-0.156098 0.048308 0.351008 0 0 1
0.0241634 -0.168945 0.311767 0 0 -1
0.264258 0.00273237 0.524825 0.760941 0.00467097 0.648805
0.068792 0.207 0.787463 -0.0310059 -0.450902 0.892035
-0.132595 -0.176752 0.337935 0 0 -1
-0.0637421 0.20016 0.382487 -0.0956957 0.986376 -0.133806
-0.11223 0.050022 0.351008 0 0 1
-0.141714 0.0791888 0.311767 0 0 -1
-0.12729 0.209974 0.506283 -0.144434 0.978483 -0.147344
-0.0135442 0.225372 0.54374 -0.0407212 0.990049 -0.134699
0.207761 -0.166165 0.320284 0.987209 -0.090895 -0.13098
0.0272766 0.249876 0.720473 0.0084195 0.990881 -0.134473
-0.0682701 -0.165924 0.337935 0 0 -1
0.156445 0.0335476 0.0598437 -0.0547331 -0.0760628 -0.9956
0.00953107 0.0433585 0.311767 0 0 -1
-0.0739798 -0.142917 0.351008 0 0 1
0.237544 0.164779 0.674753 0.956033 -0.238513 -0.170622
-0.159648 0.0246282 0.311767 0 0 -1
-0.0984281 0.0770243 0.29407 -0.00218612 0.359613 -0.933099
0.179055 -0.236461 0.02977 0 0 -1
-0.241557 0.0534141 0.0506906 -0.593251 0.804132 0.037757
0.106364 -0.000166729 0.324851 0 0 -1
0.027826 0.215655 0.030723 0.926744 -0.375693 0
0.148351 -0.0553193 0.311767 0 0 -1
-0.00497496 0.248461 0.71251 -0.020786 0.990704 -0.134436
-0.0874861 0.0379916 0.311767 0 0 -1
0.0429958 -0.210512 0.324851 0 0 -1
0.0990968 -0.148555 0.337935 0 0 1
0.0568242 0.238711 0.641467 0.0290134 0.990504 -0.13439
0.0567269 0.247775 0.737662 0.000481336 -0.0785006 -0.996914
-0.0494511 -0.135455 0.337935 0 0 1
-0.202714 0.0399962 0.0776013 -0.117929 0.159814 0.980078
-0.0272505 0.222032 0.00994932 -0.625478 -0.0040449 -0.780231
-0.0582035 -0.0371296 0.337935 0 0 1
0.00198135 0.0593717 0.324851 0 0 -1
-0.000353093 0.220463 0.0606853 -0.999923 0.0123551 0.00107846
0.101995 0.203003 0.400121 0.0831233 0.987516 -0.133804
0.193823 0.0422545 0.324851 0 0 1
0.0863664 0.0261215 0.311767 0 0 -1
0.179196 -0.0666282 0.337935 0 0 -1
0.0210032 -0.0729155 0.337935 0 0 -1
-0.00129763 -0.0892496 0.324851 0 0 1
-0.0873802 -0.109937 0.324851 0 0 1
0.0970678 -0.060568 0.337935 0 0 -1
0.217833 0.164053 0.577814 0.940627 -0.240948 -0.239093
-0.0721984 0.195479 0.353998 -0.0952004 0.986435 -0.133726
0.0725184 -0.210865 0.337935 0 0 1
0.00298101 0.23926 0.643355 -0.0204875 0.990765 -0.134032
-0.182952 0.219505 0.739843 0.000489417 -0.08144 -0.996678
-0.101371 -0.15233 0.324851 0 0 -1
-0.0756889 -0.0208861 0.0842634 -0.32168 -0.946849 0
0.127401 0.173455 0.681168 -0.0835975 -0.992592 0.0881621
0.03973 0.119926 0.350241 -0.00177145 0.287802 0.957688
0.052203 -0.110488 0.0905806 -0.795187 -0.606364 2.48809e-05
0.0465543 -0.018209 0.351008 0 0 1
-0.17614 0.0319513 0.0819248 -0.10676 0.144536 0.983723
-0.121419 -0.00534766 0.0831766 -0.322402 -0.946587 0.00542439
-0.0664484 0.125426 0.332236 -0.00615253 0.999981 0
0.122754 0.197177 0.371846 0.103613 0.985614 -0.133529
-0.0869053 0.174516 0.699653 0.095715 -0.991482 0.0883239
0.0806551 0.220318 0.514254 0.0588355 0.988823 -0.136991
0.207245 0.0615197 0.300876 0.207825 -0.673034 -0.709813
0.237891 0.203048 0.664465 0.973816 0.104613 -0.20184
-0.0777521 -0.107582 0.337935 0 0 -1
-0.0697148 -0.177567 0.324851 0 0 -1
0.157621 -0.234148 0.00330626 0.762958 0.00472862 -0.646431
0.228632 -0.0300947 0.504289 -0.197128 -0.00120994 -0.980377
0.134828 -0.203362 0.311767 0 0 -1
0.0191118 -0.222549 0.337935 0 0 1
0.119396 0.162734 0.518275 -0.0840978 -0.994916 0.0554114
0.175641 0.163422 0.664719 -0.378861 -0.918441 0.113709
0.0827116 0.17798 0.698481 -0.0589993 -0.994487 0.0866913
-0.171996 0.235553 0.778449 -0.530046 0.351741 0.771576
0.154906 0.226005 0.599235 0.10333 0.984515 -0.141611
-0.0813262 0.159565 0.477275 0.0955919 -0.993385 0.0636239
-0.0532727 -0.196042 0.337935 0 0 -1
-0.130151 0.0825973 0.324851 0 0 1
0.0722627 0.151412 0.273359 -0.0795077 -0.966499 -0.244046
0.0357726 -0.0489354 0.270485 0.389659 -0.920959 0
0.259476 -0.0592952 0.528887 0.197642 0.0012131 0.980274
0.000894282 0.019487 0.0649128 0.0239754 -0.0323714 -0.999188
0.0573426 0.145705 0.32269 -0.0330195 -0.9904 0.134232
-0.0740889 0.154876 0.422548 0.0952054 -0.986423 0.133812
0.179343 0.000871453 0.337935 0 0 -1
-0.0604351 0.197221 0.782497 0.0617731 -0.836029 0.545197
-0.0659389 -0.0606944 0.337935 0 0 1
0.137111 -0.147057 0.337935 0 0 1
0.139596 0.174643 0.70611 -0.0835975 -0.992592 0.0881621
0.085366 0.12636 0.327704 -0.00615253 0.999981 0
0.0501571 -0.0938096 0.324851 0 0 1
-0.0979344 0.222021 0.562916 -0.115374 0.983036 -0.142579
-0.0237186 0.145503 0.324642 0.0463651 -0.989876 0.134151
0.116742 0.0906354 0.337935 0 0 -1
0.109916 -0.150126 0.311767 0 0 -1
0.127539 -0.0136732 0.0726273 0.333318 -0.942815 0
0.0313402 0.168277 0.539165 -0.00312828 -0.998789 0.0490935
0.153419 -0.0195788 0.337935 0 0 -1
-0.0872009 0.239354 0.67879 -0.0957899 0.985868 -0.137433
-0.213341 -0.0258406 0.531142 -0.197642 -0.00119798 0.980274
0.183388 0.0505471 0.311767 0 0 -1
0.186422 0.198655 0.741727 0.000509117 -0.0814075 -0.996681
0.0402836 -0.0376302 0.0982463 0 0 -1
-0.0622748 0.202883 0.741257 0.00048702 -0.0809763 -0.996716
0.00405378 0.19424 0.773356 0.0138923 -0.829868 0.557787
-0.0866464 -0.241028 0.340384 -0.0919854 -0.986998 0.131807
0.20846 0.0392559 0.337143 0.999981 0.00619101 0
-0.207471 0.0281067 0.0501507 0.936202 0.309844 -0.165897
-0.0491101 0.0131862 0.324851 0 0 -1
-0.174172 -0.242161 0.0391991 -0.669155 -0.00400841 0.743112
-0.0953308 -0.187169 0.0834976 -0.17066 -0.0565588 0.983705
0.188245 0.087991 0.348244 0.641004 0.531133 0.554086
0.237053 0.0519362 0.0507696 -0.508449 -0.706163 -0.492761
-0.104238 -0.229067 0.0633161 0.802587 -0.596532 -0.00183613
0.18259 -0.162855 0.337935 0 0 -1
0.125491 -0.118517 0.351008 0 0 1
-0.171469 -0.0858439 0.337935 0 0 -1
-0.0483839 0.0979831 0.324851 0 0 1
0.0585369 -0.188137 0.324851 0 0 -1
0.213336 0.0636143 0.509845 -0.761256 -0.00472574 -0.648435
0.1233 0.121049 0.312924 0.0755344 0.829342 -0.553612
0.166378 0.145163 0.502468 -0.497505 -0.857376 0.131891
0.0764733 0.0521127 0.337935 0 0 -1
0.21267 0.0313515 0.0564852 -0.114584 0.0363942 -0.992747
-0.205158 0.039547 0.502321 -0.197043 -0.00119435 -0.980394
-0.106292 -0.13412 0.351008 0 0 1
-0.204511 0.0439949 0.430313 0.54032 0.808197 0.234248
-0.0776679 0.0694734 0.324851 0 0 -1
-0.236134 0.0689287 0.517951 -0.761288 -0.00467189 0.648397
0.0598046 0.242464 0.669743 0.0286307 0.990487 -0.134592
-0.0648125 -0.0883049 0.337935 0 0 1
0.116755 -0.17416 0.0853447 0.000803372 -0.139684 0.990196
0.0373157 -0.0155315 0.169147 0.921937 0.387341 0
-0.118586 0.166803 0.283191 -0.66016 0.303744 -0.686971
-0.221838 -0.038004 0.50577 -0.19722 -0.00122429 -0.980358
0.0906562 0.216861 0.493658 0.0588339 0.98875 -0.137522
-0.114418 -0.00767286 0.06125 0.0891941 0.0295153 -0.995577
-0.183394 0.187523 0.779196 -0.472247 -0.0450153 0.880316
-0.224575 0.0436249 0.528965 -0.197464 -0.0012258 0.980309
0.0494898 0.193428 0.771545 -0.0327859 -0.938893 0.342645
-0.215618 0.175471 0.731084 -0.958413 -0.247465 -0.142146
-0.0343053 0.18038 0.726544 0.0464398 -0.995262 0.0854206
-0.150961 0.163053 0.362264 -0.993949 0.108735 -0.0155311
0.0130503 -0.00600609 0.142612 -0.389848 0.920879 0
0.0802074 -0.0925416 0.337935 0 0 -1
0.160576 0.0866528 0.324851 0 0 1
0.0334454 0.176934 0.670724 -0.00411896 -0.99704 0.0767725
-0.147278 0.24456 0.777752 -0.144995 0.9886 -0.0405901
0.172375 -0.199995 0.324851 0 0 -1
0.243572 0.0462963 0.42039 0.537813 0.809747 0.234666
-0.108503 -0.0687806 0.337935 0 0 -1
0.258171 0.0336148 0.0696073 0.396319 -0.125564 0.909486
-0.127868 -0.142856 0.351008 0 0 1
-0.048839 0.0513884 0.324851 0 0 -1
0.101476 0.235727 0.78818 -0.000502798 0.0812044 0.996697
-0.201285 0.194069 0.766413 -0.75645 -0.134751 0.640021
-0.167659 -0.0503248 0.350297 -0.286501 -0.00175949 0.958078
-0.163745 0.00126133 0.337935 0 0 1
-0.122283 -0.119536 0.337935 0 0 -1
0.0367113 0.0323213 0.0915413 0.999696 0.0246575 0
0.0318778 -0.0838336 0.0787781 -0.795189 -0.606361 0
-0.163081 0.206135 0.536121 -0.495075 0.839088 -0.22546
-0.00902942 -0.0456916 0.337935 0 0 -1
0.12437 0.167851 0.263209 0.574539 0.00506419 -0.818462
0.121096 0.0313695 0.351008 0 0 1
0.0304699 0.146346 0.30693 -0.00382088 -0.983987 -0.1782
0.0717706 -0.0543765 0.337935 0 0 -1
0.21405 0.0297465 0.0290588 -0.762986 -0.00473039 0.646397
0.233765 0.0276404 0.484775 -0.549896 0.801709 0.234257
0.239356 0.0372641 0.376325 0.548008 -0.802891 -0.234634
-0.0878351 -0.144078 0.311767 0 0 -1
0.0323582 -0.19973 0.324851 0 0 -1
-0.198489 0.0488612 0.393207 0.96478 0.253034 0.0719232
-0.173876 -0.0666277 0.327462 0.999981 0.00618548 0
0.0357345 0.000740148 0.311767 0 0 -1
0.126893 0.140413 0.322884 -0.105657 -0.985401 0.133497
-0.221616 0.0611791 0.0490002 0 0 -1
-0.175118 0.15022 0.699997 0.458768 -0.880204 0.121547
0.079273 0.16049 0.440203 -0.0590564 -0.989213 0.134049
-0.0843099 0.211813 0.481484 -0.09571 0.985518 -0.139979
0.155939 0.175668 0.29084 0.654127 0.317623 -0.686464
0.217679 0.152289 0.7509 -0.498315 -0.863912 0.0730566
-0.19504 0.187759 0.742422 0.000508719 -0.0812929 -0.99669
0.0405387 -0.13422 0.324851 0 0 -1
0.208483 0.227336 0.656158 0.149133 0.977963 -0.146108
0.158721 0.18535 0.742797 0.000475778 -0.0800951 -0.996787
0.00640857 -0.169176 0.337935 0 0 -1
-0.070849 0.0184533 0.311767 0 0 -1
0.237262 0.0746046 0.532569 -0.18585 0.365091 0.912233
0.240487 0.163514 0.70059 0.780306 -0.619751 -0.0838535
-0.00540358 0.205988 0.0237875 0.00616825 -0.999981 -0.00058654
0.0809954 0.166652 0.538344 -0.0580124 -0.996973 0.0517623
-0.105204 0.14888 0.428983 0.388552 -0.913031 0.124107
0.0984954 0.223216 0.542826 0.0589601 0.988818 -0.136977
-0.260538 0.0382122 0.00299059 -0.6252 -0.00354484 -0.780457
0.0692047 -0.124123 0.0628065 -0.000376846 0.0601006 -0.998192
0.203732 0.151363 0.687062 -0.497329 -0.858435 0.125515
0.0292377 0.257228 0.774744 0.00956856 0.991108 -0.132715
0.00305167 -0.151844 0.324851 0 0 -1
0.0385107 0.218862 0.492397 0.00864341 0.990855 -0.134652
0.0305511 0.179476 0.700931 -0.00412461 -0.996362 0.0851256
-0.225785 -0.0030221 0.528662 -0.197464 -0.0012258 0.980309
-0.0250535 0.221879 0.521651 -0.0412621 0.989974 -0.135088
0.0399582 -0.039044 0.289961 0.926773 -0.375621 0
0.0117675 0.17055 0.580652 0.0159157 -0.997837 0.0637762
0.149807 0.0800577 0.337935 0 0 1
-0.08329 0.235525 0.648713 -0.0957857 0.985771 -0.138131
-0.15214 0.180793 0.453673 -0.962289 0.0863514 -0.257959
-0.200078 0.0140087 0.455206 0.548435 -0.8026 -0.234633
-0.0149799 0.0544444 0.324851 0 0 -1
0.183159 0.159271 0.446947 0.973475 -0.226604 0.0315696
0.127374 -0.080965 0.337935 0 0 -1
0.255195 -0.0692399 0.505651 0.185859 -0.364163 -0.912602
0.0624322 0.106068 0.324851 0 0 -1
0.0383256 -0.0475901 0.337935 0 0 -1
-0.0168771 0.152506 0.373956 0.0463651 -0.989876 0.134151
-0.239392 0.0400694 0.0357551 -0.922161 -0.386806 0
-0.00979144 0.25378 0.786651 -0.000486292 0.0805203 0.996753
-0.108392 0.142411 0.391492 0.459458 -0.880096 0.119704
0.100386 0.111485 0.337935 0 0 1
0.143577 0.158288 0.276632 0.574539 0.00506419 -0.818462
0.0622299 0.165169 0.493015 -0.0339386 -0.997893 0.0553011
0.00104264 0.14581 0.0581142 0.0556315 -0.0754052 -0.9956
-0.116151 0.190351 0.356142 -0.145156 0.980426 -0.133024
-0.112834 0.179007 0.310927 -0.000504848 0.0807559 0.996734
0.0314379 -0.0507694 0.222946 0.389659 -0.920959 0
0.0813653 0.170294 0.59867 -0.0586722 -0.996069 0.0663605
0.198814 -0.0494513 0.311767 0 0 -1
0.215525 -0.0710164 0.510291 -0.641778 -0.534647 -0.549795
0.177957 0.229269 0.640598 0.132657 0.980715 -0.143528
0.123837 -0.0390435 0.324851 0 0 -1
-0.000613871 0.198957 0.0750287 -0.999923 0.0123817 -5.95894e-05
-0.155429 0.043025 0.057573 0.286124 0.958176 -0.00557899
-0.119217 0.22895 0.62849 -0.115135 0.983458 -0.139836
0.00816388 0.178219 0.055808 0.0711416 -0.0964605 -0.992791
-0.14806 -0.166662 0.337935 0 0 -1
-0.146294 -0.124447 0.324851 0 0 1
0.0186728 0.186697 0.742618 0.000508719 -0.0812929 -0.99669
-0.183998 0.230562 0.701801 -0.163582 0.975892 -0.144488
0.102311 -0.186927 0.324851 0 0 -1
-0.0936843 0.245841 0.72981 -0.0960301 0.985826 -0.137568
0.158094 -0.239522 0.0445817 0.669159 0.00400842 0.743109
0.00717444 -0.0523952 0.19246 -0.377925 -0.925836 0
-0.00910445 -0.224265 0.311767 0 0 -1
0.258528 0.0478879 0.02977 0 0 -1
0.0799844 -0.129875 0.324851 0 0 -1
-0.00489822 -0.204555 0.351008 0 0 1
0.156065 -0.190791 0.0761664 0.817385 0.576076 0.00423208
0.246259 -0.00742483 0.531488 0.197642 0.0012131 0.980274
0.165203 0.208056 0.487321 0.132172 0.980154 -0.147747
-0.157297 0.0690298 0.295828 0.999984 0.005717 0.000209105
-0.0134741 -0.169442 0.337935 0 0 -1
0.14029 0.232629 0.73894 0.000500786 -0.0813452 -0.996686
0.215755 0.0622788 0.0313178 -0.762684 -0.00493855 0.646753
0.143128 -0.142829 0.311767 0 0 -1
-0.00853482 0.0727458 0.337935 0 0 1
-0.114919 -0.186117 0.0743607 -0.823798 0.566865 -0.00465262
0.0351539 -0.0976309 0.337935 0 0 -1
-0.0913328 0.14011 0.328175 0.118132 -0.983983 0.133502
0.164797 -0.000501018 0.0760565 0.333318 -0.942815 0
0.152535 0.205841 0.461192 0.132285 0.980265 -0.146905
-0.162975 0.161437 0.735395 0.458768 -0.880204 0.121547
0.209186 -0.0780349 0.332862 0.999981 0.00619101 0
-0.0892207 -0.189285 0.337935 0 0 -1
-0.109542 0.155949 0.500647 0.389574 -0.914494 0.10924
-0.0843453 0.0656336 0.306499 0.00219533 -0.361103 0.932523
0.00144522 0.166001 0.498129 0.0155742 -0.998401 0.0543435
-0.0280169 -0.121474 0.311767 0 0 -1
-0.142371 0.199401 0.463746 -0.494805 0.842486 -0.21304
-0.104074 0.0982661 0.324851 0 0 1
0.204164 0.218442 0.596962 0.468508 0.859617 -0.203862
-0.173652 -0.102898 0.327916 0.999981 0.00618548 0
0.170358 -0.174372 0.324851 0 0 -1
-0.00307625 -0.0440141 0.288552 -0.921826 -0.387604 0
-0.152848 0.239058 0.728125 -0.144923 0.979159 -0.142284
-0.0217426 0.212104 0.448966 -0.0409365 0.98993 -0.135508
-0.0537308 0.00160927 0.337935 0 0 1
0.115969 0.213361 0.483738 0.0836017 0.986612 -0.140025
0.0202336 0.215328 0.465136 0.00820398 0.990956 -0.133939
-0.119408 -0.186689 0.324851 0 0 1
-0.0343108 0.227271 0.739286 0.00050892 -0.0808266 -0.996728
-0.186381 0.221757 0.656817 -0.497653 0.846291 -0.190085
0.206392 -0.141093 0.337935 0 0 1
-0.150758 0.160613 0.332197 -0.993949 0.108735 -0.0155311
0.15185 0.075963 0.311767 0 0 -1
-0.132955 -0.252807 0.0519642 0.00651888 -0.999198 0.0395114
-0.0336181 -0.224436 0.337935 0 0 -1
0.0854976 -0.116291 0.311767 0 0 -1
0.206931 0.205565 0.557753 0.84637 0.460705 -0.267225
0.0383313 -0.0366409 0.351008 0 0 1
0.0124912 0.231392 0.583869 -0.0214978 0.990693 -0.13441
-0.138107 0.157777 0.300795 -0.683345 0.0161808 -0.729916
0.0346747 0.0303031 0.0645337 -0.0234686 -0.0326191 -0.999192
0.230683 0.220836 0.673544 0.858473 0.474189 -0.195368
-0.00920949 0.200312 0.358231 -0.0409401 0.990099 -0.134267
-0.0079983 -0.099638 0.337935 0 0 1
-0.0408458 -0.08498 0.324851 0 0 1
0.0296272 0.0231919 0.351008 0 0 1
0.170333 -0.00340889 0.311767 0 0 -1
-0.00350553 0.156152 0.397144 0.0157277 -0.990823 0.13425
-0.167416 -0.228236 0.00412933 -0.625471 -0.00405003 -0.780237
0.0338217 -0.0110183 0.295227 0.378195 0.925726 0
0.140875 0.120347 0.347373 0.236951 0.798043 0.554059
0.0838659 0.185438 0.753179 -0.0569154 -0.939557 0.337629
0.245671 0.204458 0.706868 0.978289 0.108336 -0.176672
0.136966 0.16615 0.598796 -0.10607 -0.991783 0.0715265
-0.120394 -0.234325 0.332647 -0.467882 -0.883791 0
0.00129445 0.125843 0.33495 0.00615253 -0.999981 0
-0.129676 -0.16214 0.324851 0 0 1
0.067563 0.12612 0.338919 -0.00609919 0.991311 0.131395
-0.0439983 0.225748 0.556562 -0.070683 0.988026 -0.137142
0.170973 0.187152 0.359129 0.472267 0.873516 -0.118038
0.0819676 0.0442127 0.324851 0 0 -1
0.0346233 0.116977 0.06734 0.999696 0.0246575 0
-0.0657457 -0.0122447 0.0639719 0.0382044 0.0126094 -0.99919
0.00922176 -0.112596 0.324851 0 0 -1
0.144259 0.192792 0.358254 0.132399 0.982228 -0.133038
-0.0782424 -0.00183958 0.337935 0 0 1
-0.11547 0.168332 0.661375 0.117375 -0.989599 0.0831637
0.0799282 -0.201779 0.351008 0 0 1
-0.0081804 0.15175 0.277122 0.0418669 -0.962557 -0.267827
0.166773 0.184206 0.320527 0.472267 0.873516 -0.118038
0.140356 0.155784 0.480424 -0.378254 -0.919162 0.109844
0.00520928 -0.184203 0.324851 0 0 -1
0.118432 0.23516 0.639515 0.083484 0.986923 -0.137891
0.230406 0.186297 0.769411 0.755777 -0.126345 0.642525
0.250544 0.064605 0.00532102 0.762984 0.00513273 -0.646397
0.169619 0.108811 0.337935 0 0 1
-0.0360314 0.0488626 0.351008 0 0 1
-0.080539 -0.224587 0.351008 0 0 1
-0.00915181 0.150193 0.354218 0.0463651 -0.989876 0.134151
-0.0710495 0.0178142 0.080165 0.286239 0.958158 0
0.106446 -0.201404 0.311767 0 0 -1
0.131327 0.0126736 0.324851 0 0 -1
-0.0875437 -0.0271444 0.311767 0 0 -1
0.203226 0.185766 0.785238 0.390444 -0.233211 0.890599
0.0696308 0.210455 0.438231 0.0586407 0.989238 -0.134052
0.0301408 -0.0472625 0.324851 0 0 -1
0.0107419 0.108629 0.0895846 -0.0902926 0.122315 0.988376
0.206668 0.152782 0.708402 -0.497329 -0.858435 0.125515
-0.0963743 0.00748815 0.337935 0 0 1
0.189939 -0.0169137 0.324851 0 0 1
-0.190557 0.158278 0.60987 -0.944904 -0.249571 -0.211825
0.191559 -0.199072 0.337935 0 0 1
0.00783705 0.0820267 0.311767 0 0 -1
0.147046 -0.171101 0.337935 0 0 -1
-0.130927 0.0441539 0.337935 0 0 -1
0.141433 -0.256947 0.024613 0.00630992 -0.99998 0.000625458
0.107726 0.194104 0.777921 -0.0741022 -0.844214 0.530859
-0.0421207 0.207048 0.740929 0.00048702 -0.0809763 -0.996716
-0.107483 0.166493 0.628184 0.117581 -0.98958 0.0831073
-0.140662 0.233245 0.676373 -0.115356 0.983516 -0.139243
-0.00938453 0.243921 0.679683 -0.0204871 0.990731 -0.134288
0.0858902 0.164 0.494838 -0.0588909 -0.996608 0.0574872
-0.0586815 0.178723 0.72309 0.0712483 -0.9937 0.0865049
-0.0212565 0.168863 0.564995 0.0467513 -0.997284 0.0569118
-0.188228 -0.0802409 0.508903 0.185926 -0.364323 -0.912524
-0.153944 -0.0723864 0.324851 0 0 1
-0.0290897 0.157406 0.414275 0.0458713 -0.989887 0.134239
0.0227278 -0.00648606 0.191469 0.378195 0.925726 0
0.166587 0.124203 0.3313 0.264933 -0.955501 0.129728
0.00936727 0.24298 0.00905332 0.762686 0.00472653 -0.646752
0.1622 0.140505 0.456187 -0.49754 -0.857536 0.130713
0.194795 0.0217004 0.0840155 0.133375 -0.0423728 0.990159
0.0219053 0.243566 0.673629 0.00849537 0.990886 -0.134437
-0.0363835 -0.191003 0.324851 0 0 -1
-0.000814011 0.179279 0.701089 0.0154987 -0.996272 0.0848629
0.0676616 -0.0976495 0.0942117 0.0762269 -0.0241323 0.996798
-0.183284 0.0775407 0.523627 0.640781 0.537221 0.548447
0.0345755 0.154305 0.269712 -0.0329058 -0.963165 -0.266891
-0.0495486 0.0166197 0.351008 0 0 1
0.0668972 0.151085 0.365348 -0.0590564 -0.989213 0.134049
-0.00526721 -0.0350895 0.0653764 0 0 -1
0.00742758 -0.0422471 0.0982463 0 0 -1
0.0725877 0.0788977 0.337935 0 0 -1
0.0433111 0.126102 0.328137 -0.00615253 0.999981 0
-0.0889316 0.0588221 0.351008 0 0 1
0.0813196 0.210642 0.740697 0.00048702 -0.0809763 -0.996716
0.237841 0.0895309 0.518577 -0.0838103 0.916274 0.391687
-0.14336 0.142095 0.467128 -0.273179 -0.961019 -0.0426065
0.204552 0.169629 0.744104 0.000467468 -0.0814579 -0.996677
-0.0915224 -0.149478 0.351008 0 0 1
0.208959 -0.0413936 0.336019 0.999981 0.00619101 0
-0.139241 -0.240775 0.00741454 0.762679 0.00491807 -0.646758
-0.138597 -0.230818 0.0490002 0 0 1
0.0549464 0.157061 0.405886 -0.0334213 -0.990377 0.1343
-0.0573339 -0.211279 0.351008 0 0 1
-0.133534 -0.0694153 0.337935 0 0 1
-0.176984 0.0561031 0.522224 0.761291 0.00456116 0.648394
0.0247218 0.125147 0.087317 0.0888098 0.123451 0.988369
0.173159 0.148178 0.54761 -0.496777 -0.858071 0.130105
0.118162 -0.0560393 0.324851 0 0 -1
0.00491868 -0.0567779 0.324851 0 0 1
-0.169499 0.217904 0.601157 -0.164151 0.974972 -0.149946
0.0513164 -0.170339 0.337935 0 0 -1
-0.174301 0.0319568 0.323452 -0.991345 -0.00613826 -0.131136
-0.0427522 0.250344 0.737399 0.000510004 -0.0817037 -0.996656
0.0912995 0.240399 0.738275 0.000504234 -0.0824858 -0.996592
-0.20146 -0.0725924 0.532039 0.186374 -0.363525 0.912751
-0.0633416 0.144334 0.337141 0.095715 -0.986386 0.133717
0.055719 0.20347 0.382253 0.0293585 0.990522 -0.134181
0.167364 -0.227114 0.323374 0.474194 -0.870285 -0.133207
-0.167736 0.165847 0.511658 -0.93712 -0.250024 -0.243501
-0.239948 0.0273585 0.0311861 0.0058801 -0.999983 -2.59148e-05
0.0228931 0.125976 0.33276 -0.00615253 0.999981 0
0.0140782 0.157843 0.407564 0.0157341 -0.990823 0.134249
-0.131483 -0.106279 0.351008 0 0 1
0.266322 -0.0194471 0.522564 0.760941 0.00467097 0.648805
0.0352248 0.152103 0.365462 -0.00412554 -0.990919 0.134399
-0.208724 0.0359782 0.448438 -0.548756 0.802406 0.234546
0.24911 0.0638129 0.0674211 -0.297761 0.954639 0.00170824
-0.11831 -0.148136 0.311767 0 0 -1
0.0441258 0.0712517 0.311767 0 0 -1
-0.209124 0.184969 0.677831 -0.979963 0.0931194 -0.17607
-0.271286 0.0537545 0.0304295 -0.763265 -0.00430759 0.646071
0.192096 0.238912 0.738449 0.000504234 -0.0824858 -0.996592
-0.174177 -0.0179256 0.333876 -0.999981 -0.00618548 0
0.0539263 -0.129433 0.351008 0 0 1
-0.00281775 0.239392 0.0442862 0 0 -1
-0.100396 0.171494 0.680348 0.095715 -0.991482 0.0883239
0.0801264 0.144061 0.309585 -0.057232 -0.984508 -0.165739
0.0708747 -0.0204943 0.311767 0 0 -1
-0.0112164 -0.0228011 0.0977895 -0.0632379 -0.0209393 0.997779
0.0358896 -0.113034 0.324851 0 0 -1
0.22232 0.00340944 0.52967 -0.197549 -0.00122635 0.980292
-0.0120392 -0.140017 0.337935 0 0 -1
0.214882 0.0445485 0.0173948 -0.995102 -0.00641847 -0.0986467
0.205959 0.0503425 0.0654492 -0.297943 0.954582 -0.00200412
-0.211391 0.054154 0.367738 -0.968262 0.239502 0.0714616
0.087368 -0.185338 0.337935 0 0 -1
0.01439 0.0610764 0.311767 0 0 -1
0.0188096 -0.00488529 0.232258 0.378195 0.925726 0
-0.141274 0.212327 0.535421 -0.144949 0.978167 -0.148928
0.0158568 0.199248 0.346215 -0.0211256 0.990713 -0.13432
0.162607 0.186994 0.790274 0.0685895 -0.17315 0.982504
-0.211232 0.195406 0.695085 -0.979963 0.0931194 -0.17607
-0.151576 0.15223 0.625607 0.458674 -0.880241 0.121631
0.0255249 0.171584 0.59631 -0.00393035 -0.997957 0.0637688
0.164355 0.170168 0.684408 -0.10603 -0.990261 0.0902306
-0.124385 -0.226995 0.0752099 -0.294218 -0.0971031 0.950793
0.176245 0.0227564 0.0595795 -0.0547335 -0.0760502 -0.995601
0.223804 0.181899 0.591803 0.965194 0.100299 -0.241538
0.010964 -0.240841 0.326222 -0.00615191 0.999981 0
0.00667273 -0.220046 0.351008 0 0 1
-0.0452159 0.149312 0.276921 0.0912071 -0.965697 -0.243126
0.167105 0.15454 0.313059 -0.000474974 0.0811368 0.996703
0.108541 -0.0842116 0.351008 0 0 1
0.151799 0.0592301 0.311767 0 0 -1
-0.0949911 0.214859 0.511069 -0.115877 0.982854 -0.143428
0.116287 0.168637 0.608765 -0.0836036 -0.994104 0.0690506
0.124305 -0.012198 0.337935 0 0 -1
-0.106812 -0.21493 0.324851 0 0 1
-0.0912426 0.193062 0.351606 -0.115151 0.984351 -0.133388
0.164078 0.157649 0.578303 -0.378612 -0.918986 0.110081
-0.0798374 0.0329187 0.337935 0 0 1
0.0116222 0.206088 0.0329752 0.00608065 -0.999981 0.000348099
0.116223 0.158291 0.446393 -0.10574 -0.985391 0.133505
0.127333 0.208793 0.460218 0.102971 0.984531 -0.141762
0.0224874 0.0284947 0.324851 0 0 -1
0.0466759 -0.235738 0.313521 0.0050788 -0.831543 -0.555438
0.0182351 0.0455169 0.0947084 0.0465785 0.0647157 0.996816
-0.1516 -0.0364413 0.337935 0 0 -1
0.151236 0.155623 0.516765 -0.377945 -0.919487 0.108174
-0.199305 0.231141 0.74206 -0.487342 0.856658 0.169218
0.0268622 0.224401 0.532508 0.00862921 0.990927 -0.134123
-0.00472607 -0.0207649 0.127186 -0.926589 0.376076 0
-0.0543344 -0.0770426 0.351008 0 0 1
-0.0528578 0.0625932 0.305248 0.00219502 -0.36111 0.932521
0.10314 -0.0857011 0.324851 0 0 1
0.12949 0.0696119 0.324851 0 0 1
-0.0656066 0.0521073 0.337935 0 0 -1
0.113387 0.0365962 0.324851 0 0 -1
-0.033611 -0.137771 0.324851 0 0 1
0.0946512 -0.157452 0.324851 0 0 1
-0.0502907 0.120012 0.337935 0 0 -1
0.244665 0.0611528 0.359332 0.964781 0.253037 0.0718954
0.060101 0.24504 0.688722 0.0286303 0.990448 -0.134884
0.0909088 0.0144268 0.0726293 -0.297992 0.954568 0
-0.0275792 0.231099 0.590062 -0.0407207 0.990027 -0.134865
0.110839 -0.240226 0.329555 0.00615191 -0.999981 0
-0.0570037 0.230969 0.738975 0.000508193 -0.0807111 -0.996737
0.188574 0.163663 0.711093 -0.497567 -0.858272 0.125683
-0.0910574 0.231942 0.628524 -0.0956847 0.98579 -0.138065
0.185223 0.150264 0.318561 0.973512 -0.226452 0.0315305
-0.143298 -0.0518351 0.324851 0 0 1
0.0769113 0.192851 0.311474 0.0590301 0.989224 -0.133981
-0.0585674 0.188203 0.764586 0.0686305 -0.938979 0.337058
0.0900083 0.231642 0.599971 0.0589455 0.988796 -0.137139
-0.0703502 -0.117026 0.324851 0 0 1
-0.0430104 0.0985391 0.351008 0 0 1
-0.139635 0.0804658 0.337935 0 0 -1
-0.163009 -0.18085 0.312734 -0.269816 -0.0834831 -0.959286
-0.0698312 0.0448642 0.311767 0 0 -1
0.221963 0.0349324 0.505549 -0.197043 -0.00122321 -0.980394
0.0408593 -0.0368207 0.157384 0.926773 -0.375621 0
-0.171792 0.0319456 0.057024 0.0591502 -0.0801745 -0.995024
-0.120348 0.0316737 0.087133 -0.0902986 0.122224 0.988386
0.201972 -0.162696 0.337935 0 0 1
-0.0303948 0.078769 0.304866 -0.00418833 0.689057 0.724695
0.206578 0.0765433 0.31236 -0.354074 0.123326 0.92705
0.248018 0.0119024 0.50408 0.197221 0.00121051 -0.980358
0.188817 0.0722465 0.337935 0 0 -1
-0.00665966 -0.0255289 0.22929 -0.926589 0.376076 0
0.1532 -0.104557 0.337935 0 0 -1
0.126144 -0.182087 0.311767 0 0 -1
0.0942965 0.0433323 0.351008 0 0 1
0.144664 0.0490988 0.337935 0 0 1
0.228895 0.226789 0.761586 0.754383 0.468271 0.460031
0.0590675 0.0524559 0.337935 0 0 1
0.0448328 0.16275 0.445325 -0.0334213 -0.990377 0.1343
0.139605 0.177333 0.736432 -0.0832064 -0.992645 0.0879394
0.0239468 0.0807059 0.337935 0 0 -1
-0.228896 -0.0777205 0.515656 -0.641149 -0.534574 -0.550599
-0.137436 0.0518739 0.311767 0 0 -1
-0.136266 0.24367 0.748825 -0.115114 0.987397 -0.108607
0.20029 0.0121613 0.324851 0 0 1
0.197379 0.15247 0.669572 -0.497288 -0.85824 0.126997
0.181805 0.177432 0.381872 0.869435 0.489671 -0.0656175
0.0966408 -0.143758 0.0898218 0.000562336 -0.100263 0.994961
-0.167721 0.228743 0.67211 -0.143871 0.979159 -0.143351
0.106892 -0.182208 0.0681151 -0.795189 -0.606361 0
0.168332 0.180035 0.764289 -0.376733 -0.911567 0.164674
0.133497 -0.0655919 0.337935 0 0 -1
-0.0489225 0.108782 0.311767 0 0 -1
-0.109968 0.208104 0.47689 -0.1449 0.978416 -0.147327
-0.0245905 0.255183 0.766681 -0.0412014 0.990415 -0.131835
0.173491 0.193223 0.414108 0.471772 0.873773 -0.118121
0.0584483 -0.032637 0.324851 0 0 1
-0.103075 0.171648 0.272825 -0.573159 0.248803 -0.78076
0.0138802 0.228962 0.0244088 0.995106 0.00643346 0.0986082
0.068532 -0.0274368 0.337935 0 0 1
0.0343958 -0.214495 0.337935 0 0 1
0.0934106 0.0620442 0.29503 0.00427845 -0.689842 -0.723948
-0.0405423 -0.128602 0.0914326 0.000628781 -0.100239 0.994963
0.0831401 0.0845246 0.311767 0 0 -1
0.139747 -0.0125452 0.324851 0 0 -1
0.108655 0.144523 0.339214 -0.083718 -0.987465 0.133804
0.167029 -0.212655 0.0490002 0 0 -1
0.12454 -0.229233 0.0108971 -0.625472 -0.00387675 -0.780237
0.101583 0.0951486 0.311767 0 0 -1
0.0498089 -0.0526685 0.0653764 0 0 -1
0.178877 0.208549 0.503776 0.151538 0.976773 -0.151496
-0.254569 0.0669592 0.00288963 -0.00645785 0.999979 -0.000450739
-0.00651003 -0.0251603 0.208941 -0.926589 0.376076 0
0.0647047 0.0216801 0.337935 0 0 1
-0.00479458 0.233192 0.599888 -0.02114 0.990735 -0.134157
-0.173505 0.0197409 0.518399 0.760945 0.00461235 0.648799
-0.166556 -0.159576 0.337935 0 0 -1
-0.0452594 -0.241187 0.333019 -0.00615191 0.999981 0
0.241203 0.036374 0.0762475 0.294622 -0.093313 0.951047
-0.0109637 -0.100455 0.0641167 -0.000251783 0.0401393 -0.999194
-0.017187 -0.229599 0.351008 0 0 1
-0.0661622 -0.143968 0.324851 0 0 -1
-0.162723 0.216212 0.582735 -0.164151 0.974972 -0.149946
0.003506 0.0490838 0.337935 0 0 1
-0.133457 0.154082 0.57082 0.458702 -0.880152 0.122169
0.0537743 -0.239833 0.343059 0.00511419 -0.831653 0.555272
-0.0100854 0.00553678 0.0693618 -0.528124 0.849167 0
0.151769 0.0834728 0.299931 -0.00582324 0.939013 -0.343832
0.00734526 0.194321 0.311218 -0.0211901 0.99071 -0.134331
-0.0166722 0.214694 0.466341 -0.0411693 0.989895 -0.135694
-0.207205 0.0547673 0.33475 -0.880022 -0.190471 -0.435065
0.0213059 -0.00590516 0.250398 0.378195 0.925726 0
-0.00169321 0.112097 0.0737159 -0.999924 0.0123544 0
0.00417237 0.168864 0.552737 0.015556 -0.998306 0.0560672
-0.00601461 -0.0370259 0.11269 -0.921826 -0.387604 0
0.147302 0.0208564 0.324851 0 0 1
0.049089 -0.00320104 0.337935 0 0 1
0.0876359 0.0134032 0.0926277 -0.299722 0.953816 -0.0200452
0.234019 0.195424 0.64183 0.973816 0.104613 -0.20184
-0.0517897 0.197344 0.35383 -0.0706172 0.988453 -0.134066
-0.206232 0.0309925 0.390515 -0.53968 -0.808566 -0.234448
-0.0417965 0.168099 0.568708 0.0705151 -0.995751 0.05922
0.177459 -0.0486844 0.351008 0 0 1
0.00275914 -0.0772726 0.337935 0 0 -1
-0.045587 0.0633831 0.337935 0 0 -1
0.00246835 0.0119125 0.337935 0 0 1
-0.0596663 0.0579218 0.351008 0 0 1
0.072264 0.0684365 0.311767 0 0 -1
0.118631 0.0190636 0.337935 0 0 1
0.0577364 0.0337101 0.324851 0 0 1
0.0955742 0.252276 0.753515 0.0587909 0.990319 -0.125745
0.209248 -0.0950627 0.324518 0.991594 0.00613909 -0.129239
-0.0426204 0.162026 0.462896 0.0712223 -0.995563 0.061491
0.175706 -0.161969 0.311767 0 0 -1
0.0385534 0.169576 0.563405 -0.00313262 -0.998432 0.0558916
-0.132089 0.164155 0.648131 0.389516 -0.913969 0.113747
0.0656439 0.164056 0.475344 -0.0334267 -0.997725 0.0585371
0.0393292 0.228079 0.56043 0.00864637 0.990885 -0.134432
0.0884197 0.161512 0.4557 -0.0831676 -0.994538 0.0630665
0.210073 0.0501802 0.521408 -0.761285 -0.00472593 0.6484
0.106096 -0.0212541 0.0734262 0.333318 -0.942815 0
0.222367 0.0368671 0.0799941 0.17902 -0.0568072 0.982204
0.0182225 -0.00464544 0.311457 0.378195 0.925726 0
0.123475 0.159387 0.471719 -0.105863 -0.992145 0.0666412
0.152235 -0.0435895 0.324851 0 0 1
-0.026079 0.0101375 0.324851 0 0 1
-0.175948 0.143913 0.619812 -0.272647 -0.96166 -0.0295606
-0.0806412 0.141518 0.300142 0.114476 -0.983084 -0.14297
0.102499 -0.0345106 0.337935 0 0 -1
-0.0825898 0.125327 0.333414 -0.00615253 0.999981 0
0.109721 0.0202994 0.0788805 -0.297992 0.954568 0
0.153316 -0.233041 0.319086 0.246475 -0.793981 -0.555738
0.0496439 -0.202976 0.337935 0 0 1
0.0711648 -0.00304612 0.351008 0 0 1
-0.00823791 0.238691 0.738366 0.000507378 -0.0820117 -0.996631
-0.124364 0.0809615 0.302239 -0.00418833 0.689057 0.724695
0.0439597 -0.0703379 0.0653148 -0.000182867 0.0402466 -0.99919
-0.0406491 -0.143522 0.0690412 0.802593 -0.596527 0
0.0376675 -0.00798014 0.0974396 0.0388342 0.0539583 0.997788
0.00833849 0.148631 0.34025 0.0157341 -0.990823 0.134249
0.0589526 0.0334946 0.351008 0 0 1
-0.132973 -0.246762 0.0306453 -0.996888 -0.00597161 -0.0786069
0.0924615 0.229035 0.582228 0.0589597 0.988797 -0.13713
0.0217242 0.165447 0.483771 -0.0039314 -0.998521 0.054225
-0.104761 0.238077 0.681872 -0.0957899 0.985868 -0.137433
-0.0465927 0.242273 0.677838 -0.0409429 0.990062 -0.134536
-0.108494 0.182509 0.742894 0.000441942 -0.0826203 -0.996581
-0.018428 -0.0632921 0.351008 0 0 1
-0.0147539 0.174004 0.638261 0.0459261 -0.995897 0.0779676
0.0209753 -0.183199 0.337935 0 0 -1
0.0325978 0.0693161 0.292626 0.000822818 -0.132668 -0.99116
0.254618 0.0474612 0.00999372 0.762984 0.00513273 -0.646397
0.0676571 0.234085 0.609769 0.0290124 0.990379 -0.135305
-0.108209 0.193635 0.371713 -0.144373 0.980558 -0.1329
0.0866027 -0.218261 0.351008 0 0 1
-0.144482 -0.219007 0.0235139 -0.00611778 0.999981 1.89683e-05
0.183697 0.151163 0.372133 0.973512 -0.226452 0.0315305
-0.124346 0.194154 0.393112 -0.145156 0.980426 -0.133024
0.11827 0.0684061 0.351008 0 0 1
0.0873815 0.237209 0.639156 0.0589486 0.988944 -0.136069
-0.234278 0.031017 0.515327 -0.760909 -0.00466957 -0.648842
-0.0363403 -0.0855986 0.351008 0 0 1
-0.0699108 -0.125534 0.337935 0 0 -1
-0.172707 0.145451 0.656304 0.459191 -0.880009 0.121359
-0.0396112 -0.184476 0.351008 0 0 1
0.25999 0.067204 0.0527501 -0.297997 0.954567 0.000935014
