-0.018194 0.10756 0.311767 0 0 -1
0.0828912 -0.025229 0.337935 0 0 -1
-0.201743 0.0512821 0.398796 0.538943 0.809024 0.234562
0.201516 -0.0505789 0.324851 0 0 -1
-0.0367684 -0.0131784 0.311767 0 0 -1
0.199389 0.142921 0.578242 0.262325 -0.963915 -0.0453066
0.123801 0.167231 0.597551 -0.0829448 -0.994196 0.0685125
0.0450955 0.0308134 0.351008 0 0 1
-0.208487 0.00232277 0.494594 -0.538483 -0.809318 -0.234608
-0.0493901 0.155884 0.312846 -0.000479484 0.0812248 0.996696
-0.00148413 0.187918 0.265483 -0.0414321 0.98947 -0.138679
0.141156 -0.0396247 0.324851 0 0 -1
0.0570249 -0.0487368 0.351008 0 0 1
0.0918157 -0.154462 0.324851 0 0 1
-0.138332 0.00931521 0.0596112 0.0891941 0.0295153 -0.995577
-0.00812693 -0.0770281 0.311767 0 0 -1
-0.142725 -0.0671035 0.311767 0 0 -1
0.0825003 0.217006 0.491211 0.0588339 0.98875 -0.137522
0.0218567 0.204748 0.387125 0.00823262 0.990903 -0.134324
0.10483 -0.154995 0.351008 0 0 1
0.176495 0.133664 0.314766 -0.000588505 0.0820516 0.996628
0.096646 -0.0505803 0.324851 0 0 -1
-0.106674 0.23694 0.675042 -0.0957899 0.985868 -0.137433
0.114911 0.195863 0.356059 0.103613 0.985614 -0.133529
0.186545 -0.125626 0.324851 0 0 1
-0.129284 0.110678 0.337935 0 0 -1
-0.136037 0.0650638 0.311767 0 0 -1
-0.142164 -0.0051669 0.337935 0 0 1
-0.0435182 0.0897342 0.351008 0 0 1
-0.0720033 0.0803743 0.351008 0 0 1
0.0551271 0.0302138 0.324851 0 0 1
0.0948845 0.204089 0.741236 0.00048702 -0.0809763 -0.996716
0.166129 0.135681 0.416763 0.264678 -0.955567 0.129758
0.219843 0.0470538 0.0788708 0.116057 0.1611 0.980091
-0.174484 0.0316097 0.327988 -0.999981 -0.00618548 0
-0.0589959 0.10039 0.351008 0 0 1
0.163843 0.0065629 0.351008 0 0 1
0.0316997 0.12603 0.327209 0.00615253 -0.999981 0
-0.20699 0.0580645 0.532525 -0.197464 -0.0012258 0.980309
0.154834 -0.176904 0.337935 0 0 1
-0.13882 -0.0275336 0.324851 0 0 -1
-0.203186 0.198959 0.65511 -0.975368 0.0905847 -0.201126
0.23694 0.0249928 0.0762491 0.332309 -0.943127 -0.00907938
0.0343386 0.22438 0.532831 0.00862921 0.990927 -0.134123
0.103909 0.0825135 0.298121 -0.00576936 0.939573 -0.3423
0.142389 0.235737 0.658285 0.103341 0.984772 -0.139804
-0.00311016 -0.0325404 0.351008 0 0 1
0.230367 0.0438877 0.0541179 -0.105322 -0.146198 -0.983633
0.0772981 -0.170668 0.324851 0 0 -1
-0.0297444 0.163778 0.477933 0.045083 -0.9972 0.059663
-0.108238 0.174831 0.726414 0.0962531 -0.99145 0.0880995
-0.131402 0.139942 0.461468 0.459211 -0.879882 0.122204
-0.0666167 0.102442 0.324851 0 0 -1
-0.134699 -0.18234 0.351008 0 0 1
-0.0635429 -0.131596 0.351008 0 0 1
0.0550246 0.224948 0.789033 -0.000519668 0.0812907 0.99669
0.156154 -0.0486396 0.311767 0 0 -1
0.209406 0.145084 0.595487 0.262872 -0.964459 -0.0267857
0.1222 0.21824 0.789615 -0.000519668 0.0812907 0.99669
-0.118466 0.222703 0.584298 -0.115383 0.983203 -0.141416
-0.0242173 -0.235247 0.337935 0 0 1
-0.0252732 0.072863 0.311767 0 0 -1
-0.128165 -0.179212 0.337935 0 0 -1
0.0678465 0.196354 0.777596 -0.0298727 -0.832709 0.552905
0.245975 0.0695559 0.0328262 -0.00617046 0.999981 0.000533108
0.0337377 -0.0499277 0.337935 0 0 -1
-0.150146 0.221795 0.607267 -0.144336 0.978719 -0.145863
-0.0768838 -0.191752 0.311767 0 0 -1
0.0813008 -0.0185019 0.311767 0 0 -1
-0.0420753 0.0265699 0.311767 0 0 -1
0.046879 -0.134238 0.351008 0 0 1
-0.227407 0.0651411 0.0291906 -0.0110844 0.999939 -0.000264395
0.0747955 -0.100675 0.0935932 0.0761142 -0.0241502 0.996807
0.0561482 0.2261 0.548809 0.0289181 0.990407 -0.135121
-0.112398 0.0137923 0.337935 0 0 1
0.188171 0.245049 0.771842 0.131831 0.990383 -0.0419845
0.0502179 0.19293 0.303466 0.0289079 0.990026 -0.137887
-0.208402 0.204132 0.685352 -0.867934 0.456964 -0.194613
0.239043 -0.0173951 0.502238 0.197221 0.00121051 -0.980358
-0.0555894 0.000886414 0.0941958 -0.0473759 0.064105 0.996818
0.106997 -0.139844 0.0612043 -0.089522 0.0283928 -0.99558
0.0759857 -0.0652037 0.337935 0 0 1
0.18756 0.171579 0.458609 0.960755 0.0994418 -0.258961
0.208881 -0.160584 0.333496 0.995781 -0.0917566 0
0.142217 0.00567275 0.351008 0 0 1
0.09237 0.150447 0.266292 -0.380668 -0.923459 0.048116
0.0585612 0.0970737 0.311767 0 0 -1
-0.0142388 -0.123225 0.311767 0 0 -1
-0.18511 0.159316 0.584351 -0.944904 -0.249571 -0.211825
0.117975 0.0677918 0.324851 0 0 1
0.273586 0.0469051 0.02977 0 0 -1
0.203708 0.0132552 0.0675764 0.333318 -0.942815 0
-0.034126 -0.0168211 0.324851 0 0 1
0.00899765 0.0954225 0.324851 0 0 -1
-0.0593623 0.19294 0.326126 -0.0952004 0.986435 -0.133726
-0.150578 0.0495994 0.324851 0 0 -1
0.0334759 -0.0195759 0.324851 0 0 -1
0.265277 -0.027982 0.511335 0.76091 0.0047236 -0.64884
-0.0554787 -0.122039 0.337935 0 0 1
-0.00543362 0.205986 0.00723664 0.00600735 -0.999981 0.0011421
-0.0546769 0.14976 0.271246 0.111854 -0.967406 -0.227188
-0.0642853 -0.176477 0.311767 0 0 -1
0.0501226 0.17085 0.588383 -0.0336092 -0.997362 0.0643454
-0.0130595 0.0810827 0.29616 -0.00571175 0.939573 -0.3423
-0.165464 -0.189962 0.337935 0 0 -1
0.250508 0.0695927 0.00779982 -0.0060902 0.999981 -0.00032426
-0.111051 0.0240539 0.337935 0 0 1
0.199906 0.225664 0.636258 0.132649 0.980716 -0.143531
0.146099 0.148308 0.445632 -0.497925 -0.859418 0.116065
-0.0177399 -0.200842 0.337935 0 0 -1
0.074216 -0.0378511 0.337935 0 0 1
-0.098144 0.160422 0.522171 0.117269 -0.991341 0.0590869
0.125366 -0.23361 0.324851 0 0 -1
0.188005 0.0505046 0.324851 0 0 1
0.0623274 -0.091614 0.337935 0 0 1
0.0301927 0.189434 0.27477 0.00914114 0.990814 -0.134923
-0.234366 -0.066606 0.519049 -0.760938 -0.00472369 0.648807
-0.0110056 0.176775 0.673231 0.0155006 -0.996896 0.0771856
-0.20173 -0.0452708 0.502683 0.197127 0.00119485 -0.980377
-0.0773153 0.245143 0.714386 -0.0711666 0.988143 -0.136047
0.151038 -0.134808 0.337935 0 0 -1
0.0716018 0.167298 0.540257 -0.0580124 -0.996973 0.0517623
0.0449107 -0.230673 0.351008 0 0 1
0.0038928 -0.00988287 0.153902 -0.389848 0.920879 0
-0.0990355 0.244464 0.787366 -0.000504982 0.0815571 0.996669
0.0120891 -0.0371815 0.0984892 -0.0258632 -0.00854825 0.999629
0.0041115 -0.175323 0.324851 0 0 -1
0.0549707 -0.192563 0.337935 0 0 1
0.0762198 0.243294 0.679327 0.0289023 0.990457 -0.13476
-0.0865216 0.149441 0.392691 0.118294 -0.983966 0.13348
0.11261 0.00475515 0.324851 0 0 -1
0.162798 0.146725 0.499117 -0.49704 -0.857733 0.131324
-0.0831154 -0.119162 0.311767 0 0 -1
-0.00503571 -0.039354 0.19909 -0.921826 -0.387604 0
-0.131289 -0.105804 0.351008 0 0 1
-0.13961 -0.248945 0.037225 0.625465 0.00405011 0.780241
-0.0280062 0.194425 0.775099 0.0399057 -0.831938 0.553431
-0.0347652 -0.00576466 0.324851 0 0 1
-0.194553 0.0847941 0.515382 0.19403 0.966011 -0.170804
-0.129815 -0.199467 0.324851 0 0 1
0.107282 0.141883 0.310034 -0.0812597 -0.984548 -0.155122
-0.0803294 0.153256 0.41533 0.118132 -0.983983 0.133502
-0.118121 -0.235296 0.332621 0.284309 0.958733 0
-0.133119 0.0633527 0.337935 0 0 -1
-0.0385999 -0.0677138 0.337935 0 0 1
0.244819 0.0475992 0.0317208 -0.922005 -0.387177 0
0.0472278 -0.150652 0.311767 0 0 -1
0.0868934 -0.0975571 0.351008 0 0 1
-0.108899 -0.0122521 0.351008 0 0 1
0.201469 -0.158996 0.337935 0 0 1
-0.000100434 0.124279 0.318513 -0.00511629 0.831472 -0.555543
-0.132665 -0.215586 0.337935 0 0 1
0.112171 -0.189868 0.337935 0 0 -1
0.0430482 0.227437 0.555939 0.00864637 0.990885 -0.134432
0.126731 0.188548 0.311233 0.103613 0.985614 -0.133529
0.156752 -0.0307915 0.311767 0 0 -1
-0.00381886 -0.0445477 0.337935 0 0 1
0.23407 0.0511797 0.532096 -0.197464 -0.00121201 0.980309
-0.0389461 0.0686406 0.337935 0 0 1
0.137162 0.198969 0.788186 -0.357012 -0.842597 0.403204
0.165568 0.0475106 0.324851 0 0 -1
0.0201888 0.0763096 0.337935 0 0 1
-0.12019 -0.23122 0.0490002 0 0 -1
0.130134 -0.135593 0.337935 0 0 1
0.120004 0.141255 0.301292 -0.379538 -0.922814 0.066074
-0.0785697 -0.19454 0.0794174 0.802344 -0.596852 0.00342883
-0.151796 0.00616238 0.337935 0 0 1
0.176978 0.0603421 0.324851 0 0 1
-0.161604 -0.193958 0.344176 -0.732397 -0.396629 0.553426
0.0539744 0.231032 0.584489 0.0289811 0.990377 -0.135325
0.142483 0.234756 0.651445 0.103341 0.984772 -0.139804
0.0968698 0.165048 0.525672 -0.0839358 -0.994938 0.0552515
0.0383378 0.169319 0.558806 -0.00313262 -0.998432 0.0558916
0.181422 -0.11079 0.337935 0 0 -1
0.105721 0.0162098 0.337935 0 0 1
0.0488592 -0.0441999 0.351008 0 0 1
0.21757 0.085469 0.517019 -0.20599 0.963623 -0.170294
0.245419 0.189227 0.696131 0.978256 0.108518 -0.176748
-0.037297 0.160601 0.441772 0.0711056 -0.988431 0.133973
0.0233184 0.207102 0.404585 0.00820407 0.990903 -0.134329
-0.0720352 -0.207027 0.337935 0 0 1
-0.108324 -0.0251608 0.324851 0 0 -1
-0.12111 -0.243522 0.0688468 0.0041101 -0.592957 0.805223
0.0331513 -0.0110389 0.311767 0 0 1
0.00562456 0.221044 0.0440889 0.668884 0.004204 0.743355
-0.111585 0.153986 0.312971 -0.000479484 0.0812248 0.996696
-0.139834 -0.0181871 0.324851 0 0 1
0.143306 0.175098 0.714746 -0.0835975 -0.992592 0.0881621
-0.139436 -0.125962 0.337935 0 0 -1
-0.0922041 0.00942041 0.324851 0 0 -1
0.020176 0.187313 0.754375 -0.00340804 -0.9384 0.345534
0.0944635 -0.00958189 0.351008 0 0 1
-0.136406 -0.231926 0.0345678 0.625465 0.00405011 0.780241
-0.175881 0.178589 0.537112 -0.95536 0.0826911 -0.283634
-0.203325 0.0419681 0.43457 0.54032 0.808197 0.234248
0.101911 0.0635366 0.337935 0 0 -1
-0.126908 -0.18406 0.337935 0 0 1
0.0502434 -0.0724316 0.337935 0 0 1
-0.0654423 -0.0243672 0.0851467 -0.32168 -0.946849 0
0.191388 0.0907605 0.327606 0.770597 0.637323 0
0.0396644 -0.0397688 0.197312 0.926773 -0.375621 0
0.00548602 0.227081 0.55319 -0.0211396 0.990694 -0.134454
0.122634 -0.186274 0.324851 0 0 1
0.0823687 0.165347 0.514855 -0.0584804 -0.996923 0.0522043
-0.0685474 0.244852 0.707681 -0.0711666 0.988143 -0.136047
0.253114 0.00563458 0.505097 0.19722 0.00121062 -0.980358
0.131365 0.0564737 0.337935 0 0 -1
0.104819 -0.126419 0.311767 0 0 -1
-0.129635 -0.252064 0.0567966 0.00629711 -0.967843 0.251477
0.0734785 -0.037952 0.351008 0 0 1
0.0378288 0.245908 0.691893 0.0084195 0.990881 -0.134473
0.170532 0.0343787 0.351008 0 0 1
-0.16283 -0.194826 0.337751 -0.879063 -0.476705 0
-0.0605858 0.248966 0.733489 -0.0705944 0.988226 -0.135738
-0.19923 0.0447454 0.415568 0.538943 0.809024 0.234562
0.0025373 -0.153233 0.337935 0 0 -1
0.144304 0.0797937 0.294564 -0.00221317 0.360427 -0.932785
-0.136425 0.0745026 0.293188 -0.00218612 0.359613 -0.933099
-0.199376 0.220324 0.6851 -0.498246 0.848135 -0.180051
0.0594011 -0.054167 0.351008 0 0 1
0.116679 0.0797158 0.311767 0 0 -1
0.111398 -0.03238 0.324851 0 0 -1
0.074244 0.0646849 0.351008 0 0 1
-0.115005 0.0887707 0.324851 0 0 -1
0.151907 0.016369 0.324851 0 0 -1
0.120837 -0.12432 0.324851 0 0 1
-0.0248576 -0.203972 0.311767 0 0 -1
0.183623 -0.148301 0.337935 0 0 1
0.0804326 -0.200291 0.324851 0 0 -1
-0.197384 0.198582 0.628323 -0.864913 0.453394 -0.215314
-0.0786253 0.0800262 0.337935 0 0 -1
0.0115716 0.0869862 0.0625636 0.0357264 -0.048397 -0.998189
-0.0210917 0.0960267 0.324851 0 0 1
0.0392971 -0.0985928 0.337935 0 0 -1
-0.0659402 -0.114842 0.0665383 -0.824179 0.566329 0
0.0291353 0.170106 0.311722 -0.00048253 0.0818192 0.996647
-0.110772 -0.237371 0.338684 -0.281778 -0.950195 0.133156
-0.0825321 0.0804647 0.295623 -0.00571175 0.939573 -0.3423
0.162124 -0.160914 0.324851 0 0 -1
0.0963387 0.209638 0.445541 0.0831013 0.986809 -0.138935
0.151 0.151618 0.313289 -0.000474974 0.0811368 0.996703
0.0393195 0.0462282 0.337935 0 0 -1
0.156483 0.129634 0.351901 -0.497913 -0.859425 0.116064
0.0463011 -0.163494 0.324851 0 0 1
-0.0951935 0.184999 0.298954 -0.144276 0.970878 -0.191262
0.225376 0.0047674 0.530288 -0.197549 -0.00122635 0.980292
-0.114738 0.209142 0.740723 0.00048702 -0.0809763 -0.996716
0.186487 0.153945 0.636888 -0.497154 -0.858334 0.126885
0.227027 0.0636464 0.307305 0.354128 -0.12178 -0.927234
-0.0217607 0.164012 0.312197 -0.000479484 0.0812248 0.996696
-0.0601445 0.221939 0.537447 -0.0706816 0.988004 -0.1373
0.0835785 0.192381 0.310947 0.0590301 0.989224 -0.133981
0.0955624 -0.112937 0.351008 0 0 1
-0.0392075 -0.223696 0.311767 0 0 -1
0.200693 0.0373606 0.337935 0 0 -1
-0.0600926 0.0381459 0.324851 0 0 1
0.0767859 -0.111439 0.337935 0 0 1
-0.0702193 0.0594684 0.296528 0.00419398 -0.689858 -0.723932
-0.0223857 -0.00637786 0.0651943 0.0236271 -0.0323408 -0.999198
-0.0991537 -0.146221 0.337935 0 0 1
-0.0785657 0.178522 0.737033 0.0708025 -0.993715 0.0866997
-0.0353269 -0.106076 0.351008 0 0 1
-0.000124799 0.0973647 0.0616418 0.0357264 -0.048397 -0.998189
-0.123199 0.00359356 0.337935 0 0 -1
-0.138496 -0.18559 0.351008 0 0 1
-0.17348 -0.0461143 0.516343 0.761261 0.00461426 -0.648429
0.203952 -0.157517 0.313034 0.829848 -0.0758445 -0.552812
-0.0442201 0.145534 0.33431 0.0705932 -0.988455 0.134066
0.142244 -0.0530349 0.324851 0 0 1
0.221685 0.0297398 0.0063514 -0.625172 -0.0040324 -0.780477
-0.207346 -0.0847257 0.512065 -0.0750474 -0.916059 -0.393958
-0.122365 0.245789 0.753355 -0.115123 0.987396 -0.108612
0.0175573 -0.042443 0.311767 0 0 1
-0.178578 0.00901825 0.524426 0.761291 0.00456116 0.648394
0.209321 -0.0997497 0.331571 0.999981 0.00619101 0
-0.0880636 0.0364459 0.351008 0 0 1
-0.127495 0.115067 0.32556 -0.479 0.877815 0
0.233852 0.0329873 0.0442862 0 0 -1
0.0878263 0.205615 0.410591 0.0831626 0.987513 -0.133797
0.0902693 -0.171882 0.337935 0 0 1
-0.179815 0.193119 0.55811 -0.855965 0.442832 -0.266879
-0.0566175 0.25524 0.782574 -0.0703426 0.995688 -0.0604667
0.0476288 -0.199856 0.337935 0 0 1
-0.0553287 0.0571307 0.311767 0 0 -1
0.00358997 -0.0973745 0.351008 0 0 1
-0.196265 0.00410364 0.531348 0.197463 0.00119689 0.98031
-0.115653 -0.233436 0.345664 -0.237215 -0.796989 0.555461
0.154741 0.174363 0.719168 -0.105704 -0.990308 0.0900918
-0.095238 0.211791 0.490161 -0.115882 0.98294 -0.142832
-0.0179882 -0.179343 0.324851 0 0 1
0.0297182 0.231604 0.0340274 0.922441 0.386139 0
-0.078217 0.0355556 0.311767 0 0 -1
-0.0101873 0.0927588 0.337935 0 0 -1
-0.131506 -0.145607 0.324851 0 0 1
0.0378139 -0.119854 0.324851 0 0 1
0.163529 0.202793 0.45121 0.149284 0.977301 -0.150325
-0.0045221 -0.0405755 0.138874 -0.921826 -0.387604 0
0.0783209 0.100072 0.324851 0 0 1
-0.0913685 -0.0155591 0.0720202 -0.32168 -0.946849 0
0.239905 0.174473 0.755912 0.755777 -0.126345 0.642525
-0.217288 0.0839451 0.521386 -0.206009 0.963667 0.170016
-0.0425596 -0.0244837 0.0647044 0.0383079 0.0127277 -0.999185
0.0175618 0.0320831 0.095712 0.054623 0.0763422 0.995584
0.117981 0.111245 0.337935 0 0 1
-0.0686879 0.240837 0.678596 -0.0711666 0.988143 -0.136047
-0.0560244 0.0445054 0.337935 0 0 1
-0.142815 0.0947014 0.324851 0 0 1
-0.131127 0.190888 0.377042 -0.16162 0.977891 -0.132696
0.145189 0.222179 0.56556 0.103722 0.984368 -0.142344
0.171074 0.14137 0.455843 0.263192 -0.963897 -0.0404034
-0.016624 0.124086 0.318376 -0.00511629 0.831472 -0.555543
0.0601176 0.166521 0.516497 -0.0339833 -0.998179 0.0498444
0.268715 0.0435402 0.519297 0.761283 0.00472591 0.648403
-0.116784 0.00747714 0.0614863 0.0891408 0.0294374 -0.995584
0.0396701 0.126079 0.326014 -0.00615253 0.999981 0
0.0380633 -0.0704512 0.311767 0 0 -1
0.244591 0.179045 0.697836 0.960882 -0.237367 -0.142696
0.137084 0.12509 0.327694 0.0915724 0.995798 0
-0.114397 0.115849 0.31407 -0.247649 0.794473 -0.554511
-0.025044 0.000489561 0.0649084 0.0238874 -0.0324341 -0.999188
-0.0672703 0.000281826 0.337935 0 0 -1
-0.0580826 0.0281077 0.351008 0 0 1
0.153995 0.247179 0.750714 0.104018 0.988734 -0.10764
-0.0504418 0.161447 0.462616 0.0715991 -0.995552 0.0612385
-0.108022 -0.00990132 0.0817358 -0.32168 -0.946849 0
0.243594 0.017618 0.45346 0.549661 -0.801825 -0.234412
0.171696 -0.251779 0.0142654 0.996866 0.0062801 0.0788625
0.0534024 -0.208145 0.324851 0 0 -1
-0.211729 0.0463861 0.0490002 0 0 -1
0.248303 0.180142 0.747147 0.755862 -0.126226 0.642448
0.13667 -0.0258371 0.337935 0 0 -1
-0.113879 -0.00794185 0.311767 0 0 -1
0.175812 -0.246126 0.0490002 0 0 -1
-0.222846 -0.0365731 0.529213 -0.197464 -0.0012258 0.980309
0.0930818 0.249738 0.732719 0.0589559 0.98896 -0.135949
-0.0664518 0.144464 0.313769 -0.000602249 0.0786097 0.996905
-0.0745649 0.159736 0.469774 0.0955919 -0.993385 0.0636239
0.208393 -0.141752 0.324851 0 0 -1
0.119058 0.141047 0.307525 -0.103147 -0.984434 -0.142307
0.0776801 -0.0040163 0.324851 0 0 1
0.0211037 0.167311 0.518863 -0.00312828 -0.998789 0.0490935
-0.0754096 0.0578871 0.324851 0 0 1
0.0084535 0.218713 0.490986 -0.0207897 0.99068 -0.134612
0.110311 -0.118195 0.324851 0 0 -1
-0.0717999 0.195797 0.356055 -0.0952004 0.986435 -0.133726
-0.199513 0.0493125 0.531947 0.197463 0.00119689 0.98031
0.0550194 0.254772 0.759579 0.028905 0.990813 -0.132116
0.0942364 0.1991 0.366492 0.0831626 0.987513 -0.133797
0.0834683 -0.044162 0.311767 0 0 -1
0.0373821 0.221788 0.513875 0.00862921 0.990927 -0.134123
0.184686 0.151212 0.341947 0.973512 -0.226452 0.0315305
0.0640049 -0.0382225 0.324851 0 0 1
0.16053 0.138639 0.435949 -0.497913 -0.859425 0.116064
0.055275 -0.091756 0.0644501 -0.000182867 0.0402466 -0.99919
-0.117954 0.221791 0.739689 0.000489417 -0.08144 -0.996678
0.00420413 0.0113651 0.0965978 -0.0555978 0.0753301 0.995607
-0.0672013 -0.0681223 0.324851 0 0 1
-0.0286987 0.222157 0.739703 0.00050892 -0.0808266 -0.996728
-0.0827799 0.159612 0.48018 0.0955919 -0.993385 0.0636239
0.0993612 -0.0730611 0.337935 0 0 1
0.269328 0.0423797 0.0621615 0.853548 -0.27042 0.445341
-0.228201 0.0448318 0.0254354 0.995107 0.00564105 0.0986414
0.0466418 0.108841 0.324851 0 0 -1
0.196523 -0.125624 0.337935 0 0 1
-0.127773 0.24742 0.777694 -0.145152 0.98857 -0.0407443
0.171238 0.0593336 0.299317 0.0058212 -0.938793 0.344431
0.103497 0.110233 0.337935 0 0 -1
-0.176068 0.173845 0.536365 -0.955325 0.0819173 -0.283978
0.00358802 -0.18902 0.351008 0 0 1
-0.0678788 0.000349611 0.351008 0 0 1
-0.0334877 0.194654 0.324353 -0.0706175 0.988453 -0.134066
0.136375 -0.250273 0.0015141 -0.625473 -0.00387758 -0.780236
0.168461 -0.253007 0.0326359 -0.37816 -0.92574 0
-0.000380868 0.217199 0.0534361 -0.999905 0.0125185 0.00574235
0.0626813 -0.0597483 0.0648257 -0.0385339 0.0121245 -0.999184
-0.0808775 0.240577 0.683149 -0.0960301 0.985826 -0.137568
-0.150954 -0.030628 0.324851 0 0 -1
-0.160835 -0.00260072 0.337935 0 0 -1
0.0360928 -0.0126206 0.143614 0.921937 0.387341 0
-0.166571 -0.122458 0.324851 0 0 1
0.00970428 -0.220707 0.337935 0 0 -1
-0.0455155 -0.15007 0.0770301 0.802593 -0.596527 0
-0.0376059 -0.238602 0.337935 0 0 -1
0.178338 0.185099 0.39317 0.86874 0.490861 -0.0659267
-0.111148 0.0168149 0.351008 0 0 1
-0.0967481 -0.153543 0.324851 0 0 -1
-0.100872 0.141633 0.3621 0.388789 -0.912935 0.124066
0.138594 -0.138815 0.324851 0 0 -1
0.204709 -0.0909537 0.348785 0.832325 0.00515567 0.554264
-0.112056 -0.207627 0.0551442 0.113915 0.0375609 -0.99278
0.0444047 -0.17446 0.351008 0 0 1
0.158846 -0.0121741 0.337935 0 0 1
-0.195046 -0.0453946 0.531163 0.197548 0.00118358 0.980292
0.245335 0.176752 0.70666 0.960882 -0.237367 -0.142696
0.0485643 -0.169936 0.337935 0 0 -1
-0.00481618 0.231646 0.588475 -0.02114 0.990735 -0.134157
0.14291 -0.238584 0.0432918 -0.0929174 -0.000575927 0.995674
0.132289 0.22574 0.58082 0.103728 0.984505 -0.141388
-0.147423 0.223232 0.614215 -0.144336 0.978719 -0.145863
-0.143968 0.146294 0.554176 0.458702 -0.880152 0.122169
0.0206606 0.161722 0.436052 -0.0032492 -0.990942 0.134248
0.0715486 -0.0705409 0.311767 0 0 -1
0.0466248 0.0803173 0.294998 -0.00221317 0.360427 -0.932785
0.12608 0.17638 0.712874 -0.0832064 -0.992645 0.0879394
-0.0604717 0.172955 0.656488 0.0712525 -0.994338 0.0788397
0.112392 0.0295444 0.324851 0 0 1
-0.156733 -0.164942 0.324851 0 0 1
-0.107831 0.133037 0.32065 0.388552 -0.913031 0.124107
-0.00753719 -0.0334048 0.241556 -0.921826 -0.387604 0
0.00956404 0.207343 0.0358071 0.62518 0.00404185 0.780471
-0.014063 0.00369639 0.0737332 -0.378439 0.925626 0
0.229748 0.170449 0.623132 0.956003 -0.238704 -0.170527
-0.190291 -0.0274412 0.530183 0.197548 0.00118358 0.980292
0.0247903 0.152985 0.274683 -0.00308212 -0.962114 -0.272631
-0.0635977 0.0704869 0.306954 -0.00081428 0.133938 0.990989
-0.26623 0.0668894 0.0173842 -0.00606308 0.999981 -0.000597203
-0.0517221 -0.219852 0.324851 0 0 -1
-0.179563 0.14478 0.628665 -0.273397 -0.961901 -0.000824633
0.00557858 -0.0517437 0.276431 -0.377925 -0.925836 0
-0.125842 0.174071 0.73916 0.116557 -0.989085 0.0901373
-0.0681561 -0.223115 0.337935 0 0 -1
0.0127062 0.231225 0.582604 -0.0214978 0.990693 -0.13441
-0.0514905 -0.190784 0.311767 0 0 -1
-0.101291 -0.225094 0.0547096 0.802662 -0.596431 0.00225838
0.122579 0.221153 0.542563 0.0831157 0.986733 -0.13946
0.204875 -0.0175331 0.347852 0.831706 0.00510236 0.555192
0.0207607 -0.0654976 0.351008 0 0 1
-0.109388 -0.235993 0.0539427 0.802662 -0.596431 0.00225838
0.147018 -0.256912 0.00875033 0.00583506 -0.999983 0.000555821
0.10671 -0.146414 0.324851 0 0 -1
0.00954607 0.0543081 0.0938523 -0.0473596 0.0641543 0.996816
0.10123 0.0980309 0.324851 0 0 -1
0.0969653 0.186611 0.758654 -0.0571233 -0.939494 0.33777
0.0799325 0.238576 0.73842 0.000507378 -0.0820117 -0.996631
-0.00698896 0.148361 0.293587 0.0449881 -0.983886 -0.173045
0.126116 0.21092 0.47411 0.102971 0.984531 -0.141762
0.064375 0.0103063 0.324851 0 0 1
0.0755799 0.18763 0.310323 -0.000498014 0.0819364 0.996637
-0.140869 -0.223865 0.0617184 -0.824127 0.566403 -0.00150307
0.0940139 0.142849 0.313977 -0.000644114 0.0834932 0.996508
0.168515 0.000768639 0.337935 0 0 1
0.0883407 -0.199167 0.324851 0 0 -1
0.218284 0.0705025 0.506244 -0.197043 -0.00122321 -0.980394
0.156175 -0.186563 0.337935 0 0 1
-0.141137 -0.0504132 0.337935 0 0 -1
0.0410138 -0.0364395 0.222216 0.926773 -0.375621 0
-0.118581 0.0150364 0.351008 0 0 1
-0.024727 -0.233165 0.350759 0.001762 -0.285705 0.958316
-0.0322841 -0.132268 0.0795106 0.802593 -0.596527 0
0.20932 -0.145951 0.337935 0 0 -1
-0.0540033 0.122119 0.337935 0 0 -1
-0.156098 0.185842 0.472587 -0.856598 0.44474 -0.261622
0.0414551 -0.0749586 0.0963017 0.000812579 -0.0937467 0.995596
-0.112237 -0.236328 0.337935 0 0 -1
0.120086 -0.178195 0.311767 0 0 -1
0.00679525 0.147869 0.297976 0.0153493 -0.983938 -0.177848
0.198483 0.00304313 0.337935 0 0 -1
-0.227621 0.0395676 0.0198745 0.995113 0.00561643 0.0985863
0.0282437 -0.0521209 0.157348 0.389659 -0.920959 0
0.0251361 -0.00175994 0.311767 0 0 -1
-0.0916095 -0.0974281 0.337935 0 0 1
-0.0153988 0.155808 0.397808 0.0463651 -0.989876 0.134151
-0.0772259 0.090709 0.351008 0 0 1
0.244701 0.0364454 0.00141387 0.0929701 0.000599791 -0.995669
0.252033 0.0696029 0.0169446 -0.0061773 0.999981 0.000604561
-0.0372593 -0.0122042 0.311767 0 0 -1
0.0458042 -0.0657645 0.311767 0 0 -1
-0.152525 0.235178 0.701099 -0.144923 0.979159 -0.142284
-0.0247747 -0.0469348 0.311767 0 0 -1
0.217541 0.0442482 0.0353116 0.669537 0.00399319 -0.742768
0.165026 0.18289 0.772527 -0.376733 -0.911567 0.164674
0.0612369 0.0228409 0.311767 0 0 -1
-0.128094 -0.0132822 0.324851 0 0 1
-0.0936802 0.142786 0.349976 0.118294 -0.983966 0.13348
-0.0306506 0.22421 0.02409 0.996886 0.00596505 -0.0786315
-0.0205351 0.0233437 0.324851 0 0 -1
0.180656 -0.0210081 0.351008 0 0 1
0.171013 -0.217728 0.0728488 0.39618 -0.125298 0.909583
-0.0361005 0.169565 0.58816 0.0460306 -0.996855 0.0645071
0.0747751 0.175368 0.663073 -0.0336195 -0.996433 0.0773982
-0.0539547 0.200947 0.381533 -0.0706172 0.988453 -0.134066
0.150894 0.0192551 0.311767 0 0 -1
-0.0988098 0.0014684 0.311767 0 0 -1
0.00196351 -0.0106996 0.118467 -0.389848 0.920879 0
0.197053 0.0713106 0.309418 -0.354074 0.123326 0.92705
-0.134533 0.0308894 0.337935 0 0 -1
-0.0309407 0.0597382 0.337935 0 0 -1
0.162136 -0.125755 0.311767 0 0 -1
-0.0650582 0.24689 0.737672 0.000485823 -0.0778316 -0.996966
-0.173896 0.167958 0.531849 -0.932741 -0.250608 -0.25921
0.0314368 0.110163 0.324851 0 0 -1
0.0869992 -0.049429 0.311767 0 0 -1
-0.0309572 0.0672823 0.292846 0.00080648 -0.132668 -0.99116
0.00865443 -0.0529993 0.257199 -0.377925 -0.925836 0
-0.0453753 -0.223069 0.311767 0 0 -1
0.0314454 -0.0507662 0.226389 0.389659 -0.920959 0
-0.11215 -0.157309 0.337935 0 0 1
0.091576 -0.0619497 0.337935 0 0 -1
-0.0777086 -0.160701 0.351008 0 0 1
0.215641 0.05474 0.507204 -0.761256 -0.00472575 -0.648435
-0.0947649 -0.00444056 0.337935 0 0 -1
-0.0344664 -0.0265037 0.311767 0 0 -1
-0.212728 0.196198 0.703833 -0.979892 0.0944196 -0.175774
-0.118838 0.224294 0.595664 -0.115383 0.983203 -0.141416
0.0956363 -0.0249519 0.0822175 0.333318 -0.942815 0
0.164614 -0.195189 0.324851 0 0 1
-0.186041 0.219223 0.644644 -0.497653 0.846291 -0.190085
-0.0865323 -0.185414 0.324851 0 0 1
0.146102 0.0322059 0.337935 0 0 1
-0.208996 0.159877 0.738496 -0.77905 -0.621276 -0.0842422
0.160421 0.205154 0.463709 0.132285 0.980265 -0.146905
-0.148081 0.143959 0.390954 -0.786039 -0.612657 0.0824272
-0.0664695 0.191811 0.32286 -0.0952004 0.986435 -0.133726
0.149227 0.150579 0.472896 -0.497541 -0.857536 0.130713
-0.145481 0.220756 0.788035 -0.182188 0.100198 0.978145
-0.117613 0.23411 0.663435 -0.115351 0.983412 -0.139984
0.186381 0.19817 0.482545 0.845134 0.460051 -0.272216
0.129107 0.155481 0.440318 -0.37874 -0.917155 0.124028
0.0146062 -0.0147034 0.324851 0 0 -1
-0.0863893 0.1651 0.578543 0.0965946 -0.993415 0.0616164
-0.126153 -0.148887 0.311767 0 0 -1
-0.184314 0.15753 0.582905 -0.944904 -0.249571 -0.211825
-0.028421 0.118271 0.324851 0 0 1
-0.150841 -0.212152 0.33468 -0.770265 -0.637724 0
0.0882232 -0.00629658 0.351008 0 0 1
0.0081972 -0.117449 0.351008 0 0 1
-0.109667 0.0811017 0.297824 -0.00571181 0.939574 -0.342299
-0.143112 -0.227132 0.053993 -0.824374 0.566027 -0.00467742
0.0168211 0.0638977 0.0935807 -0.0473041 0.0641262 0.99682
0.201966 0.161981 0.75833 -0.498315 -0.863912 0.0730566
0.204801 0.0136417 0.0662919 0.333318 -0.942815 0
0.133885 -0.193455 0.311767 0 0 -1
-0.00286309 0.0320117 0.351008 0 0 1
0.112405 0.142925 0.299359 -0.103147 -0.984434 -0.142307
0.0213509 -0.00592353 0.178122 0.378195 0.925726 0
-0.126089 0.097232 0.311767 0 0 -1
0.0503331 -0.225919 0.351008 0 0 1
0.112375 -0.240217 0.335686 0.00615191 -0.999981 0
-0.181458 -0.252957 0.0166704 -0.996868 -0.00597148 0.0788595
0.00606789 0.00802546 0.324851 0 0 -1
0.141152 0.0350438 0.324851 0 0 -1
0.177808 0.196429 0.451895 0.847852 0.461212 -0.261593
-0.0155628 -0.031566 0.0653764 0 0 -1
0.0168992 -0.236663 0.324851 0 0 -1
0.0383054 -0.162263 0.324851 0 0 1
0.223505 0.148177 0.674038 0.263498 -0.964659 0.00124302
0.0587433 0.0137854 0.324851 0 0 1
-0.194933 0.230639 0.721379 -0.498494 0.84797 -0.180139
0.0644833 0.226337 0.552333 0.0289814 0.990411 -0.135075
-0.0936107 -0.143716 0.337935 0 0 1
-0.120539 -0.0549337 0.324851 0 0 -1
-0.00667622 -0.0354524 0.114524 -0.921826 -0.387604 0
-0.0574952 0.0137658 0.0648508 0.286259 0.958149 0.00239286
-0.0536483 -0.192764 0.324851 0 0 -1
0.087003 0.0031799 0.311767 0 0 -1
-0.0282672 -0.189505 0.324851 0 0 1
-0.153191 -0.0204873 0.311767 0 0 -1
0.0336274 -0.0109389 0.185013 0.378195 0.925726 0
0.0712951 -0.135526 0.0768571 -0.795189 -0.606361 0
-0.00166568 -0.0593317 0.337935 0 0 -1
0.0587802 0.0449187 0.337935 0 0 -1
-0.0301313 -0.151589 0.337935 0 0 -1
0.106619 0.252603 0.761255 0.0587909 0.990319 -0.125745
-0.0513283 -0.153626 0.351008 0 0 1
0.0798595 -0.0167098 0.0646915 -0.0384444 0.0122651 -0.999185
-0.0524342 -0.133272 0.324851 0 0 -1
-0.157474 0.0886428 0.321496 -0.771167 0.623018 -0.130956
0.188783 0.195094 0.484803 0.845134 0.460051 -0.272216
0.000751868 -0.0555037 0.337935 0 0 -1
-0.184907 0.199712 0.585997 -0.859618 0.446849 -0.247757
-0.07555 -0.213386 0.351008 0 0 1
0.137709 -0.227131 0.000329464 -0.625473 -0.00387758 -0.780236
0.0846179 0.0272073 0.324851 0 0 1
0.0891757 0.194276 0.327746 0.0831626 0.987513 -0.133797
-0.169731 -0.102676 0.347842 -0.832846 -0.00515685 0.55348
0.0307829 -0.0119543 0.0979224 0.0388128 0.0539462 0.997789
0.0276631 -0.0085023 0.170409 0.378195 0.925726 0
-0.126433 -0.0961369 0.351008 0 0 1
-0.140979 -0.0367829 0.337935 0 0 1
-0.131914 -0.215372 0.07407 -0.293648 -0.0971296 0.950966
0.0294872 -0.212128 0.351008 0 0 1
0.164916 -0.251559 0.0459933 -0.37816 -0.92574 0
-0.0226312 -0.0219434 0.337935 0 0 1
-0.00010097 -0.176784 0.324851 0 0 1
-0.0631117 -0.154276 0.351008 0 0 1
0.1567 -0.246703 0.0456514 -0.922011 -0.387163 0
-0.0868747 -0.148289 0.337935 0 0 -1
-0.00246328 0.169962 0.574216 0.0159175 -0.998315 0.055793
-0.0737169 -0.0289122 0.311767 0 0 -1
0.215364 0.0584604 0.313603 -0.232776 -0.913303 0.334206
0.0501804 -0.214374 0.337935 0 0 -1
0.0174993 -0.0566097 0.256314 -0.377925 -0.925836 0
0.0717928 0.126277 0.330456 -0.00615253 0.999981 0
-0.151604 0.0430667 0.324851 0 0 -1
-0.17828 0.185669 0.547605 -0.960684 0.0848446 -0.264362
0.00585008 0.209385 0.740762 0.00048702 -0.0809763 -0.996716
-0.0686413 -0.0244899 0.351008 0 0 1
0.102193 -0.20061 0.324851 0 0 1
-0.162504 -0.0413358 0.337935 0 0 1
-0.00430185 -0.0197197 0.287481 -0.926589 0.376076 0
-0.177112 -0.0465997 0.5231 0.760945 0.00461235 0.648799
0.178048 -0.0646363 0.337935 0 0 1
-0.00204825 -0.138529 0.324851 0 0 -1
0.00366628 0.221323 0.00216493 0.762975 0.00493051 -0.64641
0.246325 0.166675 0.731557 0.780306 -0.619751 -0.0838535
-0.0825298 0.194071 0.78075 0.08513 -0.842972 0.53118
-0.159959 -0.219104 0.00688178 -0.00608354 0.999981 -0.000344645
0.0986397 -0.142043 0.324851 0 0 -1
-0.0779045 0.159011 0.46348 0.0955919 -0.993385 0.0636239
-0.0597427 0.0321907 0.311767 0 0 -1
0.171001 0.0201705 0.0600119 -0.0894554 0.0283164 -0.995588
0.0736511 -0.143713 0.324851 0 0 1
-0.0357719 0.179057 0.71192 0.0464398 -0.995262 0.0854206
-0.140052 0.10713 0.331867 0.640073 -0.768314 0
-0.119484 -0.249574 0.0586834 0.802676 -0.596415 0.000597353
0.186578 -0.0114798 0.324851 0 0 -1
0.257345 -0.0184036 0.505919 0.19722 0.00121062 -0.980358
-0.0583583 0.142192 0.313953 -0.000464886 0.0806641 0.996741
-0.177044 -0.241036 0.0298749 -0.762683 -0.00491934 0.646753
-0.112016 0.234476 0.738662 0.000500786 -0.0813452 -0.996686
0.0224801 -0.0545595 0.13518 0.389659 -0.920959 0
0.0199346 0.173914 0.630773 -0.00411896 -0.99704 0.0767725
0.106105 -0.208487 0.311767 0 0 -1
0.187915 0.143781 0.574954 -0.496777 -0.858071 0.130105
-0.197687 0.201007 0.63465 -0.864913 0.453394 -0.215314
0.0907854 0.209709 0.789714 -0.0457265 -0.465964 0.883622
0.196056 -0.199406 0.335828 -0.885137 0.46533 0
0.136055 0.00953729 0.324851 0 0 1
0.0207829 -0.0257905 0.324851 0 0 1
-0.0660208 -0.216878 0.337935 0 0 1
0.0235681 0.194877 0.314412 0.00823262 0.990903 -0.134324
-0.18277 0.0760723 0.524466 0.640781 0.537221 0.548447
0.0768629 0.17692 0.683266 -0.0336911 -0.99576 0.0855922
0.0611339 0.100025 0.337935 0 0 1
0.130179 0.171901 0.311627 -0.000506738 0.0810583 0.996709
-0.087835 -0.0387508 0.337935 0 0 1
-0.093581 0.248771 0.753068 -0.0958484 0.98851 -0.116882
-0.0740158 -0.162412 0.0872104 0.00087272 -0.151811 0.988409
-0.182603 0.0511508 0.0556572 0.286613 0.958033 0.0051179
-0.0289233 -0.241086 0.326718 -0.00615191 0.999981 0
-0.00685707 -0.0240794 0.337935 0 0 -1
0.117828 0.253515 0.778528 0.0833564 0.991806 -0.0968133
0.147303 -0.0748701 0.324851 0 0 -1
-0.0638307 -0.186633 0.311767 0 0 -1
0.168421 -0.189113 0.337935 0 0 1
0.00339584 0.212068 0.740543 0.000489417 -0.08144 -0.996678
-0.210432 0.178511 0.690823 -0.958745 -0.246303 -0.141924
0.149405 -0.0914068 0.324851 0 0 -1
-0.117933 0.0326192 0.324851 0 0 -1
0.213462 0.22288 0.778915 0.511558 0.133331 0.848841
0.13755 -0.21728 0.0237125 -0.00594359 0.999982 0.000605189
-0.1369 0.100449 0.324851 0 0 1
0.106843 0.143082 0.302289 -0.102084 -0.984512 -0.142533
-0.214771 0.0511562 0.0727933 -0.246125 0.333682 0.909988
0.0697681 0.191271 0.767577 -0.0327859 -0.938893 0.342645
0.167411 -0.0409954 0.311767 0 0 -1
0.0705384 0.248687 0.737597 0.000481336 -0.0785006 -0.996914
0.0174903 0.191447 0.288725 0.00823261 0.990913 -0.134252
-0.222991 -0.0107204 0.529216 -0.197464 -0.0012258 0.980309
-0.081507 0.161573 0.511013 0.0958225 -0.993641 0.0591277
0.142312 0.0304735 0.0688306 -0.297992 0.954568 0
-0.0942031 0.165731 0.598937 0.0958667 -0.993017 0.0687497
0.139988 0.0583264 0.351008 0 0 1
-0.0119751 -0.0271207 0.311767 0 0 -1
0.160387 -0.00206013 0.0748143 0.333318 -0.942815 0
0.172795 0.090798 0.337935 0 0 -1
-0.102563 0.221261 0.561423 -0.115374 0.983036 -0.142579
0.00827578 -0.14058 0.311767 0 0 -1
-0.202392 0.084807 0.522876 0.0726267 0.917192 0.39177
-0.00596044 -0.0371547 0.311009 -0.921826 -0.387604 0
0.135079 -0.205041 0.311767 0 0 -1
0.0707101 -0.219835 0.324851 0 0 -1
0.158381 0.13835 0.314377 -0.000381246 0.0812822 0.996691
-0.0449262 0.236741 0.636712 -0.0405624 0.990035 -0.134855
0.121414 -0.21149 0.324851 0 0 -1
0.129039 0.02633 0.0759252 -0.297992 0.954568 0
-0.13262 -0.0854336 0.324851 0 0 -1
-0.148737 0.143734 0.312102 -0.647928 -0.219089 -0.729513
-0.0772017 0.166853 0.591256 0.0966016 -0.992976 0.0683153
0.0185094 -0.00476268 0.152469 0.378195 0.925726 0
0.0342254 0.155449 0.390101 -0.00412554 -0.990919 0.134399
0.103304 -0.210673 0.337935 0 0 -1
0.147501 0.198778 0.405684 0.132746 0.98219 -0.132971
0.205938 0.242296 0.768946 0.460158 0.874013 0.156064
-0.040814 0.117106 0.324851 0 0 1
-0.134231 0.134805 0.30287 -0.542299 -0.484382 -0.686503
0.246357 0.0173569 0.484245 0.967603 -0.241983 -0.0720307
0.0777663 0.112367 0.351008 0 0 1
-0.108809 -0.0881694 0.337935 0 0 -1
-0.0250337 0.234683 0.615625 -0.0405627 0.990049 -0.134748
0.203422 0.23049 0.672479 0.132649 0.980716 -0.143531
0.134102 -0.223682 0.337935 0 0 1
-0.107513 0.19372 0.784719 0.104622 -0.849772 0.516663
0.191047 -0.0204984 0.324851 0 0 1
0.148416 -0.0061491 0.337935 0 0 -1
0.00833968 0.0285717 0.311767 0 0 -1
0.104823 -0.048202 0.324851 0 0 -1
0.238781 0.0661567 0.0471509 0 0 1
0.0112269 -0.134563 0.324851 0 0 -1
-0.132042 -0.220561 0.350312 -0.181752 -0.223871 0.957522
0.260287 0.041477 0.0348033 0.669433 0.00399255 0.742862
-0.132203 -0.108754 0.337935 0 0 1
0.0759888 -0.140204 0.324851 0 0 1
-0.109539 -0.110674 0.311767 0 0 -1
-0.137193 0.00354066 0.311767 0 0 -1
0.18756 0.0553378 0.337935 0 0 -1
0.163415 -0.125061 0.337935 0 0 -1
-0.0541159 -0.00809321 0.337935 0 0 1
0.0412147 -0.0960782 0.066069 -0.795189 -0.606361 0
-0.168761 -0.14132 0.348942 -0.832846 -0.00515685 0.55348
-0.0754393 0.0443531 0.311767 0 0 -1
0.0902626 -0.0909984 0.311767 0 0 -1
-0.12872 -0.0171974 0.311767 0 0 -1
0.016581 -0.0111305 0.311767 0 0 -1
0.104664 -0.209701 0.324851 0 0 -1
0.20514 0.0618387 0.299958 0.207825 -0.673034 -0.709813
-0.0889818 -0.153013 0.351008 0 0 1
-0.0192468 -0.0889532 0.337935 0 0 -1
-0.214329 0.0262212 0.0518709 -0.323159 -0.946271 -0.0118067
0.116371 -0.134533 0.0777073 0.817102 0.576493 0
-0.0689238 0.172611 0.659784 0.0712525 -0.994338 0.0788397
0.0860505 0.109701 0.311767 0 0 -1
0.184913 -0.0403411 0.351008 0 0 1
0.167836 0.244662 0.740971 0.104018 0.988734 -0.10764
-0.140573 -0.161973 0.337935 0 0 -1
-0.00848365 -0.0300229 0.256404 -0.926589 0.376076 0
0.0879578 -0.141318 0.337935 0 0 1
-0.126084 -0.0308365 0.311767 0 0 -1
-0.179305 0.0114283 0.525264 0.761291 0.00456116 0.648394
0.0595976 0.0693386 0.324851 0 0 -1
0.0758304 -0.046609 0.324851 0 0 -1
0.159796 -0.0579187 0.337935 0 0 1
-0.140498 -0.236035 0.0390395 -0.668946 -0.00400716 -0.7433
-0.018946 0.151348 0.276856 0.0438027 -0.963064 -0.265684
-0.0928093 0.166326 0.605587 0.0958667 -0.993017 0.0687497
-0.103216 -0.181318 0.337935 0 0 1
0.0140324 0.167449 0.522036 0.015574 -0.998673 0.049094
0.119213 0.126569 0.335765 -0.00615253 0.999981 0
0.157018 0.101877 0.324851 0 0 -1
-0.147843 -0.219028 0.0293334 -0.00611778 0.999981 1.89683e-05
0.0310734 -0.233437 0.337935 0 0 -1
0.161644 0.0340708 0.337935 0 0 1
-0.185188 0.228581 0.739103 0.000508193 -0.0807111 -0.996737
0.0510197 -0.16512 0.351008 0 0 1
-0.167951 -0.153168 0.337935 0 0 -1
-0.050488 -0.0923548 0.0887441 -0.824179 0.566329 0
0.0560426 -0.0270367 0.337935 0 0 1
0.20957 -0.140068 0.329133 0.999981 0.00619101 0
-0.196484 0.0534286 0.317437 -0.509688 -0.741122 -0.436986
-0.196815 0.0610894 0.310951 -0.880575 -0.189115 -0.434538
-0.163361 0.186959 0.497467 -0.854801 0.441917 -0.272073
0.221707 0.076391 0.506499 -0.185487 0.364681 -0.91247
-0.121806 0.0520914 0.337935 0 0 -1
-0.188115 0.207571 0.611336 -0.859273 0.447712 -0.247397
-0.196899 0.0280013 0.445225 0.965141 0.25178 0.0714776
-0.0176123 0.209538 0.0471509 0 0 1
0.0856277 -0.201977 0.337935 0 0 1
0.0545255 0.208404 0.418414 0.0293585 0.990522 -0.134181
-0.0824271 -0.107014 0.337935 0 0 -1
0.124056 -0.00383087 0.324851 0 0 -1
-0.225766 0.0614711 0.528747 -0.197464 -0.0012258 0.980309
0.125739 -0.0630054 0.311767 0 0 -1
0.0238531 -0.105032 0.337935 0 0 1
0.0863378 0.110276 0.337935 0 0 1
0.00343984 -0.220656 0.311767 0 0 -1
0.0458242 0.00511974 0.0911701 0.36653 0.930406 0
-0.136106 0.229884 0.648967 -0.115135 0.983458 -0.139836
0.196674 0.0107684 0.0687614 0.333318 -0.942815 0
0.216532 0.155312 0.757093 0.231978 -0.802054 0.55036
-0.0650221 0.154969 0.416781 0.0952054 -0.986423 0.133812
-0.037814 0.214423 0.74033 0.000489417 -0.08144 -0.996678
-0.067743 -0.0210507 0.324851 0 0 -1
0.0129398 -0.0547486 0.244915 -0.377925 -0.925836 0
0.0130355 0.0897092 0.324851 0 0 1
0.124826 0.199816 0.392928 0.103649 0.985611 -0.133522
0.0289643 0.25587 0.7865 -0.000505604 0.0807875 0.996731
0.0270913 0.200612 0.356937 0.00823262 0.990903 -0.134324
0.165127 -0.149152 0.324851 0 0 1
-0.127986 -0.22484 0.0490002 0 0 1
-0.0568426 0.0711164 0.337935 0 0 1
0.0533841 -0.0396376 0.0969678 0.0634942 -0.0201217 0.997779
0.0505466 0.034705 0.324851 0 0 1
0.0236017 0.228564 0.739211 0.000508193 -0.0807111 -0.996737
-0.118853 0.194062 0.38644 -0.145156 0.980426 -0.133024
-0.021487 -0.00030943 0.311767 0 0 -1
0.0113088 0.0350374 0.0646589 0.0239754 -0.0323714 -0.999188
0.0856008 0.165208 0.515819 -0.0584804 -0.996923 0.0522043
-0.00896233 -0.0844722 0.324851 0 0 -1
0.0195253 -0.0558097 0.181888 0.389659 -0.920959 0
-0.0787798 -0.0758993 0.324851 0 0 -1
0.0983457 0.0717648 0.337935 0 0 -1
-0.0248084 0.257174 0.782171 -0.0413383 0.99274 -0.112956
-0.0344849 -0.134187 0.324851 0 0 1
0.0600955 -0.0910034 0.337935 0 0 -1
-0.0868656 0.196241 0.371277 -0.115547 0.984296 -0.133452
-0.129425 -0.125019 0.351008 0 0 1
-0.04669 0.22538 0.555299 -0.070683 0.988026 -0.137142
-0.0052891 0.245674 0.0342614 -0.0061815 0.999981 0.000471528
0.0622538 0.00708023 0.324851 0 0 1
0.141622 -0.0350408 0.324851 0 0 -1
0.112406 0.070456 0.292539 0.000822745 -0.13267 -0.99116
0.119398 0.205065 0.788866 -0.0592861 -0.483491 0.873339
0.0982484 0.14564 0.290772 -0.102084 -0.984512 -0.142533
0.0624947 -0.240524 0.327096 0.00615191 -0.999981 0
-0.202056 0.199028 0.649657 -0.975368 0.0905847 -0.201126
-0.0114083 -0.0378357 0.351008 0 0 1
0.121579 -0.0524924 0.324851 0 0 1
-0.0779004 0.0615762 0.294475 0.00419355 -0.689852 -0.723939
0.0306888 0.170007 0.570642 -0.00336164 -0.998421 0.0560737
-0.184752 0.071088 0.304087 -0.382619 0.32967 -0.863087
-0.0763878 -0.139063 0.324851 0 0 1
-0.108449 0.24455 0.730866 -0.0960301 0.985826 -0.137568
-0.272832 0.0420514 0.0215348 0.996839 0.00658742 -0.0791736
0.0040679 -0.112953 0.324851 0 0 1
0.121554 0.221312 0.543076 0.0831157 0.986733 -0.13946
-0.0912039 0.230469 0.618108 -0.0956847 0.98579 -0.138065
0.0614886 -0.156098 0.324851 0 0 -1
-0.119968 0.198193 0.418116 -0.144373 0.980558 -0.1329
0.110552 -0.0196785 0.0756194 0.333318 -0.942815 0
0.011537 -0.125734 0.324851 0 0 1
0.0416008 -0.0257307 0.158985 0.921937 0.387341 0
0.0609549 0.223364 0.529758 0.0289184 0.99046 -0.134734
0.266158 0.0453517 0.0490002 0 0 -1
0.0867614 0.0714581 0.324851 0 0 1
0.0514648 0.204377 0.38802 0.0293585 0.990522 -0.134181
0.172687 -0.0834979 0.311767 0 0 -1
-0.185932 -0.032719 0.529311 0.197548 0.00118358 0.980292
0.0494423 -0.0705813 0.324851 0 0 1
-0.0886346 -0.0137888 0.324851 0 0 -1
0.18332 -0.14124 0.311767 0 0 -1
0.133392 0.0505105 0.337935 0 0 1
0.154588 -0.0279503 0.351008 0 0 1
0.17675 0.0387835 0.337935 0 0 1
0.019681 0.176238 0.660949 -0.00411896 -0.99704 0.0767725
-0.0761628 0.125367 0.330284 -0.00615253 0.999981 0
0.106545 0.179211 0.728816 -0.0589993 -0.994487 0.0866913
0.152453 -0.0242851 0.337935 0 0 1
0.0432301 -0.0296085 0.234407 0.921937 0.387341 0
-0.191617 -0.0796723 0.507986 0.185926 -0.364323 -0.912524
-0.173878 -0.0663009 0.331284 -0.999981 -0.00618548 0
0.211731 0.17203 0.545753 0.940602 -0.241193 -0.238943
0.13337 0.194129 0.357586 0.103649 0.985611 -0.133522
-0.112311 0.194422 0.74192 0.00048702 -0.0809763 -0.996716
0.0433625 -0.0299237 0.285921 0.921937 0.387341 0
-0.21335 0.171362 0.722941 -0.958745 -0.246303 -0.141924
0.0926856 0.242037 0.676541 0.0588772 0.98896 -0.135983
0.0928999 0.025034 0.351008 0 0 1
-0.0298711 -0.0502497 0.351008 0 0 1
-0.202555 0.0222162 0.0585951 -0.321378 -0.946939 0.00474393
-0.170778 -0.073248 0.316239 -0.833206 -0.00515908 -0.552939
0.0484818 -0.0565962 0.324851 0 0 -1
-0.151035 0.200983 0.489842 -0.494446 0.841481 -0.217792
0.119133 -0.115533 0.324851 0 0 -1
0.102246 0.169337 0.602826 -0.059037 -0.996029 0.0666457
0.0648267 -0.049847 0.337935 0 0 1
-0.072998 0.143758 0.270012 0.459149 -0.878008 0.135222
0.0585369 -0.0509934 0.337935 0 0 -1
-0.139573 -0.183769 0.337935 0 0 1
-0.160805 0.226019 0.646577 -0.144358 0.979036 -0.143699
-0.204552 0.201584 0.66344 -0.864913 0.453394 -0.215314
0.20272 -0.118633 0.337935 0 0 -1
-0.0561782 -0.0531742 0.324851 0 0 -1
0.112542 0.192169 0.742219 0.000509117 -0.0814075 -0.996681
-0.120807 -0.213705 0.311767 0 0 -1
0.0951445 -0.216673 0.337935 0 0 -1
-0.117209 -0.0267467 0.337935 0 0 -1
-0.043814 0.247353 0.714379 -0.0409429 0.990062 -0.134536
0.00494471 0.23284 0.0393731 0.62489 0.00420715 0.780701
0.111393 -0.17305 0.337935 0 0 1
-0.163022 0.195947 0.51103 -0.851498 0.441449 -0.282973
-0.183651 0.219057 0.63765 -0.497862 0.846148 -0.190174
0.0823157 0.0655568 0.324851 0 0 1
0.246111 -0.0592081 0.503609 0.19722 0.00121062 -0.980358
0.068726 0.0520474 0.324851 0 0 1
-0.10688 -0.0902224 0.311767 0 0 -1
-0.144791 0.186743 0.407694 -0.878813 0.472749 -0.0647834
0.235415 0.0481826 0.342507 -0.543176 -0.839598 -0.00598482
0.260358 0.0538027 0.0490002 0 0 1
-0.0347369 -0.0329052 0.324851 0 0 1
0.101258 0.249995 0.738193 0.0589801 0.990339 -0.125499
-0.071973 0.109971 0.324851 0 0 1
-0.156971 0.0630924 0.351008 0 0 1
0.259712 0.0156305 0.528747 0.197643 0.00121321 0.980273
-0.272062 0.0306784 0.0241992 -0.995107 -0.00561601 -0.0986403
0.000890851 -0.186331 0.324851 0 0 1
-0.178553 -0.0260842 0.524645 0.760945 0.00461235 0.648799
0.113179 -0.140314 0.060635 -0.089522 0.0283928 -0.99558
-0.236167 0.0531101 0.0386653 0.625198 0.00370285 0.780458
-0.194118 0.0394562 0.530873 0.197463 0.00119689 0.98031
-0.0795402 0.0884925 0.311767 0 0 -1
0.251797 0.19129 0.732698 0.978256 0.108518 -0.176748
-0.0344998 0.0697812 0.351008 0 0 1
-0.0188409 0.0736462 0.306564 -0.00081414 0.133941 0.990989
0.135501 0.121589 0.324851 0 0 -1
0.188983 0.070549 0.351008 0 0 1
0.0643513 -0.119242 0.351008 0 0 1
-0.15078 0.167994 0.385408 -0.993871 0.109446 -0.0155452
-0.00433931 0.10661 0.351008 0 0 1
0.0397461 0.0388681 0.337935 0 0 -1
-0.0603783 0.0358503 0.324851 0 0 -1
-0.116506 0.0771171 0.324851 0 0 1
-0.157327 0.0729103 0.29932 0.999967 0.00801939 0.00087808
-0.124035 -0.00446102 0.0714391 -0.32168 -0.946849 0
0.140118 -0.167011 0.324851 0 0 1
-0.0617982 0.244483 0.701483 -0.0705944 0.988226 -0.135738
-0.0618951 0.250783 0.748244 -0.0706347 0.989601 -0.125298
0.0416093 -0.152513 0.311767 0 0 -1
-0.176681 -0.256158 0.0329477 0.669534 0.00419963 -0.742769
-0.039031 0.223551 0.538179 -0.0706816 0.988004 -0.1373
0.0222527 0.0350984 0.351008 0 0 1
-0.0778043 -0.0633644 0.337935 0 0 -1
-0.0952898 -0.237079 0.337935 0 0 1
0.0166976 0.237807 0.630725 0.00824008 0.990943 -0.134027
0.128334 -0.0756529 0.324851 0 0 -1
0.0519133 -0.186833 0.324851 0 0 -1
0.25226 -0.0678896 0.530352 0.197642 0.0012131 0.980274
-0.166292 0.152611 0.683948 0.459191 -0.88001 0.121351
0.0241652 -0.177164 0.337935 0 0 1
-0.233442 0.0308317 0.0415159 0.668877 0.00460606 0.743358
0.141463 0.033385 0.351008 0 0 1
0.0215774 0.175147 0.646884 -0.00411896 -0.99704 0.0767725
0.0707074 -0.15952 0.337935 0 0 -1
-0.254469 0.0272732 0.0270724 0.0058801 -0.999983 -2.59148e-05
-0.0885849 0.153959 0.427828 0.118294 -0.983966 0.13348
-0.115743 0.0414968 0.324851 0 0 1
0.145933 0.0523996 0.324851 0 0 -1
-0.167996 -0.174846 0.34565 -0.795686 -0.246191 0.55342
-0.0310897 0.208759 0.427192 -0.0409215 0.9901 -0.134263
0.19555 0.211824 0.550551 0.467717 0.85772 -0.213442
0.0364478 -0.0134655 0.106202 0.921937 0.387341 0
-0.211965 0.0499327 0.374114 -0.968262 0.239502 0.0714616
-0.0248819 0.217734 0.491145 -0.0411725 0.990066 -0.134443
0.0158603 -0.0274564 0.324851 0 0 1
-0.0557976 -0.103574 0.0919455 -0.0953466 -0.0315934 0.994943
-0.176534 0.147577 0.582292 -0.770026 -0.619401 -0.152982
0.00943882 0.171711 0.5994 0.0159157 -0.997837 0.0637762
-0.148192 -0.0897599 0.324851 0 0 1
0.166413 0.151295 0.54246 -0.496718 -0.85781 0.132032
0.155525 -0.183348 0.337935 0 0 1
0.0038041 -0.137723 0.351008 0 0 1
0.0158201 0.179893 0.705256 0.0154987 -0.996272 0.0848629
-0.0269842 -0.0145037 0.324851 0 0 1
-0.125368 -0.204529 0.0769658 -0.188768 -0.0623005 0.980044
0.129071 0.0626271 0.324851 0 0 -1
-0.0704246 0.162457 0.507914 0.0958225 -0.993641 0.0591277
-0.00128083 0.160624 0.42989 0.0157277 -0.990823 0.13425
0.203907 -0.11203 0.312727 0.283192 0.00175418 -0.959062
0.139753 0.18499 0.300538 0.131793 0.972863 -0.190181
0.0633687 0.0858892 0.337935 0 0 -1
-0.150661 0.162647 0.340242 -0.993949 0.108735 -0.0155311
0.118675 -0.23945 0.0146074 -0.996869 -0.00569248 0.0788628
0.168712 0.143081 0.497735 -0.497505 -0.857376 0.131891
0.131556 0.224986 0.57504 0.103457 0.984372 -0.142508
-0.0378943 0.194581 0.326139 -0.0706172 0.988453 -0.134066
0.0679681 -0.205086 0.351008 0 0 1
0.199003 -0.0335399 0.324851 0 0 1
0.179247 0.0968299 0.324851 0 0 1
-0.0891298 -0.163557 0.324851 0 0 -1
0.208216 -0.0580417 0.337935 0 0 1
-0.0368019 0.148381 0.283844 0.0694642 -0.983637 -0.166229
0.146768 0.139127 0.380516 -0.497925 -0.859418 0.116065
0.0554904 0.177596 0.682728 -0.0336911 -0.99576 0.0855922
0.00695053 -0.174706 0.311767 0 0 -1
-0.181514 0.167806 0.560875 -0.938557 -0.250133 -0.237789
0.0494448 -0.0822331 0.324851 0 0 1
0.141841 -0.0312055 0.351008 0 0 1
-0.00981334 0.156454 0.40064 0.0463651 -0.989876 0.134151
0.00298542 -0.105931 0.324851 0 0 1
0.182964 0.0577072 0.337935 0 0 -1
0.0385663 -0.0798648 0.351008 0 0 1
-0.0269412 0.211318 0.0390344 -0.668882 -0.00420348 0.743356
-0.0721919 0.125391 0.328172 0.00615253 -0.999981 0
-0.00447574 -0.0201481 0.173893 -0.926589 0.376076 0
0.0865798 0.242029 0.673836 0.0588772 0.98896 -0.135983
-0.107892 0.0770041 0.324851 0 0 1
0.225713 -0.055876 0.504908 -0.197128 -0.00120994 -0.980377
0.194256 0.165988 0.486849 0.938852 -0.241992 -0.244944
0.13042 0.162626 0.535331 -0.105396 -0.992689 0.0588312
0.0471781 -0.0583401 0.351008 0 0 1
0.00358786 -0.0576528 0.337935 0 0 -1
0.107783 0.0529296 0.351008 0 0 1
-0.134964 0.192322 0.395475 -0.501682 0.857154 -0.116628
0.192252 0.205547 0.786879 0.148355 0.0455007 0.987887
0.180102 0.246026 0.769203 0.132754 0.990402 -0.0384708
-0.0167016 0.0724566 0.324851 0 0 -1
0.14795 0.135213 0.356606 -0.497913 -0.859425 0.116064
0.122655 0.153776 0.418167 -0.10574 -0.985391 0.133505
0.0830157 0.00735774 0.324851 0 0 -1
0.185864 -0.0351207 0.324851 0 0 1
0.131901 0.156401 0.456473 -0.378958 -0.918815 0.110319
-0.144261 0.244788 0.772528 -0.144995 0.9886 -0.0405901
-0.17829 0.232634 0.709742 -0.143887 0.979404 -0.14165
-0.167666 -0.0144364 0.31242 -0.281826 -0.00173078 -0.959464
-0.151688 -0.0696526 0.337935 0 0 -1
0.152012 0.217881 0.54081 0.103457 0.984372 -0.142508
-0.0241653 -0.0671301 0.337935 0 0 -1
0.0176392 0.0460554 0.311767 0 0 -1
-0.0982208 0.0257805 0.337935 0 0 -1
-0.155756 -0.258777 0.00236513 0.00577446 -0.999982 0.00151074
0.129353 -0.162464 0.351008 0 0 1
-0.171439 -0.0858935 0.337935 0 0 -1
-0.165863 -0.0183729 0.311885 -0.285581 -0.0017562 -0.958353
-0.17791 0.200881 0.782823 -0.472294 -0.0451952 0.880281
-0.126209 0.0165337 0.351008 0 0 1
0.0116564 0.171412 0.594174 0.0159157 -0.997837 0.0637762
-0.13521 0.152028 0.562603 0.458702 -0.880152 0.122169
0.0452694 -0.0601454 0.337935 0 0 1
-0.0716553 -0.0808375 0.311767 0 0 -1
-0.0166141 0.165214 0.492872 0.0450812 -0.997442 0.0554655
0.204723 -0.101844 0.324851 0 0 -1
