0.0339497 -0.0744871 0.348532 0 0 1
0.169332 0.25325 0.0176569 0 0.707097 0.707116
-0.123301 0.270186 0.558782 0 -0.98481 0.173636
-0.0931759 -0.0541261 0.348532 0 0 1
0.0503206 -0.0272572 0.34359 0 0 -1
-0.128487 -0.00264564 0.348532 0 0 1
-0.129407 -0.0794193 0.348532 0 0 1
-0.052637 0.259066 0.495718 0 -0.98481 0.173636
-0.133942 0.0290407 0.348532 0 0 1
-0.214362 0.238535 0.341381 -0.696051 0.1653 -0.698705
-0.111776 0.137866 0.34359 0 0 -1
-0.198136 -0.238794 0.326798 0.96334 0.0694238 -0.259144
-0.198696 0.331046 0.486052 -1 0 0
0.0710293 0.267907 0.517366 0 0.984813 -0.173619
-0.027339 0.0476077 0.348532 0 0 1
0.032608 0.265703 0.533359 0 -0.98481 0.173636
-0.187723 -0.0491729 0.348532 0 0 1
-0.225169 0.154556 0.503302 0.259649 0 0.965703
-0.19803 0.0134201 0.34804 -1 0 0
0.117419 0.345901 0.615744 0 0.966274 -0.257516
0.153824 -0.086159 0.348532 0 0 1
0.201407 0.261501 0.4362 -0.706757 -0.696701 0.122892
-0.193302 0.253269 0.00895363 -0.250802 0.934685 -0.251918
-0.219213 -0.0403704 0.489097 0.708275 0 -0.705937
0.137133 0.274343 0.553872 0 0.984813 -0.173619
0.22867 0.0693609 0.484438 0.258053 0 -0.966131
-0.228543 0.0931166 0.484404 -0.258053 0 -0.966131
0.21425 -0.120417 0.353266 0.705935 0 0.708276
0.20455 0.255556 0.513349 -0.258686 -0.951288 0.167726
-0.18488 -0.116772 0.348532 0 0 1
-0.198413 -0.283548 0.294362 0.96335 -0.189679 0.189679
-0.213214 0.257497 0.520024 -0.705684 -0.697764 0.123026
0.119965 0.26096 0.506456 0 -0.98481 0.173636
0.209035 0.26673 0.370202 0.259831 0.95099 -0.16765
0.215231 0.253506 0.386418 0.706742 -0.696716 0.122895
-0.140193 0.24635 0.000304928 0 -0.260227 -0.965548
0.0264951 0.338265 0.626879 0 0.258053 0.966131
0.209026 -0.04384 0.000293255 0.260227 0 -0.965548
0.131668 -0.0299668 0.348532 0 0 1
-0.214714 0.0499896 0.00315948 -0.705926 0 -0.708286
-0.100877 0.341784 0.625662 0 0.705935 0.708276
0.102267 0.0350986 0.348532 0 0 1
0.137925 0.17456 0.348532 0 0 1
0.0647917 0.333803 0.484407 0 -0.25747 -0.966286
-0.0331181 0.257238 0.00933523 0 0.965545 -0.260236
-0.217311 -0.316454 0.245342 -0.963919 0.257128 -0.0688845
-0.198178 -0.0876339 0.00934665 0.965546 0 -0.260233
0.0926891 0.125712 0.348532 0 0 1
0.0781307 -0.0927257 0.34359 0 0 -1
-0.171734 0.261112 0.478821 0 0.984813 -0.173619
0.0223652 0.0134431 0.348532 0 0 1
0.0630967 0.261328 0.508543 0 -0.98481 0.173636
-0.0283961 0.275885 0.562619 0 0.984813 -0.173619
0.00935882 0.257742 0.488204 0 -0.98481 0.173636
0.163696 0.280275 0.593204 0 0.172448 0.985019
-0.21658 0.151667 0.34136 -0.966132 0 -0.25805
0.214469 0.174344 0.353047 0.705935 0 0.708276
-0.212055 -0.265301 0.298651 -0.252391 0.684214 -0.684214
-0.205366 0.277507 0.533017 0.259239 0.951143 -0.167699
-0.222743 -0.176914 0.39534 0.707105 -0.707108 0
0.206776 -0.233571 0.0369599 -0.251933 0.250504 0.934761
0.173768 0.222802 0.34359 0 0 -1
0.201133 -0.327059 0.117809 -0.695681 -0.693867 -0.185949
-0.136588 -0.135261 0.348532 0 0 1
-0.0826887 0.0755225 0.348532 0 0 1
-0.162076 0.111818 0.34359 0 0 -1
-0.22915 -0.177903 0.450405 -0.258053 -0.966131 0
0.0982073 0.0803848 0.34359 0 0 -1
-0.20616 -0.321961 0.159037 0.251377 0.934936 0.250407
-0.110191 0.266485 0.509303 0 0.984813 -0.173619
0.208096 0.0561734 0.0197611 0.260222 0 0.965549
-0.214224 0.0759053 0.00267157 -0.705926 0 -0.708286
-0.0403965 0.325814 0.498187 0 -0.966287 0.257469
-0.203768 -0.292674 0.084668 0.251782 0.684326 0.684328
-0.0240692 0.341845 0.487792 0 0.708276 -0.705935
-0.109666 -0.161203 0.34359 0 0 -1
-0.180519 0.0745442 0.348532 0 0 1
0.20205 -0.326749 0.24274 -0.694741 -0.694744 0.186186
-0.0413017 0.0970536 0.34359 0 0 -1
-0.188742 0.0636115 0.34359 0 0 -1
-0.199908 0.320128 0.626198 0.188112 -0.18813 0.963961
-0.233178 -0.0827186 0.502168 -0.707107 0 0.707107
0.187869 0.325013 0.620671 -0.250825 -0.935226 0.249877
0.0274368 0.238341 0.0127323 0 -0.966284 0.257477
0.0466866 0.228343 0.348196 0 1 0
-0.214819 -0.0381168 0.339419 -0.707008 0 -0.707205
0.0288644 -0.0882928 0.348532 0 0 1
0.209192 -0.0663166 0.355625 0.260237 0 0.965545
0.198277 -0.330537 0.19667 -0.963374 0.259025 -0.0693928
-0.201752 -0.21172 0.32711 0.695847 0.185788 -0.693743
-0.179168 -0.0210682 0.348532 0 0 1
0.212068 -0.0275775 0.35485 0.260237 0 0.965545
0.224101 -0.177309 0.35512 -0.257469 -0.966286 0
0.217561 -0.110794 0.0109203 0.966285 0 0.257475
0.218405 0.272298 0.496211 -0.965702 0 0.259651
0.199345 0.0583296 0.350946 -0.965702 0 0.259651
-0.210037 -0.311894 0.121139 -0.250413 0.935177 0.250472
-0.0268026 -0.155679 0.34359 0 0 -1
-0.19803 -0.164013 0.348087 -1 0 0
-0.18501 0.273198 0.547379 0 0.984813 -0.173619
-0.21208 -0.00373414 0.00111629 -0.260227 0 -0.965548
0.217756 -0.0810482 0.0101903 0.966285 0 0.257475
0.224225 -0.159421 0.447111 -0.259652 0.965702 0
0.209685 0.000974521 0.000470821 0.260227 0 -0.965548
-0.218806 0.000910416 0.4977 0.965702 0 0.259651
-0.0742036 0.272721 0.54467 0 0.984813 -0.173619
0.201124 0.176417 0.0166115 -0.707096 0 0.707118
0.216634 -0.280042 0.0661864 0.963973 0.188073 0.18811
0.0875409 -0.168383 0.344941 0 -1 0
-0.134212 0.335041 0.50388 0 0.259649 0.965703
-0.161098 0.276054 0.563577 0 0.984813 -0.173619
-0.199359 0.273194 0.433753 0.965626 0.255984 -0.0451579
0.217879 -0.135922 0.494252 -0.965702 0 0.259651
-0.0684991 0.0477975 0.348532 0 0 1
0.230876 -0.177442 0.379739 0.258053 -0.966131 0
0.0911951 0.000331581 0.348532 0 0 1
0.236466 0.19935 0.498444 0.965702 0 0.259651
0.0442096 0.0410113 0.34359 0 0 -1
-0.160011 0.248842 0.0194377 0 0.259634 0.965707
-0.209422 0.120415 0.336556 -0.258238 0 -0.966081
-0.181512 -0.084818 0.348532 0 0 1
0.2067 -0.148102 0.35563 -0.259649 0 0.965703
-0.0555458 -0.0440699 0.348532 0 0 1
-0.217782 0.263932 0.408567 -0.966212 0.253834 -0.0447506
0.211919 -0.315117 0.0830452 0.24931 -0.68484 -0.684718
0.229537 -0.108182 0.50351 0.260237 0 0.965545
0.113842 0.21845 0.348532 0 0 1
-0.0588187 -0.120194 0.348532 0 0 1
0.11639 0.158805 0.34359 0 0 -1
-0.216641 0.278436 0.46615 -0.966363 0.253273 -0.0446796
0.180623 0.0149235 0.348532 0 0 1
0.198963 -0.200778 0.0220504 -0.96334 0.0694525 0.259139
0.120798 -0.0658697 0.34359 0 0 -1
-0.206091 0.268891 0.591364 0.259062 -0.951192 0.167692
-0.202784 -0.320336 0.206911 0.695363 0.694179 -0.185975
-0.0574697 0.275804 0.59065 0 -0.98481 0.173636
-0.199528 0.197946 0.004788 0.707096 0 -0.707118
-0.100114 0.0977159 0.34359 0 0 -1
-0.212978 0.142487 0.00142927 -0.705926 0 -0.708286
0.18833 0.0281435 0.34359 0 0 -1
-0.179281 0.159059 0.34359 0 0 -1
-0.0446242 0.204556 0.34359 0 0 -1
0.208974 -0.0378965 0.0195243 0.260222 0 0.965549
-0.0388517 0.265057 0.529697 0 -0.98481 0.173636
0.23171 0.304903 0.502925 0.260237 0 0.965545
0.0348623 0.280299 0.587659 0 0.984813 -0.173619
-0.0790951 0.0271261 0.34359 0 0 -1
0.153068 0.26489 0.50025 0 0.984813 -0.173619
-0.217819 -0.241775 0.326336 -0.963831 0.0689661 -0.257436
0.214776 -0.317474 0.132048 0.694178 0.695278 0.186294
-0.126986 0.267055 0.541025 0 -0.98481 0.173636
0.217316 0.273117 0.572346 0.966325 -0.253411 0.0446993
-0.0331662 -0.0943834 0.34359 0 0 -1
0.181684 0.165046 0.34359 0 0 -1
-0.217156 -0.0767877 0.00735633 -0.966133 0 -0.258043
0.0316112 0.338262 0.608042 0 0.260237 -0.965545
0.202184 0.0206171 0.017672 -0.707096 0 0.707118
0.0270165 -0.0392809 0.34359 0 0 -1
-0.180176 0.219068 0.348532 0 0 1
-0.133498 -0.0246433 0.348532 0 0 1
-0.000802219 0.178699 0.34359 0 0 -1
0.174754 -0.0101135 0.34359 0 0 -1
-0.0204673 0.327364 0.620473 0 -0.965703 0.25965
0.198885 -0.183769 0.0108474 -0.963208 -0.0695543 -0.259603
-0.136803 0.146049 0.34359 0 0 -1
0.199282 0.124428 0.350711 -0.965702 0 0.259651
0.217835 0.0148421 0.494091 -0.965702 0 0.259651
0.0538191 0.0496139 0.348532 0 0 1
-0.0120261 0.0257242 0.348532 0 0 1
-0.237284 -0.167596 0.34359 0 0 -1
0.210203 0.0800826 0.0191932 0.260222 0 0.965549
0.0570395 -0.139776 0.34359 0 0 -1
-0.0132051 -0.0319434 0.34359 0 0 -1
0.0704165 0.19257 0.34359 0 0 -1
-0.228695 -0.0946142 0.484445 -0.258053 0 -0.966131
-0.145406 0.261369 0.508777 0 -0.98481 0.173636
-0.0653042 -0.0076849 0.34359 0 0 -1
0.17766 -0.0690117 0.348532 0 0 1
0.230259 0.109502 0.503316 0.260237 0 0.965545
0.233097 0.150766 0.502249 0.707107 0 0.707107
-0.214877 -0.339768 0.165732 -0.693552 -0.695852 -0.186481
-0.0526183 -0.0683568 0.348532 0 0 1
-0.214297 -0.141955 0.0170595 -0.705926 0 0.708286
-0.144308 -0.0564852 0.34359 0 0 -1
0.0769776 0.158288 0.348532 0 0 1
0.111964 -0.116914 0.34359 0 0 -1
-0.12384 0.225634 0.34359 0 0 -1
0.219079 0.239624 0.498718 -0.965702 0 0.259651
0.217143 0.28466 0.600641 0.964456 0.242609 -0.104714
0.217078 0.233661 0.350154 0.964487 -0.0610189 0.256986
0.20527 0.283904 0.470049 -0.259031 0.951201 -0.167687
-0.111363 0.27264 0.544214 0 0.984813 -0.173619
-0.224963 -0.177539 0.370484 0.257469 -0.966286 0
0.0170938 0.219128 0.34359 0 0 -1
-0.234921 0.270579 0.487748 -0.707205 0 -0.707008
0.198958 -0.302184 0.27849 -0.963228 -0.190006 0.18997
0.142755 0.130754 0.34359 0 0 -1
0.218134 0.185118 0.495203 -0.965702 0 0.259651
0.00772718 0.276305 0.565001 0 0.984813 -0.173619
0.225181 0.0758628 0.503305 -0.259649 0 0.965703
0.200533 0.249177 0.0121329 0.685141 0.684594 0.248823
-0.202649 -0.252658 0.0439056 0.694352 0.508808 0.50891
-0.147749 0.201373 0.34359 0 0 -1
0.126764 0.193369 0.34359 0 0 -1
0.0537406 0.109161 0.348532 0 0 1
0.200803 0.216206 0.35245 -0.707105 0 0.707108
-0.235709 -0.0477762 0.499637 -0.706034 -1.74514e-05 0.708178
-0.162549 -0.130555 0.34359 0 0 -1
0.168073 -0.106885 0.34359 0 0 -1
-0.0755391 0.327837 0.622233 0 -0.965703 0.25965
-0.216521 0.265146 0.388222 -0.966363 0.253273 -0.0446796
0.151021 0.342618 0.499615 0 0.707107 0.707107
-0.198256 -0.114976 0.0107383 0.9657 0 0.25966
-0.0192837 -0.113615 0.34359 0 0 -1
0.21798 -0.066249 0.494631 -0.965702 0 0.259651
-0.210855 0.21092 0.336939 -0.258238 0 -0.966081
0.00787495 0.0663452 0.348532 0 0 1
-0.236933 -0.130267 0.496709 -0.965702 -2.38698e-05 0.259651
-0.19107 -0.147537 0.34359 0 0 -1
0.118148 -0.0122417 0.34359 0 0 -1
0.205099 0.258506 0.530931 -0.258686 -0.951288 0.167726
0.0832373 0.265507 0.503755 0 0.984813 -0.173619
0.12115 0.326583 0.617569 0 -0.965703 0.25965
0.205969 0.055873 0.000529272 -0.259639 0 -0.965706
-0.108603 0.332478 0.48476 0 -0.25747 -0.966286
0.136238 0.0424301 0.348532 0 0 1
-0.214418 -0.268324 0.0579382 -0.693153 0.509675 0.509677
0.216813 0.115061 0.00607329 0.966133 0 -0.258043
-0.0396928 0.154648 0.348532 0 0 1
0.204747 0.0867208 0.33701 -0.257654 0 -0.966237
-0.173911 0.32564 0.490646 0 -0.966131 -0.258053
0.0848797 0.276013 0.563344 0 0.984813 -0.173619
-0.196199 0.177069 0.34359 0 0 -1
-0.237444 0.303328 0.494814 -0.966238 0 0.25765
0.209792 -0.320585 0.153831 0.251942 0.934769 0.250464
0.212032 0.279992 0.450075 0.259831 0.95099 -0.16765
-0.207639 0.258861 0.351345 0.252398 0.621802 -0.741389
-0.0339696 0.011322 0.34359 0 0 -1
-0.111864 -0.0868758 0.348532 0 0 1
0.199322 -0.19561 0.343565 -0.963341 -0.0694296 0.259139
0.150285 0.081656 0.34359 0 0 -1
0.10991 0.3406 0.486543 0 0.708276 -0.705935
0.007851 0.335026 0.626977 0 -0.257469 0.966287
0.231423 -0.159468 0.418255 0.26024 0.965544 0
-0.123518 0.344411 0.623044 0 0.705935 0.708276
-0.198461 -0.0163224 0.0114988 0.9657 0 0.25966
-0.203992 0.0469437 0.354902 0.259649 0 0.965703
0.0641632 0.280767 0.590312 0 0.984813 -0.173619
-0.0720374 0.324989 0.493084 0 -0.966131 -0.258053
-0.221009 0.305572 0.487702 0 1 0
-0.21077 -0.0958342 0.336916 -0.258238 0 -0.966081
0.0884648 0.340047 0.608523 0 0.260237 -0.965545
0.145875 0.345954 0.615944 0 0.966274 -0.257516
0.00575237 0.150882 0.348532 0 0 1
0.0949782 -0.0701971 0.348532 0 0 1
-0.220804 -0.1434 0.486416 0.696008 0.185306 -0.693711
0.181664 0.0962007 0.348532 0 0 1
-0.216483 -0.246088 0.0257423 -0.693549 -0.186441 -0.695867
0.21329 -0.229452 0.337864 0.693564 -0.18639 0.695864
-0.106578 0.280834 0.590692 0 0.984813 -0.173619
-0.0127506 0.0631069 0.34359 0 0 -1
-0.20769 0.272861 0.503074 0.259213 0.951149 -0.167701
-0.237211 0.0505199 0.495687 -0.966238 0 0.25765
-0.0109902 -0.137704 0.348532 0 0 1
0.0526811 0.00585157 0.348532 0 0 1
-0.0548964 0.337355 0.627122 0 0.258053 0.966131
0.233089 -0.0215599 0.485917 0.708276 0 -0.705935
0.0202219 -0.162377 0.34359 0 0 -1
0.204528 -0.0974393 0.000916884 -0.259639 0 -0.965706
-0.204111 0.293852 0.602659 0.252299 0.622394 -0.740926
0.227086 0.165017 0.484365 -0.257469 0 -0.966286
-0.214746 -0.329541 0.228855 -0.694182 -0.695265 0.186326
-0.153977 -0.036344 0.348532 0 0 1
0.00735153 -0.071758 0.34359 0 0 -1
0.198463 0.130713 0.0115046 -0.9657 0 0.25966
0.0937138 0.103407 0.34359 0 0 -1
-0.0141759 0.211729 0.34359 0 0 -1
-0.0854023 -0.168006 0.34359 0 0 -1
-0.0742819 0.337301 0.503272 0 0.259649 0.965703
0.219669 0.0331133 0.48864 -0.708275 0 -0.705937
0.0129386 -0.00904773 0.348532 0 0 1
-0.113111 -0.140876 0.34359 0 0 -1
-0.0730969 0.251794 0.00115971 0 0.259639 -0.965706
-0.198546 -0.191147 0.0140821 0.963208 -0.0695543 -0.259603
0.210474 -0.306675 0.254747 0.250424 0.935158 -0.250535
0.184734 0.0781711 0.34359 0 0 -1
0.0217609 0.331256 0.50309 0 -0.25965 0.965703
-0.0274164 0.0280643 0.348532 0 0 1
-0.221705 0.228463 0.501579 0.707105 0 0.707108
-0.0904855 0.267762 0.516545 0 0.984813 -0.173619
0.203143 -0.124968 0.337438 -0.257654 0 -0.966237
0.21812 -0.0416072 0.49515 -0.965702 0 0.259651
-0.0685139 -0.108733 0.348532 0 0 1
0.040325 0.18567 0.348532 0 0 1
-0.225324 0.133298 0.484834 0.257469 0 -0.966286
-0.150461 0.175032 0.348532 0 0 1
0.158794 0.272615 0.544072 0 0.984813 -0.173619
0.060038 0.20148 0.34359 0 0 -1
-0.218102 0.0546093 0.495082 0.965702 0 0.259651
0.185983 0.236082 0.00841089 -0.250984 -0.934503 -0.252409
-0.227519 -0.158536 0.436254 0.259652 0.965702 0
0.1531 -0.163837 0.348532 0 0 1
-0.0505279 0.173129 0.34359 0 0 -1
-0.215756 -0.219374 0.0178598 -0.693549 -0.186441 -0.695867
0.201964 0.212039 0.0174517 -0.707096 0 0.707118
0.151167 0.20644 0.348532 0 0 1
0.128383 -0.102076 0.34359 0 0 -1
-0.186573 0.00406827 0.34359 0 0 -1
-0.0327512 0.266061 0.506897 0 0.984813 -0.173619
0.202148 0.251419 0.482656 -0.706855 -0.696614 0.122823
-0.0510219 0.0467276 0.34359 0 0 -1
0.210945 -0.099977 0.355153 0.260237 0 0.965545
0.0545688 -0.0836468 0.348532 0 0 1
0.198584 -0.256978 0.0341641 -0.963348 -0.189703 -0.189668
0.20215 -0.223573 0.323536 -0.695847 0.185788 -0.693743
0.136891 0.0176166 0.348532 0 0 1
0.205838 -0.152315 0.336719 -0.257654 0 -0.966237
0.20336 0.262113 0.548704 -0.258686 -0.951288 0.167726
-0.111543 0.182557 0.348532 0 0 1
0.217295 -0.222185 0.0263378 0.963963 0.0688765 0.256965
-0.149438 0.0206421 0.34359 0 0 -1
-0.207734 0.241432 0.0136108 -0.685141 0.684594 0.248823
-0.198492 -0.188341 0.342428 0.963375 -0.069392 0.259025
-0.229836 -0.15904 0.457737 -0.26024 0.965544 0
-0.137248 -0.112748 0.348532 0 0 1
-0.215935 0.298601 0.620902 -0.696214 -0.165784 0.698427
0.20977 0.255343 0.415167 0.259827 -0.950971 0.167762
-0.210818 -0.315611 0.272817 -0.250841 -0.684563 0.684436
-0.223622 0.183152 0.485288 0.257469 0 -0.966286
-0.212435 0.197889 0.354751 -0.260237 0 0.965545
0.205581 -0.326072 0.173805 -0.251377 0.934936 0.250407
0.15501 -0.0195324 0.348532 0 0 1
-0.0936906 -0.126125 0.34359 0 0 -1
0.233088 0.226368 0.502258 0.707107 0 0.707107
-0.0643819 0.212414 0.34359 0 0 -1
-0.216627 -0.294689 0.0685091 -0.963734 -0.18872 -0.188686
-0.212534 0.258278 0.427528 -0.259451 -0.951074 0.167761
0.193108 -0.0463041 0.34359 0 0 -1
0.207304 0.198443 0.355793 -0.259649 0 0.965703
-0.131658 0.263208 0.519206 0 -0.98481 0.173636
-0.199057 -0.0257192 0.349876 0.965702 0 0.259651
-0.199253 -0.0387373 0.014446 0.9657 0 0.25966
0.00867867 0.254623 0.00352006 0 0.707097 -0.707116
0.214474 0.272994 0.520247 0.705399 0.698047 -0.123057
0.236892 -0.170112 0.468952 0.963375 -0.259026 0.0693854
-0.150454 0.074336 0.348532 0 0 1
-0.0672427 0.127994 0.348532 0 0 1
-0.206758 0.116221 0.000317237 0.259639 0 -0.965706
-0.0125852 0.113827 0.348532 0 0 1
0.0435516 0.0772947 0.34359 0 0 -1
-0.181043 -0.16827 0.348532 0 0 1
0.200698 0.153372 0.339773 -0.708176 0 -0.706036
0.231853 0.0033752 0.485288 0.258053 0 -0.966131
-0.198041 0.219959 0.00834439 0.934973 -0.249651 -0.251993
-0.05034 -0.134521 0.34359 0 0 -1
-0.190225 0.234638 0.00612922 0.68475 -0.683746 -0.252209
-0.176873 0.341063 0.608797 0 0.260237 -0.965545
0.119301 0.260699 0.476483 0 0.984813 -0.173619
0.127144 0.0842993 0.34359 0 0 -1
0.189802 -0.0253518 0.348532 0 0 1
-0.209493 -0.114435 0.355544 -0.260237 0 0.965545
0.216286 0.253975 0.353142 0.696308 0.46148 -0.54972
0.0657133 0.0625303 0.348532 0 0 1
-0.198614 -0.173209 0.0133605 0.96337 0.0694309 0.259034
0.203993 -0.156889 0.00106071 -0.259639 0 -0.965706
-0.237381 0.00649275 0.495051 -0.966238 0 0.25765
0.205068 0.275822 0.424518 -0.259031 0.951201 -0.167687
-0.190262 0.333298 0.503639 0 -0.25965 0.965703
0.218022 -0.166031 0.471206 -0.963361 0.259075 -0.0693984
-0.202909 -0.323141 0.259408 0.694741 -0.694744 0.186186
0.230338 0.272234 0.484883 0.258053 0 -0.966131
0.0470629 -0.0560125 0.34359 0 0 -1
0.16882 -0.134169 0.34359 0 0 -1
0.20094 0.268302 0.496246 -0.70657 0.696894 -0.122872
0.110497 0.274758 0.584718 0 -0.98481 0.173636
0.0822429 0.0371841 0.348532 0 0 1
-0.0491201 0.260681 0.476379 0 0.984813 -0.173619
0.061598 0.244581 0.019022 0 -0.260222 0.965549
0.235533 -0.17411 0.429197 0.707107 -0.707107 0
0.217638 -0.300987 0.27598 0.963852 -0.188401 0.188401
0.206977 0.309584 0.607659 -0.259198 -0.069449 -0.963324
0.202337 0.19633 0.00197881 -0.707096 0 -0.707118
0.180775 0.265155 0.501753 0 0.984813 -0.173619
0.0880711 0.26462 0.527219 0 -0.98481 0.173636
-0.186247 0.1395 0.348532 0 0 1
-0.218793 0.0783168 0.497652 0.965702 0 0.259651
-0.131856 0.127337 0.34359 0 0 -1
0.217829 -0.294597 0.0746139 0.96397 0.18808 0.188117
0.210919 0.319697 0.493542 -0.684501 -0.684499 -0.250837
-0.196789 -0.0779235 0.348532 0 0 1
0.180105 0.343148 0.62398 0.185586 0.693672 0.695972
0.0104426 0.0890956 0.348532 0 0 1
0.212528 0.128805 0.337386 0.258238 0 -0.966081
0.0225273 0.141514 0.34359 0 0 -1
-0.211794 -0.327386 0.111023 -0.249872 -0.935276 -0.250644
-0.225805 -0.0252891 0.503473 0.259649 0 0.965703
0.0239561 0.0358994 0.34359 0 0 -1
-0.0346479 -0.0428165 0.348532 0 0 1
-0.21045 0.133114 0.0191265 -0.260222 0 0.965549
-0.117554 0.161184 0.34359 0 0 -1
0.101473 0.144669 0.348532 0 0 1
0.0125773 0.2691 0.524135 0 0.984813 -0.173619
0.0305672 0.324876 0.493504 0 -0.966131 -0.258053
-0.0116303 0.273383 0.57692 0 -0.98481 0.173636
-0.0770459 -0.0456649 0.34359 0 0 -1
0.081792 0.27203 0.540752 0 0.984813 -0.173619
-0.0839351 0.205957 0.34359 0 0 -1
-0.00791806 0.275095 0.558138 0 0.984813 -0.173619
0.228645 0.327077 0.489328 0.684794 0.684197 -0.250863
0.20048 0.224587 0.00218823 -0.694238 -0.185806 -0.695349
0.216643 -0.131062 0.0054382 0.966133 0 -0.258043
-0.112732 -0.0272056 0.34359 0 0 -1
0.199058 -0.142333 0.00608056 -0.965546 0 -0.260233
-0.0694303 0.33804 0.607982 0 0.260237 -0.965545
-0.145554 0.327749 0.621906 0 -0.965703 0.25965
0.214701 -0.0860824 0.3393 0.707008 0 -0.707205
-0.189058 0.259123 0.496042 0 -0.98481 0.173636
0.204041 0.0857799 0.354915 -0.259649 0 0.965703
-0.04813 0.268702 0.550367 0 -0.98481 0.173636
-0.110942 0.0304215 0.34359 0 0 -1
-0.184903 0.0966295 0.34359 0 0 -1
-0.168307 0.201842 0.34359 0 0 -1
-0.218149 0.196371 0.492919 0.965544 0 -0.26024
-0.206339 0.173557 0.336585 0.257654 0 -0.966237
0.0366121 0.344024 0.492226 0 0.965543 -0.260242
0.0170966 -0.144405 0.348532 0 0 1
0.156724 0.185046 0.34359 0 0 -1
0.191931 0.279846 0.585088 0 0.984813 -0.173619
0.204179 0.230458 0.337663 -0.251135 0.223523 -0.94179
0.0756912 -0.146703 0.348532 0 0 1
0.235125 0.0529952 0.487959 0.708276 0 -0.705935
0.19292 0.332624 0.484721 0 -0.25747 -0.966286
0.134368 -0.0839439 0.348532 0 0 1
0.0187591 0.186363 0.34359 0 0 -1
-0.217932 -0.124686 0.494451 0.965702 0 0.259651
-0.198309 0.196588 0.34502 0.965544 0 -0.26024
-0.216921 0.263681 0.487902 -0.966363 0.253274 -0.0446751
0.183645 -0.121297 0.348532 0 0 1
0.0634245 0.244201 0.000883938 0 -0.260227 -0.965548
0.216876 0.166195 0.013492 0.966285 0 0.257475
0.0591655 0.343674 0.623778 0 0.705935 0.708276
-0.220316 -0.174487 0.422137 0.707105 -0.707108 0
-0.126109 0.199185 0.34359 0 0 -1
-0.0683765 -0.0224557 0.34359 0 0 -1
-0.100774 0.262948 0.489235 0 0.984813 -0.173619
0.178053 0.0449164 0.348532 0 0 1
0.0267493 0.273848 0.551066 0 0.984813 -0.173619
-0.19879 -0.314343 0.105957 0.96334 0.259145 0.069424
-0.19803 0.275463 0.564751 -1 0 0
-0.214507 0.328124 0.484446 0.188251 -0.188038 -0.963952
-0.157828 -0.0722926 0.34359 0 0 -1
0.0340154 -0.106498 0.348532 0 0 1
0.234629 -0.161753 0.377612 0.707108 0.707105 0
0.121928 0.25658 0.006895 0 0.965545 -0.260236
0.205319 -0.219537 0.01441 -0.249856 -0.250529 -0.935311
-0.0330329 0.238816 0.00528817 0 -0.966133 -0.258046
0.0905051 0.226546 0.34359 0 0 -1
-0.124136 0.0126785 0.34359 0 0 -1
-0.21742 0.0979395 0.344503 -0.966132 0 -0.25805
-0.208888 0.259813 0.541256 -0.259272 -0.951137 0.167682
0.204167 0.0156623 0.354949 -0.259649 0 0.965703
-0.145866 -0.152838 0.348532 0 0 1
0.202725 -0.0820074 0.354372 -0.707105 0 0.707108
-0.139324 0.25032 0.0190402 0 0.259634 0.965707
0.079685 0.14005 0.34359 0 0 -1
0.150093 0.272153 0.569939 0 -0.98481 0.173636
0.209208 -0.0938103 0.0194614 0.260222 0 0.965549
0.0555066 -0.0100395 0.348532 0 0 1
-0.0754307 0.173685 0.34359 0 0 -1
-0.175323 0.0416118 0.348532 0 0 1
0.217118 0.0942157 0.0125827 0.966285 0 0.257475
-0.207044 -0.153882 0.336397 0.257654 0 -0.966237
0.217335 -0.0230147 0.00802812 0.966133 0 -0.258043
-0.0285092 0.333302 0.608407 0 -0.259649 -0.965703
0.217767 0.267814 0.430261 0.966212 0.253834 -0.0447506
0.133777 -0.156179 0.34359 0 0 -1
-0.110883 0.278021 0.574735 0 0.984813 -0.173619
-0.15166 0.274071 0.580822 0 -0.98481 0.173636
-0.0553669 0.327869 0.612577 0 -0.96569 -0.259697
0.140444 0.243192 0.00115584 0 -0.260227 -0.965548
-0.214229 -0.0604099 0.0171268 -0.705926 0 0.708286
-0.0801224 0.153956 0.34359 0 0 -1
0.0486642 0.266274 0.536596 0 -0.98481 0.173636
0.200949 0.278279 0.552787 -0.706855 0.696617 -0.122805
0.0275325 0.12317 0.348532 0 0 1
-0.0788239 -0.0712254 0.348532 0 0 1
-0.134054 0.0604107 0.34359 0 0 -1
0.0767927 -0.0423361 0.348532 0 0 1
0.134541 0.343301 0.489546 0 0.965543 -0.260242
-0.01149 0.252808 0.0180986 0 0.707097 0.707116
-0.213459 -0.0122948 0.0178948 -0.705926 0 0.708286
0.128259 0.272397 0.571327 0 -0.98481 0.173636
-0.208719 0.197768 0.0195932 -0.260222 0 0.965549
0.214761 -0.0623802 0.0165966 0.705926 0 0.708286
0.0838278 0.254802 0.016105 0 0.707097 0.707116
0.203784 0.103173 0.337267 -0.257654 0 -0.966237
-0.213495 0.0151297 0.338095 -0.707008 0 -0.707205
0.186835 0.272131 0.541327 0 0.984813 -0.173619
-0.217352 0.170816 0.011704 -0.966285 0 0.257475
0.217766 0.202843 0.0101514 0.966285 0 0.257475
-0.19803 -0.103333 0.346621 -1 0 0
0.000827387 0.332027 0.48488 0 -0.25747 -0.966286
-0.226918 0.248865 0.503772 0.259649 0 0.965703
-0.0398334 0.273775 0.57914 0 -0.98481 0.173636
0.216659 -0.247331 0.329313 0.963964 -0.0688418 0.256972
-0.00537473 -0.0572282 0.348532 0 0 1
-0.0321102 0.0687418 0.348532 0 0 1
0.125048 -0.142074 0.34359 0 0 -1
-0.198562 0.273663 0.453484 0.965779 0.255428 -0.0450315
0.053477 0.257061 0.484342 0 -0.98481 0.173636
0.198126 -0.0276293 0.0102548 -0.9657 0 0.25966
0.206014 0.18759 0.336672 -0.257654 0 -0.966237
-0.190605 -0.130693 0.34359 0 0 -1
0.100725 0.26747 0.543382 0 -0.98481 0.173636
0.0806571 0.325109 0.492633 0 -0.966131 -0.258053
0.217181 0.115118 0.348507 0.966287 0 0.257466
-0.0278057 0.272241 0.541947 0 0.984813 -0.173619
-0.0459051 0.244579 0.0190215 0 -0.260222 0.965549
-0.204267 0.266461 0.372653 0.259244 0.951147 -0.167667
0.0588284 0.134447 0.348532 0 0 1
-0.211151 0.00591624 0.355097 -0.260237 0 0.965545
-0.085545 0.111617 0.34359 0 0 -1
-0.0929373 0.330626 0.609772 0 -0.707107 -0.707107
0.104792 0.0559857 0.348532 0 0 1
-0.138917 0.0915115 0.34359 0 0 -1
-0.0161453 0.259291 0.496993 0 -0.98481 0.173636
-0.123668 0.259484 0.498089 0 -0.98481 0.173636
-0.0201086 0.328962 0.501961 0 -0.707107 0.707107
0.207159 0.32764 0.624535 0.508279 0.508279 0.695201
-0.216014 -0.155347 0.351507 -0.705935 0 0.708276
-0.228245 -0.158612 0.390625 -0.26024 0.965544 0
-0.0334599 0.143133 0.348532 0 0 1
-0.217475 0.0252959 0.00855371 -0.966133 0 -0.258043
0.218563 -0.156188 0.484166 -0.963339 0.189719 -0.189697
-0.21043 0.129963 0.355291 -0.260237 0 0.965545
-0.00118724 -0.106132 0.348532 0 0 1
0.218897 -0.00733031 0.490142 -0.965544 0 -0.26024
0.157579 0.0487555 0.348532 0 0 1
0.205992 -0.311309 0.236848 -0.249849 0.935327 -0.250478
0.103644 0.0208331 0.348532 0 0 1
-0.204575 -0.327269 0.177268 0.251377 0.934936 0.250407
0.225222 -0.118587 0.484861 -0.257469 0 -0.966286
0.091415 -0.106781 0.34359 0 0 -1
0.218075 -0.16928 0.436409 -0.965702 -0.259652 0
-0.0822397 0.274259 0.581888 0 -0.98481 0.173636
-0.00283195 -0.00528386 0.34359 0 0 -1
-0.112855 -0.0628413 0.34359 0 0 -1
-0.204835 0.0490474 0.0189692 0.259634 0 0.965707
-0.208632 0.30988 0.607922 -0.259607 0.0695408 -0.963207
0.0381842 0.018803 0.34359 0 0 -1
-0.143833 -0.07833 0.34359 0 0 -1
-0.210808 0.340529 0.496885 -0.250977 0.935336 0.249314
-0.0533094 0.262597 0.515741 0 -0.98481 0.173636
-0.21462 -0.319225 0.139165 -0.693563 0.695863 0.186398
-0.0832691 0.0576985 0.348532 0 0 1
0.221571 0.133779 0.501445 -0.707105 0 0.707108
0.176999 0.343355 0.498439 0 0.965702 0.259654
0.206514 0.158966 0.35558 -0.259649 0 0.965703
-0.199172 -0.258652 0.311514 0.963352 0.189656 -0.189694
0.21433 -0.316277 0.269418 0.694021 -0.509133 0.509037
0.172419 -0.149904 0.34359 0 0 -1
0.217996 -0.167782 0.380729 -0.965689 0.259701 0
0.0687651 -0.131244 0.348532 0 0 1
-0.202306 0.271454 0.406872 0.707893 0.695593 -0.122626
-0.198904 0.262821 0.384681 0.965626 0.255984 -0.0451579
-0.0394597 -0.00307858 0.348532 0 0 1
-0.218376 -0.170399 0.351544 0.965702 -0.259652 0
-0.176215 -0.101648 0.34359 0 0 -1
0.0838392 -0.0591765 0.34359 0 0 -1
0.131663 -0.0506942 0.348532 0 0 1
-0.198453 0.0843251 0.0114688 0.9657 0 0.25966
0.16411 0.261702 0.510669 0 -0.98481 0.173636
0.0058555 0.0222959 0.34359 0 0 -1
0.0160294 0.106948 0.34359 0 0 -1
0.187463 0.204466 0.34359 0 0 -1
0.117249 0.0350663 0.348532 0 0 1
0.144966 0.06212 0.34359 0 0 -1
-0.212603 -0.19942 0.00957073 -0.251938 -0.250389 -0.93479
0.132627 -0.120418 0.348532 0 0 1
0.23262 -0.0458589 0.485493 0.258053 0 -0.966131
0.236574 0.176742 0.49014 0.965544 0 -0.26024
-0.123017 0.344468 0.493874 0 0.965543 -0.260242
-0.204412 0.177434 0.000947978 0.259639 0 -0.965706
0.202062 0.249441 0.371579 -0.707911 -0.695578 0.122616
-0.0271495 -0.0769161 0.348532 0 0 1
-0.0833689 0.270588 0.561067 0 -0.98481 0.173636
0.191924 -0.154798 0.348532 0 0 1
0.151743 0.147725 0.34359 0 0 -1
-0.0696156 0.259228 0.476583 0 -0.174814 -0.984601
-0.200598 0.241596 0.357199 0.6975 -0.460286 0.549209
-0.20583 -0.0450292 0.000566734 0.259639 0 -0.965706
0.208383 -0.0242089 0.336278 0.258238 0 -0.966081
0.210057 0.268518 0.588822 0.259649 -0.951034 0.167681
-0.198714 0.230024 0.343915 0.963706 0.0616737 -0.259744
-0.0933896 0.325078 0.495426 0 -0.966287 0.257469
-0.217049 -0.157073 0.0069581 -0.966133 0 -0.258043
-0.237326 0.105608 0.495257 -0.966238 0 0.25765
0.161751 0.238159 0.0120517 0 -0.966284 0.257477
-0.096994 -0.0371033 0.34359 0 0 -1
-0.072562 0.00933675 0.348532 0 0 1
-0.196676 0.268437 0.520374 0 0.984813 -0.173619
0.210969 -0.332605 0.226277 0.249815 -0.93529 0.250651
-0.210882 -0.280081 0.283439 -0.252391 0.684214 -0.684214
-0.178893 0.242289 0.0154945 -1 0 0
-0.0816208 -0.119316 0.34359 0 0 -1
0.175299 0.181483 0.348532 0 0 1
0.175916 -0.0867345 0.34359 0 0 -1
0.100688 0.262071 0.512756 0 -0.98481 0.173636
-0.0998645 -0.0224436 0.348532 0 0 1
-0.00415099 0.228343 0.344834 0 1 0
-0.16685 0.00915755 0.34359 0 0 -1
0.0800289 0.084501 0.348532 0 0 1
-0.0609422 0.0623919 0.348532 0 0 1
0.174046 -0.0267031 0.34359 0 0 -1
0.234938 -0.08609 0.500408 0.707107 0 0.707107
-0.198925 -0.324942 0.122571 0.963131 -0.259856 -0.0696672
-0.224721 0.0414486 0.503182 0.259649 0 0.965703
0.126187 0.143867 0.348532 0 0 1
0.0466362 0.266336 0.508457 0 0.984813 -0.173619
0.186568 0.270319 0.559542 0 -0.98481 0.173636
-0.127465 -0.151391 0.34359 0 0 -1
-0.21598 0.0612388 0.351541 -0.705935 0 0.708276
0.212225 0.170098 0.337305 0.258238 0 -0.966081
-0.212576 -0.0984923 0.00125012 -0.260227 0 -0.965548
-0.16889 -0.116382 0.348532 0 0 1
0.0714299 -0.0735039 0.348532 0 0 1
-0.0778917 0.265109 0.501493 0 0.984813 -0.173619
0.0408836 -0.158263 0.348532 0 0 1
-0.114208 0.238863 0.00510953 0 -0.966133 -0.258046
-0.0971188 0.228343 0.347173 0 1 0
0.0237273 0.272564 0.572272 0 -0.98481 0.173636
0.217215 -0.333516 0.197653 0.963997 -0.256856 0.0688115
0.219647 0.256041 0.488662 -0.708275 0 -0.705937
0.225371 0.0867067 0.484822 -0.257469 0 -0.966286
-0.221367 0.219071 0.486936 0.708275 0 -0.705937
0.00394985 -0.0269629 0.348532 0 0 1
0.103346 -0.157638 0.348532 0 0 1
-0.205742 0.0020147 0.0192132 0.259634 0 0.965707
-0.236509 0.167496 0.498312 -0.965702 -2.38698e-05 0.259651
-0.223289 0.11429 0.485376 0.257469 0 -0.966286
-0.192502 -0.00823356 0.34359 0 0 -1
0.144595 -0.100755 0.34359 0 0 -1
0.201623 0.0483207 0.338845 -0.708176 0 -0.706036
-0.225754 -0.0779904 0.48472 0.257469 0 -0.966286
-0.16385 0.262901 0.517467 0 -0.98481 0.173636
-0.144597 0.110095 0.348532 0 0 1
-0.183106 0.329635 0.609635 0.185949 -0.694774 -0.694774
-0.0351064 0.343886 0.623568 0 0.705935 0.708276
0.163088 0.258992 0.476625 0 -0.174814 -0.984601
0.212004 -0.310776 0.114997 0.251942 0.934769 0.250464
0.0587924 0.180246 0.348532 0 0 1
-0.0524304 0.142475 0.34359 0 0 -1
-0.111096 -0.00608535 0.348532 0 0 1
0.140118 0.0934651 0.348532 0 0 1
0.0552028 0.271191 0.564484 0 -0.98481 0.173636
-0.199156 -0.322785 0.142553 0.963375 0.259026 0.069384
0.0730324 0.103213 0.348532 0 0 1
0.159298 -0.0694537 0.34359 0 0 -1
-0.216892 -0.307087 0.0822601 -0.963734 -0.18872 -0.188686
-0.0261937 0.200605 0.34359 0 0 -1
0.212146 -0.173902 0.0201486 0.251925 0.250504 0.934763
0.135531 0.158295 0.348532 0 0 1
0.0708039 0.00409755 0.34359 0 0 -1
0.137831 0.26159 0.510033 0 -0.98481 0.173636
0.211883 -0.0101741 0.3549 0.260237 0 0.965545
-0.10409 0.0736097 0.348532 0 0 1
0.229356 -0.0927124 0.484621 0.258053 0 -0.966131
0.102242 -0.0160661 0.34359 0 0 -1
0.216746 -0.136147 0.350137 0.966287 0 0.257466
-0.0844053 0.0943856 0.348532 0 0 1
-0.037322 0.258086 0.490157 0 -0.98481 0.173636
-0.20319 -0.138926 0.354686 0.259649 0 0.965703
-0.0958334 0.266625 0.538588 0 -0.98481 0.173636
0.0367575 0.155496 0.34359 0 0 -1
-0.117952 0.0618693 0.34359 0 0 -1
0.202508 0.253704 0.398326 -0.706757 -0.696701 0.122892
-0.0851183 0.189717 0.348532 0 0 1
0.210712 -0.333281 0.131941 0.249872 -0.935276 -0.250644
-0.170962 0.0897246 0.348532 0 0 1
-0.218979 -0.0931739 0.498343 0.965702 0 0.259651
0.0308235 -0.125139 0.34359 0 0 -1
-0.0826196 0.265369 0.531463 0 -0.98481 0.173636
-0.202196 -0.224668 0.338765 0.695355 -0.185943 0.694195
0.0125177 0.272068 0.540968 0 0.984813 -0.173619
0.189204 0.111688 0.34359 0 0 -1
-0.202701 0.0715511 0.354348 0.707105 0 0.707108
-0.0972678 0.145589 0.34359 0 0 -1
-0.129308 -0.0979368 0.348532 0 0 1
-0.0934428 0.239291 0.00456886 0 -0.705926 -0.708286
0.167532 0.0805191 0.34359 0 0 -1
0.0299272 0.262461 0.486472 0 0.984813 -0.173619
-0.147154 0.0381021 0.34359 0 0 -1
0.0113097 -0.0915563 0.34359 0 0 -1
0.037979 0.327628 0.621454 0 -0.965703 0.25965
0.0479292 0.0930186 0.348532 0 0 1
0.0655125 0.270749 0.533486 0 0.984813 -0.173619
0.138652 -0.0124667 0.34359 0 0 -1
-0.0543776 0.11085 0.348532 0 0 1
-0.209283 0.26313 0.460067 -0.259451 -0.951074 0.167761
0.216514 0.291839 0.618525 0.964469 -0.169867 0.202347
-0.137425 -0.0424366 0.348532 0 0 1
-0.0129804 0.191538 0.34359 0 0 -1
-0.175791 -0.0393648 0.34359 0 0 -1
-0.147734 0.130506 0.34359 0 0 -1
-0.0366667 0.343939 0.496267 0 0.965702 0.259654
-0.113024 0.0888742 0.348532 0 0 1
0.185458 0.0608084 0.34359 0 0 -1
-0.164737 0.0640878 0.34359 0 0 -1
-0.0217215 0.133277 0.348532 0 0 1
0.0796199 0.0205399 0.348532 0 0 1
0.0642613 0.149523 0.34359 0 0 -1
-0.018386 0.165987 0.34359 0 0 -1
0.0696025 -0.106414 0.34359 0 0 -1
-0.204406 -0.0111148 0.355013 0.259649 0 0.965703
-0.0628915 0.0856341 0.34359 0 0 -1
0.21693 -0.164647 0.342669 0.966132 0 -0.25805
0.217927 0.0490367 0.493741 -0.965544 0 -0.26024
-0.136751 0.277511 0.571841 0 0.984813 -0.173619
0.121335 0.273263 0.547746 0 0.984813 -0.173619
-0.0511719 0.257202 0.00920231 0 0.965545 -0.260236
-0.218806 0.178247 0.497702 0.965702 0 0.259651
0.0731397 0.171962 0.348532 0 0 1
-0.217278 -0.263445 0.0405911 -0.963974 -0.18807 -0.188107
0.217242 0.0402068 0.0121161 0.966285 0 0.257475
0.206043 -0.21287 0.0312147 -0.251933 0.250504 0.934761
0.076705 0.274247 0.58182 0 -0.98481 0.173636
-0.219316 -0.0224126 0.488994 0.708275 0 -0.705937
-0.186158 0.34332 0.621555 -0.250972 0.93536 0.24923
0.191601 0.186835 0.348532 0 0 1
0.0306649 0.251662 0.00112419 0 0.259639 -0.965706
0.217365 -0.274392 0.303973 0.963971 -0.188112 0.188076
-0.168026 0.126068 0.348532 0 0 1
-0.217634 0.281114 0.600632 -0.964505 -0.242447 0.104644
-0.189579 0.0481974 0.34359 0 0 -1
-0.00831795 0.0488302 0.348532 0 0 1
0.201261 0.142064 0.352908 -0.707105 0 0.707108
0.0254683 0.0861358 0.34359 0 0 -1
-0.151684 0.344419 0.494479 0 0.965702 0.259654
0.185805 0.150421 0.34359 0 0 -1
-0.160197 -0.086421 0.348532 0 0 1
-0.215696 -0.310764 0.10358 -0.694178 0.695278 0.186294
-0.237266 -0.167002 0.421851 -0.965689 0.259701 0
0.212217 0.285734 0.582332 0.259825 0.950987 -0.167673
0.192297 -0.0870931 0.34359 0 0 -1
-0.150391 -0.118032 0.34359 0 0 -1
0.198702 0.158075 0.00740268 -0.965546 0 -0.260233
0.106341 -0.0490114 0.34359 0 0 -1
0.170348 0.278612 0.578087 0 0.984813 -0.173619
0.0422003 -0.136574 0.348532 0 0 1
-0.213335 0.274729 0.424145 -0.705497 0.697951 -0.123041
0.151813 0.254839 0.00373556 0 0.707097 -0.707116
0.10739 0.333324 0.608401 0 -0.259649 -0.965703
0.148716 0.264058 0.524026 0 -0.98481 0.173636
-0.198616 0.280812 0.592249 0.965623 0.255993 -0.0451548
0.217386 0.273224 0.47208 0.966212 -0.253834 0.0447506
-0.0271379 -0.0216485 0.34359 0 0 -1
-0.116034 0.121935 0.348532 0 0 1
0.229823 0.145094 0.484746 0.258053 0 -0.966131
0.148897 -0.0394322 0.34359 0 0 -1
0.137827 -0.0687645 0.34359 0 0 -1
0.131807 0.341827 0.625619 0 0.705935 0.708276
-0.181286 0.265541 0.53244 0 -0.98481 0.173636
0.15735 0.223526 0.34359 0 0 -1
0.204344 -0.342379 0.166696 -0.249248 -0.935431 -0.250686
0.132322 0.216377 0.34359 0 0 -1
-0.0972332 0.181236 0.348532 0 0 1
-0.198668 0.0951836 0.348429 0.965702 0 0.259651
-0.218866 -0.163351 0.469501 0.963338 0.259163 -0.0693898
-0.216941 0.0880949 0.0132485 -0.966285 0 0.257475
0.132122 0.262855 0.488709 0 0.984813 -0.173619
-0.235685 -0.0611705 0.488519 -0.708276 -1.75067e-05 -0.705935
0.0377907 0.112605 0.34359 0 0 -1
0.204763 -0.258963 0.304641 -0.251825 0.684248 -0.68439
0.21959 -0.163006 0.366029 -0.707107 0.707107 0
-0.203752 0.157149 0.00112543 0.259639 0 -0.965706
-0.174743 -0.141663 0.34359 0 0 -1
-0.0428173 -0.0794118 0.34359 0 0 -1
0.0876034 -0.034057 0.34359 0 0 -1
0.226738 -0.0521097 0.503724 -0.259649 0 0.965703
0.166084 0.0107129 0.34359 0 0 -1
0.0900779 0.206979 0.348532 0 0 1
0.208294 -0.197965 0.328327 0.252556 0.250461 -0.934604
-0.207215 -0.125042 0.0196091 0.259634 0 0.965707
0.105136 0.00121047 0.348532 0 0 1
0.0158138 0.343801 0.611277 0 0.705935 -0.708276
0.199978 0.0388082 0.351625 -0.707105 0 0.707108
0.208115 0.1533 0.0197559 0.260222 0 0.965549
0.0278311 0.26798 0.517778 0 0.984813 -0.173619
0.0564837 0.344469 0.493879 0 0.965543 -0.260242
-0.081449 -0.10098 0.348532 0 0 1
0.143673 0.115167 0.348532 0 0 1
-0.20001 -0.294342 0.0666948 0.696056 -0.50774 -0.507647
-0.208149 0.0922556 5.68384e-05 -0.260227 0 -0.965548
-0.217376 -0.326466 0.208879 -0.963919 0.257128 -0.0688845
-0.0446423 0.187753 0.34359 0 0 -1
-0.16772 0.268525 0.549365 0 -0.98481 0.173636
-0.0154878 -0.013696 0.348532 0 0 1
0.0924289 0.158834 0.34359 0 0 -1
-0.00606446 0.0121894 0.34359 0 0 -1
-0.207947 0.231344 0.000934642 -0.2597 0.0696037 -0.963178
0.129796 0.337666 0.607881 0 0.260237 -0.965545
0.0686089 0.0404973 0.34359 0 0 -1
-0.209737 -0.169233 0.000712588 -0.251938 -0.250389 -0.93479
0.0139013 0.327725 0.613112 0 -0.96569 -0.259697
-0.182516 0.17524 0.34359 0 0 -1
-0.211702 0.207507 0.00101435 -0.260227 0 -0.965548
-0.204943 -0.17062 0.336358 0.249428 0.250671 -0.935387
0.210081 -0.137862 0.0192259 0.260222 0 0.965549
0.113227 0.0790769 0.34359 0 0 -1
-0.206847 0.0119554 0.0002934 0.259639 0 -0.965706
-0.13298 0.185548 0.348532 0 0 1
-0.0994416 -0.109473 0.34359 0 0 -1
0.230583 -0.143711 0.502056 0.251929 -0.250656 0.934721
0.211072 -0.175904 0.0028592 0.251938 -0.250389 -0.93479
0.233184 -0.160308 0.436242 0.707108 0.707105 0
-0.0432224 0.0327647 0.348532 0 0 1
-0.15447 0.238005 0.008324 0 -0.966133 -0.258046
-0.200153 -0.300397 0.283406 0.695189 -0.508336 0.508239
-0.0252312 0.100067 0.34359 0 0 -1
-0.21434 -0.231973 0.0340561 -0.69301 0.186631 0.696352
0.0179275 0.264838 0.499958 0 0.984813 -0.173619
0.0161182 -0.0607057 0.348532 0 0 1
0.198715 -0.0832968 0.00735593 -0.965546 0 -0.260233
0.21726 -0.334249 0.177759 0.963997 0.256856 0.0688106
0.217607 -0.179523 0.342221 0.963831 0.0689661 -0.257436
0.0300392 0.253836 0.0170708 0 0.707097 0.707116
0.0404185 0.171268 0.34359 0 0 -1
-0.15219 0.151219 0.34359 0 0 -1
0.1297 0.121812 0.34359 0 0 -1
-0.0446041 0.0566174 0.348532 0 0 1
0.213613 0.00976473 0.0177408 0.705926 0 0.708286
-0.199036 -0.327416 0.225678 0.963372 -0.259025 0.0694358
-0.154392 0.256424 0.00631652 0 0.965545 -0.260236
-0.237369 -0.033154 0.493088 -0.965544 0 -0.26024
0.0671261 0.276041 0.563507 0 0.984813 -0.173619
0.128177 0.10742 0.348532 0 0 1
-0.232255 0.317052 0.488161 -0.695184 0.186528 -0.69421
-0.176398 0.276704 0.567264 0 0.984813 -0.173619
-0.0968876 -0.141738 0.348532 0 0 1
-0.216465 -0.0272025 0.351058 -0.705935 0 0.708276
-0.0400818 0.228343 0.348519 0 1 0
0.211921 0.261814 0.448523 0.259451 -0.951074 0.167761
-0.217507 0.246431 0.354948 -0.964579 -0.169604 0.202042
-0.155885 0.337835 0.626994 0 0.258053 0.966131
-0.206107 -0.257141 0.0242795 0.25026 -0.684667 -0.684545
0.21718 0.253807 0.368808 0.96436 -0.24291 0.104904
-0.16295 0.0374774 0.348532 0 0 1
-0.201492 0.147016 0.338977 0.708176 0 -0.706036
-0.211993 0.279839 0.449146 -0.259831 0.95099 -0.16765
-0.0079308 0.25282 0.00171711 0 0.707097 -0.707116
-0.228608 0.284806 0.484421 -0.258053 0 -0.966131
-0.0229107 0.24136 0.0172966 0 -0.705926 0.708286
0.166625 0.0255706 0.348532 0 0 1
0.226162 -0.158901 0.463641 -0.259652 0.965702 0
-0.218169 -0.167138 0.446503 0.965689 0.259701 0
0.0123654 0.340349 0.501884 0 0.707107 0.707107
-0.229128 0.0589694 0.48456 -0.258053 0 -0.966131
-0.045729 -0.115577 0.34359 0 0 -1
-0.052127 0.33869 0.502899 0 0.259649 0.965703
0.120213 -0.0354056 0.34359 0 0 -1
0.185106 0.251873 0.0173666 0.186355 0.694711 0.694729
0.217025 -0.00546205 0.0129313 0.966285 0 0.257475
-0.21676 0.0270863 0.350086 -0.966287 0 0.257466
-0.216652 -0.131277 0.0054723 -0.966133 0 -0.258043
0.201434 -0.0528715 0.016922 -0.707096 0 0.707118
0.216576 -0.0503789 0.350777 0.966287 0 0.257466
-0.215239 0.14796 0.0161208 -0.705926 0 0.708286
0.171832 0.328872 0.501871 0 -0.707107 0.707107
-0.0409219 -0.160593 0.348532 0 0 1
-0.182558 0.19521 0.348532 0 0 1
0.204772 -0.239296 0.318007 -0.251973 0.250343 -0.934793
-0.00648281 0.326605 0.61728 0 -0.96569 -0.259697
0.198325 -0.299041 0.0805289 -0.96335 0.189662 0.189699
0.147202 0.275065 0.586459 0 -0.98481 0.173636
0.189304 0.00305583 0.34359 0 0 -1
-0.213633 -0.0947379 0.0177215 -0.705926 0 0.708286
-0.236424 -0.11568 0.489583 -0.965544 0 -0.26024
0.0758415 -0.160781 0.34359 0 0 -1
-0.192115 0.265782 0.533805 0 -0.98481 0.173636
-0.172284 -0.00374058 0.34359 0 0 -1
-0.053145 0.00214425 0.34359 0 0 -1
-0.20043 0.296673 0.620935 0.697351 -0.165529 0.697354
0.219088 -0.0249182 0.498752 -0.965702 0 0.259651
-0.176123 0.26474 0.499401 0 0.984813 -0.173619
-0.219012 0.238199 0.489717 0.965544 0 -0.26024
-0.200609 0.277247 0.54889 0.706855 0.696617 -0.122805
0.215416 -0.207378 0.014307 0.693549 -0.186441 -0.695867
0.200684 0.0155357 0.339787 -0.708176 0 -0.706036
0.111691 -0.13412 0.34359 0 0 -1
0.234849 -0.174794 0.405489 0.707107 -0.707107 0
0.168686 0.26594 0.534703 0 -0.98481 0.173636
0.157494 -0.147978 0.348532 0 0 1
-0.18484 0.344461 0.494325 0 0.965702 0.259654
0.0580885 0.278288 0.576251 0 0.984813 -0.173619
-0.207452 0.0743867 0.019673 0.259634 0 0.965707
-0.124188 0.257343 0.00972491 0 0.965545 -0.260236
0.198535 0.0701611 0.00802281 -0.965546 0 -0.260233
-0.193559 0.261342 0.480127 0 0.984813 -0.173619
0.198749 0.275029 0.457215 -0.965779 0.255428 -0.0450315
0.0341978 0.0526395 0.34359 0 0 -1
0.00201449 0.103345 0.34359 0 0 -1
0.21901 0.227147 0.489722 -0.965544 0 -0.26024
0.198759 -0.324314 0.142737 -0.963375 0.259026 0.069384
0.169924 0.263289 0.491172 0 0.984813 -0.173619
-0.216515 -0.224071 0.32619 -0.963965 0.0688686 -0.256959
-0.207499 0.323188 0.497198 0.250826 -0.935227 0.249876
-0.211137 -0.277483 0.0698274 -0.250819 0.684502 0.684505
-0.219019 -0.105855 0.48969 0.965544 0 -0.26024
-0.118324 0.0423403 0.34359 0 0 -1
-0.128174 -0.0621747 0.34359 0 0 -1
-0.0809347 0.256421 0.0134952 0 0.965699 0.259663
-0.119192 0.326357 0.499356 0 -0.707107 0.707107
0.223817 -0.171346 0.484795 -0.251823 -0.684319 0.684319
0.236301 0.063466 0.499045 0.707107 0 0.707107
-0.200423 -0.335294 0.20478 0.695377 -0.694137 0.186075
-0.201017 -0.325889 0.192781 0.694756 0.694759 -0.186077
0.217477 0.0618965 0.00855975 0.966133 0 -0.258043
-0.228559 -0.141185 0.503279 -0.251929 -0.250656 0.934721
0.229693 0.0123084 0.503468 0.260237 0 0.965545
0.089995 0.258258 0.49113 0 -0.98481 0.173636
-0.0458434 0.27564 0.561231 0 0.984813 -0.173619
-0.0263029 0.269026 0.523715 0 0.984813 -0.173619
-0.170028 0.280416 0.58832 0 0.984813 -0.173619
-0.2223 0.307448 0.502666 0.25911 -0.0696066 0.963336
-0.0563737 0.195915 0.348532 0 0 1
-0.146833 -0.0193128 0.348532 0 0 1
-0.23759 -0.168004 0.467127 -0.963375 -0.259026 0.0693854
-0.140093 0.00877668 0.34359 0 0 -1
0.00334263 0.260148 0.501853 0 -0.98481 0.173636
-0.210452 -0.304977 0.25839 -0.250829 0.684431 -0.684573
0.201226 -0.168383 0.352584 0 -1 0
0.0501985 0.27383 0.550964 0 0.984813 -0.173619
-0.173629 0.142898 0.348532 0 0 1
-0.141943 0.346209 0.618027 0 0.966286 0.25747
0.224848 0.201684 0.484961 -0.257469 0 -0.966286
0.196631 -0.113654 0.348532 0 0 1
0.208044 -0.315602 0.218984 0.251951 0.934801 -0.250338
0.188895 -0.00884716 0.348532 0 0 1
-0.237263 -0.16699 0.360757 -0.965689 0.259701 0
-0.202906 -0.213033 0.0133693 0.694744 -0.186097 -0.694765
-0.0615379 0.268518 0.549324 0 -0.98481 0.173636
-0.216449 0.193331 0.341048 -0.707008 0 -0.707205
0.103909 0.342032 0.500201 0 0.707107 0.707107
0.00630765 -0.132451 0.34359 0 0 -1
-0.217339 0.125783 0.0080432 -0.966133 0 -0.258043
-0.216993 -0.283641 0.296626 -0.963971 -0.188112 0.188076
-0.21214 0.13511 0.337282 -0.258238 0 -0.966081
-0.217719 0.224589 0.345626 -0.966132 0 -0.25805
0.0152472 0.170715 0.34359 0 0 -1
0.229056 -0.145642 0.482852 0.25241 0.250982 -0.934504
0.236036 0.251845 0.488873 0.708276 0 -0.705935
0.0676451 0.212431 0.348532 0 0 1
0.202923 -0.0439736 0.354571 -0.707105 0 0.707108
-0.0388946 0.110911 0.348532 0 0 1
0.210135 -0.288602 0.0558768 0.24931 -0.68484 -0.684718
0.0897883 -0.0855384 0.348532 0 0 1
-0.175157 -0.0746918 0.34359 0 0 -1
0.204132 0.261111 0.357891 -0.252166 0.88853 -0.38331
0.0460159 -0.0958052 0.348532 0 0 1
0.201366 -0.163492 0.0168537 -0.707096 0 0.707118
-0.205585 0.0316413 0.0191711 0.259634 0 0.965707
-0.215097 -0.206915 0.0265877 -0.69301 0.186631 0.696352
-0.214036 0.32068 0.616562 -0.935326 0.250925 -0.249405
-0.199285 0.0509083 0.341398 0.965544 0 -0.26024
0.23667 0.103506 0.490494 0.965544 0 -0.26024
0.235601 -0.174042 0.444032 0.707107 -0.707107 0
0.223991 0.317535 0.50385 -0.259019 -0.0696154 0.96336
-0.234448 -0.175195 0.386422 -0.707107 -0.707107 0
-0.199102 -0.274986 0.306423 0.963228 -0.190006 0.18997
0.103216 0.159724 0.348532 0 0 1
0.204905 -0.299364 0.0669468 -0.248738 -0.684882 -0.684884
0.212824 0.131481 0.354646 0.260237 0 0.965545
0.205718 0.0411355 0.00059697 -0.259639 0 -0.965706
0.171448 0.331385 0.625916 0 -0.707107 0.707107
0.112815 -0.148601 0.348532 0 0 1
-0.196628 0.273863 0.579641 0 -0.98481 0.173636
-0.0848727 0.0450542 0.34359 0 0 -1
0.032296 -0.0613814 0.34359 0 0 -1
-0.203805 -0.210189 0.343654 0.251376 -0.250425 0.934932
0.0396204 1.72704e-05 0.348532 0 0 1
0.0451758 0.331192 0.609206 0 -0.707107 -0.707107
-0.141372 0.33573 0.607754 0 -0.259649 -0.965703
-0.128748 0.330987 0.625518 0 -0.707107 0.707107
-0.069451 -0.164098 0.348532 0 0 1
-0.214251 -0.0626621 0.00269844 -0.705926 0 -0.708286
0.0579413 0.121954 0.34359 0 0 -1
-0.216953 -0.0587818 0.349363 -0.966287 0 0.257466
0.110017 0.252619 0.0182882 0 0.707097 0.707116
-0.206287 -0.0221512 0.336599 0.257654 0 -0.966237
0.0899499 -0.155743 0.348532 0 0 1
0.211211 -0.0582432 0.000882112 0.260227 0 -0.965548
0.215757 0.277791 0.554815 0.705399 0.698047 -0.123057
-0.0968916 0.0269653 0.34359 0 0 -1
0.200735 8.31038e-05 0.352382 -0.707105 0 0.707108
-0.0899606 -0.0702165 0.34359 0 0 -1
-0.217927 -0.157661 0.485921 0.96335 0.18968 -0.18968
-0.217997 0.145267 0.494693 0.965702 0 0.259651
0.222652 0.0596036 0.502526 -0.707105 0 0.707108
0.156386 0.130196 0.348532 0 0 1
-0.0241704 0.152312 0.348532 0 0 1
0.216595 0.0916879 0.350705 0.966287 0 0.257466
-0.211568 -0.234451 0.0186752 -0.25043 -0.250574 -0.935146
0.181456 0.191325 0.34359 0 0 -1
0.217283 -0.0633904 0.343992 0.966132 0 -0.25805
0.19803 0.0767568 0.345048 1 0 0
0.179431 0.254373 0.00341407 0.186007 0.694758 -0.694776
0.0496519 0.145382 0.348532 0 0 1
0.145045 0.271853 0.539748 0 0.984813 -0.173619
-0.12222 0.329185 0.485989 0 -0.708276 -0.705935
-0.213618 -0.109921 0.338217 -0.707008 0 -0.707205
-0.198641 -0.0573244 0.343787 0.965544 0 -0.26024
0.0486058 0.214051 0.348532 0 0 1
0.19237 0.265271 0.530909 0 -0.98481 0.173636
0.200806 0.327463 0.608007 0.189964 0.189964 -0.963238
-0.0261056 0.0857077 0.34359 0 0 -1
-0.0178946 0.328956 0.48622 0 -0.708276 -0.705935
0.142164 0.330595 0.609803 0 -0.707107 -0.707107
-0.236569 -0.146253 0.488264 -0.963339 0.0696036 -0.259099
0.124388 0.179201 0.34359 0 0 -1
-0.217516 0.00729096 0.00870641 -0.966133 0 -0.258043
0.211886 -0.24669 0.0397225 0.252503 0.250429 0.934627
-0.202976 0.173029 0.354623 0.707105 0 0.707108
0.043004 -0.0422533 0.34359 0 0 -1
-0.209026 -0.345886 0.177296 -0.249816 -0.935291 -0.250645
0.198916 -0.224951 0.0283521 -0.96334 0.0694525 0.259139
0.227299 0.186548 0.484308 -0.257469 0 -0.966286
0.228667 0.022666 0.484437 0.258053 0 -0.966131
0.216155 -0.324701 0.24167 0.693545 -0.695845 0.186533
-0.208048 0.260368 0.446319 -0.259827 -0.950971 0.167762
0.202483 0.113503 0.0179705 -0.707096 0 0.707118
-0.107143 0.331797 0.608812 0 -0.259649 -0.965703
-0.216648 0.281926 0.585503 -0.96621 0.253844 -0.0447495
-0.110427 0.219651 0.348532 0 0 1
-0.207135 -0.182315 0.352015 0.251376 -0.250425 0.934932
0.0628567 -0.0394135 0.348532 0 0 1
-0.198997 0.260286 0.509096 0.965626 -0.255985 0.0451533
-0.206051 -0.0308008 0.000507368 0.259639 0 -0.965706
0.047202 0.0635512 0.34359 0 0 -1
-0.0657212 -0.0763881 0.348532 0 0 1
0.200578 0.136388 0.339893 -0.708176 0 -0.706036
0.213272 -0.335611 0.144254 0.693552 -0.695852 -0.186481
0.00224203 0.267476 0.514922 0 0.984813 -0.173619
-0.0313663 0.213398 0.348532 0 0 1
0.204051 0.0621826 0.337195 -0.257654 0 -0.966237
0.221023 -0.175194 0.392419 -0.707105 -0.707108 0
-0.0869738 0.334085 0.626727 0 -0.257469 0.966287
-0.236712 0.284966 0.497558 -0.966238 0 0.25765
-0.169537 0.167628 0.34359 0 0 -1
-0.212356 -0.248743 0.31532 -0.252391 0.684214 -0.684214
0.0580991 0.0300173 0.34359 0 0 -1
0.199141 -0.273021 0.308585 -0.963228 -0.190006 0.18997
-0.206221 -0.199122 0.347268 0.249862 -0.250611 0.935288
0.200929 -0.259027 0.0479268 -0.694352 0.508808 0.50891
0.169461 0.157998 0.34359 0 0 -1
