0.149676 -0.0102261 0.388875 0.0990517 -0.137822 -0.985492
0.132895 0.00247438 0.385979 0.0836022 -0.0734384 -0.993789
0.01333 0.225719 0.630635 -0.0780848 -0.925774 0.369926
-0.150783 -0.124277 0.397425 0.0474074 0.134481 0.989781
0.117047 -0.16989 0.411018 0.031329 -0.0606028 -0.99767
-0.207564 0.175856 0.628874 0.28142 -0.890973 0.356329
-0.183057 -0.0142818 0.393041 -0.121217 -0.124984 -0.984726
-0.223381 0.211755 0.163773 0.792154 -0.597563 -0.124143
-0.18755 0.200079 0.702003 0.238168 -0.901855 0.360462
0.10028 -0.097371 0.40102 0.0475018 -0.164867 -0.985171
0.0882108 -0.184819 0.400916 -0.0226567 0.0130428 0.999658
-0.134335 -0.0514573 0.384324 0.0684902 0.182282 0.980858
0.112628 -0.0875325 0.3899 -0.0564725 0.185841 0.980956
-0.219847 0.21118 0.209847 0.975619 0.218819 -0.0168767
-0.00120648 0.139067 0.384606 -0.00729636 0.175049 -0.984533
0.236202 0.171886 0.624831 0.128352 0.920908 -0.368041
-0.125805 0.21839 0.686948 0.378632 -0.859401 0.343609
0.0785212 -0.121028 0.403989 0.0277854 -0.151868 -0.98801
0.179369 0.0429079 0.390163 0.15319 0.056599 -0.986575
-0.222614 -0.207245 0.349074 0.965013 -0.262188 0.00262228
0.0136265 -0.214972 0.399667 -0.000664052 -0.0474703 0.998872
-0.157359 0.149799 0.390081 0.144737 -0.275422 0.950365
0.216386 0.204168 0.305655 -0.445991 0.888876 0.104844
-0.207192 -0.154026 0.412008 -1 -0.000905261 0
0.0667005 -0.195975 0.400686 -0.0186641 0.0163826 0.999692
-0.0741913 0.21643 0.632484 0.231707 -0.903299 0.361057
-0.00840439 -0.118393 0.39222 0.00252611 0.161154 0.986926
-0.0509365 -0.198319 0.382184 -0.00013491 0.162697 -0.986676
-0.0522142 0.242509 0.683625 0.231759 -0.903294 0.361036
0.22522 0.218019 0.106826 -0.445519 -0.883004 -0.147705
-0.08282 0.249207 0.693043 -0.231442 0.903359 -0.361078
-0.222784 0.196579 0.248264 0.445614 -0.882953 -0.147727
-0.232004 -0.196717 0.349903 -0.27591 0.957319 -0.0861021
-0.0179747 -0.0149217 0.382077 -0.0169732 -0.164534 -0.986225
0.0325113 0.0614913 0.367541 -0.0417148 -0.0101318 0.999078
-0.215071 0.19316 0.311508 0.975037 -0.208015 -0.0776682
0.212711 0.197861 0.295701 -0.974999 -0.208262 -0.0774824
0.143333 0.0521275 0.3857 0.0974813 0.0358669 -0.994591
0.223331 -0.210607 0.339162 -0.729782 -0.682087 0.0466402
-0.0944649 -0.0166298 0.375478 0.064799 0.151861 0.986276
0.15922 0.0206723 0.387343 0.108496 -0.00964695 -0.99405
0.0355689 -0.0033605 0.380561 0.0331398 -0.09738 -0.994695
0.0463572 0.108961 0.381658 0.0465206 0.119153 -0.991785
-0.0233085 -0.0476806 0.388416 -0.0147071 -0.207428 -0.97814
-0.220912 0.175038 0.491649 -0.791226 0.598764 0.124268
0.0134638 0.262773 0.700729 -0.00027288 0.285156 0.958481
-0.136941 -0.079634 0.399715 -0.0627671 -0.176131 -0.982364
-0.106061 -0.00248354 0.384204 -0.0727534 -0.0878695 -0.993472
0.227049 0.240849 0.0257489 -0.794516 0.605393 0.0473558
-0.099742 -0.239536 0.407471 -0.0061147 0.144652 -0.989464
0.0699024 0.220166 0.612193 0.239047 0.901705 -0.360256
-0.0364305 -0.228328 0.408633 -0.00474809 0.134579 -0.990891
-0.14879 0.141432 0.397004 -0.139664 0.199546 -0.969884
0.224851 0.229964 0.122964 -0.445991 0.888876 0.104844
-0.0920294 -0.235102 0.408054 -0.0112851 0.144631 -0.989421
0.213357 0.197314 0.350879 -0.445991 0.888876 0.104844
0.178182 0.0634665 0.381031 -0.162975 -0.101041 0.981443
-0.0638506 0.215541 0.623623 0.231759 -0.903294 0.361036
0.192149 0.19601 0.694075 -0.236714 -0.902208 0.360537
-0.159936 0.206761 0.66488 -0.348735 0.870236 -0.347956
-0.172798 0.154097 0.404198 -0.18956 0.284857 -0.93964
0.111591 -0.264839 0.390223 0.000850674 -1 0
-0.228922 0.203835 0.192064 -0.000784034 -0.990008 -0.141007
-0.0510455 -0.187176 0.410299 -0.0106151 -0.0192921 -0.999758
0.207675 -0.0623564 0.398884 1 0.000914561 0
0.0922774 -0.202732 0.411046 0.0172854 0.0566312 -0.998246
0.0841132 -0.16354 0.409717 0.0279251 -0.0687239 -0.997245
0.240769 -0.218273 0.142879 0.718704 0.693653 -0.0480622
-0.0845646 -0.145353 0.397673 0.0269322 0.135181 0.990455
0.039626 0.169018 0.382587 -0.0533782 -0.253694 0.96581
0.0925717 -0.065369 0.394604 0.049831 -0.195336 -0.97947
0.106797 0.224084 0.680045 -0.375185 -0.860807 0.343871
0.198057 -0.041922 0.388932 -0.116005 0.14229 0.983004
-0.202845 0.0246178 0.383578 0.158374 -0.00539216 0.987365
-0.237591 0.225827 0.0377093 -0.000784034 -0.990008 -0.141007
0.0818038 -0.101566 0.400918 0.0446532 -0.168907 -0.98462
0.180187 0.172189 0.597855 0.331016 0.876286 -0.350074
0.217303 0.150376 0.588028 0.000234264 -0.284148 -0.958781
-0.049271 0.0336338 0.378212 -0.0470111 -0.0394792 -0.998114
-0.105737 -0.106833 0.402745 -0.0418502 -0.165847 -0.985263
0.218274 0.16909 0.611572 0.128561 0.920913 -0.367955
-0.250033 0.17534 0.652936 -1 -0.000934503 6.72277e-05
0.0952135 -0.0316328 0.378169 -0.0557687 0.185217 0.981114
0.0958444 0.207593 0.59793 0.238801 0.901729 -0.36036
-0.119873 -0.223443 0.4001 0.0132631 -0.153646 0.988037
-0.140962 -0.120455 0.396432 0.0487801 0.134476 0.989715
-0.21581 0.203493 0.697111 -0.136488 0.91989 -0.36766
0.23539 -0.19924 0.370191 0.912174 0.28349 0.295927
-0.0289545 0.00496126 0.37952 -0.0203218 -0.0993583 -0.994844
0.207637 -0.0209034 0.388906 1 0.000879359 0
0.115695 -0.0893549 0.390406 -0.0499135 0.181215 0.982176
0.126835 0.229416 0.710653 -4.4673e-05 0.285434 0.958398
0.127807 -0.194276 0.394246 -0.000612964 0.732267 0.681017
0.0369804 0.130301 0.38387 0.0486316 0.178616 -0.982716
0.0995061 0.0381859 0.381418 0.0830543 -0.0293819 -0.996112
0.17882 -0.0330139 0.395275 0.119575 -0.157801 -0.980204
0.2197 0.170045 0.497012 0.974813 0.209096 0.0775808
-0.0267254 -0.166711 0.398957 0.00794118 0.0768598 0.99701
-0.112666 -0.193767 0.385682 -0.000770925 0.921962 -0.387279
-0.0171648 -0.196777 0.396306 -0.000261603 0.319468 0.947597
-0.168817 0.15991 0.588354 0.380851 -0.858555 0.343272
-0.21173 0.192576 0.668283 -0.136488 0.91989 -0.36766
0.219478 0.198707 0.352617 -0.00182409 0.990002 0.141039
0.0303606 0.219133 0.617748 -0.0780851 -0.925774 0.369926
0.0882408 -0.158041 0.399453 -0.0279865 0.0687252 0.997243
0.207205 0.179176 0.478482 -0.445991 0.888876 0.104844
-0.230054 0.217162 0.10331 0.445614 -0.882953 -0.147727
0.144051 -0.130793 0.408008 0.0417781 -0.134451 -0.990039
-0.239722 -0.228517 0.0211241 -0.274173 0.957808 -0.0862126
-0.229268 0.226185 0.157155 -0.00208853 0.989987 0.141146
0.147667 0.197254 0.657698 -0.379294 -0.85923 0.343308
0.0907876 -0.0768635 0.396787 0.0444929 -0.189518 -0.980869
0.238669 0.224933 0.11072 0.974885 0.208778 0.0775369
-0.241646 -0.216014 0.200169 -0.966991 0.254805 -0.00187491
0.0231254 0.0711041 0.367777 -0.0243792 -0.0552547 0.998175
0.0593532 -0.222762 0.399516 -0.00734783 -0.0532505 0.998554
0.0399402 0.0799764 0.378832 0.0441523 0.0552277 -0.997497
-0.167613 -0.181752 0.413033 -0.040089 0.0177234 -0.999039
0.113369 -0.264837 0.394495 0.000850674 -1 0
-0.130569 0.178352 0.592059 0.378632 -0.859401 0.343609
0.0308476 0.143315 0.375925 -0.0284804 -0.176421 0.983903
0.224476 0.22933 0.126743 -0.445991 0.888876 0.104844
-0.238137 0.214093 0.147586 -0.793569 -0.606635 -0.0473545
0.205286 0.13177 0.395777 -0.202923 -0.225952 0.952769
-0.0798368 0.170498 0.394318 -0.00085589 1 0
-0.211574 0.157873 0.586617 0.10689 -0.923198 0.36916
-0.0494888 0.214845 0.585712 -0.231442 0.903359 -0.361078
0.0960187 0.128527 0.388092 0.0991385 0.187329 -0.977282
0.101208 0.225995 0.678733 -0.375185 -0.860807 0.343871
0.112423 -0.10075 0.402126 0.0500236 -0.160528 -0.985763
0.207793 -0.196718 0.406774 1 0.00084627 0
0.228654 -0.223738 0.115124 -0.967203 0.249092 -0.0497055
0.218254 0.165757 0.603224 0.128561 0.920913 -0.367955
-0.23437 0.20578 0.249355 -0.975488 0.205997 0.0773844
-0.157974 0.192491 0.657809 0.380756 -0.85858 0.343314
0.0778605 0.0704804 0.370515 -0.0700773 -0.0627933 0.995563
0.207583 0.0538936 0.392 1 0.000679789 0
-0.0240696 -0.0332387 0.375505 0.0168581 0.196867 0.980285
-0.224854 0.175124 0.43817 -0.976026 -0.216981 0.0171379
-0.0141961 0.0273861 0.377506 -0.00592522 -0.0423521 -0.999085
0.086793 -0.021842 0.385915 0.0612075 -0.151336 -0.986586
0.218082 0.21319 0.228882 -0.794516 0.605393 0.0473558
0.0645531 -0.258117 0.402217 0.0042683 0.302253 -0.953218
0.0680053 -0.260528 0.401467 -0.00036376 0.305544 -0.952178
-0.133806 -0.137956 0.398473 0.0416598 0.117223 0.992231
-0.0253872 0.25622 0.683115 -0.0783064 0.925743 -0.369958
0.117339 -0.0443098 0.381922 -0.0630256 0.176806 0.982226
-0.236523 0.210339 0.210087 -0.975488 0.205997 0.0773844
0.10175 -0.147145 0.408526 0.0358187 -0.130886 -0.99075
0.0652772 0.0193607 0.379614 0.0603425 -0.0331919 -0.997626
-0.197948 0.00928723 0.393172 -0.146246 -0.052615 -0.987848
-0.0984391 0.011352 0.372421 0.0728161 0.0878693 0.993467
-0.0700961 0.239139 0.68667 0.231707 -0.903299 0.361057
0.0456692 -0.044099 0.388236 0.0275397 -0.195044 -0.980408
-0.0677848 0.255364 0.702909 -0.000273523 0.284918 0.958552
-0.183274 0.0598892 0.381551 0.165757 -0.0557603 0.984589
-0.242014 -0.21785 0.172232 -0.720573 0.69158 -0.0499221
0.193184 -0.05519 0.400431 0.115634 -0.160328 -0.980267
0.227721 -0.218262 0.163066 -0.708185 0.700707 -0.0865038
0.207241 -0.225579 0.40126 -0.0110394 -0.188051 0.982097
0.0746382 -0.000112362 0.381961 0.0563286 -0.0916298 -0.994199
0.0936107 0.109721 0.375397 -0.0944419 -0.129168 0.987115
-0.135975 0.115555 0.380766 0.118289 -0.137183 0.983457
-0.0436769 -0.149754 0.397372 0.0150053 0.140835 0.989919
-0.184903 -0.0432405 0.397454 -0.109539 -0.158596 -0.981248
0.0849269 0.0635027 0.370638 -0.0839307 -0.0670008 0.994217
-0.23066 0.193025 0.330079 -0.975488 0.205997 0.0773844
0.0411406 0.104169 0.380913 0.0466973 0.08927 -0.994912
-0.00492924 -0.0277029 0.374215 0.00369402 0.198363 0.980122
0.00275633 -0.078749 0.394817 0.00397392 -0.203 -0.979171
0.125093 0.200346 0.640593 -0.375364 -0.860716 0.343903
-0.215178 0.177841 0.383191 0.444795 -0.883361 -0.147751
-0.2127 0.177592 0.636261 0.107025 -0.92308 0.369417
0.244076 -0.233288 0.0980277 0.966789 -0.25067 0.0498336
0.2146 0.203685 0.256281 -0.974999 -0.208262 -0.0774824
0.124713 -0.102068 0.402936 0.0442575 -0.156442 -0.986695
-0.0236615 -0.23639 0.397511 0.00143114 -0.131748 0.991282
0.172339 0.201129 0.662879 0.331083 0.876274 -0.350039
0.131817 -0.11919 0.395865 -0.0481942 0.139022 0.989116
0.0435545 0.125595 0.383518 0.0491483 0.117225 -0.991889
-0.0142759 0.213382 0.599902 0.0782869 -0.925743 0.369961
-0.181928 0.0215821 0.390323 -0.144245 -0.00273692 -0.989538
0.223671 0.184067 0.409318 0.974813 0.209096 0.0775808
0.233004 -0.238416 0.081945 -0.273448 -0.958087 0.0854191
0.140202 -0.213477 0.411141 0.0138978 0.0749598 -0.99709
0.106479 -0.183284 0.411307 0.0239955 -0.00916257 -0.99967
0.138447 0.183878 0.614035 -0.379294 -0.85923 0.343308
-0.188105 -0.127298 0.410174 -0.0777176 -0.113499 -0.990494
-0.237929 0.228256 0.126901 -0.791943 0.597834 0.124179
0.203085 0.108253 0.391036 -0.194562 -0.16933 0.966164
0.220784 0.196214 0.366155 0.444069 0.883728 0.147743
-0.0544552 -0.0939877 0.388622 0.0280999 0.172841 0.984549
-0.00641422 0.0465926 0.376942 -0.00598084 0.00869706 -0.999944
0.116128 0.191212 0.579815 0.390523 0.854874 -0.341587
0.0388657 -0.0659256 0.392612 0.0249181 -0.205095 -0.978425
-0.176535 -0.256665 0.403057 -0.000167973 0.334381 -0.942438
0.120984 -0.0822025 0.399355 0.0498531 -0.181216 -0.982179
-0.0199628 -0.0746838 0.384063 0.0121855 0.202631 0.979179
0.181522 0.203948 0.678621 0.331083 0.876274 -0.350039
0.230753 -0.222573 0.103327 -0.708185 0.700707 -0.0865038
-0.121261 0.0651124 0.373965 0.0986121 -0.0705679 0.992621
-0.227627 -0.223588 0.13733 0.966351 0.25285 -0.0472438
-0.102452 -0.00287619 0.383974 -0.0727534 -0.0878695 -0.993472
-0.0532142 0.00494456 0.380318 -0.0428487 -0.097915 -0.994272
-0.0539139 0.13863 0.376225 0.0639017 -0.177783 0.981993
-0.225101 -0.21556 0.231971 0.966351 0.25285 -0.0472438
-0.130634 -0.205118 0.401558 0.0213709 -0.0744427 0.996996
-0.172486 0.158628 0.405508 -0.18956 0.284857 -0.93964
0.0921714 0.0234114 0.371276 -0.0730466 0.0288983 0.99691
0.0496704 -0.0987358 0.39938 0.0289513 -0.174667 -0.984202
-0.0420307 -0.257564 0.392381 0.00284812 -0.299616 0.954056
0.0118027 -0.195904 0.395896 -0.000600319 0.733107 0.680113
0.175943 0.183744 0.652739 -0.236714 -0.902208 0.360537
-0.103616 0.110563 0.376404 0.102596 -0.128408 0.9864
0.0554855 0.209692 0.57641 0.239047 0.901705 -0.360256
0.0194129 -0.0666353 0.392398 0.0145177 -0.206949 -0.978244
0.20759 0.0436332 0.39085 1 0.000679789 0
0.203054 -0.195085 0.414139 0.0347415 0.0346967 -0.998794
0.0993348 0.166609 0.387183 -0.113773 -0.263777 0.95785
0.141056 -0.217673 0.400834 -0.0138356 -0.074509 0.997124
0.244049 -0.225042 0.121632 0.966264 0.257551 0.000669416
-0.218213 0.20053 0.25233 0.975037 -0.208015 -0.0776682
-0.241523 0.223134 0.0967045 -0.975608 -0.218873 0.016861
0.0367426 -0.226179 0.398923 -0.00511695 -0.132701 0.991143
0.0198599 -0.17752 0.399761 -0.00676123 0.0768893 0.997017
0.130807 0.0199042 0.384491 0.090359 -0.0154115 -0.99579
0.00125614 0.224086 0.597679 0.080202 0.925619 -0.36986
0.141006 -0.259682 0.401819 -0.000363509 0.322523 -0.946562
-0.134242 -0.194632 0.394395 -0.000600319 0.733107 0.680113
-0.0419008 -0.0757065 0.384655 0.0227089 0.199804 0.979573
0.128207 0.148705 0.395699 0.110802 0.19594 -0.974336
0.0802699 0.170637 0.394487 -0.000753205 1 0
0.00818244 -0.0943237 0.397971 0.00344481 -0.177989 -0.984027
-0.182236 -0.197342 0.396451 -0.000267529 0.31894 0.947775
-0.121529 0.182657 0.592862 0.378733 -0.859376 0.343561
-0.0706257 -0.0742778 0.395269 -0.0408519 -0.193916 -0.980167
-0.239963 0.225285 0.126943 -0.975573 0.205611 0.0773362
0.058865 0.0725239 0.369362 -0.0541796 -0.0594725 0.996759
0.221552 0.206721 0.296384 -0.00182409 0.990002 0.141039
-0.0936063 -0.260838 0.401419 -0.0052163 0.308949 -0.951064
0.0684563 -0.150449 0.408009 0.0278253 -0.138458 -0.989977
0.182441 -0.255628 0.40339 0.0103041 0.334372 -0.942385
-0.225837 0.228701 0.0907514 0.975619 0.218819 -0.0168767
-0.064378 -0.126634 0.394387 0.0275505 0.155582 0.987439
-0.0400272 -0.129589 0.404348 -0.0149427 -0.159832 -0.987031
0.0151314 0.00156588 0.379625 0.00535397 -0.100764 -0.994896
0.229322 0.156298 0.613353 -0.128707 -0.920855 0.368051
-0.0313838 0.0433013 0.3673 0.0231821 -0.0100576 0.999681
0.0208544 0.251424 0.670345 0.0802016 0.925619 -0.369861
-0.0824363 -0.136868 0.406463 -0.0321922 -0.131431 -0.990803
-0.0850681 0.231868 0.678089 0.231707 -0.903299 0.361057
-0.169061 0.180077 0.63906 0.380756 -0.85858 0.343314
-0.0328569 0.252242 0.701071 0.0782864 -0.925743 0.369961
-0.181387 0.170413 0.404246 -0.000812214 1 0
0.22767 0.239734 0.0504097 -0.794516 0.605393 0.0473558
-0.210865 0.182588 0.392666 0.975484 -0.206015 -0.0773913
0.203896 0.0482941 0.384462 -0.162369 -0.0652537 0.98457
-0.0936935 0.199102 0.603311 0.378733 -0.859376 0.343561
0.0577178 0.244656 0.692639 -0.22969 -0.903798 0.361098
-0.142711 -0.122202 0.406756 -0.0487174 -0.134477 -0.989718
-0.00487435 -0.264412 0.390235 0.000148492 -0.296762 0.954951
-0.207186 -0.16055 0.410253 -1 -0.000905261 0
-0.0292239 0.0264629 0.367829 0.0211448 0.0418687 0.998899
0.236865 0.1575 0.589061 0.128561 0.920913 -0.367955
0.0463937 -0.144967 0.39677 -0.0138674 0.140755 0.989947
0.155239 -0.0203538 0.380783 -0.091301 0.131809 0.987062
0.207696 -0.0855324 0.397783 1 0.000914561 0
-0.00610813 0.107842 0.380332 -0.00732195 0.116451 -0.993169
-0.246103 -0.237805 0.0316626 -0.966352 -0.25285 0.0472204
-0.136369 0.149347 0.396922 -0.130382 0.199826 -0.971118
-0.134006 -0.116093 0.395496 0.0487801 0.134476 0.989715
-0.0169037 -0.0986058 0.388771 0.0109211 0.177992 0.983971
-0.207455 0.175472 0.463266 0.97544 0.219627 -0.0167471
-0.18433 0.0774258 0.393309 -0.176984 0.100472 -0.979072
-0.149762 0.202756 0.674374 0.380756 -0.85858 0.343314
-0.149446 -0.137793 0.409129 -0.0476342 -0.111536 -0.992618
-0.0535609 0.229074 0.650878 0.231759 -0.903294 0.361036
-0.113467 -0.0695846 0.396483 -0.0581798 -0.181287 -0.981708
-0.207454 0.153578 0.408939 -1 -0.000829053 0
0.19342 -0.195708 0.395845 -0.000612964 0.732267 0.681017
-0.0766872 0.209141 0.588874 -0.231444 0.903358 -0.361078
0.23681 -0.228324 0.0204294 -0.280958 0.954523 -0.099742
0.119533 -0.204739 0.401385 -0.0192099 -0.0648765 0.997708
-0.0831115 -0.104246 0.401366 -0.0379473 -0.169558 -0.984789
-0.214487 0.171903 0.420777 0.444795 -0.883361 -0.147751
0.137996 -0.19913 0.397143 -0.000261603 0.319468 0.947597
-0.109094 0.14019 0.391671 -0.113006 0.190978 -0.975068
0.22172 0.194728 0.372228 0.445519 0.883005 0.1477
0.20079 0.155856 0.561859 -0.789946 -0.600446 -0.124301
-0.0678503 -0.0435696 0.388897 -0.0455432 -0.192714 -0.980198
-0.217761 0.17787 0.375238 0.445614 -0.882953 -0.147727
-0.106538 -0.202446 0.381729 0.000271117 -0.324899 -0.945749
-0.0502964 -0.179331 0.410149 -0.0146106 -0.0164119 -0.999758
-0.0424406 0.208111 0.592671 0.0782864 -0.925743 0.369961
-0.235426 0.21263 0.136968 -0.44256 -0.890561 -0.105074
-0.212539 0.155645 0.530339 0.00176957 -0.989992 -0.141114
0.232143 0.206905 0.189821 0.793376 -0.606866 -0.0476255
0.119697 -0.208965 0.411115 0.0192714 0.0648333 -0.99771
0.104659 0.205274 0.630627 -0.375185 -0.860807 0.343871
0.205592 0.177798 0.634791 -0.899663 0.32254 0.294236
0.200786 -0.100785 0.398118 -0.0811927 0.121558 0.989258
-0.00469747 -0.228505 0.398538 0.000830508 -0.131749 0.991283
0.190857 0.184602 0.664679 -0.236714 -0.902208 0.360537
-0.0819824 -0.213185 0.400264 0.0113439 -0.0561212 0.99836
-0.16074 -0.251612 0.404739 -0.000163964 0.327639 -0.944803
-0.234734 0.21517 0.112513 -0.000784034 -0.990008 -0.141007
0.185256 -0.0812802 0.403887 0.0868068 -0.155181 -0.984065
-0.187942 -0.0383611 0.387038 0.120764 0.150482 0.981209
0.138536 0.213571 0.661409 0.390755 0.854815 -0.34147
-0.139654 -0.0847615 0.400808 -0.0627671 -0.176131 -0.982364
0.0488361 -0.092484 0.388245 -0.0290115 0.174711 0.984192
0.169692 0.170684 0.408704 0.193512 0.278638 -0.940699
0.0586114 0.153789 0.379751 -0.066285 -0.257478 0.964008
0.11167 -0.123447 0.405605 0.0357685 -0.143883 -0.988948
0.0858834 0.0773922 0.381625 0.0898759 0.0626283 -0.993982
0.176536 -0.0449265 0.386913 -0.118904 0.157813 0.980284
0.143074 0.202964 0.639797 0.331016 0.876286 -0.350074
0.224284 -0.21225 0.330052 -0.729782 -0.682087 0.0466402
-0.244801 -0.228946 0.0696876 -0.966991 0.254805 -0.00187491
-0.207611 0.169861 0.545003 0.444629 0.889559 0.104836
0.19787 0.0773418 0.385867 -0.184853 -0.100647 0.977599
0.0303481 0.0858799 0.378806 0.0256653 0.0893451 -0.99567
0.164379 -0.19918 0.397167 -0.000261603 0.319468 0.947597
-0.205044 0.167544 0.545042 0.792632 0.607843 0.0475567
0.248635 0.190373 0.675418 0.147753 0.918452 -0.366898
0.143081 -0.0608711 0.386714 -0.0616496 0.181799 0.981401
0.147157 0.114637 0.382074 -0.147527 -0.142001 0.978811
0.0970526 0.233209 0.692255 -0.375185 -0.860807 0.343871
-0.140256 -0.160629 0.4112 -0.0352695 -0.050639 -0.998094
0.177313 -0.147337 0.401724 -0.0659761 0.104177 0.992368
-0.108331 0.228069 0.663598 -0.378847 0.859333 -0.343542
0.0808323 -0.0946518 0.389687 -0.0447151 0.168949 0.98461
0.177296 -0.0431844 0.386725 -0.118904 0.157813 0.980284
0.122189 0.119698 0.379756 -0.106233 -0.137472 0.984792
0.197128 -0.0535246 0.390624 -0.115695 0.160371 0.980253
0.0718511 -0.0386084 0.378206 -0.0463998 0.188872 0.980905
0.115933 0.189333 0.603032 -0.375364 -0.860716 0.343903
0.214799 0.163342 0.625901 -0.127894 -0.920993 0.367987
0.241149 -0.221748 0.212868 0.966789 -0.25067 0.0498336
0.235463 -0.241841 0.0514033 -0.274045 -0.957918 0.0853946
-0.0393173 -0.225188 0.399073 0.00481093 -0.134624 0.990885
-0.112457 -0.219698 0.400286 0.0133489 -0.0648026 0.997809
-0.0775783 0.06539 0.370089 0.0701587 -0.0592452 0.995775
-0.136843 0.134173 0.393886 -0.123553 0.194951 -0.973
0.0561061 0.209031 0.575169 0.239047 0.901705 -0.360256
-0.02673 0.170543 0.38785 -0.000855353 1 0
0.0916816 -0.249824 0.404961 0.00536316 0.305536 -0.952165
0.0416685 0.236412 0.663377 -0.0780851 -0.925774 0.369926
-0.177327 -0.227865 0.400253 0.0113276 -0.171645 0.985094
0.0572004 -0.0147087 0.38322 0.0394553 -0.158961 -0.986496
0.207384 -0.163466 0.404534 -0.0461734 0.0211605 0.998709
0.216036 0.165363 0.470104 0.445993 -0.888873 -0.104857
0.202432 -0.178112 0.414616 0.0461734 -0.0211605 -0.998709
0.207803 -0.218223 0.407967 1 0.00084398 0
0.157518 0.10195 0.391823 0.131604 0.120378 -0.983966
0.0406685 -0.0799146 0.385543 -0.0222389 0.199323 0.979681
0.223355 0.219092 0.208794 -0.446726 0.888516 0.104762
0.223834 -0.213475 0.273881 -0.965581 -0.260102 -0.000374498
0.143893 0.199766 0.632568 0.331016 0.876286 -0.350074
-0.234914 -0.227738 0.205722 -0.282795 -0.954063 0.0989454
0.230951 -0.196504 0.346478 0.273719 0.95801 -0.085409
-0.246216 0.188351 0.670509 -0.136422 0.919908 -0.367638
0.219807 0.190148 0.405376 0.444069 0.883728 0.147743
-0.0559262 0.016561 0.379317 -0.0468126 -0.0950579 -0.99437
-0.0648238 0.159798 0.391701 -0.085872 0.25706 -0.962573
-0.190713 -0.0340822 0.396723 -0.120765 -0.150482 -0.981209
-0.199013 0.0653635 0.394764 -0.181985 0.100371 -0.978165
0.207772 -0.175204 0.411037 0.999999 0.00111586 0
-0.0485863 -0.249255 0.405008 -0.000357235 0.299663 -0.954045
0.153256 -0.173307 0.402315 -0.0333555 0.045269 0.998418
-0.234337 -0.228525 0.199785 -0.282795 -0.954063 0.0989454
0.222846 -0.20664 0.313827 -0.967203 0.249092 -0.0497055
0.166207 -0.256627 0.402967 0.00928575 0.327659 -0.94475
-0.232585 0.212235 0.238113 -0.791943 0.597834 0.124179
-0.151229 -0.258363 0.402354 -0.000383606 0.322479 -0.946576
-0.20117 0.151282 0.587654 0.000224952 -0.284167 -0.958775
0.070885 -0.0205766 0.374807 -0.0514065 0.155594 0.986483
-0.0409029 -0.251503 0.394281 0.00284812 -0.299616 0.954056
-0.225842 -0.2157 0.30251 0.731667 -0.679931 0.0485467
0.117224 -0.141279 0.408291 0.0377379 -0.126632 -0.991232
-0.0186888 0.242442 0.647222 -0.0783064 0.925743 -0.369958
0.239154 0.22871 0.0314358 0.445991 -0.888874 -0.104857
-0.0146887 0.255835 0.679888 -0.0783064 0.925743 -0.369958
0.130125 -0.182213 0.401862 -0.0280602 3.1739e-05 0.999606
-0.114904 0.023471 0.382996 -0.0856007 -0.0251942 -0.996011
-0.16197 0.161353 0.404266 -0.180907 0.278862 -0.943138
-0.207621 0.17556 0.4548 0.975619 0.218819 -0.0168767
0.201063 -0.195553 0.414053 0.0347415 0.0346967 -0.998794
0.147808 0.0694312 0.377178 -0.132188 -0.0804567 0.987954
0.238273 -0.21584 0.288659 0.708414 -0.700475 0.0865187
0.0474005 0.157534 0.379977 -0.0508407 -0.255548 0.965459
-0.183238 -0.206973 0.395269 0.000534111 -0.615766 0.787929
-0.0698696 -0.0639398 0.383144 0.0407666 0.202796 0.978372
0.0759238 0.234582 0.652264 0.238801 0.901729 -0.36036
-0.0162075 -0.154787 0.397821 0.00785271 0.143649 0.989598
0.229528 0.228055 0.0338306 -0.445519 -0.883004 -0.147705
0.202764 0.16641 0.567824 -0.445991 0.888876 0.104844
-0.17084 -0.193734 0.38588 -0.000796564 0.922887 -0.385071
0.106124 0.0769771 0.38344 0.0945607 0.0669726 -0.993264
0.189411 -0.0184277 0.394508 0.120235 -0.116639 -0.98587
-0.219626 0.179103 0.365678 0.00176957 -0.989992 -0.141114
0.147168 -0.202014 0.381653 0.000271117 -0.324899 -0.945749
-0.162288 -0.168114 0.402375 0.0400185 0.0453279 0.99817
-0.216841 0.158114 0.520726 -0.444104 -0.889813 -0.104903
0.126835 0.0956543 0.377227 -0.100002 -0.109911 0.988898
0.146626 -0.192708 0.412271 0.0333913 0.00475877 -0.999431
0.192503 0.0146053 0.392178 0.150944 -0.0514942 -0.9872
0.0255272 -0.166898 0.39898 -0.00676123 0.0768893 0.997017
-0.243859 -0.23178 0.109845 -0.966479 -0.252376 0.0471712
-0.165776 -0.238115 0.408306 -0.0100897 0.164067 -0.986398
0.185669 -0.209126 0.412611 0.0325185 0.0878602 -0.995602
-0.203189 -0.0719987 0.394152 0.108665 0.14692 0.983161
0.229635 0.201258 0.696036 0.128352 0.920908 -0.368041
-0.0448505 0.236926 0.638956 -0.0783242 0.925739 -0.369963
0.097296 0.241746 0.684752 0.390523 0.854874 -0.341587
0.0156784 -0.0662106 0.392256 0.00397144 -0.207889 -0.978144
-0.0743138 -0.210908 0.410291 -0.0140649 0.0561126 -0.998325
-0.0743374 -0.0269148 0.385966 -0.0501055 -0.189476 -0.980606
-0.15118 0.0621379 0.376995 0.118732 -0.041349 0.992065
-0.0048003 -0.127657 0.403724 -0.00247951 -0.161231 -0.986914
0.00814512 -0.2358 0.40757 0.00061699 0.131711 -0.991288
-0.138676 0.0524088 0.385227 -0.105588 0.0357418 -0.993767
0.120055 -0.212504 0.400888 -0.0126594 -0.0696254 0.997493
0.125518 0.206295 0.628297 0.390755 0.854815 -0.34147
0.21726 0.178244 0.626814 0.868203 0.495743 -0.0215177
0.185168 0.0180225 0.380936 -0.141879 0.0596324 0.988086
0.0242026 -0.151021 0.407356 0.00806276 -0.142717 -0.989731
0.236722 -0.201468 0.324934 0.719288 0.693054 -0.0479784
0.199911 0.108383 0.39042 -0.194562 -0.16933 0.966164
-0.00387265 -0.0548513 0.389787 -0.00368267 -0.208377 -0.978042
0.143911 0.185576 0.597065 0.331016 0.876286 -0.350074
0.0428877 -0.153113 0.407879 0.0139283 -0.140755 -0.989947
0.0193344 0.0705844 0.36765 -0.0263833 -0.0537881 0.998204
-0.0902663 -0.179476 0.410874 -0.0220085 -0.00918882 -0.999716
0.188354 0.016419 0.38149 -0.141879 0.0596324 0.988086
-0.115823 0.191276 0.579838 -0.379012 0.859248 -0.343573
-0.122887 -0.0934489 0.401415 -0.0518321 -0.15648 -0.98632
0.203115 0.0356302 0.383812 -0.162764 -0.00633596 0.986645
0.230554 0.192089 0.703123 -0.0594222 -0.92693 0.3705
0.0629561 -0.26488 0.39467 0.000850674 -1 0
-0.249593 0.167872 0.621521 -0.751769 0.61223 -0.244987
0.141212 -0.0434574 0.393391 0.0682588 -0.171111 -0.982884
-0.00486345 -0.108187 0.400465 -0.00257444 -0.177992 -0.984029
-0.112716 0.205524 0.640345 0.378632 -0.859401 0.343609
0.237718 0.22057 0.120402 0.976107 -0.21663 0.0169526
0.0719651 -0.00900352 0.373018 -0.0559854 0.158841 0.985716
0.00265001 0.225281 0.600972 0.080202 0.925619 -0.36986
-0.226117 0.219216 0.110397 0.792154 -0.597563 -0.124143
-0.101461 -0.205073 0.382633 0.000271117 -0.324899 -0.945749
0.118368 0.0392771 0.382982 0.0882504 -0.0249595 -0.995786
0.229191 0.204984 0.190194 0.445991 -0.888874 -0.104857
-0.223592 -0.207119 0.308057 0.966037 0.254031 -0.0473351
0.0985291 -0.191526 0.411192 0.0239955 -0.00916257 -0.99967
0.139908 0.197464 0.649651 -0.379294 -0.85923 0.343308
0.171586 0.175399 0.628997 -0.236714 -0.902208 0.360537
-0.164124 0.204147 0.662539 -0.348735 0.870236 -0.347956
0.0148386 -0.202826 0.397114 0.000139689 -0.165004 0.986293
-0.247244 0.162462 0.632713 0.0609567 -0.92687 0.370399
0.226493 0.181362 0.645157 0.128352 0.920908 -0.368041
-0.0480456 -0.249118 0.39505 0.000357152 -0.299621 0.954058
0.131104 0.225965 0.711275 -0.375185 -0.860807 0.343871
0.152594 -0.15553 0.411362 0.0418281 -0.111486 -0.992885
-0.0451717 -0.0985444 0.389198 0.0200709 0.175215 0.984326
-0.117249 0.155165 0.396056 -0.120163 0.266911 -0.9562
-0.122789 -0.254659 0.403517 -0.00653754 0.317456 -0.94825
-0.110571 -0.0957211 0.391155 0.0484442 0.161151 0.98574
-0.118855 -0.0913454 0.390869 0.0518949 0.156435 0.986324
0.00884457 0.0298453 0.36738 -0.00597919 0.0423668 0.999084
0.234182 -0.197218 0.348824 0.273719 0.95801 -0.085409
-0.224951 0.177504 0.395448 -0.79139 -0.609437 -0.0478372
-0.156753 0.12703 0.385252 0.140937 -0.147488 0.978971
-0.0928274 -0.0500678 0.391454 -0.0538829 -0.195824 -0.979158
-0.154283 0.0453835 0.386688 -0.110958 0.0357082 -0.993183
-0.22546 -0.201227 0.327142 0.705642 0.703495 -0.0846486
-0.0323964 -0.238653 0.397232 0.00275793 -0.133141 0.991093
-0.207443 0.135068 0.40013 -1 -0.000522834 0
0.00652959 0.234953 0.626018 0.080202 0.925619 -0.36986
-0.0873698 0.2398 0.672424 -0.231444 0.903358 -0.361078
-0.126655 -0.162673 0.400856 0.0331734 0.0559383 0.997883
0.0886043 0.11921 0.386154 0.100207 0.124865 -0.9871
0.0783125 0.236325 0.65821 0.238801 0.901729 -0.36036
-0.00107928 0.236908 0.629647 -0.0783064 0.925743 -0.369958
-0.221612 0.209378 0.269068 0.446001 0.888892 0.104663
-0.13948 -0.0484219 0.394126 -0.069169 -0.181841 -0.980892
-0.230566 0.197015 0.320648 -0.975573 0.205611 0.0773362
0.22449 -0.215902 0.276634 -0.964497 -0.264096 -1.11987e-05
0.0687717 0.21803 0.633027 -0.229715 -0.903789 0.361104
0.0660915 -0.174279 0.410077 0.0233538 -0.0720719 -0.997126
-0.0436414 -0.0180837 0.383185 -0.0306264 -0.161788 -0.98635
-0.0940233 0.139103 0.389785 -0.102143 0.187097 -0.977017
-0.17571 -0.092829 0.404739 -0.0774528 -0.138399 -0.987343
0.227116 -0.196533 0.351961 -0.281788 0.954277 -0.0997507
-0.10487 -0.186402 0.401249 0.024036 0.00535492 0.999697
0.09372 -0.111328 0.403061 0.039012 -0.164916 -0.985536
0.0391509 -0.00348 0.370698 -0.0328559 0.163138 0.986056
0.154105 0.125846 0.384747 -0.147527 -0.142001 0.978811
0.0292089 -0.214721 0.39973 -0.00325714 -0.0484452 0.998821
0.207235 0.180323 0.467066 -0.794516 0.605393 0.0473558
-0.0456873 -0.227697 0.398763 0.00481093 -0.134624 0.990885
0.245547 0.193825 0.682988 0.128352 0.920908 -0.368041
-0.0869348 0.139515 0.379128 0.0970884 -0.183417 0.978229
0.0299625 0.0963321 0.369732 -0.0262827 -0.089388 0.99565
-0.201537 -0.0721487 0.393991 0.108665 0.14692 0.983161
0.0900758 -0.0427115 0.389968 0.0557673 -0.185173 -0.981122
0.21116 0.179496 0.635131 0.128561 0.920913 -0.367955
0.0643982 -0.170902 0.409793 0.0233538 -0.0720719 -0.997126
0.0904974 -0.264857 0.394168 0.000850674 -1 0
-0.130907 0.197909 0.613066 -0.379012 0.859248 -0.343573
-0.203658 -0.140354 0.412687 -0.0732771 -0.0874898 -0.993467
0.0478884 0.232749 0.656584 -0.22969 -0.903798 0.361098
-0.146173 -0.205841 0.396129 0.000534111 -0.615766 0.787929
0.217232 0.183406 0.676961 -0.127894 -0.920993 0.367987
0.161213 0.205192 0.662527 0.331016 0.876286 -0.350074
-0.201582 -0.214399 0.412518 -0.0359973 0.10358 -0.99397
-0.228215 0.201995 0.315059 -0.4449 0.883306 0.147764
0.207901 0.181326 0.463219 -0.445991 0.888876 0.104844
0.122521 -0.0280656 0.389309 0.0688244 -0.180855 -0.981099
-0.199337 -0.201779 0.381511 0.0980738 0.163245 -0.981699
0.216527 0.169919 0.529136 0.792133 0.597619 0.124002
0.150878 -0.0765129 0.400145 0.074226 -0.176359 -0.981523
-0.0400664 0.214748 0.582451 -0.0783242 0.925739 -0.369963
-0.128711 0.205193 0.628861 -0.379012 0.859248 -0.343573
0.174976 0.0682566 0.380961 -0.151677 -0.0931031 0.984036
-0.104804 -0.0129562 0.375617 0.0722659 0.147621 0.9864
0.204257 0.208673 0.716829 -0.00015467 0.284154 0.958779
0.129933 0.129035 0.38196 -0.122492 -0.200195 0.972069
0.0996829 0.0728271 0.382547 0.0945607 0.0669726 -0.993264
-0.19974 -0.21312 0.402587 0.0246873 -0.0955375 0.99512
-0.00770825 0.250087 0.690357 0.0782864 -0.925743 0.369961
-0.22996 0.193752 0.677991 -0.136488 0.91989 -0.36766
-0.0863547 -0.0147427 0.374665 0.0595725 0.155604 0.986022
0.0250852 0.216738 0.610642 -0.0780851 -0.925774 0.369926
-0.211826 0.188304 0.376989 0.97544 0.219627 -0.0167471
-0.0952463 0.221608 0.633007 -0.378847 0.859333 -0.343542
-0.100395 0.229521 0.658478 -0.378847 0.859333 -0.343542
0.228905 -0.225548 0.101169 -0.967203 0.249092 -0.0497055
0.0824996 -0.217994 0.400011 -0.0172872 -0.0566312 0.998245
-0.119231 0.0153871 0.373745 0.0853016 0.0787512 0.993238
0.135072 -0.00229831 0.386515 0.0836022 -0.0734384 -0.993789
-0.0651017 0.197234 0.578623 0.231759 -0.903294 0.361036
0.00090852 0.238467 0.659917 -0.0780848 -0.925774 0.369926
-0.225129 0.197938 0.717028 0.129797 -0.920719 0.368007
-0.208462 0.170429 0.616015 0.28142 -0.890973 0.356329
-0.168076 0.207601 0.675139 -0.348735 0.870236 -0.347956
-0.138606 0.137392 0.384762 0.130322 -0.199783 0.971135
0.0710714 -0.1591 0.399091 -0.0239761 0.0725633 0.997076
-0.0542752 -0.262766 0.400766 -0.000357235 0.299663 -0.954045
0.163064 -0.178571 0.412906 0.0407353 -0.0375127 -0.998466
0.233616 0.16592 0.608999 0.128561 0.920913 -0.367955
-0.0482532 0.252601 0.703731 -0.000119669 0.283447 0.958988
-0.0237659 -0.25934 0.401817 -0.000354003 0.29695 -0.954893
0.0126359 -0.198583 0.382132 -0.00013491 0.162697 -0.986676
0.249476 0.148607 0.596184 0.717577 -0.646669 0.258655
-0.0184582 -0.242114 0.396743 0.00143114 -0.131748 0.991282
-0.149243 -0.0913371 0.402584 -0.0625682 -0.146052 -0.987296
-0.0236518 -0.0238572 0.383666 -0.0169732 -0.164534 -0.986225
-0.0388433 0.0150697 0.378794 -0.032924 -0.0979296 -0.994649
-0.0552373 0.0882826 0.37011 0.0567137 -0.0905594 0.994275
-0.0570673 0.246892 0.670745 -0.231442 0.903359 -0.361078
0.0863455 0.142154 0.389699 0.104435 0.183409 -0.977473
-0.0787699 -0.0235322 0.375599 0.0549511 0.155637 0.986285
-0.2173 0.194711 0.2846 0.791245 -0.598738 -0.124276
0.0578769 -0.248671 0.395202 -0.00282664 -0.300102 0.953903
-0.190498 -0.00396658 0.392815 -0.132612 -0.116705 -0.984273
-0.150772 -0.229471 0.399539 0.0159031 -0.164038 0.986326
0.102128 -0.199687 0.39732 -0.000267529 0.31894 0.947775
0.0911762 0.231129 0.653732 0.238801 0.901729 -0.36036
0.224632 0.198144 0.341336 0.792133 0.597619 0.124002
0.236784 0.237504 0.0710537 0.445519 0.883005 0.1477
-0.157094 0.0237927 0.377 0.110934 0.00992563 0.993778
-0.0115322 -0.161924 0.3985 0.00189925 0.0783278 0.996926
0.0971552 -0.10865 0.392756 -0.0474397 0.164825 0.985181
-0.194878 -0.0954337 0.40677 -0.0970615 -0.121592 -0.987823
-0.108978 -0.0812543 0.398445 -0.0533845 -0.185992 -0.9811
0.103012 0.0992848 0.385183 0.100046 0.100811 -0.989863
-0.112738 0.241974 0.706867 -0.00027507 0.284043 0.958811
-0.238824 -0.222545 0.0846238 -0.274173 0.957808 -0.0862126
0.236916 0.237925 0.0681405 0.445519 0.883005 0.1477
-0.0103245 0.202958 0.57237 0.000151503 -0.283849 -0.958869
0.069898 -0.0155209 0.373951 -0.0559854 0.158841 0.985716
0.169855 0.201412 0.661238 0.331083 0.876274 -0.350039
-0.110178 0.0137148 0.373136 0.0787835 0.083558 0.993384
-0.229019 0.227935 0.0499117 0.792154 -0.597563 -0.124143
0.141363 0.205073 0.670301 -0.379294 -0.85923 0.343308
0.039166 0.203052 0.572356 0.000300563 -0.284175 -0.958772
-0.224086 0.213176 0.152429 0.792154 -0.597563 -0.124143
0.132871 0.0716568 0.375683 -0.111045 -0.0753789 0.990953
-0.237497 -0.217572 0.287532 -0.70686 -0.702275 0.0846111
0.0498089 -0.057674 0.391178 0.0359865 -0.205028 -0.978094
0.239537 -0.229015 0.171644 0.708414 -0.700475 0.0865187
-0.228883 0.186252 0.349154 -0.793569 -0.606635 -0.0473545
0.18669 0.180147 0.623927 0.331083 0.876274 -0.350039
0.122265 -0.214109 0.410804 0.0125979 0.0696714 -0.99749
0.158092 -0.251107 0.404821 -0.000184929 0.327683 -0.944788
0.23695 0.227906 0.0288843 0.445991 -0.888874 -0.104857
0.151297 -0.0503082 0.395426 0.0827894 -0.18159 -0.979883
0.047962 -0.0242458 0.374387 -0.0302004 0.161254 0.986451
0.025727 0.232379 0.649921 -0.0780848 -0.925774 0.369926
-0.0750531 -0.0227137 0.385278 -0.0503942 -0.158895 -0.986009
-0.0687761 0.138308 0.377241 0.0820476 -0.17989 0.980259
-0.249634 0.194135 0.687281 -0.716972 0.647257 -0.258863
-0.0444952 -0.153051 0.407864 -0.0130219 -0.142687 -0.989682
-0.056445 -0.114926 0.402341 -0.0249152 -0.155544 -0.987515
-0.145714 0.17957 0.611893 0.380851 -0.858555 0.343272
-0.115637 0.19382 0.585995 -0.379012 0.859248 -0.343573
0.0547078 -0.151333 0.397833 -0.0179982 0.138 0.990269
0.116516 -0.193487 0.411577 0.0253561 -0.00437202 -0.999669
0.238012 -0.214671 0.16533 0.273719 0.95801 -0.085409
0.215565 0.206815 0.268185 -0.79302 0.607326 0.0476881
0.195455 0.0695921 0.394613 0.184913 0.100646 -0.977588
-0.206481 -0.032967 0.388608 0.132476 0.14215 0.98094
0.235708 -0.202439 0.295725 0.718704 0.693653 -0.0480622
-0.145448 0.220734 0.685308 -0.348735 0.870236 -0.347956
-0.230605 -0.227256 0.0680218 0.707761 0.701377 -0.0845314
0.123075 0.0908619 0.386319 0.100621 0.109454 -0.988886
-0.231399 -0.221054 0.112848 0.705642 0.703495 -0.0846486
-0.00749716 0.148394 0.37631 0.00730466 -0.175054 0.984532
-0.161896 -0.215207 0.401431 0.0201089 -0.0801928 0.996576
-0.210237 0.182968 0.64369 -0.136488 0.91989 -0.36766
0.229764 0.179871 0.672428 -0.0594222 -0.92693 0.3705
0.205366 0.193661 0.668559 0.128561 0.920913 -0.367955
0.179315 0.0815664 0.392965 0.174186 0.0926989 -0.98034
0.207615 0.0140544 0.389547 1 0.000944898 0
0.188962 -0.203588 0.403208 -0.032582 -0.0878144 0.995604
0.207017 -0.000871411 0.385055 -0.14028 0.0437787 0.989144
0.240377 -0.224639 0.0610933 0.274847 0.957694 -0.0853341
-0.163519 -0.195665 0.402701 0.0300429 -0.0105013 0.999493
-0.239703 0.165506 0.610931 -0.136422 0.919908 -0.367638
0.00784298 -0.164588 0.398711 -0.00271356 0.0787724 0.996889
0.229029 0.22539 0.165441 -0.00182409 0.990002 0.141039
-0.189963 0.182239 0.633627 -0.348577 0.870317 -0.347912
-0.141466 -0.144369 0.409557 -0.0416571 -0.117713 -0.992173
0.183953 -0.123904 0.409611 0.0652322 -0.11341 -0.991405
0.130556 0.231666 0.709984 -4.4673e-05 0.285434 0.958398
-0.195766 0.137463 0.404989 -0.213065 0.217068 -0.95262
0.240999 -0.219407 0.12995 0.718704 0.693653 -0.0480622
-0.00213263 0.0946466 0.379105 -0.00596903 0.0874338 -0.996152
0.123364 -0.0797634 0.399026 0.0498531 -0.181216 -0.982179
-0.136591 0.221333 0.706225 0.380756 -0.85858 0.343314
-0.220162 0.18129 0.463077 -0.4449 0.883306 0.147764
-0.0793768 0.144005 0.379231 0.0872091 -0.183611 0.979123
-0.16537 -0.211108 0.411831 -0.0200456 0.0801474 -0.996581
0.0010567 0.229632 0.611516 0.080202 0.925619 -0.36986
-0.135215 -0.167499 0.411371 -0.027969 -0.0558823 -0.998046
-0.170635 0.0421016 0.378711 0.139265 -0.0411802 0.989398
-0.108186 0.243642 0.702392 -0.378847 0.859333 -0.343542
0.239559 -0.236395 0.105547 0.280895 -0.954541 0.0997447
0.199356 0.155529 0.41053 0.20919 0.299878 -0.930759
-0.043106 0.243348 0.680986 0.0782864 -0.925743 0.369961
-0.230916 0.197096 0.716693 0.0609567 -0.92687 0.370399
0.0988805 -0.0459379 0.381089 -0.0583233 0.180963 0.981759
0.224092 -0.201135 0.33151 -0.708375 0.700516 -0.0864938
0.146621 0.213457 0.669419 0.331016 0.876286 -0.350074
-0.0122231 -0.232666 0.407992 -0.000767592 0.131703 -0.991289
0.199884 0.00270237 0.383885 -0.14028 0.0437787 0.989144
-0.113075 -0.141974 0.408172 -0.0329314 -0.127192 -0.991331
0.229159 0.188024 0.692673 -0.128707 -0.920855 0.368051
-0.214631 0.18833 0.332335 0.791245 -0.598738 -0.124276
0.21223 0.177481 0.660393 -0.127894 -0.920993 0.367987
-0.212757 0.199312 0.716101 0.129797 -0.920719 0.368007
-0.207223 -0.120724 0.409217 -1 -0.000946172 0
-0.232393 -0.228036 0.0465711 0.707761 0.701377 -0.0845314
0.202815 0.154805 0.597942 -0.236414 -0.90231 0.36048
0.0504455 0.236357 0.639808 0.239047 0.901705 -0.360256
-0.161497 -0.032256 0.38312 0.0980536 0.165814 0.98127
0.0998955 0.243505 0.692125 0.390523 0.854874 -0.341587
0.0758071 0.227976 0.635658 0.238801 0.901729 -0.36036
-0.156524 0.162943 0.393813 0.151786 -0.280337 0.947825
-0.109087 0.0704235 0.373139 0.0965514 -0.0705883 0.992822
0.112493 0.161816 0.387385 -0.107919 -0.268086 0.957331
0.0606833 0.00167105 0.381041 0.042934 -0.094444 -0.994604
-0.0104394 -0.0990343 0.388819 0.00319081 0.17799 0.984027
0.0337867 0.201697 0.574837 -0.0780851 -0.925774 0.369926
0.24312 0.162316 0.630645 -0.0591783 -0.926955 0.370475
-0.0144791 -0.245519 0.39611 0.000353225 -0.296908 0.954906
0.150409 0.22637 0.71156 5.74445e-05 0.285285 0.958443
-0.022259 0.211114 0.595916 0.0782869 -0.925743 0.369961
-0.0031454 -0.0679311 0.382568 0.00307192 0.208333 0.978053
-0.243845 0.185021 0.688604 0.0609567 -0.92687 0.370399
0.150493 -0.120464 0.396978 -0.0577424 0.134368 0.989248
-0.0629919 -0.247486 0.405619 -0.00399199 0.302236 -0.953225
-0.187381 -0.0916164 0.405606 -0.0880596 -0.130773 -0.987494
0.156719 0.216673 0.687016 0.331083 0.876274 -0.350039
-0.0872317 0.133968 0.388118 -0.0970877 0.183462 -0.978221
-0.207128 -0.23054 0.400623 -1 -0.000612589 0
-0.0776424 0.01431 0.370718 0.0607348 0.0916681 0.993936
0.0374161 0.146097 0.376736 -0.0518361 -0.176261 0.982978
0.103298 0.08938 0.384182 0.0942311 0.105096 -0.989987
0.176814 0.184616 0.625775 0.331083 0.876274 -0.350039
0.218289 0.169092 0.517305 0.974813 0.209096 0.0775808
0.0706272 0.217622 0.606307 0.239047 0.901705 -0.360256
0.227354 0.202532 0.203924 0.00188789 -0.990004 -0.141028
-0.141344 0.0613823 0.375832 0.105525 -0.0356966 0.993776
-0.226703 0.224159 0.0828619 0.791245 -0.598738 -0.124276
-0.0559029 -0.205367 0.396439 0.00052206 -0.616672 0.78722
-0.118089 0.214996 0.669956 0.378632 -0.859401 0.343609
-0.188547 0.123912 0.40062 -0.196008 0.160477 -0.967382
-0.0404483 0.201694 0.576194 0.0782869 -0.925743 0.369961
-0.174437 -0.106169 0.406507 -0.0792886 -0.138383 -0.9872
-0.0991346 -0.0163338 0.385745 -0.0663698 -0.151849 -0.986173
0.0184216 0.0673998 0.367455 -0.0263833 -0.0537881 0.998204
0.162431 0.141374 0.399218 0.187866 0.2041 -0.960755
0.232899 0.204493 0.718072 0.0013192 0.275275 0.961365
0.182599 -0.130774 0.400301 -0.0659153 0.11345 0.991355
-0.212517 0.175686 0.63144 0.107966 -0.923149 0.368971
-0.213353 0.171392 0.5417 -0.00229007 0.989985 0.141157
-0.0186372 0.116679 0.371507 0.0257047 -0.116338 0.992877
-0.145311 0.209092 0.685283 0.380756 -0.85858 0.343314
0.232446 -0.222138 0.26199 0.279957 -0.954815 0.099758
0.127465 -0.18798 0.401793 -0.019283 2.18111e-05 0.999814
0.0577402 0.153931 0.389729 0.0663437 0.257478 -0.964004
-0.191297 0.0937591 0.396551 -0.186557 0.133054 -0.973393
0.176218 0.0544003 0.38023 -0.163662 -0.0489512 0.985301
-0.237066 -0.217859 0.288749 -0.70686 -0.702275 0.0846111
0.0717304 0.199248 0.587901 -0.229715 -0.903789 0.361104
0.108747 -0.000463728 0.374312 -0.0708821 0.0829812 0.994027
0.149023 -0.131798 0.408411 0.049672 -0.128176 -0.990507
0.0511822 0.233827 0.633965 0.239047 0.901705 -0.360256
0.0553181 0.0671858 0.378852 0.0542424 0.0594722 -0.996755
-0.109587 -0.0502647 0.382477 0.0592113 0.191613 0.979683
-0.0971102 -0.15054 0.408751 -0.0303455 -0.131433 -0.99086
-0.109339 0.0316002 0.372308 0.0849207 0.025689 0.996057
-0.213653 0.20325 0.718331 -0.000304601 0.284173 0.958773
-0.162289 -0.0403187 0.394563 -0.0979915 -0.165814 -0.981276
-0.0227028 -0.203561 0.382136 0.000271117 -0.324899 -0.945749
-0.109734 -0.113428 0.394011 0.0420229 0.143905 0.988699
0.217833 0.16858 0.640065 -0.127894 -0.920993 0.367987
-0.0168458 -0.200368 0.400319 0.00466286 0.0221758 0.999743
0.190436 -0.262498 0.400898 -0.000192781 0.34164 -0.939831
-0.0935234 0.0230819 0.381278 -0.0762339 -0.029944 -0.99664
-0.0964768 -0.217431 0.400212 0.0120785 -0.060009 0.998125
0.150282 -0.206068 0.383099 0.000595702 -0.720639 -0.69331
0.216226 0.161327 0.564155 0.974813 0.209096 0.0775808
-0.242767 0.241552 0.0320359 -0.791943 0.597834 0.124179
-0.222256 0.180616 0.642264 -0.136422 0.919908 -0.367638
0.174796 -0.152269 0.402092 -0.0513023 0.10426 0.993226
-0.00247886 0.0315008 0.367265 0.00524294 0.0428462 0.999068
-0.163038 -0.249327 0.405533 -0.00985117 0.334343 -0.9424
-0.226986 0.186298 0.324594 -0.44256 -0.890561 -0.105074
-0.0220001 -0.0653675 0.392157 -0.0133786 -0.208362 -0.97796
0.14559 0.160689 0.401411 0.158799 0.275071 -0.948219
-0.0186001 -0.00944458 0.371173 0.0169712 0.164579 0.986218
-0.161034 0.124291 0.385476 0.167028 -0.14681 0.974961
0.232743 0.20649 0.226952 0.976181 -0.216288 0.0170075
-0.238453 -0.245483 0.0245019 -0.282795 -0.954063 0.0989454
-0.10745 -0.0958083 0.391016 0.0484442 0.161151 0.98574
-0.175658 0.112395 0.386231 0.176533 -0.153624 0.972232
0.207726 -0.127885 0.406591 1 0.000675837 0
0.162201 0.19176 0.629839 0.331016 0.876286 -0.350074
0.146482 -0.26065 0.401507 0.00721192 0.322507 -0.94654
-0.0908117 0.238247 0.698052 0.378733 -0.859376 0.343561
0.227206 -0.223036 0.218026 -0.729782 -0.682087 0.0466402
0.158055 -0.0585681 0.397472 0.0742364 -0.175555 -0.981667
0.1761 -0.0549222 0.398552 0.108315 -0.168115 -0.979799
-0.109743 0.190319 0.599035 0.378733 -0.859376 0.343561
0.202642 -0.0595526 0.402212 0.104057 -0.152147 -0.982865
-0.217492 0.189422 0.415183 -0.00229007 0.989985 0.141157
-0.221387 -0.208748 0.386433 -0.460641 -0.642541 0.612333
-0.128953 0.0140284 0.384686 -0.0841618 -0.078801 -0.993331
0.184958 0.0185247 0.390882 0.142551 -0.059627 -0.98799
0.0651688 -0.0298041 0.38614 0.0510468 -0.19262 -0.979945
0.219253 0.152263 0.599735 -0.128707 -0.920855 0.368051
-0.23648 -0.222716 0.249694 -0.279709 -0.954967 0.0989988
0.018031 -0.216044 0.399625 -0.00460126 -0.0474698 0.998862
-0.205033 0.150945 0.580924 0.432544 -0.878306 0.203679
0.0604129 0.16669 0.393318 0.0693113 0.255305 -0.964373
-0.125242 -0.0367258 0.391004 -0.0710473 -0.176855 -0.981669
0.0440648 -0.146165 0.396907 -0.0138674 0.140755 0.989947
0.0301914 0.233794 0.654403 -0.0780851 -0.925774 0.369926
0.160238 -0.0476861 0.395693 0.100144 -0.175187 -0.979429
-0.1888 0.206492 0.693133 -0.348577 0.870317 -0.347912
-0.027114 -0.0380041 0.386514 -0.01686 -0.196867 -0.980285
-0.203438 -0.0786781 0.395177 0.108665 0.14692 0.983161
-0.177003 -0.23381 0.399213 0.0113276 -0.171645 0.985094
-0.132224 0.00918536 0.385348 -0.0841618 -0.078801 -0.993331
0.224098 0.164195 0.601356 0.128561 0.920913 -0.367955
-0.133594 -0.0354522 0.381365 0.0685655 0.176878 0.981842
-0.193095 -0.106585 0.408092 -0.0842746 -0.130809 -0.987819
0.132525 0.212683 0.679583 -0.379294 -0.85923 0.343308
0.102645 -0.143291 0.408049 0.0358187 -0.130886 -0.99075
-0.0170628 0.234402 0.626759 -0.0783064 0.925743 -0.369958
0.221934 0.172801 0.652058 -0.128707 -0.920855 0.368051
0.243072 0.241445 0.0108987 0.974885 0.208778 0.0775369
0.188836 -0.152506 0.402919 -0.0547287 0.0961466 0.993861
-0.198156 -0.0686475 0.393087 0.108411 0.161066 0.980971
-0.20361 -0.176156 0.404615 0.0488464 0.0298907 0.998359
-0.00812935 -0.249587 0.404839 -0.00101081 0.296949 -0.954893
0.233083 -0.240755 0.0508963 -0.730335 -0.681499 0.046579
-0.0101694 0.221168 0.592185 -0.0783242 0.925739 -0.369963
-0.155884 0.179139 0.591728 -0.348577 0.870317 -0.347912
0.0791923 -0.040097 0.37884 -0.0463998 0.188872 0.980905
-0.0208775 -0.20877 0.385762 0.000602963 -0.721073 -0.692859
0.164062 -0.251097 0.394863 -0.0092859 -0.327618 0.944765
0.238472 0.185981 0.660893 0.128352 0.920908 -0.368041
0.0578006 -0.231481 0.398327 -0.00725056 -0.134524 0.990884
0.214325 0.194793 0.376375 -0.446726 0.888516 0.104762
0.0439935 -0.166745 0.39917 -0.0113248 0.0750062 0.997119
-0.00745578 0.257794 0.68326 -0.0783064 0.925743 -0.369958
-0.122643 -0.260165 0.401678 -0.000373315 0.31314 -0.949707
-0.23351 -0.238295 0.0899056 0.276459 -0.957163 0.0860835
-0.0622027 -0.201714 0.397311 0.000138499 -0.165114 0.986275
-0.096115 0.228259 0.650601 -0.378847 0.859333 -0.343542
-0.115074 -0.108424 0.403443 -0.0453212 -0.161125 -0.985893
-0.206304 0.00466234 0.394715 -0.158183 -0.0439003 -0.986433
0.0639003 -0.117856 0.403029 0.0217462 -0.155532 -0.987591
-0.22511 -0.211013 0.377946 -0.229372 -0.938988 0.256301
-0.142981 -0.0801364 0.400191 -0.0627671 -0.176131 -0.982364
0.202078 0.209864 0.707958 0.128352 0.920908 -0.368041
-0.127827 0.183376 0.601602 0.378632 -0.859401 0.343609
-0.0618386 0.0502044 0.368685 0.0536474 -0.0143546 0.998457
0.134456 0.204877 0.634975 0.390755 0.854815 -0.34147
0.0474118 -0.136624 0.405599 0.0139283 -0.140755 -0.989947
-0.224304 0.182788 0.678834 0.129797 -0.920719 0.368007
0.154667 -0.148924 0.410708 0.0418281 -0.111486 -0.992885
-0.107039 -0.221163 0.400115 0.0120785 -0.060009 0.998125
-0.229284 -0.225295 0.0953444 0.707761 0.701377 -0.0845314
-0.0986651 -0.169126 0.410418 -0.0238933 -0.0654801 -0.997568
0.233703 0.173936 0.629089 0.128352 0.920908 -0.368041
0.0576481 0.203985 0.590798 -0.229715 -0.903789 0.361104
0.133946 0.229895 0.69702 0.390755 0.854815 -0.34147
0.00793762 -0.0350948 0.375729 -0.00478016 0.198344 0.980121
0.0247862 -0.213556 0.409773 0.00332047 0.0484452 -0.99882
-0.214383 0.17263 0.619361 -0.136422 0.919908 -0.367638
0.0203956 0.232506 0.6229 0.080202 0.925619 -0.36986
-0.180391 -0.124296 0.409263 -0.0663603 -0.121649 -0.990352
-0.00430185 -0.0283115 0.384336 -0.00363219 -0.198363 -0.980122
-0.151841 0.0968044 0.390351 -0.133041 0.119118 -0.983926
-0.127487 0.186923 0.6101 0.378632 -0.859401 0.343609
-0.127019 -0.166654 0.411091 -0.0332349 -0.0558928 -0.997883
0.138164 -0.00598062 0.377237 -0.0829478 0.142651 0.986291
0.0323232 0.00371957 0.369742 -0.0357101 0.0997628 0.99437
0.162793 0.0264691 0.377765 -0.14248 0.00962705 0.989751
-0.200932 0.0309791 0.393337 -0.170299 0.0141226 -0.985291
0.0497242 -0.153949 0.408106 0.0217883 -0.140739 -0.989807
-0.201309 -0.00256491 0.394301 -0.146246 -0.052615 -0.987848
-0.231691 0.210835 0.142931 -0.000784034 -0.990008 -0.141007
-0.0669047 0.137716 0.376976 0.0820476 -0.17989 0.980259
0.175543 -0.123852 0.398959 -0.0605532 0.121083 0.990794
