-0.0244119 -0.153919 0.452128 0 -0.0853418 -0.996352
0.0706496 0.249671 0.712139 0 0.855662 -0.517535
-0.144707 0.02039 0.44245 0 0.0853136 0.996354
-0.216409 0.131378 0.268967 -0.83806 -0.529868 -0.129979
0.0582171 0.184789 0.504126 0 0.996771 -0.0802981
0.174821 -0.263355 0.0420533 -0.838205 -0.544747 0.0257612
0.0823242 0.180781 0.553806 0 -0.987819 0.155606
0.146396 -0.273623 0.417196 0 -0.699034 -0.715089
-0.19615 0.0363376 0.644823 1 0 0
-0.209976 0.138796 0.300197 -0.508431 0.836308 0.205151
0.113964 0.178704 0.529229 0 -0.971309 -0.23782
-0.0553423 -0.0452562 0.448071 0 0.0853136 0.996354
0.149506 0.0911141 0.436394 0 0.0853136 0.996354
-0.222311 0.120662 0.670844 -1 0 0
0.0816865 -0.2433 0.446038 0 -0.323976 0.946065
0.00963494 -0.231063 0.450228 0 -0.323976 0.946065
-0.127914 -0.145039 0.451367 0 -0.0853418 -0.996352
-0.175871 -0.251637 0.0957648 0.983006 0.181734 -0.0259246
-0.161225 -0.213874 0.456114 0 -0.323976 0.946065
-0.0522719 0.0877468 0.431428 0 -0.0853418 -0.996352
0.216609 0.145647 0.24454 0.982996 0.178339 0.0437475
0.174359 0.0243494 0.441564 -1 0 0
-0.196192 0.150989 0.63909 0 0 -1
0.0469806 -0.236835 0.448252 0 -0.323976 0.946065
0.0921263 -0.201108 0.45494 0 0.323887 -0.946096
0.222311 0.122931 0.65096 1 0 0
-0.0219778 0.115494 0.434307 0 0.0853136 0.996354
0.173699 0.173222 0.467895 0 0.920942 -0.389699
-0.121135 0.0354927 0.441157 0 0.0853136 0.996354
-0.157144 0.0929383 0.430984 0 -0.0853418 -0.996352
0.0819572 0.155727 0.4555 0 -0.753514 0.657432
0.216572 0.0530414 0.589363 0.838008 -0.529947 -0.129999
-0.0624134 -0.0932485 0.45218 0 0.0853136 0.996354
0.0692498 0.0870259 0.43149 0 -0.0853418 -0.996352
-0.130999 0.0670579 0.4332 0 -0.0853418 -0.996352
-0.0929778 -0.145293 0.456637 0 0.0853136 0.996354
0.148648 -0.0901485 0.446666 0 -0.0853418 -0.996352
-0.216374 0.189396 0.0714905 -0.983016 0.178236 0.043722
-0.0407922 0.185836 0.522562 0 0.971192 0.238296
0.216435 0.0832195 0.502931 0.982995 0.178345 0.0437488
0.114569 -0.112284 0.448562 0 -0.0853418 -0.996352
-0.205008 0.160278 0.132094 0.838061 -0.529868 -0.12998
0.153312 0.172328 0.479456 0 -0.920871 0.389868
0.0067957 -0.0918427 0.446811 0 -0.0853418 -0.996352
-0.0217336 -0.234146 0.449172 0 -0.323976 0.946065
0.189806 -0.267147 0.0115151 0.837729 -0.545477 0.0258081
-0.0131258 0.243941 0.712322 0 -0.855593 0.51765
0.174359 0.106765 0.430217 -1 0 0
0.108196 0.069544 0.432987 0 -0.0853418 -0.996352
-0.0423776 0.184173 0.496473 0 0.996771 -0.0802981
-0.112031 0.181212 0.534542 0 -0.22791 0.973682
0.12787 0.235914 0.699056 0 -0.855593 0.51765
0.0998948 -0.141272 0.451045 0 -0.0853418 -0.996352
0.0628345 0.233161 0.684842 0 0.855662 -0.517535
0.202254 0.127983 0.670311 0 0.125272 0.992122
-0.164485 0.177923 0.535667 0 -0.987819 0.155606
-0.0797537 -0.216674 0.455156 0 -0.323976 0.946065
0.214214 0.136056 0.300864 0.508489 0.836275 0.205143
-0.154925 -0.0814496 0.445921 0 -0.0853418 -0.996352
-0.105435 0.182259 0.56319 0 -0.987819 0.155606
0.0744455 -0.123715 0.454789 0 0.0853136 0.996354
0.190426 -0.240447 0.21031 0.837413 -0.531397 0.127895
-0.0656699 0.0555562 0.434185 0 -0.0853418 -0.996352
-0.0946316 -0.261779 0.435801 0 -0.699462 0.71467
0.222311 0.0500027 0.551362 1 0 0
0.174359 -0.14688 0.455924 1 0 0
0.213721 0.103557 0.63909 0 0 -1
0.0334049 0.14669 0.441189 0 0.514491 -0.857496
-0.216826 0.076756 0.520508 -0.983015 0.178241 0.0437235
-0.19615 0.0472051 0.584 1 0 0
0.0145984 0.202661 0.629823 0 -0.912951 0.408068
-0.130396 -0.214578 0.450328 0 0.323887 -0.946096
0.118387 -0.00989291 0.439791 0 -0.0853418 -0.996352
0.14834 -0.211852 0.456807 0 -0.323976 0.946065
0.216655 0.0714244 0.546083 0.982995 0.178345 0.0437488
0.105674 0.233683 0.695367 0 -0.855593 0.51765
-0.21414 0.0393732 0.635448 0 0.968887 0.247505
-0.157803 -0.00922726 0.444986 0 0.0853136 0.996354
0.172548 0.066399 0.438511 0 0.0853136 0.996354
-0.0052001 0.263127 0.743449 0 -0.789704 0.613488
-0.100713 0.249606 0.712031 0 0.855662 -0.517535
-0.0737357 0.169431 0.472613 0 -0.920871 0.389868
-0.0643487 0.230539 0.690171 0 -0.855593 0.51765
0.045731 0.185073 0.5469 0 0.987834 -0.155515
0.154308 0.178378 0.530562 0 -0.971309 -0.23782
-0.213871 0.0900952 0.489076 -0.508431 0.836308 0.205151
0.142107 0.201936 0.611332 0 0.958041 -0.28663
-0.100782 0.0355711 0.435897 0 -0.0853418 -0.996352
0.214533 0.0980499 0.392743 0.838008 -0.529947 -0.129999
0.222311 0.14019 0.656033 1 0 0
0.191077 -0.170884 0.402545 0.982873 0.16795 -0.0758514
0.210634 0.179448 0.132848 0.508481 0.83628 0.205144
0.19615 0.17259 0.639518 -1 0 0
-0.051401 0.204756 0.620756 0 0.958041 -0.28663
-0.0935291 0.195306 0.589172 0 0.958041 -0.28663
0.217118 0.129001 0.283232 0.837981 -0.529986 -0.130008
-0.118815 0.258411 0.73624 0 -0.855593 0.51765
0.100113 0.197447 0.596328 0 0.958041 -0.28663
-0.0647697 0.161723 0.454316 0 0.753522 -0.657423
0.0311658 -0.0246399 0.441055 0 -0.0853418 -0.996352
0.0793127 -0.0671591 0.444697 0 -0.0853418 -0.996352
-0.0491352 0.19118 0.593669 0 -0.958071 0.28653
0.220774 0.0365036 0.680861 0 -0.0710037 0.997476
-0.0870662 0.0125705 0.437867 0 -0.0853418 -0.996352
0.0866688 0.00445478 0.438563 0 -0.0853418 -0.996352
0.209776 0.189181 0.0114539 0 -0.971206 -0.238242
-0.150673 0.191839 0.595873 0 -0.958071 0.28653
-0.0907542 0.235324 0.688419 0 0.855662 -0.517535
-0.174019 0.130611 0.431541 0 0.514491 -0.857496
0.0491775 0.168238 0.46984 0 -0.753514 0.657432
0.0709293 0.18549 0.574642 0 -0.958071 0.28653
0.100209 0.118266 0.434069 0 0.0853136 0.996354
-0.19615 0.0715087 0.489333 1 0 0
0.00722104 -0.274619 0.423235 0 -0.699462 0.71467
0.217999 0.0931057 0.674715 0 0.125272 0.992122
-0.15032 0.217158 0.662257 0 -0.912951 0.408068
6.20037e-05 0.0021847 0.438757 0 -0.0853418 -0.996352
0.0920747 -0.170105 0.453514 0 -0.0853418 -0.996352
-0.178843 -0.16291 0.442561 0.836962 -0.498754 0.225253
-0.110583 -0.191366 0.455335 0 -0.0853418 -0.996352
-0.136333 0.263176 0.734467 0 0.855662 -0.517535
0.19615 0.105354 0.654543 -1 0 0
-0.19615 0.213869 0.639957 1 0 0
-0.103816 -0.0763557 0.445484 0 -0.0853418 -0.996352
-0.0258878 0.000152305 0.444183 0 0.0853136 0.996354
0.20389 0.156584 0.154354 -0.838034 -0.529907 -0.129989
0.117304 0.107848 0.429706 0 -0.0853418 -0.996352
0.098847 0.220925 0.670686 0 -0.912951 0.408068
0.0785974 -0.258239 0.431869 0 0.699716 -0.714421
0.00723341 0.185378 0.511435 0 0.996771 -0.0802981
0.14077 -0.158914 0.452556 0 -0.0853418 -0.996352
0.0229356 -0.19053 0.46051 0 0.0853136 0.996354
0.217286 0.0532407 0.606024 0.982995 0.178345 0.0437488
-0.159067 0.0728407 0.437959 0 0.0853136 0.996354
-0.131527 -0.25334 0.436667 0 0.699716 -0.714421
0.0278978 0.234014 0.686253 0 0.855662 -0.517535
0.0227564 0.26106 0.740617 0 -0.855593 0.51765
-0.0304612 0.102461 0.430168 0 -0.0853418 -0.996352
-0.131845 0.163591 0.464514 0 -0.753514 0.657432
-0.165155 -0.262989 0.434617 0 -0.699462 0.71467
-0.18487 -0.228658 0.200541 -0.507661 0.837645 -0.201572
0.174359 -0.0271569 0.445633 -1 0 0
0.128141 0.209555 0.645248 0 -0.912951 0.408068
0.151102 -0.109693 0.44834 0 -0.0853418 -0.996352
0.00135927 0.149393 0.448945 0 -0.514234 0.85765
0.0083527 0.0328918 0.436127 0 -0.0853418 -0.996352
-0.19615 0.0609254 0.672611 1 0 0
-0.174359 0.00353537 0.44056 -1 0 0
0.0122673 0.188894 0.567739 0 0.958041 -0.28663
0.19615 0.0508536 0.651299 -1 0 0
0.02736 0.162139 0.462849 0 -0.753514 0.657432
0.215379 0.16535 0.123841 0.837981 -0.529986 -0.130008
0.202134 0.157521 0.202496 -0.982995 0.178345 0.0437489
0.220336 0.0537019 0.67969 0 0.125272 0.992122
0.108208 -0.0518598 0.443386 0 -0.0853418 -0.996352
-0.101103 0.156927 0.456875 0 -0.753514 0.657432
-0.202081 0.115122 0.374142 0.982996 0.178339 0.0437475
-0.0676686 0.18027 0.550563 0 -0.987819 0.155606
-0.174359 0.109243 0.429784 -1 0 0
0.212203 0.127348 0.26352 0 -0.971206 -0.238242
-0.00275533 0.195973 0.591402 0 0.958041 -0.28663
-0.198805 0.0211093 0.673647 0 -0.686825 0.726823
0.118151 0.179491 0.504907 0 -0.996788 0.0800825
-0.178785 -0.207448 0.33812 0.837612 -0.516737 0.177169
0.144378 0.228313 0.674621 0 0.912918 -0.408142
-0.0817438 -0.231998 0.449908 0 -0.323976 0.946065
0.181556 -0.231601 0.270073 0 -0.945945 0.324328
-0.157985 0.200732 0.625507 0 -0.912951 0.408068
0.0449336 -0.0620031 0.444255 0 -0.0853418 -0.996352
-0.156893 0.144824 0.440069 0 0.514491 -0.857496
0.033776 0.179818 0.508982 0 -0.996788 0.0800825
0.0474277 -0.272937 0.417473 0 0.699716 -0.714421
0.209935 0.0915173 0.409585 0 -0.971206 -0.238242
0.157366 0.0420241 0.440598 0 0.0853136 0.996354
0.201006 0.183284 0.0641103 -0.83806 -0.529868 -0.129979
0.153348 -0.06242 0.444291 0 -0.0853418 -0.996352
0.19615 0.155784 0.656011 -1 0 0
-0.122369 0.12481 0.429836 0 0.228321 -0.973586
0.151697 -0.131314 0.450192 0 -0.0853418 -0.996352
0.0615262 0.179834 0.524616 0 -0.971309 -0.23782
-0.206126 0.20941 0.00647996 0.507928 0.836597 0.205221
0.210533 0.0576201 0.507302 0 -0.951684 -0.307079
0.147501 -0.018501 0.44578 0 0.0853136 0.996354
-0.138925 0.0968914 0.430645 0 -0.0853418 -0.996352
-0.213583 0.17216 0.0844985 -0.838034 -0.529907 -0.129989
-0.056673 0.0441677 0.435161 0 -0.0853418 -0.996352
-0.164028 0.185075 0.573255 0 -0.958071 0.28653
-0.154131 -0.165728 0.453139 0 -0.0853418 -0.996352
-0.0323595 0.223866 0.664676 0 0.912918 -0.408142
-0.0870848 0.17949 0.504898 0 -0.996788 0.0800825
-0.121365 0.190007 0.589746 0 -0.958071 0.28653
-0.214325 0.16888 0.16678 -0.508425 0.836312 0.205152
-0.199453 0.0853938 0.455295 0 0.968887 0.247505
0.1841 -0.2096 0.334243 0 -0.945945 0.324328
-0.0232753 -0.263419 0.426795 0 0.699716 -0.714421
-0.0806562 -0.129067 0.449999 0 -0.0853418 -0.996352
0.221776 0.0118986 0.649 0 -0.951684 -0.307079
0.102672 -0.0970307 0.452504 0 0.0853136 0.996354
0.121985 0.126506 0.430234 0 0.228321 -0.973586
-0.0329939 0.148216 0.442104 0 0.514491 -0.857496
-0.212839 0.125411 0.63909 0 0 -1
-0.175533 -0.253365 0.143126 0.837914 -0.540332 0.077079
-0.0647781 -0.160364 0.45268 0 -0.0853418 -0.996352
-0.117359 -0.0348064 0.441925 0 -0.0853418 -0.996352
-0.0454933 -0.0125113 0.445267 0 0.0853136 0.996354
0.20903 0.186404 0.662934 0 0.125272 0.992122
-0.146914 0.128042 0.436144 0 -0.514234 0.85765
-0.188612 -0.166263 0.430293 -0.836484 -0.499403 0.22559
0.17929 -0.238812 0.240462 -0.837889 -0.530693 0.127698
-0.0704794 -0.021063 0.440748 0 -0.0853418 -0.996352
-0.118646 0.0754381 0.432482 0 -0.0853418 -0.996352
0.0279149 -0.238087 0.447823 0 -0.323976 0.946065
-0.121738 0.09601 0.43072 0 -0.0853418 -0.996352
0.0751187 -0.204282 0.459399 0 -0.323976 0.946065
0.0845499 0.182962 0.533491 0 0.987834 -0.155515
0.0549691 0.200919 0.607933 0 0.958041 -0.28663
-0.0202421 0.0781748 0.437502 0 0.0853136 0.996354
0.201264 0.0852773 0.477448 -0.982995 0.178345 0.0437489
-0.0481238 -0.144801 0.451347 0 -0.0853418 -0.996352
0.175533 -0.155179 0.431414 -0.982933 0.167659 -0.0757201
0.0383434 -0.167115 0.453258 0 -0.0853418 -0.996352
0.0598528 -0.261818 0.428363 0 0.699716 -0.714421
-0.19615 0.0199655 0.637197 1 0 0
-0.183253 -0.223281 0.218811 -0.507661 0.837645 -0.201572
0.035239 0.0303412 0.436345 0 -0.0853418 -0.996352
-0.103045 -0.00744708 0.439582 0 -0.0853418 -0.996352
-0.222311 0.0579294 0.554791 -1 0 0
0.0486665 -0.0360996 0.442036 0 -0.0853418 -0.996352
-0.0703782 -0.0564973 0.449034 0 0.0853136 0.996354
-0.148047 -0.106592 0.448074 0 -0.0853418 -0.996352
-0.0547247 -0.200757 0.460606 0 -0.323976 0.946065
0.0480122 0.211468 0.636945 0 0.912918 -0.408142
0.174359 -0.240651 0.445842 1 0 0
0.0934215 0.184635 0.502214 0 0.996771 -0.0802981
-0.0954255 -0.188548 0.46034 0 0.0853136 0.996354
0.19615 0.0325619 0.646616 -1 0 0
0.0107273 0.203015 0.61494 0 0.958041 -0.28663
0.00481437 -0.17967 0.45958 0 0.0853136 0.996354
0.065267 -0.166267 0.458433 0 0.0853136 0.996354
-0.0700546 0.251024 0.714376 0 0.855662 -0.517535
-0.0184148 0.198298 0.617469 0 -0.958071 0.28653
-0.190436 -0.23218 0.244589 -0.837243 -0.53165 0.127956
-0.187288 -0.260233 0.131154 -0.837438 -0.541052 0.0772075
0.08225 -0.0279476 0.446589 0 0.0853136 0.996354
-0.175129 -0.221295 0.268739 0.982937 0.174 -0.0596557
-0.063508 -0.115203 0.45406 0 0.0853136 0.996354
0.115915 0.17132 0.477074 0 -0.920871 0.389868
-0.110507 -0.0544744 0.44886 0 0.0853136 0.996354
0.181035 -0.255259 0.170711 0 -0.989971 0.141268
0.162586 0.261438 0.731594 0 0.855662 -0.517535
0.201533 0.0691936 0.518713 0 0.968887 0.247505
-0.0329618 -0.0896137 0.451869 0 0.0853136 0.996354
-0.134094 0.198669 0.600412 0 0.958041 -0.28663
0.20751 0.201894 0.0405397 -0.507928 0.836596 0.205221
-0.22031 0.0392411 0.564261 0 -0.951684 -0.307079
-0.126974 0.0051975 0.443751 0 0.0853136 0.996354
-0.171273 0.184084 0.495377 0 0.996771 -0.0802981
0.17589 -0.177305 0.377806 -0.982893 0.167846 -0.0758274
-0.107933 0.144979 0.446299 0 -0.514234 0.85765
0.042242 -0.128002 0.455156 0 0.0853136 0.996354
0.035307 0.128196 0.43063 0 0.228321 -0.973586
0.156342 0.220164 0.668983 0 -0.912951 0.408068
-0.103185 0.184535 0.500968 0 0.996771 -0.0802981
0.0725323 0.0668672 0.433217 0 -0.0853418 -0.996352
0.20512 0.0148458 0.665691 0 -0.896508 0.443027
-0.144742 -0.213877 0.456114 0 -0.323976 0.946065
-0.209949 0.0700666 0.677624 0 0.125272 0.992122
0.127677 -0.164017 0.45824 0 0.0853136 0.996354
-0.142093 0.183126 0.491299 0 0.920942 -0.389699
-0.0606675 0.194849 0.605938 0 -0.958071 0.28653
-0.0644588 0.189874 0.571015 0 0.958041 -0.28663
0.217557 0.107492 0.378774 0.982995 0.178345 0.0437488
-0.163786 0.238379 0.693469 0 0.855662 -0.517535
0.0459766 0.0944067 0.430858 0 -0.0853418 -0.996352
0.174359 -0.1855 0.459499 1 0 0
0.217549 0.177088 0.63909 0 0 -1
-0.155985 0.222077 0.673263 0 -0.912951 0.408068
0.0175779 -0.0564559 0.44903 0 0.0853136 0.996354
0.0975535 -0.0748541 0.445356 0 -0.0853418 -0.996352
-0.153645 -0.225293 0.44666 0 0.323887 -0.946096
0.0940807 -0.0406604 0.442427 0 -0.0853418 -0.996352
0.0332184 0.169212 0.472094 0 -0.920871 0.389868
0.112801 0.263713 0.735355 0 0.855662 -0.517535
0.202869 0.143604 0.213853 -0.838034 -0.529907 -0.129989
0.0257926 0.105953 0.429869 0 -0.0853418 -0.996352
-0.0341866 -0.114766 0.454023 0 0.0853136 0.996354
-0.00603718 0.120094 0.428994 0 0.996151 -0.0876584
-0.215062 0.158535 0.207125 -0.508425 0.836312 0.205152
0.0434505 0.178612 0.480633 0 0.920942 -0.389699
-0.142539 0.114257 0.429157 0 -0.0853418 -0.996352
0.100363 0.178557 0.539688 0 -0.987819 0.155606
-0.212083 0.0612771 0.495968 0 -0.951684 -0.307079
-0.0919359 0.268129 0.741992 0 0.789649 -0.613559
-0.0489731 0.166977 0.460337 0 0.753522 -0.657423
0.143988 0.184532 0.50093 0 0.996771 -0.0802981
0.156403 0.215875 0.6468 0 0.912918 -0.408142
-0.124806 0.201564 0.62737 0 -0.912951 0.408068
-0.135497 -0.158909 0.452555 0 -0.0853418 -0.996352
-0.0230675 0.17807 0.531819 0 -0.971309 -0.23782
0.0221193 -0.0871047 0.451654 0 0.0853136 0.996354
-0.127981 0.230679 0.690403 0 -0.855593 0.51765
0.124502 0.139699 0.443133 0 -0.514234 0.85765
0.0857987 -0.0112633 0.44516 0 0.0853136 0.996354
0.160419 0.195171 0.607013 0 -0.958071 0.28653
0.114719 -0.0268497 0.441244 0 -0.0853418 -0.996352
-0.096825 0.169026 0.471655 0 -0.920871 0.389868
0.120273 0.224024 0.677619 0 -0.912951 0.408068
0.0472244 0.261774 0.732149 0 0.855662 -0.517535
0.0605348 -0.0541062 0.448829 0 0.0853136 0.996354
0.19615 0.0421271 0.563808 -1 0 0
-0.216918 0.0495644 0.605769 -0.83806 -0.529868 -0.129979
0.00929891 -0.136571 0.450642 0 -0.0853418 -0.996352
-0.0794951 -0.275282 0.418818 0 -0.699034 -0.715089
0.090878 0.0494025 0.439966 0 0.0853136 0.996354
0.0897214 0.178665 0.480758 0 0.920942 -0.389699
-0.106028 0.0627799 0.43882 0 0.0853136 0.996354
0.119998 -0.127256 0.455092 0 0.0853136 0.996354
0.0848251 -0.11137 0.453732 0 0.0853136 0.996354
-0.210121 0.0882169 0.506026 -0.508431 0.836308 0.205151
0.0889794 0.18065 0.521282 0 -0.971309 -0.23782
-0.118712 0.1892 0.568761 0 0.958041 -0.28663
-0.207828 0.189264 0.63909 0 0 -1
-0.184511 -0.182329 0.35394 -0.507513 0.815071 -0.279447
0.104646 0.0550052 0.439486 0 0.0853136 0.996354
-0.154975 0.170953 0.476208 0 -0.920871 0.389868
0.201917 0.136656 0.63909 0 0 -1
0.157 -0.166142 0.453175 0 -0.0853418 -0.996352
0.183973 -0.251547 0.0187071 0.508192 0.860281 -0.0407118
0.21613 0.126476 0.333457 0.982996 0.178339 0.0437475
0.118366 0.203627 0.616985 0 0.958041 -0.28663
-0.0102429 0.185603 0.514223 0 0.996771 -0.0802981
-0.19615 0.105528 0.659213 1 0 0
0.219181 0.0701481 0.514976 0 0.968887 0.247505
0.0138127 0.0953091 0.436035 0 0.0853136 0.996354
0.0975449 0.155216 0.446857 0 0.753522 -0.657423
-0.0548311 0.185799 0.51666 0 0.996771 -0.0802981
-0.19615 0.0540445 0.56863 1 0 0
-0.00742872 0.159036 0.459293 0 -0.753514 0.657432
0.0880371 0.25062 0.723363 0 -0.855593 0.51765
-0.041793 0.179905 0.548247 0 -0.987819 0.155606
-0.0159474 0.186845 0.579175 0 -0.958071 0.28653
0.175622 -0.263085 0.0738335 -0.838146 -0.544836 0.0257778
-0.13916 0.250001 0.712686 0 0.855662 -0.517535
-0.175982 -0.264294 0.0599676 0.838146 -0.544837 0.0257655
0.0767977 0.135703 0.434596 0 0.514491 -0.857496
0.135806 -0.192574 0.455439 0 -0.0853418 -0.996352
-0.222311 0.0487631 0.581022 -1 0 0
0.00805721 -0.162246 0.452841 0 -0.0853418 -0.996352
-0.173862 0.273344 0.748705 0 0.789649 -0.613559
0.062442 0.226632 0.670863 0 0.912918 -0.408142
0.0741263 0.0289542 0.436464 0 -0.0853418 -0.996352
-0.0337398 0.0181971 0.442638 0 0.0853136 0.996354
0.0931574 0.188993 0.568071 0 0.958041 -0.28663
-0.222311 0.152545 0.639507 -1 0 0
0.118163 -0.0409877 0.442455 0 -0.0853418 -0.996352
0.0911185 0.0185964 0.442604 0 0.0853136 0.996354
-0.0659316 0.224774 0.666705 0 0.912918 -0.408142
-0.0893345 -0.0337156 0.441832 0 -0.0853418 -0.996352
-0.146358 -0.262771 0.42743 0 0.699716 -0.714421
0.160063 0.132286 0.432547 0 0.514491 -0.857496
-0.00100419 0.22253 0.674277 0 -0.912951 0.408068
0.190382 -0.212006 0.285217 0.982917 0.174099 -0.0596898
-0.217374 0.0815742 0.47822 -0.83806 -0.529868 -0.129979
0.121152 0.00592138 0.443689 0 0.0853136 0.996354
0.159657 0.156383 0.448194 0 0.753522 -0.657423
0.159084 -0.265118 0.432533 0 -0.699462 0.71467
0.0622568 -0.234162 0.443624 0 0.323887 -0.946096
-0.213851 0.0862055 0.675586 0 0.125272 0.992122
0.0191276 0.186018 0.519382 0 0.996771 -0.0802981
0.0608772 0.0128714 0.443094 0 0.0853136 0.996354
-0.19046 -0.175116 0.385168 -0.982893 0.167845 -0.0758268
-0.102486 0.226763 0.683746 0 -0.912951 0.408068
0.0884664 0.130213 0.431303 0 0.514491 -0.857496
-0.0515997 -0.0613533 0.449449 0 0.0853136 0.996354
0.122213 0.16201 0.454644 0 0.753522 -0.657423
-0.207524 0.0286275 0.597154 0 -0.951684 -0.307079
0.0844838 0.2731 0.74839 0 0.789649 -0.613559
-0.217392 0.131283 0.285492 -0.983016 0.178236 0.043722
0.190296 -0.235363 0.194568 0.982953 0.178751 -0.043016
0.131569 0.0937243 0.436171 0 0.0853136 0.996354
0.0659978 -0.140018 0.456185 0 0.0853136 0.996354
-0.221281 0.0575055 0.507657 0 -0.951684 -0.307079
0.206126 0.0481005 0.601284 0 0.968887 0.247505
-0.174359 0.0208444 0.441322 -1 0 0
0.215903 0.0320269 0.586619 0 -0.951684 -0.307079
-0.181816 -0.251789 0.0180931 0.508635 0.86002 -0.0406995
0.19615 0.0598053 0.502597 -1 0 0
-0.142296 0.148006 0.448114 0 -0.514234 0.85765
0.187793 -0.261375 0.117672 0.837595 -0.540813 0.0771735
0.216401 0.0956073 0.453193 0.982996 0.178339 0.0437475
-0.070884 0.144271 0.439737 0 0.514491 -0.857496
-0.0647754 -0.211094 0.451521 0 0.323887 -0.946096
-0.203699 0.111179 0.340682 0.838061 -0.529868 -0.12998
-0.201579 0.195495 0.0352079 0.982996 0.178339 0.0437475
-0.083979 -0.198258 0.455926 0 -0.0853418 -0.996352
-0.191097 -0.248583 0.171481 -0.837438 -0.541052 0.0772075
-0.0764998 0.0466382 0.434949 0 -0.0853418 -0.996352
-0.0950066 0.183198 0.53499 0 0.987834 -0.155515
0.175262 -0.241961 0.20096 -0.83772 -0.530939 0.127785
-0.113251 -0.173815 0.459079 0 0.0853136 0.996354
0.179289 -0.196517 0.36982 -0.836963 -0.498736 0.225289
-0.208356 0.0617529 0.54784 0 0.968887 0.247505
0.0555294 0.162828 0.455582 0 0.753522 -0.657423
-0.0252814 0.243271 0.701558 0 0.855662 -0.517535
0.21175 0.0575587 0.548019 0 -0.971206 -0.238242
0.0130424 0.121601 0.430188 0 -0.951868 -0.30651
0.139056 0.0770194 0.432347 0 -0.0853418 -0.996352
0.0469054 -0.211929 0.456781 0 -0.323976 0.946065
0.148951 0.262885 0.743137 0 -0.789704 0.613488
0.141372 -0.0563637 0.449022 0 0.0853136 0.996354
0.0275434 0.274196 0.7498 0 0.789649 -0.613559
-0.143074 0.0605902 0.433754 0 -0.0853418 -0.996352
0.21157 0.0241937 0.610895 0 -0.951684 -0.307079
-0.199412 0.0243451 0.610426 0 -0.951684 -0.307079
-0.208595 0.179893 0.0493183 0 -0.971206 -0.238242
-0.0825326 -0.0937527 0.452224 0 0.0853136 0.996354
-0.108175 -0.137113 0.450688 0 -0.0853418 -0.996352
-0.222311 0.188651 0.645956 -1 0 0
-0.174359 -0.151828 0.45385 -1 0 0
0.162416 0.243063 0.710872 0 -0.855593 0.51765
0.07568 0.23796 0.702437 0 -0.855593 0.51765
-0.14105 -0.138348 0.450794 0 -0.0853418 -0.996352
0.118742 -0.201227 0.460446 0 -0.323976 0.946065
-0.00850222 0.108449 0.429655 0 -0.0853418 -0.996352
0.19615 0.0747296 0.671359 -1 0 0
-0.211446 0.0761233 0.552044 -0.508431 0.836308 0.205151
0.214871 0.0745035 0.490906 0.838008 -0.529947 -0.129999
-0.0107014 -0.152901 0.457288 0 0.0853136 0.996354
-0.222311 0.106859 0.660342 -1 0 0
0.0506837 0.120199 0.43018 0 0.996151 -0.0876584
0.176225 -0.245864 0.122827 -0.983006 0.181734 -0.0259249
0.00103429 -0.0545964 0.448871 0 0.0853136 0.996354
-0.217592 0.0861234 0.465099 -0.983016 0.178236 0.043722
-0.201343 0.0993442 0.404118 0.838034 -0.529908 -0.129989
0.0921554 0.207903 0.641551 0 -0.912951 0.408068
0.21138 0.0479554 0.537254 0 -0.951684 -0.307079
-0.114565 -0.111932 0.45378 0 0.0853136 0.996354
0.152784 0.235517 0.688738 0 0.855662 -0.517535
-0.190346 -0.256662 0.0358552 -0.983038 0.183198 -0.00865191
0.0378129 -0.187239 0.460228 0 0.0853136 0.996354
-0.123523 -0.239128 0.447467 0 -0.323976 0.946065
-0.201803 0.129365 0.30984 0.982996 0.178339 0.0437475
-0.133709 0.174 0.483405 0 -0.920871 0.389868
-0.131191 -0.0838758 0.451378 0 0.0853136 0.996354
0.217672 0.114824 0.346299 0.982995 0.178345 0.0437488
-0.0421411 0.179385 0.533532 0 -0.0821558 -0.99662
-0.191529 -0.23817 0.211075 -0.982973 0.178646 -0.0429962
0.00535721 0.165196 0.466353 0 -0.753514 0.657432
0.100282 0.176036 0.474545 0 0.920942 -0.389699
-0.0798602 -0.245281 0.445359 0 -0.323976 0.946065
-0.100354 -0.225169 0.446703 0 0.323887 -0.946096
-0.177344 -0.22178 0.28951 0.837612 -0.516737 0.177169
-0.062294 0.122958 0.434783 0 -0.228705 0.973496
-0.0492371 -0.268762 0.428968 0 -0.699462 0.71467
-0.124505 0.211891 0.637889 0 0.912918 -0.408142
-0.0962682 0.125552 0.43001 0 0.228321 -0.973586
-0.0921685 -0.0197458 0.445887 0 0.0853136 0.996354
0.100578 0.0254375 0.436765 0 -0.0853418 -0.996352
-0.0397648 -0.17681 0.454089 0 -0.0853418 -0.996352
0.0451276 0.228484 0.686774 0 -0.855593 0.51765
0.201001 0.179593 0.0791865 -0.83806 -0.529868 -0.129979
-0.115199 -0.0949062 0.447073 0 -0.0853418 -0.996352
0.216821 0.101665 0.419055 0.982995 0.178345 0.0437488
0.0635766 0.149931 0.443133 0 0.514491 -0.857496
-0.204619 0.0554443 0.630397 0.507935 0.836592 0.20522
-0.21428 0.153151 0.166481 -0.838034 -0.529907 -0.129989
0.138653 -0.24509 0.439883 0 0.323887 -0.946096
0.0564702 -0.101679 0.447653 0 -0.0853418 -0.996352
-0.124401 0.269063 0.743194 0 0.789649 -0.613559
-0.202862 0.157074 0.158991 0.838034 -0.529908 -0.129989
-0.189029 -0.225682 0.277081 -0.837135 -0.51743 0.1774
0.221688 0.158807 0.63909 0 0 -1
-0.0663062 -0.245889 0.445151 0 -0.323976 0.946065
-0.106187 0.259122 0.727766 0 0.855662 -0.517535
-0.196706 0.171233 0.66485 0 0.125272 0.992122
0.14328 0.0482972 0.44006 0 0.0853136 0.996354
-0.136514 0.036559 0.441066 0 0.0853136 0.996354
0.151622 -0.00419873 0.439304 0 -0.0853418 -0.996352
0.120095 0.1791 0.54314 0 -0.987819 0.155606
-0.12964 0.184169 0.529354 0 0.971192 0.238296
0.209836 0.0528088 0.63909 0 0 -1
0.110014 -0.0658982 0.444589 0 -0.0853418 -0.996352
-0.144458 0.178245 0.533848 0 -0.22791 0.973682
-0.177174 -0.193241 0.369206 0.837212 -0.498389 0.225133
-0.21307 0.147708 0.256197 -0.508425 0.836312 0.205152
-0.168651 -0.184795 0.454773 0 -0.0853418 -0.996352
0.191047 -0.194087 0.348439 0.982918 0.174098 -0.0596894
-0.174665 -0.263964 0.0241115 0.838146 -0.544837 0.0257655
0.204899 0.0846775 0.440979 -0.838034 -0.529907 -0.129989
-0.138772 0.239793 0.695808 0 0.855662 -0.517535
-0.0218164 0.267051 0.740605 0 0.789649 -0.613559
-0.220584 0.0320336 0.586598 0 -0.951684 -0.307079
0.202965 0.107758 0.359362 -0.83806 -0.529868 -0.129979
0.179756 -0.251083 0.18948 0 -0.972249 0.233947
0.0755188 0.211984 0.650682 0 -0.912951 0.408068
-0.101013 0.0203847 0.437198 0 -0.0853418 -0.996352
-0.0868216 0.252848 0.717392 0 0.855662 -0.517535
0.062699 -0.0861226 0.45157 0 0.0853136 0.996354
-0.206333 0.0541369 0.577654 0 0.968887 0.247505
0.13208 0.198668 0.600409 0 0.958041 -0.28663
0.174359 -0.262876 0.431349 1 0 0
0.200892 0.169576 0.125432 -0.982996 0.178339 0.0437474
-0.115457 0.213864 0.654887 0 -0.912951 0.408068
-0.200957 0.112597 0.359182 0.982995 0.178345 0.0437488
-0.0804414 0.19817 0.598743 0 0.958041 -0.28663
0.130368 0.219423 0.667325 0 -0.912951 0.408068
0.0791242 0.106975 0.429781 0 -0.0853418 -0.996352
-0.00370724 -0.205659 0.458928 0 -0.323976 0.946065
0.15773 0.18236 0.489489 0 0.920942 -0.389699
-0.207434 0.0834132 0.63909 0 0 -1
-0.108169 0.207157 0.627301 0 0.912918 -0.408142
-0.174359 0.181207 0.543112 -1 0 0
0.0039527 -0.261861 0.435721 0 -0.699462 0.71467
0.073792 0.00184497 0.444038 0 0.0853136 0.996354
-0.214246 0.10915 0.410471 -0.508425 0.836312 0.205152
0.19615 0.210513 0.639165 -1 0 0
0.0201769 0.189404 0.58773 0 -0.958071 0.28653
-0.216925 0.099265 0.42652 -0.983015 0.178241 0.0437235
0.191379 -0.262376 0.0613133 0.83767 -0.545567 0.0258
0.143778 0.190153 0.571949 0 0.958041 -0.28663
0.180363 -0.23642 0.170442 -0.508427 0.852475 -0.121608
-0.0478279 -0.0879651 0.451728 0 0.0853136 0.996354
0.063698 -0.18259 0.454584 0 -0.0853418 -0.996352
0.207169 0.165162 0.109369 0 -0.971206 -0.238242
-0.072116 -0.260132 0.430015 0 0.699716 -0.714421
0.118105 0.181661 0.487836 0 0.920942 -0.389699
-0.115395 0.107479 0.429738 0 -0.0853418 -0.996352
0.177555 -0.252336 0.0597539 -0.508688 0.859992 -0.0406149
0.1368 0.127929 0.430568 0 0.228321 -0.973586
0.109584 0.154921 0.454576 0 -0.753514 0.657432
0.201297 0.190083 0.0509358 -0.982996 0.178339 0.0437474
-0.21359 0.177127 0.134983 -0.508425 0.836312 0.205152
0.0703306 0.179995 0.511184 0 -0.996788 0.0800825
-0.00755484 -0.0315379 0.446896 0 0.0853136 0.996354
0.18963 -0.212205 0.313548 0.837099 -0.517483 0.177419
-0.132697 0.252358 0.726235 0 -0.855593 0.51765
0.19615 0.0466579 0.547055 -1 0 0
-0.000511572 -0.0152622 0.445503 0 0.0853136 0.996354
-0.103901 0.198918 0.601243 0 0.958041 -0.28663
0.0441434 0.184419 0.499525 0 0.996771 -0.0802981
0.0509301 -0.151944 0.451959 0 -0.0853418 -0.996352
-0.19615 0.0743246 0.664532 1 0 0
0.125061 -0.0229967 0.440914 0 -0.0853418 -0.996352
-0.0291034 0.0338256 0.4413 0 0.0853136 0.996354
-0.00878331 -0.182368 0.454565 0 -0.0853418 -0.996352
0.0378705 0.0463563 0.440227 0 0.0853136 0.996354
0.164755 -0.127892 0.449899 0 -0.0853418 -0.996352
0.160427 0.0708914 0.438126 0 0.0853136 0.996354
-0.0521317 0.0282921 0.441773 0 0.0853136 0.996354
-0.0790549 0.236093 0.689689 0 0.855662 -0.517535
0.0338234 -0.111001 0.448452 0 -0.0853418 -0.996352
-0.222311 0.0231758 0.619965 -1 0 0
0.0209569 0.209189 0.64443 0 -0.912951 0.408068
0.19615 0.0248047 0.616548 -1 0 0
-0.0792378 0.261489 0.741326 0 -0.855593 0.51765
-0.150027 0.210772 0.647969 0 -0.912951 0.408068
-0.0414862 0.179932 0.5104 0 -0.996788 0.0800825
0.204968 0.14001 0.286523 -0.507928 0.836596 0.205221
0.222311 0.195802 0.640943 1 0 0
0.20842 0.0623779 0.492557 0 -0.951684 -0.307079
0.212188 0.038438 0.56675 0 -0.951684 -0.307079
-0.15602 0.181764 0.560046 0 -0.987819 0.155606
0.108781 -0.213881 0.456112 0 -0.323976 0.946065
-0.175945 -0.23744 0.224226 0.837889 -0.530686 0.127724
-0.174359 0.166232 0.461288 -1 0 0
-0.134807 0.193389 0.582764 0 0.958041 -0.28663
-0.0857541 0.0945422 0.430846 0 -0.0853418 -0.996352
0.131659 -0.225515 0.446584 0 0.323887 -0.946096
-0.0394024 0.0923292 0.43629 0 0.0853136 0.996354
0.0827953 0.190028 0.57153 0 0.958041 -0.28663
0.0181084 0.058541 0.439183 0 0.0853136 0.996354
-0.0983381 0.274897 0.754564 0 0.358345 0.933589
-0.0772474 0.211549 0.637125 0 0.912918 -0.408142
-0.189975 -0.245663 0.12588 -0.983006 0.181733 -0.0259247
-0.196993 0.136541 0.63909 0 0 -1
-0.0262609 0.198967 0.601409 0 0.958041 -0.28663
-0.222311 0.149039 0.657633 -1 0 0
-0.0657642 -0.188306 0.455073 0 -0.0853418 -0.996352
-0.2168 0.149284 0.225431 -0.983016 0.178236 0.043722
-0.222311 0.0637641 0.655412 -1 0 0
-0.197259 0.153747 0.667058 0 0.125272 0.992122
0.140476 0.178907 0.481328 0 0.920942 -0.389699
-0.0815702 0.180686 0.521136 0 -0.971309 -0.23782
0.123772 0.243061 0.710869 0 -0.855593 0.51765
0.0881446 -0.213382 0.456283 0 -0.323976 0.946065
-0.0727604 0.179555 0.482861 0 0.920942 -0.389699
-0.0128441 0.239521 0.695358 0 0.855662 -0.517535
-0.0413237 0.251276 0.724446 0 -0.855593 0.51765
-0.178336 -0.270199 0.0116987 0.838205 -0.544747 0.0257736
-0.206422 0.128226 0.67028 0 0.125272 0.992122
0.0201568 0.178948 0.498149 0 -0.996788 0.0800825
0.166051 -0.0844743 0.451429 0 0.0853136 0.996354
0.212924 0.0892712 0.63909 0 0 -1
0.0582825 0.261424 0.74122 0 -0.855593 0.51765
0.214334 0.123187 0.63909 0 0 -1
-0.0285534 -0.197856 0.461138 0 0.0853136 0.996354
-0.207239 0.168188 0.0970349 0 -0.971206 -0.238242
0.222311 0.0823587 0.455671 1 0 0
-0.175972 -0.195588 0.329841 0.982937 0.173998 -0.0596553
-0.129805 -0.0189928 0.445822 0 0.0853136 0.996354
-0.0327688 0.0658047 0.438561 0 0.0853136 0.996354
-0.161438 -0.236359 0.442872 0 0.323887 -0.946096
0.0299982 0.225293 0.667868 0 0.912918 -0.408142
0.170702 0.134864 0.440234 0 -0.514234 0.85765
0.0527876 -0.00287189 0.43919 0 -0.0853418 -0.996352
0.0276283 0.19939 0.602823 0 0.958041 -0.28663
-0.0888143 -0.158214 0.457743 0 0.0853136 0.996354
0.209024 0.115517 0.311751 0 -0.971206 -0.238242
-0.201134 0.172102 0.120582 0.982996 0.178339 0.0437475
-0.191149 -0.168879 0.407916 -0.982933 0.167657 -0.0757194
0.121335 0.0446543 0.440372 0 0.0853136 0.996354
-0.036539 -0.154478 0.457423 0 0.0853136 0.996354
0.160158 -0.182062 0.454538 0 -0.0853418 -0.996352
-0.0336364 -0.266359 0.431319 0 -0.699462 0.71467
0.112733 0.190395 0.591045 0 -0.958071 0.28653
0.115355 0.163324 0.464208 0 -0.753514 0.657432
-0.0999893 0.176701 0.489785 0 -0.920871 0.389868
0.180069 -0.223652 0.224394 -0.508111 0.837386 -0.201514
-0.0589206 0.0993224 0.435691 0 0.0853136 0.996354
-0.137205 -0.125529 0.454944 0 0.0853136 0.996354
-0.169777 -0.114609 0.448761 0 -0.0853418 -0.996352
-0.0577066 0.204424 0.633769 0 -0.912951 0.408068
-0.186391 -0.203782 0.351213 0 -0.945945 0.324328
-0.170774 0.145899 0.440714 0 0.514491 -0.857496
0.0532996 0.0632057 0.43353 0 -0.0853418 -0.996352
0.0348909 0.204504 0.619915 0 0.958041 -0.28663
0.222311 0.153096 0.661354 1 0 0
0.0734607 0.1776 0.47824 0 0.920942 -0.389699
0.222311 0.0272426 0.64175 1 0 0
0.13041 -0.25191 0.443089 0 -0.323976 0.946065
-0.00358531 0.205009 0.635077 0 -0.912951 0.408068
0.0851561 -0.226693 0.446181 0 0.323887 -0.946096
0.0218064 -0.162559 0.452868 0 -0.0853418 -0.996352
-0.216571 0.114496 0.372387 -0.983015 0.178241 0.0437235
0.0571518 0.183836 0.53904 0 0.987834 -0.155515
0.00764911 -0.217434 0.454895 0 -0.323976 0.946065
-0.113816 0.162161 0.454817 0 0.753522 -0.657423
-0.18618 -0.187467 0.389865 0 -0.911334 0.411668
-0.163519 0.179241 0.482117 0 0.920942 -0.389699
0.0460631 -0.075129 0.450629 0 0.0853136 0.996354
0.214658 0.154632 0.162887 0.837981 -0.529986 -0.130008
0.0944695 0.230734 0.680038 0 0.912918 -0.408142
0.0269037 0.152571 0.451883 0 -0.753514 0.657432
-0.221338 0.212543 0.647986 0 0.969029 0.246945
-0.216257 0.0116676 0.654967 0 -0.994539 0.104365
0.205658 0.124449 0.27534 0 -0.971206 -0.238242
-0.187408 -0.222341 0.233182 -0.507612 0.837672 -0.201583
0.0258247 0.0195218 0.437272 0 -0.0853418 -0.996352
-0.210312 0.0675169 0.47663 0 -0.951684 -0.307079
0.103501 -0.244203 0.445729 0 -0.323976 0.946065
-0.125699 -0.264659 0.432983 0 -0.699462 0.71467
0.166604 -0.0631032 0.449599 0 0.0853136 0.996354
-0.0119976 -0.265268 0.432386 0 -0.699462 0.71467
-0.213272 0.0388325 0.681027 0 -0.0710037 0.997476
0.0858444 0.166961 0.468376 0 -0.753514 0.657432
0.00262156 0.0156538 0.437603 0 -0.0853418 -0.996352
-0.0925294 -0.0481956 0.443072 0 -0.0853418 -0.996352
0.00215729 0.0898316 0.43125 0 -0.0853418 -0.996352
-0.186036 -0.213298 0.266388 -0.507185 0.815243 -0.279539
-0.190622 -0.251186 0.1117 -0.983006 0.181733 -0.0259247
0.180421 -0.162058 0.446115 0 -0.911334 0.411668
-0.215696 0.163893 0.18371 -0.508425 0.836312 0.205152
-0.108541 0.180746 0.520889 0 -0.971309 -0.23782
-0.00631107 0.179017 0.499005 0 -0.996788 0.0800825
0.175189 -0.261264 0.0089528 -0.983038 0.1832 -0.00865198
0.19615 0.047715 0.577058 -1 0 0
0.151539 -0.199053 0.459926 0 -0.995967 0.0897245
-0.0819247 -0.0599113 0.444076 0 -0.0853418 -0.996352
-0.0124867 0.0667298 0.433228 0 -0.0853418 -0.996352
0.111991 0.213104 0.653187 0 -0.912951 0.408068
-0.124364 0.222272 0.661109 0 0.912918 -0.408142
-0.0276226 -0.218239 0.449075 0 0.323887 -0.946096
0.187142 -0.22403 0.2908 0.837135 -0.517428 0.177406
0.170322 0.184826 0.504578 0 0.996771 -0.0802981
0.0068391 0.244775 0.704045 0 0.855662 -0.517535
-0.146108 -0.0455473 0.448096 0 0.0853136 0.996354
-0.024041 -0.104685 0.447911 0 -0.0853418 -0.996352
0.129131 0.184665 0.527334 0 0.971192 0.238296
-0.0122713 0.0115413 0.437956 0 -0.0853418 -0.996352
0.104142 -0.26735 0.422945 0 0.699716 -0.714421
-0.172867 0.238902 0.703993 0 -0.855593 0.51765
0.0665371 -0.114082 0.448716 0 -0.0853418 -0.996352
-0.159084 0.16121 0.461785 0 -0.753514 0.657432
0.202224 0.163154 0.66587 0 0.125272 0.992122
-0.222311 0.0571262 0.642106 -1 0 0
-0.2042 0.102752 0.436506 0.507935 0.836592 0.20522
-0.0414153 0.0553947 0.439453 0 0.0853136 0.996354
-0.144985 0.161397 0.461999 0 -0.753514 0.657432
-0.222311 0.0311306 0.648755 -1 0 0
0.150761 0.18186 0.560659 0 -0.987819 0.155606
-0.161444 -0.198531 0.457921 0 0.992607 0.121373
0.216621 0.0631201 0.580694 0.982995 0.178345 0.0437488
-0.176615 -0.23094 0.255633 0.837889 -0.530686 0.127724
-0.201914 0.0483179 0.600433 0 0.968887 0.247505
0.0689866 0.194259 0.585673 0 0.958041 -0.28663
-0.222311 0.037758 0.66558 -1 0 0
0.0936901 0.20129 0.626756 0 -0.912951 0.408068
-0.214664 0.0706407 0.505315 -0.83806 -0.529868 -0.129979
-0.20771 0.0143821 0.641303 0 -0.951684 -0.307079
0.19615 0.183979 0.651039 -1 0 0
-0.150185 0.268171 0.742047 0 0.789649 -0.613559
-0.222311 0.0897807 0.64212 -1 0 0
0.205032 0.0852918 0.509744 -0.507934 0.836593 0.20522
0.202446 0.0984082 0.400824 -0.83806 -0.529868 -0.129979
-0.180871 -0.248907 0.198522 0 -0.972249 0.233947
0.202195 0.150029 0.234395 -0.982995 0.178345 0.0437489
0.201433 0.173856 0.0997866 -0.83806 -0.529868 -0.129979
-0.0207092 -0.13734 0.450708 0 -0.0853418 -0.996352
-0.169095 0.220238 0.669149 0 -0.912951 0.408068
-0.0301681 0.183032 0.491078 0 0.920942 -0.389699
-0.170096 -0.0144196 0.445431 0 0.0853136 0.996354
-0.00243191 0.254172 0.71958 0 0.855662 -0.517535
-0.19615 0.0241305 0.660262 1 0 0
0.167195 0.213592 0.654279 0 -0.912951 0.408068
0.203051 0.206099 0.0123625 -0.507928 0.836596 0.205221
-0.149723 -0.275844 0.422036 0 -0.699462 0.71467
0.152185 -0.0444582 0.442752 0 -0.0853418 -0.996352
-0.222311 0.0902221 0.665979 -1 0 0
-0.0547794 -0.223975 0.447111 0 0.323887 -0.946096
-0.0730678 0.0666125 0.433238 0 -0.0853418 -0.996352
-0.0178995 0.203015 0.630615 0 -0.912951 0.408068
0.159589 -0.274991 0.418534 0 -0.699034 -0.715089
0.207695 0.0606395 0.53546 0 -0.971206 -0.238242
-0.0310058 -0.0569839 0.449075 0 0.0853136 0.996354
-0.109506 0.185386 0.548888 0 0.987834 -0.155515
0.0828651 0.185275 0.510152 0 0.996771 -0.0802981
0.212033 0.0787214 0.461748 0 -0.971206 -0.238242
0.189622 -0.260664 0.1028 0.837595 -0.540813 0.0771735
-0.0845874 0.215407 0.65834 0 -0.912951 0.408068
0.214787 0.160507 0.199765 0.508489 0.836275 0.205143
-0.0162056 0.131576 0.43212 0 0.514491 -0.857496
-0.182691 -0.174088 0.370897 0.507041 0.785502 -0.354819
-0.19615 0.0490178 0.548336 1 0 0
-0.165199 0.209877 0.645968 0 -0.912951 0.408068
0.142198 0.206834 0.63916 0 -0.912951 0.408068
-0.040877 0.207086 0.639723 0 -0.912951 0.408068
0.0385273 0.194462 0.586352 0 0.958041 -0.28663
-0.180593 -0.148729 0.430036 0.507041 0.785502 -0.354819
0.120484 -0.068193 0.450035 0 0.0853136 0.996354
-0.0904215 0.22146 0.671883 0 -0.912951 0.408068
-0.157451 0.245094 0.714228 0 -0.855593 0.51765
-0.216195 0.131957 0.309662 -0.983015 0.178241 0.0437235
-0.0762199 0.187954 0.582881 0 -0.958071 0.28653
0.211121 0.184864 0.0290521 0 -0.971206 -0.238242
0.0141633 -0.00871058 0.43969 0 -0.0853418 -0.996352
0.182078 -0.270772 0.0306885 0 -0.998883 0.0472601
-0.160111 0.184981 0.546313 0 0.987834 -0.155515
-0.0269581 0.17352 0.482272 0 -0.920871 0.389868
0.19615 0.0427822 0.590301 -1 0 0
-0.178799 -0.236053 0.176066 0.508104 0.83739 -0.201515
-0.216153 0.13855 0.238082 -0.83806 -0.529868 -0.129979
-0.199574 0.198328 0.661429 0 0.125272 0.992122
0.222311 0.0547579 0.56363 1 0 0
-0.175928 -0.264999 0.0433257 0.838146 -0.544837 0.0257655
-0.123205 0.143742 0.43942 0 0.514491 -0.857496
0.19615 0.143065 0.650766 -1 0 0
0.0736989 -0.233524 0.449385 0 -0.323976 0.946065
-0.0432653 0.127215 0.435784 0 -0.228705 0.973496
0.217198 0.183785 0.0604169 0.837981 -0.529986 -0.130008
0.117551 -0.189312 0.45516 0 -0.0853418 -0.996352
0.0150822 0.270443 0.744971 0 0.789649 -0.613559
-0.212728 0.143659 0.197029 0 -0.971206 -0.238242
0.141501 -0.170654 0.458808 0 0.0853136 0.996354
-0.221125 0.0524731 0.523253 0 -0.951684 -0.307079
0.222311 0.0764495 0.67271 1 0 0
0.0100989 0.219743 0.66804 0 -0.912951 0.408068
0.210168 0.17352 0.664561 0 0.125272 0.992122
0.0918972 0.196207 0.610476 0 -0.958071 0.28653
-0.213752 0.0855502 0.454683 0 0.968887 0.247505
-0.00612573 0.270699 0.753196 0 -0.789704 0.613488
0.0452448 0.180614 0.534402 0 -0.22791 0.973682
0.0172721 0.184461 0.543011 0 0.987834 -0.155515
0.187536 -0.241502 0.142124 0.507929 0.852767 -0.121639
-0.0308063 -0.0118285 0.445209 0 0.0853136 0.996354
0.217723 0.172729 0.109097 0.982995 0.178345 0.0437488
-0.160587 0.202403 0.612893 0 0.958041 -0.28663
0.0979767 -0.0849678 0.451471 0 0.0853136 0.996354
0.0101188 -0.190706 0.455279 0 -0.0853418 -0.996352
-0.222311 0.0732681 0.646578 -1 0 0
-0.20366 0.100001 0.63909 0 0 -1
-0.0972883 0.204445 0.633814 0 -0.912951 0.408068
0.218733 0.0430528 0.63909 0 0 -1
0.198945 0.105445 0.673157 0 0.125272 0.992122
0.220801 0.197494 0.661534 0 0.125272 0.992122
-0.0560969 -0.170639 0.45356 0 -0.0853418 -0.996352
0.174359 -0.102634 0.450023 1 0 0
-0.0992377 0.0476876 0.440113 0 0.0853136 0.996354
0.153317 0.120492 0.433508 0 0.996151 -0.0876584
0.19615 0.0356952 0.634087 -1 0 0
-0.0906819 -0.0761756 0.450719 0 0.0853136 0.996354
0.0302269 0.115055 0.434344 0 0.0853136 0.996354
0.0493828 0.1061 0.435111 0 0.0853136 0.996354
-0.023776 0.140491 0.43747 0 0.514491 -0.857496
-0.201848 0.136711 0.248534 0.838034 -0.529908 -0.129989
0.147023 -0.234299 0.44912 0 -0.323976 0.946065
0.216017 0.139516 0.233266 0.837981 -0.529986 -0.130008
-0.215724 0.191612 0.0190018 -0.838034 -0.529907 -0.129989
-0.0658763 0.274975 0.754534 0 0.358345 0.933589
-0.0305751 0.184645 0.54418 0 0.987834 -0.155515
0.0612206 0.0703802 0.43817 0 0.0853136 0.996354
0.0859555 -0.158867 0.452552 0 -0.0853418 -0.996352
-0.0166521 -0.206819 0.452985 0 0.323887 -0.946096
-0.219913 0.0713 0.464906 0 -0.951684 -0.307079
-0.19615 0.0623129 0.545059 1 0 0
-0.216714 0.0674243 0.561064 -0.983015 0.178241 0.0437235
0.202045 0.0557331 0.61542 -0.982995 0.178345 0.0437489
0.176417 -0.2316 0.251582 -0.837889 -0.530693 0.127698
0.175717 -0.251577 0.102033 -0.983006 0.181734 -0.0259249
0.0304554 0.179387 0.544956 0 -0.987819 0.155606
0.0732047 -0.248711 0.438643 0 0.323887 -0.946096
0.0196461 0.239068 0.694609 0 0.855662 -0.517535
-0.174359 0.0704433 0.434958 -1 0 0
0.202991 0.0845218 0.45392 -0.83806 -0.529868 -0.129979
-0.00270863 -0.105669 0.447995 0 -0.0853418 -0.996352
0.137754 0.26879 0.742843 0 0.789649 -0.613559
-0.0716676 0.187267 0.560836 0 0.987834 -0.155515
0.205393 0.170555 0.163057 -0.507928 0.836596 0.205221
0.212374 0.116159 0.386534 0.508489 0.836275 0.205143
0.0458277 0.182023 0.561691 0 -0.987819 0.155606
-0.0755947 0.150632 0.449689 0 -0.514234 0.85765
-0.111779 0.268153 0.742023 0 0.789649 -0.613559
0.222183 0.0242037 0.676033 0 -0.553669 0.832737
0.198092 0.0689916 0.47206 0 -0.951684 -0.307079
-0.19615 0.0437531 0.656802 1 0 0
0.165455 0.235664 0.688981 0 0.855662 -0.517535
0.0123854 0.00223267 0.444005 0 0.0853136 0.996354
0.187077 -0.268332 0.0750482 0.83767 -0.545567 0.0258
0.121064 0.180618 0.518928 0 -0.996788 0.0800825
-0.0599606 0.219767 0.655507 0 0.912918 -0.408142
-0.119928 -0.185351 0.460067 0 0.0853136 0.996354
-0.0699203 -0.125179 0.449666 0 -0.0853418 -0.996352
-0.0176367 -0.255254 0.434792 0 0.699716 -0.714421
0.0620309 0.211582 0.637198 0 0.912918 -0.408142
0.20877 0.0967516 0.472279 -0.507934 0.836593 0.20522
0.21199 0.205643 0.0226977 0.508481 0.83628 0.205144
-0.115707 -0.224159 0.452592 0 -0.323976 0.946065
0.049385 -0.268588 0.429138 0 -0.699462 0.71467
0.122659 0.254801 0.730273 0 -0.855593 0.51765
-0.189545 -0.156682 0.448043 -0.836484 -0.499403 0.22559
-0.168226 -0.0405551 0.442418 0 -0.0853418 -0.996352
0.211095 0.101233 0.369978 0 -0.971206 -0.238242
-0.166042 -0.0873056 0.446422 0 -0.0853418 -0.996352
-0.19647 0.0741204 0.677112 0 0.125272 0.992122
-0.0970029 0.133697 0.439534 0 -0.514234 0.85765
0.204317 0.148442 0.184799 -0.838034 -0.529907 -0.129989
0.102398 0.240457 0.706564 0 -0.855593 0.51765
-0.0356989 0.274119 0.754862 0 0.358345 0.933589
-0.144724 0.00862415 0.438205 0 -0.0853418 -0.996352
0.0572381 -0.0399205 0.447614 0 0.0853136 0.996354
-0.207995 0.173597 0.157095 0.507928 0.836597 0.205221
-0.0624616 0.174579 0.4711 0 0.920942 -0.389699
-0.000867724 0.0676967 0.438399 0 0.0853136 0.996354
-0.027785 -0.126075 0.449743 0 -0.0853418 -0.996352
-0.201868 0.146374 0.209014 0.838034 -0.529908 -0.129989
-0.000458196 0.0440127 0.440427 0 0.0853136 0.996354
0.202303 0.0777383 0.531512 -0.982995 0.178345 0.0437489
0.0202532 0.255467 0.721723 0 0.855662 -0.517535
0.0523055 0.0197419 0.437253 0 -0.0853418 -0.996352
0.19615 0.0611522 0.658274 -1 0 0
-0.136683 -0.171246 0.453612 0 -0.0853418 -0.996352
-0.188679 -0.166884 0.394305 -0.506599 0.785722 -0.354963
0.0638546 0.120264 0.430922 0 0.996151 -0.0876584
-0.209193 0.0758136 0.450918 0 -0.951684 -0.307079
0.177061 -0.238226 0.228276 -0.837889 -0.530693 0.127698
0.16388 0.180564 0.521636 0 -0.971309 -0.23782
-0.0396113 -0.0246053 0.446303 0 0.0853136 0.996354
0.200665 0.0820479 0.63909 0 0 -1
-0.0711222 0.235998 0.699195 0 -0.855593 0.51765
0.144662 -0.0297635 0.441493 0 -0.0853418 -0.996352
0.00854492 0.260953 0.740441 0 -0.855593 0.51765
-0.0871783 -0.179704 0.454337 0 -0.0853418 -0.996352
-0.115089 -0.0216242 0.446048 0 0.0853136 0.996354
-0.0218328 0.212626 0.652118 0 -0.912951 0.408068
0.206236 0.149791 0.24979 -0.507928 0.836596 0.205221
0.190366 -0.264553 0.0481996 0.83767 -0.545567 0.0258
-0.180993 -0.212698 0.325209 0 -0.945945 0.324328
-0.0884167 0.153226 0.452634 0 -0.753514 0.657432
-0.214204 0.178242 0.0637088 -0.838034 -0.529907 -0.129989
-0.107396 0.00321943 0.44392 0 0.0853136 0.996354
0.0451385 -0.0504636 0.448517 0 0.0853136 0.996354
-0.1136 0.241821 0.708819 0 -0.855593 0.51765
-0.0605873 0.250421 0.723033 0 -0.855593 0.51765
0.0356733 -0.0974288 0.452538 0 0.0853136 0.996354
-0.000800222 -0.0743509 0.450562 0 0.0853136 0.996354
-0.0921785 0.199964 0.604742 0 0.958041 -0.28663
0.21201 0.20222 0.63909 0 0 -1
0.2031 0.0773823 0.486657 0 0.968887 0.247505
0.0779997 0.201885 0.628089 0 -0.912951 0.408068
0.135373 0.0193109 0.442542 0 0.0853136 0.996354
-0.174359 -0.2716 0.425455 -1 0 0
-0.208564 0.0716703 0.490493 0 -0.971206 -0.238242
0.204368 0.0519882 0.586065 0 0.968887 0.247505
-0.0322136 0.170659 0.464557 0 0.753522 -0.657423
-0.222311 0.0226171 0.662068 -1 0 0
0.0728001 -0.15392 0.452128 0 -0.0853418 -0.996352
-0.039868 -0.256675 0.440797 0 -0.699462 0.71467
0.130832 -0.0773414 0.450818 0 0.0853136 0.996354
-0.152578 -0.0961017 0.452425 0 0.0853136 0.996354
-0.0518212 0.179623 0.506554 0 -0.996788 0.0800825
0.0697822 -0.268923 0.42881 0 -0.699462 0.71467
0.175405 -0.16753 0.405735 -0.982933 0.167659 -0.0757201
0.222311 0.0390115 0.595487 1 0 0
-0.150078 0.276717 0.753045 0 0.789649 -0.613559
0.155971 0.204246 0.619053 0 0.958041 -0.28663
-0.00963943 0.25699 0.733892 0 -0.855593 0.51765
-0.0446519 -0.199204 0.458254 0 -0.995967 0.0897245
0.0624813 0.166018 0.467295 0 -0.753514 0.657432
0.0867015 0.192831 0.599189 0 -0.958071 0.28653
0.0438518 0.217219 0.649808 0 0.912918 -0.408142
-0.19615 0.0419126 0.569419 1 0 0
-0.0647131 0.198134 0.61692 0 -0.958071 0.28653
-0.0147468 0.223471 0.676381 0 -0.912951 0.408068
0.222311 0.0226335 0.656156 1 0 0
0.0470111 0.204704 0.620584 0 0.958041 -0.28663
0.128484 0.184704 0.503075 0 0.996771 -0.0802981
0.180371 -0.190226 0.383759 0 -0.911334 0.411668
0.191409 -0.224631 0.268914 0.837135 -0.517428 0.177406
0.10343 0.183137 0.566776 0 -0.958071 0.28653
0.164321 0.176963 0.476735 0 0.920942 -0.389699
0.204996 0.21276 0.647134 0 0.969029 0.246945
0.0841147 0.038811 0.43562 0 -0.0853418 -0.996352
-0.204176 0.149944 0.179583 0.838061 -0.529868 -0.12998
-0.0302316 0.18485 0.504882 0 0.996771 -0.0802981
-0.19615 0.0815138 0.469218 1 0 0
-0.185606 -0.237269 0.163736 -0.507928 0.852766 -0.121649
0.155172 0.206235 0.63782 0 -0.912951 0.408068
-0.0348938 -0.245339 0.445339 0 -0.323976 0.946065
-0.103714 -0.214239 0.450444 0 0.323887 -0.946096
0.2112 0.135962 0.669303 0 0.125272 0.992122
0.0358998 -0.00968824 0.439774 0 -0.0853418 -0.996352
0.147662 0.179989 0.548782 0 -0.987819 0.155606
0.0664084 -0.192585 0.460686 0 0.0853136 0.996354
0.17535 -0.185919 0.36574 -0.982893 0.167846 -0.0758274
-0.198876 0.0480413 0.63909 0 0 -1
0.174359 0.243763 0.711983 1 0 0
-0.0838816 0.0669408 0.438464 0 0.0853136 0.996354
-0.106757 0.0730786 0.432685 0 -0.0853418 -0.996352
0.217675 0.120013 0.323459 0.837981 -0.529986 -0.130008
-0.222311 0.0671265 0.498253 -1 0 0
0.0184218 -0.216324 0.44973 0 0.323887 -0.946096
-0.165294 -0.0622043 0.444272 0 -0.0853418 -0.996352
0.120265 0.252675 0.717106 0 0.855662 -0.517535
-0.202134 0.174707 0.132432 0.982996 0.178339 0.0437475
-0.191224 -0.19464 0.357263 -0.837099 -0.517481 0.177424
-0.163446 0.180083 0.512281 0 -0.996788 0.0800825
-0.212712 0.064152 0.597707 -0.508431 0.836308 0.205151
-0.188647 -0.155621 0.436149 0 -0.99437 0.105967
0.108358 0.227712 0.673279 0 0.912918 -0.408142
0.222311 0.0649339 0.676091 1 0 0
0.0949036 0.177407 0.491453 0 -0.920871 0.389868
0.215707 0.195462 0.00320152 0.837981 -0.529986 -0.130008
-0.141081 0.210271 0.634266 0 0.912918 -0.408142
-0.178207 -0.241636 0.142889 0.508481 0.852443 -0.121603
0.0848909 -0.129486 0.455283 0 0.0853136 0.996354
0.208419 0.169406 0.63909 0 0 -1
0.173107 0.193518 0.601488 0 -0.958071 0.28653
0.0474692 0.138516 0.442424 0 -0.514234 0.85765
0.0172457 0.168392 0.461959 0 0.753522 -0.657423
0.205043 0.0425529 0.611774 -0.83806 -0.529868 -0.129979
0.206916 0.0402881 0.631867 0 0.968887 0.247505
-0.0688396 0.26423 0.73621 0 0.855662 -0.517535
-0.16452 0.0504486 0.434623 0 -0.0853418 -0.996352
-0.0388291 0.109526 0.434818 0 0.0853136 0.996354
0.215678 0.0542948 0.517608 0 -0.951684 -0.307079
-0.151745 0.033943 0.436037 0 -0.0853418 -0.996352
-0.0467975 0.250743 0.713912 0 0.855662 -0.517535
0.131732 0.20378 0.617495 0 0.958041 -0.28663
-0.171768 0.183616 0.531611 0 0.971192 0.238296
-0.00553189 0.192667 0.580353 0 0.958041 -0.28663
-0.134836 -0.227554 0.45143 0 -0.323976 0.946065
-0.0835985 -0.189405 0.460414 0 0.0853136 0.996354
-0.127864 -0.203569 0.459643 0 -0.323976 0.946065
0.156221 0.248284 0.719501 0 -0.855593 0.51765
-0.0532077 -0.00298046 0.444451 0 0.0853136 0.996354
