-0.0801776 0.113108 0.413293 0 0 1
-0.15168 0.0206115 0.404065 0 0 -1
-0.0150602 0.0854341 0.413293 0 0 1
-0.0605474 -0.0920124 0.404065 0 0 -1
0.0504843 -0.201776 0.303923 -0.169752 0.970565 -0.170846
0.172624 -0.103001 0.413293 0 0 1
0.199053 -0.165879 0.404293 0.998589 0.0531039 0
0.184472 -0.150901 0.383256 -0.998584 -0.0531892 0
-0.000312746 -0.0506233 0.413293 0 0 1
0.00267209 -0.12951 0.413293 0 0 1
0.10735 -0.176547 0.398977 0.00182923 0.999998 0
-0.212642 0.000153666 0.305648 0.957785 -0.216146 -0.18955
-0.0467224 0.17281 0.2979 0.0380792 -0.217571 -0.975301
-0.155109 0.0652624 0.404065 0 0 -1
-0.0697951 0.152503 0.415133 0 0 1
-0.114567 0.147948 0.378228 0 0 -1
-0.13599 0.217149 0.791958 0.215023 0.499383 -0.839275
-0.168067 0.0818134 0.403964 0.998378 -0.0569268 0
0.0441434 0.131189 0.413293 0 0 1
0.11209 -0.176556 0.388829 0.00182923 0.999998 0
0.184208 0.197766 0.0241345 0.892617 0.414373 0.177567
-0.0145775 0.164455 0.388177 0.00183589 0.999998 0
0.184482 -0.0726831 0.415133 0 0 1
0.142077 -0.0254084 0.404065 0 0 -1
0.117436 -0.0597436 0.413293 0 0 1
0.173704 0.144175 0.234661 0.908648 -0.415751 -0.0388591
0.173393 0.154741 0.264714 0.910731 0.411422 0.0360717
0.174222 0.0415324 0.407411 0.998585 0.0531892 0
-0.0534962 0.163739 0.399582 -0.0416774 0.999131 0
0.184736 0.0552281 0.415133 0 0 1
0.0648559 0.152044 0.415133 0 0 1
0.198747 -0.0941342 0.309926 -0.784402 0.591857 0.185524
0.167269 -0.164512 0.132393 -0.905452 0.424305 -0.0110073
0.162134 0.150661 0.542351 0.724559 0.280123 0.629719
-0.179655 -0.176171 0.237828 -0.348101 -0.937402 -0.0101428
0.160839 0.130654 0.399039 0.347503 0.937679 0
-0.170189 -0.0723151 0.413293 0 0 1
-0.130752 0.208535 0.708423 -0.343857 0.898151 0.274018
-0.194575 -0.125157 0.302232 -0.67841 -0.507815 -0.530928
-0.149306 -0.176078 0.399169 0.00182923 0.999998 0
0.0960259 -0.0344512 0.413293 0 0 1
-0.151225 0.135004 0.334607 0.349973 -0.935922 -0.0396114
-0.180288 -0.132518 0.380433 0.998378 -0.0569268 0
0.151489 0.146369 0.551788 0.255402 -0.945935 0.199942
0.164636 -0.166023 0.290739 -0.905452 0.424305 -0.0110073
-0.177105 -0.148775 0.302498 -0.677377 -0.507163 -0.532865
-0.17773 -0.160556 0.0756482 -0.343334 0.939159 -0.0101218
-0.157112 0.0879444 0.404065 0 0 -1
-0.0785834 0.0723652 0.413293 0 0 1
0.0359898 0.152103 0.388319 -0.00183613 -0.999998 0
0.177953 -0.0230359 0.378228 0 0 -1
-0.179774 0.198573 0.0236321 -0.891545 0.416805 0.177259
0.0873828 0.104981 0.404065 0 0 -1
0.160405 0.175161 0.105171 -0.913321 0.405261 0.0401101
0.174973 0.146423 0.365297 0.908281 0.418346 0.00350474
-0.181395 0.0693196 0.378228 0 0 -1
-0.180855 -0.160423 0.193944 -0.343334 0.939159 -0.0101218
-0.154387 -0.106957 0.404065 0 0 -1
0.0467083 -0.0433617 0.413293 0 0 1
-0.00418939 -0.0991358 0.413293 0 0 1
-0.156113 0.0923426 0.404065 0 0 -1
0.174142 0.0430293 0.404686 0.998585 0.0531892 0
-0.195854 0.18942 0.707181 -0.874782 0.408979 -0.259794
0.172103 -0.177941 0.25757 -0.348446 -0.937274 -0.0101414
0.178926 0.168201 0.121414 0.914488 -0.400495 -0.0575856
-0.0447663 0.122421 0.404065 0 0 -1
0.162667 0.0989564 0.404065 0 0 -1
0.182323 -0.110559 0.395625 -0.998584 -0.0531892 0
-0.0635385 -0.00786721 0.413293 0 0 1
0.0571706 -0.0724822 0.404065 0 0 -1
0.0232608 0.156548 0.378228 0 0 -1
0.191827 -0.03837 0.415133 0 0 1
0.0290422 0.20889 0.729362 -0.0505657 -0.469531 -0.881467
-0.157905 0.159893 0.574275 -0.988757 -0.0690044 -0.132657
-0.0273402 0.108812 0.404065 0 0 -1
-0.142849 -0.17974 0.415133 0 0 1
0.176197 -0.160206 0.0123945 -0.344746 0.938641 -0.0101493
-0.0987705 -0.0606459 0.413293 0 0 1
-0.169479 -0.177023 0.21545 0.344519 -0.938725 -0.0101336
0.0836817 -0.025354 0.404065 0 0 -1
-0.110992 0.0473845 0.413293 0 0 1
0.143349 0.216713 0.805831 0.200229 0.933491 0.297494
0.167788 -0.0291216 0.404065 0 0 -1
0.0877562 0.025328 0.413293 0 0 1
-0.00855558 -0.172104 0.404065 0 0 -1
0.073836 0.22173 0.807288 -0.120885 0.48119 -0.868241
0.165306 0.152565 0.580338 -0.898279 -0.40035 0.181151
0.0314009 0.103635 0.413293 0 0 1
-0.0432601 -0.176272 0.406322 -0.00182923 -0.999998 0
0.0826803 -0.139573 0.413293 0 0 1
0.133414 -0.166368 0.3104 -0.436469 0.737774 0.51496
-0.158023 0.170065 0.103366 0.896076 -0.413987 -0.160197
-0.0759958 0.129786 0.413293 0 0 1
-0.11143 0.137948 0.401704 0.367307 -0.9301 0
0.0385966 0.224355 0.813411 0.00324448 0.952102 -0.305763
-0.124533 0.14622 0.378463 -0.386211 0.922411 0
0.0175331 0.0104469 0.413293 0 0 1
-0.178796 -0.161142 0.0574855 -0.343334 0.939159 -0.0101218
-0.16625 0.0175371 0.404065 0 0 -1
0.103169 -0.105636 0.404065 0 0 -1
0.0202982 -0.048012 0.413293 0 0 1
-0.110903 -0.197485 0.309766 -0.504378 -0.845385 0.175861
-0.00292079 0.0074873 0.413293 0 0 1
0.163915 -0.169884 0.309623 -0.907138 -0.420691 -0.0109971
0.11882 0.149981 0.404864 0.389535 0.921012 0
-0.169797 0.0514719 0.386807 0.998378 -0.0569268 0
-0.145427 0.141003 0.30262 -0.436256 0.737463 -0.515586
0.0172404 -0.215311 0.315947 0.0379691 -0.217085 0.975414
0.176625 -0.0035771 0.379561 -0.998584 -0.0531892 0
0.0392582 -0.121714 0.404065 0 0 -1
-0.0289056 0.0336214 0.404065 0 0 -1
-0.193214 -0.117366 0.406026 -0.998384 0.0568267 0
0.157133 0.151897 0.505944 -0.901951 0.430257 0.0369132
0.175756 0.0127203 0.395249 -0.998584 -0.0531892 0
0.0389854 -0.176422 0.402548 0.00182923 0.999998 0
-0.0963755 0.0234651 0.413293 0 0 1
-0.193105 -0.115446 0.39934 -0.998384 0.0568267 0
-0.0766098 0.0248643 0.404065 0 0 -1
0.0278358 0.0483681 0.404065 0 0 -1
0.182076 -0.105928 0.403978 -0.998584 -0.0531892 0
0.186165 0.187476 0.69412 -0.380695 0.910408 -0.161953
-0.00789231 0.112154 0.413293 0 0 1
0.0842078 -0.0737052 0.404065 0 0 -1
0.00774571 -0.209099 0.308696 -0.169799 0.970565 0.170797
0.0471286 0.220428 0.732167 0.0311498 0.951621 -0.305692
-0.174415 0.0174935 0.378228 0 0 -1
0.00174173 0.226467 0.819851 0.00205606 0.951898 0.306409
-0.0212794 -0.217039 0.315417 -0.0387785 -0.216849 0.975435
0.189923 -0.00834963 0.415133 0 0 1
0.0693737 -0.0332141 0.413293 0 0 1
0.227227 -0.0498197 0.308759 0.957668 -0.216205 0.190072
-0.154597 0.153501 0.537084 0.90395 0.425998 0.0374214
0.176342 -0.178582 0.181293 0.343587 -0.939066 -0.010153
-0.196759 0.20386 0.748303 -0.339717 0.914796 -0.218496
0.149528 0.116669 0.404065 0 0 -1
0.198681 -0.158889 0.396477 0.998589 0.0531039 0
0.121238 0.0634356 0.413293 0 0 1
-0.150979 0.152406 0.367667 0.344685 0.93866 0.0105009
-0.168587 -0.158183 0.292198 0.347601 0.937588 -0.0101457
0.0550158 0.151246 0.400002 -0.0555392 -0.998457 0
0.169233 -0.177974 0.359237 -0.348446 -0.937274 -0.0101414
0.118986 0.197042 0.707659 -0.35262 -0.895534 -0.271437
0.00402123 -0.174711 0.404065 0 0 -1
0.131841 -0.117876 0.413293 0 0 1
0.115079 0.0783996 0.404065 0 0 -1
-0.168604 -0.0529117 0.404065 0 0 -1
0.176544 0.147739 0.264087 0.902674 -0.429237 -0.0305868
-0.0659368 0.162284 0.383475 -0.129809 0.991539 0
0.0850511 0.174037 0.312242 0.152096 0.850359 0.503742
0.0557583 -0.166236 0.404065 0 0 -1
-0.162828 -0.170308 0.183189 0.905465 -0.424277 -0.011008
0.179758 -0.161113 0.0483702 0.346344 0.938053 -0.0101594
-0.129477 -0.0633743 0.413293 0 0 1
0.045401 -0.143745 0.404065 0 0 -1
0.0908855 0.162355 0.315488 -0.110143 -0.18458 0.976626
0.156499 -0.121861 0.404065 0 0 -1
-0.148452 0.135403 0.380383 0.904611 -0.424616 0.0371581
0.170239 0.115084 0.415133 0 0 1
0.151051 0.103922 0.413293 0 0 1
-0.00826815 -0.0759952 0.413293 0 0 1
0.16616 -0.172513 0.225016 -0.907138 -0.420691 -0.0109971
-0.159271 -0.118728 0.413293 0 0 1
0.120071 0.131337 0.404065 0 0 -1
0.106868 0.0659484 0.413293 0 0 1
-0.13763 0.134583 0.315476 0.109568 -0.185231 0.976568
0.124473 0.0592403 0.413293 0 0 1
-0.0780586 0.0527161 0.404065 0 0 -1
-0.160112 0.179478 0.0674651 0.902787 -0.399708 -0.158774
-0.225594 -0.00921722 0.315591 -0.194575 0.0439028 0.979905
-0.0557159 0.16713 0.300338 0.148755 -0.849776 -0.50572
-0.0966846 -0.102839 0.404065 0 0 -1
0.165211 0.140903 0.522416 -0.345033 -0.927154 0.146076
0.124016 0.147783 0.415119 0.389535 0.921012 0
-0.101698 -0.176165 0.383599 0.00182923 0.999998 0
0.16256 0.124591 0.378228 0 0 -1
0.112212 0.0372916 0.413293 0 0 1
0.178566 0.165797 0.133953 0.913695 -0.403647 -0.047233
0.180979 -0.0853208 0.402337 -0.998584 -0.0531892 0
0.173039 0.063744 0.386312 -0.998584 -0.0531892 0
0.15717 -0.103318 0.404065 0 0 -1
0.176863 -0.178527 0.193934 0.343587 -0.939066 -0.010153
-0.182869 -0.176009 0.359363 -0.906971 -0.421049 -0.0110186
0.167696 0.103963 0.415133 0 0 1
-0.169224 0.135993 0.398179 -0.907164 -0.420702 0.00791392
-0.0827139 -0.188458 0.382065 -0.00182927 -0.999998 0
-0.0715463 -0.0494613 0.413293 0 0 1
0.154211 0.157465 0.52676 -0.687299 0.443284 -0.575429
0.185176 -0.164118 0.391912 -0.998584 -0.0531892 0
0.157083 0.122118 0.298121 -0.10997 -0.184291 -0.9767
-0.133834 -0.1797 0.378228 0 0 -1
-0.135726 0.0418688 0.413293 0 0 1
0.153176 0.150505 0.253606 -0.903415 0.428733 0.00547923
-0.176402 0.197038 0.0448333 -0.902674 0.395732 0.169044
-0.177117 -0.0769095 0.396028 0.998378 -0.0569268 0
0.173236 0.0600386 0.406662 0.998585 0.0531892 0
0.0661518 -0.110348 0.404065 0 0 -1
-0.174014 -0.175831 0.0120262 -0.349303 -0.936955 -0.0101145
0.190444 -0.00400426 0.393702 0.998589 0.0531039 0
-0.0311032 0.0374469 0.404065 0 0 -1
-0.0472463 0.182037 0.303349 -0.169816 0.970201 -0.172839
-0.153436 -0.148639 0.413293 0 0 1
0.00867409 -0.188626 0.385525 -0.00182927 -0.999998 0
-0.18255 0.0584276 0.378228 0 0 -1
-0.157824 0.151213 0.558465 0.901509 -0.411493 0.133993
0.0745859 0.10834 0.404065 0 0 -1
0.171311 0.205469 0.0176673 -0.332293 0.911387 0.242806
0.226738 -0.0301984 0.298447 0.553818 -0.125032 -0.823197
-0.177866 0.19157 0.026863 -0.904122 -0.419786 -0.0796464
0.168618 0.0961973 0.397269 -0.928788 -0.370612 0
0.0510162 0.020262 0.404065 0 0 -1
-0.158245 0.158385 0.535047 -0.302027 0.922325 0.241032
0.135918 0.128598 0.406791 -0.447214 -0.894427 0
0.115866 0.057054 0.404065 0 0 -1
-0.143286 0.0247026 0.413293 0 0 1
0.0812639 -0.132389 0.413293 0 0 1
-0.164125 0.179964 0.0560512 0.337536 -0.887967 -0.312384
0.0748381 0.121434 0.404065 0 0 -1
-0.155973 0.173262 0.130079 0.913233 0.406472 0.0280233
0.168244 0.194929 0.0526236 -0.354614 0.903297 0.241462
0.0459725 -0.11082 0.413293 0 0 1
0.181666 0.151561 0.552055 0.905981 -0.423075 -0.0143448
-0.150201 0.142312 0.466265 0.899254 -0.42862 0.0873345
0.154342 -0.010583 0.404065 0 0 -1
0.0956231 -0.15597 0.404065 0 0 -1
0.142482 -0.093001 0.404065 0 0 -1
0.112774 -0.0211719 0.404065 0 0 -1
-0.16607 0.101895 0.309962 0.784687 -0.591978 0.183927
-0.0562302 0.0550781 0.413293 0 0 1
0.071365 0.134277 0.413293 0 0 1
-0.156485 0.148085 0.539849 0.901509 -0.411493 0.133993
0.176982 -0.0102824 0.398258 -0.998584 -0.0531892 0
-0.0204202 -0.0135028 0.404065 0 0 -1
-0.12195 0.113029 0.404065 0 0 -1
-0.193509 -0.122544 0.380361 -0.998384 0.0568267 0
0.163591 0.135793 0.278085 -0.353127 -0.931008 -0.0923271
-0.174875 -0.156862 0.321369 -0.343587 0.939066 -0.0101282
-0.161683 -0.169832 0.259072 0.906024 -0.423083 -0.0110369
0.160102 -0.171237 0.404065 0 0 -1
-0.176417 -0.0646285 0.399502 0.998378 -0.0569268 0
-0.157847 0.134567 0.452006 0.334815 -0.937651 0.0933237
0.170586 0.133503 0.406759 0.35025 -0.936219 0.0286214
0.197404 -0.134876 0.403419 0.998589 0.0531039 0
-0.0564037 0.105364 0.413293 0 0 1
-0.112181 0.0256474 0.404065 0 0 -1
0.173731 0.162155 0.546248 0.342746 0.931036 -0.125287
-0.103763 -0.176161 0.398366 0.00182923 0.999998 0
-0.226658 0.0158294 0.309884 -0.957664 0.215976 0.190354
-0.0688576 0.0509134 0.413293 0 0 1
0.14746 0.165706 0.591393 -0.991694 0.0672584 0.109635
-0.178097 -0.094102 0.401712 0.998378 -0.0569268 0
0.177639 -0.158386 0.227888 0.346344 0.938053 -0.0101594
-0.143797 -0.0711782 0.413293 0 0 1
0.113999 0.0882972 0.404065 0 0 -1
0.181394 0.172763 0.619626 0.33054 0.926532 -0.179671
-0.0671789 -0.170485 0.404065 0 0 -1
0.150335 -0.074464 0.404065 0 0 -1
-0.173314 0.144568 0.52126 -0.904905 -0.425379 -0.0141222
-0.169915 -0.175548 0.0640538 0.345073 -0.938521 -0.0101476
-0.0250154 -0.0794154 0.413293 0 0 1
0.149297 -0.0175685 0.413293 0 0 1
-0.113203 0.0629859 0.404065 0 0 -1
-0.165489 -0.143134 0.404065 0 0 -1
0.112241 0.197063 0.718965 -0.0569317 -0.957641 0.282281
0.13957 -0.176436 0.404065 0 0 -1
0.192399 0.16757 0.656528 0.905825 -0.421983 -0.0375788
-0.186824 -0.00509475 0.381052 -0.998384 0.0568267 0
-0.0191994 -0.209109 0.313115 0.152018 0.85018 0.504068
-0.154119 0.15318 0.180439 0.902678 -0.411028 -0.127394
0.0541297 -0.0153202 0.413293 0 0 1
-0.182384 0.0728972 0.400759 -0.998384 0.0568267 0
0.174108 0.138938 0.316206 0.902449 -0.430363 -0.0193205
-0.109831 -0.188409 0.412297 -0.00182927 -0.999998 0
0.166195 0.125421 0.382471 0.809753 0.58677 0
0.0320194 -0.0580639 0.404065 0 0 -1
0.17947 -0.0569909 0.401778 -0.998584 -0.0531892 0
0.0880601 0.108272 0.404065 0 0 -1
0.208735 0.199161 0.756056 0.907026 0.407266 -0.106952
0.0901714 -0.0847418 0.413293 0 0 1
-0.158535 0.182907 0.0678005 0.902787 -0.399708 -0.158774
0.196429 -0.116548 0.392679 0.998589 0.0531039 0
0.072826 0.212659 0.720802 -0.118472 0.492314 -0.862317
-0.0202154 0.152206 0.407207 0.00183613 0.999998 0
0.122932 -0.189363 0.311578 0.435878 -0.736822 0.516821
-0.0852341 -0.176195 0.414171 0.00182923 0.999998 0
-0.0247875 0.222285 0.737466 -0.0325637 0.951318 0.306487
-0.0797273 0.209025 0.81654 0.00475407 -0.954045 0.299626
0.183698 -0.136367 0.391825 -0.998584 -0.0531892 0
-0.147856 0.140794 0.314645 0.908681 -0.416401 -0.0301435
-0.164816 0.198792 0.041998 0.357957 0.901958 0.241532
-0.147925 0.138037 0.397658 0.904611 -0.424616 0.0371581
-0.087484 -0.0315443 0.404065 0 0 -1
0.00297724 -0.22537 0.303562 0.169825 -0.970714 -0.169922
-0.180008 -0.0227647 0.415133 0 0 1
-0.163458 0.0465848 0.404065 0 0 -1
0.181247 -0.0903589 0.406624 0.998585 0.0531892 0
0.0725319 0.059682 0.413293 0 0 1
-0.189042 0.180396 0.723034 0.2883 -0.908063 0.303819
0.0410794 0.022337 0.413293 0 0 1
-0.0186306 -0.207494 0.310083 0.173411 0.970108 0.169762
0.16213 -0.0899237 0.413293 0 0 1
-0.161285 0.0661597 0.404065 0 0 -1
0.174775 -0.170976 0.378228 0 0 1
-0.102753 0.133446 0.404065 0 0 -1
-0.178067 0.0739313 0.415133 0 0 1
0.183375 -0.173399 0.409573 -0.799278 0.600962 0
0.0408302 -0.0109771 0.404065 0 0 -1
-0.148215 0.134438 0.40559 -0.469885 0.882728 0
0.179082 -0.176523 0.0836307 0.343799 -0.938988 -0.0101584
-0.191383 0.202666 0.749283 0.349453 0.925596 -0.145449
0.13925 -0.0295244 0.404065 0 0 -1
0.186037 -0.175675 0.327008 0.90617 -0.42277 -0.0110241
0.116864 -0.176564 0.398868 0.00182923 0.999998 0
0.170345 -0.160017 0.228663 -0.344746 0.938641 -0.0101493
-0.105914 -0.183874 0.301265 0.439669 0.736797 -0.513635
0.0947557 -0.0830588 0.404065 0 0 -1
-0.219612 0.049815 0.306769 -0.957832 0.215975 0.189505
0.00211279 -0.0487975 0.404065 0 0 -1
-0.19396 -0.130478 0.38458 -0.998384 0.0568267 0
0.175494 -0.00729506 0.404065 0 0 -1
-0.169886 0.0820312 0.415133 0 0 1
-0.0390259 0.0784728 0.404065 0 0 -1
-0.0343092 0.18233 0.300086 -0.104735 0.598132 -0.794525
0.182621 -0.115039 0.305045 -0.78439 0.591856 -0.185575
0.163155 -0.177097 0.415133 0 0 1
0.225457 -0.057389 0.309073 0.958128 -0.216201 0.187743
0.120395 0.196513 0.707576 -0.35262 -0.895534 -0.271437
-0.0906806 -0.0169696 0.404065 0 0 -1
0.139265 -0.0984507 0.404065 0 0 -1
-0.00516795 0.0125763 0.413293 0 0 1
-0.220407 0.0453252 0.307862 -0.957664 0.215976 0.190354
0.203973 0.186521 0.717177 0.91491 -0.400073 -0.0536846
-0.0139372 0.209292 0.729786 0.0486603 -0.469214 -0.881743
-0.0872277 0.0917503 0.404065 0 0 -1
-0.186036 0.19189 0.704846 0.385609 0.90843 -0.161434
-0.0498151 -0.145406 0.413293 0 0 1
0.0640699 0.218834 0.806755 -0.0727202 0.47519 -0.876873
-0.0758018 0.160947 0.394064 -0.215704 0.976459 0
-0.0980535 -0.0113416 0.413293 0 0 1
0.182226 -0.108745 0.385707 -0.998584 -0.0531892 0
-0.0338793 -0.153266 0.404065 0 0 -1
-0.150471 0.135254 0.335365 0.349973 -0.935922 -0.0396114
0.00843403 -0.0617589 0.413293 0 0 1
-0.0354172 -0.0128071 0.404065 0 0 -1
-0.176765 -0.0707386 0.395743 0.998378 -0.0569268 0
0.0266923 -0.216706 0.315268 0.0380874 -0.21764 0.975286
-0.164598 -0.0987906 0.413293 0 0 1
-0.181431 0.0851075 0.384701 -0.987075 0.160261 0
0.00598457 0.224467 0.81347 0.0019789 0.952018 -0.306035
0.160678 0.176424 0.0954416 -0.904083 -0.396741 -0.158841
0.112785 0.152006 0.404154 0.305301 0.952256 0
-0.0798474 -0.147579 0.404065 0 0 -1
-0.0479395 -0.188522 0.411943 -0.00182927 -0.999998 0
0.139398 -0.188865 0.40647 -0.00182927 -0.999998 0
-0.186729 0.186556 0.684373 -0.302058 0.908535 -0.28866
-0.148128 0.0936172 0.404065 0 0 -1
0.124492 0.0431869 0.413293 0 0 1
-0.178944 -0.178125 0.378228 0 0 -1
-0.113606 0.141863 0.30747 0.50127 -0.847478 0.174666
0.212992 0.0545385 0.315239 0.552833 0.122624 0.82422
0.054028 0.102891 0.404065 0 0 -1
0.125575 -0.0732435 0.413293 0 0 1
0.0183688 -0.15204 0.413293 0 0 1
-0.178986 -0.150524 0.404065 0 0 -1
-0.22286 0.0243106 0.300492 -0.818621 0.184682 -0.543832
0.0171349 0.0749884 0.404065 0 0 -1
0.221476 0.0404385 0.308173 0.958953 0.212596 0.18765
0.125614 0.141587 0.297991 -0.110155 -0.184574 -0.976626
0.0381734 0.152099 0.411919 -0.00183613 -0.999998 0
0.0428891 0.150436 0.404065 0 0 -1
-0.176906 -0.187614 0.384841 -0.177426 -0.984134 0
0.0635274 0.15032 0.389319 -0.135227 -0.990815 0
0.180073 0.174925 0.0928645 0.914488 -0.400495 -0.0575856
0.0977428 -0.191457 0.314532 -0.303369 0.512773 0.803138
-0.183083 0.161279 0.610544 -0.909725 -0.414369 -0.0264454
-0.170316 -0.157418 0.303609 0.347601 0.937588 -0.0101457
-0.168115 0.0809707 0.408145 0.998378 -0.0569268 0
0.129775 0.131669 0.385056 -0.447214 -0.894427 0
0.0681631 0.217396 0.724869 0.0311498 0.951621 -0.305692
-0.150131 0.134873 0.347372 0.349973 -0.935922 -0.0396114
-0.164482 0.096941 0.392261 0.927584 -0.373615 0
0.110484 0.152744 0.40907 0.305301 0.952256 0
-0.185523 0.0177534 0.378593 -0.998384 0.0568267 0
-0.150255 0.147863 0.493905 0.904378 0.425886 0.0268743
-0.0537083 -0.188511 0.388992 -0.00182927 -0.999998 0
-0.0868702 -0.188451 0.379901 -0.00182927 -0.999998 0
-0.152764 0.173887 0.649044 0.699946 -0.638233 0.320522
-0.165006 -0.171559 0.0523059 0.905465 -0.424277 -0.011008
-0.161109 0.133496 0.445512 -0.354722 -0.933105 0.0590578
0.137541 -0.163329 0.307845 -0.501095 0.847013 0.177406
-0.0739164 0.0437336 0.404065 0 0 -1
0.16308 0.034959 0.413293 0 0 1
-0.21446 0.0608545 0.313222 -0.81779 0.184495 0.545143
-0.162935 -0.173381 0.292287 0.906024 -0.423083 -0.0110369
-0.0112534 -0.186515 0.378228 0 0 -1
-0.199692 0.187755 0.7448 -0.40153 -0.899145 0.174103
0.176183 0.176091 0.644788 -0.373049 0.918778 -0.129155
-0.0186511 -0.0575634 0.404065 0 0 -1
-0.0581793 0.150679 0.406777 -0.13136 0.991335 0
0.0409441 0.0592734 0.404065 0 0 -1
0.00165493 0.164425 0.394259 0.00183589 0.999998 0
0.140831 0.141496 0.299976 0.305832 0.512675 -0.802266
0.164885 0.032113 0.413293 0 0 1
-0.092703 0.0208587 0.413293 0 0 1
-0.16178 0.193916 0.0548411 0.905716 0.419805 0.0586674
0.0975817 -0.0140763 0.404065 0 0 -1
0.104759 -0.0330296 0.413293 0 0 1
0.0896673 -0.0156476 0.404065 0 0 -1
0.18334 -0.129653 0.405294 -0.998584 -0.0531892 0
0.139625 -0.167627 0.315144 -0.304274 0.514142 0.80192
0.0730755 0.0694109 0.404065 0 0 -1
0.182083 0.193434 0.0451591 0.904325 0.392017 0.168876
0.187486 -0.135253 0.302727 0.674967 -0.509108 -0.534068
0.17779 -0.0254511 0.39605 -0.998584 -0.0531892 0
-0.176805 0.110194 0.299765 -0.462154 0.348638 -0.815393
-0.1485 0.150246 0.253435 0.905864 0.423532 0.00561211
-0.172772 0.213902 0.781256 -0.0165559 0.963873 -0.265848
0.0651354 -0.0748606 0.413293 0 0 1
-0.0339396 0.214971 0.726639 0.0295419 0.473212 -0.880453
-0.156233 0.157308 0.509855 0.34696 0.935314 -0.0693228
-0.149323 0.0392664 0.404065 0 0 -1
-0.167377 0.152627 0.172573 -0.355025 -0.919345 -0.169593
-0.165982 -0.1623 0.0423271 0.906975 0.421041 -0.01104
0.218853 -0.0282662 0.314643 -0.552139 0.124579 0.824393
0.019069 0.000518098 0.413293 0 0 1
0.0477699 -0.0449119 0.404065 0 0 -1
-0.0793802 0.160157 0.396771 -0.215704 0.976459 0
0.187384 -0.108545 0.305625 -0.78439 0.591856 -0.185575
-0.0387938 -0.17628 0.401323 0.00182923 0.999998 0
-0.152673 0.155852 0.278436 0.34069 0.938469 0.0566217
0.0603001 -0.176461 0.402119 0.00182923 0.999998 0
0.0407377 0.019596 0.413293 0 0 1
0.154182 -0.188892 0.390786 -0.00182927 -0.999998 0
0.168377 0.0418012 0.413293 0 0 1
0.0580383 0.176024 0.314946 0.106878 0.598003 0.794336
-0.0681805 0.0612578 0.413293 0 0 1
-0.0681361 0.0574761 0.404065 0 0 -1
-0.227692 -0.0433563 0.302297 -0.819105 -0.181558 -0.544154
-0.114334 -0.0773216 0.413293 0 0 1
-0.159279 0.131557 0.300819 -0.436731 0.738427 -0.513801
0.171021 -0.0709109 0.404065 0 0 -1
0.145397 0.0190207 0.413293 0 0 1
0.171933 0.1965 0.00348376 -0.330718 -0.890783 -0.311657
-0.223047 -0.0450766 0.298278 -0.553144 -0.122692 -0.824002
-0.141178 0.202981 0.796559 0.195441 -0.936024 -0.292682
-0.0592145 0.0469952 0.404065 0 0 -1
-0.111673 0.158581 0.313716 -0.302589 0.511619 0.804168
0.175212 -0.120392 0.404065 0 0 -1
-0.19452 -0.174837 0.395447 -0.976087 -0.21738 0
0.157013 0.160265 0.165717 -0.899139 -0.418584 -0.127817
-0.181032 -0.14558 0.410584 -0.998378 0.0569268 0
0.135861 0.13094 0.300575 -0.43838 -0.734992 -0.51731
0.030641 -0.188498 0.378228 0 0 -1
-0.170588 -0.176962 0.172105 0.344519 -0.938725 -0.0101336
-0.149008 0.1632 0.551703 0.253143 0.961287 -0.108839
0.0444965 -0.0314361 0.413293 0 0 1
0.0453354 -0.0815425 0.404065 0 0 -1
-0.0158775 -0.161451 0.413293 0 0 1
-0.0231951 0.0682581 0.404065 0 0 -1
0.133291 0.0762605 0.404065 0 0 -1
0.151938 0.132245 0.415133 0 0 1
0.182147 -0.115792 0.304648 -0.78439 0.591856 -0.185575
-0.156161 0.114971 0.303714 0.784981 -0.5922 -0.181944
-0.0503627 -0.0584339 0.404065 0 0 -1
-0.175699 0.105557 0.39446 -0.932886 0.360172 0
-0.163929 0.152419 0.166381 -0.36428 -0.916141 -0.167289
-0.178541 -0.138816 0.413293 0 0 1
-0.179645 -0.12124 0.412733 0.998378 -0.0569268 0
-0.0597922 -0.158699 0.404065 0 0 -1
-0.171688 0.151912 0.479754 -0.906225 0.418209 -0.0621118
0.0831259 0.136873 0.413293 0 0 1
-0.168061 0.0819113 0.380973 0.998378 -0.0569268 0
0.0391442 0.143803 0.413293 0 0 1
-0.188473 0.211528 0.774701 -0.0502641 0.976238 -0.210791
-0.0446164 0.109941 0.404065 0 0 -1
-0.167061 -0.174562 0.0698866 0.345073 -0.938521 -0.0101476
0.205056 0.1894 0.754674 0.357837 -0.881318 0.308596
-0.100772 0.207275 0.806532 0.153664 -0.942075 -0.298131
0.0674968 0.162408 0.395106 0.132721 0.991153 0
-0.00142843 0.00917906 0.404065 0 0 -1
0.14888 -0.108538 0.413293 0 0 1
0.182939 0.0526353 0.415133 0 0 1
0.0977766 -0.205862 0.306843 0.501101 -0.847298 0.176022
0.191335 -0.0207533 0.402642 0.998589 0.0531039 0
0.179141 -0.158626 0.257057 0.347569 0.9376 -0.0101306
0.0736312 0.218478 0.728974 0.0356883 0.95471 -0.295392
0.150325 -0.180727 0.378228 0 0 -1
-0.107144 -0.176155 0.395806 0.00182923 0.999998 0
0.108168 -0.132708 0.404065 0 0 -1
-0.166248 0.0121858 0.413293 0 0 1
0.160906 0.182106 0.634997 0.0278661 0.94612 -0.322615
0.0652117 -0.188729 0.394071 -0.00182927 -0.999998 0
0.170596 -0.175009 0.0384314 -0.347907 -0.937474 -0.0101541
-0.0631048 0.155296 0.378228 0 0 -1
0.186147 -0.0326402 0.415133 0 0 1
0.176981 0.146913 0.565589 0.355057 -0.927164 0.119591
0.174265 -0.157382 0.339184 -0.344746 0.938641 -0.0101493
-0.175029 -0.0402867 0.393285 0.998378 -0.0569268 0
0.0931029 0.150322 0.378228 0 0 -1
-0.190415 -0.0681955 0.39954 -0.998384 0.0568267 0
-0.148528 0.134272 0.3872 -0.469885 0.882728 0
-0.151477 0.150772 0.488957 0.904378 0.425886 0.0268743
-0.0234956 -0.186921 0.378228 0 0 -1
0.0265983 0.00831631 0.404065 0 0 -1
0.172129 0.207489 0.799117 0.38738 0.379506 0.840186
-0.064229 -0.0957226 0.413293 0 0 1
-0.0371065 0.0521461 0.413293 0 0 1
-0.150533 0.15415 0.286837 0.905864 0.423532 0.00561211
-0.158199 -0.18832 0.399555 -0.00182927 -0.999998 0
-0.117043 0.157004 0.30149 -0.436256 0.737463 -0.515586
0.0466233 0.166833 0.309527 -0.173437 -0.970022 0.170225
0.197548 0.201896 0.784637 0.795278 0.0398472 0.604933
-0.163399 -0.0404018 0.413293 0 0 1
0.105629 0.100679 0.404065 0 0 -1
-0.0886131 -0.00524145 0.404065 0 0 -1
0.176115 0.14066 0.378375 0.905437 -0.42441 0.00775632
0.218694 -0.0457947 0.29764 -0.194491 0.0438792 -0.979922
-0.153544 0.0158403 0.413293 0 0 1
-0.0247538 0.220623 0.742594 -0.0332978 0.950324 0.309477
0.169391 -0.176661 0.390341 0.00182923 0.999998 0
-0.169671 0.136689 0.371578 -0.905658 -0.423596 -0.0187213
0.0979041 0.0136336 0.413293 0 0 1
-0.147565 0.119515 0.408829 -0.575289 0.81795 0
-0.0646381 -0.210693 0.298745 -0.107375 -0.600438 -0.79243
0.156071 0.0373278 0.413293 0 0 1
-0.013122 -0.209676 0.301243 0.151987 0.850257 -0.503947
-0.107717 0.199271 0.70975 0.254782 -0.918246 -0.303167
0.168124 -0.174667 0.145728 -0.906697 -0.421638 -0.0110181
-0.0921487 0.0976517 0.404065 0 0 -1
-0.0218165 0.0683101 0.404065 0 0 -1
0.16633 0.13938 0.2465 0.344183 -0.930541 -0.125027
0.0401747 0.208275 0.729052 -0.0499892 -0.466553 -0.88308
0.0535146 0.163727 0.396184 0.04563 0.998958 0
-0.127792 0.200047 0.696882 0.494449 -0.310551 -0.811836
0.165583 0.172365 0.611842 0.696141 0.658258 -0.286502
-0.152312 0.182246 0.645804 0.719471 0.690129 -0.0779961
0.0963439 -0.168786 0.404065 0 0 -1
-0.175233 0.169464 0.595919 -0.329052 0.927018 -0.179897
-0.126565 0.0748136 0.404065 0 0 -1
-0.115757 0.149894 0.41304 -0.386211 0.922411 0
0.177578 -0.158379 0.226492 0.346344 0.938053 -0.0101594
0.100318 -0.132177 0.413293 0 0 1
-0.202808 0.0726142 0.315043 -0.460722 0.347656 0.816622
-0.158934 -0.0497841 0.404065 0 0 -1
-0.152923 0.163312 0.175766 0.910075 0.413458 0.0285592
0.175982 0.11128 0.405042 0.844658 0.535307 0
-0.0800562 0.0354084 0.413293 0 0 1
-0.185566 0.0170057 0.411246 -0.998384 0.0568267 0
0.124519 0.0176166 0.404065 0 0 -1
0.155567 0.115425 0.410568 0.703975 0.710225 0
-0.102604 0.0406957 0.413293 0 0 1
0.185568 0.183053 0.667329 -0.364959 0.921601 -0.132122
0.177684 -0.127285 0.299348 -0.464015 0.35008 -0.813716
0.205888 -0.111782 0.30891 0.78514 -0.592103 0.181576
0.175247 0.0222783 0.393303 -0.998584 -0.0531892 0
0.133343 0.035545 0.413293 0 0 1
0.0195415 0.152133 0.411984 -0.00183613 -0.999998 0
-0.0838668 0.170404 0.298036 -0.0379912 0.217092 -0.975412
-0.119488 0.00474384 0.413293 0 0 1
-0.149813 0.136068 0.321939 0.349973 -0.935922 -0.0396114
-0.1488 0.13758 0.413297 0.901504 -0.431072 0.0383051
-0.175117 -0.0418341 0.39701 0.998378 -0.0569268 0
0.165935 -0.168432 0.0913802 -0.905748 0.423673 -0.0110226
0.154298 0.133953 0.399406 -0.347242 -0.936975 0.0387301
-0.215824 -0.0646271 0.315814 -0.194816 -0.0432356 0.979886
0.0797176 0.0772014 0.404065 0 0 -1
0.113241 -0.104223 0.413293 0 0 1
0.13403 -0.0822566 0.413293 0 0 1
-0.157057 0.133677 0.314419 0.349973 -0.935922 -0.0396114
0.0785604 -0.0404835 0.413293 0 0 1
-0.0341992 -0.0438839 0.413293 0 0 1
0.0618962 0.0454237 0.413293 0 0 1
0.00119601 0.0237932 0.413293 0 0 1
0.181931 0.0436207 0.415133 0 0 1
0.0516783 0.112271 0.404065 0 0 -1
0.178413 0.168566 0.110734 0.914488 -0.400495 -0.0575856
0.0499362 -0.0172725 0.404065 0 0 -1
-0.0548123 -0.206267 0.315436 0.0389602 0.217888 0.975196
0.154964 0.214924 0.78728 -0.212785 0.501015 -0.838872
-0.178251 0.157218 0.623474 -0.365772 -0.92302 0.119351
0.0313574 -0.171307 0.413293 0 0 1
-0.153247 0.151519 0.570838 -0.853569 -0.516438 0.0686402
-0.101791 -0.0366207 0.413293 0 0 1
0.00910985 -0.0599814 0.413293 0 0 1
0.172439 0.199854 0.0402838 -0.332293 0.911387 0.242806
-0.101793 0.21056 0.728686 -0.360878 0.414882 0.835248
-0.0471893 -0.00910389 0.413293 0 0 1
-0.147176 0.134991 0.380674 -0.469885 0.882728 0
0.164981 0.15586 0.58601 -0.898279 -0.40035 0.181151
0.0203592 0.152132 0.379092 -0.00183613 -0.999998 0
-0.108404 0.205583 0.706692 0.205863 0.523375 -0.826861
0.185569 -0.165317 0.135677 0.906948 0.4211 -0.0109957
0.125938 -0.0715027 0.413293 0 0 1
0.0666577 0.21747 0.724948 0.0311498 0.951621 -0.305692
-0.14964 0.151906 0.36848 0.344685 0.93866 0.0105009
-0.183196 -0.161104 0.333126 -0.905369 0.424483 -0.0109953
-0.0522952 0.144081 0.404065 0 0 -1
-0.0371683 0.156229 0.415133 0 0 1
0.185433 -0.172265 0.146567 0.90617 -0.42277 -0.0110241
0.0404383 -0.214014 0.298139 0.0379902 -0.217084 -0.975413
-0.150527 0.154337 0.271793 0.905864 0.423532 0.00561211
-0.166736 0.162615 0.537765 -0.339756 0.932095 -0.125559
-0.0567267 -0.201878 0.301247 0.152124 0.850776 -0.50303
0.169666 -0.159707 0.280333 -0.344746 0.938641 -0.0101493
0.112469 -0.0465857 0.404065 0 0 -1
-0.0311376 -0.143506 0.413293 0 0 1
-0.107382 -0.0576771 0.404065 0 0 -1
0.141046 -0.0903678 0.404065 0 0 -1
0.0363821 -0.1801 0.415133 0 0 1
0.0444858 -0.176432 0.384045 0.00182923 0.999998 0
0.175621 0.113536 0.300925 0.678075 0.507509 -0.531647
0.170457 0.154241 0.295267 0.348209 0.934858 0.0692184
0.175046 0.139443 0.463235 0.909485 -0.415726 -0.00304619
0.139647 -0.124193 0.404065 0 0 -1
-0.0107918 -0.0969606 0.404065 0 0 -1
0.078947 0.0940315 0.404065 0 0 -1
-0.02295 -0.0422122 0.404065 0 0 -1
-0.0672633 0.210557 0.809468 0.110493 -0.94714 -0.301192
0.167126 -0.164818 0.132443 -0.905748 0.423673 -0.0110226
-0.174557 0.146963 0.52883 -0.904905 -0.425379 -0.0141222
-0.00852089 -0.188594 0.391601 -0.00182927 -0.999998 0
0.165731 -0.165033 0.404065 0 0 -1
0.129113 -0.102089 0.404065 0 0 -1
-0.16639 0.176205 0.139023 -0.330149 0.926741 0.179312
-0.118831 0.0965441 0.413293 0 0 1
0.160581 0.129821 0.378228 0 0 -1
0.0400075 0.0915395 0.413293 0 0 1
0.176094 -0.172076 0.404065 0 0 -1
-0.0399375 0.213146 0.746297 -0.123076 -0.4776 0.869914
0.119381 -0.115484 0.404065 0 0 -1
0.162842 0.15263 0.568264 -0.898279 -0.40035 0.181151
0.0650575 0.0493669 0.404065 0 0 -1
-0.0952694 -0.176176 0.41469 0.00182923 0.999998 0
0.171631 0.137765 0.28585 0.337955 -0.937736 -0.0802368
0.172385 -0.179072 0.352466 -0.348446 -0.937274 -0.0101414
-0.152644 0.114774 0.380714 0.701739 -0.712434 0
0.119954 -0.179904 0.415133 0 0 1
-0.112791 0.0660395 0.404065 0 0 -1
0.179325 -0.11895 0.404065 0 0 -1
-0.174827 -0.178047 0.245374 -0.349303 -0.936955 -0.0101145
0.174994 -0.124649 0.306637 -0.78439 0.591856 -0.185575
-0.105537 -0.200822 0.304379 -0.504511 -0.845607 -0.174404
0.0492999 0.0781103 0.404065 0 0 -1
0.18033 0.203359 0 0 0 -1
0.0705087 -0.151711 0.413293 0 0 1
0.0604636 -0.142272 0.404065 0 0 -1
0.221745 0.0380154 0.303943 0.958957 0.212531 -0.187701
-0.133175 -0.171386 0.404065 0 0 -1
-0.062035 -0.0933833 0.413293 0 0 1
0.021145 0.0892627 0.404065 0 0 -1
0.0745038 0.0108262 0.413293 0 0 1
-0.159471 0.19571 0.673636 0.281637 0.90287 -0.324818
-0.0450425 0.0317192 0.404065 0 0 -1
0.213054 0.0112953 0.299864 -0.554682 -0.123012 -0.822919
-0.165311 0.157114 0.269034 -0.344494 0.936226 0.0693224
0.0861361 -0.194051 0.304161 -0.501253 0.84728 -0.175676
-0.161179 -0.0414727 0.413293 0 0 1
-0.147194 0.146049 0.412543 0.909882 0.414427 0.0191143
0.158012 0.0608736 0.413293 0 0 1
0.0504164 -0.0638569 0.404065 0 0 -1
-0.085982 -0.150017 0.413293 0 0 1
-0.146656 0.125902 0.299622 0.303526 -0.512988 -0.802942
0.173645 0.144645 0.228268 0.908648 -0.415751 -0.0388591
0.154136 0.128602 0.297795 0.110232 0.184745 -0.976585
0.157618 0.180687 0.635314 -0.630868 0.762696 -0.142481
0.1741 0.13977 0.303769 0.902674 -0.429237 -0.0305868
-0.107364 0.000721335 0.404065 0 0 -1
0.151303 -0.126474 0.413293 0 0 1
0.149212 0.149051 0.560527 -0.689605 -0.708646 0.149215
-0.192465 -0.104216 0.395971 -0.998384 0.0568267 0
0.181988 -0.174668 0.0104835 0.343799 -0.938988 -0.0101584
0.124271 -0.130462 0.404065 0 0 -1
-0.154935 0.132231 0.367797 0.346452 -0.937256 -0.0390291
-0.0425542 0.0178414 0.413293 0 0 1
0.178639 0.152281 0.602286 0.355057 -0.927164 0.119591
0.0760849 -0.212826 0.308522 0.169846 -0.970836 0.169202
-0.100589 0.0412978 0.413293 0 0 1
0.197061 -0.111645 0.315719 0.1642 -0.123879 0.978618
-0.148574 0.0996734 0.404065 0 0 -1
0.00515845 -0.0813653 0.413293 0 0 1
-0.0105508 -0.0611405 0.404065 0 0 -1
-0.0533979 0.14037 0.404065 0 0 -1
0.170916 0.154909 0.155142 0.359121 -0.918094 -0.167736
0.176576 0.211273 0 0 0 -1
-0.154901 -0.182532 0.378228 0 0 -1
-0.0141059 -0.0583585 0.404065 0 0 -1
0.0136602 0.0920992 0.413293 0 0 1
0.218651 0.032335 0.314747 0.552833 0.122624 0.82422
0.169638 0.00342964 0.413293 0 0 1
0.0660329 -0.11137 0.413293 0 0 1
-0.0874909 -0.164735 0.413293 0 0 1
-0.172907 -0.00307187 0.406017 0.998378 -0.0569268 0
0.0928592 -0.203422 0.298576 0.304851 -0.515327 -0.80094
-0.163556 -0.164003 0.176693 0.907537 0.419828 -0.011013
-0.170865 -0.0913713 0.413293 0 0 1
-0.186653 0.167627 0.667052 -0.380905 -0.912735 0.147735
0.0198253 -0.0694118 0.413293 0 0 1
-0.180221 -0.158274 0.371797 -0.343587 0.939066 -0.0101282
-0.0762499 0.0200481 0.404065 0 0 -1
-0.160867 -0.168417 0.271607 0.905465 -0.424277 -0.011008
-0.21937 -0.0839456 0.309918 -0.958585 -0.212475 0.189654
-0.130747 0.207039 0.701442 -0.0611783 0.956565 -0.285027
-0.0697298 -0.0419665 0.404065 0 0 -1
0.218152 -0.00125082 0.298304 -0.554524 -0.122986 -0.823029
0.182966 0.16522 0.586097 0.897043 0.411534 -0.161101
-0.182402 -0.161096 0.268073 -0.905369 0.424483 -0.0109953
0.0375697 -0.0509866 0.413293 0 0 1
-0.165503 0.152688 0.390159 -0.34396 0.938859 -0.015311
-0.119032 -0.175308 0.311152 0.439047 0.735755 0.515658
-0.0822281 0.172654 0.314368 -0.105089 0.600155 0.79295
-0.163501 -0.161499 0.276686 0.906975 0.421041 -0.01104
-0.173868 0.118406 0.309791 -0.784986 0.592209 0.181894
-0.149607 -0.132524 0.404065 0 0 -1
-0.0890688 -0.186447 0.378228 0 0 -1
-0.167548 0.160598 0.229757 -0.338396 0.932795 0.12402
0.161734 0.154885 0.31319 -0.337033 0.93979 0.0566015
0.0368614 0.0639221 0.404065 0 0 -1
-0.0826342 0.215849 0.732579 -0.250546 0.92407 0.288655
-0.152795 0.0737707 0.404065 0 0 -1
0.161077 0.139528 0.503927 -0.345033 -0.927154 0.146076
-0.0307841 0.100224 0.404065 0 0 -1
-0.167353 0.00903554 0.413293 0 0 1
0.156634 -0.00154915 0.413293 0 0 1
-0.163516 0.203207 0.0151535 0.905716 0.419805 0.0586674
-0.103853 -0.183508 0.304368 0.504159 0.845048 -0.178096
0.181104 -0.175619 0.068561 0.343799 -0.938988 -0.0101584
-0.169426 0.0579684 0.385744 0.998378 -0.0569268 0
0.176707 -0.18053 0.373823 0.343587 -0.939066 -0.010153
0.156947 -0.0145137 0.404065 0 0 -1
0.0925494 -0.110455 0.404065 0 0 -1
-0.170027 -0.160666 0.0131435 0.348379 0.937299 -0.0101274
0.0348731 -0.0397132 0.413293 0 0 1
-0.163419 -0.170615 0.14641 0.905465 -0.424277 -0.011008
-0.131571 0.142806 0.378228 0 0 -1
-0.161742 0.179905 0.0587933 0.337536 -0.887967 -0.312384
-0.181267 -0.120465 0.300172 0.464933 0.348047 -0.814064
0.129635 0.0234641 0.413293 0 0 1
0.0706224 -0.125216 0.413293 0 0 1
-0.199114 0.0667738 0.31536 0.164485 -0.124086 0.978544
0.0617407 0.165766 0.300672 -0.152118 -0.850329 -0.503786
-0.182385 0.072886 0.406099 -0.998384 0.0568267 0
-0.182205 -0.139025 0.299986 -0.464082 -0.347465 -0.814798
0.0794844 -0.176496 0.384278 0.00182923 0.999998 0
0.14332 -0.0179786 0.413293 0 0 1
-0.134687 0.191742 0.700646 0.349365 -0.89662 -0.27206
0.0678826 0.162356 0.380665 0.132721 0.991153 0
0.176997 -0.0105706 0.383453 -0.998584 -0.0531892 0
-0.122031 -0.176127 0.386839 0.00182923 0.999998 0
-0.175409 -0.0373134 0.378228 0 0 -1
0.214545 -0.0443455 0.314187 -0.552139 0.124579 0.824393
0.0778247 0.218302 0.728913 0.0356883 0.95471 -0.295392
-0.125352 -0.181273 0.415133 0 0 1
-0.187375 -0.151487 0.415133 0 0 1
-0.0649672 0.0430639 0.404065 0 0 -1
-0.072774 -0.203765 0.297877 0.0389526 0.217892 -0.975195
0.16425 0.104905 0.407302 -0.832478 -0.554057 0
0.190743 -0.0649659 0.378228 0 0 -1
0.176282 -0.157596 0.413293 0 0 1
-0.174799 -0.0362551 0.383999 0.998378 -0.0569268 0
-0.146006 0.122848 0.415133 0 0 1
-0.166839 -0.020568 0.404065 0 0 -1
-0.087298 0.117045 0.404065 0 0 -1
-0.163988 -0.169532 0.0578654 0.905465 -0.424277 -0.011008
-0.0485504 -0.0954975 0.413293 0 0 1
0.155539 0.178571 0.633149 -0.623987 0.77241 -0.118418
-0.13341 0.10925 0.413293 0 0 1
-0.0393549 0.137907 0.413293 0 0 1
-0.0305663 0.155678 0.415133 0 0 1
0.151389 0.145137 0.416267 -0.908661 0.417092 0.0192321
0.192095 -0.137179 0.415133 0 0 1
-0.1256 -0.0336328 0.404065 0 0 -1
-0.00897897 0.146336 0.413293 0 0 1
0.185595 -0.187017 0.405001 0.50772 -0.861522 0
-0.0454465 -0.204411 0.300374 0.152124 0.850776 -0.50303
-0.16323 0.195241 0.695523 -0.762595 0.118323 0.635962
-0.133781 0.219397 0.802309 -0.194428 0.935863 0.293867
-0.15341 0.155091 0.295493 0.34069 0.938469 0.0566217
-0.00127516 -0.214677 0.314975 0.106876 0.597713 0.794554
-0.0678503 -0.046935 0.413293 0 0 1
0.0942954 -0.172602 0.404065 0 0 -1
-0.167045 -0.0709759 0.413293 0 0 1
-0.183158 0.0593051 0.405169 -0.998384 0.0568267 0
0.0865651 -0.194755 0.30212 -0.436519 0.737832 -0.514835
-0.170924 0.0317022 0.414805 0.998378 -0.0569268 0
0.210681 0.0662962 0.312938 0.676129 0.506052 0.535501
-0.120408 0.107452 0.404065 0 0 -1
-0.181121 -0.147129 0.414845 0.998378 -0.0569268 0
0.184175 0.196011 0.0283969 0.892617 0.414373 0.177567
-0.159643 -0.176059 0.387455 0.00182923 0.999998 0
-0.183231 -0.127147 0.378228 0 0 -1
-0.180648 -0.138838 0.385296 0.998378 -0.0569268 0
-0.0798526 0.0287839 0.413293 0 0 1
0.152621 0.139364 0.31285 -0.910304 -0.409292 -0.061862
0.191673 -0.0614866 0.415133 0 0 1
-0.055456 -0.0742953 0.413293 0 0 1
-0.162143 0.15329 0.162577 0.336164 -0.920565 -0.198883
0.161007 0.150441 0.550413 -0.902627 -0.40905 0.133953
-0.0661968 -0.129173 0.413293 0 0 1
0.143991 0.216513 0.806026 0.200229 0.933491 0.297494
0.185986 0.0747478 0.308317 -0.786736 -0.588758 0.185499
-0.075571 0.148049 0.393131 0.211162 -0.977451 0
0.164017 -0.158128 0.404065 0 0 -1
-0.0489364 -0.0326397 0.413293 0 0 1
-0.123845 0.116986 0.413293 0 0 1
-0.118128 0.000894159 0.413293 0 0 1
0.0135792 -0.0606562 0.413293 0 0 1
-0.233398 -0.0207059 0.309865 -0.958585 -0.212475 0.189654
0.169312 0.168846 0.176713 0.341978 0.922702 0.177968
0.133159 -0.175287 0.297518 -0.109743 0.185484 -0.9765
-0.114232 -0.0855416 0.404065 0 0 -1
-0.112124 0.210466 0.708947 -0.0567178 0.957312 -0.283438
0.155464 -0.0527779 0.404065 0 0 -1
-0.0227563 0.00494549 0.404065 0 0 -1
-0.12336 0.115249 0.404065 0 0 -1
-0.171068 0.0291776 0.379831 0.998378 -0.0569268 0
-0.152343 0.196503 0.681391 0.320092 0.735046 -0.597703
-0.171058 0.150955 0.266538 -0.905933 0.421746 0.0376328
0.028324 0.100486 0.413293 0 0 1
-0.150463 0.0910227 0.404065 0 0 -1
0.0508319 0.017481 0.404065 0 0 -1
-0.000234928 0.164428 0.395727 0.00183589 0.999998 0
-0.0307542 0.113999 0.404065 0 0 -1
-0.0903934 0.162641 0.297971 0.109275 -0.184736 -0.976694
-0.165972 -0.156809 0.298315 -0.465761 -0.348593 -0.813357
-0.0588714 0.0118011 0.413293 0 0 1
0.145495 0.147966 0.543019 -0.87368 -0.443615 0.199719
0.192788 -0.048073 0.393023 0.998589 0.0531039 0
0.164887 0.158788 0.26194 0.353802 0.932828 0.0682422
-0.0448752 0.214442 0.745065 -0.208618 0.454735 0.865849
0.182461 -0.113158 0.405232 -0.998584 -0.0531892 0
0.166923 -0.165652 0.117042 -0.905748 0.423673 -0.0110226
0.167909 0.15306 0.40826 0.340637 0.940088 -0.0142044
0.162312 0.0384276 0.404065 0 0 -1
-0.176945 0.206623 0.795515 -0.385861 0.381927 0.839787
-0.182337 0.0737256 0.402176 -0.998384 0.0568267 0
-0.173738 -0.15645 0.320995 -0.343587 0.939066 -0.0101282
0.0842276 -0.082133 0.404065 0 0 -1
0.182428 -0.161425 0.11079 0.347569 0.9376 -0.0101306
0.090644 0.221826 0.806544 0.00712041 0.952486 -0.3045
-0.224918 0.00380623 0.31486 -0.551803 0.124506 0.824628
-0.0262481 0.152217 0.398799 -0.00183613 -0.999998 0
0.0304322 -0.0269989 0.413293 0 0 1
-0.125604 -0.0376332 0.404065 0 0 -1
0.0972021 -0.183007 0.378228 0 0 -1
0.0224075 -0.221573 0.302641 0.148801 -0.850679 -0.504187
0.000578433 -0.172552 0.404065 0 0 -1
0.180477 -0.0386269 0.378228 0 0 -1
-0.00553945 -0.101006 0.413293 0 0 1
-0.145053 0.134423 0.297832 -0.109725 0.185496 -0.9765
0.160814 0.15685 0.538149 -0.901951 0.430257 0.0369132
-0.170481 0.039465 0.414723 0.998378 -0.0569268 0
0.181567 0.100334 0.400466 0.934413 0.356192 0
-0.15966 -0.167167 0.377144 0.907537 0.419828 -0.011013
0.212939 0.0352694 0.315806 -0.194282 -0.0430634 0.98
-0.0201951 0.181216 0.297964 -0.0381475 0.21823 -0.975152
-0.141499 0.202842 0.796789 0.195441 -0.936024 -0.292682
0.105807 0.154244 0.395626 0.305301 0.952256 0
-0.0381386 -0.152971 0.404065 0 0 -1
-0.0257582 -0.154169 0.404065 0 0 -1
0.109823 0.221142 0.811426 0.156793 0.941048 0.299741
0.0705052 -0.0933465 0.413293 0 0 1
-0.17309 0.120025 0.307875 -0.784986 0.592209 0.181894
0.133913 0.143598 0.409058 0.389535 0.921012 0
0.159 0.16946 0.122402 -0.898387 -0.409 -0.16006
-0.147935 0.14529 0.45661 0.904378 0.425886 0.0268743
0.197813 -0.142576 0.380126 0.998589 0.0531039 0
0.185802 0.20999 0.773817 -0.326983 0.610252 -0.721578
-0.053851 -0.127179 0.404065 0 0 -1
-0.115353 -0.190833 0.299063 -0.306479 -0.513708 -0.801358
0.159768 -0.081564 0.404065 0 0 -1
-0.187 -0.00819165 0.383311 -0.998384 0.0568267 0
-0.164917 -0.0985429 0.413293 0 0 1
0.0772525 -0.111809 0.404065 0 0 -1
0.189635 0.0112097 0.40548 0.998589 0.0531039 0
0.178654 0.146343 0.516273 0.903743 -0.427837 -0.0142921
0.186699 -0.161611 0.370834 0.907157 0.420649 -0.0109857
0.124032 0.209486 0.717936 0.347996 0.89616 0.27531
0.164006 0.181642 0.103712 -0.361747 0.911472 0.195853
0.169881 0.196071 0.680215 0.395916 0.907347 -0.141322
-0.0122135 -0.152414 0.404065 0 0 -1
0.159664 0.187708 0.666366 -0.899519 0.436163 0.0250585
0.0700353 0.175927 0.300072 0.107257 0.599671 -0.793026
-0.142891 -0.0584474 0.413293 0 0 1
-0.189936 -0.105459 0.309666 0.786905 0.589222 0.183299
0.131576 0.143876 0.415133 0 0 1
-0.165475 -0.174372 0.121738 0.906024 -0.423083 -0.0110369
0.0660857 -0.176472 0.398332 0.00182923 0.999998 0
0.075648 -0.122817 0.413293 0 0 1
-0.178853 0.156999 0.564827 -0.898697 0.407908 -0.161104
-0.189839 -0.0580732 0.398842 -0.998384 0.0568267 0
-0.177741 -0.087862 0.407624 0.998378 -0.0569268 0
0.133907 -0.176596 0.384491 0.00182923 0.999998 0
0.159693 0.14772 0.200996 -0.341311 -0.928733 -0.144784
0.175375 0.0198888 0.39931 -0.998584 -0.0531892 0
-0.00646095 0.174406 0.31088 0.148699 -0.84971 0.505847
-0.0218837 -0.219456 0.299591 -0.107375 -0.600438 -0.79243
-0.170953 -0.159974 0.0452872 0.348379 0.937299 -0.0101274
0.071689 -0.0616454 0.413293 0 0 1
-0.180278 0.0922064 0.387323 -0.987075 0.160261 0
-0.18267 0.067876 0.402841 -0.998384 0.0568267 0
-0.174746 -0.159527 0.0699229 -0.343587 0.939066 -0.0101282
0.167413 0.0529079 0.404065 0 0 -1
-0.117002 -0.188291 0.415133 0 0 1
-0.159883 0.129034 0.2991 -0.303583 0.513002 -0.802911
0.0119964 -0.000289433 0.404065 0 0 -1
-0.129417 0.0511515 0.404065 0 0 -1
0.176283 0.00283955 0.4129 0.998585 0.0531892 0
0.163695 -0.168549 0.276761 -0.907138 -0.420691 -0.0109971
0.1214 0.1953 0.715136 -0.070811 -0.955241 0.28723
0.166346 0.179081 0.628875 0.705782 0.647096 -0.288338
0.0869745 0.149373 0.378228 0 0 -1
-0.186807 -0.111815 0.312175 0.678275 0.507882 0.531035
-0.15792 0.158612 0.559159 0.90395 0.425998 0.0374214
0.0398344 -0.153442 0.413293 0 0 1
0.151761 0.124096 0.314794 -0.306548 -0.513962 0.801168
-0.0561418 0.150198 0.404065 0 0 -1
-0.230248 -0.0351752 0.309574 -0.958585 -0.212475 0.189654
0.112658 -0.176557 0.379155 0.00182923 0.999998 0
-0.168154 0.151964 0.358198 -0.350348 0.936518 0.01377
0.17811 -0.177395 0.13139 0.343587 -0.939066 -0.010153
0.046083 -0.0864167 0.404065 0 0 -1
-0.102075 -0.0852863 0.404065 0 0 -1
0.146193 0.160605 0.562817 -0.650352 0.748988 -0.126725
0.0577686 0.204546 0.731618 -0.149559 -0.942341 -0.299375
0.0291224 -0.0144799 0.404065 0 0 -1
-0.00279887 -0.0280162 0.404065 0 0 -1
-0.202049 -0.113507 0.312838 -0.678295 -0.50785 0.53104
0.17065 -0.175085 0.0436036 -0.347907 -0.937474 -0.0101541
0.174755 0.14413 0.545796 0.351459 -0.931894 0.0897187
-0.180081 0.101354 0.2981 -0.164973 0.124487 -0.978411
-0.0211623 0.140244 0.404065 0 0 -1
-0.172195 0.00940631 0.407546 0.998378 -0.0569268 0
0.106745 0.212006 0.726451 0.261406 0.916168 0.303815
0.0926881 -0.17652 0.38616 0.00182923 0.999998 0
0.0956842 -0.188785 0.379478 -0.00182927 -0.999998 0
-0.00615954 -0.0873397 0.413293 0 0 1
-0.18139 0.0329561 0.415133 0 0 1
0.156402 0.156614 0.60016 -0.0388807 -0.973163 0.22681
0.162811 0.133525 0.303943 -0.353127 -0.931008 -0.0923271
-0.0768568 -0.113658 0.404065 0 0 -1
0.051213 -0.176444 0.411257 -0.00182923 -0.999998 0
0.0379378 -0.108623 0.413293 0 0 1
-0.172049 0.0119796 0.391499 0.998378 -0.0569268 0
-0.105642 0.0124001 0.404065 0 0 -1
-0.0929229 -0.0372779 0.404065 0 0 -1
-0.0690796 0.156885 0.378228 0 0 -1
0.191629 -0.0262869 0.410989 0.998589 0.0531039 0
0.175705 0.145712 0.425232 0.903572 0.428313 -0.0103144
0.133934 -0.182794 0.415133 0 0 1
-0.0738212 -0.00701991 0.404065 0 0 -1
0.120264 0.0429845 0.413293 0 0 1
0.203992 0.0778568 0.30303 0.676095 0.506257 -0.535351
-0.090415 -0.194179 0.300009 0.306099 0.513088 -0.8019
-0.0554793 -0.188508 0.382782 -0.00182927 -0.999998 0
-0.205251 -0.079496 0.300289 0.818134 0.181438 -0.545653
0.0767001 0.0640626 0.413293 0 0 1
0.16943 0.206321 0.0102728 -0.904253 0.422973 0.0584812
0.0517858 -0.126278 0.413293 0 0 1
-0.0973523 0.204596 0.711425 0.361206 -0.391606 -0.846272
0.171867 0.0995534 0.299276 -0.466509 -0.349151 -0.812689
-0.0265551 -0.0610097 0.413293 0 0 1
-0.0579621 -0.0937396 0.413293 0 0 1
0.180745 0.193563 0.0520249 0.904325 0.392017 0.168876
0.129992 -0.176588 0.411588 0.00182923 0.999998 0
-0.066791 0.0625094 0.413293 0 0 1
0.167429 0.174317 0.62081 0.696141 0.658258 -0.286502
-0.146377 0.120351 0.402734 0.575289 -0.81795 0
-0.0709954 0.164242 0.300696 0.148806 -0.850321 -0.504787
-0.163138 -0.16935 0.404065 0 0 -1
0.166421 -0.166293 0.133628 -0.905748 0.423673 -0.0110226
-0.173359 -0.179266 0.307615 -0.349303 -0.936955 -0.0101145
0.180211 0.198081 0.784856 -0.0149782 -0.964456 0.26382
0.115932 0.206526 0.706712 -0.295815 0.542357 -0.786348
0.160445 -0.157272 0.297641 -0.164259 0.123915 -0.978603
-0.188126 0.181306 0.66606 -0.322346 0.916795 -0.235755
-0.175542 -0.158939 0.15141 -0.343587 0.939066 -0.0101282
0.135087 0.0117891 0.413293 0 0 1
-0.169344 0.205165 0.797192 -0.260287 -0.504244 0.823401
-0.0908411 -0.122514 0.404065 0 0 -1
0.173102 0.0625648 0.40113 -0.998584 -0.0531892 0
-0.159106 0.135025 0.461247 0.344375 -0.93431 0.0920398
-0.146638 0.144161 0.309985 0.908467 -0.413359 -0.0618164
0.120366 -0.110742 0.404065 0 0 -1
-0.176669 -0.0690589 0.413978 0.998378 -0.0569268 0
-0.177291 -0.175597 0.103533 -0.349303 -0.936955 -0.0101145
-0.154044 -0.0298479 0.413293 0 0 1
0.0850581 -0.178 0.415133 0 0 1
0.171197 -0.178054 0.299141 -0.348446 -0.937274 -0.0101414
-0.172858 0.156341 0.515014 -0.902272 0.416577 -0.111215
0.156949 0.174677 0.651313 -0.700449 -0.637284 0.32131
0.175858 0.097253 0.31533 -0.164671 -0.12327 0.978615
-0.162921 0.176116 0.623192 -0.702394 0.650883 -0.288087
0.181369 -0.0926596 0.399072 -0.998584 -0.0531892 0
0.164935 0.137929 0.255312 0.342054 -0.93632 -0.0793988
0.171667 0.122011 0.305768 0.786893 0.589222 -0.183347
0.212461 0.0192999 0.314407 -0.552991 -0.122646 0.824111
0.174396 -0.158553 0.226429 -0.344746 0.938641 -0.0101493
0.152529 0.120879 0.300746 -0.43838 -0.734992 -0.51731
0.0344714 0.0675239 0.404065 0 0 -1
-0.0114653 0.0863736 0.413293 0 0 1
-0.0343199 0.0650265 0.404065 0 0 -1
-0.171696 -0.158418 0.163694 0.348379 0.937299 -0.0101274
-0.151884 0.135465 0.317881 0.349973 -0.935922 -0.0396114
0.159541 -0.188902 0.389179 -0.00182927 -0.999998 0
-0.000273779 -0.0499693 0.404065 0 0 -1
-0.131398 -0.125225 0.404065 0 0 -1
0.0541782 0.154048 0.415133 0 0 1
0.152597 0.170491 0.593669 -0.644254 0.759167 -0.0927526
-0.066135 -0.17623 0.383283 0.00182923 0.999998 0
-0.0695707 -0.176223 0.406045 0.00182923 0.999998 0
-0.079094 -0.176206 0.408864 -0.00182923 -0.999998 0
-0.055129 -0.0624327 0.404065 0 0 -1
0.130972 0.0209464 0.413293 0 0 1
0.0756441 -0.0789039 0.413293 0 0 1
0.179281 -0.145486 0.302112 0.674967 -0.509108 -0.534068
0.031475 0.152111 0.410835 0.00183613 0.999998 0
-0.163128 0.0820749 0.404065 0 0 -1
-0.147472 0.142513 0.308749 0.908467 -0.413359 -0.0618164
-0.159292 -0.176059 0.406492 -0.00182923 -0.999998 0
0.00993246 -0.068755 0.404065 0 0 -1
0.177422 0.159695 0.163502 0.909316 -0.413029 -0.0505085
