-0.167953 -0.0737701 0.385763 0 0 -1
0.00976866 -0.233723 0.385763 0 0 -1
0.115221 0.252718 0.60331 0 -0.121473 -0.992595
0.213988 -0.118479 0.518489 0.623039 -0.135831 0.770306
0.0560626 0.267496 0.72051 0 0.992673 -0.120836
0.0559423 0.0206544 0.385763 0 0 -1
-0.153114 -0.26163 0.41148 0 0 1
0.0647868 0.15508 0.41148 0 0 1
0.210211 -0.193086 0.479567 0.425689 0.358419 -0.830858
0.0182852 0.0594563 0.385763 0 0 -1
-0.212437 -0.249712 0.159306 -0.433036 0.901377 0
-0.0642893 -0.129484 0.385763 0 0 -1
0.0523965 0.0885414 0.385763 0 0 -1
0.188414 -0.00946301 0.375894 0 0 -1
-0.200518 -0.250984 0.0755935 0.781821 0.623503 0
0.117445 0.0942374 0.41148 0 0 1
0.183694 0.234722 0.599525 -0.433123 -0.901335 0
0.00982876 0.164728 0.385763 0 0 -1
0.00359821 0.245657 0.702633 3.43665e-05 -0.992601 0.121421
-0.0155382 -0.137227 0.385763 0 0 -1
-0.0633685 -0.200356 0.385763 0 0 -1
-0.175181 0.121515 0.385763 0 0 -1
0.0826748 -0.253733 0.375894 0 0 -1
0.215564 0.0119187 0.53949 0.901534 -0.0751152 0.426138
0.165091 0.133545 0.385763 0 0 -1
-0.18122 0.251042 0.33731 0.783042 0.621968 0
-0.00715345 -0.267794 0.401577 0 -1 0
0.204628 -0.0863241 0.526475 -0.222904 -0.169285 0.960029
-0.187077 0.0054218 0.398195 -0.999283 0.0378635 0
0.213019 -0.265848 0.0784922 0.433036 -0.901377 0
-0.186096 0.224943 0.375894 0 0 -1
0.203574 0.224469 0.581125 -0.222579 -0.212936 0.951376
0.110331 0.0340895 0.41148 0 0 1
-0.0715999 -0.242002 0.385763 0 0 -1
-0.190206 0.252952 0.0557114 -0.435067 0.900398 0
-0.197581 -0.258586 0.307574 0.975209 -0.221288 0
0.178927 0.248154 0.473305 -0.781823 0.623501 0
0.179542 0.204267 0.401283 0.999283 0.0378635 0
0.0912328 -0.00453779 0.385763 0 0 -1
0.144709 -0.186002 0.385763 0 0 -1
-0.216054 -0.19738 0.492262 -0.774447 -0.250527 0.580919
-0.129129 -0.192892 0.41148 0 0 1
0.0998947 -0.250323 0.41148 0 0 1
-0.148496 0.263152 0.683136 3.02486e-05 0.992515 -0.122123
0.126892 -0.251253 0.375894 0 0 -1
-0.185887 0.253173 0.0202012 0 1 0
0.0404374 0.00813222 0.385763 0 0 -1
0.168952 -0.142137 0.385763 0 0 -1
-0.0987825 0.190534 0.385763 0 0 -1
-0.11441 0.0016405 0.385763 0 0 -1
0.0449798 0.246922 0.604019 0 -0.121473 -0.992595
-0.112801 0.241906 0.67212 7.30828e-06 -0.99253 0.121997
0.0587936 -0.0839248 0.41148 0 0 1
0.179448 -0.234599 0.385763 0 0 -1
0.104345 -0.0386607 0.385763 0 0 -1
0.0249728 -0.174423 0.41148 0 0 1
-0.130996 0.0297249 0.41148 0 0 1
0.10564 -0.0878054 0.41148 0 0 1
0.178493 0.24708 0.305565 -0.974541 0.224211 0
0.180409 0.183124 0.375894 0 0 -1
-0.0876894 -0.105165 0.41148 0 0 1
0.082032 0.251705 0.714603 0 -0.71333 -0.700828
-0.0150321 -0.0253467 0.385763 0 0 -1
0.197394 0.243394 0.396578 0.974716 -0.223448 0
-0.0160314 0.102671 0.41148 0 0 1
-0.152446 0.254223 0.610427 -2.05649e-05 0.992544 -0.121889
-0.0107448 0.181387 0.41148 0 0 1
-0.193515 -0.164508 0.394151 -0.999283 0.0378635 0
0.045574 0.244681 0.694684 7.30828e-06 -0.99253 0.121997
-0.147399 -0.121591 0.41148 0 0 1
0.191658 0.252253 0.0873127 0.434088 0.90087 0
0.165489 0.253105 0.673251 -0.831437 -0.067091 -0.551554
-0.144805 -0.180633 0.385763 0 0 -1
-0.04791 0.253416 0.399963 0 1 0
-0.177854 0.248833 0.39889 -0.999283 0.0378635 0
-0.184519 0.252767 0.124661 0.434177 0.900828 0
0.174817 -0.256779 0.375894 0 0 -1
0.19535 -0.212937 0.4091 0.999283 0.0378635 0
-0.073116 0.155115 0.385763 0 0 -1
-0.0738391 0.105381 0.41148 0 0 1
0.215131 0.156516 0.553889 0.900557 0.0755193 -0.428128
0.216629 -0.231024 0.460187 0.973832 -0.174106 0.146078
0.175083 -0.0868428 0.385763 0 0 -1
-0.123474 0.253416 0.403602 0 1 0
0.148523 -0.196906 0.41148 0 0 1
-0.151056 -0.238348 0.385763 0 0 -1
0.0696168 0.182881 0.41148 0 0 1
-0.196769 0.249862 0.632311 -0.974576 0.222387 -0.0273075
0.0200863 0.0178765 0.41148 0 0 1
-0.0740677 -0.145001 0.41148 0 0 1
0.0028522 0.256753 0.631007 1.9442e-05 0.992515 -0.122121
0.209879 -0.117542 0.375894 0 0 -1
0.198597 -0.262447 0.350652 -0.781824 -0.623499 0
0.181194 0.160663 0.399963 0.999283 0.0378635 0
-0.198677 -0.253292 0.0461368 0.781821 0.623503 0
0.20156 -0.0428667 0.532582 -0.623039 -0.135829 0.770307
-0.196556 0.247347 0.0781326 -0.97459 0.223994 0
0.0487464 -0.00637227 0.41148 0 0 1
-0.111103 -0.109303 0.385763 0 0 -1
0.118481 -0.0144972 0.41148 0 0 1
-0.197828 -0.106294 0.516108 0.901535 -0.0751403 0.426133
0.108466 0.237334 0.41148 0 0 1
-0.0682074 -0.0856258 0.385763 0 0 -1
-0.164632 0.132889 0.41148 0 0 1
0.203731 0.0600872 0.533694 -0.222726 0.16929 -0.96007
0.215833 -0.19201 0.494886 0.773127 -0.251166 0.5824
-0.196792 0.240767 0.250845 -0.974716 -0.223448 0
-0.0855638 0.265505 0.702283 2.038e-05 0.992528 -0.122016
0.0312739 -0.255704 0.375894 0 0 -1
-0.00404532 -0.174562 0.385763 0 0 -1
-0.192736 0.235357 0.16756 -0.433035 -0.901377 0
-0.124957 -0.024205 0.385763 0 0 -1
0.180857 0.236509 0.495044 -0.781823 -0.623501 0
0.158954 0.214017 0.385763 0 0 -1
-0.0860438 -0.133195 0.385763 0 0 -1
0.196984 0.241605 0.0382375 0.974716 -0.223448 0
0.214548 -0.264267 0.264083 0.781822 -0.623501 0
-0.139482 0.180265 0.385763 0 0 -1
0.179583 0.233138 0.375894 0 0 -1
-0.156056 0.0755258 0.385763 0 0 -1
-0.171148 0.236037 0.624303 -8.76253e-06 -0.992545 0.121878
-0.0417803 0.152836 0.41148 0 0 1
0.200503 -0.264837 0.191307 -0.781824 -0.623499 0
-0.0406985 0.213948 0.41148 0 0 1
0.216568 -0.260557 0.0181162 0.975258 -0.221072 0
0.145597 0.194114 0.41148 0 0 1
0.134592 0.00514215 0.385763 0 0 -1
-0.116449 0.109501 0.41148 0 0 1
0.0115276 0.139227 0.41148 0 0 1
0.0626568 -0.231608 0.41148 0 0 1
-0.143245 0.253062 0.375894 0 0 -1
-0.0855866 0.239899 0.375894 0 0 -1
0.0746343 -0.203576 0.385763 0 0 -1
0.209649 -0.0669591 0.381049 0.999226 0.039339 0
-0.0844357 0.236041 0.624348 -8.76253e-06 -0.992545 0.121878
0.0248026 0.154009 0.385763 0 0 -1
0.199358 -0.263401 0.150981 -0.781824 -0.623499 0
0.184653 0.0693761 0.401397 0.999283 0.0378635 0
-0.0404918 -0.203795 0.385763 0 0 -1
-0.00823893 0.197498 0.385763 0 0 -1
-0.213572 -0.26549 0.180385 -0.783042 -0.621969 0
0.196708 -0.248757 0.399882 0.999283 0.0378635 0
0.19815 -0.261092 0.233434 -0.975209 -0.221288 0
0.0151319 -0.0804641 0.385763 0 0 -1
-0.154448 0.0702609 0.41148 0 0 1
0.17444 0.0470996 0.385763 0 0 -1
0.0114847 0.238958 0.648108 -8.76253e-06 -0.992545 0.121878
-0.0258815 0.101784 0.385763 0 0 -1
-0.0823578 0.256266 0.62705 -2.05649e-05 0.992544 -0.121889
-0.181036 0.236272 0.242754 0.783042 -0.621968 0
-0.175134 -0.267794 0.378696 0 -1 0
-0.0204675 -0.252747 0.375894 0 0 -1
0.0467261 -0.0430298 0.385763 0 0 -1
0.0655553 0.252819 0.375894 0 0 -1
0.202125 0.0742658 0.385763 0 0 1
-0.0313042 0.0469801 0.385763 0 0 -1
-0.00337733 -0.0781014 0.385763 0 0 -1
-0.128389 0.222325 0.385763 0 0 -1
0.189505 -0.0909357 0.41148 0 0 1
-0.0720297 -0.178198 0.41148 0 0 1
0.0165664 -0.0958786 0.41148 0 0 1
0.209393 0.243348 0.573027 0.831496 0.547067 0.0966012
-0.167658 -0.0329515 0.41148 0 0 1
-0.185092 0.0577951 0.392687 -0.999283 0.0378635 0
-0.184622 0.234275 0.580157 0.432147 -0.901803 0
-0.121078 -0.217577 0.41148 0 0 1
0.0651231 -0.082784 0.385763 0 0 -1
0.198276 -0.254189 0.0606569 -0.975086 0.221827 0
-0.193797 0.235938 0.471585 -0.781823 -0.623501 0
-0.167445 0.246751 0.697463 -0.524605 -0.727395 0.442363
-0.180197 0.186991 0.39046 -0.999283 0.0378635 0
0.204478 -0.248598 0.310406 -0.433123 0.901335 0
-0.202995 -0.228481 0.446591 0.423767 0.693867 -0.582211
-0.107646 0.259052 0.649759 -2.7001e-05 0.992559 -0.121762
0.0272238 0.18934 0.385763 0 0 -1
0.0940272 -0.163291 0.385763 0 0 -1
-0.0857753 0.0530084 0.385763 0 0 -1
0.177119 -0.0651195 0.41148 0 0 1
-0.213435 0.209139 0.561645 -0.623178 0.135812 -0.770197
0.110929 -0.150583 0.41148 0 0 1
0.177712 0.243408 0.250414 -0.974666 -0.223664 0
0.163787 0.25332 0.603236 0 -0.121473 -0.992595
-0.0719412 0.220201 0.385763 0 0 -1
-0.0129077 0.146543 0.385763 0 0 -1
0.137545 -0.0390797 0.385763 0 0 -1
-0.198903 0.123955 0.549319 0.901535 0.0751415 -0.426132
0.0952191 0.256389 0.628063 1.9442e-05 0.992515 -0.122121
0.0731648 0.160706 0.385763 0 0 -1
-0.179608 -0.187668 0.385763 0 0 -1
0.18587 0.253173 0.146368 0 1 0
-0.204313 -0.267162 0.280981 0.433123 -0.901335 0
-0.0331211 0.266183 0.707812 0 0.992622 -0.12125
0.169594 0.238963 0.64815 8.2891e-06 -0.992557 0.121779
0.197457 -0.257789 0.0282041 -0.975086 0.221827 0
0.189872 0.253113 0.426218 0.434088 0.90087 0
0.115141 -0.0707781 0.385763 0 0 -1
-0.131688 -0.267794 0.410868 0 -1 0
-0.125165 0.247628 0.718197 -0.0440215 -0.939676 0.33922
-0.150368 -0.204959 0.385763 0 0 -1
0.181505 0.129322 0.41148 0 0 1
-0.0637585 0.0367698 0.41148 0 0 1
0.108269 0.242781 0.679219 -2.56608e-05 -0.992521 0.122072
0.104477 0.110227 0.41148 0 0 1
-0.197635 -0.248136 0.423204 0.973761 0.221439 -0.0524748
-0.12221 0.236594 0.628848 -8.76253e-06 -0.992545 0.121878
0.04787 -0.260177 0.41148 0 0 1
0.115193 0.239952 0.375894 0 0 -1
-0.0373844 -0.185422 0.41148 0 0 1
0.200717 0.0108676 0.385763 0 0 1
-0.169455 0.253416 0.382397 0 1 0
-0.0342307 -0.123025 0.41148 0 0 1
0.114356 0.238008 0.640364 8.2891e-06 -0.992557 0.121779
-0.161109 0.261145 0.666821 3.02486e-05 0.992515 -0.122123
0.18777 0.253173 0.548756 0 1 0
-0.140862 0.258092 0.641942 -2.7001e-05 0.992559 -0.121762
0.169962 -0.124364 0.41148 0 0 1
0.216846 -0.166269 0.502471 0.973763 -0.0901165 0.208961
-0.180531 0.250174 0.515449 0.783042 0.621968 0
0.213549 -0.250319 0.383996 -0.78182 -0.623505 0
0.113251 -0.111066 0.385763 0 0 -1
0.123411 0.199869 0.41148 0 0 1
0.0313915 0.110629 0.385763 0 0 -1
-0.0323972 0.257934 0.640631 -2.05649e-05 0.992544 -0.121889
-0.171952 0.0870509 0.41148 0 0 1
0.161075 -0.239648 0.41148 0 0 1
0.0453107 0.264681 0.695589 -6.73384e-05 0.992581 -0.121586
0.0588848 0.235353 0.618736 0 -0.992545 0.121878
0.183536 0.0944591 0.38488 -0.999226 -0.0393389 0
0.139381 0.0400946 0.41148 0 0 1
-0.0399913 0.249145 0.375894 0 0 -1
0.129224 0.250731 0.708663 -0.17691 -0.529621 -0.829581
0.0766866 -0.17322 0.41148 0 0 1
0.149747 -0.11621 0.385763 0 0 -1
0.153605 -0.211319 0.385763 0 0 -1
0.00770904 0.261969 0.673511 -2.7001e-05 0.992559 -0.121762
0.148942 -0.079014 0.385763 0 0 -1
-0.178823 -0.234862 0.41148 0 0 1
0.129519 0.113348 0.385763 0 0 -1
-0.08364 -0.173605 0.385763 0 0 -1
0.204148 0.209902 0.560014 -0.222726 0.16929 -0.96007
0.083079 0.263891 0.68915 -8.30972e-06 0.99253 -0.121998
0.179114 -0.0291154 0.385763 0 0 -1
-0.204819 -0.248434 0.229967 0.433123 0.901335 0
0.0449116 0.0340483 0.385763 0 0 -1
0.197672 0.122032 0.553339 -1 0 0
0.0445921 0.141335 0.41148 0 0 1
0.0811753 0.259414 0.652662 -2.05649e-05 0.992544 -0.121889
0.178339 0.24641 0.371154 -0.974541 0.224211 0
0.027332 -0.00959358 0.41148 0 0 1
0.0120807 -0.144385 0.385763 0 0 -1
-0.172909 0.254103 0.609456 -2.05649e-05 0.992544 -0.121889
0.0692257 0.0384061 0.41148 0 0 1
-0.0088523 -0.113205 0.41148 0 0 1
0.192377 -0.130085 0.375914 -0.999226 -0.0393389 0
0.102943 -0.234467 0.41148 0 0 1
-0.203319 0.090497 0.375894 0 0 -1
-0.180718 0.0371751 0.385763 0 0 -1
-0.199342 0.0496513 0.535286 0.901535 0.0751415 -0.426132
-0.0908265 -0.059829 0.41148 0 0 1
-0.120609 0.0543001 0.41148 0 0 1
0.167539 -0.178701 0.41148 0 0 1
0.12519 -0.267794 0.394203 0 -1 0
0.0920855 0.0532543 0.385763 0 0 -1
0.0667002 0.0125573 0.41148 0 0 1
0.162926 0.0714492 0.385763 0 0 -1
0.14014 -0.0263272 0.41148 0 0 1
-0.133649 0.0878539 0.385763 0 0 -1
-0.0319824 0.261184 0.66712 -2.7001e-05 0.992559 -0.121762
-0.200578 -0.234431 0.375894 0 0 -1
0.0433513 0.178215 0.41148 0 0 1
0.161601 0.153536 0.385763 0 0 -1
-0.194948 0.23738 0.513357 -0.781823 -0.623501 0
0.216924 0.0404905 0.54055 1 0 0
0.152885 -0.0606967 0.41148 0 0 1
-0.0752669 -0.267794 0.385187 0 -1 0
-0.0473528 -0.257943 0.41148 0 0 1
0.108495 -0.267794 0.403628 0 -1 0
0.195545 -0.0477944 0.385763 0 0 1
-0.216924 -0.0411979 0.523399 -1 0 0
-0.118257 -0.267794 0.37741 0 -1 0
0.197712 -0.256669 0.260444 -0.975086 0.221827 0
-0.0631808 0.266772 0.725964 0 0.946872 0.321612
-0.0655866 0.258891 0.648435 -3.67035e-05 0.992566 -0.121704
0.197131 0.244844 0.225296 0.97459 0.223994 0
0.199771 -0.25192 0.119309 -0.781821 0.623503 0
-0.19119 -0.10314 0.406994 -0.999283 0.0378635 0
0.199338 -0.232259 0.446865 -0.773799 0.485205 -0.407199
0.0171868 -0.0427032 0.385763 0 0 -1
0.215194 -0.263458 0.11364 0.781822 -0.623501 0
0.0446756 0.100156 0.41148 0 0 1
0.0588952 -0.152466 0.41148 0 0 1
0.178025 0.245046 0.0666294 -0.974541 0.224211 0
0.105022 0.262047 0.674121 -3.67035e-05 0.992566 -0.121704
-0.11581 -0.0526441 0.41148 0 0 1
-0.189911 -0.0693763 0.395787 -0.999283 0.0378635 0
0.0723123 0.253549 0.604942 0 0.992544 -0.121889
-0.215791 -0.0979624 0.519631 -0.900557 -0.075493 0.428133
-0.175125 -0.214048 0.41148 0 0 1
-0.21288 -0.149023 0.383971 -0.999226 0.039339 0
0.195165 -0.200916 0.384702 -0.999226 -0.0393389 0
-0.0542249 -0.258014 0.375894 0 0 -1
0.162426 0.112863 0.41148 0 0 1
-0.188091 -0.0212221 0.378569 0.999226 -0.0393389 0
0.0235945 0.0831097 0.385763 0 0 -1
0.162448 0.0873599 0.41148 0 0 1
0.196834 0.246136 0.113609 0.97459 0.223994 0
-0.0993214 0.164543 0.41148 0 0 1
0.00535668 0.251845 0.41148 0 0 1
0.147731 0.25918 0.716315 0.555503 0.102436 0.825181
-0.196313 -0.238347 0.400413 -0.999283 0.0378635 0
-0.0566249 0.244118 0.690101 -6.5454e-06 -0.992519 0.122094
0.192429 0.25305 0.613441 0.432649 0.894842 -0.10988
0.208863 -0.239618 0.422376 0 0.973022 -0.230714
-0.185732 0.233921 0.562 0 -1 0
0.0674302 -0.153283 0.385763 0 0 -1
-0.19822 -0.261399 0.355561 0.975209 -0.221288 0
0.138502 0.237021 0.632322 8.2891e-06 -0.992557 0.121779
0.0323096 0.238658 0.385763 0 0 -1
0.0907605 -0.0118392 0.41148 0 0 1
0.0644202 0.0738209 0.41148 0 0 1
-0.199402 0.178335 0.375894 0 0 -1
0.211928 -0.0806725 0.509315 0.624399 0.13564 -0.769238
-0.0910578 0.0782238 0.41148 0 0 1
0.185977 0.235065 0 0 0 -1
-0.109763 0.0461249 0.385763 0 0 -1
0.107874 0.0759745 0.385763 0 0 -1
0.0549783 -0.267794 0.394581 0 -1 0
-0.118766 0.241775 0.604649 0 -0.121473 -0.992595
0.197385 -0.26662 0.40965 0.999283 0.0378635 0
0.131743 0.221112 0.385763 0 0 -1
-0.127693 -0.248258 0.41148 0 0 1
0.0865223 0.127288 0.41148 0 0 1
0.132423 0.0337763 0.385763 0 0 -1
-0.146663 0.246482 0.708012 -0.127177 -0.943078 0.307293
-0.0783833 -0.221734 0.41148 0 0 1
-0.0348685 -0.000585973 0.41148 0 0 1
0.0770674 0.212484 0.385763 0 0 -1
-0.209197 -0.26754 0.205722 0 -1 0
-0.19256 -0.13928 0.401953 -0.999283 0.0378635 0
0.0962363 0.0805444 0.41148 0 0 1
-0.102019 0.0972919 0.385763 0 0 -1
0.179027 0.24828 0.120956 -0.781823 0.623501 0
-0.110836 0.236872 0.375894 0 0 -1
0.134738 0.245546 0.41148 0 0 1
0.0216396 -0.191603 0.385763 0 0 -1
-0.180836 -0.0102602 0.41148 0 0 1
-0.0489735 -0.267794 0.38979 0 -1 0
-0.202868 0.142977 0.54859 0.623178 0.135809 -0.770198
0.156937 0.250732 0.375894 0 0 -1
-0.137944 0.170619 0.41148 0 0 1
-0.0419279 -0.132783 0.385763 0 0 -1
-0.163084 0.107706 0.41148 0 0 1
-0.187367 -0.0976043 0.385763 0 0 -1
0.0347007 0.262211 0.730656 0 0.339541 0.940591
-0.167834 0.0498959 0.41148 0 0 1
-0.120647 0.202229 0.385763 0 0 -1
-0.208711 -0.178707 0.505801 0 -0.396099 0.918208
-0.0701458 0.265581 0.702903 2.038e-05 0.992528 -0.122016
-0.100972 -0.248045 0.376983 0 1 0
0.197153 0.244749 0.482466 0.97459 0.223994 0
-0.0778974 -0.121777 0.41148 0 0 1
-0.106395 0.0227687 0.41148 0 0 1
-0.00317585 -0.249056 0.41148 0 0 1
0.00505818 0.0150904 0.385763 0 0 -1
-0.0498299 -0.0717934 0.385763 0 0 -1
-0.207056 0.0224186 0.526279 0.222182 0.169314 -0.960192
0.190501 0.234282 0.348301 0.432059 -0.901846 0
-0.0242625 0.119972 0.41148 0 0 1
-0.106293 0.263571 0.712644 0.123167 0.693698 -0.709657
0.199237 0.197521 0.376723 0.999226 0.039339 0
-0.0523881 0.247717 0.603922 0 -0.121473 -0.992595
0.108912 0.166298 0.41148 0 0 1
0.0471993 0.147308 0.385763 0 0 -1
0.0496142 0.242303 0.675323 2.50348e-05 -0.992558 0.121773
0.0392303 0.230478 0.41148 0 0 1
-0.197223 0.242649 0.547588 -0.974716 -0.223448 0
0.160086 -0.144238 0.41148 0 0 1
-0.147909 -0.212715 0.41148 0 0 1
0.0641841 0.229465 0.385763 0 0 -1
0.0979593 0.125415 0.385763 0 0 -1
-0.0778827 0.178896 0.41148 0 0 1
-0.0316661 -0.211846 0.41148 0 0 1
-0.207738 0.15505 0.569554 -0.222724 -0.16929 0.96007
0.205916 -0.248299 0.365979 0 1 0
-0.0209326 0.0681663 0.385763 0 0 -1
0.187221 0.00162551 0.400312 0.999283 0.0378635 0
0.0909207 0.249065 0.725898 0 -0.840842 0.541281
0.00614397 0.0694366 0.41148 0 0 1
-0.183467 0.100696 0.395205 -0.999283 0.0378635 0
-0.18942 0.233921 0.293619 0 -1 0
0.0452662 -0.0510208 0.41148 0 0 1
-0.0738278 0.234113 0.608635 0 -0.992545 0.121878
-0.0872537 -0.0644295 0.385763 0 0 -1
0.0798489 0.243456 0.41148 0 0 1
0.114359 0.0309885 0.385763 0 0 -1
-0.0625669 0.176294 0.385763 0 0 -1
-0.035813 0.237605 0.637083 -8.76253e-06 -0.992545 0.121878
0.209796 -0.244858 0.400882 0.423472 0.881469 -0.209006
0.151128 -0.153124 0.385763 0 0 -1
0.171019 0.242133 0.41148 0 0 1
0.198961 -0.14872 0.501129 -0.900605 0.0754771 -0.428036
0.132492 0.261053 0.666009 -3.67035e-05 0.992566 -0.121704
0.112458 -0.178011 0.385763 0 0 -1
-0.188557 0.253173 0.197426 0 1 0
0.182973 0.11372 0.392259 0.999283 0.0378635 0
-0.168721 0.215696 0.385763 0 0 -1
0.0787366 -0.0453404 0.41148 0 0 1
0.0188158 0.258893 0.648428 -2.05649e-05 0.992544 -0.121889
0.20341 -0.249111 0.215622 -0.433123 0.901335 0
-0.116812 0.143211 0.41148 0 0 1
-0.136732 -0.260229 0.385763 0 0 1
-0.0123875 -0.0517406 0.41148 0 0 1
-0.0995239 0.246736 0.711427 0 -0.992555 0.121795
-0.0284071 0.246518 0.709651 0 -0.992555 0.121795
0.0526782 0.255063 0.617274 0 0.992544 -0.121889
-0.0403415 0.0187517 0.385763 0 0 -1
-0.20958 -0.248339 0.340212 -0.433036 0.901377 0
0.133065 0.239813 0.385763 0 0 -1
-0.169057 -0.231209 0.385763 0 0 -1
-0.190846 0.252643 0.304817 -0.435067 0.900398 0
0.00714539 0.115164 0.41148 0 0 1
0.133014 -0.111245 0.41148 0 0 1
-0.0959038 0.240406 0.659892 2.50348e-05 -0.992558 0.121773
-0.124106 -0.194053 0.385763 0 0 -1
-0.0578486 -0.0351211 0.41148 0 0 1
-0.127097 0.239691 0.654067 2.50348e-05 -0.992558 0.121773
0.157008 -0.107231 0.41148 0 0 1
-0.215274 -0.252491 0.128716 -0.783039 0.621972 0
0.117873 -0.192065 0.41148 0 0 1
-0.0683827 -0.0652713 0.41148 0 0 1
-0.116673 -0.103309 0.41148 0 0 1
-0.0164783 0.00189608 0.385763 0 0 -1
0.204696 -0.206095 0.472034 -0.42546 0.693259 -0.581701
-0.143691 0.235906 0.623238 -8.76253e-06 -0.992545 0.121878
-0.131893 -0.144902 0.41148 0 0 1
-0.0480424 0.264817 0.696695 3.02486e-05 0.992515 -0.122123
-0.178665 0.227413 0.389348 -0.999283 0.0378635 0
-0.0471912 0.241337 0.667473 2.50348e-05 -0.992558 0.121773
-0.160551 0.263727 0.701878 -0.351111 0.833069 0.427454
0.191718 -0.15557 0.385763 0 0 -1
-0.000255853 0.261623 0.712895 0 0.522803 -0.852453
0.03069 0.195991 0.41148 0 0 1
-0.115786 0.0252124 0.385763 0 0 -1
-0.176237 0.235827 0.605377 0 -0.121473 -0.992595
0.209406 0.109845 0.542127 0.222182 0.169314 -0.960192
-0.208789 0.0699477 0.534951 -0.222941 0.169284 -0.960021
-0.103798 -0.26738 0.385763 0 0 1
-0.1903 0.131214 0.375894 0 0 -1
-0.133801 0.236091 0.41148 0 0 1
-0.203549 0.188383 0.556356 0.222182 0.169314 -0.960192
-0.0487713 -0.112822 0.385763 0 0 -1
-0.189211 0.233921 0.335485 0 -1 0
-0.217088 -0.258261 0.0908114 -0.974716 -0.223449 0
0.150234 0.257517 0.637241 1.9442e-05 0.992515 -0.122121
-0.0234562 0.124181 0.385763 0 0 -1
0.196564 -0.231628 0.375894 0 0 -1
-0.158278 0.159181 0.41148 0 0 1
-0.131922 -0.0758642 0.385763 0 0 -1
-0.059179 0.0105021 0.41148 0 0 1
-0.157501 0.10555 0.385763 0 0 -1
0.157831 -0.0794025 0.41148 0 0 1
0.155342 -0.0978671 0.385763 0 0 -1
-0.150578 0.212648 0.41148 0 0 1
-0.145388 -0.153471 0.385763 0 0 -1
-0.190046 -0.267794 0.395947 0 -1 0
-0.102506 -0.192395 0.385763 0 0 -1
-0.000238657 0.220059 0.41148 0 0 1
-0.189091 0.233921 0.442288 0 -1 0
-0.0459929 -0.0645338 0.41148 0 0 1
-0.159225 -0.155581 0.41148 0 0 1
-0.187044 0.233921 0.189289 0 -1 0
-0.0837094 -0.0816023 0.41148 0 0 1
-0.121925 0.196254 0.41148 0 0 1
0.135633 0.0712688 0.41148 0 0 1
0.165478 0.212912 0.41148 0 0 1
0.187189 0.233921 0.58458 0 -1 0
-0.17828 0.147457 0.385763 0 0 -1
-0.183137 0.104616 0.376248 0.999226 -0.0393389 0
-0.215423 -0.243593 0.449551 -0.774276 -0.484836 0.406732
0.196751 0.24059 0.183704 0.974716 -0.223448 0
-0.0675827 0.131308 0.385763 0 0 -1
-0.186679 -0.168882 0.41148 0 0 1
-0.156438 -0.101375 0.41148 0 0 1
0.033778 -0.238825 0.41148 0 0 1
0.158051 0.23502 0.616023 0 -0.992545 0.121878
0.204272 -0.0163725 0.385763 0 0 1
0.204978 0.0288738 0.5279 -0.222726 0.16929 -0.96007
0.180773 0.256279 0.683343 0.751397 0.48624 0.446063
-0.195013 0.249621 0.151651 -0.781823 0.623501 0
0.152211 0.255078 0.690636 0.555573 0.101463 0.825254
0.101516 0.16963 0.385763 0 0 -1
-0.0465781 -0.0517623 0.385763 0 0 -1
0.00463122 0.239384 0.385763 0 0 1
-0.205613 -0.26754 0.253466 0 -1 0
-0.0316333 0.237066 0.385763 0 0 -1
-0.156253 0.0284954 0.385763 0 0 -1
0.190444 0.252838 0.567459 0.434088 0.90087 0
-0.142993 -0.0131016 0.41148 0 0 1
0.196531 0.247454 0.29317 0.97459 0.223994 0
-0.0249774 -0.184779 0.385763 0 0 -1
-0.18227 0.257628 0.643827 0.220684 0.961783 -0.162085
0.0337639 -0.12504 0.385763 0 0 -1
-0.203222 0.1032 0.541411 0.222398 0.169303 -0.960144
0.0405108 -0.215922 0.385763 0 0 -1
0.0923589 0.238942 0.647978 8.2891e-06 -0.992557 0.121779
-0.181903 0.239184 0.640936 0.618412 -0.78537 -0.0275833
-0.179019 0.248271 0.0940197 0.783042 0.621968 0
-0.202789 0.221216 0.580152 0.623178 -0.135809 0.770198
0.0728331 0.00698343 0.385763 0 0 -1
-0.21427 -0.264611 0.345292 -0.783042 -0.621969 0
0.203344 -0.0502272 0.514332 -0.222726 0.16929 -0.96007
-0.207289 -0.214107 0.462191 0 0.766051 -0.642779
-0.190948 0.234498 0.271426 -0.433035 -0.901377 0
0.105866 0.240536 0.660963 -2.56608e-05 -0.992521 0.122072
-0.0170361 0.201137 0.41148 0 0 1
-0.0735207 0.135017 0.41148 0 0 1
-0.0754329 0.0196311 0.385763 0 0 -1
-0.0299915 0.189861 0.385763 0 0 -1
-0.199864 -0.259532 0.404767 0.773428 -0.616803 0.146163
0.0775065 0.0408264 0.385763 0 0 -1
-0.198904 -0.168011 0.375894 0 0 -1
-0.110606 0.142229 0.385763 0 0 -1
-0.0289825 0.253416 0.409988 0 1 0
-0.159175 0.242123 0.67388 -6.5454e-06 -0.992519 0.122094
0.162773 0.0384909 0.41148 0 0 1
0.190786 -0.0896793 0.376585 -0.999226 -0.0393389 0
-0.215942 -0.253332 0.0444779 -0.783039 0.621972 0
0.181362 0.14969 0.379239 -0.999226 -0.0393389 0
-0.206643 -0.0239193 0.537947 0.22236 -0.169305 0.960152
-0.022605 -0.0333712 0.41148 0 0 1
-0.0491025 0.0712401 0.41148 0 0 1
0.0292028 -0.0995138 0.385763 0 0 -1
0.180799 0.236582 0.147585 -0.781823 -0.623501 0
0.0843937 -0.0882914 0.41148 0 0 1
0.111358 -0.245265 0.385763 0 0 -1
0.210081 0.164648 0.570704 0.222182 -0.169314 0.960192
-0.156533 -0.267794 0.394957 0 -1 0
-0.188194 0.00152194 0.375894 0 0 -1
0.0252857 0.248296 0.722098 0 -0.992709 0.120535
0.197371 -0.266258 0.387288 0.999283 0.0378635 0
-0.217122 -0.256764 0.383065 -0.999226 0.039339 0
-0.106008 -0.126641 0.385763 0 0 -1
0.199173 0.168171 0.556562 -0.900556 0.0754934 -0.428136
0.0816351 -0.240934 0.41148 0 0 1
-0.207583 -0.26754 0.0430439 0 -1 0
-0.192746 -0.144196 0.3861 -0.999283 0.0378635 0
-0.137341 0.113126 0.41148 0 0 1
0.0724691 -0.260816 0.385763 0 0 -1
0.20128 0.145612 0.37611 0.999226 0.039339 0
0.199322 -0.263356 0.33007 -0.781824 -0.623499 0
0.0886456 0.0906802 0.385763 0 0 -1
0.213714 -0.250526 0.334936 0.78182 0.623505 0
0.208601 0.0873707 0.537978 0.222182 0.169314 -0.960192
0.039696 0.226007 0.385763 0 0 -1
-0.0392156 -0.0290936 0.385763 0 0 -1
0.0811987 -0.191706 0.41148 0 0 1
-0.202109 0.24867 0.572997 -0.502674 0.814064 -0.290893
0.007562 -0.0689956 0.41148 0 0 1
0.0657367 0.203368 0.41148 0 0 1
0.121818 0.149131 0.41148 0 0 1
0.156563 -0.258361 0.385763 0 0 -1
0.00254822 -0.231147 0.41148 0 0 1
-0.199706 -0.252002 0.375941 -0.781821 -0.623503 0
-0.10699 -0.00227278 0.41148 0 0 1
-0.180887 0.168786 0.400971 -0.999283 0.0378635 0
0.149031 0.0159989 0.385763 0 0 -1
-0.21165 -0.024213 0.519054 -0.623015 0.135832 -0.770326
-0.147598 -0.0590602 0.41148 0 0 1
-0.00305489 -0.0472592 0.385763 0 0 -1
-0.142348 0.12965 0.385763 0 0 -1
-0.0101469 -0.00762746 0.41148 0 0 1
0.0571678 0.225919 0.41148 0 0 1
-0.0552154 0.00466582 0.385763 0 0 -1
0.0860847 0.236549 0.62848 8.2891e-06 -0.992557 0.121779
-0.177462 0.242133 0.668466 0.188943 -0.981966 -0.00653482
0.0673129 0.245681 0.702815 -6.5454e-06 -0.992519 0.122094
-0.0892004 -0.267794 0.399819 0 -1 0
0.188555 -0.21882 0.385763 0 0 -1
-0.180604 0.236816 0.485477 0.783042 -0.621968 0
0.00621668 -0.165644 0.41148 0 0 1
-0.194398 0.236691 0.116564 -0.781823 -0.623501 0
0.204562 -0.123807 0.501074 -0.222942 0.169284 -0.960021
-0.00538459 -0.254892 0.385763 0 0 -1
0.212472 0.110822 0.560148 0.623039 -0.135831 0.770306
0.0536251 0.237515 0.636352 8.2891e-06 -0.992557 0.121779
-0.209195 -0.11331 0.375894 0 0 -1
-0.183196 0.205095 0.375894 0 0 -1
-0.0092686 0.248364 0.603843 0 -0.121473 -0.992595
0.209487 -0.206905 0.375894 0 0 -1
-0.129375 -0.067857 0.41148 0 0 1
0.141383 -0.244214 0.41148 0 0 1
-0.180727 0.236662 0.362912 0.783042 -0.621968 0
-0.0423571 -0.242494 0.41148 0 0 1
0.123632 0.00751993 0.41148 0 0 1
0.101754 0.189533 0.385763 0 0 -1
-0.199774 -0.133268 0.515206 0.623178 -0.135809 0.770198
0.0553442 -0.212707 0.41148 0 0 1
0.0204906 0.256107 0.625759 1.9442e-05 0.992515 -0.122121
-0.182513 0.260725 0.666778 -0.222967 0.97199 -0.0743073
0.0619809 -0.219363 0.385763 0 0 -1
0.112283 -0.150411 0.385763 0 0 -1
0.188102 -0.0216303 0.398136 0.999283 0.0378635 0
-0.0786954 0.192719 0.385763 0 0 -1
-0.114577 -0.156172 0.385763 0 0 -1
0.115218 0.256058 0.625373 0 0.992544 -0.121889
-0.105744 -0.216884 0.385763 0 0 -1
-0.167429 -0.095786 0.385763 0 0 -1
0.178636 0.239381 0.201876 -0.974666 -0.223664 0
0.199294 -0.18536 0.487013 -0.772693 0.251428 -0.582863
0.200173 -0.104063 0.52067 -0.623039 -0.135829 0.770307
0.214156 -0.25108 0.0687801 0.78182 0.623505 0
-0.216302 -0.261685 0.00400081 -0.974716 -0.223449 0
-0.06833 0.245677 0.385763 0 0 -1
0.178504 0.24713 0.395682 -0.974541 0.224211 0
0.115845 -0.213837 0.41148 0 0 1
-0.0366451 -0.0204112 0.41148 0 0 1
0.0626155 -0.172744 0.385763 0 0 -1
0.204134 -0.176019 0.385763 0 0 1
-0.189684 0.0761684 0.375894 0 0 -1
0.187328 0.0382276 0.375894 0 0 -1
0.107105 0.245763 0.703486 7.30828e-06 -0.99253 0.121997
0.0392109 0.247448 0.713304 0 0.122026 0.992527
-0.00919365 0.24855 0.719775 0 -0.947468 -0.319852
-0.0225271 0.234567 0.612333 0 -0.992545 0.121878
-0.118332 0.26206 0.726586 -0.176545 0.531023 0.828762
-0.00341661 -0.0876686 0.41148 0 0 1
-0.21675 -0.256099 0.249114 -0.974591 0.223993 0
0.0224931 -0.0617542 0.385763 0 0 -1
-0.0885707 0.263119 0.682886 3.02486e-05 0.992515 -0.122123
0.189889 0.25706 0.645678 0.618563 0.785255 0.0274639
0.21503 -0.263663 0.159036 0.781822 -0.623501 0
0.0515875 -0.250847 0.375894 0 0 -1
0.183174 0.234972 0.0475135 -0.433123 -0.901335 0
0.0336112 0.234028 0.607949 0 -0.992545 0.121878
-0.188999 -0.045322 0.391602 -0.999283 0.0378635 0
-0.120812 -0.171878 0.41148 0 0 1
0.0260285 0.244369 0.692148 7.30828e-06 -0.99253 0.121997
-0.135312 0.0684036 0.41148 0 0 1
0.0961613 -0.128764 0.41148 0 0 1
-0.129986 -0.110228 0.385763 0 0 -1
0.134718 -0.206363 0.385763 0 0 -1
-0.191781 0.252191 0.384842 -0.435067 0.900398 0
-0.195004 -0.203792 0.38706 -0.999283 0.0378635 0
-0.0488656 0.136454 0.385763 0 0 -1
-0.132972 0.264363 0.692983 2.038e-05 0.992528 -0.122016
0.159016 0.0904463 0.385763 0 0 -1
-0.160749 -0.0557796 0.385763 0 0 -1
-0.200147 -0.0120243 0.385763 0 0 1
-0.216777 0.116952 0.555453 -0.900557 -0.075493 0.428133
-0.196701 0.240369 0.221688 -0.974716 -0.223448 0
0.0115397 -0.262009 0.41148 0 0 1
0.121964 0.181586 0.41148 0 0 1
0.00205378 0.156101 0.41148 0 0 1
0.178446 0.240209 0.535993 -0.974666 -0.223664 0
0.202908 -0.266487 0.0119946 -0.433123 -0.901335 0
-0.109191 0.235538 0.620249 -8.76253e-06 -0.992545 0.121878
0.191037 0.112991 0.375894 0 0 -1
0.214807 0.225892 0.565826 0.619677 0.255628 -0.742061
-0.0373075 -0.255937 0.385763 0 0 1
-0.0194729 0.251118 0.375894 0 0 -1
-0.154624 0.0406823 0.41148 0 0 1
-0.0273694 -0.239049 0.385763 0 0 -1
0.100695 0.235312 0.385763 0 0 -1
-0.00686809 -0.0975126 0.385763 0 0 -1
-0.0261673 0.0359358 0.41148 0 0 1
-0.207824 -0.0482464 0.533687 -0.222724 -0.16929 0.96007
-0.134662 -0.10717 0.41148 0 0 1
0.145214 0.176688 0.41148 0 0 1
-0.00494458 0.240054 0.657018 -2.56608e-05 -0.992521 0.122072
-0.0732079 -0.0242915 0.385763 0 0 -1
0.21637 -0.26143 0.0959723 0.975258 -0.221072 0
-0.131804 0.241112 0.665649 2.50348e-05 -0.992558 0.121773
0.14274 0.253416 0.394257 0 1 0
-0.07648 -0.198385 0.41148 0 0 1
-0.132486 -0.237582 0.385763 0 0 -1
0.0633807 -0.103573 0.385763 0 0 -1
0.123743 0.200071 0.385763 0 0 -1
-0.171536 0.197841 0.41148 0 0 1
0.195898 -0.227391 0.39769 0.999283 0.0378635 0
-0.103774 0.0608765 0.41148 0 0 1
0.0905383 0.23767 0.605152 0 -0.121473 -0.992595
0.115946 0.134413 0.385763 0 0 -1
0.0340426 0.133914 0.385763 0 0 -1
-0.120949 0.180803 0.385763 0 0 -1
-0.12162 -0.267794 0.395133 0 -1 0
0.0215256 -0.25717 0.385763 0 0 1
0.0148658 -0.215812 0.385763 0 0 -1
0.0638497 -0.0507421 0.385763 0 0 -1
0.197723 0.0738665 0.542984 -0.900556 0.0754934 -0.428136
-0.070463 -0.00442976 0.41148 0 0 1
0.177065 -0.246705 0.41148 0 0 1
-0.0678386 0.237359 0.635081 -8.76253e-06 -0.992545 0.121878
-0.0312897 -0.148527 0.41148 0 0 1
0.14629 0.131953 0.385763 0 0 -1
0.213546 -0.250315 0.0326092 0.78182 0.623505 0
0.184777 0.234202 0.084711 -0.433123 -0.901335 0
0.198606 0.196948 0.571214 -0.900556 -0.0754934 0.428136
-0.194139 0.236367 0.37954 -0.781823 -0.623501 0
0.19416 0.236381 0.264652 0.783042 -0.621968 0
-0.0913336 0.253416 0.41118 0 1 0
-0.19306 0.0910394 0.385763 0 0 1
0.164878 0.238878 0.385763 0 0 -1
0.126926 -0.188372 0.385763 0 0 -1
0.197974 -0.203725 0.487358 -0.973805 -0.0900447 0.208795
0.152485 -0.0610694 0.385763 0 0 -1
0.103132 -0.0694861 0.41148 0 0 1
-0.0335785 0.0852289 0.385763 0 0 -1
0.195059 0.237513 0.524543 0.783042 -0.621968 0
-0.19725 0.244328 0.0327016 -0.97459 0.223994 0
-0.184657 -0.126963 0.385763 0 0 -1
-0.15644 0.146171 0.385763 0 0 -1
-0.0121792 -0.215163 0.385763 0 0 -1
-0.123079 0.26295 0.709124 0.123167 0.693698 -0.709657
0.0124764 -0.267794 0.390281 0 -1 0
-0.0940037 -0.15537 0.41148 0 0 1
0.205232 -0.152299 0.514981 -0.222904 -0.169285 0.960029
0.119306 -0.166747 0.41148 0 0 1
0.214897 0.21185 0.575992 0.624399 -0.135623 0.769241
-0.0223688 -0.166883 0.385763 0 0 -1
0.0565705 -0.120549 0.385763 0 0 -1
-0.0376006 0.267092 0.725023 0 0.946872 0.321612
0.199614 0.179712 0.385763 0 0 1
0.20205 -0.249764 0.139613 -0.433123 0.901335 0
0.21629 -0.261784 0.182663 0.975258 -0.221072 0
-0.0849084 0.258506 0.645304 -3.67035e-05 0.992566 -0.121704
0.143503 0.131758 0.41148 0 0 1
0.0177698 0.233649 0.41148 0 0 1
0.136038 -0.225216 0.385763 0 0 -1
0.151291 0.262296 0.676137 -3.67035e-05 0.992566 -0.121704
-0.151565 -0.118584 0.385763 0 0 -1
-0.0420937 0.0445909 0.41148 0 0 1
0.180191 0.187154 0.395494 0.999283 0.0378635 0
0.0533516 0.239744 0.654511 -8.76253e-06 -0.992545 0.121878
-0.211106 -0.202923 0.475782 -0.42568 0.358324 -0.830904
0.187812 0.194067 0.385763 0 0 1
-0.0312396 0.138879 0.41148 0 0 1
0.119914 -0.0424287 0.385763 0 0 -1
0.211065 0.138509 0.565867 0.222182 -0.169314 0.960192
0.0707542 0.0894802 0.385763 0 0 -1
-0.202429 -0.249582 0.0307466 0.433123 0.901335 0
-0.0768784 0.0680665 0.385763 0 0 -1
0.0804392 -0.0188442 0.385763 0 0 -1
-0.00818785 0.0465767 0.385763 0 0 -1
0.0457944 0.253416 0.376382 0 1 0
0.130278 0.253416 0.378013 0 1 0
-0.0461713 0.230982 0.41148 0 0 1
0.159137 -0.0447922 0.385763 0 0 -1
0.109771 -0.12994 0.385763 0 0 -1
-0.215221 -0.15557 0.499051 -0.900606 0.0754766 -0.428033
-0.107159 -0.0276904 0.385763 0 0 -1
-0.164921 0.253416 0.406703 0 1 0
0.109322 -0.0937291 0.385763 0 0 -1
-0.0622542 -0.149885 0.385763 0 0 -1
0.215168 0.0544309 0.547821 0.901534 -0.0751152 0.426138
0.123497 0.234018 0.607862 0 -0.992545 0.121878
0.199532 -0.263618 0.0459624 -0.781824 -0.623499 0
-0.124313 0.239538 0.385763 0 0 -1
0.0939678 -0.255144 0.385763 0 0 -1
0.192403 -0.163982 0.41148 0 0 1
0.205061 0.0495825 0.379218 0.999226 0.039339 0
0.0378553 0.00750142 0.41148 0 0 1
0.188586 0.240322 0.651121 0.618059 -0.755718 0.216549
0.0466292 0.0718973 0.385763 0 0 -1
0.159916 -0.0217124 0.41148 0 0 1
0.133405 -0.210442 0.41148 0 0 1
-0.00878897 0.128364 0.41148 0 0 1
0.106661 0.253416 0.409546 0 1 0
0.0119334 -0.0394149 0.41148 0 0 1
-0.0725199 0.253416 0.410063 0 1 0
0.0718982 0.265245 0.711116 0 0.122026 0.992527
-0.186613 0.0163155 0.384876 0.999226 -0.0393389 0
0.118766 0.0127743 0.385763 0 0 -1
0.147492 0.152817 0.41148 0 0 1
-0.139584 -0.0145503 0.385763 0 0 -1
0.102729 0.251587 0.375894 0 0 -1
-0.0956999 0.205672 0.41148 0 0 1
0.188968 0.253173 0.0486468 0 1 0
-0.194858 -0.0434315 0.375894 0 0 -1
-0.00265178 -0.214452 0.41148 0 0 1
0.0535492 0.0460741 0.41148 0 0 1
-0.202273 0.00481422 0.524709 0.623178 0.135809 -0.770198
0.136727 0.111258 0.41148 0 0 1
-0.114959 -0.232356 0.385763 0 0 -1
-0.20818 -0.259734 0.418716 0 -0.973068 0.230517
0.143691 -0.248045 0.37751 0 1 0
-0.210739 -0.266943 0.15775 -0.433036 -0.901377 0
-0.181134 -0.195355 0.41148 0 0 1
0.149831 -0.267794 0.410023 0 -1 0
0.0305725 -0.267794 0.395873 0 -1 0
0.0530016 -0.1723 0.41148 0 0 1
-0.0922735 -0.0167491 0.41148 0 0 1
0.000669703 -0.127641 0.41148 0 0 1
-0.169123 0.193662 0.385763 0 0 -1
0.0150011 0.253416 0.39719 0 1 0
-0.184571 0.252792 0.00295111 0.434177 0.900828 0
0.206674 -0.051724 0.375894 0 0 -1
-0.203383 -0.249123 0.144581 0.433123 0.901335 0
0.181702 0.165073 0.375894 0 0 -1
0.157902 -0.174844 0.385763 0 0 -1
-0.0154844 -0.267794 0.381081 0 -1 0
-0.210187 -0.0533697 0.51353 -0.222941 0.169284 -0.960021
-0.181554 0.103389 0.41148 0 0 1
-0.0685216 0.0524706 0.385763 0 0 -1
-0.182501 0.253647 0.61901 0.432557 0.894885 -0.109885
-0.0314816 0.150166 0.385763 0 0 -1
-0.18048 0.236973 0.504029 0.783042 -0.621968 0
-0.192895 0.0421492 0.375894 0 0 -1
-0.070371 -0.00734013 0.385763 0 0 -1
0.14255 0.247594 0.703436 -0.351315 -0.833077 -0.427271
0.184757 -0.139631 0.41148 0 0 1
0.148607 -0.227934 0.41148 0 0 1
0.135013 -0.261381 0.385763 0 0 1
0.201535 -0.265827 0.174266 -0.433123 -0.901335 0
-0.102796 0.0992092 0.41148 0 0 1
-0.146891 0.0234364 0.41148 0 0 1
-0.0605135 -0.105574 0.41148 0 0 1
-0.0773749 -0.240815 0.41148 0 0 1
0.162657 0.194641 0.41148 0 0 1
0.213942 -0.262681 0.395662 0.773426 -0.616805 0.146164
0.0694044 0.144062 0.385763 0 0 -1
-0.0681023 -0.18064 0.385763 0 0 -1
-0.0568772 0.208561 0.41148 0 0 1
0.178948 0.248181 0.355309 -0.781823 0.623501 0
0.183991 0.234579 0.23726 -0.433123 -0.901335 0
0.216385 -0.252151 0.424637 0.973923 -0.220764 0.0523143
0.18249 -0.113029 0.41148 0 0 1
0.0640159 -0.100116 0.41148 0 0 1
0.164535 0.0225488 0.385763 0 0 -1
-0.102976 -0.218461 0.41148 0 0 1
-0.187689 -0.0107383 0.393011 -0.999283 0.0378635 0
-0.199164 -0.0772562 0.375894 0 0 -1
-0.0281994 0.0893162 0.41148 0 0 1
-0.178634 0.239388 0.412641 0.974666 -0.223664 0
0.100009 0.224759 0.41148 0 0 1
-0.00199127 0.0897855 0.41148 0 0 1
-0.0316814 0.253416 0.388806 0 1 0
-0.133936 0.238124 0.641298 -2.56608e-05 -0.992521 0.122072
-0.00327249 0.242413 0.676231 2.50348e-05 -0.992558 0.121773
-0.186761 0.160101 0.385763 0 0 1
0.192795 -0.116502 0.385763 0 0 1
0.12777 0.0278535 0.41148 0 0 1
-0.0786151 0.224011 0.41148 0 0 1
0.190624 -0.0881891 0.392653 0.999283 0.0378635 0
0.184606 0.252808 0.384387 -0.435156 0.900355 0
0.20906 -0.13436 0.375894 0 0 -1
0.151334 0.24321 0.41148 0 0 1
-0.139468 0.072084 0.385763 0 0 -1
0.216013 -0.00442913 0.535658 0.901534 -0.0751152 0.426138
0.165782 -0.267342 0.385763 0 0 -1
0.032456 0.152844 0.41148 0 0 1
-0.179718 0.237933 0.157392 0.783042 -0.621968 0
0.0216939 -0.0799676 0.41148 0 0 1
-0.15867 -0.255302 0.385763 0 0 -1
-0.216792 -0.25955 0.306715 -0.974716 -0.223449 0
0.18915 0.253173 0.532107 0 1 0
-0.00209296 -0.127318 0.385763 0 0 -1
0.00338022 0.185528 0.385763 0 0 -1
0.0902291 -0.267794 0.377655 0 -1 0
-0.180497 -0.244251 0.385763 0 0 -1
-0.0901891 -0.137723 0.41148 0 0 1
-0.188465 -0.046887 0.41148 0 0 1
-0.116385 0.0631314 0.385763 0 0 -1
-0.115264 0.113247 0.385763 0 0 -1
0.216924 -0.0421064 0.526343 1 0 0
-0.197639 -0.256991 0.129415 0.975086 0.221827 0
0.121864 -0.0912867 0.41148 0 0 1
0.106325 -0.104372 0.41148 0 0 1
-0.0702641 -0.046089 0.41148 0 0 1
0.0687807 0.139017 0.41148 0 0 1
-0.00794365 0.240277 0.385763 0 0 1
0.0901998 0.243151 0.682226 2.50348e-05 -0.992558 0.121773
0.197601 0.239077 0.378604 0.999226 0.039339 0
0.0254269 0.253937 0.608103 0 0.992544 -0.121889
0.194316 0.250506 0.463283 0.783042 0.621968 0
0.0735517 0.253416 0.404981 0 1 0
0.0478552 0.109425 0.385763 0 0 -1
-0.187868 0.253173 0.254325 0 1 0
-0.0557975 -0.174797 0.41148 0 0 1
0.0288082 0.0318147 0.41148 0 0 1
0.0370947 0.2409 0.663907 -2.56608e-05 -0.992521 0.122072
0.180547 0.250185 0.00362237 -0.781823 0.623501 0
0.179383 0.241234 0.628146 -0.781186 -0.619641 0.0761161
-0.0524887 0.250575 0.385763 0 0 1
-0.177836 0.244225 0.591382 0.974541 0.224211 0
-0.184543 0.234313 0.0928953 0.432147 -0.901803 0
0.0443394 0.0837049 0.41148 0 0 1
0.178907 0.238954 0.167082 -0.781823 -0.623501 0
0.21664 -0.255593 0.278938 0.975135 0.221611 0
-0.0207943 -0.260869 0.41148 0 0 1
-0.183103 0.252085 0.353601 0.434177 0.900828 0
-0.0684924 -0.215956 0.385763 0 0 -1
-0.172988 0.253216 0.656793 -0.980778 0.0237023 0.193679
-0.0841153 0.238041 0.640631 -8.76253e-06 -0.992545 0.121878
-0.170563 -0.109733 0.41148 0 0 1
0.0489732 0.162809 0.41148 0 0 1
0.146279 0.108178 0.385763 0 0 -1
-0.0836443 -0.230879 0.385763 0 0 -1
0.192714 0.094745 0.375894 0 0 -1
0.0295328 -0.158682 0.41148 0 0 1
0.207117 -0.26754 0.245104 0 -1 0
0.136327 -0.147711 0.41148 0 0 1
0.0265921 0.0674177 0.41148 0 0 1
-0.178031 0.242017 0.0557935 0.974666 -0.223664 0
-0.211567 -0.249293 0.179286 -0.433036 0.901377 0
-0.0920998 -0.107167 0.385763 0 0 -1
-0.0558861 -0.237506 0.385763 0 0 -1
0.178973 0.219283 0.410749 0.999283 0.0378635 0
-0.0872173 -0.248591 0.385763 0 0 1
0.162674 0.192864 0.385763 0 0 -1
0.0930265 0.20464 0.385763 0 0 -1
0.0573042 0.0446596 0.385763 0 0 -1
0.183459 0.0566182 0.41148 0 0 1
-0.0115338 0.255152 0.617999 1.9442e-05 0.992515 -0.122121
0.179155 0.20576 0.383619 -0.999226 -0.0393389 0
-0.107484 0.253416 0.400646 0 1 0
0.184042 0.0855011 0.39957 0.999283 0.0378635 0
0.182591 -0.192747 0.41148 0 0 1
0.216762 -0.205274 0.486041 0.973859 -0.0899834 0.208572
-0.101002 0.243261 0.68313 -6.5454e-06 -0.992519 0.122094
0.146807 0.0757039 0.385763 0 0 -1
-0.185976 0.253173 0.107674 0 1 0
0.0990098 -0.0716334 0.385763 0 0 -1
0.201104 -0.250249 0.0769393 -0.781821 0.623503 0
-0.176475 -0.0594318 0.385763 0 0 -1
-0.178005 0.244961 0.296513 0.974541 0.224211 0
-0.192649 0.251771 0.535087 -0.435067 0.900398 0
0.177432 0.256037 0.633935 0.980847 0.0237683 0.193325
0.0592774 0.181632 0.385763 0 0 -1
-0.168313 0.238563 0.385763 0 0 1
-0.0689144 0.0852516 0.41148 0 0 1
-0.0245661 0.217731 0.41148 0 0 1
-0.110549 0.254241 0.610577 1.9442e-05 0.992515 -0.122121
0.179728 -0.0253781 0.41148 0 0 1
0.0959219 0.254863 0.712392 0 0.122026 0.992527
0.195853 -0.0750756 0.375894 0 0 -1
0.0930103 -0.118626 0.385763 0 0 -1
-0.0887922 0.152419 0.41148 0 0 1
0.209805 0.0283552 0.546735 0.222182 -0.169314 0.960192
-0.148682 0.131201 0.41148 0 0 1
-0.199688 -0.252024 0.0915727 0.781821 0.623503 0
-0.0954436 -0.0907884 0.385763 0 0 -1
-0.208814 -0.0986198 0.505232 -0.222941 0.169284 -0.960021
-0.200463 -0.264787 0.0674845 0.781824 -0.623499 0
0.0904435 0.261003 0.665614 -3.67035e-05 0.992566 -0.121704
-0.0393082 0.235515 0.620055 8.2891e-06 -0.992557 0.121779
0.19523 0.249355 0.411259 0.783042 0.621968 0
-0.161696 -0.011467 0.41148 0 0 1
-0.159575 -0.191889 0.385763 0 0 -1
0.0600995 0.243773 0.687299 7.30828e-06 -0.99253 0.121997
0.184897 0.234144 0.478161 -0.433123 -0.901335 0
-0.0599577 0.143444 0.41148 0 0 1
-0.177432 0.0734368 0.385763 0 0 -1
-0.139542 0.16437 0.385763 0 0 -1
-0.206575 -0.247621 0.388624 0 0.973022 -0.230714
-0.198676 0.211755 0.381476 -0.999226 0.039339 0
0.18002 0.0757771 0.385763 0 0 -1
0.0925577 0.0387858 0.41148 0 0 1
-0.138773 -0.0321737 0.385763 0 0 -1
0.216472 -0.215541 0.470411 0.973933 0.173779 -0.145794
0.162742 -0.125439 0.385763 0 0 -1
-0.194771 -0.178165 0.385763 0 0 1
-0.126879 0.0115271 0.385763 0 0 -1
0.143341 -0.0190988 0.385763 0 0 -1
0.207535 -0.26754 0.126724 0 -1 0
-0.197792 0.0695097 0.547031 0.901535 -0.0751403 0.426133
0.155008 -0.159226 0.41148 0 0 1
-0.0433245 0.17063 0.385763 0 0 -1
-0.106492 0.249364 0.725427 -0.0446977 -0.938934 0.341181
-0.178227 0.241163 0.200285 0.974666 -0.223664 0
0.155998 -0.211608 0.41148 0 0 1
0.113881 0.115835 0.385763 0 0 -1
0.175803 0.191981 0.41148 0 0 1
0.0655176 -0.139908 0.385763 0 0 -1
0.121757 0.229266 0.41148 0 0 1
-0.124877 -0.0898394 0.41148 0 0 1
0.122138 -0.232643 0.385763 0 0 -1
0.00773677 0.223784 0.385763 0 0 -1
-0.0473942 0.260226 0.711733 0 0.122026 0.992527
-0.0735939 -0.0968292 0.41148 0 0 1
0.198965 -0.232347 0.462573 -0.77338 -0.485648 0.407467
0.179137 0.238666 0.342367 -0.781823 -0.623501 0
-0.0981444 -0.0453777 0.41148 0 0 1
-0.171971 -0.267794 0.39675 0 -1 0
0.00536557 0.171423 0.41148 0 0 1
0.0853755 0.240897 0.663897 -2.56608e-05 -0.992521 0.122072
0.0295156 0.253416 0.384344 0 1 0
0.186682 0.0158469 0.390607 0.999283 0.0378635 0
-0.00786778 0.265103 0.699026 3.02486e-05 0.992515 -0.122123
-0.180092 0.00985724 0.41148 0 0 1
-0.166298 0.0624459 0.385763 0 0 -1
-0.197923 -0.167841 0.502597 0.973711 -0.0902042 0.209165
-0.15151 0.237718 0.637995 -2.56608e-05 -0.992521 0.122072
-0.156527 -0.168392 0.385763 0 0 -1
0.181159 0.250953 0.602521 -0.781823 0.623501 0
-0.203013 0.236032 0.564059 0.189495 0.0450219 -0.980849
-0.182586 0.0448074 0.41148 0 0 1
-0.197944 0.0216561 0.538916 0.901535 -0.0751403 0.426133
0.200538 -0.264881 0.274535 -0.781824 -0.623499 0
-0.138685 0.252252 0.603367 0 -0.121473 -0.992595
-0.102483 -0.110083 0.41148 0 0 1
0.189825 0.233958 0.364628 0.432059 -0.901846 0
-0.00783372 0.261958 0.673428 -2.7001e-05 0.992559 -0.121762
-0.0166225 0.167022 0.41148 0 0 1
-0.186317 0.233921 0.0150676 0 -1 0
0.00203824 0.142418 0.385763 0 0 -1
0.0830576 0.19297 0.41148 0 0 1
0.0215577 0.246177 0.706876 0 -0.992555 0.121795
-0.184253 0.0799558 0.404156 -0.999283 0.0378635 0
0.189852 0.0498953 0.385763 0 0 1
-0.209768 -0.248429 0.058731 -0.433036 0.901377 0
-0.201811 -0.249879 0.245071 0.433123 0.901335 0
0.123749 -0.140434 0.41148 0 0 1
0.177731 0.243769 0.577325 -0.974541 0.224211 0
-0.196619 0.247072 0.445317 -0.97459 0.223994 0
-0.195438 0.237994 0.428808 -0.781823 -0.623501 0
-0.21688 0.218776 0.57319 -0.900557 -0.0754929 0.428133
-0.146853 0.260057 0.657956 -2.7001e-05 0.992559 -0.121762
-0.149459 -0.143648 0.41148 0 0 1
-0.181717 -0.0832577 0.385763 0 0 -1
0.0113706 -0.174324 0.385763 0 0 -1
-0.13198 0.245748 0.703367 -0.000210113 -0.992493 0.122298
-0.193152 -0.154909 0.410727 -0.999283 0.0378635 0
-0.178004 0.242136 0.37681 -0.974666 0.223664 0
-0.107889 -0.193972 0.41148 0 0 1
-0.036797 0.116471 0.385763 0 0 -1
-0.216924 0.0143579 0.534928 -1 0 0
-0.0174403 0.25888 0.711898 0 0.122026 0.992527
0.18431 0.252665 0.102929 -0.435156 0.900355 0
-0.00748748 0.234174 0.609133 0 -0.992545 0.121878
-0.0987174 0.265417 0.726187 -1 0 0
0.0363472 -0.0859055 0.385763 0 0 -1
-0.110262 0.0429401 0.41148 0 0 1
0.189432 -0.0567483 0.396647 0.999283 0.0378635 0
0.0219281 0.263161 0.683216 -8.30972e-06 0.99253 -0.121998
0.0693498 -0.250156 0.41148 0 0 1
0.0513371 0.2426 0.385763 0 0 1
-0.0502563 0.258865 0.648217 -3.67035e-05 0.992566 -0.121704
0.105469 0.0436998 0.385763 0 0 -1
0.199347 -0.102314 0.375894 0 0 -1
-0.161487 -0.205721 0.41148 0 0 1
0.213599 0.173048 0.555411 0.624399 0.13564 -0.769238
0.014376 0.197591 0.385763 0 0 -1
0.0416115 0.205662 0.385763 0 0 -1
-0.103435 -0.141676 0.385763 0 0 -1
-0.114846 0.243621 0.41148 0 0 1
-0.119072 -0.0377536 0.41148 0 0 1
-0.0567189 0.220893 0.385763 0 0 -1
-0.0284269 0.224287 0.385763 0 0 -1
0.124919 0.0531153 0.41148 0 0 1
0.0656162 -0.238233 0.385763 0 0 -1
-0.00902446 0.261489 0.730916 0 0.339541 0.940591
0.197631 -0.243512 0.385763 0 0 1
0.0500227 0.25728 0.635302 1.9442e-05 0.992515 -0.122121
-0.0921842 0.250246 0.385763 0 0 -1
-0.216062 0.163387 0.557062 -0.900557 0.0754929 -0.428133
0.184373 0.252695 0.229797 -0.435156 0.900355 0
0.14693 0.165777 0.385763 0 0 -1
-0.0339389 -0.166295 0.41148 0 0 1
-0.00567102 -0.267794 0.386505 0 -1 0
-0.141371 0.214547 0.385763 0 0 -1
-0.197976 -0.260323 0.269065 0.975209 -0.221288 0
-0.0470732 0.0372456 0.385763 0 0 -1
0.0331482 0.257329 0.635693 1.9442e-05 0.992515 -0.122121
-0.185337 0.253161 0.0355419 0.434177 0.900828 0
0.0539727 -0.0387026 0.41148 0 0 1
0.198561 -0.262401 0.309032 -0.781824 -0.623499 0
-0.0242916 -0.0995162 0.41148 0 0 1
0.200938 0.0588978 0.550023 -0.623039 -0.135829 0.770307
-0.0948188 0.254384 0.611742 1.9442e-05 0.992515 -0.122121
0.0161553 0.126877 0.385763 0 0 -1
0.0924641 -0.101482 0.385763 0 0 -1
0.0605539 -0.114919 0.41148 0 0 1
0.106251 -0.0029031 0.41148 0 0 1
-0.180613 0.175998 0.387754 -0.999283 0.0378635 0
0.200406 0.230207 0.565185 -0.617878 0.0128892 -0.786169
0.0764593 -0.223455 0.385763 0 0 -1
-0.195051 -0.205046 0.404056 -0.999283 0.0378635 0
0.15364 0.238817 0.646959 8.2891e-06 -0.992557 0.121779
-0.124925 -0.177717 0.385763 0 0 -1
0.183833 0.252434 0.171489 -0.435156 0.900355 0
0.0959805 -0.265146 0.41148 0 0 1
0.0369381 -0.189799 0.385763 0 0 -1
-0.133308 -0.207294 0.41148 0 0 1
-0.16914 0.23995 0.656186 2.50348e-05 -0.992558 0.121773
0.0706303 0.0236464 0.385763 0 0 -1
0.132021 -0.00807735 0.41148 0 0 1
0.0301319 0.137418 0.41148 0 0 1
0.0247972 0.0146059 0.385763 0 0 -1
-0.20426 0.0400818 0.54868 0.222182 -0.169314 0.960192
0.0715038 0.0606693 0.41148 0 0 1
0.197533 -0.257455 0.374407 -0.975086 0.221827 0
-0.182417 0.235332 0.0365581 0.432147 -0.901803 0
-0.0677673 0.255822 0.623435 -2.05649e-05 0.992544 -0.121889
0.203156 0.144675 0.548742 -0.222726 0.16929 -0.96007
-0.142748 -0.086124 0.385763 0 0 -1
0.110562 0.0191862 0.41148 0 0 1
-0.215921 0.194242 0.562208 -0.900557 0.0754929 -0.428133
-0.21478 -0.25187 0.194327 -0.783039 0.621972 0
0.102461 -0.0143 0.385763 0 0 -1
0.199743 -0.251956 0.245066 -0.781821 0.623503 0
0.147299 -0.0899061 0.41148 0 0 1
-0.155053 0.253416 0.38599 0 1 0
0.00752396 0.248525 0.723983 0 -0.992709 0.120535
0.165112 -0.161885 0.385763 0 0 -1
0.0197893 -0.129988 0.385763 0 0 -1
-0.0847508 0.00811607 0.385763 0 0 -1
-0.0570925 0.251892 0.41148 0 0 1
-0.211302 -0.163247 0.511549 -0.424734 -0.35852 0.831303
-0.0824234 0.117442 0.41148 0 0 1
-0.138427 -0.225229 0.41148 0 0 1
-0.195525 0.248979 0.273025 -0.781823 0.623501 0
-0.0839368 0.16521 0.385763 0 0 -1
0.0629286 0.0885267 0.41148 0 0 1
0.0938361 -0.0529379 0.385763 0 0 -1
0.079403 -0.079031 0.385763 0 0 -1
-0.193816 -0.218433 0.385763 0 0 -1
-0.206254 -0.189929 0.385763 0 0 1
0.0928688 -0.0294104 0.385763 0 0 -1
-0.0341466 0.264218 0.691826 3.02486e-05 0.992515 -0.122123
-0.0338555 0.240273 0.604833 0 -0.121473 -0.992595
-0.21669 -0.259993 0.141893 -0.974716 -0.223449 0
0.0676945 -0.0550607 0.41148 0 0 1
-0.158435 -0.223132 0.41148 0 0 1
-0.157271 0.251658 0.685815 0.831423 -0.0672682 -0.551553
-0.112356 -0.203751 0.385763 0 0 -1
-0.185728 0.233921 0.257681 0 -1 0
-0.206398 -0.241776 0.413273 0 0.973022 -0.230714
0.194709 0.25001 0.329348 0.783042 0.621968 0
0.199496 -0.120336 0.517139 -0.900556 -0.0754934 0.428136
0.123059 0.263275 0.709445 -0.123167 0.693698 -0.709657
0.196771 0.246408 0.579849 0.97459 0.223994 0
-0.049028 -0.0864383 0.385763 0 0 -1
0.15195 0.254393 0.611817 0 0.992544 -0.121889
-0.00333662 -0.240251 0.385763 0 0 -1
-0.0892379 0.0626024 0.41148 0 0 1
-0.205625 -0.223985 0.479556 0 -0.766047 0.642785
-0.0463098 0.137222 0.41148 0 0 1
-0.153605 -0.0370262 0.41148 0 0 1
-0.194265 0.250559 0.344282 -0.781823 0.623501 0
-0.201523 0.0852198 0.539493 0.623178 0.135809 -0.770198
0.0753158 0.246273 0.385763 0 0 1
-0.19573 0.248722 0.603901 -0.781823 0.623501 0
0.0137026 -0.188453 0.41148 0 0 1
-0.130861 0.23506 0.616353 -8.76253e-06 -0.992545 0.121878
0.141476 -0.0408491 0.41148 0 0 1
