-0.223511 0.0302911 0.403189 -0.99996 -0.00897743 0
-0.211396 0.156946 0.471957 0.00495417 -0.532078 -0.846681
1.3262e-06 -0.0265841 0.438917 0 0 1
0.108398 0.174525 0.590102 0.20525 0.966727 -0.152683
0.0376617 0.0936632 0.349815 -0.00878191 0.970298 -0.241754
-0.225846 0.0268115 0.122103 0.00895656 -0.967887 0.251225
-0.253934 0.0426188 0.594435 -0.00305106 0.342088 0.939663
0.123644 -0.128323 0.438917 0 0 1
0.268548 0.0354268 0.598778 -0.00314952 0.342086 0.939663
-0.120499 0.239838 0.748837 -0.000818461 0.0903684 0.995908
-0.0720253 0.186933 0.616377 -0.0802261 0.957 -0.278773
-0.114087 0.0803902 0.381647 0 0 -1
-0.0766979 -0.142073 0.372213 0.000741948 -0.0823712 -0.996601
0.00661713 -0.254978 0.394474 0.152221 -0.988347 0
0.236451 0.0487258 0.170093 0.999956 0.00942536 -0.000113293
-0.232465 -0.0401405 0.00668222 0 0 1
0.16278 0.129971 0.0368328 0.837546 0.546367 0
0.0919554 0.136054 0.450683 -0.0038382 0.424371 -0.90548
0.120191 -0.13574 0.381647 0 0 -1
0.228468 -0.102139 0 0 0 -1
-0.115996 0.0321987 0.438917 0 0 1
0.00937213 -0.163454 0.438917 0 0 1
0.0508546 0.0619097 0.438917 0 0 1
-0.209366 -0.0888996 0.400069 -0.932631 -0.360833 0
-0.0841493 0.203094 0.0273603 0.453146 -0.891436 0
0.0993239 0.215289 0.726692 0.190665 0.941046 -0.279428
0.098952 0.0127238 0.381647 0 0 -1
0.169023 0.0882559 0.411928 -0.00904628 0.999959 0
0.222193 0.145934 0.622349 0.00905099 -0.96013 0.279406
-0.0982877 -0.0571768 0.438917 0 0 1
-0.235651 0.106218 0.407271 -0.999957 -0.00924854 6.53964e-05
0.268418 0.103041 0.536995 0.99996 0.00896094 8.30307e-05
-0.223831 0.0660038 0.391905 -0.99996 -0.00897743 0
0.138703 0.0879816 0.405312 -0.00904628 0.999959 0
-0.165707 0.148498 0.555033 -0.501773 0.848436 -0.168462
0.213375 -0.0844345 0.409817 0.93901 -0.34389 0
-0.247988 0.108733 0.554656 -0.00557729 0.605255 0.796012
-0.164315 -0.0399758 0.381647 0 0 -1
0.0330737 -0.0839476 0.381647 0 0 -1
0.0225482 0.20969 0.647965 -0.0628146 -0.956641 0.284415
-0.0653004 -0.165661 0.381647 0 0 -1
-0.226711 0.200982 0.749406 0.000845651 -0.0897172 -0.995967
-0.0342986 0.131763 0.410546 0.0450506 -0.569254 0.820926
0.225148 0.0318861 0.412953 0.999959 0.00908232 0
-0.135326 0.126614 0.457674 0.00400768 -0.424592 0.905376
0.16347 0.153064 0.512631 -0.499115 -0.848132 0.177639
-0.162822 -0.159608 0.382025 -0.301276 -0.214235 -0.929159
0.0883085 -0.0313817 0.438917 0 0 1
0.0399969 0.175256 0.530539 0.1011 0.982101 -0.158921
-0.065097 -0.21712 0.438917 0 0 1
-0.0476155 0.0909917 0.440608 0.00384113 -0.424403 0.905465
-0.0178207 0.0233017 0.381647 0 0 -1
0.235303 -0.0541497 0.613767 -0.000427601 0.0479426 0.99885
-0.235205 0.0567228 0.224038 -0.999957 -0.00924854 6.53964e-05
-0.148174 0.198955 0.680809 0.210092 -0.936938 0.279298
-0.235845 -0.0524605 0.613481 -0.000441263 0.0479425 0.99885
0.0537785 0.144844 0.420001 -0.0343049 -0.569981 0.820941
0.172589 0.188589 0.675927 -0.494352 -0.833544 0.246617
-0.0468107 0.180311 0.511483 0.109686 -0.983266 0.145456
0.0654974 -0.203628 0.438917 0 0 1
0.224597 0.0624404 0.221587 -0.00897204 0.967887 -0.251225
0.223696 0.102714 0.458366 0.00868556 -0.96791 0.251147
-0.176433 -0.0103343 0.410222 0.0090461 -0.999959 0
-0.123892 -0.0656436 0.381647 0 0 -1
-0.0616245 0.218552 0.689724 0.080079 -0.955368 0.284358
0.201691 -0.18776 0.00668222 0 0 1
-0.190617 0.0122597 0.0381872 0 0 1
0.235994 0.099699 0.377263 0.999957 0.0092514 -6.61437e-05
0.105729 0.205457 0.665118 -0.190665 -0.941046 0.279426
0.0557394 -0.142505 0.381647 0 0 -1
0.109537 0.185761 0.0135902 -0.670705 -0.741724 0
0.112926 -0.0511251 0.381647 0 0 -1
0.123507 0.0504126 0.438917 0 0 1
0.150853 -0.190812 0.413181 0.652012 -0.758209 0
0.165655 -0.043863 0.438917 0 0 1
-0.213134 0.0956295 0.364733 -0.0086961 0.96789 -0.251224
-0.0806996 0.0730806 0.354679 -0.999959 -0.00903957 0
0.236607 0.0276223 0.0870146 -0.00897204 0.967887 -0.251225
-0.0569771 -0.0680282 0.381647 0 0 -1
-0.172552 -0.113013 0.438917 0 0 1
-0.198548 0.109084 0.485019 -0.620566 0.759139 -0.196483
0.152706 0.144862 0.452134 -0.335458 -0.920615 0.199842
0.0944257 0.0928668 0.344556 -0.00878191 0.970298 -0.241754
0.0496396 -0.0970917 0.438917 0 0 1
0.267783 0.173366 0.486152 -0.999971 -0.00760287 0.000315333
-0.19634 -0.105318 0.00668222 0 0 1
0.0167532 0.122177 0.454951 0.00379612 -0.424156 0.905581
-0.172115 0.0167814 0.381647 0 0 -1
-0.0774434 -0.133949 0.438917 0 0 1
-0.0202721 0.21439 0.695741 -0.0801867 0.956998 -0.278792
-0.136448 0.159621 0.0155145 0.683952 -0.729527 0
0.198974 -0.0290348 0.000630588 -0.999959 -0.00906678 0
0.117849 0.0348689 0.381647 0 0 -1
-0.156006 0.17921 0.620463 0.210092 -0.936938 0.279298
-0.0115839 -0.14859 0.381647 0 0 -1
-0.0728051 -0.227842 0.381647 0 0 -1
-0.268473 0.145909 0.489875 -0.999959 -0.00906705 6.68606e-06
-0.0563574 -0.00449011 0.438917 0 0 1
-0.0118083 0.183707 0.578785 -0.081721 0.987013 -0.138303
0.000855851 -0.236247 0.438118 -0.0482281 -0.355456 0.933448
0.219207 0.144289 0.488445 0.00714996 -0.768157 -0.640221
-0.151596 0.0853554 0.415213 -0.00904628 0.999959 0
-0.115661 0.171491 0.529653 0.213962 -0.966759 0.139992
0.180111 -0.0628443 0.381647 0 0 -1
0.095468 0.166177 0.519867 0.20525 0.966727 -0.152683
-0.122008 -0.203005 0.382644 -0.230769 -0.278541 -0.932288
0.205243 0.127602 0.554921 0.00868556 -0.96791 0.251147
0.0388427 0.225673 0.737891 0.0629216 0.958293 -0.278775
0.0753865 -0.196068 0.381647 0 0 -1
0.191799 -0.119195 0.434389 0.36106 -0.132287 0.923112
0.0369069 0.186875 0.604091 0.0628946 0.958291 -0.278788
0.0961551 -0.208872 0.381647 0 0 -1
-0.0667391 0.249097 0.745169 0.000828787 -0.0917577 -0.995781
-0.222013 -0.0195157 0.395818 -0.991792 -0.127861 0
0.141973 0.163683 0.567585 0.282424 0.940035 -0.191235
-0.188228 -0.139125 0.418758 -0.81497 -0.579503 0
-0.026681 0.224085 0.014319 0.165119 -0.986274 0
-0.0910159 0.167135 0.461905 0.213962 -0.966759 0.139992
0.0320361 -0.00844844 0.419694 0.0090461 -0.999959 0
0.169305 0.208188 0.735588 -0.494352 -0.833544 0.246617
-0.113648 0.0173424 0.381647 0 0 -1
-0.203845 0.17775 0.711708 0.999961 0.00877 6.52878e-05
-0.0248699 -0.0938764 0.438917 0 0 1
0.160417 -0.0898349 0.438917 0 0 1
-0.203357 0.123838 0.54082 0.999961 0.00877547 0.00012599
0.23799 0.0920578 0.570679 -0.00556955 0.605118 0.796117
-0.182859 0.0482072 0.438917 0 0 1
0.200535 -0.00692411 0.407773 0.0090461 -0.999959 0
0.0626264 0.0580359 0.367124 -0.999959 -0.00906461 0.000171584
-0.179591 0.217312 0.747963 0.000746783 -0.0903989 -0.995905
0.0842913 0.0714144 0.438917 0 0 1
0.10065 0.116566 0.400206 -0.0645114 -0.598727 0.798351
0.19256 0.0495053 0.438917 0 0 1
0.0462906 0.128067 0.407737 0.00542676 -0.59956 0.800312
0.182437 0.0832706 0 0 0 -1
-0.186239 0.114133 0.429454 0.627394 -0.754191 0.193839
-0.132157 -0.00993275 0.425207 0.0090461 -0.999959 0.000196853
0.116895 0.152395 0.428389 -0.0645114 -0.598727 0.798351
-0.0856045 -0.15956 0.438917 0 0 1
-0.147393 -0.113247 0.381647 0 0 -1
-0.0431416 0.0486429 0.381647 0 0 -1
0.00483134 0.175652 0.448417 -0.0907921 -0.98527 0.144914
0.170479 0.0934557 0.344157 -0.00878191 0.970298 -0.241754
-0.0961917 0.217185 0.702882 0.20995 -0.936989 0.279237
-0.0213937 0.0968014 0.364555 -0.00880881 0.970229 -0.24203
0.0633809 -0.0249918 0.377513 -0.999959 -0.00906461 0.000171584
0.0547963 0.220965 0.693011 -0.0628144 -0.956641 0.284415
0.126002 -0.204732 0.432681 0.596773 -0.694204 0.402421
-0.184639 -0.0488317 0.438917 0 0 1
0.188607 0.0651445 0.381647 0 0 -1
-0.0868233 0.133612 0.41311 0.0745696 -0.597497 0.798397
0.267081 -0.0902863 0.610327 0.000912984 -0.102363 0.994747
0.0489163 0.175051 0.471948 -0.0907921 -0.98527 0.144914
-0.0800817 0.0504279 0.3563 0.000741948 -0.0823712 -0.996601
-0.197843 0.040521 0.173936 0.00866869 -0.967895 0.251204
0.00166377 0.0707494 0.438917 0 0 1
0.191705 -0.13744 0.398807 0.825279 -0.564726 0
0.210775 0.113587 0.500717 0.00868556 -0.96791 0.251147
0.0147801 -0.193841 0.381647 0 0 -1
-0.0877159 0.0859338 0.422351 -0.00904628 0.999959 -0.000196114
-0.153397 0.0916796 0.348794 -0.00878191 0.970298 -0.241754
0.168777 0.162186 0.611255 0.48155 0.841829 -0.243788
-0.216993 0.133974 0.594217 0.00868136 -0.96791 0.251147
-0.0642761 0.17717 0.564283 -0.118838 0.980112 -0.158931
0.192901 0.11012 0.418776 -0.604758 -0.772029 0.195548
-0.118307 0.169474 0.584434 -0.225297 0.962278 -0.152517
0.250098 -0.00472719 0.586626 0.00248892 -0.270347 -0.96276
0.0950833 0.087587 0.418931 -0.00904628 0.999959 0
-0.267057 -0.0100069 0.590495 -0.999959 -0.00901477 -0.000751212
0.226773 0.168932 0.682237 0.999958 0.00917954 -1.46525e-05
0.237077 -0.0206277 0.00490234 0.999959 0.00907171 0
0.201376 0.0333994 0.132565 0.00869395 -0.96789 0.251225
-0.0618293 0.0525665 0.438917 0 0 1
0.0466046 0.0289419 0.381647 0 0 -1
-0.194774 -0.190943 0.00424595 0.999959 0.00906677 0
0.019739 0.177236 0.535275 0.0638867 0.988327 -0.138304
-0.19976 0.019772 0.0719826 -0.00895706 0.967892 -0.251206
-0.266286 -0.0955173 0.604464 -0.999959 -0.00904056 0.000231461
0.0813006 0.188576 0.621822 0.202161 0.94047 -0.273217
0.250467 0.148423 0.519615 -0.00707618 0.768158 0.640221
0.0624338 -0.129306 0.438917 0 0 1
-0.0282423 0.206915 0.641224 0.080079 -0.955368 0.284358
-0.000461362 -0.0362803 0.381647 0 0 -1
-0.0355406 -0.220485 0.381647 0 0 -1
-0.0385772 0.129655 0.458685 0.00379612 -0.424156 0.905581
-0.170618 0.172649 0.661384 -0.509391 0.82443 -0.246648
0.226916 -0.154006 0 0 0 -1
0.131641 0.181927 0.636181 0.202161 0.94047 -0.273217
0.0182895 0.0868923 0.394787 -0.00904628 0.999959 0
0.224032 0.0887536 0.392402 -0.00904628 0.999959 0
-0.160036 0.148491 0.494713 0.514463 -0.839448 0.175086
-0.23968 0.0579406 0.561831 0.00397117 -0.431352 -0.902175
-0.236634 -0.00860214 0.586475 0.00241056 -0.270347 -0.96276
0.202146 0.166069 0.472264 -0.00059717 0.0664858 -0.997787
0.0831066 -0.0955652 0.377843 0.999959 0.00906463 0.000198505
-0.0353409 0.171107 0.440617 0.109686 -0.983266 0.145456
-0.110835 -0.146763 0.381647 0 0 -1
-0.106133 0.195257 0.000607964 -0.684026 0.729458 0
0.0764898 -0.00804005 0.433134 0.00905861 -0.999959 0.000608456
-0.229038 -0.0973552 0.605173 0.999958 0.00908674 0.000730866
-0.245663 0.144277 0.519193 -0.00685135 0.768161 0.64022
-0.0432622 -0.00912962 0.406201 0.0090461 -0.999959 0
-0.0112283 0.0234209 0.438917 0 0 1
-0.22684 0.0991979 0.460532 0.00868136 -0.96791 0.251147
-0.156652 0.0494396 0.381647 0 0 -1
-0.13787 0.214644 0.725693 0.20995 -0.936989 0.279237
-0.0387882 -0.220829 0.438917 0 0 1
0.144102 0.103405 0.435159 -0.00384304 0.424398 -0.905468
-0.13008 -0.11076 0.438917 0 0 1
-0.114591 0.190334 0.657685 -0.221444 0.934525 -0.278613
0.131764 0.211487 0.70319 -0.190665 -0.941046 0.279426
0.127907 -0.00757451 0.432732 0.00905861 -0.999959 0.000608456
0.222458 -0.0342027 0.39478 0.993946 -0.109872 0
-0.20369 0.00373072 0.438917 0 0 1
-0.0241412 -0.107379 0.381647 0 0 -1
-0.0516632 0.232522 0.733845 0.0802104 -0.955339 0.284418
0.0567186 -0.247262 0.418199 0.152221 -0.988347 0
0.239194 0.04698 0.569147 0.00384739 -0.431353 -0.902175
-0.105196 0.00092371 0.438917 0 0 1
0.0602344 0.10506 0.436291 -0.00384304 0.424398 -0.905468
-0.132413 0.127625 0.412887 0.0745696 -0.597497 0.798397
0.00772066 0.174671 0.511399 0.0638867 0.988327 -0.138304
0.0776329 0.1857 0.56234 -0.0907921 -0.98527 0.144914
0.0595482 0.0927755 0.345457 -0.00878191 0.970298 -0.241754
-0.0844635 0.122614 0.45558 0.00384839 -0.424303 0.905512
0.121747 0.152091 0.48073 0.282424 0.940035 -0.191235
0.00881324 0.227807 0.0381872 0 0 1
0.252436 -0.058022 0.590141 -0.000625256 0.0701233 -0.997538
0.131316 0.23788 0.749221 -0.000816569 0.0903998 0.995905
-0.0649765 0.0995547 0.377178 -0.00880881 0.970229 -0.24203
-0.198028 0.0626607 0.259247 0.00866869 -0.967895 0.251204
0.184066 0.132014 0.477887 -0.604758 -0.772029 0.195548
0.150541 0.168533 0.604062 0.202161 0.94047 -0.273217
0.232657 0.0697349 0.271472 0.00868817 -0.96789 0.251225
0.0641626 0.251286 0.747892 0.0640501 0.99393 -0.0894444
0.118905 -0.00766258 0.391477 0.0090461 -0.999959 0
0.226288 0.133163 0.575594 0.00912408 -0.967891 0.251206
0.145674 0.08849 0.344859 0.00880805 -0.970282 0.241816
0.0423848 -0.0474654 0.438917 0 0 1
0.0977319 -0.169582 0.438917 0 0 1
0.168461 0.01533 0.381647 0 0 -1
0.228074 0.00645277 0.0278247 0.00868817 -0.96789 0.251225
0.236103 0.0874836 0.326333 0.999957 0.0092514 -6.61437e-05
-0.19157 0.0438799 0.00346623 -0.994993 0.099947 -8.5956e-07
-0.0432541 -0.0513821 0.438917 0 0 1
0.072187 0.215814 0.0368063 0.436872 0.899524 0
-0.0461125 0.00462658 0.381647 0 0 -1
-0.0738672 0.163719 0.488506 -0.118838 0.980112 -0.158931
-0.0472868 -0.248607 0.406158 -0.134186 -0.990956 0
-0.0309185 0.0864471 0.401261 -0.00904628 0.999959 0
0.000793738 0.135417 0.411242 -0.0343049 -0.569981 0.820941
0.148641 0.129716 0.413946 -0.0645114 -0.598727 0.798351
-0.19756 0.0854077 0.324798 -0.00895706 0.967892 -0.251206
0.192439 0.178531 0.714437 0.48155 0.841829 -0.243788
0.0847377 0.164054 0.492002 0.20525 0.966727 -0.152683
-0.119137 0.177856 0.619444 -0.221444 0.934525 -0.278613
0.113001 -0.0828393 0.438917 0 0 1
0.0482681 0.0871635 0.41302 -0.00904628 0.999959 0
-0.222251 0.00314429 0.00871831 -0.00895706 0.967892 -0.251206
0.171856 0.115184 0.00236181 0.942249 0.334913 0
0.0166009 0.198709 0.609718 -0.0628144 -0.956641 0.284415
0.202915 0.0491112 0.193044 0.00869395 -0.96789 0.251225
-0.128006 0.174692 0.570631 0.213962 -0.966759 0.139992
-0.157999 0.127448 0.0381872 0 0 1
0.13793 0.167188 0.00192237 0.670809 0.74163 0
0.0330849 -0.250902 0.410678 0.152221 -0.988347 0
0.0705997 -0.0631753 0.365802 0.000742472 -0.0823715 -0.996601
0.141519 -0.0216346 0.381647 0 0 -1
0.20215 -0.0255783 0.438917 0 0 1
-0.202575 0.150893 0.511729 -0.00712725 0.768147 0.640233
-0.0778472 -0.0452239 0.381647 0 0 -1
-0.181564 0.162941 0.618701 0.509313 -0.824484 0.246631
0.0372618 -0.201076 0.438917 0 0 1
-0.0766467 0.186435 0.57538 0.109686 -0.983266 0.145456
-0.266249 0.112523 0.519167 0.00633511 -0.7103 -0.703871
-0.189161 0.0850156 0.411982 -0.00904628 0.999959 0
0.245102 -0.0177078 0.611984 -0.00175865 0.197174 0.980367
-0.195144 -0.150169 0.0046331 0.999959 0.00906677 0
-0.223873 0.070671 0.417915 -0.99996 -0.00897743 0
-0.11762 0.164436 0.493333 0.34899 -0.915864 0.198492
-0.0778651 0.207241 0.656293 0.080079 -0.955368 0.284358
-0.197312 -0.0566001 0 0 0 -1
-0.250015 0.166633 0.474794 -0.00570688 0.639862 -0.768469
0.100338 0.110011 0.448895 0.00384113 -0.424403 0.905465
0.265626 -0.109736 0.58211 -0.00221194 0.240112 -0.970743
0.0630074 0.0159754 0.365458 -0.999959 -0.00906461 0.000171584
0.0589688 0.199706 0.653175 0.0629216 0.958293 -0.278775
0.0810335 -0.151619 0.381647 0 0 -1
0.0221723 -0.114585 0.381647 0 0 -1
-0.0365765 0.187822 0.609231 -0.0801867 0.956998 -0.278792
-0.143101 -0.0594309 0.438917 0 0 1
-0.0331211 -0.166811 0.438917 0 0 1
0.155783 0.189115 0.677068 0.190665 0.941046 -0.279428
-0.187685 0.0679901 0.381647 0 0 -1
0.2242 0.154909 0.653132 0.00861178 -0.960153 0.279343
0.152489 -0.165096 0.381647 0 0 -1
0.154779 0.0256226 0.438917 0 0 1
0.198525 0.0203767 0.0610246 -0.999957 -0.00925113 4.5876e-05
0.186644 0.119758 0.437473 -0.604758 -0.772029 0.195548
-0.12293 0.0714356 0.438917 0 0 1
-0.174919 0.201606 0.734225 0.509386 -0.824434 0.246647
0.0258903 -0.128451 0.438917 0 0 1
0.189047 -0.100704 0.381647 0 0 -1
-0.222559 0.113462 0.515358 0.00868136 -0.96791 0.251147
-0.235125 0.0475473 0.200365 -0.999972 -0.00750367 -0.00040748
0.0599939 0.0210967 0.438917 0 0 1
-0.0281635 -0.132011 0.438917 0 0 1
0.187798 0.0703327 0.0351466 0.942249 0.334913 0
-0.106445 -0.101754 0.381647 0 0 -1
-0.267727 0.0635915 0.567751 -0.999959 -0.00907015 -0.000165232
-0.0695262 -0.103921 0.369065 0.000741948 -0.0823712 -0.996601
0.167472 -0.153279 0.435442 0.311883 -0.213363 0.925854
-0.180283 0.116124 0.45453 -0.620566 0.759139 -0.196483
0.176067 0.169411 0.650605 0.48155 0.841829 -0.243788
-0.156399 0.013419 0.438917 0 0 1
-0.231904 -0.119154 0.00668222 0 0 1
0.112031 0.167231 0.548804 0.20525 0.966727 -0.152683
0.0198463 0.0568778 0.381647 0 0 -1
-0.0777582 0.179963 0.532467 0.109686 -0.983266 0.145456
0.0158411 -0.0483823 0.438917 0 0 1
-0.00926988 0.0652344 0.381647 0 0 -1
-0.19266 -0.0104844 0.384358 0.00906251 -0.999958 0.00102479
0.236423 0.1078 0.528526 0.0063355 -0.710293 -0.703877
0.219618 0.0811906 0.431966 0.922432 0.00838861 0.38607
0.237468 -0.0637586 0.00428178 0.999959 0.00907171 0
-0.203182 -0.093811 0.429325 -0.859742 -0.332661 0.387531
-0.125452 -0.0244065 0.381647 0 0 -1
0.0596798 0.139612 0.452487 -0.0038382 0.424371 -0.90548
-0.0671794 -0.085596 0.438917 0 0 1
0.0432797 0.223293 0 0 0 -1
-0.235438 0.0821326 0.330948 -0.999972 -0.00750367 -0.00040748
0.232976 0.111886 0.411786 -0.00897204 0.967887 -0.251225
0.0544129 0.169906 0.440412 -0.0907921 -0.98527 0.144914
-0.0876144 -0.0377047 0.438917 0 0 1
-0.00525208 -0.00878576 0.398642 0.0090461 -0.999959 0
-0.114575 0.0908129 0.343905 -0.00878191 0.970298 -0.241754
0.17952 0.154151 0.562919 -0.499115 -0.848132 0.177639
0.205367 -0.120336 0 0 0 -1
-0.226281 0.17657 0.707637 -0.00862764 0.957454 -0.288457
0.130169 -0.088487 0.381647 0 0 -1
-0.154762 0.101031 0.445766 0.00384839 -0.424303 0.905512
0.0758806 0.0872808 0.38184 0 0 1
0.219271 -0.00112479 0.383019 0.377454 0.00343224 -0.926022
-0.00763121 -0.197159 0.438917 0 0 1
-0.0596412 -0.170174 0.438917 0 0 1
0.00321806 0.218666 0.673886 -0.0628146 -0.956641 0.284415
0.197319 0.15329 0.512673 -0.999963 -0.00862755 0.000123535
-0.103499 -0.225897 0.403376 -0.406497 -0.913652 0
-0.143888 -0.0798935 0.381647 0 0 -1
0.129172 0.0724768 0.381647 0 0 -1
-0.158118 0.127115 0 0 0 -1
-0.241391 -0.0785057 0.589016 -0.000625426 0.0701423 -0.997537
0.0910232 0.16871 0.461326 -0.193963 -0.971119 0.138947
-0.0808914 -0.202109 0.381647 0 0 -1
-0.114956 0.155857 0.449061 0.34899 -0.915864 0.198492
-0.198522 0.0216034 0.10107 0.00866869 -0.967895 0.251204
0.00259679 0.223703 0.722942 0.0628946 0.958291 -0.278788
0.196806 -0.0841671 0.43745 0.36106 -0.132287 0.923112
0.234394 -0.198464 0 0 0 -1
-0.213558 0.0163542 0.381647 0 0 -1
-0.192598 0.144587 0.571673 0.514463 -0.839448 0.175086
-0.18446 0.142108 0.535872 0.514463 -0.839448 0.175086
0.141854 0.153791 0.0381872 0 0 1
0.235456 0.0179125 0.604803 -0.00181482 0.19712 0.980378
0.16811 0.109286 0.448268 0.00384113 -0.424403 0.905465
-0.0933879 -0.196475 0.438917 0 0 1
0.0967732 -0.0078628 0.399083 0.0090461 -0.999959 0
0.248769 0.151414 0.480218 0.00684913 -0.76816 -0.640221
0.127266 0.128748 0.447109 -0.00384304 0.424398 -0.905468
-0.158848 -0.144022 0.438917 0 0 1
0.0351093 0.18937 0.565804 -0.0638877 -0.989191 0.131985
0.195424 0.149624 0.58599 -0.499115 -0.848132 0.177639
0.0545488 -0.166701 0.438917 0 0 1
-0.18345 0.0618028 0.0355787 0.948229 -0.317589 0
-0.0457396 0.0939095 0.353833 -0.00878191 0.970298 -0.241754
0.199341 -0.0695236 0.00101593 -0.999959 -0.00906678 0
0.22926 0.129254 0.47883 -0.00897204 0.967887 -0.251225
0.146048 -0.0312702 0.438917 0 0 1
0.241137 0.122089 0.547103 -0.006403 0.717912 0.696104
0.126775 0.167225 0.511624 -0.335458 -0.920615 0.199842
-0.19931 0.038416 0.143802 -0.00895706 0.967892 -0.251206
-0.244567 0.0105205 0.605416 -0.00181476 0.197119 0.980378
-0.042351 -0.175636 0.381647 0 0 -1
-0.20514 -0.0160679 0 0 0 -1
0.0206912 0.00248139 0.381647 0 0 -1
-0.184971 0.0899199 0.362621 0.00878119 -0.970217 0.24208
-0.0764522 0.0694695 0.381647 0 0 -1
0.155966 0.101603 0.377346 -0.00880881 0.970229 -0.24203
-0.182956 -0.102625 0.381647 0 0 -1
-0.0181499 0.0985713 0.444036 0.00384113 -0.424403 0.905465
-0.0564962 0.217151 0.0240354 0.453146 -0.891436 0
-0.226489 0.151736 0.625214 -0.00862764 0.957454 -0.288457
-0.23186 -0.193031 0.00668222 0 0 1
0.254795 0.0736671 0.581498 -0.00441047 0.479186 0.877702
0.0644871 0.181295 0.524159 -0.0907921 -0.98527 0.144914
-0.145382 0.160522 0.524085 0.34899 -0.915864 0.198492
0.0857943 0.224875 0.748725 -0.19416 -0.97703 0.087827
0.166956 -0.132046 0.381647 0 0 -1
0.0693779 0.192037 0.598931 -0.0628144 -0.956641 0.284415
-0.01406 -0.253106 0.415097 -0.134186 -0.990956 0
-0.0970817 0.228075 0.749927 -0.000812357 0.0912451 0.995828
-0.168736 0.1155 0.408156 0.096548 -0.569496 0.816304
-0.23277 -0.0801394 0.00668222 0 0 1
-0.23046 0.0600293 0.580369 0.999959 0.00907539 0.000229383
0.183717 0.140601 0.51071 -0.604758 -0.772029 0.195548
0.0467894 -0.187692 0.381647 0 0 -1
0.0783094 0.206713 0.00625195 -0.43696 -0.899481 0
0.160496 0.0585109 0.381647 0 0 -1
-0.168229 0.186077 0.701333 -0.509391 0.82443 -0.246648
-0.0213176 0.0637607 0.438917 0 0 1
-0.0237234 0.00460504 0.438917 0 0 1
0.00625559 0.240369 0.746021 0.000818682 -0.0903929 -0.995906
-0.0372981 -0.0355961 0.381647 0 0 -1
-0.215996 -0.0604796 0.42158 -0.915815 -0.118066 0.383854
-0.0893152 0.0514363 0.381647 0 0 -1
-0.202115 0.0647882 0.438917 0 0 1
-0.00556815 -0.0746253 0.381647 0 0 -1
0.208864 0.0333023 0.381647 0 0 -1
-0.0160089 0.21371 0.660601 0.0802104 -0.955339 0.284418
0.0888222 -0.233748 0.402079 0.422761 -0.906241 0
-0.235548 0.0941368 0.379761 -0.999972 -0.00750367 -0.00040748
0.151477 0.147297 0.000416439 0.837546 0.546367 0
-0.203057 0.0505275 0.212671 0.00866869 -0.967895 0.251204
-0.227265 0.128798 0.49097 -0.99996 -0.00893308 -0.00011298
-0.233695 0.011673 0.0640588 0.00895656 -0.967887 0.251225
-0.203044 0.089028 0.392163 0.999957 0.00930798 -0.000109364
-0.144868 -0.180717 0.381647 0 0 -1
-0.0611667 0.0237927 0.360626 0.999959 0.00908589 0
0.198845 0.209738 0.749353 0.501559 0.861794 -0.0758299
-0.155249 0.137784 0.436515 0.34899 -0.915864 0.198492
0.111565 -0.167724 0.381647 0 0 -1
0.0154639 0.169984 0.482358 0.1011 0.982101 -0.158921
0.0988946 0.0874614 0.381647 0 0 -1
-0.257675 -0.120291 0.580672 -0.00214152 0.240111 -0.970743
0.156 0.163023 0.541327 -0.335458 -0.920615 0.199842
-0.0730504 0.141425 0.464346 0.00384839 -0.424303 0.905512
-0.0335409 -0.135711 0.381647 0 0 -1
-0.104807 0.170164 0.503899 0.213962 -0.966759 0.139992
-0.150031 0.188443 0.646941 0.210092 -0.936938 0.279298
0.206307 0.00576953 0 0 0 -1
-0.160526 0.168052 0.589938 0.514463 -0.839448 0.175086
-0.0951528 0.085866 0.394036 -0.00904628 0.999959 0
-0.154004 -0.0101314 0.395338 0.0090461 -0.999959 0
0.158129 0.0578504 0.438917 0 0 1
-0.196325 -0.0564852 0.381647 0 0 -1
0.236558 0.0368358 0.123912 0.999956 0.00942536 -0.000113293
0.135583 0.219029 0.731194 -0.190665 -0.941046 0.279426
0.146856 -0.176342 0.436338 0.24117 -0.280544 0.929049
0.205542 0.00617308 0.438917 0 0 1
-0.0987009 -0.0911739 0.438917 0 0 1
-0.0485821 0.214166 0.671314 0.080079 -0.955368 0.284358
-0.196544 0.156027 0.65773 -0.496694 0.832986 -0.243782
0.179476 0.00213977 0.438917 0 0 1
-0.108685 0.113279 0.440859 -0.0038382 0.424371 -0.90548
0.0777677 0.0711563 0.354705 0.000739439 -0.0823713 -0.996601
0.121484 -0.0545035 0.438917 0 0 1
0.0889514 0.0479528 0.381647 0 0 -1
-0.0769066 0.10791 0.39347 0.00541185 -0.59956 0.800311
0.0391018 0.149943 0.467862 0.00379612 -0.424156 0.905581
0.0271972 0.0729067 0.438917 0 0 1
0.190081 0.0316724 0 0 0 -1
0.172758 -0.165129 0.412197 0.825279 -0.564726 0
-0.218147 -0.0318642 0.425249 -0.915875 -0.118114 0.383695
0.234647 0.0788642 0.306575 0.00868817 -0.96789 0.251225
0.197823 0.0974558 0.366241 0.999957 0.00929309 3.18801e-06
0.1079 0.137153 0.416231 -0.0645114 -0.598727 0.798351
0.0821556 -0.083929 0.438917 0 0 1
-0.177064 -0.0131064 0.438917 0 0 1
-0.184277 -0.142933 0.388769 -0.751665 -0.534489 -0.386421
-0.0827177 -0.00948656 0.395859 0.0090461 -0.999959 0
0.222358 0.0497121 0.426102 0.922432 0.00838861 0.38607
0.172839 -0.0277775 0.381647 0 0 -1
-0.251631 0.0160216 0.579524 0.00248762 -0.270276 -0.96278
-0.0269048 0.230338 0.719526 0.0802104 -0.955339 0.284418
-0.127808 -0.146043 0.438917 0 0 1
0.0885718 0.217564 0.694183 -0.190665 -0.941046 0.279426
0.133575 -0.20567 0.392861 0.652012 -0.758209 0
-0.0136123 0.191172 0.614127 -0.0801867 0.956998 -0.278792
0.0601703 0.221414 0.728067 0.0629216 0.958293 -0.278775
0.253417 0.132493 0.50297 0.00685168 -0.768161 -0.64022
0.19135 0.186142 0.738086 0.494286 0.83358 -0.246629
0.238246 -0.113004 0.605086 0.0023045 -0.250092 0.968219
-0.266772 -0.0417585 0.604186 -0.999959 -0.00904056 0.000231461
-0.268024 0.0969649 0.545034 -0.99996 -0.0089775 -6.72227e-05
0.200394 0.0735023 0.265051 -0.00868839 0.967895 -0.251204
0.199157 0.0231082 0.092993 0.00869395 -0.96789 0.251225
-0.0391115 0.0757488 0.381647 0 0 -1
-0.0793741 0.0210298 0.438917 0 0 1
0.192387 0.152642 0.624933 0.48155 0.841829 -0.243788
-0.0377464 0.186914 0.553132 0.081739 -0.987876 0.131987
0.0229737 0.0123149 0.438917 0 0 1
-0.221152 0.176421 0.740935 0.00860861 -0.960134 0.279407
-0.193567 0.126194 0.500097 0.627394 -0.754191 0.193839
-0.0105061 0.187472 0.540439 0.081739 -0.987876 0.131987
-0.139925 0.0854609 0.388456 -0.0090625 0.999959 -0.000536285
0.117549 0.178516 0.0369618 -0.670705 -0.741724 0
-0.0650225 0.139378 0.416964 0.00541185 -0.59956 0.800311
0.0463712 -0.0500179 0.381647 0 0 -1
0.0823416 -0.0109607 0.367892 0.999959 0.00906463 0.000198505
-0.0774127 0.0203744 0.381647 0 0 -1
-0.10945 0.184933 0.0308822 0.683952 -0.729527 0
0.00518604 0.0905157 0.343982 0.00219397 -0.242408 -0.970172
-0.118841 0.208374 0.690345 0.20995 -0.936989 0.279237
0.123376 0.0978005 0.363291 -0.00880881 0.970229 -0.24203
0.0454622 0.101694 0.387985 0.00542676 -0.59956 0.800312
0.223872 0.173044 0.715477 0.00861178 -0.960153 0.279343
0.0227307 0.214814 0.696929 0.0628946 0.958291 -0.278788
-0.0141395 0.149495 0.457432 -0.00384976 0.424404 -0.905465
0.0279512 -0.1623 0.381647 0 0 -1
0.0622511 0.213325 0.668961 -0.0628144 -0.956641 0.284415
0.26946 -0.0122071 0.60895 0.999958 0.0091442 -8.95809e-05
0.00188534 0.230552 0 0 0 -1
0.205797 0.119422 0.523379 0.00868556 -0.96791 0.251147
-0.221234 0.107134 0.431406 0.00866869 -0.967895 0.251204
0.0106709 0.0388888 0.438917 0 0 1
-0.208582 0.120063 0.458709 -0.0086961 0.96789 -0.251224
0.269964 -0.0673243 0.610665 0.999958 0.0091442 -8.95809e-05
0.18226 0.0809861 0.438917 0 0 1
0.0254011 -0.0750699 0.438917 0 0 1
-0.0888132 0.0463879 0.438917 0 0 1
0.0971416 0.0302657 0.438917 0 0 1
-0.150554 0.0350297 0.438917 0 0 1
0.269895 0.150851 0.51061 0.999958 0.00915016 1.23677e-06
-0.107322 -0.00970914 0.393408 0.0090461 -0.999959 0
-0.15086 0.0763031 0.438917 0 0 1
0.176876 0.10106 0.0341163 0.942249 0.334913 0
0.0943483 -0.20419 0.438917 0 0 1
-0.0751687 -0.238501 0.410029 -0.406497 -0.913652 0
0.216078 -0.0519456 0.430399 0.917975 -0.101406 0.383457
0.202275 -0.114744 0.415713 0.93901 -0.34389 0
0.229137 0.0524127 0.204857 0.00868817 -0.96789 0.251225
-0.227571 0.162023 0.679186 -0.999957 -0.0092872 4.66443e-05
-0.073069 0.214084 0 0 0 -1
0.0427835 0.0795672 0.381647 0 0 -1
-0.00695185 -0.00879986 0.426331 0.0090461 -0.999959 0.000196853
-0.226923 0.0428346 0.161807 -0.0086961 0.96789 -0.251224
0.0453594 0.194056 0.63068 0.0628946 0.958291 -0.278788
-0.124381 -0.209001 0.422844 -0.584119 -0.705097 0.402049
0.148767 0.185935 0.628737 -0.190665 -0.941046 0.279426
-0.0987163 0.185555 0.598653 0.210092 -0.936938 0.279298
-0.170977 -0.163386 0.409609 -0.81497 -0.579503 0
0.12713 0.176191 0.6131 0.202161 0.94047 -0.273217
-0.234884 0.0210294 0.0937662 -0.999957 -0.00924854 6.53964e-05
-0.15028 -0.0284432 0.438917 0 0 1
-0.231071 0.126936 0.532549 0.999958 0.0091489 -0.000103024
-0.135432 -0.142383 0.381647 0 0 -1
0.0345707 0.253102 0.746884 0.0640501 0.99393 -0.0894444
0.232243 0.112975 0.438075 0.00868817 -0.96789 0.251225
-0.0349626 0.104186 0.390397 0.00541185 -0.59956 0.800311
0.232834 -0.0786564 0.600325 -0.999955 -0.00917125 0.00234429
0.207071 0.0916412 0.334709 -0.00868839 0.967895 -0.251204
0.200129 -0.156497 0.00415133 -0.999959 -0.00906678 0
-0.0632947 -0.0496824 0.364587 0.000739401 -0.0823714 -0.996601
-0.108267 0.154815 0.432496 0.34899 -0.915864 0.198492
0.225282 0.142084 0.524887 -0.00478485 0.53288 0.846177
-0.0792645 -0.085673 0.370261 -0.999959 -0.00903957 0
0.0573708 0.168362 0.498993 0.1011 0.982101 -0.158921
0.22725 0.116214 0.500169 0.999951 0.00992419 -0.000233401
0.012837 -0.0993899 0.438917 0 0 1
0.269733 -0.0419312 0.593851 0.999959 0.00909995 0.000425828
-0.232066 0.0310536 0.57472 0.00397117 -0.431352 -0.902175
-0.140403 0.0190767 0.381647 0 0 -1
-0.0829744 0.217876 0.72759 -0.210305 0.938529 -0.273742
-0.232405 0.0101199 0.0359572 -0.00895706 0.967892 -0.251206
0.0136735 -0.225558 0.381647 0 0 -1
0.191982 0.0957546 0.394543 -0.0860687 -0.572583 0.815317
-0.225145 0.127674 0.570221 0.00868136 -0.96791 0.251147
-0.0992808 0.179255 0.558234 0.213962 -0.966759 0.139992
0.0162963 0.190223 0.56309 -0.0638877 -0.989191 0.131985
-0.0461148 0.151322 0.468869 0.00384839 -0.424303 0.905512
0.125955 0.103489 0.393005 -0.0860687 -0.572583 0.815317
-0.0770133 0.165407 0.436219 0.0450506 -0.569254 0.820926
-0.0431106 0.181505 0.581568 -0.081721 0.987013 -0.138303
0.207235 0.0466118 0.161205 -0.00868839 0.967895 -0.251204
0.196209 0.164886 0.643164 -0.494365 -0.833536 0.246619
0.0505939 -0.00828055 0.392413 0.0090461 -0.999959 0
0.232269 0.019342 0.0552673 -0.00868839 0.967895 -0.251204
0.0199816 0.101508 0.434797 -0.00384304 0.424398 -0.905468
-0.149273 0.0988133 0.377274 -0.00880881 0.970229 -0.24203
0.152086 -0.0928854 0.381647 0 0 -1
-0.266548 -0.0663869 0.596778 -0.999959 -0.00903856 -0.000257134
-0.113476 -0.0250131 0.438917 0 0 1
-0.162048 0.0950923 0.393128 0.096548 -0.569496 0.816304
0.168827 0.199085 0.703863 -0.494352 -0.833544 0.246617
0.140685 -0.0590033 0.381647 0 0 -1
0.100688 0.241163 0.748898 -0.000816569 0.0903998 0.995905
0.100637 0.182665 0.615782 0.202161 0.94047 -0.273217
0.10439 0.198514 0.640821 -0.190665 -0.941046 0.279426
-0.228724 -0.131595 0.601185 0.999958 0.00908674 0.000730866
-0.110891 0.109251 0.397126 0.0745696 -0.597497 0.798397
-0.0474669 0.196607 0.642518 -0.0801867 0.956998 -0.278792
0.148534 0.144529 0.483117 0.282424 0.940035 -0.191235
-0.0653674 0.0997781 0.434348 -0.00384304 0.424398 -0.905468
0.00939605 0.0998659 0.375719 -0.00880881 0.970229 -0.24203
-0.0431498 0.0300798 0.438917 0 0 1
0.213438 0.0680544 0.243609 -0.00868839 0.967895 -0.251204
-0.047326 -0.0947467 0.438917 0 0 1
0.243901 0.0765767 0.553014 0.00516663 -0.579261 -0.815126
-0.0127201 -0.176003 0.381647 0 0 -1
0.213023 0.0901846 0.350937 0.00869395 -0.96789 0.251225
0.199054 0.117553 0.46715 -0.604758 -0.772029 0.195548
0.199401 0.162749 0.67369 0.48155 0.841829 -0.243788
-0.184451 0.0740644 0.00270463 -0.948187 0.317713 0
0.109046 -0.224126 0.420202 0.385578 -0.826535 0.410085
-0.0958932 -0.226048 0.426395 -0.370607 -0.833578 0.409632
-0.177931 0.13327 0.477017 0.627394 -0.754191 0.193839
0.264703 -0.130676 0.600459 0.0023045 -0.250092 0.968219
0.00854075 0.185047 0.585925 0.0638867 0.988327 -0.138304
-0.184809 0.154145 0.594611 0.514463 -0.839448 0.175086
-0.013671 -0.0535121 0.438917 0 0 1
-0.0952538 0.097925 0.371747 -0.00880881 0.970229 -0.24203
-0.194945 0.0102797 0.00866966 -0.994993 0.099947 -8.5956e-07
0.235153 -0.129726 0 0 0 -1
0.135456 0.201104 0.670741 -0.190665 -0.941046 0.279426
0.138803 0.0133442 0.381647 0 0 -1
-0.121661 0.173484 0.00864233 0.683952 -0.729527 0
-0.126204 -0.0814874 0.438917 0 0 1
-0.13146 0.201605 0.709053 -0.210305 0.938529 -0.273742
-0.23071 0.0876596 0.568677 0.99996 0.00892668 -0.000328581
-0.0304855 -0.0599607 0.381647 0 0 -1
0.0199168 -0.057868 0.381647 0 0 -1
-0.156332 0.20342 0.734755 -0.221444 0.934525 -0.278613
-0.229699 -0.0245367 0.608019 0.999959 0.00901727 -0.00071677
0.2306 0.167585 0.480326 -0.999959 -0.00904744 -0.000107278
-0.201289 0.114322 0.513915 -0.620566 0.759139 -0.196483
-0.106475 -0.179583 0.381647 0 0 -1
-0.0821175 0.205439 0.68429 -0.210305 0.938529 -0.273742
-0.130082 0.102454 0.446328 0.00379612 -0.424156 0.905581
0.0612137 -0.114761 0.381647 0 0 -1
-0.231349 0.157869 0.50203 -0.999959 -0.00899744 -0.00018401
-0.26424 -0.122804 0.603731 0.00230308 -0.250161 0.968202
0.208766 0.105247 0.387072 -0.00897204 0.967887 -0.251225
0.0645399 -0.0729775 0.381647 0 0 -1
-0.203099 0.0957786 0.442181 0.999952 0.0097866 -0.000190355
0.268574 0.0856164 0.560687 0.99996 0.00891036 -0.000311023
0.0534398 0.177761 0.554596 0.0638867 0.988327 -0.138304
-0.22356 0.0605259 0.251912 0.00895656 -0.967887 0.251225
0.00660965 0.140607 0.453178 -0.0038382 0.424371 -0.90548
-0.0725426 0.177368 0.510997 0.109686 -0.983266 0.145456
0.113571 0.100209 0.433791 -0.00384304 0.424398 -0.905468
-0.0901434 0.188425 0.632123 -0.210305 0.938529 -0.273742
0.22487 0.0624774 0.400112 0.999959 0.00908232 0
-0.204487 0.153129 0.629173 -0.00902456 0.957433 -0.288515
0.23314 0.0686086 0.58415 -0.00441171 0.479185 0.877703
0.102398 -0.00781157 0.421582 0.0090461 -0.999959 0.000196853
-0.062227 -0.128212 0.371078 0.000741948 -0.0823712 -0.996601
0.134583 0.152867 0.458587 -0.335458 -0.920615 0.199842
-0.0244715 0.175507 0.527751 -0.081721 0.987013 -0.138303
0.0798656 0.15975 0.431245 0.00542676 -0.59956 0.800312
-0.130111 0.160379 0.545242 -0.302719 0.933762 -0.190919
-0.194526 -0.218236 0.00560587 0.999959 0.00906677 0
-0.19317 0.181995 0.739197 -0.509391 0.82443 -0.246648
-0.136511 0.218048 0.750805 -0.000870102 0.0906039 0.995887
0.222482 -0.0339847 0.419334 0.993946 -0.109872 0
0.033946 0.181174 0.504197 -0.0907921 -0.98527 0.144914
0.012245 0.164335 0.431799 -0.0343049 -0.569981 0.820941
0.0741811 0.0873979 0.401711 -0.00904628 0.999959 0
-0.133557 0.189113 0.668662 -0.221444 0.934525 -0.278613
-0.0607171 -0.0254993 0.377277 0.999959 0.00906461 -0.000171584
0.0387858 0.121768 0.444212 -0.00384304 0.424398 -0.905468
-0.0186946 0.176804 0.466578 0.109686 -0.983266 0.145456
0.151476 0.209353 0.709453 -0.190665 -0.941046 0.279426
0.268805 0.0603003 0.569616 0.999959 0.00903385 -0.000495424
-0.0185708 0.172748 0.504574 -0.081721 0.987013 -0.138303
-0.241279 -0.0751112 0.612363 0.00094239 -0.102363 0.994747
0.152383 -0.131532 0.438917 0 0 1
-0.180642 0.0928017 0.44202 0.00384839 -0.424303 0.905512
0.236861 0.00332084 0.00720947 0.999956 0.00942536 -0.000113293
-0.259 -0.0198253 0.611491 -0.00181476 0.197119 0.980378
0.0861426 -0.027835 0.381647 0 0 -1
0.0595651 -0.0269427 0.438917 0 0 1
0.213683 0.138476 0.531648 0.999959 0.00906688 -8.59521e-05
-0.267788 0.132324 0.531794 -0.00640187 0.717768 0.696253
-0.240803 0.144618 0.483053 0.00684922 -0.768149 -0.640234
0.245426 -0.0309764 0.589534 0.000936372 -0.101709 -0.994814
-0.146949 0.148538 0.0381872 0 0 1
-0.18507 0.170992 0.685486 -0.496694 0.832986 -0.243782
-0.203711 0.162904 0.688039 0.999958 0.00915584 -7.36611e-05
-0.135157 0.15416 0.476751 0.34899 -0.915864 0.198492
-0.00153324 -0.133938 0.438917 0 0 1
0.108446 -0.103838 0.381647 0 0 -1
0.103446 0.172974 0.573626 0.20525 0.966727 -0.152683
0.184789 -0.00174839 0.381647 0 0 -1
0.0958237 -0.131099 0.438917 0 0 1
-0.224782 0.104396 0.480495 0.00868136 -0.96791 0.251147
-0.0717289 0.0929694 0.351004 -0.00878191 0.970298 -0.241754
-0.0648055 0.170423 0.458212 0.109686 -0.983266 0.145456
-0.0977366 -0.115672 0.438917 0 0 1
0.17142 0.135486 0.452488 -0.604758 -0.772029 0.195548
0.118278 -0.17111 0.438917 0 0 1
-0.0597395 0.0861864 0.417191 -0.00904628 0.999959 0
0.0926445 0.205879 0.029243 0.436872 0.899524 0
-0.200633 0.074638 0.283412 -0.00895706 0.967892 -0.251206
-0.205961 0.0471038 0.381647 0 0 -1
0.114828 -0.0247908 0.438917 0 0 1
0.122116 0.0182075 0.438917 0 0 1
0.192633 0.0500101 0.0185801 0.993015 0.11799 0
-0.222486 0.00278205 0.421682 -0.922432 -0.0082814 0.38607
0.0691852 0.0403319 0.438917 0 0 1
-0.134813 0.0620863 0.381647 0 0 -1
-0.0482821 -0.0940231 0.381647 0 0 -1
0.22519 -0.00948235 0.418447 0.993946 -0.109872 0
0.0520591 -0.234191 0.436167 0.054595 -0.354505 0.933459
0.186366 0.176283 0.694677 0.48155 0.841829 -0.243788
-0.010564 -0.214495 0.381647 0 0 -1
0.0903991 0.179582 0.536442 -0.193963 -0.971119 0.138947
0.145538 -0.12512 0.381647 0 0 -1
-0.0541718 0.117867 0.400776 0.00541185 -0.59956 0.800311
-0.241027 0.0806549 0.546995 0.00516642 -0.579265 -0.815123
-0.0291492 0.150725 0.423412 0.0450506 -0.569254 0.820926
-0.259563 0.160592 0.499469 -0.0068493 0.76816 0.640221
0.0225675 -0.14097 0.381647 0 0 -1
-0.206912 -0.0831068 0.00668222 0 0 1
0.062796 0.0391853 0.359219 -0.999959 -0.00908589 0
0.0822678 0.203997 0.675618 0.202161 0.94047 -0.273217
-0.0152199 0.125937 0.446396 -0.0038382 0.424371 -0.90548
0.259011 0.0240911 0.578557 0.00240996 -0.270277 -0.96278
0.0381686 0.207068 0.673786 0.0629216 0.958293 -0.278775
0.117293 0.159734 0.4612 -0.335458 -0.920615 0.199842
-0.0882885 0.0993747 0.44471 0.00384113 -0.424403 0.905465
-0.0494299 0.218066 0.716751 -0.0802261 0.957 -0.278773
-0.144573 0.175082 0.598014 0.210092 -0.936938 0.279298
0.192371 -0.054375 0.438917 0 0 1
0.0329928 -0.15038 0.438917 0 0 1
-0.139021 -0.198595 0.401311 -0.637951 -0.770077 0
-0.255773 0.0399504 0.570362 0.00397014 -0.431352 -0.902175
0.0802195 -0.144774 0.438917 0 0 1
-0.0952953 -0.124797 0.381647 0 0 -1
0.2319 0.0241506 0.578887 -0.999958 -0.00910858 0.000545563
0.0742342 0.125589 0.456308 0.00384113 -0.424403 0.905465
-0.185813 0.0268735 0.438917 0 0 1
-0.155244 0.135612 0.463956 -0.302719 0.933762 -0.190919
-0.230767 -0.049037 0.590939 0.000936125 -0.101681 -0.994817
-0.0153453 -0.247364 0.383473 -0.0471491 -0.347594 -0.936459
0.00158514 0.086742 0.423885 -0.00904628 0.999959 -0.000196114
0.0713995 -0.00809234 0.406111 0.0090461 -0.999959 0
-0.00186647 0.113521 0.396116 0.0450506 -0.569254 0.820926
0.0277422 0.113711 0.397108 0.00542676 -0.59956 0.800312
-0.107918 0.219877 0.720732 0.20995 -0.936989 0.279237
-0.268673 0.168417 0.479252 0.999972 0.00748751 0.000501434
0.111076 -0.223366 0.397765 0.422761 -0.906241 0
-0.0947626 0.198078 0.668769 -0.210305 0.938529 -0.273742
0.0829642 -0.079774 0.369212 0.999959 0.00904002 0
-0.0270556 -0.243948 0.433744 -0.0482281 -0.355456 0.933448
-0.130111 0.0855498 0.403214 -0.00904628 0.999959 0
-0.073861 -0.00940643 0.417681 0.0090461 -0.999959 0
0.0956789 -0.0670568 0.381647 0 0 -1
-0.223608 0.0430326 0.184518 0.00895656 -0.967887 0.251225
-0.137642 0.144959 0.438667 0.34899 -0.915864 0.198492
0.144547 0.143708 0.433122 -0.335458 -0.920615 0.199842
-0.211384 -0.202934 0.00668222 0 0 1
0.0628277 0.199115 0.62129 -0.0628144 -0.956641 0.284415
0.163476 -0.049338 0.381647 0 0 -1
-0.0616422 0.0763547 0.366752 0.999959 0.00906461 -0.000171584
-0.252775 0.0815852 0.574663 -0.00427265 0.479187 0.877703
-0.17273 -0.0874407 0.438917 0 0 1
0.0725882 -0.0502254 0.381647 0 0 -1
-0.217781 0.0820298 0.312498 -0.0086961 0.96789 -0.251224
0.113787 0.158361 0.499797 0.282424 0.940035 -0.191235
-0.166023 0.201196 0.714484 0.509386 -0.824434 0.246647
0.269251 0.0110128 0.596063 0.999959 0.00909995 0.000425828
-0.0788945 0.00961754 0.359674 0.000741948 -0.0823712 -0.996601
-0.051393 0.175543 0.544619 -0.118838 0.980112 -0.158931
0.202745 0.13328 0.501471 0.00689633 -0.768031 -0.640376
0.142736 0.0823413 0.438917 0 0 1
0.204333 -0.0211501 0.381647 0 0 -1
-0.210709 0.0134832 0.0481426 -0.00895706 0.967892 -0.251206
0.213021 0.0731595 0.285345 0.00869395 -0.96789 0.251225
0.209626 -0.0855044 0.384258 0.353297 -0.129372 -0.926523
0.0809488 0.103387 0.389013 0.00542676 -0.59956 0.800312
0.222173 -0.0404065 0 0 0 -1
0.202252 -0.114807 0.393241 0.93901 -0.34389 0
0.259226 -0.0471605 0.613442 -0.000427601 0.0479426 0.99885
0.0978613 -0.0618804 0.438917 0 0 1
-0.211981 0.0410985 0.435794 -0.386271 -0.00346382 0.922379
0.179142 0.221155 0.748783 0.501558 0.861794 -0.0758313
-0.00303314 0.196137 0.628127 -0.0801867 0.956998 -0.278792
0.226045 -0.177958 0 0 0 -1
0.225955 0.0379874 0.149391 0.00868817 -0.96789 0.251225
0.0255738 0.230154 0.0150637 0.147038 0.989131 0
-0.212345 0.0958084 0.410028 -0.00869865 0.968928 -0.247191
0.246483 0.04729 0.594385 -0.00314952 0.342086 0.939663
-0.0347642 0.235516 0.7493 -0.000818461 0.0903684 0.995908
0.206567 0.118162 0.436909 -0.00897204 0.967887 -0.251225
-0.249436 0.131867 0.498258 0.00685108 -0.768148 -0.640235
-0.0163649 -0.0131163 0.381647 0 0 -1
-0.235504 0.0897774 0.35348 -0.999972 -0.00750367 -0.00040748
0.16171 0.112378 0.403021 -0.0860687 -0.572583 0.815317
-0.234598 -0.0107644 0.0013296 -0.999959 -0.00906723 0
0.13932 0.155075 0.521349 0.282424 0.940035 -0.191235
0.0276919 0.230449 0.718924 -0.0628146 -0.956641 0.284415
0.128559 0.178869 0.584725 -0.193963 -0.971119 0.138947
-0.146285 -0.0910582 0.438917 0 0 1
-0.109398 -0.167079 0.438917 0 0 1
-0.229458 -0.167857 0.00668222 0 0 1
-0.211798 0.0895545 0.341281 -0.0086961 0.96789 -0.251224
0.235783 0.0697581 0.24938 -0.00897204 0.967887 -0.251225
-0.126981 0.14444 0.462319 -0.302719 0.933762 -0.190919
0.0119843 0.156302 0.470956 0.00384839 -0.424303 0.905512
0.0493347 -0.245873 0.385568 0.139156 -0.903161 -0.406122
0.0702867 0.232114 0.733934 -0.0628144 -0.956641 0.284415
0.0831793 -0.127437 0.38184 0 0 1
-0.192971 0.0299372 0.0211062 -0.994993 0.0999476 0
-0.0915297 0.1693 0.477644 0.213962 -0.966759 0.139992
-0.0595074 0.129585 0.448293 -0.0038382 0.424371 -0.90548
0.153126 0.0375629 0.381647 0 0 -1
0.17958 -0.154533 0.390341 0.76156 -0.521124 -0.385299
0.0174812 0.0349624 0.381647 0 0 -1
0.0657308 -0.0931035 0.368272 0.000739439 -0.0823713 -0.996601
-0.19865 0.202285 0.752184 -0.000856463 0.0902249 0.995921
-0.0634933 -0.0285791 0.438917 0 0 1
0.155464 0.182353 0.654077 0.190665 0.941046 -0.279428
0.0588623 0.0937303 0.369047 0.00878119 -0.970217 0.24208
0.185248 0.144955 0.535108 -0.499115 -0.848132 0.177639
0.060117 -0.065084 0.438917 0 0 1
0.00105481 -0.128162 0.381647 0 0 -1
-0.232893 -0.117813 0.58123 -0.00214096 0.240112 -0.970743
-0.161903 0.169999 0.634525 -0.509391 0.82443 -0.246648
0.227472 0.0915406 0.416826 0.999957 0.009295 -0.000108184
0.203133 0.143785 0.606808 -0.999961 -0.008771 -6.49876e-05
-0.157094 0.165692 0.568538 0.514463 -0.839448 0.175086
0.084779 0.0939037 0.441412 0.00384113 -0.424403 0.905465
-0.206562 0.0619283 0.234653 -0.00895706 0.967892 -0.251206
0.0232815 0.0869378 0.421808 -0.00904628 0.999959 -0.000196114
0.268165 0.131164 0.524566 0.999961 0.00882684 -0.000368565
-0.140614 0.108631 0.400038 0.096548 -0.569496 0.816304
0.135592 -0.0934405 0.438917 0 0 1
-0.208612 0.123024 0.492195 0.00866869 -0.967895 0.251204
0.216312 0.169633 0.493793 -0.00687625 0.76816 0.640221
0.0723803 0.162787 0.47409 0.1011 0.982101 -0.158921
0.211139 0.107655 0.477844 0.00868556 -0.96791 0.251147
-0.175985 0.142188 0.511357 0.514463 -0.839448 0.175086
-0.168627 0.1179 0.0176389 -0.847297 0.53112 0
-0.130519 0.189869 0.637047 0.210092 -0.936938 0.279298
-0.224525 0.14229 0.517136 0.999959 0.00909617 -9.34903e-05
-0.199317 -0.0686897 0.437766 -0.385393 -0.0497014 0.921413
0.145178 0.21909 0.750942 -0.000765238 0.090611 0.995886
0.069146 0.0308279 0.38184 0 0 1
-0.0773424 -0.00918599 0.438917 0 0 1
0.116006 0.219018 0.750633 0.190665 0.941046 -0.279428
0.0762198 0.0923046 0.362695 0.00880805 -0.970282 0.241816
0.195115 0.00370933 0.0207754 0.00903949 -0.972756 0.231655
0.107077 0.0629059 0.381647 0 0 -1
-0.135438 -0.00237879 0.381647 0 0 -1
0.123053 -0.18662 0.381647 0 0 -1
0.0484492 0.182049 0.582933 0.0638867 0.988327 -0.138304
-0.0472343 0.19928 0.620923 0.080079 -0.955368 0.284358
0.071249 -0.172571 0.381647 0 0 -1
-0.0760711 -0.0586215 0.438917 0 0 1
-0.136477 0.150183 0.505464 -0.302719 0.933762 -0.190919
0.236031 0.0954686 0.351421 0.999956 0.00942536 -0.000113293
0.00206786 0.106452 0.43719 -0.00384304 0.424398 -0.905468
-0.0983503 0.167581 0.543013 -0.225297 0.962278 -0.152517
0.261045 0.124957 0.544329 -0.00661196 0.717768 0.696251
-0.115078 -0.0433398 0.381647 0 0 -1
0.203677 -0.0586036 0.381647 0 0 -1
-0.0147825 0.227978 0.740806 -0.0802261 0.957 -0.278773
-0.200542 0.140279 0.612065 -0.496694 0.832986 -0.243782
0.0533936 0.224942 0.0213697 0.436872 0.899524 0
0.230911 0.133434 0.502371 0.999957 0.00925144 5.48897e-05
0.0810241 0.180119 0.588722 0.20525 0.966727 -0.152683
0.191188 0.0884564 0.416435 -0.00904628 0.999959 0
-0.235013 0.0353725 0.149652 -0.999972 -0.00750367 -0.00040748
0.112703 0.128781 0.457641 0.00384113 -0.424403 0.905465
0.21008 0.0150426 0.0394693 -0.00868839 0.967895 -0.251204
0.138297 -0.154872 0.438917 0 0 1
-0.0163597 0.195042 0.59799 0.080079 -0.955368 0.284358
0.202064 0.0944613 0.441176 0.00384113 -0.424403 0.905465
-0.0261874 0.224168 0.0331536 0.165119 -0.986274 0
-0.215807 0.169063 0.489159 -0.0086446 0.928719 0.370685
0.0126884 -0.0909134 0.381647 0 0 -1
0.178151 0.152944 0.597016 0.486349 0.857367 -0.168485
-0.0087056 -0.078558 0.438917 0 0 1
0.0344617 0.168767 0.486921 0.1011 0.982101 -0.158921
-0.151214 0.193063 0.695946 -0.221444 0.934525 -0.278613
-0.18313 0.0447836 0.381647 0 0 -1
-0.0551674 0.190972 0.594291 0.081739 -0.987876 0.131987
-0.157101 0.0742559 0.381647 0 0 -1
-0.0147837 -0.159317 0.438917 0 0 1
-0.0440913 0.245621 0.745503 0.000816171 -0.090361 -0.995909
0.0820348 0.0230298 0.359742 0.999959 0.00904002 0
-0.0586093 -0.147045 0.438917 0 0 1
-0.194648 -0.114069 0.430869 -0.859742 -0.332661 0.387531
-0.220513 -0.100849 0 0 0 -1
0.0266349 0.202327 0.6241 -0.0628144 -0.956641 0.284415
0.149145 0.121436 0.443589 -0.00384304 0.424398 -0.905468
-0.130394 0.179267 0.601389 0.210092 -0.936938 0.279298
-0.0510356 0.111581 0.450272 0.00379612 -0.424156 0.905581
-0.213839 0.122119 0.480945 -0.99996 -0.00891848 -0.000101914
-0.0676905 0.212531 0.671204 0.080079 -0.955368 0.284358
0.175276 0.0883153 0.384428 -0.0090625 0.999959 -0.000536285
-0.112852 0.161929 0.473381 0.34899 -0.915864 0.198492
-0.0657466 0.226151 0.747376 0.0819865 -0.992575 0.0898458
0.0194801 -0.185928 0.438917 0 0 1
-0.0472741 -0.246065 0.385534 -0.122562 -0.905111 -0.407126
-0.034403 -0.190164 0.438917 0 0 1
-0.102716 0.0717942 0.438917 0 0 1
-0.18471 0.0924959 0.393997 0.096548 -0.569496 0.816304
-0.10532 0.130947 0.459574 0.00384839 -0.424303 0.905512
-0.205187 -0.0173603 0.438076 -0.385186 -0.0496181 0.921504
-0.107302 -0.00970896 0.419467 0.0090461 -0.999959 0
0.0872003 0.143079 0.419003 -0.0645114 -0.598727 0.798351
0.163326 0.168476 0.585811 -0.499115 -0.848132 0.177639
0.201599 0.0629095 0.224195 -0.00868839 0.967895 -0.251204
-0.252876 -0.0984704 0.586059 -0.00214096 0.240112 -0.970743
-0.0739825 0.0860575 0.400181 -0.00904628 0.999959 0
0.211197 0.191346 0.743502 -0.00862754 0.957437 -0.288515
0.205049 0.128311 0.476063 -0.00897204 0.967887 -0.251225
-0.240115 0.110466 0.521479 0.0063351 -0.710299 -0.703871
-0.104884 -0.14417 0.438917 0 0 1
0.227008 0.142867 0.596509 0.999951 0.00992419 -0.000233401
-0.208781 -0.132028 0.00668222 0 0 1
0.230757 -0.215678 0.00668222 0 0 1
-0.116233 0.0856767 0.426785 -0.00904628 0.999959 -0.000196114
-0.0986115 0.15252 0.45686 -0.302719 0.933762 -0.190919
-0.0021666 0.0867068 0.383999 -0.0090625 0.999958 -0.00103553
-0.123381 0.0979625 0.37292 -0.00878191 0.970298 -0.241754
0.207755 0.110714 0.453542 -0.00873104 0.968927 -0.247192
0.157651 -0.0025226 0.438917 0 0 1
-0.235373 0.0747645 0.306741 -0.999972 -0.00750367 -0.00040748
-0.194893 0.0853625 0.432052 0.00833772 -0.921242 -0.3889
0.0463837 -0.122056 0.381647 0 0 -1
-0.16391 0.18246 0.680323 -0.509391 0.82443 -0.246648
-0.169855 0.10755 0 0 0 -1
-0.269505 0.146552 0.516205 -0.00886528 0.768141 0.64022
-0.0712318 0.201038 0.633586 0.080079 -0.955368 0.284358
0.168669 0.176366 0.62676 -0.494365 -0.833536 0.246619
0.0731865 0.177362 0.502864 -0.0907921 -0.98527 0.144914
-0.136691 -0.168518 0.438917 0 0 1
0.0778574 0.208065 0.654882 -0.190665 -0.941046 0.279426
-0.200381 0.138986 0.52441 -0.00477914 0.532244 0.846578
-0.147288 0.148218 0 0 0 -1
-0.0208273 0.0878214 0.344596 0.00219575 -0.241881 -0.970303
-0.0600486 -0.119629 0.438917 0 0 1
-0.162599 -0.0925868 0.381647 0 0 -1
0.0814502 -0.105336 0.438917 0 0 1
-0.0423473 -0.198176 0.381647 0 0 -1
0.0320526 -0.0204199 0.438917 0 0 1
-0.141757 -0.0380738 0.381647 0 0 -1
0.178398 0.101057 0.374344 -0.00880881 0.970229 -0.24203
0.0180236 -0.212358 0.438917 0 0 1
0.0212487 0.142874 0.417274 -0.0343049 -0.569981 0.820941
0.219429 0.136538 0.554353 -0.00873104 0.968927 -0.247192
-0.0613697 0.046323 0.368224 0.999959 0.00906461 -0.000171584
0.148936 -0.186797 0.38387 0.235635 -0.274046 -0.932403
