0.17466 -0.125611 0.359907 0 0.98732 -0.158745
0.246474 -0.0023953 0.543575 0.11036 0 0.993892
0.1203 0.142328 0.515703 0 -0.987384 -0.158345
0.114158 0.0276736 0.375333 0 0 1
-0.180353 0.191654 0.716116 0 0.342718 0.939438
-0.100345 0.0843477 0.370214 0 0 -1
0.0542277 -0.122742 0.370214 0 0 -1
-0.236406 -0.195609 0.0184024 0.110444 -0.684961 -0.72016
0.0171552 0.0288355 0.375333 0 0 1
0.0845842 0.205853 0.719069 0 0.396272 -0.918133
-0.101881 0.0526229 0.395556 0 0.00257723 -0.999997
0.194828 -0.228423 0.394046 0 -0.729741 0.683724
-0.158873 0.117679 0.404336 0 0 1
0.0985027 0.19407 0.625757 0 0.939449 -0.342687
-0.253673 -0.15032 0.00562319 -0.886701 -0.0716506 -0.456757
0.00875549 0.17531 0.574328 0 0.939449 -0.342687
-0.242061 -0.172803 0.0218407 -0.110361 0.442961 0.889722
-0.0907087 -0.0585635 0.354007 0 0 -1
-0.230934 0.136281 0.541858 0.437501 0 0.899218
-0.239788 -0.0755807 0.521461 0.110453 -0.543882 0.831861
-0.15933 -0.0661745 0.375333 0 0 1
0.111273 -0.20605 0.393337 0 0.0651033 -0.997879
-0.209887 -0.0829122 0.395207 0 0.00257723 -0.999997
0.0766896 -0.0903058 0.395187 0 0.00257723 -0.999997
0.164982 -0.213727 0.363945 0 0.0813816 -0.996683
0.239748 0.150548 0.530053 0 -1 0
-0.194447 0.174047 0.53626 0 0.99995 -0.0100305
0.141076 0.145324 0.578686 0 -0.938939 0.344084
0.0882993 0.147279 0.50986 0 -0.987839 -0.155479
-0.113346 0.184546 0.479128 0 0.954704 0.297557
-0.10958 0.148012 0.481672 0 -0.954703 -0.297561
-0.112037 0.105771 0.370214 0 0 -1
0.0872524 0.0554337 0.354007 0 0 -1
0.164966 0.14126 0.395784 0 0.00257723 -0.999997
-0.179722 0.0417548 0.370214 0 0 -1
0.00501621 0.0800424 0.370214 0 0 -1
0.0514293 -0.226758 0.368881 0 0.19264 0.98127
-0.0163286 -0.0297651 0.375333 0 0 1
0.0926097 0.212469 0.676196 0 0.939449 -0.342687
0.254894 -0.0421387 0.531321 0.886702 0.122943 -0.445695
-0.103895 -0.0796997 0.395215 0 0.00257723 -0.999997
-0.0269556 0.154563 0.474052 0 -0.949977 -0.312321
-0.130618 -0.151041 0.399295 0 -0.00257723 0.999997
-0.0594686 -0.0550132 0.375333 0 0 1
0.136743 0.0970836 0.370214 0 0 -1
0.147833 -0.218431 0.366916 0 0.0813534 -0.996685
0.0497979 0.151715 0.508773 0 0.987836 0.1555
0.115108 0.00286281 0.404336 0 0 1
-0.148351 0.0925582 0.370214 0 0 -1
0.137001 -0.11069 0.399399 0 -0.00257723 0.999997
-0.121524 -0.179311 0.371019 0 -0.0813343 0.996687
0.00170666 -0.196157 0.368734 0 0.0813534 -0.996685
0.0784292 0.0841337 0.395637 0 0.00257723 -0.999997
0.0939803 0.144316 0.503304 0 -0.987384 -0.158345
-0.00429712 -0.0866273 0.395197 0 0.00257723 -0.999997
0.155557 0.0618075 0.367808 0.447222 0 -0.894423
0.232778 0.170646 0.535996 0 1 0
0.108899 -0.134289 0.395074 0 0.00257723 -0.999997
0.193557 0.206016 0.722492 0 -0.343431 0.939178
-0.137293 0.0940357 0.370214 0 0 -1
0.230269 -0.192782 0.0325444 -0.437506 0.619706 0.651577
0.118268 0.149705 0.521543 0 0.987836 0.1555
0.0412089 0.215485 0.0110893 0 0 1
-0.0153078 0.0228707 0.404336 0 0 1
-0.156382 -0.0137823 0.404336 0 0 1
-0.209632 -0.194903 0.365482 0 0.0813816 -0.996683
0.116911 0.152788 0.501958 0 0.987836 0.1555
0.128779 0.155134 0.605457 0 -0.938939 0.344084
0.112392 -0.0688971 0.395243 0 0.00257723 -0.999997
-0.134589 0.201549 0.00426515 0 0 -1
0.0434051 -0.0467545 0.370214 0 0 -1
0.146095 0.140719 0.525734 0 -0.987384 -0.158345
-0.0340243 -0.0802474 0.370214 0 0 -1
0.109035 -0.141648 0.370214 0 0 -1
-0.121773 0.153277 0.401503 0 -0.371446 0.928454
-0.0654574 0.215964 0.685777 0 0.939449 -0.342687
0.15205 0.179728 0.58644 0 0.939449 -0.342687
-0.0561147 0.17719 0.679052 0 -0.939447 0.342694
-0.091935 0.0966601 0.399933 0 -0.00257723 0.999997
-0.152462 -0.23287 0.370748 0 -0.729684 -0.683785
0.0463227 0.180197 0.673849 0 -0.938939 0.344084
-0.230982 -0.2037 0.121219 0.437567 0.8581 -0.268698
-0.207629 0.144271 0.542953 0 -0.999959 0.00907937
0.153721 0.176783 0.578367 0 0.939449 -0.342687
0.0641772 -0.148905 0.395036 0 0.00257723 -0.999997
-0.215757 -0.0324764 0.399601 0 -0.00257723 0.999997
0.181375 -0.0674482 0.395246 0 0.00257723 -0.999997
-0.00714901 0.144362 0.552999 0 -0.999959 0.00907937
-0.13024 -0.1625 0.404336 0 0 1
0.0852405 0.144279 0.543785 0 -0.999959 0.00907937
0.0464987 0.194209 0.0110893 0 0 1
-0.194515 0.150381 0.490146 0 -0.987839 -0.155479
0.162918 0.226493 0.700592 0 0.994806 -0.101791
0.215406 0.199326 0.410547 0.506196 0.845671 -0.169134
-0.205839 0.215676 0.682116 0 -0.937754 0.347301
-0.0329408 0.0742364 0.395612 0 0.00257723 -0.999997
-0.150568 0.180468 0.588467 0 0.939449 -0.342687
0.0211675 0.118246 0.375333 0 0 1
0.146965 0.00136024 0.375333 0 0 1
0.139245 0.162741 0.401315 0 0.536899 -0.843647
-0.0635786 0.163638 0.446448 0 -0.949977 -0.312321
0.0308276 0.167853 0.447109 0 0.948683 0.316228
-0.077952 0.0925057 0.404336 0 0 1
0.219844 0.215587 0.693981 0.506251 0.810167 -0.295531
-0.108296 0.123516 0.370214 0 0 -1
0.240554 0.208181 0.00682519 1 0 0
-0.0224548 0.191455 0.00463439 0 -0.382644 -0.923896
-0.0400589 0.175284 0.525681 0 0.987379 0.158375
-0.141114 -0.186167 0.366195 0 0.0813816 -0.996683
0.147481 -0.221311 0.400916 0 -0.0813645 0.996684
-0.226499 0.156366 0.587641 -0.862462 -0.475475 0.173444
-0.13592 -0.225522 0.399565 0 -0.309118 0.951024
-0.0741594 -0.128786 0.395088 0 0.00257723 -0.999997
0.00172126 0.169429 0.644463 0 -0.938939 0.344084
-0.00512145 0.208241 0.723306 0 -0.343431 0.939178
-0.210103 -0.198186 0.39385 0 0.0651033 -0.997879
0.227525 -0.103937 0.469099 -0.886525 -0.44222 0.136069
-0.124996 0.164836 0.442805 0 -0.949977 -0.312321
-0.0294486 0.139752 0.39578 0 0.00257723 -0.999997
0.00212068 0.140135 0.529379 0 -0.987384 -0.158345
-0.150329 0.12206 0.404336 0 0 1
-0.0934659 -0.0106326 0.404336 0 0 1
0.0953971 0.00901473 0.404336 0 0 1
-0.172373 0.142143 0.400051 0 -0.00257723 0.999997
0.166044 -0.208469 0.368639 0 -0.0813343 0.996687
-0.0408722 0.201094 0.41653 0 0.980581 -0.196116
0.0564929 0.179473 0.499569 0 0.987379 0.158375
0.21919 -0.0907134 0.372996 0.506249 0 -0.862387
0.113863 0.0367498 0.395515 0 0.00257723 -0.999997
-0.18124 0.187512 0.70735 0 -0.939447 0.342694
0.0150694 -0.170191 0.404336 0 0 1
0.0339946 0.197026 0.633861 0 0.939449 -0.342687
0.0371772 0.107065 0.404336 0 0 1
0.00709018 0.166838 0.407912 0 -0.894427 0.447214
-0.106435 0.198485 0.710407 0 0.938941 -0.344078
0.16965 -0.173275 0.404336 0 0 1
0.218509 0.0659999 0.401954 0.506166 0 0.862436
-0.161769 0.221132 0.71606 0 -0.625399 -0.780305
0.0415739 -0.163159 0.395 0 0.00257723 -0.999997
0.103631 0.099807 0.395677 0 0.00257723 -0.999997
0.131927 -0.22128 0.367805 0 0.19264 0.98127
-0.16522 0.152896 0.370346 0 0.196127 -0.980578
0.00307946 0.0471728 0.375333 0 0 1
-0.226228 0.168973 0.493679 -0.862442 0.499768 0.0801538
0.126885 0.171833 0.421522 0 -0.949977 -0.312321
0.222978 0.000935581 0.375978 0.862408 0 -0.506215
0.136041 -0.236955 0.381119 0 -0.951023 -0.309119
-0.196481 -0.0315914 0.404336 0 0 1
-0.103243 -0.224134 0.368366 0 0.19264 0.98127
0.146433 -0.0501884 0.363246 0.447222 0 -0.894423
-0.138329 -0.219705 0.367577 0 -0.998751 -0.0499584
-0.181577 0.148047 0.59916 0 -0.939447 0.342694
-0.0491965 0.0215689 0.375333 0 0 1
-0.0447394 -0.16229 0.404336 0 0 1
-0.0791013 -0.113712 0.370214 0 0 -1
-0.030784 -0.128219 0.370434 0 -0.679409 -0.733759
0.203845 0.17418 0.549547 0 0.99995 -0.0100305
-0.0605446 0.232278 0.0110893 0 0 1
-0.233323 -0.213001 0.130975 0.437581 -0.858093 0.268699
0.0920038 -0.0679058 0.370214 0 0 -1
0.15288 0.144358 0.552498 0 -0.999959 0.00907937
0.204674 0.169969 0.659256 0 -0.939447 0.342694
0.133098 0.20702 0.0110893 0 0 1
0.0900886 0.144236 0.529194 0 -0.987839 -0.155479
-0.175982 -0.210483 0.4018 0 -0.0813645 0.996684
0.180324 0.149045 0.498639 0 -0.987839 -0.155479
0.210301 -0.0553749 0.399541 0 -0.00257723 0.999997
-0.247783 -0.171673 0.0201124 -0.437469 0.400756 0.804994
0.0109239 0.213753 0.679715 0 0.939449 -0.342687
0.0481338 0.189818 0.71367 0 -0.939447 0.342694
-0.0794653 0.0109558 0.399712 0 -0.00257723 0.999997
-0.0656379 0.167125 0.435841 0 -0.949977 -0.312321
0.0114233 0.168654 0.431191 0 -0.949977 -0.312321
0.189415 0.0716835 0.404336 0 0 1
0.20177 -0.231114 0.372617 0 0.677701 0.735338
-0.0835388 0.182832 0.484626 0 0.954704 0.297557
0.0605671 0.221512 0.686957 0 0.937758 -0.347289
0.0620114 0.221434 0.686746 0 0.937758 -0.347289
0.155997 0.170095 0.405996 0 0.536899 -0.843647
0.18561 0.141688 0.404336 0 0 1
0.183378 0.0962886 0.395668 0 0.00257723 -0.999997
0.0400622 0.17115 0.423599 0 -0.949977 -0.312321
-0.0408081 0.179972 0.68668 0 -0.939447 0.342694
-0.216107 0.156614 0.596147 0 0.938941 -0.344078
-0.163354 0.221045 0.719126 0 0.906623 0.421942
-0.134187 0.144933 0.375333 0 0 1
0.0670078 0.169494 0.644643 0 -0.938939 0.344084
0.0325472 -0.21435 0.397061 0 -0.0650527 0.997882
0.199847 0.15984 0.618299 0 -0.938939 0.344084
0.175472 0.173904 0.656677 0 -0.938939 0.344084
0.0512154 0.216736 0.722187 0 0.154584 0.98798
-0.0814609 -0.0905817 0.395187 0 0.00257723 -0.999997
0.060818 0.198263 0.402371 0 0.980581 -0.196116
-0.115674 -0.159202 0.39501 0 0.00257723 -0.999997
-0.0739968 0.215352 0.0110893 0 0 1
-0.11861 -0.0827094 0.395207 0 0.00257723 -0.999997
0.149061 0.148089 0.481423 0 -0.954703 -0.297561
0.101732 0.0164017 0.395462 0 0.00257723 -0.999997
-0.219765 0.136545 0.395772 0 0.00257723 -0.999997
0.0638571 0.0836728 0.370214 0 0 -1
-0.111316 0.0501186 0.404336 0 0 1
-0.0412643 0.055127 0.395562 0 0.00257723 -0.999997
0.0549227 0.19428 0.698933 0 0.938941 -0.344078
0.0204776 0.150464 0.605788 0 -0.939447 0.342694
-0.0204022 0.167602 0.639478 0 -0.938939 0.344084
0.218833 -0.0187179 0.372786 0.506249 0 -0.862387
0.248403 -0.122874 0.418921 0.437384 -0.85951 0.264459
0.0250889 0.174097 0.541207 0 0.99995 -0.0100305
0.199934 0.222786 0.690398 0 0.937758 -0.347289
0.189122 0.0489114 0.370214 0 0 -1
0.0774812 -0.221245 0.398389 0 -0.998754 -0.0499118
-0.0365218 0.0142875 0.375333 0 0 1
0.11685 -0.127261 0.370214 0 0 -1
0.181738 -0.191202 0.370048 0 -0.0813343 0.996687
0.199453 -0.00683729 0.395403 0 0.00257723 -0.999997
-0.169744 -0.20921 0.401904 0 -0.0813645 0.996684
0.215071 0.172828 0.432185 0 0.948683 0.316228
0.0600279 0.109908 0.395703 0 0.00257723 -0.999997
-0.0318286 0.159437 0.617198 0 -0.938939 0.344084
0.138328 0.110296 0.404336 0 0 1
0.180237 -0.142066 0.404336 0 0 1
-0.00945605 0.129162 0.375333 0 0 1
-0.116735 -0.0911386 0.404336 0 0 1
-0.223986 0.06585 0.377695 -0.862408 0 -0.506215
-0.165675 -0.132192 0.399344 0 -0.00257723 0.999997
-0.101732 -0.170504 0.404336 0 0 1
-0.0284605 -0.148318 0.370214 0 0 -1
0.168912 0.161768 0.437536 0 -0.954703 -0.297561
-0.207762 0.218316 0.0110893 0 0 1
0.196639 0.0262168 0.404336 0 0 1
-0.14836 -0.23448 0.374259 0 -0.669165 -0.743114
-0.24204 -0.0215406 0.0151893 -0.110425 0 0.993884
0.044347 0.207034 0.00426515 0 0 -1
-0.135293 0.194411 0.626691 0 0.939449 -0.342687
0.114734 0.0800174 0.395626 0 0.00257723 -0.999997
-0.0426139 0.205763 0.7224 0 -0.343431 0.939178
0.224709 -0.162909 0.395 0 0.00257723 -0.999997
-0.0756112 0.201117 0.416644 0 0.980581 -0.196116
-0.155916 0.189459 0.00640977 0 -0.923796 -0.382885
-0.243478 -0.195244 0.017867 -0.110445 -0.68495 -0.72017
0.00278045 0.126098 0.400009 0 -0.00257723 0.999997
-0.196219 0.215718 0.678415 0 -0.44752 -0.894274
0.170761 0.200231 0.428803 0 0.954704 0.297557
-0.0239558 -0.103019 0.395155 0 0.00257723 -0.999997
-0.195169 0.192469 0.621367 0 0.939449 -0.342687
-0.251626 0.14812 0.541152 -0.437445 0 0.899245
0.151709 0.222893 0.704919 0 0.996133 -0.0878616
-0.0320639 -0.193286 0.369878 0 -0.0813343 0.996687
-0.163435 -0.13094 0.372953 0 -0.679409 -0.733759
0.0524264 0.162428 0.463386 0 0.948683 0.316228
0.0587955 0.19007 0.390126 0 0.822212 -0.569182
-0.11995 0.171033 0.635496 0 0.938941 -0.344078
0.00244842 0.121313 0.395733 0 0.00257723 -0.999997
-0.0465014 0.210563 0.726789 0 0.0878698 0.996132
0.0408633 -0.161753 0.395003 0 0.00257723 -0.999997
0.133021 0.0958536 0.375333 0 0 1
0.135979 0.162701 0.462567 0 0.948683 0.316228
-0.253658 -0.213551 0.098621 -0.886684 0.441249 -0.138169
0.0971437 0.0447299 0.375333 0 0 1
-0.189236 0.17891 0.584196 0 0.939449 -0.342687
-0.0151065 0.189703 0.613786 0 0.939449 -0.342687
0.095839 0.231311 0.00426515 0 0 -1
-0.08903 0.191166 0.617796 0 0.939449 -0.342687
-0.226429 0.129259 0.381857 -0.862408 0 -0.506215
0.219871 0.211446 0.708896 -1.73622e-05 0.342718 0.939439
0.226905 0.170203 0.603602 1 0 0
-0.0159989 0.144061 0.395792 0 0.00257723 -0.999997
0.0569702 -0.00167741 0.370214 0 0 -1
-0.0179988 -0.129531 0.367399 0 0.397851 0.91745
0.10984 0.111978 0.375333 0 0 1
-0.0240544 0.15878 0.628585 0 -0.939447 0.342694
0.0354284 -0.206925 0.40209 0 -0.0813645 0.996684
-0.0894409 0.22587 0.00426515 0 0 -1
0.0795052 0.144568 0.575634 0 -0.999959 0.00907937
0.0942293 0.218498 0.706323 0 0.342718 0.939438
0.214514 0.174597 0.671835 0.506173 -0.810209 0.29555
-0.0810568 -0.149066 0.404336 0 0 1
-0.148671 -0.0621529 0.39526 0 0.00257723 -0.999997
0.0745327 -0.144812 0.404336 0 0 1
0.227779 0.148521 0.540843 0 0.999955 -0.00944456
-0.179881 0.102233 0.395684 0 0.00257723 -0.999997
0.0606207 0.127628 0.366166 0 0.416318 -0.909219
-0.205949 0.144644 0.404336 0 0 1
0.147405 0.056868 0.363732 0.447222 0 -0.894423
-0.166731 0.218407 0.678572 0 0.937758 -0.347289
0.0555788 -0.181961 0.394909 0 0.0651033 -0.997879
-0.130271 0.177738 0.680554 0 -0.939447 0.342694
-0.0705438 0.162162 0.450937 0 -0.949977 -0.312321
0.0446863 -0.0204555 0.399632 0 -0.00257723 0.999997
0.0166268 0.140177 0.561566 0 -0.99995 0.00999456
-0.0442741 0.148514 0.540141 0 0.999955 -0.00944456
0.175826 0.142654 0.513669 0 -0.987384 -0.158345
-0.217614 0.219833 0.717101 0 -0.625399 -0.780305
-0.18706 -0.105045 0.395149 0 0.00257723 -0.999997
0.25428 -0.0502707 0.527163 0.886717 0.253013 -0.386934
-0.194544 0.180305 0.687592 0 -0.939447 0.342694
0.170657 0.151073 0.512854 0 0.987836 0.1555
-0.0172773 0.156652 0.480714 0 0.948683 0.316228
0.12471 0.220804 0.0110893 0 0 1
0.0656613 -0.0641011 0.375333 0 0 1
0.0482941 0.0764653 0.354007 0 0 -1
-0.190512 -0.225169 0.364911 0 -0.310932 -0.950432
0.13142 0.105711 0.370214 0 0 -1
0.100025 -0.122357 0.399369 0 -0.00257723 0.999997
-0.119434 0.142931 0.511939 0 -0.987384 -0.158345
0.215373 0.0611962 0.403795 0.506166 0 0.862436
0.12717 0.144321 0.548401 0 -0.999959 0.00907937
0.123084 0.148517 0.540396 0 0.999955 -0.00944456
-0.119236 -0.18156 0.399199 0 -0.0650527 0.997882
-0.157414 0.220607 0.698506 0 0.939449 -0.342687
-0.226905 -0.0205559 0.388569 -1 0 0
-0.079521 0.191417 0.618484 0 0.939449 -0.342687
0.156411 0.163107 0.448063 0 -0.949977 -0.312321
-0.00465951 -0.110638 0.354155 0 -0.67941 -0.733759
0.103503 0.107479 0.35694 0 0.416318 -0.909219
0.0271238 -0.0486564 0.404336 0 0 1
0.0289778 0.141347 0.580795 0 -0.939447 0.342694
-0.157992 -0.186479 0.366169 0 0.0813816 -0.996683
0.227491 -0.102955 0.00491946 -0.886517 0 -0.462696
0.0375921 0.0864705 0.354007 0 0 -1
0.0502967 0.140081 0.551943 0 -0.99995 0.00999456
0.229176 -0.0428723 0.39531 0 0.00257723 -0.999997
0.233197 0.00737826 0.542959 -0.437501 0 0.899218
-0.250822 -0.157471 0.00438022 -0.437408 -0.139362 -0.888399
-0.0907836 0.0254214 0.354007 0 0 -1
-0.0778927 0.174223 0.553779 0 0.99995 -0.0100305
-0.0137561 0.00907272 0.395444 0 0.00257723 -0.999997
-0.100555 0.127095 0.400012 0 -0.00257723 0.999997
0.00942342 0.170695 0.661247 0 -0.939447 0.342694
0.212789 0.163345 0.406043 0 -0.447214 0.894427
0.226352 -0.196037 0.0279738 -0.886494 -0.318901 -0.335307
-0.125016 0.12871 0.395752 0 0.00257723 -0.999997
-0.0183631 0.0408205 0.354007 0 0 -1
-0.0166177 0.0628402 0.399846 0 -0.00257723 0.999997
-0.0298968 -0.123829 0.395101 0 0.00257723 -0.999997
-0.0845785 -0.193658 0.394145 0 0.0651033 -0.997879
-0.0134663 -0.00965285 0.395395 0 0.00257723 -0.999997
-0.19855 -0.202861 0.368187 0 0.0813534 -0.996685
0.162353 -0.206543 0.367886 0 0.0813534 -0.996685
-0.174586 0.144226 0.503866 0 -0.987384 -0.158345
-0.219418 0.169965 0.427202 0 -0.949977 -0.312321
-0.131403 0.198901 0.711542 0 0.938941 -0.344078
-0.111189 0.156843 0.480139 0 0.948683 0.316228
-0.207332 0.212608 0.720289 0 -0.133892 -0.990996
-0.209809 0.191825 0.692233 0 0.938941 -0.344078
-0.221862 0.161752 0.624038 -0.506173 -0.81021 0.295549
0.0193096 -0.173492 0.370214 0 0 -1
0.176319 0.147555 0.483138 0 -0.954703 -0.297561
0.0319649 0.201255 0.417334 0 0.980581 -0.196116
-0.0282855 0.219407 0.695215 0 0.939449 -0.342687
0.0525002 0.20148 0.7155 0 0.812713 -0.582664
0.120949 -0.0507524 0.370214 0 0 -1
0.215831 0.049876 0.399813 0 -0.00257723 0.999997
-0.202785 -0.0177132 0.399639 0 -0.00257723 0.999997
-0.15166 0.178304 0.582536 0 0.939449 -0.342687
0.167058 -0.22018 0.392415 0 0.0651033 -0.997879
-0.112187 -0.00674543 0.354007 0 0 -1
0.0806159 -0.0528928 0.395284 0 0.00257723 -0.999997
0.0630724 0.212576 0.722838 0 0.154584 0.98798
-0.22881 0.155838 0.483156 0 0.948683 0.316228
-0.254345 0.0564187 0.537917 -0.886705 0 0.462337
-0.065707 0.215773 0.685253 0 0.939449 -0.342687
0.206748 -0.073175 0.395232 0 0.00257723 -0.999997
-0.220419 0.147155 0.507723 -0.506178 -0.851547 -0.136571
0.0735952 -0.148589 0.399301 0 -0.00257723 0.999997
0.0113685 0.16786 0.409956 0 -0.894427 0.447214
-0.148342 0.148892 0.575074 0 0.938941 -0.344078
-0.217475 -0.214426 0.368153 0 -0.0813343 0.996687
-0.00665952 -0.000170246 0.354007 0 0 -1
0.0802045 0.137274 0.370583 0 0.416318 -0.909219
0.0115477 -0.231888 0.390349 0 -0.729741 0.683724
0.0522112 0.192101 0.706333 0 -0.938939 0.344084
-0.212985 0.197451 0.724376 0 -0.422038 0.906578
0.14711 0.17171 0.420409 0 -0.986394 0.1644
0.00923589 0.174667 0.64541 0 0.938941 -0.344078
-0.0358055 -0.0630283 0.395258 0 0.00257723 -0.999997
-0.161157 0.226075 0.699277 0 0.937758 -0.347289
-0.0928285 0.157559 0.625238 0 -0.939447 0.342694
-0.0489176 0.00149077 0.399688 0 -0.00257723 0.999997
0.0819703 -0.0419374 0.395312 0 0.00257723 -0.999997
0.235933 0.0761494 0.529391 -0.110369 0 -0.993891
0.225255 0.165189 0.632894 0 -0.938939 0.344084
-0.144334 0.188323 0.682678 0 0.938941 -0.344078
0.0616921 0.0872929 0.404336 0 0 1
0.127974 -0.0497731 0.354017 0.447222 0 -0.894423
-0.223514 0.158784 0.602068 0 0.938941 -0.344078
0.0508427 -0.22799 0.398763 0 -0.309118 0.951024
-0.113061 -0.0150966 0.354007 0 0 -1
0.000208616 0.179672 0.672415 0 -0.938939 0.344084
0.206354 -0.230788 0.397086 0 -0.743057 0.669228
-0.103847 0.218329 0.00426515 0 0 -1
-0.0694706 -0.0338023 0.375333 0 0 1
0.0259217 0.189994 0.461647 0 0.954704 0.297557
-0.0360744 -0.0918026 0.375333 0 0 1
-0.241944 0.123276 0.544078 -0.11036 0 0.993892
0.120043 0.166689 0.421748 0 -0.954703 -0.297561
0.11928 0.168581 0.642149 0 -0.938939 0.344084
0.1323 0.175164 0.377267 0 0.569215 -0.822189
0.20494 0.181643 0.664446 0 0.938941 -0.344078
-0.0212676 -0.0362795 0.354007 0 0 -1
-0.189549 0.0493942 0.395548 0 0.00257723 -0.999997
-0.163888 0.102581 0.371974 -0.447222 0 -0.894423
-0.0682406 0.177157 0.579392 0 0.939449 -0.342687
-0.0220371 0.0425225 0.399794 0 -0.00257723 0.999997
0.154903 -0.154379 0.395022 0 0.00257723 -0.999997
0.0450427 0.201476 0.418438 0 0.980581 -0.196116
0.0906212 -0.0520181 0.370214 0 0 -1
-0.0711892 0.17059 0.415417 0 -0.894427 0.447214
-0.238344 -0.167815 0.00352875 0.110408 -0.154012 -0.981881
-0.0103113 0.10611 0.375333 0 0 1
-0.115228 0.214532 0.70777 0 0.342718 0.939438
0.0935767 0.091637 0.395656 0 0.00257723 -0.999997
-0.185413 -0.0193927 0.370214 0 0 -1
0.253674 0.221377 0.0103261 0.886701 0 0.462343
0.212155 -0.136759 0.395068 0 0.00257723 -0.999997
0.227759 0.102313 0.533285 -0.886521 0 -0.462689
-0.207846 -0.165376 0.404336 0 0 1
0.00505897 0.000219077 0.404336 0 0 1
0.0678733 0.174376 0.569052 0 0.99995 -0.0100305
0.111115 0.153725 0.588263 0 0.938941 -0.344078
0.0559677 -0.090992 0.404336 0 0 1
0.229962 0.0581381 0.012507 -0.437488 0 0.899224
0.228933 -0.18759 0.0159773 -0.437492 -0.400739 -0.80499
-0.0596754 -0.196176 0.402968 0 -0.0813645 0.996684
0.0988815 0.0556467 0.404336 0 0 1
-0.147532 0.174117 0.54328 0 0.99995 -0.0100305
-0.186253 0.175884 0.420207 0 0.99226 -0.124178
0.050901 0.176478 0.57753 0 0.939449 -0.342687
-0.0382404 0.156078 0.469441 0 -0.949977 -0.312321
0.221605 0.193707 0.435622 0.506212 0.823344 0.256622
0.028486 0.165188 0.426564 0 -0.954703 -0.297561
0.134438 -0.0356523 0.357248 0.447222 0 -0.894423
-0.0969525 0.152759 0.585627 0 0.938941 -0.344078
-0.175907 -0.185058 0.366285 0 0.0813816 -0.996683
-0.0408693 0.1908 0.459062 0 0.954704 0.297557
0.17011 0.139207 0.404336 0 0 1
0.111036 -0.158179 0.404336 0 0 1
-0.0795597 -0.234411 0.374196 0 -0.669165 -0.743114
-0.122327 0.143301 0.373343 0 0.416318 -0.909219
0.252662 -0.15432 0.310434 0.437525 -0.85812 0.268706
-0.041987 -0.000546023 0.395419 0 0.00257723 -0.999997
-0.0913358 0.189706 0.699797 0 -0.938939 0.344084
0.0584411 -0.110347 0.375333 0 0 1
0.143166 0.139898 0.533609 0 -0.99995 0.00999456
-0.113088 -0.179242 0.36676 0 0.0813816 -0.996683
0.132141 -0.224291 0.364624 0 -0.310932 -0.950432
0.207552 0.148607 0.600697 0 -0.939447 0.342694
0.0485448 -0.0712469 0.395237 0 0.00257723 -0.999997
-0.139454 -0.0296756 0.399608 0 -0.00257723 0.999997
0.246261 -0.107588 0.471589 0.110416 -0.949936 0.292284
-0.0461409 0.0313804 0.354007 0 0 -1
-0.204302 0.140126 0.556464 0 -0.99995 0.00999456
0.095608 0.198669 0.404404 0 0.980581 -0.196116
-0.0386873 -0.00716659 0.395402 0 0.00257723 -0.999997
0.0116453 0.167722 0.639807 0 -0.938939 0.344084
0.173888 0.145666 0.592634 0 -0.939447 0.342694
-0.159933 0.200851 0.426814 0 0.954704 0.297557
0.124902 -0.128447 0.399353 0 -0.00257723 0.999997
0.0118217 0.17402 0.656992 0 -0.938939 0.344084
0.118764 0.158282 0.462738 0 -0.949977 -0.312321
0.147099 -0.0495131 0.399557 0 -0.00257723 0.999997
0.00179775 -0.134218 0.354623 0 -0.280297 -0.959913
0.206691 0.192874 0.708441 0 -0.938939 0.344084
-0.0291661 -0.0113123 0.395391 0 0.00257723 -0.999997
-0.215071 0.166637 0.437324 0 -0.949977 -0.312321
-0.0466901 0.174174 0.548914 0 0.99995 -0.0100305
-0.137514 -0.0865579 0.404336 0 0 1
0.141676 0.151904 0.396655 0 0.358905 -0.933374
-0.0600911 0.010519 0.399711 0 -0.00257723 0.999997
0.0381749 0.17277 0.410813 0 0.877896 -0.478852
-0.100209 0.132542 0.370214 0 0 -1
-0.0405205 0.0375179 0.375333 0 0 1
-0.0800677 -0.227641 0.369417 0 0.677701 0.735338
0.0885636 0.038154 0.354007 0 0 -1
-0.181188 0.0339939 0.370214 0 0 -1
-0.125306 0.227391 0.0110893 0 0 1
0.00306186 -0.199729 0.365088 0 0.0813816 -0.996683
0.200854 0.217798 0.0110893 0 0 1
0.16329 -0.135864 0.399334 0 -0.00257723 0.999997
-0.224045 0.147276 0.509874 0 -0.987839 -0.155479
-0.0745435 0.162613 0.46283 0 0.948683 0.316228
0.192296 0.164643 0.631403 0 -0.938939 0.344084
0.0476078 0.0780937 0.370214 0 0 -1
0.0860403 -0.205046 0.368919 0 -0.0813343 0.996687
-0.204138 0.22586 0.698698 0 0.937758 -0.347289
-0.00336377 -0.0153296 0.370214 0 0 -1
0.0577254 0.107581 0.395697 0 0.00257723 -0.999997
-0.00830555 -0.115816 0.35895 0 -0.67941 -0.733759
-0.0567095 -0.016351 0.399642 0 -0.00257723 0.999997
-0.0867151 0.180772 0.688871 0 -0.939447 0.342694
-0.216437 0.166651 0.623535 0 0.938941 -0.344078
0.0553447 0.0621891 0.370214 0 0 -1
0.236392 0.052699 0.0148921 -0.110424 0 0.993885
-0.09514 0.0912222 0.354007 0 0 -1
0.19013 -0.185974 0.369565 0 0.0813534 -0.996685
-0.188581 -0.0612843 0.395262 0 0.00257723 -0.999997
-0.0551388 -0.0940879 0.354007 0 0 -1
0.105616 0.221149 0.696895 0 -0.937754 0.347301
-0.227436 -0.02024 0.0103291 0.886517 0 0.462695
-0.131369 0.168474 0.641859 0 -0.938939 0.344084
0.0122417 -0.0874063 0.375333 0 0 1
-0.22652 0.0776899 0.392536 -0.862465 0 0.506117
0.121043 0.152016 0.506859 0 0.987836 0.1555
0.0731026 0.0644849 0.404336 0 0 1
0.121306 -0.0276684 0.399613 0 -0.00257723 0.999997
0.00998572 0.144349 0.551492 0 -0.999959 0.00907937
-0.0554976 -0.0867239 0.404336 0 0 1
-0.0825277 -0.182673 0.36648 0 0.0813816 -0.996683
0.241803 -0.117558 0.389601 0.110452 0.949931 -0.292287
-0.0726167 0.199314 0.640134 0 0.939449 -0.342687
-0.064256 0.161268 0.400378 0 0.536899 -0.843647
-0.0979793 0.195305 0.629143 0 0.939449 -0.342687
-0.0612174 -0.236604 0.387452 0 -0.978154 0.20788
-0.0430962 -0.180568 0.366652 0 0.0813816 -0.996683
0.195334 -0.225551 0.399556 0 -0.309118 0.951024
0.0536676 0.191861 0.619701 0 0.939449 -0.342687
0.188311 0.148579 0.547041 0 0.999955 -0.00944456
-0.135801 0.0525185 0.404336 0 0 1
0.0406808 0.186587 0.691284 0 -0.938939 0.344084
-0.165784 0.192067 0.706238 0 -0.938939 0.344084
-0.0751859 0.145215 0.522971 0 -0.987839 -0.155479
-0.0467214 0.00410415 0.399695 0 -0.00257723 0.999997
0.247902 -0.142371 0.0140854 0.437432 0 0.899251
0.0264557 0.145747 0.40006 0 -0.00257723 0.999997
0.222191 0.174562 0.65847 0 -0.938939 0.344084
-0.05837 -0.225748 0.391366 0 0.19278 -0.981242
-0.00861528 -0.133471 0.370214 0 0 -1
0.0510837 0.166465 0.649651 0 -0.939447 0.342694
-0.0126202 0.187215 0.470564 0 0.954704 0.297557
0.229176 0.170902 0.424353 0 -0.949977 -0.312321
0.225713 0.124691 0.380637 0.862408 0 -0.506215
0.095673 0.223408 0.710761 0 0.996133 -0.0878616
0.224806 -0.227045 0.391111 0 0.19278 -0.981242
0.204628 0.217161 0.706811 0 0.342718 0.939438
0.254712 -0.105239 0.453038 0.886704 0.441893 -0.135968
-0.108774 0.143758 0.370214 0 0 -1
0.230318 0.155953 0.473986 1 0 0
-0.22722 -0.0870948 0.501825 0.886497 -0.33507 0.319142
0.109016 0.0399219 0.354007 0 0 -1
0.0658146 0.0686208 0.395597 0 0.00257723 -0.999997
-0.123712 0.170923 0.416081 0 -0.894427 0.447214
0.0723396 0.187073 0.69261 0 -0.938939 0.344084
-0.12927 0.174057 0.537209 0 0.99995 -0.0100305
0.136796 -0.116187 0.404336 0 0 1
0.0110744 0.0543606 0.39556 0 0.00257723 -0.999997
-0.191333 0.174826 0.645844 0 0.938941 -0.344078
-0.0404646 0.220611 0.698516 0 0.939449 -0.342687
0.18544 0.175478 0.416959 0 0.99226 -0.124178
-0.127091 -0.17872 0.368905 0 1 0
-0.117361 0.118278 0.361885 0 0.416318 -0.909219
0.117173 0.156139 0.469256 0 -0.949977 -0.312321
0.0588892 0.182148 0.48682 0 0.954704 0.297557
-0.115952 -0.09559 0.370214 0 0 -1
-0.188755 0.152105 0.481528 0 -0.949977 -0.312321
-0.0156062 0.116455 0.39572 0 0.00257723 -0.999997
0.208301 0.0864236 0.399907 0 -0.00257723 0.999997
-0.163358 0.153123 0.586621 0 0.938941 -0.344078
0.09978 -0.0851093 0.375333 0 0 1
0.014099 0.179558 0.499036 0 0.987379 0.158375
-0.0118224 0.0238952 0.399746 0 -0.00257723 0.999997
0.097458 -0.176092 0.39923 0 -0.00257723 0.999997
0.0226415 0.0194336 0.354007 0 0 -1
-0.0751438 0.12901 0.375333 0 0 1
0.145946 0.148798 0.570175 0 0.999955 -0.00944456
0.205946 0.191849 0.455696 0 0.954704 0.297557
0.150851 0.0499638 0.370214 0 0 -1
0.0718352 0.0319494 0.375333 0 0 1
0.0966477 0.00709392 0.399702 0 -0.00257723 0.999997
-0.216183 -0.210285 0.364226 0 0.0813816 -0.996683
0.095346 0.0964974 0.404336 0 0 1
0.136014 -0.109648 0.375333 0 0 1
0.225018 -0.104216 0.379453 0.862408 0 -0.506215
0.193383 0.143162 0.58577 0 -0.939447 0.342694
-0.122425 0.10933 0.399966 0 -0.00257723 0.999997
0.154714 -0.0505437 0.367387 0.447222 0 -0.894423
-0.131213 0.165642 0.440352 0 -0.949977 -0.312321
0.130115 0.175135 0.646687 0 0.938941 -0.344078
0.0461502 -0.181862 0.404136 0 -0.0813645 0.996684
0.218754 0.154836 0.610404 0.506199 -0.810196 0.295543
-0.163257 0.179917 0.673085 0 -0.938939 0.344084
0.219746 0.00843816 0.395442 0 0.00257723 -0.999997
-0.247815 -0.195489 0.0371489 -0.437451 0.619709 0.651611
0.226945 -0.115336 0.428273 -0.886525 -0.44222 0.136069
-0.140535 0.160267 0.63266 0 -0.939447 0.342694
0.0686804 0.190329 0.688149 0 0.938941 -0.344078
0.161788 0.197353 0.634757 0 0.939449 -0.342687
0.0698984 0.139925 0.536303 0 -0.99995 0.00999456
0.0259024 0.149915 0.591214 0 -0.938939 0.344084
-0.234844 -0.210339 0.0882185 0.110453 0.988029 -0.107693
0.242824 -0.101678 0.441597 0.110387 0.949937 -0.292292
-0.0366937 0.227321 0.708686 0 0.994806 -0.101791
0.0946576 0.150811 0.487419 0 -0.987839 -0.155479
0.015114 0.169777 0.632067 0 0.938941 -0.344078
0.124521 0.154163 0.49322 0 0.987836 0.1555
-0.101372 0.078551 0.395623 0 0.00257723 -0.999997
0.120648 0.151148 0.47161 0 -0.954703 -0.297561
-0.21482 0.141428 0.580384 -0.506199 -0.810195 0.295545
0.124758 0.0942118 0.404336 0 0 1
0.134961 0.144758 0.525876 0 -0.987839 -0.155479
0.144616 0.145584 0.579396 0 -0.938939 0.344084
-0.0795952 0.12852 0.395751 0 0.00257723 -0.999997
0.0157893 -0.146301 0.395043 0 0.00257723 -0.999997
0.229768 -0.227926 0.36968 0 0.677701 0.735338
0.0832921 0.158379 0.600964 0 0.938941 -0.344078
0.0621381 0.0811623 0.375333 0 0 1
0.0334396 0.177781 0.581103 0 0.939449 -0.342687
-0.0631959 0.235454 0.0051611 0 0.38278 -0.92384
0.189403 0.154547 0.490784 0 0.987836 0.1555
-0.229081 0.085192 0.532154 0.437494 0 -0.899221
-0.210319 -0.181768 0.399185 0 -0.0650527 0.997882
-0.102936 -0.0117041 0.399654 0 -0.00257723 0.999997
0.117947 0.151308 0.400715 0 -0.371446 0.928454
-0.12602 0.19786 0.717391 0 -0.755416 0.655245
0.0951309 0.16366 0.45969 0 0.948683 0.316228
0.184763 0.146386 0.515532 0 -0.987839 -0.155479
-0.0150695 0.196728 0.0110893 0 0 1
0.221045 -0.105246 0.374085 0.506249 0 -0.862387
0.193776 0.180639 0.675055 0 -0.938939 0.344084
0.10794 0.140042 0.529958 0 -0.987384 -0.158345
-0.225152 -0.185006 0.39438 -0.862465 -0.0411705 0.504439
0.0277389 -0.0424045 0.399575 0 -0.00257723 0.999997
-0.10003 -0.0524423 0.370214 0 0 -1
0.154712 0.152476 0.611302 0 -0.939447 0.342694
-0.14487 0.217797 0.690803 0 0.939449 -0.342687
0.149527 0.085766 0.395641 0 0.00257723 -0.999997
-0.00192972 -0.235317 0.376955 0 -0.968668 -0.248358
-0.131471 0.136878 0.370214 0 0 -1
0.252509 -0.122696 0.00351031 0.437433 0 -0.899251
-0.0838633 0.175658 0.423694 0 0.948683 0.316228
-0.0834518 -0.00417802 0.375333 0 0 1
0.115544 0.140124 0.55619 0 -0.99995 0.00999456
-0.0257681 0.110373 0.404336 0 0 1
-0.199686 -0.0290381 0.399609 0 -0.00257723 0.999997
0.0757783 -0.0295945 0.395344 0 0.00257723 -0.999997
0.0115552 -0.189937 0.369242 0 0.0813534 -0.996685
0.0202894 0.119692 0.362532 0 0.416318 -0.909219
0.186806 0.123199 0.395738 0 0.00257723 -0.999997
0.043417 0.193312 0.719971 0 -0.818699 0.574223
0.0497621 -0.121922 0.404336 0 0 1
-0.153154 0.195403 0.714559 0 -0.755416 0.655245
-0.00868614 -0.234324 0.373081 0 -0.968668 -0.248358
0.0804139 0.174903 0.528057 0 0.987379 0.158375
-0.0471924 -0.0610621 0.404336 0 0 1
-0.242923 -0.202763 0.166846 -0.110389 -0.948475 0.297001
-0.0989224 -0.17872 0.36757 0 1 0
0.209986 0.213463 0.726062 0 0.574168 0.818738
0.137012 0.133967 0.400029 0 -0.00257723 0.999997
-0.139074 0.223369 0.710316 0 0.996133 -0.0878616
0.156244 0.103012 0.39995 0 -0.00257723 0.999997
0.00450043 0.0940499 0.395663 0 0.00257723 -0.999997
-0.225035 -0.16554 0.399258 0 -0.00257723 0.999997
0.0738921 0.197366 0.707354 0 0.938941 -0.344078
-0.03477 -0.178893 0.404336 0 0 1
0.0308871 0.2062 0.0110893 0 0 1
0.222148 0.0569282 0.399831 0 -0.00257723 0.999997
-0.00315684 0.161432 0.438615 0 -0.954703 -0.297561
0.0655287 -0.0621358 0.39526 0 0.00257723 -0.999997
0.254323 -0.0962299 0.00908135 0.886701 0 0.462343
0.142086 0.114058 0.375333 0 0 1
-0.0146007 0.192487 0.45365 0 0.954704 0.297557
-0.22392 -0.101044 0.396967 -0.862465 0 0.506117
-0.247435 -0.111719 0.411648 -0.437468 0.859468 -0.264455
0.0313752 0.126046 0.370214 0 0 -1
-0.200054 0.200531 0.413712 0 0.980581 -0.196116
-0.0636948 -0.00180453 0.39968 0 -0.00257723 0.999997
0.226581 0.0194494 0.00869126 -0.886517 0 0.462695
-0.223806 0.162989 0.448421 0 -0.949977 -0.312321
0.233547 0.216126 0.0110893 0 0 1
-0.0383104 -0.146926 0.404336 0 0 1
0.0111411 0.164359 0.643879 0 -0.939447 0.342694
-0.168758 -0.0307838 0.404336 0 0 1
-0.191298 0.199902 0.429859 0 0.954704 0.297557
0.204439 -0.179975 0.39922 0 -0.00257723 0.999997
-0.171121 0.188547 0.683287 0 0.938941 -0.344078
0.0815464 -0.0667515 0.354007 0 0 -1
-0.00192384 0.173854 0.643193 0 0.938941 -0.344078
-0.0393296 -0.0739386 0.39523 0 0.00257723 -0.999997
-0.243663 -0.0743341 0.0150091 -0.110425 0 0.993885
-0.0927462 0.0455514 0.399802 0 -0.00257723 0.999997
0.126309 0.166552 0.451012 0 0.948683 0.316228
-0.14705 0.18549 0.384416 0 0.569215 -0.822189
-0.227743 -0.0565704 0.52095 0.886534 0.253192 -0.387235
0.161698 0.0328252 0.370214 0 0 -1
0.0253952 -0.00527955 0.370214 0 0 -1
-0.0812698 -0.162392 0.404336 0 0 1
0.0811719 -0.195858 0.398267 0 -0.0650527 0.997882
0.229067 0.146824 0.53216 -0.437494 0 -0.899221
0.0743496 0.222497 0.703687 0 0.939449 -0.342687
-0.0509359 0.0713578 0.395604 0 0.00257723 -0.999997
0.0762842 0.0142597 0.399721 0 -0.00257723 0.999997
0.177245 0.0950269 0.395665 0 0.00257723 -0.999997
-0.0875967 0.174207 0.552197 0 0.99995 -0.0100305
-0.192961 0.150811 0.514514 0 0.987836 0.1555
0.0212716 0.0118161 0.375333 0 0 1
0.000100553 -0.0671774 0.354007 0 0 -1
0.18597 0.171609 0.374806 0 0.569215 -0.822189
0.099487 0.0389604 0.395521 0 0.00257723 -0.999997
0.189995 -0.194182 0.365541 0 0.0813816 -0.996683
0.166228 0.186273 0.677081 0 0.938941 -0.344078
-0.164332 -0.0970456 0.372196 -0.447222 0 -0.894423
0.0635499 -0.0927534 0.354007 0 0 -1
-0.174344 0.228887 0.00426515 0 0 -1
-0.0525689 -0.101965 0.375333 0 0 1
0.135012 0.145576 0.400059 0 -0.00257723 0.999997
-0.0471404 -0.0695172 0.395241 0 0.00257723 -0.999997
-0.230534 -0.0422299 0.536914 0.437393 -0.239153 0.866887
0.0610415 0.155093 0.472439 0 -0.949977 -0.312321
-0.194016 0.148497 0.538295 0 0.999955 -0.00944456
0.0301124 0.143145 0.370214 0 0 -1
-0.151893 0.219357 0.681139 0 0.937758 -0.347289
-0.25146 -0.013271 0.0123546 -0.437432 0 0.899251
0.171954 -0.220699 0.3966 0 -0.310932 0.950432
0.160238 -0.199534 0.393762 0 0.0651033 -0.997879
-0.0062979 0.156394 0.595545 0 0.938941 -0.344078
0.10046 -0.214014 0.401512 0 -0.0813645 0.996684
-0.239935 0.17781 6.88019e-05 0.110428 0 -0.993884
-0.089796 0.0339323 0.399772 0 -0.00257723 0.999997
0.211537 0.157758 0.599267 0 0.938941 -0.344078
0.0598032 0.146214 0.594135 0 -0.939447 0.342694
0.075658 0.144521 0.570504 0 -0.999959 0.00907937
-0.0547228 -0.130927 0.354494 0 0.219397 -0.975636
-0.200092 0.174393 0.57074 0 0.99995 -0.0100305
0.103443 -0.221223 0.400923 0 -0.0813645 0.996684
-0.0828397 0.159713 0.444128 0 -0.954703 -0.297561
-0.103167 0.200748 0.720566 0 -0.343431 0.939178
-0.162812 -0.0490321 0.375333 0 0 1
-0.178711 -0.230944 0.387588 0 0.67762 -0.735413
-0.189869 -0.191055 0.39858 0 -0.0650527 0.997882
0.160583 -0.0557531 0.399541 0 -0.00257723 0.999997
0.0684845 0.222981 0.714966 0 0.906623 0.421942
-0.143756 -0.0146845 0.395382 0 0.00257723 -0.999997
0.14098 -0.232272 0.385923 0 0.962331 -0.271882
-0.0372544 -0.0855572 0.354007 0 0 -1
-0.036444 0.174242 0.555741 0 0.99995 -0.0100305
0.204027 0.00250322 0.399691 0 -0.00257723 0.999997
-0.198139 0.178853 0.670182 0 -0.938939 0.344084
-0.131013 0.0811962 0.399893 0 -0.00257723 0.999997
0.16976 -0.00157911 0.375333 0 0 1
-0.0648997 0.0628365 0.404336 0 0 1
0.155837 0.00773814 0.399704 0 -0.00257723 0.999997
-0.0872994 -0.127704 0.366199 0 0.661315 0.750108
-0.223767 0.191288 0.433614 -0.862458 0.483203 0.150603
-0.0643836 -0.226155 0.394815 0 -0.310932 0.950432
0.129796 0.0255928 0.370214 0 0 -1
0.11977 0.124787 0.404336 0 0 1
-0.249983 -0.127277 0.365301 -0.437468 0.859468 -0.264455
-0.194748 -0.173355 0.404336 0 0 1
0.20354 -0.197897 0.398134 0 -0.0650527 0.997882
0.00484419 -0.0347629 0.395331 0 0.00257723 -0.999997
0.137828 0.172179 0.638621 0 0.938941 -0.344078
0.0210069 0.202242 0.42235 0 0.954704 0.297557
-0.141525 -0.207723 0.402025 0 -0.0813645 0.996684
-0.110775 0.0518247 0.370214 0 0 -1
-0.185827 0.166514 0.407627 0 -0.447214 0.894427
-0.0328286 0.218936 0.722224 0 0.574168 0.818738
0.238954 -0.116468 0.393277 -0.110387 0.949938 -0.292289
0.0409108 0.18302 0.595463 0 0.939449 -0.342687
0.225517 -0.0170967 0.39964 0 -0.00257723 0.999997
0.204679 0.187204 0.606935 0 0.939449 -0.342687
0.0493781 0.118959 0.362197 0 0.416318 -0.909219
0.0242574 0.00470759 0.395432 0 0.00257723 -0.999997
0.0767941 0.234437 0.0106149 0 0.382753 0.92385
0.0769051 0.144368 0.553627 0 -0.999959 0.00907937
-0.0143101 0.065781 0.399854 0 -0.00257723 0.999997
0.0168199 0.175507 0.574867 0 0.939449 -0.342687
0.117593 -0.128718 0.395088 0 0.00257723 -0.999997
0.142915 0.00871365 0.375333 0 0 1
-0.187386 -0.00714841 0.399666 0 -0.00257723 0.999997
0.20315 0.0253525 0.404336 0 0 1
-0.194854 0.153405 0.61385 0 -0.939447 0.342694
0.205826 0.168072 0.404708 0 0.536899 -0.843647
-0.090952 0.121732 0.399998 0 -0.00257723 0.999997
0.233936 -0.0899761 0.0144406 -0.437488 0 0.899224
0.07203 -0.182678 0.399126 0 -0.0650527 0.997882
-0.00568622 0.0803516 0.404336 0 0 1
-0.251433 -0.0271933 0.012368 -0.437432 0 0.899251
0.180732 0.15649 0.371064 0 0.196127 -0.980578
-0.0505096 -0.0851113 0.354007 0 0 -1
-0.0378702 0.195117 0.0110893 0 0 1
0.218182 0.162293 0.611643 0 0.938941 -0.344078
-0.0474943 -0.0342302 0.354007 0 0 -1
0.158297 0.146299 0.370214 0 0 -1
0.165381 0.0872617 0.404336 0 0 1
0.00609396 -0.202707 0.36911 0 -0.0813343 0.996687
-0.0152109 0.188861 0.611475 0 0.939449 -0.342687
0.0190609 0.142389 0.370214 0 0 -1
0.246188 -0.192729 0.150481 0.110453 0.94847 -0.296994
0.0192431 0.215526 0.681711 0 -0.937754 0.347301
-0.164948 0.205383 0.727246 0 0.0878698 0.996132
0.254448 -0.179086 0.221542 0.886681 -0.441255 0.138169
-0.15863 0.137449 0.404336 0 0 1
0.00602214 0.190763 0.61669 0 0.939449 -0.342687
0.227909 -0.100205 0.00411916 -0.886517 0 -0.462696
0.068794 0.165315 0.414314 0 -0.822297 0.569058
-0.193597 0.158139 0.44918 0 -0.954703 -0.297561
0.204697 0.148671 0.556757 0 0.999955 -0.00944456
0.0507742 0.156765 0.453588 0 -0.954703 -0.297561
-0.0977045 0.149127 0.478095 0 -0.954703 -0.297561
0.0256622 0.178147 0.654908 0 0.938941 -0.344078
-0.215604 0.164878 0.643326 -0.506199 -0.810195 0.295545
0.0141332 -0.182189 0.370784 0 -0.0813343 0.996687
0.24848 -0.22473 0.0777162 0.43739 -0.893981 0.0974049
0.079201 -0.125995 0.404336 0 0 1
-0.180456 -0.16999 0.399246 0 -0.00257723 0.999997
-0.212666 -0.0100093 0.395394 0 0.00257723 -0.999997
0.0314283 -0.00237075 0.404336 0 0 1
-0.0829844 0.19471 0.721964 0 -0.818699 0.574223
-0.156124 0.187393 0.469993 0 0.954704 0.297557
0.1724 -0.23075 0.3709 0 -0.669165 -0.743114
-0.177124 0.0199756 0.395472 0 0.00257723 -0.999997
0.250785 -0.182487 0.0126807 0.437475 -0.400743 -0.804998
-0.032556 -0.0882417 0.370214 0 0 -1
-0.127643 -0.0971289 0.375333 0 0 1
-0.169057 0.153429 0.497886 0 0.987836 0.1555
0.0777315 0.0502237 0.375333 0 0 1
0.155107 -0.0216243 0.375333 0 0 1
0.237981 0.0898723 0.0150686 -0.110424 0 0.993885
0.108246 -0.0649507 0.399517 0 -0.00257723 0.999997
0.25235 0.166218 0.539468 0.419934 0.734441 0.533152
-0.133767 -0.120933 0.375333 0 0 1
-0.128787 -0.0759995 0.354423 -0.447222 0 -0.894423
0.0226646 0.183689 0.670031 0 0.938941 -0.344078
-0.0623996 0.144427 0.560108 0 -0.999959 0.00907937
-0.01686 0.139886 0.532368 0 -0.99995 0.00999456
0.124474 0.190535 0.715637 0 -0.939447 0.342694
0.230178 0.215727 0.00426515 0 0 -1
-0.143847 -0.0369501 0.399589 0 -0.00257723 0.999997
-0.00338644 0.17541 0.674172 0 -0.939447 0.342694
-0.0257421 0.190711 0.716118 0 -0.939447 0.342694
-0.0310027 -0.0850276 0.395201 0 0.00257723 -0.999997
0.173349 -0.0649641 0.404336 0 0 1
0.217238 0.196659 0.434766 0.506171 0.823368 0.256623
-0.190895 -0.198198 0.398114 0 -0.0650527 0.997882
-0.0935754 0.193652 0.44991 0 0.954704 0.297557
-0.110253 -0.0359838 0.370214 0 0 -1
0.241364 0.0625892 0.544142 0.11036 0 0.993892
0.0132726 0.0815179 0.370214 0 0 -1
0.213382 -0.00425753 0.370214 0 0 -1
-0.190171 0.209628 0.668407 0 0.939449 -0.342687
0.167915 0.0148144 0.404336 0 0 1
-0.00314081 0.0649118 0.370214 0 0 -1
-0.0644589 0.105686 0.375333 0 0 1
0.135303 -0.237216 0.381922 0 -0.951023 -0.309119
0.115911 -0.139228 0.395061 0 0.00257723 -0.999997
-0.251727 -0.217401 0.0516687 -0.437542 -0.787159 -0.434669
-0.249491 -0.144547 0.346808 -0.437468 -0.858146 0.268716
0.100021 0.0306453 0.370214 0 0 -1
0.167263 -0.0527202 0.370214 0 0 -1
0.0893425 0.112519 0.399974 0 -0.00257723 0.999997
-0.1448 -0.125492 0.361169 0 0.999537 -0.030418
-0.0977859 0.180446 0.674527 0 -0.938939 0.344084
0.0411842 0.14563 0.395796 0 0.00257723 -0.999997
-0.0351109 -0.15312 0.39929 0 -0.00257723 0.999997
-0.0256236 0.0957315 0.354007 0 0 -1
-0.14338 -0.0688574 0.395243 0 0.00257723 -0.999997
-0.18446 0.157108 0.624002 0 -0.939447 0.342694
-0.131333 -0.132328 0.404336 0 0 1
-0.0730775 0.140103 0.554136 0 -0.99995 0.00999456
-0.0523478 0.167552 0.448012 0 0.948683 0.316228
0.0145577 -0.0344923 0.404336 0 0 1
0.178001 0.122496 0.370214 0 0 -1
-0.000885978 -0.0301051 0.375333 0 0 1
-0.23195 0.0671174 0.530758 0.437494 0 -0.899221
0.0551568 0.0796633 0.354007 0 0 -1
-0.253608 0.107261 0.010452 -0.886701 0 0.462343
0.0819672 0.193618 0.395251 0 0.822212 -0.569182
0.126882 0.0926364 0.370214 0 0 -1
0.169773 0.175829 0.41976 0 0.99226 -0.124178
-0.17844 0.143032 0.511313 0 -0.987384 -0.158345
-0.201938 0.164001 0.458667 0 0.948683 0.316228
0.00463542 -0.0451133 0.399568 0 -0.00257723 0.999997
0.225128 0.0215697 0.39974 0 -0.00257723 0.999997
0.226905 0.198793 0.677883 1 0 0
0.123169 0.187626 0.469246 0 0.954704 0.297557
-0.166926 0.166684 0.636974 0 -0.938939 0.344084
-0.219883 -0.197647 0.371812 -0.506202 0.0701726 -0.859555
-0.15429 -0.0525954 0.375333 0 0 1
0.024112 0.149693 0.370214 0 0 -1
-0.164188 0.193151 0.394576 0 0.822212 -0.569182
0.152177 -0.116656 0.375333 0 0 1
0.184261 0.117206 0.395722 0 0.00257723 -0.999997
0.210428 0.00320274 0.370214 0 0 -1
0.169159 0.21785 0.70656 0 0.342718 0.939438
0.0262853 0.0140294 0.370214 0 0 -1
0.0313485 0.174044 0.535995 0 0.99995 -0.0100305
-0.0123075 0.0249296 0.404336 0 0 1
-0.0709682 0.157282 0.624478 0 -0.939447 0.342694
0.194256 -0.127628 0.370214 0 0 -1
-0.171449 -0.157087 0.395015 0 0.00257723 -0.999997
0.205089 0.150625 0.515698 0 0.987836 0.1555
-0.0651779 0.226561 0.710738 0 0.919463 0.393177
-0.074335 -0.0684619 0.375333 0 0 1
0.180198 -0.237327 0.384053 0 -0.978154 0.20788
-0.0209415 -0.078944 0.375333 0 0 1
0.151391 -0.133019 0.354388 0 -0.093039 -0.995662
0.0901093 -0.0237457 0.404336 0 0 1
-0.01237 0.185518 0.688368 0 -0.938939 0.344084
0.0403747 0.166416 0.45142 0 0.948683 0.316228
-0.157777 0.164918 0.645411 0 -0.939447 0.342694
-0.0546051 0.0133961 0.395455 0 0.00257723 -0.999997
-0.00404195 0.165418 0.63352 0 -0.938939 0.344084
-0.0576728 0.0490022 0.39981 0 -0.00257723 0.999997
-0.0321741 -0.117899 0.39938 0 -0.00257723 0.999997
0.118375 0.050737 0.404336 0 0 1
-0.0431098 0.0795322 0.354007 0 0 -1
-0.249364 0.0133134 0.542252 -0.437445 0 0.899245
0.125751 0.0750388 0.404336 0 0 1
0.229817 0.195196 0.0124368 -0.437488 0 0.899224
-0.226109 0.00371506 0.393237 -0.862465 0 0.506117
-0.0775895 0.113057 0.370214 0 0 -1
-0.197553 0.177902 0.681004 0 -0.939447 0.342694
0.12376 0.13994 0.537787 0 -0.99995 0.00999456
0.065218 0.224294 0.0110893 0 0 1
0.171479 0.193455 0.710026 0 -0.938939 0.344084
-0.190861 0.0968569 0.370214 0 0 -1
0.153468 0.016314 0.395462 0 0.00257723 -0.999997
-0.146259 -0.0504678 0.39529 0 0.00257723 -0.999997
0.221628 0.195567 0.702444 0 0.938941 -0.344078
0.0573243 0.00207372 0.375333 0 0 1
-0.0552199 0.213066 0.00426515 0 0 -1
-0.0795233 -0.195254 0.394041 0 0.0651033 -0.997879
0.0725565 -0.130966 0.375333 0 0 1
-0.118081 -0.154304 0.370214 0 0 -1
0.0168598 -0.173808 0.399236 0 -0.00257723 0.999997
0.0259084 -0.121461 0.395107 0 0.00257723 -0.999997
0.169961 0.156561 0.454244 0 -0.954703 -0.297561
-0.223581 0.150063 0.395947 0 0.358905 -0.933374
0.0884578 0.166502 0.407621 0 -0.447214 0.894427
0.226905 -0.182377 0.389889 1 0 0
-0.126232 0.158772 0.403756 0 -0.447214 0.894427
0.184523 0.0329044 0.395505 0 0.00257723 -0.999997
-0.1477 -0.233635 0.381101 0 0.962331 -0.271882
-0.240554 0.222081 0.00446718 -1 0 0
-0.0854632 -0.220369 0.380855 4.43437e-07 -0.998753 -0.0499252
-0.244358 0.0284695 0.000422664 -0.110428 0 -0.993884
-0.159493 0.202165 0.0110893 0 0 1
-0.115551 0.193326 0.719991 0 -0.818699 0.574223
0.189981 -0.103498 0.404336 0 0 1
-0.0432625 -0.120867 0.404336 0 0 1
-0.238916 -0.210928 0.0786391 0.110453 0.988029 -0.107693
0.0620309 0.0138859 0.375333 0 0 1
0.0530245 -0.104452 0.399415 0 -0.00257723 0.999997
0.0217262 0.140113 0.555085 0 -0.99995 0.00999456
-0.178424 0.190863 0.616964 0 0.939449 -0.342687
-0.135845 0.163265 0.64088 0 -0.939447 0.342694
0.229176 0.150928 0.400563 0 -0.371446 0.928454
-0.00877203 -0.0444767 0.404336 0 0 1
-0.184002 -0.10505 0.395149 0 0.00257723 -0.999997
0.240244 0.0687534 0.528912 -0.110369 0 -0.993891
0.197096 0.139995 0.404336 0 0 1
-0.0858384 0.180568 0.492742 0 0.987379 0.158375
-0.111555 0.17156 0.419512 0 -0.986394 0.1644
0.0389983 -0.0645281 0.375333 0 0 1
-0.248199 -0.131934 0.013941 -0.437432 0 0.899251
0.127589 0.0270765 0.404336 0 0 1
-0.210074 0.186277 0.703963 0 -0.939447 0.342694
-0.14758 0.0212503 0.395475 0 0.00257723 -0.999997
-0.111518 -0.0375869 0.354007 0 0 -1
0.200344 -0.129855 0.395086 0 0.00257723 -0.999997
-0.170282 0.059418 0.375171 -0.447222 0 -0.894423
-0.0640855 0.141913 0.518287 0 -0.987384 -0.158345
0.227657 -0.227511 0.390751 0 0.67762 -0.735413
-0.093443 0.145525 0.375333 0 0 1
0.0712221 0.164887 0.618723 0 0.938941 -0.344078
0.0599415 0.0887224 0.370214 0 0 -1
-0.0976695 0.223609 0.713617 0 0.906623 0.421942
-0.226905 0.0716767 0.389575 -1 0 0
0.199753 -0.0258207 0.399618 0 -0.00257723 0.999997
0.106814 0.159284 0.472816 0 0.948683 0.316228
-0.0757791 0.084845 0.375333 0 0 1
0.196511 0.167236 0.625132 0 0.938941 -0.344078
0.201629 -0.15134 0.39503 0 0.00257723 -0.999997
-0.158959 0.00997156 0.39971 0 -0.00257723 0.999997
0.199804 -0.133953 0.370214 0 0 -1
-0.201354 0.166462 0.649643 0 -0.939447 0.342694
-0.00355196 0.170608 0.661008 0 -0.939447 0.342694
-0.118249 0.159171 0.44587 0 -0.954703 -0.297561
0.0068193 0.0512294 0.404336 0 0 1
0.0869397 0.191625 0.691688 0 0.938941 -0.344078
-0.0816364 -0.167993 0.394987 0 0.00257723 -0.999997
0.199912 0.148537 0.542553 0 0.999955 -0.00944456
-0.0188338 0.0865115 0.375333 0 0 1
-0.105917 0.0134284 0.395455 0 0.00257723 -0.999997
0.0416717 -0.120563 0.399374 0 -0.00257723 0.999997
0.090077 -0.0109322 0.404336 0 0 1
-0.142682 0.115821 0.361371 -0.447222 0 -0.894423
-0.0356603 -0.134822 0.404336 0 0 1
-0.0142944 -0.220955 0.367108 0 -0.207988 -0.978131
0.226905 0.060509 0.388796 1 0 0
-0.10912 -0.116493 0.39512 0 0.00257723 -0.999997
-0.0926204 0.125535 0.395744 0 0.00257723 -0.999997
-0.165956 0.0609619 0.404336 0 0 1
-0.0267604 0.112516 0.404336 0 0 1
0.156117 0.0538986 0.368088 0.447222 0 -0.894423
0.0907146 0.177126 0.678877 0 -0.939447 0.342694
-0.145355 0.164999 0.442307 0 -0.949977 -0.312321
-0.066763 0.185615 0.384503 0 0.569215 -0.822189
-0.1526 -0.0469636 0.404336 0 0 1
-0.198632 0.0956741 0.399931 0 -0.00257723 0.999997
-0.151774 0.129256 0.404336 0 0 1
0.170324 0.140273 0.571156 0 -0.99995 0.00999456
0.202653 -0.00293201 0.370214 0 0 -1
0.183534 2.25678e-05 0.370214 0 0 -1
0.253284 -0.0843798 0.496506 0.886721 0.334771 -0.318833
0.137933 -0.145182 0.404336 0 0 1
-0.223259 0.0398588 0.376457 -0.862408 0 -0.506215
0.019022 -0.206064 0.367925 0 0.0813534 -0.996685
-0.0954377 0.14798 0.400066 0 -0.00257723 0.999997
-0.235363 -0.15787 0.0166786 0.11042 0.15402 0.981879
-0.0387163 0.174183 0.549806 0 0.99995 -0.0100305
-0.0938521 -0.145338 0.370214 0 0 -1
-0.132434 -0.140678 0.395058 0 0.00257723 -0.999997
-0.252702 -0.140343 0.355033 -0.437468 -0.859472 0.264442
0.216109 0.102048 0.399947 0 -0.00257723 0.999997
-0.116463 0.149685 0.590586 0 -0.938939 0.344084
0.120918 0.204883 0.71129 0 0.342718 0.939438
-0.221232 0.204679 0.00426515 0 0 -1
0.110317 0.149265 0.404417 0 -0.196067 0.980591
-0.0828438 0.179159 0.68445 0 -0.939447 0.342694
-0.217389 0.00237839 0.39969 0 -0.00257723 0.999997
-0.224081 0.174064 0.428477 0 0.948683 0.316228
0.0642933 0.102279 0.375333 0 0 1
0.179284 -0.0109427 0.395392 0 0.00257723 -0.999997
0.0165495 0.194161 0.698606 0 0.938941 -0.344078
0.0441402 0.178298 0.582519 0 0.939449 -0.342687
-0.0444302 0.171541 0.419397 0 -0.986394 0.1644
0.218987 -0.031668 0.399603 0 -0.00257723 0.999997
-0.185938 0.019857 0.370214 0 0 -1
-0.138809 -0.204154 0.368081 0 0.0813534 -0.996685
0.0440477 0.0896739 0.370214 0 0 -1
