0.114177 -0.0861824 0.358188 0 0 -1
-0.217615 -0.205027 0.0181876 -0.638331 -0.532293 -0.556056
-0.201253 0.163605 0.00413615 0.939738 0 -0.341896
0.0657127 0.10373 0.553402 0 -0.989961 -0.141342
-0.0592711 0.110838 0.417121 0 -0.224943 0.974372
0.0730173 0.132536 0.436098 0 -0.792624 0.609711
-0.191006 -0.185956 0.392974 -0.860943 -0.272795 -0.429372
-0.120104 0.155179 0.564535 -0.279329 0.960195 0
-0.021627 -0.11644 0.415 0 0 1
-0.162197 0.1041 0.415565 0 -0.224943 0.974372
0.0660129 0.138616 0.656547 0 -0.905452 0.424448
0.0860649 -0.217638 0.369996 0 0.194859 -0.980831
-0.0885409 -0.0242143 0.380039 0 0 -1
0.123823 0.172056 0.446747 0 0.966235 -0.257662
0.0319889 0.0706996 0.363867 0 0.416313 -0.909221
0.18192 -0.0669491 0.380395 0.336312 0 -0.941751
0.00442334 0.17061 0.617783 0.0196181 0.951519 -0.306965
0.231619 -0.10543 0.547048 1 0 0
0.226095 0.145241 0.548027 0 0.382631 -0.923901
0.176242 -0.143827 0.356522 0 0.996187 0.0872416
-0.169626 0.12362 0.624584 0 -0.904818 0.425798
0.109812 0.163875 0.544009 0.25631 0.909455 0.32741
-0.0713426 0.124086 0.495666 0 -0.938667 -0.344826
-0.0242855 -0.0124952 0.415 0 0 1
-0.151299 0.082226 0.415 0 0 1
-0.123007 0.0343036 0.358188 0 0 -1
0.216689 -0.128023 0.00303477 0.766034 0 -0.6428
-0.208406 -0.0651207 0.574975 0 -0.277125 0.960834
-0.0890245 -0.0257648 0.358188 0 0 -1
0.216883 0.104072 0.548889 0.866095 0 -0.499879
0.0271636 0.102525 0.566623 0 -1 0
0.211699 0.083332 0.000674893 0.173645 0 -0.984808
-0.144759 -0.117784 0.365015 -0.447214 0 -0.894427
-0.0903955 0.119407 0.383252 0 0.233362 -0.97239
-0.0299372 0.168838 0.722478 0 -0.672675 0.739938
-0.218757 0.265397 0.00550051 -0.765968 0 -0.642879
0.191536 0.133673 0.394645 0.401557 0.523008 -0.751808
0.00888261 -0.129144 0.380039 0 0 -1
-0.116216 -0.183448 0.412097 0 -0.143934 0.989587
-0.230372 0.145135 0.549963 0 0.923888 -0.382662
-0.0209969 0.00780364 0.358188 0 0 -1
0.190487 0.257084 0.00607215 0 0.720262 -0.693702
0.184025 0.032928 0.413672 0.393891 0 0.919157
0.217365 -0.210804 0.175749 0.64272 -0.739998 0.19828
-0.00788464 0.245399 0.00528891 0 -0.370373 -0.928883
-0.108311 -0.211699 0.371176 0 0.194859 -0.980831
-0.125588 0.171378 0.495 -0.0895489 0.984963 0.147749
0.119219 0.00942767 0.358188 0 0 -1
-0.218615 -0.144966 0.374177 -0.866078 0.482875 -0.129385
0.17835 -0.156908 0.414456 0 -0.0645863 0.997912
0.0465664 0.138485 0.3925 0 0.562319 -0.82692
-0.0569891 0.169007 0.611318 -0.0205477 0.996605 -0.0797267
0.116381 0.176743 0.647977 0.0628163 0.933156 -0.353942
-0.199377 -0.126002 0.012228 0.939738 0 0.341895
0.117757 0.0316685 0.358188 0 0 -1
-0.0417123 0.136448 0.651922 0 -0.905452 0.424448
-0.150356 -0.0118074 0.367813 -0.447214 0 -0.894427
-0.217919 -0.218243 0.0960472 -0.866083 0.482866 -0.129383
-0.160975 0.11024 0.533356 0 -0.938667 -0.344826
0.0028591 0.0489358 0.415 0 0 1
-0.00362773 -0.210662 0.407449 0 -0.203138 0.97915
0.151386 0.183147 0.711146 0.35633 0.752231 0.554235
0.0270351 0.173735 0.50897 0 0.991654 0.128932
0.113751 -0.109474 0.415 0 0 1
-0.113951 0.169314 0.436465 0 0.966235 -0.257662
-0.199101 -0.157782 0.422378 0 -0.965954 0.258714
0.0935666 0.166536 0.599563 0.108112 0.990973 -0.0792762
0.100842 -0.125226 0.380039 0 0 -1
-0.039382 -0.0408786 0.358188 0 0 -1
-0.163425 0.165884 0.631036 -0.0607897 0.90305 -0.425211
-0.204379 0.0778338 0.0020157 0.499952 0 -0.866053
-0.125129 0.154448 0.692475 0 -0.940878 0.338744
0.141045 0.0985268 0.415 0 0 1
-0.00854554 -0.215322 0.370456 0 0.194859 -0.980831
-0.174624 0.105767 0.380039 0 0 -1
0.0280154 -0.107157 0.358188 0 0 -1
-0.00446492 0.013664 0.380039 0 0 1
-0.200484 -0.0192012 0.552646 0.865979 0 -0.500081
-0.231476 0.0778493 0.568025 0 0 -1
-0.042607 0.16801 0.547975 -0.0203737 0.98873 0.148314
-0.0861557 -0.130192 0.358188 0 0 -1
0.132908 0.116663 0.515873 0 -0.938667 -0.344826
-0.0945043 -0.0764035 0.415 0 0 1
-0.0194798 -0.125773 0.380039 0 0 -1
0.0108152 0.127099 0.487463 0 -0.938667 -0.344826
-0.0343526 0.148699 0.399446 0 0.562319 -0.82692
0.203982 -0.10292 0.511366 -0.337876 0.857295 -0.38844
0.0503965 -0.118176 0.415 0 0 1
0.0943442 0.170337 0.520874 0.0895489 0.984963 0.147749
0.221228 0.0371714 0.576765 0 0 1
-0.0404671 0.0818461 0.36897 0 0.416313 -0.909221
-0.130928 0.13188 0.474448 0 -0.938667 -0.344826
0.140205 0.116539 0.609538 0 -0.904818 0.425798
-0.0927261 0.0288371 0.415 0 0 1
0.21625 -0.155939 0.320259 0.342012 0.907677 -0.24321
0.085508 0.0237734 0.380039 0 0 -1
-0.193837 0.0151921 0.408182 -0.919145 0 0.393919
-0.0788553 0.192699 0.6846 0 0.936335 -0.351108
0.0410283 0.16661 0.719341 0 -0.857494 0.514494
0.0222329 -0.259544 0.367876 0 -0.45499 -0.890496
0.0350973 -0.0610422 0.415 0 0 1
0.140988 -0.238494 0.372681 0.508957 -0.581413 -0.634761
0.208195 -0.0476927 0.547092 0 1 0
0.0480411 0.175311 0.459257 0 0.96799 -0.250991
0.173712 0.150902 0.450018 0.366572 -0.929504 -0.0405785
0.0269425 0.037998 0.358188 0 0 -1
-0.150713 -0.126038 0.415 0 0 1
0.0933055 0.106998 0.380274 0 0.233362 -0.97239
-0.102318 0.102525 0.570456 0 -1 0
0.0693832 0.0676933 0.415 0 0 1
0.169202 -0.0354234 0.415 0 0 1
-0.217916 -0.102507 0.51801 -0.863133 0.459962 -0.208415
-0.196795 0.0354322 0.393493 -0.928486 0 -0.371367
-0.187768 -0.0663174 0.382483 -0.336312 0 -0.941751
-0.00129892 0.122354 0.42255 0 0.0434831 0.999054
0.170448 0.152076 0.529314 0.25631 0.909455 0.32741
0.215703 -0.225872 0.124904 0.64272 -0.739998 0.19828
0.174188 -0.110731 0.415 0 0 1
0.0435983 -0.164555 0.356768 0 -0.906272 -0.422695
0.197818 0.132618 0.599479 0.917396 0.361349 -0.166766
0.0174015 -0.0430733 0.380039 0 0 -1
0.126184 -0.0527473 0.380039 0 0 -1
-0.150129 -0.165197 0.358474 0 -0.965894 0.258937
-0.0540316 -0.145311 0.415 0 0 1
0.127861 -0.0454949 0.358188 0 0 -1
-0.0793656 -0.0963273 0.380039 0 0 -1
-0.218557 0.110019 0.0162573 -0.765968 0 0.642878
0.0821698 0.0394504 0.358188 0 0 -1
0.169366 0.00347623 0.377319 0.447214 0 -0.894427
-0.106972 -0.255859 0.392641 -0.186336 -0.739995 0.646287
-0.117284 0.0792547 0.415 0 0 1
-0.104483 -0.124675 0.380039 0 0 -1
-0.151956 0.161628 0.416677 0 0.811529 -0.584312
0.125815 -0.174671 0.37791 0 0.125579 -0.992084
-0.0524799 0.0241991 0.358188 0 0 -1
-0.0287484 -0.167526 0.366581 0 -0.679409 -0.733759
-0.0608601 0.177182 0.482456 0 0.991654 0.128932
-0.103507 0.125704 0.427217 0 -0.792624 0.609711
-0.18562 0.152063 0.515226 -0.393007 0.865178 0.31147
0.101214 0.14638 0.39787 0 0.562319 -0.82692
-0.209544 0.0920208 0.546256 0.341927 0 -0.939726
0.129552 0.125174 0.422427 0 0.0434831 0.999054
0.211954 0.0336593 0.020799 0.173653 0 0.984807
0.167429 0.166034 0.492907 0.25631 0.909455 0.32741
-0.0262734 0.0483671 0.380039 0 0 1
0.195028 0.0561796 0.405402 0.919145 0 0.393919
0.190566 -0.11336 0.383482 0.336312 0 -0.941751
0.156444 -0.198101 0.409966 0 -0.143934 0.989587
-0.197202 -0.0666052 0.400329 -0.919145 0 0.393919
-0.102572 0.130043 0.638258 0 -0.905452 0.424448
-0.102939 -0.0697017 0.358188 0 0 -1
0.110831 -0.13862 0.415 0 0 1
-0.149853 -0.239398 0.384059 -0.545079 -0.823795 0.155725
-0.219047 -0.170584 0.3204 -0.642703 -0.740011 0.198284
-0.0733413 0.0265622 0.380039 0 0 1
0.0855979 -0.265653 0.38352 0.15773 -0.879223 0.449542
-0.174698 0.139439 0.570697 -0.266384 0.945199 -0.188781
0.201886 0.134101 0.0180641 -0.499961 0 0.866048
-0.0553701 0.238566 0.0135054 0 -0.370358 0.928889
-0.0202667 0.194892 0.690448 0 0.936335 -0.351108
0.127005 0.0536006 0.380039 0 0 1
0.212424 -0.160289 0.37679 0 -0.965926 0.258817
-0.134417 0.0646589 0.380039 0 0 -1
0.0682479 0.124416 0.494766 0 -0.938667 -0.344826
0.088763 0.0175773 0.358188 0 0 -1
0.229115 -0.134223 0.510339 0 -0.965954 0.258714
0.206884 -0.0720437 0.020949 -0.499961 0 0.866048
0.04583 0.166727 0.579941 0.0205359 0.996603 -0.0797494
0.208821 -0.190051 0.0294143 -0.338533 0.416154 0.843926
0.0424452 -0.249327 0.397921 0 -0.230255 0.97313
-0.0303974 0.102525 0.571953 0 -1 0
-0.0398342 -0.0533371 0.380039 0 0 -1
-0.218321 -0.0842767 0.539449 -0.863162 0.238031 -0.4453
0.0412095 0.249262 0.00509399 0 0.11339 -0.993551
0.211048 -0.00583807 0.54664 0.341884 0 -0.939742
0.128423 0.102525 0.565712 0 -1 0
0.17542 0.175013 0.659515 0.36303 0.908498 -0.206979
-0.154285 0.130521 0.387085 0 0.562319 -0.82692
-0.173708 0.254488 0.0158284 0 0.113387 0.993551
0.0592247 -0.00349391 0.415 0 0 1
0.023663 -0.0554092 0.358188 0 0 -1
-0.0336194 0.127061 0.487568 0 -0.938667 -0.344826
0.154142 0.154547 0.406843 0 0.811529 -0.584312
-0.0697532 -0.196315 0.410225 0 -0.143934 0.989587
0.0561189 0.117169 0.610877 0 -0.904818 0.425798
0.128433 0.146518 0.673537 0 -0.907016 0.421097
-0.0456538 0.19595 0.723953 0 0.799991 0.600012
0.0249376 -0.016774 0.358188 0 0 -1
0.017447 0.123545 0.624425 0 -0.904818 0.425798
-0.184826 0.166077 0.669867 -0.809059 0.545932 0.217673
-0.199686 0.217053 0.00844228 0.939738 0 -0.341896
0.0226864 -0.149687 0.414923 0 -0.0645863 0.997912
0.0109623 0.146175 0.672797 0 -0.907016 0.421097
0.130327 0.0271875 0.415 0 0 1
-0.146879 -0.06552 0.366075 -0.447214 0 -0.894427
-0.136218 -0.00289993 0.380039 0 0 1
-0.174935 0.176181 0.681291 -0.809059 0.545932 0.217673
-0.0806909 -0.0234244 0.415 0 0 1
0.220035 0.218766 0.00899318 1 0 0
-0.150063 0.0130092 0.415 0 0 1
-0.03735 -0.169697 0.413628 0 -0.0645863 0.997912
0.0698403 0.111986 0.528602 0 -0.938667 -0.344826
0.0874869 0.13253 0.472679 0 -0.938667 -0.344826
0.0850453 -0.0643311 0.358188 0 0 -1
-0.0602591 -0.233402 0.366971 0 0.18383 -0.982958
0.152663 0.14828 0.578327 0.248036 0.880097 -0.404856
-0.0197344 -0.0881802 0.358188 0 0 -1
0.0950728 0.158238 0.703002 0 -0.940878 0.338744
0.207957 -0.182803 0.213432 -0.342055 0.907662 -0.243203
-0.111051 0.172462 0.637519 -0.0607897 0.90305 -0.425211
0.194375 0.161605 0.438534 0.913389 0.391429 -0.111821
0.14629 0.247921 0.0049409 0 0.11339 -0.993551
0.0101865 0.162403 0.417754 0 0.811529 -0.584312
-0.229525 -0.140997 0.451316 0 0.965731 -0.259545
-0.0323742 -0.0656 0.415 0 0 1
-0.20371 0.0366268 0.548378 0.341927 0 -0.939726
-0.191929 0.141456 0.536159 -0.411541 0.856518 0.311466
-0.0316755 -0.156354 0.348816 0 -0.422586 -0.906323
-0.0704079 0.0546145 0.415 0 0 1
-0.115039 0.122525 0.499914 0 -0.938667 -0.344826
-0.187538 -0.139625 0.382401 -0.336312 0 -0.941751
0.0885935 0.0396784 0.415 0 0 1
0.0817954 0.176574 0.46413 0 0.96799 -0.250991
-0.0687285 -0.173164 0.378101 0 0.125579 -0.992084
0.0490122 -0.0788298 0.380039 0 0 -1
0.197839 0.147679 0.562313 0 0.923909 0.382611
-0.0420435 0.144605 0.443048 0 -0.737335 0.675528
0.174649 0.0966836 0.415 0 0 1
-0.111229 -0.0115088 0.415 0 0 1
-0.0377913 -0.240163 0.40009 0 -0.230255 0.97313
0.0982299 -0.147052 0.351767 0 0.819131 -0.573607
-0.167281 0.102891 0.559272 0 -0.989961 -0.141342
-0.194768 0.141233 0.601205 -0.922287 0.352332 -0.1589
-0.0740687 0.0549095 0.380039 0 0 1
-0.207761 -0.154853 0.0214553 0.499961 0 0.866048
0.0925548 0.118487 0.613678 0 -0.904818 0.425798
0.0124978 -0.171133 0.378329 0 0.0720109 -0.997404
0.231619 -0.137647 0.491429 1 0 0
-0.108402 0.0241854 0.358188 0 0 -1
-0.00677785 0.103794 0.380039 0 0 -1
-0.213453 -0.0946868 0.0205345 -0.173675 0 0.984803
0.219375 -0.20032 0.205648 0.984824 -0.167642 0.0449191
-0.159721 0.13659 0.45116 0 -0.997786 -0.0665138
-0.199446 -0.214647 0.136517 0.984778 -0.167892 0.0449863
-0.0995831 -0.132763 0.415 0 0 1
0.172425 0.105094 0.547363 0 -0.938667 -0.344826
0.137391 -0.100849 0.380039 0 0 -1
0.231619 -0.15062 0.423709 1 0 0
0.193274 -0.0688972 0.409494 0.919145 0 0.393919
-0.0549472 -0.200122 0.373859 0 0.227501 -0.973778
-0.197839 0.0732211 0.398842 -0.919145 0 0.393919
0.216561 0.0414389 0.548645 0.341884 0 -0.939742
-0.096692 0.177516 0.646522 -0.0628163 0.933156 -0.353942
-0.231619 -0.00489984 0.570795 -1 0 0
-0.0290683 0.0868644 0.415 0 0 1
-0.217572 -0.18336 0.223907 -0.866078 0.482875 -0.129385
0.176606 -0.200806 0.378337 0.311174 -0.0084996 -0.950315
0.0937991 0.194595 0.691135 0.0578614 0.940024 -0.336165
-0.197447 -0.0216648 0.395123 -0.928486 0 -0.371367
0.164791 0.149661 0.67982 0.301029 -0.787586 0.537671
-0.00724719 0.112867 0.526204 0 -0.938667 -0.344826
0.0865926 0.177302 0.644275 0.103273 0.946613 -0.305382
0.0305686 0.135799 0.447585 0 -0.97013 0.242585
-0.0724064 0.159906 0.70711 0 -0.880471 0.474099
-0.213281 -0.232112 0.0477499 0 -0.876713 -0.481013
-0.0898924 0.165902 0.586633 -0.108112 0.990973 -0.0792762
-0.00463567 0.183527 0.657039 -0.0297883 0.963558 -0.265836
0.078862 -0.233745 0.401715 0 -0.269065 0.963122
-0.183153 -0.14887 0.414016 -0.386251 -0.10929 0.915896
0.0371665 0.106835 0.380235 0 0.233362 -0.97239
0.00195536 -0.263973 0.387694 0 -0.899528 0.436863
0.104656 -0.0698184 0.415 0 0 1
0.0756687 0.0732273 0.380039 0 0 -1
-0.165842 0.17118 0.471919 -0.0895489 0.984963 0.147749
-0.0638269 0.170522 0.440993 0 0.966235 -0.257662
0.0983606 -0.0896624 0.380039 0 0 1
0.0532557 -0.1314 0.380039 0 0 1
-0.199861 -0.122441 0.46534 0.865961 0.48307 -0.129438
-0.153048 0.0420827 0.380039 0 0 -1
-0.187658 -0.162924 0.353273 0 -0.906272 -0.422695
-0.130708 -0.157911 0.349542 0 -0.422586 -0.906323
0.172122 0.0488612 0.380039 0 0 -1
0.138547 -0.122911 0.361909 0.447214 0 -0.894427
0.0173029 -0.0261061 0.415 0 0 1
0.0160911 0.0463468 0.380039 0 0 -1
-0.155566 0.140214 0.659958 0 -0.907016 0.421097
0.0827846 0.163537 0.419329 0 0.811529 -0.584312
0.0467316 -0.195603 0.410329 0 -0.143934 0.989587
0.0132201 0.16693 0.567281 0.0206015 0.999788 0
0.0319984 -0.219691 0.369588 0 0.194859 -0.980831
-0.0459713 0.0436757 0.415 0 0 1
-0.121497 -0.187811 0.376247 0 0.125579 -0.992084
0.229077 -0.0336998 0.576765 0 0 1
0.126862 0.0106136 0.380039 0 0 -1
0.0715499 -0.121982 0.415 0 0 1
0.120519 0.0741769 0.365459 0 0.416313 -0.909221
0.132309 0.162243 0.598737 0.108112 0.990973 -0.0792762
-0.202698 -0.10519 0.507628 0.863014 0.460149 -0.208493
0.0152546 0.197277 0.722184 0 0.799991 0.600012
0.0409742 0.0224638 0.380039 0 0 1
-0.0922318 0.170928 0.518215 -0.0895489 0.984963 0.147749
0.060123 0.199417 0.717286 0 0.997785 -0.0665186
0.00955141 0.134885 0.390053 0 0.562319 -0.82692
-0.011602 0.0608909 0.359375 0 0.416313 -0.909221
-0.137687 0.168625 0.715178 -0.163869 -0.655385 0.737304
-0.057048 0.110336 0.533094 0 -0.938667 -0.344826
-0.128945 0.162439 0.596606 -0.108112 0.990973 -0.0792762
-0.193599 0.145624 0.405693 -0.916815 0.321115 -0.23735
0.117874 -0.19669 0.374661 0 0.227501 -0.973778
-0.0946782 0.166847 0.60497 -0.108112 0.990973 -0.0792762
-0.00732925 0.160811 0.708791 0 -0.880471 0.474099
0.197765 -0.012197 0.395918 0.928486 0 -0.371367
0.0303337 0.090892 0.415 0 0 1
0.20835 0.075881 0.567365 0 0 1
-0.201055 0.0341228 0.00467903 0.939738 0 -0.341896
-0.104297 -0.102568 0.380039 0 0 -1
0.202368 -0.129035 0.423959 -0.865967 0.483061 -0.129435
-0.18211 0.132026 0.475602 -0.411509 -0.855506 -0.314277
0.15053 0.119105 0.383179 0 0.233362 -0.97239
0.231619 0.110894 0.574713 1 0 0
-0.211228 -0.12224 0.438967 -0.341882 0.907723 -0.243219
0.0894538 -0.0214842 0.380039 0 0 1
-0.160383 -0.0810121 0.415 0 0 1
0.104565 0.0924072 0.415 0 0 1
0.147408 0.15815 0.53048 0.25631 0.909455 0.32741
0.162241 0.124287 0.626003 0 -0.904818 0.425798
0.0752424 -0.175559 0.380039 0 0 1
-0.0713366 -0.103999 0.415 0 0 1
-0.0837691 -0.248687 0.398073 0 -0.230255 0.97313
-0.154816 0.154189 0.535683 -0.25631 0.909455 0.32741
-0.216117 -0.0476927 0.557731 0 1 0
0.156347 0.102525 0.568545 0 -1 0
0.133565 0.145957 0.454749 0 -0.999048 -0.0436145
0.197614 -0.12766 0.527258 0 -0.856611 0.515962
0.224514 -0.077464 0.571415 0 -0.277125 0.960834
0.074136 -0.0700635 0.415 0 0 1
-0.0242476 0.17408 0.506312 0 0.991654 0.128932
0.0826214 0.0640789 0.360835 0 0.416313 -0.909221
-0.164664 -0.211712 0.405549 -0.316972 -0.401831 0.859105
-0.11801 0.045945 0.380039 0 0 1
-0.0979363 -0.163024 0.362412 0 -0.679409 -0.733759
0.15813 0.164417 0.627164 0.0607897 0.90305 -0.425211
0.0335663 -0.171841 0.378268 0 0.125579 -0.992084
0.0777158 -0.10804 0.358188 0 0 -1
0.0618094 -0.17021 0.413595 0 -0.0645863 0.997912
0.144976 0.130926 0.477046 0 -0.938667 -0.344826
-0.0971383 0.145757 0.671898 0 -0.907016 0.421097
-0.164399 -0.18539 0.376553 0 0.125579 -0.992084
0.0441318 0.173874 0.630438 0.0196181 0.951519 -0.306965
-0.200211 0.0591891 0.568025 0 0 -1
0.148318 -0.153336 0.379614 0 0.0720109 -0.997404
-0.05899 0.107157 0.380312 0 0.233362 -0.97239
-0.101517 0.149794 0.400241 0 0.811529 -0.584312
0.120445 0.173159 0.486242 0.0895489 0.984963 0.147749
0.150549 -0.0706874 0.415 0 0 1
-0.0604114 -0.0713826 0.358188 0 0 -1
-0.0211253 -0.116383 0.358188 0 0 -1
-0.220035 0.218278 0.0138745 -1 0 0
0.140463 0.0762194 0.366394 0 0.416313 -0.909221
0.0175918 -0.104679 0.415 0 0 1
-0.130192 -0.0377792 0.380039 0 0 1
0.219806 -0.160255 0.345722 0.984826 -0.167633 0.044917
-0.0886722 0.13611 0.458361 0 -0.997786 -0.0665138
-0.0534333 -0.00972083 0.380039 0 0 1
0.203139 -0.0438666 0.00273183 -0.499952 0 -0.866053
-0.104937 0.112837 0.601672 0 -0.904818 0.425798
0.0491004 0.0267343 0.358188 0 0 -1
-0.208262 -0.1971 0.159645 0.342055 0.907662 -0.243203
-0.141966 0.109459 0.594493 0 -0.904818 0.425798
-0.192107 0.159959 0.485043 -0.411541 0.856518 0.311466
0.094991 0.128575 0.635126 0 -0.905452 0.424448
0.0161753 0.196645 0.695246 0 0.939805 -0.341712
0.198327 0.140215 0.504586 0.910867 0.387853 0.141037
0.208249 -0.236223 0.0897241 0 -0.994053 0.108894
0.211709 -0.0584537 0.575752 0 -0.0937214 0.995598
-0.214243 0.12203 0.566745 -0.642656 0 0.766155
-0.231347 -0.159156 0.415942 0 -0.261461 -0.965214
0.20483 -0.0855278 0.534526 -0.338079 0.686848 -0.643383
-0.162132 -0.0930329 0.380039 0 0 -1
0.0722298 0.12411 0.384381 0 0.233362 -0.97239
0.00456689 0.169686 0.437858 0 0.966235 -0.257662
-0.104146 0.186044 0.726929 -0.151341 0.0428153 0.987554
0.107703 -0.0265422 0.358188 0 0 -1
0.217548 -0.179864 0.290624 0.642703 -0.740011 0.198284
-0.0535301 0.0683087 0.362772 0 0.416313 -0.909221
0.128165 0.188161 0.679072 0.053124 0.935013 -0.350612
-0.201015 -0.115569 0.545059 0 -0.745764 0.66621
-0.209244 -0.148705 0.338881 0.342055 0.907662 -0.243203
-0.024207 0.125146 0.627828 0 -0.904818 0.425798
0.0550789 0.154863 0.693626 0 -0.940878 0.338744
0.119711 0.131327 0.475956 0 -0.938667 -0.344826
-0.215513 -0.192059 0.25171 -0.64272 -0.739998 0.19828
-0.124357 0.0983496 0.380039 0 0 1
-0.0573734 -0.127323 0.380039 0 0 1
0.1567 0.0163349 0.415 0 0 1
0.142095 -0.0297148 0.415 0 0 1
-0.117471 -0.107908 0.358188 0 0 -1
0.203384 -0.203612 0.142204 -0.341924 0.907707 -0.243218
0.106103 0.109274 0.535987 0 -0.938667 -0.344826
0.205923 -0.165999 0.00115229 -0.638365 -0.117096 -0.760775
0.154401 -0.135099 0.380039 0 0 1
-0.0588958 0.00542122 0.415 0 0 1
-0.056915 0.173481 0.509538 -0.0203737 0.98873 0.148314
0.198366 0.102692 0.397419 0.928486 0 -0.371367
-0.062827 0.10879 0.593071 0 -0.904818 0.425798
-0.115696 0.058104 0.415 0 0 1
-0.0803321 0.165783 0.557643 -0.0203737 0.98873 0.148314
-0.207406 0.142042 0.000268256 0.499952 0 -0.866053
-0.152889 -0.176778 0.413067 0 -0.143934 0.989587
-0.187126 -0.0131195 0.382253 -0.336312 0 -0.94175
-0.169958 -0.0239334 0.415 0 0 1
0.00476458 -0.0227408 0.380039 0 0 -1
-0.0575709 0.180461 0.651857 -0.0297883 0.963558 -0.265836
0.206992 -0.111889 0.479447 -0.341924 0.907707 -0.243218
-0.166404 0.0172084 0.375837 -0.447214 0 -0.894427
0.0686879 0.257931 0.0069525 0 0.720262 -0.693702
0.198557 -0.0241329 0.576765 0 0 1
-0.192128 -0.104817 0.410199 -0.393891 0 0.919157
0.0674847 0.102275 0.415144 0 -0.224943 0.974372
0.127718 0.155547 0.695526 0 -0.940878 0.338744
0.197326 0.153303 0.47506 0.910875 0.387836 0.141034
-0.120559 0.109 0.536732 0 -0.938667 -0.344826
-0.020735 0.168559 0.596376 -0.0205359 0.996603 -0.0797494
-0.217405 -0.109538 0.55181 0 -0.745764 0.66621
0.0769575 0.105223 0.584194 0 -0.966254 0.257593
0.231619 0.07077 0.574195 1 0 0
-0.146812 -0.0461554 0.366041 -0.447214 0 -0.894427
-0.117669 -0.0354922 0.358188 0 0 -1
-0.192985 0.13316 0.63238 -0.905994 -0.304178 0.294366
-0.093067 -0.0558655 0.380039 0 0 1
-0.135206 0.00186571 0.360239 -0.447214 0 -0.894427
0.126134 0.0655326 0.415 0 0 1
0.158149 -0.0257089 0.380039 0 0 -1
-0.124633 -0.0987951 0.415 0 0 1
0.0326152 0.169157 0.541702 0.0203737 0.98873 0.148314
-0.145468 0.180165 0.661362 -0.0523686 0.921718 -0.38431
0.196657 -0.14023 0.472646 -1 0 0
-0.00319001 -0.145462 0.36483 0 0.707106 0.707108
-0.0134812 0.136372 0.454432 0 -0.997786 -0.0665138
0.0715297 0.167862 0.544988 0.0203737 0.98873 0.148314
-0.192369 0.109521 0.583533 -0.323031 -0.904561 0.278246
-0.0385096 0.152855 0.68805 0 -0.940878 0.338744
-0.20821 0.0144768 0.576765 0 0 1
0.0259311 -0.144454 0.363681 0 0.996187 0.0872416
0.00460911 -0.234687 0.401452 0 -0.269065 0.963122
0.180835 -0.164905 0.379828 0.396172 0.0090654 -0.918132
-0.0606323 -0.00699135 0.358188 0 0 -1
-0.0154145 -0.153419 0.414681 0 -0.0645863 0.997912
-0.153305 0.121745 0.502039 0 -0.938667 -0.344826
-0.198864 0.100459 0.0108178 0.939738 0 0.341895
-0.101571 0.0839896 0.380039 0 0 -1
0.0142708 0.249833 0.00515905 0 0.11339 -0.993551
-0.0925195 0.111178 0.530803 0 -0.938667 -0.344826
-0.000132397 -0.0787462 0.380039 0 0 -1
0.0055198 0.112141 0.600193 0 -0.904818 0.425798
-0.133631 0.125958 0.427547 0 -0.792624 0.609711
-0.0300885 0.0371137 0.358188 0 0 -1
-0.197719 -0.13855 0.494184 0 -0.965954 0.258714
-0.0590507 -0.0606672 0.415 0 0 1
-0.129716 -0.21368 0.406823 0 -0.203138 0.97915
0.145439 -0.126262 0.415 0 0 1
0.125562 0.127706 0.385243 0 0.233362 -0.97239
-0.0855504 0.239686 0.00756679 0 -0.370373 -0.928883
0.0299553 0.167863 0.59005 0.0205359 0.996603 -0.0797494
0.0441885 0.16401 0.419986 0 0.811529 -0.584312
-0.220035 -0.0349702 0.0135486 -1 0 0
-0.0357089 -0.15098 0.369227 0 0.0871092 0.996199
0.0548982 -0.0704792 0.358188 0 0 -1
0.051972 0.0315435 0.415 0 0 1
-0.19896 0.239879 0.0110815 0.939738 0 0.341895
0.201269 -0.111044 0.0174287 -0.939738 0 0.341895
0.164898 0.130366 0.424305 0.366477 -0.62859 0.68598
0.144617 -0.231583 0.400705 0.260655 -0.555498 0.789608
0.12741 0.154493 0.406769 0 0.811529 -0.584312
0.215771 -0.14004 0.0195777 0.766034 0 0.6428
0.22965 -0.144255 0.439193 0 0.965731 -0.259545
0.0559086 -0.250578 0.363507 0 0.264154 -0.964481
0.0515446 -0.0517061 0.380039 0 0 -1
-0.0186441 0.0214903 0.415 0 0 1
-0.101986 0.00456846 0.380039 0 0 -1
0.0807905 0.17129 0.724707 0 -0.672675 0.739938
0.0619761 -0.139855 0.358188 0 0 -1
0.0645807 0.168778 0.610402 0.0205477 0.996605 -0.0797267
0.00348089 0.172341 0.519689 0 0.991654 0.128932
0.219139 0.253884 0.0155643 0.766034 0 0.6428
0.0801109 -0.0966893 0.415 0 0 1
0.150524 0.0315372 0.367897 0.447214 0 -0.894427
-0.172138 0.0547906 0.415 0 0 1
-0.146757 -0.150256 0.379836 0 0.0720109 -0.997404
-0.105165 0.176895 0.470168 -0.0899933 0.989852 0.109979
-0.121057 -0.0551872 0.415 0 0 1
-0.0664563 0.102525 0.567351 0 -1 0
-0.0722494 0.148521 0.399325 0 0.562319 -0.82692
0.123717 -0.206292 0.408356 0 -0.203138 0.97915
-0.0150109 0.188144 0.672452 0 0.936335 -0.351108
0.0316119 -0.109381 0.380039 0 0 -1
-0.0923889 -0.220576 0.405392 0 -0.203138 0.97915
-0.00407782 0.0826559 0.415 0 0 1
0.1979 -0.0986462 0.560493 0 -0.60897 0.793193
0.193637 -0.177919 0.393142 0.860911 -0.272805 -0.42943
0.207989 0.223966 0.021498 0.173653 0 0.984807
-0.000167519 -0.0690412 0.415 0 0 1
0.210027 -0.21868 0.0265387 0 -0.691521 -0.722356
-0.0832686 -0.257935 0.367054 0 -0.45499 -0.890496
0.107284 -0.246039 0.365659 0.0761388 0.0894915 -0.993073
-0.188187 0.119609 0.517362 -0.411509 -0.855506 -0.314277
-0.0843135 -0.152406 0.414747 0 -0.0645863 0.997912
0.0566405 -0.0136259 0.380039 0 0 1
-0.172667 0.0696819 0.380039 0 0 1
-0.0288209 -0.246285 0.364683 0 0.264154 -0.964481
-0.211415 0.0565662 0.020894 -0.173675 0 0.984803
0.15863 0.169002 0.435294 0 0.966235 -0.257662
0.200025 0.00570494 0.00751033 -0.939738 0 -0.341896
0.199517 0.0990834 0.0126131 -0.939738 0 0.341895
0.140125 -0.158176 0.414374 0 -0.0645863 0.997912
-0.0196059 -0.0306553 0.380039 0 0 1
0.0806645 -0.16627 0.365417 0 -0.679409 -0.733759
0.216969 0.071855 0.549038 0.866095 0 -0.499879
0.0231124 0.0207075 0.415 0 0 1
-0.14029 0.241918 0.00667714 0 -0.370373 -0.928883
-0.0313881 0.254984 0.00574695 0 0.11339 -0.993551
-0.175602 -0.148905 0.350053 0 0.258655 -0.96597
0.149762 0.0650426 0.415 0 0 1
-0.0919805 0.10252 0.415201 0 -0.224943 0.974372
-0.201704 -0.221113 0.0748797 0.863429 0.50147 -0.0549342
0.13216 -0.150452 0.349639 0 0.258655 -0.96597
0.134386 0.130037 0.638247 0 -0.905452 0.424448
-0.0625469 0.140894 0.661423 0 -0.907016 0.421097
-0.0362549 -0.0957886 0.380039 0 0 1
-0.0314459 0.126465 0.422371 0 0.0434831 0.999054
-0.205811 -0.0959665 0.56255 0 -0.60897 0.793193
-0.215296 0.00756611 0.548185 -0.341884 0 -0.939742
-0.21781 0.184822 0.0171474 -0.765968 0 0.642878
-0.11315 -0.0696164 0.380039 0 0 -1
0.21324 -0.0945441 0.000946607 0.173645 0 -0.984808
0.100035 0.145597 0.444131 0 -0.737335 0.675528
0.0124696 0.176592 0.486995 0 0.991654 0.128932
-0.186099 0.135371 0.436287 -0.409837 -0.890426 0.197929
-0.0755046 0.0455242 0.358188 0 0 -1
-0.026873 0.174215 0.630027 -0.0291228 0.942032 -0.334257
0.143287 -0.0733949 0.364279 0.447214 0 -0.894427
-0.119133 0.122677 0.384037 0 0.233362 -0.97239
0.0402799 0.116455 0.516438 0 -0.938667 -0.344826
-0.137174 -0.219806 0.369565 0 0.194859 -0.980831
0.203752 -0.146308 0.365676 0 0.707106 0.707108
-0.0295133 0.0100241 0.380039 0 0 1
-0.185629 0.0869871 0.412984 -0.393891 0 0.919157
0.0507608 0.0518061 0.380039 0 0 -1
0.0357897 0.0576547 0.415 0 0 1
-0.0857809 0.163714 0.419575 0 0.811529 -0.584312
-0.12742 0.139699 0.658857 0 -0.905452 0.424448
0.202286 -0.176962 0.245637 -0.865967 0.483061 -0.129435
0.039142 0.116067 0.420946 0 -0.300689 0.953722
-0.0829636 0.199362 0.71647 0 0.997785 -0.0665186
0.125673 0.253855 0.00561815 0 0.11339 -0.993551
0.211004 0.0661201 0.0209664 0.173653 0 0.984807
0.175284 0.170663 0.468889 0.0899933 0.989852 0.109979
0.00626813 -0.179296 0.412701 0 -0.143934 0.989587
-0.0757787 -0.162642 0.352668 0 -0.906272 -0.422695
-0.196657 0.030685 0.574732 1 0 0
-0.226506 -0.127867 0.526915 0 -0.856611 0.515962
0.0519505 0.133887 0.468986 0 -0.938667 -0.344826
0.00231984 0.0729483 0.380039 0 0 1
-0.0766564 -0.143193 0.380039 0 0 -1
0.183161 0.106805 0.586815 0.356735 -0.90268 0.240645
-0.20905 -0.18087 0.299981 0 -0.965926 0.258817
-0.13235 -0.152378 0.414749 0 -0.0645863 0.997912
-0.169522 0.128778 0.431213 0 -0.792624 0.609711
0.196212 0.0212356 0.392035 0.928486 0 -0.371367
-0.2202 0.0607748 0.557059 -0.984825 0 0.173549
0.00188975 -0.0337166 0.358188 0 0 -1
0.101804 0.0406533 0.380039 0 0 1
-0.175176 0.170553 0.441112 0 0.966235 -0.257662
-0.165408 -0.00471646 0.415 0 0 1
-0.204284 -0.152665 0.399575 0.642769 -0.739958 0.19827
-0.129583 0.14807 0.399019 0 0.562319 -0.82692
-0.00503969 -0.248479 0.364082 0 0.264154 -0.964481
-0.197572 0.0845165 0.576765 0 0 1
0.169478 0.177567 0.689041 0.661577 0.631562 0.404285
0.0564362 -0.156217 0.380039 0 0 1
-0.0541011 -0.155522 0.369625 0 0.0871092 0.996199
0.123525 0.154184 0.568416 0.279329 0.960195 0
-0.0659417 -0.0474984 0.380039 0 0 -1
0.202809 -0.149793 0.405513 -0.642769 -0.739958 0.19827
-0.137424 0.174901 0.457677 0 0.96799 -0.250991
0.0745062 0.166099 0.579479 0.0205477 0.996605 -0.0797267
-0.0477188 0.0326529 0.380039 0 0 -1
0.220035 0.112754 0.0100237 1 0 0
0.0613917 -0.0351336 0.415 0 0 1
0.166945 0.244444 0.0158489 0 -0.370358 0.928889
-0.0514289 0.0718579 0.380039 0 0 -1
0.20565 -0.211751 0.108638 -0.342055 0.907662 -0.243203
-0.180756 0.125629 0.384745 0 0.233362 -0.97239
0.0683884 -0.100788 0.380039 0 0 -1
-0.103985 0.162247 0.711459 0 -0.880471 0.474099
0.196657 0.0435601 0.57223 -1 0 0
0.216536 -0.062041 0.00285332 0.766034 0 -0.6428
0.00279963 -0.195409 0.37496 0 0.227501 -0.973778
-0.210248 -0.159244 0.299484 -0.341882 0.907723 -0.243219
0.105292 -0.116524 0.358188 0 0 -1
-0.184481 0.107171 0.546367 -0.411509 -0.855506 -0.314277
0.196657 -0.150405 0.441184 -1 0 0
-0.220344 -0.211943 0.135792 -0.866083 0.482866 -0.129383
-0.130596 0.164692 0.52547 -0.25631 0.909455 0.32741
0.138174 -0.0997657 0.415 0 0 1
0.0484509 -0.0883146 0.415 0 0 1
-0.0870071 -0.0899221 0.358188 0 0 -1
0.138358 0.171027 0.489601 0.0895489 0.984963 0.147749
-0.226251 0.105855 0.576765 0 0 1
-0.099242 -0.165017 0.380039 0 0 1
0.101906 0.122997 0.49863 0 -0.938667 -0.344826
0.0955182 0.142851 0.665639 0 -0.907016 0.421097
0.00195831 0.00833692 0.358188 0 0 -1
-0.170348 -0.122744 0.377809 -0.447214 0 -0.894427
0.217416 0.143161 0.00390149 0.766034 0 -0.6428
0.216365 -0.136633 0.392474 0.342012 0.907677 -0.24321
0.0727193 -0.00893028 0.358188 0 0 -1
0.0205429 0.0880361 0.371805 0 0.416313 -0.909221
-0.065152 0.166567 0.582911 -0.0205359 0.996603 -0.0797494
0.199227 0.173341 0.0118148 -0.939738 0 0.341895
-0.15394 0.167611 0.499086 -0.25631 0.909455 0.32741
0.191422 -0.110413 0.410502 0.393891 0 0.919157
0.12291 0.0987731 0.380039 0 0 -1
-0.218109 -0.0340562 0.576765 0 0 1
0.0968238 -0.0464089 0.380039 0 0 1
0.214739 -0.196335 0.238259 0.64272 -0.739998 0.19828
-0.0642682 0.135045 0.444571 0 -0.97013 0.242585
-0.179177 0.123848 0.411507 -1 0 0
-0.197709 0.104613 0.395836 -0.926454 0.095009 -0.36422
0.160181 0.114461 0.521866 0 -0.938667 -0.344826
0.0945215 0.119711 0.42226 0 -0.56921 0.822192
-0.122637 0.073155 0.364991 0 0.416313 -0.909221
0.15505 -0.171087 0.370161 0.447214 0 -0.894427
-0.129981 0.102525 0.568475 0 -1 0
0.220032 -0.0792258 0.545465 0.863119 0.23804 -0.44538
-0.220141 -0.123218 0.465561 -0.866078 0.482875 -0.129385
-0.217086 -0.175237 0.0206075 -0.863516 0.0767174 0.498453
-0.040551 0.196398 0.694568 0 0.939805 -0.341712
0.201759 0.126561 0.550438 -0.865979 0 -0.500081
-0.177769 0.160088 0.414538 0 0.811529 -0.584312
0.0400918 0.146064 0.672558 0 -0.907016 0.421097
0.195778 0.131576 0.416613 0.917796 -0.220251 0.330364
0.208468 -0.189654 0.187146 -0.342055 0.907662 -0.243203
-0.107011 0.187015 0.672809 -0.053124 0.935013 -0.350612
0.194374 -0.0408114 0.38744 0.928486 0 -0.371366
0.186818 0.0739658 0.382144 0.336312 0 -0.94175
-0.196657 -0.00889307 0.57186 1 0 0
-0.199943 -0.192969 0.228288 0.98478 -0.167884 0.0449839
-0.207693 -0.129817 0.411553 0.341924 0.907707 -0.243218
0.0263815 0.00395878 0.380039 0 0 1
-0.0484889 -0.0987967 0.358188 0 0 -1
-0.171096 -0.0417522 0.380039 0 0 -1
-0.177246 0.0282151 0.415 0 0 1
-0.150067 0.189579 0.695329 -0.285691 0.952826 -0.102481
0.139105 -0.0933796 0.362188 0.447214 0 -0.894427
0.11036 -0.16513 0.358726 0 -0.965894 0.258937
0.0368923 0.125604 0.491532 0 -0.938667 -0.344826
-0.0107013 0.13516 0.649175 0 -0.905452 0.424448
-0.210992 -0.236622 0.0860899 0 -0.994053 0.108894
-0.088267 0.172481 0.448344 0 0.96799 -0.250991
-0.201087 -0.0652807 0.548698 0.862993 0.0823165 -0.498466
-0.132972 0.170706 0.636924 -0.0607897 0.90305 -0.425211
-0.0791654 0.0166907 0.358188 0 0 -1
-0.0777293 0.0891218 0.372302 0 0.416313 -0.909221
0.21529 0.172558 0.0201506 0.766034 0 0.6428
0.133164 -0.00222304 0.415 0 0 1
0.175122 0.139629 0.561724 0.275827 0.948158 0.157847
0.00723182 -0.082715 0.358188 0 0 -1
-0.172914 0.150391 0.45452 -0.36653 -0.929521 -0.0405792
-0.210676 -0.0751535 0.000494686 -0.173668 0 -0.984804
-0.151647 0.0919093 0.373578 0 0.416313 -0.909221
-0.152356 0.148176 0.577913 -0.248036 0.880097 -0.404856
0.095592 -0.044205 0.415 0 0 1
-0.203314 -0.130205 0.521169 0 -0.937551 0.347846
-0.0571486 -0.169717 0.413627 0 -0.0645863 0.997912
-0.0133094 0.0613477 0.380039 0 0 1
0.218855 -0.024584 0.552304 0.866095 0 -0.499879
0.111312 0.168924 0.720658 0.0688692 -0.646669 0.759656
0.197646 0.123428 0.577491 0.920909 0.373336 -0.112014
-0.125569 0.145079 0.443566 0 -0.737335 0.675528
-0.0356214 0.168873 0.434809 0 0.966235 -0.257662
-0.199452 -0.182928 0.013561 0.984426 -0.0777524 -0.157668
-0.00763939 -0.0407414 0.415 0 0 1
0.121189 -0.142132 0.380039 0 0 -1
-0.14205 -0.0272728 0.380039 0 0 1
-0.0837532 -0.225096 0.368524 0 0.183829 -0.982958
-0.00395559 0.177354 0.73022 0 -0.672675 0.739938
0.23049 0.129425 0.562679 0 -0.923827 0.382811
-0.120405 0.0169356 0.380039 0 0 1
0.0973427 0.0134299 0.415 0 0 1
-0.1438 0.06734 0.364536 -0.447214 0 -0.894427
-0.21873 -0.138314 0.0054675 -0.765968 0 -0.642879
-0.00889426 -0.163705 0.363043 0 -0.679409 -0.733759
-0.189436 0.161438 0.635241 -0.405304 0.855708 -0.321701
-0.167617 0.155228 0.686392 -0.301029 -0.787586 0.537671
-0.111213 0.146045 0.452731 0 -0.999048 -0.0436145
-0.0664249 0.175526 0.728558 0 -0.672675 0.739938
0.0507692 0.147219 0.445902 0 -0.737335 0.675528
0.119616 -0.180181 0.412572 0 -0.143934 0.989587
-0.131715 -0.13085 0.380039 0 0 1
-0.123308 -0.15116 0.369243 0 0.0871092 0.996199
0.220076 -0.10262 0.525586 0.863135 0.368561 -0.345196
0.199774 0.00860263 0.559543 -0.98478 0 0.173808
0.0106501 0.135957 0.46066 0 -0.997786 -0.0665138
-0.189822 0.0109296 0.383216 -0.336312 0 -0.94175
-0.199141 0.145058 0.564421 0 0.923871 0.382704
0.112248 -0.0629696 0.358188 0 0 -1
-0.0671733 0.169404 0.535309 -0.0203737 0.98873 0.148314
0.213811 -0.210669 0.0491878 0.338403 0.825027 0.452564
0.027918 -0.0820324 0.415 0 0 1
0.16109 0.112767 0.601522 0 -0.904818 0.425798
0.0476583 -0.194156 0.375253 0 0.227501 -0.973778
0.225452 -0.0110223 0.576765 0 0 1
0.181711 -0.0043577 0.414663 0.393891 0 0.919157
-0.0429687 0.135133 0.465594 0 -0.938667 -0.344826
-0.173271 -0.213919 0.382846 -0.753656 -0.429229 -0.49776
-0.143053 0.0517491 0.415 0 0 1
-0.0269166 0.0930117 0.374083 0 0.416313 -0.909221
-0.177563 -0.050952 0.415 0 0 1
-0.205584 -0.0179114 0.00132018 0.499952 0 -0.866053
0.171006 0.152688 0.599148 0.248036 0.880097 -0.404856
-0.193851 -0.10198 0.386132 -0.928486 0 -0.371366
-0.0491342 -0.113677 0.415 0 0 1
0.105817 -0.252896 0.396366 0.186336 -0.739995 0.646287
-0.0706949 -0.130458 0.415 0 0 1
0.101951 0.160568 0.573833 0.266384 0.945199 -0.188781
-0.00353586 0.102525 0.564092 0 -1 0
0.15741 -0.0502414 0.380039 0 0 -1
0.193708 -0.164651 0.356974 0 -0.906272 -0.422695
-0.0567859 -0.0733402 0.380039 0 0 1
0.09194 -0.159105 0.414314 0 -0.0645863 0.997912
-0.123438 -0.0252904 0.380039 0 0 1
-0.0148446 0.166896 0.572131 -0.0206015 0.999788 0
-0.10517 -0.250372 0.366798 -0.149918 -0.441151 -0.884822
0.158881 -0.0955448 0.372076 0.447214 0 -0.894427
-0.199573 0.192982 0.0087523 0.939738 0 -0.341896
-0.113668 -0.14017 0.358188 0 0 -1
0.219361 -0.1817 0.00902588 0.984473 -0.0267037 -0.173491
0.182526 -0.197021 0.403858 0.84381 -0.396457 0.361672
0.100926 0.000961915 0.380039 0 0 1
0.0928961 0.103186 0.557209 0 -0.989961 -0.141342
-0.0722056 -0.0515188 0.358188 0 0 -1
-0.189764 0.145392 0.654933 -0.905994 -0.304178 0.294366
-0.196657 -0.0432381 0.571055 1 0 0
-0.0225974 -0.0621483 0.358188 0 0 -1
-0.20964 -0.218313 0.160239 0 -0.965926 0.258817
0.0826777 0.146637 0.398044 0 0.562319 -0.82692
-0.021073 -0.182298 0.376944 0 0.125579 -0.992084
0.188345 0.137213 0.43992 0.409837 -0.890426 0.197929
0.145107 -0.00476094 0.380039 0 0 1
0.0294254 0.134014 0.64673 0 -0.905452 0.424448
0.213248 0.0430443 0.000948013 0.173645 0 -0.984808
0.212319 -0.220186 0.15325 0 -0.965926 0.258817
-0.0551248 -0.032025 0.415 0 0 1
-0.197989 -0.140285 0.453964 0 0.965731 -0.259545
0.0180671 -0.163848 0.355254 0 -0.906272 -0.422695
-0.145991 -0.0909628 0.365631 -0.447214 0 -0.894427
-0.184417 -0.127352 0.413503 -0.393891 0 0.919157
-0.212418 -0.124822 0.507843 0 -0.258763 -0.965941
-0.20954 0.0088208 0.000294319 -0.173668 0 -0.984804
0.152582 0.139204 0.39299 0 0.562319 -0.82692
0.137626 0.107116 0.54186 0 -0.938667 -0.344826
-0.217809 0.154571 0.0171482 -0.765968 0 0.642878
0.227939 -0.124077 0.533208 0 -0.856611 0.515962
-0.00140913 0.00190211 0.415 0 0 1
-0.130203 -0.249324 0.376693 -0.403634 -0.644089 -0.649792
0.189217 0.155673 0.414751 0.394659 0.738895 -0.546149
0.0546851 0.0881663 0.371864 0 0.416313 -0.909221
-0.180414 -0.164054 0.379654 -0.396172 0.0090654 -0.918132
-0.172793 0.155184 0.605667 -0.248036 0.880097 -0.404856
0.0998366 -0.151059 0.379778 0 0.0720109 -0.997404
-0.121663 0.033125 0.415 0 0 1
0.0598037 -0.264504 0.3866 0 -0.899528 0.436863
-0.0885085 -0.19415 0.375254 0 0.227501 -0.973778
-0.131023 -0.103896 0.380039 0 0 1
-0.118566 -0.124301 0.415 0 0 1
0.208405 0.24125 0.00694322 0 -0.370373 -0.928883
0.120617 -0.221825 0.369164 0 0.194859 -0.980831
0.0310347 0.10787 0.539807 0 -0.938667 -0.344826
-0.199264 -0.219417 0.107411 0.865967 0.483061 -0.129435
-0.201131 -0.0887765 0.536189 0.863029 0.368694 -0.345321
0.0210555 -0.214559 0.406641 0 -0.203138 0.97915
0.100849 0.0678052 0.415 0 0 1
0.0488566 0.176754 0.48575 0 0.991654 0.128932
0.134575 -0.0777531 0.380039 0 0 -1
-0.196657 -0.143586 0.475326 1 0 0
-0.164363 -0.1474 0.374817 -0.447214 0 -0.894427
0.0953678 -0.0920979 0.358188 0 0 -1
-0.0730077 0.173632 0.631533 -0.0196181 0.951519 -0.306965
-0.0777646 0.255452 0.0157185 0 0.113387 0.993551
0.157792 0.134742 0.648284 0 -0.905452 0.424448
-0.0620527 0.150066 0.68118 0 -0.907016 0.421097
0.212703 -0.156453 0.427337 0 -0.965954 0.258714
-0.107327 0.164362 0.544603 -0.25631 0.909455 0.32741
0.161333 -0.221994 0.373881 0.508957 -0.581413 -0.634761
0.0254683 -0.0741551 0.380039 0 0 1
0.130801 0.0465191 0.358188 0 0 -1
0.231619 0.0926546 0.568756 1 0 0
0.144407 0.133718 0.439261 0 -0.97013 0.242585
-0.00922611 0.199114 0.712741 0 0.997785 -0.0665186
0.196657 -0.073448 0.568553 -1 0 0
-0.118701 -0.237387 0.400746 0 -0.230255 0.97313
0.129548 -0.153856 0.369479 0 0.0871092 0.996199
-0.0169986 0.167849 0.552566 -0.0203737 0.98873 0.148314
-0.0229278 0.170871 0.530997 0 0.991654 0.128932
-0.134116 -0.0693423 0.380039 0 0 1
0.179439 0.0707226 0.415 0 0 1
-0.0454505 -0.174441 0.372984 0 -0.679409 -0.733759
0.156225 0.173697 0.453035 0 0.96799 -0.250991
-0.117474 0.012993 0.415 0 0 1
-0.0614374 -0.152285 0.349148 0 0.258655 -0.96597
-0.0241811 0.122549 0.384006 0 0.233362 -0.97239
0.199349 -0.0216664 0.00936894 -0.939738 0 -0.341896
0.119085 0.136338 0.651687 0 -0.905452 0.424448
-0.212114 -0.168115 0.347581 0 -0.965926 0.258817
0.177053 -0.139159 0.380039 0 0 -1
-0.013095 -0.0994762 0.380039 0 0 1
0.071192 -0.0737314 0.380039 0 0 -1
0.18781 0.144963 0.531959 0.411541 0.856518 0.311466
0.179177 0.121374 0.413671 1 0 0
0.0102101 -0.125877 0.358188 0 0 -1
0.200455 -0.173353 0.309951 -0.642785 -0.739944 0.198266
-0.0985719 -0.041844 0.415 0 0 1
0.0620591 0.00525231 0.358188 0 0 -1
0.0669909 0.0364718 0.380039 0 0 -1
0.0425435 -0.036887 0.415 0 0 1
-0.13963 0.152426 0.552469 -0.25631 0.909455 0.32741
0.211852 -0.216681 0.0826592 0.338288 0.935439 -0.10254
-0.0134595 0.123805 0.49643 0 -0.938667 -0.344826
0.115956 0.118325 0.613333 0 -0.904818 0.425798
0.00549741 -0.104075 0.380039 0 0 1
0.153214 0.160102 0.699699 0.374217 -0.707836 0.599107
0.187135 0.148435 0.663383 0.811172 -0.18958 0.553227
0.183691 0.136478 0.465369 0.392788 -0.86426 -0.314282
-0.0434856 0.115365 0.519405 0 -0.938667 -0.344826
-0.0197664 0.11266 0.601295 0 -0.904818 0.425798
-0.00894058 0.154491 0.406765 0 0.811529 -0.584312
0.0743515 0.12436 0.626158 0 -0.904818 0.425798
-0.0951053 0.261317 0.0110515 0 0.720263 0.693701
-0.231619 -0.093854 0.553272 -1 0 0
-0.0210023 -0.186877 0.411598 0 -0.143934 0.989587
-0.155995 0.13079 0.477417 0 -0.938667 -0.344826
0.0593735 -0.218289 0.405867 0 -0.203138 0.97915
0.206423 0.093407 0.568025 0 0 -1
0.0987001 0.184441 0.665135 0.0628163 0.933156 -0.353942
-0.103785 -0.162167 0.414115 0 -0.0645863 0.997912
-0.148469 0.103627 0.554117 0 -0.989961 -0.141342
0.199442 -0.143125 0.00911195 -0.939738 0 -0.341896
-0.0319984 -0.0761052 0.380039 0 0 1
0.163499 0.147278 0.548084 0.25631 0.909455 0.32741
-0.150066 -0.144701 0.355125 0 0.819131 -0.573607
0.17511 0.128267 0.484283 0 -0.938667 -0.344826
-0.231619 -0.0689678 0.572637 -1 0 0
-0.0279276 -0.264207 0.387212 0 -0.899528 0.436863
-0.218227 -0.199622 0.214687 -0.642703 -0.740011 0.198284
0.110803 -0.0214833 0.380039 0 0 1
0.0866814 0.176039 0.487506 0.0895489 0.984963 0.147749
-0.15698 -0.0616219 0.380039 0 0 -1
0.112534 -0.101754 0.380039 0 0 1
0.0171017 0.179991 0.645621 0.0297883 0.963558 -0.265836
-0.214364 -0.145254 0.435476 0 0.965731 -0.259545
0.0729495 0.0981507 0.380039 0 0 -1
-0.0162554 -0.0879993 0.415 0 0 1
-0.0338127 -0.216388 0.406261 0 -0.203138 0.97915
-0.0872776 0.141057 0.436686 0 -0.923863 0.382723
0.0167629 0.0690707 0.415 0 0 1
0.0426793 -0.266109 0.379556 0 -0.950041 -0.312126
-0.198193 0.122149 0.552244 -0.92425 -0.3588 -0.130475
0.097126 0.0817827 0.368941 0 0.416313 -0.909221
0.078254 -0.14698 0.366348 0 0.707106 0.707108
0.0615453 0.171442 0.522495 0.0203737 0.98873 0.148314
0.0698254 0.197309 0.697073 0 0.939805 -0.341712
-0.0840461 0.136983 0.653065 0 -0.905452 0.424448
-0.150889 0.259563 0.00864686 0 0.720262 -0.693702
0.165758 -0.218757 0.401242 0.354019 -0.464699 0.811619
-0.00659882 0.142766 0.665455 0 -0.907016 0.421097
0.172009 -0.0873365 0.415 0 0 1
-0.0928533 -0.000836667 0.358188 0 0 -1
0.167453 0.0251808 0.376362 0.447214 0 -0.894427
0.00429824 0.16864 0.593157 0.0205359 0.996603 -0.0797494
-0.180298 -0.174723 0.412173 -0.374086 -0.101223 0.921853
0.100046 0.108762 0.593012 0 -0.904818 0.425798
-0.0355998 -0.215001 0.37052 0 0.194859 -0.980831
0.0731463 -0.126312 0.380039 0 0 -1
-0.207065 -0.0661839 0.0210533 0.499961 0 0.866048
-0.205677 -0.208795 0.045735 0.338544 0.824983 0.45254
-0.214642 -0.165266 0.00190261 -0.638299 -0.117107 -0.760829
-0.0873435 0.130395 0.478491 0 -0.938667 -0.344826
0.00884697 0.176366 0.463325 0 0.96799 -0.250991
0.0866786 0.169635 0.620538 0.103273 0.946613 -0.305382
-0.209166 0.0236136 0.0212906 -0.173675 0 0.984803
-0.151198 0.0747673 0.380039 0 0 1
0.155477 0.0580936 0.370374 0.447214 0 -0.894427
0.0562354 -0.217584 0.370007 0 0.194859 -0.980831
-0.136166 -0.0788322 0.415 0 0 1
-0.062717 -0.23688 0.400867 0 -0.230255 0.97313
0.072587 0.146208 0.456458 0 -0.95371 0.300726
0.0330659 -0.0234991 0.380039 0 0 1
0.0748863 -0.0453047 0.380039 0 0 1
0.210279 -0.134866 0.507938 0 -0.965954 0.258714
0.0760758 -0.00152044 0.380039 0 0 1
-0.135243 0.114795 0.520957 0 -0.938667 -0.344826
0.196581 -0.0859494 0.392958 0.928486 0 -0.371366
0.0298658 -0.141078 0.380039 0 0 -1
-0.199916 -0.15502 0.369344 0.98478 -0.167884 0.0449839
0.0549114 -0.158413 0.349777 0 -0.422586 -0.906323
-0.0135441 -0.161245 0.380039 0 0 1
-0.171617 0.144531 0.396612 0 0.562319 -0.82692
0.118565 -0.255725 0.383642 0.407656 -0.911969 -0.0461433
0.135727 -0.00679427 0.360499 0.447214 0 -0.894427
0.0931161 -0.166386 0.380039 0 0 1
0.0642501 0.170801 0.442042 0 0.966235 -0.257662
-0.080127 0.121682 0.423624 0 -0.56921 0.822192
-0.0491524 -0.0828354 0.415 0 0 1
0.146185 -0.179094 0.41273 0 -0.143934 0.989587
0.0215578 0.177024 0.729919 0 -0.672675 0.739938
-0.0751524 0.116575 0.516113 0 -0.938667 -0.344826
0.208092 -0.16837 0.267106 -0.342055 0.907662 -0.243203
-0.105657 0.134094 0.468422 0 -0.938667 -0.344826
0.130857 0.124015 0.495859 0 -0.938667 -0.344826
0.125269 0.166019 0.525955 0.25631 0.909455 0.32741
-0.100177 -0.0996452 0.415 0 0 1
-0.142257 0.170565 0.441156 0 0.966235 -0.257662
0.200235 -0.122422 0.497974 -0.98478 -0.167884 0.0449839
-0.194738 -0.0398817 0.388348 -0.928486 0 -0.371366
0.228676 -0.147729 0.459913 0 -0.965954 0.258714
0.108854 0.167275 0.428819 0 0.966235 -0.257662
0.0311262 0.154608 0.692919 0 -0.940878 0.338744
-0.22389 -0.144387 0.472388 0 -0.965954 0.258714
-0.220035 -0.116995 0.0123 -1 0 0
-0.0446794 0.11529 0.606883 0 -0.904818 0.425798
0.0528392 0.0695597 0.363345 0 0.416313 -0.909221
-0.0739217 0.0755538 0.415 0 0 1
0.202468 -0.0681938 0.545619 -0.862998 0.238164 -0.445547
-0.00483117 -0.0504852 0.380039 0 0 1
-0.0350934 -0.0137275 0.380039 0 0 1
-0.201825 0.0980314 0.563835 0.642722 0 0.7661
0.0361309 0.0080759 0.358188 0 0 -1
0.143023 0.096597 0.380039 0 0 1
0.073899 -0.195499 0.374939 0 0.227501 -0.973778
-0.0361176 -0.0100585 0.358188 0 0 -1
0.193361 -0.0413077 0.409293 0.919145 0 0.393919
-0.164669 -0.00577135 0.380039 0 0 -1
0.208326 -0.197406 0.158414 -0.342055 0.907662 -0.243203
0.143269 0.172679 0.642587 0.0607897 0.90305 -0.425211
0.19747 -0.108262 0.540165 0 0.74614 -0.665789
0.07206 -0.192779 0.41074 0 -0.143934 0.989587
-0.212659 0.131937 0.0206745 -0.173675 0 0.984803
0.107958 0.132469 0.436012 0 -0.792624 0.609711
0.125738 -0.0463943 0.415 0 0 1
-0.0211114 -0.0407584 0.358188 0 0 -1
-0.0953303 0.0628387 0.415 0 0 1
0.0927118 0.171392 0.444259 0 0.966235 -0.257662
0.0907971 0.19084 0.728767 0.151341 0.0428153 0.987554
-0.192789 0.257269 0.00626445 0 0.720262 -0.693702
-0.144908 0.146142 0.456248 0 -0.95371 0.300726
-0.0807144 0.17433 0.500608 -0.0203737 0.98873 0.148314
-0.150479 0.119366 0.615546 0 -0.904818 0.425798
0.150626 0.187836 0.682381 0.2722 0.952582 -0.135999
-0.0470025 0.020682 0.415 0 0 1
0.0540514 0.1074 0.590118 0 -0.904818 0.425798
-0.193444 0.129397 0.498676 -0.92425 -0.3588 -0.130475
-0.155702 -0.157362 0.414426 0 -0.0645863 0.997912
-0.200549 -0.161074 0.316552 0.865961 0.48307 -0.129438
0.218639 0.145522 0.563301 0 0.923871 0.382704
-0.0670877 0.134979 0.466013 0 -0.938667 -0.344826
-0.146335 -0.193612 0.410619 0 -0.143934 0.989587
-0.0986838 -0.197658 0.41003 0 -0.143934 0.989587
-0.0565563 0.257672 0.0066829 0 0.720262 -0.693702
0.0111168 -0.228963 0.367801 0 0.18383 -0.982958
0.0494409 0.18068 0.651741 0.0297883 0.963558 -0.265836
-0.183196 -0.0827872 0.414027 -0.393891 0 0.919157
0.0253013 0.107242 0.589782 0 -0.904818 0.425798
0.215346 -0.0993057 0.0200846 0.766034 0 0.6428
0.167996 -0.118164 0.380039 0 0 -1
-0.0231066 0.193671 0.726991 0 0.799991 0.600012
-0.0520395 -0.250252 0.363596 0 0.264154 -0.964481
-0.0120077 0.152819 0.68795 0 -0.940878 0.338744
-0.0254544 0.146873 0.458567 0 -0.95371 0.300726
-0.170414 0.1726 0.646617 -0.0523686 0.921718 -0.38431
0.223435 -0.0952969 0.563049 0 -0.450831 0.89261
-0.0810236 0.0795316 0.380039 0 0 -1
0.10797 0.148397 0.677585 0 -0.907016 0.421097
0.173107 0.121734 0.38381 0 0.233362 -0.97239
-0.0194675 -0.200314 0.373814 0 0.227501 -0.973778
-0.218001 0.0351825 0.568025 0 0 -1
0.164647 0.0799612 0.380039 0 0 -1
0.195053 0.0812085 0.405345 0.919145 0 0.393919
-0.21842 0.065079 0.576765 0 0 1
0.0396078 0.00899979 0.415 0 0 1
-0.00804796 0.104891 0.415748 0 -0.224943 0.974372
0.0758295 0.173282 0.508267 0.0203737 0.98873 0.148314
-0.072596 0.176553 0.464049 0 0.96799 -0.250991
0.115921 -0.0672904 0.380039 0 0 1
0.0482426 -0.136822 0.415 0 0 1
0.199265 -0.00258858 0.576765 0 0 1
-0.122206 0.190553 0.720451 -0.363724 0.773299 0.519339
0.206599 -0.108292 0.000734346 -0.499952 0 -0.866053
-0.195908 0.147362 0.466724 -0.924244 -0.358815 -0.130478
0.219486 -0.127107 0.476462 0.984826 -0.167633 0.044917
0.134361 0.0314875 0.380039 0 0 1
0.147137 0.123386 0.422505 0 0.0434831 0.999054
-0.0501956 0.163848 0.714432 0 -0.880471 0.474099
0.0598877 0.150259 0.400887 0 0.811529 -0.584312
-0.0111163 0.0805885 0.368394 0 0.416313 -0.909221
0.0737076 0.159877 0.707057 0 -0.880471 0.474099
-0.148164 -0.18202 0.37698 0 0.125579 -0.992084
0.200027 -0.133533 0.451964 -0.98478 -0.167884 0.0449839
-0.104665 -0.182535 0.376915 0 0.125579 -0.992084
-0.217449 -0.0262406 0.549869 -0.866095 0 -0.499879
-0.000889559 0.0322803 0.380039 0 0 -1
0.114343 0.0776588 0.380039 0 0 1
-0.11921 0.0562188 0.358188 0 0 -1
-0.219227 0.0398062 0.00606004 -0.765968 0 -0.642879
-0.146913 -0.104102 0.415 0 0 1
0.023111 0.189263 0.675436 0 0.936335 -0.351108
-0.219287 -0.224525 0.117256 -0.984824 -0.167642 0.0449191
0.086436 -0.245641 0.364716 -0.0425296 0.258489 -0.965077
-0.151671 0.0324498 0.415 0 0 1
0.168055 0.0481615 0.415 0 0 1
0.160051 -0.186118 0.376461 0 0.125579 -0.992084
0.197076 -0.0462277 0.576765 0 0 1
0.209273 0.0541146 0.567365 0 0 1
0.0342719 0.129297 0.431888 0 -0.792624 0.609711
-0.00599567 0.120824 0.383592 0 0.233362 -0.97239
-0.0826 0.0012037 0.380039 0 0 -1
-0.0930892 0.120795 0.618581 0 -0.904818 0.425798
0.0052532 0.0412969 0.358188 0 0 -1
0.0756746 0.0175656 0.415 0 0 1
0.151684 -0.00984944 0.415 0 0 1
0.204371 -0.170186 0.0209327 -0.338522 0.143138 0.930008
-0.0303469 -0.136223 0.358188 0 0 -1
-0.0839066 0.152819 0.68795 0 -0.940878 0.338744
-0.042426 0.167888 0.593578 -0.0205359 0.996603 -0.0797494
0.138691 0.140461 0.660491 0 -0.907016 0.421097
