-0.0470067 -0.150909 0.414844 0 -0.0645863 0.997912
-0.0849005 -0.1657 0.380039 0 0 1
0.0583832 -0.0405456 0.380039 0 0 -1
-0.212947 0.10049 0.547331 -0.341884 0 -0.939742
0.0577542 0.19878 0.707726 0 0.997785 -0.0665186
0.00253181 -0.0190311 0.415 0 0 1
0.0970597 -0.239289 0.36595 -0.0425296 0.258489 -0.965077
0.0948736 0.177614 0.472039 0.0895489 0.984963 0.147749
0.161134 -0.179137 0.380039 0 0 1
0.107863 -0.132571 0.358188 0 0 -1
0.15879 0.156177 0.691685 0.266621 -0.765735 0.585289
0.0410541 -0.154608 0.369545 0 0.0871092 0.996199
0.0232745 0.0388413 0.380039 0 0 -1
-0.203653 -0.196638 0.233422 0.642785 -0.739944 0.198266
0.0963529 -0.168944 0.367893 0 -0.679409 -0.733759
0.179268 -0.0976238 0.380039 0 0 -1
-0.106813 -0.252462 0.368809 -0.249328 -0.585461 -0.771408
-0.219623 -0.0775165 0.0149868 -0.765968 0 0.642878
0.20778 -0.0322112 0.546897 -0.341927 0 -0.939726
0.0976386 -0.201315 0.409388 0 -0.203138 0.97915
0.19512 -0.0186707 0.389306 0.928486 0 -0.371366
-0.199572 -0.0949549 0.00875514 0.939738 0 -0.341896
-0.0780371 -0.125635 0.358188 0 0 -1
0.0599771 0.126192 0.489934 0 -0.938667 -0.344826
-0.140081 -0.166575 0.380039 0 0 1
-0.200148 -0.156039 0.370601 0.98478 -0.167884 0.0449839
-0.120942 0.140191 0.434596 0 -0.923863 0.382723
-0.0893933 0.0257872 0.380039 0 0 -1
-0.196657 -0.0217264 0.570599 1 0 0
-0.0525289 -0.0461272 0.380039 0 0 -1
-0.190565 0.150015 0.608743 -0.38219 0.842378 -0.379908
-0.150302 -0.159839 0.350442 0 -0.422586 -0.906323
0.117955 -0.209587 0.371647 0 0.227501 -0.973778
-0.205908 -0.151002 0.414087 0 0.965731 -0.259545
-0.212377 -0.00328621 0.0207242 -0.173675 0 0.984803
-0.140045 -0.238 0.39736 -0.269524 -0.6003 0.752992
-0.118062 0.102525 0.573366 0 -1 0
0.0851996 0.238871 0.0136269 0 -0.370358 0.928889
-0.177411 0.038892 0.415 0 0 1
-0.0163337 -0.0980662 0.358188 0 0 -1
-0.00287624 0.0404761 0.358188 0 0 -1
0.194671 0.144839 0.460467 0.921365 -0.387941 -0.0242463
-0.196623 -0.143165 0.401679 -0.919145 0 0.393919
-0.118049 -0.134359 0.415 0 0 1
0.169811 0.257006 0.0155273 0 0.720263 0.693701
-0.0311321 0.128974 0.482361 0 -0.938667 -0.344826
-0.0301482 -0.130582 0.380039 0 0 1
-0.0412018 0.171675 0.445319 0 0.966235 -0.257662
-0.0909989 0.0688164 0.415 0 0 1
-0.0336688 -0.217158 0.370091 0 0.194859 -0.980831
-0.109585 0.165907 0.613548 -0.108112 0.990973 -0.0792762
0.209633 0.258866 0.0212082 0.173653 0 0.984807
0.0833214 -0.0840382 0.380039 0 0 1
-0.103452 -0.166548 0.413832 0 -0.0645863 0.997912
0.164783 0.00168081 0.380039 0 0 -1
-0.070241 -0.0188624 0.358188 0 0 -1
-0.188377 0.144528 0.532405 -0.411541 0.856518 0.311466
0.0480331 0.182649 0.657939 0 0.935002 -0.354642
0.0942852 -0.195798 0.410301 0 -0.143934 0.989587
-0.216052 0.0777129 0.54846 -0.341884 0 -0.939742
-0.114471 0.0141603 0.415 0 0 1
-0.141736 -0.143892 0.357274 0 0.996187 0.0872416
0.121449 0.173837 0.481116 0.0895489 0.984963 0.147749
0.0123177 -0.163774 0.37886 0 0.0720109 -0.997404
-0.202665 0.132459 0.567205 0 -0.382831 0.923818
0.0366589 -0.062547 0.415 0 0 1
-0.0698457 -0.165723 0.380039 0 0 1
0.122114 0.170294 0.504327 0.0895489 0.984963 0.147749
-0.0310649 -0.17881 0.412771 0 -0.143934 0.989587
0.196657 0.0652214 0.570928 -1 0 0
-0.163393 0.252056 0.016106 0 0.113387 0.993551
0.0162264 0.118517 0.383038 0 0.233362 -0.97239
-0.0688406 0.0670527 0.415 0 0 1
-0.219601 -0.0100559 0.568025 0 0 -1
-0.00542164 -0.150728 0.369205 0 0.0871092 0.996199
0.0869911 -0.00149605 0.415 0 0 1
0.213675 0.213347 0.0204955 0.173653 0 0.984807
0.209604 -0.132421 0.483227 0 0.965731 -0.259545
0.183256 0.1485 0.528105 0.393007 0.865178 0.31147
0.0631109 0.107632 0.380426 0 0.233362 -0.97239
-0.148701 0.135723 0.430152 0 -0.382678 0.923882
-0.170994 0.056284 0.415 0 0 1
0.0461409 0.0303423 0.380039 0 0 -1
0.223262 -0.132604 0.482545 0 0.965731 -0.259545
-0.208428 -0.188743 0.270597 0 -0.965926 0.258817
0.202725 -0.129436 0.420069 -0.865967 0.483061 -0.129435
0.11118 0.0803184 0.380039 0 0 -1
-0.217512 0.090516 0.576765 0 0 1
-0.111118 -0.128914 0.358188 0 0 -1
0.000603525 0.13638 0.454322 0 -0.997786 -0.0665138
-0.200853 0.105138 0.00523593 0.939738 0 -0.341896
-0.217787 -0.153736 0.33591 -0.866078 0.482875 -0.129385
-0.159091 0.145707 0.576672 -0.248036 0.880097 -0.404856
0.203969 -0.212497 0.175254 -0.642785 -0.739944 0.198266
-0.140815 -0.153514 0.414675 0 -0.0645863 0.997912
-0.199771 0.0127407 0.559524 0.98478 0 0.173808
0.071964 0.0251599 0.380039 0 0 -1
0.196657 -0.144115 0.470148 -1 0 0
-0.144604 -0.13838 0.415 0 0 1
0.129869 0.0554319 0.358188 0 0 -1
-0.202021 -0.227766 0.0467459 0.638431 -0.674804 -0.370197
-0.101478 0.0820085 0.415 0 0 1
0.100039 0.121592 0.620276 0 -0.904818 0.425798
0.0168347 -0.167333 0.378603 0 0.0720109 -0.997404
-0.168214 0.0590233 0.415 0 0 1
0.194892 0.244824 0.0160004 0 -0.370358 0.928889
0.00367388 0.136327 0.449698 0 -0.97013 0.242585
0.13722 0.171829 0.639916 0.0607897 0.90305 -0.425211
-0.137978 0.103529 0.380039 0 0 1
-0.00164361 0.177982 0.638444 -0.0291228 0.942032 -0.334257
-0.0983397 -0.16502 0.37877 0 0.0720109 -0.997404
-0.0152046 -0.0723067 0.415 0 0 1
-0.197003 0.135757 0.416419 -0.918983 -0.317439 0.233888
0.0872885 0.102843 0.575269 0 -0.966254 0.257593
-0.136542 0.0701992 0.415 0 0 1
0.180629 -0.148394 0.367762 0 0.707106 0.707108
-0.116994 0.0616476 0.415 0 0 1
-0.196473 0.0778757 0.392686 -0.928486 0 -0.371367
-0.185088 0.138326 0.450557 -0.383883 -0.8958 0.223998
0.209166 -0.113146 0.533031 0 -0.729872 0.683583
0.0124802 0.170028 0.537478 0 0.991654 0.128932
-0.222698 0.110612 0.576765 0 0 1
0.193453 0.123092 0.417415 0.917796 -0.220251 0.330364
0.196657 -0.153953 0.415962 -1 0 0
0.147177 -0.176355 0.377697 0 0.125579 -0.992084
0.176345 0.0111647 0.380039 0 0 -1
0.170834 -0.112384 0.380039 0 0 1
-0.129976 -0.0406652 0.415 0 0 1
-0.0577865 -0.140709 0.380039 0 0 -1
-0.0830006 0.105922 0.586818 0 -0.966254 0.257593
0.167233 0.0700765 0.376252 0.447214 0 -0.894427
-0.0110919 0.120489 0.505457 0 -0.938667 -0.344826
-0.224151 -0.122147 0.517794 0 0.937893 -0.346923
0.137251 0.123876 0.425144 0 -0.56921 0.822192
0.20265 0.0833215 0.568025 0 0 -1
-0.207607 -0.184377 0.208052 0.342055 0.907662 -0.243203
-0.110259 -0.00760308 0.358188 0 0 -1
0.024641 0.0643384 0.380039 0 0 1
0.171005 -0.142756 0.378138 0.447214 0 -0.894427
-0.196668 -0.139342 0.491228 0 -0.965954 0.258714
0.049872 0.000956416 0.415 0 0 1
-0.0530334 -0.23339 0.366973 0 0.18383 -0.982958
-0.0464553 0.116684 0.609845 0 -0.904818 0.425798
-0.0620246 0.0419574 0.358188 0 0 -1
0.0645668 -0.0117489 0.415 0 0 1
-0.141002 -0.125728 0.380039 0 0 1
-0.146062 -0.0327489 0.380039 0 0 1
0.0579144 0.103498 0.380039 0 0 1
0.220271 -0.0320878 0.554758 0.866095 0 -0.499879
0.0522143 0.0463637 0.380039 0 0 1
0.085497 -0.151968 0.379713 0 0.0720109 -0.997404
0.135955 -0.0320748 0.360613 0.447214 0 -0.894427
0.217758 -0.110236 0.00430914 0.766034 0 -0.6428
-0.169225 0.118509 0.510846 0 -0.938667 -0.344826
0.216125 -0.0915826 0.0191557 0.766034 0 0.6428
-0.0937455 -0.0179938 0.415 0 0 1
-0.0944607 0.0843654 0.370124 0 0.416313 -0.909221
-0.144918 0.152792 0.687876 0 -0.940878 0.338744
-0.169773 0.12073 0.383569 0 0.233362 -0.97239
-0.112803 -0.164871 0.359693 0 -0.965894 0.258937
-0.0230278 -0.0946412 0.380039 0 0 1
0.00176738 0.0189815 0.358188 0 0 -1
0.000976175 0.0950952 0.415 0 0 1
0.228432 -0.155579 0.430604 0 -0.965954 0.258714
0.201118 -0.178409 0.00709479 -0.638369 -0.117098 -0.760771
0.0784959 -0.0309654 0.415 0 0 1
-0.180072 0.146432 0.53746 -0.25631 0.909455 0.32741
0.0340345 -0.0125911 0.358188 0 0 -1
-0.0251365 0.153707 0.690417 0 -0.940878 0.338744
-0.217903 -0.149996 0.400946 -0.642703 -0.740011 0.198284
-0.17538 0.171525 0.644725 -0.0607897 0.90305 -0.425211
0.0934329 0.116553 0.609568 0 -0.904818 0.425798
-0.0156257 0.0207165 0.380039 0 0 1
-0.105839 0.0430645 0.380039 0 0 -1
-0.163135 -0.0293374 0.380039 0 0 1
0.167702 0.172356 0.447874 0 0.966235 -0.257662
-0.215066 -0.127765 0.493109 -0.642703 -0.740011 0.198284
0.223226 -0.0276533 0.568025 0 0 -1
-0.167079 -0.0955505 0.376175 -0.447214 0 -0.894427
0.0931651 -0.144191 0.358188 0 0 -1
-0.00302745 -0.102869 0.415 0 0 1
0.214166 -0.221467 0.146323 0.64272 -0.739998 0.19828
-0.0295606 0.167389 0.584027 -0.0205359 0.996603 -0.0797494
-0.17307 -0.159503 0.350285 0 -0.422586 -0.906323
-0.0192006 0.1456 0.444134 0 -0.737335 0.675528
-0.200249 -0.121804 0.5006 0.98478 -0.167884 0.0449839
0.00757687 0.0949741 0.380039 0 0 -1
-0.117959 0.10372 0.553465 0 -0.989961 -0.141342
-0.0630854 0.131545 0.47536 0 -0.938667 -0.344826
0.030917 0.16798 0.591763 0.0205359 0.996603 -0.0797494
0.1578 0.248715 0.0050315 0 0.11339 -0.993551
-0.0642327 -0.0307669 0.415 0 0 1
0.0330607 0.196958 0.72261 0 0.799991 0.600012
-0.200891 -0.150761 0.352755 0.865961 0.48307 -0.129438
0.107959 0.0965783 0.380039 0 0 1
-0.0722756 0.187559 0.670892 0 0.936335 -0.351108
-0.168217 0.172103 0.446923 0 0.966235 -0.257662
0.157047 -0.233605 0.389078 0.549572 -0.809183 0.207832
-0.207151 -0.0116895 0.547126 0.341927 0 -0.939726
-0.115128 0.0249281 0.358188 0 0 -1
0.0521155 0.137166 0.43075 0 -0.382678 0.923882
-0.0604237 -0.104832 0.380039 0 0 -1
0.208105 0.0598789 0.568025 0 0 -1
0.046043 0.167046 0.720067 0 -0.857494 0.514494
-0.126328 0.0666957 0.362033 0 0.416313 -0.909221
0.16369 -0.0939828 0.380039 0 0 1
0.0613855 -0.181141 0.379187 0 -0.679409 -0.733759
0.218046 -0.127271 0.436413 0.866078 0.482875 -0.129385
0.202094 -0.0476927 0.559638 0 -1 0
-0.220035 -0.11057 0.0121447 -1 0 0
-0.143291 -0.0584164 0.415 0 0 1
0.0363412 0.167193 0.583326 0.0205359 0.996603 -0.0797494
-0.0117653 -0.128236 0.380039 0 0 1
-0.167231 0.061915 0.380039 0 0 1
-0.217697 -0.230693 0.0538177 -0.638372 -0.754932 -0.150197
-0.0913832 0.172476 0.508406 -0.0895489 0.984963 0.147749
0.11313 0.19056 0.683192 0.053124 0.935013 -0.350612
-0.0659577 0.175216 0.496731 -0.0203737 0.98873 0.148314
-0.0411587 0.104035 0.579739 0 -0.966254 0.257593
0.0931178 0.249632 0.00513617 0 0.11339 -0.993551
0.0501838 0.146173 0.449792 0 -0.999048 -0.0436145
-0.0172142 0.147685 0.46114 0 -0.95371 0.300726
-0.092259 0.137098 0.653308 0 -0.905452 0.424448
0.0505509 0.168673 0.605474 0.0205477 0.996605 -0.0797267
-0.133902 0.130776 0.477455 0 -0.938667 -0.344826
0.0620783 0.157984 0.702295 0 -0.940878 0.338744
0.131826 0.0496409 0.380039 0 0 -1
0.103548 -0.172951 0.371604 0 -0.679409 -0.733759
-0.0345827 -0.147556 0.351047 0 0.819131 -0.573607
-0.21981 -0.229893 0.0729794 -0.984474 -0.172156 -0.0342512
-0.0857425 -0.0771011 0.358188 0 0 -1
0.0144071 -0.0601568 0.358188 0 0 -1
-0.217389 0.0696432 0.0176485 -0.765968 0 0.642878
-0.146089 -0.0580118 0.415 0 0 1
-0.217622 -0.161744 0.304915 -0.866078 0.482875 -0.129385
-0.211981 -0.0983814 0.0207941 -0.173675 0 0.984803
0.0404641 0.19936 0.716434 0 0.997785 -0.0665186
-0.0316171 0.108844 0.593185 0 -0.904818 0.425798
0.152554 0.171398 0.478521 0.0895489 0.984963 0.147749
-0.156757 -0.0864749 0.415 0 0 1
0.215167 0.0747742 0.568025 0 0 -1
0.0932784 0.167988 0.617326 0.108112 0.990973 -0.0792762
-0.0916439 0.0863332 0.371025 0 0.416313 -0.909221
-0.122468 0.135268 0.649406 0 -0.905452 0.424448
-0.204174 -0.188575 0.197212 0.341924 0.907707 -0.243218
-0.22077 0.0585822 0.576765 0 0 1
0.0767284 0.166813 0.551268 0.0203737 0.98873 0.148314
-0.0636894 -0.161167 0.360693 0 -0.679409 -0.733759
0.00501573 0.167099 0.563766 0.0206015 0.999788 0
-0.134494 0.000614256 0.359882 -0.447214 0 -0.894427
0.0125849 0.0229651 0.358188 0 0 -1
0.216308 -0.0738606 0.00258084 0.766034 0 -0.6428
-0.0556506 0.0623425 0.380039 0 0 -1
0.160024 -0.228687 0.379539 0.551665 -0.601517 -0.577791
0.151936 -0.0507514 0.380039 0 0 -1
-0.103247 0.108335 0.592104 0 -0.904818 0.425798
-0.169744 0.143804 0.435034 -0.366489 -0.85957 0.356125
-0.118127 -0.00558197 0.415 0 0 1
0.227206 -0.0414904 0.576765 0 0 1
0.200117 -0.138953 0.433706 -0.98478 -0.167884 0.0449839
0.199266 0.076372 0.556664 -0.98478 0 0.173808
-0.0137508 0.147712 0.44644 0 -0.737335 0.675528
-0.22256 -0.150564 0.449325 0 -0.965954 0.258714
-0.0461001 0.121673 0.620448 0 -0.904818 0.425798
0.217738 -0.160146 0.017233 0.766034 0 0.6428
0.219833 -0.209605 0.160954 0.984824 -0.167642 0.0449191
-0.0026774 -0.0515021 0.380039 0 0 1
0.145773 -0.157443 0.414421 0 -0.0645863 0.997912
0.151032 0.0986293 0.380039 0 0 1
-0.184225 0.0450061 0.381217 -0.336312 0 -0.94175
0.0201596 0.191428 0.681209 0 0.936335 -0.351108
0.0396262 -0.0567721 0.380039 0 0 -1
-0.231619 -0.0233299 0.569478 -1 0 0
-0.118417 -0.244212 0.366821 -0.311599 -0.564096 -0.764658
-0.0424065 0.103992 0.551563 0 -0.989961 -0.141342
0.166137 -0.018918 0.380039 0 0 -1
-0.196657 -0.15179 0.428631 1 0 0
0.0660331 0.148535 0.67788 0 -0.907016 0.421097
0.198905 -0.103929 0.0109294 -0.939738 0 0.341895
0.137266 -0.0632865 0.380039 0 0 -1
0.111337 0.161844 0.71071 0 -0.880471 0.474099
-0.00690976 0.0361963 0.380039 0 0 1
-0.15238 0.0618815 0.380039 0 0 1
-0.109259 0.0255258 0.380039 0 0 1
-0.0365865 -0.196356 0.410219 0 -0.143934 0.989587
-0.197777 0.154114 0.469912 -0.910875 0.387836 0.141034
-0.120274 0.0303742 0.380039 0 0 1
0.0183031 -0.0402858 0.380039 0 0 -1
-0.201182 -0.232944 0.0679274 0.638342 -0.754956 -0.150202
0.107532 0.135887 0.461719 0 -0.997786 -0.0665138
-0.15002 -0.091274 0.415 0 0 1
0.107416 -0.154983 0.41458 0 -0.0645863 0.997912
-0.0244895 0.0310885 0.380039 0 0 1
0.0390979 0.102441 0.3784 0 0.416313 -0.909221
0.20893 -0.103355 0.556878 0 -0.60897 0.793193
0.216326 -0.153444 0.393189 0.642703 -0.740011 0.198284
0.0891398 0.175792 0.640456 0.103273 0.946613 -0.305382
-0.213718 -0.162308 0.00709228 0 -1 0
-0.00279814 -0.133297 0.380039 0 0 1
0.0733372 -0.0471544 0.380039 0 0 -1
0.0148084 0.0303079 0.380039 0 0 1
-0.100845 -0.0240016 0.415 0 0 1
-0.0977075 0.0552802 0.380039 0 0 -1
-0.176409 -0.162289 0.351911 0 -0.906272 -0.422695
-0.162945 0.120724 0.618431 0 -0.904818 0.425798
-0.110746 0.135787 0.463216 0 -0.997786 -0.0665138
0.217263 -0.102083 0.516243 0.863142 0.45995 -0.208403
-0.101052 0.101542 0.377989 0 0.416313 -0.909221
-0.0431535 0.147908 0.461849 0 -0.95371 0.300726
-0.230773 -0.110496 0.550737 0 -0.745764 0.66621
-0.0541849 -0.0663075 0.415 0 0 1
0.162237 0.246847 0.0167005 0 0.113387 0.993551
0.221453 -0.147833 0.459522 0 -0.965954 0.258714
-0.213223 0.0910531 0.568025 0 0 -1
-0.0319671 -0.0329911 0.380039 0 0 -1
0.0415726 0.155209 0.694589 0 -0.940878 0.338744
0.0576185 0.00047373 0.358188 0 0 -1
0.204539 -0.101004 0.544188 -0.637703 -0.562208 0.526553
-0.157853 0.0702337 0.415 0 0 1
0.174888 -0.0966094 0.415 0 0 1
-0.137089 0.134741 0.648281 0 -0.905452 0.424448
-0.101025 -0.164517 0.378807 0 0.0720109 -0.997404
-0.145085 0.0271747 0.365178 -0.447214 0 -0.894427
0.018779 -0.0993556 0.380039 0 0 1
-0.134246 0.14288 0.395489 0 0.562319 -0.82692
-0.198085 0.15308 0.461398 -0.92708 -0.373174 -0.0355586
-0.160874 -0.0860049 0.380039 0 0 -1
-0.134382 -0.230722 0.40256 0 -0.269065 0.963122
-0.00630337 0.0317094 0.380039 0 0 -1
0.135987 0.112178 0.528082 0 -0.938667 -0.344826
-0.108076 -0.15345 0.369443 0 0.0871092 0.996199
0.00343277 -0.0144036 0.380039 0 0 1
-0.121851 -0.252296 0.37445 -0.403634 -0.644089 -0.649792
0.114007 0.135498 0.649895 0 -0.905452 0.424448
-0.058052 0.199138 0.713108 0 0.997785 -0.0665186
-0.187292 0.137309 0.467585 -0.392788 -0.86426 -0.314282
-0.197664 -0.124875 0.399251 -0.919145 0 0.393919
-0.162361 0.104527 0.548908 0 -0.938667 -0.344826
0.164491 -0.0269407 0.374881 0.447214 0 -0.894427
0.211255 -0.145679 0.467565 0 -0.965954 0.258714
-0.0928046 -0.000377432 0.358188 0 0 -1
0.0229613 -0.226548 0.368252 0 0.18383 -0.982958
-0.115362 -0.0566022 0.380039 0 0 1
0.144631 0.0478072 0.415 0 0 1
-0.123183 0.154284 0.569742 -0.279329 0.960195 0
0.0346259 0.193931 0.726644 0 0.799991 0.600012
0.0268806 0.140869 0.432284 0 -0.382678 0.923882
0.221772 0.111381 0.572854 0 1 0
-0.0594183 -0.000683889 0.415 0 0 1
0.186462 -0.195338 0.389824 0.860911 -0.272805 -0.42943
0.0321234 0.0475515 0.380039 0 0 1
-0.20139 -0.161958 0.00375874 0.939738 0 -0.341896
0.0237268 -0.157513 0.414417 0 -0.0645863 0.997912
0.15908 -0.179807 0.380039 0 0 1
0.0155043 -0.0881087 0.415 0 0 1
-0.15198 -0.0388192 0.380039 0 0 -1
-0.0340706 -0.00198565 0.358188 0 0 -1
-0.205738 -0.193716 0.175825 0.342055 0.907662 -0.243203
0.145137 -0.138144 0.380039 0 0 1
-0.0728741 -0.229599 0.402874 0 -0.269065 0.963122
0.129799 0.164145 0.618104 0.103273 0.946613 -0.305382
0.103166 0.100473 0.377499 0 0.416313 -0.909221
-0.105645 -0.173546 0.413379 0 -0.0645863 0.997912
0.204401 -0.000273943 0.00200331 -0.499952 0 -0.866053
0.065458 -0.255864 0.395806 0 -0.333698 0.94268
-0.0403261 0.25129 0.00532537 0 0.11339 -0.993551
-0.0323103 0.17319 0.513158 0 0.991654 0.128932
-0.0991701 -0.013935 0.358188 0 0 -1
0.0191416 0.130354 0.478602 0 -0.938667 -0.344826
0.138085 -0.0925222 0.361678 0.447214 0 -0.894427
0.109808 -0.110344 0.415 0 0 1
0.15121 -0.0877351 0.380039 0 0 1
-0.134058 -0.0200658 0.359665 -0.447214 0 -0.894427
-0.0386521 0.146313 0.456791 0 -0.95371 0.300726
-0.22026 -0.2094 0.0322213 -0.984473 -0.121388 -0.126802
0.102933 -0.14499 0.364358 0 0.707106 0.707108
-0.220035 0.0369783 0.012922 -1 0 0
0.147304 0.146755 0.458191 0 -0.95371 0.300726
-0.219417 -0.18857 0.216817 -0.866083 0.482866 -0.129383
0.0320673 0.167669 0.551695 0.0203737 0.98873 0.148314
0.153627 -0.165689 0.413887 0 -0.0645863 0.997912
0.109161 0.0206994 0.380039 0 0 -1
-0.189372 0.165112 0.474246 -0.393007 0.865178 0.31147
-0.16172 0.0824402 0.415 0 0 1
0.0837887 0.114061 0.418349 0 -0.56921 0.822192
0.0924555 0.128565 0.635107 0 -0.905452 0.424448
0.199622 -0.0976552 0.537032 -0.984373 -0.128529 0.120377
0.13668 -0.155937 0.360976 0.447214 0 -0.894427
-0.123755 -0.0181988 0.415 0 0 1
-0.158816 0.153701 0.593882 -0.248036 0.880097 -0.404856
0.173128 0.163571 0.419376 0 0.811529 -0.584312
-0.1412 0.0746394 0.36567 0 0.416313 -0.909221
0.0927049 0.18449 0.664201 0.0628163 0.933156 -0.353942
0.0185208 0.146092 0.451661 0 -0.999048 -0.0436145
0.120648 0.00735797 0.380039 0 0 -1
-0.209056 0.116325 0.00020901 -0.173668 0 -0.984804
-0.0841737 -0.154101 0.414637 0 -0.0645863 0.997912
-0.041561 0.149357 0.399894 0 0.562319 -0.82692
0.198517 -0.0657226 0.574801 0 -0.277125 0.960834
0.0763577 0.144282 0.442695 0 -0.737335 0.675528
0.220035 0.199001 0.0125662 1 0 0
0.0503768 0.146192 0.449366 0 -0.999048 -0.0436145
0.174142 0.147207 0.539948 0.25631 0.909455 0.32741
0.0396426 0.256536 0.0155947 0 0.113387 0.993551
0.0268679 0.17513 0.498242 0 0.991654 0.128932
-0.216842 -0.10915 0.503643 5.39939e-05 -0.258819 -0.965926
0.219022 -0.210279 0.133151 0.866083 0.482866 -0.129383
-0.0173215 0.152639 0.404193 0 0.811529 -0.584312
-0.0723128 -0.111923 0.380039 0 0 1
-0.218669 0.117589 0.563032 -0.642656 0 0.766155
0.043746 0.182598 0.657806 0 0.935002 -0.354642
-0.129534 0.17562 0.647352 -0.0628163 0.933156 -0.353942
-0.111048 -0.0718796 0.358188 0 0 -1
0.0140839 0.186862 0.729954 0 0.0623815 0.998052
0.216721 0.208926 0.018446 0.766034 0 0.6428
-0.154807 -0.15581 0.348563 0 -0.422586 -0.906323
0.122633 -0.173083 0.371726 0 -0.679409 -0.733759
-0.20234 0.0163991 0.568025 0 0 -1
-0.215955 -0.180905 0.291903 -0.64272 -0.739998 0.19828
-0.190198 0.160536 0.422039 -0.394659 0.738895 -0.546149
0.175641 0.158584 0.507173 0.25631 0.909455 0.32741
-0.0935598 -0.0297248 0.358188 0 0 -1
0.154347 0.163364 0.623983 0.103273 0.946613 -0.305382
0.00770699 -0.141355 0.415 0 0 1
-0.121141 0.0522428 0.415 0 0 1
-0.135032 0.053728 0.380039 0 0 1
0.0551727 0.158174 0.702824 0 -0.940878 0.338744
-0.158595 -0.0613608 0.415 0 0 1
-0.0571494 -0.147738 0.367106 0 0.707106 0.707108
0.220175 -0.14573 0.391852 0.984826 -0.167633 0.044917
0.0251756 0.115267 0.382258 0 0.233362 -0.97239
0.160447 0.169382 0.436721 0 0.966235 -0.257662
-0.208288 -0.198787 0.153313 0.342055 0.907662 -0.243203
0.0923249 -0.201696 0.373491 0 0.227501 -0.973778
0.138312 0.102525 0.571046 0 -1 0
-0.0942042 0.0204172 0.358188 0 0 -1
0.138994 -0.128345 0.415 0 0 1
-0.11275 0.171774 0.500141 -0.0895489 0.984963 0.147749
0.231619 0.00119438 0.570982 1 0 0
0.218736 0.136057 0.54725 0 -0.382643 -0.923896
-0.207212 -0.161072 0.295583 0.342055 0.907662 -0.243203
0.197605 0.152013 0.476804 0.910875 0.387836 0.141034
0.19918 -0.191192 0.218236 -0.984778 -0.167892 0.0449863
-0.029294 0.175949 0.728942 0 -0.672675 0.739938
-0.20168 0.0465032 0.550575 0.865979 0 -0.500081
-0.214329 0.131832 0.566945 0 -0.382831 0.923818
-0.107449 0.160572 0.577346 -0.248036 0.880097 -0.404856
-0.0607313 0.245535 0.00523476 0 -0.370373 -0.928883
0.151081 -0.118994 0.368176 0.447214 0 -0.894427
-0.0892377 0.166136 0.424547 0 0.966235 -0.257662
-0.0977153 -0.137118 0.358188 0 0 -1
0.113111 0.158084 0.702573 0 -0.940878 0.338744
0.0387838 0.118608 0.38306 0 0.233362 -0.97239
0.0536224 -0.207328 0.408141 0 -0.203138 0.97915
-0.0808771 -0.115386 0.358188 0 0 -1
0.136889 0.0323062 0.380039 0 0 1
-0.0730196 0.178196 0.474657 0 0.991654 0.128932
-0.0314771 0.0628149 0.380039 0 0 1
-0.187956 0.0375311 0.38255 -0.336312 0 -0.94175
0.0334093 0.0180122 0.415 0 0 1
0.0928802 -0.223632 0.368805 0 0.194859 -0.980831
-0.00688213 0.261594 0.0107551 0 0.720262 -0.693702
-0.0830405 -0.0537782 0.358188 0 0 -1
-0.0845684 0.127203 0.429165 0 -0.792624 0.609711
-0.0381209 0.238337 0.0120163 0 -1 0
-0.194488 0.131133 0.577187 -0.922287 0.352332 -0.1589
-0.221341 -0.112554 0.548434 0 -0.745764 0.66621
0.146314 0.133742 0.43936 0 -0.97013 0.242585
0.0716709 0.136399 0.454036 0 -0.997786 -0.0665138
0.0670444 -0.131548 0.415 0 0 1
-0.037237 -0.115377 0.380039 0 0 -1
0.0667277 0.0561502 0.380039 0 0 -1
-0.142835 0.155258 0.694723 0 -0.940878 0.338744
0.200006 -0.179665 0.279315 -0.98478 -0.167884 0.0449839
0.0782261 0.0664569 0.415 0 0 1
-0.231075 -0.123232 0.51486 0 0.937893 -0.346923
-0.155598 0.173754 0.45717 -0.0899933 0.989852 0.109979
-0.194946 0.132882 0.49973 -0.92425 -0.3588 -0.130475
-0.22052 -0.225425 0.0777947 -0.86353 0.501299 -0.0549154
-0.207226 -0.128408 0.49577 0 -0.965926 0.258817
-0.0321743 -0.00263761 0.380039 0 0 1
0.213639 -0.00849077 0.00101707 0.173645 0 -0.984808
0.19997 -0.156642 0.364457 -0.98478 -0.167884 0.0449839
0.210337 -0.237865 0.0720518 0 -0.980788 -0.195079
0.192293 -0.154515 0.384184 0.335379 -0.012983 -0.941994
0.135413 -0.0977577 0.380039 0 0 1
-0.0164524 -0.055552 0.380039 0 0 -1
-0.120002 0.252167 0.0160933 0 0.113387 0.993551
-0.199253 0.0446486 0.0118871 0.939738 0 0.341895
-0.123817 -0.120586 0.380039 0 0 1
0.186232 -0.159076 0.350086 0 -0.422586 -0.906323
-0.0760489 -0.0182841 0.380039 0 0 -1
-0.00370231 -0.0348744 0.358188 0 0 -1
0.0117428 0.0106628 0.380039 0 0 1
-0.165093 0.135615 0.390549 0 0.562319 -0.82692
-0.167817 -0.101291 0.380039 0 0 1
-0.166938 0.136596 0.451075 0 -0.997786 -0.0665138
-0.00687641 -0.160028 0.359638 0 -0.679409 -0.733759
-0.209694 -0.114388 0.466324 0.342055 0.907662 -0.243203
0.219158 0.130467 0.549566 0 -0.382643 -0.923896
0.141687 0.0230155 0.380039 0 0 1
0.208903 -0.144378 0.362815 0 0.996187 0.0872416
-0.127345 0.0185204 0.415 0 0 1
0.0688095 -0.139798 0.415 0 0 1
0.205824 -0.0394628 0.0203371 -0.499961 0 0.866048
-0.217879 -0.162308 0.00886062 0 -1 0
-0.196335 0.119826 0.54547 -0.92425 -0.3588 -0.130475
0.172324 0.111287 0.417225 0 -0.224943 0.974372
0.0840199 0.134526 0.442495 0 -0.97013 0.242585
-0.20529 0.116658 0.566742 0.642722 0 0.7661
-0.0506362 0.166329 0.425271 0 0.966235 -0.257662
-0.14578 -0.131371 0.365526 -0.447214 0 -0.894427
-0.0797703 0.115882 0.517998 0 -0.938667 -0.344826
-0.114167 -0.036888 0.415 0 0 1
0.202838 -0.0524779 0.567576 0 0.0935245 -0.995617
0.226829 -0.0743524 0.572312 0 -0.277125 0.960834
0.166442 0.139619 0.658686 0 -0.905452 0.424448
0.0372628 0.106743 0.542876 0 -0.938667 -0.344826
0.215613 -0.109646 0.00175296 0.766034 0 -0.6428
0.12313 0.137375 0.6539 0 -0.905452 0.424448
0.0723791 0.10242 0.380039 0 0 1
-0.115676 -0.226827 0.403648 0 -0.269065 0.963122
0.0329835 0.156792 0.698985 0 -0.940878 0.338744
0.14933 -0.0494952 0.415 0 0 1
-0.0148086 -0.0435571 0.415 0 0 1
0.0201148 0.133071 0.436794 0 -0.792624 0.609711
-0.134399 0.0869827 0.380039 0 0 -1
0.123952 0.0118069 0.358188 0 0 -1
0.0155287 0.105608 0.585638 0 -0.966254 0.257593
-0.21884 -0.115441 0.485876 -0.866078 0.482875 -0.129385
0.212935 0.136425 0.020626 0.173653 0 0.984807
-0.0319402 0.10276 0.415256 0 -0.224943 0.974372
0.144045 -0.190336 0.411095 0 -0.143934 0.989587
0.155413 -0.19689 0.410142 0 -0.143934 0.989587
-0.214378 -0.136335 0.502453 0 -0.965954 0.258714
-0.0674949 -0.224711 0.368596 0 0.183829 -0.982958
0.179996 0.0836286 0.380039 0 0 -1
0.120686 0.165962 0.529701 0.25631 0.909455 0.32741
0.220035 -0.106525 0.0096457 1 0 0
-0.217891 0.05007 0.00446778 -0.765968 0 -0.642879
-0.159979 0.000348344 0.372625 -0.447214 0 -0.894427
0.167167 -0.0752979 0.380039 0 0 -1
-0.18611 0.158264 0.668254 -0.811172 -0.18958 0.553227
-0.0382978 0.0892456 0.380039 0 0 -1
-0.227902 -0.0828906 0.559569 0 0.450988 -0.89253
0.117641 -0.220415 0.405426 0 -0.203138 0.97915
-0.199206 -0.08547 0.568012 0 -0.450831 0.89261
0.102131 -0.0638451 0.380039 0 0 1
-0.00325216 0.0729888 0.380039 0 0 -1
0.0611166 0.172774 0.513675 0.0203737 0.98873 0.148314
-0.21552 -0.201473 0.216554 -0.64272 -0.739998 0.19828
0.146656 0.244902 0.0160317 0 -0.370358 0.928889
-0.192914 0.157968 0.658176 -0.811172 -0.18958 0.553227
0.0455021 -0.0457055 0.380039 0 0 -1
-0.0212051 0.038808 0.380039 0 0 1
-0.0204794 -0.0957311 0.380039 0 0 -1
-0.0984314 0.165037 0.58746 -0.108112 0.990973 -0.0792762
0.0930558 0.0211941 0.380039 0 0 1
-0.178148 -0.0622416 0.380039 0 0 -1
-0.180234 0.155038 0.513426 -0.25631 0.909455 0.32741
0.175477 -0.161351 0.366862 0 -0.57367 0.819087
0.137031 0.188367 0.681159 0.0578614 0.940024 -0.336165
-0.158241 -0.0893827 0.371756 -0.447214 0 -0.894427
-0.109838 -0.0370605 0.358188 0 0 -1
-0.220035 -0.135201 0.00847793 -1 0 0
-0.038634 0.177107 0.466186 0 0.96799 -0.250991
0.123386 -0.170735 0.369552 0 -0.679409 -0.733759
0.196657 0.108345 0.574695 -1 0 0
-0.219338 -0.081556 0.552728 -0.984423 -0.0828813 0.155055
0.196657 -0.142678 0.456269 -1 0 0
0.0213797 -0.153533 0.3796 0 0.0720109 -0.997404
-0.102301 -0.0291636 0.415 0 0 1
0.208431 -0.0576072 0.575832 0 -0.0937214 0.995598
-0.00123377 -0.0192892 0.380039 0 0 1
-0.0528939 -0.0740943 0.415 0 0 1
-0.202537 -0.153419 0.331825 0.865967 0.483061 -0.129435
-0.17077 0.0932957 0.415 0 0 1
-0.181563 -0.11063 0.414727 -0.393891 0 0.919157
-0.154838 0.135818 0.462754 0 -0.997786 -0.0665138
0.103307 0.0400324 0.380039 0 0 1
0.0331105 -0.121879 0.380039 0 0 1
0.0669185 0.136419 0.453733 0 -0.997786 -0.0665138
0.199991 -0.106857 0.515154 -0.863023 0.460133 -0.208493
-0.221175 0.0190851 0.576765 0 0 1
0.0829359 0.0345597 0.380039 0 0 1
-0.104132 -0.230962 0.402493 0 -0.269065 0.963122
0.00632899 0.172256 0.725585 0 -0.672675 0.739938
0.135632 -0.0957071 0.360451 0.447214 0 -0.894427
-0.00170632 -0.0588332 0.358188 0 0 -1
0.0960522 -0.219459 0.369634 0 0.194859 -0.980831
0.0189411 -0.0322066 0.380039 0 0 -1
0.185234 -0.100883 0.381578 0.336312 0 -0.941751
0.00535451 0.104691 0.415702 0 -0.224943 0.974372
-0.215605 0.0598556 0.00174468 -0.765968 0 -0.642879
-0.198523 -0.0355958 0.568025 0 0 -1
-0.0460707 -0.155941 0.369661 0 0.0871092 0.996199
-0.196657 -0.0457405 0.568774 1 0 0
-0.207641 -0.203238 0.137611 0.342055 0.907662 -0.243203
-0.142258 0.187842 0.710641 -0.35633 0.752231 0.554235
0.194521 0.0391999 0.406586 0.919145 0 0.393919
-0.220037 -0.0535435 0.553387 -0.863159 0.0822701 -0.498185
-0.0691367 0.0903563 0.372867 0 0.416313 -0.909221
0.102844 0.127563 0.429633 0 -0.792624 0.609711
-0.102641 0.115232 0.519768 0 -0.938667 -0.344826
-0.140928 -0.147319 0.351387 0 0.819131 -0.573607
-0.0687663 -0.152033 0.369319 0 0.0871092 0.996199
0.220427 0.00435916 0.555029 0.866095 0 -0.499879
0.196502 -0.138104 0.39276 0.928486 0 -0.371366
0.145813 -0.232377 0.370947 0.508957 -0.581413 -0.634761
0.155779 0.155702 0.530726 0.25631 0.909455 0.32741
0.142591 0.0651393 0.380039 0 0 1
0.151976 0.24142 0.0146433 0 -0.370358 0.928889
-0.0268027 0.13623 0.456561 0 -0.997786 -0.0665138
0.201115 -0.224734 0.0930392 0 -0.258775 -0.965938
0.156096 0.0694356 0.415 0 0 1
0.024683 -0.181538 0.377041 0 0.125579 -0.992084
0.0999827 -0.162585 0.352546 0 -0.906272 -0.422695
-0.196657 -0.0541851 0.574324 1 0 0
0.200595 0.0613976 0.0155756 -0.939738 0 0.341895
-0.199971 0.135441 0.547506 0 -0.382643 -0.923896
0.175675 0.15228 0.6775 0.314848 -0.783012 0.536436
-0.00956105 -0.116268 0.415 0 0 1
0.0495911 -0.0919048 0.380039 0 0 -1
0.13203 0.0790465 0.380039 0 0 1
0.0109378 0.195316 0.691592 0 0.939805 -0.341712
-0.0489126 0.119724 0.50754 0 -0.938667 -0.344826
-0.137344 0.106375 0.416091 0 -0.224943 0.974372
-0.111751 -0.226453 0.403753 0 -0.269065 0.963122
-0.102317 0.115372 0.419256 0 -0.56921 0.822192
0.0271337 0.198668 0.704086 0 1 0
0.220035 0.0916093 0.00948958 1 0 0
0.131648 -0.144754 0.380039 0 0 1
0.207426 -0.07809 0.571234 0 -0.277125 0.960834
0.202835 -0.0769104 0.558269 -0.637724 -0.36311 0.679307
-0.197249 -0.114485 0.400219 -0.919145 0 0.393919
-0.190653 0.117789 0.60305 -0.358271 -0.841425 0.404532
0.148648 0.161599 0.416637 0 0.811529 -0.584312
-0.0797455 -0.0311215 0.358188 0 0 -1
0.140173 -0.0206721 0.380039 0 0 1
-0.0983482 -0.156871 0.379359 0 0.0720109 -0.997404
-0.105411 -0.147962 0.350468 0 0.819131 -0.573607
-0.150077 -0.207666 0.408071 0 -0.203138 0.97915
-0.130476 0.0878732 0.380039 0 0 -1
-0.200839 0.171093 0.00527318 0.939738 0 -0.341896
-0.162127 -0.0351779 0.373699 -0.447214 0 -0.894427
0.0783972 0.14246 0.440073 0 -0.923863 0.382723
-0.177362 -0.0696181 0.380039 0 0 -1
0.202114 -0.0299512 0.0181953 -0.499961 0 0.866048
0.20712 -0.227799 0.124836 0 -0.965926 0.258817
-0.214285 -0.127243 0.527951 0 -0.856611 0.515962
0.0128079 0.100245 0.377395 0 0.416313 -0.909221
-0.0975613 0.0701066 0.380039 0 0 1
0.201302 -0.0300282 0.55123 -0.865979 0 -0.500081
-0.0955905 -0.0814405 0.380039 0 0 1
-0.00834179 -0.143845 0.358188 0 0 -1
0.0107962 -0.129862 0.380039 0 0 -1
-0.0639016 0.199459 0.717915 0 0.997785 -0.0665186
0.121559 -0.160439 0.350721 0 -0.422586 -0.906323
-0.208524 -0.217363 0.025278 0 -0.691521 -0.722356
-0.194657 -0.0224961 0.406267 -0.919145 0 0.393919
0.0721646 -0.123764 0.380039 0 0 1
-0.0831005 -0.198841 0.409858 0 -0.143934 0.989587
0.148628 -0.154245 0.414628 0 -0.0645863 0.997912
-0.0745984 0.0366012 0.415 0 0 1
-0.187376 -0.141197 0.382343 -0.336312 0 -0.941751
0.199883 -0.188107 0.245136 -0.98478 -0.167884 0.0449839
0.219738 -0.124182 0.459261 0.866078 0.482875 -0.129385
0.0785223 0.114954 0.418967 0 -0.56921 0.822192
-0.198799 0.148326 0.560749 0 0.923909 0.382611
0.0414016 0.118034 0.612714 0 -0.904818 0.425798
0.0433917 -0.172185 0.413467 0 -0.0645863 0.997912
-0.162029 0.160471 0.617122 -0.108112 0.990973 -0.0792762
-0.193618 0.0255534 0.385549 -0.928486 0 -0.371366
-0.134384 -0.123105 0.359827 -0.447214 0 -0.894427
0.196657 -0.0881268 0.5663 -1 0 0
0.0700699 0.16335 0.713506 0 -0.880471 0.474099
-0.158554 -0.00690737 0.380039 0 0 -1
0.00526725 -0.147123 0.415 0 0 1
-0.0385368 0.0997151 0.415 0 0 1
0.033343 -0.162536 0.366032 0 -0.57367 0.819087
-0.0457041 0.127922 0.485224 0 -0.938667 -0.344826
-0.176958 -0.0687654 0.380039 0 0 -1
0.085717 -0.067318 0.358188 0 0 -1
0.13061 -0.0275189 0.358188 0 0 -1
-0.197514 0.149825 0.438554 -0.920105 -0.378985 0.0988797
0.18907 0.107961 0.413037 0.396939 -0.236511 0.88685
0.0798147 0.17244 0.513334 0.0203737 0.98873 0.148314
-0.130979 0.0399175 0.380039 0 0 1
0.199369 -0.0099037 0.0122057 -0.939738 0 0.341895
0.0723016 -0.142034 0.380039 0 0 -1
-0.177045 0.16328 0.683212 -0.807396 -0.194926 0.55688
0.216897 -0.123939 0.533436 0 -0.856611 0.515962
0.0319437 0.0203243 0.380039 0 0 1
0.154606 0.187403 0.698013 0.661577 0.631562 0.404285
0.021384 -0.0833557 0.380039 0 0 1
0.00729452 -0.0807434 0.415 0 0 1
-0.203797 -0.135543 0.395662 0.341924 0.907707 -0.243218
0.0297765 0.143833 0.667754 0 -0.907016 0.421097
0.169979 -0.219626 0.395675 0.734212 -0.603837 0.310344
0.156975 -0.134904 0.380039 0 0 1
0.15345 0.102525 0.567874 0 -1 0
0.0286092 0.0969968 0.415 0 0 1
0.0283345 -0.0464468 0.380039 0 0 -1
-0.163626 0.154445 0.598446 -0.248036 0.880097 -0.404856
0.218271 0.128648 0.551293 0.866095 0 -0.499879
-0.0568134 0.115943 0.419652 0 -0.56921 0.822192
0.0585483 -0.0511749 0.358188 0 0 -1
0.181785 0.0782698 0.380346 0.336312 0 -0.941751
-0.202887 -0.194377 0.239374 0.642785 -0.739944 0.198266
-0.229976 -0.00686168 0.576765 0 0 1
-0.0693714 0.120309 0.422284 0 -0.300689 0.953722
-0.202384 -0.141623 0.482712 0 -0.965954 0.258714
-0.184075 -0.120647 0.41365 -0.393891 0 0.919157
-0.112519 0.0989678 0.415 0 0 1
-0.199419 0.122521 0.554489 0.865979 0 -0.500081
0.0572551 -0.120684 0.380039 0 0 1
-0.0671361 -0.222146 0.3691 0 0.194859 -0.980831
-0.183802 0.0146233 0.413767 -0.393891 0 0.919157
-0.0955551 -0.16246 0.414096 0 -0.0645863 0.997912
-0.0102458 -0.122127 0.380039 0 0 1
-0.227291 0.0781842 0.576765 0 0 1
0.151052 0.0788161 0.380039 0 0 1
0.047752 -0.0403462 0.380039 0 0 1
0.164802 0.0721898 0.380039 0 0 -1
-0.203789 0.238782 0.00235627 0.499952 0 -0.866053
0.201729 -0.0809888 0.0179731 -0.499961 0 0.866048
0.0886721 -0.0915657 0.380039 0 0 -1
-0.202649 0.0431187 0.568025 0 0 -1
0.0957173 0.0690503 0.380039 0 0 1
-0.178238 -0.183484 0.378692 -0.392817 -0.00422472 -0.919607
0.214535 -0.072557 0.563777 0 0.277093 -0.960843
0.147357 0.0717843 0.415 0 0 1
0.156508 -0.00317453 0.370889 0.447214 0 -0.894427
0.211324 -0.0293433 0.0209101 0.173653 0 0.984807
-0.0639836 0.241023 0.014485 0 -0.370358 0.928889
-0.214626 -0.230255 0.112034 -0.64272 -0.739998 0.19828
-0.126847 0.0802294 0.415 0 0 1
-0.0171333 0.198072 0.721124 0 0.799991 0.600012
0.0376386 0.05196 0.415 0 0 1
-0.205071 0.130305 0.00161624 0.499952 0 -0.866053
0.0683895 -0.0142752 0.380039 0 0 -1
0.161772 0.0369143 0.380039 0 0 -1
0.12977 -0.0343043 0.380039 0 0 -1
-0.172254 0.148191 0.590136 -0.248036 0.880097 -0.404856
0.0870704 0.103708 0.380039 0 0 -1
-0.119098 -0.14643 0.380039 0 0 -1
-0.219605 -0.212576 0.128484 -0.866083 0.482866 -0.129383
-0.0988284 0.109111 0.380781 0 0.233362 -0.97239
0.211777 0.135715 0.566806 0 -0.382852 0.92381
-0.103592 0.173824 0.492023 -0.0895489 0.984963 0.147749
-0.217442 -0.118806 0.463959 -0.866078 0.482875 -0.129385
0.0338449 -0.0832213 0.358188 0 0 -1
-0.147399 -0.0574738 0.366335 -0.447214 0 -0.894427
-0.141261 0.168918 0.501896 -0.0895489 0.984963 0.147749
0.216019 -0.166001 0.34732 0.642703 -0.740011 0.198284
-0.147972 -0.192542 0.37563 0 0.227501 -0.973778
-0.0109847 -0.247596 0.398331 0 -0.230255 0.97313
-0.229378 0.133629 0.546509 0 -0.382744 -0.923854
0.109203 0.18432 0.666385 0.0523686 0.921718 -0.38431
0.0678732 0.15489 0.40732 0 0.811529 -0.584312
-0.230745 0.140953 0.556014 -1 0 0
-0.118933 -0.111811 0.358188 0 0 -1
-0.0345704 -0.182373 0.376935 0 0.125579 -0.992084
-0.227113 0.0102159 0.568025 0 0 -1
0.158757 0.146103 0.451394 0 -0.999048 -0.0436145
-0.219056 0.127139 0.557161 0 -0.923827 0.382811
-0.0839708 0.120797 0.422438 0 -0.300689 0.953722
0.207965 0.102688 0.54683 -0.341927 0 -0.939726
0.201045 -0.0471543 0.568025 0 0 -1
0.180632 0.126264 0.630204 0 -0.904818 0.425798
0.184274 0.166165 0.430514 0.411027 0.880842 -0.234891
0.0298209 0.108576 0.537886 0 -0.938667 -0.344826
-0.178365 0.101047 0.415 0 0 1
0.140041 -0.0865559 0.362656 0.447214 0 -0.894427
-0.207237 -0.139604 0.37567 0.341924 0.907707 -0.243218
-0.209768 -0.150062 0.351029 -1 0 0
-0.0821665 0.0496987 0.358188 0 0 -1
0.231619 -0.0958106 0.557618 1 0 0
0.0421407 0.167729 0.591518 0.0205359 0.996603 -0.0797494
-0.0610716 0.169749 0.723306 0 -0.672675 0.739938
0.0613319 0.189085 0.674961 0 0.936335 -0.351108
-0.0211689 -0.240339 0.366311 0 0.264154 -0.964481
-0.131624 -0.0404995 0.380039 0 0 -1
0.129933 0.0978009 0.415 0 0 1
-0.200217 -0.189064 0.0118113 0.984426 -0.0777524 -0.157668
0.140842 0.0830515 0.369522 0 0.416313 -0.909221
0.0560884 0.25318 0.0159777 0 0.113387 0.993551
0.177101 0.127783 0.429919 0 -0.792624 0.609711
0.175426 0.248474 0.0165147 0 0.113387 0.993551
-0.199539 -0.115229 0.505272 -0.000202997 0.258997 0.965878
-0.0531793 -0.12919 0.358188 0 0 -1
0.165481 -0.000106379 0.380039 0 0 1
0.0352012 0.0310044 0.415 0 0 1
0.00592934 -0.0530273 0.415 0 0 1
-0.0474977 0.107121 0.589526 0 -0.904818 0.425798
0.0422354 0.0115729 0.380039 0 0 1
0.0818174 0.133727 0.429095 0 -0.675593 0.737275
0.0808351 0.0844986 0.370185 0 0.416313 -0.909221
-0.180596 0.102525 0.572881 0 -1 0
-0.0575497 0.0626832 0.360196 0 0.416313 -0.909221
0.0609777 -0.17222 0.380039 0 0 1
0.176636 -0.0164328 0.415 0 0 1
0.17462 0.143513 0.549834 0.25631 0.909455 0.32741
-0.0478015 -0.0732947 0.358188 0 0 -1
0.169543 -0.220823 0.383223 0.726643 -0.426418 -0.538663
0.0722115 0.134713 0.648221 0 -0.905452 0.424448
0.000994712 -0.118196 0.415 0 0 1
-0.0562458 0.107379 0.541144 0 -0.938667 -0.344826
0.201989 0.0894792 0.550039 -0.865979 0 -0.500081
0.126449 -0.181837 0.377003 0 0.125579 -0.992084
-0.218256 -0.133379 0.47966 0 0.965731 -0.259545
-0.114417 -0.13067 0.380039 0 0 -1
0.176341 0.132332 0.435833 0 -0.792624 0.609711
-0.198034 -0.0762645 0.562708 0 0.277093 -0.960843
-0.066319 -0.246995 0.398473 0 -0.230255 0.97313
-0.0604782 0.0121981 0.415 0 0 1
0.00592291 0.24696 0.00483125 0 0.11339 -0.993551
-0.0492189 0.0492706 0.380039 0 0 1
-0.163424 0.0653172 0.415 0 0 1
-0.220522 -0.171295 0.288685 -0.866083 0.482866 -0.129383
0.0644277 -0.163584 0.354688 0 -0.906272 -0.422695
-0.0158745 -0.249188 0.363888 0 0.264154 -0.964481
-0.104772 -0.209307 0.40773 0 -0.203138 0.97915
0.0797652 0.114841 0.520833 0 -0.938667 -0.344826
0.0625409 -0.00846444 0.380039 0 0 1
-0.0969432 -0.0213732 0.415 0 0 1
0.0998092 0.121629 0.502354 0 -0.938667 -0.344826
-0.030162 -0.0332296 0.380039 0 0 1
0.0844988 -0.0199515 0.358188 0 0 -1
0.220035 -0.0977466 0.0138128 1 0 0
-0.217659 -0.180374 0.00675917 -0.638303 -0.117104 -0.760826
0.211835 -0.0992911 0.516138 0.337885 0.857292 -0.388438
0.231619 -0.135835 0.487928 1 0 0
0.0577525 0.0839073 0.380039 0 0 -1
-0.036254 -0.142179 0.358188 0 0 -1
0.13807 -0.142435 0.380039 0 0 -1
0.0605072 0.146461 0.673415 0 -0.907016 0.421097
0.196657 0.0946407 0.571748 -1 0 0
0.123606 -0.170012 0.413608 0 -0.0645863 0.997912
-0.102517 -0.175804 0.374245 0 -0.679409 -0.733759
0.176092 0.238337 0.0107748 0 -1 0
0.207742 -0.151974 0.40782 0 -0.965926 0.258817
0.0194337 -0.0694993 0.415 0 0 1
-0.0282851 0.162128 0.711237 0 -0.880471 0.474099
-0.210239 -0.142808 0.442031 0 -0.965926 0.258817
0.050503 0.181421 0.730294 0 0.0623815 0.998052
0.129584 0.245511 0.0162744 0 -0.370358 0.928889
0.2036 -0.0916414 0.0190534 -0.499961 0 0.866048
-0.228814 0.137417 0.567512 0 -0.382852 0.92381
-0.0938741 0.136126 0.458125 0 -0.997786 -0.0665138
-0.122092 -0.0477093 0.380039 0 0 -1
-0.0130918 0.116172 0.517209 0 -0.938667 -0.344826
0.0718548 -0.0374871 0.380039 0 0 1
-0.147984 -0.070704 0.415 0 0 1
-0.150656 -0.164457 0.378811 0 0.0720109 -0.997404
-0.116767 0.173484 0.452213 0 0.96799 -0.250991
-0.089795 0.238337 0.0109135 0 -1 0
0.125239 0.0513821 0.415 0 0 1
0.2046 -0.116546 0.524048 -0.637685 -0.701634 0.317911
-0.0178412 0.14222 0.439492 0 -0.923863 0.382723
0.217913 0.115412 0.00449362 0.766034 0 -0.6428
0.124128 0.057022 0.380039 0 0 1
-0.225545 -0.0320718 0.576765 0 0 1
-0.198887 0.01043 0.576765 0 0 1
-0.194577 0.14108 0.474574 -0.924244 -0.358815 -0.130478
0.123639 0.12132 0.503195 0 -0.938667 -0.344826
-0.113776 0.13227 0.388274 0 0.562319 -0.82692
0.210894 0.0398817 0.546584 0.341884 0 -0.939742
0.0322878 0.06233 0.380039 0 0 -1
-0.00995337 0.171418 0.620639 -0.0196181 0.951519 -0.306965
-0.150637 -0.0445709 0.380039 0 0 -1
0.0385567 -0.103156 0.380039 0 0 1
0.0637588 0.13643 0.453559 0 -0.997786 -0.0665138
0.147148 0.251831 0.0161316 0 0.113387 0.993551
-0.0797625 -0.250888 0.363453 0 -0.45499 -0.890496
-0.0116992 0.173048 0.514249 0 0.991654 0.128932
-0.173035 -0.014486 0.379153 -0.447214 0 -0.894427
-0.200145 -0.207491 0.178522 0.98478 -0.167884 0.0449839
0.160507 0.108515 0.380638 0 0.233362 -0.97239
-0.211579 -0.137722 0.381681 -0.341882 0.907723 -0.243219
-0.00724562 0.128384 0.385632 0 0.562319 -0.82692
0.0166559 -0.0868365 0.380039 0 0 -1
0.0940776 0.194637 0.691297 0.0577513 0.938236 -0.341142
-0.153252 0.104507 0.548961 0 -0.938667 -0.344826
0.231619 -0.0427569 0.568552 1 0 0
0.110231 -0.162199 0.351718 0 -0.906272 -0.422695
0.132835 -0.0707829 0.380039 0 0 -1
-0.220495 -0.0322466 0.555381 -0.984825 0 0.173549
-0.0864527 0.120197 0.617312 0 -0.904818 0.425798
-0.199296 0.0830193 0.556834 0.98478 0 0.173808
0.212035 -0.0309733 0.000734225 0.173645 0 -0.984808
0.219884 -0.222821 0.110527 0.984824 -0.167642 0.0449191
-0.210992 0.120969 0.0209685 -0.173675 0 0.984803
-0.0775644 0.245475 0.0162601 0 -0.370358 0.928889
-0.105568 -0.0251013 0.358188 0 0 -1
-0.00607194 0.165747 0.423089 0 0.966235 -0.257662
0.155279 0.0500797 0.380039 0 0 -1
-0.209701 -0.0222463 0.567365 0 0 1
-0.0569133 -0.146115 0.415 0 0 1
-0.0107848 -0.018771 0.358188 0 0 -1
0.0283792 0.198668 0.705386 0 1 0
-0.0679441 -0.117901 0.380039 0 0 -1
0.0914264 -0.094451 0.358188 0 0 -1
-0.0267047 0.0406871 0.358188 0 0 -1
0.12783 0.175647 0.64712 0.0628163 0.933156 -0.353942
-0.126842 -0.129084 0.358188 0 0 -1
0.199107 -0.194623 0.200992 -0.865961 0.48307 -0.129438
0.156735 0.121886 0.6209 0 -0.904818 0.425798
-0.103148 0.121195 0.503536 0 -0.938667 -0.344826
-0.213668 -0.143997 0.473846 0 -0.965954 0.258714
0.0675641 -0.136458 0.415 0 0 1
0.0619925 0.177256 0.466759 0 0.96799 -0.250991
-0.166695 0.10408 0.55095 0 -0.989961 -0.141342
0.0345309 -0.148179 0.380039 0 0 1
0.0882322 -0.0534944 0.415 0 0 1
-0.0248161 0.172426 0.624715 -0.0196181 0.951519 -0.306965
0.0621366 -0.0625378 0.380039 0 0 -1
-0.218224 -0.142244 0.381723 -0.866078 0.482875 -0.129385
0.164697 -0.186691 0.411625 0 -0.143934 0.989587
0.225671 0.0529933 0.568025 0 0 -1
0.0690337 0.159375 0.706125 0 -0.880471 0.474099
0.136023 0.0593156 0.380039 0 0 -1
0.00140746 -0.121631 0.380039 0 0 1
0.229603 0.133417 0.565854 0 -0.382852 0.92381
-0.215368 0.0351399 0.0200568 -0.765968 0 0.642878
0.0426095 -0.137689 0.358188 0 0 -1
0.0524998 -0.0420889 0.380039 0 0 -1
0.122354 -0.0638491 0.380039 0 0 -1
-0.22026 -0.0800604 0.547672 -0.984418 -0.0828865 0.155083
0.197985 0.130327 0.533987 0.910867 0.387853 0.141037
-0.0250106 -0.103588 0.380039 0 0 -1
-0.13308 -0.124475 0.380039 0 0 1
-0.179819 -0.0212065 0.380039 0 0 -1
-0.0983227 0.12162 0.423582 0 -0.56921 0.822192
-0.0810847 -0.0592723 0.358188 0 0 -1
0.0177037 0.100792 0.377645 0 0.416313 -0.909221
0.0313989 0.169417 0.60984 0.0205477 0.996605 -0.0797267
0.09192 0.109773 0.59516 0 -0.904818 0.425798
-0.129254 0.175733 0.460886 0 0.96799 -0.250991
0.179781 0.118116 0.612888 0 -0.904818 0.425798
0.212354 -0.0640175 0.544419 0.338028 0.153351 -0.928558
0.141511 -0.228193 0.403266 0 -0.269065 0.963122
0.198094 0.12786 0.590688 0.917396 0.361349 -0.166766
0.195712 -0.144066 0.356032 0 0.819131 -0.573607
-0.0333665 0.168751 0.544305 -0.0203737 0.98873 0.148314
-0.21245 0.0602375 0.568025 0 0 -1
-0.127078 -0.187893 0.376236 0 0.125579 -0.992084
-0.0403766 0.0469259 0.415 0 0 1
0.0265152 0.0501977 0.358188 0 0 -1
-0.197783 -0.0987369 0.398973 -0.919145 0 0.393919
-0.0384509 0.121605 0.423571 0 -0.56921 0.822192
-0.00168164 -0.136556 0.380039 0 0 1
-0.196752 -0.12035 0.393383 -0.928486 0 -0.371366
-0.0135268 0.238337 0.0128342 0 -1 0
0.101073 -0.0810333 0.415 0 0 1
0.196657 -0.106641 0.548865 -1 0 0
-0.029272 -0.0546984 0.380039 0 0 1
-0.150255 -0.0665666 0.367763 -0.447214 0 -0.894427
-0.0132031 -0.180903 0.378966 0 -0.679409 -0.733759
0.0466067 0.169645 0.536528 0.0203737 0.98873 0.148314
-0.159382 0.140287 0.660115 0 -0.907016 0.421097
-0.00317509 -0.118305 0.415 0 0 1
-0.116304 -0.0816281 0.415 0 0 1
0.019876 -0.144907 0.364275 0 0.707106 0.707108
-0.0209164 0.133548 0.438585 0 -0.97013 0.242585
-0.013629 0.123514 0.497221 0 -0.938667 -0.344826
-0.10518 0.00747709 0.380039 0 0 -1
0.121202 0.135943 0.460865 0 -0.997786 -0.0665138
0.146187 -0.061427 0.415 0 0 1
0.085587 0.103066 0.576105 0 -0.966254 0.257593
-0.203523 -0.096665 0.551042 0 0.609137 -0.793065
0.0946974 -0.0315025 0.358188 0 0 -1
0.129869 -0.21418 0.370683 0 0.194859 -0.980831
0.207317 -0.208797 0.195753 0 -0.965926 0.258817
-0.159887 0.0580982 0.415 0 0 1
-0.0706293 -0.149687 0.380039 0 0 1
-0.220491 -0.0289183 0.555407 -0.984825 0 0.173549
0.0888422 0.0645974 0.380039 0 0 -1
-0.127366 -0.203348 0.408966 0 -0.203138 0.97915
0.0619929 0.132346 0.643172 0 -0.905452 0.424448
-0.0177578 -0.265333 0.377193 0 -0.950041 -0.312126
-0.173978 0.0467038 0.380039 0 0 1
0.0658234 0.176068 0.729051 0 -0.672675 0.739938
-0.0975977 -0.25187 0.366262 -0.149918 -0.441151 -0.884822
-0.176638 0.124859 0.627218 0 -0.904818 0.425798
0.0419001 0.116365 0.382522 0 0.233362 -0.97239
-0.151735 -0.166634 0.378654 0 0.0720109 -0.997404
-0.201608 -0.214176 0.111289 0.865967 0.483061 -0.129435
-0.0197833 0.147267 0.675149 0 -0.907016 0.421097
0.21046 -0.199256 0.150454 0.341882 0.907723 -0.243219
-0.0663475 0.0262919 0.415 0 0 1
0.104505 -0.13221 0.358188 0 0 -1
0.216021 0.0932415 0.548449 0.341884 0 -0.939742
0.0852617 0.171522 0.518479 0.0895489 0.984963 0.147749
0.207786 -0.0328397 0.576765 0 0 1
-0.19949 -0.204808 0.0261637 0.984426 -0.121566 -0.126993
0.11662 -0.180714 0.378792 0 -0.679409 -0.733759
0.21866 -0.127516 0.527498 0 -0.856611 0.515962
-0.0130327 -0.202582 0.409125 0 -0.203138 0.97915
0.0962428 -0.145008 0.358188 0 0 -1
-0.110416 0.13135 0.426918 0 -0.675593 0.737275
-0.217043 -0.186347 0.209216 -0.866078 0.482875 -0.129385
-0.0194297 0.102941 0.415298 0 -0.224943 0.974372
-0.203751 0.144427 0.566508 0 0.382718 0.923865
-0.174257 0.120235 0.617393 0 -0.904818 0.425798
-0.0961884 0.14546 0.397244 0 0.562319 -0.82692
-0.205155 0.16041 0.00156812 0.499952 0 -0.866053
-0.209088 -0.0906914 0.526776 0.338079 0.686848 -0.643383
-0.12791 -0.163096 0.365639 0 -0.57367 0.819087
0.200417 -0.0195441 0.0150863 -0.939738 0 0.341895
0.144962 -0.0617783 0.365117 0.447214 0 -0.894427
0.0618204 0.199192 0.713917 0 0.997785 -0.0665186
0.0396599 0.0134352 0.358188 0 0 -1
0.199483 -0.048908 0.00899986 -0.939738 0 -0.341896
0.0056447 0.140411 0.660382 0 -0.907016 0.421097
0.126315 0.155539 0.577965 0.248036 0.880097 -0.404856
-0.0726268 -0.192551 0.410773 0 -0.143934 0.989587
0.0505373 0.0346626 0.358188 0 0 -1
-0.2011 -0.0664987 0.548474 0.862993 0.0823165 -0.498466
0.10252 -0.145794 0.358188 0 0 -1
0.118126 0.0144638 0.380039 0 0 -1
0.0415417 -0.108746 0.358188 0 0 -1
-0.176678 -0.0174498 0.380039 0 0 -1
-0.044205 0.167529 0.589543 -0.0205359 0.996603 -0.0797494
-0.0107695 -0.118506 0.380039 0 0 -1
0.0876013 0.171448 0.62647 0.103273 0.946613 -0.305382
0.026089 -0.180877 0.412471 0 -0.143934 0.989587
-0.193968 -0.00764075 0.386423 -0.928486 0 -0.371366
0.175956 0.042833 0.415 0 0 1
-0.0211728 0.173401 0.511541 0 0.991654 0.128932
0.165869 0.170432 0.641045 0.0607897 0.90305 -0.425211
-0.103765 0.0435016 0.380039 0 0 -1
-0.0414891 0.130113 0.432948 0 -0.792624 0.609711
0.0968374 -0.20873 0.371848 0 0.227501 -0.973778
0.132227 0.146376 0.456991 0 -0.95371 0.300726
-0.197073 0.146136 0.62467 -0.917396 0.361349 -0.166766
-0.0597825 0.135438 0.446139 0 -0.97013 0.242585
0.05009 0.18041 0.650836 0.0297883 0.963558 -0.265836
-0.0853674 0.115327 0.420713 0 -0.300689 0.953722
0.167111 0.255933 0.0156636 0 0.113387 0.993551
-0.177387 0.144767 0.66553 -0.314848 -0.783012 0.536436
-0.220035 0.182318 0.0109878 -1 0 0
0.0428004 -0.177243 0.375578 0 -0.679409 -0.733759
0.102277 -0.231058 0.367409 0 0.183829 -0.982958
0.00486255 0.185032 0.662519 0.0297883 0.963558 -0.265836
-0.0899965 0.177395 0.476458 -0.0895489 0.984963 0.147749
0.157093 0.238337 0.00890056 0 -1 0
0.0544354 0.110765 0.531926 0 -0.938667 -0.344826
0.00669631 -0.000448272 0.358188 0 0 -1
0.0149576 0.174543 0.727664 0 -0.672675 0.739938
-0.217115 -0.15905 0.311579 -0.866078 0.482875 -0.129385
-0.200078 -0.218151 0.0348413 0.984427 -0.154124 -0.0845521
0.152696 0.169342 0.492141 0.0895489 0.984963 0.147749
