-0.126339 0.171483 0.661193 0 -0.948682 0.316232
0.191796 -0.17105 0.412127 0 -0.0573738 -0.998353
0.176244 -0.18816 0.429583 0 0.0631182 0.998006
0.245748 -0.187071 0.0083473 0.965929 2.20079e-05 0.258809
0.19132 -0.180547 0.428072 -0.155757 0.0623481 0.985826
-0.0568482 0.141413 0.550503 0 -0.985627 0.168937
-0.2141 -0.239743 0.415173 -0.99398 -0.0721884 0.0824205
-0.189655 0.150151 0.537096 0.172148 0.963787 -0.203667
-0.0520917 0.160969 0.392246 0.0622384 -0.947564 -0.313448
0.142972 0.135778 0.517623 0 -0.985627 0.168937
-0.185965 0.027631 0.413787 0.0996754 0.0917333 0.990782
0.188791 0.128849 0.408911 -0.23684 -0.953702 0.185361
0.225414 0.127541 0.444162 0.717203 -0.685286 0.126499
0.12052 0.11256 0.405751 0 0.0879614 0.996124
-0.103932 0.149376 0.585169 0 -0.969332 0.245756
0.226741 0.212008 0.164705 -0.993487 0.113618 -0.00861082
-0.129275 0.155505 0.609343 0 -0.969332 0.245756
0.21061 -0.0269236 0.401181 -0.14067 -0.0912756 -0.98584
-0.0254457 0.181579 0.69014 0 -0.808461 0.588549
0.243944 -0.0489958 0.0103923 0.70904 1.61712e-05 0.705168
-0.0206238 -0.251924 0.411514 0 -0.813892 0.581016
-0.0872101 0.0827168 0.408437 0 0.0921924 0.995741
-0.190002 -0.0139703 0.416737 0.099031 -0.0917534 -0.990845
0.0632233 0.0386258 0.412519 0 0.0921924 0.995741
0.0871573 0.0275162 0.413548 0 0.0921924 0.995741
-0.177658 -0.15705 0.427616 0 0.0631182 0.998006
-0.0967472 -0.0141398 0.417405 0 0.0921924 0.995741
-0.0965366 -0.250472 0.409039 0 0.165066 0.986283
-0.162407 0.0775573 0.408915 0 0.0921924 0.995741
0.202029 0.154037 0.606019 -0.717938 -0.685147 0.123035
-0.18676 -0.176895 0.42712 0.155853 0.0623471 0.985811
0.212895 0.131614 0.389388 0.000545765 -0.164182 -0.98643
-0.0079103 0.147655 0.578382 0 -0.969332 0.245756
0.0785453 -0.157139 0.427622 0 0.0631182 0.998006
-0.0455628 -0.184291 0.429339 0 0.0631182 0.998006
-0.170119 -0.256069 0.389185 0 -0.966106 -0.258145
0.214117 0.0144423 0.404698 0.995037 0.0091735 0.0990802
0.225233 -0.255695 0.267683 0.999594 -0.0107037 0.0264202
-0.227988 0.134782 0.45377 -0.945805 -0.315384 0.0773707
-0.08999 0.00345985 0.415775 0 0.0921924 0.995741
-0.238995 -0.149165 0.000436925 0.257885 1.2272e-05 -0.966175
-0.030698 -0.115839 0.42501 0 0.0631182 0.998006
-0.0993832 0.222955 0.705367 0.148985 -0.884396 -0.44232
-0.208785 -0.171431 0.410765 0.140914 -0.0568013 -0.988391
-0.244354 0.0861896 0.00159745 -0.707043 -1.75627e-05 -0.70717
0.213451 -0.00408519 0.412307 0.999981 0.00612925 0
0.0475692 0.166942 0.647571 0 -0.948682 0.316232
-0.020914 -0.0631668 0.421678 0 0.0631182 0.998006
-0.240765 0.134403 3.42832e-05 -0.257886 -5.86523e-06 -0.966175
-0.195303 0.0318551 0.397383 0 -0.0921925 -0.995741
0.148748 0.105391 0.406384 0 0.0879614 0.996124
-0.160416 -0.145938 0.426913 0 0.0631182 0.998006
-0.112956 -0.259621 0.388369 0 -1 0
-0.213337 -0.21388 0.42602 -0.948203 0.0145927 0.317329
0.22322 0.178961 0.263738 -0.899444 0.420565 0.118852
0.0182805 0.24715 0.711738 0.0651847 0.946252 0.316793
-0.184706 -0.250854 0.411319 0.682978 -0.517014 0.515982
-0.170874 0.226367 0.705799 0.0102714 0.277282 -0.960734
-0.0775798 0.116182 0.405431 0 0.0879614 0.996124
0.203297 -0.196495 0.412989 -0.141032 -0.0568004 -0.988374
0.0306803 -0.244242 0.38548 0 -0.980638 -0.195827
0.0523736 0.148969 0.583563 0 -0.969332 0.245756
0.119486 -0.254785 0.405766 0 -0.707813 0.7064
0.200935 -0.0397268 0.403747 -0.14067 -0.0912756 -0.98584
0.0457733 -0.247678 0.417455 0 -0.664662 0.747144
0.125535 0.00303127 0.415815 0 0.0921924 0.995741
0.214317 -0.069512 0.409979 0.995028 0.00571392 0.099427
0.072144 0.00333938 0.415786 0 0.0921924 0.995741
0.0532278 0.097743 0.40706 0 0.0879614 0.996124
-0.241499 0.230551 0.000229682 -0.257886 -5.86366e-06 -0.966175
-0.233456 0.222497 0.156706 0.0775713 0.929136 0.361509
0.0552239 -0.259621 0.389014 0 -1 0
0.177981 -0.0174386 0.41771 0 0.0921924 0.995741
0.0859692 0.139532 0.539525 0 -0.985627 0.168937
0.0770017 0.171413 0.660983 0 -0.948682 0.316232
0.0675029 -0.0970591 0.423822 0 0.0631182 0.998006
0.0242802 0.138692 0.534628 0 -0.985627 0.168937
-0.191573 0.090258 0.40693 0.0991459 -0.0917382 -0.990835
0.212955 -0.138297 0.422707 0 0.063118 0.998006
0.156231 0.079995 0.408689 0 0.0921924 0.995741
0.188704 0.140759 0.54292 0.141334 -0.97471 0.173103
0.210331 0.0811804 0.391212 -0.140668 -0.0912758 -0.98584
0.12772 0.195908 0.705344 0 -0.624842 0.780751
0.139595 0.224047 0.70309 0.0899188 0.687559 -0.72054
-0.244696 -0.197938 0.00194691 -0.707213 -1.60802e-05 -0.707001
0.187751 0.0697758 0.408018 -0.140939 0.091272 0.985802
-0.0139789 -0.221548 0.430285 0 -0.116741 0.993162
-0.181894 -0.201559 0.430431 0 0.0631182 0.998006
0.115875 0.0576593 0.410757 0 0.0921924 0.995741
-0.135117 -0.0899943 0.423375 0 0.0631182 0.998006
0.0550335 -0.257041 0.403274 0 -0.919011 0.394231
-0.0428811 0.0512345 0.411352 0 0.0921924 0.995741
0.0393277 -0.171856 0.428552 0 0.0631182 0.998006
0.215101 0.165631 0.63397 0.971945 -0.19282 0.134694
-0.0624988 -0.00558468 0.416613 0 0.0921924 0.995741
-0.228672 -0.259046 0.121787 -0.836701 0.54766 0.000334987
-0.143814 -0.184952 0.429381 0 0.0631182 0.998006
-0.0309531 0.013998 0.4148 0 0.0921924 0.995741
0.124155 0.152169 0.596184 0 -0.969332 0.245756
0.211399 0.103616 0.402627 0 0.104607 0.994514
0.0447184 0.000143271 0.416082 0 0.0921924 0.995741
-0.149235 0.124895 0.404662 0 0.0879614 0.996124
-0.0285695 0.124483 0.404698 0 0.0879614 0.996124
-0.141948 -0.247129 0.385611 0 0.708946 -0.705263
-0.00430866 0.165768 0.389695 0.0160227 -0.243942 -0.969657
-0.205673 0.141989 0.482753 0.847583 0.517427 -0.117782
0.212021 -0.253728 0.356503 -0.871717 -0.489997 -0.0035109
-0.0507548 -0.161106 0.427873 0 0.0631182 0.998006
0.087829 -0.0879222 0.423244 0 0.0631182 0.998006
-0.119846 0.0752496 0.409128 0 0.0921924 0.995741
-0.119394 -0.0400567 0.419804 0 0.0921924 0.995741
0.0191696 -0.215049 0.431049 0 -0.116741 0.993162
-0.0646157 0.0640687 0.410164 0 0.0921924 0.995741
0.0981588 -0.162564 0.427965 0 0.0631182 0.998006
-0.192027 -0.0958974 0.424606 0.0996642 0.0628018 0.993037
-0.199643 0.153105 0.541872 0.253145 0.950351 -0.180973
-0.140349 0.153133 0.599985 0 -0.969332 0.245756
0.0126849 -0.0963008 0.423774 0 0.0631182 0.998006
-0.155685 -0.033955 0.419239 0 0.0921924 0.995741
-0.119568 -0.0116819 0.417177 0 0.0921924 0.995741
0.0742312 -0.24962 0.414742 0 -0.813892 0.581016
0.200045 -0.197025 0.430492 -0.155757 0.0623481 0.985826
0.0441183 0.16168 0.631785 0 -0.948682 0.316232
-0.00836498 0.171954 0.662606 0 -0.948682 0.316232
0.0660217 0.180207 0.687364 0 -0.948682 0.316232
-0.246346 -0.123888 0.00608315 -0.966846 0 0.255362
-0.028894 -0.21066 0.431007 0 0.0631182 0.998006
-0.205535 0.161919 0.637637 0.206331 -0.930038 0.304066
-0.198431 -0.109158 0.40857 0 -0.0573738 -0.998353
-0.189812 -0.0539835 0.420461 0.099031 -0.0917534 -0.990845
0.184145 0.196991 0.706782 3.05658e-05 0.781269 0.624195
-0.0590041 0.138492 0.533459 0 -0.985627 0.168937
-0.0674874 -0.0749098 0.422421 0 0.0631182 0.998006
-0.188777 -0.139188 0.427017 0.0996454 0.0628041 0.993039
0.190313 -0.238519 0.407355 0 1 0
-0.157344 0.173845 0.668279 0 -0.948682 0.316232
-0.182599 -0.240988 0.386687 0 0.599478 -0.800391
-0.20479 -0.103589 0.425136 0.141239 0.0641104 0.987897
0.13374 -0.0916281 0.423478 0 0.0631182 0.998006
-0.141872 0.134712 0.511405 0 -0.985627 0.168937
0.200108 0.149232 0.556547 -0.333717 0.924207 -0.18567
0.155246 0.162801 0.635148 0 -0.948682 0.316232
0.0635469 0.158798 0.622331 0 -0.969332 0.245756
0.0427513 -0.0959007 0.423749 0 0.0631182 0.998006
0.146301 0.0299968 0.413318 0 0.0921924 0.995741
-0.197843 0.149838 0.527236 0.253145 0.950351 -0.180973
-0.0445953 -0.255938 0.388695 0 -0.966106 -0.258145
0.176573 -0.25568 0.390982 0 0.913644 -0.406516
-0.0592792 0.160941 0.405635 0.183256 -0.966183 0.181403
0.177863 -0.0424198 0.420023 0 0.0921924 0.995741
-0.205738 -0.129774 0.426068 -0.559802 0.0458591 0.827357
0.190331 -0.240916 0.423281 -0.113936 -0.620772 0.775668
-0.212034 0.0440162 0.408271 0 0.0921925 0.995741
0.140845 0.145393 0.569457 0 -0.969332 0.245756
0.240067 0.0966031 0.000154149 -0.257887 1.2263e-05 -0.966175
0.197604 -0.00418993 0.417903 -0.0997902 0.091718 0.990772
0.184692 -0.245605 0.387143 0 0.708946 -0.705263
-0.0964951 -0.259621 0.390643 0 -1 0
0.0987917 0.138314 0.532423 0 -0.985627 0.168937
0.24624 -0.155413 0.00509621 0.965181 -2.39747e-05 -0.261583
-0.231259 0.239753 0.108488 0.412925 0.855308 0.312956
0.188903 -0.0751565 0.422979 -0.0996641 0.0628018 0.993037
-0.194729 -0.238489 0.42645 0.0995712 -0.41159 0.905913
0.159454 0.0632922 0.410236 0 0.0921924 0.995741
-0.123565 0.181528 0.69007 0 -0.808461 0.588549
-0.0827278 -0.0287165 0.418754 0 0.0921924 0.995741
-0.136976 0.0595198 0.410585 0 0.0921924 0.995741
-0.00774878 -0.239358 0.39313 0 0.98643 -0.164182
-0.188116 0.0539379 0.411567 0.0996754 0.0917333 0.990782
0.220744 -0.256018 0.129395 -0.541046 0.839639 -0.0477071
0.207603 -0.0344001 0.418072 0.712018 0.0647339 0.69917
0.20845 -0.0125284 0.400156 -0.14067 -0.0912756 -0.98584
-0.187967 0.111642 0.406283 0.0997887 0.0875224 0.991152
0.111995 -0.259621 0.395454 0 -1 0
0.0292335 0.133711 0.505564 0 -0.985627 0.168937
0.0042596 -0.227857 0.429544 0 -0.116741 0.993162
0.188914 -0.0312264 0.418445 -0.0990309 -0.0917534 -0.990845
-0.103229 0.0208423 0.414166 0 0.0921924 0.995741
0.0378589 0.166489 0.413407 -0.0469149 -0.242949 0.968904
0.0337918 0.143192 0.560775 0 -0.969332 0.245756
0.0178192 0.16511 0.642073 0 -0.948682 0.316232
0.0312195 0.0298444 0.413332 0 0.0921924 0.995741
0.156816 -0.161346 0.427888 0 0.0631182 0.998006
0.199354 -0.228143 0.431105 -0.0993842 -0.116163 0.988245
-0.0255165 0.162625 0.400806 0.0645219 -0.982059 0.177191
0.20195 0.0516295 0.411728 -0.140938 0.0912722 0.985802
-0.134289 0.0204089 0.414206 0 0.0921924 0.995741
-0.0468995 -0.115817 0.425008 0 0.0631182 0.998006
-0.176975 0.0491253 0.411547 0 0.0921924 0.995741
0.0641826 -0.0264525 0.418545 0 0.0921924 0.995741
-0.0696597 0.231988 0.703257 -0.0249534 0.449225 -0.89307
0.140162 -0.173602 0.428663 0 0.0631182 0.998006
0.0871653 -0.230558 0.428818 0 -0.413646 0.910438
0.238069 0.0587383 0.0108683 -0.257891 -1.23178e-05 0.966174
0.139508 -0.0452837 0.420288 0 0.0921924 0.995741
0.222728 0.147644 0.542847 0.92313 -0.368691 0.109081
-0.0871881 0.141988 0.553855 0 -0.985627 0.168937
-0.21481 0.137529 0.535024 -0.162878 -0.973211 0.162271
-0.102806 -0.24701 0.394274 0 -0.514739 -0.857347
-0.0327528 0.132655 0.499403 0 -0.985627 0.168937
0.220687 0.135864 0.347577 0.077498 -0.929837 -0.359719
0.200301 -0.0946853 0.407565 -0.141032 -0.0568004 -0.988374
-0.212713 0.184671 0.676042 -0.853534 0.514324 -0.0833725
0.207532 -0.166435 0.426887 0.560572 0.0458558 0.826835
-0.0962457 -0.15721 0.427626 0 0.0631182 0.998006
-0.213339 -0.155634 0.423334 -0.948203 0.0145927 0.317329
-0.0571881 0.178141 0.681167 0 -0.948682 0.316232
0.0409243 -0.0334268 0.41919 0 0.0921924 0.995741
0.118571 0.168326 0.651723 0 -0.948682 0.316232
-0.0704212 0.191393 0.70173 0 -0.624842 0.780751
-0.225302 -0.253855 0.222283 -0.873305 0.487164 0.00305305
0.152604 0.15442 0.605065 0 -0.969332 0.245756
-0.0588488 -0.195572 0.430052 0 0.0631182 0.998006
0.201552 -0.0620699 0.423421 -0.0996641 0.0628018 0.993037
0.225831 0.173615 0.281355 0.0916771 0.925674 0.367046
0.0822626 -0.25796 0.386414 0 -0.709408 -0.704798
0.209736 -0.114426 0.407354 -0.141032 -0.0568004 -0.988374
0.244493 0.261368 0.0400736 0.996179 0.048944 0.0723399
-0.233104 -0.266336 0.020136 -0.830887 -0.540439 0.132487
0.184628 -0.108366 0.409849 -0.706448 -0.0489625 -0.706069
-0.129126 0.219531 0.702583 0.0600479 -0.242848 -0.968204
0.194378 0.145574 0.509709 -0.253145 0.950351 -0.180973
-0.15403 0.193159 0.703144 0 -0.624842 0.780751
-0.0113815 -0.257508 0.402186 0 -0.919011 0.394231
-0.173734 0.13794 0.530239 0 -0.985627 0.168937
-0.2359 0.113001 0.0026251 0.709046 1.61547e-05 -0.705163
-0.0567579 0.111719 0.405826 0 0.0879614 0.996124
0.235649 -0.101721 0.00863982 -0.963978 -2.20018e-05 0.265982
-0.143179 0.0330562 0.413035 0 0.0921924 0.995741
-0.0913393 -0.197716 0.430188 0 0.0631182 0.998006
-0.053042 -0.24425 0.385521 0 -0.980638 -0.195827
0.0893107 0.164758 0.641017 0 -0.948682 0.316232
-0.245997 -0.0940416 0.00419374 -0.965181 -2.39747e-05 -0.261583
-0.0685073 -0.251575 0.395774 0 0.447112 -0.894478
0.242892 0.0393759 0.0109635 0.258895 5.90463e-06 0.965905
-0.00327346 0.134425 0.50973 0 -0.985627 0.168937
0.0824862 0.229059 0.713885 0.00301954 -0.178905 0.983862
-0.141052 0.141603 0.55161 0 -0.985627 0.168937
0.194166 0.13571 0.499915 -0.333717 0.924207 -0.18567
-0.135776 -0.255069 0.407108 0 -0.813892 0.581016
-0.0265571 -0.238792 0.396534 0 0.98643 -0.164182
-0.212363 0.134398 0.38985 0.708165 0.706047 0
-0.2125 0.153137 0.603976 -0.304006 -0.918672 0.252234
0.0041997 0.17711 0.678073 0 -0.948682 0.316232
0.186976 0.166072 0.605056 -0.057081 0.966111 -0.251738
-0.0747692 0.15538 0.608851 0 -0.969332 0.245756
-0.0951727 0.165308 0.402931 -0.179864 0.982162 -0.0548285
0.203785 -0.253487 0.38505 -0.172876 -0.709435 -0.683239
-0.218425 -0.258286 0.335426 0.0176302 -0.99907 0.0393564
0.196331 0.166359 0.635983 0.847335 -0.493084 0.19721
-0.196816 -0.0125177 0.401491 0 -0.0921925 -0.995741
0.206938 0.137116 0.45976 -0.86162 0.494562 -0.114097
0.112712 -0.210679 0.431008 0 0.0631182 0.998006
0.234345 0.191756 0.211776 0.901543 -0.417035 -0.115333
0.197946 0.0569679 0.395057 0 -0.0921925 -0.995741
0.157561 0.148499 0.395492 0.250069 0.840442 -0.480753
-0.00839953 0.00164822 0.415943 0 0.0921924 0.995741
0.0734137 0.226084 0.70569 -0.0447046 -0.893484 -0.446865
0.195327 0.152207 0.580302 -0.0416633 -0.967217 0.25051
-0.138746 -0.0345854 0.419298 0 0.0921924 0.995741
0.174792 0.170041 0.656867 0 -0.948682 0.316232
-0.237493 0.0571042 0.0105182 0.707039 -1.7629e-05 0.707175
-0.244302 -0.00900285 0.01003 -0.707036 3.37147e-05 0.707177
-0.104077 -0.128323 0.425799 0 0.0631182 0.998006
-0.0653385 -0.239344 0.401062 0 0.961603 0.274445
-0.203604 0.147038 0.504474 0.253145 0.950351 -0.180973
-0.00387722 -0.249922 0.395712 0 0.257912 0.966168
-0.171833 0.145507 0.404232 -0.179014 0.983847 0
0.233942 0.251282 0.0569305 -0.826297 -0.508613 -0.241962
-0.215917 0.126796 0.40471 0.982899 -0.175076 -0.0570724
0.116581 -0.0916661 0.423481 0 0.0631182 0.998006
0.22562 0.205025 0.191076 -0.810802 0.558371 0.17556
0.235611 -0.00398143 0.00299016 -0.966186 0 -0.257845
0.0725531 0.143064 0.560136 0 -0.985627 0.168937
0.0501842 0.184286 0.693859 0 -0.808461 0.588549
-0.216519 0.140429 0.5507 -0.162878 -0.973211 0.162271
0.139813 -0.259621 0.392482 0 -1 0
0.167678 -0.101218 0.424085 0 0.0631182 0.998006
-0.185928 -0.213391 0.431424 0.0996454 0.0628041 0.993039
0.220297 0.153211 0.330531 -0.412925 0.855308 0.312956
0.131217 -0.150761 0.427218 0 0.0631182 0.998006
-0.173837 0.204212 0.702779 0.806449 -0.590684 -0.027066
-0.240021 0.259784 0.0606036 -0.432283 0.831171 0.349694
0.183662 -0.0337966 0.407127 -0.995996 0.00824214 0.0890209
0.213465 0.0761973 0.403439 0.949038 0.0290556 0.31382
-0.146617 0.152392 0.39762 -0.269663 0.961458 -0.0536727
0.208327 0.131671 0.475358 -0.632168 -0.771642 0.0702312
-0.025839 0.176895 0.677429 0 -0.948682 0.316232
0.192312 -0.0585964 0.405664 0 -0.0573738 -0.998353
0.166991 0.174571 0.670456 0 -0.948682 0.316232
0.201043 0.1719 0.611413 -0.717499 0.66697 -0.200864
-0.113859 0.140674 0.546193 0 -0.985627 0.168937
0.176766 0.183013 0.691242 -0.186844 0.786125 -0.58915
0.120048 -0.0483095 0.420568 0 0.0921924 0.995741
-0.0772555 0.168366 0.39954 -0.178163 0.982067 -0.0616673
-0.183642 0.173 0.631476 0.0566634 0.958305 -0.280074
0.0449771 -0.186818 0.429499 0 0.0631182 0.998006
0.0979864 -0.0114981 0.41716 0 0.0921924 0.995741
0.0619716 0.137697 0.528821 0 -0.985627 0.168937
-0.142731 0.182297 0.691127 0 -0.808461 0.588549
0.196329 0.139673 0.395305 0.173532 0.880904 -0.440334
-0.220579 -0.266971 0.0504955 0.839734 -0.542998 8.30388e-05
-0.214036 -0.208587 0.413852 -0.553094 -0.0477992 -0.831747
0.0797824 0.0737204 0.40927 0 0.0921924 0.995741
-0.223302 0.181099 0.240792 0.824436 -0.511207 -0.242843
0.103496 0.162155 0.633207 0 -0.948682 0.316232
0.0314122 -0.25842 0.40006 0 -0.919011 0.394231
0.0450482 -0.114402 0.424919 0 0.0631182 0.998006
0.171705 -0.0830994 0.422939 0 0.0631182 0.998006
0.152695 -0.020562 0.417999 0 0.0921924 0.995741
-0.0132306 0.186674 0.697139 0 -0.808462 0.588549
0.127592 -0.235391 0.426622 0 -0.413646 0.910438
-0.129023 0.132985 0.501332 0 -0.985627 0.168937
-0.202847 0.122343 0.404065 -0.706917 -0.0623019 -0.704548
0.0837088 0.154394 0.604961 0 -0.969332 0.245756
0.122182 0.234323 0.70712 0.0200923 0.269221 -0.962869
0.127258 0.136632 0.522608 0 -0.985627 0.168937
0.154345 -0.138192 0.426423 0 0.0631182 0.998006
-0.0389121 0.161849 0.63229 0 -0.948682 0.316232
0.209732 0.132966 0.501694 -0.331455 -0.935369 0.123378
0.0760308 0.177443 0.679071 0 -0.948682 0.316232
-0.235426 0.265191 0.0452 0.565113 0.777329 0.276417
-0.0892778 -0.0531577 0.421017 0 0.0921924 0.995741
0.0488457 -0.0629322 0.421664 0 0.0631182 0.998006
0.0703702 0.152113 0.595965 0 -0.969332 0.245756
-0.222741 0.140386 0.524576 -0.771091 -0.616098 0.160755
0.163407 -0.241148 0.423264 0 -0.664662 0.747144
0.245685 0.145695 0.00855715 0.965929 2.20079e-05 0.258809
0.220374 -0.266639 0.07064 -0.838058 -0.545581 0.000234054
-0.103638 0.193638 0.703527 0 -0.624842 0.780751
-0.184156 -0.0293749 0.412285 0.99589 0.0083499 0.0901848
-0.137457 -0.241803 0.405559 0 0.555152 0.831749
0.0394271 0.056026 0.410908 0 0.0921924 0.995741
-0.00261113 -0.155202 0.427499 0 0.0631182 0.998006
0.238255 -0.219051 0.000636125 -0.258888 5.89236e-06 -0.965907
-0.0462015 -0.0567735 0.421274 0 0.0631182 0.998006
0.0334996 -0.235262 0.42668 0 -0.413646 0.910438
0.214635 -0.215941 0.415292 0.99598 0.0118271 0.0887906
-0.196106 0.141755 0.416044 -0.138156 0.960484 0.241626
-0.219928 0.157752 0.57927 -0.963386 0.267544 0.0175123
0.101104 0.149648 0.586241 0 -0.969332 0.245756
0.144114 0.166944 0.647577 0 -0.948682 0.316232
0.167964 0.104171 0.406492 0 0.0879614 0.996124
0.22024 -0.263077 0.0381741 -0.890626 0.45286 -0.0412758
0.209515 0.196408 0.694447 0.571963 0.47667 -0.667566
-0.0878285 0.13258 0.49897 0 -0.985627 0.168937
-0.112493 -0.20933 0.430922 0 0.0631182 0.998006
0.0109814 0.157317 0.616489 0 -0.969332 0.245756
-0.0424128 0.228379 0.704201 0.0446983 -0.893484 -0.446865
-0.156849 -0.253863 0.394674 0 -0.707107 0.707107
-0.0758058 0.133833 0.506275 0 -0.985627 0.168937
0.0435151 0.161744 0.391608 -0.0622384 -0.947564 -0.313448
0.0926482 0.0671026 0.409883 0 0.0921924 0.995741
-0.133034 0.104241 0.406486 0 0.0879614 0.996124
-0.221569 -0.262072 0.0242588 0.887409 0.45405 -0.0796561
-0.188522 -0.000373293 0.416637 0.0996754 0.0917333 0.990782
0.045898 -0.158138 0.427685 0 0.0631182 0.998006
-0.145392 0.00272176 0.415844 0 0.0921924 0.995741
0.178702 0.158224 0.61977 -0.324104 0.910117 -0.258153
-0.109151 0.223794 0.71292 0.0496185 -0.446567 0.893373
0.0257554 0.0830568 0.408406 0 0.0921924 0.995741
0.21849 0.124554 0.380722 -0.104667 -0.989201 -0.102596
0.150457 0.175247 0.672484 0 -0.948682 0.316232
-0.210388 -0.0478206 0.403147 0.140552 -0.0912771 -0.985857
0.226997 -0.256978 0.116588 0.456309 0.889511 -0.0234902
-0.000159547 -0.194739 0.43 0 0.0631182 0.998006
-0.193251 0.136112 0.503566 0.333717 0.924207 -0.18567
0.0176951 -0.128868 0.425834 0 0.0631182 0.998006
-0.204767 0.167511 0.588588 0.123126 0.965122 -0.231042
0.202219 0.0409321 0.396096 -0.140668 -0.0912758 -0.98584
-0.199201 -0.247891 0.394803 0 -0.514739 -0.857347
-0.150175 -0.116314 0.42504 0 0.0631182 0.998006
-0.0314388 -0.198167 0.430216 0 0.0631182 0.998006
-0.202922 -0.230013 0.429923 0.0966378 -0.382897 0.918722
-0.207715 -0.117892 0.407841 0.140914 -0.0568013 -0.988391
-0.00132954 -0.254687 0.386351 0 -0.708948 -0.705261
0.193916 -0.150806 0.410963 0 -0.0573738 -0.998353
-0.219803 -0.264042 0.181103 0.513655 -0.857748 0.0206637
0.22742 -0.257542 0.10344 0.456309 0.889511 -0.0234902
-0.217209 0.165072 0.616966 -0.963386 0.267544 0.0175123
0.0731061 0.114834 0.40555 0 0.0879614 0.996124
-0.243699 0.143034 0.0106251 -0.707036 3.37147e-05 0.707177
-0.0809536 0.179175 0.684269 0 -0.948682 0.316232
0.174122 0.147926 0.579448 0 -0.969332 0.245756
-0.0364937 0.173142 0.397519 -0.0641524 0.995978 -0.0625409
-0.137262 0.143366 0.40686 0.295495 -0.942324 0.157187
0.217281 -0.252307 0.232988 -0.489326 0.870769 -0.0481811
-0.00180492 0.0283473 0.413471 0 0.0921924 0.995741
0.184208 0.0218465 0.399432 -0.705792 -0.0653107 -0.705402
0.160672 0.22355 0.712779 0.00632839 -0.101257 0.99484
0.0156342 0.166062 0.411181 -0.0714394 -0.827783 0.556482
0.217066 0.141935 0.417943 -0.111626 0.988658 -0.100474
-0.239057 0.0926285 0.0111333 0.257891 -6.43012e-06 0.966174
-0.193483 0.0825475 0.392689 0 -0.0921925 -0.995741
-0.149052 0.140271 0.410467 0.295495 -0.942324 0.157187
0.222338 0.146799 0.470598 0.710654 0.702245 -0.042684
0.235883 0.204569 0.00890152 -0.709044 -1.61833e-05 0.705164
0.00599955 0.000269037 0.416071 0 0.0921924 0.995741
-0.186616 0.180776 0.687589 -0.0354539 -0.955344 0.293362
-0.213907 -0.192319 0.421778 -0.995887 0.00571885 0.0904247
0.147926 -0.00628532 0.416677 0 0.0921924 0.995741
0.138149 0.177294 0.678625 0 -0.948682 0.316232
0.0223976 -0.256122 0.405633 0 -0.813892 0.581016
-0.229699 0.167586 0.292507 -0.432283 0.831171 0.349694
-0.0777186 -0.245072 0.391278 0 0.965186 0.261563
0.183721 -0.0141879 0.405974 -0.995996 0.00824214 0.0890209
0.199256 0.110628 0.405584 -0.140633 0.109209 0.98402
-0.197194 -0.0283639 0.402958 0 -0.0921925 -0.995741
-0.0161869 0.233544 0.714901 -0.00186761 -0.164284 0.986411
-0.0593999 0.160902 0.629449 0 -0.948682 0.316232
-0.00224796 -0.103771 0.424246 0 0.0631182 0.998006
-0.1531 -0.0617008 0.421586 0 0.0631182 0.998006
-0.125484 -0.117347 0.425105 0 0.0631182 0.998006
-0.189419 0.196366 0.707565 -3.05658e-05 0.781269 0.624195
-0.101648 0.158496 0.62114 0 -0.969332 0.245756
-0.110577 0.138365 0.532719 0 -0.985627 0.168937
0.178651 0.0372896 0.412643 0 0.0921924 0.995741
0.239152 -0.193464 0.000395986 -0.258888 5.89236e-06 -0.965907
-0.209721 0.0935917 0.403681 0 0.0921925 0.995741
-0.194615 0.175138 0.665868 0.71753 -0.676984 0.163837
-0.120616 0.155908 0.390426 -0.208849 0.656103 -0.725197
0.0449507 0.146493 0.573796 0 -0.969332 0.245756
0.144623 -0.198068 0.43021 0 0.0631182 0.998006
0.0492755 -0.0209509 0.418035 0 0.0921924 0.995741
-0.164397 -0.249884 0.40894 0 0.165066 0.986283
0.171127 0.133484 0.409622 -0.257921 -0.954429 0.15014
0.111603 0.151425 0.407191 -0.177807 -0.970654 0.161913
0.0420451 0.158168 0.619845 0 -0.969332 0.245756
-0.196722 0.167851 0.644987 0.71753 -0.676984 0.163837
-0.0631516 0.244287 0.710104 -0.0379395 0.699351 -0.713771
-0.196353 0.141179 0.537622 -0.185094 -0.964919 0.186201
0.21392 -0.158622 0.419562 0.995984 0.00571941 0.0893487
-0.0909519 0.14984 0.586998 0 -0.969332 0.245756
-0.0572892 -0.252247 0.408309 0 -0.707813 0.7064
0.0968541 -0.25019 0.413943 0 -0.813892 0.581016
-0.242199 -0.247483 0.00116185 -0.248056 -0.123891 -0.960791
-0.17174 0.131765 0.39975 0.257921 -0.954429 0.15014
0.242906 -0.171228 0.000607165 0.257886 -1.22629e-05 -0.966175
-0.227296 0.137963 0.348978 -0.81074 -0.557884 -0.177386
0.00604248 -0.170369 0.428458 0 0.0631182 0.998006
0.153321 -0.252507 0.410698 0 -0.813892 0.581016
0.23415 0.18583 0.233618 0.996179 0.048944 0.0723399
0.0760159 -0.0628866 0.421661 0 0.0631182 0.998006
-0.227993 0.171541 0.256336 0.0915741 -0.925037 -0.368675
-0.103058 0.15241 0.597134 0 -0.969332 0.245756
0.125967 0.177988 0.680708 0 -0.948682 0.316232
0.204034 0.0171115 0.398042 -0.140668 -0.0912758 -0.98584
0.203789 0.116173 0.392378 -0.0627167 0 -0.998031
0.160902 -0.00931945 0.416958 0 0.0921924 0.995741
-0.0824378 -0.0661692 0.421868 0 0.0631182 0.998006
0.187081 0.206448 0.699926 -0.116053 0.105665 -0.987607
0.217115 -0.261597 0.155574 -0.838058 -0.545581 0.000234054
0.110931 0.153824 0.602714 0 -0.969332 0.245756
0.0262774 0.149835 0.58698 0 -0.969332 0.245756
-0.236203 -0.0648412 0.00231658 0.709046 1.61547e-05 -0.705163
0.0542543 -0.0915344 0.423472 0 0.0631182 0.998006
0.218426 0.158376 0.557186 0.713784 0.696999 -0.0685882
0.170136 -0.231388 0.428441 0 -0.413646 0.910438
0.0895269 -0.151623 0.427273 0 0.0631182 0.998006
-0.0206171 0.0299274 0.413325 0 0.0921924 0.995741
-0.0923283 -0.134409 0.426184 0 0.0631182 0.998006
0.183968 -0.00677088 0.41677 -0.0996753 0.0917333 0.990782
0.184039 -0.145586 0.419054 -0.995993 0.00564503 0.0892578
-0.230254 -0.261479 0.0753111 -0.999597 -0.0103684 0.0264415
-0.0238807 0.140911 0.547573 0 -0.985627 0.168937
-0.244879 0.0722113 0.00212316 -0.707043 -1.75627e-05 -0.70717
-0.208139 -0.203079 0.428507 -0.559802 0.0458591 0.827357
-0.184209 0.132839 0.392018 0.0521691 -0.35206 -0.934523
0.204208 -0.24982 0.395685 0 0.257912 0.966168
-0.237824 0.164708 0.00075372 0.257885 1.2272e-05 -0.966175
0.224002 0.165004 0.303528 0.0916771 0.925674 0.367046
0.0249216 -0.00600297 0.416651 0 0.0921924 0.995741
0.24021 0.230483 0.119948 0.996179 0.048944 0.0723399
-0.189821 0.0806332 0.409268 0.0997903 0.091718 0.990772
0.215368 0.157315 0.534486 0.333848 0.93276 -0.136029
0.101356 -0.249666 0.395869 0 -0.514739 -0.857347
-0.207543 0.135591 0.448528 0.861702 0.494467 -0.113894
-0.22453 0.142506 0.43619 -0.710608 0.702341 -0.0418802
-0.210018 0.130129 0.473658 0.631082 -0.772516 0.0703858
0.246181 0.228032 0.00487219 0.966186 0 -0.257845
-0.23298 0.241868 0.0802005 0.429316 -0.833244 -0.348413
0.22175 -0.26331 0.209378 -0.017701 -0.999068 0.0393538
0.242472 0.24847 0.0766284 0.996179 0.048944 0.0723399
0.19658 0.0879874 0.392185 0 -0.0921925 -0.995741
0.214685 -0.245302 0.391035 1 0 0
-0.0218191 0.091137 0.407657 0 0.0921924 0.995741
0.00396594 0.14827 0.580808 0 -0.969332 0.245756
-0.0538843 -0.0799842 0.422742 0 0.0631182 0.998006
-0.0406414 -0.253672 0.409065 0 -0.813892 0.581016
0.149956 -0.258491 0.386949 0 -0.709408 -0.704798
-0.00345349 0.144891 0.567477 0 -0.969332 0.245756
-0.233297 0.224705 0.12065 -0.0774979 -0.929838 -0.359717
0.101864 0.133693 0.505459 0 -0.985627 0.168937
-0.0104032 0.15593 0.611019 0 -0.969332 0.245756
0.219071 -0.258226 0.33724 -0.017701 -0.999068 0.0393538
0.168933 -0.259467 0.397619 0 -0.919011 0.394231
0.117047 -0.106722 0.424433 0 0.0631182 0.998006
-0.222934 0.153697 0.332307 -0.0916771 0.925674 0.367046
-0.13901 -0.0175799 0.417723 0 0.0921924 0.995741
-0.195243 0.119844 0.392673 0 0 -1
0.11874 0.157209 0.391062 0.208725 0.655666 -0.725628
0.000701904 -0.0170821 0.417677 0 0.0921924 0.995741
0.163056 0.184862 0.694649 0 -0.808461 0.588549
0.146686 -0.22514 0.429863 0 -0.116741 0.993162
0.107147 0.107696 0.406181 0 0.0879614 0.996124
0.0102489 0.168076 0.650971 0 -0.948682 0.316232
-0.166454 0.11396 0.405628 0 0.0879614 0.996124
-0.0700891 0.158046 0.401137 0.183256 -0.966183 0.181403
0.198636 0.127822 0.416207 -0.23684 -0.953702 0.185361
0.157598 -0.0317729 0.419037 0 0.0921924 0.995741
0.213624 -0.101426 0.419998 0.948202 0.014658 0.317329
-0.0427109 0.151085 0.591909 0 -0.969332 0.245756
0.16601 0.143387 0.561546 0 -0.969332 0.245756
0.168924 -0.113612 0.424869 0 0.0631182 0.998006
-0.0347907 0.106206 0.406312 0 0.0879614 0.996124
0.217996 0.140039 0.397719 -0.0514392 0.933522 -0.354811
0.036225 0.13851 0.533565 0 -0.985627 0.168937
0.194289 -0.0512458 0.420158 -0.140939 0.091272 0.985802
0.0474324 0.143124 0.560483 0 -0.985627 0.168937
-0.178039 -0.249486 0.395596 0 0.257912 0.966168
-0.203304 0.138905 0.513275 0.0479151 -0.985412 0.163302
0.121867 -0.123193 0.425475 0 0.0631182 0.998006
-0.193578 -0.227505 0.429328 0.10443 -0.0586992 0.992798
0.236445 0.165137 0.00946582 -0.709044 -1.61833e-05 0.705164
-0.0457496 0.0920397 0.407574 0 0.0921924 0.995741
0.216022 0.168891 0.622498 0.981579 0.186525 -0.0413723
0.245875 -0.113355 0.00374485 0.965181 -2.39747e-05 -0.261583
-0.215432 0.172644 0.641416 -0.9805 0.196495 -0.00296272
-0.00421963 -0.244933 0.419896 0 -0.664662 0.747144
-0.149 0.224865 0.712987 -0.00632954 -0.10125 0.994841
0.041967 -0.206861 0.430766 0 0.0631182 0.998006
-0.00510405 -0.0745022 0.422395 0 0.0631182 0.998006
0.203939 0.185236 0.697189 0.2282 -0.777556 0.585944
-0.0414526 -0.247076 0.394534 0 0.707104 0.707109
0.169278 0.0148308 0.414722 0 0.0921924 0.995741
-0.203516 0.071446 0.40933 -0.705751 -0.0653146 -0.705443
0.183321 0.121881 0.396235 -0.98514 -0.081462 0.151208
-0.212257 -0.0872729 0.405698 -0.553094 -0.0477992 -0.831747
-0.214379 0.060428 0.397807 -0.995037 0.00917349 0.0990799
-0.185709 0.0992337 0.406705 0.0993551 -0.0875262 -0.991195
-0.226683 0.130039 0.381678 -0.911924 0.385258 0.141321
-0.00149782 0.117442 0.40532 0 0.0879614 0.996124
0.106808 -0.0194171 0.417893 0 0.0921924 0.995741
-0.0704256 0.159543 0.625269 0 -0.969332 0.245756
0.199895 0.184487 0.655926 -0.15889 0.949384 -0.270968
0.220538 -0.263919 0.195462 0.0493116 -0.997912 0.0417131
0.171508 0.13542 0.515535 0 -0.985627 0.168937
0.0331461 0.186077 0.696319 0 -0.808461 0.588549
0.195838 -0.141031 0.427841 -0.0996641 0.0628018 0.993037
0.0652865 -0.244345 0.420419 0 -0.664662 0.747144
-0.112139 0.0404079 0.412354 0 0.0921924 0.995741
0.111455 0.178623 0.682612 0 -0.948682 0.316232
-0.214685 -0.246258 0.39641 -1 0 0
0.24188 -0.200511 0.0112361 0.258895 5.90463e-06 0.965905
-0.0955063 0.153532 0.402148 0.177771 -0.97066 0.161914
-0.0602182 0.0788897 0.408791 0 0.0921924 0.995741
-0.170876 -0.178432 0.428968 0 0.0631182 0.998006
0.191182 0.118123 0.404204 -0.0992968 0.110345 0.988921
-0.214046 -0.054922 0.411832 -0.995037 0.0091735 0.0990802
0.0488956 0.0367992 0.412688 0 0.0921924 0.995741
-0.108839 0.173001 0.665746 0 -0.948682 0.316232
0.142423 -0.248951 0.39544 0 -0.514739 -0.857347
-0.246283 0.213994 0.00525191 -0.966186 0 -0.257845
0.0193067 -0.256839 0.388377 0 0.913644 -0.406516
-0.0340231 0.169412 0.65498 0 -0.948682 0.316232
0.0583211 -0.227395 0.429598 0 -0.116741 0.993162
-0.19234 -0.203698 0.414003 0 -0.0573738 -0.998353
-0.0746156 0.00457053 0.415672 0 0.0921924 0.995741
-0.0991915 -0.0256051 0.418466 0 0.0921924 0.995741
0.0782959 0.158778 0.622255 0 -0.969332 0.245756
0.181367 -0.250837 0.413037 0 -0.813892 0.581016
-0.195644 0.158708 0.612239 -0.132012 -0.961573 0.240728
0.0524951 0.237473 0.707028 0.00445716 0.274403 -0.961604
0.0813306 0.0954711 0.40726 0 0.0879614 0.996124
-0.187312 0.156199 0.601812 0.323905 0.910188 -0.258154
-0.240419 0.269289 0.0353935 -0.443431 0.888608 0.11724
0.183889 -0.182848 0.420093 -0.995106 0.00683597 0.0985789
-0.193652 0.149582 0.568709 0.372027 0.895534 -0.24416
0.181658 0.0163557 0.414581 0 0.0921924 0.995741
-0.0830738 0.138456 0.53325 0 -0.985627 0.168937
-0.204243 0.182451 0.646735 0.114355 0.955103 -0.273316
0.213928 0.0894457 0.399651 0.995037 0.00917349 0.0990799
-0.236482 -0.192391 0.00950137 0.707039 -1.7629e-05 0.707175
0.0888808 0.133858 0.506422 0 -0.985627 0.168937
-0.0482554 -0.0940179 0.42363 0 0.0631182 0.998006
-0.213698 -0.256294 0.284696 0.839734 -0.542998 8.30388e-05
-0.109391 0.233979 0.70675 -0.0213503 0.274343 -0.961395
0.139323 0.142773 0.392375 -0.250339 -0.806054 -0.536291
-0.0528165 0.0425975 0.412152 0 0.0921924 0.995741
0.230542 0.186054 0.247967 0.575693 0.750833 0.323771
0.183846 -0.209197 0.421481 -0.995106 0.00683597 0.0985789
0.0953917 0.169784 0.656095 0 -0.948682 0.316232
0.219824 0.148777 0.319044 -0.429316 -0.833244 -0.348413
0.00654729 0.140533 0.545366 0 -0.985627 0.168937
0.161066 -0.173234 0.42864 0 0.0631182 0.998006
-0.232284 0.190241 0.235463 -0.432283 0.831171 0.349694
0.00844122 -0.0411755 0.419908 0 0.0921924 0.995741
-0.185398 -0.155151 0.41188 0.803406 -0.0387861 -0.594167
0.140509 -0.108184 0.424525 0 0.0631182 0.998006
-0.0916355 0.228381 0.713735 -0.0028399 -0.178886 0.983866
-0.198526 -0.194006 0.428445 0.0996444 -0.0627338 -0.993044
-0.225347 -0.254069 0.263717 -0.999597 -0.0103684 0.0264415
0.0652373 0.146452 0.573635 0 -0.969332 0.245756
-0.222904 -0.250046 0.30018 -0.873305 0.487164 0.00305305
0.186516 0.149215 0.535326 -0.172138 0.963788 -0.20367
0.100386 0.0440848 0.412014 0 0.0921924 0.995741
0.0449434 -0.255873 0.390548 0 0.913644 -0.406516
0.195983 0.149447 0.569754 -0.0416633 -0.967217 0.25051
0.220856 -0.262173 0.237824 -0.017701 -0.999068 0.0393538
-0.146882 -0.212222 0.431105 0 0.0631182 0.998006
0.214546 -0.085791 0.408617 0.995028 0.00571392 0.099427
0.234319 0.263436 0.021963 -0.988288 -0.139816 -0.0611472
0.227922 -0.259318 0.0459174 0.456309 0.889511 -0.0234902
0.243841 -0.0842233 0.0104961 0.70904 1.61712e-05 0.705168
0.0589476 0.171875 0.402489 0.178161 0.982067 -0.0616674
-0.196189 0.172422 0.626959 0.0566634 0.958305 -0.280074
0.241544 -0.254683 0.00517117 0.460117 -0.646135 -0.608934
0.214626 -0.234697 0.414468 0.991484 -0.099991 0.0834378
0.236937 -0.256858 0.0168917 0.570646 0.257049 0.779928
0.19155 -0.123032 0.409367 0 -0.0573738 -0.998353
0.202376 -0.0885744 0.421983 0.705967 -0.0446531 -0.706836
0.134171 0.14402 0.404967 -0.295495 -0.942324 0.157187
-0.0471054 0.135019 0.513195 0 -0.985627 0.168937
-0.0693709 0.167846 0.650281 0 -0.948682 0.316232
0.223076 -0.260264 0.0234123 -0.784705 0.613278 -0.0901555
0.22328 -0.266857 0.121956 0.0493116 -0.997912 0.0417131
-0.0412944 0.14059 0.545699 0 -0.985627 0.168937
-0.0388248 -0.240383 0.423944 0 -0.664662 0.747144
-0.0691496 -0.190534 0.429734 0 0.0631182 0.998006
-0.0412308 -0.173694 0.428669 0 0.0631182 0.998006
0.214485 -0.134438 0.412019 0.995028 0.00571392 0.099427
-0.128278 -0.232064 0.428133 0 -0.413646 0.910438
-0.220867 -0.258294 0.319762 -0.489353 -0.870788 0.0475687
-0.166456 -0.0901298 0.423384 0 0.0631182 0.998006
-0.0346733 -0.126547 0.425687 0 0.0631182 0.998006
0.125309 0.17289 0.665413 0 -0.948682 0.316232
-0.205191 0.149541 0.591372 0.250537 -0.942509 0.221154
-0.113541 -0.0967335 0.423801 0 0.0631182 0.998006
0.193567 -0.250138 0.41461 -0.143291 -0.839128 0.52472
-0.188084 0.0429286 0.411661 0.0991459 -0.0917382 -0.990835
0.227839 0.162456 0.280151 0.56108 -0.780475 -0.275769
-0.243467 0.260059 0.00861656 -0.691809 0.495089 -0.525631
-0.182668 -0.259207 0.398224 0 -0.919011 0.394231
-0.166834 -0.234047 0.427233 0 -0.413646 0.910438
-0.0798493 0.0268302 0.413611 0 0.0921924 0.995741
-0.151695 0.0255306 0.413732 0 0.0921924 0.995741
-0.204737 0.139991 0.408466 0.0549515 0.997263 -0.0494618
0.0455318 0.172406 0.39505 0.0641524 0.995978 -0.0625409
0.234098 0.220199 0.132471 0.077498 -0.929837 -0.359719
0.235318 -0.142774 0.00408638 -0.966186 0 -0.257845
-0.129494 -0.0632403 0.421683 0 0.0631182 0.998006
-0.110201 -0.190087 0.429705 0 0.0631182 0.998006
0.0101513 0.0608978 0.410457 0 0.0921924 0.995741
-0.226327 0.141488 0.463552 -0.980193 0.197024 0.0201008
0.19294 -0.250337 0.395823 0 0.257912 0.966168
0.0731497 -0.239188 0.39415 0 0.98643 -0.164182
-0.212976 0.116421 0.401028 -0.049462 0.148737 0.987639
-0.234568 0.213154 0.150367 -0.562784 -0.779432 -0.275245
0.212939 -0.255121 0.323169 -0.871717 -0.489997 -0.0035109
-0.162228 0.0202175 0.414224 0 0.0921924 0.995741
0.0735893 0.185948 0.696141 0 -0.808461 0.588549
0.205619 0.141451 0.551128 -0.780552 -0.623658 0.0422944
0.115532 0.161882 0.411379 0.269717 0.961443 -0.0536719
-0.0242863 0.151156 0.59219 0 -0.969332 0.245756
0.215917 0.132881 0.369471 -0.993487 0.113618 -0.00861082
0.0252171 0.135747 0.517445 0 -0.985627 0.168937
-0.0530987 0.169651 0.413527 0 0.555401 0.831583
-0.137513 -0.239442 0.392625 0 0.98643 -0.164182
-0.200165 -0.155677 0.427855 0.141239 0.0641104 0.987897
-0.231257 -0.265495 0.0421651 -0.998296 0.0529735 0.0244679
-0.198708 -0.0599531 0.423003 0.0996642 0.0628018 0.993037
0.135395 0.153454 0.39246 0.208746 0.655719 -0.725574
-0.0136458 0.0584672 0.410682 0 0.0921924 0.995741
0.164941 0.211716 0.710158 -0.13785 -0.220614 0.965571
0.209722 0.169782 0.657176 0.63362 -0.71851 0.286827
-0.200307 -0.0367104 0.417813 0.099031 -0.0917534 -0.990845
0.196562 0.102138 0.392279 0 0.0557392 -0.998445
-0.242515 0.122028 0.000501539 -0.257886 -5.86366e-06 -0.966175
-0.246301 -0.110251 0.00625631 -0.966846 0 0.255362
0.11695 -0.25465 0.386315 0 -0.708948 -0.705261
0.235641 0.232543 0.100894 0.077498 -0.929837 -0.359719
-0.175647 0.147275 0.576883 0 -0.969332 0.245756
0.212438 -0.254571 0.370719 -0.871717 -0.489997 -0.0035109
0.13654 -0.18737 0.429534 0 0.0631182 0.998006
0.225407 0.131837 0.36028 0.412931 -0.854691 -0.314629
0.15605 -0.104817 0.424313 0 0.0631182 0.998006
0.219332 0.148805 0.341032 -0.899444 0.420565 0.118852
-0.15256 0.0585264 0.410677 0 0.0921924 0.995741
0.114709 -0.239128 0.394511 0 0.98643 -0.164182
-0.179647 0.131548 0.411118 0.23684 -0.953702 0.185361
-0.0690198 -0.215787 0.430963 0 -0.116741 0.993162
-0.193925 -0.0887164 0.407395 0 -0.0573738 -0.998353
-0.219892 0.15298 0.517621 -0.714915 0.695866 -0.068313
-0.212202 -0.027088 0.414854 0 0.0921925 0.995741
-0.221104 -0.266973 0.0964209 0.456395 -0.889452 0.0240722
0.237799 -0.245763 0.0117262 -0.151871 0.412192 0.89835
0.242253 0.0173957 0.000430644 0.258888 -5.88645e-06 -0.965907
-0.178177 -0.107589 0.424488 0 0.0631182 0.998006
0.212756 0.0242871 0.410098 0 0.0921925 0.995741
-0.0671851 0.171766 0.662042 0 -0.948682 0.316232
-0.0687804 -0.0230054 0.418226 0 0.0921924 0.995741
0.105496 0.171272 0.660559 0 -0.948682 0.316232
0.0437621 0.231183 0.703522 -0.0243403 -0.243215 -0.969667
0.162006 0.139577 0.539788 0 -0.985627 0.168937
-0.226473 -0.260429 0.201514 -0.859907 -0.508653 0.0428
-0.121233 0.134603 0.510769 0 -0.985627 0.168937
0.126887 0.0840764 0.408311 0 0.0921924 0.995741
-0.0450168 0.16996 0.656623 0 -0.948682 0.316232
0.116904 -0.241281 0.405211 0 0.555152 0.831749
0.213828 -0.0478502 0.413371 0.995037 0.0091735 0.0990802
-0.170359 0.132458 0.498257 0 -0.985627 0.168937
0.132262 0.216979 0.70753 -0.155324 -0.987864 0
-0.0116993 0.1505 0.5896 0 -0.969332 0.245756
-0.242517 -0.040835 0.011062 -0.257892 1.22975e-05 0.966174
0.131077 -0.244355 0.386047 0 -0.980638 -0.195827
-0.235321 0.156272 0.00748871 0.965929 0 0.258807
-0.201208 -0.25645 0.406604 0.14338 -0.839118 0.524713
-0.142271 -0.241699 0.422773 0 -0.664662 0.747144
-0.246009 -0.144115 0.00736233 -0.966846 0 0.255362
-0.110006 0.151981 0.40877 0.177771 -0.97066 0.161914
0.197888 0.212358 0.699244 -0.076356 0.33059 -0.940681
0.182491 0.188 0.699079 -0.00797048 -0.829675 0.55819
-0.122438 0.146819 0.575084 0 -0.969332 0.245756
0.101308 0.164143 0.402141 0.179863 0.982163 -0.0548286
-0.216752 -0.245467 0.376094 -0.017819 0.999039 -0.0400516
0.0529755 0.174404 0.669955 0 -0.948682 0.316232
0.0189012 0.153493 0.601407 0 -0.969332 0.245756
0.100636 0.177951 0.680596 0 -0.948682 0.316232
0.216691 0.164158 0.582488 0.75021 0.655868 -0.083803
0.137608 0.155371 0.410567 0.283096 0.959092 0
-0.185166 -0.165726 0.425223 0.717083 0.0439925 0.695598
-0.0591549 -0.237724 0.425562 0 -0.413646 0.910438
-0.102567 0.0325005 0.413086 0 0.0921924 0.995741
-0.10469 -0.113754 0.424878 0 0.0631182 0.998006
-0.131055 0.186745 0.697237 0 -0.808462 0.588549
-0.116643 -0.228731 0.429441 0 -0.116741 0.993162
-0.108976 0.162614 0.399957 -0.179864 0.982162 -0.0548285
-0.143738 0.145363 0.569339 0 -0.969332 0.245756
-0.20554 0.154454 0.612533 0.157946 -0.954101 0.25445
-0.201582 -0.0102524 0.418866 0.0997903 0.091718 0.990772
-0.242638 -0.214813 0.000536341 -0.257886 -5.86523e-06 -0.966175
-0.225315 0.14311 0.496852 -0.98009 0.197003 0.0247755
-0.149552 -0.144374 0.426814 0 0.0631182 0.998006
-0.230185 0.131343 0.419866 -0.944461 -0.314936 0.0938582
0.237553 -0.230508 0.000967039 -0.70888 0 -0.705329
-0.075272 -0.117856 0.425137 0 0.0631182 0.998006
0.0665427 -0.16834 0.42833 0 0.0631182 0.998006
0.115267 0.132791 0.5002 0 -0.985627 0.168937
-0.19384 0.191333 0.686068 0.600441 0.642104 -0.476627
0.0670922 0.0699383 0.40962 0 0.0921924 0.995741
0.193482 -0.123304 0.424793 -0.155757 0.0623481 0.985826
0.188946 0.21284 0.711438 0.0575712 -0.216282 0.974632
-0.0117789 -0.259621 0.390627 0 -1 0
-0.231146 0.228621 0.139292 0.565113 0.777329 0.276417
0.167601 -0.220922 0.430359 0 -0.116741 0.993162
-0.168255 -0.21218 0.431103 0 0.0631182 0.998006
-0.21555 0.165781 0.585268 -0.511197 0.852532 -0.108932
0.0929746 0.0893512 0.407823 0 0.0921924 0.995741
-0.122297 0.108839 0.40608 0 0.0879614 0.996124
0.00733714 0.159903 0.626454 0 -0.948682 0.316232
-0.020604 0.0727537 0.40936 0 0.0921924 0.995741
0.235081 -0.0308785 0.00497772 -0.966186 0 -0.257845
-0.0140107 -0.0547278 0.421145 0 0.0631182 0.998006
0.235064 0.0888161 0.00651709 -0.964916 0 0.262557
-0.222769 -0.252204 0.21181 -0.51373 0.857687 -0.021329
-0.037103 -0.0354518 0.419378 0 0.0921924 0.995741
0.00974332 -0.251315 0.39567 0 -0.257829 0.966191
-0.22222 0.180051 0.252743 0.996009 -0.0527856 -0.0719694
0.151012 -0.237636 0.425602 0 -0.413646 0.910438
0.140093 0.0988169 0.406965 0 0.0879614 0.996124
-0.14677 -0.159497 0.427771 0 0.0631182 0.998006
-0.131922 -0.18911 0.429644 0 0.0631182 0.998006
0.0820324 0.240029 0.715162 0.0277238 0.313831 0.949074
-0.203819 -0.0758627 0.405981 0.140914 -0.0568013 -0.988391
0.0141975 0.101922 0.406691 0 0.0879614 0.996124
-0.18391 -0.0868164 0.413969 0.995887 0.00571883 0.0904247
-0.0305546 -0.0581793 0.421363 0 0.0631182 0.998006
0.0551167 -0.0766343 0.42253 0 0.0631182 0.998006
0.152855 0.139553 0.413312 -0.295495 -0.942324 0.157187
-0.00688908 0.168555 0.652408 0 -0.948682 0.316232
-0.130635 0.0311128 0.413215 0 0.0921924 0.995741
-0.15492 -0.240757 0.38686 0 0.599478 -0.800391
-0.204103 0.215475 0.710278 -0.380648 -0.0281121 0.924293
0.178691 0.217299 0.702063 0.122216 0.701675 -0.701937
-0.225979 -0.265779 0.131302 -0.540985 -0.839647 0.0482548
0.00898255 -0.249096 0.415476 0 -0.813892 0.581016
-0.105528 -0.0725799 0.422274 0 0.0631182 0.998006
0.242281 0.181625 0.0111254 0.257891 1.23145e-05 0.966174
-0.153756 0.135753 0.51748 0 -0.985627 0.168937
0.193083 0.187315 0.678548 -0.05662 0.958308 -0.280072
-0.151042 0.161673 0.631764 0 -0.948682 0.316232
0.1973 0.0913251 0.406259 -0.0991458 -0.0917382 -0.990835
0.162325 -0.248873 0.415788 0 -0.813892 0.581016
-0.24337 0.104789 0.0108325 -0.257892 1.22975e-05 0.966174
0.201915 0.142603 0.520304 -0.333717 0.924207 -0.18567
0.0152483 0.178395 0.681927 0 -0.948682 0.316232
-0.0916204 0.0374476 0.412628 0 0.0921924 0.995741
-0.220555 -0.26035 0.0612808 0.890759 0.452596 -0.0412964
0.211185 0.134751 0.519131 -0.331455 -0.935369 0.123378
0.217106 0.142688 0.456659 -0.164659 0.974732 -0.150945
0.0827042 0.0114221 0.415038 0 0.0921924 0.995741
0.207599 0.0424926 0.41083 0.785706 0.0618611 0.615499
-0.198228 -0.169713 0.41205 0 -0.0573738 -0.998353
0.142077 0.21937 0.712472 0.00632839 -0.101257 0.99484
-0.215367 -0.248844 0.314963 0.487757 0.871648 -0.0481925
0.152753 0.151144 0.592141 0 -0.969332 0.245756
-0.206045 0.136827 0.502087 0.712809 -0.698066 0.0678789
0.210076 -0.205004 0.412511 -0.141032 -0.0568004 -0.988374
0.147123 0.15032 0.417505 0.068728 0.432353 0.899082
0.116705 -0.249604 0.395832 0 -0.514739 -0.857347
0.0832749 0.231655 0.703489 0.0500408 0.448802 -0.892229
-0.0864136 -0.173224 0.428639 0 0.0631182 0.998006
0.136285 0.0607101 0.410475 0 0.0921924 0.995741
0.0335346 0.174189 0.66931 0 -0.948682 0.316232
-0.22666 0.198108 0.216236 0.412925 0.855308 0.312956
0.21804 0.14633 0.567405 0.745526 -0.629161 0.21988
-0.0803634 0.168111 0.410887 -0.134085 0.871464 0.471775
0.203906 0.193483 0.685781 0.22393 0.838783 -0.496285
0.125225 0.149546 0.585838 0 -0.969332 0.245756
0.00499417 -0.0660925 0.421863 0 0.0631182 0.998006
0.0136795 0.134722 0.511462 0 -0.985627 0.168937
0.0196533 -0.0744516 0.422392 0 0.0631182 0.998006
-0.167909 0.160249 0.627491 0 -0.948682 0.316232
0.129863 0.169601 0.655546 0 -0.948682 0.316232
-0.221125 0.127986 0.39058 -0.0987502 -0.110063 -0.989007
0.0543701 0.00642922 0.4155 0 0.0921924 0.995741
0.239985 0.160969 0.000176613 -0.257887 1.2263e-05 -0.966175
0.0892289 0.0513077 0.411345 0 0.0921924 0.995741
-0.203728 0.189526 0.672923 -0.200045 0.948093 -0.247189
0.0496865 0.164922 0.413587 -0.0469149 -0.242949 0.968904
0.00299452 0.175715 0.404114 0.0641524 0.995978 -0.0625409
0.235557 0.142369 0.00832612 -0.963978 -2.20018e-05 0.265982
0.109339 0.0208882 0.414162 0 0.0921924 0.995741
0.188503 -0.0427544 0.420558 -0.0996753 0.0917333 0.990782
-0.160373 0.14386 0.419553 -0.0661939 0.421872 0.904236
0.0719714 -0.134726 0.426204 0 0.0631182 0.998006
0.106553 0.159724 0.390556 0.131986 0.67845 -0.722693
0.0192538 -0.244479 0.386667 0 -0.980638 -0.195827
0.235286 -0.152905 0.00731803 -0.963978 -2.20018e-05 0.265982
-0.0425139 0.0240115 0.413872 0 0.0921924 0.995741
0.0574092 -0.247214 0.385525 0 0.708946 -0.705263
-0.235386 0.245277 0.0985726 0.0775713 0.929136 0.361509
-0.224987 -0.253893 0.277405 -0.999597 -0.0103684 0.0264415
-0.0596514 0.143809 0.563212 0 -0.969332 0.245756
-0.184832 -0.106362 0.409462 0.803406 -0.0387861 -0.594167
-0.22695 -0.256724 0.0168467 0.575142 0.805057 0.145238
-0.210747 0.174334 0.618538 -0.16169 0.966114 -0.201195
-0.22481 0.192813 0.226842 0.899446 0.420562 0.118851
0.01438 0.23753 0.715568 0.00186761 -0.164284 0.986411
0.0346055 0.172163 0.391585 0.0663063 0.94735 -0.313259
0.208295 0.164989 0.574062 -0.362233 0.906475 -0.217003
0.180443 0.180449 0.671022 -0.985708 -0.168353 -0.00609566
-0.0660358 -0.0513697 0.420852 0 0.0921924 0.995741
0.0747726 0.163519 0.637301 0 -0.948682 0.316232
-0.0752201 -0.259621 0.397134 0 -1 0
-0.19338 0.162281 0.587732 0.172584 0.95821 -0.22814
-0.0598308 0.19065 0.701136 0 -0.624842 0.780751
-0.0699045 -0.253733 0.406821 0 -0.707813 0.7064
0.225328 -0.264117 0.16752 0.542809 -0.838468 0.0482762
-0.00801764 0.161863 0.632334 0 -0.948682 0.316232
0.199746 0.0250843 0.413871 -0.140938 0.0912722 0.985802
-0.0243828 0.146584 0.574157 0 -0.969332 0.245756
0.0780782 0.158547 0.411778 -0.174037 -0.862618 0.474975
0.0283639 0.162989 0.390853 -0.0622384 -0.947564 -0.313448
-0.121089 0.159272 0.41519 -0.0687695 0.432525 0.898996
0.214864 0.13898 0.438248 -0.637661 0.756513 -0.145179
0.0886408 0.0797887 0.408708 0 0.0921924 0.995741
0.227302 0.216135 0.154422 -0.993487 0.113618 -0.00861082
0.188924 -0.133507 0.425586 -0.0990367 -0.0628079 -0.9931
0.123074 0.147807 0.406812 -0.295495 -0.942324 0.157187
0.0652917 -0.251907 0.395608 0 0.447112 -0.894478
-0.0168044 -0.12266 0.425441 0 0.0631182 0.998006
0.0979599 -0.185608 0.429422 0 0.0631182 0.998006
0.0940092 -0.127911 0.425773 0 0.0631182 0.998006
0.246424 0.0548842 0.00578768 0.966846 0 0.255362
0.101282 0.153193 0.406453 -0.177807 -0.970654 0.161913
-0.0513251 0.158203 0.619983 0 -0.969332 0.245756
-0.0777847 0.141202 0.54927 0 -0.985627 0.168937
0.224738 -0.270656 0.029 -0.45626 -0.889521 0.0240786
-0.22741 0.137499 0.401171 -0.712697 0.700229 -0.0417542
-0.213763 -0.0736541 0.416127 -1 0 0
-0.223759 0.163075 0.308452 -0.0916771 0.925674 0.367046
-0.100787 -0.243944 0.384473 0 0.599478 -0.800391
-0.246345 0.0254422 0.00608794 -0.966846 0 0.255362
-0.12669 0.231366 0.706388 -0.0200897 0.269222 -0.962869
-0.0496144 0.139524 0.539481 0 -0.985627 0.168937
0.0449812 0.161551 0.401941 -0.0645224 -0.982067 0.177145
-0.0102981 -0.110399 0.424666 0 0.0631182 0.998006
0.241877 0.244423 0.0875574 0.996179 0.048944 0.0723399
0.0910819 -0.239503 0.39226 0 0.98643 -0.164182
-0.162258 0.182043 0.690778 0 -0.808461 0.588549
0.187375 0.146945 0.557246 0.0851309 -0.975638 0.202194
0.051024 -0.239818 0.402722 0 0.961603 0.274445
0.0691713 -0.147909 0.427038 0 0.0631182 0.998006
-0.226865 0.207088 0.173987 0.824436 -0.511207 -0.242843
0.191717 -0.0689832 0.406261 0 -0.0573738 -0.998353
-0.219461 -0.256042 0.143327 0.487757 0.871648 -0.0481925
-0.173263 0.170365 0.657838 0 -0.948682 0.316232
0.107384 0.0909378 0.407676 0 0.0921924 0.995741
0.228244 -0.258396 0.141346 0.838537 0.544844 0.000464329
0.236276 0.20841 0.166652 0.901543 -0.417035 -0.115333
0.0940598 -0.115825 0.425009 0 0.0631182 0.998006
-0.0849855 0.176156 0.675212 0 -0.948682 0.316232
0.155968 0.0133072 0.414863 0 0.0921924 0.995741
-0.242646 -0.0344193 0.000537503 -0.257886 -5.86366e-06 -0.966175
-0.131202 0.14107 0.5485 0 -0.985627 0.168937
