0.226936 0.134616 0.390365 0.0974486 -0.194897 -0.975971
0.0524442 -0.256935 0.403522 0 -0.919011 0.394231
0.200103 -0.0379812 0.403704 -0.140668 -0.0912758 -0.98584
-0.0737773 0.0847719 0.408247 0 0.0921924 0.995741
0.0336202 0.13553 0.516181 0 -0.985627 0.168937
0.0957951 0.156371 0.612757 0 -0.969332 0.245756
-0.101458 0.0848734 0.408237 0 0.0921924 0.995741
-0.0935659 -0.257083 0.387828 0 0.913644 -0.406516
-0.205086 -0.058543 0.422255 0.141239 0.0641104 0.987897
-0.0681938 0.140645 0.546019 0 -0.985627 0.168937
-0.206693 0.133439 0.477783 0.986633 -0.159709 -0.0323742
0.228438 0.126454 0.421134 0.717203 -0.685286 0.126499
0.198486 -0.239343 0.392165 -0.139454 0.976791 -0.162577
0.185162 -0.0290375 0.415823 -0.721156 0.0638684 0.689822
0.132116 -0.245539 0.419357 0 -0.664662 0.747144
0.0121735 -0.233359 0.427545 0 -0.413646 0.910438
0.0760795 -0.192135 0.429835 0 0.0631182 0.998006
0.182272 -0.254039 0.408552 0 -0.813892 0.581016
0.136708 -0.259621 0.391202 0 -1 0
0.128094 0.227731 0.705229 0.0939105 0.70385 -0.704113
-0.0367823 -0.245847 0.393518 0 -0.980638 -0.195827
0.103104 -0.0517642 0.420888 0 0.0921924 0.995741
0.0878938 0.144861 0.567358 0 -0.969332 0.245756
-0.059266 0.137921 0.53013 0 -0.985627 0.168937
0.195358 -0.151517 0.426873 -0.155757 0.0623481 0.985826
0.0357093 0.132805 0.500279 0 -0.985627 0.168937
-0.168112 -0.235531 0.426559 0 -0.413646 0.910438
0.197231 -0.0115968 0.415796 -0.0990309 -0.0917534 -0.990845
0.184386 -0.252392 0.409344 -0.684567 -0.51596 0.51493
0.0401942 -0.251418 0.40914 0 -0.707813 0.7064
0.0975123 -0.232178 0.428082 0 -0.413646 0.910438
0.184504 0.175407 0.670361 0.0354539 -0.955344 0.293362
0.119146 0.136883 0.52407 0 -0.985627 0.168937
-0.0614647 -0.230332 0.428921 0 -0.413646 0.910438
0.214932 -0.258374 0.282382 -0.871717 -0.489997 -0.0035109
0.20442 0.141488 0.522345 0.87636 -0.464624 0.126954
-0.197594 -0.201748 0.431859 0.0996454 0.0628041 0.993039
0.0165966 0.173814 0.410488 0.0439059 0.831667 0.553536
-0.119444 0.13375 0.505795 0 -0.985627 0.168937
-0.213985 -0.127615 0.409165 -0.553094 -0.0477992 -0.831747
-0.196578 0.140009 0.531336 -0.185094 -0.964919 0.186201
-0.119193 0.110947 0.405894 0 0.0879614 0.996124
0.185529 0.181157 0.681355 -0.0892468 -0.950802 0.296667
0.0974804 0.0828251 0.408427 0 0.0921924 0.995741
-0.0428799 0.172988 0.409644 -0.0439059 0.831667 0.553536
0.19685 -0.171355 0.412144 0 -0.0573738 -0.998353
-0.1367 0.155637 0.409657 -0.28304 0.959108 0
-0.220339 -0.265999 0.117905 0.456395 -0.889452 0.0240722
0.18834 0.139339 0.510652 -0.989309 -0.144841 -0.0170208
0.00367454 -0.0598083 0.421466 0 0.0631182 0.998006
-0.235012 -0.0100805 0.00522736 0.967096 0 -0.254411
0.244948 0.171569 0.00218923 0.707043 -1.75627e-05 -0.70717
0.141789 0.115195 0.405519 0 0.0879614 0.996124
0.0899178 0.159294 0.624286 0 -0.969332 0.245756
0.0501873 0.159027 0.623235 0 -0.969332 0.245756
-0.14618 -0.0494517 0.420674 0 0.0921924 0.995741
-0.016638 0.0556263 0.410945 0 0.0921924 0.995741
-0.149953 0.169984 0.656695 0 -0.948682 0.316232
-0.170049 0.063881 0.410181 0 0.0921924 0.995741
0.196621 -0.0899018 0.407463 0 -0.0573738 -0.998353
0.150717 0.148984 0.583623 0 -0.969332 0.245756
0.13473 0.125383 0.404619 0 0.0879614 0.996124
0.20228 -0.162056 0.42857 -0.141239 0.0641007 0.987898
-0.0440585 0.0208897 0.414161 0 0.0921924 0.995741
0.0010967 0.145297 0.569079 0 -0.969332 0.245756
0.217551 -0.260551 0.269749 -0.513506 -0.857837 0.0206714
-0.185281 0.164157 0.636022 -0.126418 -0.938852 0.320274
0.102728 -0.166584 0.428219 0 0.0631182 0.998006
-0.0312012 -0.256113 0.389352 0 -0.966106 -0.258145
-0.0210171 -0.249011 0.395476 0 -0.514739 -0.857347
-0.114137 -0.247003 0.385737 0 0.708946 -0.705263
-0.233054 0.255115 0.0687742 0.899446 0.420562 0.118851
0.0658911 0.147899 0.579342 0 -0.969332 0.245756
-0.188671 -0.216204 0.42948 0.10443 -0.0586992 0.992798
0.0399433 -0.239403 0.39286 0 0.98643 -0.164182
-0.104725 0.144444 0.565717 0 -0.969332 0.245756
-0.189878 0.215504 0.701169 0.179757 0.777557 -0.602571
-0.214637 0.0306092 0.397466 -0.552089 -0.0768687 -0.830235
-0.199745 -0.249498 0.4133 0.0198109 0.782189 -0.622726
0.179011 0.180536 0.684979 -0.231365 0.91883 -0.31972
0.189125 0.140925 0.419474 0.0383056 0.433783 0.900203
-0.154678 -0.0431685 0.420092 0 0.0921924 0.995741
0.177706 -0.225762 0.42979 0 -0.116741 0.993162
0.156718 0.136059 0.396186 -0.30642 -0.951896 0
0.0877315 0.180189 0.687311 0 -0.948682 0.316232
0.0479294 0.161642 0.391041 -0.0622384 -0.947564 -0.313448
0.0988689 0.0741533 0.40923 0 0.0921924 0.995741
0.0722621 0.167725 0.413653 0.0626621 0.554309 0.829949
0.129931 -0.0451718 0.420278 0 0.0921924 0.995741
0.0138833 0.133548 0.504613 0 -0.985627 0.168937
-0.181264 0.141422 0.550552 0 -0.985627 0.168937
-0.046444 0.181726 0.690342 0 -0.808461 0.588549
0.12238 -0.207431 0.430802 0 0.0631182 0.998006
0.0194279 -0.239475 0.40152 0 0.961603 0.274445
-0.212427 0.183821 0.667862 -0.853534 0.514324 -0.0833725
-0.214765 -0.246569 0.3622 0.487757 0.871648 -0.0481925
-0.00887908 -0.192462 0.429856 0 0.0631182 0.998006
-0.21327 0.162327 0.630638 -0.633627 -0.718546 0.28672
0.201655 -0.0287542 0.420585 -0.0997902 0.091718 0.990772
-0.0829203 0.162841 0.389426 -0.0164726 0 -0.999864
0.208057 -0.245197 0.39071 0.0684933 0.965091 0.2528
-0.150188 0.138869 0.53566 0 -0.985627 0.168937
0.11952 -0.0995018 0.423976 0 0.0631182 0.998006
-0.22638 0.211546 0.172074 0.996009 -0.0527856 -0.0719694
-0.183681 0.0589846 0.398862 0.99589 0.0083499 0.0901848
-0.171519 0.0540956 0.411087 0 0.0921924 0.995741
-0.197638 0.162303 0.626074 0.71753 -0.676984 0.163837
-0.22128 0.140302 0.473732 -0.983372 0.177139 0.0400254
0.189748 -0.175294 0.427491 -0.155757 0.0623481 0.985826
0.216428 0.14512 0.569406 0.745526 -0.629161 0.21988
0.18403 -0.213599 0.41756 -0.804643 -0.038642 -0.5925
-0.189655 0.190728 0.698459 0.0372821 -0.601554 0.797962
-0.0591758 0.143052 0.560064 0 -0.985627 0.168937
-0.216413 -0.260505 0.201025 0.839734 -0.542998 8.30388e-05
-0.174261 0.138036 0.5308 0 -0.985627 0.168937
-0.17959 0.138892 0.535795 0 -0.985627 0.168937
-0.214869 -0.256682 0.363978 0.513655 -0.857748 0.0206637
0.0166936 0.042639 0.412148 0 0.0921924 0.995741
-0.0388966 0.138485 0.533421 0 -0.985627 0.168937
0.190162 -0.0946844 0.422458 -0.155757 0.0623481 0.985826
-0.17531 -0.0379457 0.419609 0 0.0921924 0.995741
-0.228433 -0.258729 0.0783949 -0.456444 0.889442 -0.023484
-0.201677 0.146998 0.561262 0.128573 -0.965771 0.225291
0.055954 -0.131792 0.426019 0 0.0631182 0.998006
0.0510774 0.195466 0.704991 0 -0.624842 0.780751
0.0179025 0.170354 0.657805 0 -0.948682 0.316232
-0.0378996 -0.200189 0.430344 0 0.0631182 0.998006
-0.13958 0.225375 0.704406 -0.0938975 0.703851 -0.704114
-0.0271644 0.244385 0.708883 -0.00445716 0.274403 -0.961604
-0.208616 0.147644 0.492191 0.699816 0.702106 -0.131545
0.211234 -0.088123 0.405628 -0.141032 -0.0568004 -0.988374
-0.0949854 -0.0687331 0.42203 0 0.0631182 0.998006
-0.234866 -0.0682643 0.00579095 0.965929 0 0.258807
0.00831753 0.0469055 0.411753 0 0.0921924 0.995741
0.0838057 0.0645494 0.410119 0 0.0921924 0.995741
0.193756 0.153021 0.581171 -0.372251 0.895443 -0.244156
0.186784 0.14176 0.546084 -0.376649 0.910229 -0.172102
0.0743449 0.1793 0.684643 0 -0.948682 0.316232
-0.183595 -0.0336798 0.419225 0.0996754 0.0917333 0.990782
-0.225819 0.198977 0.194612 0.824436 -0.511207 -0.242843
0.182142 0.172807 0.662619 0.126498 -0.938833 0.320297
0.205335 -0.0556193 0.40459 -0.14067 -0.0912756 -0.98584
0.175718 0.21499 0.712163 -0.0256664 -0.0835399 0.996174
0.179212 0.199157 0.696351 -0.00892882 0.622578 -0.782507
0.0190566 -0.25915 0.398357 0 -0.919011 0.394231
-0.213493 -0.250273 0.322621 0.858775 0.510509 -0.0434212
0.173079 0.217985 0.71236 -0.023832 -0.0952283 0.99517
-0.154233 -0.0383115 0.419643 0 0.0921924 0.995741
-0.175789 0.188788 0.699176 0.17817 0.698997 -0.692574
-0.235098 -0.108082 0.00665464 0.964916 -2.40525e-05 0.262558
-0.0524788 0.172581 0.404988 -0.0641524 0.995978 -0.0625409
0.0727254 0.162964 0.635636 0 -0.948682 0.316232
0.0340452 -0.158011 0.427677 0 0.0631182 0.998006
-0.245664 -0.230625 0.00866581 -0.965929 2.20079e-05 0.258809
-0.175836 0.0659306 0.409991 0 0.0921924 0.995741
-0.0850619 -0.0966696 0.423797 0 0.0631182 0.998006
-0.144971 -0.244076 0.384651 0 -0.980638 -0.195827
-0.196942 0.137805 0.505357 0.333717 0.924207 -0.18567
0.225103 0.144048 0.471386 0.710683 0.702217 -0.0426846
-0.128171 -0.20403 0.430587 0 0.0631182 0.998006
0.195935 0.184534 0.695554 -0.221185 -0.850374 0.477432
0.133597 0.152185 0.596246 0 -0.969332 0.245756
0.226409 -0.255641 0.222921 0.838537 0.544844 0.000464329
0.113265 0.17934 0.684762 0 -0.948682 0.316232
0.243486 0.249314 0.00236511 0.706657 0.151569 -0.691131
0.185139 0.1852 0.691242 -0.21563 0.803811 -0.554428
0.00506945 -0.244246 0.3855 0 -0.980638 -0.195827
0.0606761 -0.255113 0.407046 0 -0.813892 0.581016
0.187501 0.125947 0.392673 0 0 -1
0.164613 0.13989 0.541619 0 -0.985627 0.168937
0.0881297 0.158692 0.621914 0 -0.969332 0.245756
0.0230328 -0.203229 0.430537 0 0.0631182 0.998006
-0.219818 -0.246607 0.365815 -0.51373 0.857687 -0.021329
0.185576 0.195863 0.703669 -0.0988674 0.615705 -0.78175
0.184271 -0.0809766 0.417557 -0.995993 0.00564503 0.0892578
0.195737 0.0544324 0.412288 -0.0997902 0.091718 0.990772
0.101008 0.182495 0.691398 0 -0.808461 0.588549
-0.00289382 -0.0479106 0.420531 0 0.0921924 0.995741
0.192252 0.177796 0.646145 -0.05662 0.958308 -0.280072
0.165641 -0.102151 0.424144 0 0.0631182 0.998006
-0.237064 -0.120719 0.00144996 0.709046 1.61547e-05 -0.705163
0.218796 0.143419 0.46677 0.347324 0.931195 -0.110646
0.210254 0.131365 0.489345 -0.632168 -0.771642 0.0702312
-0.164004 -0.245649 0.408126 0 0.555152 0.831749
-0.202136 -0.011283 0.41758 0.140938 0.0912722 0.985802
0.0918001 0.157273 0.616318 0 -0.969332 0.245756
0.185142 0.0523712 0.395672 -0.705786 -0.0653114 -0.705408
0.0205935 0.132915 0.500923 0 -0.985627 0.168937
0.0117576 0.146981 0.575722 0 -0.969332 0.245756
-0.0660532 0.0890598 0.40785 0 0.0921924 0.995741
0.223525 0.188503 0.225655 -0.993487 0.113618 -0.00861082
-0.244975 0.112541 0.00935062 -0.707036 3.37147e-05 0.707177
0.213746 -0.140788 0.421452 0.948202 0.014658 0.317329
0.1619 -0.129988 0.425904 0 0.0631182 0.998006
0.181563 -0.259478 0.387942 0 -0.709408 -0.704798
-0.111642 -0.25118 0.395971 0 0.447112 -0.894478
0.210584 -0.224863 0.427815 0 -0.0618587 0.998085
0.182151 0.170745 0.63696 -0.96188 -0.270778 0.0382847
-0.0450244 0.135497 0.515985 0 -0.985627 0.168937
-0.181788 -0.253647 0.4091 0 -0.813892 0.581016
-0.142595 -0.257457 0.386988 0 0.913644 -0.406516
-0.102513 0.14957 0.585932 0 -0.969332 0.245756
0.0471294 -0.0556478 0.421203 0 0.0631182 0.998006
-0.23516 0.0179224 0.00688576 0.965929 0 0.258807
0.156525 0.147751 0.578759 0 -0.969332 0.245756
0.131973 0.146416 0.41425 -0.277491 -0.828384 0.4866
-0.00527707 0.167573 0.4121 0.071425 -0.827783 0.556483
0.105453 0.232841 0.706338 0.0213532 0.274343 -0.961395
0.207616 0.202212 0.707681 0.616294 -0.0516281 0.785822
-0.0194535 0.146171 0.572529 0 -0.969332 0.245756
0.112174 -0.0284506 0.41873 0 0.0921924 0.995741
0.184605 -0.18064 0.414629 -0.804643 -0.038642 -0.5925
-0.0364724 0.23641 0.71534 -0.00186761 -0.164284 0.986411
-0.139232 -0.0910066 0.423439 0 0.0631182 0.998006
-0.191936 -0.0360118 0.403666 0 -0.0921925 -0.995741
-0.196245 -0.166103 0.427937 0.155853 0.0623471 0.985811
0.0468938 -0.252344 0.410926 0 -0.813892 0.581016
0.0769454 0.231973 0.714432 0.00301954 -0.178905 0.983862
0.20344 -0.00987837 0.417251 0.708673 0.0650451 0.702532
0.199722 -0.254959 0.386625 0 -0.708948 -0.705261
-0.162666 0.154211 0.604237 0 -0.969332 0.245756
-0.0970441 0.0455184 0.411881 0 0.0921924 0.995741
0.204602 -0.244722 0.421616 0.439843 -0.561154 0.701173
0.143853 0.231439 0.713611 0.0682532 0.313219 0.947225
0.19943 -0.195327 0.431635 -0.0996453 0.0628041 0.993039
-0.246012 0.0427808 0.00734534 -0.965929 2.20079e-05 0.258809
0.0256803 0.240986 0.707906 0.00445716 0.274403 -0.961604
0.201256 -0.114542 0.42671 -0.0996641 0.0628018 0.993037
-0.00532648 0.136042 0.519164 0 -0.985627 0.168937
0.0550058 0.160454 0.628106 0 -0.948682 0.316232
0.201506 0.0552162 0.394875 -0.140668 -0.0912758 -0.98584
-0.0536897 0.162382 0.633889 0 -0.948682 0.316232
0.137966 0.018219 0.414409 0 0.0921924 0.995741
-0.108247 0.150123 0.588115 0 -0.969332 0.245756
-0.00269645 -0.00735689 0.416777 0 0.0921924 0.995741
0.0367755 0.105681 0.406359 0 0.0879614 0.996124
-0.0248487 0.141659 0.551938 0 -0.985627 0.168937
0.117314 0.225877 0.702492 0.0500408 0.448802 -0.892229
-0.188483 0.134466 0.507661 -0.141334 -0.974706 0.173128
-0.224933 0.135384 0.493569 -0.945805 -0.315384 0.0773707
0.221722 -0.255909 0.120236 -0.541046 0.839639 -0.0477071
-0.210654 -0.0306266 0.401517 0.140552 -0.0912771 -0.985857
-0.230075 0.203918 0.203869 -0.0916771 0.925674 0.367046
0.0118467 0.175247 0.408712 0.0439059 0.831667 0.553536
-0.144531 0.172913 0.665484 0 -0.948682 0.316232
-0.118371 0.140018 0.542362 0 -0.985627 0.168937
-0.0660549 0.0978125 0.407054 0 0.0879614 0.996124
-0.11563 0.1381 0.531175 0 -0.985627 0.168937
-0.0758476 -0.18897 0.429635 0 0.0631182 0.998006
0.22651 -0.270046 0.041842 0.0493116 -0.997912 0.0417131
-0.100748 0.080941 0.408601 0 0.0921924 0.995741
-0.224164 -0.256598 0.293423 -0.859907 -0.508653 0.0428
-0.236999 0.175168 0.00152801 0.707046 3.36461e-05 -0.707168
-0.0419176 -0.161587 0.427903 0 0.0631182 0.998006
-0.190069 0.0385785 0.413186 0.0996754 0.0917333 0.990782
-0.193669 -0.0212929 0.402303 0 -0.0921925 -0.995741
0.244893 -0.119006 0.00943936 0.709042 1.61549e-05 0.705167
0.0672682 -0.0595422 0.421449 0 0.0631182 0.998006
0.123327 0.0521363 0.411268 0 0.0921924 0.995741
-0.23576 -0.0916648 0.00276178 0.709046 1.61547e-05 -0.705163
0.224579 -0.2531 0.293459 0.999594 -0.0107037 0.0264202
-0.201529 0.0880819 0.408293 0.140938 0.0912722 0.985802
0.0157624 -0.238741 0.398949 0 0.961603 0.274445
-0.162789 -0.201177 0.430407 0 0.0631182 0.998006
-0.0707424 0.0686477 0.40974 0 0.0921924 0.995741
-0.210118 0.154467 0.519721 0.36517 0.913824 -0.177696
-0.0271403 0.0825069 0.408457 0 0.0921924 0.995741
-0.0657068 0.15267 0.598161 0 -0.969332 0.245756
0.0106416 0.0320063 0.413132 0 0.0921924 0.995741
-0.177142 0.0925702 0.407525 0 0.0921924 0.995741
-0.123199 -0.130816 0.425957 0 0.0631182 0.998006
-0.107727 0.158217 0.389835 -0.0164726 0 -0.999864
-0.169886 -0.255797 0.406089 0 -0.813892 0.581016
0.0739378 0.147344 0.577153 0 -0.969332 0.245756
0.0387205 0.173254 0.409575 0.0439059 0.831667 0.553536
0.240381 0.194205 0.0114871 -0.257892 -1.23146e-05 0.966174
-0.23751 -0.25846 0.00627365 -0.393935 -0.658631 -0.641108
0.214152 -0.0736304 0.406174 0.553094 -0.0477992 -0.831747
0.0262489 0.0782851 0.408847 0 0.0921924 0.995741
-0.009276 0.146169 0.572521 0 -0.969332 0.245756
0.171619 0.121487 0.404963 0 0.0879614 0.996124
-0.0289077 0.155076 0.607652 0 -0.969332 0.245756
0.245362 -0.244552 0.00841766 0.957645 -0.121331 0.261143
-0.0834273 0.15644 0.391181 0.126446 -0.825881 -0.549483
0.0424686 -0.259621 0.393758 0 -1 0
-0.00628844 -0.256107 0.389329 0 -0.966106 -0.258145
-0.137468 0.1529 0.417003 -0.0687695 0.432525 0.898996
-0.150406 0.0963817 0.40718 0 0.0879614 0.996124
0.192914 0.181503 0.677073 0.607166 0.767779 -0.204608
0.127267 0.112089 0.405793 0 0.0879614 0.996124
-0.150481 0.146591 0.574184 0 -0.969332 0.245756
-0.0216994 -0.259621 0.389993 0 -1 0
0.0297673 -0.250209 0.413916 0 -0.813892 0.581016
-0.188479 -0.253502 0.408881 0.0729854 -0.803991 0.590146
-0.113056 -0.111269 0.424721 0 0.0631182 0.998006
0.142858 0.137221 0.526044 0 -0.985627 0.168937
0.0404155 0.147501 0.577771 0 -0.969332 0.245756
-0.231496 -0.2654 0.0321978 -0.998296 0.0529735 0.0244679
0.198986 0.119671 0.406685 -0.0999916 0.0874009 0.991142
0.131709 0.191755 0.702021 0 -0.624842 0.780751
0.0695646 0.136039 0.519146 0 -0.985627 0.168937
-0.193501 -0.0228424 0.417209 0.099031 -0.0917534 -0.990845
-0.0820481 -0.070529 0.422144 0 0.0631182 0.998006
0.176294 -0.139826 0.426527 0 0.0631182 0.998006
0.0234806 0.0758301 0.409075 0 0.0921924 0.995741
0.210959 0.168654 0.590636 0.21646 0.958181 -0.187176
-0.24188 0.245646 0.0875052 -0.823084 0.512325 0.245063
0.213999 -0.0591567 0.412557 0.995028 0.00571392 0.099427
0.0349367 0.114988 0.405537 0 0.0879614 0.996124
0.197519 0.0171566 0.413105 -0.0990309 -0.0917534 -0.990845
-0.220347 -0.253866 0.38216 -0.920224 -0.323256 0.220667
-0.183489 0.172817 0.630879 0.0566634 0.958305 -0.280074
-0.0216281 -0.226749 0.429674 0 -0.116741 0.993162
0.189407 0.137037 0.50858 0.0851309 -0.975638 0.202194
0.224225 -0.259205 0.0364514 -0.0458731 0.998102 -0.0410774
-0.0514484 -0.16354 0.428026 0 0.0631182 0.998006
-0.153052 0.132298 0.497323 0 -0.985627 0.168937
-0.0970069 0.173208 0.666368 0 -0.948682 0.316232
0.0647227 -0.0547238 0.421144 0 0.0631182 0.998006
0.0040822 0.164308 0.639669 0 -0.948682 0.316232
0.119558 0.136957 0.524503 0 -0.985627 0.168937
0.0115949 0.132512 0.49857 0 -0.985627 0.168937
0.19223 0.115118 0.40465 -0.099355 -0.0875262 -0.991195
0.198804 0.0572824 0.412333 -0.0997902 0.091718 0.990772
0.14644 0.112447 0.405761 0 0.0879614 0.996124
0.12157 0.159832 0.405002 0.269717 0.961443 -0.0536719
-0.222835 0.129526 0.421145 -0.939941 -0.322709 0.111223
-0.0410857 -0.228525 0.429465 0 -0.116741 0.993162
0.0966059 -0.148493 0.427075 0 0.0631182 0.998006
-0.0485794 0.170857 0.412755 0 0.446238 0.894914
-0.0766385 -0.0938769 0.423621 0 0.0631182 0.998006
0.213106 0.143388 0.468097 -0.638208 0.754886 -0.15112
0.189841 0.132778 0.497053 0.141334 -0.97471 0.173103
0.216546 0.13844 0.538751 0.163223 -0.973146 0.162311
-0.191418 0.133199 0.498134 -0.141334 -0.974706 0.173128
0.10433 0.155539 0.609477 0 -0.969332 0.245756
-0.238186 -0.208702 0.0108987 0.257976 -5.88804e-06 0.966151
-0.122885 -0.0177418 0.417738 0 0.0921924 0.995741
-0.156373 -0.039767 0.419777 0 0.0921924 0.995741
-0.0657735 0.165049 0.414661 0.0754287 -0.242524 0.967209
0.197157 -0.150512 0.410946 0 -0.0573738 -0.998353
0.187831 0.142402 0.51417 -0.989309 -0.144841 -0.0170208
-0.21538 0.160671 0.620657 -0.647857 -0.728347 0.223139
0.198872 -0.16761 0.428443 -0.141239 0.0641007 0.987898
-0.218233 0.142824 0.555541 -0.771091 -0.616098 0.160755
-0.140853 -0.241404 0.386375 0 0.599478 -0.800391
-0.187933 0.161587 0.615959 0.128573 -0.965771 0.225291
0.152212 0.149633 0.394692 0.250069 0.840442 -0.480753
-0.153775 0.133738 0.505724 0 -0.985627 0.168937
0.200599 -0.254363 0.412834 -0.133907 -0.77222 0.621084
-0.245876 -0.135986 0.00786381 -0.966846 0 0.255362
-0.236709 -0.0771599 0.00180778 0.709046 1.61547e-05 -0.705163
-0.0852175 0.159513 0.625151 0 -0.969332 0.245756
0.235352 0.163393 0.00396059 -0.966186 0 -0.257845
0.196741 -0.126648 0.424371 -0.0996444 -0.0627338 -0.993044
0.193856 0.146284 0.514167 -0.253145 0.950351 -0.180973
-0.202911 -0.162078 0.428693 -0.70796 0.0445759 0.704844
0.180378 0.180698 0.674679 -0.985708 -0.168353 -0.00609566
0.190131 0.159902 0.609982 -0.128573 -0.965771 0.225291
-0.131384 0.136283 0.520573 0 -0.985627 0.168937
-0.0964255 0.164717 0.396805 -0.178163 0.982067 -0.0616673
-0.115164 -0.0127421 0.417275 0 0.0921924 0.995741
0.100039 0.187528 0.698312 0 -0.808461 0.588549
0.011192 0.194955 0.704581 0 -0.624842 0.780751
-0.0575647 0.15914 0.623681 0 -0.969332 0.245756
0.218055 -0.263056 0.160294 -0.871717 -0.489997 -0.0035109
-0.164607 0.132264 0.497121 0 -0.985627 0.168937
0.214685 0.147085 0.463227 -0.218048 0.967632 -0.127053
0.225944 0.136236 0.349037 0.412931 -0.854691 -0.314629
0.201762 -0.241625 0.424392 -0.113936 -0.620772 0.775668
0.186249 0.133115 0.501536 -0.376649 0.910229 -0.172102
-0.232128 0.170808 0.273835 -0.993638 -0.112408 0.00689186
0.0911652 -0.233296 0.427574 0 -0.413646 0.910438
-0.116406 -0.114464 0.424923 0 0.0631182 0.998006
0.150248 -0.211902 0.431085 0 0.0631182 0.998006
-0.230284 0.132308 0.4183 -0.948497 0.316224 0.0188421
0.200857 -0.0947915 0.407492 -0.141032 -0.0568004 -0.988374
-0.037162 -0.234609 0.426977 0 -0.413646 0.910438
0.221781 0.152245 0.558721 0.947969 0.318088 0.0131917
0.133091 0.0637864 0.41019 0 0.0921924 0.995741
-0.212439 -0.0852353 0.405701 -0.553094 -0.0477992 -0.831747
0.00672038 0.15541 0.608967 0 -0.969332 0.245756
0.0943115 -0.252183 0.411151 0 -0.813892 0.581016
0.0321794 -0.126272 0.425669 0 0.0631182 0.998006
0.191436 -0.254067 0.411173 -0.17986 -0.794472 0.580056
0.101271 -0.21559 0.430986 0 -0.116741 0.993162
0.0965775 0.152883 0.399428 -0.177807 -0.970654 0.161913
-0.229734 0.158738 0.29478 -0.81074 -0.557884 -0.177386
0.194004 0.140942 0.52549 0.0851309 -0.975638 0.202194
-0.115654 0.0717259 0.409455 0 0.0921924 0.995741
0.202446 -0.0919761 0.407104 -0.141032 -0.0568004 -0.988374
-0.198626 0.186095 0.662304 0.159227 0.949325 -0.270977
0.23384 0.264304 0.0281429 -0.989036 -0.138596 -0.0509769
0.075483 -0.255237 0.393301 0 -0.707107 0.707107
-0.0915058 0.158621 0.621634 0 -0.969332 0.245756
-0.0729091 0.15697 0.397948 0.177771 -0.97066 0.161914
-0.213236 0.141238 0.422427 0.25784 0.954395 -0.150496
-0.228502 -0.258798 0.140084 -0.836701 0.54766 0.000334987
-0.22162 0.134251 0.502044 -0.616529 -0.771628 0.15647
0.158046 0.119807 0.405111 0 0.0879614 0.996124
-0.154837 0.112464 0.40576 0 0.0879614 0.996124
0.200743 0.194534 0.686651 -0.139219 0.831846 -0.537261
0.203477 -0.24528 0.390678 0 -0.980638 -0.195827
0.0887811 -0.152333 0.427318 0 0.0631182 0.998006
0.116665 -0.254205 0.394297 0 0.913644 -0.406516
-0.231049 0.162487 0.293724 -0.993638 -0.112408 0.00689186
-0.190355 0.142572 0.550802 -0.185094 -0.964919 0.186201
0.107231 0.150297 0.5888 0 -0.969332 0.245756
0.0282029 -0.00360692 0.416429 0 0.0921924 0.995741
-0.0791182 0.0910909 0.407662 0 0.0921924 0.995741
0.174493 0.138194 0.531724 0 -0.985627 0.168937
-0.0724566 0.175366 0.672841 0 -0.948682 0.316232
0.0957779 0.164834 0.396762 0.178161 0.982067 -0.0616674
0.215633 0.122235 0.423544 -0.249872 -0.962511 0.105532
0.219444 0.130575 0.488886 0.367354 -0.91979 0.137978
0.188372 0.139576 0.506809 -0.989309 -0.144841 -0.0170208
-0.133187 0.143696 0.401012 0.292984 -0.944502 0.148579
-0.183728 0.00587489 0.415527 0.0991459 -0.0917382 -0.990835
0.186007 0.163731 0.634488 0.126498 -0.938833 0.320297
0.197951 -0.203275 0.43199 -0.0996453 0.0628041 0.993039
0.185136 -0.124927 0.425421 -0.0990367 -0.0628079 -0.9931
-0.00186932 -0.00342778 0.416413 0 0.0921924 0.995741
0.228205 -0.258327 0.130425 0.838537 0.544844 0.000464329
-0.230969 0.130355 0.408664 -0.944461 -0.314936 0.0938582
0.125946 0.15864 0.40563 0.269717 0.961443 -0.0536719
-0.090646 0.15531 0.608573 0 -0.969332 0.245756
-0.229012 0.135188 0.433973 -0.948497 0.316224 0.0188421
0.0159195 0.145984 0.571788 0 -0.969332 0.245756
0.0635529 0.185801 0.69594 0 -0.808461 0.588549
0.201142 0.141046 0.48686 -0.225288 0.885994 -0.405291
-0.103823 -0.151881 0.427289 0 0.0631182 0.998006
-0.18422 0.0107634 0.409271 0.99589 0.00834994 0.090185
0.216605 -0.260799 0.190755 -0.838058 -0.545581 0.000234054
-0.139016 0.161006 0.629762 0 -0.948682 0.316232
0.213287 0.131608 0.437539 -0.327129 -0.937912 0.115359
-0.0721093 -0.135836 0.426274 0 0.0631182 0.998006
0.192062 0.151626 0.578636 -0.372251 0.895443 -0.244156
-0.206391 0.148273 0.587327 0.250537 -0.942509 0.221154
-0.219859 0.159766 0.308463 0.810802 0.558371 0.17556
0.174669 0.142874 0.393606 0.144285 0.69971 -0.699706
0.200578 -0.206854 0.43248 -0.0996453 0.0628041 0.993039
0.00475243 0.135593 0.516546 0 -0.985627 0.168937
-0.121556 0.148077 0.580047 0 -0.969332 0.245756
0.245094 -0.0613677 0.00234143 0.707043 -1.75627e-05 -0.70717
-0.0458321 0.00135076 0.41597 0 0.0921924 0.995741
-0.179674 0.0686424 0.40974 0 0.0921924 0.995741
-0.0280076 0.148397 0.581307 0 -0.969332 0.245756
0.20875 0.115179 0.401872 0.786421 0.0769744 0.612877
0.188185 0.145659 0.550698 0.0851309 -0.975638 0.202194
0.210918 0.148632 0.589556 0.354892 -0.898175 0.259485
-0.199563 0.148225 0.565633 0.041696 -0.967218 0.250501
0.186898 0.145063 0.545872 -0.989255 -0.145219 -0.0168953
-0.184106 -0.0699173 0.415051 0.995887 0.00571883 0.0904247
0.193902 0.0485328 0.410864 -0.140938 0.0912722 0.985802
0.188382 0.156019 0.599843 -0.324104 0.910117 -0.258153
0.128852 0.219574 0.711906 -0.048567 -0.437104 0.898099
0.147882 0.153515 0.601493 0 -0.969332 0.245756
0.0799112 0.167893 0.399634 0.178161 0.982067 -0.0616674
-0.246306 0.18812 0.00623593 -0.965929 2.20079e-05 0.258809
0.221052 0.148901 0.488654 0.106418 0.989613 -0.0966513
0.0365114 0.0336391 0.412981 0 0.0921924 0.995741
0.204316 0.142406 0.541212 -0.713942 -0.696934 0.0676078
0.228354 0.153758 0.3046 0.412931 -0.854691 -0.314629
-0.0926806 -0.245223 0.407842 0 0.555152 0.831749
-0.19803 -0.0549971 0.419711 0.0990368 -0.0628079 -0.9931
-0.143932 -0.137976 0.42641 0 0.0631182 0.998006
-0.133022 0.156342 0.400062 -0.269663 0.961458 -0.0536727
-0.0157306 0.157414 0.616873 0 -0.969332 0.245756
-0.192168 -0.248009 0.418666 0.128519 -0.65915 0.740948
0.211863 -0.104306 0.420558 0 0.063118 0.998006
-0.1911 -0.164661 0.428861 0.0996454 0.0628041 0.993039
-0.133119 0.156995 0.615219 0 -0.969332 0.245756
0.177713 0.1952 0.695367 -0.92842 -0.371532 -0.00073248
0.192747 0.17707 0.670428 -0.0892468 -0.950802 0.296667
-0.174861 0.13685 0.419685 0.0704967 -0.194315 0.978403
-0.199906 0.00430469 0.415818 0.140938 0.0912722 0.985802
0.208687 0.150544 0.505005 -0.698043 0.698043 -0.159603
0.194757 0.17381 0.653673 0.607166 0.767779 -0.204608
0.114052 0.234995 0.707138 0.0200923 0.269221 -0.962869
-0.0806173 0.16818 0.406616 -0.179864 0.982162 -0.0548285
-0.0633079 0.144063 0.564213 0 -0.969332 0.245756
-0.180735 -0.258067 0.400883 0 -0.919011 0.394231
0.216344 0.14959 0.479533 0.330953 0.938634 -0.0971401
-0.0775848 0.112405 0.405765 0 0.0879614 0.996124
0.192581 0.10448 0.407379 -0.0997886 0.0875224 0.991152
-0.0310604 -0.0537965 0.421076 0 0.0921924 0.995741
0.019491 0.157686 0.617944 0 -0.969332 0.245756
-0.165821 -0.196807 0.43013 0 0.0631182 0.998006
0.194384 -0.240533 0.422353 -0.0995563 0.66136 -0.743433
-0.128129 -0.144613 0.426829 0 0.0631182 0.998006
0.117743 0.149312 0.405812 -0.295495 -0.942324 0.157187
-0.184303 -0.134262 0.421294 0.995887 0.00571883 0.0904247
-0.0764769 0.137857 0.529753 0 -0.985627 0.168937
0.198067 0.186007 0.662326 -0.15889 0.949384 -0.270968
-0.239252 0.165924 0.000371183 0.258889 5.888e-06 -0.965907
-0.189879 0.150123 0.581964 -0.180542 -0.949658 0.256036
-0.0326801 0.0886178 0.407891 0 0.0921924 0.995741
0.244599 0.140987 0.0097287 0.70904 1.61712e-05 0.705168
0.0980245 -0.225016 0.429878 0 -0.116741 0.993162
-0.213988 -0.249405 0.322882 0.890759 0.452596 -0.0412964
0.198133 0.0699155 0.408158 -0.0991458 -0.0917382 -0.990835
0.0982137 -0.0825365 0.422903 0 0.0631182 0.998006
-0.1929 0.164968 0.625661 0.321661 0.90078 -0.291769
0.0597852 0.163078 0.412952 -0.17463 -0.818805 0.546866
-0.189585 0.0330691 0.412424 0.0991459 -0.0917382 -0.990835
-0.206726 0.140485 0.474055 0.930212 0.348181 -0.116083
-0.00979626 0.235764 0.703582 0.0111648 0 -0.999938
-0.183015 0.169703 0.61989 0.0571249 0.96611 -0.251731
-0.196428 0.135579 0.498069 -0.0577112 -0.988892 0.136975
0.21986 0.151479 0.505538 0.335246 0.932266 -0.135979
0.222213 -0.253001 0.375585 0.859909 -0.508652 0.0427729
-0.174497 0.203288 0.703267 0.806449 -0.590684 -0.027066
0.0538179 -0.202819 0.430511 0 0.0631182 0.998006
0.183714 -0.244108 0.408909 -0.989892 0.0787315 0.117958
0.0740798 -0.0676744 0.421963 0 0.0631182 0.998006
-0.169251 -0.247153 0.385586 0 0.708946 -0.705263
0.186498 -0.118395 0.424872 -0.0990367 -0.0628079 -0.9931
-0.0901053 -0.242732 0.385381 0 0.599478 -0.800391
-0.218762 0.156432 0.54095 -0.714915 0.695866 -0.068313
0.0142953 0.055503 0.410957 0 0.0921924 0.995741
0.24474 0.262721 0.031664 0.896694 -0.442386 -0.0152924
0.167848 0.146445 0.408153 0.283096 0.959092 0
-0.137028 0.15898 0.623051 0 -0.969332 0.245756
-0.0491537 -0.074301 0.422383 0 0.0631182 0.998006
0.163497 0.170729 0.658932 0 -0.948682 0.316232
0.198221 0.0790879 0.4073 -0.0991458 -0.0917382 -0.990835
0.0763809 -0.257811 0.386264 0 -0.709408 -0.704798
0.117 -0.0569771 0.421287 0 0.0631182 0.998006
-0.0129314 0.0235907 0.413911 0 0.0921924 0.995741
0.0418411 0.148342 0.581091 0 -0.969332 0.245756
0.0427747 -0.254495 0.386158 0 -0.708948 -0.705261
-0.235876 0.0386212 0.00264783 0.709046 1.61547e-05 -0.705163
0.183502 0.0599061 0.410549 -0.0991458 -0.0917382 -0.990835
0.213295 0.0214066 0.409616 0.999981 0.00612925 0
0.190832 -0.0800821 0.406899 0 -0.0573738 -0.998353
-0.237251 0.208386 0.00127799 0.707046 3.36461e-05 -0.707168
-0.0388219 0.172484 0.393364 -0.0649415 0.939647 -0.335925
-0.0932293 -0.106252 0.424403 0 0.0631182 0.998006
0.167699 -0.00459307 0.416521 0 0.0921924 0.995741
-0.229296 0.227026 0.139723 0.899446 0.420562 0.118851
-0.0795971 -0.072039 0.42224 0 0.0631182 0.998006
-0.0317635 0.140254 0.543739 0 -0.985627 0.168937
0.212696 -0.254178 0.321438 -0.999531 0.0142055 -0.0271345
0.240033 0.23711 0.0935021 0.412931 -0.854691 -0.314629
0.229449 -0.260199 0.0825251 0.838537 0.544844 0.000464329
0.18245 0.133264 0.502961 0 -0.985627 0.168937
0.229214 0.20353 0.17646 -0.57623 -0.749741 -0.325342
0.0774695 -0.247762 0.385059 0 0.257912 -0.966168
0.197277 0.165919 0.630869 0.79498 -0.56788 0.21335
-0.196472 -0.23406 0.427558 0.0966378 -0.382897 0.918722
0.236754 -0.0469048 0.00177059 -0.70888 0 -0.705329
-0.109356 -0.258993 0.387454 0 -0.709408 -0.704798
0.157057 0.13595 0.396747 -0.30642 -0.951896 0
-0.0331116 -0.247397 0.394855 0 0.707104 0.707109
0.242325 0.2487 0.01275 0.26404 -0.195964 0.944395
-0.152047 -0.175741 0.428798 0 0.0631182 0.998006
-0.18 0.167566 0.646982 0.231513 0.918808 -0.319677
0.182936 0.157907 0.613339 -0.324104 0.910117 -0.258153
0.0933844 -0.126994 0.425715 0 0.0631182 0.998006
-0.18819 0.0939163 0.405846 0.140938 0.0912722 0.985802
-0.191772 -0.173696 0.42784 0.0996444 -0.0627338 -0.993044
0.0295562 -0.240338 0.387245 0 0.98643 -0.164182
-0.235818 -0.151624 0.0027022 0.709046 1.61547e-05 -0.705163
-0.202084 -0.0649964 0.422244 0.141239 0.0641104 0.987897
0.237438 0.244524 0.100112 0.575693 0.750833 0.323771
-0.215808 -0.252839 0.245986 0.890759 0.452596 -0.0412964
-0.245872 -0.168391 0.00787776 -0.966846 0 0.255362
0.20635 0.153451 0.609269 -0.157609 -0.954144 0.254496
0.231796 0.247923 0.0713192 -0.826297 -0.508613 -0.241962
0.226437 0.140032 0.48079 0.947697 0.318579 0.0194344
-0.191564 0.172082 0.654087 0.0893293 -0.950796 0.296659
0.171657 -0.0654995 0.421826 0 0.0631182 0.998006
0.0702364 0.0557896 0.41093 0 0.0921924 0.995741
0.187214 -0.248046 0.416533 -0.063681 0.814395 -0.576806
0.104415 0.136164 0.519879 0 -0.985627 0.168937
0.186537 -0.0752672 0.420657 -0.155757 0.0623481 0.985826
-0.234726 0.249782 0.0870414 -0.0916771 0.925674 0.367046
-0.201778 0.0389564 0.41433 0.0997903 0.091718 0.990772
0.0935181 -0.256001 0.404548 0 -0.707813 0.7064
-0.180191 0.0160134 0.414613 0 0.0921924 0.995741
0.184308 -0.20832 0.426089 -0.995106 0.00683597 0.0985789
-0.0199695 -0.254974 0.38664 0 -0.708948 -0.705261
0.0591569 0.178519 0.682299 0 -0.948682 0.316232
0.188261 0.13942 0.514555 -0.989255 -0.145219 -0.0168953
0.218612 -0.25488 0.172964 -0.489326 0.870769 -0.0481811
-0.208936 0.12926 0.45121 0.671483 -0.73895 0.0553476
0.174635 0.101237 0.406751 0 0.0879614 0.996124
-0.183879 -0.257261 0.387577 -0.151152 0.903146 -0.401845
-0.137655 0.222953 0.712864 -0.00632954 -0.10125 0.994841
-0.0813305 0.165104 0.642055 0 -0.948682 0.316232
0.214386 -0.0288189 0.402802 0.552089 -0.0768687 -0.830235
-0.20453 0.171829 0.666195 -0.119549 -0.936532 0.329569
-0.0248197 -0.256283 0.404265 0 -0.707813 0.7064
0.0861837 -0.249389 0.415065 0 -0.813892 0.581016
0.0433575 0.109935 0.405983 0 0.0879614 0.996124
0.234922 0.192013 0.218805 0.996179 0.048944 0.0723399
-0.182378 0.169216 0.632036 0.962347 -0.269186 0.0377812
0.195322 0.173753 0.631691 -0.05662 0.958308 -0.280072
0.235087 -0.0751554 0.00659995 -0.964916 0 0.262557
-0.152021 -0.179406 0.42903 0 0.0631182 0.998006
-0.185695 -0.178535 0.429196 0.0996454 0.0628041 0.993039
0.190044 -0.23981 0.390417 0 0.98643 -0.164182
0.208056 -0.14311 0.409242 -0.141032 -0.0568004 -0.988374
0.201388 -0.124762 0.409139 -0.141032 -0.0568004 -0.988374
-0.0199372 0.0388223 0.412501 0 0.0921924 0.995741
0.0280124 0.166919 0.6475 0 -0.948682 0.316232
0.0635016 0.161085 0.410667 -0.183257 -0.966208 0.181273
0.194963 -0.188636 0.413137 0 -0.0573738 -0.998353
-0.084963 -0.0200672 0.417954 0 0.0921924 0.995741
-0.186423 -0.0591506 0.421132 0.0990368 -0.0628079 -0.9931
0.202965 -0.175397 0.429493 0.708155 0.0445635 0.704649
0.213718 -0.047672 0.415427 0.999981 0.00612925 0
-0.0879116 -0.0267327 0.418571 0 0.0921924 0.995741
-0.183054 0.182398 0.687401 0.231513 0.918808 -0.319677
-0.0191355 0.162108 0.633068 0 -0.948682 0.316232
-0.232548 0.174115 0.267191 -0.993638 -0.112408 0.00689186
-0.134637 0.187171 0.697822 0 -0.808462 0.588549
-0.158751 0.143244 0.390682 -0.0150207 -0.00502876 -0.999874
0.0672365 -0.0853973 0.423084 0 0.0631182 0.998006
-0.0186786 -0.245422 0.391392 0 -0.980638 -0.195827
-0.14192 -0.239112 0.394607 0 0.98643 -0.164182
0.231008 -0.264592 0.0504131 0.998297 0.0529744 0.0244365
0.187201 0.0803914 0.392889 0 -0.0921925 -0.995741
-0.0583164 0.171902 0.401133 -0.178163 0.982067 -0.0616673
0.227842 0.137937 0.446431 0.947744 0.318481 0.0187524
-0.0301181 0.172112 0.391039 -0.0571269 0.707363 -0.704538
-0.236428 0.226985 0.115127 0.0915741 -0.925037 -0.368675
0.18716 0.17338 0.656775 -0.126456 -0.949864 0.285949
-0.168307 0.160152 0.627201 0 -0.948682 0.316232
0.00869194 0.17531 0.403521 0.0641524 0.995978 -0.0625409
-0.202208 0.13451 0.489356 -0.0826505 -0.985028 0.151288
-0.0332953 0.176162 0.675228 0 -0.948682 0.316232
-0.0782791 -0.00850917 0.416883 0 0.0921924 0.995741
0.225235 0.143067 0.457439 0.710683 0.702217 -0.0426846
-0.137856 0.234021 0.708036 -0.0923205 0.701789 -0.706378
0.223576 -0.253496 0.33124 0.999594 -0.0107037 0.0264202
-0.214538 0.0298378 0.399046 -0.995037 0.00917349 0.0990799
0.225155 -0.25551 0.27069 0.999594 -0.0107037 0.0264202
0.194134 -0.238519 0.403238 0 1 0
0.174358 0.131827 0.404638 -0.257921 -0.954429 0.15014
-0.187678 -0.00394667 0.414833 0.140939 0.091272 0.985802
0.187924 -0.0632172 0.40593 0 -0.0573738 -0.998353
-0.200279 0.00480151 0.417341 0.0997903 0.091718 0.990772
-0.0769656 -0.022485 0.418177 0 0.0921924 0.995741
-0.192373 -0.126968 0.426605 0.0996642 0.0628018 0.993037
-0.0350578 -0.103953 0.424258 0 0.0631182 0.998006
0.12095 0.146933 0.397458 -0.292984 -0.944502 0.148579
0.171432 0.149145 0.584256 0 -0.969332 0.245756
-0.166877 0.0792589 0.408757 0 0.0921924 0.995741
0.200404 -0.00452871 0.414824 -0.0990309 -0.0917534 -0.990845
-0.245794 0.0435906 0.003431 -0.965181 -2.39747e-05 -0.261583
0.224549 0.145151 0.511171 0.980577 0.194533 0.02502
0.0790669 0.164181 0.639285 0 -0.948682 0.316232
0.000217125 -0.138839 0.426464 0 0.0631182 0.998006
0.238705 0.0448215 0.0110378 -0.257891 -1.23178e-05 0.966174
-0.0479609 -0.0311959 0.418984 0 0.0921924 0.995741
0.00780205 -0.0865938 0.42316 0 0.0631182 0.998006
-0.189031 0.19813 0.704011 0.0372821 -0.601554 0.797962
-0.20063 0.181633 0.645496 0.159227 0.949325 -0.270977
-0.132656 0.105473 0.406377 0 0.0879614 0.996124
0.223449 0.138273 0.513137 0.77009 -0.617312 0.160892
0.118373 0.230903 0.714116 0.00283939 -0.178889 0.983865
-0.1782 -0.185056 0.429387 0 0.0631182 0.998006
-0.178884 -0.255028 0.392446 0 0.913644 -0.406516
-0.200185 -0.141231 0.428291 0.0996642 0.0628018 0.993037
-0.197737 0.168748 0.65243 0.481796 -0.837875 0.25659
-0.160214 0.212584 0.707928 0.155324 -0.987864 0
0.204316 0.191824 0.682207 0.200461 0.948018 -0.247137
0.00981924 0.132588 0.499011 0 -0.985627 0.168937
-0.211776 -0.253747 0.378066 0.85801 -0.495165 -0.136489
0.172884 0.13867 0.390981 0.0259995 -0.00860052 -0.999625
0.214924 -0.245756 0.375317 -0.489326 0.870769 -0.0481811
-0.214287 -0.19696 0.417896 -0.995887 0.00571885 0.0904247
-0.137941 0.142396 0.402121 0.292984 -0.944502 0.148579
0.194244 -0.0188978 0.402082 0 -0.0921925 -0.995741
0.156216 -0.229587 0.429259 0 -0.413646 0.910438
-0.173526 0.196735 0.706046 0.0311185 -0.626444 0.778845
-0.0932621 0.0568411 0.410833 0 0.0921924 0.995741
0.031986 0.137134 0.525535 0 -0.985627 0.168937
-0.0532943 0.194349 0.704096 0 -0.624842 0.780751
0.234854 0.268278 0.0260223 -0.924796 0.380088 0.0168672
-0.171253 0.153168 0.600127 0 -0.969332 0.245756
0.0713358 0.226428 0.705208 -0.0447046 -0.893484 -0.446865
-0.188591 0.141773 0.542188 0.376419 0.91031 -0.172176
-0.00726254 0.140892 0.547461 0 -0.985627 0.168937
-0.1728 0.0312932 0.413198 0 0.0921924 0.995741
0.190137 0.158813 0.575626 -0.172574 0.958212 -0.22814
-0.102649 -0.197472 0.430172 0 0.0631182 0.998006
0.111476 0.159189 0.623873 0 -0.969332 0.245756
0.0114242 -0.259621 0.388809 0 -1 0
0.0912034 0.121479 0.404964 0 0.0879614 0.996124
-0.203457 -0.155641 0.428323 0.141239 0.0641104 0.987897
0.214706 0.13002 0.394843 -0.981605 -0.190887 -0.00381223
-0.11409 0.121224 0.404986 0 0.0879614 0.996124
-0.154424 -0.213203 0.431167 0 0.0631182 0.998006
0.217905 0.129869 0.445433 0.169543 -0.980948 0.0948476
-0.182278 0.156583 0.611283 -0.180542 -0.949658 0.256036
-0.200099 0.145656 0.538763 0.333717 0.924207 -0.18567
0.190177 0.171766 0.652654 -0.0892468 -0.950802 0.296667
-0.179614 -0.251891 0.395616 0 0.447112 -0.894478
0.0479063 -0.256879 0.388287 0 0.913644 -0.406516
0.186187 -0.210889 0.431291 -0.0996453 0.0628041 0.993039
-0.150965 -0.241556 0.405394 0 0.555152 0.831749
0.195063 0.0638253 0.409614 -0.140938 0.0912722 0.985802
0.202875 -0.0917047 0.42429 0.708222 0.0445608 0.704582
-0.101297 0.180384 0.687895 0 -0.948682 0.316232
-0.0369124 0.158946 0.622915 0 -0.969332 0.245756
-0.213075 -0.247412 0.394516 0 -0.514739 -0.857347
0.196296 0.145361 0.544314 -0.376649 0.910229 -0.172102
0.0430783 0.0379382 0.412583 0 0.0921924 0.995741
-0.116653 0.232044 0.706359 -0.0213503 0.274343 -0.961395
0.194298 0.189464 0.700644 -0.667545 -0.481671 0.567782
-0.243795 -0.133291 0.0105425 -0.707036 3.37147e-05 0.707177
0.221252 0.153674 0.538786 0.71287 0.697922 -0.068705
-0.0415139 0.0337833 0.412968 0 0.0921924 0.995741
-0.21833 0.12091 0.41778 0.149574 -0.985282 0.0827466
-0.213787 -0.161258 0.421136 -0.995887 0.00571885 0.0904247
-0.219228 0.129175 0.435871 -0.168878 -0.98107 0.0947673
0.0938523 -0.0211747 0.418056 0 0.0921924 0.995741
0.128393 -0.154654 0.427464 0 0.0631182 0.998006
-0.243371 0.255087 0.0168808 -0.744382 -0.416687 0.521793
0.188923 -0.000883356 0.415634 -0.0991458 -0.0917382 -0.990835
-0.197792 0.162903 0.629226 0.71753 -0.676984 0.163837
0.235011 0.0488621 0.00632242 -0.964916 0 0.262557
0.182774 0.169155 0.617841 -0.057081 0.966111 -0.251738
0.0876244 -0.0348204 0.419319 0 0.0921924 0.995741
0.0690058 0.17018 0.404564 0.178161 0.982067 -0.0616674
-0.241251 0.248918 0.0827784 -0.823084 0.512325 0.245063
-0.0150411 0.0618649 0.410368 0 0.0921924 0.995741
-0.189801 0.169382 0.642703 0.321661 0.90078 -0.291769
0.216185 0.128183 0.479595 -0.329016 -0.938837 0.101655
-0.195512 -0.0270476 0.418092 0.140939 0.091272 0.985802
-0.213867 0.136405 0.429164 0.635692 0.758129 -0.145382
-0.04066 0.187007 0.697596 0 -0.808462 0.588549
0.203099 -0.0678598 0.422575 -0.141239 0.0641007 0.987898
0.070806 -0.239302 0.393465 0 0.98643 -0.164182
-0.235165 0.0714687 0.00690498 0.965929 0 0.258807
-0.00191335 0.232193 0.714702 -0.00301928 -0.178902 0.983862
-0.210081 0.14304 0.462247 0.670318 0.727456 -0.14657
-0.184262 -0.151358 0.421928 0.995887 0.00571883 0.0904247
-0.214063 0.164129 0.633399 -0.633627 -0.718546 0.28672
-0.211437 -0.0918394 0.419769 0 0.063118 0.998006
0.118585 0.153351 0.600847 0 -0.969332 0.245756
-0.00221001 0.0265187 0.41364 0 0.0921924 0.995741
0.124748 0.18252 0.691433 0 -0.808461 0.588549
-0.111169 -0.253914 0.394605 0 0.447112 -0.894478
-0.175138 0.15557 0.609599 0 -0.969332 0.245756
-0.0122586 0.0440521 0.412017 0 0.0921924 0.995741
-0.22334 -0.250732 0.284931 -0.873305 0.487164 0.00305305
0.222108 0.133366 0.4524 0.935118 -0.336598 0.110702
-0.176422 -0.251546 0.395608 0 -0.257829 0.966191
0.000346422 -0.0330425 0.419155 0 0.0921924 0.995741
-0.126171 -0.250659 0.395845 0 -0.257829 0.966191
0.230243 0.1565 0.312675 0.994003 -0.109035 0.00827933
0.221147 0.15046 0.505054 0.71287 0.697922 -0.068705
0.0299579 0.0840896 0.40831 0 0.0921924 0.995741
-0.21989 0.142914 0.46977 -0.767595 0.639638 -0.0407649
0.243662 0.267086 0.0203881 0.39676 0.845507 -0.357351
-0.0607032 -0.158939 0.427735 0 0.0631182 0.998006
0.21601 0.169626 0.631512 0.980971 0.194141 -0.00237229
0.208174 -0.122303 0.408029 -0.141032 -0.0568004 -0.988374
-0.142472 0.23297 0.712774 -0.122079 0.701818 0.701818
-0.158257 -0.253606 0.406947 0 -0.707813 0.7064
0.102371 -0.191221 0.429777 0 0.0631182 0.998006
-0.080343 -0.210289 0.430983 0 0.0631182 0.998006
-0.235121 0.261216 0.0273513 0.782941 -0.613388 -0.103722
0.0938521 -0.255246 0.393291 0 -0.707107 0.707107
-0.213834 -0.240003 0.418149 -0.99398 -0.0721884 0.0824205
0.214347 0.0674204 0.397485 0.995037 0.00917349 0.0990799
-0.191822 -0.256729 0.404898 0.0729854 -0.803991 0.590146
0.213069 -0.0309499 0.415212 0 0.0921925 0.995741
-0.231156 0.131266 0.391903 -0.948497 0.316224 0.0188421
-0.135749 0.0105363 0.41512 0 0.0921924 0.995741
0.221254 0.147329 0.554251 0.92313 -0.368691 0.109081
0.242307 0.0442593 0.0111202 0.257891 1.23145e-05 0.966174
-0.0552692 -0.196362 0.430102 0 0.0631182 0.998006
0.0801431 -0.164725 0.428101 0 0.0631182 0.998006
-0.17975 -0.239336 0.393264 0 0.98643 -0.164182
0.1254 0.0687048 0.409734 0 0.0921924 0.995741
0.214159 -0.060853 0.41106 0.995028 0.00571392 0.099427
0.235608 0.0542001 0.00300074 -0.966186 0 -0.257845
-0.184192 0.0277556 0.413597 0.0996754 0.0917333 0.990782
0.034751 0.136582 0.522319 0 -0.985627 0.168937
0.184029 -0.151702 0.419348 -0.995106 0.00683597 0.0985789
-0.190955 0.04092 0.411148 0.140939 0.091272 0.985802
-0.218292 0.1625 0.596712 -0.963386 0.267544 0.0175123
-0.195402 -0.176185 0.428441 0.155853 0.0623471 0.985811
-0.195066 0.15217 0.580119 0.041696 -0.967218 0.250501
-0.214252 0.0222455 0.402622 -0.995037 0.00917349 0.0990799
-0.0575441 -0.0546953 0.421143 0 0.0631182 0.998006
-0.169572 -0.221087 0.43034 0 -0.116741 0.993162
0.234257 0.266801 0.0266155 -0.924796 0.380088 0.0168672
-0.199398 0.149634 0.523988 0.253145 0.950351 -0.180973
0.202742 -0.230474 0.427828 0.706934 0.292806 -0.643824
-0.00379224 0.148647 0.582294 0 -0.969332 0.245756
-0.0335286 -0.247843 0.408599 0 0.165066 0.986283
0.21436 0.0159619 0.40212 0.995037 0.00917349 0.0990799
0.243666 -0.0120658 0.000912467 0.707213 -1.60802e-05 -0.707001
0.200936 0.148033 0.565271 -0.128573 -0.965771 0.225291
0.0810313 -0.257211 0.402879 0 -0.919011 0.394231
-0.119842 -0.0150144 0.417486 0 0.0921924 0.995741
-0.206273 0.135396 0.480051 0.983449 -0.178349 -0.03193
-0.224653 -0.254772 0.153923 -0.51373 0.857687 -0.021329
0.107892 0.152898 0.411904 -0.183257 -0.966208 0.181273
-0.219086 -0.256849 0.36455 -0.489353 -0.870788 0.0475687
0.0848926 0.0440217 0.41202 0 0.0921924 0.995741
-0.0226335 0.173269 0.410979 -0.0426531 0.888197 0.457479
-0.226817 0.138561 0.363287 -0.908233 0.371645 0.192336
-0.0762857 0.140676 0.546203 0 -0.985627 0.168937
-0.162339 -0.198119 0.430213 0 0.0631182 0.998006
0.0554405 0.0851027 0.408216 0 0.0921924 0.995741
0.199174 -0.218387 0.429078 -0.0993313 0.115835 -0.988289
0.126432 0.0117764 0.415005 0 0.0921924 0.995741
-0.245657 -0.0969217 0.00293945 -0.965181 -2.39747e-05 -0.261583
0.0437655 0.243605 0.708781 0.0212442 0.553951 -0.832278
0.201601 0.140414 0.521872 -0.0478781 -0.985413 0.163305
-0.141202 0.0189945 0.414337 0 0.0921924 0.995741
0.229051 0.13618 0.415178 0.947744 0.318481 0.0187524
-0.206461 0.183823 0.694331 -0.22868 -0.777312 0.586082
-0.198231 0.147635 0.552106 0.376419 0.91031 -0.172176
-0.227784 0.219807 0.146001 0.993858 0.110213 -0.009921
-0.229204 -0.260842 0.115848 -0.998296 0.0529735 0.0244679
-0.0585149 0.172156 0.409625 -0.134085 0.871464 0.471775
0.20635 -0.247736 0.394711 0 -0.514739 -0.857347
0.0549559 -0.244756 0.420053 0 -0.664662 0.747144
-0.196127 0.143343 0.537944 0.0479151 -0.985412 0.163302
-0.101201 -0.206178 0.430723 0 0.0631182 0.998006
0.0994489 -0.197344 0.430164 0 0.0631182 0.998006
-0.154011 -0.128416 0.425805 0 0.0631182 0.998006
0.172406 0.174166 0.66924 0 -0.948682 0.316232
0.197496 0.140954 0.401726 0.151141 0.987133 -0.0521955
0.200518 0.149289 0.520631 -0.253145 0.950351 -0.180973
-0.105023 0.0551272 0.410992 0 0.0921924 0.995741
-0.0212799 0.172321 0.663705 0 -0.948682 0.316232
0.0256122 -0.0493637 0.420666 0 0.0921924 0.995741
-0.210088 -0.247293 0.394445 0 -0.514739 -0.857347
-0.101599 0.234569 0.706745 -0.0213503 0.274343 -0.961395
-0.0828308 0.125535 0.404606 0 0.0879614 0.996124
0.0136121 0.238032 0.715653 0.00186761 -0.164284 0.986411
-0.11549 -0.155567 0.427522 0 0.0631182 0.998006
0.214951 -0.258344 0.273291 -0.871717 -0.489997 -0.0035109
-0.0057734 -0.254493 0.393649 0 0.913644 -0.406516
-0.180856 -0.0973755 0.423842 0 0.0631182 0.998006
0.145033 -0.24727 0.417818 0 -0.664662 0.747144
0.209059 0.135734 0.52087 -0.331455 -0.935369 0.123378
0.160812 -0.259621 0.397058 0 -1 0
-0.157837 -0.083658 0.422974 0 0.0631182 0.998006
-0.123568 -0.0724287 0.422264 0 0.0631182 0.998006
-0.0379128 0.1704 0.413027 0 0.555401 0.831583
0.0180194 0.135337 0.515053 0 -0.985627 0.168937
0.196234 0.151038 0.581282 0.132097 -0.96156 0.240732
0.229961 -0.260965 0.0554623 0.838537 0.544844 0.000464329
-0.221866 0.16863 0.271348 0.907918 -0.371374 -0.194334
0.19767 -0.11547 0.424888 -0.141239 0.0641007 0.987898
-0.199689 0.125469 0.406246 0.0999917 0.0874009 0.991142
-0.195356 -0.0256771 0.402709 0 -0.0921925 -0.995741
-0.212723 0.17088 0.60354 -0.16169 0.966114 -0.201195
-0.174827 0.142828 0.558759 0 -0.985627 0.168937
-0.229561 0.195216 0.225987 0.0775713 0.929136 0.361509
-0.00567809 -0.237053 0.425867 0 -0.413646 0.910438
0.228795 0.172056 0.283536 0.575693 0.750833 0.323771
0.175009 0.138456 0.391039 0.0259995 -0.00860052 -0.999625
-0.196276 0.144766 0.546576 0.0479151 -0.985412 0.163302
-0.0653034 0.133591 0.504868 0 -0.985627 0.168937
0.206991 -0.213722 0.429876 0.560572 0.0458558 0.826835
-0.214896 0.129793 0.390104 0.944527 0.322858 -0.0602605
-0.0146022 0.149952 0.587441 0 -0.969332 0.245756
-0.134047 0.235421 0.711846 -0.119398 0.671363 0.731448
-0.184 0.148475 0.578738 0.323905 0.910188 -0.258154
-0.187382 0.110714 0.392673 0 0 -1
0.131168 0.188231 0.6992 0 -0.624842 0.780751
-0.222701 -0.252234 0.20896 -0.51373 0.857687 -0.021329
-0.237264 0.173032 0.0102923 0.707039 -1.76244e-05 0.707175
-0.206962 0.162491 0.638776 -0.119549 -0.936532 0.329569
0.154495 -0.0255244 0.418459 0 0.0921924 0.995741
0.218734 0.144282 0.436383 0.330953 0.938634 -0.0971401
-0.186189 -0.2323 0.428323 0.0995712 -0.41159 0.905913
-0.198201 0.197297 0.707102 0.1387 -0.542127 0.828771
0.19773 0.149641 0.526378 -0.253145 0.950351 -0.180973
0.113587 0.162402 0.63395 0 -0.948682 0.316232
-0.131276 -0.252783 0.395278 0 -0.257829 0.966191
0.172428 -0.246316 0.386428 0 0.708946 -0.705263
-0.104901 0.0666601 0.409924 0 0.0921924 0.995741
-0.224906 -0.269814 0.0492785 -0.0493116 -0.997912 0.0417131
-0.0844116 0.0166599 0.414553 0 0.0921924 0.995741
-0.189565 0.213127 0.711465 -0.057588 -0.216308 0.974625
0.112081 0.178888 0.683406 0 -0.948682 0.316232
-0.0911435 0.157229 0.414171 0.174037 -0.862618 0.474975
0.164855 0.13581 0.51781 0 -0.985627 0.168937
-0.209823 0.139099 0.481645 0.983299 -0.177506 -0.0401775
0.225068 0.195639 0.218713 -0.899444 0.420565 0.118852
0.199083 -0.198241 0.413689 0 -0.0573738 -0.998353
-0.112118 0.15055 0.589801 0 -0.969332 0.245756
-0.134073 -0.250707 0.396208 0 0.447112 -0.894478
-0.104067 -0.0726113 0.422276 0 0.0631182 0.998006
-0.177994 0.161048 0.629786 -0.126418 -0.938852 0.320274
0.199537 0.164382 0.591825 -0.717499 0.66697 -0.200864
0.016446 -0.251598 0.40896 0 -0.707813 0.7064
-0.16057 0.165701 0.643847 0 -0.948682 0.316232
0.178831 -0.172272 0.428579 0 0.0631182 0.998006
