-0.208685 0.139857 0.456514 0.929966 0.348788 -0.116236
0.0383517 -0.181829 0.429186 0 0.0630923 0.998008
-0.24625 0.00103185 0.595121 0.0144083 -0.129569 -0.991466
-0.192267 0.130833 0.392259 0.05437 -0.195742 -0.979147
-0.185585 0.172468 0.629256 0.0563455 0.958302 -0.280148
-0.0637551 -0.255035 0.405517 0 -0.70717 0.707044
0.136851 -0.0480057 0.420546 0 0.0921997 0.995741
-0.21616 0.164924 0.582259 -0.558361 0.823669 -0.0990076
-0.12041 -0.133276 0.426116 0 0.0630923 0.998008
-0.132804 0.218533 0.711616 0.0485156 -0.436665 0.898315
-0.167347 0.210323 0.703305 0.616356 -0.704257 -0.352317
0.145675 -0.146136 0.426929 0 0.0630923 0.998008
-0.20177 0.217469 0.701714 -0.226244 0.566132 -0.792659
-0.000349715 -0.169501 0.428407 0 0.0630923 0.998008
0.145288 0.185526 0.695571 0 -0.808759 0.58814
0.237646 0.0839026 0.594779 -0.349915 0.0846354 0.93295
0.163987 -0.255915 0.388581 0 -0.965872 -0.259018
-0.186053 0.10394 0.406776 0.0995288 0.0874462 0.991185
-0.0147881 0.0462755 0.411816 0 0.0921997 0.995741
0.201412 -0.0728874 0.406156 -0.141203 -0.0567982 -0.98835
0.142016 -0.0081799 0.416859 0 0.0921997 0.995741
0.196397 0.190326 0.679267 -0.620145 0.740134 -0.260041
0.0848494 -0.239837 0.402772 0 0.961479 0.274878
0.104375 0.159876 0.626376 0 -0.94868 0.316237
0.0508878 0.0928485 0.407504 0 0.0921997 0.995741
0.201899 0.154034 0.605254 -0.716984 -0.686076 0.123421
6.06317e-05 0.246697 0.714807 0.0460687 0.706161 0.706551
-0.0422118 -0.00343266 0.416419 0 0.0921997 0.995741
-0.0698503 0.135039 0.513318 0 -0.985623 0.168959
0.213995 0.056043 0.402105 0.99509 0.00912524 0.0985518
0.191625 -0.0731109 0.421278 -0.141108 0.0640766 0.987918
-0.170655 -0.240198 0.388135 -5.36661e-06 0.986392 -0.164412
-0.115748 -0.240306 0.387482 0 0.986377 -0.164499
-0.036183 0.246266 0.710694 -0.0651715 0.946702 0.315448
0.106077 0.109438 0.406033 0 0.0878826 0.996131
0.112863 -0.192402 0.429854 0 0.0630923 0.998008
-0.235632 -0.173766 0.00290028 0.965958 1.80011e-05 -0.258701
-0.190468 0.135374 0.499115 -0.0581923 -0.988697 0.138175
0.0760139 0.225193 0.712037 -0.0149085 -0.447162 0.894329
-0.199877 -0.0560408 0.405408 0.141214 -0.0567981 -0.988348
0.222629 -0.25998 0.0383524 -0.540964 0.839691 -0.0477066
0.118291 0.236819 0.713136 0.119405 0.671762 0.73108
0.224183 0.139842 0.403514 0.328816 0.939708 -0.0939633
0.0689507 -0.0266389 0.418568 0 0.0921997 0.995741
-0.152906 0.134707 0.511383 0 -0.985623 0.168959
-0.0799945 -0.0204885 0.417998 0 0.0921997 0.995741
0.11597 0.166524 0.64632 0 -0.94868 0.316237
-0.0473468 -0.0817294 0.422858 0 0.0630923 0.998008
0.145355 0.0262468 0.413671 0 0.0921997 0.995741
0.0110509 -0.259625 0.389517 0 -1 0
0.0547395 0.169942 0.656576 0 -0.94868 0.316237
0.213375 0.134349 0.474342 -0.347533 -0.931134 0.110497
0.108124 -0.229765 0.429181 0 -0.413897 0.910324
0.138862 -0.0756637 0.422474 0 0.0630923 0.998008
-0.202733 0.183125 0.694541 -0.136736 -0.81893 0.557367
0.0376759 0.150265 0.588677 0 -0.969335 0.245741
-0.141923 -0.00853459 0.416892 0 0.0921997 0.995741
0.184007 -0.205946 0.422915 -0.995008 0.00690531 0.0995551
-0.106266 0.156622 0.613752 0 -0.969335 0.245741
-0.193711 0.139743 0.532828 -0.184913 -0.964947 0.186236
-0.145665 0.14735 0.577181 0 -0.969335 0.245741
-0.205313 -0.144991 0.409743 0.14114 -0.0568048 -0.988359
0.115585 -0.0222217 0.418159 0 0.0921997 0.995741
0.244612 -0.120918 0.00972396 0.708373 1.31641e-05 0.705839
0.00901642 0.142781 0.558485 0 -0.985623 0.168959
0.206658 -0.165398 0.427424 0.559398 0.0458911 0.827628
-0.0337451 -0.123357 0.425489 0 0.0630923 0.998008
-0.0222373 -0.207888 0.430833 0 0.0630923 0.998008
-0.207446 0.157994 0.543376 0.365354 0.913783 -0.177531
0.102764 0.138503 0.533526 0 -0.985623 0.168959
-0.0377346 0.195827 0.705289 0 -0.624738 0.780835
-0.10519 0.124976 0.404662 0 0.0878826 0.996131
0.19762 -0.184027 0.429286 -0.155582 0.06233 0.985855
-0.0896286 0.0465888 0.411787 0 0.0921997 0.995741
0.207844 0.13079 0.455913 -0.986728 -0.159118 -0.0324018
0.154137 0.156081 0.61162 0 -0.969335 0.245741
-0.0775988 0.235537 0.715084 -0.00296332 -0.179153 0.983817
0.0191467 -0.100094 0.424019 0 0.0630923 0.998008
-0.086846 0.0227427 0.413995 0 0.0921997 0.995741
0.0761121 -0.0446643 0.420237 0 0.0921997 0.995741
-0.233495 0.0343561 0.59491 0.703396 -0.100513 -0.703655
-0.0436289 0.151971 0.595405 0 -0.969335 0.245741
-0.0795806 0.132233 0.496951 0 -0.985623 0.168959
-0.19345 0.16112 0.582803 0.172403 0.958255 -0.228091
-0.24402 0.124092 0.593664 0.0769009 -0.111104 0.990829
0.204623 -0.227559 0.430023 0.444824 -0.104599 0.889489
-0.180696 0.180803 0.657334 0 0.957025 -0.290006
-0.0179689 0.163662 0.403503 0.0694249 -0.97822 0.195615
0.16042 -0.256205 0.405532 0 -0.813742 0.581226
-0.0416269 0.0999638 0.406869 0 0.0878826 0.996131
0.0926215 0.146538 0.573977 0 -0.969335 0.245741
0.109016 0.150486 0.398693 -0.177693 -0.970701 0.161754
0.106099 0.13306 0.501774 0 -0.985623 0.168959
-0.217889 0.151201 0.498783 -0.333612 0.932835 -0.136092
0.189782 0.0396251 0.4118 -0.0995304 -0.0917419 -0.990796
0.216275 0.158527 0.620399 0.0245053 -0.805694 0.591825
-0.229563 0.125774 0.391483 -0.049797 -0.0829949 -0.995305
0.0656319 0.0248258 0.413803 0 0.0921997 0.995741
0.233286 0.0355625 0.596632 -0.837119 0.0384541 0.545668
-0.119765 -0.241683 0.422789 0 -0.664336 0.747434
0.162221 0.148106 0.409457 0.283013 0.959116 0
0.23689 0.233141 0.0995499 -0.0914547 -0.925061 -0.368643
-0.181773 0.137409 0.527143 0 -0.985623 0.168959
-0.222196 0.147742 0.547679 -0.922912 -0.369203 0.109192
-0.0262999 -0.251398 0.409155 0 -0.70717 0.707044
-0.199163 -0.0621179 0.420047 0.0995255 -0.062779 -0.993053
-0.214455 -0.190759 0.415656 -0.995928 0.0056881 0.0899749
-0.214649 -0.0155491 0.402131 -0.995089 0.00912556 0.0985625
-0.189702 0.020416 0.41287 0.140808 0.0912813 0.98582
0.100898 0.0608327 0.410469 0 0.0921997 0.995741
-0.0504189 0.173439 0.667064 0 -0.94868 0.316237
0.00270848 0.166939 0.647564 0 -0.94868 0.316237
-0.245723 0.222232 0.00315083 -0.965874 0 -0.259014
0.0259387 0.123007 0.404836 0 0.0878826 0.996131
-0.205505 0.16101 0.634845 0.205902 -0.930097 0.304178
0.0764808 -0.121097 0.425346 0 0.0630923 0.998008
-0.247091 0.0888261 0.583829 0.0823458 -0.125704 -0.988644
0.21659 -0.258638 0.325407 -0.513215 -0.858011 0.0206768
-0.0663494 0.141068 0.548492 0 -0.985623 0.168959
-0.00145869 0.153382 0.600972 0 -0.969335 0.245741
-0.227096 0.169316 0.26214 0.0914547 -0.925061 -0.368643
0.246126 -0.20771 0.00466185 0.965033 -1.7974e-05 -0.262128
0.143931 0.215139 0.70842 -0.1554 -0.987852 0
0.0730344 -0.244088 0.420651 0 -0.664336 0.747434
-0.218985 -0.258435 0.331885 0.0156853 -0.999099 0.039424
0.203676 -0.218761 0.414669 -0.138663 -0.194289 -0.971094
-0.225592 -0.262499 0.194311 -0.487838 -0.871637 0.0475675
-0.168499 0.173867 0.668348 0 -0.94868 0.316237
-0.19697 0.117002 0.404013 0.0995304 -0.0874308 -0.991186
0.248598 0.101323 0.595007 -0.0826276 0.095816 0.991964
-0.204806 0.152207 0.527821 0.6151 0.768625 -0.175691
-0.157268 0.137706 0.52888 0 -0.985623 0.168959
0.209136 0.149779 0.499669 -0.698048 0.698048 -0.159559
0.0963183 0.229948 0.703353 0.045983 0.427861 -0.902674
-0.262248 -0.0281947 0.5999 -0.313778 -0.120192 -0.941858
-0.184993 -0.243774 0.384606 0 0.600072 -0.799946
0.184335 0.17097 0.624384 -0.0563455 0.958302 -0.280148
-0.133767 0.143972 0.403887 0.293169 -0.944365 0.149088
0.212075 0.041821 0.394723 0.553342 -0.0767975 -0.829406
-0.176788 -0.216896 0.430834 0 -0.116782 0.993158
-0.18354 -0.131044 0.413054 0.994997 0.00691285 0.0996639
0.103728 0.0250889 0.413778 0 0.0921997 0.995741
-0.183105 -0.176837 0.42887 0 0.0630923 0.998008
-0.206924 0.0624316 0.409687 -0.785403 0.0618725 0.615884
0.00337756 -0.0388886 0.419702 0 0.0921997 0.995741
0.254468 0.0226168 0.592505 0.0897305 -0.12906 -0.987569
-0.206061 -0.224626 0.429649 -0.444824 -0.104592 0.88949
-0.0757582 -0.178307 0.428963 0 0.0630923 0.998008
-0.140948 0.0228543 0.413985 0 0.0921997 0.995741
0.0398136 -0.00632434 0.416687 0 0.0921997 0.995741
-0.222963 -0.250125 0.298265 -0.8729 0.48789 0.00301761
0.0328008 -0.259625 0.392635 0 -1 0
-0.190616 -0.0252124 0.41772 0.0995267 -0.0917417 -0.990797
-0.253563 0.0659982 0.598433 -0.0993636 0.095669 0.990442
-0.23778 0.269987 0.0284336 0.0649603 0.991985 0.108381
0.00992298 0.0951652 0.407292 0 0.0878826 0.996131
0.243525 -0.149658 0.010793 0.258996 7.85048e-06 0.965878
0.139783 0.0648198 0.410099 0 0.0921997 0.995741
0.07724 0.0729093 0.40935 0 0.0921997 0.995741
0.211071 0.00577878 0.398087 -0.140841 -0.0912799 -0.985815
0.201165 0.161445 0.6339 -0.155977 -0.936384 0.314415
0.235439 0.0844796 0.00790349 -0.965033 -1.8043e-05 0.26213
0.157266 0.167009 0.647776 0 -0.94868 0.316237
0.195506 0.182088 0.657942 -0.620145 0.740134 -0.260041
-0.208924 0.198782 0.70505 -0.667712 -0.352253 0.655804
-0.0632254 0.161904 0.632462 0 -0.94868 0.316237
0.210261 0.17818 0.677141 0.619506 -0.730143 0.288276
0.179184 -0.0547111 0.42115 0 0.0630923 0.998008
-0.0443613 0.065432 0.410043 0 0.0921997 0.995741
0.00103274 0.195135 0.704735 0 -0.624738 0.780835
0.200076 -0.170442 0.411953 -0.141203 -0.0567982 -0.98835
0.150654 -0.0563323 0.421252 0 0.0630923 0.998008
0.214545 -0.258947 0.401413 -0.186293 -0.932087 0.310659
-0.0111194 0.236485 0.715403 -0.00180814 -0.164501 0.986375
0.194956 -0.0486883 0.404843 0 -0.0921922 -0.995741
-0.0512435 -0.125903 0.42565 0 0.0630923 0.998008
0.14979 -0.125424 0.42562 0 0.0630923 0.998008
0.07992 -0.1588 0.42773 0 0.0630923 0.998008
-0.00610963 0.0840511 0.408319 0 0.0921997 0.995741
-0.218604 0.147468 0.466753 -0.329272 0.93921 -0.0972813
0.0931172 0.170378 0.657882 0 -0.94868 0.316237
0.023075 -0.00814994 0.416856 0 0.0921997 0.995741
0.220915 -0.247554 0.353924 0.513438 0.857861 -0.0213465
-0.0660878 0.107343 0.406218 0 0.0878826 0.996131
0.0155659 -0.151094 0.427243 0 0.0630923 0.998008
0.205093 0.104778 0.407068 -0.140601 0.109339 0.98401
-0.011598 0.15889 0.622699 0 -0.969335 0.245741
0.0516413 0.172772 0.407244 0.0642271 0.995994 -0.0622202
0.228624 0.14742 0.325275 0.810155 -0.558629 -0.177714
-0.24009 0.0831316 0.000147503 0.258817 9.56553e-06 -0.965926
-0.185671 0.152492 0.553701 0.989143 -0.145999 -0.0167229
-0.184072 -0.239802 0.412426 0.815321 0.444794 -0.370689
-0.199291 0.185076 0.658344 0.158139 0.949519 -0.270936
-0.199292 -0.132743 0.427665 0.0994672 0.0627785 0.993058
0.223203 0.162929 0.280665 -0.575944 -0.749938 -0.325396
0.180924 0.170553 0.656503 0.126243 -0.938871 0.320286
-0.025087 0.133416 0.50385 0 -0.985623 0.168959
-0.245744 0.251266 0.0101951 -0.968596 -0.0448744 0.244559
-0.109283 0.0817645 0.40853 0 0.0921997 0.995741
0.21509 -0.252933 0.259825 -0.859422 0.509424 -0.0433634
-0.218716 0.126509 0.412719 -0.186433 -0.971595 0.145759
0.038648 -0.0358081 0.419417 0 0.0921997 0.995741
-0.0403872 0.136448 0.521539 0 -0.985623 0.168959
0.129515 -0.0906029 0.423419 0 0.0630923 0.998008
0.178934 0.109665 0.406013 0 0.0878826 0.996131
-0.202659 0.0994297 0.391874 0.071104 0.0553032 -0.995935
-0.203656 0.138837 0.517411 -0.854285 -0.502967 0.13123
-0.110159 -0.110276 0.424662 0 0.0630923 0.998008
0.234966 0.197563 0.00540991 -0.965958 1.80011e-05 -0.258701
-0.120553 0.181985 0.690702 0 -0.808759 0.58814
-0.219758 0.165439 0.604301 -0.54043 0.834176 -0.109934
0.240219 -0.256306 0.0130924 0.774887 -0.131653 0.618238
-0.155085 0.156328 0.612595 0 -0.969335 0.245741
-0.228746 -0.26117 0.135462 -0.998274 0.0534027 0.0244394
0.24207 0.119128 0.592909 -0.0824189 -0.119076 0.989458
0.217495 -0.249095 0.288157 -0.540964 0.839691 -0.0477066
-0.126746 -0.0496581 0.420699 0 0.0921997 0.995741
0.26393 0.130351 0.582507 0.294149 0.320905 -0.900276
0.196213 -0.0945049 0.42239 -0.0995256 -0.062779 -0.993053
-0.209593 0.138175 0.444203 0.929966 0.348788 -0.116236
0.170077 -0.203412 0.43055 0 0.0630923 0.998008
-0.122715 -0.198072 0.430213 0 0.0630923 0.998008
0.208973 -0.215638 0.428526 0.547917 -0.052156 0.834905
-0.176188 0.199014 0.696567 0.928506 -0.371317 -0.000156671
0.0894634 -0.242164 0.385813 0 0.600072 -0.799946
0.172649 -0.228736 0.429442 0 -0.11679 0.993157
0.182181 -0.107796 0.424506 0 0.0630923 0.998008
-0.229365 -0.265631 0.0834995 -0.889694 -0.454622 0.0419952
0.220399 0.124646 0.377928 -0.104637 -0.989212 -0.102525
-0.188808 0.0385312 0.411999 0.0995304 -0.0917412 -0.990796
-0.217396 -0.257081 0.365561 0.0156853 -0.999099 0.039424
-0.183717 0.0677572 0.398396 0.995922 0.00831824 0.0898364
0.189522 -0.203589 0.413999 0 -0.057373 -0.998353
-0.161841 0.162586 0.634506 0 -0.94868 0.316237
-0.207397 0.139248 0.39719 0.0518185 0.933239 -0.355499
0.172833 -0.0884093 0.42328 0 0.0630923 0.998008
0.201659 0.141042 0.513024 -0.33343 0.924297 -0.185742
-0.112432 0.0615253 0.410404 0 0.0921997 0.995741
-0.0962267 0.144809 0.567154 0 -0.969335 0.245741
-0.13631 -0.253644 0.385307 0 -0.707271 -0.706942
-0.0788659 -0.25032 0.384382 0 0.25871 -0.965955
-0.236126 -0.255846 0.0171135 -0.545744 0.319922 0.774476
-0.00938506 -0.238576 0.39786 -5.36661e-06 0.986392 -0.164412
0.229616 -0.264689 0.0883901 0.889694 -0.454622 0.0419952
0.194994 -0.133798 0.427302 -0.0994673 0.0627785 0.993058
-0.0482094 -0.155608 0.427528 0 0.0630923 0.998008
0.1916 0.163474 0.594034 -0.0568063 0.966137 -0.251697
-0.0901303 -0.212825 0.431145 0 0.0630923 0.998008
-0.182946 -0.156776 0.427602 0 0.0630923 0.998008
-0.0975573 -0.245034 0.407715 0 0.55477 0.832004
0.0662443 0.187811 0.698714 0 -0.808759 0.58814
0.264787 -0.0434022 0.602747 0.301383 -0.301285 -0.904652
-0.224005 0.131495 0.473498 -0.620101 -0.77525 0.120257
0.0773078 -0.254942 0.405611 0 -0.70717 0.707044
0.244231 -0.0872376 0.00147731 0.705871 -2.19236e-05 -0.70834
-0.199945 0.190095 0.675552 0.158139 0.949519 -0.270936
0.188266 0.0685398 0.410234 -0.0995289 0.0917342 0.990797
0.135153 0.133434 0.503955 0 -0.985623 0.168959
-0.184066 -0.0521512 0.413379 0.995913 0.00833409 0.0899342
0.0672191 0.15599 0.61126 0 -0.969335 0.245741
0.0539683 -0.191068 0.42977 0 0.0630923 0.998008
-0.210523 0.168652 0.652572 -0.632711 -0.719292 0.286873
0.132081 -0.158759 0.427727 0 0.0630923 0.998008
0.250139 0.063078 0.586956 -0.0144083 -0.129569 -0.991466
0.185651 -0.16224 0.41201 -0.804083 -0.0387119 -0.593256
0.213487 -0.10798 0.420718 0.948653 0.014527 0.315986
0.116129 0.144083 0.564294 0 -0.969335 0.245741
-0.147482 0.076387 0.409028 0 0.0921997 0.995741
-0.051578 -0.243266 0.384986 0 0.600072 -0.799946
-0.0268686 0.145325 0.569194 0 -0.969335 0.245741
-0.0632399 0.152712 0.59833 0 -0.969335 0.245741
0.173219 0.159073 0.623422 0 -0.969335 0.245741
-0.0289997 -0.251554 0.384593 0 -0.258712 -0.965955
0.208436 -0.182821 0.427188 0.559398 0.0458911 0.827628
0.186956 -0.0834852 0.407097 0 -0.057373 -0.998353
0.121029 0.218741 0.708118 -0.1554 -0.987852 0
0.23776 0.151874 0.589594 0.479031 0.825904 -0.297342
-0.112742 -0.176643 0.428858 0 0.0630923 0.998008
0.01493 0.236863 0.715459 0.00180814 -0.164501 0.986375
-0.190867 0.192483 0.699031 0.178397 0.698763 -0.692752
-0.195648 0.00761453 0.416617 0.099529 0.0917348 0.990797
0.0884675 -0.207476 0.430807 0 0.0630923 0.998008
0.224621 0.143874 0.356313 0.576188 0.7505 0.323662
-0.129835 -0.221251 0.430322 0 -0.116782 0.993158
0.235792 0.105135 0.00881543 -0.706879 -1.32494e-05 0.707335
0.20004 0.143824 0.547686 0.184913 -0.964947 0.186236
-0.201853 0.146776 0.560373 0.0483405 -0.985416 0.163152
-0.171573 0.0525633 0.411234 0 0.0921997 0.995741
-0.211856 -0.127963 0.40783 0.14114 -0.0568048 -0.988359
0.254572 0.135477 0.595114 0.393772 -0.0239756 0.918896
-0.150747 -0.0399874 0.419804 0 0.0921997 0.995741
-0.259662 0.0964927 0.583323 -0.0897305 -0.12906 -0.987569
0.225792 0.207764 0.183077 -0.996065 -0.0520953 -0.0717014
0.0734303 -0.244789 0.390198 0 0.96604 0.258391
0.0659319 0.158804 0.400978 -0.183181 -0.966225 0.181256
0.195355 -0.148882 0.425914 -0.0995162 -0.0627802 -0.993053
-0.193579 0.0882037 0.407147 0.140861 0.0912737 0.985813
-0.118924 0.139916 0.541769 0 -0.985623 0.168959
0.0250432 0.0245683 0.413826 0 0.0921997 0.995741
-0.235064 -0.00271024 0.602057 0.837119 0.0384541 0.545668
0.149029 -0.248788 0.415917 0 -0.813742 0.581226
-0.246212 -0.0414869 0.00659687 -0.966787 0 0.255582
0.0819503 0.141705 0.552207 0 -0.985623 0.168959
-0.212045 0.0344414 0.395386 -0.553342 -0.0768012 -0.829406
-0.154674 -0.239823 0.402723 0 0.961519 0.27474
0.0439946 0.146508 0.573858 0 -0.969335 0.245741
-0.0172078 0.196175 0.705567 0 -0.624738 0.780835
0.136941 -0.222057 0.430227 0 -0.11679 0.993157
-0.070576 0.00644547 0.415504 0 0.0921997 0.995741
-0.107535 0.00538285 0.415603 0 0.0921997 0.995741
0.130844 0.0433033 0.412092 0 0.0921997 0.995741
-0.203125 -0.242194 0.38579 0 0.600072 -0.799946
-0.191403 0.163407 0.622104 0.32404 0.91015 -0.258117
0.235109 -0.239288 0.0066675 -0.965033 -1.8043e-05 0.26213
-0.161788 -0.179953 0.429067 0 0.0630923 0.998008
0.072863 0.00420684 0.415712 0 0.0921997 0.995741
0.201657 -0.132314 0.409536 -0.141203 -0.0567982 -0.98835
-0.0170157 0.125185 0.404644 0 0.0878826 0.996131
-0.0419779 0.156489 0.61323 0 -0.969335 0.245741
-0.168461 0.153815 0.60268 0 -0.969335 0.245741
0.184597 0.0538058 0.396082 -0.705406 -0.0653509 -0.705784
-0.22827 0.141676 0.599688 0.516481 -0.728327 0.45032
0.204851 0.145612 0.574264 -0.250963 -0.94238 0.221217
0.139064 0.157626 0.617713 0 -0.969335 0.245741
-0.129006 -0.0743642 0.422392 0 0.0630923 0.998008
-0.0599018 -0.239898 0.402986 0 0.961519 0.27474
0.048289 -0.138316 0.426435 0 0.0630923 0.998008
0.137551 0.142738 0.558231 0 -0.985623 0.168959
-0.143639 0.232303 0.70711 -0.0880818 0.682401 -0.725651
-0.137799 0.168069 0.650956 0 -0.94868 0.316237
-0.246066 -0.199606 0.00715055 -0.966787 0 0.255582
0.0784872 0.148805 0.582919 0 -0.969335 0.245741
-0.214314 -0.253784 0.394674 0 0.44692 -0.894574
0.038677 0.172591 0.393635 0.0650041 0.940004 -0.334914
0.0384167 -0.0686492 0.422031 0 0.0630923 0.998008
-0.110595 0.106648 0.406279 0 0.0878826 0.996131
-0.212037 0.151818 0.599741 -0.305129 -0.918274 0.252327
0.173113 -0.244933 0.388937 0 -0.980597 -0.196034
0.235224 0.198289 0.208877 0.824159 0.51084 0.24455
-0.212902 0.14368 0.569056 -0.280885 -0.933467 0.223033
0.177793 0.200819 0.697695 -0.00885225 0.622498 -0.782571
-0.21786 0.147098 0.332949 0.993776 0.110982 -0.00962009
0.195686 0.0216977 0.398326 0 -0.0921922 -0.995741
-0.17592 -0.240301 0.424016 3.66817e-06 -0.664291 0.747474
0.0361399 0.17477 0.671058 0 -0.94868 0.316237
-0.170706 0.179471 0.685159 0 -0.94868 0.316237
-0.026193 0.166588 0.412875 0.0468691 -0.24215 0.969106
0.044728 -0.165227 0.428136 0 0.0630923 0.998008
0.196381 -0.00987585 0.41831 -0.0994667 0.0917424 0.990803
0.0238937 -0.242885 0.406282 0 0.55477 0.832004
0.151614 -0.0316854 0.419035 0 0.0921997 0.995741
0.041109 0.229302 0.713572 -0.0154083 -0.554562 0.832
-0.0401353 0.229694 0.713816 0.0154083 -0.554562 0.832
-0.0147856 -0.0658156 0.421852 0 0.0630923 0.998008
0.14975 0.230007 0.713449 0.0316529 -0.00790895 0.999468
-0.26851 0.121304 0.588911 -0.801844 0.267341 0.534392
-0.252264 0.0970727 0.595562 -0.0993636 0.095669 0.990442
0.222694 0.142005 0.419927 0.328816 0.939708 -0.0939633
-0.145369 -0.105916 0.424387 0 0.0630923 0.998008
-0.226207 0.204922 0.180787 0.824348 -0.511329 -0.242885
0.255955 0.00631964 0.594661 0.0138888 -0.124883 -0.992074
-0.00285126 -0.104803 0.424316 0 0.0630923 0.998008
-0.153413 0.142934 0.390606 -0.0169568 0 -0.999856
-0.195436 0.167815 0.643474 -0.847977 -0.492048 0.197039
0.188983 -0.23364 0.414867 0 0.51444 -0.857526
0.00341889 -0.0725362 0.422277 0 0.0630923 0.998008
-0.224878 -0.259276 0.0341221 0.0481725 0.997992 -0.0411379
-0.0572152 0.166387 0.645909 0 -0.94868 0.316237
0.200613 0.075423 0.409336 -0.140861 0.0912737 0.985813
0.193826 0.141114 0.3972 0.17353 0.880953 -0.440237
-0.0395081 -0.179897 0.429064 0 0.0630923 0.998008
0.166879 0.0807043 0.408629 0 0.0921997 0.995741
0.213793 -0.0598238 0.405144 0.554136 -0.0477639 -0.831055
-0.194763 0.154873 0.597425 -0.131833 -0.961607 0.240691
0.0332683 0.188049 0.699041 0 -0.808759 0.58814
0.186878 0.139233 0.53582 0.141068 -0.974742 0.173139
-0.061943 -0.187381 0.429537 0 0.0630923 0.998008
0.220331 0.142605 0.582072 -0.210664 -0.976806 -0.0383469
-0.203968 -0.158479 0.428578 0.141108 0.0640766 0.987918
0.118494 -0.246591 0.394046 0 0.706776 0.707438
0.141634 0.153745 0.396786 0.269702 0.961463 -0.0533856
0.237679 -0.00119479 0.000843495 -0.707378 2.19235e-05 -0.706836
0.169088 0.216816 0.701174 0.11868 0.395577 -0.910733
-0.00184392 -0.258701 0.399414 0 -0.919108 0.394005
0.229244 -0.260903 0.11454 0.998274 0.0534027 0.0244394
-0.0762121 -0.0393742 0.419747 0 0.0921997 0.995741
0.0586884 -0.123529 0.4255 0 0.0630923 0.998008
-0.0325544 -0.244455 0.420324 0 -0.664336 0.747434
0.21792 -0.248632 0.388392 0.684237 0.209683 0.698465
-0.218067 -0.25245 0.222485 0.487266 0.871923 -0.0481941
-0.225331 0.182263 0.232168 0.430881 -0.832516 -0.348222
0.13503 0.0849075 0.408239 0 0.0921997 0.995741
-0.237374 0.14833 0.580474 -0.581417 0.684826 -0.439281
0.213736 0.150306 0.60459 -0.300461 -0.875017 0.379564
0.191952 0.150014 0.534512 -0.171977 0.963786 -0.203814
-0.105302 -0.0140107 0.417399 0 0.0921997 0.995741
0.209556 0.146154 0.48011 -0.671318 0.726525 -0.146608
0.244329 -0.0288757 0.0100057 0.70738 2.18442e-05 0.706833
0.14279 0.172507 0.664268 0 -0.94868 0.316237
0.162803 0.147401 0.577382 0 -0.969335 0.245741
-0.183653 -0.0938383 0.411609 0.994997 0.00691285 0.0996639
-0.230356 0.129629 0.412445 -0.944537 -0.314674 0.0939635
0.235044 -0.059483 0.00511546 -0.966705 0 -0.255894
-0.220639 -0.264823 0.169258 0.513456 -0.857867 0.0206619
-0.200878 -0.164188 0.411479 0.141214 -0.0567981 -0.988348
0.236092 0.056357 0.0024351 -0.708379 1.31799e-05 -0.705833
-0.232455 0.254811 0.0563396 0.996065 -0.0520953 -0.0717014
0.219974 -0.263752 0.197198 -0.513215 -0.858011 0.0206768
0.187995 0.140365 0.419741 0.0361283 0.31602 0.948065
0.237154 0.213029 0.156839 0.900041 -0.419931 -0.116553
0.190281 -0.21634 0.430216 -0.0995096 0.11621 -0.988227
-0.123885 0.161689 0.631815 0 -0.94868 0.316237
-0.210542 0.131369 0.490841 0.314331 -0.943504 0.104864
0.0100506 0.175131 0.402078 0.0642281 0.995994 -0.0622159
0.101094 -0.183033 0.429262 0 0.0630923 0.998008
-0.0780145 0.160145 0.389725 0.0229243 -0.237009 -0.971237
-0.0416409 0.146959 0.575637 0 -0.969335 0.245741
0.125411 -0.207588 0.430814 0 0.0630923 0.998008
-0.143031 -0.160243 0.427821 0 0.0630923 0.998008
0.251447 -0.00505278 0.595847 0.0897305 -0.12906 -0.987569
0.147188 0.150193 0.588392 0 -0.969335 0.245741
-0.0684192 0.0835776 0.408363 0 0.0921997 0.995741
0.155483 0.0612459 0.41043 0 0.0921997 0.995741
-0.11485 -0.0333536 0.41919 0 0.0921997 0.995741
-0.101912 0.164058 0.402648 -0.179799 0.98219 -0.0545365
-0.0669648 0.160062 0.408726 0.183181 -0.966225 0.181256
0.214198 -0.165098 0.411463 0.55393 -0.0477667 -0.831192
-0.155955 -0.0579682 0.421356 0 0.0630923 0.998008
-0.2117 0.127818 0.462362 0.314331 -0.943504 0.104864
0.0761144 0.152887 0.59902 0 -0.969335 0.245741
-0.0248019 -0.0159312 0.417576 0 0.0921997 0.995741
0.245915 -0.0294082 0.607334 -0.09949 0.0945207 0.990539
-0.198081 -0.0381334 0.403865 0 -0.0921922 -0.995741
-0.0199615 -0.240724 0.386893 0 0.600072 -0.799946
-0.0564768 -0.0229561 0.418227 0 0.0921997 0.995741
-0.138852 -0.124041 0.425533 0 0.0630923 0.998008
-0.177338 0.130713 0.402709 0.257965 -0.954335 0.150662
-0.092051 0.157153 0.615848 0 -0.969335 0.245741
0.0743331 -0.175326 0.428775 0 0.0630923 0.998008
0.0985245 -0.124517 0.425563 0 0.0630923 0.998008
-0.226653 0.203587 0.201253 0.413006 0.855271 0.312951
0.0234042 0.164482 0.640196 0 -0.94868 0.316237
0.219247 0.159326 0.567607 0.750468 0.655588 -0.0836816
-0.0087392 0.00148769 0.415964 0 0.0921997 0.995741
-0.192182 -0.217222 0.429921 0.0995096 0.116203 -0.988228
0.225713 0.134031 0.478579 0.945902 -0.315129 0.0772192
0.104972 -0.00986544 0.417015 0 0.0921997 0.995741
-0.127588 -0.240031 0.403451 0 0.961519 0.27474
0.22066 -0.254973 0.148819 -0.540964 0.839691 -0.0477066
-0.241045 0.0594577 0.000108701 -0.258565 -9.6958e-06 -0.965994
0.13057 -0.248787 0.415917 0 -0.813742 0.581226
0.219193 0.157843 0.592172 0.972171 -0.19452 0.130557
-0.23604 0.23899 0.114876 0.0778575 0.92912 0.361489
-0.223969 0.125124 0.439115 -0.701505 -0.701502 0.12564
-0.0856041 0.155689 0.404199 0.177693 -0.970701 0.161754
-0.243083 0.0109285 0.0109104 -0.258996 7.85048e-06 0.965878
-0.254068 0.021061 0.592672 -0.0897305 -0.12906 -0.987569
0.184389 -0.174497 0.424771 -0.995919 0.00569442 0.0900746
0.0840106 0.165384 0.6429 0 -0.94868 0.316237
-0.253088 0.130979 0.579367 -0.106864 0.016431 -0.994138
0.240299 0.226554 9.28927e-05 -0.258817 9.03099e-06 -0.965926
-0.00885704 0.185095 0.694979 0 -0.808759 0.58814
-0.200132 -0.259171 0.40114 0.0865764 -0.951821 0.29418
0.213072 -0.115991 0.407891 0.554136 -0.0477639 -0.831055
0.0086776 0.140219 0.543538 0 -0.985623 0.168959
0.245623 0.0527403 0.599452 -0.0826276 0.095816 0.991964
0.0728832 0.175805 0.674164 0 -0.94868 0.316237
-0.104562 0.151337 0.394873 0.163678 -0.935923 -0.311861
-0.113347 -0.253154 0.395182 0 -0.259018 0.965872
-0.0677821 0.183248 0.692439 0 -0.808759 0.58814
0.0587852 -0.248385 0.416481 0 -0.813742 0.581226
0.0415144 0.081068 0.408595 0 0.0921997 0.995741
0.136165 -0.259625 0.390706 0 -1 0
-0.129437 0.148558 0.390556 0.0778789 -0.292025 -0.953235
-0.235614 -0.0760706 0.00297212 0.965958 1.80011e-05 -0.258701
-0.0339781 -0.0394858 0.419757 0 0.0921997 0.995741
0.216016 0.123987 0.44113 -0.253164 -0.962107 0.101281
0.190694 0.150853 0.57431 -0.0421357 -0.967204 0.250481
-0.210261 -0.101918 0.420567 -0.241889 0.0653737 0.968099
0.261497 0.0728919 0.58655 0.348608 -0.120835 -0.929447
-0.183801 0.00752898 0.404907 0.995913 0.00833409 0.0899342
0.114685 -0.252245 0.384778 0 -0.258711 -0.965955
-0.205289 0.0829947 0.391764 0.140917 -0.0912722 -0.985805
0.237827 0.218032 0.144009 0.900041 -0.419931 -0.116553
0.250722 0.0746843 0.597757 -0.0826276 0.095816 0.991964
-0.262663 -0.0429966 0.601927 -0.313778 -0.120192 -0.941858
-0.0502782 0.0430446 0.412116 0 0.0921997 0.995741
0.0160755 0.132785 0.500171 0 -0.985623 0.168959
0.0721004 -0.228033 0.429525 0 -0.11679 0.993157
-0.240102 -0.104349 0.000142469 0.258817 9.56553e-06 -0.965926
0.246358 0.030453 0.00604653 0.966705 0 0.255895
0.102879 -0.258434 0.386892 0 -0.707497 -0.706716
-0.19874 -0.124116 0.409432 0 -0.057373 -0.998353
-0.186619 -0.0829011 0.423245 0.09946 0.0627794 0.993059
0.242599 0.180057 0.000523862 0.258818 -8.08393e-06 -0.965926
0.0300518 0.0423133 0.412183 0 0.0921997 0.995741
-0.0977133 -0.1565 0.427585 0 0.0630923 0.998008
-0.0152261 -0.13997 0.42654 0 0.0630923 0.998008
0.196371 -0.0403973 0.419453 -0.140808 0.0912813 0.98582
0.239426 0.258953 0.028402 0.128042 -0.986084 -0.106031
0.190803 -0.101294 0.408121 0 -0.057373 -0.998353
-0.106131 0.187817 0.698721 0 -0.808759 0.58814
0.107988 -0.040888 0.419887 0 0.0921997 0.995741
0.0271662 -0.0450904 0.420276 0 0.0921997 0.995741
-0.0324625 0.139697 0.540492 0 -0.985623 0.168959
-0.137796 0.180987 0.689329 0 -0.808759 0.58814
0.186667 -0.118937 0.425528 -0.0994601 0.0627794 0.993059
0.184124 0.0127331 0.400358 -0.705406 -0.0653509 -0.705784
0.0958572 0.0762805 0.409038 0 0.0921997 0.995741
0.00191002 0.0440457 0.412023 0 0.0921997 0.995741
0.221462 -0.248826 0.315983 0.513438 0.857861 -0.0213465
-0.245996 0.0303323 0.601641 0.09949 0.0945207 0.990539
0.189588 0.177655 0.677067 0.0356703 -0.955295 0.293495
-0.0813713 0.141451 0.550722 0 -0.985623 0.168959
0.235809 0.0698341 0.59543 -0.140771 0.103683 0.984598
-0.184745 -0.190203 0.415063 0.803978 -0.0387194 -0.593397
0.0271081 -0.203101 0.430531 0 0.0630923 0.998008
0.264494 0.0991693 0.593463 0.349645 0.0932231 0.932233
0.187051 -0.19726 0.430518 -0.0994601 0.0627794 0.993059
0.10528 0.151435 0.593291 0 -0.969335 0.245741
-0.0624421 -0.241151 0.423261 0 -0.664336 0.747434
-0.0134647 -0.0828398 0.422928 0 0.0630923 0.998008
-0.183745 0.0953486 0.396509 0.995838 -0.00479366 0.0910204
-0.0233568 -0.109983 0.424644 0 0.0630923 0.998008
0.092972 0.134159 0.508186 0 -0.985623 0.168959
-0.162216 -0.249387 0.415078 0 -0.813772 0.581184
-0.0897627 0.174692 0.670825 0 -0.94868 0.316237
-0.0721781 -0.251981 0.395496 0 -0.259018 0.965872
0.200457 -0.0896801 0.407258 -0.141203 -0.0567982 -0.98835
0.240114 -0.147301 0.000139 -0.258817 9.03099e-06 -0.965926
0.112456 0.178201 0.681351 0 -0.94868 0.316237
0.148113 0.160362 0.627834 0 -0.94868 0.316237
0.00120063 -0.186757 0.429497 0 0.0630923 0.998008
-0.0551896 -0.0939243 0.423629 0 0.0630923 0.998008
0.200518 -0.0700536 0.420413 -0.0995162 -0.0627802 -0.993053
-0.125107 -0.16794 0.428308 0 0.0630923 0.998008
0.18362 0.0743237 0.39672 -0.995922 0.00831824 0.0898364
-0.136241 0.136208 0.52014 0 -0.985623 0.168959
0.00793903 0.176894 0.67743 0 -0.94868 0.316237
-0.015908 0.071863 0.409447 0 0.0921997 0.995741
-0.0109761 0.174867 0.398797 -0.0642281 0.995994 -0.0622159
-0.235616 -0.145543 0.00854023 0.965033 -2.00426e-05 0.26213
-0.207374 0.0771146 0.407639 -0.785403 0.0618725 0.615884
0.180934 0.177916 0.647806 0 0.957025 -0.290006
0.242132 0.260957 0.0546885 0.824159 0.51084 0.24455
0.269749 0.0541159 0.593244 0.551714 -0.107148 -0.827122
-0.211121 0.153205 0.511427 0.310938 0.932819 -0.182115
-0.105463 -0.0916792 0.423487 0 0.0630923 0.998008
0.099584 -0.0831579 0.422948 0 0.0630923 0.998008
-0.0222496 0.178099 0.681045 0 -0.94868 0.316237
0.0857837 -0.252473 0.39533 0 0.44692 -0.894574
0.0634401 0.064823 0.410099 0 0.0921997 0.995741
0.103417 0.163316 0.395142 0.173587 0.934315 -0.311325
0.134193 0.146552 0.574033 0 -0.969335 0.245741
-0.26215 0.00756575 0.595288 -0.348608 -0.120835 -0.929447
-0.140357 0.154562 0.605626 0 -0.969335 0.245741
-0.175335 -0.251454 0.395838 0 0.44692 -0.894574
-0.102515 0.0424539 0.41217 0 0.0921997 0.995741
0.075488 0.16547 0.390222 0.137769 0.700362 -0.700366
0.05996 0.146679 0.574533 0 -0.969335 0.245741
0.178737 -0.0697417 0.4221 0 0.0630923 0.998008
0.192051 -0.23056 0.428558 -0.0967684 -0.382745 0.918772
-0.0989736 -0.0511193 0.420835 0 0.0921997 0.995741
0.0342134 0.15701 0.615284 0 -0.969335 0.245741
-0.209568 -0.0297512 0.415576 -0.785403 0.0618725 0.615884
0.0380317 0.135185 0.514173 0 -0.985623 0.168959
0.23489 0.251695 0.00755755 -0.968339 0.0415632 -0.246154
0.224053 0.189839 0.232151 -0.810089 0.559285 0.175942
-0.229514 0.222235 0.133119 0.824348 -0.511329 -0.242885
0.202805 -0.233046 0.414736 -0.0953894 0.445273 -0.890299
0.0908354 -0.25237 0.408182 0 -0.70717 0.707044
-0.186263 -0.1906 0.429462 0.0995161 -0.0627802 -0.993053
-0.0987695 0.15378 0.602541 0 -0.969335 0.245741
0.144961 0.176968 0.67765 0 -0.94868 0.316237
-0.0158051 0.0150019 0.414712 0 0.0921997 0.995741
-0.201006 0.152118 0.57182 -0.480745 0.860939 -0.166336
-0.215424 0.142511 0.427166 0.217887 0.967665 -0.12708
0.133849 -0.127283 0.425738 0 0.0630923 0.998008
-0.0802522 -0.239372 0.393087 0 0.986377 -0.164499
0.0665037 -0.0108424 0.417105 0 0.0921997 0.995741
-0.0583246 0.0627928 0.410287 0 0.0921997 0.995741
0.2019 0.0061988 0.41731 0.707165 0.0651841 0.704037
0.159216 0.218468 0.712272 0.00644013 -0.100736 0.994892
-0.248948 0.074884 0.585447 0.0823458 -0.125704 -0.988644
0.093669 -0.155453 0.427518 0 0.0630923 0.998008
0.177594 -0.0207964 0.418027 0 0.0921997 0.995741
-0.0759431 0.120368 0.405069 0 0.0878826 0.996131
-0.0187232 -0.171072 0.428506 0 0.0630923 0.998008
0.214596 0.130457 0.400117 -0.98122 -0.192862 -0.00340476
-0.104761 -0.125967 0.425654 0 0.0630923 0.998008
-0.238638 0.0360254 0.0110188 0.258797 -8.25552e-06 0.965932
-0.150964 0.0125263 0.414941 0 0.0921997 0.995741
0.146604 -0.259625 0.395549 0 -1 0
0.223749 0.119796 0.401487 0.15134 -0.983778 0.0963194
0.0116316 -0.232814 0.427794 0 -0.413897 0.910324
0.217005 0.156729 0.534513 0.333612 0.932835 -0.136092
-0.222121 -0.256402 0.1071 0.540964 0.839691 -0.0477066
-0.210801 -0.100749 0.406416 0.14114 -0.0568048 -0.988359
0.106789 0.124948 0.404665 0 0.0878826 0.996131
0.241535 0.146117 0.0113238 0.258795 9.13209e-06 0.965932
0.14554 -0.206811 0.430765 0 0.0630923 0.998008
0.200159 0.213081 0.699502 0.154394 0.342051 -0.926911
-0.189737 0.188892 0.684027 0 0.957025 -0.290006
0.176761 0.154786 0.60651 0 -0.969335 0.245741
-0.183898 0.0244181 0.404421 0.995913 0.00833409 0.0899342
0.0343492 -0.246821 0.385928 0 0.70694 -0.707274
-0.175445 0.135433 0.418943 0.203178 -0.854443 0.478168
-0.217349 -0.259588 0.143407 0.998307 -0.053086 -0.0237634
0.192451 0.134658 0.493527 -0.762417 -0.0914688 -0.640589
0.206499 0.0319284 0.413055 0.712074 0.0647291 0.699114
-0.207348 -0.12328 0.424536 -0.710835 0.0443261 0.70196
0.0618083 -0.0912173 0.423458 0 0.0630923 0.998008
0.210367 0.187821 0.69582 0.483952 -0.717673 0.500735
-0.114774 0.224914 0.713212 -0.00644012 -0.100736 0.994892
-0.190046 0.141402 0.545061 -0.184913 -0.964947 0.186236
-0.131829 0.148094 0.417041 0.277739 -0.829683 0.484239
-0.166219 0.135394 0.515392 0 -0.985623 0.168959
0.244001 -0.170492 0.0103376 0.708373 1.31641e-05 0.705839
0.184212 -0.00269768 0.410417 -0.995922 0.00831824 0.0898364
-0.123991 0.223264 0.701989 0.0571589 -0.228597 -0.971842
0.088194 0.102633 0.406634 0 0.0878826 0.996131
-0.226416 -0.269263 0.0607351 -0.0481563 -0.99797 0.0416701
0.0524356 0.162968 0.635653 0 -0.94868 0.316237
0.191774 0.113382 0.404854 -0.0995042 -0.0874465 -0.991187
0.162363 0.0492944 0.411537 0 0.0921997 0.995741
-0.243768 0.0427636 0.589962 0.0823458 -0.125704 -0.988644
0.0405535 0.139561 0.5397 0 -0.985623 0.168959
0.0576661 0.237239 0.715443 0.00180814 -0.164501 0.986375
-0.217237 -0.25931 0.309723 -0.0481563 -0.99797 0.0416701
0.203278 -0.250473 0.414739 0.752407 0.483724 -0.447096
0.188095 0.146244 0.553555 0.0851454 -0.975641 0.202174
-0.14034 -0.0547223 0.42115 0 0.0630923 0.998008
0.131157 0.143749 0.397341 -0.293169 -0.944365 0.149088
0.237707 -0.0955311 0.0107209 -0.705867 -2.21148e-05 0.708345
0.246256 -0.236601 0.00643298 0.966705 0 0.255895
-0.245109 0.169591 0.00234815 -0.706873 -1.31868e-05 -0.707341
-0.0430401 0.133728 0.505671 0 -0.985623 0.168959
-0.169571 0.105066 0.406419 0 0.0878826 0.996131
-0.0424934 0.186314 0.696654 0 -0.808759 0.58814
0.214276 -0.0742095 0.41067 0.995082 0.00568327 0.0988951
0.0749166 0.135442 0.515669 0 -0.985623 0.168959
0.166699 -0.243991 0.40702 0 0.55477 0.832004
-0.237131 0.208247 0.177341 -0.995937 0.0519664 0.0735453
-0.13538 -0.235093 0.426758 0 -0.413931 0.910308
0.0168792 0.136305 0.520707 0 -0.985623 0.168959
-0.205716 0.177785 0.682384 -0.155315 -0.930202 0.332568
-0.0673321 0.13871 0.534737 0 -0.985623 0.168959
-0.0194353 0.142671 0.557839 0 -0.985623 0.168959
0.161594 0.119002 0.405189 0 0.0878826 0.996131
-0.203938 0.16378 0.576237 0.608651 0.760566 -0.226016
-0.177085 -0.0258219 0.418492 0 0.0921997 0.995741
0.197348 -0.192477 0.413361 0 -0.057373 -0.998353
-0.246414 -0.020759 0.00572731 -0.965874 0 -0.259014
0.213921 0.132327 0.418151 -0.934764 0.336833 -0.112957
0.116025 0.161275 0.403028 0.269702 0.961463 -0.0533856
-0.138995 0.121645 0.404956 0 0.0878826 0.996131
-0.181624 0.206596 0.70916 -0.0532255 -0.42514 0.903561
-0.236668 0.131581 0.00185933 0.707378 2.19235e-05 -0.706836
-0.192928 0.157915 0.610583 -0.131833 -0.961607 0.240691
0.0312602 -0.229398 0.429347 0 -0.413897 0.910324
0.220375 -0.255455 0.376891 0.487838 -0.871637 0.0475675
-0.239635 0.00336036 0.00026857 0.258817 9.56553e-06 -0.965926
-0.0227023 0.247007 0.710628 -0.037718 0.697508 -0.715584
0.050268 -0.151644 0.427278 0 0.0630923 0.998008
-0.0020602 0.149589 0.586011 0 -0.969335 0.245741
-0.0777842 0.0362859 0.412741 0 0.0921997 0.995741
0.214558 0.129568 0.487155 -0.329916 -0.938544 0.10144
0.224717 0.141727 0.507039 0.984339 -0.148055 0.095689
-0.195349 0.0472617 0.395959 0 -0.0921922 -0.995741
0.190482 0.027015 0.414302 -0.0994667 0.0917424 0.990803
0.236818 0.143095 0.57689 0.362306 0.265687 -0.89339
-0.123388 0.135793 0.51772 0 -0.985623 0.168959
-0.248255 -0.00819651 0.605545 0.09949 0.0945207 0.990539
-0.0354704 0.0119795 0.414992 0 0.0921997 0.995741
0.168232 0.134061 0.507613 0 -0.985623 0.168959
-0.213742 -0.0489222 0.414199 -0.948346 0.0292491 0.315888
0.200667 0.158442 0.566096 -0.172403 0.958255 -0.228091
0.0439242 -0.216216 0.430914 0 -0.11679 0.993157
0.173425 0.0679666 0.409808 0 0.0921997 0.995741
-0.0341015 -0.0893167 0.423337 0 0.0630923 0.998008
0.240081 -0.194787 0.000147484 -0.258982 7.98107e-06 -0.965882
-0.220467 0.152264 0.309907 0.430881 -0.832516 -0.348222
-0.0115386 -0.22309 0.430106 6.35459e-07 -0.11679 0.993157
-0.225149 -0.258545 0.250664 -0.859281 -0.50971 0.0428067
-0.0771739 0.152423 0.597189 0 -0.969335 0.245741
-0.0380689 -0.240113 0.388643 0 0.986377 -0.164499
-0.183839 0.117009 0.40533 0.0995042 -0.0874465 -0.991187
0.0969748 0.236146 0.715137 0.00291029 -0.179148 0.983818
-0.158553 0.0470743 0.411743 0 0.0921997 0.995741
-0.0679475 -0.164267 0.428076 0 0.0630923 0.998008
-0.148879 -0.183186 0.429272 0 0.0630923 0.998008
-0.1602 -0.12884 0.425836 0 0.0630923 0.998008
-0.100559 0.177439 0.679064 0 -0.94868 0.316237
-0.0974349 0.11279 0.405737 0 0.0878826 0.996131
-0.210376 0.133395 0.506708 0.33238 -0.935064 0.1232
0.203616 0.108302 0.392298 -0.071104 0.0553032 -0.995935
0.160092 0.184683 0.694412 0 -0.808759 0.58814
-0.0673455 -0.127491 0.425751 0 0.0630923 0.998008
0.0439124 0.153144 0.600033 0 -0.969335 0.245741
0.187019 -0.0421315 0.418278 -0.140808 0.0912813 0.98582
-0.0428789 -0.211773 0.431079 0 0.0630923 0.998008
-0.269361 0.0388457 0.595793 -0.804955 0.0491751 0.591295
-0.105628 -0.246936 0.385813 0 0.707107 -0.707107
0.021389 0.175756 0.674016 0 -0.94868 0.316237
-0.224618 0.144892 0.477227 -0.711755 0.701142 -0.0424871
0.124027 -0.00556786 0.416617 0 0.0921997 0.995741
-0.158827 0.142538 0.557067 0 -0.985623 0.168959
-0.0931581 -0.0194402 0.417901 0 0.0921997 0.995741
0.0814686 -0.145731 0.426904 0 0.0630923 0.998008
-0.211047 0.18174 0.65115 -0.617785 0.769268 -0.162999
0.240248 0.246806 0.0907492 0.908566 0.370951 0.192103
-0.214378 -0.00250235 0.403659 -0.995089 0.00912556 0.0985625
-0.124544 0.0295641 0.413364 0 0.0921997 0.995741
-0.0243911 0.0882316 0.407932 0 0.0921997 0.995741
0.0443105 -0.2557 0.387779 0 -0.965872 -0.259018
0.204701 -0.00955943 0.400418 -0.140841 -0.0912799 -0.985815
0.190084 0.195355 0.693332 0 0.613979 -0.789322
-0.112541 -0.189861 0.429694 0 0.0630923 0.998008
-0.230791 0.175119 0.273253 -0.430953 0.831775 0.349899
-0.24437 0.136228 0.598494 -0.166382 -0.376127 0.911507
0.221942 0.164015 0.604239 0.54043 0.834176 -0.109934
-0.184722 0.0623014 0.410209 0.0995304 -0.0917412 -0.990796
-0.125249 0.0533493 0.411161 0 0.0921997 0.995741
0.224017 0.146117 0.524493 0.980302 0.195933 0.0248578
0.121295 -0.259625 0.391395 0 -1 0
-0.0700133 0.233671 0.704664 -0.0307381 0.701758 -0.711752
0.11671 0.0457655 0.411864 0 0.0921997 0.995741
-0.0469479 -0.0384826 0.419665 0 0.0921997 0.995741
-0.0916293 0.167495 0.649233 0 -0.94868 0.316237
-0.170588 -0.229763 0.429182 2.25138e-06 -0.413897 0.910324
0.185033 0.155056 0.56797 -0.989017 -0.146597 -0.0188199
0.120416 0.0152176 0.414692 0 0.0921997 0.995741
-0.165079 -0.00922719 0.416956 0 0.0921997 0.995741
0.0853741 -0.111111 0.424715 0 0.0630923 0.998008
-0.23625 0.191487 0.00927482 0.706712 -1.47103e-05 0.707501
-0.00690308 0.170498 0.658241 0 -0.94868 0.316237
0.00684105 -0.254618 0.407754 0 -0.813742 0.581226
0.206188 -0.251117 0.395357 0.243878 -0.258903 0.934608
0.204483 0.143139 0.489578 -0.225244 0.885928 -0.40546
0.0267766 0.0636063 0.410212 0 0.0921997 0.995741
0.213045 -0.201872 0.426359 0.948653 0.014527 0.315986
-0.202026 -0.243809 0.423352 -0.683388 -0.463616 0.563952
0.0697748 0.232891 0.703753 0.0444158 0.799365 -0.599202
0.19714 0.153157 0.58509 -0.128779 -0.965735 0.225326
0.0319922 -0.167186 0.42826 0 0.0630923 0.998008
0.252008 0.0874416 0.596517 0.0993636 0.095669 0.990442
-0.240945 0.00997459 0.602723 0.349915 0.0846354 0.93295
0.0263681 0.00752505 0.415405 0 0.0921997 0.995741
0.246403 0.00693896 0.00568393 0.96579 0 -0.259325
0.121075 0.0949898 0.407308 0 0.0878826 0.996131
-0.119887 0.153131 0.599983 0 -0.969335 0.245741
-0.198712 0.0994349 0.408444 0.0995288 0.0874462 0.991185
-0.238136 -0.031546 0.600849 0.272498 -0.124614 -0.954053
0.24328 0.100224 0.582697 -0.0823458 -0.125704 -0.988644
0.0649954 0.172392 0.663925 0 -0.94868 0.316237
-0.229038 -0.259601 0.118542 -0.838463 0.544958 0.000455908
0.24839 -0.0209779 0.597966 -0.0144083 -0.129569 -0.991466
-0.146305 0.140571 0.406999 0.293169 -0.944365 0.149088
0.0551855 0.161931 0.407779 -0.0644025 -0.982089 0.177071
0.187448 0.0485998 0.411204 -0.0995304 -0.0917419 -0.990796
0.152779 0.138122 0.531301 0 -0.985623 0.168959
0.249183 0.0407781 0.589884 -0.0144083 -0.129569 -0.991466
0.171898 -0.14899 0.42711 0 0.0630923 0.998008
-0.142348 0.15397 0.412732 -0.283018 0.959114 0
0.0238872 -0.246578 0.394033 0 0.706776 0.707438
0.159446 -0.236461 0.426136 0 -0.413897 0.910324
-0.148757 0.165987 0.64471 0 -0.94868 0.316237
-0.195831 0.0507596 0.410162 0.0995304 -0.0917412 -0.990796
0.0527389 -0.245943 0.393636 0 -0.514471 -0.857508
0.160171 -0.0132728 0.41733 0 0.0921997 0.995741
-0.0187307 0.0583699 0.410697 0 0.0921997 0.995741
-0.240779 0.202687 3.5994e-05 -0.258565 -9.6958e-06 -0.965994
0.0185799 0.168966 0.653647 0 -0.94868 0.316237
-0.235014 -0.125639 0.00522847 0.966705 0 -0.255894
0.18404 0.213619 0.700993 -0.0336395 0.0448321 -0.998428
0.0345364 -0.107615 0.424494 0 0.0630923 0.998008
0.235412 -0.0759797 0.00372564 -0.965958 1.80011e-05 -0.258701
0.0946115 0.156033 0.611428 0 -0.969335 0.245741
-0.00094302 0.156683 0.613993 0 -0.969335 0.245741
-0.174282 0.00300615 0.415823 0 0.0921997 0.995741
-0.0145239 -0.155098 0.427496 0 0.0630923 0.998008
-0.15635 0.193575 0.703487 0 -0.624738 0.780835
-0.142266 -0.223894 0.430011 0 -0.116782 0.993158
-0.129283 0.177892 0.680424 0 -0.94868 0.316237
0.223851 -0.253782 0.174271 0.513438 0.857861 -0.0213465
-0.0465462 0.172527 0.398065 -0.0642271 0.995994 -0.0622202
0.0909603 -0.017188 0.417693 0 0.0921997 0.995741
-0.201987 -0.017623 0.401552 0.140917 -0.0912722 -0.985805
0.113691 -0.0596782 0.421464 0 0.0630923 0.998008
-0.182702 -0.0676678 0.421969 0 0.0630923 0.998008
-0.159233 0.140091 0.542792 0 -0.985623 0.168959
0.245856 -0.0530273 0.00365619 0.965033 -1.7974e-05 -0.262128
-0.222302 0.129634 0.426 -0.940576 -0.320852 0.111219
-0.0349251 -0.257668 0.401824 0 -0.919108 0.394005
-0.172218 0.149111 0.584125 0 -0.969335 0.245741
0.0874336 0.0307757 0.413252 0 0.0921997 0.995741
0.21991 -0.26564 0.0493473 -0.998307 -0.053086 -0.0237634
0.135052 -0.245031 0.3891 0 0.96604 -0.258391
0.104175 -0.25458 0.405973 0 -0.70717 0.707044
-0.206527 0.171858 0.665427 -0.155315 -0.930202 0.332568
-0.0314153 0.0605358 0.410496 0 0.0921997 0.995741
0.0857344 -0.257788 0.386255 0 0.913821 -0.406118
-0.235314 -0.237113 0.0040937 0.966705 0 -0.255894
-0.226914 0.158711 0.58934 -0.533196 0.832277 -0.151711
-0.216608 -0.246139 0.359334 -0.0157764 0.999071 -0.0401149
-0.0504998 -0.24984 0.395694 0 0.259017 0.965873
0.122507 0.0825215 0.40846 0 0.0921997 0.995741
-0.218291 -0.249444 0.277668 -0.0157764 0.999071 -0.0401149
0.213743 0.112337 0.3998 0.933561 -0.272125 0.233265
-0.200537 0.0155354 0.416375 0.099529 0.0917348 0.990797
0.183942 -0.0521348 0.411992 -0.995922 0.00831825 0.0898364
0.218681 0.153294 0.319669 -0.993776 0.110982 -0.00962009
0.154784 0.139056 0.413944 -0.295485 -0.942354 0.15703
-0.141143 0.00479676 0.415657 0 0.0921997 0.995741
0.229743 0.172953 0.279766 0.576188 0.7505 0.323662
0.0134194 -0.124625 0.42557 0 0.0630923 0.998008
-0.0854718 0.134096 0.507821 0 -0.985623 0.168959
-0.0494384 0.16234 0.407957 0.0644025 -0.982089 0.177071
0.134467 0.181438 0.68995 0 -0.808759 0.58814
0.0583116 0.165901 0.64445 0 -0.94868 0.316237
0.0102337 -0.213999 0.431175 0 -0.11679 0.993157
0.149267 -0.251019 0.396056 0 0.44692 -0.894574
-0.100774 0.0158121 0.414637 0 0.0921997 0.995741
-0.215756 0.130726 0.372342 0.908381 -0.370418 -0.193995
0.259382 0.116986 0.580619 0.0897305 -0.12906 -0.987569
-0.238539 0.17848 0.0109936 0.258797 -8.25552e-06 0.965932
-0.19985 0.175151 0.625962 0.716107 0.657731 -0.233626
-0.214527 -0.239201 0.410503 -0.994054 -0.0717077 0.0819453
0.184389 0.0765241 0.408925 -0.0995304 -0.0917419 -0.990796
0.0835704 -0.0289511 0.418782 0 0.0921997 0.995741
-0.216109 0.15039 0.48652 -0.329272 0.93921 -0.0972813
0.0175552 0.113903 0.405639 0 0.0878826 0.996131
0.0536309 0.0749386 0.409162 0 0.0921997 0.995741
-0.231712 0.248458 0.0821226 0.900039 0.41942 0.11839
-0.126155 0.142806 0.55863 0 -0.985623 0.168959
0.0808652 0.169835 0.656254 0 -0.94868 0.316237
0.240553 -0.108469 0.0115303 -0.258661 -9.12742e-06 0.965968
-0.162185 0.136228 0.410717 0.293169 -0.944365 0.149088
-0.0364519 0.0887811 0.407881 0 0.0921997 0.995741
-0.193891 -0.115056 0.426006 0.0994672 0.0627785 0.993058
0.12373 0.170108 0.657072 0 -0.94868 0.316237
-0.20114 -0.0956167 0.425503 0.0994672 0.0627785 0.993058
0.117352 -0.151208 0.42725 0 0.0630923 0.998008
-0.124202 -0.0630075 0.421674 0 0.0630923 0.998008
0.200943 0.0858939 0.392117 -0.140917 -0.0912722 -0.985805
-0.245655 0.0774406 0.597069 0.0826276 0.095816 0.991964
0.18037 0.187597 0.693704 -0.0980806 -0.839562 0.534337
0.000646234 0.00941044 0.41523 0 0.0921997 0.995741
0.1453 0.0961777 0.407203 0 0.0878826 0.996131
-0.0787598 0.0531971 0.411176 0 0.0921997 0.995741
0.190177 -0.0595635 0.420786 -0.0995256 -0.062779 -0.993053
-0.0870396 -0.171965 0.428562 0 0.0630923 0.998008
-0.235032 0.106305 0.00639074 0.965874 0 0.259014
-0.0827681 0.159131 0.623651 0 -0.969335 0.245741
-0.0368716 0.171101 0.390579 -0.056929 0.705958 -0.705962
-0.218411 0.160584 0.569972 -0.750468 0.655588 -0.0836816
0.181478 0.173112 0.636768 -0.962255 -0.269494 0.0379312
0.181563 0.149959 0.587036 -0.32404 0.91015 -0.258117
-0.194286 -0.136175 0.410125 0 -0.057373 -0.998353
0.203856 -0.0238747 0.401864 -0.140841 -0.0912799 -0.985815
0.0511465 0.134974 0.512941 0 -0.985623 0.168959
0.198652 0.154367 0.549444 -0.171977 0.963786 -0.203814
0.189259 0.129693 0.413865 -0.236997 -0.953599 0.185691
-0.214547 0.0196427 0.398425 -0.552991 -0.0768134 -0.829639
0.242984 0.250536 0.068202 0.995937 0.0519664 0.0735453
0.221882 0.136576 0.375759 0.0917112 0.925672 0.367044
-0.208752 0.190596 0.684246 -0.617785 0.769268 -0.162999
0.211625 0.141578 0.441207 -0.93597 0.343278 -0.0782346
-0.18396 -0.257913 0.386292 0.117019 -0.702636 -0.701861
0.240623 0.0767621 4.53257e-06 -0.258817 9.03099e-06 -0.965926
-0.184312 -0.225483 0.426561 0.995021 0 0.0996663
0.10355 0.0407464 0.412328 0 0.0921997 0.995741
0.0399672 0.102722 0.406626 0 0.0878826 0.996131
-0.22187 0.135919 0.389604 -0.0975899 -0.195159 -0.975904
-0.05294 0.193049 0.703066 0 -0.624738 0.780835
0.193308 0.162771 0.624106 -0.128779 -0.965735 0.225326
-0.197964 0.152043 0.538658 0.253379 0.950283 -0.181004
-0.22383 -0.260626 0.0172534 0.811804 0.55999 -0.165487
0.172328 0.20629 0.707055 -0.813741 -0.581227 0
-0.0928244 0.138571 0.533922 0 -0.985623 0.168959
0.183316 0.136939 0.524405 0 -0.985623 0.168959
0.0518501 -0.00783933 0.416827 0 0.0921997 0.995741
0.215274 0.141844 0.453241 -0.165926 0.974514 -0.15097
-0.203844 0.140257 0.410822 -0.205182 0.977504 -0.0488514
-0.081422 -0.0790223 0.422687 0 0.0630923 0.998008
-0.13224 -0.190602 0.42974 0 0.0630923 0.998008
-0.169177 -0.251692 0.38463 0 -0.258711 -0.965955
-0.137541 0.0832551 0.408392 0 0.0921997 0.995741
0.217263 -0.257977 0.342775 -0.0160137 -0.999095 0.0394147
0.228004 0.13674 0.458402 0.947567 0.318969 0.0193704
0.201217 0.211666 0.71146 0.195438 -0.0781409 0.977598
-0.176844 0.22791 0.711562 -0.144722 0.699478 0.699847
0.162866 0.143771 0.563062 0 -0.969335 0.245741
-0.0753818 -0.0083343 0.416873 0 0.0921997 0.995741
-0.184278 -0.14096 0.421423 0.99591 0.00570066 0.0901732
0.093025 -0.0730447 0.422309 0 0.0630923 0.998008
0.0212915 0.186809 0.697335 0 -0.808759 0.58814
-0.193462 0.125668 0.403742 0 0.999027 -0.0441005
-0.117577 0.147967 0.397358 0.293169 -0.944365 0.149088
-0.24561 -0.0992681 0.00872112 -0.708373 1.31641e-05 0.705839
