0.236656 0.269374 0.029598 -0.605298 0.792104 0.0786427
0.203465 -0.249559 0.416391 0.682182 -0.595601 0.424132
-0.0372534 0.173331 0.401348 -0.0642271 0.995994 -0.0622202
0.0463109 -0.156434 0.42758 0 0.0630923 0.998008
0.0136174 0.00997276 0.415178 0 0.0921997 0.995741
0.197342 -0.103534 0.424068 -0.141108 0.0640766 0.987918
0.224707 0.126201 0.395392 0.16881 -0.98108 0.0947862
-0.239454 0.112419 0.581741 0.348664 -0.119518 -0.929596
-0.176673 0.148722 0.582593 0 -0.969335 0.245741
-0.187431 -0.0650049 0.420153 0.155582 0.06233 0.985855
0.22293 0.14062 0.523712 0.984339 -0.148055 0.095689
-0.188975 0.0959039 0.405751 0.140603 0.109338 0.98401
-0.0568556 -0.249006 0.415611 4.49192e-06 -0.813742 0.581226
0.0462427 0.14577 0.570948 0 -0.969335 0.245741
-0.0637224 -0.00538914 0.4166 0 0.0921997 0.995741
-0.213911 0.132311 0.418183 0.934764 0.336833 -0.112957
0.154089 0.149547 0.585844 0 -0.969335 0.245741
0.0924616 0.162797 0.390869 0.132042 0.678579 -0.722561
0.118494 0.173037 0.66586 0 -0.94868 0.316237
0.00173874 -0.212205 0.431106 0 0.0630923 0.998008
-0.0807046 -0.238876 0.399411 -5.23176e-06 0.961479 0.274878
0.249325 0.0841314 0.58424 -0.0823458 -0.125704 -0.988644
0.17058 -0.149282 0.427128 0 0.0630923 0.998008
-0.0276567 0.177216 0.678394 0 -0.94868 0.316237
0.175176 -0.0200133 0.417954 0 0.0921997 0.995741
0.120002 -0.193424 0.429919 0 0.0630923 0.998008
0.0278273 0.242445 0.708338 0.0045209 0.274565 -0.961558
-0.105166 0.0889245 0.407867 0 0.0921997 0.995741
-0.159733 0.0384741 0.412539 0 0.0921997 0.995741
-0.241353 0.132187 0.0113729 -0.258795 9.13209e-06 0.965932
-0.20054 -0.17545 0.412175 0.141214 -0.0567981 -0.988348
0.0332373 -0.245194 0.390241 0 -0.980597 -0.196034
-0.207576 0.143743 0.569608 0.281031 -0.93383 0.221319
0.0637043 0.00734889 0.415421 0 0.0921997 0.995741
-0.0497581 0.143022 0.559888 0 -0.985623 0.168959
0.152311 -0.184833 0.429376 0 0.0630923 0.998008
0.146281 -0.248299 0.408674 0 0.16431 0.986409
0.234008 0.0235208 0.595945 -0.703396 -0.100513 -0.703655
-0.0506034 -0.241587 0.422874 0 -0.664336 0.747434
-0.257158 -0.0125515 0.597053 -0.0138888 -0.124883 -0.992074
-0.197082 0.120123 0.404712 0.0948109 0 0.995495
-0.164827 0.224833 0.71288 -0.00644012 -0.100736 0.994892
0.0959721 -0.149944 0.42717 0 0.0630923 0.998008
0.238843 0.151339 0.591447 0.534395 0.843144 0.059413
-0.186087 -0.0834573 0.420971 0.717534 0.0439495 0.695136
-0.079257 0.137992 0.530544 0 -0.985623 0.168959
-0.226487 0.139717 0.422713 -0.711695 0.70124 -0.0418555
-0.0583776 0.144482 0.565868 0 -0.969335 0.245741
-0.0431627 -0.247641 0.385108 0 0.707107 -0.707107
0.139975 0.154135 0.603945 0 -0.969335 0.245741
-0.190924 -0.0500538 0.41957 0.140808 0.0912813 0.98582
-0.204896 0.138166 0.506773 -0.854285 -0.502967 0.13123
-0.222526 0.147888 0.491613 -0.711866 0.701029 -0.0424893
0.118303 -0.256238 0.404314 0 -0.70717 0.707044
0.22065 0.138535 0.428485 -0.190209 0.977137 -0.0949953
-0.183521 0.0517821 0.411304 0.0995304 -0.0917412 -0.990796
0.199843 0.144354 0.532765 -0.33343 0.924297 -0.185742
0.0466404 0.160656 0.394094 -0.0569132 -0.947077 -0.315921
0.120299 0.134465 0.509971 0 -0.985623 0.168959
0.0820438 -0.206372 0.430737 0 0.0630923 0.998008
0.218682 -0.264065 0.144473 -0.872785 -0.488091 -0.00361793
0.0436898 0.0657393 0.410014 0 0.0921997 0.995741
0.207455 -0.245499 0.386321 -0.0662183 0.968259 -0.241017
-0.213553 0.135286 0.42709 0.98122 -0.192862 -0.00340476
-0.188325 0.148925 0.532424 0.171977 0.963786 -0.203814
-0.144185 0.160004 0.626761 0 -0.94868 0.316237
-0.271478 0.113654 0.58669 -0.804955 0.0491751 0.591295
0.0260929 -0.200967 0.430396 0 0.0630923 0.998008
0.240449 -0.0111991 5.05527e-05 -0.258817 9.03099e-06 -0.965926
-0.0183839 0.138854 0.535572 0 -0.985623 0.168959
0.214902 -0.259338 0.388885 0.962133 -0.192851 -0.192638
-0.194329 -0.237144 0.424634 0.0994983 0.411751 -0.905848
-0.20246 0.207657 0.697884 -0.154394 0.342051 -0.926911
-0.185762 0.0369688 0.412906 0.0994666 0.0917431 0.990802
-0.239485 0.254982 0.0436978 -0.0771641 -0.929866 -0.359716
-0.116432 -0.0270978 0.41861 0 0.0921997 0.995741
0.0781692 -0.256831 0.404655 0 -0.813742 0.581226
-0.0209307 0.0691875 0.409695 0 0.0921997 0.995741
-0.228068 0.176102 0.274796 0.0778575 0.92912 0.361489
0.215925 0.16408 0.57506 0.750468 0.655588 -0.0836816
0.250552 0.0664424 0.598539 -0.0826276 0.095816 0.991964
-0.0383718 -0.0285583 0.418746 0 0.0921997 0.995741
0.0924503 -0.239716 0.391022 0 0.986377 -0.164499
0.114885 -0.258632 0.399574 0 -0.919108 0.394005
0.0536973 0.143673 0.562677 0 -0.969335 0.245741
-0.174705 -0.246898 0.385851 0 0.707107 -0.707107
0.188131 0.0668477 0.408346 -0.140808 0.0912813 0.98582
-0.0237764 -0.245512 0.3929 -4.71828e-06 0.96604 0.258391
-0.118047 0.160705 0.402969 -0.269707 0.961461 -0.0533855
-0.0043475 -0.160396 0.427831 0 0.0630923 0.998008
0.201483 0.134608 0.49039 0.0826708 -0.984985 0.151556
0.152523 0.144635 0.566469 0 -0.969335 0.245741
-0.193272 0.159753 0.577196 0.172403 0.958255 -0.228091
-0.173565 0.0339902 0.412954 0 0.0921997 0.995741
-0.240031 0.15564 0.0113931 0.258797 -8.25552e-06 0.965932
-0.150304 0.167897 0.650439 0 -0.94868 0.316237
-0.192554 0.159057 0.607754 0.128779 -0.965735 0.225326
0.237421 0.256946 0.00557417 -0.743361 0.409747 -0.528698
-0.0542468 0.144288 0.565101 0 -0.969335 0.245741
0.204912 0.177234 0.628232 -0.113598 0.955212 -0.273251
-0.233486 0.245902 0.0954696 0.56361 0.778264 0.276855
-0.220445 -0.247497 0.344939 -0.513439 0.857861 -0.021349
0.199398 0.110556 0.405612 -0.140601 0.109339 0.98401
-0.0859376 0.121985 0.404926 0 0.0878826 0.996131
-0.141148 0.0873941 0.408009 0 0.0921997 0.995741
-0.0558985 -0.244161 0.385073 0 -0.980597 -0.196034
-0.221428 0.127773 0.417504 -0.16881 -0.98108 0.0947862
-0.0806796 0.158846 0.622525 0 -0.969335 0.245741
-0.0491635 -0.239849 0.402812 -5.23176e-06 0.961479 0.274878
-0.213694 0.0274655 0.40727 -0.948346 0.0292491 0.315888
-0.234552 0.263516 0.0180128 0.988378 -0.138899 -0.0617755
-0.168725 0.226397 0.712862 0 0 1
-0.208358 0.17241 0.666115 -0.155315 -0.930202 0.332568
-0.115076 -0.155703 0.427534 0 0.0630923 0.998008
-0.15636 -0.245463 0.39159 0 -0.980597 -0.196034
-0.180908 0.196293 0.694061 0 0.613979 -0.789322
-0.227757 0.146324 0.3246 -0.900041 -0.419931 -0.116553
0.204931 0.0880539 0.391347 -0.140917 -0.0912722 -0.985805
-0.000190377 -0.166784 0.428235 0 0.0630923 0.998008
0.225777 0.156236 0.325363 -0.0778575 0.92912 0.361489
-0.14208 -0.00233919 0.416318 0 0.0921997 0.995741
-0.214955 0.171822 0.644017 -0.870881 -0.451762 0.19359
0.184115 0.205975 0.70023 -0.116175 0.10463 -0.987702
0.131279 0.114317 0.405603 0 0.0878826 0.996131
0.233176 0.247913 0.0891868 -0.56361 0.778264 0.276855
0.164698 0.13616 0.519859 0 -0.985623 0.168959
-0.100941 0.0284268 0.413469 0 0.0921997 0.995741
0.0703713 0.105803 0.406354 0 0.0878826 0.996131
-0.182791 0.17203 0.650364 0.126662 -0.949859 0.285874
-0.243008 0.0124392 0.603049 0.09949 0.0945207 0.990539
0.150243 -0.255817 0.406075 0 -0.813742 0.581226
-0.116088 -0.240948 0.40499 0 0.55477 0.832004
-0.120622 0.221113 0.702715 0.0598275 -0.241981 -0.968435
-0.152281 0.231279 0.707201 -0.0927976 0.70387 -0.704241
-0.226648 0.200165 0.2106 0.413006 0.855271 0.312951
0.213223 -0.218697 0.414337 0.547033 -0.164228 -0.820843
-0.214768 -0.258058 0.278309 0.872785 -0.488091 -0.00361793
-0.207646 -0.140025 0.409124 0.14114 -0.0568048 -0.988359
-0.00516082 -0.247635 0.395089 0 0.706776 0.707438
-0.14395 0.217179 0.702257 0.0598275 -0.241981 -0.968435
-0.208618 0.129047 0.440924 0.986728 -0.159118 -0.0324018
-0.101083 -0.171121 0.428509 0 0.0630923 0.998008
-0.192413 0.18641 0.675575 0.0563455 0.958302 -0.280148
0.0755855 0.158156 0.407279 -0.183181 -0.966225 0.181256
0.0722997 -0.186312 0.429469 0 0.0630923 0.998008
-0.243872 -0.0846961 0.00111891 -0.705871 -2.19236e-05 -0.70834
0.238617 0.20521 0.00054325 -0.258817 9.03099e-06 -0.965926
0.237432 0.0848823 0.58604 -0.348664 -0.119518 -0.929596
0.194881 -0.149686 0.426683 -0.155582 0.06233 0.985855
0.201621 0.0161016 0.414972 -0.140861 0.0912737 0.985813
-0.147546 -0.0107731 0.417099 0 0.0921997 0.995741
-0.033124 -0.250451 0.384347 0 0.25871 -0.965955
-0.157191 0.23122 0.707788 -0.0927976 0.70387 -0.704241
-0.10189 0.164137 0.403991 -0.179799 0.98219 -0.0545365
-0.187947 0.0252159 0.414214 0.0994666 0.0917431 0.990802
-0.0109013 0.0367049 0.412703 0 0.0921997 0.995741
0.00433557 -0.239763 0.390743 0 0.986377 -0.164499
0.120294 0.148157 0.403659 -0.295485 -0.942354 0.15703
-0.0101983 0.174002 0.391988 -0.0661491 0.946537 -0.315741
0.179291 -0.259625 0.394203 0 -1 0
-0.198561 -0.238893 0.394839 0.139535 0.976742 -0.162804
0.0591129 -0.108057 0.424522 0 0.0630923 0.998008
-0.15679 0.0411912 0.412287 0 0.0921997 0.995741
0.0840453 -0.259625 0.390956 0 -1 0
0.187983 0.0592046 0.394853 0 -0.0921922 -0.995741
0.10104 -0.197914 0.430203 0 0.0630923 0.998008
0.20011 -0.00888149 0.401011 -0.140917 -0.0912722 -0.985805
0.0303024 -0.255414 0.40664 0 -0.813742 0.581226
-0.262542 -0.0433816 0.606632 -0.196273 -0.784163 0.588698
0.1757 0.142506 0.393458 0.144042 0.699608 -0.699858
-0.242164 0.248467 0.0018038 -0.253051 0.199241 -0.946715
-0.15472 -0.173776 0.428677 0 0.0630923 0.998008
0.0860355 0.143662 0.562631 0 -0.969335 0.245741
0.226655 0.129203 0.446154 0.717052 -0.685437 0.126538
0.210122 -0.113216 0.421365 0.241889 0.0653737 0.968099
0.143565 0.134564 0.51055 0 -0.985623 0.168959
-0.13519 -0.0140211 0.4174 0 0.0921997 0.995741
-5.55112e-17 -0.247811 0.386192 1 0 0
-0.1273 0.00217829 0.4159 0 0.0921997 0.995741
0.210488 -0.218413 0.413626 -0.138663 -0.194289 -0.971094
0.0693169 0.170254 0.40678 0.179802 0.98219 -0.0545365
0.230764 0.15552 0.585367 0.533196 0.832277 -0.151711
0.178693 0.170216 0.656392 0.126243 -0.938871 0.320286
-0.116932 0.219386 0.706595 0.1554 -0.987852 0
0.0236829 0.0473128 0.41172 0 0.0921997 0.995741
0.196434 0.18451 0.695744 -0.221443 -0.850279 0.477481
-0.175233 0.047148 0.411736 0 0.0921997 0.995741
-0.218185 0.166984 0.616231 -0.730897 0.6704 0.127881
-0.153903 0.175158 0.672222 0 -0.94868 0.316237
-0.0800294 -0.239036 0.395103 -5.36661e-06 0.986392 -0.164412
0.195503 0.143555 0.536579 -0.33343 0.924297 -0.185742
0.028279 0.159189 0.62388 0 -0.969335 0.245741
0.222167 0.136814 0.42546 0.32633 0.94308 -0.0641073
0.19055 0.144829 0.545692 0.0851454 -0.975641 0.202174
-0.0369799 0.0496335 0.411506 0 0.0921997 0.995741
-0.00608483 -0.245369 0.387836 0 0.96604 -0.258391
-0.136702 0.186968 0.697553 0 -0.808759 0.58814
-0.224038 0.175473 0.274636 0.413006 0.855271 0.312951
-0.211995 0.153169 0.509754 0.310938 0.932819 -0.182115
0.224367 -0.265662 0.15087 -0.0160137 -0.999095 0.0394147
-0.109994 0.136106 0.519547 0 -0.985623 0.168959
-0.193153 0.0348622 0.397107 0 -0.0921922 -0.995741
0.197852 -0.121727 0.409295 0 -0.057373 -0.998353
0.0249976 -0.086169 0.423138 0 0.0630923 0.998008
0.0751001 0.243625 0.712984 0.0460687 0.706161 0.706551
0.235041 0.0924511 0.0064255 -0.96579 0 0.259325
0.213647 0.0824644 0.402319 0.948346 0.0292491 0.315888
-0.0446313 0.029735 0.413348 0 0.0921997 0.995741
0.113234 -0.0913036 0.423463 0 0.0630923 0.998008
0.00515272 -0.0547953 0.421155 0 0.0630923 0.998008
0.19403 0.13975 0.520289 -0.33343 0.924297 -0.185742
-0.0947001 0.0295033 0.413369 0 0.0921997 0.995741
0.249541 -0.00757435 0.605605 -0.0826276 0.095816 0.991964
0.226665 -0.269952 0.0439425 0.0481399 -0.997971 0.0416725
-0.17985 0.123019 0.404835 0 0.0878826 0.996131
-0.100472 -0.247569 0.417557 3.66817e-06 -0.664291 0.747474
0.245183 0.261537 0.0126827 0.948759 0.230629 -0.216025
0.157996 0.189116 0.69992 0 -0.624738 0.780835
0.0823563 -0.226706 0.429681 0 -0.11679 0.993157
-0.195369 -0.0154295 0.418722 0.0994666 0.0917431 0.990802
0.228947 -0.26942 0.0348153 0.541053 -0.839602 0.0482751
-0.184837 0.139218 0.537399 -0.141068 -0.974742 0.173139
-0.132602 0.156941 0.615012 0 -0.969335 0.245741
-0.0993454 0.154291 0.604557 0 -0.969335 0.245741
0.0234931 -0.0541471 0.421114 0 0.0630923 0.998008
-0.187843 -0.148764 0.426659 0.0995255 -0.062779 -0.993053
-0.0546324 0.107218 0.406229 0 0.0878826 0.996131
-0.226265 0.160278 0.605151 -0.707395 0.702429 0.0786468
0.214684 -0.240626 0.391204 1 0 0
0.140575 -0.242255 0.405863 0 0.55477 0.832004
-0.0125121 -0.224582 0.429931 6.35459e-07 -0.11679 0.993157
0.211684 0.15142 0.501327 -0.310938 0.932819 -0.182115
-0.0820003 -0.15879 0.427729 0 0.0630923 0.998008
-0.175537 -0.0997256 0.423995 0 0.0630923 0.998008
0.193577 -0.200716 0.43139 -0.0994601 0.0627794 0.993059
0.192345 -0.236579 0.425953 -0.116868 -0.410913 0.904153
-0.0403493 0.0625952 0.410305 0 0.0921997 0.995741
0.23794 0.266046 0.0457427 -0.0778575 0.92912 0.361489
0.0046407 0.173792 0.41129 0 0.447309 0.894379
0.235211 -0.0385227 0.00705816 -0.965033 -1.8043e-05 0.26213
0.221295 0.173741 0.270266 -0.996065 -0.0520953 -0.0717014
-0.0625202 0.134166 0.508228 0 -0.985623 0.168959
0.238394 0.248746 0.0595831 0.0771641 -0.929866 -0.359716
0.0601142 -0.255853 0.391855 0 -0.965872 0.259018
0.140598 -0.0190259 0.417863 0 0.0921997 0.995741
0.212228 -0.0869718 0.40566 0.554136 -0.0477639 -0.831055
0.225726 -0.261272 0.207795 0.889694 -0.454622 0.0419952
-0.0467438 0.0581719 0.410715 0 0.0921997 0.995741
0.244668 -0.040446 0.600564 -0.0144083 -0.129569 -0.991466
0.0429358 0.156197 0.612076 0 -0.969335 0.245741
-0.225483 -0.255585 0.258256 -0.99959 -0.0109581 0.0264449
-0.200975 0.150722 0.564506 -0.480745 0.860939 -0.166336
0.189656 -0.214803 0.431701 -0.0994634 -0.116215 0.988231
0.21704 -0.257332 0.359044 -0.0160137 -0.999095 0.0394147
0.0225587 0.174567 0.405964 0.0642271 0.995994 -0.0622202
-0.0595285 0.0134039 0.41486 0 0.0921997 0.995741
-0.188155 0.154206 0.557541 0.171977 0.963786 -0.203814
-0.0830528 0.114536 0.405583 0 0.0878826 0.996131
0.245625 -0.051356 0.00286752 0.706873 -1.31868e-05 -0.707341
-0.114363 -0.145095 0.426864 0 0.0630923 0.998008
-0.245106 -0.0368711 0.00234896 -0.706873 -1.31868e-05 -0.707341
0.2258 -0.26389 0.166687 0.487838 -0.871637 0.0475675
0.212583 0.176483 0.633088 0.717457 0.681983 -0.141969
0.0468051 0.134667 0.511149 0 -0.985623 0.168959
-0.167073 0.133003 0.501443 0 -0.985623 0.168959
-0.250338 0.0701812 0.586024 0.0144083 -0.129569 -0.991466
0.239484 -0.141664 0.000307973 -0.258982 7.98107e-06 -0.965882
-0.0534782 -0.0909744 0.423442 0 0.0630923 0.998008
0.184303 0.159069 0.603305 -0.962209 -0.270783 0.028809
0.218414 0.149354 0.574942 0.646914 -0.729145 0.223271
0.0131225 -0.20368 0.430567 0 0.0630923 0.998008
-0.233822 0.22823 0.142054 0.0778575 0.92912 0.361489
0.0755397 0.00417629 0.415715 0 0.0921997 0.995741
0.113605 -0.0553761 0.421192 0 0.0630923 0.998008
-0.189447 0.0820033 0.407131 0.140861 0.0912737 0.985813
0.235166 -0.0507578 0.00465438 -0.966705 0 -0.255894
-0.214184 -0.0199063 0.401845 -0.552991 -0.0768134 -0.829639
0.187041 0.173104 0.655815 -0.126662 -0.949859 0.285874
0.223004 0.140755 0.523155 0.984339 -0.148055 0.095689
-0.185458 -0.133684 0.423497 0.717534 0.0439495 0.695136
-0.226891 0.138721 0.584241 0.857203 -0.428542 -0.285579
-0.0590412 -0.238677 0.398713 -5.23176e-06 0.961479 0.274878
0.213923 -0.242504 0.414934 0.994055 -0.0717022 0.081939
-0.234451 0.251419 0.055548 0.430881 -0.832516 -0.348222
0.0430585 0.162604 0.407102 -0.0644025 -0.982089 0.177071
-0.22732 -0.267507 0.0863135 -0.540901 -0.8397 0.0482733
-0.25175 -0.0408975 0.60894 -0.0993636 0.095669 0.990442
-0.13661 -0.00357588 0.416432 0 0.0921997 0.995741
-0.213664 0.0343037 0.406725 -0.948346 0.0292491 0.315888
0.222768 0.13523 0.40522 0.32633 0.94308 -0.0641073
0.0659349 -0.0915696 0.42348 0 0.0630923 0.998008
-0.209552 -0.163989 0.410229 0.14114 -0.0568048 -0.988359
0.00753111 0.05158 0.411325 0 0.0921997 0.995741
-0.215021 0.13019 0.494415 0.329916 -0.938544 0.10144
-0.089958 0.0377686 0.412604 0 0.0921997 0.995741
-0.188587 0.188107 0.681439 0 0.957025 -0.290006
0.229389 0.134678 0.423707 0.948548 0.316069 0.0188963
-0.0675903 0.167607 0.649568 0 -0.94868 0.316237
0.0508589 0.159729 0.625937 0 -0.94868 0.316237
0.255249 -0.0280903 0.607352 0.0993636 0.095669 0.990442
-0.237525 0.219471 0.156873 -0.824159 0.51084 0.24455
0.191163 -0.117569 0.409056 0 -0.057373 -0.998353
-0.176162 0.14472 0.409996 -0.178894 0.983868 0
0.119658 -0.0800286 0.42275 0 0.0630923 0.998008
-0.0696483 -0.239371 0.401142 -5.23176e-06 0.961479 0.274878
-0.0513389 0.162404 0.409004 0.0644025 -0.982089 0.177071
-0.224538 -0.253285 0.294915 -0.99959 -0.0109581 0.0264449
-0.00430205 0.116069 0.405448 0 0.0878826 0.996131
-0.236073 -0.0353767 0.00245228 0.708379 1.31799e-05 -0.705833
-0.220537 0.153773 0.32932 0.413006 0.855271 0.312951
0.0178991 -0.0777089 0.422604 0 0.0630923 0.998008
0.120739 -0.024742 0.418392 0 0.0921997 0.995741
-0.210323 0.0475949 0.407939 0 0.0921989 0.995741
-0.209754 0.0716734 0.392174 0.140917 -0.0912722 -0.985805
0.153884 -0.247721 0.394703 0 -0.514471 -0.857508
0.144191 -0.180923 0.429129 0 0.0630923 0.998008
0.0403762 0.0276374 0.413542 0 0.0921997 0.995741
-0.1098 -0.238769 0.396701 -5.36661e-06 0.986392 -0.164412
0.160244 -0.192619 0.429868 0 0.0630923 0.998008
0.254986 0.140359 0.592049 0.651222 0.735695 0.18618
0.0556606 0.169796 0.656135 0 -0.94868 0.316237
-0.0924856 0.0740214 0.409247 0 0.0921997 0.995741
-0.20335 -0.255894 0.3917 0 -0.965872 0.259018
0.13936 0.188454 0.69939 0 -0.624738 0.780835
-0.211613 0.157261 0.531363 0.310938 0.932819 -0.182115
0.245462 0.00866352 0.594157 -0.0823458 -0.125704 -0.988644
0.051778 -0.18889 0.429632 0 0.0630923 0.998008
0.243965 0.0478279 0.00120788 0.705871 -2.19236e-05 -0.70834
-0.270464 0.0847878 0.59047 -0.804955 0.0491751 0.591295
-0.207299 0.154771 0.529546 0.698048 0.698048 -0.159559
0.07367 0.163715 0.414948 -0.0753271 -0.241727 0.967416
-0.242254 0.183695 0.000431313 -0.258818 -8.08393e-06 -0.965926
0.215189 -0.25789 0.321695 -0.513215 -0.858011 0.0206768
0.127429 0.0730041 0.409342 0 0.0921997 0.995741
0.0880414 0.0473949 0.411713 0 0.0921997 0.995741
-0.15243 0.150995 0.407454 -0.283018 0.959114 0
-0.168322 0.152346 0.596884 0 -0.969335 0.245741
0.0756565 -0.256665 0.403887 0 -0.70717 0.707044
0.22474 0.18967 0.217728 -0.908381 -0.370418 -0.193995
-0.180193 -0.239761 0.390755 -5.36661e-06 0.986392 -0.164412
0.0449012 -0.0081137 0.416853 0 0.0921997 0.995741
-0.173281 -0.239121 0.394595 -5.36661e-06 0.986392 -0.164412
0.221985 0.140786 0.529772 0.770762 -0.616511 0.160746
0.0308382 0.139744 0.540769 0 -0.985623 0.168959
0.0706895 0.0227556 0.413994 0 0.0921997 0.995741
-0.0174644 0.138502 0.53352 0 -0.985623 0.168959
0.0937937 -0.00957624 0.416988 0 0.0921997 0.995741
-0.177757 0.0238262 0.413895 0 0.0921997 0.995741
0.220727 -0.261522 0.254322 -0.0160137 -0.999095 0.0394147
-0.161169 0.0696255 0.409654 0 0.0921997 0.995741
-0.207496 0.0861345 0.391158 0.140917 -0.0912722 -0.985805
0.190834 -0.11562 0.408944 0 -0.057373 -0.998353
-0.183911 -0.175109 0.419816 0.994997 0.00691285 0.0996639
0.0123991 0.247735 0.711197 0.0651714 0.946702 0.315448
0.11515 0.223849 0.702371 -0.0571589 -0.228597 -0.971842
0.085554 -0.205154 0.43066 0 0.0630923 0.998008
0.119519 -0.223858 0.430016 0 -0.11679 0.993157
-0.107372 -0.234782 0.4269 0 -0.413931 0.910308
0.118637 -0.117591 0.425125 0 0.0630923 0.998008
-0.211493 -0.159219 0.424129 -0.241889 0.0653737 0.968099
0.072421 0.154047 0.603596 0 -0.969335 0.245741
-0.185404 0.0215077 0.414302 0.0994666 0.0917431 0.990802
-0.167015 -0.241343 0.386429 0 0.600072 -0.799946
0.0816741 0.156264 0.392101 -0.163686 -0.935955 -0.311761
-0.176631 -0.256967 0.388103 0 0.913821 -0.406118
-0.10519 0.167837 0.650259 0 -0.94868 0.316237
0.18379 0.105181 0.397448 -0.992384 0.0128889 0.122504
-0.160758 -0.242978 0.385202 0 0.600072 -0.799946
-0.0222532 0.132835 0.500465 0 -0.985623 0.168959
0.244633 0.0836042 0.00187399 0.706873 -1.31868e-05 -0.707341
-0.176696 0.16197 0.63266 0 -0.94868 0.316237
-0.134674 -0.136434 0.426316 0 0.0630923 0.998008
0.06242 0.0645664 0.410123 0 0.0921997 0.995741
0.200598 -0.179439 0.429456 -0.141108 0.0640766 0.987918
-0.0417142 0.115105 0.405533 0 0.0878826 0.996131
0.21213 0.141321 0.434037 -0.93597 0.343278 -0.0782346
0.214566 0.0891419 0.39327 0.995089 0.00912556 0.0985625
0.215014 -0.258055 0.234021 -0.999572 0.0112689 -0.0270034
-0.203327 0.144621 0.555712 0.780217 -0.624074 0.0423429
0.193079 0.17211 0.658593 0.0356703 -0.955295 0.293495
-0.0137943 0.115309 0.405515 0 0.0878826 0.996131
-0.106437 0.155271 0.608424 0 -0.969335 0.245741
-0.0502391 -0.0780295 0.422624 0 0.0630923 0.998008
0.0304186 0.162205 0.400294 -0.0644025 -0.982089 0.177071
0.199589 0.155352 0.597878 -0.777352 -0.621782 0.0954524
-0.24084 0.0931848 0.0115107 -0.258795 9.13209e-06 0.965932
-0.0151693 0.172717 0.390445 -0.056929 0.705958 -0.705962
-0.207616 0.131634 0.458732 0.986728 -0.159118 -0.0324018
-0.1793 0.18672 0.683318 0.985877 -0.167352 -0.006315
0.202347 0.0964219 0.391704 -0.140658 0.109401 -0.983995
0.084861 -0.0224936 0.418184 0 0.0921997 0.995741
-0.183701 -0.119296 0.413851 0.994997 0.00691285 0.0996639
0.22727 0.154454 0.575469 0.650362 0.735556 -0.189702
0.184005 0.119673 0.3936 -0.704366 -0.0880512 -0.704355
-0.183971 0.00913876 0.406641 0.995913 0.00833409 0.0899342
-0.234938 0.257883 0.0396612 0.824348 -0.511329 -0.242885
-0.0373538 0.171124 0.66012 0 -0.94868 0.316237
0.231793 0.168255 0.281078 0.993816 -0.11078 0.00755838
-0.00623576 0.0740535 0.409244 0 0.0921997 0.995741
-0.00920748 -0.256403 0.404149 0 -0.70717 0.707044
0.0491412 0.163099 0.38963 -0.0154082 -0.238814 -0.970943
0.197545 -0.165882 0.429585 -0.0994673 0.0627785 0.993058
0.259034 0.115881 0.580732 0.0897305 -0.12906 -0.987569
0.239582 0.249424 0.0130945 -0.25297 -0.199513 0.946679
0.108675 0.0949547 0.407311 0 0.0878826 0.996131
-0.15808 0.142803 0.558608 0 -0.985623 0.168959
-0.033072 0.162799 0.390486 0.0620794 -0.946922 -0.315413
0.214855 -0.258155 0.303718 -0.455402 -0.889959 0.0241155
-0.152531 0.168874 0.65337 0 -0.94868 0.316237
0.232132 0.187197 0.242891 0.430953 0.831775 0.349899
-0.155532 -0.220373 0.430425 0 -0.116782 0.993158
0.188673 -0.199819 0.413783 0 -0.057373 -0.998353
-0.0762905 0.166968 0.413856 -0.0624709 0.553339 0.83061
-0.0922284 -0.254887 0.392783 0 0.913821 -0.406118
0.00506686 -0.247204 0.394659 0 0.706776 0.707438
-0.10092 -0.126366 0.42568 0 0.0630923 0.998008
0.168234 -0.133077 0.426104 0 0.0630923 0.998008
0.197595 0.144165 0.551882 0.184913 -0.964947 0.186236
-0.218344 -0.263061 0.188555 0.455402 -0.889959 0.0241155
0.198144 0.164631 0.594005 -0.172403 0.958255 -0.228091
0.0942446 0.0234139 0.413933 0 0.0921997 0.995741
0.093883 0.0546347 0.411042 0 0.0921997 0.995741
-0.187154 -0.115192 0.424606 0.0995255 -0.062779 -0.993053
0.187458 0.129952 0.412897 -0.236997 -0.953599 0.185691
0.152316 0.0601168 0.410535 0 0.0921997 0.995741
-0.22603 0.130032 0.389015 -0.979676 0.192884 0.0550596
0.244015 -0.0331115 0.607496 -0.09949 0.0945207 0.990539
0.212039 -0.0976389 0.420135 0 0.063093 0.998008
-0.195402 -0.0915771 0.423015 0.141108 0.0640766 0.987918
0.215745 0.128906 0.429871 -0.76691 -0.641712 0.00736795
0.0917075 0.165709 0.398973 0.178108 0.982096 -0.061352
-0.097193 0.16491 0.402435 -0.179799 0.98219 -0.0545365
0.23046 0.113162 0.586828 -0.804686 0.0458735 0.591926
0.0890306 0.0208138 0.414174 0 0.0921997 0.995741
-0.0373811 0.15845 0.620964 0 -0.969335 0.245741
-0.225916 0.129184 0.390931 -0.0989001 -0.109926 -0.989007
0.134991 0.176557 0.676418 0 -0.94868 0.316237
-0.010024 0.121461 0.404972 0 0.0878826 0.996131
0.108062 0.057114 0.410813 0 0.0921997 0.995741
-0.218244 0.132682 0.464791 -0.165601 -0.974559 0.151034
-0.185787 0.226432 0.711189 -0.144722 0.699478 0.699847
0.192653 -0.14771 0.427947 -0.0994601 0.0627794 0.993059
0.213586 0.12728 0.463176 -0.314331 -0.943504 0.104864
-0.01907 0.0824936 0.408463 0 0.0921997 0.995741
-0.181297 0.140193 0.543384 0 -0.985623 0.168959
-0.0791926 -0.204009 0.430588 0 0.0630923 0.998008
0.206324 0.151344 0.600352 -0.250963 -0.94238 0.221217
-0.245226 -0.246412 0.00800468 -0.961867 -0.137328 0.236544
-0.12615 0.147496 0.391432 0.250348 -0.805644 -0.536901
0.135321 0.155877 0.413496 0.255608 0.917168 0.305724
-0.183864 0.107451 0.397804 0.992384 0.0128889 0.122504
0.207413 0.106508 0.391928 -0.071104 0.0553032 -0.995935
-0.138376 0.216012 0.707946 0.1554 -0.987852 0
-0.235317 0.185107 0.00410144 0.965958 1.80011e-05 -0.258701
-0.0510945 -0.256338 0.404214 0 -0.70717 0.707044
0.156819 -0.241774 0.422707 0 -0.664336 0.747434
0.0905669 -0.255219 0.386883 0 -0.707271 -0.706942
-0.0243229 0.0240257 0.413877 0 0.0921997 0.995741
0.188684 0.00868676 0.39953 0 -0.0921922 -0.995741
-0.117222 -0.255343 0.406739 0 -0.813772 0.581184
-0.0655534 -0.194194 0.429968 0 0.0630923 0.998008
0.243976 0.123052 0.0103537 0.70738 2.18442e-05 0.706833
0.0805469 0.108914 0.406079 0 0.0878826 0.996131
0.146757 -0.112298 0.42479 0 0.0630923 0.998008
0.000478104 -0.0681017 0.421996 0 0.0630923 0.998008
-0.244263 0.11161 0.00150348 -0.706873 -1.31868e-05 -0.707341
0.211514 0.0628409 0.39274 -0.140841 -0.0912799 -0.985815
0.224076 0.144114 0.455298 0.711755 0.701142 -0.0424871
-0.145378 -0.0800368 0.422751 0 0.0630923 0.998008
0.267382 -0.0135718 0.600434 0.551714 -0.107148 -0.827122
-0.220021 0.135867 0.402305 0.190209 0.977137 -0.0949953
-0.0834699 -0.0658376 0.421853 0 0.0630923 0.998008
0.226089 -0.261407 0.198644 0.889694 -0.454622 0.0419952
-0.113269 0.178548 0.682391 0 -0.94868 0.316237
-0.194465 0.202189 0.695642 0.570746 0.46374 -0.677639
-0.031577 0.232577 0.714683 -0.00296332 -0.179153 0.983817
0.213937 -0.181682 0.420813 0.995928 0.0056881 0.0899749
-0.193632 -0.146793 0.425955 0.0995161 -0.0627802 -0.993053
-0.232205 0.21285 0.181235 0.0778575 0.92912 0.361489
0.144339 0.233067 0.712353 0.122038 0.701636 0.702007
-0.143762 -0.00511403 0.416575 0 0.0921997 0.995741
-0.0454028 0.234547 0.715 -0.00296332 -0.179153 0.983817
-0.246712 -0.0366475 0.600038 0.0144083 -0.129569 -0.991466
-0.2085 0.172002 0.664907 -0.155315 -0.930202 0.332568
0.18806 0.14852 0.564858 -0.0421357 -0.967204 0.250481
0.227446 -0.267484 0.0852961 0.541053 -0.839602 0.0482751
-0.235309 0.0304218 0.00742289 0.965033 -2.00426e-05 0.26213
0.221388 -0.267899 0.0674901 -0.455402 -0.889959 0.0241155
0.185411 -0.118532 0.424992 -0.0995256 -0.062779 -0.993053
-0.135048 0.216536 0.70714 0.1554 -0.987852 0
-0.233933 0.103608 0.584944 0.348664 -0.119518 -0.929596
-0.0807839 -0.210025 0.430968 0 0.0630923 0.998008
-0.223804 0.190615 0.221003 0.993776 0.110982 -0.00962009
0.207727 0.16829 0.654884 0.155315 -0.930202 0.332568
-0.062097 -0.210431 0.430994 0 0.0630923 0.998008
-0.0528412 0.061341 0.410421 0 0.0921997 0.995741
0.212042 0.071911 0.391914 0.553342 -0.0767975 -0.829406
0.0706284 0.144752 0.566932 0 -0.969335 0.245741
0.203616 0.161513 0.569473 -0.608651 0.760566 -0.226016
0.211695 0.177985 0.635881 0.617785 0.769268 -0.162999
0.248568 0.0441599 0.589451 -0.0144083 -0.129569 -0.991466
-0.217632 0.146202 0.568431 -0.746286 -0.628287 0.219802
0.128048 0.141047 0.548367 0 -0.985623 0.168959
0.180036 -0.241502 0.38631 0 0.600072 -0.799946
-0.220475 0.155814 0.57911 -0.963332 0.267739 0.0175365
0.133629 -0.24783 0.417257 0 -0.813742 0.581226
-0.120826 0.172681 0.664792 0 -0.94868 0.316237
0.0445429 -0.053695 0.421073 0 0.0921997 0.995741
-0.234963 -0.137182 0.00542211 0.966705 0 -0.255894
-0.189086 0.161043 0.625184 -0.131833 -0.961607 0.240691
-0.166923 0.140454 0.419893 0.114627 -0.214067 0.97007
0.160822 0.160846 0.629288 0 -0.94868 0.316237
0.180554 0.179307 0.657347 -0.962255 -0.269494 0.0379312
-0.199726 0.201694 0.694242 0.0981805 0.589295 -0.80193
-0.186266 0.180828 0.657417 0 0.957025 -0.290006
0.0319693 -0.160663 0.427848 0 0.0630923 0.998008
0.0316894 0.108123 0.406149 0 0.0878826 0.996131
-0.071979 -0.0728254 0.422295 0 0.0630923 0.998008
0.0755877 0.225933 0.7124 -0.0149085 -0.447162 0.894329
-0.18159 0.0989647 0.406957 0 0.0878826 0.996131
0.0258883 0.164383 0.639896 0 -0.94868 0.316237
-0.216948 0.146691 0.456379 0.217887 0.967665 -0.12708
0.120098 0.160147 0.403288 0.269702 0.961463 -0.0533856
0.210011 0.160888 0.633108 0.121267 -0.936279 0.32966
0.140289 -0.251834 0.395536 0 -0.259018 0.965872
0.223171 0.121443 0.41515 0.293718 -0.946929 0.130596
0.213785 0.0170577 0.407831 0.99509 0.00912524 0.0985518
-0.155896 -0.248341 0.408681 0 0.16431 0.986409
-0.187213 -0.0265131 0.41893 0.0994666 0.0917431 0.990802
0.236718 0.054953 0.0097394 -0.706879 -1.32494e-05 0.707335
-0.216652 -0.258065 0.169263 0.998307 -0.053086 -0.0237634
0.209319 -0.195197 0.427101 0.241889 0.0653737 0.968099
0.189645 0.00087066 0.415403 -0.0995304 -0.0917419 -0.990796
0.230804 -0.263854 0.0572605 0.998274 0.0534027 0.0244394
0.222428 0.146949 0.543038 0.922912 -0.369203 0.109192
0.149924 -0.00979535 0.417008 0 0.0921997 0.995741
0.178674 0.16496 0.640463 -0.231063 0.91891 -0.319709
0.197066 0.142154 0.526803 -0.33343 0.924297 -0.185742
-0.151331 0.160497 0.628239 0 -0.94868 0.316237
-0.122766 0.184277 0.693854 0 -0.808759 0.58814
0.162087 0.143275 0.561105 0 -0.969335 0.245741
0.23629 -0.0236674 0.0022343 -0.708379 1.31799e-05 -0.705833
0.148577 0.150202 0.393479 0.278429 0.911202 -0.303624
-0.186035 0.205212 0.709216 0.398904 -0.746816 0.532111
0.22866 0.228307 0.128311 -0.996065 -0.0520953 -0.0717014
-0.241855 0.0330767 0.0112393 -0.258795 9.13209e-06 0.965932
0.0865448 0.0833052 0.408388 0 0.0921997 0.995741
-0.191446 -0.00268625 0.400583 0 -0.0921922 -0.995741
0.215567 -0.257266 0.213064 -0.998307 -0.053086 -0.0237634
-0.192679 -0.125303 0.424691 0.0995255 -0.062779 -0.993053
0.191234 0.0965562 0.407947 -0.0995288 0.0874462 0.991185
-0.221411 0.153493 0.554953 -0.947942 0.31817 0.01316
-0.189809 -0.238524 0.398651 0 1 0
0.195521 -0.109983 0.425849 -0.0994673 0.0627785 0.993058
0.180724 -0.253858 0.385521 0 -0.707271 -0.706942
0.212041 -0.255359 0.391089 0.47969 -0.715923 0.507297
-0.190926 0.180324 0.655055 0.0563455 0.958302 -0.280148
0.246021 0.0827554 0.00426072 0.96579 0 -0.259325
0.187098 -0.245246 0.418874 -0.146956 -0.657124 0.739319
-0.225113 -0.255057 0.27243 -0.99959 -0.0109581 0.0264449
-0.107432 0.23912 0.712795 -0.119406 0.671765 0.731077
0.202001 0.0156263 0.412972 0.707394 -0.0651688 -0.703809
-0.244404 0.057867 0.587989 0.0823458 -0.125704 -0.988644
0.184022 -0.249594 0.414708 -0.0638732 0.814234 -0.577013
-0.193844 0.140818 0.538265 -0.184913 -0.964947 0.186236
0.182951 0.164722 0.611302 -0.962209 -0.270783 0.028809
-0.243253 -0.197757 0.000702318 -0.258565 -9.6958e-06 -0.965994
0.236077 0.259445 0.0320186 -0.376771 -0.917832 -0.125012
0.156932 0.142071 0.41907 -0.114627 -0.214067 0.97007
0.209064 0.153157 0.515147 -0.365354 0.913783 -0.177531
0.26278 -0.00623154 0.597274 0.313778 -0.120192 -0.941858
-0.202962 0.076014 0.408346 -0.707394 -0.0651735 -0.703808
-0.222952 -0.253262 0.354863 -0.99959 -0.0109581 0.0264449
0.0688853 0.0997054 0.406892 0 0.0878826 0.996131
0.142379 0.172741 0.664971 0 -0.94868 0.316237
0.196677 0.15482 0.596163 0.131833 -0.961607 0.240691
-0.24004 -0.0209491 0.0113937 0.258661 -9.12742e-06 0.965968
-0.10135 0.232345 0.714432 -0.00291028 -0.179148 0.983818
-0.212119 -0.0961659 0.406117 -0.553996 -0.0477692 -0.831148
0.163878 0.0862186 0.408118 0 0.0921997 0.995741
0.0410715 0.155644 0.609894 0 -0.969335 0.245741
-0.20085 -0.108493 0.42281 0.0995161 -0.0627802 -0.993053
0.227492 0.210654 0.183048 -0.413006 0.855271 0.312951
0.206821 0.159707 0.630929 0.121267 -0.936279 0.32966
-0.265455 0.0788315 0.587262 -0.348608 -0.120835 -0.929447
-0.170363 0.136205 0.52012 0 -0.985623 0.168959
-0.224136 0.125493 0.393155 -0.650385 -0.745769 0.144317
0.235359 -0.0424108 0.00392557 -0.965958 1.80011e-05 -0.258701
0.189529 -0.207503 0.429494 -0.155582 0.06233 0.985855
-0.0912758 -0.00923693 0.416957 0 0.0921997 0.995741
0.235301 -0.0458333 0.00738706 -0.965033 -1.8043e-05 0.26213
-0.131497 0.0792107 0.408767 0 0.0921997 0.995741
0.0458295 -0.245367 0.391109 0 -0.980597 -0.196034
0.203628 -0.224183 0.42993 0.707494 0.0825376 -0.701883
0.228248 0.137296 0.436853 0.947607 0.318885 0.0187841
-0.204461 -0.245645 0.386894 0.178875 0.707062 -0.684154
-0.113565 -0.21783 0.430724 0 -0.116782 0.993158
0.115121 0.149346 0.401058 -0.295485 -0.942354 0.15703
-0.148234 -0.246918 0.394373 -3.45325e-06 0.706943 0.707271
-0.222342 0.17778 0.251046 0.824348 -0.511329 -0.242885
-0.102432 0.136119 0.51962 0 -0.985623 0.168959
0.0980455 -0.254525 0.407883 0 -0.813742 0.581226
-0.154771 -0.214764 0.431085 0 -0.116782 0.993158
-0.226645 0.133101 0.361265 -0.810155 -0.558629 -0.177714
0.0540575 0.137121 0.525465 0 -0.985623 0.168959
-0.0512412 0.174778 0.671081 0 -0.94868 0.316237
-0.1602 0.133663 0.505293 0 -0.985623 0.168959
-0.222673 0.139966 0.399466 -0.328816 0.939708 -0.0939633
0.0225672 0.174027 0.409686 0.0439836 0.831199 0.554233
0.0293408 0.172448 0.411949 0.0426853 0.889397 0.455138
0.115886 0.148726 0.395355 -0.268484 -0.913885 -0.304518
0.235391 0.0770299 0.00772597 -0.965033 -1.8043e-05 0.26213
0.0554401 0.225997 0.709753 -0.0444024 -0.999014 0
-0.201558 0.177866 0.631836 0.113598 0.955212 -0.273251
-0.109737 0.0132771 0.414872 0 0.0921997 0.995741
0.0844435 -0.25156 0.395785 0 0.44692 -0.894574
-0.183962 -0.0268256 0.409876 0.995913 0.00833409 0.0899342
-0.00342575 0.135025 0.51324 0 -0.985623 0.168959
0.0210095 0.0436959 0.412055 0 0.0921997 0.995741
-0.147041 -0.193258 0.429908 0 0.0630923 0.998008
0.0500266 0.162227 0.407547 -0.0644025 -0.982089 0.177071
-0.158046 0.156958 0.615077 0 -0.969335 0.245741
-0.142536 -0.250565 0.409051 0 0.16431 0.986409
0.0460301 0.143083 0.560246 0 -0.985623 0.168959
0.0326525 0.189001 0.699827 0 -0.624738 0.780835
0.0538751 0.244756 0.713237 0.0460687 0.706161 0.706551
0.100651 -0.170279 0.428456 0 0.0630923 0.998008
-0.202728 0.0557627 0.411458 0.140861 0.0912737 0.985813
-0.213948 0.154458 0.51302 0.310938 0.932819 -0.182115
0.102708 -0.253269 0.407283 0 -0.70717 0.707044
0.111645 0.0609228 0.41046 0 0.0921997 0.995741
-0.0729193 -0.225892 0.429776 6.35459e-07 -0.11679 0.993157
0.0417789 0.242536 0.70843 0.0045209 0.274565 -0.961558
-0.220669 -0.261882 0.245192 0.0156853 -0.999099 0.039424
0.148327 0.0946764 0.407336 0 0.0878826 0.996131
-0.147588 0.00717458 0.415437 0 0.0921997 0.995741
0.157495 0.0572371 0.410802 0 0.0921997 0.995741
-0.107008 0.163579 0.41082 -0.179799 0.98219 -0.0545365
-0.234062 0.201413 0.206718 -0.430953 0.831775 0.349899
0.0276325 0.174155 0.404605 0.0642271 0.995994 -0.0622202
-0.0228947 -0.259588 0.397345 0 -0.919108 0.394005
-0.123034 -0.0809299 0.422807 0 0.0630923 0.998008
-0.236096 0.168945 0.00243316 0.707378 2.19235e-05 -0.706836
-0.151579 0.188771 0.699643 0 -0.624738 0.780835
0.188088 0.141431 0.507323 -0.989143 -0.145999 -0.0167229
-0.0453033 0.112421 0.40577 0 0.0878826 0.996131
0.197419 0.0284309 0.397702 0 -0.0921922 -0.995741
0.00531633 -0.111618 0.424747 0 0.0630923 0.998008
0.0270155 -0.246581 0.394036 0 0.706776 0.707438
0.216234 -0.253352 0.231253 -0.890012 0.45406 -0.041332
-0.232411 0.252218 0.0741136 0.900039 0.41942 0.11839
-0.191658 -0.121641 0.424401 0.155582 0.06233 0.985855
-0.210562 0.128776 0.463657 0.6316 -0.772109 0.0702159
-0.215084 0.119603 0.390903 0.301601 -0.3016 -0.904474
0.0977507 0.180594 0.688528 0 -0.94868 0.316237
-0.223486 -0.251574 0.335371 -0.99959 -0.0109581 0.0264449
0.221006 0.157244 0.320453 -0.413006 0.855271 0.312951
0.0354147 -0.120014 0.425278 0 0.0630923 0.998008
0.226153 0.141559 0.471318 0.980408 0.195954 0.0200417
0.170538 -0.0799817 0.422747 0 0.0630923 0.998008
-0.213784 -0.252834 0.286884 0.859422 0.509424 -0.0433634
-0.0973587 0.161188 0.415736 -0.0493329 0.436968 0.898123
-0.181941 -0.245304 0.392122 0 0.965957 0.258702
-0.185198 0.143302 0.410516 -0.151167 0.987143 -0.0519283
-0.184235 -0.174177 0.423055 0.99591 0.00570066 0.0901732
-0.222304 -0.250725 0.259947 -0.513439 0.857861 -0.021349
-0.183708 -0.0359258 0.407912 0.995913 0.00833409 0.0899342
-0.00709784 0.155682 0.610046 0 -0.969335 0.245741
0.12538 -0.242324 0.405908 0 0.55477 0.832004
0.192797 -0.15382 0.426483 -0.0995162 -0.0627802 -0.993053
-0.00667176 0.156498 0.613264 0 -0.969335 0.245741
-0.171339 -0.196793 0.430132 0 0.0630923 0.998008
-0.204506 0.158928 0.628061 0.155977 -0.936384 0.314415
-0.232193 0.0987554 0.590299 0.804686 0.0458735 0.591926
0.197382 -0.245602 0.417853 -0.0714348 0.625941 -0.776592
0.176014 0.199448 0.697624 -0.928506 -0.371317 -0.000156671
0.181414 -0.242317 0.385698 0 0.600072 -0.799946
-0.0553631 -0.169928 0.428434 0 0.0630923 0.998008
-0.187252 0.138767 0.529233 0.376354 0.910336 -0.172181
-0.0955575 0.16007 0.62696 0 -0.94868 0.316237
-0.0986388 0.0409455 0.41231 0 0.0921997 0.995741
0.192447 -0.00891685 0.40116 0 -0.0921922 -0.995741
-0.230489 0.164785 0.279186 -0.900041 -0.419931 -0.116553
-0.153321 0.0297021 0.413351 0 0.0921997 0.995741
0.112849 0.161824 0.39847 0.179802 0.98219 -0.0545365
0.0878453 0.161897 0.415598 -0.0753271 -0.241727 0.967416
-0.198149 -0.125687 0.409523 0 -0.057373 -0.998353
-0.0896809 0.171934 0.662551 0 -0.94868 0.316237
0.214179 0.0801189 0.39258 0.553342 -0.0767975 -0.829406
0.212401 0.15047 0.594395 0.305129 -0.918274 0.252327
-0.0547831 -0.252247 0.408305 0 -0.70717 0.707044
-0.167784 -0.253524 0.394804 0 0.44692 -0.894574
0.22251 -0.256556 0.102201 0.0157764 0.999071 -0.0401149
-0.184656 0.0197838 0.399172 0.705406 -0.0653461 -0.705784
0.192347 0.19078 0.701189 0.760597 -0.415888 0.498528
-0.189254 -0.07873 0.423245 0.0994672 0.0627785 0.993058
0.210172 -0.247101 0.394331 0 -0.514471 -0.857508
0.169698 -0.252347 0.395392 0 0.44692 -0.894574
0.0215651 0.143905 0.563588 0 -0.969335 0.245741
0.0313854 0.00186672 0.415928 0 0.0921997 0.995741
-0.230442 0.179421 0.237441 -0.564214 -0.778555 -0.2748
0.21415 -0.0894841 0.412813 0.995082 0.00568327 0.0988951
-0.189832 -0.0706963 0.420865 0.141108 0.0640766 0.987918
-0.161886 0.225407 0.712989 -0.00291028 -0.179148 0.983818
0.210642 -0.0410857 0.402488 -0.140841 -0.0912799 -0.985815
0.199536 0.0524813 0.412853 -0.0995289 0.0917342 0.990797
-0.146918 0.0315014 0.413184 0 0.0921997 0.995741
0.225051 0.127615 0.3713 0.41292 -0.854699 -0.314623
0.188218 0.158228 0.602372 -0.0421357 -0.967204 0.250481
0.222862 0.145456 0.569481 0.523978 -0.793633 -0.309182
0.213767 -0.139405 0.420784 1 0 0
0.213677 -0.244041 0.384476 0 -0.980597 -0.196034
-0.182742 0.180079 0.685787 -0.0356703 -0.955295 0.293495
-0.115324 0.195592 0.705101 0 -0.624738 0.780835
-0.118368 0.158303 0.415869 -0.0686939 0.432557 0.898986
0.0553282 0.170021 0.390988 0.056929 0.705958 -0.705962
-0.115107 -0.210171 0.430978 0 0.0630923 0.998008
-0.0817167 0.243286 0.711008 -0.0542765 0.998526 0
-0.0894078 0.144915 0.567574 0 -0.969335 0.245741
-0.213796 0.161376 0.5585 -0.33341 0.932907 -0.136099
0.189355 -0.255769 0.40591 -0.0731441 -0.804106 0.589969
0.0354161 -0.0412436 0.41992 0 0.0921997 0.995741
-0.161466 0.169616 0.655597 0 -0.94868 0.316237
0.201784 0.0276007 0.411708 -0.0995268 -0.0917423 -0.990797
-0.19583 0.142249 0.529492 0.33343 0.924297 -0.185742
0.143035 -0.253464 0.394834 0 0.44692 -0.894574
0.179866 -0.141284 0.426623 0 0.0630923 0.998008
0.0585271 -0.259625 0.39599 0 -1 0
0.0602831 0.175766 0.674046 0 -0.94868 0.316237
0.104403 0.149055 0.583905 0 -0.969335 0.245741
0.00272921 0.172628 0.389818 0.0357706 0.554414 -0.831472
-0.168541 0.151672 0.594229 0 -0.969335 0.245741
-0.195986 -0.243057 0.422407 0.114382 -0.620687 0.77567
0.0179931 0.0190194 0.41434 0 0.0921997 0.995741
0.110784 -0.251491 0.384576 0 -0.258712 -0.965955
-0.199289 0.135227 0.503154 -0.141068 -0.974742 0.173139
0.224514 -0.268398 0.0836458 0.0481399 -0.997971 0.0416725
-0.196882 0.142879 0.545926 -0.184913 -0.964947 0.186236
-0.0401351 0.0641968 0.410157 0 0.0921997 0.995741
0.241013 0.0867174 0.584603 -0.0823458 -0.125704 -0.988644
-0.157186 0.161877 0.632381 0 -0.94868 0.316237
0.183941 0.00395204 0.406794 -0.995922 0.00831825 0.0898364
0.0470631 0.184499 0.694159 0 -0.808759 0.58814
0.183829 -0.143023 0.41677 -0.995008 0.00690531 0.0995551
-0.107961 0.0247779 0.413807 0 0.0921997 0.995741
0.157304 0.17543 0.673038 0 -0.94868 0.316237
-0.059122 0.237562 0.715494 -0.00180814 -0.164501 0.986375
-0.206847 0.114808 0.404341 -0.778959 0.0692903 0.623235
-0.088994 -0.0626555 0.421652 0 0.0630923 0.998008
0.200375 -0.237164 0.423961 -0.0995211 0.411785 -0.90583
0.227697 0.139658 0.58085 -0.838094 -0.418989 -0.349353
-0.246326 -0.167739 0.00539909 -0.965874 0 -0.259014
-0.184731 -0.0643405 0.418362 0.717534 0.0439495 0.695136
0.199102 0.0680557 0.409802 -0.140861 0.0912737 0.985813
0.256385 0.132343 0.594255 0.393772 -0.0239756 0.918896
0.143621 0.0448526 0.411948 0 0.0921997 0.995741
-0.176928 -0.175353 0.428777 0 0.0630923 0.998008
0.257666 0.0736433 0.59732 0.0900814 0.0952762 0.991367
0.185456 -0.237214 0.412488 -0.815473 0.444669 -0.370504
-0.120338 -0.254429 0.393814 0 0.913821 -0.406118
-0.211209 0.15378 0.610599 0.300461 -0.875017 0.379564
-0.200083 0.144099 0.54907 -0.184913 -0.964947 0.186236
-0.0505415 -0.070105 0.422123 0 0.0630923 0.998008
-0.0915371 0.233146 0.705786 -0.0902193 0.689158 -0.718973
-0.212589 -0.246676 0.394076 0 -0.514471 -0.857508
-0.0906297 0.165701 0.395719 -0.178105 0.982097 -0.061352
-0.23042 0.13321 0.5824 0.512262 -0.232907 -0.826645
0.190124 -0.251043 0.411987 -0.0638732 0.814234 -0.577013
-0.268111 0.0207089 0.598954 -0.715791 0.0591837 0.695802
-0.170146 0.0984677 0.407001 0 0.0878826 0.996131
-0.0224079 -0.24554 0.392996 -3.45325e-06 0.706943 0.707271
0.0653396 0.192414 0.702558 0 -0.624738 0.780835
-0.00105739 -0.255722 0.392345 0 -0.965872 0.259018
0.1866 0.156167 0.607064 0.131833 -0.961607 0.240691
-0.0587857 -0.11547 0.424991 0 0.0630923 0.998008
0.0947328 -0.238769 0.396702 0 0.986377 -0.164499
-0.14861 0.147672 0.391043 -0.208853 0.655814 -0.725457
-0.217162 -0.259361 0.150764 0.998307 -0.053086 -0.0237634
0.00707211 0.230895 0.704344 -0.0195984 -0.195988 -0.98041
0.0317247 0.0317904 0.413158 0 0.0921997 0.995741
-0.212989 0.0491602 0.394653 -0.553342 -0.0768012 -0.829406
-0.19995 -0.0467108 0.404536 0.140852 -0.0912788 -0.985814
-0.0888658 -0.145933 0.426917 0 0.0630923 0.998008
0.119265 -0.239699 0.402289 0 0.961479 0.274878
0.00386431 -0.257232 0.387506 0 0.913821 -0.406118
0.130947 -0.244877 0.389677 0 0.96604 -0.258391
-0.0825117 -0.213068 0.431161 0 0.0630923 0.998008
-0.236383 0.147343 0.577652 -0.246146 0.180505 -0.952276
-0.184391 -0.0518746 0.41695 0.995922 0.00831824 0.0898364
-0.130612 0.228752 0.713691 -0.00291028 -0.179148 0.983818
0.0132633 0.19645 0.705787 0 -0.624738 0.780835
-0.21771 0.145245 0.478748 -0.347574 0.93111 -0.110575
-0.256061 -0.0410733 0.600628 -0.0138888 -0.124883 -0.992074
-0.235507 0.205005 0.00339305 0.965958 1.80011e-05 -0.258701
0.240756 0.123607 0.580031 -0.088081 -0.109945 -0.990027
-0.237499 -0.260655 0.00877623 -0.318803 -0.768221 -0.555159
0.215265 -0.256596 0.403325 0.987134 0.1343 0.086777
0.245458 0.236222 0.00269533 0.706873 -1.31868e-05 -0.707341
-0.19706 -0.0389305 0.421068 0.0994666 0.0917431 0.990802
0.164673 0.0441568 0.412013 0 0.0921997 0.995741
-0.00184811 -0.24549 0.391722 0 -0.980597 -0.196034
0.189613 0.0152895 0.413332 -0.140808 0.0912813 0.98582
0.184071 -0.208677 0.423738 -0.995008 0.00690531 0.0995551
0.0529583 0.193353 0.703309 0 -0.624738 0.780835
0.10261 0.234692 0.714855 0.00291029 -0.179148 0.983818
-0.115136 -0.115216 0.424975 0 0.0630923 0.998008
-0.216623 0.135743 0.369903 0.810089 0.559285 0.175942
0.00890606 -0.245201 0.390277 0 -0.980597 -0.196034
-0.0381832 -0.0729591 0.422303 0 0.0630923 0.998008
-0.0513691 -0.248603 0.408724 0 0.16431 0.986409
-0.204803 0.181092 0.641764 0.113598 0.955212 -0.273251
-0.193319 0.178647 0.648837 0.0563455 0.958302 -0.280148
-0.240784 0.146477 0.0115251 -0.258795 9.13209e-06 0.965932
0.00441822 0.1684 0.389036 -0.0154082 -0.238814 -0.970943
0.20959 0.165107 0.645112 0.155315 -0.930202 0.332568
0.113586 -0.258666 0.387124 0 -0.707497 -0.706716
0.0565469 -0.239621 0.402016 0 0.961479 0.274878
-0.236657 0.23218 0.00968216 0.706712 -1.47103e-05 0.707501
-0.266208 0.0116808 0.601569 -0.349645 0.0932231 0.932233
-0.0976376 0.132652 0.499396 0 -0.985623 0.168959
0.199217 0.0890978 0.392067 -0.140917 -0.0912722 -0.985805
-0.216548 -0.257256 0.180158 0.859422 0.509424 -0.0433634
-0.246295 -0.0302277 0.00528454 -0.965874 0 -0.259014
0.219809 0.134416 0.389698 0.0975899 -0.195159 -0.975904
0.174793 0.10069 0.406805 0 0.0878826 0.996131
0.236911 0.208512 0.181836 0.824159 0.51084 0.24455
0.209699 -0.183748 0.426233 0.241889 0.0653737 0.968099
0.22928 0.193443 0.200587 0.0771641 -0.929866 -0.359716
0.149983 0.134378 0.509463 0 -0.985623 0.168959
0.229478 0.200448 0.212777 0.0917112 0.925672 0.367044
-0.210284 0.139111 0.546684 0.187489 -0.970288 0.152936
0.233622 0.0613993 0.590921 -0.703396 -0.100513 -0.703655
-0.200297 0.0730037 0.409515 0.140861 0.0912737 0.985813
0.233076 -0.253288 0.00458643 -0.749514 0.0890986 -0.655965
-0.11494 0.160619 0.393896 -0.278433 0.911201 -0.303624
0.13056 0.106046 0.406332 0 0.0878826 0.996131
0.0705167 0.0425563 0.412161 0 0.0921997 0.995741
0.233088 0.227343 0.114713 -0.575944 -0.749938 -0.325396
-0.133802 -0.226901 0.429658 6.35459e-07 -0.11679 0.993157
0.0481087 0.245113 0.711868 0.0542764 0.998526 0
-0.198483 0.0957883 0.408743 0.0995288 0.0874462 0.991185
-0.157584 -0.1965 0.430113 0 0.0630923 0.998008
-0.262778 0.103057 0.583109 -0.348608 -0.120835 -0.929447
-0.0661192 0.139713 0.540583 0 -0.985623 0.168959
-0.125955 0.0313127 0.413202 0 0.0921997 0.995741
-0.120122 0.150474 0.589503 0 -0.969335 0.245741
-0.173237 -0.213682 0.4312 0 0.0630923 0.998008
0.125035 0.119247 0.405168 0 0.0878826 0.996131
0.184358 -0.181324 0.424863 -0.995919 0.00569442 0.0900746
-0.112103 0.167801 0.650152 0 -0.94868 0.316237
0.238614 0.224934 0.125213 0.900041 -0.419931 -0.116553
-0.243665 0.13733 0.000906595 -0.705871 -2.19236e-05 -0.70834
-0.0543582 -0.228442 0.429477 6.35459e-07 -0.11679 0.993157
0.239773 0.0234399 0.5932 -0.272498 -0.124614 -0.954053
0.141622 0.142 0.553927 0 -0.985623 0.168959
-0.142328 -0.109813 0.424633 0 0.0630923 0.998008
0.0360116 0.0599195 0.410553 0 0.0921997 0.995741
0.190264 -0.230245 0.429706 -0.0994845 -0.411789 0.905833
0.0198136 -0.248476 0.384876 0 0.25871 -0.965955
0.184722 -0.0228952 0.418345 -0.0994667 0.0917424 0.990803
-0.008648 0.0978921 0.407052 0 0.0878826 0.996131
-0.218772 0.155722 0.533788 -0.714043 0.696748 -0.068447
-0.0631961 -0.100386 0.424037 0 0.0630923 0.998008
0.0223391 -0.23915 0.400368 0 0.961479 0.274878
-0.207391 0.183315 0.651972 -0.159157 0.955461 -0.248521
0.216713 -0.252976 0.226657 -0.487266 0.871923 -0.0481941
0.0192986 -0.196697 0.430126 0 0.0630923 0.998008
0.204574 0.110096 0.392298 -0.0711983 0.020344 -0.997255
0.0827469 0.0280094 0.413508 0 0.0921997 0.995741
0.192766 -0.250663 0.413567 -0.143526 -0.839203 0.524537
-0.215981 0.169789 0.632488 -0.98066 0.195701 -0.00278795
-0.269349 0.103143 0.58608 -0.7034 -0.100514 -0.703651
-0.224269 0.15577 0.326755 -0.0917112 0.925672 0.367044
0.0812103 -0.0856356 0.423105 0 0.0630923 0.998008
0.0537214 0.175969 0.674654 0 -0.94868 0.316237
-0.184981 -0.0371873 0.404123 0.705406 -0.0653461 -0.705784
-0.0766845 0.118159 0.405264 0 0.0878826 0.996131
-0.129913 0.23284 0.7141 -0.0316529 -0.00790895 0.999468
-0.239738 0.120234 0.580678 0.349298 -0.103421 -0.931287
0.259786 0.0491165 0.599485 0.0900814 0.0952762 0.991367
0.15413 0.17617 0.675258 0 -0.94868 0.316237
-0.0698275 0.00720051 0.415435 0 0.0921997 0.995741
-0.179894 0.183402 0.678581 0.985877 -0.167352 -0.006315
0.200605 -0.157456 0.42593 -0.0995162 -0.0627802 -0.993053
0.196854 0.0744383 0.393443 0 -0.0921922 -0.995741
0.00643684 0.147386 0.57732 0 -0.969335 0.245741
0.239008 0.0731719 0.0111183 -0.258797 -8.25552e-06 0.965932
-0.179331 0.186523 0.683628 0.985877 -0.167352 -0.006315
0.10112 0.187863 0.698784 0 -0.808759 0.58814
-0.229059 0.136394 0.410769 -0.711703 0.701233 -0.0418551
0.0952299 0.161529 0.390164 0.137769 0.700362 -0.700366
-0.0794174 0.178991 0.683722 0 -0.94868 0.316237
-0.235154 -0.10081 0.00684415 0.965033 -2.00426e-05 0.26213
