0.0695397 0.182843 0.623732 -0.00846391 -0.969287 0.245788
-0.097128 0.20095 0.682741 -0.00828294 -0.948662 0.316184
0.00788197 0.0265245 0.0116418 0 0 -1
0.00720447 0.0860114 0.434211 0.000805004 0.0922106 0.995739
0.194077 -0.0513539 0.446342 -0.0988285 0.0636825 0.993065
0.101088 0.261908 0.743563 -0.0623041 -0.243362 -0.967932
0.186675 0.249274 0.752885 -0.0261654 -0.0825302 0.996245
0.153811 -0.0995935 0.449364 0.000551011 0.0631165 0.998006
-0.0481873 0.0559166 0.437043 0.000804941 0.0922106 0.995739
0.0334771 0.0361821 0.377692 0.0943789 0.0617506 -0.993619
-0.0834689 0.20265 0.434471 -0.126093 0.872721 0.471654
-0.158742 -0.246951 0.424539 -0.00802514 -0.919042 0.394077
-0.0140042 0.01302 0.252238 -0.760697 0.649108 0
-0.241866 0.0179802 0.00839283 0.0801827 -0.000702427 -0.99678
0.00774924 -0.244563 0.431792 -0.00710685 -0.813872 0.581001
-0.0966665 -0.0845118 0.407307 -0.177671 -0.162927 -0.970509
0.0646035 0.00787219 0.0261941 0 0 1
-0.0569783 -0.0679047 0.411637 0.121184 0.110835 0.986423
-0.173097 0.19595 0.665747 -0.00828294 -0.948662 0.316184
0.00700232 -0.201004 0.45586 0.000555121 0.0631211 0.998006
-0.185685 0.0235226 0.0231243 0.0802113 -0.000691404 -0.996778
0.210901 0.197467 0.632514 -0.164704 0.959623 -0.228029
0.000280903 0.286284 0.753856 -0.0567737 0.947722 0.314007
0.0114131 0.195623 0.00693301 0.999962 -0.0087078 0
0.14101 0.210825 0.718603 -0.00826659 -0.948644 0.316238
-0.115013 -0.192961 0.455418 0.00055118 0.0631211 0.998006
-0.12063 0.180393 0.607495 -0.00852388 -0.969286 0.245788
0.108439 0.114597 0.431482 0.000804712 0.0922103 0.995739
-0.074486 -0.00787939 0.0101458 0.0397962 -0.000360331 -0.999208
-0.158568 0.176855 0.413019 0.0511039 -0.228943 -0.972098
0.149887 -0.216817 0.454293 -0.00102988 -0.117112 0.993118
-0.00484866 -0.10267 0.0195992 0.000702228 0.0801827 -0.99678
0.0115882 -0.0139853 0.0261941 0 0 1
0.223358 0.220516 0.710582 0.62402 0.764176 -0.163201
0.0341767 0.0260356 0.439743 0.000805004 0.0922106 0.995739
0.0670231 0.0243096 0.388386 0.583887 -0.811835 0
0.0221756 0.0784385 0.0215716 0.984538 -0.0225982 -0.173708
0.28044 -0.00194387 0.0155153 -0.0802113 0.000692392 -0.996778
0.189166 0.167178 0.553339 -0.00860616 -0.985577 0.169007
0.00125168 0.00460114 0.0367696 0 0 1
-0.0225279 0.0325357 0.0271907 -0.924709 0.338208 -0.174727
-0.0979444 0.13371 0.429918 0.000772843 0.0878837 0.99613
0.0513665 0.00994283 0.44122 0.000805004 0.0922106 0.995739
0.214099 -0.0616992 0.446214 0.705472 -0.0508565 -0.706911
0.166467 -0.147326 0.452376 0.000551011 0.0631165 0.998006
0.175681 0.103321 0.395207 0.0955756 0.0586033 -0.993696
0.144659 -0.124621 0.450952 0.000551011 0.0631165 0.998006
-0.125092 0.0520484 0.437463 0.000810829 0.0922033 0.99574
0.00723725 0.21538 0.728611 -0.00704543 -0.808507 0.588444
0.194782 0.0534441 0.425692 -0.995814 0.0170605 0.0897928
0.000282925 0.137769 0.0294357 0.00069955 0.0802332 0.996776
-0.0613101 0.0102329 0.0174205 0.00875614 0.999962 0
0.0238191 0.157917 0.0262129 0.709192 0.0503923 0.703212
0.00809036 -0.0108336 0.0116418 0 0 -1
0.0249538 0.0283048 0.0273523 0.838161 0.517151 -0.173323
-0.206923 -0.233352 0.424052 0.00727013 0.894657 -0.446693
0.309099 0.0202611 0.0114018 -0.00535414 0.98477 -0.17378
-0.208662 0.116416 0.433144 0.10029 0.0908657 0.9908
-0.0520426 -0.026458 0.444674 0.000804941 0.0922106 0.995739
-0.0676088 0.0358312 0.401108 0.0351967 -0.0239132 0.999094
-0.223999 0.0863289 0.416206 -0.556066 -0.0718449 -0.828027
0.117245 0.0975666 0.389512 -0.531906 0.846803 0
0.0136885 0.227598 0.0221957 0.00069955 0.0802332 0.996776
0.0107976 0.124945 0.0116382 0.999962 -0.0087078 0
-0.000984525 -0.254494 0.0176039 0.000692392 0.0802113 -0.996778
-0.0276701 0.19006 0.64884 -0.00852388 -0.969286 0.245788
-0.200078 0.143093 0.401056 -0.123132 0.100359 -0.987303
-0.169118 -0.082905 0.448487 0.000551015 0.0631213 0.998006
-0.0982601 0.00241569 0.0326144 -0.0802331 0.000699573 0.996776
-0.213081 -0.09037 0.43179 0.141005 -0.0580137 -0.988308
0.24191 0.160958 0.472777 0.941639 -0.323227 0.0940196
-0.0581001 0.0997122 0.432995 0.000810829 0.0922033 0.99574
0.0576618 -0.0288861 0.407611 -0.193163 0.0517055 0.979803
0.20763 -0.1692 0.452227 -0.0997761 -0.0619451 -0.99308
0.0159826 -0.308236 0.013291 -0.000692413 -0.0802113 0.996778
0.0139769 0.265725 0.752184 -0.0608962 -0.978923 0.194937
-0.00932312 0.0166769 0.0766326 -0.492111 0.870533 0
-0.000823006 -0.206644 0.0214546 0.000692392 0.0802113 -0.996778
-0.119352 0.201389 0.683474 -0.00828294 -0.948662 0.316184
0.212318 0.0650368 0.434208 -0.100169 -0.0908956 -0.99081
-0.308008 0.00199927 0.0157345 -0.0802347 0.000547465 0.996776
-0.172418 0.142657 0.429186 0.000772843 0.0878837 0.99613
-0.0147702 -0.239081 0.439196 -0.00710306 -0.813872 0.581001
0.202939 -0.163542 0.43604 -0.000463947 -0.0573646 -0.998353
0.196187 -0.0115188 0.440488 -0.720193 0.0702421 0.690209
-0.00046572 -0.0193459 0.254975 -0.182488 -0.983208 0
-0.101754 0.0817211 0.387005 -0.087524 0.0713089 -0.993607
0.0406523 0.214029 0.72559 -0.00826659 -0.948644 0.316238
-0.00368213 0.0765288 0.0319271 -0.000691591 -0.0802113 -0.996778
-0.0226634 -0.151699 0.0156427 0.000702228 0.0801827 -0.99678
0.000771545 -0.0152014 0.404013 0 0 1
0.298063 -0.0244819 0.00607302 -0.0225569 -0.984601 -0.173354
0.144811 0.17154 0.576518 -0.00860616 -0.985577 0.169007
0.279423 0.00414061 0.00225667 -0.999962 0.00873639 0
0.191649 0.187541 0.645785 -0.315978 0.912967 -0.258166
0.208618 -0.249395 0.432659 -0.140576 -0.771072 0.621037
0.202819 0.0282974 0.440256 -0.098586 0.0926189 0.990809
0.168672 0.200356 0.68792 -0.00826659 -0.948644 0.316238
-0.170519 -0.142167 0.435958 0.223459 0.0556329 0.973124
-0.0130163 0.0141777 0.190254 -0.760697 0.649108 0
-0.012024 -0.0201533 0.351638 0 0 -1
-0.0579387 0.211713 0.716056 -0.00832815 -0.948623 0.316299
0.0598247 -0.12757 0.451186 0.000555121 0.0631211 0.998006
-0.117058 -0.079903 0.448269 0.000551015 0.0631213 0.998006
-0.0120336 0.199319 0.411943 0.0137362 -0.241876 -0.97021
-0.212258 -0.170787 0.452394 0.0987349 -0.0636806 -0.993074
0.0730322 -0.0623395 0.447053 0.000551011 0.0631165 0.998006
0.0197548 -0.234078 0.0108442 0.98477 0.00535414 -0.17378
0.0133471 0.114615 0.431557 0.000804712 0.0922103 0.995739
-0.0237035 0.000969951 0.404013 0 0 1
-0.0103195 0.180772 0.0259817 0.000698395 0.0802334 0.996776
0.173548 0.170784 0.573573 -0.00860616 -0.985577 0.169007
-0.108714 -0.23561 0.430266 0.00759072 0.857144 -0.515021
0.067849 -0.0780042 0.414139 -0.119193 0.112976 0.986422
0.0405497 0.271434 0.743698 0.0290817 0.451481 -0.891807
0.263573 -0.00645949 0.00261026 -0.0397962 0.000359083 -0.999208
0.00342919 -0.117138 0.00844565 0.000334664 0.0397964 -0.999208
-0.198705 -0.242122 0.410386 0.790314 0.559144 -0.250522
0.0461847 -0.00627344 0.0262954 0.9991 -0.00875244 -0.0415156
-0.130085 -0.124587 0.451102 0.000551015 0.0631213 0.998006
-0.183678 -0.0380049 0.445656 0.000551015 0.0631213 0.998006
0.0123391 -0.0149713 0.195455 0.759915 -0.650023 0
0.225909 0.170236 0.422335 -0.0465303 0.997683 -0.0496292
-0.0699427 -0.182774 0.454749 0.00055118 0.0631211 0.998006
0.0133364 -0.154308 0.0154582 0.000701704 0.0801828 -0.99678
-0.132848 0.255567 0.748872 0.146703 -0.989181 0
-0.0167256 0.296267 0 0 0 -1
-0.150463 -0.172246 0.454128 0.00055118 0.0631211 0.998006
-0.0804724 0.00715297 0.0340428 -0.0802331 0.000699573 0.996776
0.000279613 0.0376066 0.399855 -0.0799358 0.477303 0.875095
-0.0157186 0.0110109 0.211981 -0.760697 0.649108 0
0.104612 0.164526 0.533545 -0.00866936 -0.985607 0.168829
0.228727 -0.00182517 0.0221163 -0.0802347 0.000547267 -0.996776
0.197777 0.176686 0.601642 0.171773 -0.951283 0.256037
0.0132462 -0.00275602 0.34046 0.937524 -0.34792 0
0.041905 -0.166095 0.453632 0.000555121 0.0631211 0.998006
0.101112 -0.0727925 0.402751 0.271749 -0.0703466 -0.959794
-0.196063 0.073867 0.433347 0.722625 0.057509 0.688844
-0.211191 0.187165 0.606688 -0.474283 0.864568 -0.166069
0.00738095 0.313705 0.00262107 -0.000677492 -0.0801868 -0.99678
0.205866 0.185463 0.58493 -0.164239 0.965141 -0.203785
-0.0489848 0.172129 0.570063 -0.00859934 -0.985608 0.168829
-0.145373 0.00913683 0.0263783 0.0802113 -0.000691404 -0.996778
0.121134 0.00652706 0.0082877 -0.0397945 0.000334484 -0.999208
0.0376193 -0.0377445 0.405876 -0.119193 0.112976 0.986422
0.141154 0.189044 0.431604 0.291411 0.956598 0
0.042757 -0.0306273 0.444984 0.000805004 0.0922106 0.995739
0.197662 0.218606 0.711268 0.00907497 0.956952 -0.290103
-0.18556 0.114269 0.40605 -0.597997 -0.801498 0
0.197485 -0.147126 0.452823 -0.0988285 0.0636825 0.993065
0.179976 0.0188512 0.440291 0.000804712 0.0922103 0.995739
0.124623 0.187665 0.644648 -0.00846814 -0.969289 0.245777
0.02358 0.177018 0.599178 -0.00846391 -0.969287 0.245788
-0.3025 0.0245008 0.0137236 -0.0802113 0.000691404 0.996778
0.0191064 -0.000134473 0.274072 0.999957 -0.00930689 0
0.115516 -0.120195 0.412166 -0.642066 -0.766649 0
-0.172206 0.0703116 0.435811 0.000810829 0.0922033 0.99574
-0.205521 0.153976 0.427757 0.0949457 -0.000782534 0.995482
0.0294185 0.150073 0.428375 0.00076696 0.0878841 0.99613
-0.0998563 -0.156522 0.453105 0.00055118 0.0631211 0.998006
0.185931 0.00582691 0.0129088 -0.0801826 0.000725951 -0.99678
0.00612593 -0.123897 0.028118 -0.000734572 -0.0802037 0.996778
-0.0187445 0.142672 0.429065 0.000772903 0.0878841 0.99613
-0.00911902 0.174676 0.586962 -0.00859934 -0.985608 0.168829
-0.129008 -0.00146988 0.017485 0.0801827 -0.000702427 -0.99678
0.00284239 -0.135422 0.00771721 0.000334664 0.0397964 -0.999208
0.0482005 -0.0530776 0.388715 0.651695 0.758481 0
0.0833394 -0.139829 0.451948 0.000555121 0.0631211 0.998006
-0.00267236 0.260848 0.00272171 -0.000334421 -0.0397965 -0.999208
-0.0420177 0.196217 0.669983 -0.00828294 -0.948662 0.316184
-0.0981502 0.276319 0.748009 -0.0187808 0.273869 -0.961584
0.216049 -0.0637319 0.429425 -0.142003 -0.0555351 -0.988307
-0.193341 0.115727 0.420704 0.995928 -0.000397599 0.0901525
-0.316025 0.00220961 0 0 0 -1
-0.277648 0.00418883 0.00205029 0.0397944 -0.000334425 -0.999208
-0.00331968 -0.162119 0.0274736 -0.000699766 -0.0802331 0.996776
0.0265962 -0.241035 0.436964 -0.00710685 -0.813872 0.581001
-0.0189887 -0.00361183 0.0818422 -0.942371 -0.334568 0
-0.106111 -0.122624 0.450965 0.000551015 0.0631213 0.998006
-0.135806 -0.0388822 0.445685 0.000551015 0.0631213 0.998006
0.235358 0.171176 0.564791 0.765001 -0.62366 0.160692
0.0101146 0.184938 0.025632 0.00069955 0.0802332 0.996776
0.0740985 0.027644 0.439562 0.000805004 0.0922106 0.995739
-0.101943 0.187817 0.63743 -0.00846337 -0.969327 0.245627
0.216985 0.176831 0.604368 -0.781516 -0.616445 0.0960635
-0.021095 -0.249292 0.421882 -0.00802513 -0.919042 0.394077
0.0889114 0.0682787 0.402629 -0.0356084 -0.0232904 0.999094
0.0385563 -0.00692121 0.400067 0.683807 0.729663 0
0.23108 0.174644 0.461916 -0.209012 0.969599 -0.127247
0.152525 0.133229 0.429767 0.000766958 0.0878841 0.99613
-0.0137953 -0.236776 0.00880526 0.000702228 0.0801827 -0.99678
0.0249147 0.0489631 0.437628 0.000805004 0.0922106 0.995739
-0.0683892 -0.0618053 0.398319 -0.177671 -0.162927 -0.970509
-0.200143 -0.112033 0.449832 0.0988056 -0.0636726 -0.993068
-0.0705457 0.17556 0.588969 -0.00866712 -0.985574 0.169021
-0.197936 0.17662 0.428207 -0.142766 0.9884 -0.0518092
-0.202827 -0.228241 0.447234 0.105292 0.659241 -0.744523
0.0651059 -0.00809901 0.0328379 0.0802037 -0.000734572 0.996778
0.0516514 0.0407747 0.384507 0.0929194 0.0626683 -0.993699
-0.21271 -0.0451694 0.446415 0.141647 0.0627927 0.987924
0.206534 0.115652 0.414641 -0.000749268 -0.0922045 -0.99574
0.174541 -0.0688992 0.447412 0.000551011 0.0631165 0.998006
0.0549101 -0.227139 0.450148 -0.00363986 -0.413934 0.910299
0.00870343 0.0170493 0.184659 0.506528 0.862224 0
-0.234538 0.179246 0.47711 -0.707182 0.705769 -0.0422284
-0.0323605 0.0062469 0.376676 -0.776168 0.290552 -0.559592
-0.0434245 -0.10238 0.44965 0.00055118 0.0631211 0.998006
0.171974 -0.244463 0.433938 -0.0070887 -0.814002 0.580818
-0.238369 0.15353 0.419631 -0.705918 -0.697055 0.125677
-0.221688 0.213885 0.711525 -0.625867 -0.724701 0.288268
0.126794 -0.133881 0.451548 0.000551011 0.0631165 0.998006
-0.00591213 -0.0755295 0.0217817 0.000702228 0.0801827 -0.99678
-0.005417 0.0466181 0.0345164 -0.00861564 -0.999249 0.0377831
-0.21499 -0.00632896 0.442528 -0.708366 -0.0589791 -0.703377
-0.00436149 -0.0186228 0.205103 -0.182488 -0.983208 0
-0.182408 -0.0215503 0.0226605 0.00528505 -0.984868 -0.173227
-0.207125 -0.170691 0.436657 -0.00046612 -0.0573604 -0.998353
0.0836533 -0.184679 0.454784 0.000555121 0.0631211 0.998006
0.182282 0.162682 0.426032 -0.266165 -0.952067 0.150748
-0.161599 0.184706 0.428552 -0.274743 0.961518 0
-0.0243314 0.00393499 0.441837 0.000804941 0.0922106 0.995739
-0.0417994 -0.0311922 0.405647 0.121184 0.110835 0.986423
-0.220431 -0.125757 0.450082 -0.559979 0.0507441 0.826951
0.0155256 0.011211 0.237568 0.771718 0.635965 0
0.106346 0.0844901 0.387609 0.0888343 0.0696475 -0.993608
-0.0292806 0.16488 0.528748 -0.00859934 -0.985608 0.168829
0.0164114 -0.0371951 0.38099 -0.642066 -0.766649 0
0.00616032 0.026056 0.361302 0.178788 0.966226 -0.185587
-0.0585486 0.0204227 0.400408 0.0333184 -0.0258732 0.99911
-0.00678636 -0.0181728 0.235847 -0.182488 -0.983208 0
-0.145996 -0.00656627 0.0263391 0.0802074 -0.000713226 -0.996778
0.0834043 0.00279316 0.0313736 0.0802037 -0.000734572 0.996778
-0.0404889 -0.00938242 0.403203 0.194034 0.0483072 0.979805
-0.144363 0.122135 0.430989 0.000810829 0.0922033 0.99574
0.152827 0.222338 0.739599 -0.0054341 -0.625353 0.780323
0.196799 0.00430494 0.00527352 -0.0397945 0.000334484 -0.999208
0.173989 -0.00841107 0.44282 0.000804712 0.0922103 0.995739
0.0910042 -0.0991976 0.449374 0.000551011 0.0631165 0.998006
-0.00995574 -0.255635 0.00292511 0.00033442 0.0397964 -0.999208
-0.0221875 -0.125785 0.0279451 -0.000734572 -0.0802037 0.996778
-0.155429 -0.142859 0.452272 0.000551015 0.0631213 0.998006
0.00880404 -0.102331 0.017422 0.999962 -0.00875618 0
0.103592 -0.245159 0.432128 -0.0070887 -0.814002 0.580818
-0.223009 0.00441159 0.0201385 -0.0802089 0.000547546 0.996778
-0.226604 -0.0364195 0.436015 -0.994859 0.0144118 0.100244
0.200722 0.171702 0.570106 -0.367823 0.913802 -0.172258
-0.0109244 0.169074 0.554165 -0.00859934 -0.985608 0.168829
0.0106376 0.10753 0.0119693 0.999962 -0.00875614 0
0.110385 -0.220991 0.453166 -0.00364009 -0.41393 0.910301
-0.176183 0.182102 0.612317 -0.00846337 -0.969327 0.245627
-0.00165726 0.0297236 0.439431 0.000804941 0.0922106 0.995739
-0.112272 0.213462 0.719871 -0.00832815 -0.948623 0.316299
0.212274 0.191919 0.660294 -0.723434 -0.679313 0.123197
0.0211607 0.0547263 0.0336643 -0.000691591 -0.0802113 -0.996778
0.201017 0.244133 0.739663 -0.167652 0.227699 -0.95919
0.0211175 -0.0411365 0.403515 -0.642066 -0.766649 0
-0.0346497 0.0755978 0.435209 0.000804941 0.0922106 0.995739
0.103645 -0.0652978 0.447223 0.000551011 0.0631165 0.998006
-0.0208825 -0.0153033 0.381815 -0.177671 -0.162927 -0.970509
0.150684 0.250979 0.748239 -0.16394 -0.98647 0
0.0887384 0.190735 0.655521 -0.00846814 -0.969289 0.245777
-0.111142 0.0956485 0.433415 0.000810829 0.0922033 0.99574
-0.131414 0.09284 0.404713 0.0333184 -0.0258732 0.99911
-0.203172 -0.190223 0.456044 0.0998885 0.0619456 0.993069
-0.0927187 -0.0980523 0.416851 0.628612 -0.777719 0
-0.241804 0.00762212 0.0210605 -0.0802347 0.000547465 0.996776
-0.166173 -0.00319786 0.0247162 -0.0802089 0.000547546 0.996778
0.0650392 -0.0588774 0.411609 -0.119193 0.112976 0.986422
0.0047216 -0.018578 0.221786 0.165909 -0.986141 0
0.11499 -0.00174737 0.0250891 0.0802357 -0.000728104 0.996776
0.235932 -0.0248604 0.0163074 -0.0225569 -0.984601 -0.173354
0.0204179 0.0143268 0.351666 0.534389 0.440549 -0.721349
0.128262 0.274561 0.752317 0.16069 0.987005 0
-0.0226703 0.0178994 0.0241492 0 0 -1
-0.0790851 -0.121454 0.450876 0.00055118 0.0631211 0.998006
-0.108127 0.0320245 0.439304 0.000804941 0.0922106 0.995739
0.042583 0.0901226 0.433802 0.000804712 0.0922103 0.995739
-0.184073 0.0106469 0.013047 0.0801827 -0.000702427 -0.99678
0.00782441 -0.21423 0.00644309 0.999962 -0.00875939 0
-0.00963312 -0.00186597 0.0116418 0 0 -1
-0.178529 -0.179833 0.454623 0.000551015 0.0631213 0.998006
0.110911 0.228566 0.744297 -0.0055001 -0.624512 0.780996
0.0485332 -0.0640971 0.405522 -0.642066 -0.766649 0
-0.194182 0.25833 0.744069 0.0114252 0.279946 -0.959948
0.198588 0.12 0.398873 0.156104 0.101955 -0.982465
-0.195352 0.21232 0.678867 0.0649021 0.957793 -0.280037
-0.0201715 -0.142452 0.0290447 -0.000699766 -0.0802331 0.996776
0.163809 -0.167036 0.453624 0.000551011 0.0631165 0.998006
0.201528 0.0820645 0.433043 -0.140095 0.0925164 0.985806
-0.105975 0.0570318 0.436986 0.000810829 0.0922033 0.99574
0.203068 -0.0422565 0.446654 -0.0988292 0.0636824 0.993065
0.0409905 0.0456931 0.437917 0.000805004 0.0922106 0.995739
-0.195471 0.235948 0.735735 0.00527281 0.613853 -0.789403
-0.0466349 0.0106172 0.394238 -0.597997 -0.801498 0
-0.142965 -0.22885 0.448071 -0.00583912 -0.663948 0.747756
0.00354818 0.20855 0.434403 0.0512539 0.830327 0.554914
-0.105212 0.0921954 0.403782 0.0351967 -0.0239132 0.999094
0.00448554 0.285022 0.0151442 -0.000713035 -0.0802075 -0.996778
0.0178438 -0.0445878 0.0343358 0 0 1
0.00706412 -0.0555717 0.446661 0.000555121 0.0631211 0.998006
-0.0342018 0.00837565 0.0261941 0 0 1
-0.162601 0.124061 0.395404 -0.087524 0.0713089 -0.993607
0.200504 0.140011 0.40084 0.124899 0.0981248 -0.987305
-0.0101318 -0.274689 0.0159725 -0.000692413 -0.0802113 0.996778
-0.311286 0.0240676 0.00193922 0.00872859 0.999962 0
0.183612 -0.149625 0.43334 0.315893 -0.0822411 -0.945224
-0.180427 0.201723 0.68287 -0.00832815 -0.948623 0.316299
-0.204934 0.157809 0.40869 0.543272 0.839557 0
-0.106754 -0.017486 0.0192865 0.0801828 -0.000701713 -0.99678
0.229942 0.0153736 0.00937538 -0.0801826 0.000725951 -0.99678
-0.00217403 -0.0305531 0.373627 -0.151658 -0.814639 -0.559789
-0.122636 0.15483 0.428073 0.000772903 0.0878841 0.99613
-0.218727 0.130772 0.427836 -0.785233 0.0752452 0.614611
-0.0102476 -0.0605722 0.0332012 -0.000734572 -0.0802037 0.996778
0.00938816 0.00963788 0.326159 0.770621 0.637293 0
-0.157171 0.167882 0.539761 -0.00866712 -0.985574 0.169021
-0.0529402 -0.0461253 0.408694 0.121184 0.110835 0.986423
-0.00403978 -0.0164929 0.0367696 0 0 1
-0.212704 -0.00783774 0.00596208 -0.00875947 -0.999962 0
-0.00506214 0.0521245 0.0236722 -0.000702425 -0.0801827 -0.99678
-0.0200369 0.129255 0.0174779 -0.000677492 -0.0801868 -0.99678
0.096721 -0.00402933 0.0302971 0.0802037 -0.000734572 0.996778
-0.223514 0.167681 0.545717 0.180357 -0.971676 0.152697
-0.160538 0.190554 0.646209 -0.00846337 -0.969327 0.245627
0.0798627 0.21617 0.730567 -0.00704543 -0.808507 0.588444
-0.101268 0.172306 0.568422 -0.00866712 -0.985574 0.169021
-0.209611 -0.0885442 0.448727 0.141647 0.0627927 0.987924
-0.0690173 -0.0729965 0.447805 0.000551015 0.0631213 0.998006
-0.0558988 -0.239341 0.424827 0.00749009 0.857769 -0.513981
0.092792 -0.125805 0.451056 0.000555121 0.0631211 0.998006
-0.010902 -0.0135664 0.274423 0 0 1
-0.0903441 0.0432286 0.397525 -0.597997 -0.801498 0
-0.211849 0.188958 0.64012 0.712539 -0.690793 0.122853
0.195368 -0.0922349 0.432078 -0.804353 -0.0316415 -0.593309
0.21046 0.182379 0.566071 -0.245236 0.952397 -0.181105
0.19317 -0.0207116 0.0123076 -0.0801865 0.00070246 -0.99678
0.0169708 -0.0106988 0.380309 0.174747 -0.166087 -0.970504
0.319965 -0.00486913 0.0123347 -0.07768 0.000670542 -0.996978
0.0206079 0.228396 0.743525 -0.0055001 -0.624512 0.780996
0.097391 0.0182964 0.03026 0.0802124 -0.000569973 0.996778
-0.205718 0.214828 0.720875 0.47293 -0.842762 0.25708
-0.0352493 0.0398872 0.378118 -0.093306 0.0633728 -0.993619
0.136958 0.107915 0.432078 0.000804712 0.0922103 0.995739
-0.200159 -0.0171313 0.442441 0.141581 0.0900673 0.985821
-0.0156482 0.0899057 0.0206404 -0.000677492 -0.0801868 -0.99678
0.194642 0.183854 0.630378 0.171773 -0.951283 0.256037
0.0519319 0.193894 0.422066 -0.0730786 -0.981527 0.176814
0.00169118 -0.32304 0.0120941 -0.000926019 -0.0783559 0.996925
0.0449473 -0.249339 0.423116 -0.0080204 -0.919042 0.394077
-0.0199804 0.245441 0.0117723 -0.984773 -0.0053531 -0.173764
-0.0998095 0.01057 0.0186569 0.00875614 0.999962 0
-0.0177592 0.0330428 0.376039 -0.093306 0.0633728 -0.993619
-0.228193 0.199118 0.617903 -0.745268 0.661524 -0.0834364
-0.152985 0.105509 0.432536 0.000810829 0.0922033 0.99574
0.0369021 0.173611 0.5831 -0.00860616 -0.985577 0.169007
-0.151795 0.0340789 0.439149 0.000810829 0.0922033 0.99574
0.052648 -0.0704608 0.447578 0.000551011 0.0631165 0.998006
-0.0295302 -0.0268691 0.444694 0.000804941 0.0922106 0.995739
0.000903359 0.229391 0.00940814 -0.000677492 -0.0801868 -0.99678
-0.200783 0.215519 0.688549 0.0649021 0.957793 -0.280037
-0.0104373 -0.139438 0.451975 0.00055118 0.0631211 0.998006
-0.136796 0.199173 0.67637 -0.00828294 -0.948662 0.316184
-0.00760113 0.188745 0.644351 -0.00852388 -0.969286 0.245788
0.0692932 0.282022 0.750893 0.0438492 0.697345 -0.715393
-0.200427 -0.0745074 0.447397 0.0988056 -0.0636726 -0.993068
-0.0868604 0.26323 0.753119 0.0456488 -0.445907 0.893915
0.168136 0.168265 0.43404 -0.301447 -0.941743 0.149165
-0.151023 0.0110184 0.0132695 0.00875614 0.999962 0
0.0578479 0.163849 0.52719 -0.00866936 -0.985607 0.168829
-0.0190647 -0.00339771 0.176463 -0.942371 -0.334568 0
-0.193188 0.106357 0.432501 0.100237 0.0908732 0.990805
-0.00648089 -0.0182295 0.151855 -0.182488 -0.983208 0
-0.0178528 0.284394 0.750356 -0.0163134 0.553181 -0.832901
-0.146919 0.221188 0.734739 -0.00710057 -0.808795 0.588048
0.0500318 0.208797 0.71014 -0.00828793 -0.948662 0.316184
0.0475204 -0.200684 0.455817 0.000555121 0.0631211 0.998006
0.21239 0.00169457 0.0234332 -0.0802347 0.000547267 -0.996776
0.140997 -0.0736563 0.447731 0.000551011 0.0631165 0.998006
0.100868 0.132182 0.429899 0.000766958 0.0878841 0.99613
0.206071 -0.221868 0.454689 -0.103088 -0.410124 0.906185
0.13016 0.0786609 0.389388 0.0938258 0.06128 -0.993701
0.209722 0.19834 0.675494 -0.724092 -0.670007 0.16365
0.181585 0.118022 0.401539 0.0888171 0.0697777 -0.993601
-0.203197 0.0225147 0.0115003 0.0801827 -0.000702427 -0.99678
-0.129787 -0.0932423 0.449119 0.000551015 0.0631213 0.998006
-0.227196 -0.0686979 0.43478 -0.994859 0.0144118 0.100244
-0.0473875 0.264197 0.752016 0.0437246 -0.979857 0.194853
0.110618 0.0594833 0.436584 0.000804712 0.0922103 0.995739
0.201195 0.213792 0.695348 -0.0481211 0.958763 -0.280102
0.0115506 0.213256 0.0233517 0.00069955 0.0802332 0.996776
0.200616 -0.00556187 0.42587 -0.000851754 -0.0922036 -0.99574
-0.0655488 0.181864 0.615207 -0.00852388 -0.969286 0.245788
-0.0621977 0.123088 0.430834 0.000810829 0.0922033 0.99574
0.133819 -0.237057 0.431689 0.00143219 0.164026 0.986455
-0.164629 -0.155776 0.432382 0.609368 -0.792888 0
0.0741397 0.20225 0.691128 -0.00828793 -0.948662 0.316184
0.0400954 0.198991 0.680456 -0.00828793 -0.948662 0.316184
-0.0176724 -0.0733879 0.447802 0.00055118 0.0631211 0.998006
-0.0878919 0.0598661 0.436709 0.000810829 0.0922033 0.99574
0.166356 -0.13728 0.426499 0.315893 -0.0822411 -0.945224
0.142856 0.00660296 0.0074226 -0.0397945 0.000334484 -0.999208
-0.0973358 0.199445 0.417101 -0.165725 0.937398 -0.306301
0.291737 0.0134735 0.0170528 -0.0802347 0.000547267 -0.996776
-0.0184209 -0.186527 0.0128441 0.000702228 0.0801827 -0.99678
-0.206463 0.223359 0.704836 0.720513 0.652822 -0.233845
-0.0854482 0.0615898 0.388985 -0.0917623 0.0643604 -0.993699
-0.0162505 0.070723 0.022184 -0.000702425 -0.0801827 -0.99678
0.0775148 -0.0038341 0.0100214 -0.0397945 0.000334484 -0.999208
0.0174107 0.0232361 0.0367696 0 0 1
0.248429 0.01936 0.00816446 -0.00535414 0.98477 -0.17378
-0.286168 0.0210507 0 0 0 -1
-0.2636 0.0178447 0.00664459 0.0801827 -0.000702427 -0.99678
0.0895316 -0.0880933 0.417915 -0.119193 0.112976 0.986422
-0.194555 0.0123545 0.425809 0.702636 -0.0716708 -0.707931
-0.0409174 0.00658155 0.0114776 0.0397962 -0.000360331 -0.999208
0.208113 -0.183898 0.437207 -0.000466153 -0.0573645 -0.998353
0.224566 -0.23665 0.431792 0.994552 -0.0494254 0.0917831
0.0143792 -0.00168741 0.0261941 0 0 1
-0.174973 -0.241076 0.431568 -0.00617414 -0.707066 0.707121
-0.128435 0.0108203 0.00913881 0.00875869 0.999962 0
-0.0472031 -0.0176843 0.0367382 -0.0802331 0.000699573 0.996776
0.0109675 0.25129 0.0202905 0.000698395 0.0802334 0.996776
0.0240782 0.312502 0.00132389 0.999962 -0.00873113 0
0.00112717 0.0692097 0.435772 0.000805004 0.0922106 0.995739
-0.0429518 -0.145586 0.452382 0.00055118 0.0631211 0.998006
-0.0674686 0.195793 0.436338 0.167328 -0.820219 0.54703
-0.0229349 0.205818 0.699289 -0.00828294 -0.948662 0.316184
0.227501 0.201405 0.632777 0.994106 -0.0766604 0.0766592
0.0096998 0.016464 0.118713 0.506528 0.862224 0
0.0832582 -0.0770359 0.403597 0.174747 -0.166087 -0.970504
0.137497 -0.0230311 0.0270021 0.0802037 -0.000734572 0.996778
0.0358106 0.00808051 0.382539 0.781746 0.276321 -0.559035
-0.297895 -0.0139315 0.0141216 0.0802074 -0.000713226 -0.996778
0.00928607 -0.0472826 0.0219087 0.999962 -0.00875618 0
-0.0568223 -0.162128 0.453436 0.00055118 0.0631211 0.998006
-0.172001 -0.0265847 0.444783 0.000804941 0.0922106 0.995739
0.23421 0.165471 0.407503 0.1684 0.0280036 -0.985321
0.104676 0.19771 0.426518 0.188418 0.98059 -0.0542439
-0.0919536 -0.00616296 0.442827 0.000804941 0.0922106 0.995739
0.161324 -0.243436 0.421174 0.00748685 0.857454 -0.514506
-0.154796 -0.215636 0.454118 -0.0010227 -0.117112 0.993118
0.154547 -0.00726702 0.0256419 0.0802037 -0.000734572 0.996778
0.0208095 0.230134 0.00933461 -0.000702425 -0.0801827 -0.99678
0.0786194 0.101234 0.432744 0.000804712 0.0922103 0.995739
-0.00892882 -0.220188 0.020359 0.000734568 0.0802037 -0.996778
0.0887928 0.0667064 0.435933 0.000804712 0.0922103 0.995739
-0.233639 0.161565 0.490236 -0.723715 -0.677674 0.130362
-0.0110073 -0.149801 0.00809692 -0.999962 0.00875954 0
-0.0733929 0.0486214 0.437739 0.000804941 0.0922106 0.995739
-0.119072 -0.00528655 0.0285048 -0.0802113 0.000691404 0.996778
-0.197018 0.00901566 0.441816 0.100237 0.0908732 0.990805
-0.121527 -0.216831 0.454011 -0.0010227 -0.117112 0.993118
-0.226934 -0.145407 0.447672 -0.949245 0.0228072 0.31371
0.0465816 -0.00995758 0.0112513 -0.0397962 0.000359083 -0.999208
-0.190719 0.211025 0.698036 0.117811 -0.950976 0.285947
-0.0273114 0.17407 0.582498 -0.00859934 -0.985608 0.168829
-0.0944517 0.117405 0.431387 0.000810829 0.0922033 0.99574
0.108066 0.200157 0.685738 -0.00828793 -0.948662 0.316184
0.00437888 0.192051 0.657801 -0.00846391 -0.969287 0.245788
0.199656 0.0124671 0.0220261 -0.0802113 0.000692392 -0.996778
0.227178 0.130508 0.422309 0.995237 0.00655054 0.0972602
-0.0406352 -0.193455 0.455408 0.00055118 0.0631211 0.998006
0.000247287 0.101981 0.432738 0.000804941 0.0922106 0.995739
-0.0218077 -0.232232 0.021817 -0.000699766 -0.0802331 0.996776
-0.139899 0.0213375 0.440319 0.000810829 0.0922033 0.99574
0.309282 0.0140434 0 0 0 -1
0.0434929 0.169628 0.560194 -0.00866936 -0.985607 0.168829
0.222496 0.171134 0.439324 -0.102623 0.989677 -0.100038
0.194359 0.0276955 0.425892 -0.995814 0.0170605 0.0897928
0.180753 0.146106 0.428609 0.000766958 0.0878841 0.99613
0.205007 -0.113758 0.451432 -0.0988292 0.0636824 0.993065
0.142459 0.113404 0.3967 -0.531906 0.846803 0
0.216208 0.168057 0.542916 0.176187 -0.96661 0.186074
0.000647306 -0.0936645 0.449074 0.000555121 0.0631211 0.998006
-0.145481 0.186756 0.631742 -0.00846337 -0.969327 0.245627
0.0573406 0.215775 0.729755 -0.00704543 -0.808507 0.588444
0.160444 0.0914996 0.40143 0.583887 -0.811835 0
-0.0356908 0.218004 0.731702 -0.00708395 -0.808668 0.588222
-0.23727 0.162235 0.473412 -0.723613 -0.678475 0.126711
-0.137602 -0.0176629 0.0168051 0.0801828 -0.000701713 -0.99678
-0.00853949 -0.0171456 0.0851616 -0.506537 -0.862218 0
0.0790955 -0.250137 0.40949 -0.00619502 -0.709445 -0.704734
-0.0470831 0.139662 0.429353 0.000772903 0.0878841 0.99613
-0.208106 -0.00903627 0.0237821 -0.0802347 0.000547465 0.996776
-0.19589 -0.127475 0.44512 0.995802 -0.00287449 0.091487
-0.040367 -0.00540201 0.0343358 0 0 -1
0.0536668 0.1177 0.431239 0.000804712 0.0922103 0.995739
0.134739 0.189096 0.415686 0.285909 0.907975 -0.30633
-0.0852431 0.0798395 0.386046 0.546624 0.837378 0
0.0577296 0.0647766 0.436137 0.000805004 0.0922106 0.995739
-0.0190799 0.00299382 0.126758 -0.999957 0.00930685 0
-0.21887 0.185729 0.536322 0.704785 0.69128 -0.159403
-0.000653064 0.0169281 0.0241492 0 0 -1
0.209264 -0.192401 0.455475 -0.155048 0.0636543 0.985854
-0.0200648 -0.0202387 0.369849 -0.757784 -0.625567 -0.185552
-0.173491 0.00918736 0.0265541 -0.0802331 0.000699573 0.996776
-0.017697 -0.0239192 0.0343358 0 0 1
0.122524 0.171838 0.577123 -0.00860616 -0.985577 0.169007
0.19809 0.145786 0.428343 -0.099795 -0.0865873 -0.991233
-0.0636996 0.00374219 0.0329543 -0.0802113 0.000691404 0.996778
-0.0116531 0.0153598 0.0526875 -0.492111 0.870533 0
0.140982 -0.0007465 0.442137 0.000805004 0.0922106 0.995739
0.0208215 -0.270828 0.0157607 0.984871 0.00532936 -0.17321
0.20419 0.222968 0.724647 0.00788903 0.831894 -0.554879
-0.000105042 -0.282655 0.00485494 0 0 1
-0.0435154 -0.212866 0.454559 -0.0010227 -0.117112 0.993118
0.0618681 0.174916 0.591985 -0.00860616 -0.985577 0.169007
-0.146174 0.0233018 0.026304 -0.0802113 0.000691404 0.996778
-0.0444069 0.0531825 0.398909 0.546624 0.837378 0
0.00037559 0.166863 0.541838 -0.00859934 -0.985608 0.168829
-0.0152989 -0.032263 0.402512 0.121184 0.110835 0.986423
0.20187 -0.0798134 0.447231 -0.0999251 -0.0619256 -0.993066
-0.0240746 -0.289477 0.00487988 -0.984533 0.0226007 -0.173735
0.124616 0.014148 0.0280668 0.0802124 -0.000569973 0.996778
0.0133507 -0.304034 0 0 0 -1
0.0171185 0.1656 0.53532 -0.00866936 -0.985607 0.168829
0.00837647 0.0172414 0.140169 0.506528 0.862224 0
-0.208751 0.0789761 0.418374 -0.000892694 -0.0922104 -0.995739
-0.0124325 -0.317302 0.0125417 0.000692392 0.0802113 -0.996778
-0.116732 -0.0439923 0.445997 0.000551015 0.0631213 0.998006
-0.184752 0.153881 0.428205 0.000772843 0.0878837 0.99613
0.0884554 -0.011122 0.44314 0.000805004 0.0922106 0.995739
0.158674 0.186935 0.642941 -0.00846814 -0.969289 0.245777
0.195002 0.221035 0.73412 -0.105434 -0.838678 0.534324
-0.127325 0.00890464 0.44146 0.000804941 0.0922106 0.995739
-0.019782 -0.0131393 0.0241492 0 0 -1
0.10912 -0.09533 0.421262 -0.193163 0.0517055 0.979803
0.220738 0.114022 0.429366 0.78475 0.0550992 0.617359
-0.040942 -0.053819 0.386856 -0.1816 -0.152945 -0.971406
0.131305 0.062825 0.436258 0.000804712 0.0922103 0.995739
-0.219641 0.0677412 0.433764 -0.785001 0.0687339 0.615669
-0.151299 0.1121 0.398403 -0.0875566 0.0713631 -0.9936
-0.0750581 -0.0400063 0.392039 -0.182671 -0.179327 -0.966682
-0.159401 -0.0425796 0.445932 0.000551015 0.0631213 0.998006
0.0772189 0.155169 0.427889 0.00076696 0.0878841 0.99613
0.0971984 -0.236831 0.442857 -0.0058021 -0.664453 0.747307
0.061167 0.021422 0.0256259 -0.00532936 0.984871 -0.17321
0.158203 -0.0834571 0.448341 0.000551011 0.0631165 0.998006
0.0134522 0.0647889 0.0226404 -0.000702425 -0.0801827 -0.99678
-0.2357 0.169419 0.525172 -0.628125 -0.768758 0.120294
0.259046 0.0140136 0.0196845 -0.0802347 0.000547267 -0.996776
0.214381 0.00782318 0.00661509 0.00875903 0.999962 0
0.244645 0.00187324 0.0183985 -0.0802113 0.000692392 -0.996778
-0.00596657 0.240763 0.00352275 -0.000334421 -0.0397965 -0.999208
0.0016116 0.0324512 0.376232 0.150664 0.814828 -0.559782
0.132436 0.0983351 0.391295 0.549607 -0.835423 0
-0.00865461 0.119392 0.020034 -0.999962 0.00875618 0
0.055273 0.194908 0.668605 -0.00828793 -0.948662 0.316184
-0.172599 0.0368041 0.438914 0.000810829 0.0922033 0.99574
0.200478 0.163333 0.526692 -0.325973 0.927012 -0.185446
0.0637959 0.199197 0.438096 -0.0773033 -0.240165 0.967649
-0.265595 0.00809243 0.0191452 -0.0802347 0.000547465 0.996776
0.00194113 -0.0132357 0.345686 0.164831 -0.986322 0
0.0121286 -0.136745 0.0270883 -0.000692413 -0.0802113 0.996778
6.60438e-05 -0.0670968 0.0351245 -0.000699766 -0.0802331 0.996776
0.206678 -0.0115095 0.0132654 -0.008706 -0.999962 0
0.0204965 0.00439445 0.0367696 0 0 1
0.22822 0.205623 0.662254 0.723972 0.675068 -0.141938
-0.0281509 0.186071 0.633094 -0.00852388 -0.969286 0.245788
-0.0542953 0.00202756 0.442038 0.000804941 0.0922106 0.995739
0.208102 0.166363 0.444974 0.0388533 0.31447 0.948472
-0.215388 0.174407 0.558016 0.708261 -0.702721 0.0674431
0.0191119 0.00327757 0.253079 0.942747 0.333508 0
-0.0161626 0.0990493 0.0325639 0.000698395 0.0802334 0.996776
-0.203786 0.17154 0.538701 0.341514 0.921326 -0.185814
-0.174268 0.254309 0.741189 0.0323694 -0.111501 -0.993237
0.192922 -0.241964 0.421356 -0.80377 0.512292 -0.302507
-0.206643 0.248555 0.752831 -0.182428 -0.100393 0.97808
0.160389 -0.0450173 0.445909 0.000551011 0.0631165 0.998006
0.158059 -0.238414 0.441922 -0.0058021 -0.664453 0.747307
0.0328447 0.13443 0.429753 0.00076696 0.0878841 0.99613
-0.0171811 -0.00870338 0.161426 -0.942371 -0.334568 0
-0.21085 0.117761 0.414586 0.140073 -0.0925403 -0.985807
-0.0487762 -0.0527761 0.446515 0.000551015 0.0631213 0.998006
0.0714564 0.117509 0.431242 0.000804712 0.0922103 0.995739
-0.0161668 -0.09568 0.0303719 0.000734568 0.0802037 -0.996778
0.206856 -0.121864 0.433643 -0.000466153 -0.0573645 -0.998353
0.156947 0.000683464 0.441992 0.000804712 0.0922103 0.995739
0.084801 0.208975 0.711583 -0.00826659 -0.948644 0.316238
-0.210115 0.0351809 0.440741 0.10029 0.0908657 0.9908
-0.0890557 0.165468 0.529135 -0.00859934 -0.985608 0.168829
-0.198819 0.0913972 0.433317 0.0986926 -0.0926195 -0.990798
-0.320923 -0.00589925 0.0146988 -0.0740089 0.00137035 0.997257
-0.00614714 -0.0360214 0.0343358 0 0 1
0.0849701 0.185177 0.63347 -0.00846814 -0.969289 0.245777
0.158668 -0.114757 0.450321 0.000551011 0.0631165 0.998006
-0.223623 0.210001 0.659447 -0.713107 0.68472 -0.150453
-0.0193719 -0.306589 0 0 0 -1
-0.164235 0.215194 0.723696 -0.00832815 -0.948623 0.316299
0.00813314 0.0590798 0.033323 0.000691591 0.0802113 0.996778
0.0233181 0.0897724 0.0316014 0.709192 0.0503923 0.703212
-0.0323006 0.265983 0.745588 0.0369334 -0.894511 -0.445518
0.0823814 -0.0257435 0.444499 0.000805004 0.0922106 0.995739
0.257119 -0.0121438 0.0173849 -0.0802113 0.000692392 -0.996778
-0.133436 0.182809 0.61658 -0.00846337 -0.969327 0.245627
0.0575697 -0.168705 0.453789 0.000555121 0.0631211 0.998006
0.195902 -0.101172 0.447365 -0.716258 0.050308 0.69602
0.0191262 0.00199217 0.0635767 0.999957 -0.00930689 0
-0.00485497 -0.043963 0.0241492 0 0 -1
-0.0135772 0.201053 0.685239 -0.00828294 -0.948662 0.316184
-0.0887551 -0.0544658 0.446644 0.000551015 0.0631213 0.998006
-0.0105997 -0.112379 0.0290323 -0.000734572 -0.0802037 0.996778
-0.0671946 0.0549565 0.386887 -0.0875566 0.0713631 -0.9936
-0.0692361 0.191627 0.65359 -0.00846337 -0.969327 0.245627
0.21375 0.0973343 0.431101 -0.100169 -0.0908956 -0.99081
0.132556 -0.0601746 0.446883 0.000551011 0.0631165 0.998006
0.295112 -0.00889015 0 0 0 -1
0.180966 -0.0425697 0.445743 0.000551011 0.0631165 0.998006
-0.123668 -0.0288278 0.444952 0.000804941 0.0922106 0.995739
0.0291809 0.168273 0.551547 -0.00866936 -0.985607 0.168829
-0.228242 0.175096 0.429727 0.120117 0.987673 -0.100371
-0.000653655 -0.019311 0.127435 -0.182488 -0.983208 0
-0.0563301 -0.191959 0.455322 0.00055118 0.0631211 0.998006
0.0155593 0.0111701 0.0873279 0.771718 0.635965 0
0.199703 -0.231369 0.448311 -0.119863 -0.619896 0.775475
0.0156867 0.210298 0.713744 -0.00828793 -0.948662 0.316184
0.00961176 -0.108007 0.0318383 -0.000699766 -0.0802331 0.996776
0.0381189 0.281731 0.756294 0.0304356 0.314673 0.948712
-0.0842356 0.205421 0.696491 -0.00828294 -0.948662 0.316184
0.0359469 0.0465004 0.389241 -0.531906 0.846803 0
0.226737 0.0460502 0.427731 0.99521 0.000395919 0.0977574
0.205529 -0.104653 0.432655 -0.000463947 -0.0573646 -0.998353
0.0292556 0.024587 0.389502 0.77171 0.635975 0
0.0169943 0.256682 0.00720175 -0.000702425 -0.0801827 -0.99678
-0.0798627 -0.016895 0.0214492 0.0801828 -0.000701713 -0.99678
-0.0562021 0.152282 0.428247 0.000772903 0.0878841 0.99613
-0.0146812 0.203765 0.0216964 -0.000713035 -0.0802075 -0.996778
-0.168461 0.11484 0.406519 0.0333184 -0.0258732 0.99911
-0.190133 -0.142586 0.452274 0.000551015 0.0631213 0.998006
0.00674455 0.0777437 0.021603 -0.000702425 -0.0801827 -0.99678
0.161866 0.210886 0.719331 -0.00826659 -0.948644 0.316238
0.0988672 0.0133623 0.440865 0.000805004 0.0922106 0.995739
0.130152 -0.118712 0.450586 0.000551011 0.0631165 0.998006
0.183232 -0.0122993 0.0257678 -0.0802331 0.000699735 -0.996776
-0.0115886 0.00702215 0.345654 -0.760751 0.649043 0
0.0117246 0.197428 0.42466 -0.0779278 -0.977735 0.194835
0.00593953 0.173738 0.0138817 -0.000702425 -0.0801827 -0.99678
-0.19351 0.205246 0.654549 0.0654311 0.965599 -0.25167
-0.204298 0.229653 0.743815 0.134525 -0.543624 0.828478
-0.227417 0.181117 0.605599 -0.749646 -0.624264 0.219831
-0.19767 -0.175866 0.45417 0.0988056 -0.0636726 -0.993068
-0.00375382 -0.283554 0.0152635 -0.000692413 -0.0802113 0.996778
-0.00337938 0.0633859 0.0329845 0.000691591 0.0802113 0.996778
0.190024 -0.187138 0.454881 0.000551011 0.0631165 0.998006
-0.132152 0.0819295 0.434702 0.000810829 0.0922033 0.99574
-0.0545743 -0.017626 0.023484 0.0801827 -0.000702427 -0.99678
-0.207845 0.199004 0.670166 0.713371 -0.681559 0.163033
0.0663705 0.0134014 0.440887 0.000805004 0.0922106 0.995739
0.187863 0.175593 0.432296 0.187718 0.982223 0
0.0445518 0.0093219 0.0204985 0.00880617 0.999961 0
0.0303333 0.19523 0.416284 -0.0720523 -0.967742 -0.241419
-0.00454895 0.209483 0.421354 -0.0553995 0.996493 -0.0627047
-0.171507 -0.000767708 0.442392 0.000810829 0.0922033 0.99574
0.175771 -0.136998 0.437235 -0.222466 0.0595493 0.97312
0.00537168 0.184181 0.626802 -0.00846391 -0.969287 0.245788
-0.227849 0.194062 0.579905 -0.327977 0.934863 -0.135876
0.0798139 -0.199491 0.455723 0.000555121 0.0631211 0.998006
-0.02231 -0.0669871 0.0238233 -0.984533 0.0226007 -0.173735
0.0869002 0.0407277 0.401895 -0.0337902 -0.0252549 0.99911
0.230438 0.152259 0.458145 -0.260084 -0.960239 0.101477
0.00398678 -0.0819303 0.0314931 0.000734568 0.0802037 -0.996778
-0.0828072 0.131701 0.430083 0.000772843 0.0878837 0.99613
-0.0763095 -0.243617 0.432089 -0.00714467 -0.814137 0.580629
0.0201769 -0.0715081 0.0323436 0.000692392 0.0802113 -0.996778
0.221305 0.160494 0.48506 -0.677587 -0.733349 0.0554535
0.167217 0.129152 0.430115 0.000766958 0.0878841 0.99613
-0.00933906 0.00965882 0.298737 -0.760751 0.649043 0
-0.101593 -0.0714459 0.418363 0.194034 0.0483072 0.979805
-0.0405161 -0.234494 0.44386 -0.00583912 -0.663948 0.747756
-0.0191288 -0.00225856 0.102658 -0.999957 0.00930685 0
0.0436093 0.00746994 0.393087 0.583887 -0.811835 0
0.179613 0.190027 0.655859 -0.00846814 -0.969289 0.245777
0.160311 -0.205828 0.4556 -0.00102995 -0.117113 0.993118
-0.128066 -0.153309 0.452918 0.00055118 0.0631211 0.998006
-0.00345379 -0.186008 0.454917 0.00055118 0.0631211 0.998006
0.280244 -0.0115372 0.00417902 0.999959 -0.00902269 0
-0.00968505 0.171617 0.56908 -0.00859934 -0.985608 0.168829
-0.117894 0.100503 0.404427 0.0351967 -0.0239132 0.999094
0.113441 0.276158 0.749524 0.0941372 0.681735 -0.725517
-0.147453 0.00824435 0.441538 0.000810829 0.0922033 0.99574
-0.197191 -0.0974576 0.446885 0.72081 0.0374011 0.692123
-0.126845 -0.0860414 0.4214 -0.670911 0.741538 0
-0.0596662 0.16935 0.553298 -0.00859934 -0.985608 0.168829
0.0868766 -0.2443 0.433128 -0.0070887 -0.814002 0.580818
-0.226674 0.023236 0.424743 -0.99497 0.0178674 0.0985696
-0.0952444 -0.00672401 0.0202047 0.0801827 -0.000702427 -0.99678
0.120762 0.19482 0.430156 0.188418 0.98059 -0.0542439
-0.0868673 0.172953 0.572935 -0.00866712 -0.985574 0.169021
0.00156592 -0.159283 0.0150497 0.000702228 0.0801827 -0.99678
-0.225844 0.0452858 0.429085 -0.994837 0.0179062 0.099898
0.0124722 0.0048512 0.312188 0.943231 0.332138 0
-0.0816869 0.215131 0.725681 -0.00832815 -0.948623 0.316299
-0.200497 0.0580402 0.437671 0.100237 0.0908732 0.990805
-0.160784 -0.183205 0.454827 0.00055118 0.0631211 0.998006
0.00384728 -0.0781714 0.00999774 0.000334664 0.0397964 -0.999208
-0.0135151 0.0204791 0.440296 0.000804941 0.0922106 0.995739
-0.210051 0.180683 0.588395 0.0398142 -0.985812 0.163064
-0.213951 -0.156483 0.455024 0.0999568 0.0619366 0.993062
0.0337337 -0.00499469 0.0261941 0 0 1
0.0193953 0.192004 0.658135 -0.00846814 -0.969289 0.245777
-0.155601 0.143694 0.429081 0.000772843 0.0878837 0.99613
-0.235267 -0.0182458 0.0191641 0.0802074 -0.000713226 -0.996778
-0.10866 -0.110937 0.409222 0.628612 -0.777719 0
-0.221623 0.146798 0.424462 0.00120844 0.123633 0.992327
0.129402 -0.0435028 0.44583 0.000551011 0.0631165 0.998006
0.029037 0.00199985 0.39081 0.683807 0.729663 0
0.270484 -0.0183732 0.0187404 -0.0802331 0.000699735 -0.996776
-0.0178674 0.0240199 0.403917 -0.35424 0.626605 0.694176
0.0887997 -0.0671398 0.447348 0.000551011 0.0631165 0.998006
-0.053064 0.200577 0.682775 -0.00828294 -0.948662 0.316184
-0.11037 0.177637 0.596982 -0.00852388 -0.969286 0.245788
0.224875 -0.168066 0.443246 0.995782 -0.00301505 0.0917013
0.231766 0.14697 0.4138 0.0657666 -0.273237 -0.959696
-0.0208848 0.18017 0.018914 -0.985076 -0.00527806 -0.172036
-0.212735 -0.248442 0.410738 -0.0482521 -0.932284 -0.358494
-0.0885956 0.176626 0.593748 -0.00852388 -0.969286 0.245788
-0.215883 -0.120146 0.433138 0.141005 -0.0580137 -0.988308
0.07563 0.0549344 0.387642 0.0929194 0.0626683 -0.993699
0.00759319 0.0110485 0.341056 0.509808 0.860288 0
0.138129 -0.121846 0.428381 -0.193163 0.0517055 0.979803
-0.0654832 0.283051 0.751967 -0.045471 0.998966 0
0.128688 0.208267 0.710605 -0.00826659 -0.948644 0.316238
-0.0669628 0.0877936 0.434106 0.000810829 0.0922033 0.99574
0.00301272 -0.00916085 0.443028 0.000805004 0.0922106 0.995739
-0.00130381 -0.0241638 0.391 0.628612 -0.777719 0
0.00904417 0.0163898 0.440657 0.000805004 0.0922106 0.995739
-0.00492457 -0.238555 0.426881 0.00749009 0.857769 -0.513981
0.0117346 0.307991 0.0132908 -0.000713035 -0.0802075 -0.996778
-0.170802 0.05559 0.437173 0.000810829 0.0922033 0.99574
-0.011531 -0.209556 0.0130908 -0.999962 0.00875618 0
0.114754 -0.196836 0.455536 0.000555121 0.0631211 0.998006
-0.00799138 0.0383163 0.0261941 0 0 1
0.0562529 0.00931985 0.0360039 -0.0802331 0.000699735 -0.996776
-0.0742701 0.167646 0.542606 -0.00859934 -0.985608 0.168829
-0.155267 0.266057 0.746195 -0.0178296 0.269853 -0.962736
0.159642 -0.00152824 0.0150182 -0.0801865 0.00070246 -0.99678
-0.16744 -0.132786 0.425942 -0.317528 -0.0760549 -0.945194
0.0988074 -0.162288 0.45336 0.000555121 0.0631211 0.998006
-0.0042103 0.21548 0.0170038 0.000728164 0.0802415 0.996775
0.021361 0.148241 0.0159218 -0.000702425 -0.0801827 -0.99678
-0.0281098 0.0358704 0.438883 0.000804941 0.0922106 0.995739
-0.192038 0.168093 0.539203 -0.00866712 -0.985574 0.169021
0.0380709 -0.0553349 0.399199 -0.642066 -0.766649 0
0.217634 0.241288 0.751045 0.452641 -0.0419951 0.890703
-0.211308 -0.0757388 0.431184 0.141005 -0.0580137 -0.988308
0.119656 0.165383 0.539321 -0.00866936 -0.985607 0.168829
0.154789 0.18489 0.427873 0.291411 0.956598 0
0.13447 0.179179 0.611522 -0.00846391 -0.969287 0.245788
0.00660792 -0.0182049 0.241964 0.491319 -0.87098 0
-0.129903 -0.24914 0.419773 -0.00873173 -0.999962 0
0.132732 -0.250338 0.422574 -0.00802483 -0.918992 0.394195
-0.0367862 0.179367 0.606354 -0.00852388 -0.969286 0.245788
0.1844 -0.00916715 0.00576257 -0.0397962 0.000359083 -0.999208
0.0785811 0.00902222 0.0228938 0.00880617 0.999961 0
0.171517 0.179795 0.425582 0.291411 0.956598 0
-0.227408 -0.0120429 0.00957699 0.0801828 -0.000701713 -0.99678
-0.222455 0.167555 0.40637 0.204058 0.575783 -0.791729
-0.0473334 -0.0613685 0.402727 0.628612 -0.777719 0
-0.0196466 0.308242 0.00794596 -0.984773 -0.0053531 -0.173764
-0.0904715 0.0637652 0.402582 0.0351967 -0.0239132 0.999094
-0.059152 0.021367 0.035749 -0.0802331 0.000699573 0.996776
-0.012751 0.00300463 0.362668 -0.934985 0.350953 0.0513393
0.146169 0.119234 0.431022 0.000804712 0.0922103 0.995739
-0.253049 0.00172794 0.0139754 -0.0802362 0.000674258 0.996776
-0.222456 -0.21589 0.452391 -0.445583 -0.10046 0.889586
-0.0237672 -0.228409 0.0110823 -0.984533 0.0226007 -0.173735
-0.15847 0.174728 0.579612 -0.00866712 -0.985574 0.169021
0.0958856 0.0652741 0.390188 0.0929194 0.0626683 -0.993699
0.312305 -0.0211629 0.0153781 -0.0802347 0.000547267 -0.996776
0.00542913 0.109822 0.0316816 0.00069955 0.0802332 0.996776
-0.212528 -0.201077 0.456016 0.153741 -0.11621 0.981254
0.236798 0.160985 0.506938 0.711474 -0.690474 0.130574
-0.198201 0.189796 0.629328 0.332476 0.907134 -0.258006
0.147654 -0.163688 0.453421 0.000551011 0.0631165 0.998006
0.0381151 0.207834 0.431749 0.072945 0.995405 -0.062023
0.0271395 -0.169276 0.453842 0.000555121 0.0631211 0.998006
0.000990212 0.267242 0.745819 0.036922 -0.89442 -0.445701
-0.127244 0.20702 0.700156 -0.00832815 -0.948623 0.316299
-0.284053 -0.0118378 0.0152353 -0.0802089 0.000547546 0.996778
0.064712 -0.0581429 0.397024 0.174747 -0.166087 -0.970504
0.169728 0.0770278 0.434912 0.000804712 0.0922103 0.995739
0.0017001 -0.304869 0.0135521 0.000692392 0.0802113 -0.996778
-0.13327 0.192597 0.42811 -0.261076 0.963768 -0.0546925
-0.188366 0.1284 0.407599 0.0513389 -0.039867 0.997885
0.0954657 0.198312 0.437671 0.0674484 0.554026 0.829762
0.0187853 -0.00430751 0.116757 0.936938 -0.349496 0
0.21765 0.011903 0.0230155 -0.0802347 0.000547267 -0.996776
0.0978676 0.0779168 0.434887 0.000804712 0.0922103 0.995739
-0.120814 0.261767 0.75393 -0.00728648 -0.100242 0.994936
0.195048 0.0834328 0.422942 -0.995814 0.0170608 0.0897948
-0.040961 0.170035 0.55825 -0.00859934 -0.985608 0.168829
-0.188501 0.0020045 0.00560137 0.0397944 -0.000334425 -0.999208
0.113292 0.0950834 0.403144 -0.531906 0.846803 0
-0.00213718 0.180974 0.613894 -0.00852388 -0.969286 0.245788
0.0190318 0.202988 0.0241729 0.00069955 0.0802332 0.996776
0.0105255 0.0947298 0.0219362 0.999962 -0.00875614 0
0.175423 0.196284 0.675881 -0.00826659 -0.948644 0.316238
-0.0637026 -0.0318983 0.388389 -0.182671 -0.179327 -0.966682
-0.227063 0.192255 0.565575 -0.327977 0.934863 -0.135876
0.132262 -0.0947376 0.425189 0.683807 0.729663 0
0.115533 0.127031 0.430342 0.000766958 0.0878841 0.99613
-0.217697 -0.152215 0.434761 0.141089 -0.0580068 -0.988296
0.227219 0.211317 0.684224 0.723972 0.675068 -0.141938
0.00382766 0.0322777 0.0241492 0 0 -1
-0.103861 0.0151904 0.0321546 -0.0802331 0.000699573 0.996776
-0.00817807 0.0173242 0.145577 -0.492111 0.870533 0
-0.052157 -0.0184667 0.384422 -0.670911 0.741538 0
-0.0673694 0.192222 0.4171 0.15546 -0.937736 -0.310618
0.213284 0.0631819 0.419176 -0.141938 -0.0900524 -0.985771
0.206463 0.0530471 0.436468 -0.140086 0.0925176 0.985807
-0.0343296 0.13288 0.429941 0.000772903 0.0878841 0.99613
0.277768 0.0203736 0.0162289 0.0629731 0.70555 0.705857
0.158896 0.0603299 0.436467 0.000804712 0.0922103 0.995739
-0.119914 -0.116528 0.424832 0.121184 0.110835 0.986423
-0.168288 0.182026 0.44086 -0.252394 0.938162 0.236959
0.164154 0.267061 0.753734 0.128276 0.701052 0.701478
-0.16845 0.270246 0.749565 -0.143433 0.98966 0
0.0184307 -0.123699 0.017924 0.000701704 0.0801828 -0.99678
0.210658 0.205611 0.663786 -0.711095 0.663234 -0.233375
-0.102437 0.195194 0.665331 -0.00828294 -0.948662 0.316184
0.0689294 -0.250876 0.419637 -0.00873188 -0.999962 0
0.0177469 0.131482 0.430024 0.00076696 0.0878841 0.99613
-0.158523 0.205367 0.694374 -0.00832815 -0.948623 0.316299
0.0704733 -0.156863 0.453032 0.000555121 0.0631211 0.998006
-0.136372 -0.100586 0.414444 -0.272585 -0.0660314 -0.959863
-0.00208664 0.225112 0.0199696 0.000713035 0.0802075 0.996778
-0.00954762 -0.0165533 0.0710267 -0.506537 -0.862218 0
0.210466 0.189717 0.644372 0.122916 -0.962797 0.240652
-0.0868499 -0.0684762 0.447529 0.000551015 0.0631213 0.998006
-0.0143084 -0.266926 0.00637954 0.000701704 0.0801828 -0.99678
-0.0058844 -0.295256 0 0 0 -1
0.016349 -0.116037 0.45048 0.000555121 0.0631211 0.998006
0.209581 -0.00921736 0.444436 -0.098586 0.0926189 0.990809
0.172105 0.00276678 0.00625647 -0.0397945 0.000334484 -0.999208
-0.0245306 0.197178 0.427597 0.0607861 -0.97895 0.194837
-0.0886088 -0.0530197 0.414884 0.194034 0.0483072 0.979805
0.0100488 -0.0402552 0.445691 0.000551011 0.0631165 0.998006
