-0.196554 0.230629 0.730873 0.0071437 0.83166 -0.555239
-0.040458 0.19619 0.413025 0.0537538 -0.946528 -0.318111
0.118252 -0.100085 0.41445 0.271468 -0.0706754 -0.959849
-0.14703 -0.0954979 0.449272 0.000551015 0.0631213 0.998006
-0.186992 -0.00806297 0.00632503 -0.00875947 -0.999962 0
-0.0545966 0.0442962 0.385016 -0.0917623 0.0643604 -0.993699
0.0368198 0.195597 0.414109 -0.0593147 -0.893954 -0.444216
0.206578 0.19227 0.656571 0.122916 -0.962797 0.240652
-0.206766 -0.128575 0.434237 -0.000555357 -0.0573637 -0.998353
-0.069299 -0.0204801 0.0223015 0.0801828 -0.000701713 -0.99678
-0.0717211 -0.223081 0.451489 -0.00361471 -0.413931 0.910301
-0.113506 -0.118921 0.450735 0.000551015 0.0631213 0.998006
-0.311061 -0.0187688 0.0130656 0.0802074 -0.000713226 -0.996778
0.0171031 0.166786 0.0270882 0.00069955 0.0802332 0.996776
0.0166835 0.000294406 0.404013 0 0 1
0.15889 0.0331999 0.438979 0.000804712 0.0922103 0.995739
-0.0115689 0.193787 0.0224971 0.000713035 0.0802075 0.996778
-0.000233749 -0.153495 0.0219907 -0.000728104 -0.0802357 0.996776
-0.0729287 0.188165 0.6398 -0.00846337 -0.969327 0.245627
-0.188995 -0.0204446 0.0240769 -0.0628728 -0.707369 0.704043
0.258125 -0.02467 0.0123379 -0.0225569 -0.984601 -0.173354
0.181942 0.186745 0.642993 -0.00846814 -0.969289 0.245777
-0.00233141 0.172455 0.00624213 -0.000334421 -0.0397965 -0.999208
0.193917 -0.0135223 0.443279 -0.098586 0.0926189 0.990809
0.0197821 0.172947 0.578348 -0.00866936 -0.985607 0.168829
-0.0106053 0.0777128 0.434994 0.000804941 0.0922106 0.995739
-0.0235368 -0.151838 0.0197376 -0.984533 0.0226007 -0.173735
-0.205277 0.00154593 0.017821 -0.0802362 0.000674258 0.996776
0.236615 0.17152 0.434901 0.336343 0.937047 -0.0938999
0.00197565 0.0190657 0.0412539 0.182501 0.983206 0
0.0930364 0.0823602 0.395305 -0.531906 0.846803 0
-0.0995762 -0.238984 0.424785 0.00759072 0.857144 -0.515021
0.324174 0.00245485 0.0120048 0.0798724 -0.00074468 0.996805
-0.0841485 0.00431609 0.00975661 0.0397962 -0.000360331 -0.999208
0.159883 0.0615293 0.436355 0.000804712 0.0922103 0.995739
0.187378 -0.0113412 0.00965644 -0.00870821 -0.999962 0
0.0100337 -0.0272844 0.0343358 0 0 1
-0.215648 0.158757 0.43875 0.486713 -0.851572 0.194772
-0.0982944 -0.150818 0.452744 0.00055118 0.0631211 0.998006
-0.0242056 -0.0326407 0.0340674 -0.932513 -0.316245 -0.174383
0.0163461 0.00773319 0.0343358 0 0 1
0.177459 0.0445758 0.437911 0.000804712 0.0922103 0.995739
0.280348 3.27257e-05 0.00606138 0.999959 -0.00902269 0
0.261821 0.000628011 0.0068003 -0.0801826 0.000725951 -0.99678
-0.00830533 0.209 0.709221 -0.00828294 -0.948662 0.316184
-0.189796 0.212031 0.689588 0.959574 -0.27884 0.0382929
0.00316584 0.202207 0.689139 -0.00828793 -0.948662 0.316184
0.00192743 0.235356 0.0191425 -0.000713035 -0.0802075 -0.996778
0.162951 -0.123429 0.424906 0.674546 0.738233 0
-0.123444 -0.00152605 0.442423 0.000804941 0.0922106 0.995739
-0.11149 0.064595 0.403318 0.0333184 -0.0258732 0.99911
-0.139486 0.097658 0.405107 0.0333184 -0.0258732 0.99911
-0.220464 0.163417 0.495593 0.624587 -0.777793 0.0702066
-0.295555 0.0247372 0.0154218 -0.0504741 0.70843 0.703974
-0.0295784 -0.0132971 0.38307 -0.177671 -0.162927 -0.970509
0.120716 0.185852 0.439745 -0.181518 -0.86173 0.473786
0.130034 0.0222273 0.440019 0.000804712 0.0922103 0.995739
-0.128911 0.183952 0.621246 -0.00846337 -0.969327 0.245627
-0.0171804 0.0131623 0.379544 -0.0917623 0.0643604 -0.993699
0.0217347 -0.0186577 0.40177 -0.119193 0.112976 0.986422
-0.15107 0.213817 0.719913 -0.00832815 -0.948623 0.316299
0.182567 -0.00507233 0.00583703 -0.0397962 0.000359083 -0.999208
-0.0464293 0.00249073 0.0315588 -0.999126 0.00861225 -0.0409074
0.0868351 -0.0557349 0.39708 0.179504 -0.182511 -0.966679
-0.219193 -0.202789 0.437525 0.14093 -0.0669052 -0.987756
0.208505 -0.138483 0.453366 -0.0988292 0.0636824 0.993065
0.124027 0.188434 0.412308 0.017085 -0.000146759 -0.999854
0.0337769 -0.021961 0.403604 -0.119193 0.112976 0.986422
-0.135694 -0.127301 0.427981 0.121184 0.110835 0.986423
-0.00282812 -0.0225789 0.444275 0.000804941 0.0922106 0.995739
0.195739 -0.153389 0.440019 0.674546 0.738233 0
-0.0226488 0.203922 0.437145 0.00477278 0.557244 0.830335
0.178976 0.00813809 0.0171802 0.00880617 0.999961 0
-0.160479 -0.149229 0.424949 -0.321516 -0.00714224 -0.946877
0.161336 0.0172585 0.0251131 -0.0802113 0.000692392 -0.996778
0.207267 0.0210324 0.439586 -0.140095 0.0925164 0.985806
0.200808 -0.0287566 0.443976 -0.100169 -0.0908956 -0.99081
-0.139191 0.00810006 0.0231362 -0.0802362 0.000673917 0.996776
0.00136932 0.0191783 0.0917597 0.182501 0.983206 0
0.198294 0.183665 0.582517 -0.164239 0.965141 -0.203785
-0.02371 -0.23339 0.0101097 -0.984533 0.0226007 -0.173735
-0.0802075 -0.0554425 0.446701 0.000551015 0.0631213 0.998006
0.208268 -0.0775731 0.447794 -0.14063 0.0652659 0.987909
-0.0787437 -0.238 0.439929 -0.00710306 -0.813872 0.581001
-0.00278633 0.250347 0.00772482 -0.000677492 -0.0801868 -0.99678
-0.171423 0.123041 0.40683 0.0333184 -0.0258732 0.99911
-0.198109 0.126423 0.408185 0.174321 0.0416421 0.983808
0.0219275 0.0107853 0.0343358 0 0 1
-0.0703633 -0.00021784 0.0324208 -0.0802113 0.000691404 0.996778
-0.0823956 -0.0458253 0.398579 -0.670911 0.741538 0
-0.192907 -0.0184947 0.0225734 -0.0802089 0.000547546 0.996778
0.00138261 -0.226742 0.0160954 -0.000674372 -0.0802419 0.996775
0.0852274 0.172502 0.579095 -0.00860616 -0.985577 0.169007
0.213191 -0.0402746 0.44739 0.705772 0.0385504 0.707389
0.199463 0.177376 0.586957 0.0771242 -0.976319 0.20212
0.191019 -0.231776 0.44808 -0.0058021 -0.664453 0.747307
-0.216946 0.172523 0.494804 0.865321 0.488028 -0.114232
-0.00906539 -0.209934 0.00474557 0.00033442 0.0397964 -0.999208
-0.0372806 -0.0244955 0.38636 -0.177671 -0.162927 -0.970509
0.224816 0.213379 0.68274 0.62402 0.764176 -0.163201
0.140982 -0.246952 0.430072 -0.0070887 -0.814002 0.580818
0.319943 -0.0215793 0.00485494 0 0 1
-0.240902 0.159443 0.436137 -0.952098 -0.290962 0.0940794
0.0232685 0.278502 0.00544203 -0.000702425 -0.0801827 -0.99678
-0.204994 -0.0438578 0.447098 0.0999568 0.0619366 0.993062
-0.225392 0.0916696 0.425268 -0.994837 0.0179062 0.099898
0.13071 -0.251415 0.414939 -0.00873188 -0.999962 0
-0.00734066 -0.273648 0.00584375 0.000701704 0.0801828 -0.99678
0.287385 0.00982284 0.0149646 -0.0802113 0.000692392 -0.996778
0.18443 0.114417 0.396717 0.0938258 0.06128 -0.993701
0.208376 0.127598 0.428893 -0.100185 -0.0863497 -0.991215
0.0298429 0.0426662 0.396106 -0.531906 0.846803 0
0.193003 -0.0769031 0.447908 0.000551011 0.0631165 0.998006
0.149367 -0.10248 0.449549 0.000551011 0.0631165 0.998006
0.201068 -0.1149 0.451113 -0.0988285 0.0636825 0.993065
0.192313 0.184842 0.635427 -0.315978 0.912967 -0.258166
0.145708 0.251806 0.750376 -0.16394 -0.98647 0
0.134504 0.221281 0.738245 -0.00702705 -0.808669 0.588222
0.120401 0.0995489 0.402493 -0.531906 0.846803 0
-0.0895991 0.0426728 0.399459 -0.597997 -0.801498 0
0.11856 -0.244213 0.433637 -0.0070887 -0.814002 0.580818
0.00845923 -0.141709 0.0125844 0.999962 -0.00875618 0
-0.0190941 0.00146535 0.0817376 -0.999957 0.00930685 0
-0.0467787 0.195359 0.424784 0.0559996 -0.982564 0.177289
-0.198107 -0.125699 0.434068 -0.000424289 -0.0573625 -0.998353
-0.011027 -0.118674 0.450662 0.00055118 0.0631211 0.998006
0.0418558 -0.244493 0.432307 -0.00710685 -0.813872 0.581001
-0.0276996 0.033562 0.439096 0.000804941 0.0922106 0.995739
-0.106377 -0.051223 0.446449 0.000551015 0.0631213 0.998006
-0.190554 0.208845 0.667855 0.00822038 0.957003 -0.289961
-0.00589253 -0.03904 0.0241492 0 0 -1
0.0666399 0.0085378 0.0351672 -0.0802331 0.000699735 -0.996776
-0.00465955 0.324012 0.0142407 0.00643423 0.760095 0.64978
0.207213 0.0204736 0.0214236 -0.0802113 0.000692392 -0.996778
-0.226998 -0.0929279 0.440455 -0.995934 0.0144274 0.0889181
-0.19595 -0.172456 0.444663 0.995086 -0.00190819 0.0989984
0.175823 -0.237728 0.431739 0.00143219 0.164026 0.986455
-0.0138229 -0.036201 0.39287 -0.50763 -0.861575 0
0.0310482 0.106095 0.432332 0.000804712 0.0922103 0.995739
0.00915461 0.213928 0.724463 -0.00828793 -0.948662 0.316184
-0.182236 -0.103252 0.449782 0.000551015 0.0631213 0.998006
0.193332 0.20719 0.675372 -0.964867 -0.260043 0.0375356
0.264354 0.00262207 0.00258243 -0.0397962 0.000359083 -0.999208
0.0237751 0.103958 0.030124 0.709192 0.0503923 0.703212
-0.0453645 0.0213556 0.036673 0.00714689 0.707269 0.706908
-0.0206199 -0.0275775 0.379244 -0.420818 -0.714 -0.559568
-0.203661 -0.0177991 0.444947 0.100237 0.0908732 0.990805
0.227475 0.144034 0.405907 0.299725 -0.15281 -0.941708
0.155235 -0.0586852 0.446776 0.000551011 0.0631165 0.998006
-0.00556202 -0.229449 0.00396951 0.00033442 0.0397964 -0.999208
0.119075 0.256232 0.750885 -0.16394 -0.98647 0
0.0173005 0.00839796 0.0755507 0.942747 0.333508 0
0.165101 -0.243415 0.421263 0.00748685 0.857454 -0.514506
0.128176 0.231423 0.746703 -0.0055001 -0.624512 0.780996
-0.225501 0.0214165 0.435683 -0.99989 0.0148462 0
-0.0441435 -0.000908457 0.0261941 0 0 1
0.21699 0.0879559 0.416379 -0.141938 -0.0900524 -0.985771
0.107109 0.188115 0.412558 -0.042202 -0.305248 -0.951337
-0.194902 -0.237518 0.439181 -0.00714467 -0.814137 0.580629
-0.15575 0.183828 0.415399 -0.20267 0.655779 -0.727241
0.211522 0.132972 0.402274 0.156104 0.101955 -0.982465
-0.075932 -0.0753524 0.397046 -0.252699 -0.070297 -0.964988
-0.264748 0.0156477 0.0167676 0.0802074 -0.000713226 -0.996778
0.236237 -0.0213508 0.0190585 0.0802037 -0.000734572 0.996778
0.120446 0.0073456 0.00831535 -0.0397945 0.000334484 -0.999208
-0.0765456 0.181307 0.612626 -0.00852388 -0.969286 0.245788
0.18105 -0.178411 0.454334 0.000551011 0.0631165 0.998006
-0.0463587 0.00532389 0.0304298 -0.999126 0.00861225 -0.0409074
0.143045 0.0743451 0.435182 0.000804712 0.0922103 0.995739
0.196816 0.176921 0.603163 0.171773 -0.951283 0.256037
0.140843 0.0101405 0.441129 0.000804712 0.0922103 0.995739
-0.0109682 0.00774924 0.305011 -0.760751 0.649043 0
-0.128645 0.0992412 0.393549 -0.564144 -0.825676 0
-0.0144848 0.0343844 0.0343358 0 0 1
-0.100274 -0.101415 0.420721 0.121184 0.110835 0.986423
-0.22578 -0.0577098 0.429026 -0.555236 -0.0428936 -0.830586
-0.010662 -0.110321 0.0190298 -0.999962 0.00875618 0
0.0228551 -0.10123 0.44954 0.000555121 0.0631211 0.998006
-0.119286 -0.119526 0.413859 0.628612 -0.777719 0
-0.199223 -0.0469527 0.444594 0.141647 0.0627927 0.987924
-0.105601 0.00955511 0.441382 0.000804941 0.0922106 0.995739
0.216122 0.184279 0.63877 -0.258206 -0.940428 0.22119
0.0715574 -0.0212015 0.0323092 0.0802037 -0.000734572 0.996778
-0.00700429 -0.0100868 0.377149 -0.50704 -0.86044 0.0505324
0.0641522 -0.0172204 0.032908 0.0802037 -0.000734572 0.996778
0.020303 -0.0349495 0.380084 0.178825 -0.15618 -0.971406
-0.196131 0.160021 0.415166 0 0 -1
0.0588714 -0.0380062 0.408474 -0.119193 0.112976 0.986422
0.00745748 0.00124849 0.0116418 0 0 -1
0.00861959 -0.123453 0.00985995 0.999962 -0.00875939 0
0.0828037 -0.001454 0.0211996 -0.0801865 0.00070246 -0.99678
-0.188246 -0.150674 0.440511 0.227463 0.00505292 0.973774
0.00944654 0.280261 0.00422182 0.00840352 0.999965 0
-0.163275 0.184227 0.424644 -0.274743 0.961518 0
-0.0880828 -0.0943052 0.413433 0.628612 -0.777719 0
0.0244335 0.205448 0.0178499 0.984592 -0.0225628 -0.173407
0.201283 0.179058 0.55829 -0.164239 0.965141 -0.203785
0.169703 0.197804 0.68029 -0.00826659 -0.948644 0.316238
0.0188277 -0.15168 0.0283294 -0.000698227 -0.0802334 0.996776
-0.194703 -0.00585028 0.427505 0.702636 -0.0716708 -0.707931
0.112325 -0.251255 0.410835 -0.00873188 -0.999962 0
-0.261412 0.00637687 0.0170427 0.0802074 -0.000713226 -0.996778
0.00889615 0.20187 0.0116166 -0.000702425 -0.0801827 -0.99678
-0.0500616 0.275193 0.756398 -0.0032244 -0.16385 0.98648
-0.278638 -0.00555033 0.0156677 -0.0802089 0.000547546 0.996778
0.0408838 -0.0256799 0.444527 0.000805004 0.0922106 0.995739
-0.0109362 -0.14165 0.0221262 -0.999962 0.00875199 7.23921e-05
0.145044 -0.0242821 0.0248491 -0.0225569 -0.984601 -0.173354
0.0200262 -0.16857 0.0143999 0.98477 0.00535414 -0.17378
0.0494672 0.0549929 0.382568 -0.531906 0.846803 0
0.0830782 0.0461495 0.384713 -0.575389 0.81788 0
0.136226 0.00832327 0.023387 0.0802362 -0.000723974 0.996776
0.224897 -0.161139 0.435428 0.554483 -0.0525413 -0.830535
-0.0199443 -0.186269 0.0230801 0.000734568 0.0802037 -0.996778
-0.312978 0.0192664 0.015325 -0.0802347 0.000547465 0.996776
-0.198623 0.148194 0.427237 0.14147 -0.00136877 0.989942
-0.207794 -0.189778 0.454056 0.0987349 -0.0636806 -0.993074
-0.0480586 0.0107966 0.441221 0.000804941 0.0922106 0.995739
-0.163022 -0.243728 0.430866 -0.00714467 -0.814137 0.580629
0.186292 0.00908384 0.025538 -0.0802347 0.000547267 -0.996776
-0.206064 -0.0556282 0.430045 -0.000555357 -0.0573637 -0.998353
-0.0859342 -0.0490269 0.399059 -0.670911 0.741538 0
0.196191 0.196727 0.671305 -0.313808 0.903575 -0.291677
-0.00492701 0.0929695 0.030605 0.000691591 0.0802113 0.996778
0.25031 -0.017705 0.0179288 0.0802037 -0.000734572 0.996778
0.160706 0.221557 0.738937 -0.00702705 -0.808669 0.588222
0.144485 0.191541 0.660619 -0.00846814 -0.969289 0.245777
-0.20439 0.189217 0.629347 -0.140533 -0.960375 0.240687
0.0482355 -0.00995366 0.0111854 -0.0397962 0.000359083 -0.999208
0.254129 -0.0100313 0.0176308 0.0802124 -0.000569973 0.996778
-0.0322111 -0.00941801 0.0199044 -0.00875618 -0.999962 0
0.21979 -0.00932539 0.0101741 -0.0801865 0.00070246 -0.99678
0.0241464 0.00763745 0.441455 0.000805004 0.0922106 0.995739
-0.0137072 0.0176659 0.398774 0.0351967 -0.0239132 0.999094
-0.0757169 -0.201625 0.455851 -0.00102264 -0.117113 0.993118
-0.226518 0.0366215 0.423887 -0.99497 0.0178674 0.0985696
0.162115 0.207021 0.707742 -0.00826659 -0.948644 0.316238
-0.216577 0.161974 0.449194 0.830379 -0.448725 0.330329
-0.0196279 0.0269531 0.0367696 0 0 1
-0.0133343 0.318816 0.0124377 -0.000713035 -0.0802075 -0.996778
-0.0654417 0.193833 0.662217 -0.00828294 -0.948662 0.316184
0.0601352 -0.000697361 0.0230237 -0.0801865 0.00070246 -0.99678
-0.011838 -0.244628 0.00456673 -0.999962 0.00875954 0
0.194366 0.169585 0.567644 -0.00860616 -0.985577 0.169007
0.00238901 0.150994 0.0259306 0.000691591 0.0802113 0.996778
0.204779 0.166162 0.530765 0.0771242 -0.976319 0.20212
0.222729 0.20611 0.707455 0.626075 -0.725066 0.286895
0.180284 -0.160094 0.432675 0.32138 -0.012866 -0.946863
0.0689522 0.168148 0.552861 -0.00866936 -0.985607 0.168829
-0.089407 0.0825576 0.391737 0.546624 0.837378 0
0.00110652 -0.0378997 0.399568 0.0804594 -0.47779 0.874782
-0.128428 -0.102747 0.417176 -0.273095 -0.0654122 -0.959761
0.174195 0.204342 0.700022 -0.00826659 -0.948644 0.316238
0.199286 0.0184513 0.0118437 -0.0801826 0.000725951 -0.99678
-0.0487514 -0.214306 0.454384 -0.0010227 -0.117112 0.993118
0.0213755 0.163103 0.024943 -0.000691591 -0.0802113 -0.996778
0.0945677 0.0581645 0.402595 -0.0337902 -0.0252549 0.99911
0.193194 -0.151063 0.441825 0.674546 0.738233 0
-0.0152888 0.00305391 0.0367696 0 0 1
0.227307 0.0885048 0.42176 0.995199 0.00039938 0.0978692
0.320789 0.0023775 0.00485494 0 0 1
0.154003 -0.0305708 0.444889 0.000805004 0.0922106 0.995739
-0.162759 0.185502 0.626195 -0.00846337 -0.969327 0.245627
-0.211258 -0.0969723 0.432423 -0.00046612 -0.0573604 -0.998353
0.0478624 -0.182432 0.454662 0.000555121 0.0631211 0.998006
0.00027402 0.157428 0.00683975 -0.000334421 -0.0397965 -0.999208
-0.158904 -0.222746 0.451294 -0.00364372 -0.414316 0.910126
0.218988 0.250852 0.744242 0.766598 0.578254 -0.279196
0.0285649 0.167176 0.545112 -0.00866936 -0.985607 0.168829
-0.0275185 0.00156664 0.365457 -0.982555 0.00856368 -0.185777
0.100008 -0.0341421 0.445255 0.000551011 0.0631165 0.998006
-0.00961686 0.209294 0.422817 -0.0553995 0.996493 -0.0627047
-0.00167474 -0.216713 0.454148 -0.00102988 -0.117112 0.993118
0.199415 0.0979623 0.432493 -0.100224 -0.0908878 -0.990805
-0.0369846 0.00341712 0.378016 -0.597997 -0.801498 0
0.16004 0.091209 0.404592 0.583887 -0.811835 0
-0.321604 -0.00563551 0.0122098 -0.0774517 0.000988847 0.996996
-0.0944479 -0.148212 0.452577 0.00055118 0.0631211 0.998006
-0.00921376 0.0167387 0.0736897 -0.492111 0.870533 0
0.238066 0.149053 0.414122 0.0488569 -0.0830645 -0.995346
0.223064 -0.0220388 0.0201179 0.0802037 -0.000734572 0.996778
-0.0232485 -0.236025 0.0211882 -0.708305 -0.050485 0.704099
0.196463 -0.0184628 0.441483 -0.720193 0.0702421 0.690209
-0.285818 -0.0185161 0 0 0 -1
0.0363701 0.0896667 0.433849 0.000805004 0.0922106 0.995739
0.0971314 0.193565 0.665672 -0.00828793 -0.948662 0.316184
0.0030845 -0.180473 0.0235633 -0.000692413 -0.0802113 0.996778
-0.198912 -0.217574 0.45382 0.0960788 -0.412562 0.905849
-0.191506 -0.242596 0.417418 0.00749009 0.857769 -0.513981
-0.205844 0.0864027 0.417684 -0.000749145 -0.0922047 -0.99574
-0.138189 0.182964 0.617026 -0.00846337 -0.969327 0.245627
0.0703123 -0.0103222 0.0117801 -0.008706 -0.999962 0
0.0215757 -0.0415203 0.390459 -0.642066 -0.766649 0
0.20295 0.0728302 0.434441 -0.100224 -0.0908878 -0.990805
-0.217449 0.1592 0.414021 0.368345 -0.34623 -0.862813
-0.03422 0.0144873 0.399421 0.0351967 -0.0239132 0.999094
-0.0318888 -0.084618 0.44852 0.00055118 0.0631211 0.998006
-0.0170151 -0.253814 0.0200832 -0.000699766 -0.0802331 0.996776
0.135453 0.0105881 0.441092 0.000805004 0.0922106 0.995739
0.18742 0.258784 0.745285 -0.00762958 0.278382 -0.96044
0.0686294 0.192738 0.427516 -0.191581 -0.964649 0.180969
-0.234613 0.18133 0.513292 -0.704967 0.707984 -0.0421855
-0.222512 -0.00532723 0.0201838 -0.0802089 0.000547546 0.996778
0.00707093 0.220879 0.0203037 0.000713035 0.0802075 0.996778
-0.0191318 -0.00257505 0.11447 -0.999957 0.00930685 0
-0.0117716 -0.115703 0.450475 0.00055118 0.0631211 0.998006
-0.0182818 0.199037 0.0220794 0.000713035 0.0802075 0.996778
0.0482689 -0.135881 0.451718 0.000555121 0.0631211 0.998006
0.235699 0.184511 0.595675 0.966099 0.257547 0.0179266
0.142323 0.104839 0.396478 0.549607 -0.835423 0
0.000346393 0.182907 0.0196226 0.000728164 0.0802415 0.996775
-0.0191092 -0.000151048 0.0684526 -0.999957 0.00930685 0
-0.245569 0.0116265 0.0183137 0.0802074 -0.000713226 -0.996778
0.00475105 0.208886 0.0212704 0.000713035 0.0802075 0.996778
-0.205953 -0.0167944 0.0215226 -0.0802089 0.000547546 0.996778
-0.000604413 0.145775 0.0263527 -0.000691591 -0.0802113 -0.996778
0.0818576 0.0436752 0.401799 -0.0337902 -0.0252549 0.99911
-0.287737 -0.0196763 0.0149432 -0.0802089 0.000547546 0.996778
0.0952782 -0.0552525 0.446592 0.000551011 0.0631165 0.998006
-0.0935181 0.0146274 0.0305473 -0.0802113 0.000691404 0.996778
-0.111809 -0.124469 0.451085 0.000551015 0.0631213 0.998006
-0.0226744 0.04675 0.0332544 -0.985076 -0.00527806 -0.172036
0.204123 0.115083 0.432274 -0.098636 0.0926127 0.990805
0.112847 0.0347987 0.438868 0.000804712 0.0922103 0.995739
0.0267792 -0.0354771 0.404306 -0.119193 0.112976 0.986422
-0.121651 -0.0756051 0.448 0.000551015 0.0631213 0.998006
0.230692 -0.0197399 0.0195058 0.0802037 -0.000734572 0.996778
-0.0711016 0.272432 0.745517 -0.0245937 0.70145 -0.712294
-0.238369 0.00880966 0.0188951 0.0802074 -0.000713226 -0.996778
-0.15221 -0.0318449 0.445249 0.000551015 0.0631213 0.998006
-0.0280378 -0.181237 0.454629 0.00055118 0.0631211 0.998006
0.0355862 0.0227136 0.44005 0.000805004 0.0922106 0.995739
0.227939 0.203228 0.64855 0.757514 0.643135 -0.112026
0.133143 -0.135733 0.451661 0.000551011 0.0631165 0.998006
-0.162032 0.0122821 0.0148188 0.0801827 -0.000702427 -0.99678
-0.265321 0.00943927 0.016731 -0.0802089 0.000547546 0.996778
0.0756971 0.193205 0.664031 -0.00828793 -0.948662 0.316184
-0.15002 0.261624 0.753701 -0.00728648 -0.100242 0.994936
-0.200863 0.0198122 0.0219056 -0.0802113 0.000691404 0.996778
0.180585 -0.134593 0.451563 0.000551011 0.0631165 0.998006
0.203431 0.0881237 0.434725 -0.098636 0.0926127 0.990805
-0.212914 -0.231093 0.443596 0.0770969 0.624631 -0.777105
-0.0717254 0.192185 0.415044 0.155017 -0.936441 -0.31472
0.177702 -0.250899 0.422181 -0.00802483 -0.918992 0.394195
0.0890964 -0.097942 0.449296 0.000551011 0.0631165 0.998006
0.130774 0.274152 0.750373 0.16069 0.987005 0
0.193011 0.208728 0.709324 -0.223186 0.920866 -0.319677
-0.0163803 0.0307605 0.401073 -0.238535 0.421501 0.874893
0.221898 0.1647 0.534913 -0.721672 -0.688995 0.066901
-0.190327 0.222967 0.731716 0.0907561 -0.840406 0.534305
0.0342822 -0.0174372 0.390182 0.937127 -0.348987 0
-0.00902907 -0.311921 0 0 0 -1
-0.146367 0.0352646 0.439035 0.000810829 0.0922033 0.99574
0.115028 -0.0103014 0.0186011 -0.0801865 0.00070246 -0.99678
-0.0887714 -0.247799 0.423985 -0.00802513 -0.919042 0.394077
0.192104 0.215459 0.701104 -0.964867 -0.260043 0.0375356
0.080895 0.196987 0.411601 0.0163272 -0.000140239 -0.999867
-0.140602 0.00647247 0.0230238 -0.0802362 0.000673917 0.996776
0.0516427 0.00753141 0.0363737 -0.0802331 0.000699735 -0.996776
0.121708 -0.0237625 0.0249354 -0.0226017 -0.984533 -0.173735
-0.0748545 -0.123735 0.451018 0.00055118 0.0631211 0.998006
-0.16343 -0.00796778 0.00660343 0.0397962 -0.000360331 -0.999208
-0.238231 0.160036 0.456156 -0.723613 -0.678475 0.126711
-0.0176371 0.229541 0.0196244 -0.000713035 -0.0802075 -0.996778
-0.187094 0.140047 0.407999 0.0513389 -0.039867 0.997885
0.00955781 0.250354 0.0179302 -0.000713035 -0.0802075 -0.996778
-0.147115 0.175517 0.427093 0.284849 -0.946931 0.148937
-0.117555 -0.0917847 0.413335 -0.273095 -0.0654122 -0.959761
0.0494358 -0.194393 0.455418 0.000555121 0.0631211 0.998006
0.21347 -0.0940952 0.450045 0.705772 0.0385504 0.707389
-0.101517 -0.00145642 0.0299148 -0.0802113 0.000691404 0.996778
-0.189845 0.218 0.698091 0.00822038 0.957003 -0.289961
0.0181701 0.323365 0.0120527 -0.000293536 -0.0833904 -0.996517
-0.174529 0.00500099 0.0240349 0.0802113 -0.000691404 -0.996778
-0.069253 -0.0158357 0.034962 -0.0802331 0.000699573 0.996776
-0.272892 0.0219226 0.0161079 0.0802113 -0.000691404 -0.996778
-0.202006 0.0249618 0.43921 0.0985249 -0.0926402 -0.990813
0.127407 0.036633 0.438687 0.000804712 0.0922103 0.995739
0.0214998 0.0154544 0.359593 0.758216 0.624918 -0.185973
0.134405 0.0445939 0.437944 0.000804712 0.0922103 0.995739
0.127086 -0.140591 0.451972 0.000551011 0.0631165 0.998006
0.260594 0.00592315 0.00273335 -0.0397945 0.000334484 -0.999208
-0.189846 0.137382 0.408034 0.0513389 -0.039867 0.997885
-0.195431 -0.0567642 0.446757 0.0988056 -0.0636726 -0.993068
-0.15854 -0.0143355 0.0253365 -0.0802089 0.000547546 0.996778
-0.170264 0.173835 0.573802 -0.00866712 -0.985574 0.169021
0.223228 0.162218 0.524084 -0.724065 -0.681459 0.106509
0.00825088 -0.312763 0.0129214 -0.000692413 -0.0802113 0.996778
0.0260395 0.0284895 0.398876 0.77171 0.635975 0
0.1188 0.00694298 0.0183098 -0.0801865 0.00070246 -0.99678
-0.127972 -0.0759627 0.448026 0.000551015 0.0631213 0.998006
0.192944 -0.225222 0.44888 -0.990919 -0.0539089 0.123184
0.110118 0.0382883 0.438547 0.000804712 0.0922103 0.995739
-0.162712 -0.000540698 0.0274285 -0.0802331 0.000699573 0.996776
0.0366448 -0.0896677 0.448801 0.000555121 0.0631211 0.998006
-0.0929132 -0.0553412 0.400924 -0.670911 0.741538 0
-0.123011 0.0107732 0.0126716 0.00875614 0.999962 0
-0.00782687 0.213946 0.00724248 -0.999962 0.00875947 0
0.194933 0.0704066 0.42415 -0.995814 0.0170605 0.0897928
0.0224265 -0.0806368 0.0307384 0.984871 0.00532936 -0.17321
0.314437 0.0146188 0.00257797 -0.0801826 0.000725951 -0.99678
-0.21031 -0.175298 0.454283 0.156147 0.0609127 0.985854
-0.0131935 0.01397 0.063894 -0.760697 0.649108 0
-0.166099 0.114214 0.399859 -0.0875566 0.0713631 -0.9936
-0.00356824 0.260505 0.0133789 0.000674289 0.0802362 0.996776
-0.0819165 -0.249238 0.42077 -0.00802514 -0.919042 0.394077
0.227201 0.151424 0.441994 -0.316696 -0.943092 0.101392
-0.202776 0.179116 0.579387 0.384372 0.906969 -0.172233
-0.148157 0.182884 0.442422 0.0664247 -0.000428269 0.997791
-0.19173 -0.164613 0.435677 -0.321516 -0.00714224 -0.946877
0.130798 -0.251416 0.418853 -0.00873188 -0.999962 0
-0.20958 0.199968 0.624762 0.721775 0.662204 -0.201312
0.121264 -0.000215599 0.0283251 0.0802037 -0.000734572 0.996778
0.22023 0.162816 0.50264 -0.677587 -0.733349 0.0554535
-0.12575 0.113988 0.431728 0.000810829 0.0922033 0.99574
0.148411 0.117143 0.398586 -0.531906 0.846803 0
0.190175 0.228263 0.733249 -0.931849 -0.362844 0.000875527
0.0369421 -0.00959507 0.40257 -0.119193 0.112976 0.986422
-0.241267 0.168631 0.439819 -0.945609 0.324753 0.0189475
0.0850486 0.19534 0.670682 -0.00828793 -0.948662 0.316184
-0.0174181 0.00796756 0.143805 -0.936481 0.350719 0
0.00413154 0.166958 0.542583 -0.00866936 -0.985607 0.168829
-0.204473 -0.0291632 0.444025 0.0985249 -0.0926402 -0.990813
0.0995893 -0.136136 0.451705 0.000555121 0.0631211 0.998006
0.0334324 0.150197 0.428361 0.00076696 0.0878841 0.99613
-0.0202635 -0.0423051 0.0343358 0 0 1
-0.162999 -0.120931 0.433017 0.223459 0.0556329 0.973124
-0.0153211 0.169437 0.556063 -0.00859934 -0.985608 0.168829
0.00615827 0.0182893 0.263034 0.182501 0.983206 0
0.0827625 0.124197 0.430617 0.000766958 0.0878841 0.99613
-0.137933 0.0911354 0.433854 0.000810829 0.0922033 0.99574
-0.0422487 -0.0538699 0.387108 -0.1816 -0.152945 -0.971406
-0.186609 0.240521 0.739496 0.0138121 0.621941 -0.782942
-0.0556333 -0.166818 0.453732 0.00055118 0.0631211 0.998006
0.0339617 0.18316 0.62376 -0.00846391 -0.969287 0.245788
0.00965075 0.321165 0 0 0 -1
-0.0457859 -0.0457578 0.407773 0.121184 0.110835 0.986423
0.00710982 -0.221565 0.0226959 -0.000698227 -0.0802334 0.996776
-0.193025 0.0243997 0.0192743 0.0225628 0.984592 -0.173407
-0.0554164 0.0464543 0.385239 -0.0875566 0.0713631 -0.9936
-0.0104754 -0.186404 0.0193343 -0.000728104 -0.0802357 0.996776
-0.133715 0.00614114 0.0273185 0.0802113 -0.000691404 -0.996778
-0.000859173 0.261935 0.0170057 -0.000713035 -0.0802075 -0.996778
0.0302256 0.197424 0.412082 -0.0179857 -0.241569 -0.970217
0.104068 0.0892897 0.397052 -0.531906 0.846803 0
-0.0396147 -0.108714 0.450048 0.00055118 0.0631211 0.998006
-0.015614 -0.144369 0.0264547 -0.000734572 -0.0802037 0.996778
-0.0746591 0.0729305 0.39376 0.546624 0.837378 0
0.123234 -0.126658 0.420826 -0.642066 -0.766649 0
-0.229406 0.194107 0.632409 -0.973867 -0.185892 0.13049
0.11196 -0.251252 0.410718 -0.00873188 -0.999962 0
-0.0162514 0.0103865 0.0403403 -0.760697 0.649108 0
-0.0356955 0.0191769 0.0367696 0 0 1
-0.00317975 0.0188386 0.0942299 -0.165619 0.98619 0
0.0874154 -0.0644587 0.447179 0.000551011 0.0631165 0.998006
-0.00213219 0.311218 0.00282757 -0.000677492 -0.0801868 -0.99678
0.318843 0.0165283 0.0148725 -0.0802347 0.000547267 -0.996776
0.179508 -0.155014 0.452855 0.000551011 0.0631165 0.998006
0.0688591 0.0398261 0.401251 -0.0356084 -0.0232904 0.999094
-0.021434 -0.32494 0.0119233 -0.000926019 -0.0783559 0.996925
0.00455794 -0.0280654 0.0116418 0 0 -1
-0.158966 -0.151424 0.429079 0.609368 -0.792888 0
-0.0899726 0.0224932 0.0218712 0.0225982 0.984538 -0.173708
-0.199587 0.201795 0.676903 -0.134713 -0.93767 0.320354
-0.0608057 -0.0578109 0.44684 0.000551015 0.0631213 0.998006
-0.0439881 -0.0193812 0.0343358 0 0 -1
0.0175547 0.280431 0.0155043 0.000713035 0.0802075 0.996778
-0.227605 -0.109404 0.436574 -0.994859 0.0144118 0.100244
0.205961 0.0342017 0.422184 -0.000749268 -0.0922045 -0.99574
0.103319 0.185155 0.416708 -0.172026 -0.93511 -0.3098
-0.00876297 -0.238871 0.0188557 -0.000692413 -0.0802113 0.996778
-0.0498445 -0.143769 0.452271 0.00055118 0.0631211 0.998006
0.213444 -0.2169 0.438511 -0.141204 -0.0651146 -0.987837
0.00126551 0.274029 0.018467 0.000698395 0.0802334 0.996776
-0.0102069 0.0499126 0.0340735 0.000691591 0.0802113 0.996778
-0.0288789 -0.10198 0.449616 0.00055118 0.0631211 0.998006
0.139797 0.258315 0.742009 -0.058994 -0.22749 -0.971992
0.133898 -0.109017 0.449971 0.000551011 0.0631165 0.998006
0.119038 0.150794 0.428243 0.00076696 0.0878841 0.99613
-0.139871 0.1155 0.405412 0.546624 0.837378 0
0.00054503 -0.194855 0.0224041 -0.000692413 -0.0802113 0.996778
0.0234843 0.289039 0.0148074 0.000691591 0.0802113 0.996778
0.0238324 0.143766 0.022463 0.984538 -0.0225982 -0.173708
0.0190071 0.200532 0.684529 -0.00828793 -0.948662 0.316184
-0.290921 0.0081673 0.00445366 0.0801828 -0.000701713 -0.99678
0.0184031 -0.190163 0.0227941 -0.000692413 -0.0802113 0.996778
0.0762805 0.173422 0.584003 -0.00860616 -0.985577 0.169007
0.211168 0.16786 0.546663 0.176187 -0.96661 0.186074
-0.0126483 0.182391 0.0131983 -0.000677492 -0.0801868 -0.99678
-0.192095 0.198275 0.629664 0.98742 -0.157038 -0.0184486
-0.00307592 -0.120742 0.0246251 -0.000728104 -0.0802357 0.996776
-0.0956631 -0.0516602 0.446471 0.000551015 0.0631213 0.998006
-0.139252 0.191091 0.435784 -0.274743 0.961518 0
-0.0272301 0.00621377 0.0343358 0 0 -1
-0.220995 -0.0283532 0.44244 -0.712077 0.0709394 0.698509
0.0135247 -0.0306773 0.37815 0.178825 -0.15618 -0.971406
0.110254 -0.0909002 0.421252 -0.193163 0.0517055 0.979803
-0.240452 0.156581 0.414097 -0.0501591 -0.0820137 -0.995368
0.0340397 0.0614349 0.436465 0.000805004 0.0922106 0.995739
-0.106363 -0.0901846 0.420232 0.194034 0.0483072 0.979805
0.0238141 0.186746 0.024152 0.709192 0.0503923 0.703212
-0.00533548 -0.0412638 0.0367696 0 0 1
0.00614576 -0.0438691 0.0367696 0 0 1
0.192833 -0.0391005 0.445517 0.000551011 0.0631165 0.998006
0.139331 0.266813 0.754937 0.00128935 -0.179481 0.983761
0.00194395 -0.0190454 0.180088 0.165909 -0.986141 0
0.0617669 -0.165247 0.453568 0.000555121 0.0631211 0.998006
0.015868 0.210641 0.714778 -0.00828793 -0.948662 0.316184
0.106884 0.176317 0.599285 -0.00846391 -0.969287 0.245788
0.194386 0.198658 0.681251 0.117518 -0.940011 0.320264
0.0356094 -0.250585 0.41473 -0.00873188 -0.999962 0
0.0103522 0.0749438 0.0164515 0.999962 -0.00875614 0
-0.0615491 0.124955 0.430662 0.000772843 0.0878837 0.99613
-0.032006 -0.0238155 0.0330463 -0.338114 -0.924747 -0.174704
-0.234842 0.17965 0.488947 -0.707182 0.705769 -0.0422284
0.205241 0.0244989 0.440852 -0.098586 0.0926189 0.990809
0.230839 0.169135 0.572517 0.153392 -0.974773 0.16214
0.0989445 -0.0158241 0.019891 -0.0801865 0.00070246 -0.99678
-0.189097 0.0945809 0.433577 0.000810829 0.0922033 0.99574
-0.167608 0.169314 0.42685 0.284849 -0.946931 0.148937
0.15738 0.00043753 0.00684211 -0.0397945 0.000334484 -0.999208
-0.120257 0.0913623 0.394178 -0.0875566 0.0713631 -0.9936
-0.191852 -0.00802011 0.0162167 -0.00875618 -0.999962 0
0.0798768 0.199832 0.684023 -0.00828793 -0.948662 0.316184
-0.138843 0.173166 0.571508 -0.00866712 -0.985574 0.169021
-0.145212 -0.12948 0.45142 0.000551015 0.0631213 0.998006
-0.0103091 0.0148937 0.274423 0 0 1
0.00923743 -0.0528381 0.0119812 0.999962 -0.00875618 0
-0.0200882 0.295989 0.0108261 -0.984773 -0.0053531 -0.173764
0.017066 0.274503 0.00576812 -0.000702425 -0.0801827 -0.99678
-0.108704 0.0171132 0.440685 0.000804941 0.0922106 0.995739
0.251502 -0.0118997 0.0118932 -0.008706 -0.999962 0
-0.00899921 -0.0168755 0.119747 -0.506537 -0.862218 0
0.0230509 0.159696 0.0252161 0.000691591 0.0802113 0.996778
-0.00467908 -0.0185639 0.173105 -0.182488 -0.983208 0
0.131747 -0.0100108 0.0172563 -0.0801865 0.00070246 -0.99678
0.00706101 0.00191101 0.404013 0 0 1
-0.125973 0.0727945 0.388615 -0.0946152 0.0601536 -0.993695
-0.012649 -0.0147014 0.124856 -0.772623 -0.634865 0
0.250999 0.00590766 0.0141465 0.0802362 -0.000723974 0.996776
-0.187661 -0.24091 0.431623 -0.00617414 -0.707066 0.707121
0.306554 -0.0201756 0.00485494 0 0 1
0.26237 -0.0119943 0.00584893 -0.00870821 -0.999962 0
-0.159145 0.00569084 0.0150557 0.0801827 -0.000702427 -0.99678
-0.213614 0.146854 0.410068 0.174321 0.0416421 0.983808
-0.0947924 0.0538369 0.402482 0.0333184 -0.0258732 0.99911
0.208532 -0.158115 0.453146 -0.155048 0.0636543 0.985854
-0.171802 -0.0524242 0.446561 0.000551015 0.0631213 0.998006
-0.217505 0.196016 0.669751 -0.127371 -0.93545 0.329712
-0.00447153 -0.06128 0.0106677 0.000334664 0.0397964 -0.999208
0.00889833 -0.0668666 0.0327088 -0.000734572 -0.0802037 0.996778
-0.0422336 0.178096 0.601156 -0.00852388 -0.969286 0.245788
0.201943 0.17075 0.554008 0.0771242 -0.976319 0.20212
-0.157875 0.17151 0.419032 0.298326 -0.954464 0
-0.0760687 -0.00716833 0.0319666 -0.0802113 0.000691404 0.996778
0.187549 0.244221 0.751682 0.0494411 -0.425949 0.903395
0.0131014 -0.22334 0.0201207 -0.000692413 -0.0802113 0.996778
0.213037 0.186273 0.623767 0.846563 -0.49902 0.185229
-0.17521 0.24825 0.75096 0.13648 -0.222421 0.965351
-0.124321 -0.108072 0.450054 0.000551015 0.0631213 0.998006
-0.0160453 -0.292224 0.00434329 0.000701704 0.0801828 -0.99678
-0.0383863 0.169506 0.555293 -0.00859934 -0.985608 0.168829
0.055027 0.0149173 0.0336659 0.0802037 -0.000734572 0.996778
0.166916 0.128767 0.402857 -0.531906 0.846803 0
0.103275 0.0591405 0.436622 0.000804712 0.0922103 0.995739
-0.314752 -0.0179094 0.00485494 0 0 1
0.201038 0.022473 0.439253 -0.100224 -0.0908878 -0.990805
-0.187719 0.199739 0.675166 0.239571 0.916709 -0.319765
0.0909792 -0.251069 0.41507 -0.00873188 -0.999962 0
0.222369 0.212243 0.723778 0.613893 -0.734907 0.288179
0.21885 -0.218375 0.452417 0.547152 -0.0568481 0.835101
-0.141872 0.176533 0.423526 0.284849 -0.946931 0.148937
0.218518 0.168243 0.532586 0.847152 -0.514776 0.131679
0.0178239 -0.261231 0.0170748 0.000692392 0.0802113 -0.996778
0.0068207 0.197512 0.0184425 0.000674289 0.0802362 0.996776
0.0145705 0.01237 0.0588914 0.771718 0.635965 0
0.314829 -0.0142737 0.0127437 0.0802124 -0.000569973 0.996778
-0.0466985 0.0180935 0.0367537 -0.0802331 0.000699573 0.996776
-0.187462 0.242328 0.748995 -0.0564394 -0.425689 0.903108
0.00903656 -0.0757777 0.0197398 0.999962 -0.00875618 0
-0.056765 0.0258407 0.439835 0.000804941 0.0922106 0.995739
0.0108736 -0.00787075 0.331855 0.759448 -0.650568 0
0.238918 0.176908 0.532155 0.981915 0.187686 0.0248443
0.190249 -0.132488 0.451425 0.000551011 0.0631165 0.998006
-0.284326 -0.0179001 0.0152167 -0.0802089 0.000547546 0.996778
0.115862 -0.0900728 0.408851 -0.673744 -0.738964 0
-0.139237 0.21223 0.715467 -0.00832815 -0.948623 0.316299
-0.0132902 0.246667 0.0182432 -0.000713035 -0.0802075 -0.996778
0.221673 0.169785 0.443974 -0.248782 0.95681 -0.150408
0.0116172 0.219062 0.0117044 0.999962 -0.0087078 0
-0.132299 -0.246522 0.426076 -0.00802513 -0.919042 0.394077
-0.0421886 0.232643 0.746484 -0.00541447 -0.624513 0.780996
0.250892 0.0174193 0.00769162 -0.0801826 0.000725951 -0.99678
0.0191324 0.00266032 0.229707 0.999957 -0.00930689 0
0.0930895 0.00889445 0.0145294 0.00880617 0.999961 0
-0.219622 0.112563 0.428784 -0.785001 0.0687339 0.615669
-0.0125723 -0.0147764 0.181561 -0.506537 -0.862218 0
0.176405 -0.149008 0.430878 0.315893 -0.0822411 -0.945224
0.105642 -0.000429059 0.00890233 -0.0397945 0.000334484 -0.999208
0.000177642 -0.243916 0.432606 -0.00710685 -0.813872 0.581001
0.0882071 0.0503645 0.402182 -0.0337902 -0.0252549 0.99911
0.0295301 0.201127 0.686591 -0.00828793 -0.948662 0.316184
-0.0870367 0.187896 0.638253 -0.00846337 -0.969327 0.245627
0.0156454 -0.216036 0.0207102 -0.000692413 -0.0802113 0.996778
-0.0293675 -0.145474 0.452368 0.00055118 0.0631211 0.998006
0.202088 0.0461699 0.421079 -0.000851754 -0.0922036 -0.99574
0.1236 -0.0126784 0.443256 0.000805004 0.0922106 0.995739
-0.21108 -0.155495 0.454673 0.0999568 0.0619366 0.993062
0.197889 0.197538 0.666096 -0.135074 -0.948714 0.285825
0.223081 0.18473 0.546444 -0.356837 0.917151 -0.177485
0.0354737 0.0143006 0.397616 0.942854 0.333207 0
-0.2141 0.220368 0.688451 0.123222 0.95402 -0.273243
0.0552669 -0.0584621 0.395378 0.174747 -0.166087 -0.970504
0.000319874 0.0193731 0.039154 0.182501 0.983206 0
0.117218 -0.240987 0.432366 0.00143952 0.163694 0.98651
0.199131 0.0184557 0.0245097 -0.0802347 0.000547267 -0.996776
-0.0264423 -0.246823 0.411268 0.00803334 0.913455 -0.406861
0.0344573 0.209512 0.711876 -0.00828793 -0.948662 0.316184
0.279319 -0.000629289 0.00198522 -0.0397962 0.000359083 -0.999208
-0.0176509 -0.00738003 0.123579 -0.942371 -0.334568 0
-0.226215 -0.108073 0.446174 0.000613934 0.0631255 0.998005
-0.109852 0.194252 0.412892 -0.125755 0.6793 -0.723006
0.214095 0.00146663 0.0232959 -0.0802347 0.000547267 -0.996776
0.192766 -0.157126 0.44034 -0.994842 0.0156495 0.100222
0.167584 -0.0529137 0.446405 0.000551011 0.0631165 0.998006
0.194578 0.0255961 0.428728 -0.995814 0.0170605 0.0897928
0.105307 0.165677 0.540297 -0.00866936 -0.985607 0.168829
0.242768 -0.0118237 0.0120054 -0.008706 -0.999962 0
0.16382 -0.00426157 0.027336 -0.0802331 0.000699735 -0.996776
0.000642661 0.00933558 0.0241492 0 0 -1
-0.249233 0.00222992 0.0204655 -0.0802347 0.000547465 0.996776
-0.243607 0.00909609 0.0184734 0.0802074 -0.000713226 -0.996778
0.0534886 0.112362 0.431733 0.000804712 0.0922103 0.995739
-0.195501 -0.0287309 0.445124 0.100237 0.0908732 0.990805
-0.118301 0.184256 0.427106 0.287318 -0.944823 0.157346
0.046017 0.0200765 0.378391 -0.575389 0.81788 0
0.140487 0.177166 0.433937 -0.303754 -0.939702 0.157142
0.020053 0.0322915 0.39932 0.246065 0.417497 0.874728
0.173325 0.0670916 0.435829 0.000804712 0.0922103 0.995739
0.191374 0.113745 0.399915 0.583887 -0.811835 0
-0.214854 -0.187852 0.453231 0.0987349 -0.0636806 -0.993074
-0.0826148 0.193876 0.661896 -0.00828294 -0.948662 0.316184
0.109436 0.000856973 0.442014 0.000805004 0.0922106 0.995739
0.206849 -0.026443 0.445774 -0.098586 0.0926189 0.990809
0.146327 -0.117849 0.421329 -0.673744 -0.738964 0
0.10459 -0.0154872 0.0194371 -0.0801865 0.00070246 -0.99678
-0.026373 -0.0197168 0.377266 -0.638822 -0.527453 -0.560089
0.209522 0.136419 0.401951 0.173083 0.0562306 -0.983301
-0.0234401 -0.222039 0.0201994 -0.000734572 -0.0802037 0.996778
-0.21726 -0.174754 0.455237 -0.559979 0.0507441 0.826951
-0.241978 0.16469 0.441795 -0.946913 -0.307414 0.0940894
-0.21164 0.0336368 0.441037 0.10029 0.0908657 0.9908
-0.192441 0.177534 0.425575 -0.170468 0.985363 0
0.154555 0.189808 0.65413 -0.00846814 -0.969289 0.245777
0.212492 -0.232953 0.429611 -0.094415 0.622841 -0.77663
0.112299 0.10853 0.432041 0.000804712 0.0922103 0.995739
-0.0686124 -0.00377916 0.0261941 0 0 1
0.0247353 -0.205602 0.455486 -0.00102988 -0.117112 0.993118
0.211287 0.171885 0.550444 -0.325973 0.927012 -0.185446
0.156053 -0.019729 0.0279503 -0.0802331 0.000699735 -0.996776
0.244838 0.0075564 0.00674983 0.00875903 0.999962 0
-0.00082854 0.272375 0.00595144 -0.000677492 -0.0801868 -0.99678
0.00346854 -0.174341 0.0203152 -0.000674372 -0.0802419 0.996775
-0.0052662 0.104069 0.0321522 0.00069955 0.0802332 0.996776
-0.0973908 -0.000972189 0.442351 0.000804941 0.0922106 0.995739
0.109728 -0.161509 0.453304 0.000555121 0.0631211 0.998006
-0.248135 0.0089034 0.00789498 0.0801828 -0.000701713 -0.99678
0.145021 -0.0891498 0.448709 0.000551011 0.0631165 0.998006
-0.0636259 0.178503 0.602017 -0.00852388 -0.969286 0.245788
-0.197635 0.172905 0.542466 0.987561 -0.156405 -0.0161654
0.0799734 0.0512426 0.387816 0.0929194 0.0626683 -0.993699
0.196823 0.206397 0.670786 -0.0481211 0.958763 -0.280102
-0.00302746 -0.150278 0.0259885 -0.000734572 -0.0802037 0.996778
-0.209248 -0.247722 0.423567 0.0777474 -0.952413 0.29473
0.0242352 0.260155 0.00960575 0.984592 -0.0225628 -0.173407
0.00369978 -0.0129418 0.33928 0.164831 -0.986322 0
0.0929582 0.174837 0.592969 -0.00846391 -0.969287 0.245788
0.0254657 0.0332297 0.439084 0.000805004 0.0922106 0.995739
0.209494 0.18976 0.601095 -0.164704 0.959623 -0.228029
0.00320453 0.230843 0.00391477 -0.000334421 -0.0397965 -0.999208
-0.046441 0.194666 0.665212 -0.00828294 -0.948662 0.316184
0.00728718 0.0178813 0.0454589 0.506528 0.862224 0
-0.00136551 -0.29357 0.0144591 0.000692392 0.0802113 -0.996778
0.070353 0.184146 0.628902 -0.00846391 -0.969287 0.245788
-0.00686464 -0.160374 0.0214321 -0.000728104 -0.0802357 0.996776
-0.00195853 -0.296001 0.0142631 0.000692392 0.0802113 -0.996778
0.299165 0.0180631 0.0140224 -0.0802113 0.000692392 -0.996778
-0.0517949 0.0186108 0.0363431 -0.0802331 0.000699573 0.996776
0.0770539 -0.240524 0.438298 -0.00710685 -0.813872 0.581001
0.123719 0.0650863 0.402945 0.583887 -0.811835 0
-0.128046 0.272077 0.747378 -0.0178296 0.269853 -0.962736
0.195107 0.197703 0.653653 -0.964831 -0.261335 0.0283717
0.317873 0.015397 0.01495 -0.0802347 0.000547267 -0.996776
0.0802794 -0.0743166 0.447806 0.000551011 0.0631165 0.998006
-0.022571 0.190518 0.650825 -0.00852388 -0.969286 0.245788
0.203631 -0.220895 0.45356 -0.10022 -0.382131 0.918658
0.199967 -0.182476 0.455337 -0.0988285 0.0636825 0.993065
0.0174119 0.0080832 0.242489 0.942747 0.333508 0
-0.124577 0.114837 0.431649 0.000810829 0.0922033 0.99574
0.205333 0.170088 0.551923 -0.325973 0.927012 -0.185446
0.0868525 0.279573 0.754971 0.0521245 0.694917 0.717198
0.0956415 -0.150624 0.452624 0.000555121 0.0631211 0.998006
0.0513904 -0.0448864 0.445961 0.000551011 0.0631165 0.998006
-0.0213489 0.192441 0.02286 -0.705551 0.062938 0.705858
-0.0158662 -0.0068272 0.404013 0 0 1
0.322064 6.42706e-05 0.00299144 0.999959 -0.00904511 0
-0.0943675 0.0175836 0.44063 0.000804941 0.0922106 0.995739
-0.0107546 -0.32112 0.00485494 0 0 1
0.302523 0.0120064 0.0137491 0.0802124 -0.000569973 0.996778
-0.21951 0.16507 0.505412 0.624587 -0.777793 0.0702066
-0.0102125 -0.0666132 0.0224959 0.000702228 0.0801827 -0.99678
-0.0171637 -0.00875213 0.133902 -0.942371 -0.334568 0
0.0525609 -0.0163152 0.023622 -0.0801865 0.00070246 -0.99678
-0.200976 0.180642 0.585928 0.0398142 -0.985812 0.163064
0.170924 -0.246312 0.431335 -0.0070887 -0.814002 0.580818
0.321127 -0.0142947 0.0122367 -0.0800454 0.000583251 -0.996791
0.0650951 -0.0437865 0.39455 -0.673744 -0.738965 0
-0.0140571 -0.308672 0 0 0 -1
0.171209 0.176128 0.442991 0.0696727 0.420145 0.904779
-0.199186 0.18515 0.616925 -0.188642 -0.948121 0.255891
0.0522663 0.221472 0.737524 -0.00702705 -0.808669 0.588222
0.102023 -0.214133 0.45456 -0.00102988 -0.117112 0.993118
-0.19781 -0.0179171 0.0221779 0.0802074 -0.000713226 -0.996778
0.101534 -0.0144908 0.0299021 0.0802037 -0.000734572 0.996778
-0.0040368 0.251175 0.00765913 -0.000677492 -0.0801868 -0.99678
-0.198836 0.144359 0.415166 0 0 -1
-0.173061 0.179821 0.44231 -0.0622385 0.420958 0.904942
0.00279705 -0.3251 0.011928 0.000478838 0.084006 -0.996465
0.220892 0.162908 0.479554 -0.988137 -0.150118 -0.0324063
0.00022843 0.0878375 0.0096114 -0.000334454 -0.0397965 -0.999208
-0.00913469 0.0646487 0.0112536 -0.999962 0.00875947 0
-0.0104688 0.0239268 0.357258 -0.483416 0.855462 -0.185725
-0.140068 0.0843374 0.390658 -0.0926506 0.0630459 -0.993701
0.149383 0.0311398 0.439178 0.000804712 0.0922103 0.995739
-0.00729534 -0.0102355 0.371696 -0.50704 -0.86044 0.0505324
-0.0284778 0.226474 0.741646 -0.00541447 -0.624513 0.780996
0.00427217 -0.16011 0.0149851 0.000701704 0.0801828 -0.99678
-0.102182 0.00815375 0.0322947 -0.0802331 0.000699573 0.996776
-0.165052 0.218621 0.73099 -0.00710057 -0.808795 0.588048
-0.00741267 0.0300435 0.0343358 0 0 1
0.00455381 0.181632 0.616719 -0.00846391 -0.969287 0.245788
-0.0087518 0.108294 0.0178584 -0.999962 0.00875618 0
0.0669212 0.149677 0.428381 0.00076696 0.0878841 0.99613
-0.0521246 0.20719 0.433076 -0.0349722 0.888637 0.457276
-0.00230035 0.284632 0.00496648 -0.000677492 -0.0801868 -0.99678
0.130766 0.174418 0.592588 -0.00860616 -0.985577 0.169007
-0.0101542 -0.270514 0.00609383 0.000701704 0.0801828 -0.99678
-0.228484 -0.217983 0.442337 -0.995395 -0.0290142 0.091358
0.149281 -0.0677969 0.447356 0.000551011 0.0631165 0.998006
-0.221242 -0.246867 0.426398 -0.176118 -0.834313 0.522403
-0.0187633 -0.0250768 0.444519 0.000804941 0.0922106 0.995739
-0.215238 0.00829271 0.0105417 0.0801827 -0.000702427 -0.99678
0.21359 0.250255 0.752591 0.302686 0.181587 0.935632
-0.177194 -0.10995 0.450202 0.000551015 0.0631213 0.998006
-0.0724611 0.193131 0.430325 0.174673 -0.967766 0.181435
-0.204388 -0.249268 0.413262 0.0858681 -0.996306 0
0.23128 -0.0175843 0.0194601 0.0802037 -0.000734572 0.996778
0.0890509 -0.0717669 0.44764 0.000551011 0.0631165 0.998006
0.00468633 0.0406954 0.0367696 0 0 1
0.0117465 0.258882 0.0134991 0.000674289 0.0802362 0.996776
0.195303 0.0484808 0.437448 -0.100224 -0.0908878 -0.990805
0.0102852 0.271792 0.743989 -0.0265902 -0.244184 -0.969364
-0.162774 -0.151953 0.434568 0.227463 0.00505292 0.973774
-0.102976 0.0271081 0.439755 0.000804941 0.0922106 0.995739
0.0230741 0.176129 0.013955 0.984538 -0.0225982 -0.173708
0.0121026 -0.323742 0.0120464 0.000781287 0.0798583 -0.996806
-0.0337356 0.208612 0.70739 -0.00828294 -0.948662 0.316184
-0.2242 0.185132 0.519413 0.322341 0.939056 -0.119461
-0.204119 0.154925 0.429281 0.100399 0.0864484 0.991185
0.22495 0.173431 0.476822 -0.932952 0.351452 -0.0779845
0.111363 0.0199294 0.0189174 -0.0801826 0.000725951 -0.99678
-0.109765 0.19717 0.671067 -0.00828294 -0.948662 0.316184
-0.190961 -0.234582 0.430764 0.00759072 0.857144 -0.515021
-0.044428 0.178015 0.600759 -0.00852388 -0.969286 0.245788
0.0301746 0.179199 0.608007 -0.00846391 -0.969287 0.245788
-0.00206526 0.0132083 0.287515 -0.162253 0.986749 0
-0.323664 -0.00166349 0.0120451 -0.0798774 0.000744602 0.996804
0.203467 0.177511 0.600892 0.171773 -0.951283 0.256037
-0.158242 0.11457 0.431701 0.000810829 0.0922033 0.99574
-0.0548382 0.269476 0.743473 0.0222775 -0.243957 -0.96953
0.0279837 0.00739434 0.0343358 0 0 -1
-0.197753 -0.126243 0.449025 0.72081 0.0374011 0.692123
0.227821 0.168936 0.57418 0.153392 -0.974773 0.16214
-0.0283931 -0.0460594 0.404575 0.628612 -0.777719 0
-0.230627 0.181437 0.595564 -0.749646 -0.624264 0.219831
-0.219936 -0.218303 0.437166 0.12579 0.510374 -0.850703
-0.117655 0.222142 0.736404 -0.00708395 -0.808668 0.588222
0.00601397 -0.0377349 0.393565 0.164853 -0.986318 0
0.2927 -0.0239054 0.00341131 -0.00872858 -0.999962 0
0.0123226 0.00144984 0.442038 0.000805004 0.0922106 0.995739
-0.0917352 -0.0855723 0.406583 -0.177671 -0.162927 -0.970509
-0.0138532 -0.236703 0.442107 -0.00583912 -0.663948 0.747756
0.000392886 0.123668 0.0305707 0.00069955 0.0802332 0.996776
-0.20951 0.136154 0.409793 0.174321 0.0416421 0.983808
0.248122 -0.0136666 0.0181078 0.0802037 -0.000734572 0.996778
0.0106562 -0.10383 0.0297359 0.000734568 0.0802037 -0.996778
-0.15818 -0.117783 0.450687 0.000551015 0.0631213 0.998006
0.0140279 0.184659 0.628985 -0.00846391 -0.969287 0.245788
0.00187966 -0.183444 0.454752 0.000555121 0.0631211 0.998006
0.0378361 -0.0523625 0.446441 0.000551011 0.0631165 0.998006
-0.0101099 -0.0523541 0.0363041 -0.000699766 -0.0802331 0.996776
-0.080403 -0.130596 0.451455 0.00055118 0.0631211 0.998006
0.111124 -0.0352303 0.445317 0.000551011 0.0631165 0.998006
0.00808184 0.0505214 0.036453 0.00069955 0.0802332 0.996776
0.213094 -0.0997968 0.44995 -0.14063 0.0652659 0.987909
-0.198367 0.0540904 0.42067 -0.000679374 -0.0922052 -0.99574
-0.0951164 -0.0146296 0.443614 0.000804941 0.0922106 0.995739
0.00439747 -0.154022 0.0256927 -0.000692413 -0.0802113 0.996778
0.0169184 0.0677471 0.0326195 0.000691591 0.0802113 0.996778
-0.024312 -0.20603 0.0214868 -0.000734572 -0.0802037 0.996778
0.128106 0.00317402 0.441785 0.000805004 0.0922106 0.995739
-0.152161 -0.0199232 0.0156356 0.0801828 -0.000701713 -0.99678
0.0205507 -0.140738 0.45204 0.000555121 0.0631211 0.998006
0.120404 -0.013691 0.030824 -0.0802331 0.000699735 -0.996776
0.0322937 0.204685 0.697337 -0.00828793 -0.948662 0.316184
-0.203745 -0.102999 0.448894 0.0988056 -0.0636726 -0.993068
-0.0312093 -0.00730883 0.442884 0.000804941 0.0922106 0.995739
-0.178688 -0.00813572 0.0107435 -0.00875947 -0.999962 0
-0.00846619 -0.0614652 0.0261941 0 0 1
-0.0315729 -0.0203311 0.40317 0.121184 0.110835 0.986423
-0.156695 -0.244722 0.42955 -0.00714467 -0.814137 0.580629
-0.216668 -0.244418 0.431635 -0.746837 0.491755 -0.447672
-0.00914474 0.304216 0.0136095 -0.000713035 -0.0802075 -0.996778
0.1952 -0.0977488 0.44902 -0.0999251 -0.0619256 -0.993066
-0.11369 -0.185748 0.454961 0.00055118 0.0631211 0.998006
-0.00851047 0.0217026 0.374447 -0.093306 0.0633728 -0.993619
0.0137852 -0.0132807 0.0409042 0.759915 -0.650023 0
0.0107207 0.116114 0.0105252 0.999962 -0.0087078 0
0.211295 0.17715 0.576747 -0.325973 0.927012 -0.185446
-0.175677 0.263954 0.745938 0.0128099 0.277649 -0.960597
-0.308522 0.0117979 0.0030353 0.0801828 -0.000701713 -0.99678
0.00533916 -0.110748 0.0189566 0.000702228 0.0801827 -0.99678
-0.0205812 -0.0645312 0.032875 0.000734568 0.0802037 -0.996778
-0.120867 -0.173686 0.454202 0.00055118 0.0631211 0.998006
-0.242283 -0.00757864 0.0100858 -0.00875947 -0.999962 0
0.00440937 -0.316063 0 0 0 -1
