0.135867 -0.15881 0.453287 -0.000647792 0.063087 0.998008
0.0620153 -0.0145922 0.443601 -0.000946421 0.0921969 0.99574
-0.139251 0.154464 0.427895 -0.00090242 0.0878851 0.99613
0.143642 0.232027 0.745111 0.00641968 -0.624682 0.780853
0.207782 0.0809231 0.418226 0.000949417 -0.0921967 -0.99574
-0.157799 0.16305 0.529027 0.0101256 -0.985572 0.168954
-0.0525695 0.20659 0.429665 -0.0744586 0.995279 -0.06226
-0.227176 0.0553992 0.424129 -0.995127 -0.0010912 0.0985962
0.0222051 -0.208161 0.0237526 0.000822935 -0.0801951 0.996779
0.207915 -0.00107966 0.0048264 -0.0398072 -0.000406262 -0.999207
-0.279291 0.115107 0.618602 -0.347267 -0.124404 -0.929478
-0.194423 -0.136493 0.43543 0.804374 -0.030467 -0.593341
-0.0398717 0.185302 0.632632 0.00995778 -0.969279 0.245762
-0.173817 0.0615707 0.436325 -0.000946683 0.0921965 0.99574
-0.109705 -0.231278 0.448048 0.00681824 -0.664352 0.747389
-0.125438 -0.0497134 0.446221 -0.000648018 0.0630873 0.998008
-0.072883 0.27454 0.756462 -0.000119215 -0.164401 0.986394
0.166282 0.0731196 0.435579 -0.000947169 0.092196 0.99574
-0.0125979 -0.0146623 0.248846 -0.759416 -0.650606 0
0.128033 -0.086039 0.448682 -0.000647604 0.0630873 0.998008
0.227263 0.186988 0.528132 0.324017 0.936215 -0.136068
0.161251 0.185199 0.624076 0.00995157 -0.969283 0.245745
0.0738715 0.173016 0.573283 0.0101251 -0.98557 0.168966
0.224163 -0.160201 0.434371 -0.140591 -0.0582532 -0.988352
0.109441 -0.238579 0.425044 -0.00880853 0.85742 -0.514542
0.0614249 0.00744399 0.0106589 -0.039807 -0.000408502 -0.999207
0.156961 0.127028 0.395521 -0.54794 0.836518 0
-0.0308031 0.146507 0.428695 -0.00090242 0.0878851 0.99613
0.00714461 0.0528849 0.011005 0.000411228 -0.0398069 -0.999207
0.118852 0.157945 0.427822 -0.000902413 0.0878851 0.99613
0.00726831 0.23689 0.0101635 0.999947 0.0102679 0
-0.0190924 -0.001414 0.0528026 -0.999949 -0.0101513 0
-0.151992 0.119054 0.402909 0.530644 0.847595 0
-0.0447602 -0.0331832 0.40622 0.119036 0.113135 0.986423
-0.232311 0.179023 0.503257 -0.338788 0.935819 -0.0972884
-0.21174 0.212775 0.682751 0.709391 0.664977 -0.233601
0.0362051 0.0793265 0.434881 -0.000946421 0.0921969 0.99574
0.0481655 0.216128 0.728871 0.00830194 -0.80868 0.58819
-0.0937976 0.171546 0.574753 0.0101252 -0.985572 0.168955
-0.0352752 -0.012814 0.443344 -0.000947025 0.0921969 0.99574
0.216873 0.205167 0.62683 -0.3718 0.902593 -0.217007
-0.25254 -0.0235224 0.0201082 -0.0494458 -0.707672 0.704809
0.0861739 -0.200546 0.455893 -0.000647792 0.063087 0.998008
0.25644 0.0586513 0.63584 -0.10052 0.0934868 0.990533
0.0698504 -0.0935042 0.449116 -0.000647792 0.063087 0.998008
-0.1378 0.0803441 0.434621 -0.000946683 0.0921965 0.99574
-0.156445 0.206734 0.707442 0.00974378 -0.948622 0.316261
0.0364161 -0.0116349 0.392381 0.943152 -0.332361 0
0.235195 0.154752 0.434873 0.303317 -0.943898 0.130597
0.172828 -0.210388 0.454694 0.00119902 -0.11677 0.993158
-0.0111718 0.201971 0.688676 0.00975465 -0.948631 0.316234
0.140102 0.180327 0.605716 0.00995777 -0.969279 0.245762
-0.20998 0.239435 0.73716 0.157646 0.234085 -0.95935
0.221082 -0.107612 0.43171 -0.140591 -0.0582532 -0.988352
-0.0689084 -0.13192 0.451454 -0.000647793 0.063087 0.998008
0.158996 -0.151024 0.432765 -0.608202 -0.793782 0
-0.100823 -0.0230651 0.0228285 0.0240346 -0.984617 -0.173067
-0.209796 -0.194229 0.453522 0.100084 -0.0617579 -0.99306
0.140443 -0.00248097 0.442554 -0.000946421 0.0921969 0.99574
-0.201644 -0.0118757 0.426429 0.000946267 -0.0921963 -0.99574
-0.00600061 -0.0329829 0.0116404 0 0 -1
-0.122126 0.182718 0.432204 0.305134 -0.939271 0.157043
0.018212 -0.00580584 0.258292 0.943122 -0.332448 0
0.109145 0.259189 0.748476 -0.145239 -0.989397 0
0.0996564 0.208329 0.704336 0.00973869 -0.948632 0.316232
0.237412 0.173728 0.513581 0.986782 -0.14066 0.0804761
0.167907 0.22258 0.736052 0.00830194 -0.80868 0.58819
0.00797888 -0.0174783 0.174444 0.508842 -0.86086 0
-0.0456447 -0.206808 0.455379 0.00119903 -0.11677 0.993158
-0.13661 0.253174 0.750031 0.165525 -0.986206 0
-0.0259484 0.0401433 0.393109 0.530644 0.847595 0
0.161933 0.198322 0.672398 0.00973869 -0.948632 0.316232
0.0303984 0.0553036 0.437099 -0.000946421 0.0921969 0.99574
0.0026253 0.17274 0.575938 0.0101207 -0.985572 0.168954
-0.174039 0.174368 0.594944 0.00995778 -0.969279 0.245762
0.225804 0.0277778 0.432338 0.994918 0.0193623 0.0988063
0.15074 -0.100108 0.449586 -0.000647604 0.0630873 0.998008
0.0442478 -0.177999 0.454441 -0.000647792 0.063087 0.998008
0.0172405 -0.146334 0.0160799 -0.000824982 0.0801949 -0.996779
-0.0200916 -0.259964 0.0177092 -0.706437 -0.063969 0.704879
0.228027 -0.185126 0.447086 0.995795 0.0159338 0.0902117
0.0987148 0.167479 0.539495 0.0101207 -0.985572 0.168954
0.0191139 -0.000606118 0.060976 0.999948 0.0101659 0
0.271386 0.022493 0.0162327 -0.0801948 -0.000826781 -0.996779
0.0107329 0.206805 0.412539 0.0300762 0.554863 -0.831398
-0.102678 0.194748 0.669832 0.00975465 -0.948631 0.316234
-0.00875792 0.10063 0.0090964 0.000410378 -0.0398068 -0.999207
0.182889 0.142924 0.429205 -0.000902909 0.0878878 0.99613
-0.210701 0.0196698 0.0129086 0.00382213 0.98489 -0.173142
-0.105039 0.0160658 0.440604 -0.000947025 0.0921969 0.99574
0.105068 0.0733794 0.435497 -0.000947169 0.092196 0.99574
-0.241638 0.153811 0.444759 -0.710137 -0.692597 0.126553
-0.133755 0.0204464 0.0190244 0.00382213 0.98489 -0.173142
-0.176285 -0.0568866 0.446642 -0.000648018 0.0630873 0.998008
-0.236057 0.171433 0.565074 -0.764397 -0.62439 0.160731
-0.0658494 -0.250958 0.410934 0.0102678 -0.999947 0
-0.0878502 0.207388 0.707292 0.00974378 -0.948622 0.316261
0.215122 0.0423305 0.421085 -0.139869 -0.0927244 -0.985819
-0.251762 0.0498579 0.634633 0.139551 0.105123 0.984619
-0.0117532 -0.0153076 0.116567 -0.491077 -0.871116 0
-0.0177707 -0.0070255 0.184657 -0.936134 -0.351643 0
-0.0248827 0.162056 0.0246661 -0.984615 -0.0240397 -0.173076
-0.0776946 -0.170762 0.453904 -0.000647793 0.063087 0.998008
-0.0408844 -0.117412 0.450555 -0.000647793 0.063087 0.998008
0.242433 0.169705 0.614807 -0.406661 -0.524475 -0.748032
-0.148915 -0.118193 0.450535 -0.000648018 0.0630873 0.998008
-0.266765 0.173063 0.627369 -0.571749 0.804478 0.160989
0.0407714 0.0393007 0.381775 0.565377 -0.824833 0
0.156996 -0.0139737 0.027899 0.0801951 0.000824276 0.996779
0.0270249 0.165314 0.531161 0.0101207 -0.985572 0.168954
-0.0271933 -0.0246546 0.382895 -0.629506 -0.539243 -0.559409
0.0104519 -0.096891 0.00924469 -0.000411426 0.0398067 -0.999207
-0.151382 -0.251795 0.42012 0.00943747 -0.919088 0.393938
0.0904976 0.186658 0.632698 0.00995157 -0.969283 0.245745
0.140601 0.0813676 0.404722 -0.033291 -0.0259084 0.99911
-0.214343 0.121985 0.431061 0.139383 0.11082 0.984018
-0.0742721 -0.0513163 0.412086 0.193124 0.0519549 0.979798
0.0599352 -0.0491833 0.409903 -0.121336 0.110664 0.986423
-0.226196 -0.0693613 0.431515 -0.995093 -0.00453118 0.0988377
-0.133966 0.0721812 0.389625 -0.582646 -0.812726 0
0.0818091 -0.00361475 0.00985133 -0.039807 -0.000408502 -0.999207
-0.0838276 -0.024014 0.0305871 0.0240346 -0.984617 -0.173067
0.198323 0.177365 0.577941 -0.385632 0.906443 -0.172188
-0.0805127 0.134343 0.429724 -0.000902413 0.0878851 0.99613
-0.0119924 0.273811 0.74397 -0.029441 0.44696 -0.894069
0.162878 -0.244309 0.413693 -0.00938753 0.913773 -0.406117
-0.0180058 0.280633 -6.73095e-18 0 0 -1
0.244525 0.111723 0.625855 -0.805018 0.0376284 0.592056
-0.151008 -0.112704 0.422936 -0.684917 0.728621 0
0.207679 0.261107 0.74639 0.529337 0.848226 0.0177658
-0.120173 0.227591 0.743729 0.00641206 -0.6246 0.780918
-0.198215 0.100887 0.415992 0.000936764 -0.0921968 -0.99574
-0.0197128 -0.149207 0.0158792 -0.00082382 0.0801947 -0.996779
-0.11506 0.175376 0.596529 0.00995778 -0.969279 0.245762
0.169245 -0.0441678 0.446062 -0.000647604 0.0630873 0.998008
-0.144088 0.024081 0.439824 -0.000946683 0.0921965 0.99574
0.0146203 0.184792 0.628411 0.00995777 -0.969279 0.245762
0.000282754 0.0193195 0.21921 0.163426 0.986556 0
-0.0798384 0.079713 0.434734 -0.000946683 0.0921965 0.99574
-0.253764 0.0724203 0.623943 0.273685 -0.121806 -0.954076
0.0838138 -0.124939 0.451112 -0.000647792 0.063087 0.998008
0.221489 -0.0632243 0.444682 0.710393 0.051621 0.70191
0.0273023 0.138107 0.429489 -0.000902413 0.0878851 0.99613
0.186324 -0.123418 0.451083 -0.000647604 0.0630873 0.998008
-0.0052358 0.010569 0.38674 -0.508423 0.859606 0.0508287
0.157818 0.182675 0.414799 0.202057 0.657803 -0.725581
0.120033 -0.119798 0.415595 -0.627399 -0.778698 0
-0.0640763 0.0231089 0.379748 -0.0957133 0.0584571 -0.993691
0.010163 -0.225706 0.450548 0.00424901 -0.413802 0.910357
0.246421 -0.0189016 0.00805736 -0.0801948 -0.000824027 -0.996779
0.129777 -0.228138 0.448654 0.00682514 -0.664352 0.747389
0.207177 0.194972 0.647611 -0.118868 -0.967006 0.225322
0.0184504 -0.0160374 0.443694 -0.000946421 0.0921969 0.99574
-0.225402 -0.00633178 0.00412671 0.039807 0.000408306 -0.999207
-0.181326 0.127353 0.430249 -0.000902413 0.0878851 0.99613
0.0243012 -0.288227 0.00223337 0.999947 0.0102987 0
0.235279 0.17746 0.458012 0.704519 0.70845 -0.0418606
0.0782441 0.106759 0.432381 -0.000947169 0.092196 0.99574
-0.0617976 -0.057487 0.446754 -0.000648018 0.0630873 0.998008
0.0200873 0.131482 0.0275238 0.000823662 -0.0801945 -0.996779
0.221787 0.175947 0.593325 0.171704 -0.971706 0.16219
-0.0052069 -0.00718937 0.0116404 0 0 -1
0.0620032 -0.242026 0.420113 -0.00880859 0.85742 -0.514543
-0.221116 0.191044 0.58531 0.356154 0.91741 -0.177519
-0.0830056 0.185451 0.634967 0.00996703 -0.969285 0.245738
0.0180123 0.190682 0.0227592 -0.00082366 0.0801945 0.996779
-0.112055 -0.205594 0.455602 0.00119902 -0.11677 0.993158
-0.03244 0.174004 0.585415 0.0101252 -0.985572 0.168955
-0.17458 -0.22262 0.452813 0.00424719 -0.413835 0.910342
0.0827247 0.032899 0.439224 -0.000946421 0.0921969 0.99574
-0.175386 0.0199091 0.0150495 0.00382213 0.98489 -0.173142
0.224864 0.212916 0.684681 0.978692 0.205319 -0.00264733
0.141598 0.110781 0.432068 -0.000947169 0.092196 0.99574
-0.0199171 -0.188721 0.0148042 -0.984909 0.00380389 -0.17303
-0.084223 0.0223827 0.0311338 0.00379965 0.984922 -0.172956
-0.0905151 -0.0840995 0.448417 -0.000648018 0.0630873 0.998008
-0.304518 -0.0232198 0.00334831 0.080195 0.000824933 -0.996779
0.0425463 0.00762309 0.397532 0.599207 -0.800594 0
-0.217542 0.205083 0.647796 0.112539 0.966398 -0.231106
0.225014 0.127728 0.420544 0.994858 0.0256681 0.097969
-0.220834 0.155449 0.447185 0.531151 -0.811118 0.24488
-0.0375835 0.102262 0.432687 -0.000946683 0.0921965 0.99574
0.030217 -0.0558528 0.44671 -0.000647604 0.0630873 0.998008
-0.0419225 0.0328138 0.439113 -0.000947025 0.0921969 0.99574
-0.194938 -0.229771 0.432797 -0.0063324 0.624563 -0.780949
-0.0348742 0.17008 0.562667 0.0101256 -0.985572 0.168954
-0.0210476 0.0329363 0.0343391 0 0 1
0.179612 0.0244827 0.0199539 -0.0240355 0.984615 -0.173076
-0.270288 0.0198953 0.0163561 -0.0801944 -0.000823663 0.996779
0.178278 0.0435999 0.438324 -0.000947169 0.092196 0.99574
0.0257534 -0.122858 0.450943 -0.000647792 0.063087 0.998008
0.0134528 0.216971 0.73052 0.0083113 -0.808751 0.588093
-0.202078 0.173198 0.531085 0.24365 0.952825 -0.180997
-0.193555 -0.0928275 0.448853 0.100128 -0.0617522 -0.993056
0.250236 0.0201571 0.632245 -0.347258 -0.123093 -0.929656
0.00407926 -0.118219 0.00839764 -0.000411426 0.0398067 -0.999207
-0.0935358 -0.00977608 0.443007 -0.000947025 0.0921969 0.99574
0.0922709 -0.0501631 0.446391 -0.000647604 0.0630873 0.998008
-0.0256028 0.265987 0.0143272 -0.984605 -0.024042 -0.173135
0.231216 0.0242958 0.0208274 0.0494498 0.707617 0.704864
-0.194467 0.115549 0.399336 -0.569611 -0.821914 0
0.0329474 0.194363 0.664496 0.00973954 -0.948631 0.316234
0.0397584 -0.0228679 0.0343391 0 0 -1
-0.107642 -0.155241 0.452903 -0.000647793 0.063087 0.998008
0.00970614 -0.0599501 0.0332541 -0.000823664 0.0801945 -0.996779
-0.108321 0.16427 0.533182 0.0101256 -0.985572 0.168954
-0.166104 -0.0768974 0.447913 -0.000648018 0.0630873 0.998008
-0.024731 0.217722 0.0160712 -0.984605 -0.024042 -0.173135
-0.21722 -0.170298 0.435198 0.141763 -0.0553531 -0.988352
-0.179548 -0.173192 0.43318 0.624383 -0.781118 0
-0.248465 0.130579 0.618636 0.34976 -0.115933 -0.929639
0.317082 0.0245977 0.00481262 -0.0102626 0.999947 0
0.0639119 0.283051 0.750666 0.0304858 0.697091 -0.716334
0.170279 0.270179 0.749915 0.141916 0.989879 0
0.127389 0.209335 0.7065 0.00973869 -0.948632 0.316232
-0.0392976 -0.022746 0.0290102 0.0101071 -0.98477 -0.173566
0.0119715 -0.241041 0.00350137 -0.000411426 0.0398067 -0.999207
0.019447 0.272344 0.0161904 -0.00082366 0.0801945 0.996779
-0.0872735 0.189269 0.413494 0.134705 -0.823841 -0.550582
0.19453 0.121309 0.401327 0.586376 -0.810039 0
0.0186668 0.0115067 0.351637 0 0 -1
0.13948 0.0111333 0.0143057 -0.0102724 0.999947 0
0.279663 0.0250854 0.631609 0.315038 -0.116964 -0.941844
-0.00452627 0.100736 0.432859 -0.000947025 0.0921969 0.99574
0.011361 0.0155282 0.110699 0.491086 0.871111 0
-0.0234458 0.0143872 0.363985 -0.759122 0.623905 -0.185676
0.284456 0.101718 0.625182 0.552611 -0.101481 -0.827238
-0.20944 0.020204 0.438593 0.100425 -0.0907193 -0.9908
0.112113 -0.0752925 0.4056 0.182857 -0.179172 -0.966675
-0.0498005 0.209186 0.711511 0.00975465 -0.948631 0.316234
0.0166628 -0.0275489 0.376232 0.421725 -0.713621 -0.559369
0.0186372 -0.00459945 0.115123 0.943122 -0.332448 0
0.0504928 -0.225209 0.450586 0.00424901 -0.413802 0.910357
-0.177295 0.265047 0.747601 -0.100141 0.703378 -0.703727
-0.155162 0.103346 0.432475 -0.000946683 0.0921965 0.99574
0.141936 0.0325721 0.43931 -0.000947169 0.092196 0.99574
-0.0117181 -0.00683542 0.289254 -0.936094 -0.351751 0
-0.129862 0.105199 0.399107 0.530644 0.847595 0
0.0315661 0.0236966 0.0291951 0.315734 0.93283 -0.173612
-0.279994 0.03306 0.636794 -0.350541 0.0896262 0.932249
0.0609048 0.0282314 0.439635 -0.000946421 0.0921969 0.99574
0.0619097 0.200682 0.682558 0.00973954 -0.948631 0.316234
-0.0145296 -0.0479599 0.446182 -0.000647793 0.063087 0.998008
-0.0326376 -0.235665 0.443446 0.00681824 -0.664352 0.747389
-0.1022 -0.251331 0.417476 0.0102678 -0.999947 0
0.127389 0.262481 0.742137 0.0450495 0.447142 -0.893328
-0.0219217 0.0735559 0.0342715 -0.707672 0.0494427 0.704809
-0.218942 0.209055 0.719259 -0.145289 -0.931831 0.332538
0.216898 -0.226553 0.450065 0.709692 -0.285514 0.644065
0.00967651 0.03713 0.387681 0.163498 0.986544 0
0.177409 -0.0242922 0.444609 -0.000946421 0.0921969 0.99574
0.288955 -0.00541416 -5.04822e-18 0 0 -1
-0.279291 -0.00901998 0.00361105 0.999947 0.0102835 0
-0.0252921 0.31676 0.0138267 -0.707597 0.0494482 0.704884
0.114249 -0.0214688 0.0252692 -0.00382291 -0.984888 -0.173151
0.0304883 -0.00788706 0.0116404 0 0 -1
0.116141 0.190837 0.440335 -0.0491157 -0.000493387 0.998793
-0.233805 0.151974 0.407103 -0.173282 0.0557526 -0.983293
-0.0376888 -0.163596 0.453477 -0.000647793 0.063087 0.998008
-0.00720358 0.0526851 0.437306 -0.000947025 0.0921969 0.99574
0.117671 -0.19274 0.45542 -0.000647792 0.063087 0.998008
0.227754 0.200144 0.659706 0.776408 -0.146655 0.61293
0.0220388 0.0811928 0.0315713 -0.00082366 0.0801945 0.996779
-0.221843 -0.226804 0.433692 -0.430415 0.561162 -0.706994
-0.153245 0.171124 0.575854 0.0101252 -0.985572 0.168955
-0.00243796 -0.0318404 0.402759 -0.0791868 -0.478016 0.874774
-0.0582432 0.198981 0.681159 0.00975465 -0.948631 0.316234
-0.224687 -0.107341 0.445353 -0.948679 0.00479175 0.316205
-0.0092476 0.0167274 0.264668 -0.50884 0.860861 0
-0.179131 0.196563 0.677634 0.00974378 -0.948622 0.316261
0.0818056 0.223882 0.739059 0.0083113 -0.808751 0.588093
-0.0174599 -0.296892 -6.73095e-18 0 0 -1
0.113889 0.195916 0.666662 0.00973954 -0.948631 0.316234
-0.0778574 -0.0888925 0.401372 0.643256 -0.765651 0
-0.186267 -0.016624 0.443553 -0.000946683 0.0921965 0.99574
-0.12229 0.187164 0.643317 0.00996703 -0.969285 0.245738
0.00873042 0.0105516 0.0116404 0 0 -1
0.191113 -0.172535 0.454191 -0.000647604 0.0630873 0.998008
0.158208 -0.16478 0.453679 -0.000647604 0.0630873 0.998008
-0.00539321 -0.216082 0.0104871 -0.00082382 0.0801947 -0.996779
0.205041 0.173565 0.546179 0.0951297 -0.97472 0.202166
-0.0525309 -0.0657266 0.390971 -0.178662 -0.15637 -0.971405
0.0434871 0.176181 0.59328 0.00995777 -0.969279 0.245762
0.10255 -0.00653566 0.442894 -0.000946421 0.0921969 0.99574
-0.098912 0.0574241 0.43678 -0.000946683 0.0921965 0.99574
0.00819021 -0.168664 0.00638629 -0.000411426 0.0398067 -0.999207
0.106852 0.0942051 0.401102 -0.54794 0.836518 0
0.114014 0.185413 0.415357 -0.117769 -0.826416 -0.550606
-0.139747 -0.0195018 0.0166079 0.080195 0.000824933 -0.996779
0.222787 -0.00664438 0.439048 -0.000964691 0.0921964 0.99574
0.154641 0.172837 0.567399 0.0101251 -0.98557 0.168966
0.00122584 0.027229 0.439671 -0.000946421 0.0921969 0.99574
0.208037 -0.0729827 0.431065 0.000590795 -0.0573714 -0.998353
0.126186 -0.0408517 0.445824 -0.000647604 0.0630873 0.998008
0.199585 0.166111 0.443624 -0.19441 -0.856628 0.477905
-0.0107125 -0.0158943 0.140596 -0.491077 -0.871116 0
-0.0410492 0.0217491 0.39984 0.0356442 -0.0232377 0.999094
-0.0171511 0.00881142 0.0911249 -0.943106 0.332493 0
-0.146469 -0.146536 0.426251 0.643256 -0.765651 0
-0.107141 0.276971 0.749573 -0.0950314 0.681209 -0.725895
0.113452 0.0614252 0.403301 -0.033291 -0.0259084 0.99911
-0.159903 0.176795 0.442979 0.0665161 0.000668483 0.997785
0.197096 -0.23351 0.430177 -0.813286 0.496702 -0.303073
0.108935 -0.225972 0.449966 0.00425148 -0.413834 0.910342
0.0369137 0.114992 0.431579 -0.000947169 0.092196 0.99574
-0.217207 0.0844627 0.434997 0.139828 0.0927254 0.985825
-0.235812 0.159745 0.509 -0.710261 -0.691763 0.130356
0.0234341 -0.0947271 0.0257714 0.984617 0.0240393 -0.173067
0.158279 -0.115894 0.421687 0.272945 -0.0652975 -0.959811
-0.192548 0.169388 0.568084 0.0101252 -0.985572 0.168955
-0.248374 0.00996534 0.636762 0.836972 0.0469872 0.545225
0.0589274 0.0545968 0.381285 0.0932365 0.0635439 -0.993614
-0.147985 -0.238476 0.442 0.00681834 -0.66435 0.74739
0.227654 0.171307 0.559316 0.171704 -0.971706 0.16219
0.206482 0.15811 0.415174 0 0 -1
0.110113 0.17463 0.580523 0.0101251 -0.98557 0.168966
-0.0198064 -0.221304 0.0134576 -0.984909 0.00380389 -0.17303
-0.00915665 0.230916 0.745477 0.00641187 -0.624603 0.780917
-0.204735 0.0452174 0.42114 0.000950562 -0.0921962 -0.99574
0.0043445 0.122823 0.00821767 0.000411228 -0.0398069 -0.999207
0.0307593 -0.0941818 0.449134 -0.000647792 0.063087 0.998008
-0.0583669 -0.0103014 0.0108791 0.0102679 -0.999947 0
0.195623 0.0114199 0.441493 -0.100416 0.0907176 0.990801
-0.225726 -0.0194299 0.439435 -0.999992 -0.00408533 0
-0.0666443 -0.205411 0.455568 0.00119902 -0.11677 0.993158
-0.0202954 0.198376 0.432848 0.0794703 -0.977451 0.195636
0.074386 0.0314537 0.396779 0.599207 -0.800594 0
0.257495 0.179663 0.63251 0.494811 0.29183 0.818534
0.140077 -0.102001 0.415566 0.272945 -0.0652975 -0.959811
0.187818 0.206804 0.695548 0.135855 -0.937531 0.320281
-0.284326 0.0774832 0.630324 -0.716102 0.0518649 0.696066
0.25402 0.0769657 0.623519 -0.271127 -0.127401 -0.954075
0.188328 -0.0206935 0.0236072 0.0639735 -0.706423 0.704893
-0.155893 -0.0234942 0.444218 -0.000947025 0.0921969 0.99574
0.176167 -0.0791694 0.448279 -0.000647604 0.0630873 0.998008
-0.20624 -0.150169 0.452292 0.154944 0.0639292 0.985853
-0.0866207 0.221576 0.738266 0.00830253 -0.808751 0.588093
-0.10387 0.012248 0.0195206 0.0801948 0.000823844 -0.996779
0.12081 -0.123848 0.451067 -0.000647604 0.0630873 0.998008
0.134483 0.0237068 0.0218069 -0.0240355 0.984615 -0.173076
-0.152008 0.181895 0.414221 -0.215521 0.653476 -0.725616
0.197428 0.111243 0.430374 -0.141814 0.0898176 0.98581
-0.224969 0.178556 0.627636 0.392581 -0.896565 0.205062
-0.0179281 0.00660732 0.21692 -0.943106 0.332493 0
0.0288142 -0.0463025 0.39759 -0.627399 -0.778698 0
-0.117735 -0.104472 0.449688 -0.000648018 0.0630873 0.998008
-0.251969 0.181897 0.617628 -0.548355 0.82231 -0.152027
0.217097 -0.099398 0.450492 -0.141833 0.0626192 0.987908
-0.22735 0.115408 0.423032 -0.995127 -0.0010912 0.0985962
0.217911 -0.142063 0.452959 0.559004 0.0516321 0.827556
0.175112 0.189515 0.640541 0.00995157 -0.969283 0.245745
-0.190723 -0.00928248 0.00550704 0.039807 0.000408503 -0.999207
-0.00885497 -0.0822708 0.0203551 -0.999947 -0.0102674 0
0.22777 0.157887 0.470884 -0.24314 -0.964686 0.101309
0.0144448 -0.012516 0.227037 0.772645 -0.634839 0
-0.204442 -0.0994197 0.432341 0.000590721 -0.0573716 -0.998353
-0.00170316 -0.191789 0.455283 -0.000647793 0.063087 0.998008
0.0199856 0.209502 0.022396 0.706443 0.0639685 0.704874
-0.107959 0.102551 0.432593 -0.000946683 0.0921965 0.99574
0.170433 0.111473 0.432032 -0.000947169 0.092196 0.99574
0.250017 -0.000315912 0.00775266 -0.0801947 -0.000823096 -0.996779
-0.0614743 0.173019 0.581409 0.0101252 -0.985572 0.168955
0.225018 -0.0418496 0.427677 0.554711 -0.0420642 -0.830979
0.0620238 0.167681 0.542868 0.0101207 -0.985572 0.168954
0.0871616 -0.0499271 0.409755 0.669814 0.742529 0
0.00628019 0.0118125 0.31442 0.491283 0.871 0
-0.139297 -0.207236 0.455441 0.00119902 -0.11677 0.993158
-0.0172241 0.124099 0.0280869 0.000823293 -0.0801944 -0.996779
-0.244493 0.158098 0.620603 0.914562 -0.267018 -0.303773
0.0179068 0.296921 -6.73095e-18 0 0 -1
-0.106899 0.052777 0.396516 -0.582646 -0.812726 0
0.215964 0.0690517 0.436884 -0.141712 0.0898333 0.985823
0.225443 0.108234 0.420201 0.994939 0.0193564 0.0986024
0.220871 0.196441 0.582046 -0.374827 0.909942 -0.177509
-0.262799 -0.0037149 0.00263792 0.039807 0.000408306 -0.999207
0.0608914 -0.0525096 0.446519 -0.000647604 0.0630873 0.998008
-0.0681035 -0.234899 0.44445 0.00681824 -0.664352 0.747389
-0.00140421 0.0191741 0.182135 -0.18376 0.982971 0
-0.0325749 -0.249559 0.409267 0.00726212 -0.707237 -0.706939
0.216681 0.17007 0.495277 -0.981266 -0.189991 -0.0319379
0.0214924 0.0361634 0.0358516 0.701591 0.0863628 0.707327
0.280216 -0.0203579 0.0152954 -0.00379928 -0.984922 -0.172956
0.02438 -0.241558 0.018631 0.000823308 -0.0801945 0.996779
0.258938 0.151637 0.613438 -0.0812958 -0.116443 -0.989865
0.00923464 -0.0185342 0.0367643 0 0 1
-0.0156549 -0.0424249 0.0367643 0 0 1
-0.0610925 -0.0281817 0.396935 -0.684917 0.728621 0
-0.014481 0.165106 0.532431 0.0101256 -0.985572 0.168954
-0.0051434 0.243515 0.00827122 0.000826852 -0.0801951 -0.996779
-0.00313037 -0.0188481 0.0780506 -0.163396 -0.986561 0
-0.299321 0.00494778 0.0164409 -0.0801949 -0.000824059 0.996779
-0.0638624 0.0526147 0.401372 0.0356442 -0.0232377 0.999094
-0.00715503 -0.110494 0.45014 -0.000647793 0.063087 0.998008
0.218664 -0.0205026 0.0210452 0.0639735 -0.706423 0.704893
0.0124285 -0.265611 0.00656226 0.999947 0.0102682 0
0.194231 0.182854 0.61078 0.190179 -0.947782 0.256012
-0.221942 0.172702 0.597175 0.202995 -0.957999 0.202559
-0.181714 -0.152898 0.452707 -0.000648018 0.0630873 0.998008
0.135722 0.0837779 0.434563 -0.000947169 0.092196 0.99574
0.193852 0.0434953 0.423336 -0.705053 -0.0725607 -0.705433
0.000158004 -0.295662 0.0142981 0.000823308 -0.0801945 0.996779
-0.211801 -0.0247828 0.0217009 -0.0494512 -0.707597 0.704884
0.0333347 0.0155959 0.440779 -0.000946421 0.0921969 0.99574
0.0237552 -0.173188 0.0167021 0.984583 0.024047 -0.173259
-0.252725 -0.023304 0.636462 0.273685 -0.121806 -0.954076
0.0795171 -0.16823 0.453846 -0.000647792 0.063087 0.998008
-0.068456 0.00432094 0.441726 -0.000947025 0.0921969 0.99574
-0.0126887 0.310064 -6.73095e-18 0 0 -1
-0.181457 -0.131329 0.451344 -0.000648018 0.0630873 0.998008
-0.108062 -0.181369 0.454555 -0.000647793 0.063087 0.998008
-0.195473 0.213894 0.696624 -0.00986534 0.956969 -0.290023
-0.131766 -0.249587 0.424802 0.0094332 -0.919138 0.393823
0.0706457 -0.0215239 0.0265452 -0.00382291 -0.984888 -0.173151
0.141541 0.188348 0.637297 0.00995157 -0.969283 0.245745
0.033945 0.198388 0.434581 -0.0628861 -0.830476 0.553493
0.057786 -0.067713 0.392188 0.181849 -0.152651 -0.971406
0.00811148 0.161865 0.0250694 -0.00082366 0.0801945 0.996779
-0.00626497 0.0182655 0.0756151 -0.18376 0.982971 0
0.157075 0.0235674 0.0254286 0.0801948 0.000826925 0.996779
-0.205778 0.0736124 0.434396 0.139828 0.0927254 0.985825
-0.192425 -0.191855 0.440982 0.804374 -0.030467 -0.593341
-0.0116403 0.188936 0.0161919 -0.999947 -0.0102672 0
-0.0613045 0.178985 0.608584 0.00995778 -0.969279 0.245762
0.225958 0.0740632 0.421712 0.994939 0.0193564 0.0986024
-0.196309 0.192382 0.621121 0.990428 -0.136757 -0.0187085
-0.125562 -0.0245138 0.027635 0.0240346 -0.984617 -0.173067
-0.147093 0.194613 0.670795 0.00975465 -0.948631 0.316234
-0.0951858 0.197021 0.438479 -0.0538003 0.436314 0.898185
0.19304 0.214927 0.713655 -0.240539 0.916478 -0.319702
-0.220596 0.181404 0.543443 0.690816 0.705206 -0.159557
0.103187 -0.0974448 0.449387 -0.000647604 0.0630873 0.998008
-0.226229 0.194501 0.671981 -0.625103 -0.725903 0.286897
-0.107733 0.152876 0.428064 -0.00090242 0.0878851 0.99613
0.0594904 -0.0310406 0.387444 0.182857 -0.179172 -0.966675
0.0560317 -0.142939 0.452232 -0.000647792 0.063087 0.998008
-0.00733026 0.067487 0.0104174 0.000411228 -0.0398069 -0.999207
0.0197474 -0.0383367 0.0241539 0 0 -1
0.0731443 -0.229603 0.447869 0.00682514 -0.664352 0.747389
-0.109778 0.0833452 0.403725 0.0356442 -0.0232377 0.999094
0.161394 0.096575 0.39617 0.599207 -0.800594 0
-0.126662 -0.0185588 0.443789 -0.000947025 0.0921969 0.99574
-0.176992 0.0148071 0.440652 -0.000946683 0.0921965 0.99574
0.159074 0.210376 0.708647 0.00973869 -0.948632 0.316232
0.112215 0.227555 0.741792 0.00641968 -0.624682 0.780853
0.0289307 -0.244243 0.431749 0.00835936 -0.813696 0.58123
-0.0192268 0.211417 0.71726 0.00975465 -0.948631 0.316234
0.080673 0.196211 0.668569 0.00973954 -0.948631 0.316234
0.215097 0.18326 0.61974 -0.241151 -0.944927 0.221268
-0.179886 -0.25212 0.420043 0.00943747 -0.919088 0.393938
0.0120803 0.00460641 0.404018 0 0 1
0.145831 0.141665 0.429283 -0.000902909 0.0878878 0.99613
0.110229 0.00963797 0.00871371 -0.039807 -0.000408502 -0.999207
-0.124085 0.207521 0.708807 0.00974378 -0.948622 0.316261
0.0279315 0.203069 0.690766 0.00973954 -0.948631 0.316234
-9.47803e-05 -0.0132174 0.361361 -0.163437 -0.985242 0.0508529
0.0980058 -0.153349 0.452917 -0.000647792 0.063087 0.998008
0.0411939 0.183172 0.620946 0.00995777 -0.969279 0.245762
-0.276196 0.137745 0.627643 -0.0910884 0.0943405 0.991364
-0.00616503 0.178324 0.603745 0.00995778 -0.969279 0.245762
-0.0997426 -0.0692015 0.418054 0.193124 0.0519549 0.979798
0.170575 0.169875 0.434895 -0.283475 -0.947312 0.149137
0.188627 -0.143263 0.433854 0.317491 -0.0759543 -0.945215
0.0103413 -0.0623403 0.0129421 0.999947 0.0102676 0
-0.00415527 0.100715 0.032412 -0.000824309 0.0801952 0.996779
-0.0580539 0.0165393 0.0358614 -0.0801951 -0.000824285 0.996779
-0.178273 0.177555 0.428338 -0.29283 0.956164 0
-0.095925 0.000964536 0.00928785 0.039807 0.000408503 -0.999207
0.194166 -0.247078 0.409115 0.00726572 -0.707237 -0.706939
0.181954 0.090904 0.433947 -0.000947169 0.092196 0.99574
-0.156923 0.0906668 0.405527 0.0338138 -0.0252216 0.99911
-0.0617904 0.195203 0.412042 0.0253467 -0.236758 -0.971238
-0.0109453 0.0248555 0.0153679 -0.959953 0.28016 0
0.0519535 0.0580663 0.401091 -0.0351588 -0.0239657 0.999094
-0.214111 -0.0451072 0.445087 -0.70626 -0.0518917 -0.706048
0.136297 -0.0167917 0.0169155 -0.0801948 -0.000824027 -0.996779
0.0706633 0.019337 0.0323843 0.0801943 0.000823654 0.996779
0.276757 0.0666437 0.625394 0.349717 -0.117248 -0.92949
-0.0338731 0.274217 0.746357 -0.0526101 0.798702 -0.599422
0.184528 0.244049 0.749845 0.0574468 -0.424742 0.90349
-0.0191366 -0.0133625 0.404018 0 0 1
0.134406 -0.248901 0.419239 0.0102728 -0.999947 0
-0.0883693 0.163244 0.525996 0.0101256 -0.985572 0.168954
0.266083 0.172764 0.614889 0.42902 0.361775 -0.827684
-0.233718 0.174675 0.466329 -0.338788 0.935819 -0.0972884
-0.0116854 0.12534 0.43058 -0.000902413 0.0878851 0.99613
-0.225544 -0.141145 0.434785 -0.995093 -0.00453118 0.0988377
-0.0285033 -0.0025996 0.0241539 0 0 -1
0.178176 0.17903 0.599061 0.00995157 -0.969283 0.245745
-0.0446465 -0.0839083 0.448435 -0.000647793 0.063087 0.998008
0.200907 0.227 0.736139 0.628663 0.670192 -0.394493
0.201736 -0.20005 0.45437 -0.153683 -0.116953 0.981175
-0.0167271 0.0491499 0.0238991 0.000823812 -0.0801946 -0.996779
-0.0921766 0.178416 0.607591 0.00995778 -0.969279 0.245762
-0.0438193 0.00760733 0.376885 -0.0957133 0.0584571 -0.993691
0.165732 -0.0073784 0.00650947 -0.0398072 -0.000406262 -0.999207
0.288883 0.0141846 -5.04822e-18 0 0 -1
0.112158 0.128117 0.430447 -0.000902909 0.0878878 0.99613
-0.141788 0.178769 0.610995 0.00995778 -0.969279 0.245762
0.232806 0.157102 0.407504 0.172078 0.0593375 -0.983295
0.0589717 0.0863351 0.434253 -0.000947169 0.092196 0.99574
0.00573244 0.280518 0.757436 0.00349189 -0.164364 0.986394
0.022458 0.0140438 0.380097 0.091686 0.0644346 -0.993701
0.101859 -0.105155 0.412451 -0.627399 -0.778698 0
0.0149711 -0.0118754 0.203554 0.772645 -0.634839 0
-0.0583217 0.114553 0.431529 -0.000946683 0.0921965 0.99574
-0.00704332 -0.0010887 0.442285 -0.000947025 0.0921969 0.99574
-0.131811 0.125893 0.430423 -0.000902413 0.0878851 0.99613
0.21965 0.238324 0.738737 0.904071 0.290981 -0.313026
-0.044712 0.192574 0.66151 0.00996703 -0.969285 0.245738
-0.0156431 0.0110552 0.121606 -0.772719 0.634748 0
-0.240368 0.0167428 0.0187607 0.0801944 0.000823663 -0.996779
-0.124206 -0.11811 0.418007 -0.174549 -0.166283 -0.970506
0.203081 0.175923 0.52102 -0.273035 0.89434 -0.354412
-0.210999 0.257763 0.751213 -0.597159 0.66551 0.44777
0.109182 0.0381765 0.43876 -0.000947169 0.092196 0.99574
-0.0176989 0.00725756 0.160547 -0.943106 0.332493 0
-0.252253 0.10441 0.629369 0.348919 0.0882228 0.932991
0.0694159 0.209661 0.709262 0.00973869 -0.948632 0.316232
0.0313718 0.0100227 0.015018 -0.0102724 0.999947 0
-0.124168 -0.13372 0.451532 -0.000648018 0.0630873 0.998008
-0.149907 0.0532157 0.437121 -0.000946683 0.0921965 0.99574
-0.00341039 -0.135767 0.023419 0.000826755 -0.0801949 0.996779
0.0116036 -0.185273 0.00663909 0.999947 0.0102682 0
0.0913375 0.277841 0.756054 0.0653179 0.316046 0.946493
-0.0985738 0.080921 0.386659 -0.0945189 0.0616211 -0.993614
-0.0834483 0.0462287 0.385699 0.574192 0.818721 0
-0.156699 0.252283 0.74238 0.0623161 -0.241413 -0.96842
0.202053 -0.0428966 0.445242 -0.0988256 -0.0637963 -0.993058
-0.0863482 -0.222468 0.452471 0.00424905 -0.413802 0.910357
-0.237467 0.165949 0.536058 -0.609271 -0.777376 0.156447
-0.160776 0.00501705 0.0251545 0.0801944 0.000823663 -0.996779
0.159938 -0.23376 0.443381 0.00682509 -0.664351 0.747389
-0.0273179 -0.046432 0.398679 0.643256 -0.765651 0
0.143739 0.185684 0.441687 0.0612423 0.420297 0.905317
-0.0481956 -0.0639723 0.408868 0.643256 -0.765651 0
-0.193542 -0.0691209 0.435337 0.995804 0.0159276 0.0901111
0.305038 -0.00400941 0.0159803 0.0801949 0.000825932 0.996779
0.00960746 -0.0144255 0.404018 0 0 1
0.146928 -0.12452 0.451127 -0.000647604 0.0630873 0.998008
0.195201 0.00239825 0.0223788 -0.0801948 -0.000826781 -0.996779
-0.324668 -0.0114084 0.0133014 -0.761604 -0.00782702 0.647995
-0.0185828 -0.0556791 0.023403 -0.00082382 0.0801947 -0.996779
0.0239542 -0.121967 0.0288357 0.707597 -0.049448 0.704884
-0.0124185 -0.139262 0.451955 -0.000647793 0.063087 0.998008
0.00994686 0.0163254 0.244213 0.491086 0.871111 0
-0.240334 0.189097 0.646589 -0.8832 0.225602 0.411171
-0.289695 0.00987559 -6.73095e-18 0 0 -1
-0.118339 0.168742 0.559865 0.0101252 -0.985572 0.168955
-0.00385693 0.00482176 0.0367643 0 0 1
0.0573946 0.0561926 0.437043 -0.000946421 0.0921969 0.99574
-0.024744 0.0282137 0.376368 -0.0945189 0.0616211 -0.993614
-0.181712 0.130645 0.397593 -0.0888943 0.0696572 -0.993602
-0.206704 -0.222392 0.453442 0.100657 -0.381785 0.918754
0.197372 -0.106228 0.433102 -0.803473 -0.046984 -0.593484
0.231165 0.183004 0.638973 -0.291484 -0.878087 0.379473
-0.00285534 0.0189029 0.0495242 -0.18376 0.982971 0
0.205839 0.20364 0.674458 0.852577 -0.483961 0.197217
-0.0482715 0.0514652 0.380048 -0.0945189 0.0616211 -0.993614
0.101108 -0.182507 0.454763 -0.000647792 0.063087 0.998008
-0.196248 0.218615 0.732369 0.206978 0.805672 -0.555025
-0.17739 0.103312 0.396283 -0.582646 -0.812726 0
0.0918023 -0.0232795 0.444434 -0.000946421 0.0921969 0.99574
0.00372686 0.200879 0.434885 -0.0628819 -0.830519 0.553429
-0.139975 -0.0874522 0.448597 -0.000648018 0.0630873 0.998008
0.000775119 0.0262062 0.357275 0.16061 0.969401 -0.185648
0.157541 0.157436 0.427902 -0.000902413 0.0878851 0.99613
-0.215707 0.154991 0.428962 -0.0102061 0.999009 -0.0433243
-0.0752161 0.0300631 0.400969 -0.582646 -0.812726 0
0.00210065 0.190591 0.651789 0.00995777 -0.969279 0.245762
-0.034685 -0.0425858 0.44583 -0.000648018 0.0630873 0.998008
-0.285925 -0.0242728 0.0150616 -0.0801943 -0.000823424 0.996779
-0.0863691 0.198367 0.680186 0.00975465 -0.948631 0.316234
0.118763 0.171669 0.562735 0.0101251 -0.98557 0.168966
0.138851 -0.134959 0.419704 -0.627399 -0.778698 0
-0.0730799 0.167393 0.549284 0.0101256 -0.985572 0.168954
0.186509 -0.169514 0.433861 0.321581 -0.00675313 -0.946858
0.208491 0.125577 0.414271 -0.000557506 0.0554647 -0.99846
-0.1942 0.163275 0.442056 0.211973 -0.852456 0.477898
-0.152042 -0.045597 0.445944 -0.000648018 0.0630873 0.998008
-0.215094 0.17226 0.516795 0.216125 0.888175 -0.405505
-0.197973 0.194277 0.663059 0.312691 0.903981 -0.291619
0.0261356 -0.317066 0.0125547 0.000823308 -0.0801945 0.996779
-0.220917 0.163042 0.484371 0.988353 -0.148681 -0.0324263
0.184707 0.177379 0.41701 0.157644 0.866246 -0.474096
-0.00426346 0.154398 0.428023 -0.00090242 0.0878851 0.99613
-0.00635225 -0.166455 0.0271316 0.00082431 -0.0801953 0.996779
0.114497 0.105239 0.432556 -0.000947169 0.092196 0.99574
-0.0170088 -0.244655 0.431832 0.0083511 -0.813696 0.58123
0.195663 0.183796 0.56466 -0.181881 0.961961 -0.203839
-0.0269273 0.0209581 0.0241539 0 0 -1
-0.0689005 -0.02211 0.444173 -0.000947025 0.0921969 0.99574
0.0598682 -0.000975154 0.0357026 0.0801951 0.000824276 0.996779
0.0868894 -0.248998 0.420936 0.00944265 -0.919138 0.393823
-0.0742517 -0.00201603 0.0218917 0.0801948 0.000823844 -0.996779
0.0560904 0.140821 0.429276 -0.000902413 0.0878851 0.99613
0.0106412 -0.0763123 0.447991 -0.000647792 0.063087 0.998008
0.21167 0.22426 0.701878 -0.123176 0.954017 -0.273275
-0.184374 0.240933 0.741935 0.812189 -0.582777 -0.0268482
-0.225543 -0.000425637 0.424378 -0.552567 -0.0824771 -0.829378
0.0175206 0.00769343 0.203505 0.936134 0.351643 0
0.233555 0.00423305 0.00907338 -0.0801947 -0.000823096 -0.996779
-0.226893 0.200161 0.626109 -0.202117 0.960252 -0.192523
0.16707 0.00676835 0.0144202 -0.0801947 -0.000823096 -0.996779
0.21647 0.151691 0.427933 0.785285 0.0848469 0.613293
0.0242792 -0.199686 0.455799 -0.000647792 0.063087 0.998008
-0.0187982 -0.0761212 0.0319767 -0.000823664 0.0801945 -0.996779
0.151045 -0.0702162 0.447697 -0.000647604 0.0630873 0.998008
0.0290796 0.172512 0.573027 0.0101207 -0.985572 0.168954
0.0165048 0.0995393 0.0198726 0.000823812 -0.0801946 -0.996779
-0.00451485 0.291843 0.0170346 -0.000822936 0.080195 0.996779
-0.226618 0.0318985 0.429502 -0.995137 -0.00109435 0.098495
-0.240402 -0.0220179 0.00850772 0.080195 0.000824933 -0.996779
0.0149134 -0.0119456 0.0850025 0.772645 -0.634839 0
-0.201876 0.135956 0.415082 -0.000571798 0.0554645 -0.998461
0.117658 0.182987 0.617118 0.00995777 -0.969279 0.245762
-0.0221268 0.088481 0.0207303 0.000826852 -0.0801951 -0.996779
0.233073 0.181279 0.48934 0.0936747 0.990888 -0.0967739
-0.0740455 0.0447776 0.437975 -0.000947025 0.0921969 0.99574
0.0892325 0.189015 0.423538 -0.167699 -0.972484 0.161718
-0.205846 0.00551949 0.0215289 -0.0801944 -0.000823663 0.996779
-0.191485 0.18786 0.64851 0.314832 0.913377 -0.258114
-0.0368882 0.00389789 0.0343391 0 0 -1
0.244415 0.13513 0.624217 -0.805018 0.0376284 0.592056
-0.138323 -0.00188202 0.00759763 0.039807 0.000408503 -0.999207
-0.0163225 -0.0167217 0.0367643 0 0 1
0.20862 -0.129554 0.434316 0.000591413 -0.0573714 -0.998353
0.199344 -0.0831214 0.44685 -0.156224 0.0607324 0.985853
-0.219136 -0.0378626 0.427506 0.141833 -0.055346 -0.988342
0.282165 -0.000632128 0.636207 0.552611 -0.101481 -0.827238
0.231356 0.191093 0.605736 0.960518 0.277661 0.0175801
-0.173162 0.167257 0.554489 0.0101252 -0.985572 0.168955
0.206218 -0.194119 0.438025 0.000591413 -0.0573714 -0.998353
-0.105301 -0.0641877 0.447149 -0.000648018 0.0630873 0.998008
0.0534072 -0.0194782 0.405188 0.669814 0.742529 0
-0.0128717 -0.00114795 0.364733 -0.998655 -0.0100017 0.0508666
0.220387 0.191886 0.559714 -0.374827 0.909942 -0.177509
-0.122297 0.181168 0.619665 0.00996703 -0.969285 0.245738
-0.183232 -0.0037883 0.0257735 -0.0801949 -0.000824059 0.996779
-0.0094928 -0.0266522 0.367318 -0.482668 -0.855898 -0.185661
0.143111 -0.191077 0.455331 -0.000647792 0.063087 0.998008
0.0850227 -0.00506776 0.0336822 0.0801951 0.000824276 0.996779
0.175193 0.171401 0.557791 0.0101251 -0.98557 0.168966
0.0804438 0.0587112 0.436831 -0.000946421 0.0921969 0.99574
0.139751 0.195485 0.664572 0.00973954 -0.948631 0.316234
-0.21157 -0.0766523 0.449705 0.0988356 0.0637968 0.993057
-0.211817 -0.245403 0.436269 0.152139 -0.837702 0.524509
-0.0233329 0.180716 0.613874 0.00995778 -0.969279 0.245762
0.145279 0.0574643 0.437009 -0.000947169 0.092196 0.99574
-0.0186524 -0.309187 0.0132255 0.000823662 -0.0801945 0.996779
0.0606785 0.205974 0.434527 0.125253 0.873728 0.470012
-0.0342332 0.19816 0.677956 0.00975465 -0.948631 0.316234
0.00852745 -0.0104958 0.300793 0.509034 -0.860747 0
0.0542917 0.018077 0.378478 0.0944835 0.0604245 -0.993691
0.122687 0.00153977 0.0244673 0.0801949 0.000822631 0.996779
0.00851806 0.062663 0.0354839 -0.000824309 0.0801952 0.996779
-0.175961 0.104081 0.432387 -0.000946683 0.0921965 0.99574
0.00235957 0.16867 0.552215 0.0101207 -0.985572 0.168954
0.0311274 -0.00414962 0.0367643 0 0 1
-0.0410483 0.0120513 0.441036 -0.000947025 0.0921969 0.99574
-0.246488 0.000248374 0.0182547 -0.0801943 -0.000823424 0.996779
-0.0844409 -0.0464078 0.446039 -0.000648018 0.0630873 0.998008
-0.069658 -0.106801 0.449866 -0.000647793 0.063087 0.998008
-0.0572192 0.138416 0.429385 -0.00090242 0.0878851 0.99613
-0.127785 -0.225004 0.451511 0.00424719 -0.413835 0.910342
-0.218607 0.132279 0.406452 -0.569611 -0.821914 0
0.147444 0.260513 0.75359 0.00745585 -0.100708 0.994888
0.216055 -0.171967 0.455243 0.706295 0.0518822 0.706014
-0.193203 0.0904554 0.433632 -0.000946683 0.0921965 0.99574
0.0342817 -0.0261342 0.404162 -0.121336 0.110664 0.986423
0.144667 0.115605 0.405733 -0.0351588 -0.0239657 0.999094
-0.181057 0.208188 0.712561 0.00974378 -0.948622 0.316261
0.019773 0.251714 0.0125914 0.984879 -0.00382398 -0.173199
-0.223204 0.0771959 0.416461 0.141825 -0.0898237 -0.985808
0.0376393 0.210473 0.712677 0.00973954 -0.948631 0.316234
0.0205489 0.098219 0.433116 -0.000946421 0.0921969 0.99574
0.00862127 -0.00806261 0.386409 0.771513 -0.634179 0.0508456
-0.00209671 0.216194 0.0169438 -0.000826804 0.080194 0.996779
0.00049741 -0.234338 0.0216644 0.000822935 -0.0801951 0.996779
-0.000942336 -0.113019 0.0314263 0.00082431 -0.0801953 0.996779
-0.0243517 -0.218667 0.453909 0.00424905 -0.413802 0.910357
0.0716799 0.177573 0.59763 0.00995777 -0.969279 0.245762
0.005981 0.0271932 0.0261909 0 0 1
-0.267321 0.0915856 0.632872 -0.100405 0.0946389 0.990435
-0.197487 0.186224 0.603755 0.990428 -0.136757 -0.0187085
0.227122 -0.0882102 0.431429 0.554507 -0.042069 -0.831115
0.00544101 0.180592 0.00591671 0.000411228 -0.0398069 -0.999207
-0.0354781 0.0780753 0.434928 -0.000947025 0.0921969 0.99574
0.191737 0.198758 0.63174 -0.987425 -0.156973 -0.0187402
-0.104497 -0.130818 0.451362 -0.000647793 0.063087 0.998008
0.0855291 0.264334 0.744513 -0.139971 -0.885918 -0.44222
0.22683 -0.206711 0.437281 0.554367 -0.0497092 -0.830786
-0.0560446 0.0830448 0.434449 -0.000946683 0.0921965 0.99574
-0.117808 0.00206508 0.00841653 0.039807 0.000408306 -0.999207
-0.00523763 -0.280602 0.00485017 0 0 1
0.0274878 0.0266485 0.398985 0.759458 0.650557 0
0.182292 0.198381 0.671949 0.00973869 -0.948632 0.316232
-0.160765 0.140272 0.429128 -0.000902413 0.0878851 0.99613
0.221725 0.16555 0.52272 -0.320269 -0.941883 0.101409
0.175395 -0.237774 0.425257 -0.00880853 0.85742 -0.514542
-0.165671 -0.156402 0.435942 0.227199 0.00943062 0.973803
-0.128002 0.0425116 0.438133 -0.000946683 0.0921965 0.99574
0.209126 0.0224579 0.0110237 -0.0801947 -0.000823096 -0.996779
-0.0134002 0.182081 0.0258581 -0.000822936 0.080195 0.996779
0.203455 -0.0507179 0.429783 0.000590795 -0.0573714 -0.998353
-0.239922 0.16846 0.418893 -0.338234 0.936356 -0.0940019
0.0756383 -0.0699007 0.447628 -0.000647604 0.0630873 0.998008
-0.0255262 0.23845 0.0188801 0.000823293 -0.0801944 -0.996779
0.27195 0.00206322 0.0186373 0.0801949 0.000825932 0.996779
0.019131 -0.00229012 0.136637 0.999948 0.0101659 0
0.217132 -0.0280813 0.445903 -0.141814 0.0898176 0.98581
-0.0110487 0.131325 0.0123805 -0.999947 -0.0102672 0
-0.110275 0.195281 0.415664 -0.183163 0.932523 -0.311212
-0.178593 -0.200558 0.455722 -0.000647793 0.063087 0.998008
0.0819312 0.00374569 0.441922 -0.000946421 0.0921969 0.99574
-0.033251 0.195026 0.416159 0.0666787 -0.94651 -0.31571
0.0439282 0.284065 0.750803 0.0304858 0.697091 -0.716334
0.0149654 -0.306606 0.00318721 -0.000824982 0.0801949 -0.996779
0.125357 0.0763899 0.388787 0.0926312 0.0631432 -0.993696
-0.110628 0.0794564 0.434729 -0.000946683 0.0921965 0.99574
0.153377 -0.0246689 0.444621 -0.000946421 0.0921969 0.99574
-0.00104171 -0.019194 0.27206 -0.163396 -0.986561 0
0.0229997 0.228665 0.743412 0.00641192 -0.624603 0.780917
0.00583785 -0.096328 0.0303306 0.000823662 -0.0801945 0.996779
0.203984 0.00413311 0.425333 0.000926712 -0.0921958 -0.99574
-0.205446 -0.119657 0.451859 0.0988356 0.0637968 0.993057
0.0322299 -0.14509 0.452353 -0.000647792 0.063087 0.998008
-0.19564 0.0411334 0.438317 0.098537 0.0927609 0.990801
0.0548594 0.263954 0.75216 -0.0421741 -0.979725 0.195859
-0.00826477 0.0284703 0.404018 0 0 1
0.120485 0.0548509 0.437227 -0.000947169 0.092196 0.99574
0.00705652 0.197612 0.0052393 0.000411228 -0.0398069 -0.999207
-0.198401 0.166433 0.549235 0.366996 0.914148 -0.172182
-0.22393 -0.203577 0.437662 -0.553509 -0.0534462 -0.831126
0.192877 0.0112339 0.00542048 -0.039807 -0.000408502 -0.999207
-0.0589769 -0.0165681 0.0357597 -0.0801951 -0.000824285 0.996779
0.130796 0.218312 0.730708 0.00830194 -0.80868 0.58819
0.294443 0.0182952 0.0168142 0.0801949 0.000825932 0.996779
0.0314937 -0.219047 0.453476 0.00424901 -0.413802 0.910357
-0.0946305 0.00315019 0.0304745 0.0801944 0.000823663 -0.996779
-0.165092 -0.00980713 0.00652794 0.039807 0.000408503 -0.999207
-0.167626 -0.238587 0.431853 -0.00168878 0.16455 0.986367
0.142432 0.204469 0.69144 0.00973869 -0.948632 0.316232
0.101287 -0.0642558 0.417942 -0.194157 0.047971 0.979797
0.00488679 0.309913 0.0131558 0.000823293 -0.0801944 -0.996779
-0.0145136 -0.022986 0.444306 -0.000947025 0.0921969 0.99574
0.00121794 0.271573 0.00601916 0.000826852 -0.0801951 -0.996779
-0.000715084 -0.0484612 0.023969 -0.00082382 0.0801947 -0.996779
0.120933 -0.0857983 0.42289 -0.194157 0.047971 0.979797
0.0557754 -0.123509 0.451004 -0.000647792 0.063087 0.998008
-0.00104316 -0.0368888 0.382704 -0.135512 -0.817735 -0.559416
0.274848 0.158399 0.626404 0.35057 0.0396586 0.935696
-0.247868 0.00702766 0.00323715 0.039807 0.000408306 -0.999207
-0.0427014 -0.0108937 0.400776 -0.684917 0.728621 0
-0.219927 0.17029 0.578478 0.786545 -0.61608 0.0423278
0.0984339 -0.00643288 0.0261909 0 0 1
0.257751 0.00109995 0.641405 -0.10052 0.0934868 0.990533
-0.22345 0.170612 0.436728 0.100962 0.989848 -0.100039
-0.000667263 -0.19783 0.0221698 -0.000823664 0.0801945 -0.996779
-0.0123905 0.205404 0.411652 -0.0414717 0.554119 -0.831404
-0.0474652 -0.245227 0.431469 0.0083511 -0.813696 0.58123
0.0117381 -0.21884 0.00438594 -0.000411426 0.0398067 -0.999207
0.324417 0.00721803 0.0119788 0.0802167 0.000824942 0.996777
-0.0264762 -0.00487865 0.390355 -0.582646 -0.812726 0
0.203603 0.191185 0.592306 -0.18225 0.956434 -0.228075
0.00821523 -0.237437 0.42868 -0.00880859 0.85742 -0.514543
-0.169961 -0.109438 0.449968 -0.000648018 0.0630873 0.998008
-0.131046 0.191207 0.418666 -0.279555 0.958646 -0.0533477
0.0800083 0.0706216 0.384288 0.0932365 0.0635439 -0.993614
-0.270763 0.0164919 0.630205 -0.0125899 -0.125012 -0.992075
0.209077 -0.119167 0.452215 -0.100118 0.0617541 0.993057
-0.0292295 0.0579135 0.436801 -0.000947025 0.0921969 0.99574
0.261488 0.0385703 0.627824 -0.0130435 -0.129709 -0.991466
0.09997 0.216102 0.727644 0.00973869 -0.948632 0.316232
-0.180727 0.162839 0.529169 0.0101256 -0.985572 0.168954
-0.0782895 -0.0663245 0.400876 -0.174549 -0.166283 -0.970506
-0.0241981 -0.197353 0.45562 -0.000647793 0.063087 0.998008
-0.12398 0.275142 0.752008 -0.162207 0.986757 0
0.189812 -0.00698711 0.443018 -0.000947169 0.092196 0.99574
0.0811412 -0.235927 0.429948 -0.00880853 0.85742 -0.514542
-0.00232747 -0.0189811 0.0548784 -0.163396 -0.986561 0
0.169892 -0.130299 0.435109 -0.22342 0.055201 0.973158
0.216299 -0.239593 0.43929 0.688363 -0.5885 0.424057
0.0278214 -0.000396726 0.366984 0.982553 0.010028 -0.185714
-0.116564 0.0876266 0.38928 -0.548318 -0.83627 0
-0.057523 0.264691 0.744426 0.0538536 -0.893117 -0.446589
-0.198574 0.18081 0.58491 0.990545 -0.136179 -0.0166293
0.237925 -0.00467459 0.0213803 0.0801949 0.000825932 0.996779
-0.0133262 -0.24237 0.0083787 -0.00082382 0.0801947 -0.996779
0.158066 0.0166266 0.440802 -0.000947169 0.092196 0.99574
-0.198204 -0.00782367 0.0221326 -0.0801943 -0.000823424 0.996779
0.135295 -0.113991 0.427116 -0.194157 0.047971 0.979797
0.046229 -0.000951258 0.0257432 0.999141 0.0102665 -0.040141
-0.0228954 0.294468 0.0168083 -0.000822936 0.080195 0.996779
-0.122733 0.00907422 0.0306515 -0.0801951 -0.000824285 0.996779
0.205562 0.044088 0.439509 -0.100481 0.0907083 0.990795
0.201432 0.176242 0.424458 0.168758 0.985658 0
-0.0850922 -0.192599 0.45528 -0.000647793 0.063087 0.998008
-0.0943072 0.167096 0.548827 0.0101256 -0.985572 0.168954
0.0475522 0.0176648 0.034245 -0.0801943 -0.000823654 -0.996779
-0.209901 -0.00181283 0.440563 0.100425 -0.0907193 -0.9908
0.0129337 0.0142698 0.0867906 0.759324 0.650712 0
0.141945 0.169591 0.549227 0.0101251 -0.98557 0.168966
0.15775 0.17711 0.592136 0.0101251 -0.98557 0.168966
-0.278069 0.051085 0.626715 -0.347267 -0.124404 -0.929478
-0.312991 0.00756511 0.0153432 -0.0801949 -0.000824059 0.996779
-0.0620081 0.00504675 0.0228826 0.0801948 0.000823844 -0.996779
-0.207725 -0.11927 0.433479 0.000591492 -0.0573716 -0.998353
-0.0441973 0.0403795 0.400386 0.0356442 -0.0232377 0.999094
0.00088325 -0.308107 0.00485017 0 0 1
-0.0813537 0.264847 0.743777 0.0267271 -0.242136 -0.969874
-0.0924674 0.0374688 0.438634 -0.000947025 0.0921969 0.99574
0.0758108 0.0376812 0.381716 0.0944835 0.0604245 -0.993691
-0.0226404 -0.00135659 0.0116404 0 0 -1
-0.106232 -0.0385305 0.445527 -0.000648018 0.0630873 0.998008
-0.0212024 0.0389938 0.43856 -0.000947025 0.0921969 0.99574
-0.0674935 0.213273 0.724317 0.00974378 -0.948622 0.316261
0.136489 0.174732 0.579541 0.0101251 -0.98557 0.168966
0.0081765 -0.0381732 0.0367643 0 0 1
0.166315 0.114885 0.406448 -0.033291 -0.0259084 0.99911
0.038634 0.169244 0.553387 0.0101207 -0.985572 0.168954
0.116393 0.202877 0.687465 0.00973869 -0.948632 0.316232
-0.00462456 0.266698 0.0190575 -0.000822936 0.080195 0.996779
-0.0344446 -0.139963 0.451985 -0.000647793 0.063087 0.998008
0.173408 -0.184343 0.454926 -0.000647792 0.063087 0.998008
0.0135748 0.197473 0.674421 0.00973954 -0.948631 0.316234
-0.0290085 -0.00459051 0.371578 -0.828845 -0.00840436 -0.559416
-0.128794 0.172133 0.580275 0.0101252 -0.985572 0.168955
0.26813 0.124668 0.616853 0.0910967 -0.128129 -0.987565
-0.0683995 -0.0738528 0.413737 0.119036 0.113135 0.986423
-0.0457602 -0.0137691 0.382137 -0.684917 0.728621 0
-0.0177258 0.0162689 0.440668 -0.000947025 0.0921969 0.99574
0.00641904 -0.0182372 0.127255 0.183746 -0.982974 0
0.234804 0.17433 0.543176 0.985803 -0.137976 0.0956854
-0.224828 0.216487 0.697683 -0.625606 0.762919 -0.16301
-0.198355 0.0659652 0.419225 0.000936764 -0.0921968 -0.99574
-0.102819 -0.109864 0.418186 0.643256 -0.765651 0
0.127717 -0.138701 0.452011 -0.000647604 0.0630873 0.998008
-0.212455 0.150071 0.403325 -0.169179 0.026434 -0.985231
-0.0147687 -0.0121284 0.227648 -0.759416 -0.650606 0
