-0.0780399 0.109635 0.0982946 -0.0558003 0.0766841 0.995493
-0.0303592 -0.22047 0.397262 0.000334625 -1 0
0.0426037 0.129331 0.411638 -2.53695e-05 0.0921541 0.995745
0.0109633 0.0167329 0.0985219 0.997532 0.000195763 -0.0702164
-0.120428 -0.218201 0.406072 0.000248171 -0.919467 0.393167
0.130903 0.00854335 0.422819 -3.07356e-05 0.0921476 0.995745
-0.0214906 0.0154024 0.0840024 -0.936979 -0.342336 -0.0698309
0.0268043 0.0298864 0.364527 0.778821 0.283859 -0.559341
-0.149509 -0.121966 0.409297 0.635597 -0.772021 0
0.254721 0.0900624 0.605207 0.0902235 0.0952693 0.991354
-0.158097 0.199722 0.619004 0.000329054 -0.969374 0.245591
-0.208216 0.211652 0.607578 0.716996 0.667495 -0.200918
0.07257 -0.198683 0.42914 0.000138346 -0.413507 0.910501
-0.0386218 0.0463128 0.0913 -0.808844 -0.588023 0
-0.0108108 0.0272864 0.385432 0 0 1
-0.194234 0.26502 0.710619 0.00857443 0.279574 -0.960086
-0.186999 0.194278 0.597554 0.000329054 -0.969374 0.245591
0.0867865 0.225395 0.6969 0.000248152 -0.808863 0.587997
-0.00490827 0.0313616 0.261881 0.174735 0.984616 0
-0.0133315 -0.106576 0.0974368 1.36452e-05 -0.0948326 0.995493
0.175979 -0.0198085 0.425241 -2.10446e-05 0.0630931 0.998008
0.121889 0.113133 0.41314 -2.53695e-05 0.0921541 0.995745
0.00440018 -0.149103 0.0854539 1 0.000292502 0
-0.0274589 0.0505155 0.41893 -2.482e-05 0.0921476 0.995745
-0.0183762 0.0305819 0.156656 -0.765818 0.643058 0
0.0598686 -0.0299679 0.392255 -0.12019 0.111825 0.986433
-0.165804 -0.20747 0.410403 -0.000226683 0.857286 -0.514841
0.20728 0.183392 0.445579 -0.936466 0.341961 -0.0780726
-0.0159726 -0.169808 0.0642938 -1 -0.000265102 0
0.0480218 -0.217949 0.406555 0.000248095 -0.919467 0.393167
0.0739436 0.14578 0.0882557 -0.809195 0.58754 0
0.00813407 0.126366 0.411912 -2.53695e-05 0.0921541 0.995745
0.202945 -0.15046 0.415759 -0.141272 -0.0568516 -0.988337
-0.158607 0.11312 0.375353 -0.0933093 0.0621614 -0.993695
-0.0451338 0.0899302 0.0693921 0.808848 0.588018 0
-0.064337 -0.163981 0.434352 -2.11162e-05 0.0630977 0.998007
0.19754 0.186595 0.496373 -0.264151 0.897086 -0.354205
0.194411 0.0863318 0.414111 -0.0992886 -0.0918117 -0.990814
-0.0978355 -0.116857 0.431372 -2.11162e-05 0.0630977 0.998007
-0.0549382 0.10069 0.414286 -2.98366e-05 0.0921537 0.995745
0.103011 -0.0968183 0.430108 -2.10446e-05 0.0630931 0.998008
-0.0115017 -0.297822 0.0210602 -0.00022937 1 0.000275899
0.172312 0.183259 0.54797 0.000271342 -0.985635 0.168888
-0.303134 -0.102169 0.0547356 0 0 1
-0.0420622 -0.0107949 0.369679 -0.176274 -0.164497 -0.970499
0.173246 0.223005 0.690814 0.0360649 -0.955279 0.293498
0.191192 0.0908105 0.399283 3.72203e-05 -0.0922327 -0.995737
0.0266569 0.0359783 0.369819 0.939777 0.341789 0
0.133246 0.00651293 0.366189 -0.0730556 -0.104429 0.991845
-0.221995 0.122881 0.402941 -0.995069 0.00886543 0.0987878
0.170776 0.257241 0.0403534 -0.58758 -0.809166 2.49867e-05
-0.0558164 0.214308 0.66564 0.000322038 -0.948697 0.316188
-0.0159991 -0.0695803 0.0738892 -1 -0.000265102 0
-0.0576456 -0.120619 0.43161 -2.11162e-05 0.0630977 0.998007
0.142436 -0.040296 0.0870187 -0.308738 -0.951147 -5.04503e-05
-0.161991 0.0615375 0.417907 -2.98366e-05 0.0921537 0.995745
-0.165824 -0.215247 0.411607 0.000211858 -0.813782 0.581171
0.0455607 -0.0182429 0.389183 -0.12019 0.111825 0.986433
0.156588 0.218115 0.676866 0.000291043 -0.948669 0.31627
-0.0616473 0.011117 0.0917011 -0.309286 0.950969 0
0.0643042 0.0978086 0.0711045 0.809189 -0.587549 0
-0.0144054 0.00889655 0.279861 -0.765269 -0.643711 0
0.160706 -0.0318969 0.426005 -2.10446e-05 0.0630931 0.998008
-0.192219 -0.189386 0.421915 0.857034 -0.0338764 -0.514145
0.206502 0.169669 0.394508 -0.0386598 -0.136054 -0.989947
0.21065 0.075507 0.403537 0.995164 0.00940789 0.09778
-0.0040241 -0.294107 0.0667458 0 0 1
0.269152 -0.0814262 0.0634384 -0.308738 -0.951147 -5.04503e-05
-0.255298 0.130362 0.601581 0.0827168 0.0958004 0.991958
0.188171 0.131541 0.412316 -0.0994295 0.091655 0.990814
0.177257 0.200411 0.619519 0.180608 -0.94964 0.256056
-0.0493075 0.225997 0.697784 0.000238924 -0.808695 0.588228
-0.261701 0.0897022 0.594473 -0.0898346 -0.129081 -0.987556
0.184458 -0.120294 0.431098 -0.099281 -0.0628151 -0.993075
0.018901 0.282461 0.722276 0.00177042 -0.163395 0.986559
0.0771308 0.0564051 0.372129 0.591207 -0.80652 0
-0.185268 0.2781 0.0320195 -0.587946 0.8089 -0.000409538
-0.00904234 0.0355885 0.217814 -0.172679 0.984978 0
-0.179068 0.268891 0.0530978 0.897974 0.440049 0
0.050998 0.0149416 0.36132 0.000289231 -0.984306 0.17647
0.134672 0.131576 0.375881 -0.53953 0.841966 0
-0.211079 0.0372707 0.419723 -0.706698 -0.0653912 -0.704487
0.155519 0.0948363 0.414834 -2.53695e-05 0.0921541 0.995745
0.129538 0.283655 0.0251955 -0.797111 0.578449 -0.173235
0.0865922 -0.201969 0.42681 0.000222565 -0.665231 0.746637
0.180034 -0.150076 0.417171 0.321595 -0.010002 -0.946824
0.167253 0.263453 0.0575907 -0.969452 -0.24528 0
-0.0159972 -0.076763 0.0825768 -1 -0.000265102 0
-0.0866425 -0.0202546 0.425264 -1.6992e-05 0.063093 0.998008
-0.151481 -0.0335712 0.426105 -1.6992e-05 0.063093 0.998008
-0.0220793 0.033316 0.106118 0 0 -1
-0.0105212 -0.0125341 0.106118 0 0 -1
0.218045 0.18347 0.403427 0.328295 0.9399 -0.0938616
-0.161228 -0.0976602 0.404231 -0.316904 -0.0792009 -0.945145
0.19769 0.0642442 0.419497 -0.0994295 0.091655 0.990814
0.123099 0.220853 0.685111 0.000291043 -0.948669 0.31627
0.0997802 0.0159725 0.359829 -1 0.000883316 0
0.0859372 -0.0219569 0.0858511 -0.30873 -0.95115 0
0.0964558 0.179579 0.526621 0.000298708 -0.985622 0.168965
0.168206 0.26194 0.0297337 -0.829417 -0.558631 0
-0.17414 0.00187363 0.423428 -2.98366e-05 0.0921537 0.995745
-0.00475945 0.180369 0.531405 0.000298708 -0.985622 0.168965
-0.0159878 -0.11239 0.0771478 -1 -0.000265102 0
-0.163176 0.0948225 0.414826 -2.98366e-05 0.0921537 0.995745
0.216699 0.187931 0.449443 0.105377 0.989723 -0.0966654
-0.119621 0.196471 0.606121 0.000329054 -0.969374 0.245591
0.183809 0.152633 0.409109 -0.0995703 -0.0875696 -0.99117
-0.13834 -0.21608 0.41043 0.000211858 -0.813782 0.581171
-0.10391 0.239475 0.711802 0.000168473 -0.624364 0.781133
-0.124395 0.125924 0.411949 -2.98366e-05 0.0921537 0.995745
-0.0448112 0.211117 0.656053 0.000322038 -0.948697 0.316188
0.00475678 0.0584575 0.418196 -3.07356e-05 0.0921476 0.995745
-0.203006 0.18015 0.509859 0.333108 0.924402 -0.185798
-0.0770829 -0.0028733 0.42387 -2.482e-05 0.0921476 0.995745
0.148474 0.299001 0.0453937 -0.5197 0.37815 0.766104
0.010987 0.00596879 0.106118 0 0 -1
-0.22196 -0.183521 0.424899 -0.995975 0.000134182 0.0896283
0.0716708 0.107954 0.0810656 0.809189 -0.587549 0
0.186067 -0.0473954 0.425733 -0.141425 0.0640366 0.987876
0.188776 -0.13245 0.433291 -0.099309 0.0627475 0.993076
0.0306542 0.0207802 0.369748 1 0.000924606 0
-0.137564 0.232394 0.706152 0.000181786 -0.624211 0.781256
-0.303533 -0.0728175 0.0550546 -0.927831 0.373 0
-0.0252659 -0.00423755 0.3837 0.120125 0.111909 0.986431
-0.264167 0.146981 0.58721 -0.0898346 -0.129081 -0.987556
-0.15317 -0.161123 0.434169 -2.11162e-05 0.0630977 0.998007
-0.00191823 -0.284098 0.0273737 0 0 -1
0.0462281 0.0123641 0.0741621 0.308734 0.951148 0
-0.0164338 0.011308 0.319853 -0.765269 -0.643711 0
-0.182901 0.154807 0.382522 0.535452 0.844565 0
0.2773 -0.0287042 0.0177553 -0.347323 0.846624 -0.403231
0.0053836 -0.118247 0.431462 -1.70244e-05 0.0630977 0.998007
-0.306173 -0.0779212 0.0263625 -0.950957 -0.309322 -8.08303e-05
0.295568 -0.074632 0.0443874 0.951142 -0.308754 -0.000737947
0.0270763 0.034825 0.374065 0.939777 0.341789 0
-0.0840916 0.0916106 0.37001 0.539076 0.842257 0
0.00479327 0.180445 0.531835 0.000298708 -0.985622 0.168965
0.249856 0.0581505 0.608748 0.0993752 0.0956592 0.990441
-0.0445337 0.0353781 0.381335 0.0353984 -0.0235839 0.999095
0.316332 -0.055653 0.0404615 0.951253 -0.308412 0.000221502
-0.061726 0.270346 0.718863 0.0150579 -0.447755 0.894029
-0.0825478 0.202832 0.631181 0.000329054 -0.969374 0.245591
-0.0159471 -0.256855 0.0678039 -1 -0.000334717 0.000395751
0.0512146 -0.0406361 0.374484 0.64482 0.764335 0
0.19826 0.193298 0.527084 -0.253828 0.950152 -0.181057
0.0043617 -0.0175481 0.0857098 1 0.000292502 0
0.121157 0.0886779 0.371818 0.591207 -0.80652 0
-0.296623 -0.0675466 0.0204151 -0.307472 0.94674 -0.0956302
0.113778 0.203895 0.4068 0.269384 0.961543 -0.0535469
-0.149111 0.0434716 0.419579 -2.98366e-05 0.0921537 0.995745
0.0982782 0.153182 0.4095 -2.42166e-05 0.0879691 0.996123
0.1842 0.158631 0.409502 -0.0994281 0.0874956 0.99119
-0.00524464 -0.11783 0.0963647 1.36452e-05 -0.0948326 0.995493
0.0548224 0.110871 0.413347 -2.53695e-05 0.0921541 0.995745
-0.0663891 0.079396 0.383148 0.0353984 -0.0235839 0.999095
0.161391 0.134605 0.382735 0.0881678 0.0706105 -0.9936
-0.297916 -0.12391 0.0191054 0.30372 -0.936915 -0.173043
-0.286388 -0.0788507 0.0404806 0.950928 0.309413 0.000249193
0.294013 -0.0709335 0.0604543 0.890553 0.45488 0
-0.0564424 -0.015756 0.424981 -1.6992e-05 0.063093 0.998008
-0.0129428 -0.288837 0.0516062 -0.984643 -0.174578 0
-0.0663397 -0.0376013 0.426361 -1.6992e-05 0.063093 0.998008
-0.0993433 0.179425 0.526065 0.000293474 -0.985622 0.168965
0.0677652 0.102575 0.070738 0.809189 -0.587549 0
-0.105109 -0.0798874 0.402005 0.120125 0.111909 0.986431
-0.189489 -0.215309 0.397156 -0.000251493 0.913807 -0.406149
0.0088868 0.0136623 0.0288797 0.940065 -0.340994 0
0.190472 -0.12919 0.415637 3.10277e-05 -0.0573737 -0.998353
0.0486822 0.274011 0.710004 -0.0242318 -0.242881 -0.969754
-0.216384 -0.169144 0.432306 -0.559605 0.0457088 0.827498
0.283406 -0.0689309 0.0449846 -0.208459 0.978031 0
0.0567695 0.0583831 0.418205 -3.07356e-05 0.0921476 0.995745
0.152301 0.281079 0.0537897 -0.264955 0.19226 0.944899
0.224749 0.175356 0.444956 0.944757 -0.314012 0.0939736
0.209108 0.223597 0.65805 0.718306 0.681143 -0.14171
0.137011 0.0362168 0.365751 -0.000362395 0.111377 0.993778
-0.0912772 0.0581502 0.379569 -0.590732 -0.806868 0
-0.026149 0.00294655 0.382992 0.120125 0.111909 0.986431
0.0965736 0.0820444 0.373308 0.0923454 0.0635194 -0.993699
0.0311383 -0.0571617 0.4276 -1.70244e-05 0.0630977 0.998007
0.178233 -0.00799565 0.424351 -2.53695e-05 0.0921541 0.995745
0.154967 0.295513 0.0514763 -0.276134 0.200636 0.939944
0.0850539 0.126386 0.0706748 0.809189 -0.587549 0
-0.300904 -0.0971122 0.00451824 0.950747 0.309968 -0.000179918
-0.0169878 0.0486616 0.36521 0.539076 0.842257 0
0.10828 -0.100482 0.43034 -2.10446e-05 0.0630931 0.998008
0.200325 -0.0441994 0.427567 -0.141425 0.0640366 0.987876
-0.0144816 0.0464275 0.35768 -0.093906 0.0625642 -0.993613
-0.284068 -0.0859872 0.0456005 0.950928 0.309413 0.000249193
-0.0390485 0.0468997 0.0675176 -0.808844 -0.588023 0
-0.168266 0.175196 0.501516 0.000293474 -0.985622 0.168965
-0.0159549 -0.222909 0.0769714 -1 -0.000334717 0.000395751
0.181011 -0.0442379 0.426941 -0.099309 0.0627475 0.993076
-0.208531 0.18143 0.50632 0.333108 0.924402 -0.185798
0.131651 -0.220425 0.400349 0.000269826 -1 0
0.156338 0.224559 0.0605796 0.809189 -0.587549 0
0.179558 0.0909501 0.402552 -0.995913 0.00805999 0.0899589
0.0333028 0.0666189 0.380116 -0.53953 0.841966 0
-0.0361381 -0.216734 0.409478 0.000211858 -0.813782 0.581171
-0.0671484 -0.0415463 0.426611 -1.6992e-05 0.063093 0.998008
-0.120707 0.23749 0.71022 0.000181786 -0.624211 0.781256
-0.211431 -0.107406 0.430737 -0.706909 -0.0448217 -0.705883
-0.192024 -0.00344569 0.419969 0.995869 0.00872202 0.090379
-0.0353466 -0.175412 0.434846 3.91432e-05 -0.116968 0.993136
0.00439587 -0.134373 0.0706472 1 0.000292502 0
-0.0555991 0.133457 0.411254 -2.98366e-05 0.0921537 0.995745
0.19712 0.103333 0.415823 -0.0994295 0.091655 0.990814
-0.21906 0.202786 0.634293 -0.632556 -0.719406 0.286927
0.311248 -0.0632947 0.0538394 0.561409 -0.182756 0.807106
-0.138453 0.18895 0.576467 0.000251085 -0.969321 0.245797
-0.17308 0.258452 0.707861 0.173719 -0.198356 -0.964612
-0.197696 0.111923 0.411926 0.140374 0.0913583 0.985875
0.0269153 -0.297812 0.0123076 -0.000352734 1 0.000324826
-0.201499 -0.192921 0.430644 0.0995837 0.411482 -0.905961
-0.185593 0.253742 0.70777 0.0336236 -0.111839 -0.993157
0.00140288 -0.210308 0.418446 0.000215073 -0.813373 0.581743
-0.0259527 -0.0107544 0.381425 -0.242126 -0.41949 0.874873
-0.163327 -0.109773 0.40595 -0.316924 -0.0791672 -0.945141
0.155509 -0.120288 0.431593 -2.10446e-05 0.0630931 0.998008
-0.221353 0.183921 0.415517 0.110899 0.988798 -0.0998964
-0.208342 -0.114694 0.431616 0.141313 0.0641233 0.987886
0.15915 0.204046 0.634662 0.00025862 -0.948697 0.316188
0.00744273 0.0102457 0.0331167 0.766272 -0.642516 0
0.105206 -0.00677967 0.0770941 0.308734 0.951148 0
0.261284 0.125422 0.591719 0.348984 -0.120706 -0.929322
-0.0578182 0.137041 0.410922 -2.98366e-05 0.0921537 0.995745
0.126048 -0.21801 0.390868 -0.000305717 0.913767 -0.406239
-0.0191296 -0.0824003 0.429195 -2.11162e-05 0.0630977 0.998007
-0.230314 0.194042 0.561079 -0.980126 0.196827 0.0247208
-0.0516752 0.23029 0.703687 0.000235521 -0.808723 0.58819
0.0880377 0.180952 0.534644 0.000271342 -0.985635 0.168888
-0.00225404 -0.272304 0.0044875 -0.642608 -0.00016629 -0.766195
0.172913 0.240452 0.703869 -0.928367 -0.371665 0.00052369
-0.289702 -0.0750055 0.0640802 0.950809 0.309779 0
0.0111316 0.0144884 0.145946 0.94009 -0.340927 0
0.186783 0.186947 0.561701 0.185155 -0.964933 0.186069
-0.206483 0.0928382 0.416547 0.0993445 0.091725 0.990816
0.0493559 0.204978 0.393276 -0.0153208 -0.238926 -0.970917
-0.178959 0.198412 0.613862 0.000329054 -0.969374 0.245591
0.0744049 -0.208083 0.412088 -5.51127e-05 0.164687 0.986346
-0.196674 0.270957 0.04298 0.587529 -0.809203 -0.000812049
0.035401 -0.00017279 0.423623 -3.07356e-05 0.0921476 0.995745
-0.161294 -0.210426 0.418355 0.000211858 -0.813782 0.581171
0.114673 -0.104585 0.4306 -2.10446e-05 0.0630931 0.998008
-0.183591 -0.148339 0.43336 -1.6992e-05 0.063093 0.998008
-0.202942 0.0432759 0.403676 5.97335e-05 -0.0922254 -0.995738
-0.184658 0.24719 0.0585443 -0.808844 -0.588023 0
0.149911 0.1959 0.603572 0.000264243 -0.969323 0.24579
0.00439865 -0.143899 0.0664411 1 0.000292502 0
0.197767 -0.0364497 0.426699 -0.141425 0.0640366 0.987876
-0.0908895 0.00160656 0.0910896 -0.309286 0.950969 0
-0.0364191 0.0205822 0.4217 -2.482e-05 0.0921476 0.995745
0.105842 -0.00698605 0.0653351 0.308734 0.951148 0
0.198527 0.0868613 0.414284 0.708201 -0.0649259 -0.703019
-0.191786 0.110196 0.413466 0.0992825 0.0917332 0.990822
-0.0473351 0.0105364 0.105362 -0.090174 -0.0293705 0.995493
0.0962495 0.0731225 0.384445 -0.0335348 -0.0255732 0.99911
0.15105 -0.128558 0.432116 -2.10446e-05 0.0630931 0.998008
-0.114187 0.206636 0.411431 -0.180092 0.982122 -0.0547955
0.146923 0.257395 0.0241539 -0.587633 -0.809127 -0.00119974
-0.148776 -0.0386574 0.0706437 0.30932 -0.950958 0
0.127408 0.0989688 0.414451 -2.53695e-05 0.0921541 0.995745
0.12645 0.0800707 0.4162 -2.53695e-05 0.0921541 0.995745
-0.194528 0.198087 0.566878 0.17198 0.958346 -0.228025
-0.301623 -0.0949034 0.0313256 0.951044 0.309056 0.000169264
0.138987 0.196146 0.604555 0.000264243 -0.969323 0.24579
-0.0195054 0.0321905 0.361874 -0.0923627 0.0634922 -0.993699
0.101524 -0.217516 0.408322 0.000264782 -0.813708 0.581273
0.210658 -0.0928645 0.416781 0.99503 0.0059777 0.0993981
-0.199973 0.176472 0.394935 -0.0258817 -0.00858704 -0.999628
-0.0704413 0.208491 0.418192 0.0755217 -0.242336 0.967249
0.0353035 -0.000687662 0.105063 0.0901921 -0.029309 0.995493
0.000562131 -0.0615136 0.427875 -1.70244e-05 0.0630977 0.998007
0.00436934 -0.0436779 0.0994467 1 0.000292502 0
0.112712 0.0824873 0.375535 0.591207 -0.80652 0
0.162363 0.143145 0.388456 -0.0335348 -0.0255732 0.99911
-0.142975 -0.116587 0.41039 0.635597 -0.772021 0
0.0408545 0.277655 0.721406 0.00304446 -0.179479 0.983757
0.0340804 -0.0174107 0.425087 -2.10446e-05 0.0630931 0.998008
-0.102993 -0.0561033 0.399569 0.193585 0.0500074 0.979808
-0.177155 -0.0264499 0.0688363 -0.309286 0.950969 0
-0.101744 0.167802 0.0834917 0.808878 0.587976 -0.000297137
-0.0990947 -0.0692427 0.389945 -0.176274 -0.164497 -0.970499
-0.161611 0.250156 0.0722789 0.808878 0.587976 -0.000297137
0.160411 -0.214377 0.398736 -0.000282268 0.85734 -0.51475
0.0451513 0.207061 0.41582 -0.071113 -0.83092 0.551829
-0.251746 0.0390572 0.601143 0.0825441 -0.125673 -0.988632
0.134588 0.282381 0.0221989 0.587317 0.809357 -0.000366575
-0.16219 0.195111 0.600809 0.000329054 -0.969374 0.245591
-0.154582 -0.198176 0.429401 0.000113817 -0.41344 0.910532
-0.00383843 0.00703208 0.385432 0 0 1
-0.018612 0.0201478 0.280838 -0.999999 -0.00133268 0
0.197852 0.206201 0.644214 -0.154632 -0.936557 0.314563
0.159907 0.289185 0.0278545 -0.587559 -0.809181 8.76537e-05
0.173133 -0.218724 0.404664 0.000248097 -0.919467 0.393167
0.152408 0.215259 0.668303 0.000291043 -0.948669 0.31627
0.0740866 0.178198 0.518604 0.000298708 -0.985622 0.168965
0.181837 0.0567591 0.402437 -0.000113869 -0.0922264 -0.995738
0.146581 0.298854 0.0339595 -0.587929 -0.808912 0.000792717
0.0970177 0.194731 0.59902 0.000264243 -0.969323 0.24579
-0.00207835 0.184817 0.557347 0.000298708 -0.985622 0.168965
-0.156224 -0.208463 0.421097 0.000222454 -0.664742 0.747073
0.137896 0.295217 0.0305021 -0.786305 0.571253 0.23536
0.133796 0.188111 0.419025 -0.277296 -0.828189 0.487042
-0.152892 0.187183 0.569512 0.000251085 -0.969321 0.245797
0.0825883 0.0870843 0.415549 -2.53695e-05 0.0921541 0.995745
-0.00799308 -0.275264 0.0454338 -0.643328 -0.000248566 0.765591
-0.130694 0.200484 0.419606 -0.0690506 0.43295 0.898769
-0.0467444 0.185288 0.56017 0.000255302 -0.985604 0.169072
0.174766 0.249943 0.0701682 0.809203 -0.587529 0.000141754
0.0374983 0.215993 0.398876 0.0639879 0.996042 -0.0617004
-0.0423278 0.0148113 0.367936 -1 -0.000924982 0
-0.00119814 0.0353382 0.140131 0.172124 0.985075 0
0.180494 -0.00830586 0.424275 -0.0992886 -0.0918117 -0.990814
-0.106995 -0.104802 0.430609 -2.11162e-05 0.0630977 0.998007
-0.118186 0.184084 0.55326 0.000255302 -0.985604 0.169072
-0.301532 -0.0951778 0.0206727 0.951044 0.309056 0.000169264
-0.012896 0.00471899 0.0406004 -0.499264 -0.86645 0
0.189901 -0.0163145 0.426065 -0.0992962 0.062749 0.993077
0.0379413 0.0150539 0.0740102 0.308734 0.951148 0
0.0996428 -0.21565 0.409209 0.000190606 -0.706407 0.707806
0.0203703 0.277012 0.709959 -0.0242318 -0.242881 -0.969754
0.243437 0.162838 0.585165 -0.082614 -0.115613 -0.989853
0.0768704 0.286883 0.719909 0.0459619 0.695956 0.716612
-0.0217711 0.216071 0.393851 -0.0572351 0.706512 -0.705383
-0.271176 0.0495047 0.600874 -0.314573 -0.120262 -0.941584
-0.213983 0.107298 0.413978 -0.712511 0.0645236 0.698688
-0.0608474 -0.0100567 0.0682922 0.30932 -0.950958 0
0.192928 -0.146882 0.431932 -0.099295 -0.0628134 -0.993073
-0.0495653 0.23036 0.703783 0.000235521 -0.808723 0.58819
0.0196345 -0.309655 0.00263822 0.277281 -0.589299 -0.758842
0.0943604 -0.215066 0.411755 0.000264782 -0.813708 0.581273
0.0463434 0.0123267 0.0724536 0.308734 0.951148 0
0.126384 0.191088 0.584619 0.000264243 -0.969323 0.24579
-0.204715 0.189716 0.563126 0.0485783 -0.985385 0.163268
0.013009 0.216242 0.671376 0.00025862 -0.948697 0.316188
0.0208953 -0.278361 0.0259666 -0.000344835 1 0.000797035
0.00440336 -0.160003 0.0777853 1 0.000292502 0
-0.0222313 -0.0803029 0.429062 -2.11162e-05 0.0630977 0.998007
0.162484 0.287311 0.0485844 -0.587929 -0.808912 0.000792717
-0.283971 -0.0862861 0.0522527 0.95088 0.309555 -0.00155506
-0.126884 0.203851 0.413986 -0.283431 0.958993 0
0.176946 0.174688 0.417072 -0.236498 -0.953744 0.185582
0.242966 -0.0514953 0.0630407 0.308734 0.951148 0
-0.206665 -0.11179 0.414631 3.87609e-05 -0.0573736 -0.998353
0.0762673 0.21743 0.674884 0.000291043 -0.948669 0.31627
-0.0662317 0.118953 0.0936237 0.808878 0.587976 -0.000297137
-0.148281 -0.0933691 0.429886 -1.6992e-05 0.063093 0.998008
0.233771 0.0668179 0.599196 -0.348805 -0.119608 -0.929532
0.0773171 0.19275 0.591228 0.00026685 -0.969321 0.245797
-0.171684 0.266342 0.719197 -0.00640203 -0.100936 0.994872
0.1342 0.178618 0.52095 0.000271342 -0.985635 0.168888
-0.0143432 -0.229892 0.0854494 -0.704973 -0.0674627 0.706019
-0.309634 -0.0893648 0.0528032 -0.105162 0.32438 0.940063
0.0499389 0.0780244 0.0701102 0.809189 -0.587549 0
0.288102 -0.0828617 0.0291552 0.207474 -0.978241 0
-0.291838 -0.0813185 0.0478973 0.743598 -0.668627 0
0.210744 0.10372 0.399864 0.995164 0.00940789 0.09778
0.185541 0.127318 0.410452 -0.140446 0.0912739 0.985872
0.00386844 0.0329665 0.11577 0.500341 0.865828 0
0.0338733 0.141745 0.410509 -2.42166e-05 0.0879691 0.996123
0.00425966 -0.17025 0.0896687 0.704934 -0.0670275 0.706099
0.10376 0.152149 0.0835837 0.809203 -0.587529 0.000141754
-0.161095 0.224338 0.695549 0.000238924 -0.808695 0.588228
0.317677 -0.0515091 0.00992315 0.950912 -0.309462 -0.000180502
0.0248213 -0.0278028 0.366704 0.180189 -0.15457 -0.971411
0.0181442 0.0285411 0.380652 -0.0353889 -0.0236059 0.999095
0.156222 -0.151615 0.433574 -2.10446e-05 0.0630931 0.998008
-0.192907 -0.0440071 0.423905 0.716413 0.0442654 0.696271
-0.192716 -0.211253 0.399781 0.798519 0.513703 -0.313811
0.179779 0.172562 0.409755 -0.236498 -0.953744 0.185582
-0.206987 0.226182 0.656239 0.15678 0.949741 -0.270947
0.0588588 -0.0465622 0.394014 -0.12019 0.111825 0.986433
-0.0126163 0.0231834 0.0153279 0 0 -1
0.0931955 -0.139539 0.432809 -1.70244e-05 0.0630977 0.998007
0.190175 0.220626 0.678423 0.792459 -0.571111 0.214105
-0.222414 -0.170892 0.419637 -0.995926 0.00535678 0.0900202
-0.0122171 -0.20995 0.418953 0.000272193 -0.813373 0.581743
0.0223317 0.233095 0.706676 0.00017832 -0.624354 0.781142
0.288441 -0.0365626 0.0232039 -0.951172 0.308662 0.000639815
-0.191309 0.184613 0.556454 0.000255302 -0.985604 0.169072
0.285146 -0.0685683 0.0540614 0.139889 0.990167 0
-0.205902 0.0396045 0.41845 0.0992574 -0.0917635 -0.990822
0.255881 -0.0771188 0.0723904 -0.308738 -0.951147 -5.04503e-05
0.231313 0.0787448 0.59859 -0.702844 -0.100755 -0.704173
0.098864 -0.144624 0.433131 -1.70244e-05 0.0630977 0.998007
0.133009 -0.037236 0.0871968 -0.308738 -0.951147 -5.04503e-05
0.174027 -0.1464 0.433244 -2.10446e-05 0.0630931 0.998008
0.185865 0.197867 0.604443 0.132306 -0.961509 0.240822
0.0930094 -0.100348 0.430331 -1.70244e-05 0.0630977 0.998007
-0.186901 0.0842672 0.415802 -2.98366e-05 0.0921537 0.995745
-0.0973274 0.0733635 0.371738 -0.0923627 0.0634922 -0.993699
-0.192342 -0.0195309 0.425093 0.0992494 -0.0627545 -0.993082
-0.0064386 -0.138827 0.432762 -2.11162e-05 0.0630977 0.998007
0.0897652 0.178103 0.518019 0.000298708 -0.985622 0.168965
0.18851 -0.0338194 0.0866818 0.308734 0.951148 0
-0.0537562 0.205045 0.407646 0.0647526 -0.98212 0.176771
-0.218093 -0.112455 0.413058 0.141279 -0.0567644 -0.988341
0.0693119 -0.0626333 0.380499 0.180189 -0.15457 -0.971411
-0.145515 0.106781 0.37593 0.582315 0.812963 0
0.243088 0.0508518 0.599459 -0.0143317 -0.12958 -0.991466
0.0692488 -0.0165402 0.098818 -0.308738 -0.951147 -5.04503e-05
0.0331727 -0.264994 0.0121156 0.698217 0.59204 -0.40247
0.00439183 -0.120561 0.0797907 1 0.000292502 0
-0.0469588 0.21064 0.417382 0.046994 -0.242736 0.968953
0.265083 -0.0801053 0.066672 -0.308738 -0.951147 -5.04503e-05
-0.111609 -0.0753368 0.428746 -1.6992e-05 0.063093 0.998008
-0.173458 0.14218 0.388412 0.0335593 -0.0255376 0.99911
-0.0134473 0.182045 0.541196 0.000293474 -0.985622 0.168965
-0.092043 0.176931 0.511505 0.000293474 -0.985622 0.168965
0.1772 -0.217683 0.391564 -0.000300859 0.913807 -0.406149
0.163965 0.262194 0.0305851 -0.587488 -0.809233 -0.000130221
0.0799641 0.154071 0.0609551 -0.809195 0.58754 0
-0.101347 -0.218356 0.390247 -0.000246615 0.913767 -0.406239
0.151261 0.294315 0.030239 0.587488 0.809233 -0.000196502
0.191155 -0.110827 0.430546 -0.155916 0.0622839 0.985805
0.178115 0.145603 0.410172 -2.42166e-05 0.0879691 0.996123
0.0173033 0.0677713 0.0942895 -0.809195 0.58754 0
-0.287129 -0.0692546 0.0812867 -0.0901976 -0.02928 0.995493
0.0457112 0.106896 0.0718014 -0.809195 0.58754 0
-0.193075 -0.0304096 0.425707 0.0992494 -0.0627545 -0.993082
-0.214867 0.174008 0.431957 0.890208 -0.214091 0.402114
0.0312652 0.212189 0.659201 0.00025862 -0.948697 0.316188
-0.185274 -0.146764 0.420651 0.227331 0.00709131 0.973792
0.0391398 -0.21777 0.40698 0.000248095 -0.919467 0.393167
-0.198895 -0.203086 0.40967 -0.000111907 0.623665 -0.781692
0.119304 0.111281 0.377343 0.0881678 0.0706105 -0.9936
0.112362 0.182739 0.0900842 0.0557386 0.0767265 0.995493
0.186445 0.216454 0.659126 -0.322242 0.900619 -0.291624
0.0301481 -0.277425 0.0195657 0.00022937 -1 0.000379283
0.111621 -0.00220593 0.423813 -3.07356e-05 0.0921476 0.995745
0.142335 0.195799 0.405084 0.269384 0.961543 -0.0535469
-0.00706679 0.0313105 0.281083 -0.174581 0.984643 0
0.0702726 0.201197 0.409465 -0.182993 -0.966144 0.181878
0.0735805 0.00348575 0.0887572 0.308734 0.951148 0
0.000509301 -0.283863 0.0518343 0.866582 0.499034 0
0.146292 0.297921 0.0396736 0.587766 0.80903 -0.00137791
-0.139335 0.192002 0.088514 -0.0558003 0.0766841 0.995493
0.0779024 0.0946918 0.414845 -2.53695e-05 0.0921541 0.995745
0.002284 -0.0120233 0.360048 0.144054 -0.816204 -0.559517
-0.18962 0.174449 0.417536 0.237156 -0.953472 0.186139
0.00218155 0.0286785 0.302913 0.49867 0.866792 0
-0.0361289 0.128017 0.411758 -2.98366e-05 0.0921537 0.995745
0.301017 -0.0578451 0.0323163 0.951142 -0.308752 0.000663732
-0.0312032 0.287158 0.722391 -0.0277406 0.312875 0.949389
-0.19309 -0.056652 0.427364 0.0992494 -0.0627545 -0.993082
0.00217851 0.0318335 0.0208229 0.499352 0.866399 0
-0.15079 0.200603 0.0663728 -0.808844 -0.588023 0
-0.112394 -0.0867254 0.390292 -0.252123 -0.0724685 -0.964978
-0.164982 -0.216716 0.409549 0.000211858 -0.813782 0.581171
-0.10362 0.137936 0.0941307 -0.609974 -0.360345 0.70575
-0.0159935 -0.0909239 0.0826726 -1 -0.000265102 0
-0.0949707 -0.129093 0.432145 -2.11162e-05 0.0630977 0.998007
0.17867 0.275282 0.0577211 0.358367 0.933581 0
0.0960462 0.176221 0.0837682 -0.809195 0.58754 0
-0.230011 0.19745 0.569688 -0.850752 0.393119 -0.348824
0.163202 0.276815 0.0547832 0 0 1
0.139467 0.0320256 0.355648 0.0731717 0.104544 -0.991825
-0.132588 0.114247 0.377272 -0.556623 -0.830766 0
0.0654042 0.047809 0.365299 0.591207 -0.80652 0
0.0254487 0.225196 0.696653 0.000248152 -0.808863 0.587997
0.221856 0.180652 0.495626 0.985219 -0.15125 0.0804165
-0.124956 0.165612 0.0898228 -0.609148 -0.359636 0.706824
0.00753749 0.0543212 0.0762045 -0.809195 0.58754 0
0.0359058 -0.0025816 0.104953 0.0901921 -0.029309 0.995493
0.253126 0.0928481 0.594368 0.0899569 -0.129038 -0.987551
-0.00684918 -0.29493 0.0440715 0.00272163 -0.999996 0
-0.222709 -0.21225 0.402795 -0.983135 -0.170996 0.0648491
-0.0214888 0.0122437 0.0994632 -0.936979 -0.342336 -0.0698309
0.125415 0.178469 0.520093 0.000298708 -0.985622 0.168965
-0.258935 0.0917974 0.594028 0.0145602 -0.129562 -0.991464
0.133159 -0.0233662 0.425465 -2.10446e-05 0.0630931 0.998008
-0.0330844 0.217006 0.413536 -0.0442636 0.832486 0.552275
-0.0267078 -0.130632 0.432244 -2.11162e-05 0.0630977 0.998007
-0.202062 -0.0633709 0.427387 0.141313 0.0641233 0.987886
-0.0371385 0.0789323 0.0706013 0.808848 0.588018 0
-0.202976 0.100009 0.413151 0.100063 -0.0916562 -0.99075
0.0972267 0.146125 0.410124 -2.42166e-05 0.0879691 0.996123
-0.101829 0.213085 0.662017 0.000280275 -0.948661 0.316293
0.110271 -0.0930549 0.429871 -2.10446e-05 0.0630931 0.998008
-0.275388 -0.076446 0.00333817 0.476188 0.444932 -0.758473
0.114307 0.111771 0.372309 0.0881707 0.0705974 -0.9936
0.0723237 0.108853 0.0761883 0.809189 -0.587549 0
-0.146556 -0.112134 0.431072 -1.6992e-05 0.063093 0.998008
0.0516748 0.0952982 0.100222 0.0557321 0.0767317 0.995493
0.131415 0.277756 0.714019 0.088011 0.683247 -0.724864
0.0186932 -0.127072 0.43202 -1.70244e-05 0.0630977 0.998007
-0.170394 0.220357 0.683887 0.000280275 -0.948661 0.316293
-0.136209 0.151496 0.409643 -2.84824e-05 0.0879719 0.996123
-0.214303 0.174716 0.389442 0.535453 0.844565 0
-0.0857589 0.111151 0.0746842 -0.808844 -0.588023 0
0.150789 -0.0686385 0.428328 -2.10446e-05 0.0630931 0.998008
0.134464 -0.14795 0.433342 -1.70244e-05 0.0630977 0.998007
0.0773076 0.04737 0.419225 -3.07356e-05 0.0921476 0.995745
0.00913708 0.0276642 0.114694 0.766596 0.64213 0
0.2593 -0.0567971 0.0591455 0.308734 0.951148 0
-0.286504 -0.0663282 0.0157504 -0.266953 0.823439 -0.500683
0.0690284 -0.0652405 0.385984 -0.635144 -0.772394 0
-0.153821 0.265632 0.71924 -0.00640203 -0.100936 0.994872
-0.193075 0.0220267 0.405644 2.83607e-05 -0.0922328 -0.995737
0.154408 -0.0441815 0.0646202 -0.30873 -0.95115 0
-0.0160101 -0.0282998 0.0712843 -1 -0.000265102 0
0.194339 0.0288633 0.422433 -0.0994295 0.091655 0.990814
0.176113 0.127209 0.411838 -2.53695e-05 0.0921541 0.995745
-0.257795 0.0364105 0.610863 0.0827168 0.0958004 0.991958
-0.242082 0.0891078 0.598035 0.702908 -0.100363 -0.704164
0.0931335 -0.0450239 0.383802 0.181086 -0.180918 -0.966683
-0.191283 0.118932 0.412581 0.100063 -0.0916562 -0.99075
0.212496 0.160295 0.393394 -0.174028 0.0432499 0.98379
-0.171502 0.248022 0.0265927 0.587948 -0.808899 7.50103e-05
0.052592 -0.0298965 0.37695 0.176363 -0.164408 -0.970498
-0.0160119 -0.0214215 0.0869858 -1 -0.000265102 0
-0.191399 0.122036 0.400976 0.995869 0.00872202 0.090379
-0.314107 -0.098456 0.0250361 -0.951214 -0.308531 5.70054e-05
-0.0359438 0.042629 0.0778966 -0.808844 -0.588023 0
0.0506252 -0.220447 0.392307 0.000269826 -1 0
-0.150845 -0.0859356 0.429416 -1.6992e-05 0.063093 0.998008
0.109205 0.135008 0.411115 -2.53695e-05 0.0921541 0.995745
0.187831 -0.0634729 0.411861 3.63819e-05 -0.0573739 -0.998353
0.0329507 0.178127 0.518263 0.000298708 -0.985622 0.168965
-0.0565246 0.0408761 0.381889 0.0353984 -0.0235839 0.999095
-0.040024 0.0522278 0.363485 -0.556623 -0.830766 0
0.0901649 0.219142 0.680007 0.000291043 -0.948669 0.31627
0.000411239 0.186949 0.568435 0.00026685 -0.969321 0.245797
-0.195498 -0.0338956 0.0901845 -0.282147 0.650271 0.705365
-0.0301685 0.0589509 0.41815 -2.482e-05 0.0921476 0.995745
0.207448 0.181896 0.43702 -0.936466 0.341961 -0.0780726
0.204059 0.205116 0.64218 0.122384 -0.936108 0.329732
0.0233655 -0.151838 0.433586 -1.70244e-05 0.0630977 0.998007
0.181124 -0.17066 0.434617 -0.099295 -0.0628134 -0.993073
-0.0649667 -0.017349 0.425081 -1.6992e-05 0.063093 0.998008
-0.044035 0.0884187 0.0798799 0.808848 0.588018 0
-0.0192619 0.00912838 0.335406 0 0 -1
0.0228478 0.0272963 0.361975 -0.582791 0.812622 0
-0.0316356 -0.208083 0.409323 -0.000235952 0.85734 -0.51475
-0.199503 0.0728366 0.400938 -8.69236e-05 -0.0922326 -0.995737
-0.149989 0.195303 0.601553 0.000329054 -0.969374 0.245591
0.0383201 -0.302218 0.0383612 0.866067 0.000340173 0.499929
-0.20501 0.185 0.545786 -0.184113 -0.965125 0.186107
0.0158889 -0.0554467 0.427491 -1.70244e-05 0.0630977 0.998007
-0.0150107 0.0749985 0.416665 -2.482e-05 0.0921476 0.995745
-0.21189 0.159535 0.409193 0.0994904 0.110109 0.988928
-0.0959983 0.125236 0.0703122 -0.808844 -0.588023 0
-0.0910642 0.071018 0.371006 -0.0923627 0.0634922 -0.993699
0.00917008 0.0432088 0.385068 0.242136 0.419506 0.874863
-0.189913 0.0302392 0.420802 -2.98366e-05 0.0921537 0.995745
0.0504261 0.197948 0.611754 0.000264243 -0.969323 0.24579
-0.0908763 -0.0113788 0.100771 -0.090174 -0.0293705 0.995493
0.295612 -0.087993 0.0314188 -0.303686 -0.936929 0.173029
-0.0147598 0.0334208 0.186025 -0.500292 0.865857 0
-0.0133793 -0.0213092 0.425332 -2.11162e-05 0.0630977 0.998007
0.193755 0.254616 0.705114 -0.0763552 0.330691 -0.940645
0.295897 -0.0766195 0.0215604 -0.95112 0.30882 -6.11199e-05
-0.0434356 0.103159 0.414058 -2.482e-05 0.0921476 0.995745
0.0466356 0.108169 0.0929711 -0.809195 0.58754 0
0.0061397 -0.310783 0.0409516 0.000318938 -1 0.000477444
0.068141 0.224925 0.696261 0.000248152 -0.808863 0.587997
0.105707 0.202829 0.630945 0.000264243 -0.969323 0.24579
-0.180867 0.219117 0.680179 0.000280275 -0.948661 0.316293
0.0739018 -0.218579 0.389626 -0.000305717 0.913767 -0.406239
0.218959 0.187009 0.601943 -0.383128 -0.900599 0.205268
0.192166 -0.0513932 0.425969 -0.099281 -0.0628151 -0.993075
-0.148086 0.0881658 0.415443 -2.98366e-05 0.0921537 0.995745
0.0737899 -0.0283636 0.37706 0.181086 -0.180918 -0.966683
0.134409 -0.146383 0.433243 -1.70244e-05 0.0630977 0.998007
0.0285549 -0.0879476 0.429546 -1.70244e-05 0.0630977 0.998007
-0.241412 0.0738402 0.600879 0.702814 -0.100374 -0.704257
0.000908837 -0.100803 0.430359 -1.70244e-05 0.0630977 0.998007
-0.265456 0.0708058 0.60713 -0.0903265 0.0952088 0.991351
-0.213359 0.182707 0.485286 0.880376 0.275984 -0.385709
-0.0726041 0.046852 0.419268 -2.482e-05 0.0921476 0.995745
0.106453 0.194692 0.598854 0.000264243 -0.969323 0.24579
0.219693 0.174999 0.48382 0.619697 -0.775585 0.120181
-0.198171 -0.0749895 0.42943 0.099233 0.0628086 0.99308
0.0541672 0.117107 0.41277 -2.53695e-05 0.0921541 0.995745
0.218158 0.192519 0.560613 0.923419 -0.367933 0.109193
0.114396 -0.0311944 0.0938079 -0.308738 -0.951147 -5.04503e-05
-0.0830367 -0.0656884 0.381367 -0.180247 -0.154516 -0.971409
-0.142918 0.224437 0.0593123 0.808848 0.588018 0
-0.154518 0.210462 0.654195 0.000280275 -0.948661 0.316293
-0.291755 -0.0839377 0.0797499 0.153351 -0.689396 0.707967
-0.0434882 -0.117122 0.431389 -2.11162e-05 0.0630977 0.998007
0.234577 0.0937748 0.603313 -0.350377 0.0844875 0.93279
0.138593 0.0047837 0.355623 0.0731964 -0.104591 -0.991818
0.161794 -0.137037 0.417804 -0.227307 0.00706953 0.973797
-0.211859 -0.116726 0.414194 0.141279 -0.0567644 -0.988341
0.155877 0.297997 0.00383275 -0.519375 0.377371 -0.766708
0.0347959 -0.21451 0.398585 -0.000282268 0.85734 -0.51475
0.220846 0.168834 0.394563 0.0990581 -0.10994 -0.98899
0.0579039 -0.217167 0.407706 0.000190606 -0.706407 0.707806
0.225608 0.175533 0.594926 -0.854069 -0.421524 0.30477
-0.210481 -0.181197 0.434947 0.155089 -0.115431 0.981134
0.0137135 -0.290969 0.0547832 0 0 1
0.130458 0.0816487 0.416054 -2.53695e-05 0.0921541 0.995745
-0.0106771 0.0446225 0.374834 0.539076 0.842257 0
0.181277 0.289697 0.0070191 0.588437 0.808543 -0.00117682
0.0184561 -0.083349 0.429255 -1.70244e-05 0.0630977 0.998007
0.200951 0.182233 0.400875 -0.112509 0.888315 -0.445239
0.17478 -0.130088 0.432213 -2.10446e-05 0.0630931 0.998008
-0.186028 -0.0496097 0.0902763 0.154418 -0.691955 0.705233
0.179949 -0.171041 0.421156 -0.80245 -0.0391126 -0.595436
-0.19171 0.0439242 0.411941 0.995869 0.00872202 0.090379
-0.0636232 0.125601 0.411981 -2.98366e-05 0.0921537 0.995745
0.185995 0.21017 0.641939 -0.126461 -0.949895 0.285845
0.0331823 0.0212592 0.358381 -0.000194904 0.643607 -0.765356
-0.241247 0.193589 0.609021 -0.497696 0.285438 0.819039
0.183683 0.221485 0.684585 0.0360649 -0.955279 0.293498
-0.1134 0.106192 0.413775 -2.98366e-05 0.0921537 0.995745
-0.119106 0.00669095 0.422984 -2.482e-05 0.0921476 0.995745
-0.0916525 -0.199194 0.42893 0.000113817 -0.41344 0.910532
0.102005 -0.073318 0.428623 -2.10446e-05 0.0630931 0.998008
0.0912695 -0.18663 0.433521 3.15593e-05 -0.116961 0.993136
-0.0185138 -0.156496 0.433879 -2.11162e-05 0.0630977 0.998007
-0.272908 0.0809277 0.604933 -0.35007 0.0930818 0.932087
-0.00506799 -0.197818 0.0887449 1.13258e-05 -0.0948325 0.995493
-0.169703 0.175363 0.502493 0.000293474 -0.985622 0.168965
-0.117876 0.205965 0.411533 -0.180092 0.982122 -0.0547955
0.00949874 0.192023 0.588435 0.00026685 -0.969321 0.245797
0.13798 0.00583281 0.42307 -3.07356e-05 0.0921476 0.995745
0.0461192 -0.0229545 0.374598 0.176363 -0.164408 -0.970498
-0.156281 0.117773 0.412702 -2.98366e-05 0.0921537 0.995745
0.186839 0.22806 0.675474 -0.0571914 0.958251 -0.280151
-0.119066 0.200283 0.393291 -0.0163954 -3.54106e-05 -0.999866
-0.0332668 0.205373 0.638806 0.000322038 -0.948697 0.316188
-0.0560725 0.0129302 0.0831868 -0.309286 0.950969 0
-0.169996 -0.211664 0.416625 0.000211858 -0.813782 0.581171
-0.0682289 0.0814578 0.365568 0.539076 0.842257 0
-0.214282 -0.0509676 0.410072 0.141455 -0.0567486 -0.988317
-0.226587 0.16318 0.394668 8.04389e-05 -0.164587 -0.986363
-0.128254 -0.181026 0.434189 3.91432e-05 -0.116968 0.993136
-0.197697 -0.0581409 0.411548 2.12085e-05 -0.0573733 -0.998353
0.0064051 0.00900822 0.0693627 0.766272 -0.642516 0
0.13641 0.199894 0.619337 0.000264243 -0.969323 0.24579
-0.0172278 0.00799797 0.0200645 -0.765508 -0.643426 0
0.230709 0.0248873 0.606898 -0.701234 -0.100943 -0.705748
0.0674889 -0.209183 0.412271 -5.51127e-05 0.164687 0.986346
0.168224 -0.10825 0.430832 -2.10446e-05 0.0630931 0.998008
0.11655 0.186443 0.0895642 0.0557386 0.0767265 0.995493
-0.0184511 0.0250144 0.335406 0 0 -1
-0.0595767 0.07288 0.382753 0.0353984 -0.0235839 0.999095
0.0496988 0.221469 0.687026 0.000291043 -0.948669 0.31627
-0.218968 -0.0953794 0.411952 0.141279 -0.0567644 -0.988341
0.15936 0.111616 0.413281 -2.53695e-05 0.0921541 0.995745
0.242217 0.130552 0.601465 -0.0827427 0.0957533 0.99196
0.107792 0.117967 0.412692 -2.53695e-05 0.0921541 0.995745
-0.193094 0.0337639 0.420277 0.100063 -0.0916562 -0.99075
0.10839 0.205633 0.639467 0.00025862 -0.948697 0.316188
-0.18231 0.00491615 0.423146 -2.98366e-05 0.0921537 0.995745
0.0400848 -0.00707387 0.0778585 -0.30873 -0.95115 0
0.20774 -0.149638 0.415026 -0.141272 -0.0568516 -0.988337
-0.229921 0.191059 0.486286 -0.712337 0.700555 -0.0424014
0.180122 -0.0499682 0.420367 -0.995909 0.00543715 0.0901985
-0.177745 0.190882 0.584137 0.000329054 -0.969374 0.245591
-0.293085 -0.0824442 0.0803592 -0.0901976 -0.02928 0.995493
0.202189 0.012243 0.405561 -0.141106 -0.0913429 -0.985771
0.206424 0.172772 0.475679 -0.630949 -0.772637 0.0702507
0.161379 0.211857 0.658092 0.000291043 -0.948669 0.31627
0.0173384 0.210741 0.654866 0.00025862 -0.948697 0.316188
0.194324 0.0522346 0.417279 -0.0992886 -0.0918117 -0.990814
0.114073 0.166353 0.0838799 0.809203 -0.587529 0.000141754
0.0179166 0.190516 0.582481 0.00026685 -0.969321 0.245797
-0.265348 -0.114295 0.0243523 0.30417 -0.936683 -0.173511
-0.115298 0.151783 0.0852267 -0.808844 -0.588023 0
-0.0882729 0.214249 0.665493 0.000322038 -0.948697 0.316188
0.0290904 0.0211898 0.362397 0.591207 -0.80652 0
0.0191545 -0.00119824 0.0684854 0.0946652 0.995509 0
-0.217407 -0.126405 0.413957 0.141279 -0.0567644 -0.988341
-0.14937 0.124112 0.387141 0.0335593 -0.0255376 0.99911
0.150211 0.180763 0.408469 -0.29295 -0.944474 0.148825
-0.197633 -0.177006 0.433409 0.155089 -0.115431 0.981134
-0.169029 0.191395 0.413923 -0.283431 0.958993 0
-0.0714354 0.195471 0.602117 0.000251085 -0.969321 0.245797
0.0594733 0.0236113 0.421423 -3.07356e-05 0.0921476 0.995745
-0.178634 0.140882 0.383677 -0.0881861 0.0705907 -0.9936
0.0616482 -0.0591717 0.393253 -0.635144 -0.772394 0
0.0255317 0.205436 0.403678 -0.0642343 -0.981983 0.177714
0.224925 0.17933 0.403313 0.71236 0.700572 -0.041735
-0.226918 0.204041 0.594946 -0.963209 0.268194 0.0173216
-0.148679 -0.0251717 0.0951281 -0.090174 -0.0293705 0.995493
0.00440338 -0.160063 0.0841279 1 0.000292502 0
-0.204296 -0.110454 0.430759 0.155789 0.0623804 0.985819
0.0950673 0.196301 0.407838 -0.177298 -0.970793 0.161639
0.146357 -0.117847 0.413714 -0.222886 0.0574546 0.97315
-0.102315 0.205401 0.394207 -0.132495 0.679665 -0.721457
0.0160271 0.0463649 0.381657 0.242136 0.419506 0.874863
-0.196383 0.202695 0.617324 0.323932 0.910217 -0.258018
-0.222316 0.0605598 0.405305 -0.995069 0.00886543 0.0987878
0.206388 0.187719 0.473275 -0.671265 0.726564 -0.146659
-0.0453504 0.0419448 0.3649 -0.0923627 0.0634922 -0.993699
-0.224957 0.209277 0.619744 -0.942562 0.333972 0.0062744
0.223837 0.163109 0.393661 0.707679 -0.706534 0
0.117722 -0.0865362 0.40633 -0.193588 0.0499024 0.979813
0.137139 -0.0385762 0.0665196 -0.30873 -0.95115 0
-0.187685 0.177517 0.515082 0.000255302 -0.985604 0.169072
-0.0165382 -0.207995 0.421472 0.000222454 -0.664742 0.747073
-0.15887 0.182982 0.416814 0.295687 -0.942295 0.157004
-0.0196258 -0.0129134 0.361207 -0.180247 -0.154516 -0.971409
-0.190464 0.138313 0.410806 -2.84824e-05 0.0879719 0.996123
0.286106 -0.083285 0.0439972 0.207474 -0.978241 0
0.188054 -0.106895 0.42989 -0.099295 -0.0628134 -0.993073
0.0251536 0.0512637 0.360097 0.0938985 0.0625942 -0.993612
0.256672 0.0807878 0.605921 0.0902235 0.0952693 0.991354
0.00770193 0.0261713 0.421184 -3.07356e-05 0.0921476 0.995745
-0.0607833 0.150993 0.40969 -2.94359e-05 0.0879663 0.996123
0.0414363 0.059942 0.366785 0.0881678 0.0706105 -0.9936
-0.175504 0.262298 0.0333577 0.588071 -0.808809 0.00053472
0.0128797 -0.0107873 0.364857 0.414886 -0.717568 -0.559433
0.179637 0.049126 0.404802 -0.707025 -0.0654131 -0.704157
0.215158 0.174755 0.393229 -0.174028 0.0432499 0.98379
-0.0477819 0.216387 0.404094 -0.0644438 0.995961 -0.0625267
-0.060485 -0.00412498 0.371679 -0.677662 0.735373 0
-0.0328751 0.210166 0.653188 0.000322038 -0.948697 0.316188
0.187195 0.21722 0.660663 -0.322242 0.900619 -0.291624
0.0587878 -0.120934 0.431632 -1.70244e-05 0.0630977 0.998007
-0.189083 0.245339 0.712842 0.0374142 -0.597458 0.801027
-0.114458 0.226247 0.698155 0.000238924 -0.808695 0.588228
0.196911 0.0554637 0.418724 -0.140446 0.0912739 0.985872
-0.184874 0.132059 0.411379 -2.98366e-05 0.0921537 0.995745
0.0436187 -0.0442897 0.391899 -0.12019 0.111825 0.986433
-0.281375 -0.103273 0.0522824 0.10123 -0.311689 0.944776
0.178773 0.254304 0.71781 0.0578387 -0.215905 0.9747
-0.186602 0.27713 0.0294534 -0.587946 0.8089 -0.000409538
0.177707 0.257268 0.0320189 0.786446 -0.571356 0.234637
0.236135 0.0346545 0.602637 -0.272925 -0.124667 -0.953923
0.307001 -0.0844209 0.0230979 0.951477 -0.307721 0.000147845
0.0474222 -0.00308182 0.367389 0.181086 -0.180918 -0.966683
0.0591437 0.00817178 0.0833144 0.308734 0.951148 0
0.082765 0.197203 0.399767 -0.177298 -0.970793 0.161639
-0.0522226 0.0486961 0.36597 -0.0923627 0.0634922 -0.993699
0.188542 -0.135648 0.416008 3.63819e-05 -0.0573739 -0.998353
-0.0253699 0.223645 0.69362 0.000280275 -0.948661 0.316293
0.157668 -0.211929 0.402815 -0.000286898 0.857313 -0.514796
0.119781 0.159137 0.408975 -2.37353e-05 0.0879663 0.996123
0.227679 0.173462 0.402511 0.948158 0.317245 0.0187783
0.209888 -0.0759806 0.411853 0.553386 -0.0476 -0.831564
-0.0245301 -0.191184 0.432556 0.000136009 -0.413104 0.910684
0.178608 0.172695 0.408857 -0.257543 -0.954488 0.150416
0.0983293 -0.00454747 0.073612 0.308734 0.951148 0
-0.204685 0.204295 0.585308 0.17198 0.958346 -0.228025
0.265978 -0.0703405 0.00865986 -0.722686 -0.309803 -0.617857
-0.120003 0.181127 0.536021 0.000255302 -0.985604 0.169072
-0.194622 0.0860035 0.41529 0.100063 -0.0916562 -0.99075
0.181461 0.156663 0.382207 0.119859 0.0959698 -0.988142
0.0245802 -0.21431 0.412842 0.000215073 -0.813373 0.581743
-0.129332 -0.0108963 0.0809609 -0.309286 0.950969 0
-0.177941 0.140206 0.383567 -0.0881861 0.0705907 -0.9936
0.0746749 0.112091 0.0692862 0.809189 -0.587549 0
-0.0332974 -0.00549847 0.378213 -0.765709 -0.643187 0
-0.178174 0.211451 0.657182 0.000280275 -0.948661 0.316293
0.124093 -0.209234 0.412283 -4.43439e-05 0.164342 0.986403
-0.0393535 0.0331828 0.37239 -0.939839 0.341617 0
0.0470105 0.207552 0.416798 -0.071113 -0.83092 0.551829
-0.0130231 0.0344243 0.15451 -0.500292 0.865857 0
0.19323 0.212354 0.657548 -0.718403 -0.676178 0.163342
-0.207156 -0.218767 0.4078 0.0732669 -0.804162 0.589877
-0.028559 -0.0370246 0.426326 -2.11162e-05 0.0630977 0.998007
0.0245659 -0.0181543 0.367889 0.64482 0.764335 0
-0.191356 -0.175949 0.421721 0.805501 -0.0737013 -0.587994
0.0414159 0.222907 0.691347 0.000291043 -0.948669 0.31627
-0.0527584 0.175211 0.5014 0.000293474 -0.985622 0.168965
-0.160623 0.0193742 0.421809 -2.98366e-05 0.0921537 0.995745
0.0187215 -0.0205152 0.38617 -0.12019 0.111825 0.986433
0.122477 0.0903623 0.385767 -0.0335348 -0.0255732 0.99911
0.0592389 0.0908326 0.0814406 0.809189 -0.587549 0
0.211358 0.183393 0.405765 -0.0556651 0.997194 -0.0500619
0.097706 -0.206364 0.422895 0.000175749 -0.664653 0.747152
0.055269 -0.053926 0.377553 -0.635144 -0.772394 0
0.209575 0.121782 0.407014 0.947991 0.0296121 0.316917
-0.200575 0.0274527 0.420109 0.0992574 -0.0917635 -0.990822
0.159211 0.204876 0.637151 0.000291043 -0.948669 0.31627
0.113676 -0.206131 0.423099 0.000175749 -0.664653 0.747152
0.035366 0.240164 0.712323 0.000179223 -0.624364 0.781133
-0.0195027 0.224931 0.696306 0.000235521 -0.808723 0.58819
0.0140596 -0.310782 0.0138681 0.00013063 -1 0.000590833
0.301056 -0.0471714 0.0516743 0.191065 0.587828 0.786099
-0.221111 0.192998 0.596773 -0.304529 -0.918459 0.252379
0.246636 0.0431588 0.61027 -0.0827427 0.0957533 0.99196
0.182481 0.260569 0.0754144 0.809203 -0.587529 0.000141754
0.193349 -0.114273 0.431111 -0.141425 0.0640366 0.987876
-0.171937 -0.0371164 0.0926691 -0.0901976 -0.02928 0.995493
-0.190854 0.233957 0.0360246 0.587948 -0.808899 7.50103e-05
0.0739607 0.213375 0.662724 0.00025862 -0.948697 0.316188
-0.00146063 -0.28607 0.0508186 -0.6181 -0.000198638 0.7861
-0.0223511 0.195433 0.601916 0.000251085 -0.969321 0.245797
-0.231165 0.254605 0.0153043 -0.700325 -0.509653 -0.499799
0.164983 -0.110596 0.414427 0.667783 0.744356 0
-0.12059 0.221746 0.68801 0.000280275 -0.948661 0.316293
0.209482 0.215411 0.619543 0.751168 0.650523 -0.112104
-0.0614481 0.0756546 0.363959 -0.093906 0.0625642 -0.993613
-0.0236983 -0.00303565 0.0805949 0.580421 0.814316 0
-0.00167667 0.0105328 0.106118 0 0 -1
-0.0259073 0.0141358 0.335406 0 0 -1
0.191139 -0.0718833 0.427368 -0.099281 -0.0628151 -0.993075
0.139057 -0.211845 0.412718 -4.43439e-05 0.164342 0.986403
0.216693 0.16388 0.421698 0.314406 -0.93994 0.132895
-0.180831 0.138577 0.383708 -0.0881861 0.0705907 -0.9936
-0.241927 0.0911573 0.597897 0.702814 -0.100374 -0.704257
-0.222394 0.219089 0.64455 -0.719029 0.680396 -0.141629
-0.312386 -0.103755 0.0369472 -0.950799 -0.309807 -0.000179502
0.151884 -0.204506 0.424535 0.000175749 -0.664653 0.747152
-0.192541 0.109178 0.398037 0.704909 -0.0652247 -0.706292
0.16955 0.0650005 0.417595 -2.53695e-05 0.0921541 0.995745
0.192032 0.100098 0.398423 3.72203e-05 -0.0922327 -0.995737
0.120828 0.0179956 0.357238 0 0 -1
-0.161331 0.263522 0.718977 -0.00640203 -0.100936 0.994872
0.0851569 0.161223 0.0667299 -0.809195 0.58754 0
-0.165049 -0.134243 0.411544 0.61658 -0.787292 0
0.146795 -0.106171 0.413124 -0.222886 0.0574546 0.97315
-0.00728964 -0.19525 0.430709 0.000136009 -0.413104 0.910684
0.00641847 0.0222203 0.30312 0.939914 0.341411 0
0.182738 0.271517 0.0723006 0.777309 0.629119 0
-0.200229 0.0380427 0.419129 0.141018 0.0912657 0.985791
0.0562272 -0.220445 0.395246 0.000269826 -1 0
-0.122585 -0.218043 0.390964 -0.000246615 0.913767 -0.406239
-0.263894 -0.113906 0.0284332 0.807231 -0.573297 0.140386
-0.110166 0.20503 0.3953 -0.132495 0.679665 -0.721457
-0.209124 -0.117301 0.431897 0.141313 0.0641233 0.987886
0.0152205 0.183537 0.549854 0.000298708 -0.985622 0.168965
0.142682 0.113238 0.378016 -0.582791 0.812622 0
0.178309 -0.142901 0.421702 -0.227307 0.00706953 0.973797
-0.128955 -0.129895 0.432195 -2.11162e-05 0.0630977 0.998007
0.00714264 0.0498555 0.360215 -0.53953 0.841966 0
-0.118248 -0.00729137 0.0766274 -0.309286 0.950969 0
-0.0102383 -0.0130983 0.424813 -1.6992e-05 0.063093 0.998008
-0.222182 0.166617 0.392744 0.174033 0.0433682 0.983784
-0.22222 -0.000167347 0.411726 -0.995079 0.00886254 0.098692
-0.14003 -0.0191857 0.0960882 -0.090174 -0.0293705 0.995493
-0.0159753 -0.159696 0.0661982 -1 -0.000265102 0
-0.214944 0.233621 0.0306924 0.588053 -0.808823 0.000397422
0.195257 0.220735 0.63961 -0.715546 0.658301 -0.233738
-0.195142 -0.214543 0.412067 0.0732669 -0.804162 0.589877
-0.169355 0.097946 0.414537 -2.98366e-05 0.0921537 0.995745
-0.172745 0.178677 0.417011 0.293493 -0.944202 0.149479
0.173443 0.248118 0.0631372 0.809203 -0.587529 0.000141754
-0.0092698 -0.277435 0.0365489 0.00022937 -1 0.000276241
-0.00502668 0.143331 0.410368 -2.37353e-05 0.0879663 0.996123
-0.105253 -0.0245005 0.0897929 0.30932 -0.950958 0
-0.00230958 0.20873 0.648848 0.00025862 -0.948697 0.316188
-0.0816676 0.131044 0.411476 -2.98366e-05 0.0921537 0.995745
-0.16111 -0.0284807 0.425783 -1.6992e-05 0.063093 0.998008
-0.176193 -0.218434 0.390116 -0.000246615 0.913767 -0.406239
-0.0372509 0.0263046 0.421171 -2.482e-05 0.0921476 0.995745
0.188184 -0.108898 0.431743 -0.099309 0.0627475 0.993076
0.0114137 -0.296888 0.0350032 0.000215205 -1 0.000497721
-0.304817 -0.082526 0.0722707 -0.838616 -0.544723 0
-0.238032 -0.0462558 0.0830427 -0.309358 0.950946 0.000430516
-0.199882 0.136225 0.410113 0.100063 -0.0916562 -0.99075
