-0.286695 0.18615 0.00850197 -0.865209 -0.00020956 -0.501412
-0.264063 -0.261337 0.441368 -6.9618e-06 -0.138551 -0.990355
0.276365 -0.231397 0.477213 -3.51054e-05 0.708733 -0.705477
-0.00311297 0.281657 0.576867 -0.000717654 0.905409 -0.424539
-0.0571316 -0.0419793 0.34069 0.03237 0.0637775 0.997439
0.0597073 0.216782 0.439618 0.0325043 0.908239 -0.417188
-0.220571 -0.196957 0.368117 0.112395 0.138321 0.983989
-0.236266 -0.24056 0.326085 -0.124753 -0.138115 -0.982528
0.164272 -0.07684 0.297507 -0.00308178 -0.0885689 -0.996065
-0.283805 0.130036 0.0203104 -0.641061 -0.000153925 0.76749
-0.128616 0.263937 0.622534 0.000413247 0.315411 0.948955
0.0591247 0.241435 0.6115 -0.0319107 -0.908276 0.417153
0.24719 0.19885 0.411872 0 -0.947036 0.321127
-0.254356 0.244287 0.550196 -0.679955 0.69396 -0.236813
0.286925 0.0451344 0.0152379 0.984726 0.000236443 0.174111
0.0946603 0.190348 0.500181 0.00151488 -0.908736 0.417368
0.242575 -0.0394559 0.347763 -5.18813e-05 0.139176 0.990268
-0.15689 0.206657 0.553296 0.182713 -0.920498 0.345397
-0.218659 -0.0603218 0.349746 6.69351e-05 0.1311 0.991369
-0.0301062 0.126848 0.302027 -7.27945e-05 0.467883 -0.88379
0.142008 0.227779 0.601588 -0.182064 -0.920622 0.345409
-0.152289 -0.242565 0.312588 -0.168278 -0.115304 -0.978973
-0.0277063 -0.301637 0.323703 0.000333216 -0.990283 0.139066
0.131279 -0.25294 0.361512 -0.114169 0.0872271 0.989625
-0.0762331 -0.272586 0.307757 -0.110278 -0.0880546 -0.989992
0.236479 0.242459 0.629707 -0.00157191 0.315896 0.948793
0.20008 0.0750369 0.3359 -0.0048144 -0.0507583 0.998699
0.260838 -0.0214672 0.497963 -1 -0.000258969 0
0.28009 -0.281975 0.236099 0.173457 -0.975256 0.137072
-0.222836 0.123622 0.300282 0.0226889 0.470016 -0.882366
0.281222 -0.0355881 0.507699 0 0 1
0.17779 0.217879 0.594061 -0.182064 -0.920622 0.345409
0.0968182 -0.0826884 0.294904 0.00115746 -0.0642669 -0.997932
-0.162701 0.269846 0.579034 -0.172042 0.922187 -0.34637
0.1252 0.281341 0.595612 0.112076 0.916107 -0.384952
-0.0143647 0.120907 0.359453 -0.00174257 -0.672672 0.739938
-0.0142048 0.0862193 0.33769 -0.00191889 -0.399325 0.916807
-0.282299 -0.0169854 0.502774 1 0.000230124 0.000242888
0.226806 0.201263 0.569421 -0.113871 -0.940185 0.321068
0.0886933 0.0525319 0.286332 0.001149 -0.0435839 -0.999049
-0.244808 -0.00573358 0.289567 6.7614e-05 -0.139244 -0.990258
0.0815407 0.268614 0.62098 -0.000233006 0.314727 0.949182
-0.283095 -0.224969 0.0208323 -0.641065 -0.000153966 0.767486
0.252653 0.147739 0.312359 0.999998 -0.000424712 0.00200011
0.029194 0.0314972 0.287429 9.12253e-06 -0.0584114 -0.998293
-0.189466 0.263387 0.575132 -0.172042 0.922187 -0.34637
0.253237 0.0341373 0.28898 0.677545 -0.102192 -0.728347
0.282339 -0.225201 0.487065 0.999999 7.94653e-05 -0.00135776
0.145901 -0.261152 0.313953 -0.00308178 -0.0885689 -0.996065
0.245453 0.00497118 0.292457 -7.03194e-06 0.139203 0.990264
0.195076 0.107273 0.293104 -0.00220325 0.32721 -0.944949
0.266186 0.114435 0.0137437 -0.985274 -0.000236575 0.170984
0.0182481 0.138509 0.387604 0.00196952 -0.905501 0.42434
0.107314 -0.216284 0.306207 0.1103 -0.0880019 -0.989995
-0.114634 0.288177 0.00448894 0.00016963 -0.641321 -0.767273
0.284542 -0.214626 0 0 0 -1
-0.205516 -0.0501334 0.297773 0 -0.116931 -0.99314
-0.282287 -0.0672293 0.505077 -0.999999 -0.000244166 0.00104659
0.263523 0.0531657 0.507699 0 0 1
0.0492318 0.0215604 0.336548 0.0015805 0.0579745 0.998317
-0.0664624 -0.0637113 0.293644 -0.00113034 -0.0642674 -0.997932
0.272771 -0.219973 0.0124353 0 0 1
0.167897 -0.169458 0.306659 0.168327 -0.115223 -0.978974
-0.151961 -0.00848581 0.340108 -0.00018037 0.0878272 0.996136
-0.09454 -0.0212747 0.290943 -0.00113034 -0.0642674 -0.997932
-0.250603 -0.293129 0.381196 0.000252283 -0.592131 0.805841
0.0616171 0.282259 0.616451 0.000130628 0.314697 0.949192
-0.0782903 0.0297798 0.336186 -1.09399e-05 0.0638041 0.997962
-0.287325 0.150284 0.489114 -1 -0.00025778 -0.000715485
-0.136766 -0.288176 0.315887 -0.110278 -0.0880546 -0.989992
0.268555 0.0480645 0.507699 0 0 1
-0.255652 0.17317 0.482908 -0.66931 -0.703061 0.240269
-0.124894 -0.162763 0.303409 -0.110278 -0.0880546 -0.989992
-0.255692 0.202645 0.524668 -0.999991 0.00389523 -0.00144045
0.217118 -0.017701 0.293966 1.23543e-05 -0.116931 -0.99314
-0.0949976 -0.049383 0.341247 -1.09399e-05 0.0638041 0.997962
-0.0140557 0.166561 0.447496 -0.00159007 -0.905502 0.42434
0.234594 0.16628 0.335968 -0.0122834 0.811302 -0.584499
-0.197518 0.154355 0.429868 0.0152212 -0.936156 0.351256
0.169906 -0.0195398 0.292395 -0.00308178 -0.0885689 -0.996065
-0.0330851 0.0192479 0.288145 2.27936e-05 -0.0584114 -0.998293
0.0318493 -0.0791262 0.342423 0.0015805 0.0579745 0.998317
-0.287156 -0.205833 0.0138223 -0.985274 -0.000236574 0.170984
0.164763 0.127437 0.366569 0.00241842 -0.877501 0.479569
0.235386 0.230804 0.493363 -0.000331695 0.949041 -0.315153
0.303496 -0.0315443 0.495006 0.704917 0.000165891 -0.70929
0.0664435 0.164174 0.443294 0.00151488 -0.908736 0.417368
-0.230473 -0.299135 0.335311 -0.0873278 -0.785328 -0.61289
0.204092 0.186173 0.518487 -0.217734 -0.920477 0.324522
0.12392 -0.0328995 0.291756 0.1103 -0.0880019 -0.989995
-0.220998 0.0658012 0.285627 0 -0.0439153 -0.999035
0.0291042 -0.00149977 0.28936 9.12253e-06 -0.0584114 -0.998293
-0.227952 0.171694 0.336949 0 0.820331 -0.571889
-0.103019 0.0351243 0.335844 -1.09399e-05 0.0638041 0.997962
0.237676 -0.0499378 0.300175 -7.03194e-06 0.139203 0.990264
-0.158654 0.289775 0.00315122 7.58991e-05 -0.345576 -0.938391
0.148832 -0.211562 0.309534 -0.00308178 -0.0885689 -0.996065
0.232037 0.0330911 0.337407 -9.98401e-05 0.1311 0.991369
-0.20972 -0.153676 0.361786 0.213379 0.128138 0.96853
-0.0365776 0.262164 0.53664 -0.0328493 0.908211 -0.417221
-0.255662 0.205408 0.511282 -0.999991 0.0041031 -0.00147424
-0.0139595 -0.0554655 0.341077 -0.00161738 0.0579738 0.998317
-0.130228 0.19228 0.514775 0.11738 -0.91566 0.384433
-0.0718431 0.238383 0.487067 -0.00123817 0.908702 -0.417444
-0.233126 -0.123445 0.310492 0 0.139204 0.990264
0.192876 0.236644 0.631581 -0.000953673 0.316109 0.948722
-0.00641168 0.249863 0.624858 0.022084 -0.384991 0.922656
0.106349 -0.250476 0.309139 0.1103 -0.0880019 -0.989995
-0.0399693 0.292715 0.603409 -0.0328493 0.908211 -0.417221
-0.255632 -0.0453204 0.333284 -0.99999 -0.000865878 -0.00447844
0.0693197 0.156369 0.324621 -7.47852e-05 0.720069 -0.693902
0.00366517 0.192857 0.503644 0.00196952 -0.905501 0.42434
0.153349 0.240749 0.503508 -0.00370521 0.921905 -0.387397
0.246719 -0.276151 0.331688 0.0376533 -0.139067 -0.989567
-0.234738 -0.106936 0.307108 -0.124753 -0.138115 -0.982528
0.232928 0.204859 0.429604 0.000478058 -0.947007 0.321213
-0.284125 -0.266479 0.220347 -0.767462 0.634854 -0.0892284
-0.243064 0.179454 0.509177 0.000227117 -0.94634 0.323172
0.222238 0.231454 0.502283 -0.0210896 0.943016 -0.332077
-0.27678 0.225419 0.489244 1 -0.000932628 -1.46302e-05
0.22696 -0.079541 0.303848 -0.999998 -3.92825e-06 0.00186927
-0.13161 0.264434 0.557345 -0.112548 0.916047 -0.384956
-0.287223 -0.269312 0.25452 -1 -6.2867e-06 -4.53694e-05
0.241614 0.0487861 0.28615 0.0374686 -0.0428771 -0.998378
0.103018 0.204411 0.4131 0.000860597 0.908718 -0.41741
0.255656 0.13892 0.339535 1 -9.50813e-05 -0.000122345
0.0648545 -0.155061 0.348005 -1.31328e-05 0.0638013 0.997963
0.281138 0.226424 0.492882 -0.00150484 -0.948654 0.316312
0.226901 0.173475 0.343652 -1 -7.16455e-05 -4.77906e-05
0.0859341 0.272889 0.564066 0.112076 0.916107 -0.384952
0.282883 -0.267117 0.331257 0.500969 -0.857042 0.120449
-0.177257 -0.125787 0.303126 -0.168278 -0.115304 -0.978973
-0.179053 -0.0218816 0.342111 0.178779 0.113879 0.977277
0.0298612 -0.23991 0.303899 0.0317967 -0.0642278 -0.997429
-0.0491287 0.198123 0.398793 -0.000717654 0.905409 -0.424539
-0.2467 -0.0795543 0.304043 -0.0375747 -0.139085 -0.989567
0.28227 0.048897 0.494565 0.999996 0.000246142 0.00285865
0.0383767 0.153751 0.420035 0.00196952 -0.905501 0.42434
-0.273041 -0.261929 0.441451 -6.9618e-06 -0.138551 -0.990355
0.150026 0.275527 0.58775 0.171445 0.922292 -0.346388
-0.29711 0.0771996 0.493965 0 0 -1
-0.0839987 -0.190666 0.30184 -0.00113034 -0.0642674 -0.997932
0.17289 0.150779 0.318793 -0.00130382 0.616036 -0.787717
0.286899 0.243345 0.0143334 0.981761 0.0777784 0.173481
0.164802 -0.104193 0.349088 -0.178514 0.113801 0.977334
-0.0367833 -0.0053564 0.289585 2.27936e-05 -0.0584114 -0.998293
-0.102739 0.219308 0.57076 0.11738 -0.91566 0.384433
-0.252926 0.0429708 0.287399 -0.677496 -0.102535 -0.728344
-0.029578 -0.142844 0.346245 0.03237 0.0637775 0.997439
0.192154 -0.12096 0.35497 -0.00373988 0.115697 0.993277
-0.224738 0.0262191 0.289016 0.0209741 -0.132068 -0.991019
0.181389 -0.298413 0.346295 0.000266888 -0.990256 0.139261
0.255555 -0.00503957 0.31149 0.99999 -0.000401593 -0.00457338
-0.0712153 -0.117988 0.297145 -0.00113034 -0.0642674 -0.997932
-0.286453 -0.0300103 0.00817475 -0.865209 -0.00020956 -0.501412
0.112621 -0.264555 0.311089 0.1103 -0.0880019 -0.989995
-0.196681 0.270188 0.596822 -0.172042 0.922187 -0.34637
-0.00926108 0.215621 0.552202 -0.00159007 -0.905502 0.42434
-0.276849 0.173076 0.498658 -0.00069483 1 0
-0.0387355 0.22386 0.453665 -0.000717654 0.905409 -0.424539
-0.284684 0.196995 0.480604 -0.765687 -0.00018559 -0.643214
-0.255486 -0.203684 0.330575 -0.99999 -0.000828951 -0.0043418
-0.231806 0.231277 0.502498 -0.12476 0.938909 -0.320758
-0.208386 -0.04978 0.297731 0 -0.116931 -0.99314
-0.172624 0.0940772 0.288965 0.00294988 0.153236 -0.988185
0.0542705 0.152383 0.417234 -0.0319107 -0.908276 0.417153
0.263134 0.22708 0.482032 -0.000118186 0.948191 -0.3177
0.281499 0.0156384 0.0219311 0.344599 8.27629e-05 0.93875
0.106299 -0.007983 0.290104 0.00115746 -0.0642669 -0.997932
0.281817 -0.294817 0.0328325 0.498579 -0.700918 -0.510032
-0.255647 0.220098 0.542187 -0.999991 0.0041031 -0.00147424
-0.285879 -0.0844249 0.507699 0 0 1
0.0719382 -0.0748424 0.342877 -1.31328e-05 0.0638013 0.997963
0.130781 -0.0690036 0.29573 0.1103 -0.0880019 -0.989995
0.0430848 0.222078 0.568126 -0.0319107 -0.908276 0.417153
0.255487 0.228124 0.545149 0.999988 0.00457071 -0.00149686
-0.0154847 0.123771 0.300374 -0.000998265 0.470412 -0.882446
-0.141619 -0.124164 0.301779 0.00313258 -0.0885673 -0.996065
-0.228878 0.156207 0.439129 0.010862 -0.943027 0.332539
0.208129 0.174767 0.348264 -0.000498443 0.907714 -0.419589
0.219111 -0.0265258 0.295558 0.218422 -0.128863 -0.967309
-0.266293 -0.215 0.483978 0.939632 -0.132102 0.315659
0.213352 0.289041 0.00383047 0.000132226 -0.641061 -0.76749
0.198706 0.158746 0.326977 -0.000457136 0.720884 -0.693056
0.267351 -0.224691 0.467759 -0.93966 0.262853 -0.218971
-0.282243 -0.277388 0.132361 -0.499167 0.858067 -0.120641
0.10153 0.0769183 0.336018 1.00375e-05 -0.0530254 0.998593
0.252306 -0.226314 0.320601 5.41167e-06 -0.139245 -0.990258
-0.116169 0.137594 0.38547 -0.000981864 -0.877453 0.479661
0.0122058 0.187965 0.377053 0.000223305 0.90541 -0.424539
-0.00216893 0.128781 0.369522 -0.00156287 -0.879168 0.476509
-0.282287 -0.0698625 0.506157 -0.999995 -0.000231072 -0.00312402
0.239521 0.0849544 0.282966 -5.94405e-05 0.122379 -0.992483
0.0313725 0.24897 0.507484 0.0325043 0.908239 -0.417188
-0.124581 0.22708 0.59594 0.11738 -0.91566 0.384433
-0.0414988 0.0957542 0.341786 -0.00191889 -0.399325 0.916807
0.0854777 -0.119918 0.297288 0.00115746 -0.0642669 -0.997932
0.283027 -0.0255852 0.49616 0.499605 0.000129344 0.866254
-0.166232 0.183075 0.366662 0.00320992 0.909599 -0.415475
0.177917 -0.132848 0.304073 0.168327 -0.115223 -0.978974
-0.0220941 0.0736484 0.285856 -3.52523e-05 0.15085 -0.988557
0.226947 -0.0271648 0.292993 -1 -0.000323395 -0.000654766
0.275023 0.209713 0.0124353 0 0 1
0.208155 -0.102003 0.303892 1.23543e-05 -0.116931 -0.99314
0.127616 0.20836 0.422635 0.112076 0.916107 -0.384952
-0.0294813 -0.125186 0.296596 2.27936e-05 -0.0584114 -0.998293
0.14409 -0.16914 0.305777 -0.00308178 -0.0885689 -0.996065
0.239445 0.0847014 0.282935 -5.94405e-05 0.122379 -0.992483
0.242478 0.0584003 0.335186 1.95574e-05 -0.0524548 0.998623
-0.169059 0.261013 0.558675 -0.172042 0.922187 -0.34637
-0.255639 0.00806298 0.324693 -0.99999 -0.000865878 -0.00447844
-0.075431 0.253452 0.625996 0.000413247 0.315411 0.948955
-0.27153 0.116204 0.021774 0.345645 8.37178e-05 0.938365
-0.238035 -0.113023 0.304654 6.7614e-05 -0.139244 -0.990258
-0.0705227 -0.279257 0.356833 0.11412 0.0872836 0.989625
0.1829 -0.197536 0.363263 -0.178514 0.113801 0.977334
-0.0417242 -0.302387 0.318395 0.000333216 -0.990283 0.139066
-0.17409 0.0250035 0.288413 0.00313258 -0.0885673 -0.996065
0.0685471 -0.0222216 0.339513 -1.31328e-05 0.0638013 0.997963
0.12276 0.116014 0.354846 0.00012923 -0.672874 0.739757
-0.209989 0.0543243 0.334914 0.00544623 -0.050254 0.998722
0.0553228 -0.29173 0.308047 0.0317967 -0.0642278 -0.997429
0.271853 0.180648 0.0219287 -0.344601 -8.27422e-05 0.938749
-0.140292 0.222644 0.587782 -0.00304298 -0.922034 0.387098
-0.132497 -0.0654421 0.2956 -0.110278 -0.0880546 -0.989992
-0.173894 -0.153397 0.305799 -0.168278 -0.115304 -0.978973
-0.284882 -0.204937 0.47846 -0.765624 0.248681 -0.593277
-0.00529912 0.114518 0.353667 -0.00174257 -0.672672 0.739938
0.138049 -0.0474251 0.34355 0.000122786 0.087828 0.996136
0.107704 -0.0788175 0.343445 -0.114169 0.0872271 0.989625
-0.28073 -0.261056 0.383801 -0.500017 -0.857591 0.120501
-0.286824 0.045206 0.484449 -0.939732 -0.0002362 -0.341911
-0.040846 -0.128715 0.345708 0.03237 0.0637775 0.997439
0.255095 -0.284669 0.38015 0.665347 0.103678 0.7393
0.255555 -0.0630204 0.316679 0.99999 -0.000369217 -0.00445358
0.0950123 0.285852 0.0174064 0.000232709 -0.865328 0.501205
-0.279853 -0.294208 0.150146 -0.174555 -0.975066 0.137026
0.2737 -0.296682 0.0342771 -0.173629 -0.882994 -0.43609
-0.0459523 0.285153 0.58742 -0.0328493 0.908211 -0.417221
-0.108553 -0.188525 0.303881 -0.110278 -0.0880546 -0.989992
0.251201 -0.19323 0.320205 0.0376533 -0.139067 -0.989567
0.0385685 0.200817 0.404476 0.000223305 0.90541 -0.424539
-0.178183 -0.264666 0.319642 -0.168278 -0.115304 -0.978973
-0.282246 -0.230719 0.484081 1 0.000354516 -8.58381e-05
0.160446 0.176536 0.477618 0.00336444 -0.922034 0.387095
-0.191521 -0.175292 0.311408 -0.168278 -0.115304 -0.978973
-0.212083 -0.280349 0.37887 0.112395 0.138321 0.983989
-0.264642 -0.155512 0.493965 0 0 -1
-0.0638533 -0.274394 0.355635 0.11412 0.0872836 0.989625
0.106752 -0.267846 0.310728 0.1103 -0.0880019 -0.989995
-0.0382196 -0.176089 0.300056 -0.0317629 -0.0642416 -0.997429
0.0180627 0.0727113 0.335868 0.00175632 -0.0530273 0.998591
0.242697 0.254925 0.574558 0.0466239 0.94542 -0.322503
0.262748 0.100138 0.493965 0 0 -1
0.0188735 -0.0667707 0.341726 0.0015805 0.0579745 0.998317
-0.00499362 -0.252813 0.304064 2.27936e-05 -0.0584114 -0.998293
-0.0635947 -0.246224 0.305382 -0.0317629 -0.0642416 -0.997429
-0.0790085 0.198625 0.518353 -0.00100383 -0.908754 0.41733
-0.269703 0.0590934 0.00456025 0.641056 0.000155268 -0.767494
-0.0171716 0.158725 0.430763 -0.00159007 -0.905502 0.42434
0.087294 0.0842614 0.287479 0.000286265 0.150856 -0.988556
0.27435 0.229803 0.498335 0 0 1
-0.0455614 0.231125 0.469782 -0.0328493 0.908211 -0.417221
0.272449 -0.292734 0.0732739 -0.000572373 -0.139547 -0.990215
0.254778 -0.0281265 0.29915 0.677545 -0.102192 -0.728347
0.28583 0.191272 0.00720189 0.866715 0.000208107 -0.498803
-0.170596 -0.00776662 0.340041 -0.00018037 0.0878272 0.996136
-0.000449192 0.125188 0.363378 -0.00174257 -0.672672 0.739938
0.253578 0.261488 0.622384 0.675749 0.234391 0.698873
-0.216134 0.0575622 0.285989 0 -0.0439153 -0.999035
-0.250158 0.225405 0.635331 -0.00111372 0.315733 0.948847
0.0416269 0.29224 0.602484 0.0325043 0.908239 -0.417188
-0.287066 0.115 0.0147893 -0.98532 -0.000238652 0.17072
0.0374966 -0.0881506 0.343006 -0.0323908 0.06376 0.997439
0.0650897 0.0631032 0.285844 0.001149 -0.0435839 -0.999049
0.172128 -0.1612 0.306414 0.168327 -0.115223 -0.978974
-0.229288 0.217863 0.463565 0.0208141 0.943008 -0.332117
-0.281045 -0.100779 0.477925 -0.499927 -0.000125264 -0.866068
-0.165647 0.185998 0.373291 0.00318638 0.921905 -0.387404
0.173641 0.211175 0.574007 -0.182064 -0.920622 0.345409
0.0173043 -0.224079 0.302479 0.0317967 -0.0642278 -0.997429
0.0180428 -0.26762 0.353846 -0.0323908 0.06376 0.997439
-0.283399 -0.285858 0.196237 -0.499019 -0.858159 0.120593
0.0750381 -0.050919 0.292832 0.00115746 -0.0642669 -0.997932
0.0497555 0.176993 0.470472 -0.0319107 -0.908276 0.417153
0.207989 0.163783 0.457595 -0.217734 -0.920477 0.324522
-0.235299 -0.0113541 0.2938 0.0209741 -0.132068 -0.991019
0.11916 0.035726 0.287304 0.00115746 -0.0642669 -0.997932
-0.280143 0.211537 0.47748 -0.174372 -4.36914e-05 -0.98468
0.285027 -0.244138 0.38512 0.765399 0.637299 -0.0895274
-0.2823 -0.0158026 0.496706 1 0.000235277 0
-0.154636 0.108902 0.348368 -0.00231332 -0.673106 0.739543
0.281543 -0.177135 0.00295075 0.344618 7.49015e-05 -0.938743
-0.0429047 0.199868 0.519791 0.0324764 -0.908274 0.417114
-0.179829 -0.106452 0.352107 0.178779 0.113879 0.977277
-0.190555 0.0947017 0.341203 0.00690208 -0.399339 0.916777
0.125381 0.232684 0.609423 -0.117015 -0.915709 0.384428
-0.080674 0.268052 0.621152 7.19249e-05 0.314673 0.9492
-0.293808 0.0924327 0.493965 0 0 -1
0.158375 0.200293 0.536957 -0.182064 -0.920622 0.345409
-0.249265 -0.152719 0.363666 -3.36485e-05 0.139175 0.990268
0.137428 -0.0547147 0.344192 0.000122786 0.087828 0.996136
0.00293519 -0.0846294 0.294224 9.12253e-06 -0.0584114 -0.998293
-0.236526 0.0169211 0.290006 0.0209741 -0.132068 -0.991019
-0.24207 -0.216762 0.323152 -0.0375827 -0.139086 -0.989567
0.15767 -0.0481617 0.294977 -0.00308178 -0.0885689 -0.996065
-0.279936 -0.0782566 0.0225073 -0.345555 -8.2971e-05 0.938399
-0.151851 0.292269 0.00223334 9.26771e-05 -0.34462 -0.938742
0.206807 -0.194316 0.315132 0.218422 -0.128863 -0.967309
0.209921 -0.148989 0.309797 0.218422 -0.128863 -0.967309
0.217099 0.245441 0.628677 -0.00241883 0.316402 0.948622
-0.190176 0.205143 0.564909 0.0152212 -0.936156 0.351256
0.278578 0.0476884 0.507699 0 0 1
-0.0239151 -0.0120086 0.289974 2.27936e-05 -0.0584114 -0.998293
-0.0409378 0.156891 0.426759 -0.00159007 -0.905502 0.42434
0.267156 -0.279454 0.149066 -0.940425 0.336687 -0.0473626
-0.097909 -0.278024 0.359882 0.11412 0.0872836 0.989625
0.191955 0.25854 0.563275 0.171445 0.922292 -0.346388
0.0698061 0.156447 0.324701 -7.47852e-05 0.720069 -0.693902
0.13627 0.129608 0.370685 0.00241842 -0.877501 0.479569
0.28733 -0.260494 0.307755 1 0.000807538 -7.00721e-05
0.244004 0.0865856 0.283167 -5.94405e-05 0.122379 -0.992483
0.146451 0.0959937 0.289343 -0.00278167 0.325749 -0.945452
-0.270016 -0.290809 0.161468 0.49885 -0.858251 0.12064
0.105386 -0.245887 0.308624 0.1103 -0.0880019 -0.989995
0.18744 0.127915 0.302492 -0.00262682 0.470369 -0.882466
-0.222056 0.200833 0.566764 0.114252 -0.940141 0.321063
-0.218199 -0.245621 0.324548 -0.218344 -0.128974 -0.967312
-0.0977577 0.188281 0.378079 -0.00123817 0.908702 -0.417444
-0.281496 -0.168862 0.497024 -0.499723 -0.000125765 0.866185
0.00577043 0.102114 0.344633 0.00216393 -0.39949 0.916735
-0.0225956 -0.095535 0.294861 2.27936e-05 -0.0584114 -0.998293
0.279258 -0.258391 0.0263225 0.174219 0.408402 0.896022
-0.103996 -0.266864 0.310341 -0.110278 -0.0880546 -0.989992
0.272959 -0.244595 0.357391 -0.500765 0.857157 -0.120485
-0.172751 0.0037641 0.290306 0.00313258 -0.0885673 -0.996065
0.107074 0.270112 0.563612 0.112076 0.916107 -0.384952
0.0828735 0.305319 0.00914846 -0.000256107 0.984672 -0.174419
0.187491 0.185939 0.372748 -0.00370521 0.921905 -0.387397
0.286947 -0.127361 0.490446 0.939646 0.000237694 0.342148
-0.084228 0.207507 0.419892 -0.00123817 0.908702 -0.417444
0.268054 0.0511584 0.507699 0 0 1
0.303785 -0.210065 0.494741 0.999998 0.000682665 0.00171588
-0.14994 0.288404 0.0205939 0.000140855 -0.641326 0.767269
0.0347119 -0.148993 0.298199 0.0317967 -0.0642278 -0.997429
0.267881 -0.111752 0.00665092 -0.865323 -0.000207773 -0.501215
0.28116 0.11357 0.497217 0.49997 0.000125675 0.866043
-0.251714 0.167642 0.337446 -3.24796e-05 -0.83771 0.546115
-0.166999 -0.191304 0.309079 -0.168278 -0.115304 -0.978973
-0.282274 -0.128733 0.496814 0.999999 0.000227359 -0.00117889
-0.266878 -0.236355 0.451071 0.938679 0.320407 -0.127365
0.255602 -0.0121565 0.322558 0.99999 -0.000401593 -0.00457338
0.173907 -0.121074 0.301997 0.168327 -0.115223 -0.978974
0.283552 0.0635296 0.493965 0 0 -1
-0.29681 0.0373568 0.507699 0 0 1
0.286558 -0.00437693 0.483779 0.940053 0.000227853 -0.341029
0.0840816 0.0389521 0.287055 0.00115746 -0.0642669 -0.997932
0.136462 0.235318 0.489366 0.112076 0.916107 -0.384952
-0.000858287 0.223209 0.452213 -0.000717654 0.905409 -0.424539
-0.194312 0.191566 0.528903 0.0152212 -0.936156 0.351256
-0.162714 0.118933 0.297813 0.00210207 0.470907 -0.88218
0.0847376 -0.203508 0.30267 0.00115746 -0.0642669 -0.997932
0.260797 0.138887 0.496359 -1 -0.000258969 0
0.159594 0.247397 0.62803 0.000828554 0.315184 0.94903
0.026976 -0.0888894 0.342998 0.0015805 0.0579745 0.998317
0.227865 0.141317 0.396548 -0.0106715 -0.943045 0.332494
0.276029 0.206207 0.00187278 0 0 -1
0.210031 0.258894 0.624185 -0.000106235 0.315395 0.94896
-0.214434 0.186575 0.524775 0.010862 -0.943027 0.332539
0.0709817 -0.280072 0.307829 0.1103 -0.0880019 -0.989995
0.177474 0.246168 0.523164 0.171445 0.922292 -0.346388
0.233447 -0.18573 0.318026 0.124819 -0.138061 -0.982527
-0.000101563 0.267336 0.54632 -0.000717654 0.905409 -0.424539
0.251934 -0.220891 0.32412 0.0376533 -0.139067 -0.989567
-0.255675 0.00371705 0.333603 -0.99999 -0.000865878 -0.00447844
-0.252754 0.211859 0.448657 -0.999999 0.00130923 -0.000545759
-0.100459 0.224157 0.581614 0.11738 -0.91566 0.384433
0.0572138 0.226744 0.579367 -0.0319107 -0.908276 0.417153
-0.10386 0.153364 0.419734 -0.00100383 -0.908754 0.41733
0.286913 0.145863 0.0151646 0.984726 0.000236443 0.174111
-0.207471 0.197895 0.554273 0.218171 -0.92036 0.324558
0.138073 0.0313521 0.336604 0.000122786 0.087828 0.996136
0.23376 -0.248542 0.323727 5.41167e-06 -0.139245 -0.990258
0.139123 -0.0489846 0.29488 0.1103 -0.0880019 -0.989995
-0.266623 -0.0334343 0.00888499 0.984625 0.000238483 -0.174683
0.0279228 -0.12498 0.296585 9.12253e-06 -0.0584114 -0.998293
0.298889 0.122182 0.493965 0 0 -1
0.266263 -0.243895 0.483847 7.41105e-05 -0.748099 0.663588
0.186562 -0.0745262 0.34954 -0.00373988 0.115697 0.993277
0.0513869 0.294783 0.610111 0.0243762 0.911252 0.411127
-0.289862 -0.262622 0.445911 0.000680363 -0.979179 0.203
0.0536918 0.100861 0.290974 0.000605716 0.329189 -0.944264
-0.146756 0.218422 0.450605 0.00318638 0.921905 -0.387404
0.173821 0.0239129 0.337255 0.000122786 0.087828 0.996136
-0.287244 0.244369 0.0122492 -0.982308 0.0767617 -0.170817
0.224935 0.0521579 0.334885 -9.98401e-05 0.1311 0.991369
0.285628 0.112687 0.49337 0.76657 0.000198909 0.642161
-0.0359614 -0.277816 0.355083 0.03237 0.0637775 0.997439
-0.0897456 -0.044868 0.292457 -0.00113034 -0.0642674 -0.997932
0.088601 -0.236305 0.355123 -0.114169 0.0872271 0.989625
0.267276 -0.202378 0.00773329 -0.865323 -0.000207773 -0.501215
-0.158474 0.270856 0.579625 -0.172042 0.922187 -0.34637
0.038706 0.215202 0.435155 0.000223305 0.90541 -0.424539
-0.0853804 0.00560003 0.289202 -0.00113034 -0.0642674 -0.997932
0.159975 0.200635 0.407984 -0.00370521 0.921905 -0.387397
-0.222317 -0.11335 0.307667 0.0209741 -0.132068 -0.991019
-0.164179 0.269333 0.620717 -0.000987447 0.31518 0.949031
-0.232721 0.0358504 0.283721 6.7614e-05 -0.139244 -0.990258
0.21522 -0.119131 0.307016 0.218422 -0.128863 -0.967309
-0.248862 0.221915 0.467115 -0.000441532 0.947398 -0.320058
0.241399 0.240205 0.531266 0.038507 0.945606 -0.323029
0.206516 0.0944904 0.341188 -0.00658119 -0.399494 0.916712
0.244135 -0.172979 0.317472 0 0.139203 0.990264
-0.110652 0.0246416 0.288004 -0.00113034 -0.0642674 -0.997932
-0.277288 0.0699645 0.476981 -0.174092 -4.61952e-05 -0.984729
-0.241476 -0.282667 0.38193 -3.36485e-05 0.139175 0.990268
0.196602 -0.0458598 0.297047 0.168327 -0.115223 -0.978974
-0.271743 -0.162305 0.478268 0.499923 0.000125073 -0.86607
0.253674 0.22028 0.47802 0.693526 0.681868 -0.232546
0.0391611 0.265096 0.543197 0.0325043 0.908239 -0.417188
0.237622 0.196934 0.406232 0.000478058 -0.947007 0.321213
0.159151 0.0136942 0.289473 -0.00308178 -0.0885689 -0.996065
-0.136707 0.136625 0.383647 -0.00196327 -0.877452 0.47966
-0.00937328 0.143955 0.313497 -0.00108301 0.613734 -0.789512
-0.261992 -0.104544 0.494087 0.705767 0.00016784 -0.708444
0.0207977 -0.294445 0.355609 -0.0224178 -0.619958 0.784315
-0.069224 -0.10837 0.345018 -1.09399e-05 0.0638041 0.997962
0.284913 0.0373453 0.507699 0 0 1
-0.170249 0.132629 0.376171 -0.00294564 -0.876457 0.481471
0.303706 0.0957627 0.505609 1 0.000266749 0.000295537
-0.171599 -0.181011 0.308657 -0.168278 -0.115304 -0.978973
0.19848 0.237706 0.510742 -7.9005e-05 0.936148 -0.351605
0.266334 0.184522 0.0101833 -0.985176 -0.000236551 -0.171547
-0.261898 -0.126957 0.507487 0.70794 0.000168357 0.706273
-0.00190685 0.16838 0.451423 -0.00159007 -0.905502 0.42434
-0.150767 0.194677 0.521085 -0.00304298 -0.922034 0.387098
0.129114 0.128778 0.303072 0.000855827 0.471088 -0.882086
-0.277541 -0.223803 0.0124353 0 0 1
0.0511051 -0.0899594 0.343563 -0.0323908 0.06376 0.997439
0.263587 -0.19676 0.507241 0 -0.0651032 0.997879
0.0236297 0.205332 0.414096 0.000223305 0.90541 -0.424539
0.255639 -0.163379 0.343787 0.99999 -0.000369217 -0.00445358
-0.229065 0.190482 0.374043 -0.000367846 0.947403 -0.320042
-0.285923 0.00371605 0.00724631 -0.865209 -0.00020956 -0.501412
-0.277154 -0.299505 0.0742064 0.000776504 0.138814 0.990318
0.183446 0.141748 0.394556 0.00336444 -0.922034 0.387095
0.268178 -0.218535 0.00146813 -1 -0.00025633 0
-0.0575802 0.219486 0.563654 0.0324764 -0.908274 0.417114
-0.255611 -0.28242 0.374393 -0.99999 -0.000828951 -0.0043418
-0.243966 -0.206384 0.317782 0 -0.139249 -0.990257
-0.133532 0.253514 0.531921 -0.112548 0.916047 -0.384956
0.180845 -0.180453 0.310179 0.168327 -0.115223 -0.978974
0.0108331 0.232867 0.589151 -0.0319107 -0.908276 0.417153
0.181565 0.217674 0.449323 0.171445 0.922292 -0.346388
0.163192 0.215736 0.580654 -0.182064 -0.920622 0.345409
0.126253 -0.300055 0.315849 0.0816936 -0.769839 -0.632989
-0.287339 0.211515 0.486226 -1 -0.00025778 -0.000715485
0.285375 -0.0418132 0.49372 0.76657 0.000198909 0.642161
-0.227097 -0.054591 0.299735 0.0209741 -0.132068 -0.991019
-0.241465 0.233603 0.512281 -0.0393263 0.945571 -0.32303
-0.110247 0.277039 0.581092 -0.112548 0.916047 -0.384956
0.285817 -0.282233 0.12069 0.765399 0.637299 -0.0895274
-0.110591 0.0945528 0.2891 -0.00113342 0.15085 -0.988556
0.171491 -0.283663 0.371207 -0.178514 0.113801 0.977334
-0.0172959 -0.165354 0.347453 -0.00161738 0.0579738 0.998317
0.0390643 0.0292315 0.336119 0.0015805 0.0579745 0.998317
0.188469 -0.223492 0.316556 0.168327 -0.115223 -0.978974
0.0686693 -0.209278 0.351472 -1.31328e-05 0.0638013 0.997963
0.0644638 0.242519 0.495984 0.000860597 0.908718 -0.41741
0.255509 0.0126667 0.300077 0.99999 -0.000401593 -0.00457338
0.287081 0.103378 0.489918 0.939646 0.000237694 0.342148
-0.260888 0.144423 0.496271 1 0.000233875 0
0.255643 0.0192514 0.328619 0.99999 -0.000401593 -0.00457338
-0.0266501 -0.126332 0.345171 -0.00161738 0.0579738 0.998317
0.17318 0.166075 0.453557 -0.182064 -0.920622 0.345409
0.269396 -0.298514 0.100449 -0.765257 -0.637463 0.089574
-0.261789 0.286348 0.00349768 -0.416562 0.487397 -0.767412
0.13835 -0.140359 0.351743 0.000122786 0.087828 0.996136
0.237173 -0.231798 0.374796 -5.18813e-05 0.139176 0.990268
0.122272 0.0278315 0.336314 -1.31328e-05 0.0638013 0.997963
-0.0758309 0.0804339 0.286906 -0.00113342 0.15085 -0.988556
0.149769 -0.180327 0.355266 0.000122786 0.087828 0.996136
0.181361 0.00144017 0.290494 -0.00308178 -0.0885689 -0.996065
-0.246628 0.189741 0.385372 0 -0.947014 0.321193
-0.190742 -0.0986812 0.302251 -0.168278 -0.115304 -0.978973
0.168662 -0.29571 0.365537 0.000266888 -0.990256 0.139261
0.226932 0.0308914 0.288683 -0.999998 -3.92825e-06 0.00186927
-0.1028 0.168125 0.339041 -0.000757358 0.81467 -0.579924
-0.255656 0.0596719 0.296565 -0.999958 -0.00856697 -0.00328235
-0.282277 -0.125351 0.494238 0.999999 0.000227359 -0.00117889
0.109064 0.287247 0.0195733 0.000132554 -0.642652 0.766158
0.0840199 -0.291435 0.359453 -0.114169 0.0872271 0.989625
0.282331 -0.222472 0.496641 -1 -0.000122321 -0.000761135
-0.121217 0.125623 0.363645 0.000147814 -0.673148 0.739508
0.15585 0.257903 0.544307 -0.00370521 0.921905 -0.387397
0.278409 0.135348 0.00187278 0 0 -1
0.222436 -0.0999491 0.355 -9.98401e-05 0.1311 0.991369
-0.287225 -0.265206 0.292237 -1 -6.2867e-06 -4.53694e-05
-0.13472 -0.23567 0.310989 -0.110278 -0.0880546 -0.989992
0.0599644 0.0454699 0.286612 9.12253e-06 -0.0584114 -0.998293
0.235118 -0.226953 0.32403 0.124819 -0.138061 -0.982527
-0.147345 -0.157184 0.304697 0.00313258 -0.0885673 -0.996065
-0.291842 0.0552785 0.493965 0 0 -1
0.126432 0.221141 0.582247 -0.117015 -0.915709 0.384428
-0.207156 0.244346 0.529214 -0.223075 0.919439 -0.323834
0.235573 -0.0908868 0.304969 0.124819 -0.138061 -0.982527
-0.210248 0.0381936 0.336518 0.213379 0.128138 0.96853
-0.232361 -0.134201 0.312004 0 0.139204 0.990264
0.0261366 0.126196 0.364644 0.00209308 -0.879167 0.476508
0.276917 0.215177 0.476932 0.173907 4.3159e-05 -0.984762
0.303775 -0.162749 0.497737 1 0.000266545 0
0.255581 0.201869 0.527931 0.999989 0.00449589 -0.00148469
0.194899 0.241519 0.519412 0.171445 0.922292 -0.346388
0.279364 0.22941 0.497854 0.174697 0.00028573 0.984622
0.0306829 -0.236176 0.352247 -0.0323908 0.06376 0.997439
-0.28486 -0.244314 0.459814 -0.765296 -0.597903 0.238398
0.0323709 -0.0374943 0.291466 9.12253e-06 -0.0584114 -0.998293
-0.137773 -0.296311 0.361845 8.66803e-05 -0.990239 0.13938
-0.233434 0.145719 0.314671 0.0180444 0.615482 -0.787945
0.226931 0.037804 0.286711 -1 -0.000323395 -0.000654766
0.14194 0.000629216 0.339312 0.000122786 0.087828 0.996136
-0.053354 0.00143738 0.289187 2.27936e-05 -0.0584114 -0.998293
0.177026 0.152647 0.420572 0.00336444 -0.922034 0.387095
0.24932 -0.291721 0.333975 0.0376533 -0.139067 -0.989567
0.128425 0.242172 0.503336 0.112076 0.916107 -0.384952
0.21029 0.124791 0.300836 0.0029461 0.470371 -0.882464
-0.243805 0.186278 0.52916 0.000226825 -0.94634 0.323172
-0.0880148 0.285798 0.595437 -0.112548 0.916047 -0.384956
0.260831 0.00731672 0.500102 -1 -0.000258969 0
-0.159603 -0.136523 0.302821 0.00313258 -0.0885673 -0.996065
-0.0250192 0.211188 0.543049 0.0324764 -0.908274 0.417114
0.215566 -0.29465 0.373043 0.00041117 -0.990264 0.139202
0.249875 -0.298504 0.345509 0.000421931 -0.990273 0.139137
0.177329 0.132857 0.305156 -0.00262682 0.470369 -0.882466
0.2669 0.173203 0.491671 -0.939878 -0.000237751 0.341511
-0.255683 -0.0526616 0.346245 -0.99999 -0.000865878 -0.00447844
-0.278179 -0.051055 0.477144 -0.174092 -4.61952e-05 -0.984729
0.247735 -0.259276 0.378658 -3.36262e-05 0.139175 0.990268
0.303792 -0.246089 0.476781 1 0.000833667 0.00045851
-0.236923 -0.101811 0.356512 -3.17791e-05 0.139175 0.990268
0.238377 -0.0416271 0.299007 -7.03194e-06 0.139203 0.990264
-0.251828 0.0818333 0.282596 0 0.122379 -0.992483
-0.144692 -0.0736473 0.297277 0.00313258 -0.0885673 -0.996065
-0.281437 0.16961 0.0219765 -0.345643 -8.37173e-05 0.938366
-0.269721 -0.213414 0.00449028 0.641056 0.000155269 -0.767494
-0.282282 -0.0932538 0.501761 1 0.000230124 0.000242888
-0.227164 0.259649 0.583742 -0.12476 0.938909 -0.320758
-0.226937 -0.0917401 0.305972 0.999999 0.000410786 0.00134485
0.242578 -0.00244386 0.293499 -7.03194e-06 0.139203 0.990264
0.0540316 0.103108 0.344953 0.00216932 -0.399501 0.91673
0.238835 0.0703316 0.285241 -4.61772e-07 0.00990763 0.999951
-0.255604 -0.0548913 0.328939 -0.99999 -0.000865878 -0.00447844
0.0462072 0.0651798 0.335419 0.00175492 -0.0530246 0.998592
0.052623 -0.276222 0.306963 0.0317967 -0.0642278 -0.997429
0.293503 -0.238872 0.488775 0.000357828 -0.655446 0.755242
-0.110459 0.186603 0.495219 0.11738 -0.91566 0.384433
-0.109108 -0.153809 0.300855 -0.110278 -0.0880546 -0.989992
0.269383 -0.24937 0.44729 -0.764521 -0.62929 0.139653
0.132608 0.199833 0.533353 0.00336444 -0.922034 0.387095
0.112538 -0.0103667 0.338756 -1.31328e-05 0.0638013 0.997963
-0.0423344 0.281371 0.578902 -0.0328493 0.908211 -0.417221
-0.107316 -0.24778 0.309013 -0.110278 -0.0880546 -0.989992
-0.141444 0.211105 0.560288 -0.00304298 -0.922034 0.387098
0.216574 0.134777 0.306289 0.00221868 0.616035 -0.787716
0.0841667 0.289114 0.602162 0.112076 0.916107 -0.384952
0.00961369 0.279341 0.571927 0.000223305 0.90541 -0.424539
-0.129513 -0.0652087 0.344757 0.11412 0.0872836 0.989625
-0.27528 -0.0769037 0.507699 0 0 1
0.171767 0.162341 0.330794 -0.00204529 0.720881 -0.693055
0.0684932 -0.0344952 0.291767 0.00115746 -0.0642669 -0.997932
-0.213291 0.297792 0.00217522 -6.94986e-05 0.344533 -0.938774
0.283091 -0.105068 0.507699 0 0 1
0.127765 0.217635 0.574302 -0.117015 -0.915709 0.384428
-0.179003 0.170168 0.341881 0.00124295 0.814676 -0.579915
0.0971471 -0.262246 0.30916 0.1103 -0.0880019 -0.989995
-0.0927379 -0.142391 0.298741 -0.00113034 -0.0642674 -0.997932
0.0382657 -0.182178 0.300449 0.0317967 -0.0642278 -0.997429
0.190689 -0.110855 0.30368 0.168327 -0.115223 -0.978974
0.195498 0.140042 0.310359 -0.00130382 0.616036 -0.787717
0.267353 0.0491055 0.0173958 -0.866835 -0.000208136 0.498595
0.0441282 -0.132433 0.346052 -0.0323908 0.06376 0.997439
0.167437 0.110222 0.29419 -0.00220325 0.32721 -0.944949
0.255596 -0.239519 0.34057 0.99999 -0.000369217 -0.00445358
0.248376 0.204867 0.429615 0 -0.947036 0.321127
-0.263543 -0.200903 0.492895 -0.000113398 0.207713 -0.97819
0.272732 -0.264122 0.219414 -0.500765 0.857157 -0.120485
0.11237 -0.287962 0.313142 0.1103 -0.0880019 -0.989995
-0.277662 0.119336 0.498174 -0.174124 -4.24936e-05 0.984724
0.177689 0.261258 0.56345 0.171445 0.922292 -0.346388
-0.0110258 0.276858 0.566646 -0.000717654 0.905409 -0.424539
0.242415 0.152508 0.320228 0.0248173 0.723555 -0.68982
-0.252678 -0.0717817 0.301615 -0.999999 -0.000419761 -0.00134011
-0.181112 -0.185785 0.310855 -0.168278 -0.115304 -0.978973
-0.136205 0.102243 0.291532 -0.00110476 0.325703 -0.945471
0.217591 0.304153 0.00680454 -0.000225312 0.866715 -0.498803
-0.0290376 0.282591 0.580511 -0.0328493 0.908211 -0.417221
-0.121557 0.100624 0.290957 -0.00110476 0.325703 -0.945471
-0.262837 -0.214314 0.503377 3.16064e-05 -0.31904 0.947741
0.266367 -0.155109 0.507699 0 0 1
0.0724944 0.000736438 0.338045 -1.31328e-05 0.0638013 0.997963
0.0354346 -0.17926 0.300171 0.0317967 -0.0642278 -0.997429
-0.235711 -0.128351 0.306809 6.7614e-05 -0.139244 -0.990258
0.244802 0.166609 0.330102 -0.000352449 0.75629 -0.654236
0.0434201 0.128129 0.302695 -0.000160227 0.467863 -0.883801
0.0842644 -0.229711 0.304833 0.1103 -0.0880019 -0.989995
-0.226929 -0.12065 0.306748 0.999999 3.40203e-05 -0.0016319
5.04297e-06 0.0308107 0.336089 0.0015805 0.0579745 0.998317
-0.20615 -0.26509 0.324425 -0.218344 -0.128974 -0.967312
-0.0908761 -0.0400835 0.29215 -0.00113034 -0.0642674 -0.997932
-0.249705 0.201232 0.419251 -3.67283e-05 -0.947011 0.3212
-0.239664 0.100379 0.290211 -1.3363e-05 -0.286834 0.95798
-0.103334 -0.186858 0.352467 0.11412 0.0872836 0.989625
0.192569 0.265307 0.581595 0.171445 0.922292 -0.346388
0.272569 -0.274456 0.286925 -0.499023 -0.858159 0.120581
0.02151 0.176008 0.467607 0.00196952 -0.905501 0.42434
0.0755825 0.205699 0.533675 0.00151488 -0.908736 0.417368
-0.0835821 -0.244514 0.355275 0.11412 0.0872836 0.989625
-0.0987772 0.129273 0.370253 0.000193032 -0.879069 0.476694
0.198804 -0.285054 0.376727 -0.21331 0.128027 0.96856
0.061196 0.200035 0.521394 0.00151488 -0.908736 0.417368
0.299562 0.156588 0.493965 0 0 -1
0.170885 0.0575602 0.334954 0.000634013 -0.0507571 0.998711
-0.0499321 -0.111277 0.344887 0.03237 0.0637775 0.997439
-0.20061 -0.299369 0.340168 0.000200322 -0.990243 0.139353
0.275569 0.221643 0.478606 -0.000756738 0.947439 -0.319934
-0.14444 0.252059 0.530669 0.00318638 0.921905 -0.387404
-0.0877203 -0.13054 0.346436 -1.09399e-05 0.0638041 0.997962
-0.0355462 0.0969321 0.342312 -0.00191889 -0.399325 0.916807
-0.227553 0.144801 0.406738 0.010862 -0.943027 0.332539
-0.200256 -0.231428 0.369988 0.213379 0.128138 0.96853
-0.237952 0.0158149 0.33998 -3.17791e-05 0.139175 0.990268
0.0403102 0.154519 0.322704 0.000871379 0.723122 -0.690719
0.21993 0.15036 0.318416 -0.000389189 0.613735 -0.789512
-0.0341209 -0.111945 0.295821 2.27936e-05 -0.0584114 -0.998293
0.266968 0.0248923 0.00817134 -0.865323 -0.000207773 -0.501215
-0.0455572 0.182961 0.366351 -0.000706865 0.909298 -0.416146
-0.282286 -0.0726796 0.501426 1 0.000230124 0.000242888
-0.194639 -0.102461 0.303366 -0.168278 -0.115304 -0.978973
0.0383356 -0.0725382 0.293517 9.12253e-06 -0.0584114 -0.998293
0.146894 -0.033757 0.29373 -0.00308178 -0.0885689 -0.996065
-0.0538155 0.00342322 0.337679 0.03237 0.0637775 0.997439
-0.0749962 0.292917 0.00200295 9.26771e-05 -0.34462 -0.938742
-0.231382 -0.133764 0.307571 6.7614e-05 -0.139244 -0.990258
0.0358447 0.195799 0.393771 0.000223305 0.90541 -0.424539
-0.243131 0.223595 0.472079 -0.000441532 0.947398 -0.320058
0.205787 0.258525 0.568335 0.223191 0.919439 -0.323755
0.261762 0.261177 0.0153925 -0.909945 -0.376455 0.174016
0.192229 0.068196 0.285537 -0.00182833 -0.0439006 -0.999034
0.194967 -0.250494 0.320851 0.168327 -0.115223 -0.978974
0.280766 -0.275382 0.281218 0.498968 -0.858183 0.120633
-0.0759996 -0.218324 0.352091 0.11412 0.0872836 0.989625
-0.0578335 0.211145 0.427253 -0.0328493 0.908211 -0.417221
0.198565 0.216888 0.455314 -7.9005e-05 0.936148 -0.351605
0.264859 -0.199813 0.4931 1.02819e-05 0.207713 -0.97819
0.163842 0.200136 0.406759 -0.00370521 0.921905 -0.387397
-0.232391 0.113871 0.295248 0.0219437 0.330784 -0.943451
-0.0436981 0.303588 0.00593756 -0.000178841 0.867065 -0.498196
-0.13227 0.18757 0.376633 -0.00123817 0.908702 -0.417444
-0.235832 0.058927 0.285353 -4.77472e-06 0.00990952 0.999951
0.15858 0.138508 0.387054 0.00336444 -0.922034 0.387095
-0.271585 0.0839407 0.478394 0.499905 0.000125259 -0.86608
-0.140741 -0.168231 0.305661 -0.110278 -0.0880546 -0.989992
-0.122845 -0.0329354 0.341141 0.11412 0.0872836 0.989625
0.148793 0.200726 0.408306 -0.00370521 0.921905 -0.387397
0.106324 -0.297049 0.356125 0.000215863 -0.990266 0.139186
0.0234201 0.232628 0.472311 0.000223305 0.90541 -0.424539
-0.0138975 -0.248705 0.352505 0.03237 0.0637775 0.997439
0.165466 -0.181671 0.307678 0.168327 -0.115223 -0.978974
0.134635 0.181702 0.363692 0.000861016 0.909553 -0.415587
0.255498 0.169045 0.373197 0.999989 0.00441118 -0.00175319
-0.255553 -0.025786 0.311844 -0.99999 -0.000865878 -0.00447844
0.144588 -0.0545698 0.344179 0.000122786 0.087828 0.996136
0.113961 0.170007 0.341651 -8.46061e-05 0.814624 -0.579989
-0.0502067 0.0992958 0.343311 -0.00191889 -0.399325 0.916807
0.255441 0.215971 0.477724 0.999988 0.00457071 -0.00149686
0.231732 0.218026 0.463548 -0.0210896 0.943016 -0.332077
0.282328 -0.204532 0.499218 0.999996 0.000293155 -0.00273185
0.200047 0.232096 0.633104 -0.000953673 0.316109 0.948722
-0.236495 -0.15904 0.311125 0 -0.139249 -0.990257
-0.118373 -0.01886 0.339384 0.11412 0.0872836 0.989625
-0.303789 0.140592 0.505322 -1 -0.00025355 0.000754763
-0.235649 0.188708 0.536098 0.114252 -0.940141 0.321063
-0.0883308 0.184997 0.370903 -0.00123817 0.908702 -0.417444
0.120412 -0.162087 0.352251 -0.114169 0.0872271 0.989625
0.167132 0.0961961 0.341831 0.0023345 -0.399354 0.916794
-0.0410005 0.305593 0.0108715 -0.000260303 0.984625 -0.174683
0.303738 -0.0216418 0.499428 1 0.000266545 0
-0.0459147 0.0494767 0.334931 -0.00161738 0.0579738 0.998317
0.0823194 -0.0547522 0.293088 0.00115746 -0.0642669 -0.997932
0.147798 0.25392 0.534904 -0.00370521 0.921905 -0.387397
0.214126 0.171519 0.343614 -0.000446702 0.813487 -0.581583
0.253594 0.182461 0.515041 0.669559 -0.702889 0.240078
-0.131726 0.00131912 0.289576 -0.110278 -0.0880546 -0.989992
-0.255511 -0.160522 0.328003 -0.99999 -0.000828951 -0.0043418
-0.255623 -0.187948 0.358961 -0.99999 -0.000865878 -0.00447844
-0.280846 -0.0321644 0.00270676 -0.345662 -8.29969e-05 -0.938359
0.235634 -0.0668561 0.302554 0 0.139203 0.990264
-0.183479 0.180253 0.496994 0.182713 -0.920498 0.345397
-0.282243 -0.247465 0.457771 1 0.000345663 -0.000125933
0.17295 0.220457 0.598381 -0.182064 -0.920622 0.345409
0.0345032 0.122662 0.360982 0.00214832 -0.672672 0.739938
0.0749394 -0.21999 0.303721 0.00115746 -0.0642669 -0.997932
0.280679 0.227383 0.495738 0.00266818 -0.947431 0.31995
0.255596 -0.249949 0.341295 0.99999 -0.000369217 -0.00445358
0.265805 -0.245648 0.455685 -0.000651815 0.939137 -0.343542
0.266747 0.00395995 0.491132 -0.939383 -0.000250552 0.34287
-0.0162915 -0.13691 0.297283 2.27936e-05 -0.0584114 -0.998293
0.168088 -0.147234 0.3547 -0.178514 0.113801 0.977334
-0.0890689 0.0436466 0.335299 -1.09399e-05 0.0638041 0.997962
0.255595 0.155254 0.39655 0.999989 0.00449589 -0.00148469
0.214965 0.162135 0.330546 0.00183617 0.723182 -0.690655
-0.154494 0.000195812 0.339342 -0.00018037 0.0878272 0.996136
-0.276639 -0.0434901 0.507699 0 0 1
-0.00617429 -0.12495 0.345124 -0.00161738 0.0579738 0.998317
0.150659 0.209864 0.558398 -0.182064 -0.920622 0.345409
-0.182976 -0.14376 0.35703 0.178779 0.113879 0.977277
0.152256 -0.251313 0.363927 -0.178514 0.113801 0.977334
-0.255577 0.178212 0.371296 -0.999961 0.00630077 0.0061839
-0.285252 -0.226056 0.00401449 -1 -0.000279253 0
0.266842 -0.185309 0.483961 -0.939791 -0.000236146 -0.341749
-0.112044 -0.284318 0.31279 -0.110278 -0.0880546 -0.989992
-0.254814 -0.229596 0.327521 -0.676197 -0.102681 -0.72953
0.270465 -0.246563 0.458932 -0.498917 -0.805265 0.320359
-0.105705 -0.225007 0.356105 0.11412 0.0872836 0.989625
-0.233058 0.102168 0.290746 -1.3363e-05 -0.286834 0.95798
0.159988 -0.0829474 0.298063 -0.00308178 -0.0885689 -0.996065
0.303688 0.167915 0.495702 0.999863 0.000235302 0.0165278
-0.227607 -0.0984928 0.355079 0.112395 0.138321 0.983989
-0.0951601 -0.141637 0.347536 0.11412 0.0872836 0.989625
0.058269 0.066032 0.285715 1.18874e-05 -0.0435843 -0.99905
-0.278575 -0.247938 0.449024 4.84574e-05 0.978925 -0.204218
-0.133396 0.291985 0.00233958 9.26771e-05 -0.34462 -0.938742
0.150228 0.2842 0.614279 0.128968 0.89775 0.421204
-0.0514861 0.215597 0.55471 0.0324764 -0.908274 0.417114
-0.272743 0.152795 0.507699 0 0 1
0.211874 0.227358 0.63408 -0.0800788 -0.434302 0.897201
-0.186359 0.248143 0.533003 -0.172042 0.922187 -0.34637
-0.179286 -0.295645 0.366606 8.66803e-05 -0.990239 0.13938
-0.0781666 0.0597623 0.285988 -9.92386e-05 -0.0435808 -0.99905
-0.195008 0.230529 0.632724 0.150581 -0.388098 0.909233
0.270309 -0.220917 0.487506 -0.49805 -0.458081 0.73628
0.127341 0.03156 0.336075 -1.31328e-05 0.0638013 0.997963
0.0272367 -0.0143549 0.338669 0.0015805 0.0579745 0.998317
0.23453 0.238589 0.524684 0.123857 0.939022 -0.320774
-0.0276323 -0.161265 0.298764 -0.0317629 -0.0642416 -0.997429
0.23393 -0.135091 0.307774 6.70728e-05 -0.13925 -0.990257
0.106588 -0.0031701 0.338295 -1.31328e-05 0.0638013 0.997963
0.220164 0.182214 0.364376 -7.66197e-05 0.907884 -0.419222
-0.194772 0.229078 0.486422 -0.172042 0.922187 -0.34637
0.268716 -0.199027 0.0124353 0 0 1
0.270444 -0.230478 0.478136 -3.51054e-05 0.708733 -0.705477
0.23968 0.197611 0.406374 0.038507 0.945606 -0.323029
-0.0484694 0.221795 0.449701 -0.0328493 0.908211 -0.417221
0.22224 0.18773 0.528171 -0.113871 -0.940185 0.321068
-0.255587 0.181587 0.394698 -0.999991 0.00389523 -0.00144045
-0.107946 -0.0989267 0.345244 0.11412 0.0872836 0.989625
0.0754164 -0.262968 0.355952 -0.114169 0.0872271 0.989625
0.2557 -0.124169 0.353707 0.99999 -0.000401593 -0.00457338
0.271755 -0.296719 0.125117 -0.499023 -0.858159 0.120581
0.24335 0.0765502 0.336139 1.95539e-05 -0.0524548 0.998623
0.176131 0.260364 0.560299 0.171445 0.922292 -0.346388
-0.0836859 -0.166604 0.30029 -0.00113034 -0.0642674 -0.997932
-0.287256 -0.0283537 0.0134931 -0.985274 -0.000236574 0.170984
-0.244681 -0.117075 0.358657 -3.36485e-05 0.139175 0.990268
0.0313512 0.0869605 0.287885 -4.99994e-05 0.150859 -0.988555
0.034007 -0.301444 0.324995 8.60277e-05 -0.990283 0.139066
0.26864 -0.246004 0.455447 -0.764449 -0.598838 0.23877
0.0571778 -0.195136 0.301886 0.0317967 -0.0642278 -0.997429
-0.252744 0.172488 0.34463 -1 7.20281e-05 -0.000235686
0.239419 0.0372237 0.336986 -5.18813e-05 0.139176 0.990268
-0.296655 0.162678 0.507699 0 0 1
0.218628 0.147063 0.315853 -0.000389189 0.613735 -0.789512
0.0188464 -0.154977 0.346848 0.0015805 0.0579745 0.998317
0.255708 -0.222264 0.364059 0.99999 -0.000401593 -0.00457338
0.186341 0.254894 0.550788 0.171445 0.922292 -0.346388
-0.0529692 0.198448 0.399492 -0.000717654 0.905409 -0.424539
-0.25553 0.0165752 0.298667 -0.99999 -0.000865878 -0.00447844
-0.0526717 -0.157968 0.299349 -0.0317629 -0.0642416 -0.997429
0.0702628 0.11608 0.296312 -0.000127493 0.467863 -0.883801
0.282277 0.0235612 0.507033 -0.999996 -0.000252627 0.00285208
0.00759722 0.282859 0.57943 0.000223305 0.90541 -0.424539
-0.180703 -0.125112 0.303639 -0.168278 -0.115304 -0.978973
0.228442 0.0563414 0.335062 -0.00209211 -0.0524553 0.998621
0.267737 -0.249485 0.353694 -0.765782 0.636841 -0.0895074
0.129913 -0.052635 0.343699 -0.114169 0.0872271 0.989625
-0.232002 0.256502 0.576412 -0.12476 0.938909 -0.320758
-0.255511 -0.0910534 0.314802 -0.99999 -0.000828951 -0.0043418
0.020051 0.2914 0.0223139 8.95827e-05 -0.344601 0.938749
0.0407924 -0.114184 0.344777 -0.0323908 0.06376 0.997439
0.267044 0.0543174 0.483241 -0.93956 -0.000229974 -0.342385
0.116617 -0.122921 0.348361 -0.114169 0.0872271 0.989625
-0.0084818 -0.0862758 0.29432 2.27936e-05 -0.0584114 -0.998293
-0.250226 0.19572 0.402457 -0.0393263 0.945571 -0.32303
-0.266581 -0.275249 0.0286936 0.939361 0.23909 0.245839
0.209286 0.148015 0.316598 -0.000389189 0.613735 -0.789512
0.280893 -0.18228 0.507699 0 0 1
0.23858 0.166897 0.336744 0.0206421 0.811372 -0.584166
0.279698 -0.0159155 0.0225954 0.345557 7.51056e-05 0.938398
0.0448026 -0.266486 0.306086 0.0317967 -0.0642278 -0.997429
-0.189741 0.203724 0.561106 0.0152212 -0.936156 0.351256
0.168006 0.236027 0.492129 -0.00370521 0.921905 -0.387397
-0.286138 0.210777 0.482449 -0.939732 -0.0002362 -0.341911
0.209472 -0.292476 0.328811 0.218422 -0.128863 -0.967309
-0.264222 0.162506 0.507699 0 0 1
-0.255589 0.0261169 0.310018 -0.99999 -0.000865878 -0.00447844
0.266276 0.206778 0.0104872 -0.985176 -0.000236551 -0.171547
0.140305 -0.07751 0.297547 0.1103 -0.0880019 -0.989995
0.0458241 0.178196 0.355975 0.000213681 0.908315 -0.418286
-0.195566 -0.0936923 0.351796 0.00374925 0.115703 0.993277
0.135846 -0.291219 0.316047 0.1103 -0.0880019 -0.989995
0.239537 0.258481 0.584544 0.038507 0.945606 -0.323029
-0.251596 0.218177 0.622577 0.000226825 -0.94634 0.323172
0.209735 -0.162756 0.362968 -0.21331 0.128027 0.96856
0.174156 0.164454 0.333753 -0.00168567 0.814614 -0.580001
-0.269174 -0.237881 0.019941 0.641061 0.00015527 0.76749
-0.277396 0.15059 0.493965 0 0 -1
-0.113539 -0.243588 0.309333 -0.110278 -0.0880546 -0.989992
0.0855609 0.253913 0.520832 0.000860597 0.908718 -0.41741
0.251457 -0.134481 0.361119 -3.36262e-05 0.139175 0.990268
0.0808741 0.120904 0.298864 -0.000127493 0.467863 -0.883801
0.285504 -0.252622 0.415406 0.765646 -0.637001 0.08953
0.204246 0.164868 0.334279 0.00134039 0.814661 -0.579936
-0.282244 -0.235134 0.490121 -1 -0.000423842 0.000171026
-0.0997027 0.101063 0.291082 -0.00110476 0.325703 -0.945471
-0.262835 0.117105 0.493965 0 0 -1
-0.111281 0.107513 0.293318 -0.00110476 0.325703 -0.945471
0.255607 0.20518 0.555736 0.999989 0.00449589 -0.00148469
0.0465615 0.211031 0.426263 0.000223305 0.90541 -0.424539
0.238279 0.178094 0.354789 0.000413865 -0.888042 0.459762
0.285234 0.229167 0.0116668 1 0.000325894 0
0.132632 0.16177 0.442689 0.00336444 -0.922034 0.387095
-0.205707 0.18915 0.381737 -0.00047432 0.936149 -0.351602
0.0831857 0.299375 0.0221514 -9.26483e-05 0.344514 0.938781
-0.101726 0.25291 0.626188 0.000413247 0.315411 0.948955
-0.189301 -0.0637188 0.348281 0.00374925 0.115703 0.993277
0.278644 -0.0339914 0.00189771 0.344618 7.49015e-05 -0.938743
-0.0253364 -0.250035 0.352962 0.03237 0.0637775 0.997439
-0.27608 0.182881 0.0230102 0 0 1
0.163234 0.175656 0.350375 -0.00180729 0.909552 -0.415587
