0.0224852 -0.12477 0.38399 0 0 1
-0.0756374 -0.0184889 0.38399 0 0 1
-0.231443 -0.225344 0.0355148 -0.814677 0.579915 0
-0.0356955 0.197723 0.318282 0.00152509 -0.994283 0.106768
0.0553685 -0.175755 0.38399 0 0 1
-0.168157 0.195204 0.623345 -0.200636 0.958077 -0.204533
-0.174185 0.167638 0.33934 0 0 1
0.281517 0.108862 0.555446 0 0 -1
0.165734 0.0489475 0.33934 0 0 -1
0.159099 0.0455424 0.33934 0 0 -1
-0.127393 -0.0789358 0.38399 0 0 1
-0.154204 -0.0238388 0.38399 0 0 1
-0.206502 -0.180934 0.345726 -0.999999 -0.00155276 0
0.00452653 0.114336 0.33934 0 0 -1
0.014557 0.130749 0.38399 0 0 1
-0.241773 0.190477 0.558483 -0.00133845 0.857524 -0.514442
0.165274 -0.0787489 0.325393 -0.999999 -0.00155227 0
0.160208 0.174354 0.37182 0.0496504 0.998455 -0.0249453
0.0423445 -0.0133382 0.38399 0 0 1
-0.00462229 0.0431027 0.38399 0 0 1
-0.0658553 0.159596 0.38399 0 0 1
0.0552313 0.180773 0.392747 0.0252251 0.9905 -0.135182
0.0106895 0.120058 0.33934 0 0 -1
0.191429 -0.103126 0.33934 0 0 -1
0.17617 0.107729 0.38399 0 0 1
-0.112246 0.215651 0.571077 0.198905 -0.974272 0.105978
-0.206695 -0.0566764 0.344133 -0.999999 -0.00155276 0
-0.213557 -0.226583 0.25611 0.812772 0.582582 0
-0.119107 -0.243367 0.328479 0.00155205 -0.999999 0
0.21484 0.156355 0.534412 -0.812859 -0.582461 0
0.150193 0.217484 0.626107 -0.411217 -0.884754 0.219341
-0.232293 -0.226538 0.0658286 -0.814677 0.579915 0
-0.032026 0.250605 0.660224 0.102005 -0.954719 0.279476
0.0454349 0.177355 0.38399 0 0 1
0.0658558 0.257891 0.695319 -0.0591902 -0.962986 0.262972
-0.201926 -0.265985 0.372888 0.00129359 -0.83142 0.555643
-0.122545 0.231204 0.647224 0.194561 -0.952994 0.232269
-0.225153 0.159494 0.555446 0 0 -1
-0.0891019 -0.264625 0.37466 0.00129359 -0.83142 0.555643
-0.223571 0.171798 0.332957 -0.999999 -0.00156687 0
0.267546 -0.191916 0.555446 0 0 -1
0.192949 -0.173361 0.33934 0 0 -1
0.193991 0.184482 0.596299 0.197641 0.958699 -0.204535
0.0664993 0.130388 0.33934 0 0 -1
0.00140568 0.205932 0.55102 0.064254 0.986895 -0.148019
0.0358211 0.110959 0.38399 0 0 1
0.184777 0.140475 0.38399 0 0 1
0.132042 -0.206315 0.33934 0 0 -1
-0.229659 -0.255238 0.0394461 -0.812827 -0.582505 0
0.267469 -0.232613 0.555446 0 0 -1
0.281226 0.0597069 0.555446 0 0 -1
-0.0621446 -0.00981863 0.33934 0 0 -1
0.194452 0.174453 0.31255 0 0 -1
-0.113558 0.0961507 0.33934 0 0 -1
0.0160181 0.176962 0.356951 -0.00155332 0.988933 -0.148354
-0.236298 0.17341 0.302299 -0.982482 0.186357 0
-0.215181 -0.25385 0.507957 0.814623 -0.579991 0
-0.100891 0.181493 0.432344 -0.0519448 0.994926 -0.0861636
-0.166787 -0.271801 0.348941 0.00152599 -0.98079 -0.195061
-0.170637 0.196803 0.429091 0.00155923 -0.999999 0
-0.154315 0.198016 0.40194 0.204658 -0.977351 0.0538518
-0.177292 -0.223155 0.38399 0 0 1
-0.0482299 0.152686 0.38399 0 0 1
0.102168 0.255627 0.720602 -0.243939 -0.935268 0.256453
-0.0505663 0.255517 0.683553 0.0621824 -0.962798 0.262971
0.12482 0.0468253 0.38399 0 0 1
-0.199123 0.16332 0.33934 0 0 -1
0.0784215 0.0877597 0.38399 0 0 1
0.0764881 0.158526 0.33934 0 0 -1
0.0766257 -0.0229824 0.38399 0 0 1
-0.179892 0.196789 0.460751 0.00155923 -0.999999 0
0.2113 0.161474 0.368389 -0.981864 -0.189585 0
0.266193 -0.0278295 0.571224 0.15597 0.000242837 0.987762
-0.100974 -0.0316588 0.33934 0 0 -1
-0.131776 0.219614 0.65929 -0.17887 0.934167 -0.308768
-0.0661444 -0.089444 0.38399 0 0 1
0.101003 0.202015 0.400887 0.00152853 -0.99856 0.0536165
-0.206904 0.0775473 0.366107 -0.999999 -0.00155276 0
-0.0649481 -0.243283 0.369862 0.00155517 -0.999999 0
-0.151297 -0.183078 0.38399 0 0 1
0.212681 0.1819 0.329604 -0.81451 0.580149 0
0.205933 0.191058 0.591128 -0.999999 -0.00154598 2.20519e-06
0.112914 0.248873 0.706192 -0.243939 -0.935268 0.256453
0.0972835 -0.192404 0.38399 0 0 1
0.136244 0.230455 0.693471 0.175923 0.934402 -0.30975
-0.173956 -0.148791 0.325825 -0.999999 -0.00155477 0
-0.142432 0.175764 0.401033 -0.204224 0.975212 -0.0851742
0.217433 0.153936 0.550222 -0.349914 -0.936782 0
-0.0729512 0.214181 0.607074 -0.243493 0.910335 -0.334665
-0.1961 -0.266419 0.372225 0.00129359 -0.83142 0.555643
-0.173791 0.0172033 0.33934 0 0 -1
0.0810984 0.221142 0.562163 -0.195891 -0.974953 0.105322
0.0472713 -0.187317 0.38399 0 0 1
-0.0463522 -0.128643 0.33934 0 0 -1
-0.0434035 0.190399 0.311877 -5.11003e-05 0.0333146 0.999445
0.225867 0.18827 0.548844 0.349912 0.936783 0
0.100973 0.217326 0.563804 -0.195891 -0.974953 0.105322
0.206685 -0.00605689 0.361789 0.999999 0.00155517 0
-0.157987 0.136186 0.33934 0 0 -1
-0.0940556 -0.236786 0.38399 0 0 1
0.169134 0.0841077 0.33934 0 0 -1
0.0390986 0.218328 0.503727 -0.0628515 -0.990469 0.122558
0.106738 0.165978 0.333277 0.00155432 -0.999999 0
-0.24898 -0.204285 0.555446 0 0 -1
0.199407 0.08007 0.38399 0 0 1
0.129182 0.189816 0.541287 0.0488439 0.995083 -0.0861597
-0.225858 0.152043 0.265088 -0.349866 -0.9368 0
-0.0362887 -0.253436 0.381961 0.000303675 -0.195178 0.980768
-0.048692 -0.179026 0.33934 0 0 -1
-0.140476 -0.104838 0.38399 0 0 1
0.0569907 0.227832 0.58325 -0.0591902 -0.962986 0.262972
-0.214491 -0.252879 0.43925 0.814623 -0.579991 0
-0.201994 0.152159 0.38399 0 0 1
0.0662263 0.0990747 0.38399 0 0 1
0.167873 -0.16855 0.31255 0 0 -1
0.206818 -0.0918344 0.357773 0.999999 0.00155517 0
-0.234033 -0.248969 -6.80618e-19 6.12276e-17 9.57614e-20 -1
0.138949 0.00373594 0.33934 0 0 -1
-0.213848 -0.226177 0.258923 0.812772 0.582582 0
-0.104311 -0.0959995 0.33934 0 0 -1
0.137446 0.236377 0.67936 -0.191547 -0.953331 0.233387
0.235797 -0.244489 0.488995 0.982467 -0.186439 0
0.140179 0.237157 0.686689 -0.411217 -0.884754 0.219341
0.0547182 0.186267 0.432905 0.0252251 0.9905 -0.135182
-0.0368541 0.239644 0.622195 0.0621824 -0.962798 0.262971
-0.0337412 0.17779 0.344427 -0.021447 0.99977 0
0.161096 -0.268767 0.367879 0.00129359 -0.83142 0.555643
0.235448 -0.246327 0.419468 0.982467 -0.186439 0
-0.124074 -0.0543973 0.33934 0 0 -1
0.0926397 0.151676 0.38399 0 0 1
0.068074 0.229331 0.592272 -0.243939 -0.935268 0.256453
0.0937691 0.174888 0.331929 -0.00155432 0.999999 0
0.171679 0.174268 0.389656 0.0496408 0.998262 -0.0317655
0.0517702 0.20818 0.414395 0.00156495 -0.994283 0.106767
0.149105 -0.174293 0.33934 0 0 -1
-0.041772 -0.0451587 0.38399 0 0 1
0.0475361 -0.0566033 0.38399 0 0 1
-0.069836 -0.0403497 0.33934 0 0 -1
-0.0549714 0.0998258 0.38399 0 0 1
-0.00492895 -0.139062 0.33934 0 0 -1
0.177386 0.15844 0.33934 0 0 -1
-0.174097 -0.0580027 0.330538 -0.999999 -0.00155477 0
-0.225543 0.151926 0.0418707 -0.349866 -0.9368 0
0.0696184 0.165921 0.334844 0.00155432 -0.999999 0
-0.170922 -0.0744395 0.33934 0 0 1
0.0138207 0.000742257 0.38399 0 0 1
0.252209 -0.0116344 0.555446 0 0 -1
0.00938768 0.181339 0.388336 0.0252251 0.9905 -0.135182
0.165207 -0.0357368 0.316032 -0.999999 -0.00155227 0
-0.00976249 0.229455 0.578414 0.0659291 -0.990269 0.122558
-0.177486 0.1725 0.373486 -0.0526043 0.995866 -0.0740529
0.0947832 0.244395 0.704718 0.237821 0.91175 -0.334894
-0.0315881 0.147209 0.38399 0 0 1
-0.0854213 0.19706 0.541316 -0.186373 0.973353 -0.133603
0.080961 -0.0667019 0.38399 0 0 1
0.0493999 -0.247818 0.383052 0.000303668 -0.195179 0.980768
0.161518 0.135957 0.33934 0 0 -1
0.0855368 0.256042 0.706297 -0.243939 -0.935268 0.256453
0.114675 0.204852 0.453327 0.00152853 -0.99856 0.0536165
0.0746152 -0.234136 0.324404 -0.00155429 0.999999 0
-0.114434 0.1704 0.316555 -0.00154602 0.997198 -0.0747846
-0.20642 -0.233934 0.375409 -0.999999 -0.00155276 0
0.0463709 0.189367 0.454063 0.0252251 0.9905 -0.135182
0.0722659 0.129547 0.33934 0 0 -1
-0.199568 0.104294 0.38399 0 0 1
0.175977 0.0697415 0.38399 0 0 1
0.171482 0.0359764 0.33934 0 0 1
0.22515 -0.220218 0.264796 0.349791 0.936828 0
-0.234898 -0.231552 0.353146 -0.98247 0.186419 0
-0.12253 -0.183746 0.38399 0 0 1
-0.0608382 0.197952 0.520911 -0.0282986 0.990417 -0.135177
-0.024559 0.106861 0.38399 0 0 1
0.100043 0.181395 0.427507 0.0488439 0.995083 -0.0861597
0.132959 0.217679 0.5993 -0.191547 -0.953331 0.233387
-0.0130055 0.205466 0.386332 0.0659291 -0.990269 0.122558
-0.143783 0.207057 0.526002 0.204658 -0.977351 0.0538518
0.229574 0.154363 0.140611 0.352518 -0.935805 0
-0.25322 -0.11919 0.569787 0.155962 0.000242794 0.987763
0.0711324 0.205716 0.400834 -0.195891 -0.974953 0.105322
0.0522301 -0.0910732 0.33934 0 0 -1
-0.162145 0.012894 0.33934 0 0 -1
-0.27726 0.114391 0.555446 0 0 -1
0.0528632 -0.0787926 0.33934 0 0 -1
-0.046112 -0.243254 0.383182 0.00155517 -0.999999 0
-0.21655 -0.255422 0.0203186 0.352636 -0.93576 0
0.0342803 -0.243129 0.36266 0.00155517 -0.999999 0
0.197182 -0.00892001 0.33934 0 0 -1
0.0689944 0.206545 0.404525 -0.195891 -0.974953 0.105322
-0.0795891 -0.129159 0.38399 0 0 1
0.15559 0.171009 0.38399 0 0 1
0.216955 -0.254642 0.530792 -0.349913 -0.936782 0
-0.214273 -0.252574 0.468897 0.814623 -0.579991 0
0.00903276 0.190572 0.45192 0.064254 0.986895 -0.148019
0.210889 -0.2421 0.351447 -0.981899 -0.189403 0
0.0743974 0.207081 0.587835 0.175923 0.934402 -0.30975
-0.24325 -0.151219 0.563127 0.986418 0.00153936 0.164248
-0.0591624 0.218447 0.511606 0.00152509 -0.994283 0.106768
0.205954 0.177577 0.337126 -0.999999 -0.00156743 0
-0.0833443 -0.0982272 0.33934 0 0 -1
0.146492 -0.220978 0.38399 0 0 1
-0.0861823 -0.0197249 0.38399 0 0 1
0.260415 0.185635 0.564652 0.782625 0.600411 0.164329
-0.0134405 0.0503126 0.38399 0 0 1
0.195909 -0.0261568 0.33934 0 0 -1
0.210694 0.176702 0.342997 -0.982486 0.186338 0
-0.114954 0.181743 0.443713 -0.0519448 0.994926 -0.0861636
-0.167398 -0.130034 0.33934 0 0 -1
-0.161596 0.17315 0.370942 -0.0526043 0.995866 -0.0740529
0.0493339 0.222906 0.623267 0.0610224 0.93726 -0.34325
-0.158408 -0.15227 0.33934 0 0 -1
0.224538 -0.219989 0.215555 0.349791 0.936828 0
0.144548 0.175297 0.378377 0.0496504 0.998455 -0.0249453
0.0256375 0.256155 0.676905 -0.0990359 -0.955031 0.279477
-0.150271 0.178749 0.454008 -0.204224 0.975212 -0.0851742
-0.13088 0.184511 0.485278 -0.0519448 0.994926 -0.0861636
0.165388 -0.152057 0.338012 -0.999999 -0.00155227 0
-0.278027 -0.222721 0.567492 -0.689202 -0.157763 0.707185
0.0714242 0.258326 0.701199 -0.243939 -0.935268 0.256453
-0.186099 0.185513 0.59555 -0.200636 0.958077 -0.204533
0.0123856 0.204406 0.377513 -0.0628515 -0.990469 0.122558
0.184973 0.0969128 0.38399 0 0 1
-0.248347 -0.141637 0.569023 0.155962 0.000242794 0.987763
0.0605185 0.0937276 0.38399 0 0 1
-0.167861 0.154297 0.31255 0 0 -1
0.057838 0.243009 0.679671 0.0610224 0.93726 -0.34325
0.263417 -0.115302 0.555446 0 0 -1
0.162495 0.174995 0.31416 -0.00155432 0.999999 0
0.18979 0.19973 0.559677 -0.201624 -0.978018 0.0531783
0.0690656 0.203129 0.562168 0.183364 0.973924 -0.133606
-0.235875 -0.236702 0.0629553 -0.98247 0.186419 0
0.105656 0.20635 0.470906 -0.195891 -0.974953 0.105322
0.244736 -0.197826 0.557268 -0.857445 -0.00132842 -0.514574
-0.12529 0.0588989 0.38399 0 0 1
-0.164631 0.197117 0.424829 0.204658 -0.977351 0.0538518
-0.0677276 0.201476 0.548807 -0.186373 0.973353 -0.133603
-0.0885576 -0.260344 0.377906 0.000864263 -0.555481 0.831529
0.224848 -0.220105 0.497988 0.349791 0.936828 0
0.0394124 0.154566 0.38399 0 0 1
0.285128 -0.0712732 0.558763 0.857578 0.00134159 -0.514353
-0.0890572 -0.151265 0.33934 0 0 -1
0.112197 0.192173 0.541499 0.183364 0.973924 -0.133606
0.213973 -0.250543 0.299561 -0.812786 -0.582562 0
0.182447 0.0213526 0.38399 0 0 1
-0.065519 0.173801 0.31255 0 0 -1
0.253831 -0.143621 0.569836 -0.155943 -0.00024374 0.987766
0.0601234 -0.229937 0.38399 0 0 1
0.00292248 0.104433 0.33934 0 0 -1
0.195359 0.197371 0.371246 0.00157924 -0.999999 0
0.230871 0.156102 0.104261 0.814661 -0.579937 0
-0.266231 0.0170217 0.555446 0 0 -1
0.235144 -0.228963 0.309588 0.812883 0.582427 0
0.234577 0.161421 0.281332 0.982467 -0.186439 0
0.210681 0.164678 0.152856 -0.981864 -0.189585 0
-0.0271195 -0.254 0.327196 0.000303547 -0.195096 -0.980784
0.0104619 0.239196 0.613575 -0.0990359 -0.955031 0.279477
0.211655 -0.246075 0.249756 -0.981899 -0.189403 0
0.150993 0.187774 0.555346 0.201176 0.975845 -0.0851704
-0.0506256 0.170834 0.317639 -0.0015353 0.992275 -0.124052
-0.206629 0.188421 0.518998 0.999999 0.00149351 3.75826e-06
0.217418 -0.221922 0.335979 -0.352518 0.935805 0
0.250442 0.160344 0.555446 0 0 -1
-0.113408 0.248161 0.705061 0.249779 -0.933774 0.256273
-0.047195 0.18763 0.311969 -5.15446e-05 0.0333136 0.999445
0.202292 0.0829833 0.38399 0 0 1
0.100384 0.197551 0.317767 0.00152853 -0.99856 0.0536165
-0.151335 0.0458166 0.33934 0 0 -1
0.206539 0.0876697 0.38109 0.999999 0.00155517 0
-0.18659 -0.216495 0.33934 0 0 -1
-0.214855 -0.2227 0.567356 0.395745 0.594158 0.700258
-0.0752782 0.198077 0.332629 0.00154287 -0.998561 0.0536095
-0.210096 -0.236149 0.327727 0.981923 0.189283 0
0.224564 0.188757 0.337262 0.349912 0.936783 0
-0.231393 -0.225273 0.091737 -0.814677 0.579915 0
0.21078 0.177159 0.470027 -0.982486 0.186338 0
-0.0581754 0.205473 0.390776 0.00152509 -0.994283 0.106768
0.139744 -0.209584 0.38399 0 0 1
-0.175434 -0.271669 0.360832 0.00152593 -0.98079 0.195061
0.165179 -0.0177342 0.329116 -0.999999 -0.00155227 0
-0.236028 0.174835 0.245022 -0.982482 0.186357 0
0.102434 -0.243023 0.323036 0.00155205 -0.999999 0
0.107679 0.234827 0.648601 -0.191547 -0.953331 0.233387
0.139583 0.216326 0.654041 0.403305 0.867744 -0.290456
0.218206 -0.25511 0.0176139 -0.349913 -0.936782 0
0.176218 0.173745 0.379291 0.0496504 0.998455 -0.0249453
0.0103942 -0.134632 0.38399 0 0 1
-0.0800882 -0.252624 0.382136 0.000303675 -0.195178 0.980768
-0.121721 -0.197188 0.33934 0 0 -1
-0.104219 0.018539 0.38399 0 0 1
-0.196142 -0.204427 0.38399 0 0 1
-0.0468351 0.0801606 0.38399 0 0 1
0.206544 0.0842024 0.349161 0.999999 0.00155517 0
-0.22331 0.151263 0.286428 0.352855 -0.935678 0
-0.250021 0.00978407 0.56925 0.155962 0.000241851 0.987763
-0.0549587 0.128043 0.38399 0 0 1
-0.185239 0.19678 0.486618 0.00155923 -0.999999 0
-0.228431 0.186861 0.469247 -0.352687 0.935741 0
-0.17047 -0.214713 0.38399 0 0 1
-0.207005 0.14263 0.363205 -0.999999 -0.00155276 0
0.1612 0.20324 0.515832 -0.201624 -0.978018 0.0531783
0.00356786 0.197745 0.497375 0.064254 0.986895 -0.148019
0.00142181 0.178475 0.358483 0.0183438 0.999832 0
-0.234177 0.180701 0.479545 -0.814621 0.579993 0
0.213893 -0.250431 0.042206 -0.812786 -0.582562 0
-0.174054 -0.0859118 0.320246 -0.999999 -0.00155477 0
-0.204614 0.203607 0.628316 0.203382 -0.971259 0.123656
-0.0162735 0.174628 0.344597 -0.0282449 0.988539 -0.148301
-0.256205 -0.240979 0.570047 -0.123745 -0.0949344 0.987762
-0.203813 -0.120226 0.33934 0 0 -1
-0.207067 -0.251067 0.56556 0.594237 -0.395744 0.700192
0.0809538 0.179366 0.393253 0.0488439 0.995083 -0.0861597
0.0297664 0.253402 0.668959 -0.0990359 -0.955031 0.279477
0.16538 -0.147274 0.322364 -0.999999 -0.00155227 0
0.172087 0.0347254 0.31255 0 0 -1
0.150801 0.0981985 0.38399 0 0 1
0.283761 0.114046 0.566144 0.707141 0.00109856 0.707072
-0.165306 0.0305877 0.327487 0.999999 0.00155227 0
-0.113185 0.175711 0.379065 -0.0611971 0.998126 0
-0.0162265 0.215188 0.466615 0.0659291 -0.990269 0.122558
-0.0392817 0.177671 0.362428 -0.021447 0.99977 0
-0.113506 -0.00827599 0.33934 0 0 -1
-0.136871 -0.0487935 0.38399 0 0 1
0.165228 -0.0487763 0.338237 -0.999999 -0.00155227 0
-0.260919 -0.00453101 0.570974 0.155962 0.000241851 0.987763
-0.195005 0.178828 0.562174 -0.204224 0.975212 -0.0851742
0.0185543 0.100477 0.38399 0 0 1
0.229216 -0.255005 0.45706 0.352733 -0.935724 0
-0.160677 0.196819 0.366404 0.00155923 -0.999999 0
-0.0678316 0.200373 0.540913 -0.186373 0.973353 -0.133603
0.253633 -0.0286774 0.569833 -0.155971 -0.000242807 0.987762
0.285104 -0.0195036 0.563706 0.986423 0.00153244 0.164218
0.223643 0.152128 0.487783 0.352518 -0.935805 0
0.0695291 0.215287 0.486445 -0.195891 -0.974953 0.105322
0.0847212 -0.120645 0.33934 0 0 -1
0.0126551 -0.0925233 0.38399 0 0 1
-0.224734 0.188255 0.23361 -0.352687 0.935741 0
0.122699 0.203762 0.432808 0.00152853 -0.99856 0.0536165
-0.236898 0.170245 0.33859 -0.982482 0.186357 0
0.0483972 0.214959 0.477576 0.00156495 -0.994283 0.106767
0.182027 0.166095 0.333601 0.00155432 -0.999999 0
0.212728 0.159302 0.187331 -0.812859 -0.582461 0
-0.223781 -0.220619 0.439352 -0.352638 0.93576 0
0.182331 0.213756 0.668193 -0.20036 -0.971887 0.123655
-0.170142 -0.0170273 0.33934 0 0 -1
0.236173 -0.234259 0.1439 0.98188 0.189504 0
-0.230822 0.154491 0.228342 -0.812803 -0.582539 0
0.191764 0.13102 0.33934 0 0 -1
-0.00355683 0.188219 0.433627 -0.0673329 0.98669 -0.148019
-0.10263 0.194395 0.311741 -5.14723e-05 0.0333136 0.999445
0.185627 0.0926132 0.38399 0 0 1
-0.206317 -0.120846 0.38399 0 0 1
0.211171 0.16214 0.000867998 -0.981864 -0.189585 0
0.2068 -0.0804658 0.345604 0.999999 0.00155517 0
-0.224687 -0.22096 0.0446965 -0.352638 0.93576 0
-0.270484 -0.194822 0.555446 0 0 -1
-0.108099 0.200992 0.589233 -0.17887 0.934167 -0.308768
-0.0369521 -0.0779909 0.38399 0 0 1
0.090432 0.22221 0.582907 -0.191547 -0.953331 0.233387
-0.0823507 -0.135538 0.38399 0 0 1
0.230403 -0.25444 0.228257 0.814605 -0.580017 0
0.0849207 0.119893 0.38399 0 0 1
0.0141831 -0.139598 0.33934 0 0 -1
0.0615336 0.145437 0.38399 0 0 1
0.0637596 0.236354 0.662551 0.0610224 0.93726 -0.34325
0.0320332 0.210281 0.585718 0.0610224 0.93726 -0.34325
-0.233739 -0.228568 0.318656 -0.814677 0.579915 0
0.24591 -0.126901 0.555446 0 0 -1
-0.285866 0.101257 0.560539 -0.986397 -0.00153148 0.164371
0.231656 -0.24047 -4.95077e-19 -6.12344e-17 -9.48305e-20 -1
-0.235615 0.177009 0.289985 -0.982482 0.186357 0
-0.206653 -0.0836486 0.369399 -0.999999 -0.00155276 0
-0.213694 0.181714 0.309077 0.812827 0.582505 0
0.00218014 0.194899 0.4778 0.064254 0.986895 -0.148019
0.184778 0.197355 0.33484 0.00157924 -0.999999 0
0.235809 -0.232375 0.223258 0.98188 0.189504 0
0.206531 0.0924925 0.366987 0.999999 0.00155517 0
-0.176915 -0.171752 0.38399 0 0 1
-0.280449 -0.0522463 0.56897 -0.155962 -0.000241931 0.987763
-0.173842 0.00736134 0.38399 0 0 1
-0.163301 0.222044 0.705072 -0.401837 0.868984 -0.288779
-0.0101683 0.217859 0.484941 0.0659291 -0.990269 0.122558
0.0436189 0.214181 0.598428 0.0610224 0.93726 -0.34325
-0.206514 -0.173332 0.355404 -0.999999 -0.00155276 0
-0.140665 -0.0863509 0.38399 0 0 1
-0.201697 0.0453377 0.38399 0 0 1
-0.284273 -0.0917305 0.565775 -0.707141 -0.00110268 0.707071
0.0837405 0.199757 0.557727 0.183364 0.973924 -0.133606
0.0966956 0.176727 0.362965 0.0183438 0.999832 0
-0.171585 0.167187 0.33934 0 0 1
-0.0809685 0.218484 0.53842 0.198905 -0.974272 0.105978
0.137527 0.173044 0.346583 -0.00155183 0.997199 -0.0747816
0.116128 0.18836 0.311953 -5.09991e-05 0.0333167 0.999445
0.102897 -0.234092 0.316795 -0.00155429 0.999999 0
-0.210895 -0.246196 0.335146 0.982482 -0.186357 0
0.108895 0.00723499 0.38399 0 0 1
-0.236301 0.173393 0.271044 -0.982482 0.186357 0
0.0411123 0.26438 0.726323 -0.0219545 -0.24251 -0.969901
0.232053 0.183457 0.53511 0.812828 0.582504 0
-0.0763574 0.174624 0.337457 -0.00155432 0.999999 0
0.139412 0.185095 0.497294 0.201176 0.975845 -0.0851704
0.089383 0.180783 0.414397 0.0488439 0.995083 -0.0861597
-0.174287 0.0640642 0.316345 -0.999999 -0.00155477 0
-0.161198 0.130543 0.33934 0 0 -1
0.234589 0.179647 0.302839 0.981876 0.189524 0
0.164474 0.206309 0.658676 0.403305 0.867744 -0.290456
-0.0502605 -0.207936 0.33934 0 0 -1
-0.182193 0.0975562 0.38399 0 0 1
-0.112629 0.223698 0.60812 0.194561 -0.952994 0.232269
0.0508758 -0.107201 0.38399 0 0 1
0.206865 -0.122246 0.357031 0.999999 0.00155517 0
-0.138761 -0.160959 0.33934 0 0 -1
0.191735 0.183375 0.588929 0.197641 0.958699 -0.204535
0.206625 0.032488 0.367152 0.999999 0.00155517 0
0.144407 0.214368 0.602689 -0.411217 -0.884754 0.219341
-0.206415 -0.237027 0.361337 -0.999999 -0.00155276 0
0.269699 -0.162383 0.555446 0 0 -1
-0.0167522 0.178155 0.36015 -0.021447 0.99977 0
0.211644 -0.246019 0.178975 -0.981899 -0.189403 0
0.178413 0.0518532 0.38399 0 0 1
-0.203511 0.196752 0.357527 0.00155923 -0.999999 0
-0.105414 0.177935 0.393991 -0.0519448 0.994926 -0.0861636
0.0178788 -0.226787 0.33934 0 0 -1
-0.203185 0.170387 0.329534 -0.00154117 0.999686 -0.0249923
-0.215401 0.184096 0.0515549 0.812827 0.582505 0
0.0445678 -0.243113 0.378691 0.00155517 -0.999999 0
0.195942 0.174738 0.442334 0.0496408 0.998262 -0.0317655
0.164087 -0.127149 0.38399 0 0 1
0.181021 0.218607 0.688433 -0.411217 -0.884754 0.219341
-0.0501504 -0.0582704 0.38399 0 0 1
-0.245369 -0.154626 0.567036 0.707042 0.00110069 0.707171
0.223789 -0.219709 0.120646 0.349791 0.936828 0
-0.073863 0.0609305 0.38399 0 0 1
-0.171249 0.0137076 0.31255 0 0 -1
-0.126502 -0.0672866 0.33934 0 0 -1
-0.156822 0.173038 0.366045 -0.0526043 0.995866 -0.0740529
0.271709 -0.0337979 0.561646 0.00154454 -0.999999 3.25565e-05
-0.136141 0.194564 0.311733 -5.16477e-05 0.0333131 0.999445
0.14063 0.0182569 0.33934 0 0 -1
0.029881 0.223641 0.621815 0.0610224 0.93726 -0.34325
-0.169946 0.221106 0.678761 0.409654 -0.885957 0.217404
-0.165169 -0.0210625 0.38399 0 0 1
-0.136509 -0.10726 0.38399 0 0 1
0.0848508 -0.0792786 0.38399 0 0 1
-0.209922 -0.237049 0.272544 0.981923 0.189283 0
-0.10302 0.174582 0.323145 -0.00155432 0.999999 0
-0.115917 -0.232357 0.38399 0 0 1
0.19029 0.186185 0.600704 0.197641 0.958699 -0.204535
-0.26622 0.05159 0.555446 0 0 -1
0.205554 0.197387 0.458155 0.00157924 -0.999999 0
-0.176838 0.138063 0.38399 0 0 1
-0.0310932 -0.0782909 0.33934 0 0 -1
0.249063 -0.0846374 0.555446 0 0 -1
0.0039698 0.20558 0.549789 0.064254 0.986895 -0.148019
-0.198067 0.19676 0.318871 0.00155923 -0.999999 0
0.0470213 0.176037 0.353748 0.0252654 0.992085 -0.123003
0.207069 -0.252737 0.343604 0.999999 0.00165585 -2.46357e-05
0.205953 0.177922 0.439561 -0.999999 -0.00154659 -2.1046e-06
-0.104416 0.19083 0.522428 -0.186373 0.973353 -0.133603
0.108714 -0.11561 0.38399 0 0 1
-0.0190594 0.0984222 0.33934 0 0 -1
0.0189184 0.20259 0.362818 0.00156495 -0.994283 0.106767
-0.206837 0.0349768 0.341889 -0.999999 -0.00155276 0
0.153294 0.166051 0.336391 0.00155432 -0.999999 0
-0.0857061 0.0308966 0.38399 0 0 1
-0.00346884 0.266691 0.70475 0.102005 -0.954719 0.279476
0.257242 0.0725351 0.570427 -0.155971 -0.000242838 0.987762
0.0820856 0.19543 0.523917 0.183364 0.973924 -0.133606
-0.0694455 -0.241246 0.33934 0 0 1
-0.235348 -0.233924 0.203508 -0.98247 0.186419 0
-0.00280946 0.048275 0.38399 0 0 1
-0.00826766 0.1658 0.335084 0.00155432 -0.999999 0
-0.223539 0.15186 0.556568 0.999999 0.00151723 9.69508e-05
0.170187 0.204297 0.569338 -0.201624 -0.978018 0.0531783
-0.0507569 0.0584634 0.33934 0 0 -1
0.174408 -0.20931 0.324877 0.999999 0.00155726 0
-0.0724531 0.23832 0.629286 0.249779 -0.933774 0.256273
-0.123056 -0.243373 0.358005 0.00155517 -0.999999 0
0.269488 -0.015105 0.5707 0.15597 0.000242837 0.987762
0.12332 -0.0390192 0.38399 0 0 1
0.0532967 0.236044 0.659845 0.0610224 0.93726 -0.34325
-0.219739 -0.256623 0.338393 0.352636 -0.93576 0
0.13587 0.114783 0.38399 0 0 1
0.210988 0.163091 0.190468 -0.981864 -0.189585 0
0.164496 0.209852 0.669292 0.403305 0.867744 -0.290456
-0.00659391 0.208706 0.409064 0.0659291 -0.990269 0.122558
-0.0120232 0.185442 0.418963 -0.0673329 0.98669 -0.148019
-0.284415 0.0374371 0.557482 -0.857492 -0.00133134 -0.514496
0.0248801 0.178044 0.375681 0.0183438 0.999832 0
-0.284492 -0.120177 0.55802 -0.857492 -0.00133634 -0.514496
-0.0108244 0.201152 0.349855 0.00152509 -0.994283 0.106768
-0.202954 0.0898497 0.38399 0 0 1
0.0479516 0.19698 0.510142 0.0252251 0.9905 -0.135182
-0.0108578 0.253417 0.696652 -0.0872926 0.931801 -0.352318
-0.236541 0.167726 0.306255 -0.981888 -0.189465 0
-0.0384248 0.191418 0.468349 -0.0282986 0.990417 -0.135177
0.0133352 -0.229676 0.33934 0 0 -1
-0.034594 0.177772 0.37707 -0.021447 0.99977 0
0.192096 -0.101425 0.38399 0 0 1
-0.0331284 -0.253426 0.381962 0.000303675 -0.195178 0.980768
0.19385 0.175044 0.330405 -0.00155432 0.999999 0
0.23571 -0.244944 0.429919 0.982467 -0.186439 0
0.00471896 -0.154603 0.38399 0 0 1
0.106921 0.212001 0.525571 -0.195891 -0.974953 0.105322
0.230829 0.176328 0.555446 0 0 -1
0.0152072 0.183629 0.406205 0.0252251 0.9905 -0.135182
0.129601 -0.242981 0.318259 0.00155205 -0.999999 0
-0.038394 0.181027 0.392204 -0.0282986 0.990417 -0.135177
0.0814347 0.236429 0.630865 -0.243939 -0.935268 0.256453
-0.122053 -0.166872 0.33934 0 0 -1
-0.178946 -0.0642547 0.38399 0 0 1
-0.188554 -0.162337 0.38399 0 0 1
-0.147551 -0.243411 0.334476 0.00155205 -0.999999 0
-0.0159069 0.20406 0.376528 0.0659291 -0.990269 0.122558
-0.220564 -0.256934 0.0461102 0.352636 -0.93576 0
0.219035 -0.255419 0.540002 -0.349913 -0.936782 0
-0.145681 0.236827 0.725035 -0.401837 0.868984 -0.288779
-0.165101 -0.189147 0.33934 0 0 1
0.174368 -0.184164 0.330629 0.999999 0.00155726 0
-0.12002 -0.230921 0.33934 0 0 -1
0.00862935 -0.214676 0.33934 0 0 -1
0.016216 -0.0500472 0.38399 0 0 1
0.247562 -0.0343601 0.555446 0 0 -1
-0.209861 -0.240747 0.392543 0.982482 -0.186357 0
-0.0152071 0.125335 0.33934 0 0 -1
-0.144548 0.231867 0.708534 -0.401837 0.868984 -0.288779
-0.0724533 0.241659 0.681456 -0.243493 0.910335 -0.334665
-0.198199 0.200973 0.597081 0.203382 -0.971259 0.123656
0.207069 -0.252478 0.345505 0.999999 0.00160468 2.6529e-05
0.0530833 0.206925 0.402683 0.00156495 -0.994283 0.106767
-0.104085 0.21661 0.564574 0.198905 -0.974272 0.105978
0.206729 -0.0343129 0.368225 0.999999 0.00155517 0
-0.269692 -0.0343318 0.555446 0 0 -1
-0.143132 0.17452 0.329433 -0.00155432 0.999999 0
-0.0772196 0.176858 0.346139 -0.021447 0.99977 0
0.21867 0.153474 0.509912 -0.349914 -0.936782 0
-0.211918 0.160751 0.174186 0.982467 -0.186438 0
-0.0714846 -0.120912 0.33934 0 0 -1
-0.274412 -0.0346463 0.566555 0.00155306 -0.999999 -0.000294703
0.172188 0.173222 0.350337 0.0496504 0.998455 -0.0249453
-0.0741598 -0.146271 0.33934 0 0 -1
0.166511 -0.122505 0.31255 0 0 -1
0.233491 -0.226655 0.175802 0.812883 0.582427 0
0.211059 0.162721 0.122627 -0.981864 -0.189585 0
-0.0631376 0.230241 0.593983 0.0621824 -0.962798 0.262971
-0.0682199 -0.147123 0.38399 0 0 1
0.212259 -0.22858 0.342921 -0.814701 0.579881 0
-0.120663 0.165625 0.324078 0.00155432 -0.999999 0
-0.0378344 0.216441 0.488369 0.0659291 -0.990269 0.122558
0.219641 -0.237966 2.40415e-19 -6.12344e-17 -1.0135e-19 -1
0.250521 -0.0110616 0.555446 0 0 -1
0.0202622 -0.13753 0.33934 0 0 -1
-0.038454 0.195807 0.500079 -0.0673329 0.98669 -0.148019
-0.158058 -0.0913821 0.33934 0 0 -1
-0.0716815 0.182126 0.413351 -0.186373 0.973353 -0.133603
0.211517 0.180265 0.365274 -0.81451 0.580149 0
-0.276733 -0.0109288 0.569567 -0.155962 -0.000242822 0.987763
0.045493 0.00119314 0.33934 0 0 -1
0.205932 0.191398 0.621114 -0.999999 -0.00154598 2.20519e-06
0.234407 0.180172 0.433597 0.812828 0.582504 0
-0.187949 -0.237569 0.31255 0 0 -1
-0.0546966 -0.0600667 0.33934 0 0 -1
0.206513 0.10445 0.362426 0.999999 0.00155517 0
0.0151303 0.202533 0.362346 0.00156495 -0.994283 0.106767
-0.212802 0.18047 0.100663 0.812827 0.582505 0
-0.233203 -0.227816 0.278235 -0.814677 0.579915 0
-0.162752 0.16556 0.320617 0.00155432 -0.999999 0
0.00967346 -0.243167 0.35984 0.00155517 -0.999999 0
0.0158479 0.014082 0.33934 0 0 -1
-0.248258 0.0852448 0.568953 0.155962 0.000241851 0.987763
0.232466 0.158342 0.440586 0.814661 -0.579937 0
-0.168246 -0.225799 0.38399 0 0 1
0.206615 0.0263375 0.33934 0 0 -1
0.217704 0.153834 0.211616 -0.349914 -0.936782 0
-0.0515886 -0.249112 0.326216 0.000303539 -0.195096 -0.980784
0.0662094 -0.243079 0.351534 0.00155517 -0.999999 0
0.0916499 -0.0945565 0.38399 0 0 1
-0.178828 -0.239419 0.38399 0 0 1
0.161992 0.196159 0.311696 -5.26149e-05 0.0333166 0.999445
0.038686 0.201821 0.355366 0.00156495 -0.994283 0.106767
0.20997 0.168358 0.29524 -0.981864 -0.189585 0
0.234159 0.16072 0.236563 0.814661 -0.579937 0
-0.053527 -0.0102043 0.33934 0 0 -1
-0.206627 0.186754 0.55497 0.999999 0.00149351 3.75826e-06
-0.100538 0.173167 0.350403 -0.051745 0.991099 -0.122659
0.137706 0.0930547 0.38399 0 0 1
-0.174145 0.171973 0.350557 -0.0611971 0.998126 0
-0.115816 -0.230659 0.33934 0 0 -1
-0.202119 0.174428 0.325139 -0.00155432 0.999999 0
-0.0945058 0.0246357 0.38399 0 0 1
-0.235155 -0.245159 0.140196 -0.981896 -0.189423 0
-0.154877 -0.0867076 0.33934 0 0 -1
0.21057 0.17605 0.498703 -0.982486 0.186338 0
-0.200677 0.182299 0.594797 -0.200636 0.958077 -0.204533
-0.16018 0.201311 0.48402 0.204658 -0.977351 0.0538518
-0.137343 -0.132797 0.38399 0 0 1
0.193082 -0.238599 0.38399 0 0 1
0.164855 0.172586 0.33934 0 0 1
0.0457317 -0.113786 0.33934 0 0 -1
-0.17868 -0.269653 0.341697 0.00129359 -0.83142 -0.555643
-0.029364 0.115994 0.33934 0 0 -1
0.21059 -0.24055 0.245219 -0.981899 -0.189403 0
-0.236485 0.172424 0.527021 -0.982482 0.186357 0
-0.0299263 -0.230537 0.33934 0 0 -1
0.249266 0.0966112 0.555446 0 0 -1
0.27276 -0.130142 0.555446 0 0 -1
0.178089 0.219548 0.686729 -0.411217 -0.884754 0.219341
0.210422 0.16602 0.341547 -0.981864 -0.189585 0
0.0273587 -0.119447 0.33934 0 0 -1
0.0128327 0.0139935 0.38399 0 0 1
0.215947 0.15481 0.106875 -0.812859 -0.582461 0
0.265581 0.0933126 0.555446 0 0 -1
-0.0529046 0.226837 0.5791 0.0621824 -0.962798 0.262971
0.0827867 0.0181818 0.38399 0 0 1
0.152355 -0.203564 0.33934 0 0 -1
0.157532 -0.12327 0.33934 0 0 -1
0.169906 0.199408 0.478356 -0.201624 -0.978018 0.0531783
-0.151282 -0.181862 0.33934 0 0 -1
0.233089 0.159217 0.34465 0.814661 -0.579937 0
-0.234136 0.18076 0.519995 -0.814621 0.579993 0
0.167928 0.209785 0.673856 0.403305 0.867744 -0.290456
-0.151369 -0.138239 0.38399 0 0 1
-0.0345319 0.148969 0.33934 0 0 -1
0.234168 0.160733 0.152278 0.814661 -0.579937 0
0.234632 0.167681 0.555446 0 0 -1
-0.169794 0.216189 0.696486 -0.401837 0.868984 -0.288779
0.21019 -0.238299 0.357079 -0.982486 0.186338 0
-0.169689 0.0762693 0.38399 0 0 1
0.082617 -0.0542641 0.33934 0 0 -1
0.0747427 0.150961 0.33934 0 0 -1
-0.201315 -0.0248227 0.33934 0 0 -1
0.277827 -0.106364 0.555446 0 0 -1
-0.0349243 -0.243236 0.314674 0.00155205 -0.999999 0
-0.0927113 0.0933824 0.38399 0 0 1
0.167444 0.173857 0.366333 0.0496504 0.998455 -0.0249453
0.020111 0.174774 0.327005 -0.00155432 0.999999 0
0.103572 0.234749 0.644911 -0.191547 -0.953331 0.233387
0.284276 -0.127476 0.557196 0.857362 0.00132838 -0.514712
0.112863 -0.270878 0.362555 0.00152599 -0.980789 0.195063
0.236083 0.17191 0.476445 0.981876 0.189524 0
-0.221992 0.15176 0.273623 0.352855 -0.935678 0
0.126838 -0.242985 0.344704 0.00155517 -0.999999 0
0.129642 -0.239586 0.33934 0 0 -1
-0.201131 0.109449 0.38399 0 0 1
-0.170672 -0.210519 0.38399 0 0 1
0.0134663 -0.000190124 0.33934 0 0 -1
0.056393 0.234237 0.655461 0.0610224 0.93726 -0.34325
-0.0679839 -0.0838692 0.33934 0 0 -1
-0.200487 0.17206 0.383907 -0.0526043 0.995866 -0.0740529
-0.0216507 0.173281 0.336643 -0.0282449 0.988539 -0.148301
0.0600035 -0.109669 0.38399 0 0 1
-0.202669 0.196753 0.323637 0.00155923 -0.999999 0
-0.179727 0.223912 0.726271 0.125966 -0.272405 -0.953902
-0.137658 -0.0490498 0.38399 0 0 1
0.165956 -0.0418942 0.38399 0 0 1
0.199501 0.197378 0.373856 0.00157924 -0.999999 0
-0.167568 -0.11574 0.38399 0 0 1
-0.246004 0.129785 0.567229 0.707067 0.00109646 0.707146
0.154424 0.177212 0.442429 0.201176 0.975845 -0.0851704
0.148736 0.199557 0.400847 -0.201624 -0.978018 0.0531783
-0.266537 0.00195898 0.555446 0 0 -1
0.00486013 0.178412 0.375207 0.0183438 0.999832 0
-0.112616 0.114472 0.33934 0 0 -1
-0.0827366 0.00363733 0.33934 0 0 -1
-0.112359 0.0821324 0.33934 0 0 -1
-0.216574 -0.227198 3.9043e-19 6.12277e-17 1.04717e-19 -1
0.160249 -0.0837968 0.33934 0 0 -1
-0.114014 0.214021 0.559413 0.198905 -0.974272 0.105978
-0.0217834 -0.268369 0.3689 0.00129359 -0.83142 0.555643
0.263943 -0.238988 0.555446 0 0 -1
-0.020946 -0.00378528 0.38399 0 0 1
-0.206882 0.0637084 0.352149 -0.999999 -0.00155276 0
0.0438806 -0.106369 0.38399 0 0 1
-0.0356125 0.0754337 0.33934 0 0 -1
-0.105724 0.174578 0.333107 -0.00155432 0.999999 0
-0.0633178 -0.117272 0.33934 0 0 -1
-0.23599 0.175036 0.37966 -0.982482 0.186357 0
-0.118736 0.159639 0.38399 0 0 1
-0.165086 -0.111688 0.333725 0.999999 0.00155227 0
0.165357 -0.132053 0.322167 -0.999999 -0.00155227 0
-0.231981 -0.251999 0.0196384 -0.812827 -0.582505 0
-0.16988 0.16351 0.31255 0 0 -1
0.21133 0.161317 0.177487 -0.981864 -0.189585 0
0.00440255 -0.193099 0.33934 0 0 -1
-0.236428 0.172727 0.268041 -0.982482 0.186357 0
0.16687 0.197326 0.408628 0.00157924 -0.999999 0
-0.0358271 0.252944 0.701587 -0.0872926 0.931801 -0.352318
0.176786 0.173018 0.351344 0.0496504 0.998455 -0.0249453
0.234554 0.161303 0.522076 0.982467 -0.186439 0
-0.127739 0.205131 0.613131 -0.17887 0.934167 -0.308768
0.0126216 0.178269 0.34683 0.0183438 0.999832 0
-0.215456 -0.254235 0.229635 0.814623 -0.579991 0
0.0310981 -0.145531 0.38399 0 0 1
0.26101 0.0509508 0.571017 -0.155971 -0.000242838 0.987762
-0.109348 0.199902 0.367598 0.00154287 -0.998561 0.0536095
0.234849 0.162854 0.304819 0.982467 -0.186439 0
0.135666 0.183922 0.476886 0.0488439 0.995083 -0.0861597
0.0174358 0.20934 0.419974 -0.0628515 -0.990469 0.122558
0.266135 0.0819996 0.555446 0 0 -1
-0.236065 0.165264 0.487776 -0.981888 -0.189465 0
0.26111 0.0370628 0.571029 -0.155971 -0.000242838 0.987762
-0.106908 0.207207 0.483432 0.198905 -0.974272 0.105978
0.0526141 -0.0708894 0.38399 0 0 1
-0.0819682 0.238583 0.639518 0.249779 -0.933774 0.256273
0.176903 0.172315 0.343196 0.058097 0.998311 0
-0.00684942 -0.269475 0.367212 0.00129359 -0.83142 0.555643
-0.234039 -0.228991 0.386857 -0.814677 0.579915 0
0.257969 0.185419 0.566234 0.202125 0.677618 0.707092
-0.232649 -0.227038 0.056088 -0.814677 0.579915 0
0.235006 0.153008 0.568173 0.00108268 -0.707085 0.707128
0.22971 0.186726 0.248526 0.812828 0.582504 0
0.0453326 0.218822 0.611403 0.0610224 0.93726 -0.34325
0.235277 0.176085 0.489147 0.981876 0.189524 0
-0.188268 -0.243474 0.320374 0.00155205 -0.999999 0
0.21086 -0.241953 0.220268 -0.981899 -0.189403 0
0.252235 -0.210379 0.555446 0 0 -1
-0.236173 0.16582 0.290277 -0.981888 -0.189465 0
0.196307 0.119897 0.33934 0 0 -1
-0.0799783 -0.15183 0.38399 0 0 1
-0.174409 0.142377 0.321202 -0.999999 -0.00155477 0
-0.168575 0.21554 0.653495 0.409654 -0.885957 0.217404
0.211756 0.160658 0.479944 -0.812859 -0.582461 0
-0.0648083 0.180641 0.394908 -0.0282986 0.990417 -0.135177
-0.246811 0.161805 0.570782 0.124037 -0.0945433 0.987763
-0.14467 0.203036 0.621948 -0.401837 0.868984 -0.288779
0.123337 0.211717 0.553473 -0.195891 -0.974953 0.105322
-0.173874 -0.201719 0.32544 -0.999999 -0.00155477 0
-0.0982982 0.251338 0.726587 -0.243493 0.910335 -0.334665
-0.0552708 0.194208 0.492316 -0.0282986 0.990417 -0.135177
-0.100432 0.119206 0.38399 0 0 1
-0.28289 -0.122695 0.555446 0 0 -1
-0.129957 0.200699 0.383048 0.00154287 -0.998561 0.0536095
0.0229001 0.21647 0.4804 -0.0628515 -0.990469 0.122558
-0.0407823 0.265394 0.713939 0.102005 -0.954719 0.279476
-0.183856 0.189743 0.613165 -0.200636 0.958077 -0.204533
0.0252399 -0.243143 0.323541 0.00155205 -0.999999 0
-0.0853271 0.189101 0.483203 -0.186373 0.973353 -0.133603
-0.174179 -0.00561517 0.31634 -0.999999 -0.00155477 0
-0.0241704 0.0492309 0.38399 0 0 1
-0.176719 0.199743 0.518432 0.204658 -0.977351 0.0538518
-0.115011 -0.267412 0.338492 0.00129359 -0.83142 -0.555643
0.0220383 0.185897 0.424099 0.0252251 0.9905 -0.135182
0.0278103 0.228194 0.577668 -0.0628515 -0.990469 0.122558
-0.172692 0.181821 0.542944 -0.204224 0.975212 -0.0851742
0.123341 0.174897 0.362651 0.0488916 0.996055 -0.0740589
-0.157078 0.21795 0.641652 0.409654 -0.885957 0.217404
0.0558624 0.233801 0.654177 0.0610224 0.93726 -0.34325
-0.0793566 -0.202396 0.33934 0 0 -1
-0.177994 -0.263478 0.375905 0.000864263 -0.555481 0.831529
-0.232318 0.156579 0.332697 -0.812803 -0.582539 0
-0.116602 0.187425 0.510319 -0.0519448 0.994926 -0.0861636
-0.162927 0.109784 0.33934 0 0 -1
-0.133991 0.199217 0.355555 0.00154287 -0.998561 0.0536095
0.0728357 -0.0955079 0.33934 0 0 -1
-0.174351 0.105215 0.327451 -0.999999 -0.00155477 0
0.184653 0.20824 0.628597 -0.20036 -0.971887 0.123655
-0.206708 -0.0485237 0.349106 -0.999999 -0.00155276 0
-0.0540218 0.199258 0.529056 -0.0282986 0.990417 -0.135177
0.0370527 0.221147 0.616282 0.0610224 0.93726 -0.34325
-0.183382 0.176305 0.488816 -0.0527225 0.998104 -0.0317557
0.149387 0.208568 0.569041 -0.201624 -0.978018 0.0531783
-0.193257 0.165512 0.32195 0.00155432 -0.999999 0
-0.166351 0.178384 0.488391 -0.204224 0.975212 -0.0851742
0.00789143 -0.0698082 0.38399 0 0 1
0.234649 -0.228272 0.0897291 0.812883 0.582427 0
0.206998 -0.207581 0.369316 0.999999 0.00155517 0
-0.197284 0.178236 0.560863 -0.204224 0.975212 -0.0851742
0.196643 0.209013 0.654101 -0.20036 -0.971887 0.123655
-0.222921 -0.246654 0.56298 0.999999 0.00151967 -5.35555e-05
0.28017 -0.0645308 0.555446 0 0 -1
-0.170176 0.203346 0.558941 0.204658 -0.977351 0.0538518
-0.122876 -0.11172 0.38399 0 0 1
-0.20681 0.0174723 0.355131 -0.999999 -0.00155276 0
-0.0517199 0.191123 0.468967 -0.0282986 0.990417 -0.135177
-0.253466 -0.124906 0.569827 0.155962 0.000242794 0.987763
0.232685 0.182575 0.307843 0.812828 0.582504 0
0.00375118 0.208335 0.568062 0.064254 0.986895 -0.148019
-0.143734 -0.0431484 0.33934 0 0 -1
0.140149 0.19088 0.565318 0.201176 0.975845 -0.0851704
0.222932 0.170159 0.556821 -0.999999 -0.00151967 -5.35554e-05
-0.0686543 0.230258 0.64768 -0.243493 0.910335 -0.334665
0.0496178 0.212223 0.594148 0.0610224 0.93726 -0.34325
-0.174373 0.118944 0.319822 -0.999999 -0.00155477 0
-0.203466 0.196752 0.338986 0.00155923 -0.999999 0
0.214284 -0.250976 0.284632 -0.812786 -0.582562 0
-0.0672448 -0.234356 0.327135 -0.00155429 0.999999 0
0.168448 0.119194 0.33934 0 0 -1
-0.093978 0.247756 0.713699 -0.243493 0.910335 -0.334665
-0.168712 -0.243444 0.365276 0.00155517 -0.999999 0
-0.052516 0.220687 0.530575 0.0659291 -0.990269 0.122558
0.0366295 0.171296 0.318965 -0.00155332 0.988933 -0.148354
0.0258791 -0.160481 0.38399 0 0 1
-0.21535 0.184025 0.209108 0.812827 0.582505 0
0.227615 0.153625 0.348444 0.352518 -0.935805 0
-0.00324743 0.0585334 0.38399 0 0 1
-0.177425 0.204663 0.591894 0.203382 -0.971259 0.123656
-0.0253165 0.174703 0.317697 -0.00155432 0.999999 0
0.00655849 0.140573 0.38399 0 0 1
-0.186983 0.201646 0.67199 -0.200636 0.958077 -0.204533
0.0227057 -0.245434 0.383535 0.000303668 -0.195179 0.980768
0.0681849 -0.240066 0.38399 0 0 1
0.0698127 -0.234143 0.322336 -0.00155429 0.999999 0
0.206802 -0.0815303 0.364992 0.999999 0.00155517 0
0.217925 0.174508 0.33934 0 0 1
0.118143 0.174284 0.350974 0.0488916 0.996055 -0.0740589
0.165386 0.225752 0.718031 0.403305 0.867744 -0.290456
0.252895 -0.247403 0.555446 0 0 -1
0.0569673 -0.25253 0.326929 0.000303547 -0.195096 -0.980784
-0.233219 0.182047 0.454447 -0.814621 0.579993 0
0.214262 -0.250946 0.238077 -0.812786 -0.582562 0
-0.108715 0.225559 0.663916 -0.17887 0.934167 -0.308768
0.195123 0.211422 0.670576 -0.20036 -0.971887 0.123655
0.234604 0.161568 0.538105 0.982467 -0.186439 0
-0.206739 -0.0286535 0.372166 -0.999999 -0.00155276 0
-0.157939 -0.00137995 0.38399 0 0 1
0.0184612 -0.117297 0.33934 0 0 -1
0.265293 -0.203297 0.555446 0 0 -1
0.221482 0.152423 0.184988 -0.349914 -0.936782 0
-0.231634 -0.252483 0.535959 -0.812827 -0.582505 0
0.0439727 0.238177 0.618202 -0.0591902 -0.962986 0.262972
-0.0972384 0.176428 0.339636 -0.021447 0.99977 0
-0.0701044 0.19238 0.485855 -0.186373 0.973353 -0.133603
0.0128019 -0.17897 0.38399 0 0 1
-0.128569 0.193647 0.57664 -0.186373 0.973353 -0.133603
-0.00241047 -0.0288945 0.33934 0 0 -1
-0.190395 -0.25147 0.326642 0.000303539 -0.195096 -0.980784
0.0180388 -0.149067 0.38399 0 0 1
-0.0490939 0.166418 0.31255 0 0 -1
-0.089751 0.172127 0.33934 0 0 -1
0.0320343 0.234021 0.65054 0.0843804 0.932069 -0.352318
0.119592 -0.208924 0.33934 0 0 -1
0.269689 -0.185969 0.570711 0.15597 0.000243787 0.987762
0.097333 -0.243031 0.332399 0.00155205 -0.999999 0
-0.023075 0.220787 0.612864 -0.0639465 0.937065 -0.343248
-0.234165 0.180719 0.471076 -0.814621 0.579993 0
0.0839311 0.233582 0.622859 -0.243939 -0.935268 0.256453
0.0611947 0.209699 0.428403 0.00156495 -0.994283 0.106767
0.134331 -0.100505 0.38399 0 0 1
0.0679764 0.0454679 0.38399 0 0 1
-0.189754 0.205066 0.690726 -0.200636 0.958077 -0.204533
-0.11044 0.233281 0.686305 -0.243493 0.910335 -0.334665
-0.0380162 0.174683 0.335757 -0.00155432 0.999999 0
0.266536 -0.0338059 0.561113 0.00154454 -0.999999 3.25565e-05
-0.0411875 0.174678 0.317556 -0.00155432 0.999999 0
0.0570059 0.216695 0.493617 0.00156495 -0.994283 0.106767
0.14416 0.0508272 0.38399 0 0 1
0.211834 -0.247003 0.305971 -0.981899 -0.189403 0
0.209585 0.170858 0.245718 -0.982486 0.186338 0
-0.0249135 -0.0219058 0.33934 0 0 -1
0.0732374 0.232767 0.609714 -0.243939 -0.935268 0.256453
0.212039 0.160264 0.545146 -0.812859 -0.582461 0
-0.244102 -0.136002 0.565741 0.707104 0.00110347 0.707109
-0.0616884 0.221584 0.540855 0.00152509 -0.994283 0.106768
0.140841 0.0622593 0.33934 0 0 -1
0.184619 -0.0444786 0.33934 0 0 -1
-0.227605 -0.22206 0.365036 -0.352638 0.93576 0
-0.174268 0.0515935 0.331892 -0.999999 -0.00155477 0
0.118799 -0.0463558 0.38399 0 0 1
0.168371 -0.242921 0.326943 0.00155205 -0.999999 0
0.224652 0.167242 -1.04984e-19 -6.12322e-17 -9.52628e-20 -1
0.243364 0.106785 0.564037 -0.986418 -0.00153936 0.164248
0.0728109 0.22863 0.594222 -0.243939 -0.935268 0.256453
0.232852 -0.225763 0.383655 0.812883 0.582427 0
0.00390536 0.00394231 0.38399 0 0 1
0.108732 0.147467 0.33934 0 0 -1
-0.180927 0.0164361 0.33934 0 0 -1
-0.111681 0.179252 0.412982 -0.0519448 0.994926 -0.0861636
-0.210525 0.17178 0.484473 0.98188 0.189504 0
-0.00245456 0.206213 0.553071 -0.0673329 0.98669 -0.148019
-0.064396 0.175692 0.356663 -0.0015353 0.992275 -0.124052
-0.200096 -0.234562 0.326734 -0.00155429 0.999999 0
-0.225175 0.188088 0.446376 -0.352687 0.935741 0
0.202218 -0.266247 0.371554 0.00129359 -0.83142 0.555643
0.213701 -0.229922 0.555446 0 0 -1
0.00517291 -0.213794 0.33934 0 0 -1
-0.13155 0.0266398 0.38399 0 0 1
0.00948383 0.174757 0.329667 -0.00155432 0.999999 0
-0.189992 0.00085628 0.38399 0 0 1
0.116544 -0.112706 0.33934 0 0 -1
-0.0151087 0.198701 0.327094 0.00152509 -0.994283 0.106768
0.0177917 -0.144058 0.38399 0 0 1
0.155968 0.225713 0.670125 -0.411217 -0.884754 0.219341
-0.2766 -0.00262026 0.555446 0 0 -1
-0.22893 0.153191 0.34038 -0.349866 -0.9368 0
0.235672 -0.245144 0.258809 0.982467 -0.186439 0
-0.210149 -0.235874 0.435026 0.981923 0.189283 0
0.0452945 0.146152 0.33934 0 0 -1
-0.164972 -0.184595 0.326381 0.999999 0.00155227 0
-0.128293 0.207488 0.620584 -0.17887 0.934167 -0.308768
0.219574 0.188122 0.219364 -0.35273 0.935725 0
0.218539 -0.221499 0.507693 -0.352518 0.935805 0
0.102749 0.163695 0.33934 0 0 -1
-0.174058 -0.083168 0.324502 -0.999999 -0.00155477 0
0.206715 -0.0254483 0.376658 0.999999 0.00155517 0
0.0711269 0.208992 0.431141 -0.195891 -0.974953 0.105322
0.194307 0.198843 0.560485 -0.201624 -0.978018 0.0531783
-0.0904124 0.25409 0.726751 0.0732683 -0.273925 -0.958956
-0.107776 -0.272228 0.35155 0.00152599 -0.98079 -0.195061
0.0965446 0.184253 0.45854 0.0488439 0.995083 -0.0861597
-0.181416 0.201154 0.561883 0.204658 -0.977351 0.0538518
-0.206632 0.190421 0.3907 0.999999 0.00153072 0
-0.232589 0.156957 0.331753 -0.812803 -0.582539 0
-0.21795 0.167371 0.555446 0 0 -1
-0.206445 -0.217975 0.371977 -0.999999 -0.00155276 0
0.184372 0.197354 0.367734 0.00157924 -0.999999 0
-0.235371 -0.234047 0.087373 -0.98247 0.186419 0
0.186541 0.124286 0.38399 0 0 1
-0.234723 -0.230631 0.406232 -0.98247 0.186419 0
-0.144104 -0.0635869 0.33934 0 0 -1
-0.0232395 0.0515059 0.33934 0 0 -1
-0.106112 0.246585 0.692208 0.249779 -0.933774 0.256273
0.0938334 0.114807 0.33934 0 0 -1
-0.277278 -0.0659558 0.555446 0 0 -1
-0.115909 0.164593 0.38399 0 0 1
0.206454 0.142286 0.371703 0.999999 0.00155517 0
-0.0106236 0.18781 0.434114 -0.0673329 0.98669 -0.148019
0.0343865 0.00604714 0.33934 0 0 -1
0.232137 0.183339 0.333092 0.812828 0.582504 0
-0.108552 0.242489 0.709976 -0.243493 0.910335 -0.334665
0.037636 -0.151755 0.38399 0 0 1
-0.20563 0.165493 0.321763 0.00155432 -0.999999 0
-0.132415 -0.243388 0.31893 0.00155205 -0.999999 0
0.206962 -0.184501 0.367672 0.999999 0.00155517 0
-0.161659 0.207434 0.587727 0.203382 -0.971259 0.123656
-0.0716701 0.174631 0.325256 -0.00155432 0.999999 0
-0.198595 0.19676 0.446899 0.00155923 -0.999999 0
0.126012 -0.261959 0.376604 0.000864263 -0.555481 0.831529
-0.0447216 0.211167 0.443603 0.00152509 -0.994283 0.106768
0.215665 -0.252904 0.249041 -0.812786 -0.582562 0
0.080785 0.178885 0.3876 0.0488439 0.995083 -0.0861597
-0.206636 0.193124 0.368738 0.999999 0.00153072 0
0.0251871 0.233524 0.647586 0.0843804 0.932069 -0.352318
-0.120769 0.215272 0.58037 0.194561 -0.952994 0.232269
-0.130544 0.198221 0.336903 0.00154287 -0.998561 0.0536095
-0.165828 -0.0987636 0.33934 0 0 1
-0.211448 0.163229 0.289275 0.982467 -0.186438 0
0.199681 -0.238717 0.33934 0 0 1
0.0656248 0.253361 0.709322 0.0610224 0.93726 -0.34325
-0.0844739 -0.0938339 0.38399 0 0 1
0.198027 -0.0638584 0.38399 0 0 1
0.174283 -0.129329 0.332637 0.999999 0.00155726 0
-0.0694825 0.13721 0.33934 0 0 -1
0.194445 0.0654451 0.38399 0 0 1
-0.139719 0.157502 0.33934 0 0 -1
-0.00427791 0.221674 0.512598 0.0659291 -0.990269 0.122558
0.249226 0.0033008 0.569145 -0.155971 -0.000242807 0.987762
-0.0130026 -0.0950043 0.38399 0 0 1
-0.0814255 0.193403 0.509103 -0.186373 0.973353 -0.133603
0.104574 0.203105 0.421075 0.00152853 -0.99856 0.0536165
-0.117741 0.204594 0.455247 0.00154287 -0.998561 0.0536095
0.174416 0.212174 0.690004 0.403305 0.867744 -0.290456
0.201596 0.197381 0.475787 0.00157924 -0.999999 0
0.159799 -0.0581098 0.38399 0 0 1
-0.0348671 -0.271894 0.35044 0.00152593 -0.980789 -0.195063
-0.279025 0.0114001 0.555446 0 0 -1
-0.0438862 -0.125349 0.38399 0 0 1
0.0770582 -0.138043 0.33934 0 0 -1
-0.0620111 0.219144 0.518144 0.00152509 -0.994283 0.106768
-0.106804 -0.243348 0.312593 0.00155205 -0.999999 0
-0.206603 -0.116287 0.378351 -0.999999 -0.00155276 0
-0.192053 0.123578 0.38399 0 0 1
-0.210967 -0.231628 0.141014 0.981923 0.189283 0
0.233826 0.180983 0.0357469 0.812828 0.582504 0
0.244514 -0.0282265 0.5572 -0.857492 -0.00133132 -0.514496
-0.0987066 -0.0136871 0.33934 0 0 -1
0.0903879 0.12257 0.38399 0 0 1
0.234021 0.180711 0.00785303 0.812828 0.582504 0
-0.276346 0.0539282 0.569644 -0.15597 -0.000241942 0.987762
-0.0699882 0.252252 0.708475 -0.243493 0.910335 -0.334665
-0.12253 0.0534508 0.38399 0 0 1
0.21806 0.153701 0.411524 -0.349914 -0.936782 0
-0.0487004 -0.221445 0.33934 0 0 -1
0.230591 -0.254176 0.100719 0.814605 -0.580017 0
-0.0295319 0.192495 0.473942 -0.0673329 0.98669 -0.148019
0.177373 0.0142739 0.38399 0 0 1
0.0340604 0.159996 0.38399 0 0 1
0.0916407 0.20163 0.581183 0.175923 0.934402 -0.30975
-0.0253198 0.25535 0.673984 0.102005 -0.954719 0.279476
0.245988 0.0581374 0.555446 0 0 -1
0.111925 0.183466 0.458162 0.0488439 0.995083 -0.0861597
0.129874 0.196251 0.311691 -5.09991e-05 0.0333167 0.999445
-0.197765 -0.0541331 0.33934 0 0 -1
-0.206636 0.192327 0.643083 0.999999 0.00149424 8.83706e-06
-0.16673 0.196809 0.365473 0.00155923 -0.999999 0
-0.236004 0.174962 0.455238 -0.982482 0.186357 0
0.104311 0.108411 0.38399 0 0 1
-0.226214 -0.221536 0.424379 -0.352638 0.93576 0
-0.0956931 0.197845 0.561363 -0.186373 0.973353 -0.133603
-0.204782 0.211895 0.693694 0.203382 -0.971259 0.123656
0.138763 0.201816 0.609553 0.403305 0.867744 -0.290456
0.112501 0.198327 0.331878 0.00152853 -0.99856 0.0536165
0.267046 0.147412 0.57056 0.152035 0.0348004 0.987762
0.23564 -0.245312 0.481694 0.982467 -0.186439 0
0.0166436 -0.243156 0.368569 0.00155517 -0.999999 0
0.205276 -0.00611912 0.38399 0 0 1
-0.216795 -0.255514 0.36089 0.352636 -0.93576 0
0.235423 0.165882 0.201384 0.982467 -0.186439 0
-0.0506055 0.194013 0.311756 -5.11003e-05 0.0333146 0.999445
0.281827 0.00450154 0.555446 0 0 -1
0.104581 0.190902 0.521782 0.183364 0.973924 -0.133606
0.0514046 0.183757 0.413894 0.0252251 0.9905 -0.135182
-0.0101335 -0.268296 0.34006 0.00129359 -0.83142 -0.555643
-0.252455 -0.106628 0.555446 0 0 -1
-0.216326 0.185387 0.0774488 0.812827 0.582505 0
-0.00162401 0.0850798 0.33934 0 0 -1
0.0702619 -0.243073 0.316272 0.00155205 -0.999999 0
0.165444 -0.188147 0.32394 -0.999999 -0.00155227 0
-0.210371 0.168905 0.221704 0.982467 -0.186438 0
0.218509 0.187721 0.438424 -0.35273 0.935725 0
-0.142427 -0.0507677 0.38399 0 0 1
-0.236316 0.173314 0.173095 -0.982482 0.186357 0
0.132362 -0.234046 0.338191 -0.00155429 0.999999 0
-0.0641836 0.177137 0.352779 -0.021447 0.99977 0
