-0.197808 0.150946 0.653904 -0.323622 0.87968 -0.348472
-0.215127 0.123349 0.402051 0.991948 0.124322 0.024162
0.10217 0.109333 0.393638 -0.0541837 -0.369674 0.92758
-0.164035 0.170743 0.391753 -0.319561 0.920238 0.225927
-0.0219886 0.170475 0.416392 -0.0314243 0.971558 0.234707
-0.209183 -0.0942544 0.380198 0 0 1
0.211818 0.102007 0.391663 -1 -1.2075e-05 0
0.0196701 -0.176072 0.345076 0 0 -1
0.216221 0.121654 0.455918 -0.991963 0.124203 0.0241466
-0.0156357 0.131435 0.365017 1.38839e-05 -0.396389 0.918083
-0.0427898 0.118926 0.359617 1.38839e-05 -0.396389 0.918083
-0.150225 0.198051 0.711084 0.284533 -0.889431 0.357705
-0.153771 0.140047 0.529816 -0.251468 0.941431 0.224657
-0.162949 -0.192484 0.380011 1.74996e-06 -0.123365 0.992361
0.141156 -0.126998 0.380198 0 0 1
-0.131163 -0.0497964 0.380198 0 0 1
0.226802 -0.134371 0.538432 3.03924e-06 0.0456181 0.998959
-0.00953909 0.232551 0.739573 0.10104 -0.924409 0.367776
0.00222503 0.117972 0.393995 1.31416e-05 -0.375196 0.926946
-0.00210701 0.167003 0.38906 2.82798e-05 -1 0
0.245856 -0.0345125 0.546167 1 2.25464e-05 -7.87251e-07
-0.22227 -0.0917354 0.536028 1.13356e-06 -0.0348943 -0.999391
0.212607 -0.0370497 0.373657 1 9.74927e-06 0.000103274
-0.0313884 -0.163444 0.309005 1.14655e-06 -0.0871811 -0.996193
0.132553 -0.0355757 0.380198 0 0 1
0.0386411 0.185783 0.420856 0.031388 0.971559 0.234706
-0.0543978 0.222237 0.725799 0.0981757 -0.923299 0.371323
0.230029 -0.137662 0.462233 0.902855 0.42831 -0.0374713
0.0115999 0.00914133 0.380198 0 0 1
-0.19751 0.182215 0.732479 -0.331554 0.876257 -0.349637
0.116181 0.157116 0.606385 0.223865 0.902705 -0.367434
-0.00803837 -0.230731 0.337001 7.6998e-06 -0.465433 -0.885083
-0.219309 0.145492 0.369476 0.902815 0.422129 0.0820507
-0.22531 0.0970693 0.444689 -0.490328 -0.855526 -0.166296
0.037993 0.174207 0.398803 0.0314059 0.97156 0.234702
0.100628 0.161198 0.425441 0.118762 0.965804 0.230474
-0.00871528 0.19068 0.40459 -0.0314246 0.97156 0.2347
0.125091 -0.189695 0.380198 0 0 1
0.14941 0.169052 0.415955 0.237268 0.944911 0.225494
0.225426 -0.15984 0.148436 0.490186 0.868301 -0.0759679
-0.231735 0.117344 0.393778 -0.99195 -0.124303 -0.0241582
-0.178289 0.0513653 0.350788 -1.51092e-05 1 0
-0.12148 0.132464 0.526774 -0.251456 0.941433 0.224664
-0.21515 0.0887769 0.530202 0.994143 0.108008 -0.00377113
-0.200232 0.185709 0.743816 -0.331554 0.876257 -0.349637
0.230978 -0.145952 0.390334 0.902855 0.42831 -0.0374713
0.0553334 0.136899 0.551903 0.11842 0.975093 0.187539
0.131384 -0.168209 0.309422 1.14655e-06 -0.0871811 -0.996193
-0.099942 0.181041 0.413869 -0.126962 0.964816 0.230239
0.11185 0.181621 0.709725 0.223867 0.902705 -0.367434
0.131698 0.160776 0.398318 0.237273 0.944911 0.225488
-0.184008 0.154124 0.431193 -0.319561 0.920238 0.225927
0.0045067 0.198933 0.681801 0.0360033 0.926578 -0.374375
-0.128407 -0.176556 0.380198 0 0 1
-0.135927 0.187999 0.74196 -0.247061 0.897499 -0.365318
-0.226246 0.145809 0.376179 -0.490415 0.855477 0.16629
-0.231825 0.179349 0.078448 -0.991949 -0.124309 -0.0241593
0.0241946 -0.00726137 0.345076 0 0 -1
0.210731 0.112883 0.500069 1 0 0
0.187333 -0.173574 0.345076 0 0 -1
-0.145229 0.121679 0.545714 -0.25133 0.944848 0.209988
-0.0617225 0.169953 0.410453 -0.118799 0.965154 0.23316
0.230842 0.116516 0.38154 0.902898 -0.421957 -0.0820242
0.0841609 0.131174 0.367049 -0.0573842 -0.39151 0.918383
0.231733 0.186372 0.0388585 0.991961 -0.124218 -0.024149
0.0249669 0.0513684 0.348585 -1.51092e-05 1 0
-0.211669 -0.0834954 0.363675 -1 -1.73328e-05 0
0.15418 -0.145752 0.345076 0 0 -1
0.210716 0.193364 0.748264 -0.284513 -0.890763 0.354392
0.168647 -0.137299 0.345076 0 0 -1
0.220026 -0.182504 0.277647 -0.490658 -0.868036 0.0759449
0.0331784 0.142388 0.403877 1.31416e-05 -0.375196 0.926946
0.11359 -0.151152 0.345076 0 0 -1
-0.093821 0.167512 0.667827 -0.127062 0.918704 -0.373949
0.139227 -0.0447918 0.380198 0 0 1
-0.165578 -0.231461 0.358221 1.48412e-05 -0.897094 0.441839
0.192766 0.200441 0.767468 -0.198599 -0.889844 -0.410775
-0.210736 0.146607 0.665029 -1 -1.00748e-06 -5.04024e-06
-0.198268 -0.006873 0.380198 0 0 1
-0.0558212 -0.208392 0.340577 -7.2672e-06 0.439277 -0.898352
0.0933036 0.108608 0.358 -0.0573842 -0.39151 0.918383
-0.194852 0.105984 0.544214 -0.322534 0.925545 0.19834
0.0297787 -0.0690473 0.380198 0 0 1
0.209019 -0.167218 0.344592 -1.14372e-06 0.0871761 0.996193
0.00265703 -0.171819 0.338231 1.30696e-05 -0.996198 0.0871235
-0.169303 0.158497 0.434298 -0.322803 0.91945 0.224522
-0.15869 -0.0649723 0.345076 0 0 -1
0.0235239 0.212103 0.757782 -0.00164441 0.406233 0.913768
-0.162961 0.205176 0.739196 0.287439 -0.889949 0.354076
-0.0953747 0.19127 0.726739 -0.124278 0.919336 -0.373332
-0.13294 -0.22628 0.334973 8.2129e-07 -0.049646 -0.998767
0.210731 0.111835 0.546705 1 0 0
-0.0424718 -0.204364 0.342547 -7.2672e-06 0.439277 -0.898352
-0.00399296 -0.0327172 0.345076 0 0 -1
-0.0120563 0.0513678 0.371147 -1.51092e-05 1 0
0.114578 0.158063 0.607735 0.223865 0.902705 -0.367434
-0.0460466 0.156464 0.541229 -0.0314065 0.971559 0.234706
0.137723 0.165948 0.687497 0.247014 0.900011 -0.359116
-0.175227 -0.100697 0.345076 0 0 -1
-0.194879 0.183969 0.769176 -0.0229057 0.406029 0.913573
0.145243 -0.109772 0.345076 0 0 -1
-0.230806 -0.149688 0.515419 2.98751e-06 -0.0455191 -0.998963
-0.21167 0.0140084 0.368308 1 1.73328e-05 0
-0.0221106 -0.168216 0.344679 -1.14372e-06 0.0871761 0.996193
0.177427 -0.195409 0.34422 -2.63119e-06 0.15906 -0.987269
-0.106267 0.145456 0.37447 0.0565564 -0.391587 0.918401
-0.193655 0.161649 0.677067 -0.323622 0.87968 -0.348472
-0.193906 -0.219028 0.370772 9.57053e-06 -0.579739 0.814802
0.00617986 0.227825 0.726773 -0.101015 -0.924411 0.367777
-0.192648 0.128556 0.523345 -0.322803 0.91945 0.224522
-0.230157 0.1619 0.266889 -0.902838 0.42208 0.0820471
-0.0102569 0.230039 0.733455 0.10104 -0.924409 0.367776
-0.158835 0.161868 0.645245 -0.224251 0.905138 -0.361161
-0.107349 -0.201741 0.3432 -2.63119e-06 0.15906 -0.987269
-0.103257 0.216221 0.744928 -0.124285 0.919334 -0.373334
0.232157 0.159798 0.236056 0.991961 0.124217 0.0241411
-0.210421 0.107507 0.403175 0.100621 -0.373296 0.922239
0.104464 0.0513696 0.376712 -1.51092e-05 1 0
0.150361 0.0931728 0.390498 -0.123567 -0.349416 0.928784
0.211672 -0.193055 0.365959 -1 -1.89513e-05 1.6126e-05
-0.189786 0.14568 0.680124 -0.323603 0.879684 -0.348477
-0.19634 -0.130573 0.380198 0 0 1
-0.230738 0.00771318 0.532556 1.25199e-06 -0.0348943 -0.999391
-0.0846352 -0.022873 0.380198 0 0 1
0.00934322 -0.135341 0.380198 0 0 1
0.211673 -0.222667 0.365548 -1 -1.89513e-05 1.6126e-05
-0.210736 0.145091 0.663428 -1 -1.00748e-06 -5.04024e-06
0.050217 0.167067 0.426721 0.0313881 0.971562 0.234696
0.117546 0.206017 0.704942 -0.287425 -0.888633 0.357377
0.0141628 0.185432 0.425583 0.031388 0.971559 0.234706
-0.0148297 -0.125483 0.380198 0 0 1
0.118021 0.152127 0.378042 -0.0564376 -0.390812 0.918739
-0.140195 0.106401 0.394699 0.0534224 -0.369888 0.927539
-0.0468652 -0.183287 0.345076 0 0 -1
-0.0349568 -0.0479357 0.380198 0 0 1
0.171832 -0.0440207 0.345076 0 0 -1
0.00248172 0.186197 0.42398 0.031388 0.971559 0.234706
0.206847 -0.173577 0.318098 1.30697e-05 -0.996198 0.0871235
-0.0601809 0.169337 0.483848 -0.118805 0.965155 0.233153
-0.0895291 0.168113 0.667846 -0.127062 0.918704 -0.373949
0.128701 -0.054686 0.380198 0 0 1
0.111482 0.141071 0.502165 0.237273 0.944911 0.225488
0.0492232 -0.112661 0.380198 0 0 1
-0.212605 -0.175302 0.36631 -1 -1.51159e-05 1.28624e-05
0.232582 -0.168599 0.25955 0.991963 -0.126047 0.0110277
-0.104729 -0.00800271 0.380198 0 0 1
0.10205 -0.200051 0.343472 -2.63119e-06 0.15906 -0.987269
0.174986 -0.0122343 0.380198 0 0 1
0.181211 0.154555 0.693802 0.331542 0.877127 -0.34746
0.217728 0.183161 0.158386 -0.902846 0.422065 0.082045
-0.0315229 -0.187413 0.380198 0 0 1
0.0782408 0.157259 0.591584 0.12705 0.919008 -0.373205
-0.092101 -0.0169023 0.345076 0 0 -1
0.00823516 -0.127416 0.380198 0 0 1
-0.199609 0.133359 0.424812 -0.319545 0.920243 0.225929
0.217577 0.119374 0.360077 -0.902893 -0.421969 -0.0820194
-0.154056 0.213917 0.757116 0.205403 -0.90165 -0.380576
-0.100433 0.0513665 0.34839 -1.51092e-05 1 0
-0.231648 0.102943 0.464305 -0.99195 -0.124303 -0.0241582
0.179171 -0.18161 0.345076 0 0 -1
-0.223967 -0.12833 0.49929 -0.490336 0.868217 -0.0759582
0.124442 0.145811 0.629419 0.223867 0.902705 -0.367434
0.0313134 0.188108 0.412215 0.031388 0.971559 0.234706
-0.215643 -0.189046 0.0633959 0.991949 -0.126153 0.0110388
0.228737 -0.181257 0 0 0 -1
0.0594001 -0.154072 0.339574 -1.52805e-05 0.996195 -0.0871517
0.167477 0.175908 0.687999 0.323395 0.878883 -0.350686
-0.228297 0.133894 0.350753 -1 -5.58085e-05 -1.08481e-05
0.227998 0.102443 0.541549 0 0.0347782 0.999395
-0.0389445 0.176271 0.628786 -0.0360246 0.925916 -0.376007
-0.236356 -0.0304599 0.546189 -1.15077e-06 0.0349033 0.999391
-0.147992 0.123628 0.402018 0.0534224 -0.369888 0.927539
0.144384 0.018381 0.345076 0 0 -1
0.167758 0.124511 0.506548 0.3196 0.920508 0.22477
-0.225592 -0.161152 0.308804 1.14378e-06 -0.0871811 -0.996193
-0.189545 0.183207 0.727414 -0.331554 0.876257 -0.349637
-0.137944 0.162587 0.680722 -0.22424 0.905139 -0.361165
0.212607 -0.0904642 0.367085 1 1.84072e-05 -9.06599e-06
-0.0552749 -0.154153 0.338669 -1.52805e-05 0.996195 -0.0871517
-0.182676 0.109948 0.365763 0.138841 -0.392557 0.909188
0.117981 -0.230433 0.359502 1.25995e-05 -0.761595 0.648053
-0.0945333 -0.189929 0.380198 0 0 1
0.107266 0.159171 0.501466 0.11877 0.965802 0.23048
0.220724 -0.151233 0.257532 -0.490186 0.868301 -0.0759681
0.198574 -0.171424 0.342714 1.30696e-05 -0.996198 0.0871235
0.00770649 0.146469 0.517677 0.0314059 0.97156 0.234702
-0.157582 0.160165 0.443263 -0.236993 0.94378 0.230463
-0.0655064 -0.231716 0.337518 7.6998e-06 -0.465433 -0.885083
0.191499 -0.0302424 0.380198 0 0 1
-0.218797 -0.15666 0.220628 0.902956 0.428098 -0.0374545
-0.215805 0.149099 0.297387 0.991951 0.124296 0.0241565
-0.215124 -0.01323 0.53382 1 1.35279e-05 -4.72378e-07
-0.0475322 -0.0422702 0.380198 0 0 1
0.0883129 -0.198276 0.37929 1.74983e-06 -0.123365 0.992361
0.232529 0.156291 0.238826 0.991961 0.124217 0.0241411
-0.225075 -0.142569 0.343684 -0.490336 0.868217 -0.0759582
0.00962126 0.183857 0.691078 0.0359855 0.92658 -0.374373
-0.232583 -0.0495856 0.534556 1.13356e-06 -0.0348943 -0.999391
0.116938 0.0401167 0.345076 0 0 -1
0.154999 0.0311561 0.380198 0 0 1
-0.223609 0.0934581 0.460004 0.490616 -0.855366 -0.166267
-0.0860151 0.149871 0.551718 -0.118749 0.967492 0.22329
0.0897618 0.222437 0.735642 -0.0981527 -0.923302 0.371322
0.134859 0.148306 0.516897 0.251469 0.940239 0.229597
0.107066 -0.0248501 0.380198 0 0 1
-0.0885295 0.194451 0.732294 -0.124278 0.919336 -0.373332
-0.0525011 0.136955 0.552543 -0.0317649 0.981522 0.188696
-0.122884 0.157429 0.491548 -0.251468 0.941431 0.224657
-0.0668025 0.200887 0.69503 -0.124285 0.919334 -0.373334
-0.224077 0.0877042 0.529969 0 -0.0994496 0.995043
0.215737 0.112952 0.480784 -0.991963 0.124203 0.0241466
0.173516 -0.0800295 0.345076 0 0 -1
-0.211667 -0.208101 0.359618 -1 -7.20578e-06 -8.97749e-05
-0.0161296 -0.156344 0.345076 0 0 -1
-0.14193 0.0142027 0.345076 0 0 -1
0.0754127 -0.167201 0.345076 0 0 -1
0.0238071 0.146518 0.51532 0.0313881 0.971562 0.234696
0.0483443 0.20723 0.686586 -0.101015 -0.924411 0.367777
0.222848 0.188266 0.161583 -0.490119 0.85564 0.166323
-0.187143 0.162163 0.394015 -0.319561 0.920238 0.225927
-0.0611926 -0.172926 0.325586 1.30696e-05 -0.996198 0.0871235
-0.120314 -0.148788 0.380198 0 0 1
-0.0788057 0.212247 0.757728 -0.00167329 0.406233 0.913768
0.111554 -0.157828 0.34377 -1.33734e-06 0.0871811 0.996193
-0.0234479 -0.116963 0.380198 0 0 1
-0.195478 0.121831 0.571167 -0.298511 0.939886 -0.165846
-0.1619 0.083861 0.352726 0.101859 -0.377888 0.920231
-0.0083185 -0.216562 0.372524 9.59066e-06 -0.579738 0.814803
-0.181938 -0.17838 0.380198 0 0 1
0.22707 -0.13821 0.406281 0.49056 0.868092 -0.0759454
-0.071324 0.166188 0.656969 -0.124278 0.919336 -0.373332
0.136233 -0.156546 0.311287 -1.31022e-05 0.996198 -0.0871235
-0.164835 -0.0831835 0.380198 0 0 1
-0.14556 0.187945 0.748342 -0.247061 0.897499 -0.365318
-0.222484 0.0269331 0.544184 0 0.0349034 0.999391
-0.179953 0.119909 0.605938 -0.323603 0.879684 -0.348477
0.232227 -0.143149 0.499652 0.99195 0.126152 -0.0110368
0.23259 -0.181921 0.0890684 0.99195 0.126152 -0.0110368
-0.230426 0.153425 0.307524 -0.902838 0.42208 0.0820471
-0.0311069 0.0651173 0.344675 0 0 1
0.129449 -0.174034 0.312888 1.30697e-05 -0.996198 0.0871235
-0.0272421 0.17246 0.477532 -0.0314065 0.971559 0.234706
0.215457 0.19909 0.0261947 -0.991966 0.124178 0.0241414
0.0206412 -0.236046 0.345049 1.61192e-05 -0.976426 -0.21585
-0.0222557 0.159758 0.460718 -0.0314424 0.971559 0.234701
-0.148728 -0.0871643 0.380198 0 0 1
0.0286699 0.199832 0.686235 0.0299194 0.926101 -0.376087
-0.185673 0.198314 0.761601 -0.331554 0.876257 -0.349637
0.00529821 0.211915 0.757832 -0.00164441 0.406233 0.913768
0.0724191 -0.104495 0.345076 0 0 -1
-0.220843 0.157474 0.138834 0.490616 -0.855366 -0.166267
-0.230728 -0.183217 0.207597 -0.902907 -0.428201 0.0374592
-0.0170354 0.0131513 0.345076 0 0 -1
0.175425 0.130184 0.627381 0.32342 0.878875 -0.350682
-0.227126 -0.164709 0.485367 -0.490274 -0.868252 0.0759611
0.132126 0.0787914 0.347713 -0.0564376 -0.390812 0.918739
0.211669 -0.014558 0.361187 1 1.73846e-05 0
0.228968 0.126783 0.460607 0.902863 0.422031 0.0820314
-0.18338 0.123263 0.617588 -0.323603 0.879684 -0.348477
0.217428 0.102111 0.54156 0 0.0347782 0.999395
-0.168596 0.148768 0.402383 0.333442 -0.94277 0
0.245856 -0.0349386 0.538476 1 2.25465e-05 -7.89199e-07
0.062608 0.221187 0.743648 0.124264 0.919033 -0.374081
-0.196831 0.127263 0.640176 -0.323603 0.879684 -0.348477
0.19141 0.191831 0.728913 -0.284513 -0.890763 0.354392
0.140708 0.0296305 0.345076 0 0 -1
-0.155596 0.0314231 0.345076 0 0 -1
-0.211667 -0.15422 0.350739 1 1.73328e-05 0
0.160042 0.0513704 0.372279 -1.51092e-05 1 0
0.23184 0.11208 0.494633 0.991961 0.124217 0.0241411
0.0142696 0.170138 0.488881 0.031388 0.971559 0.234706
0.113517 -0.0639943 0.380198 0 0 1
-0.212604 -0.180953 0.379569 -1 -1.64787e-05 0.000132557
0.175027 -0.233423 0.354224 1.48412e-05 -0.897094 0.441839
0.069636 0.217727 0.71861 -0.0981527 -0.923302 0.371322
-0.0359908 0.163588 0.443024 -0.0314243 0.971558 0.234707
0.0340898 0.152223 0.373992 1.12042e-05 -0.396392 0.918082
0.229721 0.181247 0.172119 0.902818 0.422122 0.0820477
-0.216167 0.198066 0.0603133 0.991948 0.124322 0.024162
-0.0151898 0.0579421 0.344675 0 0 1
0.171014 0.0794761 0.351932 -0.101845 -0.377889 0.920232
-0.0391985 0.183359 0.430812 -0.0314246 0.97156 0.2347
0.231689 -0.170668 0.136674 0.991961 0.126061 -0.0110272
0.0822743 0.109112 0.392392 -0.0535242 -0.370638 0.927234
0.048135 -0.0255599 0.345076 0 0 -1
-0.142329 0.13934 0.474945 -0.23701 0.943777 0.230458
0.200042 0.149616 0.42706 0.322754 0.919188 0.225659
-0.0629611 0.161725 0.37874 0.0565564 -0.391587 0.918401
0.0451176 -0.099193 0.380198 0 0 1
0.226918 -0.167625 0.453333 0.490339 -0.868215 0.0759588
0.132116 0.184003 0.728889 0.247014 0.900011 -0.359116
-0.083596 0.154787 0.461943 -0.126963 0.964815 0.230244
0.215172 0.120727 0.413457 -0.991963 -0.124206 -0.0241389
-0.245856 -0.0449371 0.54485 -1 -1.35279e-05 4.72352e-07
0.00763667 0.219084 0.73197 0.0299194 0.926101 -0.376087
-0.146854 0.154446 0.477715 -0.236993 0.94378 0.230463
0.228979 -0.201203 0.00439028 0 0 1
-0.185024 -0.0172364 0.380198 0 0 1
0.162256 -0.154635 0.333129 -1.52805e-05 0.996195 -0.0871517
0.142366 0.165283 0.439149 0.251469 0.940239 0.229597
-0.13301 0.195202 0.690307 0.284533 -0.889431 0.357705
-0.0380396 0.0513674 0.357761 -1.51092e-05 1 0
0.080667 0.152699 0.375991 -0.0564376 -0.390812 0.918739
-0.212604 -0.199634 0.373381 -1 -1.55302e-05 2.18271e-05
0.081291 -0.0993002 0.380198 0 0 1
-0.231535 0.130251 0.413819 -0.991963 0.124205 0.0241467
0.210731 0.139038 0.661015 1 2.07559e-06 4.6707e-06
-0.00980244 0.178959 0.452964 -0.0314065 0.971559 0.234706
0.0908509 0.159651 0.601768 0.12705 0.919008 -0.373205
0.19822 0.135618 0.615375 0.323395 0.878883 -0.350686
-0.121207 0.191534 0.671798 0.284533 -0.889431 0.357705
-0.0926477 -0.145772 0.380198 0 0 1
0.0180781 0.112682 0.35692 1.12042e-05 -0.396392 0.918082
-0.0874999 -0.137082 0.345076 0 0 -1
0.22656 0.167677 0.0851801 0.490382 -0.855495 -0.166295
0.224621 -0.174181 0.311187 1.30697e-05 -0.996198 0.0871235
-0.0906037 0.154398 0.53019 -0.118805 0.965155 0.233153
0.101368 -0.149588 0.345076 0 0 -1
-0.0574022 0.153031 0.555118 -0.134206 0.973115 0.187178
-0.234425 0.00627537 0.544906 -1.15077e-06 0.0349033 0.999391
-0.125714 0.0443571 0.380198 0 0 1
0.00889781 -0.15513 0.327493 -1.52805e-05 0.996195 -0.0871517
0.244478 -0.0347086 0.534037 1.24979e-06 -0.0348942 -0.999391
0.149862 -0.195892 0.344142 -2.63119e-06 0.15906 -0.987269
-0.206935 0.0681064 0.386847 0.100621 -0.373296 0.922239
0.0384043 0.145567 0.517305 0.0313881 0.971562 0.234696
0.184621 0.159387 0.662404 0.323395 0.878883 -0.350686
-0.211669 -0.0519136 0.356134 1 1.73328e-05 0
-0.0709137 0.182274 0.650566 -0.124285 0.919334 -0.373334
-0.218902 0.104994 0.419486 0.902789 -0.422182 -0.0820675
-0.211669 -0.0665965 0.366371 -1 -1.73328e-05 0
0.0395032 -0.217796 0.371646 9.59066e-06 -0.579738 0.814803
0.231924 -0.171333 0.28745 0.991949 -0.126154 0.0110389
0.165065 -0.0915113 0.380198 0 0 1
0.217393 -0.172882 0.333183 -0.902751 -0.428527 0.0374884
0.236819 0.116643 0.541052 0 0.0348248 0.999393
0.181156 0.125168 0.620093 0.32342 0.878875 -0.350682
0.203727 0.1095 0.601644 0.32342 0.878875 -0.350682
-0.151694 0.187493 0.751381 -0.247061 0.897499 -0.365318
-0.0471285 -0.154244 0.337634 -1.52805e-05 0.996195 -0.0871517
0.0925354 0.158678 0.511123 0.11877 0.965802 0.23048
0.222727 -0.153637 0.217135 -0.490175 0.868307 -0.0759685
-0.143339 0.187837 0.680211 0.284533 -0.889431 0.357705
0.226305 0.117919 0.519506 0.490354 0.855516 0.166267
-0.215631 -0.179044 0.0848651 0.991948 0.126167 -0.0110342
0.0577002 0.044541 0.380198 0 0 1
0.0378757 0.18972 0.662078 -0.075803 -0.417825 0.90536
-0.183291 0.147226 0.460343 -0.322803 0.91945 0.224522
0.118418 -0.230371 0.336812 7.6998e-06 -0.465433 -0.885083
0.110988 0.197133 0.701534 0.223865 0.902705 -0.367434
0.215759 0.157415 0.252991 -0.991963 0.124203 0.0241466
0.131844 0.175165 0.706554 0.247014 0.900011 -0.359116
-0.0302279 0.178653 0.451494 -0.0314246 0.97156 0.2347
-0.0786559 -0.150774 0.345076 0 0 -1
0.172339 0.11192 0.365402 -0.101845 -0.377889 0.920232
-0.0521102 -0.219035 0.370765 9.57053e-06 -0.579739 0.814802
0.00530887 -0.0920545 0.345076 0 0 -1
-0.0462149 0.172324 0.475556 -0.0314246 0.97156 0.2347
0.198749 0.00808334 0.380198 0 0 1
-0.168467 0.113797 0.550401 -0.319423 0.925042 0.205587
0.220807 0.173626 0.230887 -0.490236 0.855576 0.166309
-0.203906 -0.0639209 0.345076 0 0 -1
0.211673 -0.225447 0.341957 1 0 0
-0.0935241 -0.233296 0.354491 1.48096e-05 -0.897095 0.441838
0.0529151 0.207246 0.687882 -0.101015 -0.924411 0.367777
0.173578 -0.0944813 0.380198 0 0 1
-0.126018 -0.0127446 0.345076 0 0 -1
0.0303671 -0.0219572 0.380198 0 0 1
0.077844 0.178211 0.643044 0.12705 0.919008 -0.373205
-0.177191 0.139363 0.411446 0.123582 -0.349413 0.928783
0.245855 0.000370771 0.53808 1 2.25465e-05 -7.89199e-07
0.00497405 0.20809 0.750563 0.0299366 0.926105 -0.376075
-0.112467 -0.075293 0.380198 0 0 1
-0.188898 0.137853 0.412436 0.123582 -0.349413 0.928783
0.134605 0.155345 0.418018 0.237273 0.944911 0.225488
0.215268 -0.179974 0.132797 -0.991975 -0.125957 0.0110197
0.21167 -0.0736361 0.355243 -1 -1.73846e-05 0
-0.0555366 0.149814 0.611392 -0.124278 0.919336 -0.373332
-0.167159 0.141586 0.437347 -0.322797 0.919453 0.224518
0.0582351 0.199555 0.734808 0.12705 0.919013 -0.373194
0.0715587 -0.225854 0.364884 1.25722e-05 -0.761596 0.648053
0.22933 0.210497 0 0 0 -1
-0.175814 0.139521 0.502646 -0.322803 0.91945 0.224522
-0.210736 0.124198 0.610266 -1 -1.00748e-06 -5.04024e-06
0.202335 0.142464 0.452916 0.322754 0.919188 0.225659
0.140345 0.153292 0.657583 0.247014 0.900011 -0.359116
-0.172715 0.178656 0.680748 0.284533 -0.889431 0.357705
-0.104164 0.149335 0.580062 -0.117475 0.958074 -0.26133
-0.1076 0.12979 0.576968 -0.117483 0.958099 -0.261236
-0.222812 0.0898275 0.481032 0.490412 -0.855479 -0.166291
-0.216098 0.170944 0.117211 0.991964 -0.124192 -0.0241443
0.212606 0.00107319 0.36544 1 1.73846e-05 0
-0.035393 0.0560726 0.344675 0 0 1
-0.210736 0.111508 0.604326 -1 -1.00737e-06 -5.04028e-06
0.0498748 0.152454 0.374092 1.12042e-05 -0.396392 0.918082
0.017745 -0.154601 0.333539 -1.52805e-05 0.996195 -0.0871517
-0.135938 0.194873 0.691818 0.284533 -0.889431 0.357705
0.0557352 0.109504 0.356035 -0.0573842 -0.39151 0.918383
-0.184438 0.150699 0.444535 -0.319561 0.920238 0.225927
0.193425 -0.167442 0.345076 0 0 -1
0.232079 -0.155791 0.341849 0.99195 0.126152 -0.0110368
-0.191775 -0.0818088 0.380198 0 0 1
0.228598 -0.174716 0.00416903 0.902904 0.428206 -0.0374605
-0.0104951 0.0680563 0.344675 0 0 1
0.110048 0.148803 0.542111 0.251386 0.943105 0.21762
0.212607 -0.0922782 0.374585 1 2.2774e-05 -0.000178584
-0.21828 0.110184 0.39963 0.902789 -0.422182 -0.0820675
0.222423 -0.13112 0.476458 -0.490175 0.868307 -0.0759685
-0.123063 -0.13571 0.345076 0 0 -1
0.240944 -0.00386132 0.54526 0 0.0349032 0.999391
0.211819 0.0663796 0.367387 -1 -1.2075e-05 0
0.215975 -0.144997 0.443415 -0.991976 0.125941 -0.0110204
-0.180422 0.0549841 0.344675 0 0 1
0.211671 -0.092188 0.378921 1 1.99955e-05 -5.139e-05
0.168677 -0.156446 0.312421 -1.31022e-05 0.996198 -0.0871235
0.128431 0.133326 0.370684 -0.0564376 -0.390812 0.918739
-0.0898538 0.157988 0.515709 -0.118805 0.965155 0.233153
0.0483845 0.151264 0.492387 0.0313881 0.971562 0.234696
0.0269813 0.186342 0.698761 0.0299366 0.926105 -0.376075
0.18625 0.106699 0.568046 0.288962 0.926698 -0.240274
-0.202947 -0.222376 0.36839 9.57053e-06 -0.579739 0.814802
-0.128643 0.147355 0.527316 -0.251468 0.941431 0.224657
0.211671 -0.141573 0.352074 1 1.73846e-05 0
0.231579 -0.148954 0.375065 0.991961 0.126061 -0.0110272
0.0370971 0.137701 0.551493 0.0317506 0.982782 0.182021
-0.0463786 0.165589 0.433348 -0.0314243 0.971558 0.234707
-0.128392 0.137668 0.612342 -0.22424 0.905139 -0.361165
-0.06602 0.151056 0.559209 -0.134206 0.973115 0.187178
-0.0671563 0.152279 0.480843 -0.118799 0.965154 0.23316
-0.0619278 0.158949 0.525963 -0.118805 0.965155 0.233153
0.117314 0.152168 0.449524 0.237273 0.944911 0.225488
-0.0800383 0.0474263 0.345076 0 0 -1
-0.148825 0.158001 0.461128 -0.236993 0.94378 0.230463
-0.104369 -0.19134 0.380153 1.74983e-06 -0.123365 0.992361
-0.129053 0.189959 0.69635 -0.247063 0.897501 -0.365312
-0.0608253 -0.00649071 0.380198 0 0 1
0.0468841 0.210306 0.713477 0.0299194 0.926101 -0.376087
-0.180441 -0.155909 0.318611 -1.31022e-05 0.996198 -0.0871235
-0.0751985 0.142546 0.600165 -0.127062 0.918704 -0.373949
-0.2325 -0.17451 0.166195 -0.99195 0.126151 -0.0110406
0.221498 0.155233 0.327542 -0.490119 0.85564 0.166323
-0.219394 0.15654 0.313576 0.902815 0.422129 0.0820507
0.00586136 0.200521 0.731959 0.0359855 0.92658 -0.374373
0.0480715 0.047784 0.380198 0 0 1
-0.041648 0.134805 0.56986 -0.0259503 0.953266 -0.301016
0.135275 -0.0572005 0.345076 0 0 -1
-0.186078 0.141234 0.618494 -0.323622 0.87968 -0.348472
0.151932 0.154798 0.622684 0.247009 0.900012 -0.359118
0.0505463 0.171657 0.664474 0.0299366 0.926105 -0.376075
-0.0482921 0.204425 0.679523 0.10104 -0.924409 0.367776
0.101925 -0.163265 0.344246 -1.14372e-06 0.0871761 0.996193
-0.156294 0.137145 0.469575 -0.23701 0.943777 0.230458
-0.215893 0.151444 0.288959 0.991951 0.124296 0.0241565
0.0536121 0.181613 0.643356 0.0299194 0.926101 -0.376087
-0.149643 -0.173486 0.319188 1.30696e-05 -0.996198 0.0871235
-0.0654425 0.19027 0.714312 -0.124278 0.919336 -0.373332
-0.192181 -0.219989 0.370088 9.57053e-06 -0.579739 0.814802
0.228123 -0.198746 0.0898427 0.490333 -0.868219 0.0759592
0.215124 -0.0589939 0.538781 -1 -1.06941e-05 8.16348e-05
-0.175317 -0.0194479 0.345076 0 0 -1
0.215526 0.143645 0.314242 -0.991966 0.124178 0.0241414
-0.138158 -0.15335 0.345076 0 0 -1
-0.18355 0.132246 0.640423 -0.323603 0.879684 -0.348477
-0.0685764 0.146637 0.607964 -0.127062 0.918704 -0.373949
0.21167 -0.0845658 0.367547 -1 -1.84072e-05 9.06599e-06
0.117081 0.155139 0.50827 0.237268 0.944911 0.225494
-0.0896607 0.0513666 0.379003 -1.51092e-05 1 0
-0.0373513 0.181033 0.64036 -0.0360246 0.925916 -0.376007
0.210003 0.177118 0.731267 0.33153 0.877132 -0.347459
0.00627998 0.226073 0.722396 -0.101015 -0.924411 0.367777
0.0731398 -0.167739 0.345076 0 0 -1
-0.221948 -0.202466 0.00439028 0 0 1
0.216015 0.141229 0.273323 -0.991959 -0.124232 -0.0241445
0.085536 0.14047 0.520081 0.118762 0.965804 0.230474
0.028109 0.157344 0.539987 0.031388 0.971559 0.234706
0.0619906 -0.180406 0.345076 0 0 -1
0.115879 0.176549 0.699719 0.223867 0.902705 -0.367434
0.147054 0.159033 0.389464 0.237273 0.944911 0.225488
-0.150285 -0.167304 0.345076 0 0 -1
-0.216166 0.173845 0.0995242 0.991964 -0.124192 -0.0241443
0.037727 0.154129 0.571932 0.0356699 0.952965 -0.300974
0.216291 -0.156348 0.285258 -0.991976 0.125941 -0.0110204
0.0721089 -0.129877 0.380198 0 0 1
0.19841 0.154168 0.66227 0.33153 0.877132 -0.347459
0.0628999 0.137373 0.582459 0.130142 0.95655 -0.260912
0.0712642 0.137616 0.539393 0.118762 0.965804 0.230474
0.124188 0.0514167 0.380374 0 0 1
0.158929 0.134759 0.573375 0.229016 0.942285 -0.244237
-0.140093 -0.0253708 0.345076 0 0 -1
0.157398 -0.0286064 0.380198 0 0 1
0.211669 -0.0325618 0.363989 1 1.73846e-05 0
-0.0264727 -0.0124359 0.345076 0 0 -1
0.0657774 0.161619 0.598079 0.12705 0.919008 -0.373205
0.110037 -0.118852 0.345076 0 0 -1
0.0123357 0.07761 0.344675 0 0 1
0.113847 -0.18706 0.380198 0 0 1
-0.211668 -0.178211 0.360394 -1 -7.20578e-06 -8.97749e-05
-0.0790537 0.195865 0.732621 -0.124278 0.919336 -0.373332
-0.0781609 0.144619 0.406367 0.0534224 -0.369888 0.927539
-0.152367 -0.171324 0.343909 1.30696e-05 -0.996198 0.0871235
-0.181064 0.193218 0.74446 -0.331554 0.876257 -0.349637
0.00301255 0.123787 0.396349 1.31416e-05 -0.375196 0.926946
0.187923 -0.1708 0.380198 0 0 1
-0.111995 0.13774 0.515282 -0.251456 0.941433 0.224664
0.21167 -0.0372597 0.379286 -1 -1.99955e-05 5.13901e-05
-0.0741359 -0.107853 0.345076 0 0 -1
0.196916 0.127779 0.375634 -0.138823 -0.392558 0.90919
0.212605 0.0258535 0.347447 1 1.73846e-05 0
-0.0209872 0.225265 0.724405 0.10104 -0.924409 0.367776
-0.10394 0.224645 0.756148 0.0765984 -0.926306 -0.368903
0.178701 -0.0683021 0.345076 0 0 -1
-0.110637 -0.0852286 0.380198 0 0 1
-0.0249102 0.0513676 0.36158 -1.51092e-05 1 0
0.150188 0.0871373 0.388205 -0.123567 -0.349416 0.928784
0.152235 -0.108183 0.380198 0 0 1
0.169349 -0.236615 0.347636 1.61192e-05 -0.976426 -0.21585
-0.0469814 0.142117 0.591331 -0.0360253 0.925917 -0.376005
-0.211667 -0.215571 0.372883 1 1.55302e-05 -2.18271e-05
-0.210736 0.129524 0.650139 -1 -1.00737e-06 -5.04028e-06
-0.231605 -0.139873 0.481538 -0.99195 0.126151 -0.0110406
-0.169246 0.148538 0.40575 0.333442 -0.94277 0
-0.218429 0.121957 0.480873 0.902815 0.422129 0.0820507
0.211672 -0.183806 0.350018 1 1.73846e-05 0
0.126214 0.163226 0.464773 0.237268 0.944911 0.225494
0.21641 0.175893 0.181274 -0.902846 0.422065 0.082045
0.0633981 0.147735 0.501259 0.126839 0.96419 0.232915
0.0918632 0.179717 0.69726 0.124223 0.919038 -0.374083
0.126903 0.10609 0.39379 -0.0541837 -0.369674 0.92758
-0.198145 0.154021 0.708944 -0.323603 0.879684 -0.348477
-0.0630765 -0.218509 0.335841 -5.31357e-06 0.375517 -0.926816
0.229356 -0.181786 0.257047 0.902906 -0.428202 0.0374628
-0.211668 -0.116699 0.35881 -1 -1.73328e-05 0
0.186986 0.0376637 0.345076 0 0 -1
-0.137883 0.179179 0.721616 -0.247061 0.897499 -0.365318
0.212608 -0.0923376 0.353107 1 1.73846e-05 0
0.143373 -0.0514467 0.380198 0 0 1
-0.191981 0.10717 0.54335 -0.322534 0.925545 0.19834
-0.183629 0.1353 0.648204 -0.323603 0.879684 -0.348477
-0.0233401 0.226562 0.728311 0.10104 -0.924409 0.367776
0.0925756 0.161283 0.396552 -0.142928 -0.989733 0
0.190751 0.156075 0.413871 0.319616 0.9205 0.224776
-0.0746444 0.159476 0.641568 -0.127062 0.918704 -0.373949
0.02968 0.19323 0.670059 0.0299194 0.926101 -0.376087
0.154286 0.125793 0.598423 0.223867 0.902705 -0.367434
0.153835 0.0513703 0.364439 -1.51092e-05 1 0
-0.0459472 0.103298 0.352869 1.38839e-05 -0.396389 0.918083
0.0271667 -0.153771 0.34303 -1.52805e-05 0.996195 -0.0871517
0.175165 0.135222 0.521276 0.322754 0.919188 0.225659
0.228125 0.209107 0.045015 0.490353 0.855512 0.166293
0.132203 -0.155313 0.380198 0 0 1
-0.219437 -0.19115 0.173828 0.902827 -0.428367 0.037478
-0.216084 0.192879 0.00496159 0.991964 -0.124192 -0.0241443
-0.229697 0.0713139 0.530335 1.25199e-06 -0.0348943 -0.999391
0.0725859 0.223023 0.732559 -0.0981527 -0.923302 0.371322
-0.210736 0.143045 0.656861 -1 -1.00748e-06 -5.04024e-06
0.212609 -0.193732 0.366416 1 9.74927e-06 0.000103274
0.149997 -0.0643981 0.380198 0 0 1
-0.211666 -0.214942 0.347834 1 1.73328e-05 0
0.197618 0.139376 0.40321 0.3196 0.920508 0.22477
0.135626 0.161599 0.629246 0.223865 0.902705 -0.367434
0.21544 -0.163917 0.331854 -0.991975 -0.125957 0.0110197
0.0666712 0.136895 0.544782 0.118762 0.965804 0.230474
-0.231863 0.132022 0.391246 -0.991963 0.124203 0.0241465
0.0610652 0.220124 0.722304 -0.0981527 -0.923302 0.371322
0.109892 0.153598 0.639685 0.223867 0.902705 -0.367434
0.0897795 0.146844 0.491183 0.118762 0.965804 0.230474
0.0283478 -0.028689 0.345076 0 0 -1
0.0732665 0.195078 0.66744 -0.0737718 -0.407787 0.910092
-0.185546 0.124157 0.406837 0.123582 -0.349413 0.928783
-0.216173 0.166744 0.13576 0.991964 -0.124192 -0.0241443
-0.193813 -0.0943443 0.380198 0 0 1
0.193912 0.0542345 0.380374 0 0 1
-0.2253 -0.150239 0.257468 -0.490336 0.868217 -0.0759582
0.17205 0.173684 0.733351 0.331542 0.877127 -0.34746
0.00978464 0.165219 0.644964 0.0359855 0.92658 -0.374373
-0.0824804 0.153281 0.583232 -0.127043 0.918709 -0.373944
-0.146817 0.174566 0.395359 -0.236993 0.94378 0.230463
-0.105117 0.225359 0.74697 0.0981757 -0.923299 0.371323
0.0255545 0.099535 0.386532 1.31416e-05 -0.375196 0.926946
-0.228484 0.167011 0.095719 -0.902893 -0.421969 -0.0820198
-0.0915197 -0.169554 0.344796 -1.14372e-06 0.0871761 0.996193
-0.12278 0.161499 0.621935 -0.224251 0.905138 -0.361161
0.150969 0.190403 0.757898 0.247014 0.900011 -0.359116
-0.192698 0.12434 0.579628 -0.329684 0.913867 -0.236972
0.0927345 0.137406 0.529209 0.118762 0.965804 0.230474
0.0420237 0.145565 0.599418 0.0359855 0.92658 -0.374373
0.0979471 0.181581 0.412393 0.126858 0.964185 0.232925
0.226213 -0.16908 0.441262 0.490339 -0.868215 0.0759588
-0.116528 0.117497 0.397761 0.0534224 -0.369888 0.927539
-0.218101 0.186045 0.147554 0.90287 0.422016 0.0820268
-0.0535278 0.182938 0.430636 -0.0314246 0.97156 0.2347
0.0039936 0.0718757 0.380374 0 0 1
0.0793933 0.112035 0.393394 -0.0535242 -0.370638 0.927234
-0.232301 0.145525 0.303818 -0.991963 0.124203 0.0241465
0.212609 -0.179694 0.346547 1 1.65387e-05 -9.24895e-05
0.0842815 0.21199 0.762913 0.0259142 -0.147175 -0.988771
0.208698 0.138386 0.460426 0.322754 0.919188 0.225659
0.216392 -0.193301 0.0756639 -0.902751 -0.428527 0.0374884
0.208913 0.189166 0.736266 -0.284513 -0.890763 0.354392
0.170208 -0.0937042 0.345076 0 0 -1
-0.217563 -0.165377 0.150707 0.902828 0.428366 -0.0374736
-0.0651215 0.160938 0.516098 -0.118805 0.965155 0.233153
0.0524084 0.148387 0.503759 0.0313881 0.971562 0.234696
-0.204026 0.137021 0.403648 -0.319545 0.920243 0.225929
0.227022 0.0903949 0.5153 7.21045e-06 0.0994515 -0.995042
0.0278412 0.0466563 0.345076 0 0 -1
0.191353 0.122653 0.623195 0.32342 0.878875 -0.350682
0.136277 0.18059 0.723199 0.247014 0.900011 -0.359116
-0.00165719 0.106591 0.389388 1.31416e-05 -0.375196 0.926946
0.21632 0.138052 0.376045 0 0.981627 0.190809
-0.147703 0.153318 0.403879 0.142946 -0.989731 0
-0.122533 0.161323 0.405281 -0.23701 0.943777 0.230458
0.0566657 0.220795 0.722812 -0.0981527 -0.923302 0.371322
0.0071617 0.155187 0.554488 0.031751 0.982795 0.181949
-0.211669 -0.0863408 0.361368 -1 -1.73328e-05 0
-0.154851 -0.153885 0.341759 -1.52805e-05 0.996195 -0.0871517
-0.184157 0.146094 0.394793 -0.319545 0.920243 0.225929
0.215384 0.133196 0.362176 -0.991966 0.124178 0.0241414
0.0942834 0.1541 0.458455 0.118762 0.965804 0.230474
-0.166209 0.135473 0.533031 -0.322803 0.91945 0.224522
-0.211115 0.0819448 0.392904 0.100621 -0.373296 0.922239
0.197205 0.122101 0.572806 0.331144 0.92922 -0.163994
-0.187252 0.104955 0.562877 -0.298516 0.939881 -0.165864
-0.182582 0.0792952 0.388718 0.100621 -0.373296 0.922239
0.170537 0.145595 0.661494 0.32342 0.878875 -0.350682
0.150827 0.129202 0.508363 0.251468 0.940241 0.229589
0.192872 -0.191688 0.380109 1.74983e-06 -0.123365 0.992361
0.201467 0.184588 0.774239 0.248295 0.463818 -0.850425
-0.136225 0.12364 0.547667 -0.25133 0.944848 0.209988
0.103211 -0.126923 0.345076 0 0 -1
-0.217725 -0.173978 0.313582 1.30696e-05 -0.996198 0.0871235
0.231653 -0.184756 0.158362 0.991949 -0.126154 0.0110389
0.099375 0.150903 0.583128 0.12705 0.919008 -0.373205
0.22402 -0.152496 0.223299 0.490186 0.868301 -0.0759679
-0.151703 0.209239 0.759034 -0.247063 0.897501 -0.365312
-0.0448422 0.148195 0.505557 -0.0314243 0.971558 0.234707
0.198742 0.158316 0.673061 0.33153 0.877132 -0.347459
-0.0175651 0.193402 0.662076 0.0758115 -0.417824 0.905359
-0.210737 0.179773 0.756462 -1 -2.07582e-06 -4.67063e-06
0.0362216 -0.2117 0.338959 -6.21587e-06 0.439248 -0.898366
-0.00613514 0.164735 0.512331 -0.0314065 0.971559 0.234706
0.216654 0.159472 0.163936 -0.902893 -0.421969 -0.0820194
-0.0403193 0.200281 0.688044 -0.0360246 0.925916 -0.376007
0.0663502 0.200835 0.694841 0.12705 0.919008 -0.373205
-0.0940924 -0.00342014 0.380198 0 0 1
0.21073 0.161363 0.721104 1 2.07559e-06 4.6707e-06
0.189035 0.193779 0.731902 -0.284513 -0.890763 0.354392
0.178568 -0.170021 0.345076 0 0 -1
0.231756 0.198951 0.0510879 0.991965 0.124192 0.0241368
0.0610157 -0.00139386 0.345076 0 0 -1
-0.0450212 0.0866053 0.381299 1.06222e-05 -0.375193 0.926947
-0.170739 0.177551 0.742048 -0.331539 0.87626 -0.349643
-0.110909 0.183143 0.667332 -0.247063 0.897501 -0.365312
-0.0455343 0.215481 0.760545 -0.057655 0.374323 -0.925504
-0.0577889 0.168398 0.612026 -0.124285 0.919334 -0.373334
-0.193426 0.139986 0.403507 0.333442 -0.94277 0
0.171566 -0.0886322 0.345076 0 0 -1
0.156529 -0.231993 0.357129 1.48412e-05 -0.897094 0.441839
0.190797 0.0466503 0.380198 0 0 1
-0.211667 -0.214289 0.367882 1 1.51159e-05 -1.28624e-05
0.103357 -0.207898 0.340818 -6.21587e-06 0.439248 -0.898366
0.231838 -0.185801 0.129789 0.991963 -0.126047 0.0110277
0.044542 0.143579 0.594744 0.0359855 0.92658 -0.374373
0.0874042 -0.0103739 0.345076 0 0 -1
-0.220969 -0.171784 0.406369 0.490424 -0.868168 0.0759564
-0.217501 -0.1766 0.0239242 0.902828 0.428366 -0.0374736
-0.230038 -0.151558 0.303779 -0.902852 0.428315 -0.0374744
-0.10736 -0.180258 0.345076 0 0 -1
0.220243 -0.146327 0.316713 -0.490186 0.868301 -0.0759681
0.10039 0.209957 0.707419 -0.0981527 -0.923302 0.371322
-0.106796 0.130336 0.578609 -0.117483 0.958099 -0.261236
0.194479 0.181896 0.728519 0.33153 0.877132 -0.347459
-0.188743 0.200251 0.747748 0.287439 -0.889949 0.354076
-0.219459 -0.201186 0.00439028 0 0 1
0.133623 0.0480798 0.380198 0 0 1
-0.153198 -0.0793426 0.345076 0 0 -1
-0.20564 0.188069 0.775627 -0.0284721 -0.3712 -0.928116
0.179169 0.145033 0.398972 -0.333403 -0.942784 0
0.226004 -0.170712 0.027901 0.490186 0.868301 -0.0759679
0.079617 -0.184941 0.380198 0 0 1
-0.100228 0.200887 0.752038 -0.124278 0.919336 -0.373332
0.2019 -0.218743 0.335744 -5.32677e-06 0.375518 -0.926815
-0.108066 -0.17296 0.345076 0 0 -1
0.0511538 0.0454331 0.380198 0 0 1
0.19452 -0.235847 0.349303 1.48412e-05 -0.897094 0.441839
-0.113063 0.125711 0.565316 -0.248016 0.943959 0.217785
0.112757 0.126252 0.563243 0.251386 0.943094 0.217668
0.0587701 -0.184277 0.380198 0 0 1
-0.168237 -0.171934 0.336944 1.30696e-05 -0.996198 0.0871235
0.0505344 -0.17513 0.380198 0 0 1
0.205317 0.103138 0.540403 0.319404 0.92659 0.198523
0.223934 0.0179564 0.532198 0 -0.0348944 -0.999391
0.0787756 0.0274503 0.380198 0 0 1
-0.123494 0.200883 0.762667 -0.00338751 0.406041 0.913849
0.218554 -0.178271 0.299535 -0.902856 -0.428307 0.0374728
-0.151778 0.15273 0.396708 0.142946 -0.989731 0
0.167092 -0.166619 0.344539 -1.14372e-06 0.0871761 0.996193
-0.110168 0.194074 0.670505 0.10104 -0.924409 0.367776
0.0965133 0.211531 0.731189 0.124264 0.919033 -0.374081
-0.207373 0.143828 0.691783 -0.323603 0.879684 -0.348477
-0.240208 0.0578174 0.530806 1.25199e-06 -0.0348943 -0.999391
0.233227 -0.0563472 0.547093 0 0.0349032 0.999391
0.150772 0.145046 0.443539 0.251468 0.940241 0.229589
0.130791 0.146811 0.635743 0.223867 0.902705 -0.367434
0.218284 -0.143507 0.383302 -0.902904 0.428207 -0.037464
-0.211668 -0.115824 0.377617 1 1.59489e-05 -4.09936e-05
0.141625 0.149203 0.436369 0.237273 0.944911 0.225488
-0.183657 0.160417 0.406058 -0.319561 0.920238 0.225927
-0.0849616 0.152277 0.581308 -0.129338 0.945559 -0.298646
0.0919635 0.14431 0.610247 0.12705 0.919013 -0.373194
-0.0237476 0.157528 0.581104 -0.0358557 0.942391 -0.332586
-0.241538 0.110241 0.539313 -0.934845 0.354839 -0.0124181
0.222924 -0.177611 0.35229 -0.490503 -0.868123 0.0759508
0.0482239 -0.154649 0.332982 -1.52805e-05 0.996195 -0.0871517
-0.0661863 -0.0696648 0.380198 0 0 1
0.0929704 0.216885 0.722686 -0.0981527 -0.923302 0.371322
0.23649 -0.156868 0.550602 6.4417e-05 0.0348254 0.999393
-0.150984 -0.0263061 0.380198 0 0 1
-0.00425143 0.213425 0.717576 -0.0299754 0.926763 -0.37445
0.118799 0.140774 0.495708 0.237273 0.944911 0.225488
-0.15476 0.0970523 0.392544 0.123582 -0.349413 0.928783
0.215807 -0.140537 0.509537 -0.991976 0.125941 -0.0110204
-0.00620951 -0.190374 0.345031 -2.25614e-06 0.159048 -0.987271
0.191474 -0.176544 0.380198 0 0 1
-0.116548 -0.0285805 0.380198 0 0 1
0.197708 0.127074 0.522222 0.322754 0.919188 0.225659
0.132021 0.145168 0.586681 0.223865 0.902705 -0.367434
0.192427 0.0621314 0.382843 -0.100607 -0.373296 0.922241
0.21565 0.188334 0.0459499 -0.991959 -0.124232 -0.0241445
-0.0711386 -0.174534 0.345076 0 0 -1
0.0671756 0.221502 0.761085 0.0249065 -0.0712279 -0.997149
0.15438 0.0386086 0.380198 0 0 1
-0.0412325 0.217872 0.711383 0.10104 -0.924409 0.367776
0.108168 0.163554 0.411435 0.237273 0.944911 0.225488
0.215595 -0.164736 0.336476 -0.991975 -0.125957 0.0110197
0.21532 -0.182587 0.107678 -0.991975 -0.125957 0.0110197
0.231059 -0.198424 0.0258375 0.902855 -0.428309 0.0374739
-0.172254 -0.221541 0.334738 7.04115e-07 -0.0496372 -0.998767
-0.174466 0.164923 0.400705 -0.319561 0.920238 0.225927
0.0681039 0.201208 0.676878 -0.101015 -0.924411 0.367777
-0.232662 0.13583 0.338825 -0.991963 0.124203 0.0241465
-0.0916499 0.00716946 0.380198 0 0 1
-0.215596 -0.14748 0.534185 0.991963 -0.126049 0.0110267
-0.0391077 0.160854 0.453924 -0.0314243 0.971558 0.234707
-0.0098276 -0.159883 0.345076 0 0 -1
-0.22696 -0.171445 0.0257995 -0.490336 0.868217 -0.0759582
-0.200094 0.148284 0.649307 -0.323622 0.87968 -0.348472
-0.0518851 -0.00159208 0.380198 0 0 1
0.105824 0.219407 0.732353 -0.0981527 -0.923302 0.371322
0.0601867 -0.161577 0.344098 -1.14372e-06 0.0871761 0.996193
0.161955 0.140881 0.447759 0.3196 0.920508 0.22477
-0.216496 -0.175195 0.0641941 0.902828 0.428366 -0.0374736
-0.145592 -0.181514 0.380198 0 0 1
-0.112055 0.218008 0.753763 -0.247063 0.897501 -0.365312
0.075133 0.211719 0.705124 -0.0981527 -0.923302 0.371322
0.215414 0.103564 0.515815 -0.991963 0.124203 0.0241466
0.18512 0.113252 0.527631 0.322793 0.919173 0.225668
0.126714 -0.229033 0.361147 1.25722e-05 -0.761596 0.648053
-0.231818 -0.161044 0.414314 -0.991949 -0.126154 0.0110332
0.216598 -0.138971 0.475782 -0.902904 0.428207 -0.037464
0.216103 -0.179503 0.0375391 -0.991963 0.126049 -0.0110278
-0.108045 0.103126 0.356553 0.057252 -0.390591 0.918782
-0.191248 0.0960483 0.396445 0.100621 -0.373296 0.922239
-0.107056 0.149842 0.46973 -0.126963 0.964815 0.230244
-0.232074 -0.154499 0.466179 -0.991949 -0.126154 0.0110332
-0.0341059 -0.0236911 0.380198 0 0 1
-0.0247512 0.127806 0.36345 1.38839e-05 -0.396389 0.918083
0.00836095 0.183612 0.644253 0.0360033 0.926578 -0.374375
-0.0310605 -0.173763 0.316006 1.30697e-05 -0.996198 0.0871235
0.205519 0.138162 0.375481 0 0.981627 0.190809
0.165029 0.197964 0.723108 -0.287425 -0.888633 0.357377
-0.227735 0.142537 0.217925 -0.490236 -0.855577 -0.166304
0.211671 -0.135718 0.368058 -1 -1.89513e-05 1.6126e-05
-0.0921719 -0.168381 0.344693 -1.14372e-06 0.0871761 0.996193
-0.222809 0.0821568 0.529415 0 -0.0998966 0.994998
-0.082616 -0.0704559 0.380198 0 0 1
0.0707646 -0.197359 0.379404 1.74983e-06 -0.123365 0.992361
-0.0231654 0.168959 0.49257 -0.0314065 0.971559 0.234706
-0.232124 -0.175355 0.223153 -0.991949 -0.126153 0.011033
-0.204642 0.187333 0.728185 0.287439 -0.889949 0.354076
-0.15212 0.176236 0.677084 -0.224251 0.905138 -0.361161
-0.212607 -0.0127681 0.348607 -1 -1.73328e-05 0
0.216169 0.154065 0.200926 -0.991959 -0.124232 -0.0241445
-0.0221074 -0.0648913 0.345076 0 0 -1
0.0956109 0.221589 0.735078 -0.0981527 -0.923302 0.371322
-0.235356 -0.0454672 0.534412 1.25199e-06 -0.0348943 -0.999391
-0.158549 -0.226857 0.363709 1.25995e-05 -0.761595 0.648053
0.185617 -0.231761 0.357598 1.48412e-05 -0.897094 0.441839
-0.225393 0.165087 0.279518 -0.490384 0.855494 0.166293
0.024542 0.158969 0.533737 0.031388 0.971559 0.234706
-0.215943 -0.141871 0.481828 0.991948 0.126165 -0.0110341
-0.0675492 -0.0571616 0.345076 0 0 -1
0.17277 -0.155869 0.319016 -1.52805e-05 0.996195 -0.0871517
0.0415708 0.185668 0.698263 0.0299366 0.926105 -0.376075
0.0474588 -0.0822386 0.345076 0 0 -1
0.155874 -0.0274083 0.380198 0 0 1
0.21962 0.171445 0.0705838 -0.490243 -0.855573 -0.166305
-0.188652 0.117536 0.504937 -0.322797 0.919453 0.224518
0.0143789 -0.169914 0.380198 0 0 1
-0.0261245 0.191567 0.398586 -0.0314246 0.97156 0.2347
0.173072 -0.202493 0.343078 -2.63119e-06 0.15906 -0.987269
-0.232376 0.150591 0.24904 -0.991949 -0.124309 -0.0241593
-0.124519 0.14766 0.410249 0.0534224 -0.369888 0.927539
-0.156094 -0.0663973 0.345076 0 0 -1
-0.18438 0.130982 0.525298 -0.322803 0.91945 0.224522
-0.184178 -0.236004 0.348995 1.48096e-05 -0.897095 0.441838
0.189 0.10545 0.364784 -0.138823 -0.392558 0.90919
0.155008 0.136391 0.544122 0.248 0.945703 0.210099
0.0569293 0.220817 0.740841 0.12705 0.919008 -0.373205
-0.137131 0.0478985 0.345076 0 0 -1
0.122655 -0.0504247 0.380198 0 0 1
0.0158152 -0.035247 0.380198 0 0 1
0.0685049 -0.155984 0.317716 -1.31022e-05 0.996198 -0.0871235
-0.0438787 -0.0837639 0.380198 0 0 1
0.0589699 0.205916 0.750704 0.124223 0.919038 -0.374083
0.245854 0.0521965 0.533762 1 2.25465e-05 -7.89199e-07
0.0960823 -0.03827 0.345076 0 0 -1
0.196647 0.150631 0.698627 0.331542 0.877127 -0.34746
-0.0320957 -0.214093 0.33779 -6.21587e-06 0.439248 -0.898366
0.212607 -0.0969889 0.372665 1 9.74927e-06 0.000103274
-0.1483 0.14987 0.425683 -0.23701 0.943777 0.230458
-0.245856 -0.0934372 0.537555 -1 -1.35279e-05 4.73562e-07
0.0101186 -0.218216 0.335959 -5.31357e-06 0.375517 -0.926816
-0.217549 0.105226 0.538685 0.934855 0.354814 -0.0123884
-0.209361 0.120537 0.463243 -0.319545 0.920243 0.225929
-0.146425 0.137017 0.570636 -0.224605 0.943255 -0.244587
-0.223984 0.122247 0.311252 -0.490328 -0.855526 -0.166296
0.18379 0.18201 0.765569 0.331542 0.877127 -0.34746
0.230373 0.174682 0.198724 0.902863 0.422031 0.0820314
-0.210737 0.154505 0.685076 -1 -2.07582e-06 -4.67063e-06
-0.229931 0.205187 0.0466949 -0.902846 0.422063 0.0820442
0.0535306 0.00507993 0.345076 0 0 -1
0.15161 0.148825 0.427142 0.251468 0.940241 0.229589
0.132929 0.12058 0.564937 0.248017 0.94568 0.210184
-0.216361 -0.190489 0.107258 0.902855 -0.42831 0.0374739
0.211669 0.00540749 0.346159 1 1.73846e-05 0
-0.00784156 0.194993 0.718341 -0.0299754 0.926763 -0.374448
-0.138574 -0.0195648 0.345076 0 0 -1
0.200498 0.120199 0.375851 0 -0.981627 -0.190809
0.201048 -0.0202543 0.380198 0 0 1
0.142538 0.016519 0.345076 0 0 -1
-0.205832 -0.172828 0.326726 1.30696e-05 -0.996198 0.0871235
-0.136534 0.151437 0.431367 -0.23701 0.943777 0.230458
-0.215124 0.050635 0.534057 1 1.35279e-05 -4.72333e-07
0.105621 -0.155032 0.3286 -1.52805e-05 0.996195 -0.0871517
-0.231824 -0.185208 0.137463 -0.991949 -0.126153 0.011033
0.110953 0.0881258 0.3857 -0.0541837 -0.369674 0.92758
0.101303 0.197083 0.743059 0.124223 0.919038 -0.374083
0.0476342 0.191496 0.396005 0.031388 0.971559 0.234706
0.0302616 0.138229 0.402194 1.31416e-05 -0.375196 0.926946
-0.173207 -0.159001 0.308616 1.14378e-06 -0.0871811 -0.996193
0.0949536 -0.154116 0.339065 -1.52805e-05 0.996195 -0.0871517
-0.00357452 0.0869581 0.381442 1.31416e-05 -0.375196 0.926946
0.215181 -0.173944 0.184061 -0.991963 0.126049 -0.0110278
-0.211667 -0.153524 0.34765 -1 -1.73328e-05 0
-0.212607 -0.0240729 0.379778 -1 -1.64787e-05 0.000132557
0.211672 -0.197743 0.360837 -1 -1.84072e-05 9.06599e-06
0.228319 -0.129409 0.515359 0.902854 0.428309 -0.0374867
0.0423785 0.0361655 0.380198 0 0 1
-0.0676293 0.213601 0.726615 -0.124285 0.919334 -0.373334
0.216565 -0.18497 0.175069 -0.902751 -0.428527 0.0374884
-0.224267 -0.171874 0.421921 -0.490274 -0.868252 0.0759611
-0.0281229 0.153536 0.485688 -0.0314424 0.971559 0.234701
-0.231554 0.0982668 0.484523 -0.99195 -0.124303 -0.0241582
0.183303 -0.228335 0.361966 1.25722e-05 -0.761596 0.648053
-0.104151 0.0399919 0.345076 0 0 -1
-0.216438 -0.156746 0.494799 0.902855 -0.42831 0.0374739
0.122824 0.152268 0.443309 0.237273 0.944911 0.225488
-0.21167 -0.0163866 0.355844 -1 -1.73328e-05 0
0.0556251 -0.115005 0.345076 0 0 -1
-0.210736 0.164376 0.685619 1 -9.48358e-05 3.81192e-05
-0.194425 0.179001 0.698949 0.287439 -0.889949 0.354076
-0.215626 -0.178989 0.176794 0.991949 -0.126153 0.0110388
0.21073 0.184805 0.74725 -1 -3.83999e-06 -9.60394e-06
0.232112 -0.17945 0.074349 0.991961 0.126061 -0.0110272
-0.15228 -0.175446 0.380198 0 0 1
-0.20333 0.145837 0.437617 -0.319561 0.920238 0.225927
0.215557 0.131981 0.339722 -0.991963 -0.124206 -0.0241389
0.103877 0.128018 0.563733 0.134368 0.965548 0.222851
0.169831 0.126108 0.612005 0.32342 0.878875 -0.350682
-0.22988 0.160456 0.144813 -0.90287 -0.422015 -0.0820281
0.0304572 0.207396 0.705004 0.0299194 0.926101 -0.376087
-0.0441877 0.177953 0.452522 -0.0314246 0.97156 0.2347
0.0822988 -0.0859006 0.345076 0 0 -1
-0.211667 -0.224719 0.341249 -1 -3.58824e-05 0.000193745
0.229619 0.152385 0.183553 0.902898 -0.421957 -0.0820242
0.0283097 -0.188699 0.345076 0 0 -1
-0.0394579 0.135732 0.5611 -0.0317649 0.981522 0.188696
0.106422 -0.154357 0.336317 -1.52805e-05 0.996195 -0.0871517
-0.230317 0.178641 0.0560634 -0.90287 -0.422015 -0.0820281
-0.220392 -0.00141633 0.545174 0 0.0349034 0.999391
-0.170764 -0.170452 0.309618 1.14378e-06 -0.0871811 -0.996193
-0.0410339 0.0813279 0.344675 0 0 1
-0.0394054 0.228931 0.73848 0.0981757 -0.923299 0.371323
-0.205457 0.135409 0.477086 -0.319561 0.920238 0.225927
0.156879 0.212784 0.753402 -0.287425 -0.888633 0.357377
-0.210737 0.160273 0.733393 -1 -1.00737e-06 -5.04028e-06
-0.166036 0.132863 0.373306 0.101859 -0.377888 0.920231
-0.22526 0.210829 0.04459 -0.490384 0.855494 0.166293
0.180798 -0.0281682 0.380198 0 0 1
-0.0306649 0.171037 0.412902 -0.0314243 0.971558 0.234707
-0.230995 -0.1885 0.140784 -0.902907 -0.428201 0.0374592
-0.0194786 -0.0497274 0.380198 0 0 1
-0.219431 0.12896 0.455871 0.902815 0.422129 0.0820507
0.21167 -0.086365 0.363362 -1 -1.73846e-05 0
0.112901 0.190426 0.686221 0.223865 0.902705 -0.367434
0.135915 -0.20679 0.377177 5.14404e-06 -0.362611 0.93194
-0.0535858 0.190285 0.664699 -0.0360246 0.925916 -0.376007
0.139981 -0.156752 0.308933 -1.31022e-05 0.996198 -0.0871235
-0.0300949 -0.133992 0.345076 0 0 -1
0.133518 0.155371 0.411585 -0.142928 -0.989733 0
0.0473541 -0.0485684 0.345076 0 0 -1
-0.0157194 -0.020942 0.380198 0 0 1
-0.190759 -0.172148 0.380198 0 0 1
-0.153447 -0.160768 0.345076 0 0 -1
0.071053 0.0136125 0.345076 0 0 -1
-0.226846 0.118773 0.383157 2.23227e-05 -0.981627 -0.190809
-0.207594 0.189456 0.775132 -0.0284721 -0.3712 -0.928116
0.21789 -0.191189 0.135882 -0.902856 -0.428307 0.0374728
-0.221239 -0.146377 0.309769 0.490505 0.868122 -0.0759524
-0.215171 -0.164731 0.298834 0.991963 -0.126048 0.0110317
