0.207438 0.0727811 0.380457 -0.482875 0.13788 0.864766
-0.206587 -0.0981423 0.440953 0.482869 0.521761 0.70328
-0.163876 0.148764 0.377164 0.306493 -0.92049 -0.242404
0.201744 -0.115012 0.338377 1 0 0
-0.123767 0.0606497 0.346902 0 1 0
-0.236501 -0.0638429 0.404444 -0.440283 -0.414237 -0.796592
0.186798 0.165762 0.691708 0 -0.924962 0.38006
0.241914 -0.0676998 0.511477 1 0 0
-0.127899 0.0092101 0.0297809 0.0871559 0 -0.996195
0.0644433 -0.0405607 0.265823 0.345766 -0.233668 -0.90876
-0.201743 -0.110778 0.45027 1 0 0
-0.205747 -0.0774489 0.502766 0.533076 0.205192 -0.820808
-0.160969 0.124674 0.571966 0.269559 -0.919087 0.287432
0.150506 0.110927 0.33645 -0.259464 -0.391243 0.882954
0.101573 0.0595401 0.287213 0.247238 0.403354 -0.88101
0.211031 0.0771249 0.520931 0 0.108482 0.994098
-0.226137 0.112884 0.494236 0 0.97466 0.22369
0.0473857 -0.05234 0.278083 -0.280166 0.30311 0.910841
0.195154 0.00970341 0.023897 -0.0871551 0 -0.996195
-0.0364994 -0.140787 0.326259 -0.000821253 -0.999072 -0.0430708
-0.0985677 0.158838 0.658421 0 -0.975538 0.219832
0.0205256 0.129461 0.377577 0 -0.375183 0.926951
0.180207 0.152351 0.665501 0 -0.928787 0.370614
-0.0928905 0.153016 0.5612 0.0705636 -0.97748 0.19888
0.0651884 0.15236 0.548145 -0.0705629 -0.97748 0.198881
-0.0995863 0.139498 0.476043 0.136042 -0.964719 -0.225411
0.0255159 0.150262 0.522252 -0.0779686 -0.971435 -0.224133
-0.237029 -0.110135 0.486863 -0.482907 0.66492 -0.569809
0.11285 0.154872 0.573029 -0.269558 -0.919084 0.287442
-0.0212582 0.158275 0.4907 0.077912 -0.965829 -0.247194
0.0822024 -0.0702624 0.280217 0.345766 -0.233668 -0.90876
0.0775001 0.126602 0.378079 -0.0503835 -0.370686 0.927391
-0.165979 0.105352 0.344492 0.0959181 -0.378105 0.92078
-0.201743 0.0183923 0.519814 1 0 0
-0.0667311 0.150835 0.505437 0.0779883 -0.971433 -0.224133
-0.00877083 0.216749 0.0220077 0 -0.0871551 -0.996195
-0.0693052 0.182852 0.695078 0 -0.975535 0.219843
0.116999 0.176809 0.749669 0 0.997961 0.0638297
-0.142871 0.0606497 0.346159 0 1 0
-0.191254 -0.0211554 0.330025 0 0 -1
-0.0162649 -0.170012 0.35921 0 -0.304332 0.952566
0.152456 0.179542 0.689053 -0.269558 -0.919084 0.287442
-0.110032 0.166184 0.728503 0 -0.976528 -0.215389
-0.123857 -0.0950151 0.330025 0 0 -1
-0.110764 0.135908 0.560804 0.269559 -0.919087 0.287432
0.0554217 0.143858 0.472283 -0.0779529 -0.970023 -0.230173
0.15762 0.0940539 0.370871 -0.0947469 -0.373493 0.922781
-0.0400219 0.163881 0.742016 0 -0.997962 -0.0638121
0.241912 -0.00630094 0.0193592 0 -1 0
-0.0642491 -0.0660932 0.272315 -0.345772 -0.233661 -0.90876
0.10188 0.175287 0.705555 0 -0.86599 -0.500061
-0.214574 -0.0526511 0.52534 0 -0.118207 0.992989
0.0448349 0.167292 0.443498 -0.0779718 -0.970021 -0.230172
-0.201052 0.114221 0.383493 0.0947483 -0.373493 0.922781
0.200852 0.142668 0.63743 1 0 0
-0.0845352 -0.0879812 0.361532 0 0 1
-0.157665 0.145389 0.635105 0.269559 -0.919087 0.287432
-0.11368 -0.111945 0.302912 -0.345772 -0.233661 -0.90876
-0.0453236 0.0606497 0.351952 0 1 0
0.129998 0.00354029 0.0295973 0.0871552 0 0.996195
0.0971969 -0.0677817 0.293865 0.653187 0.611805 0.446141
-0.188455 -0.134959 0.361532 0 0 1
-0.103176 0.129198 0.349744 0.0532341 -0.391658 0.918569
-0.182511 0.156797 0.644351 0.267846 -0.906649 0.325954
-0.0480295 -0.0532006 0.278567 0.280166 0.303114 0.91084
-0.228314 0.102 0.507103 0 -0.974924 -0.222536
-0.0818616 0.0401638 0.361532 0 0 1
0.11721 0.163817 0.743023 0 -0.997962 -0.0638121
-0.204867 -0.038748 0.522962 0.592377 -0.0952406 0.800012
0.179608 0.136979 0.389924 -0.116401 -0.349704 0.929601
-0.208123 -0.0648792 0.421783 0 0.461359 0.887214
-0.021183 0.0840921 0.36169 0 0 1
-0.200851 -0.0316206 0.516406 1 0 0
-0.189084 0.141973 0.633811 0 -0.924962 0.38006
0.0395864 0.0438109 0.361532 0 0 1
0.235018 0.122748 0.376279 0.440111 0.0569037 0.896139
-0.231473 0.0358184 0.3731 0 -0.157439 -0.987529
0.170642 0.157843 0.636724 -0.269558 -0.919084 0.287442
-0.0975477 -0.0846143 0.302169 0.194407 0.317918 0.927973
-0.0155209 -0.258328 0.0219592 -1 0 0
-0.118106 0.128881 0.545222 0.269559 -0.919087 0.287432
-0.0166368 -0.0114946 0.266821 -0.0684668 -0.0118367 0.997583
0.200852 0.177897 0.708967 1 0 0
-0.210956 -0.108154 0.487262 0 0.759225 -0.650829
-0.110169 -0.000583742 0.04082 -0.087156 0 0.996195
-0.216367 -0.116471 0.504312 0 -0.588213 0.808706
0.0155231 0.116753 0.0344572 1 0 0
-0.0155204 -0.00768104 0.231083 -0.956877 -0.290495 0
-0.0085013 0.0154445 0.0753479 -0.258886 0.965908 0
-0.199383 0.18756 0.790224 0 0.852892 -0.522087
0.2088 0.0475894 0.526064 0 0.0654203 0.997858
0.200852 -0.0988502 0.430209 -1 0 0
0.0784719 0.160573 0.376816 -0.134681 -0.990889 0
0.00960038 0.184495 0.0248295 0 -0.0871551 -0.996195
-0.132233 0.198824 0.818899 0 0.768528 0.639816
-0.1337 0.128168 0.381781 0.0502811 -0.369933 0.927697
0.149352 -0.0155209 0.0314578 0 -1 0
0.204452 0.124819 0.407133 0 -0.974923 -0.222542
0.183305 -0.195551 0.325914 0 -0.855955 -0.51705
-0.0217199 0.139549 0.38166 0 -0.375183 0.926951
-0.201743 0.0528672 0.379146 1 0 0
0.200916 0.11495 0.450369 0 -0.974923 -0.222542
-0.161742 0.125123 0.574128 0.269559 -0.919087 0.287432
-0.0131027 0.268215 0.0118148 0 0 1
0.119934 0.183506 0.697981 0 -0.975535 0.219843
8.07121e-05 0.184356 0.699259 0 -0.983944 0.178479
-0.236915 -0.0636621 0.419966 -0.440148 0.414266 0.796652
-0.0179244 0.00984231 0.238239 0 0 -1
0.0862828 -0.0471124 0.281499 0.653187 0.611805 0.446141
-0.0633696 0.181492 0.369498 0.119487 -0.964882 -0.233935
-0.0165828 0.153748 0.345957 0.0845754 -0.622586 0.777968
0.201744 -0.10145 0.505084 -1 0 0
0.199918 0.14564 0.642736 0 -0.924962 0.38006
0.0755734 0.167936 0.435539 -0.0293402 -0.963918 -0.264578
0.140391 0.132819 0.578711 -0.269559 -0.919087 0.287432
0.0427736 -0.0167048 0.330025 0 0 -1
0.185118 0.0855547 0.338356 -0.0959166 -0.378104 0.920781
-0.100377 0.0505106 0.294559 -0.452855 -0.835871 0.31023
-0.0184549 0.00881372 0.330025 0 0 -1
-0.185412 0.133173 0.411402 0.28431 -0.9321 -0.224405
0.202559 -0.118345 0.46362 -0.533122 0.825901 0.183493
0.120073 0.179735 0.729234 0 0.976523 0.215415
0.177767 0.15607 0.66691 -0.267846 -0.906651 0.325949
-0.0494981 -0.106577 0.330025 0 0 -1
-0.0199018 0.00648068 0.179247 -0.956858 0.290555 0
-0.13926 0.186579 0.78862 0 0.852892 -0.522087
-0.00583193 -0.185138 0.350633 0 -0.660549 0.750783
0.206074 -0.110359 0.504902 -0.592136 -0.47389 0.65177
-0.148401 0.161381 0.627181 0.269558 -0.919084 0.287442
0.105653 0.187319 0.812514 0 -0.763238 0.646117
-0.019029 0.0298503 0.330025 0 0 -1
0.00603887 0.160148 0.349588 -0.0901366 -0.594446 0.799068
-0.208857 0.140206 0.375186 0 0.97466 0.22369
0.232176 -0.0745647 0.426819 0 0.461359 0.887214
0.216008 0.123062 0.449885 0 0.97466 0.22369
-0.112456 -0.177077 0.356221 0 -0.492805 0.87014
-0.173143 0.143878 0.382396 0.31582 -0.948819 0
-0.147959 0.158448 0.393825 0.305471 0 0.952201
-0.2027 -0.0708077 0.4104 0.483009 -0.403962 -0.776863
0.142798 0.141601 0.48819 -0.24414 -0.944305 -0.220642
-0.201743 0.0657712 0.37918 1 0 0
-0.0221237 -0.0075466 0.2385 -0.611802 -0.185831 -0.768873
-0.125791 0.165689 0.770635 0 -0.970689 0.240341
0.0155231 0.224753 0.0264995 1 0 0
0.00277125 -0.275176 0.0118148 0 0 -1
0.206279 -0.0662796 0.505214 -0.533076 0.205192 -0.820808
0.0118402 0.16891 0.381663 -0.0293217 -0.963919 -0.264578
-0.0145161 -0.12037 0.330025 0 0 -1
0.192282 0.133671 0.400567 -0.31075 -0.92244 -0.229213
0.170235 0.120711 0.351269 -0.130806 -0.39298 0.910196
0.205172 -0.075285 0.516625 -0.592228 -0.195408 0.781717
-0.15387 0.130595 0.494948 -0.823504 0 -0.56731
0.0167477 0.149225 0.46276 -0.0779529 -0.970023 -0.230173
0.205362 0.135186 0.364516 0 0.780859 -0.624707
-0.0206349 -0.168909 0.359562 0 -0.304332 0.952566
-0.105158 0.179504 0.770719 0 0.970699 -0.240297
0.188552 0.137785 0.361274 -0.130806 -0.39298 0.910196
-0.0598098 -0.0112302 0.0451595 -0.0828905 -0.309007 0.947441
0.00630201 0.166705 0.0187286 1 0 0
-0.109658 0.0897712 0.315109 0.255192 -0.39421 0.882879
-0.202497 0.00515981 0.0327424 -0.087156 0 0.996195
-0.0733985 0.157801 0.577799 0.0705636 -0.97748 0.19888
-0.119672 0.127765 0.505265 0.244517 -0.934009 -0.260458
0.0477642 0.179712 0.383266 -0.0295502 -0.97142 -0.23552
0.0773914 0.0578354 0.277944 0.326191 0.353528 -0.876708
-0.156609 0.0211688 0.330025 0 0 -1
-0.0618759 0.170962 0.712037 0 0 1
-0.0172997 0.160313 0.483985 0.077912 -0.965829 -0.247194
0.0217078 0.15234 0.610049 -0.070544 -0.977482 0.198876
-0.182703 -0.106791 0.330025 0 0 -1
-0.0367648 0.162113 0.663483 0 -0.983944 0.178479
0.166644 0.132885 0.460531 -0.999539 0 0.0303434
0.0138519 0.167327 0.0273014 0.808892 -0.0512436 -0.585719
-0.175819 0.113495 0.504927 0.310747 -0.929403 -0.199113
0.093459 0.0941652 0.366008 -0.0510067 -0.36972 0.927742
-0.124872 0.146748 0.558328 0.269558 -0.919084 0.287442
0.226896 -0.105542 0.492783 0 0.588258 -0.808673
0.236666 0.110277 0.505594 0 0.97466 0.22369
-0.00589675 0.202617 0.0327318 0 0.0871559 0.996195
0.237798 -0.0903867 0.498909 0.482838 0.299269 -0.822986
-0.00716888 -0.279157 0.0232152 -0.122187 -0.614307 0.77955
0.0869164 0.171679 0.413377 -0.136063 -0.964716 -0.225411
-0.200851 0.0758228 0.37396 1 0 0
-0.0117364 0.0115832 0.0480467 0 0 -1
-0.0529515 0.165461 0.685624 0.0705446 -0.977483 0.198875
0.191268 0.194428 0.800185 0 0.763297 -0.646048
-0.0675586 0.136431 0.548121 0.0705446 -0.977483 0.198875
0.201744 -0.0780979 0.419787 -1 0 0
-0.0788855 0.194194 0.799909 0 0.763297 -0.646048
-0.00363156 -0.246665 1.11834e-17 6.22652e-18 -3.12947e-17 -1
0.000616868 0.217667 0.0314151 0 0.0871559 0.996195
-0.244879 -0.00563549 1.07566e-17 -5.78244e-17 -1.39602e-16 -1
-0.0679751 -0.124921 0.330025 0 0 -1
0.22022 -0.0104706 0.401085 0 0.358984 0.933344
-0.0132625 0.0774201 0.329667 0 0 1
0.154982 0.006219 0.0160506 -0.0348994 0 -0.999391
-0.151827 0.0656433 0.329667 0 0 1
0.0201516 0.204522 0.81053 0 0.655996 -0.754765
-0.236171 -0.0911173 0.438688 -0.482937 0.521757 0.703236
-0.166293 -0.109848 0.330025 0 0 -1
0.22282 -0.0107327 0.382109 0 -0.250963 -0.967997
0.184971 0.144101 0.368203 -0.306494 -0.920492 -0.242396
0.231677 -0.0526237 0.507099 0 0.118227 -0.992987
-0.176371 0.176572 0.68672 0 -0.928783 0.370624
-0.0555094 -0.0993219 0.361532 0 0 1
0.0915316 -0.091651 0.330025 0 0 -1
0.0694572 0.160943 0.402446 -0.136106 -0.964715 -0.225388
0.199959 0.156373 0.657396 1 0 0
-0.200851 0.130067 0.591407 -1 0 0
-0.0969912 0.0159106 0.361532 0 0 1
-0.025629 -0.0953348 0.330025 0 0 -1
-0.121554 -0.00630094 0.0179009 0 -1 0
-0.0767956 0.144962 0.344736 0.112014 -0.992263 0.0535443
0.00254869 0.140472 0.382034 0 -0.375183 0.926951
0.0115789 0.251256 0.0259455 0.520761 -0.347863 0.779615
-0.0983077 0.179545 0.80278 0 -0.852964 0.521969
-0.118142 -0.0137472 0.361532 0 0 1
0.00883071 0.280468 0.0118148 0 0 -1
-0.00486472 0.152324 0.609521 0 -0.983944 0.178479
-0.0377151 0.168487 0.382421 0.0295857 -0.972557 -0.230774
0.137639 0.0606497 0.350783 0 1 0
0.0668349 0.00955366 0.259408 0.295519 0.0684815 -0.952879
-0.00149549 0.124334 0.0300929 0 0.0871552 0.996195
0.00630201 -0.185922 0.0169585 1 0 0
-0.261812 0.0182525 9.94321e-18 -4.08991e-17 -2.05569e-16 -1
0.172313 0.126875 0.354229 -0.130806 -0.39298 0.910196
-0.159093 -0.108394 0.361532 0 0 1
0.22113 0.129829 0.385185 0 -0.974923 -0.222542
0.00583864 -0.262743 0.0118148 0 0 1
-0.221961 0.0612382 0.522664 0 0.108482 0.994098
0.150763 0.150204 0.361459 -0.0531279 -0.390876 0.918909
0.0197896 -0.268826 0.0156564 0.975351 -0.194053 0.105043
-0.0356463 0.163962 0.7597 0 -0.996008 0.0892604
0.263413 0.0193948 0.0118148 0 0 1
0.17416 0.0606497 0.340864 0 1 0
0.063981 0.151881 0.622789 -0.070544 -0.977482 0.198876
0.230911 0.120716 0.460111 0 0.97466 0.22369
0.204125 0.0701491 0.521923 -0.482912 0.094978 0.870503
0.149871 -0.095829 0.330025 0 0 -1
0.178688 0.135242 0.453858 -0.284318 -0.932098 -0.224404
0.17205 -0.00630094 0.0214493 0 -1 0
0.145081 0.160068 0.393038 0 0 1
-0.184083 0.126639 0.35891 0.366189 -0.122729 0.922412
-0.164636 0.0136778 0.361532 0 0 1
0.199959 0.128033 0.434121 1 0 0
0.0497421 -0.195961 0.33611 0 -0.906034 0.423204
-0.201743 -0.148202 0.351753 -1 0 0
0.204217 -0.04252 0.410862 -0.533254 0.303667 0.789574
-0.216628 -0.0934254 0.421747 0 -0.595826 -0.803114
0.0146424 -0.251126 0.0118148 0 0 1
-0.068427 0.146817 0.599478 0.0705446 -0.977483 0.198875
0.0604999 -0.186149 0.349744 0 -0.660549 0.750783
-0.241913 -0.0869625 0.510465 -1 0 0
-0.232309 -0.0758714 0.430163 0 0.461348 0.887219
0.174274 0.167207 0.695018 -0.267846 -0.906651 0.325949
0.217582 0.0823514 0.381633 0 0.15744 0.987529
-0.0790734 -0.140456 0.319388 -0.000821253 -0.999072 -0.0430708
-0.18928 0.0266299 0.361532 0 0 1
0.233818 -0.082495 0.433607 0 0.461348 0.887219
-0.220733 0.116184 0.479857 0 0.97466 0.22369
0.00630201 0.202865 0.0164545 1 0 0
0.154765 0.128524 0.347521 -0.366183 -0.122726 0.922414
-0.210909 0.115998 0.361044 0 -0.0633517 -0.997991
-0.00330682 -0.0168356 0.0788243 -0.258886 -0.965908 0
-0.00455147 0.144144 0.489261 0.0295857 -0.972557 -0.230774
0.170425 -0.0608815 0.330025 0 0 -1
-0.267736 -0.0165485 1.16965e-17 1.43604e-17 -7.2177e-17 -1
0.0170727 -0.044348 0.361532 0 0 1
-0.0379827 0.151386 0.346393 0.0845754 -0.622586 0.777968
-0.176308 -0.167881 0.327929 0 0.302458 -0.953163
0.0717418 0.137727 0.351579 -0.0540224 -0.391579 0.918557
0.0251917 -0.107157 0.330025 0 0 -1
-0.136387 0.0606497 0.34802 0 1 0
0.0203681 -0.166059 0.360472 0 -0.304332 0.952566
-0.150951 0.160439 0.676932 0.269559 -0.919087 0.287432
0.21986 -0.112626 0.435992 0 -0.595826 -0.803114
-0.240468 0.00630827 0.383469 -0.44022 -0.225345 -0.869152
0.152904 0.156023 0.614271 -0.269558 -0.919084 0.287442
-0.00867072 0.153372 0.356938 0 -0.396388 0.918083
-0.0232617 -0.0318812 0.25399 -0.543822 -0.616272 -0.569619
-0.0632624 0.0551557 0.271607 -0.326197 0.35352 -0.876709
0.100595 0.172489 0.7104 0 -0.86599 -0.500061
-0.0410501 0.162465 0.468088 0.077912 -0.965829 -0.247194
0.242807 -0.111734 0.442641 1 0 0
0.0351776 0.074031 0.36169 0 0 1
-0.177043 0.143635 0.421078 0.284299 -0.932105 -0.224396
0.239141 0.0117285 0.00513367 -0.831457 0.55559 0
0.160153 0.0606497 0.353717 0 1 0
-0.00630094 0.0459754 0.0219093 -1 0 0
0.00914082 0.170077 0.620537 0 -0.983944 0.178479
0.136762 -0.172025 0.326604 0 0.482853 -0.875701
0.0116679 0.168208 0.393013 -0.0295504 -0.971429 -0.235485
-0.0951186 0.16374 0.680176 0 -0.975538 0.219832
-0.225333 0.0109398 0.526099 0 0.0654095 0.997859
0.0505902 -0.0614941 0.281534 -0.872778 -0.475048 0.112192
0.0186493 0.137045 0.536745 -0.0703701 -0.95545 0.286642
-0.013502 -0.114903 0.0395985 -0.309007 -0.0828902 0.947441
-0.190063 0.12831 0.466357 0.310767 -0.922435 -0.229212
0.00752656 -0.172644 0.326262 0 0.482853 -0.875701
0.0233883 0.114777 0.340274 0 -0.396388 0.918083
-0.021421 -0.0531381 0.361532 0 0 1
-0.161502 0.157632 0.367482 -0.288976 0.952573 0.0953876
0.0503584 0.160443 0.360005 -0.0540224 -0.391579 0.918557
-0.0744026 0.138232 0.559403 0.0705446 -0.977483 0.198875
0.126869 -0.00895418 0.361532 0 0 1
0.201744 -0.106634 0.330117 1 0 0
-0.217935 0.0124179 0.394822 0 0.250952 0.968
-0.136859 0.178736 0.706212 0 0.500001 -0.866025
0.066798 -0.0832497 0.330025 0 0 -1
0.0924783 0.147217 0.356819 -0.0531279 -0.390876 0.918909
-0.0602839 0.009407 0.0451844 -0.087156 0 0.996195
0.183084 0.153305 0.635107 -0.267846 -0.906649 0.325954
0.00563053 0.282165 1.03861e-17 -2.65231e-17 1.3338e-16 -1
0.147377 0.073571 0.36169 0 0 1
-0.116113 0.00350419 0.361532 0 0 1
0.137168 -0.129376 0.330025 0 0 -1
-0.235851 -0.0368564 0.410596 -0.483006 0.314332 0.817252
-0.18004 0.150884 0.661826 0 -0.928787 0.370614
-0.178928 0.116813 0.486516 0.310742 -0.922443 -0.229214
0.00747446 0.0425824 0.254939 0.152285 0.969374 0.192673
0.152948 0.0116521 0.0277932 -0.0828898 0.309005 -0.947442
0.052619 0.170222 0.708905 -0.070544 -0.977482 0.198876
0.0581884 0.167963 0.385715 -0.119491 -0.96489 -0.2339
-0.0948268 0.16547 0.617947 0 -0.975535 0.219843
-0.191485 0.133967 0.360047 0.130806 -0.39298 0.910196
0.122583 0.149966 0.474757 -0.24414 -0.944305 -0.220642
-0.0100123 0.174267 0.794155 0 -0.852964 0.521969
-0.0077881 0.161879 0.575344 0 -0.983944 0.178479
-0.201743 -0.181448 0.331454 -1 0 0
0.0449212 0.177746 0.403199 -0.0293402 -0.963918 -0.264578
-0.168863 0.0216334 0.330025 0 0 -1
0.232336 0.112425 0.363638 0 -0.0633479 -0.997992
-0.238333 0.0123828 0.526623 -0.440184 0.0587414 0.895984
0.0641062 -0.151276 0.330025 0 0 -1
0.201887 0.118563 0.371012 -1 0 0
0.000445053 0.140475 0.505156 -0.0779529 -0.970023 -0.230173
0.200628 0.057437 0.361532 0 0 1
0.0299367 0.167054 0.690722 0 -0.983944 0.178479
0.230638 -0.0586405 0.403447 0 -0.46135 -0.887218
-0.112241 0.0493819 0.330025 0 0 -1
-0.102421 -0.140957 0.331437 -0.000821253 -0.999072 -0.0430708
-0.179804 0.0881492 0.338868 0.0959181 -0.378105 0.92078
0.057619 -0.193142 0.323312 0 -0.617301 -0.786727
-0.0124034 0.0354876 0.267668 -0.0722836 -0.0112846 0.99732
0.151351 -0.0843813 0.330025 0 0 -1
-0.224105 -0.0669382 0.422853 0 0.461359 0.887214
0.00632687 0.177969 0.664047 0 -0.983944 0.178479
0.0131461 0.222002 0.030345 0.308981 0.0828912 0.947449
0.0699779 -0.14512 0.330025 0 0 -1
-0.00294081 -0.0834864 0.0185473 0 0.0348995 -0.999391
-0.208598 -0.115005 0.474693 0 0.980597 -0.196036
0.187538 0.175258 0.689897 0 -0.92496 0.380065
0.00429936 -0.0297965 0.0383638 0 0.0871559 -0.996195
0.0112924 0.177284 0.351554 0.100103 0.700417 -0.706679
-0.208312 0.019226 0.374342 0 -0.250963 -0.967997
-0.240683 0.0297474 0.384895 -0.440274 0.225339 0.869127
-0.178715 -0.195478 0.337146 0 -0.906034 0.423204
-0.240637 -0.00338342 0.0118148 0 0 -1
-0.173021 0.0744902 0.364534 0.0947483 -0.373493 0.922781
0.115551 -0.0455466 0.330025 0 0 -1
0.104582 0.00960013 0.361532 0 0 1
-0.0103918 0.0299085 0.267671 0.00139498 -0.0102769 0.999946
0.00630201 0.0867801 0.0265033 1 0 0
-0.0949128 -0.154462 0.330025 0 0 -1
0.206108 -0.0212082 0.527474 -0.482904 0 0.875673
0.00886248 -0.0172019 0.199685 0.23007 -0.973174 0
-0.0310582 -0.00915811 0.0477413 -0.087156 0 0.996195
0.18435 0.137738 0.628881 0 -0.928787 0.370614
-0.173779 0.155243 0.67275 0 -0.928787 0.370614
0.0433017 -0.12716 0.312304 -0.0859451 0.622045 0.77825
0.238841 0.0218368 0.375726 0.44023 -0.225336 -0.86915
0.185827 0.106093 0.347199 -0.130806 -0.39298 0.910196
0.240438 -0.0541651 0.415354 0.483007 0.403976 0.776858
-0.159129 -0.0151472 0.361532 0 0 1
-0.228357 0.0103868 0.526135 0 0.0654095 0.997859
-0.0496484 -0.140611 0.322418 -0.000821253 -0.999072 -0.0430708
0.219283 -0.0874154 0.498215 0 0.341745 -0.939793
-0.22019 -0.0455645 0.395173 0 -0.358976 -0.933347
0.031975 -0.0865143 0.361532 0 0 1
0.00357494 0.018453 0.0850218 0.23007 0.973174 0
-0.0287192 -0.0915103 0.330025 0 0 -1
0.179521 0.180078 0.773036 0 0.970699 -0.240297
0.161978 0.161942 0.368405 -0.306494 -0.920492 -0.242396
0.00667584 0.169295 0.703076 0 -0.983944 0.178479
-0.185485 0.171283 0.705144 0 -0.924962 0.38006
0.198448 0.151758 0.664016 0 -0.928787 0.370614
0.0539149 -0.000877699 0.0362537 -0.0871551 0 -0.996195
0.0145938 -0.0107469 0.0795527 0 0 -1
-0.17468 0.013772 0.361532 0 0 1
-0.242805 0.0952047 0.374197 -1 0 0
-0.00527052 -0.106425 0.0177462 0 0.0348995 -0.999391
-0.0759835 0.13755 0.556608 0.0705446 -0.977483 0.198875
-0.140309 -0.0628433 0.361532 0 0 1
-0.00711498 -0.273299 1.04608e-17 3.12925e-17 -2.09092e-17 -1
0.0587466 0.14157 0.570252 -0.070544 -0.977482 0.198876
-0.0608053 0.177546 0.761266 0 0.996005 -0.0892988
0.153975 -0.012333 0.330025 0 0 -1
0.0824426 -0.16114 0.329449 0 0.11031 -0.993897
-0.220157 -0.0817328 0.500237 0 0.242525 -0.970145
-0.0602985 0.0419666 0.265186 -0.326197 0.35352 -0.876709
-0.0653232 -0.110056 0.361532 0 0 1
-0.147811 -0.0437385 0.330025 0 0 -1
0.218617 0.105533 0.50427 0 -0.124024 -0.992279
0.000749703 0.162849 0.580693 0 -0.983944 0.178479
-0.102732 0.187664 0.812921 0 -0.763238 0.646117
0.00103702 0.143813 0.562595 0 -0.983944 0.178479
0.145405 0.111165 0.37593 -0.116401 -0.349704 0.929601
0.185516 -0.13061 0.330025 0 0 -1
-0.0396218 0.180479 0.804306 0 -0.852964 0.521969
0.127583 -0.197053 0.328855 0 -0.983625 -0.180227
-0.129536 0.127859 0.552674 0.269559 -0.919087 0.287432
0.202246 0.0233343 0.386277 -0.482801 0.219784 0.847702
-0.0228429 0.173099 0.431281 0.0296044 -0.972557 -0.230774
-0.0716143 0.167905 0.379093 0.119488 -0.96489 -0.2339
-0.127673 0.164143 0.681965 0 -0.975538 0.219832
-0.241421 0.0881552 0.368883 -0.440243 -0.0568914 -0.896074
0.235322 0.0791555 0.505168 0.482859 -0.0949674 -0.870533
0.153672 -0.18351 0.352065 0 -0.660549 0.750783
0.179596 -0.0648528 0.330025 0 0 -1
0.128073 0.0606497 0.334275 0 1 0
0.112922 0.0882128 0.332893 -0.0540224 -0.391579 0.918557
0.177297 0.121717 0.577824 -0.269559 -0.919087 0.287432
-0.040144 0.171168 0.712037 0 0 1
0.0909249 0.158707 0.657842 0 -0.975538 0.219832
-0.164237 0.16026 0.638448 0.269558 -0.919084 0.287442
-0.118234 0.101219 0.322699 0.255192 -0.39421 0.882879
-0.163372 0.17532 0.795875 0 -0.852964 0.521969
0.228557 -0.103058 0.445565 0 0.595827 0.803113
-0.241913 0.00631537 0.515813 -1 0 0
0.211662 -0.119275 0.442092 0 -0.759267 -0.65078
0.119473 -0.105945 0.313585 0.653187 0.611805 0.446141
0.203071 0.124186 0.44499 0 0.97466 0.22369
0.0864943 0.0606497 0.340486 0 1 0
-0.0823664 0.156042 0.41563 0.136042 -0.964719 -0.225411
0.010459 0.0271466 0.361532 0 0 1
-0.0103521 -0.0168493 0.118691 -0.230112 -0.973164 0
-0.105007 0.183084 0.696105 0 -0.975535 0.219843
0.229161 0.105208 0.50193 0 -0.124071 -0.992273
-0.0949929 -0.189364 0.346556 0 -0.800188 0.599749
0.12752 0.171336 0.713234 0 -0.932206 -0.361928
0.168669 0.183974 0.705272 0 -0.928783 0.370624
0.000259857 -0.0656408 0.0352278 0 0.0871559 -0.996195
0.0479661 0.175752 0.355583 0.129384 0.963591 -0.233991
-0.190084 0.19073 0.795402 0 0.852892 -0.522087
0.226725 0.0455322 0.523832 0 0.0654095 0.997859
0.0596076 0.176419 0.704874 0 0.500001 -0.866025
-0.111576 -0.146616 0.330025 0 0 -1
-0.110473 0.129587 0.507723 0.251465 -0.94308 -0.217637
-0.186375 0.148557 0.616516 0 -0.928783 0.370624
0.112056 0.174705 0.658924 0 -0.975535 0.219843
-0.00630094 -0.0786287 0.0261938 -1 0 0
-0.240529 -0.118719 0.468105 -0.482869 0.870339 0.0966833
0.0370804 -0.17153 0.358725 0 -0.304332 0.952566
-0.00542047 -0.286021 0.00592466 -0.19514 -0.980775 0
0.00536823 0.16405 0.587314 0 -0.983944 0.178479
-0.131788 -0.0471637 0.330025 0 0 -1
0.0553218 0.15413 0.495415 -0.0779718 -0.970021 -0.230172
0.0553771 -0.0163842 0.270446 -0.256092 0.19574 0.946627
0.0778999 0.0249469 0.330025 0 0 -1
0.187543 0.122945 0.591359 -0.269559 -0.919087 0.287432
0.171661 0.148244 0.369297 -0.306494 -0.920492 -0.242396
0.224591 -0.103313 0.429083 0 -0.595826 -0.803114
-0.186171 -0.155561 0.330025 0 0 -1
0.228905 0.100609 0.36202 0 -0.0633517 -0.997991
0.231476 0.0249667 0.375295 0 -0.250957 -0.967998
0.0233996 0.160514 0.573393 -0.0705629 -0.97748 0.198881
0.239317 -0.101997 0.427938 0.440169 -0.535036 -0.721102
-0.010517 -0.0145382 0.238239 0 0 -1
0.175031 0.042136 0.361532 0 0 1
0.0110281 -0.2359 0.0203321 0.309005 0.0828906 -0.947442
0.208199 -0.0275018 0.51247 0 0.118214 -0.992988
0.210236 0.0437375 0.369444 0 -0.157427 -0.987531
0.174632 0.113213 0.541775 -0.292902 -0.947945 0.124935
-0.0931045 0.00110131 0.0182114 0.0348995 0 -0.999391
-0.209537 -0.0385561 0.411887 0 0.358984 0.933344
-0.200851 -0.0890062 0.511245 1 0 0
0.0566983 0.151567 0.505755 -0.0779873 -0.971412 -0.224223
0.165547 0.14386 0.424401 -0.999539 0 0.0303434
0.170772 0.0488051 0.361532 0 0 1
0.123836 0.170569 0.640574 0 -0.975535 0.219843
0.231116 -0.120671 0.496865 0 -0.759236 0.650815
0.013279 0.164379 0.369007 0 -1 0
0.200852 0.181753 0.792474 1 0 0
0.205046 -0.0670924 0.520895 -0.482924 -0.212356 0.849523
-0.179182 -0.196588 0.32763 0 -0.855955 -0.51705
0.00630201 0.109716 0.0242657 1 0 0
-0.209376 -0.0073346 0.52615 0 0 1
0.104946 0.151831 0.34032 0.13752 0.619214 -0.773086
0.235357 -0.00711332 0.513047 0.440138 0 -0.89793
0.00630201 -0.0480117 0.0238728 1 0 0
0.135914 -0.058634 0.361532 0 0 1
-0.218501 -0.00280667 0.0218543 -0.0871559 0 0.996195
0.0718001 0.169111 0.431678 -0.0293402 -0.963918 -0.264578
0.0195146 0.167971 0.695779 0 -0.983944 0.178479
-0.0979609 0.0843268 0.362337 0.0511298 -0.370613 0.927379
0.157574 0.179285 0.731275 0 0.976523 0.215415
-0.241913 -0.0625613 0.415889 -1 0 0
-0.17546 -0.0153029 0.0321312 -0.0512241 -0.809059 0.585491
-0.00671374 0.154514 0.387717 0 -0.375183 0.926951
-0.169573 0.0606497 0.341792 0 1 0
0.0143327 0.260673 1.01361e-17 -6.25901e-17 1.24447e-17 -1
-0.174249 -0.169328 0.359428 0 -0.304332 0.952566
0.239649 -0.0404695 0.395774 0.440238 -0.322336 -0.838027
0.216819 0.0833527 0.506782 0 -0.108459 -0.994101
-0.0851204 0.0683161 0.329667 0 0 1
-0.123665 -0.000879243 0.361532 0 0 1
0.0105063 0.160632 0.569402 -0.0705629 -0.97748 0.198881
-0.00088644 0.141387 0.351763 0 -0.396388 0.918083
0.0204762 0.00459263 0.127302 0.956861 0.290546 0
0.142674 -0.153964 0.361532 0 0 1
0.000308678 -0.0223521 0.330025 0 0 -1
-0.234441 -0.0752512 0.409421 0 -0.46136 -0.887213
0.192693 0.147836 0.383802 -0.284318 -0.932098 -0.224404
-0.0276643 0.107833 0.337276 0 -0.396388 0.918083
-0.151166 -0.191585 0.343592 0 -0.800188 0.599749
0.134343 0.0813671 0.318602 -0.259464 -0.391243 0.882954
0.121117 0.186398 0.811426 0 -0.763238 0.646117
0.175186 0.15263 0.624319 -0.269558 -0.919084 0.287442
-0.0353262 0.140474 0.494266 0.0778932 -0.96583 -0.247194
0.234551 -0.0199883 0.402214 0 0.358982 0.933344
0.127274 0.165738 0.365132 0.129578 0.990646 0.0427721
-0.0683102 -0.192244 0.322607 0 -0.617301 -0.786727
0.196788 -0.0329079 0.361532 0 0 1
-0.231773 0.1084 0.479065 0 -0.974924 -0.222536
0.169137 -0.0788008 0.361532 0 0 1
-0.2245 -0.109992 0.451837 0 0.759372 0.650656
0.116284 0.204772 0.811755 0 0.768528 0.639816
0.106068 0.158496 0.456523 -0.24414 -0.944305 -0.220642
0.181098 0.139724 0.360932 -0.320836 -0.331446 0.887247
0.0699553 0.152071 0.334874 0.100103 0.700417 -0.706679
-0.216208 -0.0868377 0.415446 0 -0.46136 -0.887213
0.122619 0.128499 0.49917 -0.244172 -0.944302 -0.220619
0.0337236 0.0345814 0.255053 0.0150844 -0.353845 -0.935183
-0.0498254 0.162687 0.402906 0.0778932 -0.96583 -0.247194
-0.208742 0.00328899 0.394748 0 0.250924 0.968007
-0.241852 -0.0156152 0.522242 -0.440176 0 0.897911
-0.0204417 -0.00784167 0.033013 -0.195093 -0.980785 0
-0.201552 0.131183 0.414503 0 0.97466 0.22369
0.144807 0.018346 0.361532 0 0 1
0.104532 0.147125 0.606444 0 -0.975538 0.219832
-0.0140662 -0.0841201 0.0418313 -0.809059 -0.0512238 0.585491
-0.125972 0.1375 0.580157 0.269559 -0.919087 0.287432
0.135794 0.119042 0.524863 -0.247921 -0.948553 -0.196933
0.073 -0.0881131 0.284149 0.159322 -0.422474 -0.892262
-0.0056118 0.172069 0.631521 0 -0.983944 0.178479
-0.200851 0.183653 0.80252 -1 0 0
-0.205472 0.137052 0.363857 0 1 0
-0.20677 -0.0996548 0.42667 0.592381 -0.480032 -0.647035
-0.149507 0.150918 0.381843 0.134681 -0.990889 0
0.135081 0.166902 0.775533 0 -0.970689 0.240341
-0.125615 0.194125 0.799827 0 0.763297 -0.646048
-0.238387 -0.0555464 0.52039 -0.440108 -0.10615 0.891649
0.197058 0.110869 0.561545 0 -0.928787 0.370614
-0.241913 -0.0756563 0.512369 -1 0 0
-0.224027 0.122284 0.363012 0 -0.0633479 -0.997992
0.0969839 0.161715 0.671189 0 -0.975538 0.219832
-0.0128081 0.156195 0.333314 -0.0567234 0.652286 -0.755848
-0.0672676 0.171299 0.393038 0 0 1
0.242807 -0.104002 0.440609 1 0 0
-0.0833598 -0.0885569 0.300547 0.194407 0.317918 0.927973
-0.149904 0.167395 0.723383 0 -0.932206 -0.361928
-0.00732986 -0.0175639 0.218321 -0.230112 -0.973164 0
-0.00869273 0.178645 0.712037 0 0 1
0.238088 0.0700208 0.369736 0.440241 -0.141361 -0.886682
-0.225978 -0.0941606 0.498276 0 0.341727 -0.939799
-0.238938 -0.118336 0.444807 -0.440194 -0.681749 -0.584335
-0.21122 -0.035814 0.51148 0 0.118214 -0.992988
0.239873 -0.0551132 0.522529 0.440149 -0.106141 0.891629
-0.132601 0.174671 0.658775 0 -0.975535 0.219843
0.147533 0.167821 0.698286 0 -0.975538 0.219832
0.175452 0.132648 0.468707 -0.31075 -0.92244 -0.229213
0.026677 0.175617 0.393038 0 0 1
0.183591 0.162244 0.690295 0 -0.928787 0.370614
0.177772 0.0977863 0.374451 -0.0947469 -0.373493 0.922781
0.204364 -0.0941709 0.439067 -0.533183 0.504087 0.67942
-0.0659115 0.16388 0.454725 0.077912 -0.965829 -0.247194
0.187001 0.160635 0.686263 0 -0.928787 0.370614
-0.030966 0.161382 0.475497 0.077912 -0.965829 -0.247194
-0.00535147 0.19429 0.819379 0 -0.656006 0.754756
-0.207533 -0.108286 0.449456 0.482766 0.66502 0.569812
-0.105123 0.0965789 0.309407 0.706348 0.648838 0.282987
0.21963 0.0190217 0.509783 0 -0.0654282 -0.997857
-0.188429 0.13401 0.389912 0.116401 -0.349705 0.929601
-0.0895194 -0.141157 0.361532 0 0 1
0.171911 0.158543 0.640495 -0.267846 -0.906649 0.325954
-0.139172 0.138884 0.596962 0.269559 -0.919087 0.287432
0.102874 0.0085422 0.0414583 0.0871559 0 0.996195
-0.0110455 -0.0718232 0.0441687 -0.309036 -0.0828897 0.947431
-0.0667295 -0.196882 0.33414 0 -0.906034 0.423204
0.225059 0.129919 0.38479 0 -0.974923 -0.222542
-0.237686 0.035281 0.385299 -0.440265 0.141372 0.886668
0.199885 0.136251 0.625153 0 -0.928787 0.370614
-0.0617782 0.149027 0.534511 0.0704265 -0.957625 0.279274
0.22072 0.11986 0.46384 0 0.97466 0.22369
-0.0663451 0.0585161 0.361532 0 0 1
-0.0216265 -0.00080094 0.148677 -0.956849 -0.290585 0
0.0149273 0.26573 0.0118148 0 0 1
0.233622 -0.00401755 0.52615 0 0 1
-0.242805 -0.0532114 0.518752 -1 0 0
0.223623 0.00528349 0.380398 0 -0.250957 -0.967998
-0.113861 0.185397 0.70637 0 -0.975535 0.219843
-0.172932 0.186366 0.713145 0 0.866027 0.499997
0.00908594 -0.160516 0.329519 0 0.11031 -0.993897
0.122386 0.143139 0.544043 -0.272623 -0.946039 0.175177
-0.0392615 0.197284 0.803559 0 0.763297 -0.646048
-0.021354 -0.0110559 0.0480467 0 0 1
-0.18287 -0.0413491 0.361532 0 0 1
-0.0350995 0.157665 0.640975 0.0705446 -0.977483 0.198875
0.0329348 0.145194 0.474266 -0.0779529 -0.970023 -0.230173
-0.0244067 0.160144 0.351657 0.0901378 -0.594446 0.799067
-0.0153656 0.249039 0.0113432 -0.831455 -0.555592 0
0.135007 0.192028 0.817413 0 -0.656006 0.754756
-0.2585 -0.0042678 0.0275678 0 0 1
0.067684 0.092807 0.36405 -0.0510067 -0.36972 0.927742
-0.219427 -0.117471 0.500598 0 -0.759236 0.650815
0.00684262 -0.249165 0.0286594 0 -0.087156 0.996195
0.0539177 -0.0342943 0.361532 0 0 1
0.00630201 -0.143969 0.0179412 1 0 0
-0.184739 -0.00758079 0.361532 0 0 1
0.232246 0.1004 0.502532 0 -0.124071 -0.992273
0.0275676 0.00441306 0.0231811 -1 0 0
-0.0532613 0.179997 0.380832 0.119507 -0.964888 -0.2339
0.103856 0.160421 0.665447 0 -0.975538 0.219832
-0.189282 0.123559 0.486533 0.310767 -0.922435 -0.229212
-0.107556 0.0524765 0.290615 -0.418645 -0.831638 0.364849
-0.154144 0.03692 0.330025 0 0 -1
-0.0155209 0.243869 0.025717 -1 0 0
-0.0169393 -0.00331476 0.220715 0 0 1
-0.156964 0.129463 0.353454 0.0959181 -0.378105 0.92078
0.0102909 0.187178 0.711739 0 0.866027 0.499997
-0.0586276 0.17398 0.652077 0.0705636 -0.97748 0.19888
0.208941 -0.00486253 0.510398 0 0 -1
-0.168944 0.0591413 0.330025 0 0 -1
-0.200851 -0.0165698 0.395588 1 0 0
-0.0490266 -0.0939361 0.330025 0 0 -1
0.0621903 0.174525 0.35877 0.129578 0.990646 0.0427721
0.0509473 0.187759 0.813034 0 -0.763238 0.646117
0.221384 -0.114287 0.505901 0 -0.588213 0.808706
0.200852 -0.0824909 0.420265 -1 0 0
0.00630201 -0.04422 0.0345623 1 0 0
-0.052222 0.157415 0.389023 0.0511298 -0.370613 0.927379
-0.057147 0.012604 0.330025 0 0 -1
-0.0925459 0.150831 0.388588 0.0502811 -0.369933 0.927697
-0.201743 0.0503787 0.518413 1 0 0
-0.176325 0.127399 0.446897 0.28431 -0.9321 -0.224405
-0.0145645 -0.265503 0.0203334 -7.73276e-05 -0.996224 -0.086825
-0.201885 0.101566 0.375727 1 0 0
0.149508 0.15179 0.383317 -0.291 -0.924022 -0.247996
-0.0135195 0.229511 0.0217042 -0.308984 -0.0828907 -0.947448
0.137131 -0.00443353 0.0289733 0.0871552 0 0.996195
0.219591 0.0146952 0.0238936 -0.0512438 0.808893 -0.585719
-0.0659187 0.162279 0.389475 0.134681 -0.990889 0
-0.200851 0.138318 0.612804 -1 0 0
-0.0676941 -0.036374 0.279016 0.280166 0.303114 0.91084
0.200852 0.164777 0.741574 1 0 0
0.234906 -0.00778899 0.397552 0.440037 0.225324 0.86925
-0.0382843 0.169452 0.622608 0.0705636 -0.97748 0.19888
0.204276 0.137016 0.364396 -0.592295 0 -0.805721
-0.241073 -0.0161584 0.390173 -0.440161 -0.322326 -0.838072
-0.0155209 -0.0315452 0.0422366 -1 0 0
0.0645541 0.180957 0.776115 0 0.922665 -0.385603
-0.123729 0.0606497 0.338419 0 1 0
0.0507762 0.111636 0.370645 -0.0503835 -0.370686 0.927391
0.230932 -0.0482727 0.509997 0 0.118214 -0.992988
0.167065 0.154809 0.671661 0 -0.928787 0.370614
-0.226515 0.109807 0.4729 0 -0.974924 -0.222536
0.118789 -0.111897 0.330025 0 0 -1
0.0190981 0.00913113 0.153107 0.956861 0.290546 0
-0.200851 0.136258 0.381405 1 0 0
0.22322 0.0969041 0.518772 0 0.108482 0.994098
-0.00973101 -0.0341002 0.0379873 0 0.0871559 -0.996195
-0.0583454 0.181935 0.778454 0 0.922665 -0.385603
-0.0669942 0.162375 0.35812 0.0901378 -0.594446 0.799067
0.0967562 0.00630201 0.027433 0 1 0
0.15469 0.119521 0.330018 0.248242 0.411238 -0.877074
-0.200851 0.146908 0.633029 -1 0 0
0.118401 0.130453 0.550523 -0.269559 -0.919087 0.287432
-0.0140036 0.109884 0.369653 0 -0.375183 0.926951
-0.0444238 -0.0354545 0.256893 -0.345772 -0.233661 -0.90876
-0.00437541 0.264281 1.12364e-17 -4.90199e-17 3.27544e-17 -1
-0.0511272 0.138536 0.350709 0.0532341 -0.391658 0.918569
0.143051 0.151796 0.362262 -0.134681 -0.990889 0
0.0140089 -0.0337513 0.252496 0.156375 -0.661482 -0.733477
-0.0874359 0.119638 0.375868 0.0511298 -0.370613 0.927379
-0.131579 -0.130438 0.333614 -0.996744 0.0806288 0
-0.203193 -0.0535503 0.519961 0.592289 -0.0952263 0.800079
0.242332 0.128875 0.389364 0 -0.974923 -0.222542
0.0389807 0.168241 0.381093 -0.0293217 -0.963919 -0.264578
-0.155689 0.103758 0.374432 0.116401 -0.349705 0.929601
-0.0866117 0.0505078 0.27842 -0.326197 0.35352 -0.876709
0.0372812 -0.010902 0.251371 0.611818 -0.185797 -0.768868
0.141396 0.118467 0.520582 -0.247921 -0.948553 -0.196933
0.152736 0.160393 0.356971 0.292699 0.907638 -0.300866
0.132441 0.0464465 0.330025 0 0 -1
0.0130685 0.0463669 0.0457363 0.309036 0.082889 0.947432
-0.0553738 0.0518633 0.361532 0 0 1
0.0725633 0.145192 0.592957 -0.070544 -0.977482 0.198876
-0.221566 -0.113288 0.436483 0 -0.595826 -0.803114
-0.0533166 0.16652 0.613529 0.0705636 -0.97748 0.19888
-0.00361059 0.171626 0.379925 0.0295516 -0.971429 -0.235485
-0.201743 -0.0950472 0.434158 1 0 0
0.000349001 -0.136934 0.0289905 0 -0.0871559 0.996195
-0.206096 0.117719 0.473168 0 0.97466 0.22369
0.170756 -0.108792 0.361532 0 0 1
-0.0178814 -0.0105819 0.176304 -0.661621 -0.749839 0
-0.00844929 0.0120211 0.0480467 0 0 1
-0.232177 0.134517 0.36232 0 0 -1
-0.0834115 -0.0671141 0.279868 -0.345772 -0.233661 -0.90876
0.176505 -0.083906 0.361532 0 0 1
0.0115762 0.099772 0.36556 0 -0.375183 0.926951
-0.0430491 0.146819 0.590484 0.0705446 -0.977483 0.198875
-0.0554381 0.147254 0.527014 0.0689113 -0.955531 0.286727
0.209441 -0.0170183 0.52615 0 0 1
-0.0652999 0.0606497 0.346019 0 1 0
0.066736 -0.0133128 0.268791 0.858545 0.416666 0.298815
-0.0527276 0.144247 0.474041 0.0778932 -0.96583 -0.247194
0.101046 0.14268 0.586716 0 -0.975538 0.219832
-0.0774843 0.0606497 0.338299 0 1 0
-0.193641 0.136639 0.62083 0 -0.924962 0.38006
-0.0103593 0.177419 0.414679 0.0296044 -0.972557 -0.230774
-0.18192 0.132737 0.567029 0.269558 -0.919084 0.287442
-0.0930149 0.165396 0.436586 0.13606 -0.964716 -0.225411
0.206409 0.065064 0.521736 -0.592161 0.087417 0.801064
-0.200851 0.179968 0.725875 -1 0 0
0.0169283 0.140293 0.500342 -0.0779529 -0.970023 -0.230173
0.215946 0.113725 0.455735 0 -0.974923 -0.222542
0.0371809 -0.135764 0.330025 0 0 -1
-0.183427 0.0913903 0.372443 0.0947483 -0.373493 0.922781
0.225637 0.079663 0.363717 0 -0.157427 -0.987531
-0.103155 -0.114071 0.361532 0 0 1
0.00473143 -0.17401 0.357932 0 -0.304332 0.952566
-0.209884 -0.00777279 0.510398 0 0 -1
0.168101 -0.00532182 0.330025 0 0 -1
0.00630201 -0.204797 0.016884 1 0 0
-0.192466 0.139835 0.594659 0 -0.928783 0.370624
-0.203994 -0.0654799 0.406825 0.483009 -0.403962 -0.776863
-0.00745084 0.151106 0.524882 0.0779691 -0.971414 -0.224224
0.22983 0.0963143 0.362293 0 -0.0633517 -0.997991
0.0707829 0.0610758 0.291059 -0.255192 -0.39421 0.882879
0.017701 0.162335 0.473579 -0.0779718 -0.970021 -0.230172
-0.00811324 0.242623 0.0216572 -0.552573 -0.826813 0.105087
-0.232365 -0.049687 0.523313 0 -0.118214 0.992988
-0.0126056 0.175563 0.650783 0 -0.983944 0.178479
-0.162297 -0.00630094 0.0209591 0 -1 0
-0.200851 -0.10376 0.438966 1 0 0
-0.166729 0.0339492 0.361532 0 0 1
-0.0387728 -0.132507 0.361532 0 0 1
-0.178036 0.108006 0.527803 0.250364 -0.929421 0.271098
0.166473 0.157631 0.678735 0 -0.928787 0.370614
0.00644958 0.250625 0.0285316 0 0.0871559 0.996195
-0.186509 0.105455 0.526883 0.250364 -0.929421 0.271098
0.172585 0.169903 0.784389 0 -0.922671 0.385588
0.0516525 0.167447 0.382581 -0.0293217 -0.963919 -0.264578
0.215778 0.121543 0.378843 0 0.0633687 0.99799
-0.110095 0.12894 0.536826 0.250364 -0.929421 0.271098
0.210212 0.0722982 0.521457 0 0.108482 0.994098
0.220899 0.0608379 0.509238 0 -0.108459 -0.994101
0.164833 0.113897 0.513085 -0.247921 -0.948553 -0.196933
0.108666 0.159588 0.391622 -0.226231 -0.946657 -0.22948
-0.0068088 0.169534 0.617545 0 -0.983944 0.178479
-0.200851 0.123674 0.585903 -1 0 0
-0.104344 0.0606497 0.343088 0 1 0
-0.241913 0.0993247 0.375508 -1 0 0
-0.00615232 0.141599 0.351854 0 -0.396388 0.918083
0.154409 -0.0805469 0.330025 0 0 -1
0.201744 -0.147527 0.334116 1 0 0
0.200852 0.191714 0.806907 1 0 0
-0.093209 0.174775 0.659238 0 -0.975535 0.219843
-0.105188 0.160842 0.447454 0.24414 -0.944305 -0.220642
0.238497 0.0920053 0.505527 0.482859 -0.0949674 -0.870533
0.173062 0.153514 0.625154 -0.269558 -0.919084 0.287442
-0.0689325 -0.0921185 0.294566 0.872774 -0.475077 0.112106
-0.181375 -0.00630094 0.0209675 0 -1 0
-0.177081 0.153379 0.630379 0.267846 -0.906649 0.325954
0.00963429 0.0836617 0.0336512 0 -0.0871551 -0.996195
0.187478 0.122749 0.53523 -0.272623 -0.946039 0.175177
0.175196 0.0903257 0.339281 -0.0959166 -0.378104 0.920781
-0.109731 -0.0127375 0.0403003 -0.0828894 -0.309036 0.947431
-0.241913 0.0613648 0.378497 -1 0 0
-0.175909 0.00215308 0.361532 0 0 1
-0.0642949 0.153833 0.55507 0.0705636 -0.97748 0.19888
-0.220966 0.112468 0.461245 0 -0.974924 -0.222536
0.0203581 0.176698 0.352257 0.100103 0.700417 -0.706679
-0.0136718 0.248397 0.0201016 -0.308984 -0.0828907 -0.947448
-0.0709644 0.177674 0.762695 0 0.996005 -0.0892988
-0.118896 0.104185 0.340025 0.0538949 -0.390655 0.918958
-0.161326 0.100629 0.342067 0.0959181 -0.378105 0.92078
0.220813 -0.130696 0.476563 0 -0.980586 0.196092
-0.264238 0.00630201 0.0160455 0 1 0
-0.139908 0.167619 0.778428 0 -0.970689 0.240341
-0.200851 0.114827 0.452888 1 0 0
-0.203244 0.13984 0.376781 0 0.97466 0.22369
-0.171391 0.125385 0.525372 0.247933 -0.948558 -0.196895
0.0726766 -0.197585 0.332633 0 -0.906034 0.423204
0.193995 0.136938 0.388011 -0.31582 -0.948819 0
0.00630201 -0.224884 0.0190507 1 0 0
-0.0596923 0.169567 0.350761 -0.100104 0.700417 -0.706679
0.0376631 -0.0411952 0.255797 0.345766 -0.233668 -0.90876
0.04494 -0.0346281 0.271436 -0.280166 0.30311 0.910841
-0.158672 -0.0229488 0.361532 0 0 1
0.0740763 0.0936529 0.332928 -0.0540224 -0.391579 0.918557
0.0401119 -0.0672982 0.330025 0 0 -1
0.166399 0.134335 0.607951 -0.269559 -0.919087 0.287432
-0.139173 0.160699 0.616349 0.269558 -0.919084 0.287442
0.12735 -0.0666643 0.361532 0 0 1
0.0914748 0.162464 0.360948 -0.0901366 -0.594446 0.799068
0.092718 0.102393 0.369246 -0.0510067 -0.36972 0.927742
-0.0196421 -0.266732 0.0208846 -0.975351 -0.194053 0.105037
0.0212988 0.0112825 0.0385949 0 0 -1
0.144237 0.0847794 0.365743 -0.0947469 -0.373493 0.922781
-0.16175 0.11823 0.50632 -0.820247 0 -0.572009
0.00563645 0.159409 0.0270243 0 -0.0871551 -0.996195
0.00152079 0.166623 0.601498 0 -0.983944 0.178479
-0.0777851 0.182114 0.691804 0 -0.975535 0.219843
-0.0152827 -0.209607 0.0255811 -0.809082 0.0512215 -0.585459
0.188951 -0.0524365 0.361532 0 0 1
-0.267128 -0.00513999 1.15261e-17 3.1295e-17 -6.22589e-18 -1
0.0810031 -0.00756744 0.330025 0 0 -1
0.0243138 0.157154 0.557205 -0.0705629 -0.97748 0.198881
-0.116376 -0.170266 0.359128 0 -0.304332 0.952566
-0.118469 0.174473 0.657895 0 -0.975535 0.219843
-0.133462 0.129444 0.483128 0.244173 -0.944297 -0.22064
-0.0133391 0.14389 0.383417 0 -0.375183 0.926951
-9.83477e-05 0.16637 0.727662 0 -0.976528 -0.215389
-0.0232465 -0.00469986 0.0480467 0 0 1
0.171404 -0.0966579 0.361532 0 0 1
-0.0329885 -0.035997 0.268306 0.41171 -0.89082 0.192182
0.162766 0.188727 0.814176 0 -0.763238 0.646117
-0.000523994 0.0741026 0.0344875 0 -0.0871551 -0.996195
-0.119907 0.188952 0.792498 0 0.852892 -0.522087
-0.00177851 -0.0188766 0.113944 -0.230112 -0.973164 0
-0.033671 -0.00787163 0.0380248 0.0871559 0 -0.996195
0.0858989 0.0938901 0.333724 -0.0540224 -0.391579 0.918557
0.242097 -0.0280754 0.401478 0.440029 0.322341 0.838135
0.169238 0.00014944 0.0261643 0.0871552 0 0.996195
0.128931 0.155735 0.644653 0 -0.975538 0.219832
-0.113451 0.0633766 0.292303 -0.247234 0.403354 -0.881011
0.0647955 0.148953 0.608684 -0.070544 -0.977482 0.198876
-0.197123 0.0240222 0.330025 0 0 -1
-0.0962034 -0.131132 0.361532 0 0 1
0.139435 -0.0162237 0.330025 0 0 -1
0.0583582 0.156448 0.33757 0.100103 0.700417 -0.706679
-0.20694 0.120761 0.378228 0.533147 0.0536113 0.844322
-0.108441 -0.08884 0.294845 -0.345084 -0.236931 -0.908174
-0.0408456 0.16627 0.607877 0.0705636 -0.97748 0.19888
0.0644478 0.161771 0.401842 -0.0293217 -0.963919 -0.264578
-0.0980657 -0.184444 0.320832 0 0.0589963 -0.998258
0.106098 0.183695 0.698816 0 -0.975535 0.219843
-0.104443 0.169799 0.717194 0 -0.932206 -0.361928
0.0750451 0.144346 0.464154 -0.0293217 -0.963919 -0.264578
-0.120896 0.153341 0.575681 0.269558 -0.919084 0.287442
-0.198927 0.186965 0.812096 0 -0.763238 0.646117
0.00884429 0.0125589 0.330025 0 0 -1
-0.145265 0.0606497 0.346922 0 1 0
-0.096174 -0.176974 0.323875 0 0.482853 -0.875701
0.241914 -0.118821 0.458505 1 0 0
0.0462434 -0.197531 0.33275 0 -0.906034 0.423204
-0.201743 0.122026 0.367357 1 0 0
-0.0846668 0.160677 0.461329 0.077912 -0.965829 -0.247194
0.250221 -0.0176016 0.0150496 -0.5525 -0.826873 0.105004
-0.0582862 -0.107497 0.361532 0 0 1
0.151182 -0.0956 0.361532 0 0 1
0.151104 -0.0120325 0.0280789 -0.0828904 -0.308983 -0.947448
-0.00957967 0.017033 0.131464 -0.230112 0.973164 0
-0.0689737 0.145408 0.464382 0.0778932 -0.96583 -0.247194
-0.175904 0.164008 0.658979 0.267846 -0.906649 0.325954
0.243928 0.00548255 0.0235468 -0.614211 0.12225 0.779615
-0.150309 0.133436 0.354392 0.0959181 -0.378105 0.92078
-0.0952629 -0.128322 0.361532 0 0 1
-0.169193 0.130886 0.568979 0.999753 0 0.0222188
-0.0816756 0.165801 0.382635 0.119488 -0.96489 -0.2339
-0.188416 0.117045 0.352299 0.130806 -0.39298 0.910196
0.139161 -0.011468 0.330025 0 0 -1
-0.0319553 0.174287 0.712037 0 0 1
-0.028395 0.149123 0.385535 0 -0.375183 0.926951
0.0975174 0.00248805 0.032439 -0.0871551 0 -0.996195
0.161142 0.18195 0.722892 0 0.932202 0.361937
0.0130301 0.148021 0.585798 0 -0.983944 0.178479
-0.216349 0.0620471 0.50673 0 -0.108448 -0.994102
0.0205283 -0.102818 0.361532 0 0 1
-0.241661 0.109713 0.5113 1.14164e-05 0.978439 0.206536
-0.0217709 0.000325338 0.0799528 -0.956858 0.290555 0
0.00595381 -0.00190791 0.0204789 0 0 -1
0.00893391 0.0171861 0.151797 0.23007 0.973174 0
-0.131624 0.149997 0.57505 0.269558 -0.919084 0.287442
-0.203219 0.0215975 0.387282 0.483 0.219714 0.847606
0.144973 0.0721445 0.36169 0 0 1
-0.201743 -0.0164427 0.340609 -1 0 0
0.0297142 0.191106 0.816612 0 -0.656006 0.754756
-0.190254 0.037365 0.330025 0 0 -1
0.00813133 0.237519 0.00598589 0.195117 -0.98078 0
-0.199774 0.0327676 0.361532 0 0 1
-0.119628 0.0598415 0.330025 0 0 -1
0.0598948 0.100648 0.335076 -0.0540224 -0.391579 0.918557
-0.212616 -0.0418446 0.526626 0 -0.118207 0.992989
0.00537381 0.164413 0.676164 0 -0.983944 0.178479
-0.00236059 0.164379 0.377493 0 -1 0
-0.232176 0.0705679 0.5058 0 -0.108448 -0.994102
-0.0746302 0.157879 0.654164 0 -0.975538 0.219832
-0.187174 0.157786 0.679123 0 -0.928787 0.370614
-0.214035 -0.0818173 0.433254 0 0.461348 0.887219
-0.242805 0.0458877 0.515443 -1 0 0
0.0627459 0.0487732 0.283243 -0.255192 -0.39421 0.882879
-0.181267 0.00536193 0.361532 0 0 1
0.175185 0.154297 0.631377 -0.267846 -0.906649 0.325954
-0.241874 0.0689163 0.520701 -0.440241 0.097387 0.892583
0.0741773 -0.0382683 0.281395 -0.194412 0.317915 0.927973
-0.142812 0.181733 0.777972 0 0.922665 -0.385603
-0.16356 0.0606497 0.339423 0 1 0
0.18133 -0.00529272 0.0251064 0.0871552 0 0.996195
-0.234017 0.130704 0.41659 0 0.97466 0.22369
-0.182375 -0.132891 0.330025 0 0 -1
-0.0559412 0.18307 0.720009 0 0.932202 0.361937
0.1822 0.123776 0.552245 -0.267846 -0.906649 0.325954
-0.148635 0.164413 0.637097 0.269558 -0.919084 0.287442
0.185173 0.150505 0.382522 -0.304982 -0.921435 -0.240714
-0.146092 -0.174273 0.325364 0 0.482853 -0.875701
0.0471799 -0.137084 0.309913 0.0286046 -0.642775 -0.765521
0.163933 0.163857 0.649663 -0.269558 -0.919084 0.287442
0.13807 0.162548 0.674886 0 -0.975538 0.219832
0.0116344 -0.263154 0.0272615 0.310527 -0.0617153 0.948559
-0.203126 -0.0226885 0.392036 0.592422 -0.289197 -0.751932
-0.237297 0.0850927 0.521194 -0.440189 0.0973779 0.892609
-0.105742 0.0666934 0.303695 0.259464 -0.391243 0.882954
-0.226844 0.112341 0.37706 0 0.0633711 0.99799
-0.0499337 0.153259 0.439707 0.0778932 -0.96583 -0.247194
0.0309408 0.154103 0.503786 -0.0779718 -0.970021 -0.230172
0.200852 -0.0454577 0.522181 -1 0 0
-0.0864473 -0.0495249 0.284565 -0.653227 0.611803 0.446084
-0.122791 0.0672649 0.306983 -0.452855 -0.835871 0.31023
-0.225883 -0.0639721 0.52335 0 -0.242509 0.970149
-0.269308 0.0138531 0.0255135 -0.34785 0.520742 0.779633
0.204068 0.136074 0.375598 -0.533146 0 0.846023
-0.0114513 0.172817 0.433931 0.0296044 -0.972557 -0.230774
-0.200851 0.177913 0.693873 -1 0 0
0.19005 0.119614 0.545367 -0.271209 -0.950746 0.150093
-0.0691854 -0.0106637 0.330025 0 0 -1
-0.201743 -0.055814 0.33611 -1 0 0
0.00312982 -0.140768 0.324893 0.001511 -0.999181 -0.0404374
0.205111 -0.0720171 0.504537 -0.533076 0.205192 -0.820808
-0.0940484 -0.0934596 0.361532 0 0 1
0.0270778 0.176391 0.411165 -0.0779718 -0.970021 -0.230172
-0.0883292 0.163451 0.393038 0 0 1
0.0132793 0.164379 0.377108 0 -1 0
0.0897203 0.183939 0.699902 0 -0.975535 0.219843
-0.206994 0.137095 0.388741 0 0.97466 0.22369
-0.174195 0.132511 0.559061 0.269558 -0.919084 0.287442
0.0386653 0.150254 0.451001 -0.0779529 -0.970023 -0.230173
0.198774 0.157456 0.671493 0 -0.924962 0.38006
-0.0713963 -0.105273 0.330025 0 0 -1
-0.242805 0.0578757 0.515608 -1 0 0
-0.212106 -0.00411149 0.382834 0 -0.250957 -0.967998
0.00630201 -0.0294535 0.0205215 1 0 0
-0.156473 0.0940029 0.329857 -0.452855 -0.835871 0.31023
-0.110597 -0.134039 0.313166 -0.142176 -0.458137 -0.877438
0.22274 -0.111776 0.486601 0 0.800039 -0.599948
0.198425 0.126671 0.42041 -0.31075 -0.92244 -0.229213
-0.0765861 -0.0174209 0.361532 0 0 1
0.0473161 -0.119482 0.330025 0 0 -1
0.102954 0.130211 0.380904 -0.0503835 -0.370686 0.927391
0.226089 -0.00145676 0.510398 0 0 -1
-0.0830956 0.106913 0.339085 0.0538949 -0.390655 0.918958
0.193107 0.148664 0.360863 0.292699 0.907638 -0.300866
0.230172 0.116048 0.376824 0 0.0633711 0.99799
0.214573 0.107955 0.515711 0 0.97466 0.22369
0.088068 0.154391 0.339739 0.100103 0.700417 -0.706679
-0.114814 0.169516 0.705807 0 -0.975538 0.219832
-0.19651 -0.125922 0.361532 0 0 1
-0.0106483 0.266793 0.0118148 0 0 -1
0.227008 0.00212944 0.395048 0 0.250924 0.968007
0.145473 -0.0816275 0.361532 0 0 1
0.13433 0.142885 0.350903 -0.207353 -0.567226 0.797032
-0.210182 -0.109547 0.506426 0 -0.58807 0.80881
0.262521 0.0175463 0.0118148 0 0 1
-0.127139 0.138772 0.516927 0.251458 -0.943092 -0.217594
-0.154988 0.00156868 0.0274109 0.0871559 0 -0.996195
-0.195846 0.162726 0.691502 0 -0.928787 0.370614
0.0320851 0.00474251 0.269166 -0.371742 -0.0272243 0.927937
0.0981821 0.14059 0.577443 0 -0.975538 0.219832
-0.201743 -0.17478 0.352448 -1 0 0
0.197578 -0.0859208 0.361532 0 0 1
-0.148082 -0.105147 0.330025 0 0 -1
0.00473475 0.0224518 0.267586 -0.00139485 -0.0102769 0.999946
