-0.0649357 0.160784 0.467129 0.077912 -0.965829 -0.247194
0.0601165 -0.134455 0.308189 0.0286046 -0.642775 -0.765521
0.0210268 -0.0950206 0.330025 0 0 -1
0.108346 -0.192744 0.322999 0 -0.617301 -0.786727
0.115336 0.144678 0.387359 -0.0503835 -0.370686 0.927391
-0.196233 -0.0894587 0.330025 0 0 -1
0.200852 -0.102137 0.500156 -1 0 0
0.201744 0.0332702 0.345672 1 0 0
-0.0663945 -0.00809671 0.0351619 0.0871559 0 -0.996195
0.00360732 0.122526 0.017184 0 -0.0348994 -0.999391
-0.111812 -0.191257 0.344031 0 -0.800188 0.599749
-0.0504606 0.167334 0.693944 0.0705446 -0.977483 0.198875
-0.00973316 0.0606497 0.355943 0 1 0
0.0333924 0.157064 0.490476 -0.0779718 -0.970021 -0.230172
0.0677503 0.0119719 0.0353512 -0.0828898 0.309005 -0.947442
-0.108261 -0.0735813 0.361532 0 0 1
-0.188722 -0.0119768 0.0336376 -0.0828905 -0.309007 0.947441
-0.153016 0.0606497 0.347346 0 1 0
-0.0123583 0.00855838 0.361532 0 0 1
-0.135581 -0.010774 0.330025 0 0 -1
0.130113 0.141285 0.503585 -0.244103 -0.944925 -0.218016
-0.220221 -0.0332836 0.40986 0 0.358984 0.933344
-0.0260895 -0.173996 0.325517 0 0.482853 -0.875701
0.0396737 0.123738 0.37526 0 -0.375183 0.926951
-0.141443 0.153727 0.348877 -0.210484 0.571715 -0.792993
-0.140925 -0.194185 0.32413 0 -0.617301 -0.786727
-0.151322 0.16023 0.387889 0.291035 -0.924018 -0.24797
0.0696051 -0.0141588 0.330025 0 0 -1
-0.0680381 0.167492 0.349887 -0.100104 0.700417 -0.706679
-0.154624 -0.146741 0.361532 0 0 1
0.199959 0.111998 0.543045 1 0 0
0.10118 0.0606497 0.342057 0 1 0
0.0442019 0.177941 0.764404 0 0.970699 -0.240297
-0.100602 0.00945809 0.330025 0 0 -1
-0.273923 0.0096584 0.025643 -0.520694 0.347952 0.77962
-0.21555 -0.110996 0.431841 0 -0.595865 -0.803085
0.238973 -0.0191918 0.523654 0.440176 0 0.897911
-0.0019909 -0.0482689 0.361532 0 0 1
-0.11116 -0.00630094 0.0203246 0 -1 0
-0.169502 0.183889 0.78313 0 0.922665 -0.385603
0.0143435 0.0758061 0.0359874 0.808903 -0.0512426 -0.585705
-0.0397877 0.202819 0.80905 0 0.655996 -0.754765
-0.0122158 0.170964 0.786928 0 -0.922671 0.385588
0.200852 0.176169 0.755806 1 0 0
-0.147041 0.124503 0.489245 0.244173 -0.944297 -0.22064
0.00949205 0.178936 0.768425 0 0.970699 -0.240297
0.0131945 -0.121137 0.0391537 0.309007 -0.0828902 0.947441
0.0552317 0.15093 0.331954 0.0567225 0.652286 -0.755848
-0.182322 0.13761 0.582986 0.269558 -0.919084 0.287442
0.18179 0.112636 0.499622 -0.310756 -0.9294 -0.199112
-0.0294782 0.137526 0.507801 0.0779692 -0.971424 -0.224179
0.187421 0.139554 0.350716 0.188939 0.607238 -0.771728
-0.0261932 0.160409 0.417941 0.0295857 -0.972557 -0.230774
-0.182147 0.192984 0.798479 0 0.763297 -0.646048
0.0713661 0.134637 0.505751 -0.0779685 -0.971424 -0.224179
0.172371 0.128422 0.594643 -0.269559 -0.919087 0.287432
-0.0257069 0.149353 0.596788 0.0705446 -0.977483 0.198875
0.156219 0.133519 0.544743 -0.272623 -0.946039 0.175177
-0.201743 -0.0477409 0.337492 -1 0 0
-0.154291 0.13258 0.536676 0.272623 -0.946039 0.175177
-0.0161088 0.0121469 0.164099 -0.661622 0.749837 0
-0.151966 -0.0161144 0.361532 0 0 1
0.110904 0.160786 0.667068 0 -0.975538 0.219832
0.0121891 0.187155 0.711779 0 0.866027 0.499997
0.121007 0.145096 0.59979 -0.269559 -0.919087 0.287432
-0.0872835 -0.112439 0.311571 0.328867 0.381422 0.863924
-0.214882 0.0551311 0.523202 0 0.0654095 0.997859
-0.158613 -0.0722536 0.330025 0 0 -1
-0.214335 0.119457 0.465595 0 0.97466 0.22369
-0.226136 0.0196159 0.376683 0 -0.250957 -0.967998
-0.192427 0.163496 0.748041 0 -0.997962 -0.0638121
-0.220023 -0.0414644 0.508428 0 0.118227 -0.992987
0.0566383 0.06803 0.329667 0 0 1
-0.0028747 -0.236952 0.00297881 -0.175121 0.880617 -0.440279
-0.171437 0.159787 0.66993 0.999753 0 0.0222188
-0.0921764 0.150875 0.623085 0 -0.975538 0.219832
0.0707517 0.19237 0.797754 0 0.763297 -0.646048
0.215924 0.046479 0.510351 0 -0.0654407 -0.997856
-0.00532752 -0.0789913 0.0187042 0 0.0348995 -0.999391
0.132028 -0.0766988 0.330025 0 0 -1
0.110977 0.0101797 0.361532 0 0 1
-0.175279 -0.193525 0.341004 0 -0.800188 0.599749
-0.0138856 -0.035686 0.0463182 -0.809059 -0.0512238 0.585491
-0.00487248 0.169543 0.344237 -0.0567234 0.652286 -0.755848
-0.0272039 0.167248 0.691794 0 -0.983944 0.178479
0.169787 0.0807 0.366715 -0.0947469 -0.373493 0.922781
0.165856 -0.018731 0.330025 0 0 -1
0.140941 0.100305 0.339811 -0.0959166 -0.378104 0.920781
-0.0895504 0.162046 0.672656 0 -0.975538 0.219832
0.0224769 0.16818 0.357417 -0.0901366 -0.594446 0.799068
-0.0392525 0.0716397 0.36169 0 0 1
0.0191984 0.150467 0.599953 -0.070544 -0.977482 0.198876
0.124929 0.124076 0.515672 -0.25697 -0.933159 -0.251356
-0.220059 0.0865413 0.378698 0 0.0633711 0.99799
-0.161476 -0.137242 0.330025 0 0 -1
-0.201743 -0.0232182 0.338127 -1 0 0
0.00602905 -0.0963861 0.361532 0 0 1
0.184762 -0.0174884 0.361532 0 0 1
-0.00634542 0.170023 0.0355834 0 0.0871559 0.996195
-0.0264659 0.152435 0.537319 0.0689113 -0.955531 0.286727
-0.00630094 0.0952977 0.018166 -1 0 0
0.207795 -0.00564029 0.510523 -0.533149 0 -0.846021
0.0395657 -0.0357247 0.361532 0 0 1
-0.0104027 -0.191839 0.0241869 0 0.0871559 -0.996195
-0.201743 -0.0380602 0.400203 1 0 0
-0.194 0.113734 0.351673 0.130806 -0.39298 0.910196
-0.110826 0.183716 0.782717 0 0.922665 -0.385603
0.120927 0.142206 0.538305 -0.250375 -0.929432 0.271052
0.178961 0.12327 0.384686 -0.116401 -0.349704 0.929601
-0.0899659 0.079981 0.291553 -0.326197 0.35352 -0.876709
-0.0341215 -0.00115983 0.246504 -0.611832 -0.185798 -0.768857
0.116796 0.155306 0.642746 0 -0.975538 0.219832
0.0285629 0.0691129 0.36169 0 0 1
0.00460239 0.0182101 0.209578 0.23007 0.973174 0
0.222066 0.106609 0.379791 0 0.0633687 0.99799
0.0517105 0.148926 0.385601 -0.0503835 -0.370686 0.927391
0.0961451 -0.0509415 0.330025 0 0 -1
-0.22649 0.0159487 0.509985 0 -0.0654282 -0.997857
-0.0846049 -0.143447 0.361532 0 0 1
-0.227754 -0.108369 0.507065 0 -0.394073 0.919079
-0.213136 0.110281 0.505575 0 0.97466 0.22369
0.0282116 0.191493 0.816948 0 -0.656006 0.754756
0.197033 0.110683 0.350791 -0.130806 -0.39298 0.910196
-0.00939073 -0.137782 0.361532 0 0 1
0.00630201 0.0618473 0.0223974 1 0 0
-0.172712 0.15278 0.389626 0.306495 -0.920496 -0.24238
0.0288024 -0.183376 0.320895 0 0.0589963 -0.998258
-0.126529 0.139636 0.587511 0.269559 -0.919087 0.287432
0.260756 -0.0176573 0.0118148 0 0 -1
0.130111 0.0819587 0.331235 -0.0531279 -0.390876 0.918909
0.110446 0.16489 0.615372 0 -0.975535 0.219843
0.0740814 0.14024 0.352787 -0.0531279 -0.390876 0.918909
0.0930249 0.166877 0.406157 0.832057 0 -0.55469
0.0396582 0.149185 0.455172 -0.0779529 -0.970023 -0.230173
-0.252153 0.0208602 9.56452e-18 0 0 -1
0.0895074 -0.0506564 0.281009 0.873584 0.486619 0.00724404
-0.150414 0.00594632 0.0162101 0.0348995 0 -0.999391
0.157072 -0.0979656 0.361532 0 0 1
-0.0543969 -0.179134 0.355056 0 -0.492805 0.87014
-0.181787 0.0201336 0.361532 0 0 1
-0.0813575 -0.0678439 0.279274 -0.345772 -0.233661 -0.90876
0.242807 0.118524 0.455914 1 0 0
0.0770722 0.172649 0.415168 -0.136063 -0.964716 -0.225411
-0.0876193 0.164996 0.441553 0.13606 -0.964716 -0.225411
0.142177 0.134123 0.584556 -0.269559 -0.919087 0.287432
0.167081 0.127172 0.459553 -0.284318 -0.932098 -0.224404
0.142733 0.183467 0.697805 0 -0.975535 0.219843
0.066325 0.124643 0.345683 -0.0540224 -0.391579 0.918557
0.157958 0.128966 0.525036 -0.247932 -0.948555 -0.19691
-0.217428 -0.0599071 0.404106 0 -0.46135 -0.887218
0.0966928 -0.114566 0.316091 -0.328873 0.381421 0.863922
0.110104 0.176954 0.747409 0 0.997961 0.0638297
0.0972555 0.164339 0.380706 -0.119491 -0.96489 -0.2339
-0.0992345 0.107215 0.34016 0.0538949 -0.390655 0.918958
-0.183803 0.0950524 0.373964 0.0947483 -0.373493 0.922781
-0.0545873 -0.0750877 0.361532 0 0 1
0.0410672 0.166624 0.726511 0 -0.976528 -0.215389
0.05463 0.0200247 0.361532 0 0 1
-0.0631706 -0.026874 0.361532 0 0 1
0.224865 -0.00844016 0.397788 0 0.250924 0.968007
-0.0981635 0.155542 0.47565 0.13606 -0.964716 -0.225411
0.00347835 -0.159304 0.329653 0 0.11031 -0.993897
-0.106515 0.20218 0.808494 0 0.655996 -0.754765
0.162999 0.166851 0.70184 0 -0.928787 0.370614
0.0212254 -0.00196913 0.238239 0 0 -1
-0.110721 0.167876 0.698529 0 -0.975538 0.219832
-0.0275677 -0.00847089 0.044328 1 0 0
-0.183724 0.138982 0.624275 0.267846 -0.906651 0.325949
-0.0727752 0.161347 0.37472 0.134681 -0.990889 0
-0.110855 0.102477 0.370298 0.0502811 -0.369933 0.927697
-0.14151 0.144856 0.567881 0.269558 -0.919084 0.287442
-0.0182602 0.0054233 0.0795527 0 0 -1
-0.123526 0.163408 0.749416 0 -0.997962 -0.0638121
0.185317 -0.160977 0.361094 0 -0.102899 0.994692
-0.237612 -0.0158861 0.511964 -0.482904 0 -0.875674
-0.241134 -0.125393 0.483458 -0.440111 -0.803177 0.401508
-0.163538 0.139993 0.344859 -0.211697 0.567684 -0.795562
0.0172167 0.0111706 0.126664 0.661669 0.749796 0
-0.225196 0.130352 0.382896 0 -0.974924 -0.222536
-0.0871471 -0.099686 0.292154 -0.159321 -0.422475 -0.892262
0.00773419 -0.240225 0.0294415 0 -0.087156 0.996195
0.0812792 0.157304 0.578157 -0.0705629 -0.97748 0.198881
-0.0765689 0.149179 0.333149 -0.13752 0.619217 -0.773084
-0.0425294 0.0480317 0.330025 0 0 -1
-0.222828 0.11708 0.441038 0 -0.974924 -0.222536
0.166835 0.0116703 0.361532 0 0 1
-0.0748153 0.176972 0.754858 0 0.996005 -0.0892988
-0.241866 -0.0657539 0.418318 -0.440156 0.414266 0.796647
0.154041 -0.012615 0.0280119 -0.0828901 -0.309005 -0.947442
0.0554943 0.176969 0.665657 -0.0705629 -0.97748 0.198881
-0.0254461 0.0240216 0.330025 0 0 -1
-0.100353 -0.138561 0.315435 -0.078486 -0.605195 -0.792199
0.0928635 -0.087931 0.288816 0.345766 -0.233668 -0.90876
-0.192041 -0.115147 0.361532 0 0 1
-0.132994 0.167579 0.377066 0.223648 -0.946286 -0.233503
-0.0549853 0.153884 0.435676 0.0778932 -0.96583 -0.247194
0.195889 0.178858 0.698659 0 -0.92496 0.380065
0.0598144 0.165543 0.770046 0 -0.970689 0.240341
0.0263142 0.17822 0.736101 0 0.976523 0.215415
-0.0388189 0.157085 0.358541 0 -0.396388 0.918083
-0.2104 0.0138496 0.0235298 0.0512461 0.808872 -0.585747
-0.0122909 0.0829648 0.329667 0 0 1
-0.0656561 0.0837013 0.36169 0 0 1
0.147443 0.12505 0.343231 -0.34743 -0.47566 0.808109
0.239891 -0.0476518 0.398664 0.440238 -0.322336 -0.838027
-0.202592 -0.0863862 0.42161 0.592333 -0.371706 -0.714826
0.0058812 -0.0173449 0.220715 0 0 1
-0.0695044 0.136522 0.498935 0.0778932 -0.96583 -0.247194
0.0867441 -0.126009 0.305107 0.142176 -0.458137 -0.877438
0.0796167 0.0536617 0.330025 0 0 -1
0.0489704 0.0270534 0.271195 -0.145306 -0.119363 0.98216
0.153629 0.163969 0.371253 -0.290899 -0.924057 -0.247984
0.00246008 -0.268915 1.08454e-17 1.39587e-16 5.78181e-17 -1
0.0550343 -0.183548 0.352032 0 -0.660549 0.750783
0.0809042 0.0606497 0.357245 0 1 0
-0.0152483 0.157317 0.554788 0.0705636 -0.97748 0.19888
-0.125245 0.158253 0.595467 0.269558 -0.919084 0.287442
0.171152 0.159837 0.657078 -0.999753 0 0.0222188
-0.200851 -0.113071 0.491531 1 0 0
0.215504 0.11388 0.489893 0 0.97466 0.22369
-0.0158659 -0.0169498 0.239504 -0.437145 -0.495509 -0.750583
-0.235154 0.0389849 0.523635 -0.440178 0.0587319 0.895987
0.120505 0.0716181 0.36169 0 0 1
-0.242805 0.0550894 0.372796 -1 0 0
-0.0813296 0.147946 0.450573 0.0778932 -0.96583 -0.247194
0.129192 0.154349 0.34665 0.13752 0.619214 -0.773086
-0.163927 0.118651 0.555483 0.269559 -0.919087 0.287432
-0.0922369 0.135224 0.55094 0.0705446 -0.977483 0.198875
0.107117 0.170171 0.708713 0 -0.975538 0.219832
0.142864 -0.175252 0.324824 0 0.482853 -0.875701
-0.111064 0.15832 0.656122 0 -0.975538 0.219832
-0.029919 0.16928 0.3863 0.0295516 -0.971429 -0.235485
-0.0264997 -0.0188198 0.266805 0.111602 -0.0112435 0.993689
-0.166832 0.129819 0.448872 0.28431 -0.9321 -0.224405
-0.165317 0.0205449 0.330025 0 0 -1
-0.094769 0.0712257 0.329667 0 0 1
0.214991 -0.0125348 0.0226533 -0.0828904 -0.308983 -0.947448
0.200852 0.0512902 0.377002 -1 0 0
-0.0246166 0.00701198 0.0245392 -0.195155 0.980773 0
0.183387 0.0727367 0.332912 -0.0959166 -0.378104 0.920781
-0.0854497 -0.191054 0.344301 0 -0.800188 0.599749
-0.257651 -0.000675639 1.08027e-17 -5.78244e-17 -1.39602e-16 -1
-0.122071 0.151286 0.46967 0.24414 -0.944305 -0.220642
0.0613286 0.177415 0.740202 0 0.997961 0.0638297
0.0539844 0.17744 0.391006 -0.119489 -0.964882 -0.233935
-0.174427 0.122793 0.352771 0.130806 -0.39298 0.910196
-0.199244 0.176731 0.687119 0 -0.928783 0.370624
0.233943 0.0482221 0.526023 0 0.0654203 0.997858
0.0607045 0.163908 0.680741 -0.070544 -0.977482 0.198876
-0.202599 0.0529278 0.370992 0.482969 -0.137853 -0.864718
-0.00326938 -0.16995 0.0155279 0 0.0348995 -0.999391
0.0151232 0.136162 0.532938 -0.0703701 -0.95545 0.286642
0.265983 0.012355 0.0258084 0.996211 -0.000178149 -0.086967
-0.102459 0.182802 0.694857 0 -0.975535 0.219843
0.20876 -0.0493654 0.509867 0 0.118214 -0.992988
-0.221117 0.0793877 0.507214 0 -0.108459 -0.994101
-0.148281 0.0458043 0.361532 0 0 1
0.102372 0.131401 0.538325 -0.0691975 -0.957681 0.279391
0.201744 -0.00284209 0.332588 1 0 0
-0.127114 0.184755 0.709687 0 0.500001 -0.866025
-0.0642304 0.161065 0.404706 0.0778932 -0.96583 -0.247194
-0.172141 0.12998 0.483933 0.310767 -0.922435 -0.229212
0.0512836 -0.042613 0.261344 0.345766 -0.233668 -0.90876
0.0131223 0.0147837 0.099966 0.661669 0.749796 0
-0.0970554 0.155601 0.574152 0 -0.975535 0.219843
-0.100461 0.180111 0.803705 0 -0.852964 0.521969
-0.164423 0.164315 0.763641 0 -0.996008 0.0892604
-0.028142 -0.178393 0.355476 0 -0.492805 0.87014
-0.0556027 0.188571 0.791875 0 0.852892 -0.522087
0.25846 0.000996238 1.0894e-17 5.78147e-17 1.39582e-16 -1
-0.00314543 -0.124451 0.301923 -0.0503607 0.591953 -0.804398
-0.0714923 0.158998 0.583008 0.0705636 -0.97748 0.19888
-0.144183 0.107785 0.321541 -0.248249 0.411231 -0.877075
-0.201743 0.0121714 0.332777 -1 0 0
-0.0586879 0.128151 0.377685 0.0511298 -0.370613 0.927379
-0.238797 -0.0270993 0.390185 -0.440194 -0.322325 -0.838054
-0.00677922 -0.211797 0.0319287 0 -0.087156 0.996195
0.087152 0.123317 0.346343 -0.0540224 -0.391579 0.918557
0.239943 0.101488 0.50733 0.440189 -0.111376 -0.890971
-0.211016 0.121207 0.42296 0 -0.974924 -0.222536
0.18436 0.18248 0.77976 0 0.922665 -0.385603
-0.181836 0.109819 0.53291 0.292839 -0.947963 0.124946
0.164856 0.146637 0.377522 -0.31582 -0.948819 0
0.014591 0.162705 0.0342331 0.808906 0.0512424 0.585701
-0.011177 0.0276985 0.246433 -0.156406 0.661481 -0.733471
-0.0164107 0.268839 1.19757e-17 -4.90199e-17 3.27544e-17 -1
0.0691706 0.168282 0.393038 0 0 1
-0.223165 0.089163 0.519617 0 0.108482 0.994098
-0.00576872 -0.0407608 0.259547 -0.192177 -0.812778 -0.549964
0.0101046 0.014105 0.0580897 0.707107 0.707107 0
0.230193 -0.109108 0.486148 0 0.759225 -0.650829
-0.220099 -0.025345 0.52615 0 0 1
-0.199958 0.151485 0.645363 -1 0 0
0.175683 0.153728 0.630202 -0.267846 -0.906649 0.325954
0.0457662 -0.132242 0.361532 0 0 1
0.172818 -0.169201 0.32751 0 0.302458 -0.953163
0.220474 -0.094308 0.514986 0 -0.341733 0.939797
-0.12657 -0.114008 0.361532 0 0 1
0.0338743 0.0761057 0.329667 0 0 1
-0.0666729 0.161101 0.668465 0 -0.975538 0.219832
0.213881 0.113308 0.457561 0 -0.974923 -0.222542
-0.0575945 0.022133 0.361532 0 0 1
0.201744 -0.193778 0.337325 1 0 0
-0.0561831 0.142047 0.481544 0.0778932 -0.96583 -0.247194
0.229824 -0.104031 0.426674 0 -0.595865 -0.803085
-0.0369136 -0.143388 0.330025 0 0 -1
0.178095 0.126753 0.542249 -0.272623 -0.946039 0.175177
0.0302099 -0.0141339 0.0464542 0.0512235 -0.809059 0.585491
0.061191 0.171558 0.641082 -0.0705629 -0.97748 0.198881
0.19349 -0.0855885 0.361532 0 0 1
-0.111918 -0.163161 0.329225 0 0.11031 -0.993897
-0.152504 0.165188 0.733021 0 -0.976528 -0.215389
0.108487 0.100642 0.308486 -0.706349 0.648837 0.282988
0.0983563 0.0820939 0.295526 0.326191 0.353528 -0.876708
-0.0512017 -0.047867 0.361532 0 0 1
0.201848 -0.0312375 0.40291 -0.482883 0.314336 0.817323
0.0146757 0.0405477 0.259056 0.290602 0.929619 0.226624
0.0285103 -0.00571493 0.0204671 -0.0348994 0 -0.999391
0.116849 -0.150962 0.361532 0 0 1
0.0281313 -0.169177 0.359476 0 -0.304332 0.952566
0.0371931 -0.0108615 0.251291 0.611818 -0.185797 -0.768868
0.0659012 0.130819 0.527296 -0.0691975 -0.957681 0.279391
0.129091 0.200623 0.80714 0 0.655996 -0.754765
0.198807 0.136367 0.625444 0 -0.928787 0.370614
0.0139245 0.0117453 0.0329317 0.555585 0.83146 0
-0.196549 0.121381 0.557375 0.267846 -0.906649 0.325954
0.233254 0.0735265 0.38304 0 0.15744 0.987529
0.231534 -0.0408202 0.526748 0 -0.118207 0.992989
0.0454264 0.136909 0.34983 0 -0.396388 0.918083
0.200852 0.124025 0.417366 -1 0 0
-0.0650152 0.147745 0.60283 0.0705446 -0.977483 0.198875
-0.139985 0.187049 0.789389 0 0.852892 -0.522087
-0.0899401 0.161112 0.359769 0.0901378 -0.594446 0.799067
0.0958771 0.160086 0.457585 -0.136063 -0.964716 -0.225411
0.0899453 0.143649 0.591017 0 -0.975538 0.219832
0.0582512 -0.143506 0.330025 0 0 -1
0.204406 0.0273193 0.374288 -0.483001 -0.219732 -0.847601
0.180741 -0.0774397 0.330025 0 0 -1
0.00209794 0.261524 1.08288e-17 -4.90199e-17 3.27544e-17 -1
0.136878 -0.11591 0.330025 0 0 -1
0.0627632 -0.0833861 0.283306 -0.87227 -0.478026 0.103127
0.182338 0.11699 0.481182 -0.31075 -0.92244 -0.229213
0.0833525 -0.0730996 0.330025 0 0 -1
0.104095 0.110996 0.342083 -0.0531279 -0.390876 0.918909
0.0836947 0.165983 0.771824 0 -0.970689 0.240341
0.11001 0.150181 0.359093 -0.0531279 -0.390876 0.918909
-0.0264934 0.175734 0.651725 0 -0.983944 0.178479
0.0485395 -0.169882 0.327294 0 0.302458 -0.953163
0.00630201 -0.124365 0.0180026 1 0 0
-0.110908 0.172804 0.377134 0.226208 -0.946653 -0.229516
-0.223927 0.115573 0.482516 0 0.97466 0.22369
-0.134881 0.171365 0.646427 0.269558 -0.919084 0.287442
0.233621 0.0279028 0.372093 0 -0.250963 -0.967997
0.170719 -0.0467701 0.361532 0 0 1
0.21277 -0.0974379 0.441396 0 0.595827 0.803113
0.224443 -0.0768693 0.410262 0 -0.46136 -0.887213
-0.0262196 0.132672 0.348 0 -0.396388 0.918083
0.101156 0.178191 0.800567 0 -0.852964 0.521969
-0.161903 -0.0213069 0.330025 0 0 -1
0.179095 -0.012748 0.0258633 -0.0828904 -0.308983 -0.947448
0.248044 0.0164216 0.0128967 -0.552501 0.826874 0.104987
-0.00551781 0.152241 0.330526 0.112014 -0.992263 0.0535443
0.0879955 -0.112444 0.361532 0 0 1
-0.191022 -0.0692539 0.330025 0 0 -1
-0.141274 0.187559 0.812797 0 -0.763238 0.646117
-0.234875 0.0155231 0.0241194 0 1 0
-0.164875 0.13706 0.564866 0.269558 -0.919084 0.287442
-0.179777 0.14712 0.652391 0 -0.928787 0.370614
-0.22284 -0.0729297 0.504873 0 0.24256 -0.970136
0.154542 0.154987 0.395937 -0.305443 0 0.95221
-0.118484 0.0476693 0.361532 0 0 1
-0.158216 0.168211 0.658226 0.269558 -0.919084 0.287442
-0.116907 0.104464 0.322148 0.63953 0.76387 0.0866256
-0.000104599 0.158649 0.495097 0.0296044 -0.972557 -0.230774
0.0600776 -0.00630094 0.0241836 0 -1 0
-0.22476 -0.109612 0.455026 0 0.759336 0.650699
-0.0638898 -0.0115479 0.27175 0.256092 0.195741 0.946627
-0.0149285 0.167494 0.45592 0.0296044 -0.972557 -0.230774
0.1598 -0.159374 0.36126 0 -0.102899 0.994692
0.143313 0.182801 0.720702 0 0.932202 0.361937
-0.234092 0.124625 0.360496 0 -0.0633517 -0.997991
0.0739473 0.0714556 0.296059 -0.639531 0.76387 0.0866256
0.0476193 -0.0763491 0.361532 0 0 1
-0.203359 0.00384644 0.383612 0.592346 -0.202204 -0.779897
0.00900598 0.11693 0.372505 0 -0.375183 0.926951
-0.2383 -0.105963 0.49196 -0.482977 0.514953 -0.708206
-0.101624 0.0606497 0.356374 0 1 0
-0.0178128 0.162462 0.665408 0 -0.983944 0.178479
-0.00630094 -0.0513457 0.0359424 -1 0 0
0.0948462 0.194002 0.799681 0 0.763297 -0.646048
0.0153378 -0.0340791 0.361532 0 0 1
0.0638169 0.0437387 0.267209 0.326191 0.353528 -0.876708
0.0582336 0.0145104 0.257097 0.295519 0.0684815 -0.952879
0.0157827 -0.12023 0.361532 0 0 1
-0.0291791 0.164608 0.735651 0 -0.976528 -0.215389
-0.111696 -0.120417 0.330025 0 0 -1
-0.0369605 0.135688 0.536533 0.0704077 -0.957613 0.279321
-0.0146045 -0.124692 0.032073 -0.809082 0.0512215 -0.585459
-0.147014 0.12214 0.380261 0.116401 -0.349705 0.929601
-0.0126333 -0.096876 0.0414589 -0.309036 -0.0828897 0.947431
-0.198448 0.13527 0.385774 0.310742 -0.922443 -0.229214
0.133669 0.157602 0.393038 0 0 1
0.210871 -0.0552134 0.522655 0 -0.118214 0.992988
0.0362226 0.164379 0.381307 0 -1 0
0.184054 0.143 0.601843 -0.269558 -0.919084 0.287442
0.23527 0.0263795 0.39092 0.482917 0.21975 0.847644
0.000487551 0.0102298 0.267465 0.00159003 -0.00991211 0.99995
0.0878172 -0.0155209 0.0394938 0 -1 0
0.224921 0.138393 0.375709 0 0 1
0.0137981 0.0464445 0.361532 0 0 1
0.201887 0.0613235 0.335397 -1 0 0
0.201434 -0.0124759 0.386322 -0.482917 -0.314361 -0.817293
0.00256074 -0.145552 0.0163799 0 0.0348995 -0.999391
0.00328122 -0.0736318 0.361532 0 0 1
-0.159075 0.0113133 0.0364482 -0.0828905 0.309007 0.947441
0.0596375 0.109725 0.370362 -0.0503835 -0.370686 0.927391
0.069575 -0.0531049 0.271001 0.345766 -0.233668 -0.90876
-0.126142 0.154887 0.640887 0 -0.975538 0.219832
0.155511 0.170695 0.663631 -0.269558 -0.919084 0.287442
0.175073 0.16373 0.744388 0 -0.997962 -0.0638121
0.0861226 -0.045372 0.361532 0 0 1
-0.0518871 0.186162 0.712037 0 0 1
-0.0619385 0.13996 0.563471 0.0705446 -0.977483 0.198875
-0.0142018 0.0308545 0.046304 -0.809059 0.0512241 0.585491
-0.200851 0.0598565 0.515801 1 0 0
0.217331 -0.0162519 0.528513 0 0 1
0.0725936 0.0916555 0.363861 -0.0510067 -0.36972 0.927742
0.037116 0.165418 0.681704 0 -0.983944 0.178479
-0.122645 0.0812011 0.362449 0.0511298 -0.370613 0.927379
-0.177327 0.167256 0.723743 0 -0.932206 -0.361928
-0.0496476 -0.126872 0.312774 0.0859478 0.622039 0.778255
0.217716 -0.0866091 0.501022 0 0.341727 -0.939799
0.0862556 -0.196987 0.328496 0 -0.983625 -0.180227
-0.00306658 -0.167364 0.0358161 0 -0.087156 0.996195
0.0141983 0.177595 0.0268815 0.808892 -0.0512436 -0.585719
0.234007 -0.13237 0.459008 0 -0.976168 -0.217017
0.217824 0.0764271 0.507537 0 -0.108459 -0.994101
0.242406 0.0310914 0.515109 0.440139 -0.0587632 -0.896005
0.0167123 0.15194 0.518047 -0.0779873 -0.971412 -0.224223
0.00630201 -0.0579126 0.0253946 1 0 0
-0.26327 -0.0212622 0.0122362 -0.194047 -0.975353 0.105038
0.202235 0.0165362 0.515497 -0.482906 -0.0573046 -0.873795
-0.201885 0.0964474 0.359679 1 0 0
-0.0637283 -0.0378488 0.330025 0 0 -1
0.0888396 0.161388 0.669739 0 -0.975538 0.219832
-0.192674 0.105516 0.515865 0.310753 -0.9294 -0.199121
0.0148417 0.168747 0.613207 0 -0.983944 0.178479
-0.188136 0.177762 0.76368 0 0.996005 -0.0892988
0.0474094 0.0167085 0.330025 0 0 -1
-0.0110929 -0.190108 0.345563 0 -0.800188 0.599749
-0.110761 0.0066776 0.0407683 -0.087156 0 0.996195
0.220378 0.061871 0.366554 0 -0.157427 -0.987531
-0.242627 0.00757963 0.38134 -0.440195 -0.225323 -0.869171
0.1182 -0.0587111 0.330025 0 0 -1
0.0052959 0.265362 0.0187087 0.000149751 0.996316 -0.0857561
0.177015 0.0060138 0.0349717 0.0871559 0 0.996195
0.199959 0.112298 0.516972 1 0 0
-0.201743 -0.0557811 0.360665 -1 0 0
0.0556446 0.168091 0.699485 0 -0.975538 0.219832
0.0882565 0.0126683 0.330025 0 0 -1
0.0146532 0.131367 0.0368889 0.808879 0.051245 0.585737
0.0786394 0.160551 0.362646 -0.134681 -0.990889 0
0.234767 0.140899 0.359957 0 0 -1
-0.0138495 0.153159 0.0360906 -0.809085 0.0512204 0.585455
-0.184953 0.153967 0.369639 0.306495 -0.920496 -0.24238
0.036663 0.163346 0.592021 -0.0705629 -0.97748 0.198881
-0.16034 0.147376 0.593598 0.269558 -0.919084 0.287442
-0.148804 0.132924 0.354025 0.0959181 -0.378105 0.92078
0.0739849 0.161928 0.598294 -0.0705629 -0.97748 0.198881
0.200852 0.0765315 0.369367 -1 0 0
-0.221632 0.0307748 0.387623 0 0.250924 0.968007
-0.170095 0.152498 0.619122 0.269558 -0.919084 0.287442
0.0341299 0.190294 0.79469 0 0.852892 -0.522087
-0.023284 0.0292965 0.361532 0 0 1
0.00801007 0.019952 0.361532 0 0 1
0.198885 0.172537 0.67661 0 -0.928783 0.370624
0.156847 -0.193777 0.32381 0 -0.617301 -0.786727
-0.220357 -0.0936217 0.498472 0 0.341727 -0.939799
0.0943866 0.0424847 0.282953 0.418641 -0.83164 0.364848
0.156796 0.0454949 0.330025 0 0 -1
0.013448 -0.0282555 0.0471971 0.309036 -0.0828897 0.947431
0.0413856 0.15519 0.429279 -0.0779529 -0.970023 -0.230173
-0.223538 -0.00655424 0.512761 0 0 -1
0.221181 0.132096 0.410525 0 0.97466 0.22369
0.140194 0.0504909 0.361532 0 0 1
-0.0384776 -0.109435 0.330025 0 0 -1
-0.188069 -0.137573 0.330025 0 0 -1
0.158923 -0.128137 0.330025 0 0 -1
0.215584 -0.133863 0.469111 0 -0.993894 -0.11034
-0.0618212 0.0359199 0.263399 -0.320754 0.289708 -0.901768
-0.019095 0.153567 0.616374 0 -0.983944 0.178479
-0.0886856 -0.186899 0.320687 0 0.0589963 -0.998258
0.19755 0.135754 0.37916 -0.31582 -0.948819 0
0.107515 -0.09781 0.361532 0 0 1
0.0202019 -0.00549529 0.143998 0.956852 -0.290575 0
0.1401 0.0122534 0.330025 0 0 -1
-0.242572 0.0293388 0.515307 -0.440183 -0.0587618 -0.895983
0.242807 -0.0824526 0.417928 1 0 0
-0.161499 0.102317 0.374614 0.0947483 -0.373493 0.922781
0.129011 -0.0326317 0.361532 0 0 1
-0.076009 0.181319 0.724519 0 0.932202 0.361937
0.229823 -0.00649974 0.510398 0 0 -1
-0.223874 0.0346589 0.370892 0 -0.157427 -0.987531
-0.201842 -0.109385 0.448805 0.533236 0.642242 0.550622
0.284999 -0.00819939 0.00299902 0.880622 -0.175122 -0.440269
0.0919308 0.145196 0.355927 -0.0531279 -0.390876 0.918909
0.110871 0.169796 0.389578 -0.22621 -0.946661 -0.229481
-0.125191 -0.0587485 0.330025 0 0 -1
-0.223814 -0.117243 0.47555 0 0.980551 -0.196264
0.200852 -0.110316 0.436578 -1 0 0
0.201887 0.112023 0.378945 -1 0 0
-0.220505 0.100028 0.364425 0 -0.0633479 -0.997992
0.196644 0.144179 0.393574 -0.31075 -0.92244 -0.229213
-0.103138 -0.130868 0.361532 0 0 1
-0.00952024 0.169783 0.705768 0 -0.983944 0.178479
-0.0837382 0.152557 0.429719 0.136042 -0.964719 -0.225411
-0.0578973 0.169127 0.374394 0.136042 -0.964719 -0.225411
-0.0343374 0.14539 0.475368 0.0778932 -0.96583 -0.247194
-0.185799 0.0606497 0.336539 0 1 0
-0.0927052 0.160079 0.594023 0 -0.975535 0.219843
0.0833511 0.148768 0.539148 -0.0691917 -0.957708 0.279298
0.18026 -0.190861 0.344558 0 -0.800188 0.599749
-0.0239017 0.0243257 0.267082 0.304728 -0.0307003 0.951945
-0.242805 0.127 0.430358 -1 0 0
0.145569 0.17722 0.757629 0 0.996005 -0.0892988
0.0520334 0.175821 0.357673 0.129259 0.943403 -0.305421
0.165022 0.156963 0.363503 0.28898 0.952571 0.0953884
-0.0602383 0.00588251 0.330025 0 0 -1
-0.19829 -0.133326 0.361532 0 0 1
-0.0907536 0.186994 0.71098 0 0.500001 -0.866025
-0.175528 0.125366 0.530998 0.250375 -0.929432 0.271052
0.0987813 -0.125534 0.330025 0 0 -1
0.165424 0.106388 0.37664 -0.116401 -0.349704 0.929601
-0.0476789 0.143964 0.578096 0.0705446 -0.977483 0.198875
0.199959 0.118413 0.5591 1 0 0
0.0803756 0.138623 0.485893 -0.0779529 -0.970023 -0.230173
-0.0925113 0.167758 0.698004 0 -0.975538 0.219832
-0.184283 0.0698971 0.363831 0.0947483 -0.373493 0.922781
-0.148547 0.184708 0.70966 0 0.500001 -0.866025
0.143974 0.176274 0.797434 0 -0.852964 0.521969
0.171617 0.167932 0.67798 -0.999753 0 0.0222188
0.18825 0.168622 0.706277 0 -0.928787 0.370614
-0.124746 -0.0791454 0.361532 0 0 1
0.203403 0.0835556 0.517495 -0.592393 0.0873544 0.800899
-0.185746 0.126802 0.601474 0 -0.928787 0.370614
-0.0497105 -0.120347 0.361532 0 0 1
0.020193 -0.273314 0.000362915 0.746553 -0.498933 -0.440141
0.0998146 0.0897562 0.3646 -0.0510067 -0.36972 0.927742
-0.0253139 0.158212 0.489667 0.077912 -0.965829 -0.247194
-0.0690611 0.147716 0.355662 0.0532341 -0.391658 0.918569
0.0794152 0.187346 0.711448 0 0.866027 0.499997
0.103309 0.163738 0.744265 0 -0.997962 -0.0638121
0.0124178 0.171767 0.371192 -0.0293217 -0.963919 -0.264578
-0.149233 0.118751 0.509894 0.251465 -0.94308 -0.217637
0.166783 0.110629 0.526405 -0.250361 -0.929409 0.271143
-0.203968 0.13972 0.362176 0.482901 0 -0.875675
0.0988957 -0.137752 0.314673 0.0784861 -0.605195 -0.792199
-0.186198 0.173189 0.792251 0 -0.922671 0.385588
-0.197187 0.150142 0.628773 0 -0.92496 0.380065
0.096016 -0.0663787 0.361532 0 0 1
-0.203348 -0.0364459 0.522112 0.592289 -0.0952263 0.800079
-0.0850552 0.147672 0.512767 0.0779883 -0.971433 -0.224133
0.0329779 0.0118944 0.248186 0.611832 0.18579 -0.768858
-0.087757 0.179752 0.681322 0 -0.975535 0.219843
0.242807 0.1022 0.367418 1 0 0
-0.134107 -0.0278305 0.361532 0 0 1
-0.220992 0.0191563 0.527928 0 0.0654203 0.997858
0.0800162 0.151011 0.500191 -0.0779718 -0.970021 -0.230172
0.140051 -0.0354142 0.330025 0 0 -1
-0.204293 0.00478364 0.526473 0.482904 0 0.875674
0.00540137 -0.133676 0.330025 0 0 -1
0.0983525 -0.0266665 0.330025 0 0 -1
-0.00856079 0.179177 0.731764 0 0.976523 0.215415
-0.234171 -0.0794892 0.516889 -0.4402 -0.21775 0.871096
0.121861 -0.00407237 0.0172072 -0.0348994 0 -0.999391
0.0690673 0.0240539 0.330025 0 0 -1
0.192443 0.162908 0.691959 0 -0.928787 0.370614
0.142663 -0.113352 0.361532 0 0 1
0.219555 -0.0639367 0.423957 0 0.461348 0.887219
-0.0828137 -0.00528596 0.330025 0 0 -1
0.211171 -0.0460797 0.395371 0 -0.358976 -0.933347
-0.0630801 -0.135239 0.323298 0.0109972 0.816845 0.576752
0.0116675 0.274256 0.0118148 0 0 1
0.173524 0.132273 0.341752 0.208883 0.562179 -0.800201
0.0364444 -0.0792983 0.330025 0 0 -1
0.0015964 0.164928 0.401716 -0.0779529 -0.970023 -0.230173
-0.19966 0.13764 0.589157 0 -0.928783 0.370624
-0.0510239 0.164685 0.344695 -0.100104 0.700417 -0.706679
0.236782 -0.0118171 0.386301 0.44022 -0.225345 -0.869152
-0.205999 0.0395714 0.509694 0.533151 -0.0553536 -0.844207
0.0286147 0.16219 0.663912 0 -0.983944 0.178479
-0.00937231 0.10262 0.366713 0 -0.375183 0.926951
0.0146289 -0.0689673 0.330025 0 0 -1
-0.0875189 -0.0245038 0.361532 0 0 1
-0.175004 -0.143485 0.361532 0 0 1
-0.138914 0.0437424 0.330025 0 0 -1
-0.0870335 0.0249784 0.330025 0 0 -1
0.107536 -0.169252 0.359452 0 -0.304332 0.952566
0.222082 0.110185 0.509061 1.47134e-05 0.978454 0.206467
0.184324 0.12983 0.426666 -0.284318 -0.932098 -0.224404
-0.0958996 0.0552964 0.295753 0.259464 -0.391243 0.882954
-0.225845 -0.0755125 0.412221 0 -0.46135 -0.887218
0.165761 0.0927936 0.339312 -0.0959166 -0.378104 0.920781
0.213982 -0.0697858 0.503224 0 0.242525 -0.970145
-0.176285 0.119824 0.570822 0.269559 -0.919087 0.287432
-0.127658 0.0284734 0.361532 0 0 1
0.116471 -0.116808 0.330025 0 0 -1
0.129717 0.164534 0.735987 0 -0.976528 -0.215389
-0.205374 0.11471 0.451421 0 -0.974924 -0.222536
0.00404042 0.159319 0.561233 0 -0.983944 0.178479
-0.0974459 0.172241 0.647993 0 -0.975535 0.219843
-0.142736 0.162843 0.626545 0.269558 -0.919084 0.287442
-0.070868 0.176145 0.387725 0.119507 -0.964888 -0.2339
0.160523 0.183423 0.807911 0 -0.763238 0.646117
0.012017 0.163706 0.744752 0 -0.997962 -0.0638121
-0.122854 0.154541 0.373631 0.134681 -0.990889 0
-0.126491 0.142781 0.356887 0.0532341 -0.391658 0.918569
-0.144148 -0.129348 0.361532 0 0 1
-0.00327886 -0.0185218 0.0880878 -0.230112 -0.973164 0
-0.0543835 0.0675038 0.329667 0 0 1
0.1764 0.0546375 0.330025 0 0 -1
0.272473 -0.0174547 0.0178204 0.552514 -0.826856 0.105058
0.201887 0.0911985 0.354318 -1 0 0
-0.047289 -0.161189 0.361072 0 -0.102899 0.994692
0.0338559 0.16842 0.78084 0 -0.922671 0.385588
-0.061364 0.0578874 0.361532 0 0 1
0.145463 0.160008 0.620036 -0.269558 -0.919084 0.287442
-0.104233 0.128615 0.519145 0.251465 -0.94308 -0.217637
-0.0229211 0.0516258 0.330025 0 0 -1
-0.227039 -0.0986286 0.425607 0 -0.595826 -0.803114
0.0401455 0.00630201 0.0284921 0 1 0
0.00314222 0.153904 0.447649 -0.0779529 -0.970023 -0.230173
-0.0060426 0.0143251 0.232355 -0.230027 0.973184 0
-0.0342159 0.161213 0.58067 0.0705636 -0.97748 0.19888
0.114309 0.148629 0.489632 -0.24414 -0.944305 -0.220642
0.113866 0.0508293 0.330025 0 0 -1
0.00630201 -0.0277174 0.0226958 1 0 0
0.0190696 -0.140324 0.314525 0.001511 -0.999181 -0.0404374
-0.130364 0.145039 0.608385 0.269559 -0.919087 0.287432
-0.06798 0.130109 0.348093 0.0532341 -0.391658 0.918569
0.0751035 0.149275 0.332964 0.13752 0.619214 -0.773086
-0.0750956 0.0316394 0.361532 0 0 1
0.118998 0.117743 0.376809 -0.0510067 -0.36972 0.927742
-0.00346392 -0.0493554 0.330025 0 0 -1
0.136418 0.152338 0.637399 -0.269559 -0.919087 0.287432
0.0207009 -0.0360406 0.265701 0.305973 -0.940269 0.149246
-0.139792 0.119579 0.53216 0.250364 -0.929421 0.271098
-0.00958475 -0.252989 0.0283248 0 -0.087156 0.996195
0.110146 0.0762001 0.329667 0 0 1
-0.115889 0.134941 0.479049 0.244173 -0.944297 -0.22064
-0.00883085 -0.0969363 0.330025 0 0 -1
0.103801 -0.00389818 0.0413771 0.0871559 0 0.996195
-0.0521628 0.15418 0.629896 0.0705446 -0.977483 0.198875
0.00636098 0.106144 0.336547 0 -0.396388 0.918083
0.0733402 -0.00128007 0.361532 0 0 1
-0.00810791 -0.0155488 0.0484788 -0.258886 -0.965908 0
0.125531 0.136587 0.46133 -0.244172 -0.944302 -0.220619
-0.121309 0.182551 0.693741 0 -0.975535 0.219843
-0.261522 -0.00224163 0.0180904 -0.0871559 0 0.996195
0.00182611 -0.0116678 0.330025 0 0 -1
-0.175908 0.141148 0.432847 0.284299 -0.932105 -0.224396
0.0271723 0.163307 0.466277 -0.0779718 -0.970021 -0.230172
0.0166391 0.0606497 0.348145 0 1 0
-0.132908 0.0726916 0.329667 0 0 1
0.101227 0.184133 0.700762 0 -0.975535 0.219843
-0.201743 -0.179664 0.332068 -1 0 0
0.00630201 -0.0945222 0.0260551 1 0 0
0.121569 0.13175 0.55764 -0.269559 -0.919087 0.287432
-0.0754945 -0.00220932 0.0188264 0.0348995 0 -0.999391
0.190332 0.117095 0.513268 -0.310761 -0.929397 -0.199121
0.0583421 -0.0301656 0.361532 0 0 1
-0.200851 0.174675 0.733466 -1 0 0
0.0931991 -0.0681628 0.295621 -0.194412 0.317915 0.927973
-0.103962 -0.0757599 0.330025 0 0 -1
-0.0136617 -0.0143051 0.136638 -0.661621 -0.749839 0
-0.210612 0.0134232 0.51015 0 -0.0654282 -0.997857
0.0015506 0.189937 0.794107 0 0.852892 -0.522087
-0.211106 -0.087157 0.517555 0 -0.242509 0.970149
0.073155 0.202924 0.813975 0 0.768528 0.639816
-0.0250049 0.0499208 0.361532 0 0 1
-0.0165014 0.17797 0.76452 0 0.970699 -0.240297
-0.115706 0.157503 0.450106 0.24414 -0.944305 -0.220642
0.0840342 0.148252 0.611443 0 -0.975538 0.219832
-0.126063 0.00434171 0.0170605 0.0348995 0 -0.999391
0.079848 -0.119958 0.330025 0 0 -1
0.182417 0.137117 0.618013 -0.267846 -0.906651 0.325949
0.1289 0.0719436 0.310673 0.452792 -0.835869 0.310327
-0.0894415 -0.0710579 0.361532 0 0 1
0.00351554 0.0861501 0.0334335 0 0.0871552 0.996195
0.113016 0.0161451 0.330025 0 0 -1
-0.103163 0.145211 0.386922 0.0502811 -0.369933 0.927697
-0.13272 0.130862 0.334896 0.580289 -0.768622 0.269229
0.173909 0.123276 0.57963 -0.269559 -0.919087 0.287432
0.123332 0.0310515 0.361532 0 0 1
-0.121514 0.135366 0.569154 0.269559 -0.919087 0.287432
0.240083 -0.110509 0.501968 0.440021 -0.52827 0.726162
-0.00587476 0.00831374 0.0204789 0 0 -1
0.00906839 0.24915 0.0118148 0 0 1
0.0822375 0.146268 0.519831 -0.0779686 -0.971435 -0.224133
-0.0720253 0.147536 0.531983 0.0704265 -0.957625 0.279274
-0.0692694 -0.0556323 0.271535 -0.345772 -0.233661 -0.90876
-0.16133 0.148753 0.401488 0.661629 0 0.749831
0.12753 -0.152608 0.330025 0 0 -1
-0.0953171 -0.17833 0.355511 0 -0.492805 0.87014
-0.0891731 -0.14414 0.330025 0 0 -1
-0.0788219 0.106817 0.338793 0.0538949 -0.390655 0.918958
0.102785 0.15334 0.564121 0 -0.975535 0.219843
0.180726 0.120475 0.352675 -0.130806 -0.39298 0.910196
0.251271 -0.0033817 0.0126881 -0.0348994 0 -0.999391
0.0482081 0.163526 0.747577 0 -0.997962 -0.0638121
0.0199408 -0.0832187 0.361532 0 0 1
-0.00651688 0.109734 0.0313702 0 -0.0871551 -0.996195
0.120426 -0.113136 0.305784 0.345766 -0.233668 -0.90876
-0.0422464 0.0473803 0.274325 0.63953 0.76387 0.0866256
0.233551 0.0926859 0.380675 0 0.0633687 0.99799
0.0418523 0.00424764 0.361532 0 0 1
-0.14472 -0.167241 0.328132 0 0.302458 -0.953163
0.224451 -0.0282312 0.407916 0 0.358984 0.933344
-0.0653954 0.163342 0.752786 0 -0.996008 0.0892604
0.22695 -0.127889 0.49137 0 -0.799984 0.600022
-0.142142 0.138474 0.598436 0.269559 -0.919087 0.287432
-0.0216176 0.000830294 0.201973 -0.956858 0.290555 0
-0.0641041 -0.0355273 0.27763 0.280166 0.303114 0.91084
0.0473398 0.14281 0.479437 -0.0779529 -0.970023 -0.230173
-0.226355 0.10305 0.380017 0 0.0633687 0.99799
0.0796768 0.148538 0.448367 -0.0293217 -0.963919 -0.264578
0.00160272 -0.0189182 0.176649 0.23007 -0.973174 0
0.109346 0.163447 0.431707 -0.24414 -0.944305 -0.220642
0.156984 0.00811398 0.0272364 -0.0871551 0 -0.996195
0.0651892 0.167298 0.723634 0 -0.932206 -0.361928
0.0370936 -0.0303428 0.330025 0 0 -1
0.191595 -0.163411 0.329197 0 0.11031 -0.993897
0.103545 0.139421 0.473533 -0.244172 -0.944302 -0.220619
0.0111548 0.160891 0.656746 0 -0.983944 0.178479
0.239255 0.0876955 0.506418 0.482859 -0.0949674 -0.870533
-0.0735407 0.153692 0.492128 0.077912 -0.965829 -0.247194
0.129348 0.169203 0.782714 0 -0.922671 0.385588
-0.221124 0.0128452 0.394712 0 0.250952 0.968
-0.0238303 0.1769 0.364057 0.0901378 -0.594446 0.799067
0.154129 -0.00232816 0.361532 0 0 1
0.052685 0.135577 0.508175 -0.0779685 -0.971424 -0.224179
0.222119 0.124841 0.378634 0 0.0633687 0.99799
0.0597205 0.17096 0.372571 -0.119491 -0.96489 -0.2339
-0.183475 0.185202 0.708348 0 -0.928783 0.370624
-0.104268 0.167163 0.776588 0 -0.970689 0.240341
0.113947 0.143301 0.512947 -0.244103 -0.944925 -0.218016
-0.201743 -0.101064 0.35379 -1 0 0
0.0147961 0.179606 0.387845 -0.0295881 -0.971436 -0.23545
0.249293 -0.000650219 0.027139 -0.310372 -0.0617145 0.94861
0.217372 0.0804139 0.363598 0 -0.157427 -0.987531
0.0721542 -0.00473228 0.034658 0.0871552 0 0.996195
-0.22363 -0.123493 0.447015 0 -0.759337 -0.650698
0.222349 0.11784 0.47264 0 0.97466 0.22369
-0.0899774 0.200351 0.817066 0 0.768528 0.639816
-0.275346 0.00518445 1.10078e-17 -5.78232e-17 -1.39599e-16 -1
-0.199081 0.124152 0.470863 0.310767 -0.922435 -0.229212
0.222118 -0.0534949 0.506996 0 0.118227 -0.992987
-0.1109 0.149126 0.615324 0 -0.975538 0.219832
-0.175464 -0.031403 0.361532 0 0 1
0.0344734 -0.0358159 0.253138 0.351565 -0.243064 -0.904059
-0.103175 0.118373 0.376221 0.0502811 -0.369933 0.927697
0.000260768 0.0720482 0.0441551 0 0.0871559 0.996195
-0.216956 0.0399862 0.526563 0 0.0654203 0.997858
-0.00232594 0.0594384 0.330025 0 0 -1
0.0992523 0.176534 0.667041 0 -0.975535 0.219843
0.201744 -0.0197539 0.352441 1 0 0
0.197988 0.150012 0.368176 -0.306494 -0.920492 -0.242396
-0.156057 0.1369 0.386946 0.116401 -0.349705 0.929601
0.00152319 0.15175 0.606354 0 -0.983944 0.178479
0.138395 -0.0974235 0.330025 0 0 -1
-0.00268994 0.202457 0.0327458 0 0.0871559 0.996195
-0.216362 -0.0545403 0.525115 0 -0.118207 0.992989
-0.0310643 0.11626 0.340914 0 -0.396388 0.918083
0.0357233 0.150969 0.608283 -0.070544 -0.977482 0.198876
-0.238579 0.0643014 0.52283 -0.440189 0.0973779 0.892609
-0.162799 0.131282 0.507825 -0.820247 0 -0.572009
0.139912 0.14241 0.48792 -0.24414 -0.944305 -0.220642
0.237536 0.0612141 0.36803 0.440184 -0.141355 -0.886711
0.186303 0.14346 0.410073 -0.284318 -0.932098 -0.224404
0.144543 0.134928 0.513819 -0.256995 -0.933135 -0.251421
0.138864 0.0995848 0.316114 0.414829 0.410661 -0.811957
0.0643902 -0.0369526 0.278192 -0.280166 0.30311 0.910841
0.000527142 0.0191736 0.0872566 0.23007 0.973174 0
0.143595 0.0245467 0.361532 0 0 1
0.00626368 -0.255689 0.0125338 0 0.0348995 -0.999391
0.0367001 0.166483 0.449662 -0.0779718 -0.970021 -0.230172
-0.01494 0.13888 0.541924 0.0704077 -0.957613 0.279321
-0.0323657 0.0407756 0.260192 0.608331 0.787902 0.0956239
-0.036424 -0.0678723 0.361532 0 0 1
-0.0318306 -0.00480759 0.330025 0 0 -1
-0.02195 0.195617 0.80159 0 0.763297 -0.646048
-0.0945154 0.00641236 0.361532 0 0 1
0.015067 0.0213485 0.267315 0.0722836 -0.0112846 0.99732
0.0183105 0.167285 0.691997 0 -0.983944 0.178479
0.00922542 0.177475 0.412647 -0.0779718 -0.970021 -0.230172
-0.2419 -0.090278 0.434131 -0.482937 0.521757 0.703236
-0.234128 0.0761291 0.380233 0 0.157453 0.987527
-0.23885 0.126452 0.376278 -0.48285 0.0554971 0.873943
-0.148101 0.177028 0.746252 0 0.997961 0.0638297
0.0299144 0.145795 0.353666 0 -0.396388 0.918083
-0.00343588 0.0772579 0.0187648 0 -0.0348994 -0.999391
-0.130584 0.143666 0.387792 0.0502811 -0.369933 0.927697
-0.0100974 0.154344 0.387648 0 -0.375183 0.926951
0.0113639 -0.00869206 0.0204789 0 0 -1
0.0596079 0.154681 0.428211 -0.0293217 -0.963919 -0.264578
0.0871232 0.105224 0.338628 -0.0540224 -0.391579 0.918557
-0.249066 0.00630201 0.0173106 0 1 0
-0.160003 0.115262 0.537103 0.272623 -0.946039 0.175177
0.0540785 0.137612 0.549144 -0.070544 -0.977482 0.198876
0.0390182 0.172524 0.423417 -0.0779718 -0.970021 -0.230172
0.182468 -0.19386 0.323875 0 -0.617301 -0.786727
0.242122 0.122649 0.41664 0 -0.974923 -0.222542
-0.151896 0.161488 0.681174 0.269559 -0.919087 0.287432
0.135335 0.140872 0.549352 -0.269558 -0.919084 0.287442
-0.156462 0.00149274 0.361532 0 0 1
0.182734 0.12989 0.569691 -0.267846 -0.906649 0.325954
0.18508 0.169402 0.668753 0 -0.928783 0.370624
0.0591206 0.133427 0.379808 -0.0503835 -0.370686 0.927391
-0.173706 -0.00372902 0.0257733 -0.0871559 0 0.996195
0.0329963 0.0294719 0.330025 0 0 -1
-0.0609543 0.1492 0.452093 0.0778932 -0.96583 -0.247194
-0.0126105 -0.160591 0.361134 0 -0.102899 0.994692
-0.203326 -0.0794069 0.503849 0.533076 0.205192 -0.820808
0.0699395 0.15553 0.484563 -0.0779718 -0.970021 -0.230172
-0.0201967 0.00550954 0.180307 -0.956858 0.290555 0
0.199563 0.160673 0.654404 0 -0.92496 0.380065
-0.201885 0.068992 0.341322 1 0 0
0.226699 0.00437904 0.0135462 -0.0348994 0 -0.999391
-0.214875 0.133837 0.402937 0 0.97466 0.22369
-0.0934726 0.139128 0.481202 0.0778932 -0.96583 -0.247194
0.225537 0.0450358 0.37163 0 -0.157439 -0.987529
-0.180475 -0.15781 0.329819 0 0.11031 -0.993897
-0.0391514 0.170279 0.708503 0 -0.983944 0.178479
0.192698 0.173426 0.792781 0 -0.852964 0.521969
0.0220699 -0.168282 0.327802 0 0.302458 -0.953163
-0.161121 0.135186 0.605721 0.269559 -0.919087 0.287432
-0.157012 0.190094 0.794363 0 0.852892 -0.522087
-0.199298 0.168112 0.705 0 -0.928787 0.370614
0.00382045 0.0585641 0.0453348 0 0.0871559 0.996195
-0.202536 0.101756 0.376654 0.53312 0.0536172 0.844339
-0.00212766 0.0461341 0.0369345 0 -0.0871551 -0.996195
0.0514518 0.189988 0.81564 0 -0.656006 0.754756
-0.0280341 0.068711 0.329667 0 0 1
-0.0997211 0.074482 0.30541 0.255192 -0.39421 0.882879
0.0379983 0.169047 0.701712 0 -0.983944 0.178479
0.0904772 -0.00837309 0.330025 0 0 -1
0.184948 0.046263 0.361532 0 0 1
-0.183555 0.169603 0.676136 0 -0.92496 0.380065
0.110913 0.189581 0.793524 0 0.852892 -0.522087
-0.100937 0.00630201 0.019986 0 1 0
-0.219959 0.0502615 0.368404 0 -0.157427 -0.987531
-0.079153 0.0796693 0.329667 0 0 1
0.00255041 -0.0759781 0.0343234 0 0.0871559 -0.996195
-0.0434945 -0.014474 0.269516 -0.0130853 -0.0100016 0.999864
-0.0455053 -0.00147297 0.0464774 -0.087156 0 0.996195
-0.194502 0.121117 0.537347 0.272623 -0.946039 0.175177
-0.119558 0.165362 0.732233 0 -0.976528 -0.215389
0.145629 0.00194976 0.0377176 0.0871559 0 0.996195
0.162728 0.0606497 0.344959 0 1 0
-0.135583 -0.193514 0.341019 0 -0.800188 0.599749
-0.0782515 -0.0882466 0.330025 0 0 -1
0.0313771 -0.0536083 0.330025 0 0 -1
0.191528 0.0113869 0.330025 0 0 -1
0.0101281 -0.138526 0.0383391 0 -0.087156 0.996195
-0.0976903 0.167354 0.626307 0 -0.975535 0.219843
-0.127264 0.195307 0.820263 0 -0.656006 0.754756
-0.0465921 -0.0908282 0.361532 0 0 1
0.168477 -0.152276 0.330025 0 0 -1
0.0801834 -0.182793 0.352697 0 -0.660549 0.750783
0.0665182 0.0513971 0.361532 0 0 1
0.0463737 -0.058767 0.361532 0 0 1
-0.0213683 0.00165119 0.150952 -0.956858 0.290555 0
-0.201743 -0.0643453 0.343366 -1 0 0
-0.162613 0.150777 0.656976 0.269559 -0.919087 0.287432
-0.0300267 -0.0113191 0.361532 0 0 1
-0.259698 0.015139 0.0209974 0.0512461 0.808872 -0.585747
0.00309894 -0.280587 0.0118148 0 0 -1
0.00630201 0.223723 0.0145813 1 0 0
-0.0735838 0.163062 0.603727 0.0705636 -0.97748 0.19888
0.131865 0.131248 0.334155 -0.580326 -0.768593 0.269235
0.0618391 -0.0313653 0.330025 0 0 -1
-0.0784332 -0.106486 0.330025 0 0 -1
0.198545 -0.0490141 0.330025 0 0 -1
-0.00991972 0.081563 0.36169 0 0 1
0.0993804 0.161902 0.602111 0 -0.975535 0.219843
-0.0122098 0.164013 0.739955 0 -0.997962 -0.0638121
-0.1364 0.170357 0.785476 0 -0.922671 0.385588
-0.0116748 -0.196517 0.327513 0 -0.855955 -0.51705
-0.080112 0.162191 0.391489 0.0997239 -0.960852 -0.258491
-0.00129818 0.16536 0.466661 0.0296044 -0.972557 -0.230774
0.00885463 0.178409 0.735244 0 0.976523 0.215415
0.101633 -0.004585 0.361532 0 0 1
-0.161948 0.073052 0.330808 0.0959181 -0.378105 0.92078
0.129307 0.137736 0.354915 -0.0531279 -0.390876 0.918909
0.102621 0.149299 0.616091 0 -0.975538 0.219832
0.200852 0.0473461 0.519095 -1 0 0
-0.097285 0.165178 0.412549 -0.832056 0 -0.554691
0.147539 0.0893863 0.367947 -0.0947469 -0.373493 0.922781
-0.0825573 0.0747108 0.36169 0 0 1
-0.282303 0.00265513 0.0148748 -0.975312 0.194239 0.105063
0.201744 -0.065619 0.354076 1 0 0
-0.0459119 0.135029 0.512906 0.0779692 -0.971424 -0.224179
0.117954 0.176652 0.667564 0 -0.975535 0.219843
0.0234455 0.0993513 0.333614 0 -0.396388 0.918083
-0.0506134 0.00146316 0.251209 -0.424656 0 -0.905355
-0.17441 0.167768 0.77903 0 -0.970689 0.240341
0.244999 -0.0165322 0.00849226 -0.150129 -0.224761 0.962779
-0.207606 -0.0534673 0.509593 0.482902 0.103517 -0.869534
-0.0782245 -0.0391006 0.361532 0 0 1
-0.115413 -0.0937112 0.361532 0 0 1
0.189376 0.120805 0.528151 -0.250375 -0.929432 0.271052
-0.0192348 0.172366 0.63316 0 -0.983944 0.178479
0.152722 0.178118 0.684748 -0.269558 -0.919084 0.287442
-0.181171 -0.101757 0.361532 0 0 1
0.185913 0.177042 0.746027 0 0.997961 0.0638297
0.0416759 0.159052 0.650124 -0.070544 -0.977482 0.198876
0.0653038 0.0606497 0.342617 0 1 0
0.100195 0.143909 0.526661 -0.0691917 -0.957708 0.279298
-0.127068 -0.139375 0.361532 0 0 1
-0.0779554 0.198025 0.804435 0 0.763297 -0.646048
0.0160688 -0.127342 0.300421 0.0371126 0.654091 -0.755505
-0.250066 -0.0102818 0.0118148 0 0 -1
-0.0832771 0.176047 0.664879 0 -0.975535 0.219843
0.134049 -0.0193123 0.330025 0 0 -1
-0.0388248 0.156516 0.430484 0.0778932 -0.96583 -0.247194
-0.228391 -0.133272 0.475093 0 -0.993892 0.110356
-0.235348 -0.0151702 0.528231 -0.440182 0 0.897909
0.0762195 -0.0181746 0.361532 0 0 1
0.112573 -0.0812081 0.330025 0 0 -1
0.0993175 0.154061 0.415597 0.832057 0 -0.55469
0.18454 -0.134632 0.361532 0 0 1
-0.0968112 0.164184 0.381572 0.119488 -0.96489 -0.2339
0.00647269 0.00436758 0.220715 0 0 1
-0.017905 -0.010561 0.185663 -0.661621 -0.749839 0
0.12322 0.137161 0.576492 -0.269559 -0.919087 0.287432
-0.179874 -0.0846327 0.330025 0 0 -1
0.239012 -0.000787225 0.395831 0.482917 0.21975 0.847644
0.173587 0.138262 0.447777 -0.284318 -0.932098 -0.224404
-0.187961 0.162515 0.651496 0 -0.928783 0.370624
-0.0990217 0.163552 0.609435 0 -0.975535 0.219843
0.0535006 0.00395478 0.269569 0.0130854 -0.0100016 0.999864
0.0928365 0.177137 0.744548 0 0.997961 0.0638297
-0.0138357 -0.0141515 0.100657 -0.661621 -0.749839 0
0.17889 0.111039 0.335132 0.647088 -0.180834 -0.740659
-0.223252 0.0624118 0.509067 0 -0.108459 -0.994101
0.182169 0.130994 0.466259 -0.31075 -0.92244 -0.229213
0.0994719 0.13949 0.384424 -0.0503835 -0.370686 0.927391
0.0277549 -0.048028 0.361532 0 0 1
-0.232066 0.14099 0.374318 0 1 0
0.134394 0.158615 0.657433 0 -0.975538 0.219832
0.140755 0.154822 0.379836 -0.223628 -0.946284 -0.233533
-0.104531 -0.118993 0.3044 -0.159321 -0.422475 -0.892262
-0.100561 0.163812 0.758026 0 -0.996008 0.0892604
0.124695 -0.131558 0.330025 0 0 -1
0.0147647 0.138362 0.350457 0 -0.396388 0.918083
0.0845909 0.042069 0.361532 0 0 1
-0.16975 0.0606497 0.341769 0 1 0
0.159706 -0.0681273 0.330025 0 0 -1
0.0412074 -0.190374 0.345209 0 -0.800188 0.599749
0.0219677 -0.018061 0.330025 0 0 -1
0.221187 0.0194217 0.376733 0 -0.250957 -0.967998
0.0596248 0.148113 0.452926 -0.0779529 -0.970023 -0.230173
-0.038094 0.164379 0.373689 0 -1 0
-0.0980708 -0.0566194 0.361532 0 0 1
0.18745 0.0390863 0.330025 0 0 -1
-0.147157 -0.146048 0.330025 0 0 -1
0.109434 0.17502 0.369473 -0.22363 -0.946292 -0.233499
-0.102257 0.141569 0.581786 0 -0.975538 0.219832
0.105938 0.141806 0.582838 0 -0.975538 0.219832
0.216193 -0.113313 0.436502 0 -0.595826 -0.803114
-0.221654 0.119694 0.360809 0 -0.0633517 -0.997991
-0.0907941 0.160821 0.457505 0.13606 -0.964716 -0.225411
0.0154312 -0.253255 0.0219646 0.808872 0.0512467 -0.585747
-0.0451954 0.150078 0.533965 0.0689113 -0.955531 0.286727
0.186631 0.146693 0.6453 0 -0.924962 0.38006
-0.0042155 0.135424 0.527778 0.0689134 -0.955547 0.286671
-0.138693 0.163681 0.756567 0 -0.996008 0.0892604
0.0382786 0.0606497 0.337632 0 1 0
0.184256 0.184659 0.706989 0 -0.928783 0.370624
0.0241828 0.0315236 0.361532 0 0 1
0.101284 0.177858 0.76407 0 0.970699 -0.240297
0.114127 0.0573583 0.291657 0.647088 -0.180834 -0.740659
0.00449669 0.0182351 0.161924 0.23007 0.973174 0
