0.0625663 -0.078608 0.377924 0 0 1
-0.0831933 -0.0279539 0.3438 0 0 -1
0.0351554 0.204623 0.716328 -0.0141117 -0.927739 0.372963
0.189817 -0.0462115 0.3438 0 0 -1
-0.039448 0.211334 0.0158355 0 0 1
-0.19626 -0.157919 0.3438 0 0 -1
-0.154375 0.221848 0.00959162 0 0.6547 -0.755889
-0.0878567 -0.039629 0.377924 0 0 1
-0.0784189 0.134796 0.473695 0.0779065 -0.965828 -0.247198
0.0325218 -0.0240348 0.377924 0 0 1
0.255359 -0.114588 0.548604 0 -0.642136 0.766591
-0.0749666 0.161203 0.393602 0.13468 -0.990889 0
-0.23594 -0.157689 0.499084 0 -0.910931 0.412559
-0.151528 0.152523 0.634785 0.265036 -0.891545 0.367292
0.231789 -0.173821 0.0278716 0.921869 0.190231 0.337593
-0.213189 0.104583 0.632166 0.300942 -0.885726 0.353444
0.15936 -0.155128 0.3438 0 0 -1
-0.02573 -0.00773427 0.3438 0 0 -1
-0.0643132 0.0721948 0.343412 0 0 1
0.141089 0.133995 0.370346 -0.0531275 -0.390874 0.91891
0.0587665 0.168077 0.455789 -0.0293238 -0.963918 -0.26458
-0.233802 0.00645623 0.570762 0 0.0871544 0.996195
-0.120563 0.0109438 0.3438 0 0 -1
-0.184657 0.172661 0.707927 0.300917 -0.885734 0.353447
-0.0295697 -0.136192 0.377924 0 0 1
0.233634 -0.143486 0.489537 0.922799 -0.334507 0.191173
0.214379 -0.152547 0.440493 -0.923832 0.379074 -0.0532756
-0.171004 0.202515 0.0135353 0 -0.654702 0.755887
-0.181216 0.18257 0.761932 0.113622 6.62206e-06 0.993524
-0.230452 0.191365 0.00269739 -0.38266 -1.03167e-06 -0.923889
0.0466212 0.0651146 0.343412 0 0 1
-0.181941 0.0516118 0.346423 0 1 0
-0.0332761 0.147688 0.436272 0.0295881 -0.972557 -0.230775
0.209695 -0.168226 0.3438 0 0 -1
-0.139833 0.165837 0.658664 0.265036 -0.891545 0.367292
0.119665 0.0576733 0.378096 0 0 1
-0.0917662 0.186729 0.395379 -0.123064 0.932606 0.339265
-0.216235 0.148964 0.40736 0.702772 0.34615 0.621523
0.0193105 -0.0962301 0.3438 0 0 -1
-0.0864339 0.141713 0.57116 0.0704052 -0.957613 0.279323
-0.0616142 0.19929 0.0107418 0 -0.654702 0.755887
0.155797 0.0982141 0.562697 -0.247936 -0.948564 -0.196863
0.0628988 0.147866 0.652214 -0.0694276 -0.919123 0.387804
-0.0204031 -0.227446 0.344357 0 -0.935128 -0.35431
-0.192393 -0.0353631 0.3438 0 0 -1
0.0338615 -0.0931181 0.377924 0 0 1
-0.119584 0.141634 0.654897 0.233279 -0.902861 0.361142
0.00346817 0.143764 0.402436 0 -0.375196 0.926946
-0.227666 0.125472 0.601684 0.25079 0.899502 -0.357773
0.0633096 0.147985 0.371793 -0.054024 -0.391578 0.918558
0.202366 0.0516118 0.351612 0 1 0
0.029735 0.124579 0.527853 -0.0779658 -0.970022 -0.230173
0.0697589 0.0535669 0.343412 0 0 1
-0.128275 0.153957 0.384795 0.13468 -0.990889 0
-0.166588 -0.141438 0.377924 0 0 1
0.218243 -0.112709 0.3438 0 0 -1
0.17345 -0.0363998 0.377924 0 0 1
-0.132577 -0.219747 0.360468 0 -0.857681 0.514182
-0.215242 -0.00707725 0.563382 0 -0.087154 -0.996195
-0.249699 0.0888431 0.563555 0 0.0871544 0.996195
0.0629803 0.133192 0.617449 -0.0694276 -0.919123 0.387804
0.21838 0.136264 0.432604 -0.986982 0.151132 0.0550081
-0.138814 0.183868 0.702523 0.233307 -0.902854 0.36114
-0.152365 0.101434 0.551811 0.251465 -0.943087 -0.217606
0.245588 0.11935 0.593455 0.686736 0.675439 -0.268656
-0.191561 0.0161163 0.3438 0 0 -1
0.0205252 0.120737 0.579252 -0.070384 -0.95544 0.286671
0.111617 0.0777055 0.344675 -0.054024 -0.391578 0.918558
-0.225399 -0.195031 0.0691332 -0.377926 0.925377 0.0291253
-0.215803 0.127614 0.64781 1 0 0
-0.194748 0.126361 0.671039 0.300942 -0.885726 0.353444
-0.195556 0.137146 0.62923 0.265036 -0.891545 0.367292
-0.243866 -0.0336049 0.564628 0 0.0247774 -0.999693
-0.0449564 -0.0145664 0.377924 0 0 1
0.242576 0.148616 0.710197 0.686782 -0.6754 0.268637
0.128801 0.132489 0.402059 -0.0503854 -0.370699 0.927385
0.231962 0.202284 0.0170436 0.923894 0 0.382648
0.182811 -0.156464 0.377924 0 0 1
-0.248229 -0.169144 0.468684 2.29338e-05 -0.979852 0.199724
0.00952451 0.186512 0.39408 -0.0293238 -0.963918 -0.26458
-0.232851 -0.0702789 0.0064323 -0.923895 -2.4913e-06 -0.382647
0.0323202 0.0516118 0.353784 0 1 0
-0.216904 -0.142984 0.461731 0.380202 0.892341 -0.243258
0.218509 0.00389327 0.345741 1 0 0
0.206023 0.133091 0.626953 -0.300911 -0.885737 0.353443
0.0346495 0.149294 0.371763 0 -0.396386 0.918084
0.139166 0.121563 0.619048 -0.265029 -0.891545 0.367297
-0.0284174 0.186093 0.669981 0.0141123 -0.927739 0.372963
0.0508787 0.127028 0.600674 -0.0694276 -0.919123 0.387804
0.0367497 0.201525 0.752437 0 0 1
0.0960354 0.04693 0.377924 0 0 1
-0.227639 0.108427 0.608087 0 -0.929197 0.369585
-0.105138 0.174431 0.729312 0.131089 -0.920465 0.368184
-0.0166055 -0.172013 0.377924 0 0 1
-0.216299 0.0983566 0.00336668 0.923895 2.4913e-06 -0.382647
0.107135 -0.018774 0.3438 0 0 -1
0.218509 -0.201305 0.346437 1 0 0
-0.216132 0.0128614 0.544013 0.923901 -0.0333414 -0.381177
-0.164876 0.129475 0.539442 0.244501 -0.934016 -0.26045
0.209392 0.219635 0.0136531 0 0.654702 0.755887
-0.0241911 0.109011 0.354371 0 -0.396386 0.918084
0.165092 0.148953 0.380792 -0.134682 -0.990889 0
-0.122561 -0.107552 0.3438 0 0 -1
0.040897 -0.0165793 0.3438 0 0 -1
-0.23438 -0.152255 0.458975 -0.922804 -0.371706 0.101323
0.218509 -0.12261 0.374484 1 0 0
-0.231547 -0.153603 0.399095 -0.923875 0.378971 -0.05326
0.220864 -0.180006 0.331717 -0.382815 -0.914835 0.128569
-0.153726 0.10191 0.357528 0.0959138 -0.378102 0.920782
0.218022 0.144087 0.674072 -0.986972 0.149498 -0.0594626
-0.215086 -0.162925 0.0189895 0.921834 0.190274 0.337665
-0.170659 -0.0820689 0.377924 0 0 1
0.234322 0.0858594 0.00998231 0.923895 0 -0.382647
0.243372 -0.0967758 0.549062 0 0.455628 -0.89017
0.121586 0.100049 0.388729 -0.0510099 -0.369731 0.927738
0.234472 0.134425 0.454021 0.713573 0.658331 0.239614
-0.112113 0.141551 0.37187 0.0532333 -0.391657 0.91857
-0.106832 0.168609 0.385962 0.118075 -0.798217 -0.590684
-0.235269 0.146486 0.712264 -0.279524 -0.892157 0.354855
0.232206 -0.0526278 0.0164534 0.923894 0 0.382648
0.0792841 -0.03434 0.377924 0 0 1
0.227242 0.137434 0.62789 -0.377218 0.86055 -0.342287
-0.117246 -0.170426 0.34293 5.5797e-07 -0.250309 0.968166
0.0174262 -0.0132565 0.377924 0 0 1
0.0071377 0.158769 0.601353 -0.0694111 -0.919122 0.38781
-0.125362 0.202949 0.00741624 0 -0.6547 -0.755889
-0.161808 -0.16515 0.377924 0 0 1
0.00363283 0.0434548 0.377924 0 0 1
-0.00990728 0.21556 0.742577 0.0141123 -0.927739 0.372963
0.141812 0.176391 0.685767 -0.233315 -0.902853 0.361139
-0.213276 -0.0739744 0.563792 1 0 0
-0.04111 0.0516118 0.367798 0 1 0
0.0568493 0.181131 0.729972 -0.0694276 -0.919123 0.387804
-0.044266 -0.180265 0.335391 0 -0.861585 0.507614
0.079736 0.155606 0.673574 -0.0694276 -0.919123 0.387804
-0.213429 0.0304354 0.549767 0.923898 0.0333461 0.381183
0.123283 -0.171029 0.3438 0 0 -1
0.238945 0.139224 0.691113 0.279563 -0.892146 0.354851
-0.213482 -0.202492 0.107846 0.923868 -0.378985 0.0532632
0.109207 0.141871 0.546847 -0.0779835 -0.971421 -0.224187
-0.207881 -0.0030131 0.3438 0 0 -1
-0.188355 -0.167862 0.377924 0 0 1
-0.233705 -0.190677 0.203894 -0.923895 -0.378922 0.0532542
0.0438608 0.218032 0.0150408 0 0.654702 0.755887
-0.24325 0.170836 0.716917 -0.686812 0.675373 -0.268626
0.00910917 -0.0278091 0.3438 0 0 -1
-0.072448 -0.22116 0.358112 0 -0.857681 0.514182
0.217671 0.0508572 0.566878 0 0.0871544 0.996195
-0.235571 0.0954396 0.519723 -0.493301 -0.817399 -0.29751
0.247151 0.11482 0.607884 0.960413 -0.258854 0.102959
-0.223975 0.0736212 0.0213131 -0.382664 -1.03186e-06 0.923887
-0.213998 -0.0979027 0.377924 0 0 1
-0.170304 0.193462 0.747835 0.300917 -0.885734 0.353447
0.113133 0.156759 0.618158 -0.233315 -0.902853 0.361139
-0.221627 0.215711 0.0203694 0.382707 1.03178e-06 0.92387
0.0486512 0.174226 0.394821 -0.0269175 -0.873549 0.485992
-0.151528 0.0516118 0.356723 0 1 0
-0.20053 0.113489 0.643732 0.265035 -0.891542 0.3673
0.218509 -0.0274957 0.353761 1 0 0
-0.235653 -0.0568637 0.571938 0 -0.246415 0.969164
0.229473 -0.160243 0.344716 0.382664 0.914896 -0.128578
-0.00897149 0.150833 0.372427 0 -0.396386 0.918084
0.123144 0.142347 0.372861 -0.0531275 -0.390874 0.91891
0.0211876 0.163962 0.394366 0 -1 0
0.000957236 0.00900613 0.3438 0 0 -1
0.185995 0.0397435 0.3438 0 0 -1
-0.0798292 -0.115534 0.377924 0 0 1
0.0297298 0.155488 0.597619 -0.0694111 -0.919122 0.38781
0.0355317 0.166691 0.692015 -0.0141283 -0.92774 0.372959
-0.0287129 -0.191691 0.342399 -3.63313e-07 0.158991 -0.98728
-0.21657 0.0191671 0.377924 0 0 1
-0.234071 0.121536 0.00937859 -0.923895 -2.4913e-06 -0.382647
-0.0282642 0.163962 0.398781 0 -1 0
0.10761 0.209106 0.746498 -0.13109 -0.920465 0.368184
-0.0591863 0.104587 0.353042 0.0532333 -0.391657 0.91857
-0.174841 0.0852979 0.387454 0.0947496 -0.373513 0.922773
0.0150852 0.149454 0.546723 -0.0779643 -0.971444 -0.224095
-0.0738039 0.156969 0.675742 0.0694287 -0.919123 0.387804
0.0921636 0.0971606 0.38596 -0.0510099 -0.369731 0.927738
-0.0916231 0.137 0.458271 0.136074 -0.964715 -0.225408
-0.13601 0.144359 0.603771 0.265036 -0.891545 0.367292
0.215849 0.0896616 0.55045 -0.923838 0.0333611 0.381327
-0.223789 0.0963512 0.578321 0.37715 -0.860577 0.342294
-0.186985 0.0958842 0.591225 0.265035 -0.891542 0.3673
-0.143669 0.203675 0.755177 0.233307 -0.902854 0.36114
-0.176899 0.145296 0.378312 0.315846 -0.94881 0
0.232269 -0.124947 0.521108 0.922799 -0.275977 0.268848
-0.051102 0.0053259 0.3438 0 0 -1
0.227333 -0.104362 0.521064 0.380068 0.662569 -0.645407
-0.215362 -0.0161757 0.00562902 0.923895 2.4913e-06 -0.382647
0.143903 0.0516118 0.359718 0 1 0
0.147378 0.10526 0.542295 -0.244109 -0.94492 -0.218029
0.0684007 0.00699705 0.377924 0 0 1
0.0123097 0.143692 0.453208 -0.0779658 -0.970022 -0.230173
0.0992263 0.173217 0.724171 -0.13109 -0.920465 0.368184
0.02791 -0.226783 0.348733 0 -0.857681 0.514182
-0.0301356 0.136069 0.61839 0.0694287 -0.919123 0.387804
-0.218508 -0.203671 0.372642 -1 -4.01372e-06 5.64147e-06
0.127336 0.117932 0.601699 -0.265029 -0.891545 0.367297
0.0478674 -0.171427 0.342671 5.5797e-07 -0.250309 0.968166
-0.00302455 -0.00296135 0.377924 0 0 1
0.00350595 0.142347 0.630247 -0.0141283 -0.92774 0.372959
-0.115511 -0.169228 0.377924 0 0 1
-0.139464 0.133827 0.54834 0.251452 -0.94309 -0.217606
-0.051492 0.216016 0.752437 0 0 1
0.211597 0.0949533 0.562985 0.403651 0 -0.914913
0.213836 -0.182536 0.25595 -0.923851 -0.379028 0.0532691
0.199994 0.148763 0.731645 -0.300942 -0.885728 0.353439
-0.0474275 0.134102 0.365204 0 -0.396386 0.918084
0.151233 -0.0683765 0.3438 0 0 -1
-0.0387264 0.0297595 0.3438 0 0 -1
-0.0409406 -0.185485 0.377581 0 -0.204662 0.978833
0.201588 0.0176863 0.377924 0 0 1
-0.0978616 -0.220428 0.359332 0 -0.857681 0.514182
0.113376 0.191625 0.70548 -0.233315 -0.902853 0.361139
0.0439754 0.159934 0.408981 0 -0.375196 0.926946
0.221301 -0.203209 0.167914 -0.382703 -0.91488 0.128578
0.00782639 0.125077 0.533175 -0.0779658 -0.970022 -0.230173
0.233563 -0.00855812 0.550283 0.923901 -0.0333453 -0.381176
0.0322889 0.144611 0.442569 -0.0779658 -0.970022 -0.230173
0.20033 0.0647651 0.38176 -0.0947484 -0.373513 0.922773
0.129526 0.105084 0.565272 -0.250381 -0.929429 0.271057
0.084363 0.182489 0.742061 -0.13109 -0.920465 0.368184
0.151327 0.0367752 0.3438 0 0 -1
0.23334 0.133625 0.00761138 0.923895 0 -0.382647
-0.237093 0.0577551 0.566274 0 0.0871544 0.996195
-0.0281725 0.0116851 0.377924 0 0 1
0.156918 -0.0777819 0.377924 0 0 1
-0.216222 -0.0325988 0.561005 0.9228 -0.015124 0.384982
0.23206 -0.0237837 0.547974 0.923901 -0.0333453 -0.381176
0.246525 0.166831 0.716636 0.960416 0.258847 -0.102956
-0.231995 0.159523 0.00436454 -0.923895 -2.49149e-06 -0.382647
0.233869 -0.205315 0.0585125 0.921876 -0.360776 -0.14137
-0.186268 -0.159892 0.331578 -2.15808e-06 0.968128 0.250457
-0.039919 -0.0466187 0.3438 0 0 -1
-0.0100155 0.130285 0.396981 0 -0.375196 0.926946
0.206978 0.154693 0.397811 -0.528109 0.202723 0.824624
-0.20132 0.153523 0.674154 0.300917 -0.885734 0.353447
-0.216796 -0.0975326 0.527184 0.380093 0.479837 -0.79075
0.136872 -0.159241 0.3438 0 0 -1
0.0739864 -0.22065 0.358963 0 -0.857681 0.514182
0.184851 -0.22357 0.337132 1.06395e-06 -0.465468 -0.885065
0.226516 0.0557191 0.537551 0.382609 -0.0805222 -0.920395
0.119042 0.116955 0.52356 -0.244146 -0.944305 -0.220639
-0.0275789 -0.0396327 0.377924 0 0 1
0.235055 0.151434 0.673058 0.713675 0.650882 -0.258885
-0.0046573 0.157286 0.667452 0.0141288 -0.92774 0.372959
-0.218809 -0.0962263 0.546824 0.38012 -0.479827 0.790744
0.0980803 -0.121061 0.377924 0 0 1
0.217548 0.205601 0.00264796 -0.382703 0 -0.923871
-0.103557 0.167218 0.442246 0.0997846 -0.960854 -0.258462
-0.219362 0.13839 0.670593 0.88808 -0.427142 0.169895
0.0956547 -0.163746 0.377924 0 0 1
0.151263 0.200828 0.752967 -0.233315 -0.902853 0.361139
0.237793 -0.0828128 0.565341 0 -0.246415 0.969164
-0.255931 -0.111377 0.540245 -1 0 0
-0.204009 -0.0855015 0.3438 0 0 -1
0.0343281 -0.195677 0.341757 -3.63313e-07 0.158991 -0.98728
0.0892771 0.137917 0.402081 -0.0503854 -0.370699 0.927385
-0.218662 0.118527 0.40069 1 0 0
0.1709 0.139344 0.616772 -0.265031 -0.891548 0.367288
0.0652841 0.0899123 0.347153 -0.054024 -0.391578 0.918558
0.013772 -0.187918 0.343006 -3.63219e-07 0.158991 -0.98728
0.018189 -0.139759 0.377924 0 0 1
0.091755 0.151828 0.421289 0.832055 0 -0.554693
-0.215765 0.0380337 0.00465574 0.923895 2.4913e-06 -0.382647
9.04426e-05 0.111392 0.355399 0 -0.396386 0.918084
0.231702 -0.151925 0.413718 0.923875 0.378971 -0.05326
-0.191074 -0.206737 0.371089 0 -0.579717 0.814818
0.0762556 0.194411 0.698596 -0.13109 -0.920465 0.368184
-0.0826997 0.0206033 0.377924 0 0 1
-0.0724502 0.142429 0.402987 0.0511324 -0.370625 0.927374
-0.23008 -0.198496 0.0312893 -0.377954 -0.6987 -0.607428
-0.218662 0.0967028 0.371778 1 0 0
-0.20825 0.16591 0.765023 0.113621 0 0.993524
0.108876 0.137083 0.637273 -0.13109 -0.920465 0.368184
-0.0884915 0.1143 0.574211 0.0704225 -0.957624 0.279279
0.167276 -0.0886285 0.3438 0 0 -1
-0.208888 0.134648 0.390027 0.315846 -0.94881 0
-0.217825 0.18426 0.755996 0.377192 0.860561 -0.342287
-0.14406 -0.142777 0.3438 0 0 -1
-0.0111947 0.166418 0.478806 0.0295878 -0.972556 -0.230781
0.166241 0.179646 0.760219 -0.113621 0 0.993524
0.0836101 0.178408 0.381552 -0.0805249 -0.351644 -0.932664
0.237856 0.113663 0.552942 0 0.99619 -0.0872066
-0.0184938 -0.0789294 0.377924 0 0 1
0.144928 0.0205334 0.377924 0 0 1
-0.16483 -0.0114437 0.3438 0 0 -1
-0.234102 -0.176517 0.297768 -0.923895 -0.378922 0.0532542
0.143025 0.134577 0.542123 -0.24411 -0.944911 -0.218069
-0.0141377 0.148256 0.436331 0.0295881 -0.972557 -0.230775
0.011658 0.0923636 0.381631 0 -0.375196 0.926946
-0.12862 0.124648 0.480034 0.244142 -0.944306 -0.220639
-0.2159 0.0904791 0.537785 0.923873 -0.0333514 -0.381242
0.115325 0.0400863 0.3438 0 0 -1
-0.0436095 0.121669 0.586673 0.0694287 -0.919123 0.387804
-0.00244077 -0.0932487 0.377924 0 0 1
0.149712 0.116693 0.50636 0.823505 0 -0.567309
0.0730695 0.174397 0.650193 -0.0694111 -0.919122 0.38781
0.140861 0.163334 0.653328 -0.265031 -0.891548 0.367288
0.0425798 -0.161992 0.327588 -1.92072e-06 0.861647 -0.507509
0.255931 0.0733594 0.562682 1 0 0
-0.226957 -0.202922 0.168833 -0.382556 -0.914941 0.128584
0.197237 -0.119387 0.377924 0 0 1
0.142888 0.0948322 0.353791 -0.0531275 -0.390874 0.91891
0.215095 -0.162199 0.359409 -0.923832 0.379074 -0.0532756
-0.102346 0.0953909 0.351646 0.0538954 -0.390652 0.918959
-0.213667 -0.156001 0.441851 0.923852 -0.379025 0.0532697
-0.234205 -0.000957526 0.553107 -0.923926 0.0333402 0.381115
-0.0140857 0.12628 0.527242 0.0779065 -0.965828 -0.247198
-0.0485615 0.163962 0.400666 0 -1 0
-0.0737886 -0.0768589 0.3438 0 0 -1
0.101311 0.158981 0.478836 -0.136058 -0.964717 -0.225408
0.0769094 0.13918 0.45649 -0.029324 -0.963916 -0.264586
-0.160212 -0.0803901 0.3438 0 0 -1
0.152204 -0.0312403 0.3438 0 0 -1
-0.0523876 0.17379 0.64505 0.0694122 -0.919123 0.387809
0.149841 0.0632461 0.343412 0 0 1
0.220107 0.147597 0.415023 -0.801259 0.485046 0.350308
0.0478975 0.0516118 0.364248 0 1 0
0.0995971 0.18094 0.67323 -0.13109 -0.920465 0.368184
-0.217905 0.0516118 0.345384 0 1 0
0.218509 -0.188537 0.370247 1 0 0
-0.12091 -0.0847168 0.3438 0 0 -1
0.20053 -0.227247 0.347958 0 -0.857681 0.514182
0.182757 0.0932813 0.575254 -0.27262 -0.946032 0.175218
-0.0292873 0.175166 0.43962 0.0295878 -0.972556 -0.230781
0.153327 0.0841091 0.384641 -0.116412 -0.349712 0.929596
-0.218508 -0.0800573 0.373664 -1 -4.01372e-06 5.64147e-06
-0.159482 0.10571 0.59523 0.265035 -0.891542 0.3673
-0.210054 0.176555 0.739308 0.300917 -0.885734 0.353447
-0.045759 0.152987 0.373357 0 -0.396386 0.918084
0.217542 0.150725 0.699622 1 0 0
0.165412 0.106536 0.601513 -0.265029 -0.891545 0.367297
0.0357465 0.15886 0.499988 -0.0779486 -0.970021 -0.230179
0.14924 0.13171 0.578582 -0.272621 -0.946034 0.17521
0.218794 -0.11312 0.019196 -0.382707 0 0.92387
0.218509 -0.104722 0.36231 1 0 0
-0.242386 0.152888 0.669586 -0.686582 0.675571 -0.268716
-0.0553854 0.133176 0.487281 0.0779065 -0.965828 -0.247198
-0.0737959 0.143662 0.644202 0.0694287 -0.919123 0.387804
0.112106 0.177851 0.380531 -0.017478 0.205981 -0.9784
0.225101 -0.156592 0.501502 0 -0.910931 0.412559
0.00801848 -0.0511878 0.377924 0 0 1
0.21119 0.169153 0.76536 -0.113621 0 0.993524
-0.0470775 -0.129056 0.3438 0 0 -1
0.116922 0.139185 0.574028 -0.250369 -0.929419 0.271099
0.180435 0.138389 0.408456 -0.116412 -0.349712 0.929596
-0.116159 0.180951 0.680596 0.233307 -0.902854 0.36114
-0.232332 -0.0546769 0.0161466 -0.923894 -2.4913e-06 0.382648
0.122788 0.170809 0.659523 -0.233315 -0.902853 0.361139
0.03472 0.167086 0.465669 -0.0779486 -0.970021 -0.230179
0.0766237 -0.166885 0.3438 0 0 -1
-0.0274745 0.072382 0.343412 0 0 1
-0.0500635 0.0467753 0.3438 0 0 -1
0.0129168 -0.219407 0.361036 0 -0.857681 0.514182
-0.107246 -0.180101 0.3438 0 0 -1
-0.174727 0.125293 0.583594 0.272627 -0.946039 0.17517
-0.0163599 0.179919 0.724195 0.0141288 -0.92774 0.372959
-0.0188496 -0.119248 0.377924 0 0 1
-0.112352 0.11654 0.532736 0.244142 -0.944306 -0.220639
-0.0225318 -0.0593216 0.3438 0 0 -1
-0.15871 0.0312131 0.3438 0 0 -1
-0.0659862 0.165636 0.694883 0.0694287 -0.919123 0.387804
-0.0775569 -0.127992 0.3438 0 0 -1
-0.184902 0.162316 0.75276 0.300942 -0.885726 0.353444
-0.131264 -0.0327295 0.3438 0 0 -1
0.177678 0.152794 0.654311 -0.265031 -0.891548 0.367288
0.017338 0.128302 0.59769 -0.0694276 -0.919123 0.387804
-0.196635 0.0410546 0.377924 0 0 1
0.129537 -0.208357 0.335766 0 0.237786 -0.971318
0.0922322 0.114177 0.574817 -0.0691927 -0.957707 0.279304
0.207554 0.135092 0.402277 -0.31584 -0.948812 0
0.183772 0.116204 0.550709 0.403651 0 -0.914913
0.15988 -0.116443 0.377924 0 0 1
0.0579902 -0.182861 0.377924 0 0 1
0.186575 0.139829 0.62926 -0.265031 -0.891548 0.367288
0.138302 0.152738 0.625761 -0.265031 -0.891548 0.367288
-0.115894 0.148605 0.512069 0.244157 -0.944302 -0.220638
-0.0603807 -0.0386927 0.377924 0 0 1
0.0947577 -0.183707 0.377924 0 0 1
0.0531755 0.114027 0.390571 -0.0503854 -0.370699 0.927385
0.0325508 0.0288346 0.3438 0 0 -1
0.070889 0.215442 0.749263 -0.13109 -0.920465 0.368184
-0.136265 0.139392 0.660233 0.265035 -0.891542 0.3673
-0.0556693 0.0652671 0.378096 0 0 1
0.0082085 -0.149227 0.3438 0 0 -1
-0.171105 -0.0632592 0.3438 0 0 -1
-0.14476 -0.0814283 0.377924 0 0 1
0.237049 0.098507 0.572071 0.888079 -0.427142 0.169895
0.13217 0.144246 0.51272 -0.244146 -0.944305 -0.220639
0.218663 0.0594341 0.376075 -1 0 0
0.242614 0.164311 0.74956 0.686782 -0.6754 0.268637
0.160841 -0.128583 0.3438 0 0 -1
0.19001 -0.0879455 0.377924 0 0 1
0.0838939 -0.147215 0.3438 0 0 -1
0.233768 0.132441 0.676476 -0.160481 -0.917153 0.364797
-0.107994 0.0441119 0.377924 0 0 1
-0.237772 0.118403 0.639687 -0.279637 -0.892128 0.354839
-0.0132696 0.0294736 0.3438 0 0 -1
0.228735 -0.0479664 0.561953 0.379995 -0.03631 0.924275
-0.143848 -0.0659537 0.3438 0 0 -1
0.1719 0.221154 0.00899021 0 0.6547 -0.755889
-0.180411 0.1221 0.552258 0.247923 -0.948562 -0.196885
-0.0139259 0.175223 0.642392 0.0141123 -0.927739 0.372963
0.0431457 -0.101503 0.3438 0 0 -1
-0.0430824 0.143263 0.45175 0.0779065 -0.965828 -0.247198
0.131396 0.199296 0.0105805 0 -0.6547 -0.755889
-0.239216 -0.164496 0.484053 0 -0.910931 0.412559
-0.0205503 0.0602828 0.378096 0 0 1
-0.0903154 0.120794 0.592961 0.0694287 -0.919123 0.387804
0.0587295 0.184793 0.672264 -0.0694111 -0.919122 0.38781
0.221936 0.217604 0.000830087 -0.382703 0 -0.923871
-0.0503139 0.143715 0.55934 0.0779849 -0.971442 -0.224094
0.244815 -0.0650399 0.569859 0 -0.246415 0.969164
0.218509 -0.0540314 0.360518 1 0 0
0.0649093 -0.133242 0.3438 0 0 -1
-0.023653 0.156838 0.514825 0.0778979 -0.965828 -0.247201
-0.224983 -0.166286 0.43539 -0.382772 -0.914852 0.128577
-0.230902 -0.177429 0.338482 -0.382772 -0.914852 0.128577
0.00685941 0.204621 0.00596821 0 -0.6547 -0.755889
-0.0514971 0.136737 0.623796 0.0694287 -0.919123 0.387804
-0.237589 -0.125655 0.539334 0 -0.64212 0.766604
-0.190719 0.109909 0.627962 0.265035 -0.891542 0.3673
-0.102626 0.0709014 0.378096 0 0 1
-0.223672 -0.173433 0.235193 0.382604 0.914921 -0.128587
0.0295879 0.119185 0.392488 0 -0.375196 0.926946
-0.0779981 0.180835 0.735659 0.131089 -0.920465 0.368184
0.233889 0.109806 0.477467 0.493362 -0.817365 -0.297505
0.185252 0.115475 0.637527 -0.265029 -0.891545 0.367297
-0.145896 0.176553 0.394685 -0.171949 0.58702 0.791101
0.23281 -0.165545 0.0106204 0.921888 -0.190203 -0.337557
-0.0824943 -0.0782996 0.377924 0 0 1
-0.189123 -0.124749 0.3438 0 0 -1
-0.1719 0.169097 0.377047 0.0289738 0.208401 -0.977614
0.103588 0.00397265 0.377924 0 0 1
0.0214332 0.17473 0.711479 -0.0141283 -0.92774 0.372959
0.222221 0.185638 0.754615 -0.377218 0.86055 -0.342287
0.202261 -0.195016 0.375588 0 -0.204662 0.978833
0.217542 0.174718 0.7434 1 0 0
-0.021995 0.154097 0.660174 0.0141288 -0.92774 0.372959
-0.218508 -0.120208 0.354617 -1 -3.56797e-06 0
-0.00657298 0.182544 0.401519 -0.0170799 0.0795878 0.996682
0.218663 0.101449 0.38376 -1 0 0
-0.172047 -0.206965 0.370926 0 -0.579717 0.814818
-0.131056 -0.0969492 0.377924 0 0 1
0.150021 -0.222243 0.356305 0 -0.857681 0.514182
0.136565 -0.107329 0.3438 0 0 -1
-0.22044 0.161663 0.734354 0.493354 -0.808242 0.321476
0.226923 -0.205972 0.0395221 0.377817 -0.86206 -0.337798
-0.175165 0.154486 0.72494 0.265035 -0.891542 0.3673
0.10072 0.111821 0.558021 -0.0779749 -0.971431 -0.224146
0.2345 0.0511659 0.558287 0 -0.087154 -0.996195
-0.231851 0.145686 0.0173094 -0.923894 -2.4913e-06 0.382648
-0.125658 0.133962 0.639642 0.233279 -0.902861 0.361142
0.246956 -0.0321331 0.564664 0 0.0247774 -0.999693
0.225448 -0.0294361 0.000624428 0.38266 0 -0.923889
-0.0561684 0.173549 0.439287 0.0778979 -0.965828 -0.247201
0.203465 -0.0820971 0.3438 0 0 -1
0.105557 -0.0711797 0.377924 0 0 1
0.0139137 0.210381 0.752437 0 0 1
0.00981735 0.135867 0.487029 -0.0779658 -0.970022 -0.230173
-0.160647 0.147416 0.697302 0.265035 -0.891542 0.3673
-0.057223 0.126645 0.512222 0.0779065 -0.965828 -0.247198
0.159948 0.151156 0.705876 -0.265029 -0.891545 0.367297
-0.00598529 0.184233 0.664506 0.0141123 -0.927739 0.372963
0.00519355 -0.175979 0.377924 0 0 1
0.229585 0.183296 0.741415 -0.160151 0.917205 -0.364812
0.172484 0.0924369 0.390102 -0.0947484 -0.373513 0.922773
-0.238513 0.101186 0.571154 -0.888079 -0.427143 0.169893
-0.194978 0.139278 0.388541 0.315846 -0.94881 0
0.139722 -0.163066 0.325766 -1.92072e-06 0.861647 -0.507509
-0.110493 -0.212165 0.334834 0 0.237786 -0.971318
-0.208063 -0.151511 0.377924 0 0 1
0.164195 -0.154487 0.377924 0 0 1
0.0167786 -0.12492 0.3438 0 0 -1
0.0604732 0.0494456 0.377924 0 0 1
0.0287714 -0.122711 0.377924 0 0 1
0.118527 0.0804271 0.380741 -0.0510099 -0.369731 0.927738
-0.123598 0.0210734 0.377924 0 0 1
0.222443 -0.0139285 0.0207077 -0.382707 0 0.92387
0.213586 -0.0728657 0.54848 -0.922749 -0.111077 0.369047
0.108461 -0.0506605 0.3438 0 0 -1
-0.234089 -0.0232962 0.00942118 -0.923895 -2.4913e-06 -0.382647
0.0739948 0.119651 0.533628 -0.0779658 -0.970022 -0.230173
-0.0778491 0.164289 0.62709 0.0694122 -0.919123 0.387809
-0.177184 0.0728955 0.348057 0.0959138 -0.378102 0.920782
0.164368 0.170413 0.377551 -0.028985 0.208364 -0.977622
0.135055 -0.195544 0.375478 0 -0.204662 0.978833
-0.0211071 0.117978 0.570093 0.0689138 -0.955538 0.286701
-0.0999503 -0.138588 0.3438 0 0 -1
0.134001 0.00316647 0.377924 0 0 1
-0.160617 -0.100093 0.3438 0 0 -1
-0.141379 0.194456 0.730651 0.233307 -0.902854 0.36114
-0.0764315 0.219467 0.00752963 0 0.6547 -0.755889
0.220298 0.0966595 0.53106 0.000275589 0.342061 -0.939678
-0.0891885 -0.0955979 0.377924 0 0 1
-0.151452 0.166482 0.737602 0.233279 -0.902861 0.361142
-0.220414 -0.0357384 0.544681 0.380034 0.0363201 -0.924259
0.217542 0.162605 0.728417 1 0 0
-0.216207 -0.164023 0.327129 0.92385 0.379029 -0.0532681
-0.0373244 0.166913 0.626058 0.0694122 -0.919123 0.387809
-0.0822674 -0.0208952 0.377924 0 0 1
0.102481 -0.0343803 0.377924 0 0 1
0.220316 -0.172743 0.381763 -0.382815 -0.914835 0.128569
-0.0353435 0.215535 0.743478 0.0141123 -0.927739 0.372963
-0.133242 0.171006 0.379521 0.133666 -0.341556 -0.930308
-0.215763 -0.163105 0.341354 0.92385 0.379029 -0.0532681
-0.0215538 0.152487 0.41755 0.0295881 -0.972557 -0.230775
0.180584 0.170027 0.698239 -0.265031 -0.891548 0.367288
0.0274043 0.185143 0.667579 -0.0141117 -0.927739 0.372963
-0.231251 0.115244 0.509928 -0.250885 0.909638 0.331082
-0.0981878 0.144987 0.584985 0.0694122 -0.919123 0.387809
0.228248 0.150379 0.0195433 0.382664 0 0.923887
-0.113124 0.15559 0.685615 0.233279 -0.902861 0.361142
-0.151823 0.176038 0.692077 0.265036 -0.891545 0.367292
0.181138 -0.160317 0.333225 -2.15808e-06 0.968128 0.250457
-0.107156 -0.0908913 0.377924 0 0 1
0.135655 -0.0561206 0.377924 0 0 1
0.0786453 0.0331192 0.377924 0 0 1
0.0885535 -0.0115293 0.3438 0 0 -1
-0.0250263 -0.0260586 0.3438 0 0 -1
-0.0230634 -0.10485 0.3438 0 0 -1
0.164013 0.132752 0.664137 -0.265029 -0.891545 0.367297
0.232732 -0.190829 0.154762 0.923894 0.378925 -0.0532547
-0.165412 0.113097 0.529151 -0.8235 0 -0.567316
-0.0531277 -0.207736 0.336022 0 0.439224 -0.898378
-0.218509 0.0379058 0.362435 -1 -3.56797e-06 0
0.217542 0.122496 0.637155 1 0 0
-0.0943521 0.189468 0.692682 0.131089 -0.920465 0.368184
0.139653 -0.0837224 0.377924 0 0 1
0.15191 -0.0975414 0.377924 0 0 1
-0.159848 0.180963 0.709822 0.265036 -0.891545 0.367292
-0.1317 0.0989155 0.388848 0.050282 -0.369944 0.927693
-0.233132 -0.11069 0.00711133 -0.923895 -2.4913e-06 -0.382647
0.220441 -0.21313 0.0947649 -0.382703 -0.91488 0.128578
-0.0247569 0.12666 0.595125 0.0694287 -0.919123 0.387804
-0.0855436 0.124883 0.510179 0.0779065 -0.965828 -0.247198
-0.160859 0.100102 0.578009 0.272627 -0.946038 0.175174
0.0840765 0.127021 0.499989 -0.029324 -0.963916 -0.264586
-0.0589839 0.144201 0.443072 0.0779065 -0.965828 -0.247198
-0.218508 -0.114734 0.374745 -1 -4.01372e-06 5.64147e-06
0.219131 -0.096228 0.0019922 -0.382703 -5.53917e-17 -0.923871
-0.120886 0.124576 0.613174 0.265035 -0.891542 0.3673
-0.238019 0.141021 0.696357 -0.279524 -0.892157 0.354855
-0.0182228 0.219894 0.0134282 0 0.654702 0.755887
-0.0655177 0.124066 0.395266 0.0511324 -0.370625 0.927374
-0.134768 -0.205081 0.372267 0 -0.579717 0.814818
-0.184969 0.0516118 0.368632 0 1 0
-0.099363 0.213433 0.754378 0.131089 -0.920465 0.368184
0.135507 0.146734 0.677933 -0.233283 -0.90286 0.361142
0.127108 -0.221448 0.35763 0 -0.857681 0.514182
0.151081 0.155175 0.6409 -0.265031 -0.891548 0.367288
-0.122823 -0.172261 0.322443 0 -0.507468 -0.86167
0.0767982 0.168887 0.450836 -0.0293238 -0.963918 -0.26458
0.213536 0.0494614 0.548363 -0.923855 0.033355 0.381287
-0.233158 0.0664058 0.0071734 -0.923895 -2.49149e-06 -0.382647
-0.104804 -0.10454 0.3438 0 0 -1
-0.237886 0.176218 0.743175 -0.713503 0.651043 -0.258953
-0.134881 0.215699 0.0158355 0 0 1
0.215969 0.0142951 0.557333 -0.923838 0.0333611 0.381327
-0.0229316 -0.174808 0.3438 0 0 -1
-0.0461718 0.117497 0.5524 0.0779761 -0.971424 -0.224177
-0.000555253 0.168466 0.695106 0.0141288 -0.92774 0.372959
0.0910105 0.188873 0.690005 -0.13109 -0.920465 0.368184
-0.210299 0.109647 0.562413 -0.403651 0 -0.914913
0.180952 -0.195308 0.375527 0 -0.204662 0.978833
0.0954186 0.158148 0.615681 -0.0694111 -0.919122 0.38781
0.221725 -0.168 0.474292 0 -0.979852 0.199724
0.0835361 -0.0775928 0.3438 0 0 -1
-0.225045 -0.163183 0.486951 0 -0.910931 0.412559
0.0257841 -0.162654 0.3438 0 0 -1
0.229821 -0.184327 0.292623 0.382772 -0.914852 0.128574
0.0758334 -0.226583 0.34208 0 -0.935128 -0.35431
-0.0762257 -0.16731 0.342395 -1.13114e-06 0.507523 0.861638
0.105854 0.132961 0.466966 -0.136075 -0.964715 -0.225408
0.131694 0.115023 0.395252 -0.0510099 -0.369731 0.927738
-0.124731 0.0646487 0.343412 0 0 1
-0.146822 0.130088 0.502165 -0.8235 0 -0.567316
-0.216544 -0.167306 0.409223 0.3826 -0.914922 0.128587
-0.00981466 0.0746121 0.343412 0 0 1
-0.0961966 0.163615 0.628777 0.0694122 -0.919123 0.387809
0.215238 -0.173937 0.273404 -0.92385 0.379029 -0.0532681
-0.0716041 0.172085 0.711508 0.131089 -0.920465 0.368184
-0.0286314 -0.154004 0.377924 0 0 1
-0.228252 0.115176 0.625053 0 -0.929197 0.369585
0.104499 -0.0167223 0.377924 0 0 1
0.0669616 -0.010694 0.377924 0 0 1
0.0198651 0.185559 0.38329 -0.00586634 0.204616 -0.978825
0.139816 0.0973503 0.388656 -0.0510099 -0.369731 0.927738
-0.176574 0.158789 0.392175 0.0290081 -0.468812 0.882822
0.166393 0.112742 0.530574 0.823505 0 -0.567309
0.133191 0.137566 0.482378 0.823505 0 -0.567309
-0.150296 -0.0059552 0.377924 0 0 1
0.234487 0.0180917 0.0109467 0.923894 0 0.382648
0.213877 -0.182416 0.0271684 -0.921828 0.292521 0.254291
-0.0186958 0.144524 0.63638 0.0694287 -0.919123 0.387804
-0.0409506 0.174366 0.388548 0.0393959 -0.804655 -0.592434
0.191 0.163691 0.393734 -0.059663 -0.0341417 0.997635
-0.181352 -0.150684 0.377924 0 0 1
-0.215275 -0.00157715 0.01549 0.923851 2.49079e-06 0.382753
-0.153793 -0.179583 0.336549 0 -0.861585 0.507614
-0.0653853 0.0546433 0.343412 0 0 1
-0.217542 0.152211 0.719733 -1 0 0
0.111094 0.0602034 0.343412 0 0 1
-0.028405 0.133993 0.492593 0.0779065 -0.965828 -0.247198
0.079503 0.151417 0.596879 -0.0694111 -0.919122 0.38781
0.112854 -0.0800287 0.3438 0 0 -1
0.0908052 0.159528 0.686952 -0.13109 -0.920465 0.368184
0.12943 -0.124324 0.3438 0 0 -1
0.225546 0.1466 0.706588 -0.377144 -0.860582 0.342288
-0.148259 0.120418 0.398321 0.050282 -0.369944 0.927693
0.0470842 -0.0554121 0.3438 0 0 -1
-0.225594 0.13192 0.413151 0.368234 -0.881238 -0.296351
-0.227074 0.109951 0.533038 -0.382609 -0.0805249 -0.920395
0.133623 0.183883 0.699207 -0.233315 -0.902853 0.361139
-0.0711865 0.0516118 0.375952 0 1 0
0.156214 0.127052 0.644673 -0.265029 -0.891545 0.367297
0.153525 -0.17978 0.329779 0 -0.968173 -0.250281
0.111009 -0.105991 0.3438 0 0 -1
0.107355 -0.176813 0.3438 0 0 -1
-0.0432817 -0.0344779 0.377924 0 0 1
0.214471 0.085208 0.357552 -0.130817 -0.392985 0.910192
0.0223253 0.142376 0.401875 0 -0.375196 0.926946
0.250345 -0.169113 0.468829 0 -0.979852 0.199724
-0.121008 0.0874321 0.349357 0.0538954 -0.390652 0.918959
-0.00250533 0.179061 0.38487 0.0269011 -0.356706 -0.933829
-0.138228 0.0516118 0.371425 0 1 0
0.145599 0.0015885 0.3438 0 0 -1
0.213276 0.0750514 0.563021 -1 0 0
0.153133 0.166941 0.739836 -0.233283 -0.90286 0.361142
0.0780416 0.157723 0.491374 -0.0293238 -0.963918 -0.26458
-0.164995 0.127852 0.652953 0.265035 -0.891542 0.3673
0.180709 0.200824 0.0120706 0 -0.654702 0.755887
-0.0924658 0.0516118 0.377316 0 1 0
-0.235922 0.117528 0.590204 -0.713584 0.650967 -0.258919
0.234026 0.0370307 0.0120588 0.923894 0 0.382648
0.151468 0.131119 0.402755 -0.0510099 -0.369731 0.927738
-0.0678905 -0.0359025 0.3438 0 0 -1
0.190941 0.0869112 0.38976 -0.0947484 -0.373513 0.922773
0.0310525 0.156956 0.668056 -0.0694276 -0.919123 0.387804
0.116363 0.187099 0.755485 -0.0941266 0 0.99556
0.0155045 0.0981115 0.349665 0 -0.396386 0.918084
0.244903 0.100461 0.583177 0.686797 -0.675387 0.268631
-0.22887 -0.16003 0.00514941 -0.377883 -0.15759 -0.912343
0.184123 -0.122958 0.3438 0 0 -1
-0.255853 -0.0212912 0.564626 0 -0.087154 -0.996195
0.215466 -0.040053 0.0159491 -0.923851 0 0.382753
0.177377 -0.106939 0.3438 0 0 -1
0.2329 -0.205103 0.11523 0.923894 -0.378925 0.0532545
0.0488816 0.167958 0.630602 -0.0694111 -0.919122 0.38781
0.144123 0.210967 0.00549212 0 0 -1
-0.0857958 0.199161 0.713868 0.131089 -0.920465 0.368184
0.158446 0.0563729 0.378096 0 0 1
-0.159758 -0.149593 0.3438 0 0 -1
-0.0631837 0.127762 0.363155 0.0532333 -0.391657 0.91857
-0.218508 -0.143352 0.349677 -1 -3.56797e-06 0
-0.0986622 0.117819 0.394596 0.050282 -0.369944 0.927693
-0.218051 0.129064 0.446469 0.986982 0.151132 0.0550081
-0.0199703 0.169582 0.698618 0.0141288 -0.92774 0.372959
-0.170662 0.0510396 0.377924 0 0 1
-0.214977 -0.174349 0.274992 0.92385 0.379029 -0.0532681
-0.121152 0.154089 0.482781 0.244157 -0.944302 -0.220638
0.144255 0.222433 0.011229 0 0.654702 0.755887
0.233461 -0.0915133 0.0134233 0.923894 0 0.382648
0.203981 0.152433 0.37887 -0.0592583 -0.741763 -0.668039
0.0302707 -0.213532 0.366255 0 -0.579717 0.814818
0.132498 0.140298 0.529253 -0.244146 -0.944305 -0.220639
-0.111788 -0.0549916 0.377924 0 0 1
0.22865 0.0963855 0.559791 0 -0.369588 -0.929196
-0.00989072 0.119887 0.554661 0.0779761 -0.971424 -0.224177
-0.120416 0.168724 0.395376 0.0805309 -0.868909 0.488376
0.192472 0.156539 0.744727 -0.300942 -0.885728 0.353439
-0.176431 -0.228104 0.346093 0 -0.935128 -0.35431
-0.186567 0.00952138 0.377924 0 0 1
0.0609618 0.121087 0.5884 -0.0694276 -0.919123 0.387804
-0.223418 -0.210721 0.120771 0.382815 -0.914835 0.128569
-0.103195 0.144165 0.43845 -0.83206 0 -0.554686
-0.213249 -0.0645142 0.377924 0 0 1
-0.247942 0.115297 0.600302 -0.960542 0.258442 -0.102794
0.200062 -0.0575703 0.377924 0 0 1
-0.0471934 0.063452 0.343412 0 0 1
0.255931 0.0307605 0.563497 1 0 0
0.0980626 0.136002 0.368712 -0.0531275 -0.390874 0.91891
0.213679 -0.133228 0.504747 -0.922748 -0.334614 0.191233
0.231874 0.119981 0.496444 0.250802 0.909658 0.33109
0.118884 0.155234 0.405689 -0.134682 -0.990889 0
-0.2224 -0.178668 0.201732 0.382604 0.914921 -0.128587
-0.210818 0.121984 0.673754 0.300942 -0.885726 0.353444
-0.132546 0.13675 0.403982 0.050282 -0.369944 0.927693
-0.0569558 -0.180209 0.377924 0 0 1
-0.213276 0.0930982 0.557132 1 0 0
-0.15881 0.159958 0.3824 0.196305 -0.785318 -0.587146
0.191461 0.184753 0.763103 -0.113621 0 0.993524
-0.0702208 -0.12935 0.377924 0 0 1
0.224937 -0.0603963 0.57104 0 -0.246415 0.969164
-0.0106129 -0.0334672 0.377924 0 0 1
-0.0925194 -0.18037 0.332063 0 -0.968173 -0.250281
0.0797042 0.160559 0.406225 -0.134682 -0.990889 0
-0.0331008 0.138306 0.474264 0.0779065 -0.965828 -0.247198
-0.0261552 -0.220005 0.360039 0 -0.857681 0.514182
0.203286 -0.218018 0.334212 1.06395e-06 -0.465468 -0.885065
-0.0453255 0.154323 0.664373 0.0694287 -0.919123 0.387804
-0.255931 -0.0819516 0.563414 -1 0 0
-0.0039624 0.149815 0.578254 0.0689263 -0.955568 0.286598
-0.113127 0.202561 0.732663 0.233307 -0.902854 0.36114
-0.172892 -0.128713 0.3438 0 0 -1
-0.221614 -0.1879 0.138377 0.382604 0.914921 -0.128587
0.0601391 0.172436 0.439755 -0.0293238 -0.963918 -0.26458
-0.0711729 0.184333 0.400004 -0.0510967 0.0762312 0.99578
-0.07189 0.177839 0.658138 0.0694122 -0.919123 0.387809
-0.0621794 0.156157 0.394684 0.0997254 -0.960846 -0.258516
-0.056199 0.117387 0.576654 0.0704225 -0.957624 0.279279
-0.228055 -0.193149 0.106359 -0.382561 0.914939 -0.128584
-0.244668 0.0189886 0.569666 0 0.0871544 0.996195
-0.232537 0.0498623 0.00567442 -0.923895 -2.49149e-06 -0.382647
0.215751 -0.0709091 0.3438 0 0 -1
-0.0677481 0.147028 0.429265 0.0779065 -0.965828 -0.247198
-0.218509 -0.0427042 0.355445 -1 -3.56797e-06 0
-0.0677512 0.149742 0.528652 0.0778979 -0.965828 -0.247201
0.0981314 0.16622 0.635905 -0.13109 -0.920465 0.368184
0.100699 0.139327 0.56083 -0.0779835 -0.971421 -0.224187
0.182364 -0.18636 0.343257 -3.63313e-07 0.158991 -0.98728
0.18237 0.131735 0.674914 -0.265029 -0.891545 0.367297
0.0602766 0.178522 0.383411 -0.0269076 -0.356766 -0.933806
0.224638 -0.187278 0.137958 0.382772 0.914852 -0.128575
0.0178494 0.164199 0.483548 -0.0779486 -0.970021 -0.230179
-0.165484 -0.190831 0.342537 -3.63219e-07 0.158991 -0.98728
-0.0147329 0.151363 0.539026 0.0778979 -0.965828 -0.247201
0.234599 -0.142679 0.0107869 0.921878 0.0659526 0.381825
-0.131403 0.162212 0.643781 0.265036 -0.891545 0.367292
-0.0141277 0.0516118 0.358435 0 1 0
0.0843767 0.0963773 0.351032 -0.054024 -0.391578 0.918558
0.0294394 0.134944 0.365567 0 -0.396386 0.918084
0.201226 0.0422331 0.377924 0 0 1
0.0586218 -0.21713 0.363695 0 -0.579717 0.814818
-0.12583 -0.0690303 0.3438 0 0 -1
0.0630177 0.151441 0.413358 -0.029324 -0.963916 -0.264586
0.00790101 0.136388 0.615589 -0.0141283 -0.92774 0.372959
-0.199832 0.169719 0.713472 0.300917 -0.885734 0.353447
-0.0163211 0.110254 0.388873 0 -0.375196 0.926946
0.217779 0.0516118 0.346015 0 1 0
0.170418 -0.216104 0.33387 0 0.237786 -0.971318
-0.199306 0.129216 0.612687 0.265036 -0.891545 0.367292
-0.229798 0.0721081 0.537481 -0.382575 -0.080524 -0.920409
0.0363432 -0.132732 0.3438 0 0 -1
0.00151334 0.147425 0.441132 -0.0779658 -0.970022 -0.230173
-0.232035 -0.188492 0.248423 -0.923912 -0.378882 0.0532496
0.239892 -0.171742 0.455935 0 -0.979852 0.199724
0.100482 0.179755 0.740964 -0.13109 -0.920465 0.368184
-0.0835158 0.157323 0.494064 0.0778979 -0.965828 -0.247201
-0.00146265 0.189977 0.748648 0.0141288 -0.92774 0.372959
0.078506 -0.209523 0.335481 0 0.237786 -0.971318
0.180822 0.0975914 0.59092 -0.265029 -0.891545 0.367297
-0.133242 0.191214 0.757081 0.0941232 0 0.995561
0.0362436 0.170768 0.449636 -0.0779486 -0.970021 -0.230179
-0.19372 0.139532 0.70317 0.300942 -0.885726 0.353444
-0.191958 0.0351542 0.3438 0 0 -1
-0.105313 0.147597 0.66229 0.131089 -0.920465 0.368184
-0.219228 -0.196653 0.208395 0.3826 -0.914922 0.128587
0.218509 -0.185886 0.354169 1 0 0
0.247908 0.149121 0.687058 0.960413 -0.258854 0.102959
0.213421 0.0521587 0.0110128 -0.923851 0 0.382753
0.0439074 0.0839493 0.378226 0 -0.375196 0.926946
0.217038 -0.0548819 0.377924 0 0 1
-0.00190981 0.142777 0.460988 0.0295881 -0.972557 -0.230775
0.218702 -0.0175642 0.572864 0 0.0871544 0.996195
0.10551 -0.17 0.322688 0 0.250313 -0.968165
-0.115905 -0.104551 0.377924 0 0 1
0.0455335 0.155804 0.601198 -0.0694111 -0.919122 0.38781
-0.0514718 0.205119 0.719137 0.0694122 -0.919123 0.387809
0.148187 0.136786 0.526926 -0.244146 -0.944305 -0.220639
-0.0267897 0.166919 0.474447 0.0778979 -0.965828 -0.247201
0.215552 -0.152817 0.475602 -0.922752 -0.371824 0.101368
0.158296 0.160489 0.659004 -0.265031 -0.891548 0.367288
-0.236386 0.098207 0.554171 0 -0.087154 -0.996195
0.12855 -0.132131 0.377924 0 0 1
0.219695 0.0997262 0.575126 -0.88808 -0.427142 0.169895
-0.099362 0.0499336 0.3438 0 0 -1
-0.121019 0.149854 0.60629 0.265036 -0.891545 0.367292
0.200765 0.210744 0.00549212 0 0 -1
-0.159166 0.135466 0.520085 -0.8235 0 -0.567316
-0.1648 0.144696 0.625364 0.265036 -0.891545 0.367292
0.220354 -0.118795 0.54508 0 -0.642136 0.766591
-0.238078 0.115693 0.474891 -0.888063 -0.431997 -0.157235
-0.0584332 0.18517 0.739828 0.0694287 -0.919123 0.387804
0.233062 -0.173475 0.337471 0.923895 -0.378922 0.0532542
0.111643 0.166292 0.711413 -0.233283 -0.90286 0.361142
-0.093662 0.170781 0.394623 0.0805309 -0.868909 0.488376
0.227132 -0.165615 0.433769 0.382772 -0.914852 0.128574
0.0357842 0.118042 0.553649 -0.0779814 -0.971423 -0.224177
0.10069 -0.198333 0.374894 0 -0.204662 0.978833
0.158286 0.123868 0.367032 -0.0531275 -0.390874 0.91891
-0.214467 -0.196875 0.0495375 0.921859 0.36081 0.141394
0.101595 -0.227582 0.344715 0 -0.935128 -0.35431
-0.224399 -0.124345 0.497406 -0.380066 0.803038 -0.458999
-0.00636136 0.158985 0.51075 0.0295878 -0.972556 -0.230781
0.157123 -0.0190669 0.377924 0 0 1
0.0856846 -0.162428 0.326847 -1.92072e-06 0.861647 -0.507509
-0.0644612 0.130308 0.610881 0.0694287 -0.919123 0.387804
0.119676 0.149156 0.603626 -0.265031 -0.891548 0.367288
0.0088854 -0.108373 0.3438 0 0 -1
-0.251925 0.0747967 0.556219 0 -0.087154 -0.996195
-0.1326 0.0798062 0.381276 0.0511324 -0.370625 0.927374
-0.215321 0.0796891 0.564355 0 0.0871544 0.996195
-0.135088 0.00999537 0.377924 0 0 1
-0.0362701 -0.0683686 0.377924 0 0 1
0.214636 -0.00387091 0.555693 -0.923855 0.033355 0.381287
-0.204974 0.221673 0.011888 0 0.654702 0.755887
0.0487531 0.202902 0.0138702 0 -0.654702 0.755887
0.223832 -0.201813 0.185385 -0.382815 -0.914835 0.128569
-0.0339694 -0.114233 0.377924 0 0 1
0.213351 0.175354 0.0108457 -0.923851 0 0.382753
0.0995638 0.145034 0.653834 -0.13109 -0.920465 0.368184
-0.220933 0.129684 0.463047 0.713482 0.658416 0.239649
-0.162196 -0.0417666 0.377924 0 0 1
0.197978 0.161273 0.761278 -0.300942 -0.885728 0.353439
0.0878285 -0.143349 0.377924 0 0 1
-0.091971 0.00803543 0.3438 0 0 -1
-0.202089 0.201063 0.0122774 0 -0.654702 0.755887
-0.207285 -0.127516 0.377924 0 0 1
0.215516 0.137287 0.00525785 -0.923852 0 -0.382751
-0.122369 0.15476 0.406848 0.13468 -0.990889 0
-0.228762 0.170347 0.709222 0.160441 0.917159 -0.364798
-0.238459 0.144034 0.642906 -0.279773 0.892092 -0.354823
0.217542 0.115351 0.598885 1 0 0
0.00920387 -0.0436673 0.3438 0 0 -1
0.0641337 0.159861 0.614141 -0.0694111 -0.919122 0.38781
0.186245 0.0136617 0.377924 0 0 1
0.172597 0.146729 0.394579 -0.31584 -0.948812 0
0.202703 0.0869649 0.572184 -0.27262 -0.946032 0.175218
-0.226681 0.176064 0.00113524 -0.38266 -1.03167e-06 -0.923889
0.227923 -0.152449 0.395559 0.382772 0.914852 -0.128575
-0.0252462 0.193834 0.689115 0.0141123 -0.927739 0.372963
-0.218508 -0.179904 0.376694 -1 -4.24019e-06 2.02794e-05
-0.197942 0.0985648 0.360944 0.130819 -0.392985 0.910192
-0.196442 0.115937 0.567766 0.250367 -0.92942 0.271099
-0.0442571 0.183096 0.733153 0.0141288 -0.92774 0.372959
0.143568 -0.054554 0.3438 0 0 -1
0.0659705 0.1463 0.542691 -0.0779643 -0.971444 -0.224095
-0.0860735 0.159693 0.380658 0.13468 -0.990889 0
-0.0162462 -0.163307 0.325356 -1.92072e-06 0.861647 -0.507509
0.0641863 0.0516118 0.358031 0 1 0
-0.144185 0.162026 0.387887 0.196323 -0.978993 -0.0550508
-0.0701397 0.159447 0.614235 0.0694122 -0.919123 0.387809
-0.0523419 0.182588 0.665895 0.0694122 -0.919123 0.387809
-0.0959605 0.109393 0.357223 0.0538954 -0.390652 0.918959
-0.0491492 0.042688 0.377924 0 0 1
-0.125813 -0.181085 0.377924 0 0 1
-0.109928 -0.0593536 0.3438 0 0 -1
-0.180294 0.126708 0.661215 0.265035 -0.891542 0.3673
0.182975 -0.0603283 0.3438 0 0 -1
0.0966642 0.150752 0.514705 -0.0293238 -0.963918 -0.26458
-0.00584173 -0.179699 0.336352 0 -0.861585 0.507614
0.113296 0.125888 0.491685 -0.244146 -0.944305 -0.220639
-0.215479 -0.187129 0.175345 0.92385 0.379029 -0.0532681
-0.214607 -0.20824 0.0864638 0.923868 -0.378985 0.0532632
0.189394 0.15357 0.66465 -0.265031 -0.891548 0.367288
-0.213114 0.12257 0.606628 0.300917 -0.885734 0.353447
0.0560038 0.0063829 0.3438 0 0 -1
0.208234 0.0892559 0.590467 -0.265029 -0.891545 0.367297
0.0740883 0.171813 0.392022 -0.118067 -0.991158 -0.060541
0.195884 0.144097 0.716453 -0.300942 -0.885728 0.353439
0.197591 -0.161448 0.377924 0 0 1
0.106718 0.156887 0.394562 -0.134682 -0.990889 0
0.0130131 0.0516118 0.373374 0 1 0
0.0287175 0.163962 0.409776 0 -1 0
-0.0607428 -0.227317 0.344016 0 -0.935128 -0.35431
0.0494405 0.148511 0.538965 -0.0779486 -0.970021 -0.230179
0.0235815 0.0380499 0.377924 0 0 1
-0.0978836 -0.168039 0.377924 0 0 1
-0.0937737 0.11226 0.558536 0.0779827 -0.971431 -0.224146
-0.176029 -0.169706 0.343117 5.5797e-07 -0.250309 0.968166
0.0152174 0.172092 0.451179 -0.0779486 -0.970021 -0.230179
0.219239 -0.0642529 0.0193801 -0.382707 0 0.92387
-0.218509 -0.0557578 0.347005 -1 -3.56797e-06 0
0.221939 -0.0664855 0.000829031 -0.382703 -5.53917e-17 -0.923871
-0.240624 -0.146538 0.516649 0 -0.796469 0.60468
-0.217987 -0.00401667 0.54418 0.382661 -0.0805175 -0.920373
0.215253 0.03147 0.544515 -0.923858 -0.0333571 -0.38128
0.232556 -0.193869 0.0474545 0.921886 0.360746 0.141379
-0.0336843 0.120293 0.359242 0 -0.396386 0.918084
0.0885892 -0.223361 0.354441 0 -0.857681 0.514182
0.0102539 0.00508347 0.377924 0 0 1
-0.232543 -0.181529 0.217679 -0.923875 0.378971 -0.05326
-0.0213871 0.146002 0.559493 0.0779849 -0.971442 -0.224094
0.0434179 0.047449 0.3438 0 0 -1
-0.014486 0.130152 0.363498 0 -0.396386 0.918084
-0.0366054 0.170951 0.702652 0.0141288 -0.92774 0.372959
0.219446 -0.0941052 0.0194658 -0.382707 0 0.92387
-0.0381217 0.190172 0.681325 0.0694122 -0.919123 0.387809
0.141697 0.189106 0.757881 -0.0941266 0 0.99556
0.0477516 0.149948 0.654438 -0.0694276 -0.919123 0.387804
-0.217219 -0.000967681 0.377924 0 0 1
0.086662 0.179468 0.664942 -0.13109 -0.920465 0.368184
0.240641 0.0388882 0.567925 0 0.0871544 0.996195
0.153667 0.148733 0.627127 -0.265031 -0.891548 0.367288
0.214438 -0.103181 0.529442 -0.922761 0.199922 -0.329459
0.0496869 0.193009 0.752437 0 0 1
-0.211198 0.146398 0.664708 0.300917 -0.885734 0.353447
-0.221338 0.112728 0.00107784 0.382703 1.03239e-06 -0.923871
0.220632 -0.176202 0.224538 -0.382707 0.914878 -0.128578
-0.189955 0.185944 0.745724 0.300917 -0.885734 0.353447
-0.0537983 0.191806 0.688003 0.0694122 -0.919123 0.387809
0.233502 0.169319 0.00800376 0.923895 0 -0.382647
-0.0784164 0.18852 0.684639 0.131089 -0.920465 0.368184
0.21587 -0.177183 0.239349 -0.92385 0.379029 -0.0532681
0.0406274 0.163962 0.385298 0 -1 0
-0.00952093 0.175556 0.44051 0.0295878 -0.972556 -0.230781
-0.222491 -0.170237 0.46332 0 -0.979858 0.199693
0.120588 0.150152 0.676841 -0.233283 -0.90286 0.361142
-0.131161 0.139246 0.58786 0.265036 -0.891545 0.367292
-0.0947993 0.1504 0.517556 0.0778979 -0.965828 -0.247201
0.233941 -0.00477849 0.0122642 0.923894 0 0.382648
-0.200297 0.083708 0.389424 0.0947496 -0.373513 0.922773
0.000344902 0.0812842 0.378096 0 0 1
0.154812 -0.160456 0.330196 -1.92072e-06 0.861647 -0.507509
-0.191006 0.153978 0.390594 0.196326 -0.539957 0.818476
-0.101363 0.164065 0.457039 0.136074 -0.964715 -0.225408
-0.0616949 0.00484668 0.377924 0 0 1
0.223146 0.116176 0.000328702 -0.382703 -5.53917e-17 -0.923871
-0.0599069 0.0905431 0.347096 0.0538954 -0.390652 0.918959
0.107972 -0.0890462 0.377924 0 0 1
0.223425 0.163421 0.697431 -0.377218 0.86055 -0.342287
0.195721 0.174427 0.721772 -0.300911 -0.885737 0.353443
0.0359216 0.129068 0.602833 -0.0694276 -0.919123 0.387804
-0.175052 0.179603 0.717492 0.265036 -0.891545 0.367292
0.179594 0.144399 0.380393 -0.31584 -0.948812 0
-0.013301 0.0893423 0.345879 0 -0.396386 0.918084
0.226998 0.0773276 0.555998 0 -0.087154 -0.996195
-0.0503068 -0.0701252 0.3438 0 0 -1
-0.154473 -0.207515 0.370535 0 -0.579717 0.814818
0.0779799 0.0675709 0.343412 0 0 1
0.0822834 0.13234 0.618888 -0.0694276 -0.919123 0.387804
0.152527 0.140144 0.673792 -0.265029 -0.891545 0.367297
-0.116411 0.151987 0.497022 0.244157 -0.944302 -0.220638
0.220917 0.171891 0.726624 -0.713503 0.651044 -0.25895
-0.181469 -0.0690723 0.377924 0 0 1
-0.130324 -0.177406 0.340243 0 -0.861585 0.507614
-0.166131 0.110291 0.362261 0.0959138 -0.378102 0.920782
0.226168 -0.0838073 0.5557 0 0.455628 -0.89017
0.192197 0.136683 0.694732 -0.300942 -0.885728 0.353439
-0.165485 0.0496053 0.3438 0 0 -1
-0.234556 -0.155445 0.439819 -0.923895 -0.378922 0.0532542
0.13121 0.128567 0.630309 -0.265029 -0.891545 0.367297
-0.174448 0.16057 0.739481 0.300942 -0.885726 0.353444
-0.232742 -0.189312 0.165749 -0.923894 0.378925 -0.0532547
-0.218662 0.0518655 0.373529 1 0 0
-0.223086 -0.109603 0.514188 0.380113 0.662533 -0.645418
0.0684099 0.115103 0.555035 -0.0779749 -0.971431 -0.224146
-0.102056 -0.165952 0.3438 0 0 -1
0.218509 0.0188911 0.344285 1 0 0
0.230408 0.143263 0.640406 -0.160418 0.917161 -0.364804
-0.222932 -0.0764992 0.0209102 0.382707 1.03178e-06 0.92387
0.235795 0.124716 0.476753 0.713573 0.658331 0.239614
-0.147709 0.145033 0.682183 0.265035 -0.891542 0.3673
-0.225579 -0.0854557 0.000679361 -0.38266 -1.03185e-06 -0.923889
0.137092 0.120134 0.489981 -0.244146 -0.944305 -0.220639
-0.149534 0.133741 0.656091 0.265035 -0.891542 0.3673
0.0143798 0.0574526 0.343412 0 0 1
0.218509 -0.0920203 0.377398 1 0 0
-0.220686 0.142391 0.390971 -0.0309805 -0.795351 -0.605357
0.213898 -0.0865038 0.563843 0 -0.455631 0.890169
-0.00525893 0.163962 0.409177 0 -1 0
-0.240881 -0.0929327 0.560552 0 -0.455631 0.890169
-0.232496 -0.103426 0.538452 -0.922836 -0.199826 0.329309
0.0872647 0.0114539 0.3438 0 0 -1
-0.0532179 -0.0860681 0.377924 0 0 1
0.0487125 -0.17113 0.377924 0 0 1
-0.144884 0.188287 0.717493 0.233307 -0.902854 0.36114
-0.164125 -0.0295634 0.3438 0 0 -1
