-0.0951737 0.177108 0.399325 -0.0510889 0.0759644 0.995801
-0.218627 0.137262 0.646868 0.986979 0.149459 -0.0594475
-0.108989 -0.0119197 0.377924 0 0 1
-0.218662 0.0603162 0.372654 1 0 0
0.14864 0.0513617 0.377924 0 0 1
-0.231726 -0.110752 0.536166 -0.922836 -0.199826 0.329309
-0.227447 -0.160084 0.339817 -0.382772 0.914852 -0.128577
-0.193301 0.111051 0.554913 -0.403651 0 -0.914913
-0.0477443 -0.17391 0.323414 0 -0.507468 -0.86167
0.233313 -0.145234 0.00809784 0.921883 -0.0659506 -0.381813
-0.231298 -0.180898 0.312626 -0.382772 -0.914852 0.128577
0.00967443 -0.074071 0.377924 0 0 1
-0.140898 -0.212969 0.366655 0 -0.579717 0.814818
0.213276 -0.154866 0.502492 -1 0 0
-0.221185 -0.175779 0.2259 0.382604 0.914921 -0.128587
0.147344 0.20881 0.00549212 0 0 -1
0.0392006 0.00341408 0.3438 0 0 -1
-0.0103907 0.218189 0.749137 0.0141123 -0.927739 0.372963
0.14202 -0.213796 0.366066 0 -0.579717 0.814818
0.00155265 0.120967 0.57536 -0.070384 -0.95544 0.286671
0.0341814 0.130424 0.501715 -0.0779658 -0.970022 -0.230173
0.228315 0.154848 0.675085 -0.25079 0.899502 -0.357773
-0.218508 -0.093961 0.351455 -1 -3.56797e-06 0
0.103622 0.0383339 0.377924 0 0 1
0.22096 -0.135415 0.515753 -0.380008 -0.662569 0.645442
-0.00350578 -0.180203 0.331416 0 -0.968173 -0.250281
0.24697 0.179976 0.753834 0.960423 0.258825 -0.102947
0.0750724 0.147285 0.653016 -0.0694276 -0.919123 0.387804
0.238546 0.157883 0.705793 0.986974 0.149488 -0.0594585
-0.0510841 0.140808 0.458819 0.0779065 -0.965828 -0.247198
0.204735 -0.0816305 0.3438 0 0 -1
-0.0453334 0.0922739 0.347144 0 -0.396386 0.918084
0.230009 0.200283 0.0188139 0.382664 0 0.923887
-0.0798348 0.0750646 0.343412 0 0 1
-0.000732452 -0.15464 0.3438 0 0 -1
-0.0950998 0.111841 0.567446 0.0704225 -0.957624 0.279279
0.125053 0.208433 0.755046 -0.233315 -0.902853 0.361139
-0.235861 0.0922803 0.575517 -0.279637 -0.892128 0.354839
0.0530611 -0.211396 0.335023 0 0.237786 -0.971318
-0.169412 0.103941 0.5981 0.265035 -0.891542 0.3673
0.122886 0.119193 0.601549 -0.265029 -0.891545 0.367297
-0.173057 0.16557 0.681989 0.265036 -0.891545 0.367292
-0.0643195 0.159922 0.61432 0.0694122 -0.919123 0.387809
-0.0813302 0.120201 0.589947 0.0694287 -0.919123 0.387804
0.134105 -0.161556 0.328329 -1.92072e-06 0.861647 -0.507509
-0.224511 -0.146978 0.499589 -0.379884 -0.803085 0.459067
-0.0742694 0.135083 0.623952 0.0694287 -0.919123 0.387804
-0.160095 0.135293 0.66748 0.265035 -0.891542 0.3673
0.242796 0.00627249 0.570778 0 0.0871544 0.996195
-0.127323 0.19067 0.756522 0.0941232 0 0.995561
-0.109454 -0.160475 0.333833 -2.15779e-06 0.968128 0.250457
-0.216708 0.151199 0.00299576 0.382703 1.03239e-06 -0.923871
0.218314 -0.135146 0.517631 0 0.796373 -0.604806
0.0708465 0.153313 0.401913 -0.0997328 -0.960846 -0.25851
-0.218509 0.0440122 0.370782 -1 -3.56797e-06 0
-0.151991 0.171612 0.750774 0.233279 -0.902861 0.361142
-0.2335 -0.199006 0.0543995 -0.921894 0.360732 0.141363
-0.0220173 -0.0662324 0.3438 0 0 -1
0.233906 -0.156025 0.422772 0.923875 0.378971 -0.05326
0.0631862 0.143172 0.443465 -0.029324 -0.963916 -0.264586
0.154819 0.141822 0.679519 -0.265029 -0.891545 0.367297
0.124249 -0.011203 0.377924 0 0 1
0.218663 0.0574448 0.375141 -1 0 0
0.22346 0.123303 0.439383 -0.493343 -0.817375 -0.297508
0.217542 0.149267 0.683578 1 0 0
0.215402 -0.108436 0.535461 -0.922754 -0.199927 0.329475
0.20043 0.152806 0.37877 -0.0590708 -0.741662 -0.668168
-0.211948 -0.224562 0.352436 0 -0.857681 0.514182
0.218795 0.123122 0.601217 -0.377181 0.860565 -0.34229
0.000542916 0.154943 0.528415 -0.0779486 -0.970021 -0.230179
-3.64406e-07 0.184948 0.389863 -1 0 0
-0.143798 -0.176513 0.3438 0 0 -1
0.127451 0.138682 0.582327 -0.272621 -0.946034 0.17521
0.00633462 -0.151391 0.3438 0 0 -1
0.234537 -0.0158719 0.553611 0.923881 0.0333494 0.381223
-0.0355893 -0.227716 0.347176 0 -0.857681 0.514182
0.255931 -0.103119 0.547704 1 0 0
0.167655 0.0517427 0.378096 0 0 1
-0.0228849 0.121674 0.393495 0 -0.375196 0.926946
-0.0843712 -0.163244 0.377924 0 0 1
0.203364 0.146456 0.728734 -0.300942 -0.885728 0.353439
-0.234552 -0.198826 0.131216 -0.923895 -0.378922 0.0532542
-0.094866 -0.141909 0.3438 0 0 -1
0.110977 0.0192472 0.377924 0 0 1
-0.212588 -0.179291 0.327888 0 -0.968173 -0.250281
0.156629 0.146526 0.623908 -0.265031 -0.891548 0.367288
-0.00571119 0.15312 0.416912 0.0295881 -0.972557 -0.230775
-0.0893728 0.124684 0.602012 0.0694287 -0.919123 0.387804
-0.175348 0.103366 0.60099 0.265035 -0.891542 0.3673
-0.239459 -0.0846059 0.555291 0 0.455628 -0.89017
-0.231989 -0.15313 0.477545 -0.922796 -0.371725 0.101335
0.0978083 0.204883 0.754375 -0.0463846 0 0.998924
0.0317565 0.0894096 0.345908 0 -0.396386 0.918084
-0.221421 0.113388 0.573849 0.377155 0.860576 -0.34229
0.183907 0.124047 0.589028 -0.265031 -0.891548 0.367288
0.082342 0.143854 0.404078 -0.0503854 -0.370699 0.927385
-0.238315 0.108759 0.578475 -0.986942 0.149671 -0.0595317
0.0921338 0.11657 0.582948 -0.070384 -0.95544 0.286671
-0.0513509 0.188699 0.6802 0.0694122 -0.919123 0.387809
0.217879 0.0979417 0.52889 -0.986979 0.151148 0.0550144
-0.0438036 -0.135244 0.377924 0 0 1
-0.170408 0.0500665 0.377924 0 0 1
0.0123137 0.0516118 0.368333 0 1 0
0.0290711 -0.162685 0.326412 -1.92072e-06 0.861647 -0.507509
-0.215496 0.0330764 0.377924 0 0 1
-0.00890453 -0.107676 0.377924 0 0 1
0.00137381 -0.0752082 0.3438 0 0 -1
-0.0441614 0.173013 0.708459 0.0694287 -0.919123 0.387804
-0.20642 0.144105 0.654895 0.300917 -0.885734 0.353447
-0.213604 -0.168816 0.33816 0.923832 0.379074 -0.0532756
0.232642 -0.167494 0.38731 0.923895 -0.378922 0.0532542
0.0987801 0.165441 0.704573 -0.13109 -0.920465 0.368184
-0.0131075 0.220211 0.00817332 0 0.6547 -0.755889
-0.144337 -0.186187 0.377434 0 -0.204662 0.978833
0.132576 0.159683 0.708412 -0.233283 -0.90286 0.361142
-0.231598 0.138539 0.628005 0.160441 0.917159 -0.364798
0.148599 -0.222132 0.35649 0 -0.857681 0.514182
-0.217268 -0.0598958 0.543423 0.379974 0.266571 -0.885754
0.196735 0.0261507 0.3438 0 0 -1
-0.0277383 -0.15213 0.3438 0 0 -1
-0.00327335 0.164604 0.487469 0.0295878 -0.972556 -0.230781
0.0297581 0.116754 0.568176 -0.0691927 -0.957707 0.279304
0.218509 -0.166883 0.370763 1 0 0
-0.218508 -0.115529 0.373338 -1 -4.01372e-06 5.64147e-06
-0.00394315 0.196781 0.695639 0.0141123 -0.927739 0.372963
-0.140449 0.128512 0.36796 0.0538954 -0.390652 0.918959
0.0790303 0.157921 0.490542 -0.0293238 -0.963918 -0.26458
0.215702 -0.188293 0.163203 -0.92385 0.379029 -0.0532681
0.221663 -0.195447 0.0717683 -0.377926 0.925379 0.0290744
0.108586 0.164262 0.634734 -0.13109 -0.920465 0.368184
0.116504 -0.219851 0.335176 1.06395e-06 -0.465468 -0.885065
0.0267246 -0.162261 0.327132 -1.92072e-06 0.861647 -0.507509
0.20536 0.219052 0.00716945 0 0.6547 -0.755889
0.215166 -0.13529 0.00610191 -0.923852 0 -0.382751
-0.231007 0.100876 0.551 -0.382609 0.0805225 0.920395
0.207909 -0.20278 0.373904 0 -0.579717 0.814818
-0.161457 0.131203 0.658533 0.265035 -0.891542 0.3673
0.217542 0.178123 0.755478 1 0 0
0.234505 -0.0348099 0.0104254 0.923895 0 -0.382647
0.0230932 0.160599 0.496943 -0.0779486 -0.970021 -0.230179
0.212744 0.109538 0.644202 -0.300942 -0.885728 0.353439
-0.210772 0.126733 0.37495 0.130819 -0.392985 0.910192
-0.0867446 0.170498 0.438334 0.136074 -0.964715 -0.225408
-0.129051 -0.226939 0.343017 2.13641e-06 -0.935164 -0.354214
-0.103854 0.157276 0.395779 0.13468 -0.990889 0
0.252125 0.114103 0.55797 0 0.99619 -0.0872066
0.0297943 0.0887047 0.345603 0 -0.396386 0.918084
-0.0543852 -0.182981 0.377924 0 0 1
0.0386999 -0.2253 0.338692 2.13641e-06 -0.935164 -0.354214
-0.107329 -0.0824455 0.3438 0 0 -1
0.00657151 0.12223 0.545666 -0.0779814 -0.971423 -0.224177
-0.223417 0.127354 0.475084 0.250697 0.909684 0.331099
-0.218629 0.121575 0.477425 0.986979 0.151148 0.0550144
-0.00181825 0.185047 0.401502 0.0295878 -0.972556 -0.230781
-0.109389 0.204546 0.754912 0.0463842 0 0.998924
-0.252707 -0.168179 0.473419 2.29338e-05 -0.979852 0.199724
-0.108301 0.120404 0.595371 0.131089 -0.920465 0.368184
-0.0864919 -0.172923 0.342285 0 -0.250339 0.968158
-0.0344581 0.133325 0.493298 0.0779065 -0.965828 -0.247198
0.217567 -0.209703 0.110594 -0.382703 -0.91488 0.128578
0.255931 -0.150198 0.508183 1 0 0
-0.087556 0.179516 0.735766 0.131089 -0.920465 0.368184
0.0951983 0.111478 0.561427 -0.0779749 -0.971431 -0.224146
0.236605 0.164849 0.741188 0.888086 -0.427131 0.16989
-0.204808 0.187718 0.762816 0.300917 -0.885734 0.353447
-0.217542 0.115878 0.621263 -1 0 0
-0.244046 -0.0610417 0.562129 0 0.246376 -0.969174
-0.00442118 0.218944 0.750788 0.0141123 -0.927739 0.372963
-0.234555 -0.172461 0.0192851 -0.921879 -0.190222 -0.337573
-0.225211 0.157217 0.000526343 -0.38266 -1.03167e-06 -0.923889
0.0120671 0.181977 0.659123 -0.0141117 -0.927739 0.372963
0.0452516 0.146135 0.403396 0 -0.375196 0.926946
-0.213233 -0.0596592 0.377924 0 0 1
-0.0579986 -0.192624 0.342249 -3.63313e-07 0.158991 -0.98728
0.210877 -0.2156 0.364783 0 -0.579717 0.814818
0.156384 -0.180051 0.335754 0 -0.861585 0.507614
0.0748932 0.151125 0.408485 -0.0997328 -0.960846 -0.25851
-0.0304143 0.198522 0.700973 0.0141123 -0.927739 0.372963
0.230664 0.150548 0.720637 -0.160286 -0.917185 0.364803
-0.218508 -0.139158 0.365347 -1 -3.82675e-06 2.29415e-06
0.179655 -0.0926776 0.3438 0 0 -1
-0.0784145 0.123026 0.519682 0.0779065 -0.965828 -0.247198
-0.226663 0.0917618 0.561631 0 -0.369588 -0.929196
0.213533 -0.0480154 0.377924 0 0 1
-0.0179785 0.163962 0.389264 0 -1 0
0.0664635 -0.128904 0.3438 0 0 -1
0.225708 -0.202042 0.178815 0.38266 -0.914898 0.128578
-0.246196 0.0432394 0.567544 0 0.0871544 0.996195
0.216893 -0.198091 0.374945 0 -0.204662 0.978833
-0.0109442 0.183508 0.66289 0.0141123 -0.927739 0.372963
-0.0445078 0.136509 0.622006 0.0694287 -0.919123 0.387804
-0.19675 -0.172809 0.377924 0 0 1
-0.228243 -0.143676 0.520419 0 -0.796469 0.60468
-0.101383 0.121713 0.597121 0.0694287 -0.919123 0.387804
0.217923 -0.0521156 0.572649 0 -0.0248002 0.999692
0.214232 -0.00570396 0.0129716 -0.923851 0 0.382753
-0.147721 -0.0447135 0.377924 0 0 1
-0.0888142 0.172879 0.383794 0.118063 -0.798156 -0.590769
-0.218509 0.037908 0.361024 -1 -3.56797e-06 0
0.232921 -0.141906 0.0147267 0.923894 0 0.382648
0.205134 -0.0206095 0.377924 0 0 1
0.213546 -0.0884596 0.0100126 -0.923852 0 -0.382751
0.00817172 -0.127599 0.3438 0 0 -1
0.0134771 -0.166329 0.323637 -5.57878e-07 0.250342 -0.968157
-0.00758999 0.193334 0.687204 0.0141123 -0.927739 0.372963
0.205175 -0.0693109 0.3438 0 0 -1
-0.214737 -0.192228 0.202638 0.923868 -0.378985 0.0532632
-0.155462 0.0540009 0.378096 0 0 1
-0.070949 0.0659434 0.343412 0 0 1
0.147327 0.101861 0.555789 -0.247936 -0.948564 -0.196863
0.141164 0.16894 0.379142 -0.133672 -0.341579 -0.930299
0.214883 -0.157058 0.399666 -0.923832 0.379074 -0.0532756
0.0475918 0.11278 0.389895 0 -0.375196 0.926946
-0.215803 0.175398 0.744908 1 0 0
0.112582 0.143523 0.53749 -0.244146 -0.944305 -0.220639
-0.226918 -0.190975 0.0521821 -0.377813 0.862061 0.337797
-0.0965015 0.157225 0.410193 0.050282 -0.369944 0.927693
-0.224414 0.128485 0.611538 0.25079 0.899502 -0.357773
0.158842 -0.000777736 0.377924 0 0 1
-0.144653 0.102029 0.568771 0.250379 -0.929429 0.271057
0.117017 -0.0599512 0.3438 0 0 -1
-0.0152712 0.181938 0.729175 0.0141288 -0.92774 0.372959
-0.220323 0.216729 0.0158355 0 0 1
-0.0913963 -0.00474288 0.3438 0 0 -1
0.0258545 -0.172172 0.3438 0 0 -1
-0.0523689 0.148292 0.539166 0.0778979 -0.965828 -0.247201
0.00629862 0.0270387 0.377924 0 0 1
0.104537 -0.0719344 0.3438 0 0 -1
0.226068 -0.101703 0.000881313 0.38266 0 -0.923889
0.0621632 -0.134677 0.377924 0 0 1
-0.181355 -0.223655 0.337176 0 -0.465423 -0.885088
-0.245302 0.134159 0.629951 -0.686812 0.675373 -0.268626
0.0102359 0.129224 0.396551 0 -0.375196 0.926946
0.100554 -0.116787 0.3438 0 0 -1
0.0550067 0.161064 0.484179 -0.0779486 -0.970021 -0.230179
0.229404 0.125309 0.430693 0 -0.93969 -0.342029
0.0706982 0.13516 0.623497 -0.0694276 -0.919123 0.387804
0.103473 0.150864 0.512272 -0.136058 -0.964717 -0.225408
-0.216021 -0.185629 0.271859 0.923852 -0.379025 0.0532697
-0.218508 -0.184303 0.372023 -1 -4.01372e-06 5.64147e-06
0.218509 -0.0727252 0.350243 1 0 0
0.0832904 0.0288651 0.3438 0 0 -1
0.131408 -0.214546 0.334251 0 0.237786 -0.971318
0.205343 0.150864 0.741464 -0.300942 -0.885728 0.353439
0.101235 0.152045 0.435509 0.832055 0 -0.554692
-0.0907449 0.159058 0.401515 0.13468 -0.990889 0
0.0154321 0.117002 0.565476 -0.0691927 -0.957707 0.279304
0.168534 0.0932923 0.355531 -0.0959126 -0.378103 0.920782
0.217909 -0.174359 0.245753 -0.382815 0.914835 -0.128569
-0.12464 0.0448902 0.3438 0 0 -1
-0.0106945 0.124244 0.536267 0.0779065 -0.965828 -0.247198
0.111859 0.117531 0.589648 -0.233283 -0.90286 0.361142
0.211744 0.133697 0.390315 -0.31584 -0.948812 0
-0.214875 -0.0869903 0.00680256 0.923895 2.4913e-06 -0.382647
-0.173081 0.136128 0.678877 0.265035 -0.891542 0.3673
0.143539 0.186593 0.712388 -0.233315 -0.902853 0.361139
-0.0365784 0.0756915 0.378096 0 0 1
-0.219626 -0.0422814 0.00178674 0.382703 1.03197e-06 -0.923871
0.219646 -0.0406472 0.572933 0 -0.0248002 0.999692
-0.19377 -0.22515 0.338294 2.13641e-06 -0.935164 -0.354214
-0.148529 -0.186239 0.343277 -3.63219e-07 0.158991 -0.98728
0.238895 0.134421 0.428052 0.888026 -0.432063 -0.157259
0.165294 -0.194551 0.341938 -3.63313e-07 0.158991 -0.98728
-0.00608893 -0.060385 0.3438 0 0 -1
-0.0430789 -0.101653 0.3438 0 0 -1
-0.217277 -0.18714 0.270279 0.3826 -0.914922 0.128587
0.23458 -0.142513 0.486672 0.922799 -0.334507 0.191173
0.247157 0.120722 0.606606 0.960416 0.258847 -0.102956
-0.181326 -0.0973569 0.3438 0 0 -1
-0.202808 0.115223 0.368835 0.130819 -0.392985 0.910192
0.238532 0.116092 0.572712 0.279687 0.892115 -0.354832
0.22964 0.126628 0.604982 0.250749 0.899511 -0.357777
-0.0387124 0.118513 0.576105 0.0689138 -0.955538 0.286701
0.205404 -0.163088 0.325726 -1.92072e-06 0.861647 -0.507509
0.0611478 0.150739 0.525611 -0.0779486 -0.970021 -0.230179
0.0547939 0.147796 0.540165 -0.0779486 -0.970021 -0.230179
0.105215 0.121907 0.514662 -0.136075 -0.964715 -0.225408
-0.221785 -0.15455 0.485033 0.380198 -0.802973 0.459003
0.0749319 0.179644 0.731589 -0.13109 -0.920465 0.368184
-0.217154 -0.187001 0.270905 0.3826 -0.914922 0.128587
0.229898 0.0898515 0.552426 0.382609 0.0805225 0.920395
0.107005 -0.0487604 0.377924 0 0 1
-0.050543 0.183907 0.735422 0.0694287 -0.919123 0.387804
0.234713 0.155245 0.734225 -0.160481 -0.917153 0.364797
-0.14701 -0.207819 0.370319 0 -0.579717 0.814818
0.218026 -0.0810661 0.0024498 -0.382703 -5.53917e-17 -0.923871
0.17938 0.0515494 0.343412 0 0 1
-0.0844818 -0.226571 0.342046 2.13641e-06 -0.935164 -0.354214
-0.209184 0.132798 0.699461 0.300942 -0.885726 0.353444
0.0468373 0.21118 0.733081 -0.0141117 -0.927739 0.372963
0.21098 0.133951 0.38817 -0.31584 -0.948812 0
-0.0290652 0.00503948 0.377924 0 0 1
0.164706 0.118629 0.630357 -0.265029 -0.891545 0.367297
-0.0816602 -0.186515 0.343232 -3.63219e-07 0.158991 -0.98728
0.215178 -0.00173533 0.547601 -0.923858 -0.0333571 -0.38128
-0.0641775 0.155916 0.394809 0.0997254 -0.960846 -0.258516
-0.239581 0.148964 0.656186 -0.279431 0.89218 -0.354871
0.00697797 0.149801 0.429267 -0.0779658 -0.970022 -0.230173
-0.00577517 -0.138562 0.377924 0 0 1
-0.233127 0.112755 0.626702 0.160322 -0.917177 0.364807
-0.222962 0.045426 0.0209226 0.382707 1.03178e-06 0.92387
0.21813 0.0511952 0.0189207 -0.382707 0 0.92387
0.0109147 0.0516118 0.359803 0 1 0
-0.0581477 -0.125703 0.377924 0 0 1
0.16942 0.125968 0.57898 -0.272621 -0.946034 0.17521
-0.19138 0.0130076 0.3438 0 0 -1
0.0845603 -0.0513415 0.3438 0 0 -1
-0.0785315 0.114462 0.572257 0.0704225 -0.957624 0.279279
-0.0111453 0.191686 0.68324 0.0141123 -0.927739 0.372963
0.155781 -0.206473 0.371277 0 -0.579717 0.814818
0.0639492 -0.160415 0.3336 -2.15808e-06 0.968128 0.250457
-0.215803 0.10996 0.596847 1 0 0
-0.183244 0.0516118 0.36855 0 1 0
-0.215111 0.0992568 0.562643 0 0.0871544 0.996195
0.215557 0.0553191 0.3795 -0.0947484 -0.373513 0.922773
-0.158637 -0.106939 0.3438 0 0 -1
0.125595 -0.0751798 0.377924 0 0 1
-0.173161 -0.0777966 0.3438 0 0 -1
0.0807466 0.00983321 0.3438 0 0 -1
0.140044 0.168458 0.396109 -0.0290372 -0.469025 0.882707
0.128873 0.150237 0.476111 0.823505 0 -0.567309
0.0369512 -0.160715 0.334761 -2.15808e-06 0.968128 0.250457
0.137594 -0.105971 0.377924 0 0 1
0.247212 0.120652 0.62198 0.960413 -0.258854 0.102959
-0.246615 0.169064 0.749271 -0.960563 -0.258374 0.102767
-0.11059 0.1694 0.384142 0.118063 -0.798156 -0.590769
-0.225644 0.0559023 0.557872 0 -0.087154 -0.996195
0.233852 0.116959 0.572757 -0.160418 0.917161 -0.364804
-0.0189113 0.0516118 0.373981 0 1 0
-0.200927 0.0599509 0.345214 0.0959138 -0.378102 0.920782
-0.222326 -0.177363 0.034189 0.377835 0.698778 0.607413
0.179428 -0.160376 0.330331 -1.92072e-06 0.861647 -0.507509
-0.170078 0.16457 0.394873 -0.0847249 0.0694311 0.993982
-0.0199204 0.203332 0.00708517 0 -0.6547 -0.755889
-0.114383 -0.0539707 0.377924 0 0 1
-0.0307555 0.113563 0.356336 0 -0.396386 0.918084
0.0975855 -0.114572 0.3438 0 0 -1
0.0430141 0.208375 0.00549212 0 0 -1
-0.181192 -0.22545 0.339086 2.13641e-06 -0.935164 -0.354214
0.0914741 0.0260093 0.3438 0 0 -1
0.221517 0.179249 0.739329 -0.377218 0.86055 -0.342287
-0.143235 -0.143227 0.3438 0 0 -1
0.00803639 0.215321 0.741914 -0.0141117 -0.927739 0.372963
0.140548 0.148124 0.684663 -0.233283 -0.90286 0.361142
-0.213276 -0.0559471 0.566325 1 0 0
-0.228968 0.107003 0.0020828 -0.38266 -1.03167e-06 -0.923889
0.194619 -0.145718 0.3438 0 0 -1
-0.233775 0.103718 0.540978 -0.92396 -0.0333356 -0.381034
-0.236675 0.0918888 0.535479 -0.884911 -0.459274 -0.0774572
-0.107831 0.174561 0.660212 0.131089 -0.920465 0.368184
-0.0239874 -0.180707 0.33464 0 -0.861585 0.507614
0.0734532 0.0262625 0.377924 0 0 1
0.0676544 -0.117527 0.3438 0 0 -1
-0.232143 0.15509 0.724219 -0.493353 -0.808243 0.321476
0.159656 -0.216234 0.364332 0 -0.579717 0.814818
-0.096441 -0.0474029 0.3438 0 0 -1
-0.0704326 0.142728 0.445221 0.0779065 -0.965828 -0.247198
-0.0593902 -0.227962 0.345717 0 -0.935128 -0.35431
0.148187 0.106368 0.359004 -0.0531275 -0.390874 0.91891
-0.113161 0.17722 0.66933 0.233307 -0.902854 0.36114
0.149843 0.208112 0.0158355 0 0 1
0.0507918 0.104957 0.386816 -0.0503854 -0.370699 0.927385
-0.0723636 0.164028 0.471383 0.0778979 -0.965828 -0.247201
-0.218473 0.156667 0.698207 0.986979 0.149459 -0.0594475
-0.207726 -0.104711 0.377924 0 0 1
-0.11451 0.148825 0.599215 0.233307 -0.902854 0.36114
0.0286495 -0.177074 0.340807 0 -0.861585 0.507614
-0.028103 -0.0642482 0.377924 0 0 1
-0.120377 0.111624 0.579248 0.250379 -0.929429 0.271057
-0.00511518 0.157554 0.398305 0.0295881 -0.972557 -0.230775
-0.0431419 0.127196 0.514507 0.0779065 -0.965828 -0.247198
0.0955681 0.157732 0.684156 -0.13109 -0.920465 0.368184
0.0702425 0.178844 0.400071 -0.0175058 -0.471169 0.881869
-0.241435 0.177796 0.730131 -0.279431 0.89218 -0.354871
0.0986038 0.142132 0.549402 -0.0779835 -0.971421 -0.224187
0.00515659 -0.209582 0.335467 0 0.237786 -0.971318
0.111238 -0.180035 0.3438 0 0 -1
0.1077 -0.120521 0.377924 0 0 1
0.23582 0.105644 0.492101 0.493268 -0.817416 -0.297518
0.215637 -0.173321 0.377924 0 0 1
-0.215225 0.145941 0.406912 0.875908 -0.197483 0.440211
0.0632786 -0.00487471 0.377924 0 0 1
0.23026 -0.0521474 0.545185 0.379985 0.0363209 -0.924279
-0.0983862 0.165737 0.705174 0.131089 -0.920465 0.368184
0.215804 0.149401 0.673222 -1 0 0
0.224467 0.153212 0.719289 -0.493329 -0.808255 0.32148
0.224264 -0.120072 0.544011 0 -0.642136 0.766591
-0.191697 0.14037 0.384354 0.315846 -0.94881 0
0.220392 0.139042 0.435725 -0.713482 0.658416 0.239649
-0.112089 0.167951 0.3858 0.118075 -0.798217 -0.590684
0.178161 0.160319 0.672927 -0.265031 -0.891548 0.367288
0.228456 0.102465 0.019457 0.382664 0 0.923887
0.131939 -0.0127193 0.377924 0 0 1
-0.0566066 0.148767 0.404646 0.0511324 -0.370625 0.927374
0.186151 0.00405183 0.3438 0 0 -1
0.208282 0.124866 0.373786 -0.130817 -0.392985 0.910192
0.22085 0.167251 0.715142 -0.713503 0.651044 -0.25895
-0.22308 -0.0597678 0.000355815 0.382703 1.03197e-06 -0.923871
-0.21925 -0.14864 0.498512 0 0.910899 -0.41263
0.217555 -0.0739511 0.539071 -0.379974 0.266571 -0.885754
0.174567 -0.0156597 0.3438 0 0 -1
0.2164 -0.197102 0.0305575 -0.377871 -0.698726 -0.60745
0.219919 0.162521 0.734173 -0.888086 -0.42713 0.16989
-0.148206 0.100823 0.559685 0.247933 -0.948563 -0.196868
0.00336288 0.157709 0.598428 -0.0141117 -0.927739 0.372963
-0.130005 -0.0287142 0.3438 0 0 -1
0.233488 0.149427 0.00796958 0.923895 0 -0.382647
0.0993912 0.142616 0.371602 -0.0531275 -0.390874 0.91891
-0.0406179 0.185193 0.669971 0.0694122 -0.919123 0.387809
0.0356812 0.161686 0.680097 -0.0694276 -0.919123 0.387804
-0.230424 -0.206048 0.043629 -0.377815 -0.862073 -0.337765
0.124067 0.145453 0.51652 -0.244146 -0.944305 -0.220639
0.222699 0.0786975 0.555362 -0.382652 0.0805209 0.920377
-0.0275151 0.12505 0.527816 0.0779065 -0.965828 -0.247198
-0.154253 0.150426 0.396433 0.13468 -0.990889 0
-0.186168 0.162292 0.382909 -0.951025 -0.290478 -0.105706
0.224546 0.0670674 0.0210765 0.382664 0 0.923887
0.076635 0.158946 0.409801 -0.0503854 -0.370699 0.927385
-0.140872 0.118421 0.612656 0.265035 -0.891542 0.3673
0.0470051 0.185739 0.400571 0.0170948 0.0792285 0.99671
0.00203156 -0.010155 0.377924 0 0 1
0.119982 -0.0834272 0.377924 0 0 1
0.0562373 -0.213578 0.334488 0 0.237786 -0.971318
-0.107143 0.101649 0.388602 0.0511324 -0.370625 0.927374
0.102464 0.186606 0.688415 -0.13109 -0.920465 0.368184
-0.0700013 0.161877 0.399417 0.13468 -0.990889 0
-0.22077 0.161933 0.735542 0.493354 -0.808242 0.321476
-0.220536 0.126737 0.469963 0.713482 0.658416 0.239649
0.0522131 0.132512 0.486808 -0.0779658 -0.970022 -0.230173
0.209262 0.166697 0.713929 -0.300911 -0.885737 0.353443
-0.0732274 -0.0816543 0.377924 0 0 1
0.217542 0.158824 0.749061 1 0 0
0.217674 -0.159791 0.0217977 -0.377945 0.157582 0.912318
0.179666 -0.0502687 0.3438 0 0 -1
0.0358771 -0.0296064 0.377924 0 0 1
-0.013332 -0.123907 0.377924 0 0 1
0.0585737 0.167102 0.697031 -0.0694276 -0.919123 0.387804
0.221228 -0.174505 0.341876 5.5797e-07 -0.250309 0.968166
-0.146488 0.109884 0.595985 0.265035 -0.891542 0.3673
-0.0478591 0.171448 0.705413 0.0694287 -0.919123 0.387804
0.00754992 0.131029 0.363877 0 -0.396386 0.918084
0.0356388 0.128138 0.510857 -0.0779658 -0.970022 -0.230173
0.238536 0.14024 0.4171 0.000162514 0.341981 -0.939707
-0.00924022 -0.161086 0.336193 -2.15779e-06 0.968128 0.250457
-0.110853 0.0787433 0.345068 0.0538954 -0.390652 0.918959
0.237921 0.126753 0.443618 0.888026 -0.432063 -0.157259
-0.104123 0.137919 0.402907 0.050282 -0.369944 0.927693
-0.0592749 0.163335 0.383905 0.13468 -0.990889 0
-0.0459017 0.152702 0.593912 0.0694122 -0.919123 0.387809
-0.221811 -0.0799453 0.557323 0 0.246376 -0.969174
0.0721998 0.177124 0.656499 -0.0694111 -0.919122 0.38781
-0.0561112 -0.166219 0.377924 0 0 1
-0.216116 -0.0744541 0.377924 0 0 1
0.255223 -0.00295447 0.563022 0 -0.087154 -0.996195
-0.0288511 0.133849 0.365094 0 -0.396386 0.918084
-0.0859093 0.16955 0.412521 -0.83206 0 -0.554686
-0.219022 -0.200202 0.182533 0.3826 -0.914922 0.128587
-0.238172 0.11496 0.494599 -0.986952 0.151307 0.0550725
0.0541693 -0.118154 0.377924 0 0 1
-0.0890054 0.0516118 0.348923 0 1 0
-0.0117149 -0.00484223 0.3438 0 0 -1
-0.218555 -0.0264428 0.00223055 0.382703 1.03239e-06 -0.923871
0.0945633 -0.178006 0.325827 0 -0.507468 -0.86167
-0.0540409 0.116401 0.572753 0.0689138 -0.955538 0.286701
-0.22394 0.210613 0.00949272 -1 0 0
-0.232663 -0.189044 0.233591 -0.923912 -0.378882 0.0532496
-0.109183 -0.218582 0.362411 0 -0.857681 0.514182
-0.129837 0.023087 0.377924 0 0 1
-0.149871 0.146299 0.408729 0.050282 -0.369944 0.927693
-0.104462 0.184304 0.753753 0.131089 -0.920465 0.368184
-0.105075 -0.164195 0.3438 0 0 -1
-0.234516 0.200675 0.0104516 -0.923895 -2.4913e-06 -0.382647
-0.16797 -0.1759 0.324586 0 -0.507468 -0.86167
-0.045782 0.116468 0.556996 0.0779761 -0.971424 -0.224177
-0.115557 0.142167 0.405221 0.050282 -0.369944 0.927693
-0.00766164 -0.162417 0.339513 -1.13133e-06 0.507523 0.861638
-0.217542 0.10141 0.571176 -1 0 0
-0.00154608 0.183372 0.38325 0.0269011 -0.356706 -0.933829
0.0929883 0.12724 0.498205 -0.029324 -0.963916 -0.264586
-0.117686 0.174898 0.398339 -0.0510889 0.0759644 0.995801
-0.211189 0.0699079 0.384957 0.0947496 -0.373513 0.922773
0.154925 -0.177393 0.340266 0 -0.861585 0.507614
0.0824746 -0.126674 0.377924 0 0 1
-0.249747 0.0817031 0.564179 0 0.0871544 0.996195
-0.214098 -0.0661701 0.00867989 0.923895 2.4913e-06 -0.382647
-0.215803 0.122913 0.629772 1 0 0
-0.174587 0.146066 0.383758 0.315846 -0.94881 0
0.0906876 -0.0783772 0.3438 0 0 -1
0.22381 -0.168681 0.44717 0 -0.0872182 -0.996189
-0.000791982 -0.138633 0.377924 0 0 1
-0.218508 -0.138202 0.357662 -1 -3.82675e-06 2.29415e-06
0.218663 0.0852312 0.375877 -1 0 0
0.0602021 0.15446 0.51025 -0.0779486 -0.970021 -0.230179
-0.0472348 0.190073 0.750621 0.0141288 -0.92774 0.372959
0.15283 0.196191 0.758933 -0.0941266 0 0.99556
0.0418567 0.191522 0.388349 0.0345589 0.974847 -0.220179
0.148374 0.105942 0.538234 -0.244146 -0.944305 -0.220639
0.220648 0.149657 0.665889 -0.377181 0.860565 -0.34229
0.160994 -0.131085 0.3438 0 0 -1
-0.228971 0.15421 0.404246 -0.561487 0.822816 0.0877821
-0.0217942 0.209262 0.727362 0.0141123 -0.927739 0.372963
-0.0553088 0.158466 0.37579 0.0532333 -0.391657 0.91857
-0.120903 0.209837 0.00549212 0 0 -1
-0.124558 0.0717617 0.343412 0 0 1
-0.175731 0.10058 0.393643 0.116414 -0.349712 0.929596
-0.185112 -0.162004 0.32757 -1.92087e-06 0.861647 -0.507509
-0.0775096 0.182837 0.67099 0.0694122 -0.919123 0.387809
-0.186905 0.168245 0.762582 0.113621 0 0.993524
-0.151548 0.173017 0.378486 0.0289738 0.208401 -0.977614
-0.023457 0.189844 0.749151 0.0141288 -0.92774 0.372959
-0.243608 0.156693 0.727868 -0.686629 -0.675534 0.26869
-0.232776 -0.177583 0.313173 -0.923895 -0.378922 0.0532542
0.20236 0.218922 0.0142707 0 0.654702 0.755887
-0.0461416 0.155599 0.512577 0.0778979 -0.965828 -0.247201
0.201627 0.125094 0.673719 -0.300942 -0.885728 0.353439
0.233744 0.204362 0.0127403 0.923894 0 0.382648
-0.107848 -0.157393 0.3438 0 0 -1
0.183464 0.138164 0.37596 -0.130817 -0.392985 0.910192
0.132781 -0.128031 0.377924 0 0 1
-0.164472 0.148263 0.702118 0.265035 -0.891542 0.3673
0.244377 0.161567 0.738156 0.686782 -0.6754 0.268637
0.215089 -0.184143 0.203365 -0.92385 0.379029 -0.0532681
-0.0783693 0.153778 0.602273 0.0694122 -0.919123 0.387809
-0.0855344 0.133963 0.623315 0.0694287 -0.919123 0.387804
0.220072 -0.177596 0.216284 -0.382707 0.914878 -0.128578
-0.236713 0.117139 0.637344 -0.279524 -0.892157 0.354855
0.2213 0.0226675 0.020234 -0.382707 0 0.92387
0.161423 -0.115819 0.377924 0 0 1
-0.0524763 0.155263 0.667881 0.0694287 -0.919123 0.387804
0.149756 -0.204245 0.372862 0 -0.579717 0.814818
0.217929 0.194927 0.00248979 -0.382703 0 -0.923871
0.232709 -0.028841 0.549547 0.922807 0.0151189 -0.384965
-0.165289 0.121074 0.366601 0.0959138 -0.378102 0.920782
0.106968 -0.182441 0.3438 0 0 -1
-0.136192 -0.227801 0.345293 0 -0.935128 -0.35431
-0.201952 0.0958106 0.601847 0.265035 -0.891542 0.3673
0.117361 -0.204703 0.337505 0 0.439224 -0.898378
-0.175235 0.0942001 0.570176 0.250379 -0.929429 0.271057
-0.222675 0.125613 0.605535 0.25079 0.899502 -0.357773
-0.217713 -0.00186438 0.57149 0 0.0871544 0.996195
0.121838 0.200883 0.734093 -0.233315 -0.902853 0.361139
0.126228 0.142935 0.593255 -0.265031 -0.891548 0.367288
0.138107 0.20996 0.00549212 0 0 -1
0.131932 0.138027 0.404443 -0.0503854 -0.370699 0.927385
0.232159 0.012192 0.0165681 0.923894 0 0.382648
-0.111698 -0.0883027 0.3438 0 0 -1
-0.0749361 0.170249 0.446267 0.0778979 -0.965828 -0.247201
0.221377 -0.0511626 0.54368 -0.380028 0.0363221 -0.924261
0.0600994 -0.179637 0.336456 0 -0.861585 0.507614
0.052172 0.184343 0.397258 -0.0293238 -0.963918 -0.26458
0.213586 -0.0692871 0.56878 0 -0.246415 0.969164
0.171916 -0.173752 0.377924 0 0 1
-0.206373 -0.0844495 0.377924 0 0 1
0.122412 -0.219613 0.360693 0 -0.857681 0.514182
-0.232249 -0.175584 0.0147491 -0.921885 -0.190209 -0.337562
-0.233396 -0.192016 0.0404119 -0.921898 0.292387 0.254193
-0.236936 0.186941 0.756055 1.03138e-05 0.369607 0.929188
0.0440417 0.149981 0.420783 -0.029324 -0.963916 -0.264586
0.0343506 0.1818 0.660806 -0.0694111 -0.919122 0.38781
0.116449 0.162854 0.635539 -0.233315 -0.902853 0.361139
0.221996 -0.0256601 0.546181 0 0.996172 -0.0874172
0.0303305 -0.224411 0.352689 0 -0.857681 0.514182
0.0870853 -0.0996192 0.3438 0 0 -1
-0.175665 0.165273 0.394348 -0.0847249 0.0694311 0.993982
-0.214358 -0.207045 0.0606561 0.921814 -0.36091 -0.141433
0.238599 0.115203 0.486287 0.986979 0.15115 0.0550147
-0.0744853 -0.117136 0.3438 0 0 -1
0.0444455 0.0412024 0.377924 0 0 1
0.0739869 0.0616184 0.378096 0 0 1
0.235291 -0.148346 0.514266 0 -0.796469 0.60468
-0.176417 -0.205021 0.337349 -1.00349e-06 0.439254 -0.898363
-0.10441 -0.0215753 0.3438 0 0 -1
0.218509 -0.0356694 0.371122 1 0 0
0.220215 -0.18688 0.280871 -0.382815 -0.914835 0.128569
-0.0243081 0.168089 0.470082 0.0295878 -0.972556 -0.230781
-0.217074 0.134704 0.667349 0.377074 -0.860608 0.3423
0.186404 0.208777 0.0158355 0 0 1
-0.0203209 -0.208854 0.369583 0 -0.579717 0.814818
-0.22323 0.157946 0.686437 0.25079 0.899502 -0.357773
-0.201966 -0.149036 0.3438 0 0 -1
-0.038284 0.152012 0.417407 0.0295881 -0.972557 -0.230775
0.216296 -0.169203 0.288741 -0.92385 0.379029 -0.0532681
0.135544 0.148803 0.489484 -0.244146 -0.944305 -0.220639
-0.226076 0.0218328 0.560853 0 -0.087154 -0.996195
0.0549346 0.125754 0.361824 -0.054024 -0.391578 0.918558
-0.213276 0.0432339 0.564666 1 0 0
-0.175893 0.0697629 0.346636 0.0959138 -0.378102 0.920782
0.000710703 0.162527 0.610312 -0.0141117 -0.927739 0.372963
-0.0527202 -0.000477888 0.3438 0 0 -1
0.22424 -0.169423 0.467308 0 -0.979852 0.199724
-0.0932018 0.0849806 0.346684 0.0538954 -0.390652 0.918959
0.214846 -0.158401 0.445195 -0.923852 -0.379025 0.0532686
0.103048 0.186693 0.389003 0.103508 0.969339 -0.222861
0.160617 0.13949 0.678043 -0.265029 -0.891545 0.367297
-0.241235 0.173441 0.719025 -0.279431 0.89218 -0.354871
-0.00747798 0.178769 0.427235 0.0295878 -0.972556 -0.230781
-0.0601632 0.163215 0.400468 0.13468 -0.990889 0
0.12643 -0.0768161 0.3438 0 0 -1
-0.18331 -0.172286 0.322458 0 -0.507468 -0.86167
-0.214548 0.219262 0.00759373 0.923851 0 -0.382751
0.218484 -0.146516 0.442163 -0.382815 0.914835 -0.128569
0.237679 0.168889 0.724173 0.713594 0.650957 -0.258919
0.0375522 0.0123581 0.3438 0 0 -1
0.221421 0.132212 0.625475 -0.713503 0.651044 -0.25895
-0.0431105 0.1288 0.603484 0.0694287 -0.919123 0.387804
0.213276 0.0373161 0.567643 -1 0 0
0.214163 0.063596 0.00852322 -0.923852 0 -0.382751
0.216308 0.0645839 0.00334489 -0.923852 0 -0.382751
0.0391549 -0.196934 0.375187 0 -0.204662 0.978833
0.0387562 -0.191781 0.342384 -3.63313e-07 0.158991 -0.98728
-0.221604 0.132969 0.456019 0.713544 0.658358 0.239624
0.220755 -0.157321 0.479346 0 0.910912 -0.412601
0.114375 0.141072 0.578144 -0.250369 -0.929419 0.271099
0.169728 0.0950879 0.568132 -0.250381 -0.929429 0.271057
-0.209723 -0.0847957 0.377924 0 0 1
0.126186 -0.108535 0.377924 0 0 1
-0.0942316 0.14956 0.521019 0.0778979 -0.965828 -0.247201
-0.0128317 0.144895 0.450662 0.0295881 -0.972557 -0.230775
0.228725 0.228071 0.0193458 0.382664 0 0.923887
0.00259515 0.138865 0.36726 0 -0.396386 0.918084
-0.0435097 0.148993 0.539218 0.0778979 -0.965828 -0.247201
-0.154305 -0.086814 0.377924 0 0 1
-0.027366 -0.224142 0.353137 0 -0.857681 0.514182
-0.229102 -0.0786488 0.557653 0 0.246376 -0.969174
-0.129191 -0.162764 0.377924 0 0 1
-0.229574 0.144586 0.00233369 -0.38266 -1.03167e-06 -0.923889
0.108726 0.143593 0.583235 -0.0691996 -0.957694 0.279346
-0.215808 0.111985 0.576508 0.377155 0.860576 -0.34229
-0.215881 0.171941 0.759655 0.377074 -0.860608 0.3423
-0.217542 0.0867082 0.582342 -1 0 0
0.223468 -0.112003 0.000195654 -0.382703 -5.53917e-17 -0.923871
-0.0696854 0.0516118 0.36205 0 1 0
-0.142948 0.16593 0.730729 0.233279 -0.902861 0.361142
0.0768784 -0.101306 0.3438 0 0 -1
-0.164495 -0.128715 0.3438 0 0 -1
-0.096886 0.161152 0.428987 -0.83206 0 -0.554686
0.21681 -0.155097 0.386086 -0.382815 0.914835 -0.128569
0.0868749 0.195751 0.705727 -0.13109 -0.920465 0.368184
0.075679 0.161106 0.382105 -0.134682 -0.990889 0
-0.215803 0.110367 0.578053 1 0 0
-0.138371 -0.106542 0.3438 0 0 -1
0.232906 0.133747 0.410927 0.606314 -0.688315 -0.398254
0.00676833 -0.209247 0.335549 0 0.237786 -0.971318
-0.128138 -0.187296 0.377202 0 -0.204662 0.978833
-0.237351 0.158568 0.697326 -0.713503 0.651043 -0.258953
-0.0611377 0.208867 0.752672 0.0463842 0 0.998924
0.23412 0.104217 0.59328 0.493254 -0.808294 0.321497
-0.122461 -0.0857505 0.3438 0 0 -1
0.094484 0.118564 0.394629 -0.0503854 -0.370699 0.927385
0.23049 -0.104549 0.522641 0.380051 0.47987 -0.79075
0.207984 0.184855 0.758344 -0.300911 -0.885737 0.353443
0.252143 0.0626925 0.565842 0 0.0871544 0.996195
0.0934964 0.201467 0.722373 -0.13109 -0.920465 0.368184
0.237279 0.106924 0.567283 0.713675 0.650882 -0.258885
0.22089 0.168993 0.714233 -0.377218 0.86055 -0.342287
0.0931862 -0.161336 0.337162 -2.15779e-06 0.968128 0.250457
0.23884 0.100549 0.593958 0.279677 -0.892117 0.354835
-0.0936943 0.11901 0.530557 0.0779065 -0.965828 -0.247198
-0.0573178 0.111314 0.389718 0.0511324 -0.370625 0.927374
-0.227315 0.140739 0.636119 0.377192 0.860561 -0.342287
0.114085 0.167883 0.646584 -0.233315 -0.902853 0.361139
0.157291 0.114959 0.517363 0.823505 0 -0.567309
0.231845 0.00967571 0.0173248 0.923894 0 0.382648
-0.123696 0.134786 0.402719 0.050282 -0.369944 0.927693
-0.122146 0.18127 0.395925 -0.103463 0.599105 0.793958
-0.0998854 -0.125449 0.377924 0 0 1
0.228381 0.140004 0.693124 -0.160286 -0.917185 0.364803
-0.194474 0.0183245 0.3438 0 0 -1
0.0114212 0.128928 0.598113 -0.0694276 -0.919123 0.387804
-0.232067 0.143384 0.63998 0.160441 0.917159 -0.364798
0.0494331 -0.179506 0.328721 0 -0.968173 -0.250281
-0.0409942 -0.0273397 0.3438 0 0 -1
-0.0304761 0.163962 0.379855 0 -1 0
-0.182265 0.153628 0.728743 0.300942 -0.885726 0.353444
-0.125183 0.211524 0.00549212 0 0 -1
-0.215803 0.131931 0.628241 1 0 0
-0.230993 0.0374849 0.568048 0 0.0871544 0.996195
-0.216425 -0.211799 0.0922928 0.3826 -0.914922 0.128587
0.0503082 0.0940281 0.348027 -0.054024 -0.391578 0.918558
0.228639 0.146522 0.649375 -0.160418 0.917161 -0.364804
-0.22828 0.13562 0.415418 0 0.342018 -0.939693
-0.118175 0.001879 0.3438 0 0 -1
-0.220677 0.182341 0.748027 0.377192 0.860561 -0.342287
0.0122951 -0.0129394 0.377924 0 0 1
-0.00884646 -0.205014 0.337353 0 0.439224 -0.898378
0.219452 0.159102 0.386491 0.676879 0.567349 -0.468988
-0.0987633 -0.212498 0.36699 0 -0.579717 0.814818
0.0385674 -0.107048 0.377924 0 0 1
0.14267 0.172945 0.677964 -0.265031 -0.891548 0.367288
-0.2332 0.0918276 0.0140518 -0.923894 -2.49151e-06 0.382648
0.00500552 0.164747 0.615997 -0.0141117 -0.927739 0.372963
-0.255931 0.102626 0.558706 -1 0 0
-0.124367 0.204215 0.744058 0.233307 -0.902854 0.36114
0.0208137 0.219016 0.00713874 0 0.6547 -0.755889
-0.101901 0.0856514 0.347479 0.0538954 -0.390652 0.918959
-0.23046 0.11351 0.56558 0.160441 0.917159 -0.364798
-0.191181 0.174503 0.763071 0.113622 6.62206e-06 0.993524
-0.0570781 0.144868 0.574577 0.0704052 -0.957613 0.279323
-0.149257 0.190829 0.726673 0.233307 -0.902854 0.36114
0.22649 0.0263873 0.0202714 0.382664 0 0.923887
-0.199762 0.131502 0.688191 0.300942 -0.885726 0.353444
-0.219839 0.101063 0.544309 0.707615 0.69675 0.117559
0.216324 0.0577498 0.0180213 -0.923851 0 0.382753
-0.0443871 -0.0713011 0.3438 0 0 -1
-0.101903 0.168745 0.388002 0.118069 -0.991159 -0.0605294
-0.22701 0.138737 0.68429 0 -0.929197 0.369585
0.224469 0.140559 0.690214 -0.377144 -0.860582 0.342288
0.0336916 0.206136 0.720037 -0.0141117 -0.927739 0.372963
0.151385 0.172375 0.378354 -0.028985 0.208364 -0.977622
-0.154017 0.155537 0.643898 0.265036 -0.891545 0.367292
0.232793 -0.194373 0.193427 0.923894 -0.378925 0.0532545
0.187688 0.141705 0.397851 -0.31584 -0.948812 0
-0.130933 -0.161948 0.327664 -1.92087e-06 0.861647 -0.507509
0.0471504 0.202888 0.0138579 0 -0.654702 0.755887
-0.227907 -0.123985 0.526906 -0.379951 -0.662586 0.645459
0.213656 -0.0149737 0.0115798 -0.923851 0 0.382753
-0.109202 -0.11275 0.3438 0 0 -1
0.09996 -0.0503897 0.377924 0 0 1
0.0838947 0.21204 0.0158355 0 0 1
-0.115305 -0.0931308 0.377924 0 0 1
0.237766 0.120734 0.459278 0.888026 -0.432063 -0.157259
-0.105914 0.0516118 0.348232 0 1 0
0.21175 0.153991 0.379917 0.195843 -0.327795 -0.924227
0.0798757 0.112628 0.566443 -0.0691927 -0.957707 0.279304
-0.0743172 0.149764 0.406015 0.050282 -0.369944 0.927693
-0.00264817 0.125865 0.395192 0 -0.375196 0.926946
-0.155678 -0.0484279 0.3438 0 0 -1
0.109401 0.206029 0.00549212 0 0 -1
0.0480599 0.149968 0.587818 -0.0694111 -0.919122 0.38781
0.226172 -0.186085 0.290976 0.38266 -0.914898 0.128578
0.224064 0.133948 0.409025 -0.368292 -0.881233 -0.296293
-0.211168 0.0107853 0.3438 0 0 -1
0.0242911 0.0471394 0.377924 0 0 1
0.214412 0.0341567 0.568339 0 0.0871544 0.996195
-0.227573 -0.191733 0.115 -0.382561 0.914939 -0.128584
-0.171493 0.206157 0.0158355 0 0 1
-0.211461 -0.140559 0.3438 0 0 -1
-0.230794 -0.131652 0.534311 0 -0.64212 0.766604
0.0226446 0.151447 0.405546 0 -0.375196 0.926946
0.216639 -0.135289 0.513339 -0.380037 -0.662555 0.64544
-0.197193 -0.173698 0.3438 0 0 -1
-0.0417697 0.12029 0.582969 0.0704225 -0.957624 0.279279
0.233562 -0.173235 0.330505 0.923895 -0.378922 0.0532542
0.105871 0.113545 0.548757 -0.0779749 -0.971431 -0.224146
-0.0163583 0.152443 0.418402 0.0295881 -0.972557 -0.230775
0.119996 0.126369 0.482211 -0.244146 -0.944305 -0.220639
-0.162332 0.146042 0.409302 0.050282 -0.369944 0.927693
0.242341 0.150608 0.715804 0.686782 -0.6754 0.268637
-0.139562 0.000526316 0.3438 0 0 -1
-0.109657 -0.171237 0.342721 0 -0.250339 0.968158
0.208418 0.134804 0.382891 -0.31584 -0.948812 0
-0.138375 -0.161064 0.3438 0 0 -1
0.225196 0.144485 0.647871 -0.377218 0.86055 -0.342287
-0.215465 0.0929863 0.0159493 0.923851 2.49079e-06 0.382753
-0.156687 0.127016 0.569031 0.250367 -0.92942 0.271099
-0.0907972 0.18584 0.752728 0.131089 -0.920465 0.368184
-0.0661212 0.110783 0.389991 0.0511324 -0.370625 0.927374
0.151703 0.0725502 0.345261 -0.0959126 -0.378103 0.920782
0.0999243 0.127201 0.365076 -0.0531275 -0.390874 0.91891
-0.225986 -0.157523 0.49945 0 -0.910931 0.412559
-0.143368 -0.206108 0.371536 0 -0.579717 0.814818
-0.191552 0.146755 0.719426 0.300942 -0.885726 0.353444
-0.225516 0.138647 0.686563 0.37715 -0.860577 0.342294
0.214965 -0.127893 0.515868 -0.922745 -0.276069 0.268938
-0.158956 -0.207854 0.335964 0 0.439224 -0.898378
0.0543944 0.183684 0.399413 -0.0293238 -0.963918 -0.26458
0.0662537 -0.0862945 0.377924 0 0 1
0.208001 0.177408 0.739697 -0.300911 -0.885737 0.353443
-0.215803 0.158002 0.704439 1 0 0
0.0212031 0.191908 0.684171 -0.0141117 -0.927739 0.372963
-0.0689098 0.174264 0.715996 0.131089 -0.920465 0.368184
0.213897 -0.200015 0.374543 0 -0.204662 0.978833
-0.034391 0.029744 0.3438 0 0 -1
0.0715822 0.176746 0.420751 -0.136058 -0.964717 -0.225408
0.216571 0.0896932 0.56348 0 0.0871544 0.996195
0.123721 -0.0858163 0.377924 0 0 1
0.082603 0.145448 0.540642 -0.0779486 -0.970021 -0.230179
0.0560386 -0.136477 0.3438 0 0 -1
-0.0681083 0.131186 0.491049 0.0779065 -0.965828 -0.247198
0.0327975 0.142367 0.451851 -0.0779658 -0.970022 -0.230173
-0.000719074 0.158395 0.395322 0.0295881 -0.972557 -0.230775
-0.218662 0.0787037 0.36489 1 0 0
-0.0120177 0.068374 0.343412 0 0 1
0.0128617 0.133253 0.398182 0 -0.375196 0.926946
-0.0752929 -0.0478381 0.377924 0 0 1
-0.218273 0.12352 0.627514 0.88805 -0.427196 0.169914
0.18441 0.0516118 0.355252 0 1 0
0.107457 -0.151827 0.3438 0 0 -1
0.177975 -0.19052 0.376528 0 -0.204662 0.978833
0.0998968 0.212345 0.754472 -0.0463846 0 0.998924
0.203854 0.151298 0.394969 -0.449956 -0.443751 0.775
0.201897 0.102732 0.618606 -0.265029 -0.891545 0.367297
0.0749045 0.17146 0.643559 -0.0694111 -0.919122 0.38781
-0.0572335 0.161898 0.484473 0.0778979 -0.965828 -0.247201
-0.218508 -0.15669 0.365444 -1 -3.82675e-06 2.29415e-06
-0.14588 -0.166449 0.3438 0 0 -1
0.0265404 0.160873 0.609811 -0.0694111 -0.919122 0.38781
-0.124512 -0.211562 0.367655 0 -0.579717 0.814818
0.195319 0.161563 0.689192 -0.300911 -0.885737 0.353443
-0.132698 -0.0452387 0.3438 0 0 -1
-0.216885 -0.0594151 0.559773 0.380077 -0.266584 0.885706
0.238846 0.162513 0.689668 0.27951 0.892161 -0.354857
-0.158379 0.0143579 0.377924 0 0 1
0.00891878 0.133101 0.498989 -0.0779658 -0.970022 -0.230173
-0.232593 0.174043 0.726262 -0.250831 0.899492 -0.357769
-0.215391 -0.145365 0.0163438 0.92188 0.0659936 0.381814
-0.0454511 -0.156248 0.377924 0 0 1
0.0482686 0.0635522 0.378096 0 0 1
-0.106373 0.0335139 0.377924 0 0 1
-0.0760849 0.160783 0.397784 -0.83206 0 -0.554686
0.147224 0.0516118 0.371575 0 1 0
-0.181392 -0.208282 0.369989 0 -0.579717 0.814818
0.0839858 -0.011507 0.377924 0 0 1
-0.0416545 -0.197243 0.341152 -1.00349e-06 0.439254 -0.898363
-0.122246 0.169696 0.656391 0.233307 -0.902854 0.36114
-0.0240761 0.0269165 0.377924 0 0 1
0.0179127 -0.160736 0.334843 -2.15808e-06 0.968128 0.250457
0.230412 0.186313 0.756305 7.16494e-05 0.369525 0.929221
0.161929 0.105685 0.524335 -0.244146 -0.944305 -0.220639
-0.0574661 0.163581 0.390202 0.13468 -0.990889 0
-0.0759618 0.195851 0.75336 0.0463842 0 0.998924
0.0236074 0.0646925 0.378096 0 0 1
-0.236048 0.141912 0.685095 -0.493328 -0.808255 0.321481
0.228559 0.0169648 0.0194145 0.382664 0 0.923887
0.214181 -0.0816238 0.547332 -0.922748 -0.111079 0.36905
0.209554 0.218102 0.00634704 0 0.6547 -0.755889
-0.0732063 0.138402 0.461247 0.0779065 -0.965828 -0.247198
-0.221045 0.16994 0.721366 0.713503 0.651044 -0.25895
0.0516164 0.167606 0.630256 -0.0694111 -0.919122 0.38781
-0.0636308 0.207353 0.726609 0.0694122 -0.919123 0.387809
-0.0713466 -0.0865053 0.377924 0 0 1
-0.221734 -0.0923971 0.551303 0 0.455628 -0.89017
0.125898 0.111262 0.540337 -0.244146 -0.944305 -0.220639
-0.108945 0.162182 0.447076 -0.83206 0 -0.554686
0.0423467 0.00768818 0.3438 0 0 -1
-0.248251 -0.109625 0.552009 0 -0.455631 0.890169
-0.0636977 0.0757894 0.343412 0 0 1
0.22372 -0.0241597 0.563329 0 -0.996202 0.087068
-0.253811 0.0324447 0.559925 0 -0.087154 -0.996195
-0.0825808 -0.0898543 0.3438 0 0 -1
0.216216 -0.178645 0.324913 -0.923852 -0.379025 0.0532686
0.111504 0.131293 0.470532 -0.244146 -0.944305 -0.220639
0.233102 -0.162016 0.36619 0.923875 0.378971 -0.05326
-0.11326 -0.0534212 0.377924 0 0 1
-0.233221 -0.0525568 0.549845 -0.922864 0.0151232 -0.384828
0.218093 0.118893 0.591358 -0.377181 0.860565 -0.34229
0.223283 0.00867997 0.540868 -0.382661 -0.0805203 -0.920373
0.119164 0.147485 0.669253 -0.233283 -0.90286 0.361142
0.0261499 0.0619612 0.343412 0 0 1
0.193097 -0.161563 0.338042 -2.15808e-06 0.968128 0.250457
0.198114 0.148795 0.659575 -0.300911 -0.885737 0.353443
-0.255931 -0.00621121 0.565875 -1 0 0
0.0747766 0.215202 0.750047 -0.13109 -0.920465 0.368184
0.237925 0.143873 0.68155 0.888086 -0.427131 0.16989
-0.0586372 0.0516118 0.34636 0 1 0
-0.205658 0.118489 0.660603 0.300942 -0.885726 0.353444
-0.233748 0.124065 0.483802 -0.250885 0.909638 0.331082
-0.23066 -0.112211 0.0185437 -0.382664 -1.03186e-06 0.923887
0.22415 0.1322 0.668846 -0.377144 -0.860582 0.342288
-0.193426 0.0955995 0.595182 0.265035 -0.891542 0.3673
-0.170375 0.0778174 0.383968 0.0947496 -0.373513 0.922773
-0.215803 0.170269 0.744461 1 0 0
0.251746 0.0983527 0.554159 0 -0.087154 -0.996195
0.0999969 0.155268 0.377019 -0.0531275 -0.390874 0.91891
-0.159893 -0.16269 0.326405 -1.92087e-06 0.861647 -0.507509
-0.117577 0.153149 0.682389 0.233279 -0.902861 0.361142
0.106897 0.161946 0.698726 -0.13109 -0.920465 0.368184
0.229037 -0.181534 0.191924 0.382664 0.914896 -0.128578
-0.120603 0.119425 0.511259 0.244142 -0.944306 -0.220639
-0.234242 0.188926 0.0115376 -0.923894 -2.49151e-06 0.382648
-0.219717 0.0213317 0.00174907 0.382703 1.03239e-06 -0.923871
-0.203672 0.000749692 0.377924 0 0 1
-0.0444623 0.153942 0.40848 0.0295881 -0.972557 -0.230775
-0.222822 0.0912228 0.528576 0.493302 -0.817398 -0.297512
0.21774 -0.213273 0.0857092 -0.382703 -0.91488 0.128578
-0.227317 -0.158782 0.348695 -0.382772 0.914852 -0.128577
-0.0940897 0.158603 0.409052 0.13468 -0.990889 0
-0.233809 0.0894386 0.551482 -0.48737 -0.856358 0.17065
-0.0190404 0.149346 0.580339 0.0704052 -0.957613 0.279323
0.181145 -0.106713 0.3438 0 0 -1
0.0357638 -0.0669923 0.377924 0 0 1
-0.0690153 -0.118802 0.377924 0 0 1
0.000265878 0.085928 0.379027 0 -0.375196 0.926946
0.214735 -0.00751881 0.563421 0 -0.087154 -0.996195
-0.102442 0.120164 0.395736 0.050282 -0.369944 0.927693
0.232687 -0.0935734 0.543897 0.922792 -0.19988 0.329398
-0.0785532 -0.0258468 0.3438 0 0 -1
-0.222477 0.198867 0.0207215 0.382707 1.03178e-06 0.92387
-0.142989 0.189387 0.758003 0.0941232 0 0.995561
0.221555 -0.195136 0.0634648 -0.377958 0.861989 0.33782
0.0457195 0.111138 0.389231 0 -0.375196 0.926946
-0.0441514 0.144176 0.559485 0.0779849 -0.971442 -0.224094
0.106627 0.141275 0.574766 -0.0691996 -0.957694 0.279346
-0.165518 0.128743 0.541464 0.244501 -0.934016 -0.26045
-0.227861 -0.032254 0.573141 0 -0.0248002 0.999692
-0.0463175 0.181564 0.382651 0.0269079 -0.356761 -0.933808
0.222919 0.108771 0.608584 -0.377144 -0.860582 0.342288
0.185232 -0.0605797 0.377924 0 0 1
0.0101394 0.0720241 0.343412 0 0 1
0.220519 -0.13247 0.521156 0 0.796373 -0.604806
-0.00986246 0.163962 0.400648 0 -1 0
-0.187643 0.0719108 0.38335 0.0947496 -0.373513 0.922773
0.24202 -0.162427 0.48862 0 -0.910931 0.412559
-0.142597 0.0810225 0.382304 0.050282 -0.369944 0.927693
-0.0535788 0.174892 0.714601 0.0694287 -0.919123 0.387804
-0.146863 0.12721 0.638312 0.265035 -0.891542 0.3673
0.0165241 -0.0863484 0.3438 0 0 -1
-0.177362 0.168367 0.376729 0.0289738 0.208401 -0.977614
-0.231002 0.105626 0.48477 0 -0.939692 -0.342021
-0.0200341 0.118872 0.555533 0.0779761 -0.971424 -0.224177
0.0283149 0.0631749 0.378096 0 0 1
-0.244745 -0.0574485 0.563042 0 0.246376 -0.969174
0.0614892 -0.149532 0.3438 0 0 -1
-0.00741653 -0.0104983 0.3438 0 0 -1
-0.218508 -0.219361 0.342083 -1 0 0
0.0661255 0.12828 0.396971 -0.0503854 -0.370699 0.927385
-0.217542 0.106654 0.639014 -1 0 0
-0.0426478 0.132442 0.494166 0.0779065 -0.965828 -0.247198
0.0198842 0.175043 0.642204 -0.0694111 -0.919122 0.38781
-0.161285 0.106209 0.52316 -0.8235 0 -0.567316
-0.2396 -0.0567424 0.563222 0 0.246376 -0.969174
-0.139133 0.134691 0.544978 0.251452 -0.94309 -0.217606
-0.208537 0.12921 0.619371 0.300917 -0.885734 0.353447
0.085032 0.164023 0.467085 -0.136058 -0.964717 -0.225408
-0.234218 -0.130922 0.0097344 -0.923895 -2.4913e-06 -0.382647
0.0247117 0.0973917 0.349354 0 -0.396386 0.918084
-0.233964 0.227938 0.00911932 -0.923895 -2.49149e-06 -0.382647
0.0728657 -0.173483 0.34214 5.5797e-07 -0.250309 0.968166
0.0768374 0.157802 0.678259 -0.0694276 -0.919123 0.387804
0.186712 0.138152 0.625288 -0.265031 -0.891548 0.367288
-0.193946 0.0459712 0.3438 0 0 -1
0.0624438 0.1707 0.445823 -0.0293238 -0.963918 -0.26458
-0.141348 0.160524 0.646859 0.265036 -0.891545 0.367292
-0.157278 0.0510387 0.3438 0 0 -1
0.180321 -0.176463 0.341369 0 -0.250339 0.968158
-0.255931 -0.167577 0.459897 -1 0 0
0.0823102 0.161663 0.407121 0.832055 0 -0.554693
0.23171 -0.19789 0.0637862 0.921875 0.387297 0.0121608
0.0477913 -0.186692 0.343204 -3.63219e-07 0.158991 -0.98728
0.236593 0.0934603 0.527588 0.88803 -0.432057 -0.157257
-0.178868 0.00664303 0.3438 0 0 -1
0.100527 -0.10833 0.377924 0 0 1
-0.132407 0.104092 0.564533 0.250379 -0.929429 0.271057
-0.0104834 0.0516118 0.363167 0 1 0
-0.218509 -0.0738772 0.359315 -1 -3.56797e-06 0
0.0505179 0.0807962 0.343412 0 0 1
0.0137556 0.00137898 0.377924 0 0 1
0.108733 -0.122876 0.3438 0 0 -1
0.217854 -0.103652 0.377924 0 0 1
-0.148003 0.170182 0.744626 0.233279 -0.902861 0.361142
0.217043 0.174736 0.0184704 -0.382707 0 0.92387
-0.0158981 0.185856 0.401095 -0.0170964 0.0792285 0.99671
-0.0191497 -0.138896 0.3438 0 0 -1
0.1766 -0.14133 0.3438 0 0 -1
-0.0152661 0.00443672 0.3438 0 0 -1
-0.233607 -0.168726 0.361788 -0.923895 -0.378922 0.0532542
0.144513 0.130778 0.555811 -0.257005 -0.933116 -0.251483
-0.16015 -0.00664273 0.377924 0 0 1
0.070831 0.147093 0.537696 -0.0779486 -0.970021 -0.230179
-0.157401 0.00355208 0.377924 0 0 1
