0.0377141 0.0980638 0.54763 -0.0652643 -0.958013 0.279197
0.0168516 -0.17169 0.317597 0.00860134 -0.999963 0
-0.107302 0.165998 0.753359 0.253463 -0.927316 0.275392
-0.194861 -0.168734 0.372815 -0.999963 -0.00859902 0.000418919
0.123725 -0.188215 0.373797 0 0 1
0.0147902 -0.112991 0.341151 0 0 -1
0.115648 -0.113377 0.341151 0 0 -1
-0.0478843 -0.118039 0.341151 0 0 -1
-0.142791 -0.0485461 0.302947 0.999963 0.00860403 -5.55695e-06
-0.0234226 -0.0142061 0.255977 -0.888963 0.457979 0
0.0348274 -0.0455369 0.280667 0.975603 0.219541 0
0.128993 -0.0425243 0.341151 0 0 -1
-0.166426 0.129466 0.739542 0.324793 -0.906031 0.271327
-0.0890349 -0.0511918 0.296347 -0.00608093 0.706947 0.70724
-0.0361735 0.129523 0.603464 0.0828727 -0.951348 0.296764
0.236821 0.0107932 0.526948 0 0 1
0.0705886 -0.080332 0.341151 0 0 -1
-0.121407 -0.127988 0.373797 0 0 1
0.198069 -0.101779 0.346457 -0.999963 -0.00859926 0
0.0393944 0.154673 0.68326 -0.0665048 -0.95263 0.296771
0.0176171 -0.0375125 0.0554982 0 0 1
-0.0971906 0.0150504 0.361375 -0.00859891 0.999963 0
-0.227035 0.0279567 0.0186804 -0.329186 -0.908996 0.25566
0.0181742 -0.0352456 0.254182 -0.00148629 0.173659 0.984805
-0.174201 -0.0188776 0.323071 0.0035773 -0.414681 0.90996
-0.0123158 0.0901295 0.0432058 -0.00135449 0.156428 0.987688
0.0785266 0.176309 0.767116 -0.130644 -0.950673 0.281343
-0.171711 -0.230746 0.33516 -0.00377979 0.439368 -0.898299
0.11735 0.111742 0.576404 -0.277414 -0.918776 0.280878
-0.215055 0.0636944 0.0180227 0.300822 0.95368 6.2923e-05
0.104077 0.0954189 0.526554 -0.250287 -0.943491 -0.217211
-0.174227 0.0895959 0.617171 0.293184 -0.913866 0.280878
-0.00666083 0.066468 0.0326169 -0.999963 -0.0086053 0
0.232195 0.0805666 0.393606 0.999963 0.00858973 -1.29465e-05
-0.162876 0.0888724 0.399769 0.126587 -0.348339 0.928782
0.215393 0.0394231 0.481836 -0.999907 -0.00260988 -0.0134168
0.101328 0.140382 0.657092 -0.237514 -0.931527 0.275398
0.0222635 0.163002 0.757657 -0.00723183 -0.958493 0.285023
0.176646 -0.226175 0.33593 -0.00377978 0.439368 -0.898299
0.236533 -0.110286 0.518426 0.000748807 -0.0871466 -0.996195
0.0953194 -0.157204 0.341151 0 0 -1
0.0189058 -0.0235649 0.075321 0.963642 0.267195 0
-0.177376 0.0518085 0.0251257 0.30083 0.953678 0
-0.0220321 -0.0438893 0.0313811 -0.946979 -0.321295 0
-0.0887313 -0.139835 0.0381714 -0.0908609 -0.127341 0.987688
0.000352263 0.137874 0.446329 -0.0744526 -0.970318 -0.230086
0.0330153 0.00606678 0.341151 0 0 -1
0.0252256 0.142166 0.42018 -0.0744526 -0.970318 -0.230086
-0.145609 0.0279021 0.344276 0.0035773 -0.414681 0.90996
0.108458 -0.200201 0.0249733 -0.595503 -0.554965 0.580853
-0.089844 -0.239735 0.331599 0.000426878 -0.0496208 -0.998768
-0.00300334 -0.118194 0.268776 0.00149358 -0.173639 -0.984808
-0.0725749 0.0097848 0.341151 0 0 -1
0.144722 0.176891 0.791388 -0.00149326 0.17363 0.98481
0.0696567 0.0118192 0.0350974 -0.148359 -0.0496123 -0.987688
0.00676949 0.0232414 0.0212244 0.999963 0.0085946 0
0.172307 -0.0638958 0.373797 0 0 1
0.0539635 0.138386 0.430984 -0.0228887 -0.9641 -0.26455
0.0565065 0.190237 0.784757 0.0014934 -0.173626 -0.98481
0.0831105 0.116428 0.375739 -0.0953152 -0.413509 0.905497
-0.128396 0.138682 0.681112 0.293178 -0.913868 0.280878
-0.134692 0.012202 0.373797 0 0 1
-0.177278 -0.251448 0.347453 0.00771754 -0.897095 0.441769
0.0898369 -0.00115484 0.0228103 0.317188 -0.948363 0
0.150599 0.122162 0.64333 -0.277414 -0.918776 0.280878
-0.0525108 -0.114513 0.373797 0 0 1
-0.0308105 -0.0214056 0.0285524 -0.357657 -0.933853 0
-0.0402584 0.123027 0.391217 0.00861408 -0.999963 0
-0.146281 0.0847905 0.364171 0.105097 -0.376986 0.920237
-0.0654924 -0.18126 0.341151 0 0 -1
0.0305064 0.117255 0.461614 -0.0744527 -0.970318 -0.230085
0.0652195 -0.208578 0.373797 0 0 1
0.00241586 0.224907 5.01736e-18 -3.63349e-17 -1.0069e-17 -1
0.0353154 -0.0599828 0.0170838 0.803934 0.594719 0
-0.196389 0.00894156 0.362698 -0.999963 -0.00859927 0
-0.165748 0.0821253 0.504341 0.308501 -0.924658 -0.223234
-0.114056 0.06556 0.386131 0.0565967 -0.36942 0.927537
-0.112425 -0.0849978 0.341151 0 0 -1
0.0327422 -0.173577 0.373797 0 0 1
-0.195749 0.134564 0.742461 0.324787 -0.906033 0.271327
-0.0306582 0.133824 0.457108 0.0910422 -0.964704 -0.247098
0.179211 0.0972597 0.37461 0.00359555 -0.41469 0.909956
0.086169 0.053591 0.346208 -0.0540236 -0.391976 0.918388
0.00661434 -0.00406584 0.103548 0.250445 0.968131 0
0.00653771 0.0333625 0.340779 0 0 1
-0.0465405 -0.110762 0.316961 -0.979232 0.202743 0
-0.191532 0.063936 0.350114 -0.00358628 0.41467 -0.909965
-0.100634 -0.0373259 0.373797 0 0 1
-0.111615 0.120385 0.65332 0.253458 -0.927318 0.275391
-0.156678 0.0337481 0.377577 0.103825 -0.372426 0.922236
0.140894 -0.124266 0.341151 0 0 -1
-0.0558857 -0.0494263 0.284548 -0.00830864 0.96593 -0.258672
0.176496 -0.231086 0.00670215 0.984341 -0.147278 0.0968654
0.230178 0.0319111 0.497478 -0.00349923 0.406706 -0.913552
-0.21495 0.0186878 0.478821 0.999803 0.0145866 -0.0134262
-0.055507 -0.154069 0.29686 -0.979232 0.202743 0
0.258552 0.0473529 0.0220807 0.437741 -0.218301 0.872197
0.0929661 -0.0682235 0.298566 0.00608411 -0.70703 0.707158
-0.0520717 -0.137477 0.322048 -0.979232 0.202743 0
0.169991 -0.192682 0.373797 0 0 1
0.0042031 0.102875 0.556018 -0.0665384 -0.955766 0.286501
0.165003 0.105826 0.627294 -0.999848 -0.00848315 0.0152591
-0.081662 -0.180825 0.314595 0.999963 0.00860325 0
0.0750131 -0.0371889 0.373797 0 0 1
-0.0228733 -0.0964732 0.264916 0.00149358 -0.173639 -0.984808
0.198428 -0.143477 0.344149 -0.999963 -0.00859926 0
-0.00129637 -0.0451758 0.153155 -0.250466 -0.968125 0
-0.118297 0.105107 0.523506 0.266773 -0.92815 -0.259556
-0.122462 -0.215208 0.340251 -0.00136801 0.158973 -0.987282
0.0243297 -0.153899 0.341151 0 0 -1
-0.0170948 0.198683 0.0130152 -0.706214 -0.116683 -0.698317
-0.0331888 -0.170524 0.373797 0 0 1
0.0531812 -0.106092 0.0257513 -0.803931 -0.594723 0
-0.216746 0.0710798 0.402024 0.999803 0.0145872 -0.0134257
0.0614263 -0.163738 0.288274 0.975603 0.219541 0
0.065238 0.151976 0.680394 -0.0665048 -0.95263 0.296771
-0.155648 -0.017626 0.341151 0 0 -1
-0.041184 0.126622 0.642688 0.0828693 -0.951348 0.296767
0.0610736 -0.162171 0.318533 0.975603 0.219541 0
-0.232277 0.0310591 0.49246 -0.999963 -0.00860516 -1.2524e-05
0.0825976 -0.145856 0.0181476 -0.803931 -0.594723 0
-0.12289 -0.189407 0.373797 0 0 1
-0.147802 0.107936 0.381692 0.151437 -0.988467 0
0.10571 0.116045 0.39845 -0.134422 -0.990924 0
-0.0489821 -0.0824213 0.018071 -0.814039 0.58081 0
0.0511856 0.0910289 0.392096 -0.0503396 -0.371089 0.927232
-0.148804 -0.244528 0.332021 0.00400463 -0.465504 -0.885037
-0.169068 -0.0514849 0.373797 0 0 1
-0.191945 0.0840927 0.500637 0.33603 -0.913888 -0.227798
0.237779 -0.0129889 0.510625 0 0 -1
0.148946 0.0410787 0.0350779 0.0612234 0.293341 0.954045
-0.0803133 0.142361 0.706702 0.146992 -0.948286 0.281332
0.191459 0.123741 0.736739 -0.295779 -0.915273 0.273478
0.102108 0.0845191 0.392256 -0.0503396 -0.371089 0.927232
0.0519642 -0.127253 0.270456 0.001492 -0.173639 -0.984808
0.148999 -0.202079 0.0243604 0.297884 0.0324041 0.954052
0.147539 0.125137 0.406833 -0.299603 -0.921642 -0.246605
0.000620842 0.119801 0.522458 -0.0744526 -0.970318 -0.230086
0.0987623 0.102324 0.576092 -0.130646 -0.950673 0.281341
-0.18416 0.0813336 0.553942 0.340296 -0.928744 0.14708
-0.0230368 -0.204347 0.341151 0 0 -1
0.0469111 0.152812 0.726098 -0.0665027 -0.95263 0.296771
0.0069105 -0.0589229 0.25834 0.001492 -0.173639 -0.984808
-0.00314401 -0.0361103 0.254302 -0.001492 0.173679 0.984801
0.167971 -0.0719939 0.286779 0.00839703 -0.978136 -0.207797
-0.1112 -0.241076 0.361539 0.0065516 -0.761567 0.648053
-0.0346245 0.11528 0.528549 0.0911712 -0.970303 -0.224055
-0.159079 -0.0493587 0.289715 -0.00831458 0.965919 0.25871
-0.00503687 0.188807 0.789059 -0.00149431 0.173733 0.984792
0.109042 -0.189556 0.341151 0 0 -1
0.0680509 -0.149859 0.341151 0 0 -1
0.204362 0.0827198 0.354961 0.122859 0.404554 -0.906224
-0.148582 -0.204871 0.0227062 -0.711922 0.394972 0.580659
-0.195957 -0.0413311 0.372478 -0.999963 -0.00859615 -5.80404e-05
0.072976 -0.224132 0.337366 -0.00377979 0.439368 -0.898299
-0.101267 -0.00639249 0.341151 0 0 -1
-0.267056 0.0593746 0.010778 -0.994348 0.0435992 0.0968087
-0.00614303 0.00628737 0.0387044 -0.999963 -0.00859 0
-0.0634327 0.200964 0.786828 -0.00149342 0.173639 0.984808
-0.0749714 0.130342 0.370853 -0.102419 0.411816 -0.905493
-0.145658 -0.0653952 0.373797 0 0 1
-0.146936 0.10842 0.649932 0.293184 -0.913866 0.280878
0.113294 0.105291 0.599227 -0.277414 -0.918776 0.280877
-0.248134 0.0502881 0.0228522 0 0 1
-0.0305038 -0.0365788 0.0550834 -0.255239 -0.0336492 0.966292
0.253749 -0.0291506 0.526948 0 0 1
0.16872 0.0165665 0.327116 -0.00356086 0.414683 -0.909959
0.155019 0.0612331 0.347525 -0.00356086 0.414683 -0.909959
-0.132454 0.11929 0.396519 0.24499 -0.941186 -0.232699
-0.0157047 0.176069 0.0289428 -0.260104 0.148872 0.954035
0.00251397 0.161648 0.703206 -0.00723198 -0.958493 0.285023
0.103449 -0.0706628 0.341151 0 0 -1
-0.100356 -0.0642405 0.27654 0.0022289 -0.259009 -0.965872
-0.0477192 -0.172245 0.313884 0.00860134 -0.999963 0
0.00105967 -0.0585675 0.0425644 -0.00493303 -0.573055 -0.819502
-0.0384801 0.0211386 0.37396 0 0 1
0.0953613 -0.019567 0.341151 0 0 -1
-0.068608 0.121754 0.432849 0.0910435 -0.964704 -0.247099
0.180134 -0.0432392 0.341151 0 0 -1
0.0246857 0.171271 0.788052 0.00149387 -0.173697 -0.984798
-0.118915 0.104751 0.55912 0.272901 -0.923375 0.270006
0.209003 0.106569 0.377311 -0.00783598 0.913489 0.406788
0.130603 0.14701 0.75434 -0.237512 -0.931528 0.275397
-0.0833186 -0.0834868 0.341151 0 0 -1
0.00753153 -0.0197868 0.251441 -0.00149072 0.173662 0.984804
-0.0161427 0.1653 0.793187 -0.00149771 0.174185 0.984712
-0.0947139 -0.161922 0.325956 -0.0983667 0.256657 0.961484
-0.0723098 0.152615 0.737083 0.146992 -0.948286 0.281332
-0.0366915 0.064835 0.348824 0.00341092 -0.396368 0.918086
-0.0218095 -0.0145591 0.307604 -0.0014859 0.173634 0.984809
0.019862 -0.0152109 0.180578 0.963646 0.267183 0
-0.0767181 -0.00248237 0.0130759 0.0249639 -0.00787645 -0.999657
-0.00629384 0.134937 0.39619 0.0398106 -0.972195 -0.230763
-0.252054 -0.131221 0.526948 0 0 1
-0.187771 -0.0974922 0.373797 0 0 1
-0.161775 0.141061 0.772696 0.324793 -0.906031 0.271327
-0.023765 -0.093724 0.373797 0 0 1
0.00299532 0.173193 0.742045 -0.00723198 -0.958493 0.285023
0.113951 -0.0721113 0.373797 0 0 1
-0.0474226 0.119213 0.450574 0.0910435 -0.964704 -0.247099
-0.194638 -0.194691 0.371011 -0.999963 -0.00859631 -5.06714e-05
-0.0357124 0.139 0.680843 0.0828693 -0.951348 0.296767
0.0173217 -0.00190558 0.0234809 0.579975 0.814634 0
-0.125906 0.0961301 0.587992 0.293184 -0.913866 0.280878
-0.176842 0.072308 0.529391 0.336094 -0.9208 -0.197909
-0.0151022 0.144571 0.696282 0.0237269 -0.958227 0.285023
0.183854 0.0751884 0.396136 -0.0974004 -0.374143 0.922242
0.0247962 -0.0712702 0.296106 0.00608429 -0.707022 0.707165
0.198527 -0.154904 0.368894 -0.999963 -0.00860043 -4.97054e-05
-0.142139 0.101612 0.499146 -0.839041 -0.00719614 -0.54402
-0.0163824 0.136333 0.380332 0.0542441 -0.41372 0.908787
0.0210285 0.186093 0.789577 -0.00149431 0.173733 0.984792
0.177853 0.138937 0.772881 -0.295779 -0.915273 0.273478
0.10581 0.0741063 0.356106 -0.0530765 -0.391265 0.918746
0.168167 0.105585 0.613172 -0.321783 -0.908127 0.267882
-0.214878 0.0982993 0.367143 -0.376298 0.374149 -0.847592
0.180959 0.0898213 0.575099 -0.321783 -0.908127 0.267882
-0.120697 0.168533 0.774224 0.253463 -0.927316 0.275392
0.16626 0.130135 0.73359 -0.309146 -0.911488 0.271328
-0.0265474 -0.023778 0.373797 0 0 1
-0.0208229 -0.0248512 0.146116 -0.963653 -0.267157 0
-0.0243697 -0.240503 0.361335 0.0065516 -0.761567 0.648053
0.101851 0.154075 0.753441 -0.237512 -0.931528 0.275397
-0.184193 0.100624 0.661128 0.337399 -0.902444 0.267873
-0.0803591 0.120189 0.492028 0.0910422 -0.964704 -0.247098
-0.0541642 0.142969 0.403954 0.135154 -0.962878 -0.233663
-0.139302 -0.243396 0.0228522 0 0 1
0.192574 0.0794806 0.488144 -0.320261 -0.919532 -0.227803
-0.121364 -0.189092 0.341151 0 0 -1
0.0619409 -0.199511 0.341151 0 0 -1
0.0301621 0.100819 0.36411 0.00341447 -0.396364 0.918087
0.0724095 0.130659 0.613574 -0.0665048 -0.95263 0.296771
0.0157336 -0.0385559 0.13031 0.713088 -0.701075 0
-0.0239505 -0.0437984 0.341151 0 0 -1
-0.178402 0.112825 0.403763 0.308453 -0.924675 -0.223232
-0.245066 0.00249638 0.510625 0 0 -1
-0.10005 0.0597467 0.350349 0.0606066 -0.390071 0.918788
-0.0202256 -0.0213732 0.0899359 -0.968095 0.250582 0
0.00262456 -0.0662639 0.373797 0 0 1
-0.184532 0.0136066 0.341151 0 0 -1
-0.0626915 -0.227546 0.369851 0.00312023 -0.3627 0.931901
-0.0161111 -0.0155387 0.0416237 0 0 1
-0.215815 0.0547397 0.453571 0.999803 0.0145866 -0.0134262
-0.151341 0.0145848 0.355215 -0.00859891 0.999963 0
0.0132883 -0.0625287 0.316115 -0.0014936 0.173639 0.984808
0.0953805 0.11853 0.579789 -0.0665048 -0.95263 0.296771
0.228417 0.0582877 0.385795 0.00784543 -0.913509 -0.406742
-0.0181802 -0.0343836 0.204416 -0.963653 -0.267157 0
-0.0958808 -0.182556 0.031677 0.122889 -0.273304 0.954046
-0.0646084 -0.0103633 0.0361459 -0.300825 -0.953679 0
0.0343732 -0.0873431 0.320523 -0.0014936 0.173639 0.984808
-0.190463 -0.211176 0.340994 -0.00136801 0.158973 -0.987282
-0.116354 0.156982 0.731332 0.253463 -0.927316 0.275392
0.0512984 0.10245 0.517324 -0.0744527 -0.970318 -0.230085
-0.187092 0.0308048 0.0162939 -0.149184 0.0470698 0.987688
0.0298437 0.130482 0.650593 -0.0665027 -0.95263 0.296771
-0.183341 0.147415 0.780469 0.311416 -0.910069 0.273486
-0.133308 0.0879011 0.516381 0.266502 -0.938437 -0.2198
-0.049731 0.161021 0.75535 0.0828693 -0.951348 0.296767
0.0415525 -0.124757 0.373797 0 0 1
0.0109172 -0.162728 0.333779 -0.0014936 0.173639 0.984808
-0.0696528 0.131524 0.619228 0.0828727 -0.951348 0.296764
0.137763 0.111697 0.380061 -0.134422 -0.990924 0
-0.239041 -0.069227 0.514476 0.000750795 -0.0871484 -0.996195
0.106779 0.113137 0.619216 -0.237512 -0.931528 0.275397
0.159133 -0.0867236 0.341151 0 0 -1
0.00846356 0.146016 0.409369 -0.0744526 -0.970318 -0.230086
0.120579 0.10287 0.548129 -0.256982 -0.927954 0.269929
-0.092065 -0.162951 0.0108084 0.0152064 0.0213076 -0.999657
0.101673 -0.248365 0.336553 0.00683842 -0.794908 -0.606692
-0.122039 0.113057 0.639031 0.293184 -0.913866 0.280878
-0.154482 0.160133 0.778447 0.324787 -0.906033 0.271327
-0.012806 0.159813 0.747332 0.0237269 -0.958227 0.285023
0.101529 0.0165232 0.020526 -0.31719 0.948362 0
0.0548117 -0.123899 0.341151 0 0 -1
0.0212552 0.157734 0.379523 0.0471093 0.41459 -0.908788
0.0952247 0.145699 0.379558 0.0953003 0.413478 -0.905513
-0.0464255 0.13529 0.624814 0.0828727 -0.951348 0.296764
-0.140801 -0.0459607 0.341151 0 0 -1
0.0663677 -0.240425 0.360509 0.0065516 -0.761567 0.648053
-0.0275624 0.138655 0.438766 0.0398115 -0.972195 -0.230764
0.0387873 0.127983 0.377638 -0.0471065 -0.414577 0.908794
0.122818 -0.240365 0.360009 0.0065516 -0.761567 0.648053
-0.0023489 0.0509174 0.0494298 -0.00134489 0.156427 0.987688
0.258838 0.0196636 0.511424 0.999963 0.00855866 0
0.0921673 -0.102725 0.341151 0 0 -1
0.153646 -0.238503 4.9458e-18 3.50831e-17 1.38171e-17 -1
0.140409 0.0851781 0.528507 -0.263917 -0.931484 -0.250369
-0.176038 -0.0495543 0.298336 -0.00358628 0.41467 -0.909965
-0.178669 -0.212744 0.37357 0.00106095 -0.123326 0.992366
0.0990156 0.0955649 0.364852 -0.0530765 -0.391265 0.918746
0.0321452 -0.211016 0.340712 -0.00136801 0.158973 -0.987282
0.167233 0.0821991 0.512797 -0.320261 -0.919532 -0.227803
0.107972 -0.163824 0.324084 0.0983467 -0.256677 0.961481
0.187822 -0.105707 0.373797 0 0 1
-0.0404802 0.129116 0.414471 0.0910435 -0.964704 -0.247099
-0.232537 0.0614602 0.425875 -0.999963 -0.00860515 -1.25229e-05
-0.13526 0.0119226 0.017517 -0.300825 -0.953679 0
0.230842 0.0133906 0.486677 0.00791731 -0.913505 -0.406751
0.0504821 -0.115104 0.310364 0.975603 0.219541 0
0.167507 0.127469 0.386106 0.434579 0.8202 0.37204
0.259355 -0.118333 0.519925 0.984322 -0.17638 0
0.0924775 0.168014 0.745564 -0.130644 -0.950673 0.281343
0.0939609 -0.160307 0.0108576 -0.015568 0.0210446 -0.999657
-0.0169651 0.0623927 0.380445 0.00322864 -0.375186 0.926944
-0.0330002 0.11209 0.483699 0.0910435 -0.964704 -0.247099
0.148179 0.120898 0.684734 -0.277414 -0.918776 0.280877
-0.0907094 0.175783 0.775207 0.146976 -0.948287 0.281335
0.0609743 0.118734 0.448473 -0.0228688 -0.964097 -0.264563
-0.00926974 -0.0837144 0.341151 0 0 -1
-0.149564 -0.212556 0.373562 0.00106095 -0.123326 0.992366
-0.00910225 0.123295 0.376313 0.00861408 -0.999963 0
0.176138 0.121317 0.711942 -0.321841 -0.908111 0.267868
0.157694 0.153392 0.79555 -0.00148735 0.173557 0.984823
0.17798 0.0745442 0.536891 0.424367 0.00353592 -0.905483
-0.109574 -0.199124 0.0286098 -0.0908532 -0.127348 0.987688
0.0220563 0.119535 0.613709 -0.0665027 -0.95263 0.296771
-0.0681321 -0.00982798 0.050246 -0.149189 0.0470569 0.987688
0.0084222 0.205452 0.786145 -0.00149436 0.173796 0.98478
0.12632 0.093339 0.510087 -0.25033 -0.942881 -0.219797
0.106065 -0.180211 0.0174604 -0.0930398 0.125759 -0.987688
0.195455 0.100912 0.627005 0.999962 0.00867055 -2.35015e-05
-0.0787409 -0.0872644 0.373797 0 0 1
0.045174 0.00501259 0.373797 0 0 1
-0.221411 0.0455388 0.506063 -0.00792128 0.913459 0.406853
-0.0635921 0.118139 0.506208 0.0910422 -0.964704 -0.247098
0.062683 0.0166093 0.340779 0 0 1
-0.193066 0.116332 0.727573 0.324793 -0.906031 0.271327
0.162929 0.15452 0.762508 -0.309146 -0.911487 0.271329
-0.123774 -0.16605 0.024539 -0.814047 0.580799 4.87134e-05
-0.195383 0.0943157 0.454326 -0.999963 -0.00857663 1.27783e-07
-0.151424 -0.0345173 0.373797 0 0 1
0.21546 0.0019383 0.525744 -0.999963 -0.00864513 0
0.195496 0.0960926 0.605016 0.999962 0.00867055 -2.35015e-05
-0.0206682 -0.220086 0.372489 0.00106095 -0.123326 0.992366
-0.0269351 -0.150685 0.341151 0 0 -1
0.14384 0.011451 0.341151 0 0 -1
0.194732 -0.0567905 0.301577 -0.00265995 0.309017 0.951053
-0.0950226 -0.148447 0.341151 0 0 -1
-0.0130643 -0.169586 0.334952 -0.0014936 0.173639 0.984808
0.190177 0.125941 0.697546 -0.309146 -0.911487 0.271329
0.194565 0.103218 0.668338 0.999962 0.0086699 -2.34568e-05
-0.195817 -0.158871 0.349123 -0.999963 -0.00860302 0
0.0276216 -0.160023 0.276197 0.00149358 -0.173639 -0.984808
-0.0732094 0.152336 0.687035 0.146976 -0.948287 0.281335
0.108128 0.183115 0.790234 -0.00149431 0.173733 0.984792
-0.0927922 0.0967219 0.561129 0.0830161 -0.956616 0.279274
0.156553 0.0948566 0.530043 -0.254255 -0.947057 -0.196055
-0.0162584 0.21864 0.00110025 -0.70109 -0.713073 0
-0.0650111 -0.24874 0.335166 0.00683838 -0.794907 -0.606693
-0.195318 -0.115586 0.348572 0.999963 0.00859927 0
0.0180396 -0.15387 0.310746 -0.00608605 0.706971 -0.707217
-0.0182506 -0.0467134 0.373797 0 0 1
-0.195717 -0.0691361 0.351276 0.999963 0.00859927 0
0.174653 0.0328118 0.0103843 -0.0248258 -0.00830199 -0.999657
-0.196963 0.0592657 0.372113 0.999963 0.00860085 0
0.196972 0.0419149 0.355502 -0.999963 -0.00860067 0
0.0120658 -0.11665 0.325656 -0.0014936 0.173639 0.984808
-0.129524 -0.082864 0.373797 0 0 1
0.0295599 0.137551 0.626095 -0.0665048 -0.95263 0.296771
-0.00829115 0.114145 0.0394078 -0.00135449 0.156428 0.987688
0.177263 0.100149 0.425303 -0.292523 -0.929836 -0.22324
-0.00189352 0.0974359 0.0119952 0.000225352 -0.0261762 -0.999657
0.0169338 -0.178147 0.341151 0 0 -1
0.0750267 0.159247 0.707837 -0.130644 -0.950673 0.281343
-0.216877 -0.0344667 0.511452 0.000752212 -0.0871478 -0.996195
0.0276491 0.108817 0.580558 -0.0665027 -0.95263 0.296771
0.0331592 -0.021193 0.0554982 0 0 1
0.0440974 -0.102678 0.266111 0.001492 -0.173639 -0.984808
0.0208838 -0.0113391 0.373797 0 0 1
0.172191 -0.0151568 0.312646 -0.00356086 0.414683 -0.909959
0.177722 0.0782986 0.365975 0.00359555 -0.41469 0.909956
0.0183508 -0.0369484 0.014201 0 0 -1
-0.00367811 -0.032014 0.341151 0 0 -1
0.150895 -0.0508698 0.341151 0 0 -1
-0.175554 -0.0764768 0.341151 0 0 -1
0.175388 0.0938855 0.45385 -0.292523 -0.929836 -0.22324
-0.114883 0.116116 0.48113 0.266499 -0.938438 -0.219801
0.144645 0.00830461 0.373797 0 0 1
-0.163505 -0.0340798 0.316101 0.0035773 -0.414681 0.90996
-0.0318417 -0.128135 0.327615 -0.0014936 0.173639 0.984808
-0.0761583 -0.193273 0.373797 0 0 1
0.127961 0.0850113 0.544145 -0.256992 -0.927947 0.269944
-0.015285 -0.251451 0.341326 0.00840023 -0.976452 -0.215572
0.193531 0.0741478 0.572927 -0.321841 -0.908111 0.267868
0.00386652 0.114977 0.401656 0.00323204 -0.37519 0.926943
-0.0324481 -0.0426965 0.306946 -0.979232 0.202743 0
0.0780191 0.176489 0.791357 -0.00149326 0.17363 0.98481
0.128119 -0.202283 0.00944202 -0.015568 0.0210446 -0.999657
0.0442705 -0.24619 0.353957 0.00655159 -0.761567 0.648053
-0.0206914 -0.168016 0.277533 0.00149358 -0.173639 -0.984808
0.15582 -0.0477906 0.373797 0 0 1
-0.0187362 -0.0323783 0.237754 -0.963653 -0.267157 0
-0.151065 0.134425 0.738852 0.293184 -0.913866 0.280878
0.121904 -0.203003 0.318726 0.71314 -0.701021 0
0.113372 0.0168611 0.346111 -0.00859891 0.999963 0
0.0682114 0.144905 0.387175 -0.0954129 -0.413496 0.905493
0.130324 0.165804 0.768088 -0.237514 -0.931527 0.275398
0.0521755 0.143374 0.412962 -0.0228887 -0.9641 -0.26455
0.111268 0.143739 0.387835 0.212085 0.876354 0.432462
0.0916902 0.135228 0.428587 -0.136058 -0.964778 -0.225145
0.166075 0.0522466 0.354149 0.00359555 -0.41469 0.909956
-0.168493 -0.206955 0.341151 0 0 -1
-0.0223632 0.122576 0.504076 0.0910422 -0.964704 -0.247098
-0.175139 0.108917 0.424459 0.308453 -0.924675 -0.223232
-0.027092 -0.124863 0.269915 0.00149358 -0.173639 -0.984808
-0.0675531 0.18004 0.781842 0.0492937 0.000430291 0.998784
0.091942 0.133038 0.67671 -0.130646 -0.950673 0.281341
-0.0685288 -0.0703063 0.297873 0.00608429 -0.707022 0.707165
0.103482 -0.163723 0.373797 0 0 1
0.120603 0.0929315 0.364977 -0.0530765 -0.391265 0.918746
-0.103983 0.109954 0.61117 0.253458 -0.927318 0.275391
0.066121 0.125736 0.643489 -0.0665027 -0.95263 0.296771
0.0102375 -0.000954445 0.0554982 0 0 1
-0.146986 0.0136746 0.0372155 -0.149191 0.047053 0.987688
-0.18719 0.0903266 0.585152 0.293178 -0.913868 0.280878
0.150154 -0.244646 0.354701 0.0065516 -0.761567 0.648053
0.106084 0.154024 0.707337 -0.237514 -0.931527 0.275398
0.185163 -0.156673 0.341151 0 0 -1
0.229672 -0.0525827 0.526948 0 0 1
-0.196697 0.0283591 0.353316 0.999963 0.00860085 0
0.148402 0.113813 0.661777 -0.277414 -0.918776 0.280877
0.156589 -0.00324734 0.341151 0 0 -1
-0.00344276 -0.126806 0.373797 0 0 1
-0.00195985 -0.0151421 0.0554982 0 0 1
-0.181429 -0.122639 0.341151 0 0 -1
0.0628483 -0.170184 0.373797 0 0 1
0.05515 -0.0962773 0.373797 0 0 1
0.102883 0.09255 0.546185 -0.256992 -0.927947 0.269944
-0.0244689 0.18403 0.780325 0.0237445 -0.958227 0.285023
-0.116071 -0.0500964 0.28398 -0.00830864 0.96593 -0.258672
-0.0196644 -0.188325 0.373797 0 0 1
0.166157 -0.229081 0.0228522 0 0 1
-0.00458473 -0.00159756 0.253741 -0.00863132 0.999963 0
0.0139951 0.0480979 0.0364189 0.31027 -0.146114 -0.939352
-0.160132 0.0271034 0.333207 -0.00359449 0.414677 -0.909962
-0.0659271 -0.165529 0.308282 0.00222534 -0.258882 -0.965907
-0.0750353 0.110584 0.552977 0.0830198 -0.956629 0.27923
-0.22995 0.0280314 0.510625 0 0 -1
-0.181066 0.0963923 0.38509 0.341547 -0.939865 0
0.0506503 -0.151713 0.313279 -0.00831542 0.965939 -0.258635
0.0917061 -0.115472 0.373797 0 0 1
-0.0418575 0.155606 0.688668 0.0828727 -0.951348 0.296764
0.10268 0.0166837 0.37396 0 0 1
-0.0580635 0.149427 0.385158 0.114129 -0.959286 -0.258349
0.232311 0.0670747 0.424998 0.999963 0.00858973 -1.29465e-05
0.163795 0.0313114 0.333855 -0.00356086 0.414683 -0.909959
0.111343 0.107315 0.467191 -0.25033 -0.942881 -0.219797
0.0685558 0.0969035 0.363658 -0.0540236 -0.391976 0.918388
-0.00643369 -0.0393617 0.0416237 0 0 1
-0.0560314 -0.156602 0.332189 -0.979232 0.202743 0
0.18304 -0.0153532 0.323276 0.00355993 -0.414681 0.90996
0.134676 0.147776 0.711387 -0.277414 -0.918776 0.280878
0.156643 -0.0595351 0.301755 0.000898873 -0.104426 0.994532
-0.258013 -0.0132013 0.513361 -0.999963 -0.00860005 -8.85486e-07
0.14455 -0.0537731 0.281306 -0.999962 -0.00871582 0
-0.0712458 -0.0416117 0.373797 0 0 1
0.0580504 0.12251 0.38487 -0.134422 -0.990924 0
0.177291 0.107015 0.664839 -0.321841 -0.908111 0.267868
-0.0643829 0.131143 0.395868 0.152668 -0.96229 -0.225145
0.166584 0.0238949 0.37396 0 0 1
-0.136361 0.113944 0.371276 -0.150368 0.408899 -0.900106
-0.0987105 0.14906 0.689313 0.146976 -0.948287 0.281335
-0.0679202 0.103609 0.576384 0.0828693 -0.951348 0.296767
-0.00150388 0.151809 0.033452 -0.00135449 0.156428 0.987688
0.140211 -0.142421 0.373797 0 0 1
-0.17063 0.0575015 0.347101 -0.00349777 0.414692 -0.909955
-0.0106444 -0.0785906 0.261781 0.00149358 -0.173639 -0.984808
0.160778 -0.0424566 0.30025 -0.00356086 0.414683 -0.909959
0.215229 0.0287443 0.521547 -0.999963 -0.00859822 -0.000130147
0.123722 0.122351 0.617403 -0.277414 -0.918776 0.280878
-0.0189675 -0.153975 0.373797 0 0 1
0.0425118 -0.0796851 0.278211 0.975603 0.219541 0
0.0161824 -0.222686 0.371478 0.00312022 -0.3627 0.931901
0.216378 -0.104822 0.524576 -0.999963 -0.00858731 0
-0.228296 -0.0108193 0.510603 3.5438e-06 -0.000408915 1
-0.0273144 0.118736 0.56641 0.0828727 -0.951348 0.296764
0.0250503 0.153685 0.726398 -0.00723183 -0.958493 0.285023
0.198135 -0.00816754 0.373598 0.999963 0.00860629 -0.000221786
-0.161109 0.0892043 0.602204 0.293184 -0.913866 0.280878
-0.196188 -0.0143952 0.365604 0.999963 0.00859927 0
-0.0997543 0.0877839 0.39411 0.0565967 -0.36942 0.927537
0.132987 0.0211685 0.0251154 0.14835 0.0496346 0.987689
-0.0289479 -0.184881 0.341151 0 0 -1
0.0993262 0.125575 0.46534 -0.136058 -0.964778 -0.225145
-0.084413 0.00258628 0.0331478 -0.149184 0.0470698 0.987688
0.0870755 -0.202364 0.341151 0 0 -1
0.0216757 0.0596379 0.346363 0.00341092 -0.396368 0.918086
-0.0134086 0.0252747 0.340779 0 0 1
-0.246443 -0.0525513 0.526948 0 0 1
0.0817418 0.12249 0.48651 -0.0228887 -0.9641 -0.26455
0.135007 0.0760278 0.390674 -0.0510119 -0.370124 0.927581
0.197369 -0.0203603 0.341563 -0.999963 -0.00859926 0
0.0538531 0.134067 0.620356 -0.0665048 -0.95263 0.296771
0.250311 -0.0469787 0.512898 0.000748807 -0.0871466 -0.996195
0.12 0.121813 0.382272 -0.14334 -0.411458 0.900087
-0.148427 -0.131148 0.373797 0 0 1
-0.181433 0.0873538 0.460361 0.336059 -0.913878 -0.227797
-0.060814 -0.227771 0.336149 -0.00377979 0.439368 -0.898299
-0.143821 0.071241 0.35578 0.999963 0.00860494 -7.34735e-06
0.00117621 -0.0186758 0.308365 -0.00149201 0.17364 0.984808
-0.153518 0.0828469 0.573596 0.293184 -0.913866 0.280878
-0.18382 0.018258 0.374378 0.103825 -0.372426 0.922236
0.0528508 -0.159866 0.333338 -0.0014936 0.173639 0.984808
-0.121797 -0.205935 0.0125598 0.0908634 0.12734 -0.987688
0.0196516 -0.0597446 0.276105 -0.00222921 0.259045 -0.965863
-0.0488339 0.130294 0.656596 0.0828693 -0.951348 0.296767
0.0487497 0.17142 0.739115 -0.0665048 -0.95263 0.296771
-0.0137271 0.131535 0.652343 0.0237269 -0.958227 0.285023
0.104139 0.132653 0.633373 -0.237514 -0.931527 0.275398
0.165326 0.0554707 0.38618 -0.0974004 -0.374143 0.922242
-0.232488 0.0556107 0.472252 -0.999963 -0.00860515 -1.25229e-05
0.246696 0.0573622 5.60571e-18 -3.60397e-17 5.44598e-17 -1
-0.214642 0.00541894 0.516083 0.999963 0.00859169 -3.85991e-05
-0.10313 -0.190387 0.314218 0 0 -1
-0.216538 0.0621312 0.379925 0.996923 -0.0245631 0.0744424
0.0338185 -0.079918 0.0320013 -0.803931 -0.594723 0
-0.0763618 0.118881 0.388918 0.151437 -0.988467 0
0.0483777 0.136418 0.392595 -0.0230666 -0.971604 -0.235485
0.143045 0.155414 0.744639 -0.277414 -0.918776 0.280878
0.128632 -0.177001 0.341151 0 0 -1
-0.110913 0.121905 0.371081 -0.102415 0.411799 -0.905501
0.197643 -0.0522189 0.360559 0.999963 0.00859926 0
0.199153 -0.227824 0.344103 0.999963 0.00859926 0
0.169076 0.144121 0.783783 -0.309146 -0.911488 0.271328
-0.0413005 -0.085453 0.289879 -0.979232 0.202743 0
0.11673 -0.0656453 0.277417 0.00222878 -0.259005 -0.965873
0.0235274 -0.247742 0.351472 0.00771751 -0.897096 0.441768
0.0422858 -0.0131384 0.341151 0 0 -1
-0.00865638 0.00501435 0.0554982 0 0 1
-0.0480479 -0.103593 0.0314708 0.814043 -0.580805 0
-0.00301865 -0.171861 0.311682 0.00860134 -0.999963 0
0.0196231 -0.0557359 0.0450133 0.593501 -0.804833 0
-0.162911 0.119362 0.65428 0.293178 -0.913868 0.280878
-0.0395972 -0.072107 0.037376 -0.0908736 -0.127335 0.987688
-0.0568529 -0.16057 0.27646 -0.979232 0.202743 0
0.062392 0.113964 0.401884 -0.0503396 -0.371089 0.927232
0.0661029 -0.17365 0.341151 0 0 -1
-0.0990687 -0.200564 0.373797 0 0 1
-0.140436 0.150891 0.733401 0.293178 -0.913868 0.280878
-0.132953 -0.0725869 0.296147 0.00608429 -0.707022 0.707165
0.00315412 -0.00153076 0.296358 -0.00863132 0.999963 0
0.0258941 0.124588 0.494094 -0.0744526 -0.970318 -0.230086
-0.0355786 -0.00504909 0.373797 0 0 1
-0.187748 0.106499 0.369496 -0.00349777 0.414692 -0.909955
-0.103364 -0.223201 0.338563 -0.00377979 0.439368 -0.898299
0.223102 0.0913928 0.36969 0.790062 0.255013 -0.557468
0.0735284 -0.0484083 0.284191 -0.00831261 0.965969 -0.258524
0.237261 0.0446498 0.510625 0 0 -1
0.0346624 -0.0448038 0.257643 0.975603 0.219541 0
-0.193847 -0.0495001 0.289126 -0.00829278 0.965964 0.258545
-0.0526295 0.0748956 0.386063 0.0575018 -0.370088 0.927215
0.133483 -0.237855 0.00228341 -0.93044 -0.366444 0
0.054939 -0.0550448 0.277284 -0.00222788 0.259005 -0.965873
-0.0155036 0.179989 0.765993 0.0237445 -0.958227 0.285023
0.0689785 -0.105488 0.0233641 0.803934 0.594719 0
0.0361062 -0.171524 0.323984 0.00860134 -0.999963 0
0.188715 -0.0514476 0.373797 0 0 1
0.150068 -0.232594 0.333006 -0.00323017 0.375478 -0.926826
0.0338251 -0.00751137 0.0142297 -0.948329 -0.317289 0
0.101724 0.0654746 0.384632 -0.0510119 -0.370124 0.927581
-0.0670291 -0.130197 0.0230714 0.814043 -0.580805 0
0.161963 0.0977114 0.470846 -0.999555 -0.00866719 0.028541
0.19911 -0.222751 0.367438 -0.999963 -0.00860043 -4.97054e-05
-0.0495562 -0.125327 0.297441 -0.979232 0.202743 0
-0.0652185 -0.101078 0.0453313 -0.0908609 -0.127341 0.987688
-0.167222 -0.0718313 0.373797 0 0 1
-0.0140404 0.153927 0.377423 -0.0542453 0.413704 -0.908794
-0.0127326 0.0863996 0.358045 0.00341092 -0.396368 0.918086
0.0608531 -0.0308904 0.341151 0 0 -1
0.0822307 -0.163429 0.326823 0.0983593 -0.256799 0.961447
-0.0339955 -0.05017 0.288614 -0.979232 0.202743 0
-0.169433 -0.238701 5.14064e-18 8.94905e-17 -1.08589e-16 -1
0.182247 -0.216341 0.372737 0.00106095 -0.123326 0.992366
0.0450259 -0.170299 0.278035 0.00149358 -0.173639 -0.984808
-0.254208 0.0163771 0.526948 0 0 1
0.00673821 -0.0156752 0.014201 0 0 -1
0.0575224 0.0957604 0.544102 -0.074462 -0.971724 -0.224073
-0.161135 -0.113128 0.341151 0 0 -1
0.149318 0.0106123 0.324479 -0.00356086 0.414683 -0.909959
-0.00644317 -0.0663311 0.316756 -0.00149199 0.173638 0.984808
0.0427825 -0.0657965 0.373797 0 0 1
-0.240857 -0.116812 0.518638 0.000750795 -0.0871484 -0.996195
0.0811434 0.0345488 0.37396 0 0 1
-0.00333783 -0.0269818 0.373797 0 0 1
0.142117 -0.197537 0.373797 0 0 1
0.115085 -0.160192 0.341151 0 0 -1
0.0326822 -0.154557 0.325032 -0.00608158 0.706974 0.707214
0.00205109 0.139543 0.678258 -0.00723183 -0.958493 0.285023
-0.0822927 0.106564 0.589868 0.0828693 -0.951348 0.296767
-0.204564 0.0368046 0.0095737 0.0249638 -0.00787663 -0.999657
-0.164278 0.0842344 0.370021 0.00358474 -0.414682 0.909959
0.162485 0.0496209 0.0240226 -0.344784 0.903175 -0.255732
0.0181932 0.120682 0.513055 -0.0744526 -0.970318 -0.230086
-0.105665 -0.00640695 0.0311436 0.0662307 -0.29233 -0.954021
0.0529227 -0.146764 0.273898 0.001492 -0.173639 -0.984808
0.0424043 -0.00325153 0.032251 -0.31719 0.948362 0
-0.0116869 0.12787 0.591327 0.0828727 -0.951348 0.296764
0.0662747 -0.0810788 0.0420109 0.80057 0.541785 0.256041
-0.122307 -0.0530921 0.341151 0 0 -1
0.23247 0.0485233 0.413201 0.999963 0.00858932 -1.29812e-05
0.143763 -0.0704687 0.341151 0 0 -1
0.0197222 -0.0337842 0.22154 0.968131 -0.250444 0
-0.0427131 0.150721 0.720372 0.0828693 -0.951348 0.296767
-0.1674 0.0881778 0.559381 0.310778 -0.933285 0.179991
0.0197178 -0.0146907 0.0933658 0.963646 0.267183 0
-0.10648 0.100864 0.493564 0.266502 -0.938437 -0.2198
-0.0771817 0.135978 0.429393 0.152664 -0.962291 -0.225145
0.00912356 0.108887 0.503825 -0.0744527 -0.970318 -0.230085
0.149187 0.137563 0.692312 -0.277414 -0.918776 0.280878
0.139192 0.0969046 0.495877 0.83907 0.00740199 -0.543974
-0.000241769 0.0345584 0.037976 0.00134489 -0.156429 -0.987688
0.135109 0.0312055 0.37396 0 0 1
0.182022 0.104777 0.627076 -0.321783 -0.908127 0.267882
-0.0460135 0.182777 0.785916 0.00149279 -0.173556 -0.984823
-0.168257 0.137691 0.719995 0.324787 -0.906033 0.271327
0.179519 0.0842267 0.595731 -0.277414 -0.918776 0.280877
-0.160118 0.161955 0.793558 -0.00149242 0.173615 0.984812
-0.0344961 0.105958 0.398139 0.00323204 -0.37519 0.926943
0.167113 -0.0243729 0.341151 0 0 -1
0.166761 -0.00499813 0.328058 0.00355993 -0.414681 0.90996
0.0190292 0.11956 0.372771 -0.0471065 -0.414577 0.908794
0.0968792 -0.124501 0.341151 0 0 -1
-0.032472 -0.0706977 0.280662 0.00608373 -0.706957 -0.707231
0.00147151 -0.0243956 0.0881442 0 0 1
-0.176392 0.0960663 0.600091 0.337381 -0.902452 0.267871
0.144708 -0.0998227 0.341151 0 0 -1
0.0723973 0.137664 0.429809 -0.136058 -0.964778 -0.225145
0.0181795 0.121954 0.445789 -0.0744527 -0.970318 -0.230085
-0.00932865 0.0567333 0.345224 0.00341092 -0.396368 0.918086
0.00121172 -0.045622 0.179994 0.267 -0.963696 0
-0.145802 -0.153908 0.341151 0 0 -1
-0.0332003 0.109299 0.584927 0.0828693 -0.951348 0.296767
0.126432 -0.17723 0.320281 0.999963 0.00862613 0
0.230182 0.0189316 0.510613 3.52056e-06 -0.000408915 1
0.0552526 0.11136 0.47847 -0.0744527 -0.970318 -0.230085
0.00522942 0.114755 0.542769 -0.0744571 -0.971729 -0.224052
-0.0857735 0.0973059 0.521973 0.0910435 -0.964704 -0.247099
-0.055255 -0.19691 0.373797 0 0 1
0.0084261 0.0297564 0.37396 0 0 1
-0.0457975 -0.0950571 0.0478942 -0.0908609 -0.127341 0.987688
0.176282 0.0997886 0.639129 -0.321841 -0.908111 0.267868
0.0259673 0.140799 0.683087 -0.00723183 -0.958493 0.285023
0.0249567 -0.0981237 0.341151 0 0 -1
-0.0468077 0.0989417 0.530678 0.0911724 -0.970298 -0.224076
-0.0937843 0.116847 0.627739 0.146992 -0.948286 0.281332
-0.0362737 -0.0408293 0.373797 0 0 1
-0.116611 0.166259 0.792866 -0.00149369 0.173617 0.984812
0.216123 0.0415824 0.426966 -0.999907 -0.00260968 -0.0134166
-0.0705643 -0.14603 0.0388797 0.122951 -0.273345 0.954026
-0.115197 0.133949 0.70229 0.253458 -0.927318 0.275391
-0.0536404 0.137157 0.679939 0.0828693 -0.951348 0.296767
-0.154006 -0.249728 0.350539 0.00771754 -0.897095 0.441769
-0.164621 -0.171133 0.373797 0 0 1
-0.171886 0.0144081 0.358966 -0.00859891 0.999963 0
0.13226 0.155364 0.795164 -0.00148735 0.173557 0.984823
0.00737473 0.00517611 0.0382015 0.579975 0.814634 0
-0.196489 -0.080772 0.365839 -0.999963 -0.00860469 1.48094e-05
-0.0323878 0.122865 0.62819 0.0828693 -0.951348 0.296767
-0.165292 0.109923 0.392352 0.331538 -0.912175 -0.240871
0.134271 0.106088 0.574623 -0.277414 -0.918776 0.280878
0.0582937 0.165839 0.771922 -0.130646 -0.950673 0.281341
-0.0847349 0.126402 0.465199 0.152664 -0.962291 -0.225145
-0.150504 -0.0646731 0.27654 0.00222389 -0.259046 -0.965863
0.0421452 0.0311738 0.37396 0 0 1
-0.116337 0.0196456 0.0196305 0.300825 0.953679 0
-0.0125575 -0.0582536 0.0554982 0 0 1
0.0279894 -0.119125 0.268987 0.00149358 -0.173639 -0.984808
0.181175 0.0139901 0.341151 0 0 -1
-0.179653 0.121215 0.67862 0.324787 -0.906033 0.271327
-0.128951 -0.0757696 0.341151 0 0 -1
0.195939 -0.0718932 0.290398 0.00839667 -0.978094 0.207993
0.00370951 0.130477 0.476436 -0.0744526 -0.970318 -0.230086
0.00827064 0.0798342 0.387416 0.00322864 -0.375186 0.926944
0.12531 -0.0610705 0.341151 0 0 -1
-0.0774796 0.164656 0.793208 -0.00149771 0.174185 0.984712
0.0155483 -0.0381803 0.0881442 0 0 -1
0.0158953 -0.120567 0.373797 0 0 1
-0.0848237 -0.151085 0.0230328 -0.0908736 -0.127335 0.987688
0.147824 0.0624598 0.38688 -0.120561 -0.350464 0.928784
0.00404958 0.120796 0.566595 -0.0665048 -0.95263 0.296771
0.0247103 -0.066639 0.0395848 -0.0930398 0.125759 -0.987688
-0.221041 -0.0749668 0.526948 0 0 1
0.179377 0.0758355 0.556771 -0.324306 -0.93445 0.147071
-0.19605 -0.0304298 0.353264 0.999963 0.00859927 0
0.160824 -0.22703 0.369303 0.00312022 -0.3627 0.931901
-0.0614791 -0.131309 0.373797 0 0 1
0.0554029 0.162659 0.712481 -0.0665048 -0.95263 0.296771
0.225522 0.0977462 0.397446 -0.00786519 0.913512 0.406735
0.00561261 0.157842 0.0183179 0.999963 0.0085946 0
0.164513 0.136464 0.703856 -0.277414 -0.918776 0.280878
-0.0110947 0.111293 0.36565 0.00785371 -0.909977 -0.414585
-0.100375 0.147246 0.73365 0.146992 -0.948286 0.281332
0.0509971 -0.0811813 0.031816 0.803934 0.594719 0
-0.067551 -0.0743727 0.341151 0 0 -1
0.0800346 0.103036 0.505554 -0.0744527 -0.970318 -0.230085
0.135721 -0.0781346 0.373797 0 0 1
-0.043801 0.114869 0.558369 0.0830198 -0.956629 0.27923
-0.179329 0.0814808 0.487027 0.336059 -0.913878 -0.227797
0.175203 0.101242 0.392673 -0.325295 -0.945613 0
-0.103376 -0.165183 0.0195085 -0.0908553 -0.127346 0.987688
-0.139413 0.105637 0.633022 0.293184 -0.913866 0.280878
0.0384564 0.0647011 0.381186 0.00322864 -0.375186 0.926944
-0.0344851 -0.154036 0.275047 0.00149358 -0.173639 -0.984808
-0.04433 0.114918 0.468482 0.0910435 -0.964704 -0.247099
-0.216239 0.0453922 0.411828 0.999803 0.0145872 -0.0134257
0.0151408 0.165479 0.716412 -0.00723198 -0.958493 0.285023
0.0766062 -0.139868 0.0394196 0.0930404 -0.12576 0.987688
0.0758851 0.130313 0.660369 -0.0665027 -0.95263 0.296771
-0.0177751 0.139246 0.678603 0.0237269 -0.958227 0.285023
0.0514925 -0.0139794 0.0275978 0.317188 -0.948363 0
0.161663 0.0864208 0.585272 -0.277414 -0.918776 0.280877
0.0901959 -0.202571 0.314218 0 0 -1
0.0722949 0.121581 0.584409 -0.0665048 -0.95263 0.296771
0.113712 0.0584544 0.349896 -0.0530765 -0.391265 0.918746
-0.157284 0.00828677 0.0237328 -0.107231 -0.707649 -0.69838
0.142287 -0.0350588 0.373797 0 0 1
-0.194226 -0.242537 0.350064 -0.999963 -0.00860044 1.03635e-05
0.0790328 0.138958 0.641698 -0.0665048 -0.95263 0.296771
-0.176445 0.141259 0.741711 0.324787 -0.906033 0.271327
-0.0499413 0.0356168 0.340779 0 0 1
0.0100082 -0.00494379 0.21199 0.250445 0.968131 0
-0.138818 0.0821936 0.552458 0.272891 -0.923363 0.270058
-0.157807 -0.244324 0.0228522 0 0 1
-0.1703 0.131248 0.700927 0.324787 -0.906033 0.271327
0.0407698 0.124834 0.587787 -0.0665048 -0.95263 0.296771
-0.157118 -0.0504909 0.308597 0.0035773 -0.414681 0.90996
-0.0667082 0.0953651 0.538068 0.0911785 -0.970303 -0.224049
0.0107427 -0.0051338 0.164999 0.250445 0.968131 0
-0.133594 -0.11413 0.373797 0 0 1
-0.103717 0.0118951 0.341151 0 0 -1
0.116367 0.138708 0.713979 -0.237512 -0.931528 0.275397
0.0812486 0.111722 0.472273 -0.0228688 -0.964097 -0.264563
0.0883715 -0.205084 0.373797 0 0 1
0.0138558 -0.0402681 0.341151 0 0 -1
0.0681612 -0.00840444 0.0222496 0.317188 -0.948363 0
0.178748 -0.0618524 0.302102 0.00355993 -0.414681 0.90996
-0.146012 -0.237437 0.364517 0.00498673 -0.579665 0.81484
0.195002 0.146245 0.771251 -0.309146 -0.911487 0.271329
0.0513517 -0.114911 0.0446468 -0.160002 -0.303425 0.939326
-0.0423978 -0.0108571 0.341151 0 0 -1
-0.206893 0.0829984 0.37433 0.404888 -0.368989 0.836608
-0.120436 -0.184124 0.320747 0 0 1
0.0837642 0.00181996 0.0475283 0.148356 0.0496234 0.987688
0.146308 -0.216008 0.33975 -0.00136751 0.158961 -0.987284
0.143436 0.110927 0.394589 -0.134422 -0.990924 0
0.18766 0.0361802 0.0301964 0.148359 0.0496101 0.987688
0.0491986 0.128745 0.46902 -0.0744526 -0.970318 -0.230086
0.107165 -0.0551573 0.373797 0 0 1
0.132424 -0.119517 0.373797 0 0 1
-0.017441 -0.0563129 0.0144592 0.580901 0.813974 0
0.095536 0.124631 0.64997 -0.130646 -0.950673 0.281341
0.0419462 0.136705 0.673282 -0.0665027 -0.95263 0.296771
-0.185474 0.0483109 0.34297 -0.00358628 0.41467 -0.909965
0.0975956 0.109782 0.551461 -0.0652614 -0.958022 0.279169
-0.0832199 0.125566 0.408042 0.114203 -0.959294 -0.258289
-0.0722501 0.114645 0.61297 0.0828693 -0.951348 0.296767
0.0154498 0.155459 0.682723 -0.00723198 -0.958493 0.285023
0.108572 0.160958 0.732938 -0.237514 -0.931527 0.275398
-0.140384 0.0848757 0.395431 0.0565967 -0.36942 0.927537
-0.215471 0.0297493 0.452054 0.999803 0.0145872 -0.0134257
-0.241694 -0.0904259 0.516329 0.000750795 -0.0871484 -0.996195
0.072493 0.167908 0.735927 -0.130644 -0.950673 0.281343
-0.0222768 -0.00686805 0.0554982 0 0 1
-0.0332181 -0.0123565 0.014201 0 0 -1
0.157333 0.0458645 0.340512 -0.00356086 0.414683 -0.909959
0.226588 -0.0652759 0.514481 0.000750054 -0.0871472 -0.996195
-0.0430421 0.156565 0.739196 0.0828693 -0.951348 0.296767
0.218772 0.0187577 0.474388 0.00791731 -0.913505 -0.406751
0.196573 0.0883371 0.392781 -0.999963 -0.00860067 0
-0.0591285 -0.171561 0.294337 -0.979232 0.202743 0
0.0905886 0.149923 0.683556 -0.130644 -0.950673 0.281343
-0.216006 0.0502501 0.434451 0.999803 0.0145872 -0.0134257
0.0155188 -0.0855797 0.373797 0 0 1
-0.195338 -0.113287 0.369081 -0.999963 -0.00859615 -5.80404e-05
0.232253 0.0738922 0.449214 0.999963 0.00858973 -1.29465e-05
-0.0861405 0.00822242 0.373797 0 0 1
0.15507 0.0248492 0.0356607 0.148356 0.0496234 0.987688
-0.0173864 0.129899 0.415502 0.0398106 -0.972195 -0.230763
0.11499 -0.071467 0.294281 0.00831152 -0.965837 0.259016
-0.22873 0.0478247 0.021043 0.41243 -0.262886 0.872234
0.0300902 0.167277 0.772235 -0.00723183 -0.958493 0.285023
0.0238477 -0.012496 0.252521 0.880931 0.473245 0
0.0493687 0.12138 0.500028 -0.0744526 -0.970318 -0.230086
-0.101524 -0.161987 0.309689 -0.0983852 0.256824 -0.961437
-0.013988 -0.128792 0.327757 -0.0014936 0.173639 0.984808
-0.185283 0.126178 0.751137 0.324793 -0.906031 0.271327
-0.194921 -0.151225 0.373797 0 0 1
0.0578606 -0.187302 0.373797 0 0 1
-0.0541915 0.122277 0.40071 0.151437 -0.988467 0
-0.0763271 -0.173389 0.373797 0 0 1
0.127805 -0.221666 0.371501 0.00312022 -0.3627 0.931901
0.191019 0.0686339 0.542979 0.424367 0.00353592 -0.905483
-0.140227 0.130627 0.667253 0.293178 -0.913868 0.280878
0.034817 -0.130637 0.341151 0 0 -1
-0.136632 0.140831 0.6967 0.293178 -0.913868 0.280878
-0.147959 0.0790939 0.534905 0.270499 -0.942541 -0.196079
-0.0125543 0.169733 0.731268 0.0237445 -0.958227 0.285023
0.165425 -0.104783 0.341151 0 0 -1
0.194486 0.112329 0.388295 0.999962 0.00867072 8.53567e-06
-0.0138784 -0.00907679 0.155057 -0.713279 0.70088 0
-0.00725163 0.135121 0.0161806 -0.999963 -0.0086053 0
-0.134871 -0.200515 0.341151 0 0 -1
-0.0121616 0.114184 0.482608 0.0398106 -0.972195 -0.230763
-0.178599 0.118512 0.385698 0.00353029 -0.414567 0.910012
0.0282737 0.146247 0.701465 -0.00723183 -0.958493 0.285023
0.0216121 0.13844 0.437063 -0.0744526 -0.970318 -0.230086
-0.196411 0.112493 0.700946 -0.999963 -0.00857663 -8.86037e-06
0.040555 -0.153371 0.341151 0 0 -1
-0.107105 -0.252639 0.343129 0.00840023 -0.976452 -0.215572
-0.155422 -0.217125 0.0106693 -0.573667 -0.804084 -0.156063
0.0849311 0.146545 0.719095 -0.130646 -0.950673 0.281341
0.0622125 0.10443 0.574221 -0.0665027 -0.95263 0.296771
0.0811466 0.103283 0.574781 -0.0665027 -0.95263 0.296771
0.0957914 -0.0112351 0.0359806 0.16938 -0.796353 -0.580631
-0.22639 -0.0447145 0.526948 0 0 1
-0.0401069 -0.0487841 0.0467778 -0.814043 0.580804 0
0.0389686 0.161792 0.754012 -0.00723183 -0.958493 0.285023
0.0231438 0.131108 0.40665 -0.0228688 -0.964097 -0.264563
-0.00854621 0.108483 0.506791 0.0910435 -0.964704 -0.247099
-0.0682025 0.00863777 0.0353081 0.149189 -0.0470569 -0.987688
0.150307 -0.0721838 0.290874 0.00841769 -0.978136 0.207798
0.19148 0.00491064 0.332477 0.00355993 -0.414681 0.90996
-0.00353598 0.210568 0.0100954 0.00134818 -0.156429 -0.987688
-0.204834 0.100991 0.381269 0.404888 -0.368989 0.836608
-0.115628 -0.128863 0.341151 0 0 -1
-0.121968 0.110109 0.498186 0.266499 -0.938438 -0.219801
-0.233007 -0.130088 0.526948 0 0 1
0.0109437 -0.00293391 0.272957 0.509552 0.86044 0
0.170427 0.089291 0.556237 -0.294698 -0.938492 0.17996
-0.0395572 -0.0001199 0.0540997 -0.149189 0.0470569 0.987688
0.0615168 -0.171306 0.304043 0.00860134 -0.999963 0
-0.00638786 0.0347483 0.0208801 -0.999963 -0.0086053 0
0.21646 0.0709774 0.384709 -0.996352 -0.0417023 0.0744507
0.0144479 0.0819243 0.0313069 0.31027 -0.146114 -0.939352
-0.124979 -0.225211 0.370968 0.00312023 -0.3627 0.931901
0.116811 0.154775 0.768707 -0.237512 -0.931528 0.275397
0.193461 0.0716598 0.362888 0.00355993 -0.414681 0.90996
0.181334 -0.168021 0.373797 0 0 1
0.266248 0.0501693 0.00670414 0.890722 -0.444115 0.0968281
-0.184065 0.0907083 0.443021 0.336059 -0.913878 -0.227797
0.108747 0.143634 0.67449 -0.237514 -0.931527 0.275398
0.232351 0.0277008 0.454567 0.00784543 -0.913509 -0.406742
0.00808337 -0.00444586 0.123461 0.250445 0.968131 0
-0.179267 0.0941882 0.633242 0.337399 -0.902444 0.267873
0.208049 0.0384222 0.0129737 0.148359 0.0496128 0.987688
0.197927 -0.0851683 0.351524 0.999963 0.00859926 0
0.0761713 0.116176 0.45648 -0.0228688 -0.964097 -0.264563
-0.121398 0.0491262 0.380034 0.0565967 -0.36942 0.927537
-0.152216 -0.20073 0.341151 0 0 -1
-0.100531 0.127768 0.448651 0.152664 -0.962291 -0.225145
-0.142375 0.0545516 0.384102 0.126587 -0.348339 0.928782
0.221716 -0.0235499 0.510827 0.000750054 -0.0871472 -0.996195
0.0314886 -0.10417 0.323485 -0.0014936 0.173639 0.984808
0.0039781 0.172471 0.791954 -0.00149369 0.173617 0.984812
0.181673 0.0858318 0.541062 -0.254255 -0.947057 -0.196055
-0.118381 0.0148682 0.354024 -0.00859891 0.999963 0
0.00974335 -0.0458461 0.313169 -0.00149199 0.173638 0.984808
0.146216 -0.219079 0.0227766 0.0930358 -0.125762 0.987688
-0.0935266 -0.0535256 0.373797 0 0 1
0.125297 -0.203764 0.0266973 0.0930358 -0.125762 0.987688
-0.157391 0.046735 0.342142 -0.00359449 0.414677 -0.909962
-0.112386 0.186729 0.785119 0.00149279 -0.173556 -0.984823
0.128083 0.124504 0.67668 -0.277414 -0.918776 0.280877
-0.0564729 0.141237 0.418655 0.0910422 -0.964704 -0.247098
0.122235 0.112456 0.631492 -0.277414 -0.918776 0.280877
0.163521 0.0958998 0.570186 -0.277414 -0.918776 0.280878
0.00268039 0.0942642 0.0285239 0.00134489 -0.156429 -0.987688
0.233093 0.0747133 0.0117863 -0.549214 0.830042 0.0969232
0.00141323 0.179331 0.762644 -0.00723198 -0.958493 0.285023
0.122319 -0.031056 0.373797 0 0 1
0.027457 -0.204556 0.373797 0 0 1
0.0775777 0.0986442 0.524931 -0.0744572 -0.971729 -0.224051
-0.0710188 0.176149 0.766156 0.146976 -0.948287 0.281335
-0.150491 0.0364468 0.0355895 -0.0489521 0.339393 0.93937
-0.178036 -0.00250491 0.373797 0 0 1
-0.130955 -0.0522717 0.297066 -0.00608093 0.706947 0.70724
-0.159006 0.147056 0.789398 0.324793 -0.906031 0.271327
-0.143358 0.0173857 0.330776 0.999963 0.00860494 -7.34735e-06
0.160573 0.106513 0.649917 -0.277414 -0.918776 0.280877
-0.138363 0.161108 0.765482 0.253463 -0.927316 0.275392
-0.104237 0.113207 0.573009 0.293178 -0.913868 0.280878
-0.251012 -0.029343 0.526948 0 0 1
-0.0398629 -0.145867 0.330729 -0.0014936 0.173639 0.984808
-0.0336053 0.14507 0.652586 0.0828727 -0.951348 0.296764
-0.033948 -0.22008 0.339344 -0.00136751 0.158961 -0.987284
-0.177666 0.0166561 0.019078 0.0662307 -0.29233 -0.954021
-0.0361804 0.175349 0.752117 0.0237445 -0.958227 0.285023
-0.035766 -0.110834 0.373797 0 0 1
-0.142077 0.0273721 0.0112085 0.0249638 -0.00787663 -0.999657
0.197563 -0.0429108 0.346206 -0.999963 -0.00859926 0
0.110423 0.10229 0.489794 -0.25033 -0.942881 -0.219797
0.179302 -0.192952 0.341151 0 0 -1
0.128467 0.131631 0.700476 -0.237512 -0.931528 0.275397
-0.0541803 0.0982713 0.363737 0.059915 -0.391079 0.918405
0.0997787 0.175588 0.774839 -0.237514 -0.931527 0.275398
-0.0323237 -0.0815543 0.0251465 0.814043 -0.580805 0
-0.216939 0.0823012 0.423585 -0.00792172 0.91351 0.40674
-0.081244 0.115401 0.510396 0.0910422 -0.964704 -0.247098
0.0417056 -0.0696681 0.297563 0.00608411 -0.70703 0.707158
0.0305297 0.047461 0.374236 0.00322864 -0.375186 0.926944
-0.0284663 0.114595 0.600583 0.0828693 -0.951348 0.296767
0.0395038 0.11791 0.565275 -0.0665048 -0.95263 0.296771
0.169802 0.100424 0.591188 -0.277414 -0.918776 0.280878
-0.216395 0.0301439 0.498402 0.0034996 -0.406696 0.913557
0.0719786 -0.063412 0.341151 0 0 -1
-0.0100158 0.0767368 0.386226 0.00323204 -0.37519 0.926943
-0.131698 0.161746 0.78658 0.0999407 0.000866517 0.994993
0.0118447 0.158793 0.743239 -0.00723183 -0.958493 0.285023
0.232023 -0.0211495 0.526433 0.00860644 -0.999963 0
