0.033066 0.148247 0.446816 -0.0827936 -0.969642 -0.230086
-0.125074 0.200033 0.005542 0 0 -1
-0.193297 -0.017817 0.346922 0 0 -1
0.0250802 0.184782 0.719073 -0.0149982 -0.927728 0.372956
-0.221905 0.00501389 0.575351 0 0.0871519 0.996195
-0.0809287 0.158701 0.456285 0.144407 -0.963568 -0.22513
-0.0729292 -0.183353 0.381356 0 0 1
0.0974362 -0.143696 0.381356 0 0 1
0.207522 -0.0973332 0.379696 -1 0 0
-0.234218 0.1028 0.580056 -0.964754 0.244522 -0.0972589
-0.234588 -0.179655 0.376965 -0.92387 -0.378982 0.0532624
-0.137153 0.0549044 0.34653 0 0 1
0.231648 0.0356376 0.572672 0 0.0871519 0.996195
-0.236488 -0.208353 0.131281 -0.92387 0.378982 -0.0532626
-0.172717 0.127487 0.610008 0.280329 -0.887536 0.365643
-0.21377 0.140066 0.426153 0.265402 0.905992 0.32976
-0.0781663 0.0437942 0.373077 0 1 0
0.0168243 0.146453 0.410004 0 -0.375184 0.92695
0.114431 0.154805 0.670972 -0.247014 -0.899708 0.359876
-0.125319 0.178386 0.69866 0.247009 -0.899707 0.359881
0.196027 0.144564 0.670858 -0.317904 -0.880603 0.351391
-0.0907019 -0.0139123 0.346922 0 0 -1
0.0743231 0.186073 0.731249 -0.139132 -0.919449 0.367772
0.219441 -0.204742 0.219121 -0.382574 -0.914933 0.128586
-0.14147 -0.00933976 0.346922 0 0 -1
0.0403672 0.174902 0.659053 -0.0737267 -0.918839 0.387686
-0.110506 -0.131138 0.346922 0 0 -1
0.197507 0.0204955 0.346922 0 0 -1
0.0608924 0.136056 0.488181 -0.0827936 -0.969642 -0.230086
0.180297 0.13398 0.414106 -0.333428 -0.942776 0
0.193352 0.155161 0.733826 -0.317888 -0.880607 0.351394
0.217153 -0.18031 0.0237639 -0.921855 0.190247 0.337623
0.217009 -0.020296 0.0150981 -0.923867 0 0.382713
-0.0442182 0.152374 0.643116 0.0737275 -0.918839 0.387685
-0.236408 0.167367 0.00997422 -0.923867 0 -0.382714
0.043699 -0.0395787 0.381356 0 0 1
0.00518313 0.0910221 0.387568 0 -0.375184 0.92695
-0.0307061 -0.12156 0.346922 0 0 -1
0.160589 0.0552754 0.34653 0 0 1
0.006347 -0.0153351 0.346922 0 0 -1
-0.0586728 -0.231052 0.362037 0 -0.857666 0.514208
0.220093 0.117389 0.65392 0.516197 -0.795829 0.316538
-0.227834 -0.15927 0.413007 -0.382826 0.91483 -0.128574
0.059843 -0.101622 0.346922 0 0 -1
-0.0134971 0.160972 0.65938 0.0149985 -0.927728 0.372956
0.0787802 0.16936 0.653224 -0.0737267 -0.918839 0.387686
0.0250054 0.0306956 0.381356 0 0 1
0.0856546 0.161789 0.636587 -0.0737267 -0.918839 0.387686
0.199333 0.118992 0.609793 -0.280332 -0.887536 0.365642
0.0716716 0.154311 0.40475 -0.142942 -0.989731 0
0.220217 0.124967 0.0191367 -0.382689 1.02264e-06 0.923877
0.167974 0.167505 0.388366 0.182332 0.95638 -0.228239
-0.0354095 0.152539 0.435806 0.0314447 -0.972501 -0.230764
0.215212 -0.169804 0.479801 -1 0 0
0.159431 0.11448 0.52895 0.839074 0 -0.544017
-0.183431 0.142406 0.654435 0.280329 -0.887536 0.365643
-0.234127 -0.151619 0.0169557 0 1 0
-0.167869 0.197199 0.00688296 0 -0.654649 -0.755933
-0.109511 0.144598 0.496224 0.25842 -0.940698 -0.219787
0.0939972 0.133452 0.374028 -0.0564422 -0.390806 0.918741
0.233834 -0.0882708 0.562558 0 0.246406 -0.969167
-0.220835 -0.224066 0.0857705 0.382429 -0.914992 0.128596
-0.258255 -0.0257443 0.571267 -1 0 0
0.129107 -0.186216 0.327788 1.12089e-06 -0.507407 -0.861706
0.0624048 0.119989 0.555815 -0.0828191 -0.971035 -0.224125
-0.0820326 -0.209961 0.342959 0 0.439298 -0.898342
0.0448319 -0.189212 0.330888 2.13863e-06 -0.968162 -0.250326
-0.0704766 0.0910192 0.388992 0.0543189 -0.37055 0.927223
-0.224161 -0.181701 0.345672 0 -0.250272 0.968176
-0.230589 -0.164272 0.51054 0 -0.910942 0.412533
-0.220891 0.0615743 0.570403 0 0.0871519 0.996195
-0.122184 0.174582 0.386211 -0.0899294 0.691603 -0.716658
0.216985 -0.210073 0.0925517 -0.92387 0.378983 -0.0532616
-0.150909 0.0804177 0.390279 0.123571 -0.349401 0.928789
-0.231771 -0.175217 0.431391 -0.382827 -0.914829 0.128573
0.13514 0.128357 0.535599 -0.25844 -0.940693 -0.219785
0.0168075 0.193454 0.701768 -0.0149982 -0.927728 0.372956
-0.215926 -0.201607 0.171165 0.923852 0.379024 -0.0532685
0.034222 -0.0773587 0.346922 0 0 -1
-0.217436 -0.0152546 0.577124 0 0.0871519 0.996195
-0.155991 -0.048403 0.381356 0 0 1
-0.127265 0.118729 0.369788 0.0572554 -0.390582 0.918786
0.0167148 -0.121072 0.381356 0 0 1
0.224377 -0.166325 0.362025 -0.382573 0.914933 -0.128588
0.187182 -0.216394 0.339814 0 0.439298 -0.898342
0.104822 -0.0450999 0.346922 0 0 -1
0.16469 0.147776 0.690716 -0.280333 -0.887537 0.365638
0.03449 -0.125405 0.346922 0 0 -1
0.229666 -0.175231 0.43755 0.382681 -0.914889 0.128579
-0.0661548 0.195587 0.713207 0.139115 -0.919449 0.367778
0.167319 0.130108 0.377875 -0.138832 -0.392551 0.909192
-0.0701518 0.140953 0.530176 0.0827305 -0.965453 -0.247097
0.217064 -0.18331 0.281609 -0.92387 0.378983 -0.0532616
-0.0576852 0.065408 0.34653 0 0 1
0.0294185 0.212902 0.0141578 2.91347e-06 0.654719 0.755873
0.187505 -0.154888 0.346922 0 0 -1
0.244505 0.0678642 0.561211 0 -0.0871589 -0.996194
-0.027992 0.177228 0.662212 0.0737275 -0.918839 0.387685
0.0910221 0.139903 0.526428 -0.0827937 -0.969642 -0.230086
-0.0105641 -0.141039 0.381356 0 0 1
0.0921286 0.15092 0.650101 -0.139132 -0.919449 0.367772
-0.108211 -0.219963 0.37228 0 -0.57975 0.814794
-0.0937814 0.125627 0.521603 0.0827304 -0.965453 -0.247097
0.146552 0.01683 0.381356 0 0 1
-0.0361396 0.155797 0.483564 0.0827305 -0.965453 -0.247097
0.0246367 0.193017 0.0110166 0 -0.654656 0.755927
0.171814 0.0112742 0.381356 0 0 1
-0.0317499 -0.221957 0.337978 0 0.237698 -0.971339
-0.236158 0.199516 0.00937023 -0.923867 0 -0.382714
0.0200102 0.139292 0.567168 -0.0747421 -0.955149 0.286538
0.166342 0.168805 0.743583 -0.317888 -0.880607 0.351394
-0.072222 0.209823 0.751091 0.139115 -0.919449 0.367778
0.236287 -0.0706495 0.00968055 0.923867 0 -0.382714
0.207522 -0.0142585 0.374968 -1 0 0
-0.106917 -0.179022 0.346922 0 0 -1
0.0697055 0.20413 0.735908 -0.139115 -0.919449 0.367777
-0.0325608 0.186561 0.7238 0.0149985 -0.927728 0.372956
-0.235625 -0.0145029 0.560303 -0.923867 0.0333567 0.381257
-0.145923 -0.210894 0.377782 0 -0.204664 0.978832
-0.0583546 -0.0639024 0.346922 0 0 -1
0.207522 0.0315055 0.369575 1 0 0
0.0657969 -0.204749 0.379067 0 -0.204664 0.978832
-0.142376 0.0101413 0.381356 0 0 1
-0.127646 -0.165277 0.381356 0 0 1
0.233124 -0.132202 0.531064 0.380079 -0.662538 0.645433
-0.0565703 0.161463 0.393771 0.144407 -0.963568 -0.22513
0.0966648 0.00578657 0.381356 0 0 1
-0.15228 0.151933 0.653678 0.280329 -0.887536 0.365643
0.192993 -0.0536185 0.381356 0 0 1
0.00269207 0.17299 0.650296 -0.0149982 -0.927728 0.372956
0.234382 -0.174143 0.338177 0.923852 0.379025 -0.0532675
-0.204954 0.151372 0.714874 1 0 0
-0.191154 0.160247 0.384144 -0.258666 0.738478 -0.622689
-0.0702088 0.13986 0.581676 0.0737275 -0.918839 0.387685
-0.00652371 -0.190824 0.337123 0 -0.968132 -0.25044
0.00688393 0.141662 0.483989 -0.0827936 -0.969642 -0.230086
0.0626286 -0.0762369 0.346922 0 0 -1
-0.241999 -0.175391 0.485987 0 -0.910942 0.412533
-0.125197 0.157025 0.683911 0.247025 -0.899703 0.359879
-0.179171 0.0437942 0.359945 0 1 0
0.0451817 0.156035 0.415354 -0.0311648 -0.963866 -0.264559
-0.21387 0.162254 0.769457 0.397032 -0.852822 0.339205
0.191774 0.136639 0.64715 -0.317904 -0.880603 0.351391
0.0715263 0.129682 0.371039 -0.0573906 -0.391505 0.918385
-0.0684608 0.192906 0.0109212 0 -0.654656 0.755927
0.144571 0.0318861 0.346922 0 0 -1
0.063941 0.0865343 0.352171 -0.0573906 -0.391505 0.918385
0.147023 0.156603 0.382657 -0.141833 -0.34115 -0.929247
-0.241614 -0.0635725 0.568838 0 0.246406 -0.969167
-0.221644 -0.151278 0.527765 0 -0.796466 0.604684
-0.207669 0.115397 0.396385 1 0 0
0.218256 0.150489 0.688531 0.265391 0.895877 -0.35633
0.232457 -0.177246 0.298871 0.382572 0.914934 -0.128583
-0.194405 0.101846 0.602008 0.28033 -0.887538 0.365639
0.105036 -0.216877 0.374476 0 -0.57975 0.814794
-0.0504617 0.211986 0.750661 0 0 1
-0.146083 0.108633 0.579766 0.288287 -0.941537 0.174352
-0.232762 0.0676327 0.0028121 -0.382723 0 -0.923863
0.00416721 -0.238075 0.348213 0 -0.935134 -0.354294
0.086768 0.138862 0.471133 -0.144437 -0.963566 -0.225119
0.0530018 -0.23367 0.340079 0 -0.465435 -0.885082
-0.058347 0.156725 0.656116 0.0737275 -0.918839 0.387685
0.112397 0.118082 0.540031 -0.258403 -0.94129 -0.217259
0.213839 -0.190596 0.33624 0 -0.968132 -0.25044
-0.21619 0.0886654 0.550959 0.923851 0.0333602 0.381297
0.20675 0.110248 0.630369 -0.397032 -0.852822 0.339205
-0.178538 -0.216935 0.339549 0 0.439298 -0.898342
-0.0267912 0.161374 0.624408 0.0737275 -0.918839 0.387685
0.0461899 0.141881 0.618622 -0.0737267 -0.918839 0.387686
0.220996 0.125389 0.627465 0.265451 0.895863 -0.356323
0.195265 0.0914372 0.568232 -0.288289 -0.941528 0.174395
0.0378494 0.210695 0.745502 -0.0149982 -0.927728 0.372956
-0.104924 0.16096 0.395516 0.0855564 -0.868623 0.488032
0.136097 -0.104454 0.381356 0 0 1
0.159413 -0.0375309 0.381356 0 0 1
-0.205684 -0.119375 0.381356 0 0 1
-0.211649 0.0885811 0.581631 0.397081 -0.852801 0.3392
0.192865 0.144309 0.706191 -0.317888 -0.880607 0.351394
0.142749 0.158037 0.661189 -0.280332 -0.887536 0.365642
-0.221237 0.112346 0.649548 0.170167 -0.915644 0.364197
-0.113105 0.177474 0.726735 0.247025 -0.899703 0.359879
0.142735 -0.172155 0.381356 0 0 1
0.0437415 0.143576 0.585451 -0.0737267 -0.918839 0.387686
-0.220196 -0.00442536 0.0191283 0.382646 0 0.923895
0.258255 -0.177698 0.476641 1 0 0
0.0412726 -0.155377 0.381356 0 0 1
-0.189099 0.111953 0.407224 0.123571 -0.349401 0.928789
-0.207669 0.078978 0.380486 1 0 0
0.0694462 0.227673 0.752958 -1.61204e-06 -0.173739 -0.984792
0.00270009 -0.0108973 0.381356 0 0 1
0.0859683 -0.109946 0.346922 0 0 -1
0.215189 0.0988371 0.607858 0 -0.929197 0.369585
-0.225178 0.159088 0.703057 -0.295545 0.887689 -0.353074
-0.217431 0.0913487 0.594978 0.170139 -0.915649 0.364198
0.16117 0.0663907 0.385827 -0.100612 -0.373282 0.922246
0.135656 0.109098 0.399984 -0.0541884 -0.36966 0.927586
-0.135488 0.1444 0.622518 0.280329 -0.887536 0.365643
-0.068859 0.153323 0.413783 0.0534191 -0.369873 0.927545
-0.193386 0.00892959 0.346922 0 0 -1
0.219444 -0.192707 0.304759 -0.382574 -0.914933 0.128586
0.0510255 0.17778 0.704625 -0.0737267 -0.918839 0.387686
0.20507 -0.147468 0.381356 0 0 1
-0.180224 0.182888 0.7526 0.317904 -0.880603 0.351391
0.202247 0.195942 0.00797078 0 -0.654649 -0.755933
0.0704468 0.0437942 0.375103 0 1 0
-0.224411 0.0900685 0.538315 0.382666 -0.0805316 -0.92037
-0.0908296 0.0437942 0.3552 0 1 0
0.167908 0.0978418 0.561896 -0.264952 -0.925677 0.270042
0.047004 0.169632 0.388828 -0.0418553 -0.80461 -0.592326
0.128813 0.0600805 0.381529 0 0 1
0.163465 0.109663 0.402952 -0.123571 -0.349401 0.928789
-0.234768 -0.201104 0.15303 -0.92387 0.378982 -0.0532626
-0.207522 -0.151806 0.351437 1 0 0
-0.176454 0.11857 0.62884 0.28033 -0.887538 0.365639
-0.100562 -0.130322 0.381356 0 0 1
-0.0528781 0.0216894 0.346922 0 0 -1
-0.221999 0.0254235 0.544974 0.382777 -0.0805205 -0.920325
0.22812 0.0155829 0.574426 0 0.0871519 0.996195
-0.163412 -0.0176323 0.346922 0 0 -1
-0.232728 0.133121 0.688757 -0.708538 -0.655709 0.260806
0.235357 -0.154708 0.493046 0.922766 -0.334577 0.191212
0.087053 0.104467 0.395304 -0.0535277 -0.370626 0.927239
0.120327 0.173104 0.682027 -0.247014 -0.899706 0.35988
0.124184 0.158676 0.387911 -0.20809 -0.783477 -0.585544
-0.142899 0.171483 0.732207 0.247025 -0.899703 0.359879
0.0694434 0.173464 0.3883 0.847059 0 -0.531499
0.235796 -0.052616 0.578054 0 -0.0247676 0.999693
-0.176505 -0.201136 0.379822 0 -0.204664 0.978832
-0.0656477 0.14967 0.497623 0.0827305 -0.965453 -0.247097
0.22565 -0.210114 0.199372 -0.382681 -0.91489 0.128577
0.217578 0.1062 0.467463 0 -0.939692 -0.34202
0.0358335 0.205055 0.731392 -0.0149982 -0.927728 0.372956
-0.213468 0.121808 0.614754 0.397135 0.852779 -0.339193
0.220094 0.22199 0.0127242 0 1 0
0.143522 -0.126611 0.346922 0 0 -1
0.232457 0.0919741 0.572946 4.53583e-05 -0.369597 -0.929192
-0.228153 0.143802 0.725531 -0.295673 -0.887652 0.353059
-0.110283 0.071549 0.383543 0.0543189 -0.37055 0.927223
-0.125305 0.199631 0.751763 0.247009 -0.899707 0.359881
-0.147404 -0.0852324 0.346922 0 0 -1
-0.036331 0.162494 0.457332 0.0827305 -0.965453 -0.247097
-0.133242 -0.140818 0.346922 0 0 -1
0.206902 0.0885214 0.542112 -0.988057 0.151942 0.0256308
0.0488637 0.0245422 0.381356 0 0 1
-0.236038 -0.160848 0.458716 -0.922759 0.371804 -0.101383
0.139843 0.126304 0.581198 -0.288288 -0.941529 0.174395
0.104595 0.155753 0.628161 -0.139115 -0.919449 0.367777
0.0147818 0.210981 0.760273 6.07241e-07 0.173681 0.984802
0.0406541 -0.191469 0.346922 0 0 -1
-0.206227 0.206262 0.005542 0 0 -1
-0.149778 -0.237062 0.352012 0 -0.857666 0.514208
0.0634377 -0.0683057 0.381356 0 0 1
-0.215212 0.100987 0.56648 1 0 0
-0.225703 -0.199121 0.277751 0.382741 -0.914865 0.128571
-0.12024 -0.0829126 0.381356 0 0 1
-0.216978 0.109751 0.457706 0 -0.939692 -0.34202
-0.159108 -0.105433 0.381356 0 0 1
0.217739 -0.157697 0.00570941 -0.921855 -0.0659606 -0.381881
0.0444164 -0.154682 0.346922 0 0 -1
0.208441 -0.0723854 0.355894 1 0 0
0.0408281 0.188951 0.692438 -0.0737267 -0.918839 0.387686
0.0776242 0.125785 0.586451 -0.0737267 -0.918839 0.387686
-0.06257 0.134328 0.405837 0.0543189 -0.37055 0.927223
-0.217903 -0.14282 0.00426338 0.923867 0 -0.382714
0.217909 0.180393 0.0172695 -0.923824 2.46854e-06 0.382817
-0.217367 -0.113029 0.00555846 0.923867 0 -0.382714
-0.0763459 -0.237735 0.347313 0 -0.935134 -0.354294
-0.00899883 -0.0535036 0.381356 0 0 1
0.219326 0.106996 0.57998 0.265391 0.895877 -0.35633
0.0179387 0.165196 0.670066 -0.0149982 -0.927728 0.372956
0.162071 -0.098613 0.346922 0 0 -1
-0.0335197 -0.0471925 0.381356 0 0 1
-0.0471797 -0.12049 0.381356 0 0 1
0.215869 -0.204836 0.171973 -0.92387 -0.378983 0.0532626
-0.207522 -0.175286 0.368367 1 0 0
0.00986705 0.157346 0.48212 -0.0827937 -0.969642 -0.230086
0.183991 -0.229476 0.364665 0 -0.857666 0.514208
-0.217606 -0.132685 0.54624 0 -0.642106 0.766616
0.139813 -0.201977 0.345467 0 0.158978 -0.987282
-0.00919636 0.0437942 0.36071 0 1 0
-0.055208 0.138368 0.612012 0.0737275 -0.918839 0.387685
0.0491125 -0.0192857 0.381356 0 0 1
0.19624 0.0437942 0.350306 0 1 0
0.199643 -0.134024 0.346922 0 0 -1
-0.251763 0.0123838 0.566065 0 -0.0871589 -0.996194
-0.0171942 0.0146715 0.381356 0 0 1
-0.0992948 0.15308 0.468563 0.144407 -0.963568 -0.22513
-0.0839043 0.133956 0.56563 0.0747822 -0.95731 0.279223
0.0579523 -0.0902861 0.381356 0 0 1
-0.0978217 -0.115817 0.346922 0 0 -1
0.227926 0.154086 0.0207124 0.382731 0 0.92386
-0.207522 -0.02234 0.357969 -1 0 0
-0.258255 0.0597994 0.569964 -1 0 0
-0.00501056 0.166009 0.633024 0.0149985 -0.927728 0.372956
0.106345 0.20017 0.0159793 0 0 1
0.121332 -0.197321 0.38062 0 -0.204664 0.978832
0.226683 0.0886274 0.551244 0.988054 0.15114 -0.030109
-0.147458 0.0437942 0.362212 0 1 0
-0.138538 0.147299 0.669507 0.28033 -0.887538 0.365639
-0.207522 -0.0160317 0.381304 -1 0 0
-0.176494 0.126971 0.377922 0.138832 -0.392551 0.909192
0.118174 -0.0343774 0.381356 0 0 1
0.155988 0.216765 0.0108127 0 0.654594 0.755981
-0.147328 0.112006 0.36818 0.0572554 -0.390582 0.918786
0.231462 -0.109249 0.552355 0 0.455584 -0.890193
0.0299995 0.13277 0.370997 0 -0.396387 0.918083
-0.0561161 0.0365273 0.381356 0 0 1
0.00629671 0.15654 0.4215 -0.0827936 -0.969642 -0.230086
0.112137 0.00806328 0.346922 0 0 -1
-0.225857 -0.20619 0.0250363 0.377857 -0.698768 -0.607411
0.24204 -0.00343793 0.576091 0 0.0871519 0.996195
-0.197018 0.0865658 0.363611 0.138832 -0.392551 0.909192
0.153177 0.123013 0.621781 -0.280333 -0.887537 0.365638
-0.0343644 0.0703664 0.381529 0 0 1
-0.217674 -0.164797 0.47298 0.922777 -0.371766 0.101354
-0.0354383 -0.148595 0.346922 0 0 -1
-0.0922991 0.226341 0.754234 -0.239399 0.95622 -0.168321
0.0743177 0.149076 0.493781 -0.0827937 -0.969642 -0.230086
0.125229 0.173438 0.724968 -0.247014 -0.899708 0.359876
-0.0779565 -0.104421 0.381356 0 0 1
-0.0599424 -0.0931094 0.346922 0 0 -1
0.0334249 0.0571357 0.34653 0 0 1
0.00132377 0.210033 0.742386 -0.0149982 -0.927728 0.372956
0.149997 0.104496 0.567133 -0.264952 -0.925677 0.270042
-0.0169809 0.168601 0.39235 0.0418443 -0.804547 -0.592413
0.103837 -0.0742035 0.381356 0 0 1
0.0283865 0.144977 0.527582 -0.0827937 -0.969642 -0.230086
-0.0542983 0.130255 0.51674 0.0827304 -0.965453 -0.247097
-0.0195155 -0.0201286 0.346922 0 0 -1
-0.204382 0.142805 0.674008 0.317904 -0.880603 0.351391
-0.163622 -0.000751629 0.381356 0 0 1
0.192977 0.137173 0.688408 -0.317888 -0.880607 0.351394
0.0944588 0.142293 0.410851 -0.0535277 -0.370626 0.927239
-0.14338 0.19425 0.750716 0.247009 -0.899707 0.359881
-0.0964458 0.142765 0.378132 0.0565548 -0.391585 0.918402
-0.1934 -0.0984935 0.346922 0 0 -1
0.00355923 0.144444 0.538763 -0.0827937 -0.969642 -0.230086
-0.120392 0.133915 0.529155 0.25842 -0.940698 -0.219787
-0.147769 0.170466 0.385449 -0.0899556 0.691665 -0.716595
0.221646 0.0180013 0.0197288 -0.382689 1.02264e-06 0.923877
0.207386 0.133662 0.424042 -0.988438 0.142478 0.051859
0.207522 -0.0303066 0.364554 1 0 0
0.0810889 -0.0242832 0.346922 0 0 -1
-0.182108 0.113161 0.58011 0.288286 -0.941529 0.174395
-0.183628 0.110001 0.555926 0.262397 -0.944827 -0.196086
0.127402 0.134074 0.409467 -0.0535277 -0.370626 0.927239
-0.0626718 0.195014 0.763088 0 0.173391 0.984853
-0.118057 -0.1088 0.346922 0 0 -1
-0.116596 0.122796 0.593207 0.28033 -0.887538 0.365639
-0.200527 0.120011 0.613397 0.317904 -0.880603 0.351391
0.178226 -0.140929 0.381356 0 0 1
0.127657 0.181248 0.74616 -0.247014 -0.899708 0.359876
-0.186908 -0.0668195 0.381356 0 0 1
-0.23411 -0.0772185 0.0044268 -0.923867 0 -0.382714
0.217094 0.157646 0.761502 -0.170139 -0.915649 0.364198
-0.0240802 0.189311 0.691754 0.0149985 -0.927728 0.372956
0.133702 -0.236518 0.352919 0 -0.857666 0.514208
-0.0660641 0.0945564 0.355706 0.0565548 -0.391585 0.918402
0.239528 -0.125284 0.552439 0 -0.642106 0.766616
-0.20421 -0.179345 0.346281 0 -0.250272 0.968176
-0.22126 0.0993021 0.616763 0.170167 -0.915644 0.364197
-0.0805618 -0.142154 0.346922 0 0 -1
0.219285 0.14993 0.736315 0 -0.929197 0.369585
-0.0510764 0.230222 0.75688 0 0.173521 0.98483
0.216589 0.019779 0.55128 -0.92385 -0.0333632 -0.381298
0.235889 -0.162129 0.455821 0 0.139194 0.990265
0.0610643 -0.165869 0.346922 0 0 -1
0.235301 -0.193215 0.218406 0.92387 0.378982 -0.0532626
-0.160226 -0.22941 0.337839 0 -0.465435 -0.885082
-0.0917629 0.0597463 0.34653 0 0 1
0.0749647 -0.0472458 0.346922 0 0 -1
0.165032 -0.220065 0.338441 0 0.237698 -0.971339
0.225975 -0.0312085 8.29343e-07 0.382723 -1.02281e-06 -0.923863
-0.227034 -0.170893 0.327927 -0.382826 0.91483 -0.128574
0.0259729 0.128122 0.534184 -0.0827936 -0.969642 -0.230086
0.179423 0.144431 0.656277 -0.280332 -0.887536 0.365642
-0.172912 -0.0829885 0.346922 0 0 -1
0.0721076 0.157946 0.624901 -0.0737267 -0.918839 0.387686
-0.207522 0.031601 0.375572 1 0 0
0.0854482 -0.171139 0.340417 -2.13851e-06 0.968102 0.250555
0.00705041 0.12694 0.574266 -0.0747421 -0.955149 0.286538
0.230659 -0.188858 0.0344358 0.377897 0.698773 0.60738
-0.192798 -0.140127 0.346922 0 0 -1
0.0738194 0.205208 0.761291 6.07241e-07 0.173681 0.984802
-0.218311 -0.206146 0.097507 0.92387 0.378983 -0.0532616
0.169454 0.115662 0.572697 -0.288288 -0.941529 0.174395
0.217243 -0.099195 0.015664 -0.923867 0 0.382713
-0.00201736 0.141603 0.610738 0.0149985 -0.927728 0.372956
0.0923635 -0.230668 0.362677 0 -0.857666 0.514208
0.19155 -0.202364 0.379565 0 -0.204664 0.978832
0.0224538 0.104873 0.358952 0 -0.396387 0.918083
0.0537437 0.18918 0.73216 -0.0737267 -0.918839 0.387686
0.150449 -0.0414518 0.346922 0 0 -1
0.207522 -0.0977647 0.361976 1 0 0
0.176159 0.137869 0.67546 -0.280333 -0.887537 0.365638
-0.0242058 -0.0941843 0.381356 0 0 1
0.192232 0.09533 0.400929 -0.100612 -0.373282 0.922246
0.248965 -0.0212736 0.577651 0 0.0871519 0.996195
0.119007 -0.181078 0.345833 0 -0.250272 0.968176
-0.0294135 0.128603 0.583963 0.0737275 -0.918839 0.387685
-0.00234465 -0.209374 0.3781 0 -0.204664 0.978832
0.0144564 -0.099252 0.381356 0 0 1
-0.0342323 0.210993 0.746097 0.0149985 -0.927728 0.372956
0.227957 0.123294 0.674135 0.295673 -0.887652 0.353059
-0.140534 0.0330482 0.381356 0 0 1
-0.0203291 0.14114 0.546856 0.0828109 -0.971045 -0.224084
-0.204874 0.177678 0.761847 0.317904 -0.880603 0.351391
-0.185248 -0.00473396 0.381356 0 0 1
-0.114793 0.129646 0.553866 0.26611 -0.939258 -0.216748
-0.0592317 0.147644 0.447147 0.0827304 -0.965453 -0.247097
-0.162835 0.180396 0.759115 0.12064 0 0.992696
0.223033 -0.0554751 0.567884 -0.380013 -0.0363457 0.924267
0.208776 0.133377 0.397543 0.102435 -0.852191 -0.513106
0.216421 -0.145142 0.535806 0 -0.642106 0.766616
-0.0797808 0.139312 0.618922 0.0737275 -0.918839 0.387685
0.0501928 0.0239902 0.346922 0 0 -1
0.216111 -0.0779596 0.551589 -0.922773 0.11106 -0.368992
0.184454 0.160197 0.381301 0.25872 0.73847 -0.622676
-0.0935811 -0.185625 0.327439 1.12104e-06 -0.507407 -0.861706
0.0799309 0.177826 0.674014 -0.139115 -0.919449 0.367777
-0.00180941 0.20142 0.720981 0.0149985 -0.927728 0.372956
-0.235841 -0.0652083 0.555443 -0.922779 0.111055 -0.368978
0.219877 -0.0945946 0.557363 -0.380024 -0.266573 0.885731
-0.0447504 -0.217014 0.374378 0 -0.57975 0.814794
-0.22981 0.150851 0.686832 -0.708624 0.655629 -0.260773
-0.0142274 -0.0744735 0.381356 0 0 1
-0.125131 -0.190518 0.346922 0 0 -1
0.0384446 0.0652925 0.381529 0 0 1
0.150337 0.14295 0.39556 -0.142942 -0.989731 0
-0.0558405 0.147 0.595866 0.0737275 -0.918839 0.387685
-0.0494908 0.177956 0.404215 -0.0181232 0.0794201 0.996677
0.207157 0.104979 0.498463 -0.988438 0.142478 0.051859
0.229153 -0.181239 0.260626 0.382783 0.914847 -0.128576
0.222298 -0.206098 0.0732298 -0.377965 0.925365 0.0290326
0.102616 0.184974 0.760679 -0.129308 -0.976518 0.172314
-0.235079 -0.13318 0.00676586 -0.923867 0 -0.382714
-0.121265 -0.237179 0.351817 0 -0.857666 0.514208
-0.105978 0.199669 0.762268 0 0.173669 0.984804
-0.0243961 0.195831 0.762945 0 0.173391 0.984853
-0.000571564 -0.14531 0.346922 0 0 -1
0.174469 0.196511 0.0140425 0 -0.654656 0.755927
0.032747 0.175043 0.404022 -0.0311645 -0.963866 -0.264559
-0.218679 -0.0329547 0.56515 0 0.996207 -0.0870164
0.215976 -0.0289974 0.560736 -0.923867 0.0333542 0.381257
0.215916 -0.150984 0.489516 -0.922781 0.334545 -0.191194
-0.101612 0.00303676 0.346922 0 0 -1
0.208441 -0.199796 0.362264 1 0 0
-0.0651357 0.12474 0.368518 0.0565548 -0.391585 0.918402
-0.233135 -0.106302 0.550281 -0.380199 -0.47983 0.790704
-0.209304 0.123612 0.46275 0.734334 0.637854 0.232154
-0.0845945 0.189396 0.704704 0.139115 -0.919449 0.367778
0.0491648 0.00169118 0.346922 0 0 -1
-0.138873 -0.131561 0.381356 0 0 1
-0.0181225 -0.0749068 0.346922 0 0 -1
-0.101323 0.104277 0.362027 0.0572554 -0.390582 0.918786
-0.17201 0.166862 0.705041 0.280329 -0.887536 0.365643
0.106665 0.0823216 0.353045 -0.0573906 -0.391505 0.918385
-0.0704666 0.177331 0.670533 0.0737275 -0.918839 0.387685
0.0883451 0.160709 0.418424 0.847059 0 -0.531499
-0.114 0.119878 0.403046 0.0534191 -0.369873 0.927545
0.23501 0.0506197 0.0149231 0.923867 0 0.382713
-0.0784537 0.168103 0.417635 0.144407 -0.963568 -0.22513
-0.119315 -0.122426 0.381356 0 0 1
-0.220151 0.113537 0.58843 0.17 0.915672 -0.364205
-0.208441 0.0266199 0.347872 -1 0 0
-0.207522 -0.0744398 0.362678 1 0 0
-0.0113159 -0.186853 0.381356 0 0 1
0.135264 0.155296 0.686499 -0.247014 -0.899708 0.359876
-0.0167909 0.0861461 0.350867 0 -0.396387 0.918083
-0.219328 -0.0599095 0.569316 0 0.0247935 -0.999693
0.207669 0.104144 0.387434 -1 0 0
0.212379 0.144881 0.674038 -0.397153 0.852773 -0.339188
-0.218801 0.0776668 0.0185506 0.382646 0 0.923895
-0.00313542 0.146803 0.464373 0.0314447 -0.972501 -0.230764
-0.217213 -0.0653975 0.00592962 0.923867 0 -0.382714
-0.0932399 -0.15818 0.346922 0 0 -1
-0.233814 0.0822485 0.556228 -0.923867 0.0333567 0.381257
-0.140577 -0.0842868 0.381356 0 0 1
0.0125351 -0.0588421 0.381356 0 0 1
0.206604 0.130835 0.655717 1 0 0
0.137633 -0.163042 0.346922 0 0 -1
-0.0707034 -0.15416 0.381356 0 0 1
-0.102079 -0.174841 0.381356 0 0 1
0.132386 0.181493 0.711277 -0.247014 -0.899706 0.35988
-0.174997 0.0896005 0.39673 0.100612 -0.373282 0.922246
-0.0495888 -0.169647 0.334133 0 0.86157 -0.507639
0.229331 -0.0113068 0.566742 0.382714 0.0805205 0.920351
-0.207185 0.121746 0.646133 0.899002 -0.406938 0.161856
0.0888914 0.0436091 0.34653 0 0 1
0.0131986 -0.174804 0.344142 -1.12082e-06 0.507372 0.861727
-0.210071 0.128639 0.411098 0.388033 -0.873559 -0.293811
0.180795 0.116544 0.627253 -0.280333 -0.887537 0.365638
0.197734 0.160559 0.712487 -0.317904 -0.880603 0.351391
-0.235593 0.0171502 0.565648 0 -0.0871589 -0.996194
0.258255 -0.11671 0.55451 1 0 0
-0.0430248 -0.0769301 0.346922 0 0 -1
-0.188459 0.163039 0.74914 0.317873 -0.880611 0.3514
0.114718 0.143837 0.379718 -0.0564422 -0.390806 0.918741
0.0684242 0.149769 0.435447 -0.0311648 -0.963866 -0.264559
0.225017 0.0874036 0.530495 0.898931 -0.411672 -0.149833
0.233653 -0.0445307 0.551456 0.922783 0.0151433 -0.385023
-0.201044 0.105362 0.615985 0.317873 -0.880611 0.3514
0.204954 0.102593 0.59324 -1 0 0
-0.045311 0.158354 0.409947 0.0314447 -0.972501 -0.230764
0.135397 0.145188 0.624362 -0.280332 -0.887536 0.365642
0.211767 0.0981353 0.558392 -0.261342 0.946647 -0.188575
-0.0181603 0.154077 0.496303 0.0827305 -0.965453 -0.247097
-0.0783828 0.144442 0.452629 0.144407 -0.963568 -0.22513
0.187627 -0.176716 0.346922 0 0 -1
-0.0642235 -0.201669 0.345517 0 0.158978 -0.987282
-0.137644 0.121431 0.60603 0.28033 -0.887538 0.365639
-0.196083 -0.192616 0.381356 0 0 1
0.207522 -0.184723 0.350963 -1 0 0
0.0382625 0.215413 0.759491 6.07401e-07 0.173714 0.984796
0.22564 -0.0862624 0.0213832 -0.382689 1.0221e-06 0.923877
0.0882349 -0.0333996 0.381356 0 0 1
-5.72457e-07 0.170008 0.398511 1 0 0
-0.027225 0.174543 0.386785 0.0285944 -0.356872 -0.933715
0.0687442 0.00202344 0.346922 0 0 -1
-0.0929532 0.131684 0.497888 0.144407 -0.963568 -0.22513
-0.0422898 0.198193 0.0154994 0 -0.654656 0.755927
0.233106 -0.202623 0.232411 0.382681 -0.914889 0.128579
-0.169823 0.215701 0.00978744 0 0.654712 -0.755879
-0.107655 0.163519 0.688104 0.247025 -0.899703 0.359879
-0.144651 -0.0548885 0.346922 0 0 -1
-0.216998 0.028599 0.0150731 0.923867 0 0.382713
-0.226172 0.0382495 0.563802 0 -0.0871589 -0.996194
0.237092 0.0488632 0.562874 0 -0.0871589 -0.996194
0.113108 0.14116 0.50671 -0.25844 -0.940693 -0.219785
0.206141 -0.230481 0.362988 0 -0.857666 0.514208
-0.145932 0.0736851 0.352199 0.101852 -0.377882 0.920235
0.0589914 0.00737038 0.381356 0 0 1
0.224828 -0.158053 0.419538 -0.382784 0.914848 -0.128571
-0.207522 -0.00538372 0.348826 1 0 0
0.0871718 -0.174534 0.381356 0 0 1
-0.227613 -0.163506 0.0228955 -0.377949 0.157591 0.912316
-0.216859 0.111544 0.507004 0.265502 0.905967 0.329746
0.192483 0.141577 0.388297 -0.316777 -0.92716 -0.200066
-0.127478 -0.170143 0.336569 -2.13851e-06 0.968102 0.250555
0.116887 0.142154 0.64103 -0.247014 -0.899708 0.359876
-0.141601 0.210904 0.757022 -0.332859 0.92863 -0.163863
0.0123275 -0.0906274 0.346922 0 0 -1
-0.00814636 -0.0912599 0.346922 0 0 -1
0.238651 -0.17888 0.47336 0 -0.979854 0.199716
0.20117 0.0455746 0.381766 -0.100612 -0.373282 0.922246
0.0206253 0.166671 0.438951 -0.0827937 -0.969642 -0.230086
-0.233714 0.0562778 0.558741 -0.923867 0.0333567 0.381257
0.22961 -0.224129 0.0897861 0.382574 -0.914934 0.128583
-0.0390133 -0.000168286 0.346922 0 0 -1
0.229407 -0.0562477 0.0200992 0.382688 -1.02264e-06 0.923878
0.233117 -0.0340667 0.578513 0 -0.0247676 0.999693
-0.106967 0.140967 0.514755 0.25842 -0.940698 -0.219787
0.141685 -0.138505 0.381356 0 0 1
0.115576 0.0280773 0.346922 0 0 -1
0.100336 0.187179 0.743855 -0.139132 -0.919449 0.367772
0.111601 -0.0915792 0.381356 0 0 1
0.255897 -0.165741 0.507295 0 -0.910942 0.412533
-0.050872 0.17447 0.660026 0.0737275 -0.918839 0.387685
-0.158744 -0.164984 0.346922 0 0 -1
-0.143319 0.121648 0.56626 0.26496 -0.925687 0.27
-0.0651798 0.135124 0.556353 0.0828109 -0.971045 -0.224084
0.16778 -0.0595914 0.346922 0 0 -1
-0.240694 -0.0229459 0.577797 0 0.0871519 0.996195
-0.0196862 0.174136 0.404321 0.00622692 -0.472146 0.881498
-0.207522 -0.192829 0.360789 -1 0 0
0.234406 -0.187498 0.243566 0.923852 0.379025 -0.0532675
0.115548 0.22007 0.758669 0 0.173701 0.984798
-0.222793 0.119318 0.020204 0.382646 0 0.923895
0.234134 -0.20652 0.0580028 0.921831 0.360867 0.141433
-0.119688 0.141856 0.467651 -0.83907 0 -0.544024
-0.233532 -0.045238 0.566387 -0.380055 -0.0363255 0.92425
0.0912094 0.164406 0.388195 -0.125336 -0.797556 -0.590081
0.134799 -0.0739489 0.346922 0 0 -1
-0.0668736 0.146026 0.377701 0.0565548 -0.391585 0.918402
-0.192042 -0.0266433 0.381356 0 0 1
0.0902327 0.159897 0.445199 -0.144407 -0.963568 -0.22513
0.166308 -0.0841076 0.381356 0 0 1
0.153486 -0.010433 0.346922 0 0 -1
-0.212029 0.0835201 0.565218 0.5098 -0.843712 0.168091
-0.22097 0.218068 0.0194488 0.382646 0 0.923895
-0.207522 -0.0557754 0.370997 1 0 0
-0.0328773 0.129329 0.369511 0 -0.396387 0.918083
0.0304594 -0.0198471 0.381356 0 0 1
0.0499647 0.136072 0.564053 -0.0734901 -0.957402 0.27925
-0.0980145 0.185769 0.73945 0.139115 -0.919449 0.367778
-0.0756702 0.182157 0.721968 0.139115 -0.919449 0.367778
-0.0679237 -0.0418072 0.381356 0 0 1
0.22422 -0.109683 0.00072619 -0.38268 1.02262e-06 -0.923881
0.178842 -0.0844988 0.346922 0 0 -1
0.0419703 0.164086 0.442856 -0.0311645 -0.963866 -0.264559
0.0158986 -0.125762 0.346922 0 0 -1
0.12354 0.126777 0.555634 -0.271918 -0.929184 -0.250354
0.074177 0.126019 0.5257 -0.0827936 -0.969642 -0.230086
-0.0401357 0.122874 0.40046 0 -0.375184 0.92695
0.00183178 0.153164 0.379802 0 -0.396387 0.918083
-0.107118 0.141864 0.594862 0.247009 -0.899707 0.359881
-0.217196 0.127025 0.684564 0.170139 -0.915649 0.364198
0.218197 -0.12713 0.539735 0 0.642084 -0.766634
-0.258255 -0.0654524 0.569625 -1 0 0
0.0794589 0.132823 0.603481 -0.0737267 -0.918839 0.387686
-0.18834 0.15235 0.683413 0.317904 -0.880603 0.351391
0.0849057 0.216241 0.0112663 0 0.654594 0.755981
0.116543 0.168699 0.401657 0.0542878 0.07596 0.995632
-0.18769 -0.199703 0.345833 0 0.158978 -0.987282
0.0381303 -0.086421 0.381356 0 0 1
-0.130362 0.214061 0.013154 2.91347e-06 0.654719 0.755873
-0.0309102 -0.195473 0.381006 0 -0.204664 0.978832
-0.240153 -0.178688 0.451247 0 -0.0872585 -0.996186
0.0960117 0.0633592 0.34653 0 0 1
-0.208441 0.042684 0.356604 -1 0 0
-0.104168 0.133603 0.48248 0.144407 -0.963568 -0.22513
0.0977854 0.150643 0.479962 -0.144407 -0.963568 -0.22513
-0.0943106 -0.0426174 0.346922 0 0 -1
0.101753 0.205784 0.752164 -0.139115 -0.919449 0.367777
0.0920294 0.184925 0.696338 -0.139115 -0.919449 0.367777
-0.096519 0.125858 0.370927 0.0565548 -0.391585 0.918402
0.0483276 0.150396 0.602486 -0.0737267 -0.918839 0.387686
0.222881 -0.215975 0.149428 -0.382574 -0.914933 0.128586
0.233559 -0.218305 0.119479 0.382681 -0.914889 0.128579
-0.227924 0.180819 0.000807637 -0.382723 0 -0.923863
-0.0280441 -0.0386078 0.346922 0 0 -1
0.22319 0.127078 0.00115323 -0.38268 1.0227e-06 -0.923881
0.138156 0.134716 0.504833 -0.25844 -0.940693 -0.219785
0.233379 -0.0754867 0.574636 0 -0.246402 0.969168
0.19224 0.177464 0.749879 -0.317904 -0.880603 0.351391
0.026989 0.149149 0.632196 -0.0737267 -0.918839 0.387686
-0.112324 0.113698 0.558862 0.262377 -0.944824 -0.196127
-0.145811 0.143603 0.389229 0.142942 -0.989731 0
-0.165455 0.13923 0.410556 0.333428 -0.942776 0
0.23437 0.120517 0.64946 0.964767 -0.244476 0.0972397
-0.123623 0.157013 0.644062 0.247009 -0.899707 0.359881
0.226633 0.110829 0.612554 0.988442 0.140868 -0.0560294
-0.0779309 0.129046 0.594239 0.0737275 -0.918839 0.387685
-0.0949619 0.20635 0.751011 0.139115 -0.919449 0.367778
-0.199992 0.105415 0.567856 0.288286 -0.941529 0.174395
-0.236409 -0.00811815 0.0115456 -0.923867 0 0.382713
0.136467 0.192151 0.756344 -0.0999238 0 0.994995
0.0596612 0.159091 0.661973 -0.0737267 -0.918839 0.387686
0.0662425 -0.186652 0.381356 0 0 1
-0.195559 0.139795 0.394091 0.631239 -0.737028 0.24151
-0.184759 0.0580626 0.350082 0.101852 -0.377882 0.920235
0.0941937 0.118574 0.550201 -0.0828191 -0.971035 -0.224125
-0.0711962 0.168485 0.686431 0.0737275 -0.918839 0.387685
-0.127832 0.1843 0.71517 0.247009 -0.899707 0.359881
-0.056527 0.164991 0.638635 0.0737275 -0.918839 0.387685
-0.193554 0.143419 0.70458 0.317873 -0.880611 0.3514
-0.0637149 0.14275 0.464769 0.0827304 -0.965453 -0.247097
0.113663 0.0500363 0.381529 0 0 1
-0.0764578 0.122556 0.401946 0.0543189 -0.37055 0.927223
0.237967 -0.164518 0.509996 0 -0.910942 0.412533
0.215991 -0.179867 0.324721 -0.923852 0.379024 -0.0532685
-0.168169 0.100159 0.57052 0.288287 -0.941537 0.174352
0.207669 0.0711986 0.384816 -1 0 0
0.146505 0.128541 0.521449 -0.25844 -0.940693 -0.219785
0.0391764 -0.21774 0.339155 0 0.439298 -0.898342
-0.187595 0.112541 0.373387 0.138832 -0.392551 0.909192
-0.227964 -0.205008 0.230747 -0.382514 -0.914958 0.128584
-0.0449705 -0.210496 0.342698 0 0.439298 -0.898342
-0.218092 -0.18021 0.385747 0.92387 -0.378982 0.0532634
0.0230089 -0.159712 0.381356 0 0 1
-0.215609 0.00264326 0.557078 0.923867 0.0333542 0.381257
0.151337 0.113913 0.369317 -0.101852 -0.377882 0.920235
-0.0700773 0.0227945 0.381356 0 0 1
-0.0194861 0.195899 0.707958 0.0149985 -0.927728 0.372956
-0.0544398 0.20298 0.005542 0 0 -1
0.204929 0.152067 0.697714 -0.317904 -0.880603 0.351391
-0.0495395 -0.107895 0.346922 0 0 -1
-0.227407 -0.216727 0.039639 -0.377857 -0.862039 -0.337806
0.0653995 0.0599056 0.381529 0 0 1
-0.0121235 0.145846 0.584816 0.0737275 -0.918839 0.387685
-0.076823 -0.230131 0.363572 0 -0.857666 0.514208
-0.0591424 0.0782653 0.383232 0.0543189 -0.37055 0.927223
-0.0675216 0.160011 0.456591 0.0827305 -0.965453 -0.247097
-0.0308982 -0.0217253 0.381356 0 0 1
-0.21736 0.120605 0.427884 0 -0.939692 -0.34202
-0.126677 -0.00440237 0.381356 0 0 1
0.188956 -0.108444 0.346922 0 0 -1
-0.218877 0.0416713 0.00293946 0.382638 0 -0.923899
-0.216084 -0.0738578 0.557252 0.922762 -0.111067 0.369017
-0.163258 -0.134069 0.381356 0 0 1
0.198277 -0.040833 0.346922 0 0 -1
-0.209584 0.105041 0.478508 0.51614 -0.804848 -0.292948
0.231986 0.0737015 0.00249076 0.38268 0 -0.923881
0.226478 0.161822 0.74756 0.89893 -0.407073 0.161914
-0.12645 0.100713 0.362078 0.0572554 -0.390582 0.918786
-0.00600459 0.139205 0.496005 0.0314447 -0.972501 -0.230764
-0.106582 0.135642 0.617676 0.247025 -0.899703 0.359879
0.206604 0.173589 0.759437 1 0 0
0.161074 0.140898 0.633636 -0.280332 -0.887536 0.365642
0.215403 0.0764883 0.011221 -0.923867 0 0.382713
0.0187831 0.0571183 0.381529 0 0 1
-0.0992912 0.0847362 0.38817 0.0543189 -0.37055 0.927223
0.0702988 0.178693 0.711277 -0.139132 -0.919449 0.367772
0.208441 0.014202 0.373013 1 0 0
-0.0244125 0.0437942 0.376374 0 1 0
-0.235087 -0.19627 0.250099 -0.923887 -0.378941 0.0532577
0.160416 0.185942 0.742467 -0.280332 -0.887536 0.365642
-0.154068 0.113142 0.598503 0.28033 -0.887538 0.365639
-0.101113 0.150059 0.408246 0.142942 -0.989731 0
-0.216814 -0.0271915 0.00689354 0.923867 0 -0.382714
0.158277 0.104217 0.544122 -0.27193 -0.929163 -0.250419
0.207889 0.129041 0.678951 -0.397032 -0.852822 0.339205
-0.192882 0.078634 0.394242 0.100612 -0.373282 0.922246
0.0464117 0.165646 0.67499 -0.0737267 -0.918839 0.387686
0.0616428 0.141383 0.583657 -0.0737267 -0.918839 0.387686
0.215212 0.0831972 0.563421 -1 0 0
0.217002 -0.165929 0.462707 -0.922777 -0.371764 0.101365
-0.184746 0.0154291 0.381356 0 0 1
-0.230601 -0.208385 0.19887 -0.382514 -0.914958 0.128584
0.146239 0.0577116 0.381529 0 0 1
0.0572368 0.213288 0.755495 0 -0.173635 -0.98481
-0.232125 -0.176327 0.0069311 -0.377876 -0.45452 -0.806611
-0.235886 -0.173906 0.395364 -0.92387 -0.378982 0.0532624
0.21674 -0.19523 0.202421 -0.92387 0.378983 -0.0532616
0.152029 0.0785035 0.354853 -0.101852 -0.377882 0.920235
0.143339 0.0522988 0.34653 0 0 1
0.101939 -0.117072 0.346922 0 0 -1
-0.0894623 0.00255257 0.381356 0 0 1
-0.0471933 0.156432 0.381213 0 -0.396387 0.918083
0.0156587 0.201059 0.720639 -0.0149982 -0.927728 0.372956
0.171969 -0.0501782 0.381356 0 0 1
-0.217475 -0.195541 0.187463 0.92387 0.378983 -0.0532616
-0.0357866 0.176695 0.699387 0.0149985 -0.927728 0.372956
-0.179976 0.0538303 0.382795 0.100612 -0.373282 0.922246
0.208441 -0.171939 0.371507 1 0 0
-0.0849962 -0.141244 0.381356 0 0 1
0.0185671 -0.233979 0.357155 0 -0.857666 0.514208
-0.160276 0.139134 0.628742 0.280329 -0.887536 0.365643
-0.176425 -0.172144 0.381356 0 0 1
-0.113046 0.118187 0.538575 0.258797 -0.930426 -0.259481
-0.0569683 -0.103672 0.381356 0 0 1
-0.168156 0.15214 0.395855 0.0307961 -0.468837 0.882748
-0.208441 -0.137514 0.365391 -1 0 0
-0.0909305 -0.185821 0.344607 0 -0.250272 0.968176
-0.207522 -0.115663 0.359736 1 0 0
-0.225802 0.0832325 7.11349e-05 0.382638 -5.5393e-17 -0.923899
0.236237 -0.139261 0.514437 0.92275 -0.276056 0.268936
-0.106751 0.0510556 0.34653 0 0 1
-0.191523 -0.228414 0.337315 0 -0.465435 -0.885082
-0.156124 0.184732 0.736239 0.280329 -0.887536 0.365643
0.00540075 -0.134349 0.381356 0 0 1
0.206604 0.116802 0.645045 1 0 0
-0.0439348 0.159457 0.623124 0.0737275 -0.918839 0.387685
0.22522 0.178033 0.000312352 -0.38268 1.02262e-06 -0.923881
-0.027689 0.131064 0.522489 0.0827304 -0.965453 -0.247097
-0.221133 -0.184614 0.367371 0.382741 -0.914865 0.128571
0.232257 -0.149401 0.530237 0 -0.796466 0.604684
0.0549893 -0.2266 0.367557 0 -0.57975 0.814794
-0.244087 0.0710952 0.560929 0 -0.0871589 -0.996194
-0.0404077 0.123902 0.546988 0.0828109 -0.971036 -0.224125
0.0316102 0.152681 0.429173 -0.0311648 -0.963866 -0.264559
0.222213 -0.180297 0.401304 -0.382681 -0.91489 0.128577
-0.0447546 -0.134209 0.346922 0 0 -1
-0.0356021 0.163097 0.391285 0.0314447 -0.972501 -0.230764
-0.166482 0.0336813 0.346922 0 0 -1
0.0548621 0.156655 0.618563 -0.0737267 -0.918839 0.387686
-0.191792 -0.143555 0.381356 0 0 1
-0.236801 -0.149342 0.516169 0 0.796402 -0.604767
-0.0872744 0.138903 0.582654 0.0737275 -0.918839 0.387685
-0.150258 -0.187294 0.346922 0 0 -1
0.0900102 0.180377 0.722944 -0.139132 -0.919449 0.367772
-0.234889 0.127392 0.648531 -0.964754 0.244522 -0.0972589
-0.232587 -0.128878 0.534792 -0.380047 -0.662533 0.645457
-0.207522 -0.0602271 0.358423 -1 0 0
0.180428 0.108841 0.404899 -0.123571 -0.349401 0.928789
0.143548 -0.0698182 0.381356 0 0 1
-0.21753 0.196523 0.0163559 0.923867 0 0.382713
-0.258255 -0.170648 0.488224 -1 0 0
-0.10978 0.17747 0.397581 -0.13063 0.931659 0.339038
-0.227651 -0.220804 0.11928 -0.382514 -0.914958 0.128584
-0.217988 0.0521485 0.558511 0.923851 0.0333602 0.381297
-0.0117984 0.0704495 0.34653 0 0 1
0.0635374 -0.123093 0.381356 0 0 1
-0.172991 -0.0486533 0.381356 0 0 1
0.223166 -0.200354 0.123505 -0.382573 0.914933 -0.128588
-0.170931 0.125951 0.642523 0.28033 -0.887538 0.365639
0.104715 0.136362 0.470318 -0.144437 -0.963566 -0.225119
0.0980009 0.116341 0.366995 -0.0564422 -0.390806 0.918741
-0.197433 -0.104271 0.381356 0 0 1
0.228139 0.159829 0.707399 0.295545 0.887689 -0.353074
0.0279165 0.140391 0.611615 -0.0737267 -0.918839 0.387686
-0.213984 0.116501 0.49107 0.265502 0.905967 0.329746
-0.108738 0.144174 0.640487 0.247025 -0.899703 0.359879
-0.0747567 0.000843551 0.346922 0 0 -1
0.207669 0.105056 0.406467 -1 0 0
0.0212902 0.197733 0.762609 0 0.173669 0.984804
-0.0111227 0.219434 0.754412 -1.61044e-06 -0.173602 -0.984816
-0.116854 0.0296685 0.381356 0 0 1
0.0216661 0.167346 0.637588 -0.0737267 -0.918839 0.387686
0.204676 -0.0414225 0.381356 0 0 1
-0.00286808 0.104784 0.393138 0 -0.375184 0.92695
0.216164 -0.0505504 0.556321 -0.922782 0.0151245 -0.385026
0.143813 0.109993 0.582996 -0.280333 -0.887537 0.365638
-0.134197 0.0795282 0.388119 0.0534191 -0.369873 0.927545
-0.223836 -0.149481 0.469497 0.38001 0.89241 -0.243302
-0.0842509 0.156689 0.624232 0.0737275 -0.918839 0.387685
-0.233835 -0.116118 0.00376271 -0.923867 0 -0.382714
-0.112538 0.130163 0.373749 0.0565548 -0.391585 0.918402
-0.179976 -0.0582751 0.346922 0 0 -1
0.0573249 0.121758 0.366773 -0.0573906 -0.391505 0.918385
0.12834 0.0925727 0.392971 -0.0541884 -0.36966 0.927586
-0.0057147 -0.003635 0.346922 0 0 -1
-0.0270171 0.237157 0.754938 -0.0482207 0.983687 -0.173303
-0.236411 -0.185829 0.290216 -0.92387 0.378982 -0.0532626
-0.208441 -0.0395133 0.361495 -1 0 0
-0.228271 0.119512 0.664365 -0.295673 -0.887652 0.353059
-0.0767111 0.124518 0.531651 0.0827304 -0.965453 -0.247097
0.217441 -0.10967 0.545438 -0.922756 -0.199933 0.329465
0.0572129 -0.14363 0.346922 0 0 -1
-0.0498272 0.198193 0.716052 0.0737275 -0.918839 0.387685
-0.207669 0.0475011 0.371281 1 0 0
-0.105041 0.174812 0.675978 0.139115 -0.919449 0.367778
0.11204 0.147473 0.413936 -0.0535277 -0.370626 0.927239
0.217802 0.108146 0.0170125 -0.923824 2.46854e-06 0.382817
0.225549 0.123735 0.433869 0.898996 -0.411543 -0.149793
-0.0593322 0.14633 0.512787 0.0827305 -0.965453 -0.247097
-0.171445 0.151639 0.667657 0.280329 -0.887536 0.365643
0.116232 -0.138477 0.381356 0 0 1
0.0505178 0.215131 0.0122274 0 0.654594 0.755981
0.00739373 0.195199 0.0129063 0 -0.654656 0.755927
-0.177415 0.16045 0.732661 0.317873 -0.880611 0.3514
-0.235793 0.0152095 0.0130318 -0.923867 0 0.382713
0.127244 -0.17835 0.381356 0 0 1
0.151676 0.136852 0.379017 -0.0564422 -0.390806 0.918741
0.117646 -0.21878 0.338755 0 0.237698 -0.971339
0.228432 0.039978 0.543069 0.382708 -0.080523 -0.920354
-0.0379258 0.153004 0.606688 0.0737275 -0.918839 0.387685
-0.148356 0.0373265 0.346922 0 0 -1
-0.216661 -0.150935 0.486012 0.922796 0.334507 -0.191185
-0.0192434 0.124091 0.55399 0.0828201 -0.971044 -0.224084
0.0430998 0.124224 0.544599 -0.0828101 -0.971045 -0.224084
0.0268263 0.151073 0.502456 -0.0827937 -0.969642 -0.230086
0.0982863 0.129665 0.599577 -0.0737267 -0.918839 0.387686
0.0228687 -0.0139135 0.346922 0 0 -1
-0.133459 0.178828 0.744091 0.247025 -0.899703 0.359879
0.215212 -0.159221 0.506512 -1 0 0
0.0976703 -0.0301718 0.346922 0 0 -1
-0.109114 0.153166 0.663226 0.247025 -0.899703 0.359879
0.0420136 0.0725147 0.34653 0 0 1
0.100067 -0.0893217 0.346922 0 0 -1
-0.231479 -0.0840185 0.572467 0 -0.246402 0.969168
-0.188222 0.126475 0.657296 0.317873 -0.880611 0.3514
0.0479781 0.15988 0.457729 -0.0827937 -0.969642 -0.230086
0.130057 -0.000158947 0.346922 0 0 -1
-0.234291 -0.20549 0.113542 -0.92387 0.378982 -0.0532626
0.0120365 0.147025 0.524833 -0.0827937 -0.969642 -0.230086
-0.0137728 -0.00997318 0.381356 0 0 1
-0.162051 0.0601833 0.383411 0.100612 -0.373282 0.922246
0.0666639 0.146327 0.508122 -0.0827937 -0.969642 -0.230086
0.0152842 0.0333188 0.346922 0 0 -1
0.226194 0.135464 0.644511 0.295545 0.887689 -0.353074
0.0519738 0.148518 0.635453 -0.0737267 -0.918839 0.387686
0.0499583 -0.114785 0.346922 0 0 -1
-0.0355223 -0.150604 0.381356 0 0 1
-0.0138341 0.127671 0.578437 0.074782 -0.957297 0.279266
0.231392 -0.00226638 0.0192768 0.382731 0 0.92386
-0.043195 -0.169954 0.381356 0 0 1
0.226905 -0.193278 0.168271 0.382783 0.914847 -0.128576
0.150014 0.173305 0.741648 -0.247014 -0.899708 0.359876
0.0740128 -0.180884 0.346922 0 0 -1
-0.0150304 0.113503 0.362678 0 -0.396387 0.918083
0.21558 -0.142023 0.00987162 -0.923867 2.46881e-06 -0.382714
-0.160393 -0.0852008 0.381356 0 0 1
-0.0257798 -0.185378 0.327294 1.12104e-06 -0.507407 -0.861706
-0.0795 0.0354451 0.346922 0 0 -1
0.221635 0.139371 0.717677 -0.170167 -0.915644 0.364197
0.0206914 0.173859 0.653182 -0.0149982 -0.927728 0.372956
0.207522 -0.13032 0.380085 -1 0 0
0.181751 0.0980578 0.581636 -0.288289 -0.941528 0.174395
-0.236452 -0.045452 0.0100807 -0.923867 0 -0.382714
0.0161536 0.147413 0.45642 -0.0827936 -0.969642 -0.230086
-0.00708308 0.1473 0.625114 0.0149985 -0.927728 0.372956
-0.00391079 0.168147 0.676843 0.0149985 -0.927728 0.372956
-0.22496 0.159885 0.751118 -0.899003 -0.406934 0.161858
0.0549259 0.144774 0.518888 -0.0827937 -0.969642 -0.230086
0.206604 0.162732 0.750535 1 0 0
0.179513 0.0835241 0.359957 -0.101852 -0.377882 0.920235
-0.0472515 0.116055 0.36378 0 -0.396387 0.918083
-0.23578 0.0648601 0.548362 -0.923886 -0.0333558 -0.381212
0.164333 0.0944535 0.397345 -0.123571 -0.349401 0.928789
-0.00175145 0.134111 0.405008 0 -0.375184 0.92695
0.0493582 0.140505 0.473583 -0.0827936 -0.969642 -0.230086
-0.0241873 -0.178115 0.346092 0 0.507425 0.861696
0.0430909 0.142388 0.533201 -0.0827937 -0.969642 -0.230086
0.1949 0.120919 0.649415 -0.317888 -0.880607 0.351394
0.135818 -0.0241435 0.381356 0 0 1
0.171222 -0.00488715 0.381356 0 0 1
-0.207522 0.0153578 0.360754 -1 0 0
0.158142 0.172792 0.708804 -0.280332 -0.887536 0.365642
0.172494 -0.164403 0.381356 0 0 1
-0.133583 0.00476427 0.346922 0 0 -1
-0.219925 0.146761 0.672064 0.169944 0.915681 -0.364207
0.01597 0.175835 0.403113 -0.0311645 -0.963866 -0.264559
-0.176819 0.195129 0.762566 -0.511572 0.846202 -0.14912
0.236396 0.0767644 0.550451 0.923849 0.033358 0.3813
-0.07362 -0.199432 0.380178 0 -0.204664 0.978832
-0.223295 -0.178425 0.27915 0.38253 0.914951 -0.128591
-0.223626 -0.135992 0.499578 0.379977 0.803084 -0.458991
-0.224533 0.177187 0.748021 -0.295545 0.887689 -0.353074
0.252706 -0.090895 0.570718 0 -0.246402 0.969168
0.109632 0.13365 0.543002 -0.258402 -0.941299 -0.217219
0.207321 0.109114 0.479511 -0.89893 -0.411672 -0.14984
-0.233129 -0.193038 0.0377058 -0.378114 0.698652 0.607384
-0.048268 0.154202 0.425194 0.0827304 -0.965453 -0.247097
0.15033 0.149425 0.683708 -0.280333 -0.887537 0.365638
-0.127743 0.123566 0.498483 0.258436 -0.940694 -0.219786
0.113786 -0.00240304 0.381356 0 0 1
0.0728921 0.122447 0.54129 -0.0828101 -0.971045 -0.224084
0.126684 0.146366 0.399186 -0.142942 -0.989731 0
0.230435 -0.130061 0.00184839 0.38268 0 -0.923881
0.0287404 -0.0452951 0.381356 0 0 1
0.181047 0.166238 0.711622 -0.317904 -0.880603 0.351391
0.151962 0.12092 0.572243 -0.264962 -0.925686 0.27
0.0264651 0.145167 0.585935 -0.0737267 -0.918839 0.387686
-0.143308 0.0938641 0.394361 0.0534191 -0.369873 0.927545
0.216973 0.0567342 0.0150117 -0.923824 2.46854e-06 0.382817
0.216466 0.0307489 0.5731 0 0.0871519 0.996195
-0.0886475 0.132894 0.605397 0.0737275 -0.918839 0.387685
0.0431 0.185215 0.397471 0.0436135 0.938795 0.341704
0.0867759 0.202947 0.752315 -0.0492896 0 0.998785
-0.0483551 -0.0529593 0.381356 0 0 1
0.124456 0.16446 0.663253 -0.247014 -0.899706 0.35988
0.0215804 0.140662 0.548467 -0.0828102 -0.971045 -0.224084
0.194355 0.0257997 0.381356 0 0 1
-0.136896 0.158095 0.694616 0.247025 -0.899703 0.359879
-0.131827 0.162413 0.382844 0.141833 -0.34115 -0.929247
0.0259818 -0.0730728 0.381356 0 0 1
-0.168321 -0.231516 0.361263 0 -0.857666 0.514208
-0.0860998 0.173588 0.70449 0.139115 -0.919449 0.367778
0.111356 0.145718 0.489259 -0.25844 -0.940693 -0.219785
0.0493912 0.115928 0.397711 -0.0535277 -0.370626 0.927239
-0.0671062 0.136208 0.489194 0.0827304 -0.965453 -0.247097
-0.176268 0.112728 0.614518 0.28033 -0.887538 0.365639
0.101615 0.197818 0.732198 -0.139115 -0.919449 0.367777
-0.0823198 -0.227489 0.336828 0 -0.465435 -0.885082
0.00590026 0.0437942 0.354175 0 1 0
0.00401026 0.0711592 0.34653 0 0 1
-0.0205156 0.154218 0.430759 0.0314447 -0.972501 -0.230764
0.207522 -0.229011 0.346705 -1 0 0
-0.0260407 0.132273 0.404264 0 -0.375184 0.92695
-0.00571429 0.0804212 0.383277 0 -0.375184 0.92695
0.0802474 0.146962 0.637142 -0.0737267 -0.918839 0.387686
0.0987677 0.189516 0.710365 -0.139115 -0.919449 0.367777
0.22253 0.142851 0.00142647 -0.38268 1.0227e-06 -0.923881
-0.0317059 0.183547 0.677894 0.0737275 -0.918839 0.387685
-0.147524 0.182398 0.760942 -3.49694e-07 -0.17362 -0.984813
-0.206605 0.159291 0.725895 -1 0 0
0.198182 0.064995 0.354475 -0.138832 -0.392551 0.909192
-0.0287234 0.209809 0.0159793 0 0 1
0.177386 0.182797 0.749806 -0.317904 -0.880603 0.351391
0.138658 0.124678 0.61469 -0.280333 -0.887537 0.365638
0.189144 0.108669 0.567489 -0.288288 -0.941529 0.174395
-0.210554 0.0975701 0.538254 0.734196 0.637992 0.232214
-0.000461693 0.157557 0.650361 0.0149985 -0.927728 0.372956
0.1891 0.117764 0.598968 -0.280332 -0.887536 0.365642
-0.176714 0.157135 0.378731 -0.141137 0.297644 -0.944187
0.102993 0.163714 0.686196 -0.139132 -0.919449 0.367772
0.146421 -0.188852 0.329496 2.13863e-06 -0.968162 -0.250326
-0.190634 0.114816 0.6306 0.28033 -0.887538 0.365639
0.162936 -0.121612 0.346922 0 0 -1
-0.143422 -0.0390107 0.381356 0 0 1
-0.113151 0.0933836 0.358134 0.0572554 -0.390582 0.918786
0.217895 0.142537 0.0172358 -0.923824 2.46854e-06 0.382817
-0.208441 -0.163382 0.377627 -1 0 0
-0.140742 0.199964 0.005542 0 0 -1
-0.217884 -0.17641 0.31648 0.92387 0.378983 -0.0532616
0.219687 -0.193603 0.0167284 -0.3779 -0.454515 -0.806602
