0.0434596 -0.230539 0.362892 0 -0.857666 0.514208
0.116334 0.133326 0.580248 -0.288288 -0.941529 0.174395
-0.235903 0.00200536 0.558184 -0.923867 0.0333567 0.381257
0.208441 -0.10387 0.360315 1 0 0
-0.104624 -0.013542 0.346922 0 0 -1
-0.207522 0.00562095 0.356095 1 0 0
0.00799209 -0.0409248 0.346922 0 0 -1
-0.208441 -0.0144372 0.380576 -1 0 0
0.215526 -0.0638757 0.0100025 -0.923824 0 -0.382818
0.032387 0.197765 0.0151293 0 -0.654656 0.755927
-0.181957 0.162614 0.742192 0.317873 -0.880611 0.3514
-0.100007 -0.0861865 0.346922 0 0 -1
-0.234441 0.144268 0.00522633 -0.923867 0 -0.382714
0.0254665 0.149224 0.445434 -0.0827936 -0.969642 -0.230086
0.0312309 0.180343 0.708278 -0.0149982 -0.927728 0.372956
-0.23561 -0.140089 0.506557 -0.922794 0.334511 -0.191187
-0.0510072 0.0437942 0.35185 0 1 0
-0.0596469 0.193074 0.010455 0 -0.654649 -0.755933
-0.104643 0.133581 0.548454 0.0828111 -0.971045 -0.224084
-0.149296 -0.13037 0.381356 0 0 1
-0.0586058 0.0858956 0.351554 0.0565548 -0.391585 0.918402
-0.0247696 0.188894 0.729291 0.0149985 -0.927728 0.372956
-0.193352 -0.226658 0.367516 0 -0.57975 0.814794
0.0374142 0.173398 0.409467 -0.0311645 -0.963866 -0.264559
-0.211057 0.0850118 0.534341 -4.76436e-05 -0.342073 0.939673
0.137314 -0.136128 0.381356 0 0 1
-0.187192 0.146712 0.668246 0.317904 -0.880603 0.351391
0.168498 0.105308 0.401983 -0.123571 -0.349401 0.928789
-0.216959 0.148981 0.0065431 0.923867 0 -0.382714
0.206604 0.172508 0.759969 1 0 0
-0.066307 0.157408 0.404882 0.144407 -0.963568 -0.22513
0.235534 0.0828387 0.552007 0.923849 0.033358 0.3813
0.00800034 0.135004 0.511645 -0.0827936 -0.969642 -0.230086
0.174075 0.175676 0.760481 -0.12064 0 0.992696
-0.0678551 0.00219186 0.346922 0 0 -1
0.219061 -0.059235 0.57789 0 -0.0247676 0.999693
0.18316 -0.161487 0.381356 0 0 1
0.00897227 -0.0876959 0.346922 0 0 -1
-0.206195 0.160406 0.719755 0.317904 -0.880603 0.351391
0.0961877 0.16242 0.430923 0.847059 0 -0.531499
-0.0394774 0.00842619 0.381356 0 0 1
-0.226901 0.150813 0.0211374 -0.382731 0 0.92386
0.112618 0.176851 0.724844 -0.247014 -0.899708 0.359876
-0.0839517 0.134021 0.492096 0.0827304 -0.965453 -0.247097
-0.206605 0.130606 0.666211 -1 0 0
0.258255 -0.0883939 0.562792 1 0 0
-0.0478707 -0.19703 0.380681 0 -0.204664 0.978832
-0.217579 0.0726432 0.555727 0.923851 0.0333602 0.381297
-0.225974 0.199752 0.0132128 -1 0 0
-0.235944 -0.186543 0.277038 -0.92387 0.378982 -0.0532626
0.216116 -0.0623512 0.00857814 -0.923867 2.46881e-06 -0.382714
0.207404 0.146968 0.69892 -0.988443 0.140858 -0.0560254
-0.177923 0.161446 0.380648 -0.956272 -0.274842 -0.100033
-0.236484 0.0164391 0.555515 -0.923851 0.0333576 0.381297
0.208441 -0.133162 0.376437 1 0 0
0.133309 0.139368 0.378959 -0.0564422 -0.390806 0.918741
0.0512342 0.216197 0.754982 0 -0.173635 -0.98481
-0.134148 -0.176565 0.345179 0 0.507425 0.861696
-0.081749 0.167853 0.688507 0.139115 -0.919449 0.367778
-0.235434 0.15396 0.722978 -0.964766 -0.244481 0.0972417
0.0741612 -0.0992532 0.346922 0 0 -1
-0.220809 -0.16998 0.335936 -2.13851e-06 0.968102 0.250555
0.00398133 0.184693 0.679461 -0.0149982 -0.927728 0.372956
-0.228844 0.12219 0.0203323 -0.382731 0 0.92386
0.208441 -0.165876 0.378254 1 0 0
0.171705 -0.17859 0.346922 0 0 -1
0.173677 0.116881 0.622613 -0.280333 -0.887537 0.365638
0.215991 -0.18388 0.323185 -0.92387 -0.378983 0.0532626
-0.0642836 0.214037 0.00834554 0 0.654712 -0.755879
-0.222932 -0.18871 0.0352875 0.37786 0.69873 0.607452
0.218067 0.0909529 0.555307 -0.923849 0.0333608 0.3813
-0.0673137 0.219907 0.758698 6.07401e-07 0.173714 0.984796
0.142563 -0.171984 0.381356 0 0 1
-0.058603 0.146161 0.453151 0.0827304 -0.965453 -0.247097
0.0529764 0.173552 0.694974 -0.0737267 -0.918839 0.387686
0.00834536 0.159447 0.65538 -0.0149982 -0.927728 0.372956
0.165125 0.115937 0.613766 -0.280333 -0.887537 0.365638
-0.145007 0.191972 0.746137 0.247009 -0.899707 0.359881
0.162982 -0.0465413 0.381356 0 0 1
0.161551 0.0742983 0.389069 -0.100612 -0.373282 0.922246
0.158003 0.154547 0.664412 -0.280332 -0.887536 0.365642
0.1669 -0.180419 0.346922 0 0 -1
-0.0324634 0.201566 0.761933 0 0.173669 0.984804
0.233193 -0.204243 0.220623 0.382681 -0.914889 0.128579
-0.17768 0.15306 0.714382 0.317873 -0.880611 0.3514
0.0586774 0.149767 0.436602 -0.0311648 -0.963866 -0.264559
0.102667 0.18822 0.74734 -0.139132 -0.919449 0.367772
0.144598 0.0234218 0.381356 0 0 1
-0.231237 0.0592652 0.570605 0 0.0871519 0.996195
-0.166987 0.134726 0.412849 0.123571 -0.349401 0.928789
0.0819325 0.167042 0.386602 -0.125336 -0.797556 -0.590081
0.110182 0.183818 0.70185 -0.247014 -0.899706 0.35988
-0.0634636 0.0695573 0.34653 0 0 1
-0.0689195 0.0960908 0.356536 0.0565548 -0.391585 0.918402
0.226693 0.093374 0.574273 0.898983 -0.406973 0.161871
0.0800829 0.155987 0.405256 0.847059 0 -0.531499
0.219757 -0.122345 0.00257473 -0.38268 1.02262e-06 -0.923881
0.200174 -0.195898 0.380917 0 -0.204664 0.978832
-0.216431 -0.208068 0.038867 0.921865 -0.292462 -0.254227
-0.166461 0.101762 0.576354 0.288287 -0.941537 0.174352
0.00988416 0.169209 0.432121 -0.0827937 -0.969642 -0.230086
-0.0891953 0.194162 0.71836 0.139115 -0.919449 0.367778
-0.218488 0.216754 0.0106989 0 0.654712 -0.755879
-0.0689639 0.133015 0.60194 0.0737275 -0.918839 0.387685
0.120214 -0.232023 0.360416 0 -0.857666 0.514208
0.234342 -0.141523 0.0165344 0.923867 0 0.382713
-0.211219 0.142559 0.672265 0.73423 0.630833 -0.250909
0.157611 0.128148 0.637644 -0.280333 -0.887537 0.365638
0.208441 0.00923342 0.363359 1 0 0
0.106554 0.223226 0.75682 0.239423 0.956136 -0.16876
0.225764 0.122566 0.652824 0.898983 -0.406973 0.161871
0.109872 0.199305 0.005542 0 0 -1
0.126268 0.050968 0.34653 0 0 1
0.214651 0.119978 0.608767 -0.397153 0.852773 -0.339188
0.215212 -0.131658 0.539769 -1 0 0
0.0201986 -0.0918969 0.381356 0 0 1
-0.0526431 0.193873 0.706349 0.0737275 -0.918839 0.387685
0.217238 -0.173733 0.346739 -0.923852 0.379024 -0.0532685
0.207436 -0.183929 0.346922 0 0 -1
-0.0521042 0.147082 0.45173 0.0827304 -0.965453 -0.247097
-0.168786 0.0991071 0.553619 0.262377 -0.944824 -0.196127
-0.207522 -0.234313 0.350433 1 0 0
-0.0179169 0.151607 0.506037 0.0827305 -0.965453 -0.247097
-0.236656 -0.214705 0.0917007 -0.923887 -0.378941 0.0532577
0.221685 -0.0483084 0.549773 -0.380013 0.0363523 -0.924266
-0.0462965 0.0010287 0.381356 0 0 1
0.207522 -0.032413 0.374466 1 0 0
-0.0812899 0.185952 0.694845 0.139115 -0.919449 0.367778
-0.185981 0.101884 0.595642 0.28033 -0.887538 0.365639
-0.207522 0.00373759 0.360662 1 0 0
-0.177518 0.155847 0.392164 0.956226 0.274962 0.100136
-0.212033 0.139238 0.662846 0.265435 0.895867 -0.356324
0.0637642 0.18993 0.736898 -0.139132 -0.919449 0.367772
-0.204954 0.169288 0.762992 1 0 0
0.106066 0.0406622 0.381356 0 0 1
0.185977 -0.171486 0.341758 -2.13851e-06 0.968102 0.250555
-0.13134 0.129559 0.583315 0.280329 -0.887536 0.365643
-0.214135 0.088645 0.582233 0 -0.929195 0.369589
-0.126424 0.159785 0.398192 0.141877 -0.85877 0.492326
0.107043 0.163613 0.399976 -0.0185824 -0.470969 0.881954
-0.0694622 0.168633 0.421134 0.144407 -0.963568 -0.22513
0.21749 0.032189 0.54801 -0.92385 -0.0333632 -0.381298
-0.0229712 0.168774 0.391692 0.0418443 -0.804547 -0.592413
-0.208252 0.150435 0.733165 0.397032 -0.852822 0.339205
0.0479337 0.151169 0.494456 -0.0827937 -0.969642 -0.230086
0.0490117 0.130145 0.517366 -0.0827936 -0.969642 -0.230086
-0.23445 0.128852 0.669624 -0.964767 -0.244476 0.0972397
-0.0809802 0.11884 0.553927 0.0828109 -0.971036 -0.224125
0.161058 -0.23731 0.351598 0 -0.857666 0.514208
-0.0335181 -0.1096 0.381356 0 0 1
-0.0867027 0.149633 0.644832 0.139115 -0.919449 0.367778
0.0533106 0.166966 0.642705 -0.0737267 -0.918839 0.387686
0.204954 0.106942 0.610189 -1 0 0
0.165722 0.139135 0.385671 -0.333428 -0.942776 0
0.169398 0.124795 0.638542 -0.280333 -0.887537 0.365638
0.00073728 0.157164 0.395708 0 -1 0
-0.207522 -0.113015 0.362485 -1 0 0
0.062804 -0.124807 0.346922 0 0 -1
0.142402 0.113433 0.524615 -0.25844 -0.940695 -0.219776
-0.202597 -0.211506 0.342204 0 0.439298 -0.898342
0.13175 0.169136 0.718687 -0.247014 -0.899708 0.359876
-0.215488 -0.0878853 0.55154 0.922762 -0.111067 0.369017
-0.0710479 0.0745906 0.347521 0.0572554 -0.390582 0.918786
0.186587 -0.142531 0.381356 0 0 1
0.0347035 -0.125138 0.346922 0 0 -1
-0.0722932 0.14263 0.376587 0.0565548 -0.391585 0.918402
0.164766 -0.168141 0.381356 0 0 1
0.0299287 -0.0752255 0.346922 0 0 -1
0.000829943 0.0907668 0.387465 0 -0.375184 0.92695
-0.0305645 -0.227589 0.336881 0 -0.465435 -0.885082
0.219651 0.124789 0.417816 8.56377e-05 -0.342003 0.939699
-0.0611921 0.000464216 0.346922 0 0 -1
-0.236107 -8.01533e-05 0.0122736 -0.923867 0 0.382713
0.0705783 0.133413 0.603191 -0.0737267 -0.918839 0.387686
-0.0245784 0.132368 0.404303 0 -0.375184 0.92695
-0.233563 -0.170006 0.353676 -0.382615 0.914917 -0.128581
0.223168 0.142307 0.408687 0.856683 0.4411 -0.267441
-0.208441 -0.0623852 0.355568 -1 0 0
-0.218349 0.141464 0.659482 0.17 0.915672 -0.364205
-0.138832 0.109886 0.542833 0.26609 -0.939254 -0.21679
0.215212 -0.0497499 0.569687 -1 0 0
0.153648 0.00778872 0.381356 0 0 1
-0.116026 0.133294 0.579568 0.288286 -0.941529 0.174395
-0.0785132 -0.10174 0.346922 0 0 -1
0.0207568 -0.170904 0.381356 0 0 1
-0.234938 0.124032 0.652661 -0.964766 -0.244481 0.0972417
-0.207522 -0.14923 0.348485 -1 0 0
-0.0103966 -0.182385 0.381356 0 0 1
0.233841 -0.206027 0.10191 0.92387 0.378982 -0.0532626
-0.257505 -0.159185 0.501036 0 0.910895 -0.412638
0.021181 -0.106207 0.381356 0 0 1
0.12276 0.199062 0.005542 0 0 -1
0.22446 0.180689 0.756763 0.295545 0.887689 -0.353074
0.204954 0.168091 0.752975 -1 0 0
-0.0465606 0.139084 0.373723 0 -0.396387 0.918083
-0.236334 0.0822498 0.548182 -0.92385 -0.0333578 -0.381298
-0.206605 0.148494 0.723491 -1 0 0
-0.181519 0.179707 0.765788 3.16904e-05 0.173357 0.984859
-0.229064 -0.212724 0.172565 -0.382514 -0.914958 0.128584
-0.219839 0.0975823 0.547208 -0.261281 0.951815 0.160565
-0.215227 -0.168396 0.419608 0.923852 0.379024 -0.0532685
0.0616862 0.215387 0.00951521 0 0.654712 -0.755879
0.221126 -0.200543 0.128228 -0.382573 0.914933 -0.128588
-0.0323881 0.14845 0.513525 0.0827305 -0.965453 -0.247097
0.124634 -0.180364 0.346922 0 0 -1
-0.202401 0.126163 0.39249 0.333428 -0.942776 0
-0.217226 -0.185257 0.264955 0.92387 0.378983 -0.0532616
-0.00920457 0.199471 0.0159793 0 0 1
0.253932 -0.16562 0.486829 0 0.910895 -0.412638
-0.220329 -0.192764 0.185944 0.382741 0.914865 -0.128574
0.105322 0.195642 0.728159 -0.139115 -0.919449 0.367777
0.0580802 0.169563 0.421003 -0.0311645 -0.963866 -0.264559
-0.163203 -0.120847 0.381356 0 0 1
-0.220822 0.153684 0.753284 0.170139 -0.915649 0.364198
0.105368 0.0509223 0.34653 0 0 1
-0.215212 0.0550989 0.562939 1 0 0
-0.218133 0.220958 0.00371032 0.923867 0 -0.382714
0.215212 -0.117412 0.553046 -1 0 0
-0.0892899 -0.0163511 0.381356 0 0 1
0.235851 -0.16229 0.467799 0.922777 -0.371765 0.101356
0.0484769 0.121766 0.567737 -0.0734974 -0.957389 0.279293
-0.208441 -0.065384 0.369596 -1 0 0
0.0642433 0.155384 0.403076 -0.142942 -0.989731 0
-0.176043 0.179186 0.739541 0.317904 -0.880603 0.351391
-0.0477853 0.0433085 0.381356 0 0 1
0.223039 -0.201066 0.118818 -0.382573 0.914933 -0.128588
0.0557351 0.202555 0.727515 -0.0737267 -0.918839 0.387686
-0.0584081 0.0714084 0.34653 0 0 1
-0.228387 -0.0941901 0.560062 0 0.455584 -0.890193
0.103034 -0.0174424 0.346922 0 0 -1
0.077523 -0.184135 0.345042 0 -0.250272 0.968176
-0.0617136 -0.146248 0.346922 0 0 -1
-0.22012 0.132388 0.447162 -0.265357 0.906005 0.329759
0.0929111 -0.0613787 0.381356 0 0 1
-0.207522 0.0313971 0.357501 -1 0 0
0.129648 0.124362 0.558964 -0.262399 -0.944825 -0.196095
-0.217447 -0.0293583 0.569717 0 -0.0871589 -0.996194
-0.155803 -0.0365331 0.381356 0 0 1
0.217064 0.0460729 0.547828 -0.92385 -0.0333632 -0.381298
-0.0996595 -0.0189654 0.346922 0 0 -1
0.217935 -0.173208 0.338393 -0.92387 0.378983 -0.0532616
-0.148357 -0.169624 0.346922 0 0 -1
0.258255 0.00405911 0.57074 1 0 0
0.207522 -0.184774 0.364853 -1 0 0
-0.0683103 0.122234 0.543906 0.0828109 -0.971036 -0.224125
0.193983 -0.0466627 0.346922 0 0 -1
0.00740343 0.140008 0.606989 -0.0149982 -0.927728 0.372956
0.180327 -0.186272 0.327821 1.12089e-06 -0.507407 -0.861706
-0.21558 0.0943518 0.600741 0.397081 -0.852801 0.3392
0.22141 -0.178578 0.411149 -0.382681 -0.91489 0.128577
-0.091594 0.11902 0.569608 0.074782 -0.957297 0.279266
0.0647825 0.176979 0.389972 -0.10593 -0.960237 -0.258309
0.0584489 0.171382 0.414331 -0.0311645 -0.963866 -0.264559
-0.17865 -0.118881 0.381356 0 0 1
0.0927353 -0.222174 0.337925 0 0.237698 -0.971339
0.00900429 -0.0794309 0.381356 0 0 1
0.232567 -0.176274 0.306109 0.382572 0.914934 -0.128583
-0.208441 -0.0229225 0.368383 -1 0 0
-0.188684 0.141741 0.657138 0.317904 -0.880603 0.351391
0.217513 -0.216202 0.0507611 -0.921882 -0.360766 -0.141357
0.0173591 0.0845786 0.35019 0 -0.396387 0.918083
0.151829 -0.107272 0.346922 0 0 -1
-0.161169 -0.182854 0.345374 0 -0.250272 0.968176
-0.00500545 0.0220108 0.346922 0 0 -1
0.0361582 -0.0307609 0.381356 0 0 1
0.16464 0.130783 0.611816 -0.280332 -0.887536 0.365642
0.208441 -0.222915 0.357133 1 0 0
-0.0937572 0.0312429 0.346922 0 0 -1
0.130164 -0.0208615 0.381356 0 0 1
-0.113376 -0.138551 0.381356 0 0 1
-0.223261 0.0206252 0.565344 0 -0.0871589 -0.996194
-0.207522 -0.106067 0.373346 -1 0 0
-0.065 -0.109284 0.381356 0 0 1
0.223327 -0.194372 0.304472 -0.382681 -0.91489 0.128577
0.08652 0.192355 0.751569 -0.139132 -0.919449 0.367772
0.226135 -0.197031 0.292938 0.382574 -0.914934 0.128583
0.0197278 0.153595 0.641352 -0.0737267 -0.918839 0.387686
-0.153003 0.130745 0.640414 0.28033 -0.887538 0.365639
0.065505 0.18979 0.761769 -0.0647713 -0.982718 0.173408
-0.225335 0.0896887 0.572552 -0.899056 -0.406835 0.161815
0.230527 -0.171574 0.333486 0.382783 0.914847 -0.128576
-0.195515 -0.194677 0.381173 0 -0.204664 0.978832
-0.225592 0.0945096 0.540606 -0.728645 0.675339 0.113989
0.222689 0.134508 0.692728 0.516197 -0.795829 0.316538
0.154457 0.119235 0.550468 -0.262399 -0.944825 -0.196095
0.0390974 0.212984 0.755549 0 -0.173635 -0.98481
-0.129922 0.198751 0.005542 0 0 -1
0.220101 0.0161874 0.00243253 -0.38268 1.0227e-06 -0.923881
0.0507789 0.138145 0.610641 -0.0737267 -0.918839 0.387686
0.0637594 0.122782 0.543212 -0.0828101 -0.971045 -0.224084
-0.186381 0.126628 0.6184 0.280329 -0.887536 0.365643
0.202335 0.164941 0.763915 -0.12064 0 0.992696
-0.147305 -0.109582 0.346922 0 0 -1
0.0524958 -0.190459 0.335709 0 -0.968132 -0.25044
-0.0683442 -0.236504 0.344066 0 -0.935134 -0.354294
0.144224 -0.122599 0.346922 0 0 -1
0.204954 0.163168 0.732139 -1 0 0
-0.236077 0.213158 0.0123458 -0.923867 0 0.382713
-0.219457 0.145231 0.676206 -0.265604 0.895824 -0.356307
0.216863 0.177565 0.0067758 -0.923824 0 -0.382818
0.207555 0.112208 0.409432 -0.100612 -0.373282 0.922246
-0.110189 -0.0201384 0.381356 0 0 1
-0.0740032 0.144931 0.631141 0.0737275 -0.918839 0.387685
-0.0896499 0.0686565 0.381529 0 0 1
-0.0973828 0.203548 0.005542 0 0 -1
0.0458993 -0.162743 0.381356 0 0 1
0.174894 0.116383 0.584725 -0.280332 -0.887536 0.365642
-0.0342519 0.141978 0.579834 0.0747822 -0.95731 0.279223
-0.101459 0.210718 0.0159793 0 0 1
0.0785165 0.191746 0.747018 -0.139132 -0.919449 0.367772
-0.180924 0.158451 0.379776 -0.141137 0.297644 -0.944187
0.199042 0.146662 0.717675 -0.317888 -0.880607 0.351394
0.0581921 0.22654 0.757529 0 0.173521 0.98483
0.233903 -0.199551 0.247285 0.92387 -0.378983 0.0532626
0.112847 -0.167249 0.381356 0 0 1
-0.24041 0.096825 0.567319 0 0.0871519 0.996195
-0.161484 -0.161732 0.346922 0 0 -1
-0.203191 0.104255 0.56688 0.288286 -0.941529 0.174395
0.118448 0.177187 0.729686 -0.247014 -0.899708 0.359876
0.0741914 -0.198935 0.380282 0 -0.204664 0.978832
0.235739 -0.215272 0.103568 0.92387 -0.378983 0.0532626
-0.228249 0.173225 0.020579 -0.382731 0 0.92386
0.208441 -0.0277116 0.370575 1 0 0
0.220438 0.139615 0.423213 -0.000132767 0.341992 -0.939703
-0.0464843 0.0495755 0.381529 0 0 1
0.00412908 0.0204141 0.381356 0 0 1
0.189447 -0.103732 0.381356 0 0 1
-0.0498298 -0.235885 0.342432 0 -0.935134 -0.354294
0.0517001 -0.0878817 0.346922 0 0 -1
0.174551 0.165463 0.703802 -0.317904 -0.880603 0.351391
0.122015 0.189147 0.723294 -0.247014 -0.899706 0.35988
0.207891 0.0998824 0.523481 -0.734255 0.637934 0.232183
-0.00921828 0.129908 0.583214 0.0737275 -0.918839 0.387685
-0.0526395 0.131181 0.513676 0.0827304 -0.965453 -0.247097
0.206604 0.104145 0.605292 1 0 0
0.0185167 -0.0844833 0.381356 0 0 1
0.0365221 0.164839 0.440952 -0.0827937 -0.969642 -0.230086
-0.0105425 0.118528 0.364848 0 -0.396387 0.918083
0.192793 0.0418909 0.346922 0 0 -1
0.227022 -0.220891 0.0850601 2.10097e-05 -0.13919 -0.990266
0.13383 0.108406 0.555581 -0.262393 -0.944833 -0.196064
-0.208441 -0.12977 0.37103 -1 0 0
0.0308591 0.0885996 0.351926 0 -0.396387 0.918083
0.156523 -0.197504 0.380581 0 -0.204664 0.978832
-0.130276 0.122594 0.603204 0.28033 -0.887538 0.365639
-0.234189 -0.20937 0.0802905 -0.921858 0.387336 0.012166
0.0992291 0.11823 0.549828 -0.0828191 -0.971035 -0.224125
0.234674 -0.0474471 0.00578765 0.923867 0 -0.382714
-0.143919 0.20429 0.005542 0 0 -1
0.161136 0.110251 0.53158 0.839074 0 -0.544017
0.0235848 0.140621 0.611337 -0.0737267 -0.918839 0.387686
0.208441 -0.0831739 0.349826 1 0 0
0.0677628 -0.156879 0.346922 0 0 -1
0.0675952 0.0260276 0.381356 0 0 1
0.207099 -0.190058 0.338659 0 -0.861568 0.507642
0.0726249 0.173362 0.4002 -0.10593 -0.960237 -0.258309
-0.229716 -0.134222 0.533795 0 0.642084 -0.766634
0.0127727 0.200222 0.005542 0 0 -1
0.211913 0.130482 0.687284 -0.397081 -0.852801 0.3392
-0.192647 0.0953874 0.584983 0.28033 -0.887538 0.365639
0.250812 0.0429799 0.563388 0 -0.0871589 -0.996194
-0.0775359 0.0437942 0.348155 0 1 0
-0.212256 0.0940894 0.503888 0.51614 -0.804848 -0.292948
-0.0684683 0.154774 0.411031 0.142942 -0.989731 0
-0.203355 0.14699 0.683567 0.317904 -0.880603 0.351391
0.0453904 -0.185707 0.327488 1.12089e-06 -0.507407 -0.861706
-0.0898039 0.215951 0.755026 -1.61044e-06 -0.173602 -0.984816
0.0592129 0.136888 0.569284 -0.0734901 -0.957402 0.27925
0.21841 0.083353 0.559856 0 -0.0871589 -0.996194
-0.219533 -0.0972277 0.568118 0 -0.455668 0.89015
0.221873 -0.0613388 0.00169816 -0.38268 1.02262e-06 -0.923881
0.231079 -0.195049 0.0169909 0.377898 -0.454496 -0.806614
-0.0909679 -0.20539 0.344917 0 0.158978 -0.987282
0.184946 0.155978 0.72827 -0.317888 -0.880607 0.351394
0.216547 -0.211651 0.0628487 -0.921846 0.360833 0.14142
-0.0727111 0.20022 0.727268 0.139115 -0.919449 0.367778
-0.104991 0.0146662 0.346922 0 0 -1
0.205847 0.144583 0.385864 0.404022 -0.439414 -0.802298
-0.102044 0.16345 0.387185 0.125338 -0.797556 -0.590081
0.103374 0.145313 0.601599 -0.139115 -0.919449 0.367777
0.00775575 0.161831 0.661286 -0.0149982 -0.927728 0.372956
0.147689 0.182011 0.757471 -0.0999238 0 0.994995
-0.208441 -0.150131 0.371862 -1 0 0
-0.165538 0.145226 0.647563 0.280329 -0.887536 0.365643
0.0517197 0.142125 0.375106 -0.0573906 -0.391505 0.918385
0.218284 -0.219902 0.106648 -0.92387 -0.378982 0.0532624
0.216357 -0.0555486 0.569424 0 0.0247935 -0.999693
-0.168104 0.00480533 0.346922 0 0 -1
-0.234082 -0.164874 0.474424 -0.922763 -0.371799 0.101363
0.208441 -0.0116849 0.37445 1 0 0
0.124796 0.155151 0.640418 -0.280332 -0.887536 0.365642
0.162535 -0.0117476 0.381356 0 0 1
0.214313 0.142817 0.721106 -0.397081 -0.852801 0.3392
-0.204321 0.165629 0.764156 0.120641 0 0.992696
0.207898 0.129586 0.418271 -0.816302 -0.570123 -0.0927934
0.0380545 0.179514 0.70649 -0.0149982 -0.927728 0.372956
0.217031 -0.183548 0.343587 -0.92387 -0.378982 0.0532624
0.0854904 0.145163 0.633875 -0.0737267 -0.918839 0.387686
-0.0483841 0.127727 0.36882 0 -0.396387 0.918083
-0.23413 0.100715 0.57394 -0.964754 0.244522 -0.0972589
0.0074369 -0.222245 0.337907 0 0.237698 -0.971339
-0.0824379 0.140046 0.584443 0.0737275 -0.918839 0.387685
-0.231012 -0.0379405 0.56771 -0.380126 -0.0363439 0.92422
-0.000288857 0.142575 0.548046 0.0828109 -0.971045 -0.224084
0.22316 0.10162 0.557088 -0.382675 0.0805274 0.920367
0.148567 -0.221721 0.371029 0 -0.57975 0.814794
0.012265 -0.202081 0.34545 0 0.158978 -0.987282
-0.256657 0.106683 0.561111 0 0.996198 -0.0871202
0.232987 0.20361 0.00290508 0.382723 -1.02281e-06 -0.923863
-0.0367675 0.187588 0.688435 0.0737275 -0.918839 0.387685
0.182945 -0.170115 0.381356 0 0 1
-0.240562 -0.123693 0.553772 0 -0.642106 0.766616
-0.147457 -0.0271006 0.381356 0 0 1
-0.215239 -0.111588 0.538105 0.922774 -0.199901 0.329436
-0.182044 -0.194524 0.346667 0 0.158978 -0.987282
-0.155036 -0.223318 0.337645 0 0.237698 -0.971339
0.251009 0.022355 0.565193 0 -0.0871589 -0.996194
-0.207522 -0.071961 0.351362 -1 0 0
0.144551 -0.140731 0.346922 0 0 -1
0.126035 0.153828 0.638157 -0.280332 -0.887536 0.365642
0.204954 0.111048 0.621034 -1 0 0
-0.203556 0.104704 0.569908 0.288286 -0.941529 0.174395
-0.0154344 -0.0943603 0.346922 0 0 -1
0.230796 0.216948 0.00199767 0.382723 -1.02281e-06 -0.923863
-0.164785 0.140556 0.673262 0.28033 -0.887538 0.365639
0.0104712 0.00821844 0.381356 0 0 1
-0.0687667 0.128819 0.591958 0.0737275 -0.918839 0.387685
0.108452 -0.164517 0.381356 0 0 1
0.0189412 0.174428 0.407887 -0.0311645 -0.963866 -0.264559
0.0175548 0.173676 0.40406 -0.00622681 -0.472146 0.881498
0.205878 0.198589 0.0158421 0 -0.654656 0.755927
0.0310219 -0.179517 0.346922 0 0 -1
0.0632265 -0.0425625 0.381356 0 0 1
0.127186 0.110595 0.554222 -0.27193 -0.929163 -0.250419
0.19165 0.111004 0.373342 -0.138832 -0.392551 0.909192
-0.0455806 -0.236256 0.353357 0 -0.857666 0.514208
-0.154819 0.106396 0.53919 0.258797 -0.930426 -0.259481
-0.209921 0.118314 0.650102 0.516076 -0.795896 0.316568
-0.207522 -0.0888941 0.351569 -1 0 0
-0.0297007 -0.107945 0.346922 0 0 -1
0.0888866 0.199733 0.0159793 0 0 1
0.0861796 0.173555 0.6657 -0.139115 -0.919449 0.367777
0.020859 0.202646 0.005542 0 0 -1
-0.00240979 0.00757024 0.346922 0 0 -1
-0.165606 -0.23575 0.342075 0 -0.935134 -0.354294
0.157532 0.120772 0.619679 -0.280333 -0.887537 0.365638
0.0514488 0.160277 0.626499 -0.0737267 -0.918839 0.387686
0.0609224 0.124833 0.535467 -0.0827936 -0.969642 -0.230086
-0.174345 0.0629362 0.385866 0.100612 -0.373282 0.922246
-0.166743 0.122078 0.62991 0.28033 -0.887538 0.365639
0.0807803 0.152996 0.38497 -0.142942 -0.989731 0
0.106229 -0.180826 0.345898 0 -0.250272 0.968176
-0.116555 0.11425 0.400949 0.0534191 -0.369873 0.927545
-0.0442844 0.176578 0.398589 0.0314444 -0.972501 -0.230764
-0.0206632 0.146381 0.624433 0.0737275 -0.918839 0.387685
-0.217625 -0.168662 0.376114 0.923852 0.379024 -0.0532685
0.0414095 0.157164 0.389229 0 -1 0
0.0208005 0.165243 0.444905 -0.0827937 -0.969642 -0.230086
-0.0837032 0.15514 0.469748 0.144407 -0.963568 -0.22513
0.0581863 -0.0206552 0.346922 0 0 -1
-0.0297398 -0.0516891 0.381356 0 0 1
-0.0136747 0.190143 0.731951 0.0149985 -0.927728 0.372956
0.0686897 0.123922 0.368406 -0.0573906 -0.391505 0.918385
-0.132952 -0.0720588 0.346922 0 0 -1
0.0380628 0.164235 0.442943 -0.0827937 -0.969642 -0.230086
0.120192 0.214785 0.00899375 2.91362e-06 0.654587 -0.755987
0.20749 0.111664 0.486462 -0.988447 0.142428 0.0518382
-0.178269 0.161976 0.382502 0.956321 0.274655 0.100075
0.0581564 0.190792 0.759462 -3.92889e-06 -0.173519 -0.984831
-0.216008 -0.103224 0.545335 0.922774 -0.199901 0.329436
-0.00289124 0.191899 0.697341 0.0149985 -0.927728 0.372956
-0.231834 -0.204644 0.221822 -0.382827 -0.914829 0.128573
-0.211025 0.139453 0.661975 0.397135 0.852779 -0.339193
0.207522 -0.213848 0.341165 1 0 0
-0.163616 0.140322 0.634185 0.280329 -0.887536 0.365643
-0.0962629 0.14065 0.457389 0.144407 -0.963568 -0.22513
0.202546 -0.173701 0.343493 -1.12082e-06 0.507372 0.861727
0.241669 -0.0751386 0.574724 0 -0.246402 0.969168
-0.112469 0.141802 0.378708 0.0565548 -0.391585 0.918402
-0.12099 0.135101 0.588832 0.280329 -0.887536 0.365643
-0.0662952 -0.0732929 0.381356 0 0 1
-0.180854 -0.00247478 0.346922 0 0 -1
0.224423 0.12132 0.656743 0.516087 -0.79589 0.316566
-0.093018 -0.0327505 0.381356 0 0 1
-0.0479188 -0.22201 0.337965 0 0.237698 -0.971339
0.0228404 0.173361 0.690575 -0.0149982 -0.927728 0.372956
0.229284 0.0238974 0.565058 0 -0.0871589 -0.996194
-0.257589 -0.0634198 0.568877 0 0.246406 -0.969167
-0.12902 -0.110596 0.381356 0 0 1
0.188544 0.151946 0.682586 -0.317904 -0.880603 0.351391
0.0182589 -0.0988748 0.381356 0 0 1
-0.224313 0.10711 0.588261 -0.734353 0.630709 -0.25086
0.0609101 0.193504 0.744753 -0.139132 -0.919449 0.367772
-0.0628311 0.215896 0.00995564 0 0.654712 -0.755879
-0.208441 -0.174187 0.375144 -1 0 0
0.074241 0.165679 0.430708 -0.144407 -0.963568 -0.22513
-0.0295929 0.189564 0.731149 0.0149985 -0.927728 0.372956
0.0845052 0.119954 0.571006 -0.0734974 -0.957389 0.279293
0.234849 -0.162625 0.512818 0 -0.796466 0.604684
-0.0953534 0.202222 0.005542 0 0 -1
0.207522 -0.144289 0.348821 -1 0 0
0.186168 -0.0520979 0.381356 0 0 1
0.221415 0.0523818 0.00188803 -0.38268 1.0227e-06 -0.923881
0.148557 0.147078 0.676652 -0.280333 -0.887537 0.365638
0.0436286 0.123814 0.546181 -0.0828101 -0.971045 -0.224084
-0.233804 -0.199302 0.250773 -0.923887 -0.378941 0.0532577
0.183201 -0.0233148 0.381356 0 0 1
-0.207522 -0.227996 0.362622 1 0 0
0.220003 0.089513 0.567959 0 0.0871519 0.996195
-0.207522 -0.0992227 0.378161 1 0 0
0.142322 0.0437942 0.37532 0 1 0
0.045962 0.177703 0.666756 -0.0737267 -0.918839 0.387686
-0.179648 0.193193 0.761279 -0.511572 0.846202 -0.14912
0.0437182 0.157164 0.413516 0 -1 0
-0.198104 0.013995 0.381356 0 0 1
0.171803 0.114207 0.568722 -0.288288 -0.941529 0.174395
-0.24168 -0.169363 0.47722 0 0.979828 -0.199841
-0.0304951 -0.0577546 0.346922 0 0 -1
0.0713693 0.166211 0.430277 -0.144407 -0.963568 -0.22513
-0.0303269 -0.190165 0.334573 0 -0.968132 -0.25044
0.2185 -0.202012 0.235743 -0.382574 -0.914933 0.128586
-0.224835 -0.117625 0.520314 0.380208 0.662478 -0.645419
0.0912188 -0.199302 0.345897 0 0.158978 -0.987282
0.0320238 0.189512 0.692574 -0.0149982 -0.927728 0.372956
0.133146 -0.150723 0.381356 0 0 1
0.00670847 0.177499 0.661675 -0.0149982 -0.927728 0.372956
-0.152403 -0.237661 0.351014 0 -0.857666 0.514208
-0.224672 0.109011 0.594091 -0.734353 0.630709 -0.25086
0.00187797 0.145231 0.536051 -0.0827937 -0.969642 -0.230086
-0.0485403 -0.147845 0.346922 0 0 -1
-0.167389 -0.163743 0.346922 0 0 -1
-0.211419 0.139203 0.426604 0.734196 0.637992 0.232214
0.0257187 0.134181 0.508741 -0.0827936 -0.969642 -0.230086
0.226889 0.104432 0.494949 0.988447 0.142427 0.0518404
-0.204071 0.146884 0.683947 0.317904 -0.880603 0.351391
-0.215755 -0.171411 0.388981 0.923852 0.379024 -0.0532685
0.0231287 -0.114141 0.346922 0 0 -1
-0.220855 0.0535518 0.542988 0.382666 -0.0805316 -0.92037
0.0772589 0.134564 0.607189 -0.0737267 -0.918839 0.387686
-0.151423 0.197988 0.015322 0 -0.654656 0.755927
-4.21703e-05 -0.180834 0.325359 -5.53178e-07 0.250413 -0.968139
-0.204954 0.0977799 0.579946 1 0 0
-0.152519 -0.160627 0.381356 0 0 1
0.257496 0.0873639 0.559505 0 -0.0871589 -0.996194
-0.208928 0.13649 0.426181 0.734334 0.637854 0.232154
0.202891 0.139596 0.664618 -0.317904 -0.880603 0.351391
0.0123792 0.154479 0.38037 0 -0.396387 0.918083
-0.192692 0.0859952 0.397201 0.100612 -0.373282 0.922246
0.0305068 0.142491 0.471996 -0.0827936 -0.969642 -0.230086
-0.0909533 -0.165943 0.381356 0 0 1
-0.147771 -0.0549015 0.346922 0 0 -1
0.0506523 -0.183381 0.345237 0 -0.250272 0.968176
0.228225 0.129396 0.000932784 0.382723 -1.02281e-06 -0.923863
-0.220555 0.124153 0.419577 -0.516186 -0.804822 -0.292939
0.0614155 -0.094123 0.381356 0 0 1
-0.239699 -0.167108 0.483545 0 0.910895 -0.412638
-0.139187 0.0667499 0.383574 0.100612 -0.373282 0.922246
-0.073696 0.151514 0.425367 0.144407 -0.963568 -0.22513
0.207522 0.0280431 0.370436 -1 0 0
-0.120278 0.084281 0.354708 0.0572554 -0.390582 0.918786
-0.0864121 0.171936 0.700478 0.139115 -0.919449 0.367778
0.21833 -0.214614 0.0413763 -0.921882 -0.360766 -0.141357
0.0378231 0.168174 0.679348 -0.0737267 -0.918839 0.387686
-0.0524915 -0.101811 0.346922 0 0 -1
0.121896 0.168639 0.710681 -0.247014 -0.899708 0.359876
0.154283 0.204878 0.756978 0 -0.173676 -0.984803
0.171654 0.113714 0.554055 -0.262399 -0.944825 -0.196095
0.176383 0.176583 0.766338 -2.28096e-05 0.173482 0.984837
0.0490526 -0.146311 0.346922 0 0 -1
-0.0109727 0.0648553 0.381529 0 0 1
0.024558 0.152193 0.63895 -0.0737267 -0.918839 0.387686
-0.223065 0.113135 0.652383 0.170167 -0.915644 0.364197
-0.0557298 0.158426 0.466732 0.0827305 -0.965453 -0.247097
0.0572068 0.129003 0.403388 -0.0535277 -0.370626 0.927239
0.0434885 -0.0642837 0.346922 0 0 -1
-0.118248 -0.194949 0.346599 0 0.158978 -0.987282
0.161318 -0.00222249 0.381356 0 0 1
0.136955 0.126108 0.543184 -0.258402 -0.941299 -0.217219
0.0916015 -0.12754 0.346922 0 0 -1
-0.210085 0.14349 0.71785 0.397032 -0.852822 0.339205
-0.0369495 -0.18725 0.343425 0 -0.861568 0.507642
-0.0732363 -0.133416 0.346922 0 0 -1
0.222168 0.0728783 0.560773 0 -0.0871589 -0.996194
-0.0151002 0.143495 0.538675 0.0827305 -0.965453 -0.247097
0.112408 0.0285449 0.346922 0 0 -1
-0.0720125 -0.023602 0.346922 0 0 -1
-0.0181827 0.134056 0.513983 0.0827304 -0.965453 -0.247097
-0.168167 0.186384 0.759763 0.12064 0 0.992696
-0.192378 0.199151 0.0159793 0 0 1
0.192457 -0.0993781 0.381356 0 0 1
0.0749223 0.122309 0.57653 -0.0747421 -0.955149 0.286538
0.220107 -0.0731133 0.575239 0 -0.246402 0.969168
-0.126456 0.158526 0.649883 0.280329 -0.887536 0.365643
0.231103 0.104314 0.573343 0.708624 0.655629 -0.260773
0.163794 -0.164761 0.381356 0 0 1
0.0805634 0.0672664 0.34653 0 0 1
0.227009 -0.013572 0.567906 0.382714 0.0805205 0.920351
-0.117967 0.121324 0.590685 0.28033 -0.887538 0.365639
-0.095686 -0.150342 0.381356 0 0 1
0.197365 0.127944 0.395249 -0.333428 -0.942776 0
-0.123939 0.160148 0.39811 0.141877 -0.85877 0.492326
-0.167014 0.138678 0.40272 0.333428 -0.942776 0
-0.208441 -0.151191 0.35696 -1 0 0
-0.0812326 0.118208 0.556573 0.0828201 -0.971044 -0.224084
0.223381 -0.149857 0.468826 -0.380053 0.892393 -0.243298
-0.0358856 -0.0105155 0.381356 0 0 1
-0.0868288 -0.013267 0.346922 0 0 -1
-0.131741 0.186872 0.724283 0.247009 -0.899707 0.359881
0.219539 -0.17504 0.486761 0 -0.910942 0.412533
0.141651 0.105704 0.558139 -0.262393 -0.944833 -0.196064
0.131286 -0.0231535 0.346922 0 0 -1
-0.116972 0.184901 0.760501 -1.64283e-05 -0.173444 -0.984844
-0.202115 0.206084 0.005542 0 0 -1
-0.215404 -0.106292 0.0112247 0.923867 0 0.382713
-0.19122 -0.0632655 0.346922 0 0 -1
0.00132279 0.168115 0.439812 -0.0827937 -0.969642 -0.230086
0.2034 0.13731 0.65935 -0.317904 -0.880603 0.351391
-0.208441 -0.208041 0.348439 -1 0 0
-0.0730035 0.0160662 0.346922 0 0 -1
-0.135253 0.117099 0.517334 0.258436 -0.940694 -0.219786
0.0671778 0.0437942 0.373158 0 1 0
-0.156433 0.186937 0.758349 0.0999219 0 0.994995
-0.207192 0.148219 0.386395 -0.655892 0.0604721 -0.752429
0.129278 0.0364503 0.381356 0 0 1
-0.21693 0.169388 0.00661329 0.923867 0 -0.382714
0.223282 0.140974 0.655948 -0.169944 0.915681 -0.364207
0.222895 -0.118377 0.557292 0 -0.455668 0.89015
0.219449 -0.17786 0.410415 -0.382681 -0.91489 0.128577
0.181066 -0.0311094 0.346922 0 0 -1
0.113175 0.194036 0.763261 -7.09106e-06 0.173734 0.984793
-0.0696577 0.00276582 0.381356 0 0 1
-0.0869109 -0.106967 0.381356 0 0 1
-0.102326 0.16578 0.652372 0.139115 -0.919449 0.367778
-0.00130007 0.147436 0.586676 0.0149985 -0.927728 0.372956
0.205106 0.150867 0.697604 -0.397135 0.85278 -0.339189
-0.0790111 0.121966 0.541111 0.0828109 -0.971036 -0.224125
-0.199679 -0.220232 0.372089 0 -0.57975 0.814794
0.0802558 -0.142815 0.346922 0 0 -1
0.103738 0.147483 0.645902 -0.139132 -0.919449 0.367772
-0.222258 -0.16142 0.496101 0 0.910895 -0.412638
-0.1955 0.164905 0.721355 0.317904 -0.880603 0.351391
0.217901 -0.221643 0.0744627 -0.921829 -0.387406 -0.0121947
-0.218769 0.00845623 0.547801 0.382666 -0.0805316 -0.92037
-0.210809 0.178697 0.760893 0.397093 0.852797 -0.339197
0.207522 0.00912689 0.377356 -1 0 0
0.0774121 0.200512 0.751853 -0.0492896 0 0.998785
0.0424995 0.209464 0.742627 -0.0149982 -0.927728 0.372956
0.225252 -0.0326924 0.568147 0 0.996167 -0.0874672
-0.0859668 0.130854 0.503797 0.0827304 -0.965453 -0.247097
0.161709 0.165647 0.396055 0.18233 0.585902 0.789604
-0.0834764 0.0584882 0.34653 0 0 1
-0.0475293 0.122063 0.400132 0 -0.375184 0.92695
-0.0202813 0.125414 0.547874 0.0828201 -0.971044 -0.224084
0.220621 -0.178625 0.47461 0 -0.979854 0.199716
-0.226638 0.102527 0.504964 -0.988447 0.142427 0.0518404
0.154977 0.0866727 0.393174 -0.123571 -0.349401 0.928789
-0.170679 0.133429 0.66048 0.28033 -0.887538 0.365639
0.143671 0.159176 0.702273 -0.280333 -0.887537 0.365638
-0.0113919 0.148039 0.45804 0.0314447 -0.972501 -0.230764
-0.158068 -0.196916 0.346282 0 0.158978 -0.987282
0.0338756 0.168704 0.399806 -0.0285778 -0.873492 0.485999
-0.00849052 -0.0485729 0.346922 0 0 -1
0.176397 -0.0315444 0.346922 0 0 -1
0.171319 0.162695 0.732774 -0.317888 -0.880607 0.351394
-0.25494 0.000351585 0.567118 0 -0.0871589 -0.996194
0.207522 -0.125845 0.353453 1 0 0
0.223421 0.120261 0.435318 0.516019 -0.804921 -0.292961
-0.217271 -0.0769875 0.548981 0.92278 0.111051 -0.368979
0.226286 0.103063 0.586903 0.988442 0.140868 -0.0560294
-0.0904934 -0.237239 0.351716 0 -0.857666 0.514208
-0.235248 -0.0246074 0.0071722 -0.923867 0 -0.382714
0.234365 -0.190064 0.224593 0.923852 0.379025 -0.0532675
-0.0364447 0.183661 0.679065 0.0737275 -0.918839 0.387685
-0.235724 -0.156603 0.0140596 -0.921855 0.0659625 0.38188
-0.09297 0.151235 0.39196 0.142942 -0.989731 0
0.0280499 0.123654 0.367061 0 -0.396387 0.918083
0.0394983 0.164883 0.671866 -0.0737267 -0.918839 0.387686
-0.223458 0.13108 0.0204793 0.382646 0 0.923895
-0.22658 0.101825 0.508 -0.988447 0.142427 0.0518404
-0.0584544 0.133093 0.50426 0.0827304 -0.965453 -0.247097
0.0350573 -0.0353204 0.381356 0 0 1
-0.225384 -0.157886 0.501866 0.380172 -0.802988 0.458998
0.219755 -0.187763 0.340864 -0.382574 -0.914933 0.128586
-0.204663 0.143711 0.676532 0.317904 -0.880603 0.351391
-0.207547 -0.0735435 0.381356 0 0 1
-0.0626999 -0.0295025 0.381356 0 0 1
-0.217446 -0.0899555 0.544641 0.922773 0.11106 -0.368992
0.147332 -0.00415793 0.381356 0 0 1
-0.144098 -0.0849012 0.346922 0 0 -1
0.198233 0.166378 0.727519 -0.317904 -0.880603 0.351391
-0.0622537 0.0394789 0.346922 0 0 -1
-0.0213727 0.205957 0.733054 0.0149985 -0.927728 0.372956
-0.208972 0.0991936 0.496864 0.899001 -0.411533 -0.14979
0.00544982 0.0708593 0.34653 0 0 1
-0.189652 0.0941338 0.573508 0.288287 -0.941537 0.174352
-0.0328525 0.0197195 0.381356 0 0 1
0.207522 -0.0466793 0.352221 -1 0 0
0.215212 -0.155252 0.510541 -1 0 0
0.147567 0.0877444 0.392591 -0.123571 -0.349401 0.928789
-0.091934 0.138227 0.581937 0.0737275 -0.918839 0.387685
0.0245126 0.151717 0.500575 -0.0827937 -0.969642 -0.230086
0.0487293 -0.17596 0.346922 0 0 -1
0.216385 0.0462742 0.0135915 -0.923867 0 0.382713
-0.23367 -0.0702776 0.548487 -0.922773 0.111055 -0.368993
0.23255 -0.213043 0.15992 0.382681 -0.914889 0.128579
0.198603 0.169084 0.763289 -1.32021e-05 -0.173622 -0.984812
0.217184 0.202771 0.0155198 -0.923824 2.46854e-06 0.382817
-0.237994 0.0457606 0.563145 0 -0.0871589 -0.996194
-0.225269 -0.101904 0.0212294 0.382646 0 0.923895
-0.213934 0.115165 0.494702 0.265502 0.905967 0.329746
-0.0799461 0.203196 0.737445 0.139115 -0.919449 0.367778
-0.167931 0.167684 0.389083 -0.182342 0.956386 -0.228206
0.207522 -0.188605 0.370027 -1 0 0
-0.109525 0.209258 0.760577 0 0.173669 0.984804
0.200799 -0.132324 0.381356 0 0 1
-0.074211 -0.0232301 0.381356 0 0 1
-0.0626318 0.0124122 0.346922 0 0 -1
-0.0383767 0.139308 0.571802 0.0731968 -0.955259 0.286571
0.219219 -0.177659 0.296735 -0.382784 0.914848 -0.128571
-0.218658 -0.174667 0.451213 0 0.979828 -0.199841
-0.114016 0.142918 0.64097 0.247025 -0.899703 0.359879
-0.124144 0.146733 0.412491 0.142942 -0.989731 0
0.135653 0.129617 0.492275 0.839074 0 -0.544017
-0.140755 0.0663315 0.383576 0.100612 -0.373282 0.922246
-0.230978 0.109191 0.585264 -0.708624 0.655629 -0.260773
-0.233714 0.183547 0.00347081 -0.923867 0 -0.382714
0.0950683 -0.158403 0.346922 0 0 -1
0.215667 0.138686 0.00966208 -0.923824 0 -0.382818
-0.0151943 0.091485 0.387755 0 -0.375184 0.92695
0.0490664 0.130859 0.514337 -0.0827936 -0.969642 -0.230086
0.185599 0.0934219 0.564102 -0.264952 -0.925677 0.270042
0.128385 0.186667 0.755532 -0.0999238 0 0.994995
-0.217975 -0.0055646 0.563529 0.923851 0.0333602 0.381297
0.178259 0.0322905 0.346922 0 0 -1
0.105617 0.143125 0.411828 -0.0535277 -0.370626 0.927239
-0.0398221 0.122685 0.55248 0.0828201 -0.971044 -0.224084
-0.000544007 0.174871 0.693432 0.0149985 -0.927728 0.372956
0.225513 0.0839802 0.0213303 -0.382689 1.0221e-06 0.923877
-0.0635445 0.0988578 0.391719 0.0543189 -0.37055 0.927223
-0.0878396 -0.237692 0.347201 0 -0.935134 -0.354294
-0.0585648 0.195712 0.00817007 0 -0.654649 -0.755933
0.00256655 0.140997 0.568301 -0.0747421 -0.955149 0.286538
0.206604 0.101164 0.588701 1 0 0
-0.171452 0.10458 0.545656 -0.42445 0 -0.905451
-0.0311017 0.0870149 0.385946 0 -0.375184 0.92695
0.219975 0.137966 0.705848 0.516197 -0.795829 0.316538
-0.0276325 0.131033 0.522629 0.0827304 -0.965453 -0.247097
0.113734 0.0437942 0.378426 0 1 0
-0.112515 0.0437942 0.34785 0 1 0
-0.193013 0.0970381 0.367521 0.138832 -0.392551 0.909192
-0.219735 -0.0607928 0.0189372 0.382646 0 0.923895
-0.0438674 -0.086463 0.381356 0 0 1
0.228092 -0.0995942 0.556775 0.380012 -0.479836 0.790789
-0.00653293 0.166714 0.634839 0.0149985 -0.927728 0.372956
0.209213 0.110906 0.497376 -0.734196 0.637993 0.232209
0.248029 -0.166987 0.483812 0 0.910895 -0.412638
-0.109104 0.124761 0.404711 0.0534191 -0.369873 0.927545
-0.228327 -0.0200461 0.548277 -0.382862 -0.0805245 -0.920289
-0.19492 -0.164028 0.381356 0 0 1
0.158135 -0.211784 0.377596 0 -0.204664 0.978832
-0.0838617 0.125024 0.527282 0.0827304 -0.965453 -0.247097
-0.0814524 0.0437942 0.381277 0 1 0
0.231279 0.178598 0.0193236 0.382731 0 0.92386
0.0752854 0.13436 0.555928 -0.0828101 -0.971045 -0.224084
0.216529 -0.20501 0.13649 -0.92387 0.378983 -0.0532616
-0.137224 0.134641 0.506258 0.25842 -0.940698 -0.219787
-0.208441 -0.190636 0.348728 -1 0 0
0.115959 0.0950452 0.393233 -0.0541884 -0.36966 0.927586
-0.181781 0.161544 0.739352 0.317873 -0.880611 0.3514
0.166814 -0.189346 0.339869 0 -0.861568 0.507642
0.141244 -0.107947 0.346922 0 0 -1
0.146148 -0.21686 0.339586 0 0.439298 -0.898342
-0.0812256 0.218849 0.758885 6.07401e-07 0.173714 0.984796
0.105706 0.150553 0.654354 -0.247014 -0.899708 0.359876
0.0504285 0.130019 0.369864 -0.0573906 -0.391505 0.918385
-0.0591015 0.151568 0.607312 0.0737275 -0.918839 0.387685
-0.132536 0.0373535 0.346922 0 0 -1
0.228292 -0.220714 0.118011 0.382574 -0.914934 0.128583
-0.00623912 0.0558836 0.381529 0 0 1
0.225963 0.10281 0.582278 0.734321 0.630742 -0.250874
0.172866 0.123969 0.639195 -0.280333 -0.887537 0.365638
0.135539 -0.137693 0.381356 0 0 1
-0.215697 0.120515 0.481423 0.265502 0.905967 0.329746
0.206604 0.159054 0.729301 1 0 0
0.149961 -0.228281 0.337245 0 -0.465435 -0.885082
0.228437 -0.0213729 0.54844 0.382819 -0.0805261 -0.920307
-0.0555346 0.126086 0.368501 0.0565548 -0.391585 0.918402
-0.258255 -0.0280021 0.576799 -1 0 0
-0.232619 0.170333 0.743442 -0.708542 0.655704 -0.260806
0.137688 0.143807 0.381117 -0.0564422 -0.390806 0.918741
-0.172913 0.165932 0.385721 -0.182342 0.956386 -0.228206
0.232938 -0.207706 0.196739 0.382681 -0.914889 0.128579
0.00205967 0.142395 0.612711 -0.0149982 -0.927728 0.372956
0.223048 -0.171424 0.46711 0 0.979835 -0.199809
0.16466 0.00677934 0.346922 0 0 -1
0.180669 0.0951755 0.556656 -0.262393 -0.944833 -0.196064
0.108093 0.135197 0.578141 -0.264962 -0.925686 0.27
-0.037713 0.157591 0.654245 0.0737275 -0.918839 0.387685
-0.0439001 -0.0888944 0.381356 0 0 1
-0.207522 0.0371873 0.356315 1 0 0
0.138003 -0.0386214 0.346922 0 0 -1
0.235449 0.119868 0.0138634 0.923867 0 0.382713
0.22835 -0.20548 0.0704235 0.37797 0.92536 0.0291158
-0.0991305 0.126927 0.514287 0.144407 -0.963568 -0.22513
-0.228677 -0.158444 0.49914 -0.380064 -0.803027 0.45902
0.168999 -0.0636913 0.381356 0 0 1
-0.23284 0.123359 0.625944 -0.708542 0.655704 -0.260806
0.223917 0.119527 0.43821 0.516019 -0.804921 -0.292961
-0.24759 -0.0509928 0.569537 0 0.0247935 -0.999693
0.0868729 0.203045 0.005542 0 0 -1
-0.117599 0.0437942 0.366634 0 1 0
-0.0810994 0.0874705 0.353623 0.0572554 -0.390582 0.918786
-0.118986 -0.124942 0.381356 0 0 1
-0.207522 0.0349559 0.356013 -1 0 0
0.138256 0.178933 0.76172 -0.193481 -0.96621 0.170305
0.0396605 0.190711 0.696386 -0.0737267 -0.918839 0.387686
0.221655 0.0103775 0.566241 0 -0.0871589 -0.996194
0.0726026 -0.0541769 0.381356 0 0 1
-0.225974 0.202336 0.0152526 -1 0 0
-0.0812224 -0.0686535 0.381356 0 0 1
-0.100487 0.135647 0.575868 0.0747822 -0.95731 0.279223
0.0550304 0.140737 0.617591 -0.0737267 -0.918839 0.387686
-0.0604231 0.0990186 0.357261 0.0565548 -0.391585 0.918402
-0.0710872 0.141238 0.409092 0.0534191 -0.369873 0.927545
0.148485 0.127778 0.522387 -0.25844 -0.940693 -0.219785
-0.230859 -0.174223 0.453392 0 0.979828 -0.199841
-0.144725 0.215444 0.0119562 2.91347e-06 0.654719 0.755873
0.229279 -0.0426546 0.569744 0 0.0247935 -0.999693
0.156778 -0.11569 0.346922 0 0 -1
-0.0457095 0.130235 0.519693 0.0827304 -0.965453 -0.247097
-0.0459793 0.185897 0.686178 0.0737275 -0.918839 0.387685
-0.0197215 0.0437942 0.348231 0 1 0
0.0551325 0.197769 0.716057 -0.0737267 -0.918839 0.387686
0.0826503 -0.0466433 0.346922 0 0 -1
-0.206605 0.110272 0.621131 -1 0 0
-0.207762 -0.217703 0.373888 0 -0.57975 0.814794
0.207522 -0.185539 0.355074 1 0 0
0.253977 0.0906554 0.567859 0 0.0871519 0.996195
0.207669 0.0643881 0.376466 -1 0 0
0.116798 0.131929 0.57548 -0.264962 -0.925686 0.27
-0.207522 -0.0409989 0.377077 1 0 0
-0.111292 0.105635 0.397211 0.0534191 -0.369873 0.927545
-0.235162 -0.161036 0.444973 -0.923852 0.379025 -0.0532675
-0.217119 -0.189062 0.0286029 0.921855 0.190247 0.337623
0.0560072 0.186449 0.689394 -0.0737267 -0.918839 0.387686
-0.166688 0.0996186 0.553961 0.262377 -0.944824 -0.196127
-0.123203 0.116248 0.535143 0.258436 -0.940694 -0.219786
-0.0812497 -0.0246212 0.346922 0 0 -1
-0.220758 -0.175481 0.307649 0.382741 0.914865 -0.128574
-0.00255604 -0.086603 0.346922 0 0 -1
-0.218237 -0.0980105 0.0180629 0.923867 0 0.382713
0.233294 -0.207214 0.199183 0.382681 -0.914889 0.128579
0.226083 0.0652721 0.53988 0.382708 -0.080523 -0.920354
0.0415171 0.156689 0.413404 -0.0311648 -0.963866 -0.264559
0.20901 0.16305 0.730247 -0.73423 0.630833 -0.250909
0.215188 0.0930011 0.593185 0 -0.929197 0.369585
-0.0994911 -0.171009 0.339915 -2.13851e-06 0.968102 0.250555
-0.222062 0.129778 0.410697 -0.629636 -0.672464 -0.389039
0.184524 0.140952 0.651744 -0.280332 -0.887536 0.365642
-0.1903 0.0329349 0.381356 0 0 1
-0.219081 -0.186779 0.232253 0.382741 0.914865 -0.128574
0.158614 0.190655 0.752527 -0.280332 -0.887536 0.365642
-0.21702 -0.104052 0.564625 0 -0.455668 0.89015
0.258255 0.0522433 0.566498 1 0 0
0.151864 0.170839 0.389465 0.182332 0.95638 -0.228239
0.199952 0.0725502 0.358007 -0.138832 -0.392551 0.909192
0.103332 0.179058 0.685946 -0.139115 -0.919449 0.367777
-0.185847 0.0745268 0.391813 0.100612 -0.373282 0.922246
-0.215302 -0.164976 0.445747 0.92387 -0.378982 0.0532634
0.196312 -0.0101652 0.381356 0 0 1
-0.218411 -0.0198451 0.550426 0.382666 -0.0805316 -0.92037
0.0480445 0.183835 0.718409 -0.0737267 -0.918839 0.387686
-0.0751475 0.0437942 0.37071 0 1 0
0.21663 -0.212736 0.128962 -0.92387 -0.378983 0.0532626
-0.226161 -0.224338 0.0985648 -0.382514 -0.914958 0.128584
-0.230142 -0.164786 0.380635 -0.382826 0.91483 -0.128574
-0.0903197 -0.0811471 0.346922 0 0 -1
0.228696 -0.0661426 0.568184 0 0.246406 -0.969167
-0.207522 -0.207524 0.373187 -1 0 0
0.00310396 0.136953 0.599215 -0.0149982 -0.927728 0.372956
-0.234638 -0.0730686 0.560551 -0.922763 -0.11106 0.369019
-0.209268 0.137955 0.422608 0.000123969 0.342027 -0.93969
0.0750779 0.103833 0.394359 -0.0535277 -0.370626 0.927239
0.207522 -0.10369 0.374728 -1 0 0
0.00463878 -0.176266 0.32654 0 0.250384 -0.968147
-0.0809002 0.145508 0.63382 0.0737275 -0.918839 0.387685
3.9231e-05 0.0791506 0.347846 0 -0.396387 0.918083
0.0926979 -0.180536 0.381356 0 0 1
0.204954 0.100596 0.576084 -1 0 0
-0.228586 -0.0338068 0.555403 0 0.996192 -0.0871851
0.0309936 -0.134343 0.381356 0 0 1
0.221373 -0.0546667 0.578003 0 -0.0247676 0.999693
0.113747 0.18551 0.747266 -0.247014 -0.899708 0.359876
0.0395319 0.140934 0.40777 0 -0.375184 0.92695
0.0565657 0.0437942 0.356166 0 1 0
0.122164 -0.225538 0.368313 0 -0.57975 0.814794
-0.140564 0.130764 0.593311 0.280329 -0.887536 0.365643
-0.189023 -0.109791 0.381356 0 0 1
0.133435 -0.229005 0.337626 0 -0.465435 -0.885082
-0.0349114 -0.0967998 0.381356 0 0 1
-0.234168 -0.133334 0.527622 -0.922757 -0.276041 0.268927
0.0191685 0.0437942 0.366092 0 1 0
0.0940252 0.139061 0.465625 -0.144437 -0.963566 -0.225119
-0.150407 -0.177657 0.346922 0 0 -1
0.206604 0.124402 0.652327 1 0 0
0.218629 0.0916805 0.507354 0 -0.939692 -0.34202
-0.227509 -0.059981 0.577871 0 -0.0247676 0.999693
-0.20081 -0.19055 0.33606 2.13863e-06 -0.968162 -0.250326
0.104858 -0.0403155 0.381356 0 0 1
-0.0217417 -0.0367269 0.346922 0 0 -1
0.045461 0.177542 0.703002 -0.0737267 -0.918839 0.387686
0.207522 -0.107134 0.358928 1 0 0
0.132714 0.138829 0.487742 0.839074 0 -0.544017
-0.219827 -0.0336518 0.557174 0 -0.996192 0.0871851
0.212055 0.133591 0.442563 -0.265556 0.905954 0.329738
-0.0940795 0.130105 0.503923 0.144407 -0.963568 -0.22513
-0.0998189 -0.229942 0.363888 0 -0.857666 0.514208
-0.207522 -0.132244 0.375185 1 0 0
-0.0381314 0.151908 0.640854 0.0737275 -0.918839 0.387685
-0.233156 -0.213603 0.0380993 -0.377857 -0.862039 -0.337806
0.0582577 -0.173729 0.343509 -1.12082e-06 0.507372 0.861727
-0.157988 0.0716662 0.352705 0.101852 -0.377882 0.920235
0.170704 0.114781 0.615235 -0.280333 -0.887537 0.365638
-0.00197677 0.151963 0.442788 0.0314447 -0.972501 -0.230764
0.228461 -0.0172175 0.548086 0.382819 -0.0805261 -0.920307
0.110182 0.138746 0.627909 -0.247014 -0.899708 0.359876
0.256006 -0.0503812 0.569552 0 0.0247935 -0.999693
0.206604 0.109915 0.617807 1 0 0
-0.220257 -0.034006 0.553126 0 0.996192 -0.0871851
-0.2219 0.132824 0.689779 -0.515997 -0.79594 0.316586
-0.219437 -0.0297794 0.550869 0.382777 -0.0805205 -0.920325
0.160371 0.0541801 0.381529 0 0 1
-0.176519 0.0983795 0.548032 -0.42445 0 -0.905451
0.166978 0.101493 0.365948 -0.101852 -0.377882 0.920235
-0.169394 0.11787 0.62173 0.28033 -0.887538 0.365639
-0.235046 -0.191913 0.223254 -0.92387 0.378982 -0.0532626
0.215212 -0.159119 0.505119 -1 0 0
0.233698 0.0623413 0.55825 0.923867 0.0333569 0.381257
0.0427285 0.13898 0.373678 0 -0.396387 0.918083
0.18348 0.0342615 0.346922 0 0 -1
0.0999095 0.150086 0.612222 -0.139115 -0.919449 0.367777
0.208441 -0.0792837 0.369526 1 0 0
0.0160854 0.0437942 0.370851 0 1 0
0.193089 -0.167903 0.381356 0 0 1
0.216616 -0.0281874 0.0141499 -0.923867 0 0.382713
-0.125603 -0.18909 0.346922 0 0 -1
0.23169 0.076021 0.560498 0 -0.0871589 -0.996194
0.18766 0.124602 0.652094 -0.317888 -0.880607 0.351394
-0.203486 0.203992 0.005542 0 0 -1
0.204954 0.0917345 0.574679 -1 0 0
-0.206605 0.0908139 0.580847 -1 0 0
0.207824 0.146031 0.710745 -0.898929 -0.407076 0.161912
-0.227478 -0.00142749 0.567274 0 -0.0871589 -0.996194
-0.109845 -0.224168 0.337437 0 0.237698 -0.971339
0.0202277 -0.170407 0.381356 0 0 1
-0.0261599 0.144254 0.532005 0.0827305 -0.965453 -0.247097
0.160773 0.10235 0.365613 -0.101852 -0.377882 0.920235
-0.0645661 0.120931 0.550936 0.0828109 -0.971036 -0.224125
0.224623 -0.0226319 0.568568 -0.382715 0.0805234 0.920351
0.186882 0.123251 0.377902 -0.138832 -0.392551 0.909192
-0.142049 -0.13287 0.346922 0 0 -1
0.203393 0.0921469 0.585357 -0.280333 -0.887537 0.365638
0.216787 -0.18431 0.333944 -0.92387 -0.378982 0.0532624
0.227961 -0.0656839 0.567827 0.380032 -0.266572 0.885728
-0.0734418 0.163023 0.394671 -0.847066 0 -0.531488
0.200242 0.117022 0.605709 -0.280332 -0.887536 0.365642
0.0788034 0.124573 0.583804 -0.0737267 -0.918839 0.387686
-0.221077 -0.150056 0.529374 0 -0.796466 0.604684
0.215652 -0.173095 0.394056 -0.92387 -0.378983 0.0532626
-0.0815749 0.158868 0.665979 0.139115 -0.919449 0.367778
-0.0954981 0.194334 0.721173 0.139115 -0.919449 0.367778
0.225349 0.130529 0.440991 0.734346 0.637841 0.232153
-0.055612 -0.0981262 0.381356 0 0 1
