-0.0649226 -0.0745429 0.331474 0 0 -1
0.126709 0.165128 0.368641 0.0899427 0.69156 -0.716697
0.0417809 -0.18231 0.322042 0 -0.968152 -0.250361
0.0653914 -0.167384 0.331474 0 0 -1
0.178793 0.114578 0.581807 -0.285313 -0.916353 0.280879
-0.198281 -0.104707 0.340989 -1 0 0
0.118184 -0.141247 0.364375 0 0 1
-0.0914492 -0.180028 0.331474 0 0 -1
0.195827 0.136299 0.699198 -1 0 0
0.162937 0.0918167 0.34791 -0.101847 -0.377882 0.920235
0.121248 0.201689 0.00553469 0 0.654632 -0.755947
-0.0479109 -0.207409 0.324364 0 0.439239 -0.89837
0.105097 -0.169482 0.364375 0 0 1
0.000926435 0.127347 0.567302 -0.0154815 -0.958395 0.285026
0.0161306 -0.213316 0.353463 0 -0.579757 0.81479
0.0174285 -0.1408 0.331474 0 0 -1
-0.0377731 0.155648 0.374135 0.0314571 -0.9725 -0.23077
-0.0679869 0.119315 0.557967 0.0746821 -0.952024 0.29677
0.200286 0.12409 0.40098 -0.000142074 0.341928 -0.939726
0.0527588 0.135872 0.607248 -0.0746813 -0.952024 0.29677
-0.167475 0.105013 0.587406 0.285317 -0.916353 0.280877
0.0148431 -0.0531603 0.364375 0 0 1
0.134734 -0.162364 0.331474 0 0 -1
0.0155325 0.129024 0.485891 -0.0827933 -0.969641 -0.230092
-0.176641 0.171417 0.785139 3.55848e-06 -0.173599 -0.984816
0.103306 -0.137721 0.364375 0 0 1
0.189936 0.165206 0.786233 -6.89864e-06 -0.173646 -0.984808
0.059239 0.19678 0.757746 -0.138809 -0.949515 0.28134
0.21504 0.0847903 0.503616 0.899049 -0.411442 -0.149755
-0.192213 0.116709 0.652477 0.316964 -0.908797 0.271334
-0.138036 0.122703 0.566913 0.28531 -0.916354 0.28088
-0.198281 -0.13846 0.353579 -1 0 0
-0.132383 0.128464 0.392003 0.0534119 -0.36988 0.927543
0.113897 0.136871 0.588616 -0.285313 -0.916353 0.280879
-0.198281 -0.187347 0.347328 1 0 0
-0.198422 0.100985 0.36281 1 0 0
0.0675744 0.0255326 0.364375 0 0 1
-0.217997 -0.209725 0.0454346 -0.378068 -0.861944 -0.337811
0.0465487 -0.176638 0.312435 0 -0.507412 -0.861704
0.215902 0.0892232 0.530778 0.730109 0.67801 -0.0851104
0.213724 0.00357408 0.541582 0 -0.0871612 -0.996194
-0.216427 0.096039 0.577478 -0.899037 -0.420487 0.122163
-0.199052 0.110417 0.64535 0.397063 -0.88135 0.256054
-0.202003 0.129755 0.65606 0.396999 0.881376 -0.256063
0.207851 0.118059 0.607308 -0.170186 0.946285 -0.274921
-0.00648009 0.151988 0.600676 0.0154815 -0.958396 0.285022
-0.106634 0.1771 0.766964 0.245497 -0.929457 0.275393
-0.044557 -0.16387 0.326618 0 0.968137 0.25042
0.206597 0.182121 0.0126192 -0.923897 0 0.382642
-0.221639 -0.145475 0.0024775 -0.377952 -0.15758 -0.912316
0.180782 -0.227303 0.335008 0 -0.857659 0.514218
0.21209 0.0263479 0.520536 -0.382704 -0.0805254 -0.920355
0.225232 0.167454 0.0125992 0.923896 0 0.382643
0.0412241 0.0883243 0.370859 0 -0.375195 0.926946
0.185468 0.176363 0.785686 0.511604 0.846208 -0.148975
-0.214977 0.08102 0.535825 -0.896858 -0.438878 0.0550567
-0.129258 0.11712 0.588085 0.285317 -0.916353 0.280877
-0.070948 0.186464 0.786662 0 0.173386 0.984854
0.0908122 0.140716 0.634075 -0.138828 -0.949514 0.281336
-0.0387258 0.139528 0.567948 0.0746914 -0.952024 0.296768
0.0849803 -0.026759 0.364375 0 0 1
0.226518 0.0827794 0.542908 0 0.0871529 0.996195
0.158738 0.157149 0.748821 -0.316964 -0.908797 0.271334
-0.0105653 -0.163929 0.326848 0 0.968137 0.25042
-0.212269 -0.164477 0.436868 0 0.139048 0.990286
-0.0458305 -0.16828 0.331474 0 0 -1
0.0735556 0.0776489 0.335123 -0.057389 -0.391511 0.918382
0.120643 -0.122729 0.331474 0 0 -1
-0.177467 -0.213271 0.322636 0 0.237688 -0.971342
0.18068 -0.215774 0.351714 0 -0.579757 0.81479
0.0983167 0.127618 0.524717 -0.0828144 -0.971042 -0.224097
-0.111044 0.175138 0.785127 0.193497 -0.966201 0.170338
0.0178063 -0.167248 0.331474 0 0 -1
0.173597 0.167637 0.789981 1.231e-05 0.173646 0.984808
0.0600403 0.183345 0.713876 -0.0746906 -0.952024 0.296768
0.0780535 0.151683 0.664793 -0.138828 -0.949514 0.281336
0.180265 0.185749 0.00888795 0 -0.654696 -0.755892
0.246755 0.0305014 0.539306 1 0 0
-0.101511 0.148018 0.614277 0.245497 -0.929456 0.275396
0.106123 0.0634522 0.331106 -0.057389 -0.391511 0.918382
-0.057338 -0.0927158 0.364375 0 0 1
-0.175395 -0.165294 0.313821 0 0.86158 -0.507621
0.105931 -0.0347831 0.331474 0 0 -1
0.0232213 0.149565 0.395647 0 -0.375195 0.926946
0.175862 0.138365 0.368892 -0.277489 -0.941647 -0.190528
-0.116283 0.11644 0.572687 0.285317 -0.916353 0.280877
0.126662 0.160272 0.678054 -0.245501 -0.929455 0.275396
0.121574 0.136936 0.596627 -0.285313 -0.916353 0.280879
0.216905 -0.0427548 0.5525 0 -0.0247834 0.999693
-0.177867 0.126036 0.370804 0.33342 -0.942778 0
0.212715 -0.0825426 0.536032 -0.379961 -0.266585 0.885755
-0.0425597 -0.169546 0.364375 0 0 1
0.157543 -0.158846 0.364375 0 0 1
0.0479163 -0.135849 0.364375 0 0 1
0.198281 -0.0157513 0.357903 1 0 0
0.124461 -0.140541 0.331474 0 0 -1
-0.107051 0.189611 0.00554327 0 -0.654696 -0.755892
-0.0643584 0.119884 0.558879 0.0746821 -0.952024 0.29677
-0.0237349 0.155929 0.437259 0.0314574 -0.972501 -0.230764
0.17139 0.111064 0.389396 -0.12357 -0.349406 0.928787
0.198281 -0.186509 0.349613 -1 0 0
-0.103682 0.124737 0.469328 0.258417 -0.940699 -0.219788
-0.117639 0.0418444 0.357836 0 1 0
-0.125997 -0.0205189 0.364375 0 0 1
-0.106734 -0.0482716 0.331474 0 0 -1
-0.181333 0.00466011 0.364375 0 0 1
0.0154574 0.155565 0.662975 -0.0154815 -0.958395 0.285026
-0.0670729 0.0418444 0.352416 0 1 0
0.217327 0.178758 0.019976 0.382636 0 0.923899
0.0810882 -0.0745939 0.364375 0 0 1
-0.159656 -0.0259818 0.331474 0 0 -1
0.129058 0.145139 0.630991 -0.285313 -0.916353 0.280879
0.220391 -0.180044 0.325465 0.382849 -0.91482 0.128572
0.127168 0.0213141 0.331474 0 0 -1
-0.225963 -0.127236 0.496667 -0.922739 -0.276074 0.268953
-0.242039 -0.0225495 0.543868 0 -0.0871612 -0.996194
-0.0519151 0.165436 0.391447 0.0827299 -0.965454 -0.247093
-0.212987 -0.0636625 0.542766 0 0.246443 -0.969157
-0.194355 0.122573 0.674619 0.316964 -0.908797 0.271334
0.0985968 -0.0471309 0.331474 0 0 -1
-0.21656 -0.0776054 0.517865 -0.380004 0.266534 -0.885752
-0.0245079 0.197821 0.755771 0.0154815 -0.958396 0.285022
0.20677 -0.116709 0.510602 -0.922813 -0.275948 0.26883
-0.0220638 0.190143 0.0152677 0 0 1
0.0624077 0.14009 0.484787 -0.0827934 -0.969642 -0.230086
0.198179 0.143447 0.757686 -0.397093 -0.881337 0.25605
-0.0385884 -0.184383 0.331468 0 0.159004 -0.987278
-0.147902 -0.162985 0.323197 0 0.968137 0.25042
0.0923155 0.167601 0.38373 0.109872 0.598635 0.793451
0.0276868 0.203754 0.779437 0 -0.173683 -0.984802
0.090378 0.13408 0.500048 -0.0827934 -0.969642 -0.230086
-0.241456 -0.0330678 0.55274 0 -0.0247834 0.999693
-0.0582517 0.194523 0.749639 0.138812 -0.949515 0.28134
-0.0680614 -0.193904 0.362549 0 -0.20467 0.978831
-0.0840876 0.145186 0.378821 0.142921 -0.989734 0
-0.220092 -0.134852 0.00173188 -0.382734 0 -0.923859
0.223009 0.108851 0.592229 0.708547 0.677644 -0.196874
-0.0732249 0.197466 0.00529522 0 0 -1
0.0894901 0.135727 0.494022 -0.0311781 -0.963868 -0.26455
0.124124 0.121404 0.523059 -0.258399 -0.941297 -0.217232
0.130736 -0.00443198 0.331474 0 0 -1
-0.207638 -0.170167 0.30038 0.923909 0.378889 -0.0532483
-0.121664 -0.194853 0.362351 0 -0.20467 0.978831
0.128016 0.118417 0.530496 -0.262396 -0.94484 -0.196025
0.157084 0.153013 0.733451 -0.28532 -0.916352 0.280876
-0.216459 -0.191338 0.0176694 -0.377932 -0.698733 -0.607404
0.0445146 0.172933 0.724064 -0.0746813 -0.952024 0.29677
-0.102666 -0.0777237 0.364375 0 0 1
0.053474 0.164247 0.394354 -0.0311781 -0.963868 -0.26455
-0.213038 -0.214917 0.0805098 0.377853 -0.925408 -0.029107
-0.0360409 0.178035 0.690804 0.0746914 -0.952024 0.296768
-0.0949188 0.0270724 0.331474 0 0 -1
-0.208707 0.114441 0.672799 0.169945 -0.946325 0.274933
0.11122 -0.224938 0.326014 0 -0.935105 -0.35437
0.0224255 0.18742 0.720682 -0.0154815 -0.958396 0.285022
-0.153574 -0.17941 0.331474 0 0 -1
0.211682 -0.183032 0.182376 -0.382574 0.914933 -0.128588
0.155201 0.112901 0.521079 -0.27194 -0.929158 -0.250428
0.214652 -0.172078 0.251476 -0.382574 0.914933 -0.128588
-0.198281 -0.174574 0.350649 1 0 0
0.121141 0.112088 0.502941 -0.258421 -0.940697 -0.219788
0.115426 0.186681 0.0124823 0 -0.65469 0.755897
-0.154159 0.139373 0.685978 0.285317 -0.916353 0.280877
0.196109 0.119585 0.392427 -0.33342 -0.942778 0
-0.15654 0.112141 0.599554 0.285317 -0.916353 0.280877
0.0381857 0.0418444 0.336759 0 1 0
0.138552 0.118091 0.549498 -0.288286 -0.941538 0.17435
-0.09164 0.188201 0.744779 0.138812 -0.949515 0.28134
-0.161071 0.141068 0.698531 0.285317 -0.916353 0.280877
0.211518 0.185507 0.0114656 0 -0.65469 0.755897
-0.0165695 0.115474 0.349562 0 -0.396393 0.918081
-0.22564 0.0621068 0.5248 -0.923844 -0.0333599 -0.381314
-0.0173343 0.0851257 0.336458 0 -0.396393 0.918081
0.147887 0.112592 0.592235 -0.28532 -0.916352 0.280876
0.12296 -0.195933 0.362125 0 -0.20467 0.978831
0.197757 -0.056427 0.364375 0 0 1
-0.246755 0.0203035 0.541254 -1 0 0
-0.213993 -0.109601 0.500494 0.38 0.66257 -0.645446
-0.215116 0.111558 0.0202331 0.382635 0 0.9239
0.199159 -0.150027 0.345301 1 0 0
-0.15675 0.117354 0.616773 0.285317 -0.916353 0.280877
0.213566 0.0856334 0.496526 0.515951 -0.804956 -0.292984
0.234031 -0.172827 0.442899 0 -0.979846 0.199755
0.0386455 0.0751409 0.365523 0 -0.375195 0.926946
-0.144965 0.0274356 0.364375 0 0 1
0.195887 0.136439 0.688549 -0.397034 0.881361 -0.256059
-0.198281 -0.195629 0.350529 -1 0 0
-0.0492203 -0.162152 0.319979 0 0.968137 0.25042
0.15585 0.0418444 0.337391 0 1 0
-0.0452553 -0.183541 0.331474 0 0 -1
0.220207 -0.189188 0.260956 0.382849 -0.91482 0.128572
0.00833003 0.0852464 0.369613 0 -0.375195 0.926946
-0.000308711 0.0897468 0.371435 0 -0.375195 0.926946
0.21035 -0.20713 0.0426997 -0.378025 -0.861973 -0.337786
-0.198281 -0.0454603 0.336787 1 0 0
0.205074 0.123255 0.400675 0.000112147 0.342035 -0.939687
-0.21086 0.212106 0.00236495 0 1 0
-0.0547575 0.165148 0.654171 0.0746914 -0.952024 0.296768
-0.193668 0.109514 0.630076 0.316964 -0.908797 0.271334
-0.199686 0.108621 0.595282 0.734416 0.651751 -0.18935
-0.0309661 0.112406 0.380606 0 -0.375195 0.926946
0.213696 0.123574 0.0196457 -0.38268 0 0.923881
0.195827 0.132492 0.692552 -1 0 0
0.0923599 0.0904058 0.374484 -0.0541868 -0.369665 0.927584
0.011127 -0.0378828 0.364375 0 0 1
-0.199207 0.111368 0.431905 0.899045 -0.411449 -0.149758
-0.168867 -0.199193 0.328381 0 0.439239 -0.89837
0.171805 -0.10343 0.331474 0 0 -1
0.219051 0.150976 0.793304 -0.000176227 0.278963 0.960302
-0.0338826 0.0428622 0.36454 0 0 1
0.223096 0.088371 0.542419 0 0.0871529 0.996195
0.0768949 0.0766532 0.334907 -0.057389 -0.391511 0.918382
-0.199159 -0.124608 0.333565 -1 0 0
-0.198422 0.087732 0.367122 1 0 0
-0.00128824 0.18529 0.0112779 0 -0.65469 0.755897
0.195827 0.107776 0.594391 -1 0 0
0.215064 -0.189103 0.129118 -0.382574 0.914933 -0.128588
-0.0979536 0.196076 0.77447 0.138812 -0.949515 0.28134
-0.136704 -0.163262 0.364375 0 0 1
0.151094 -0.0983174 0.331474 0 0 -1
0.198735 0.144933 0.371355 0.698861 0.551337 -0.455654
0.212741 0.0858053 0.560093 0.515965 -0.822597 0.238986
-0.141752 -0.0176279 0.364375 0 0 1
-0.199159 -0.0489702 0.341412 -1 0 0
0.206734 -0.185141 0.247829 -0.92389 -0.378933 0.0532557
-0.00577886 -0.0521306 0.331474 0 0 -1
-0.0680228 -0.175273 0.32985 0 -0.250362 0.968152
-0.0692434 -0.223069 0.34207 0 -0.857659 0.514218
-0.152347 0.190227 0.781823 0 -0.173669 -0.984804
0.124037 -0.167605 0.312211 0 0.25033 -0.96816
0.106058 -0.223276 0.324942 0 -0.465512 -0.885041
-0.215268 -0.0851003 0.537315 0 0.246443 -0.969157
-0.0112701 0.0777796 0.333287 0 -0.396393 0.918081
0.176607 0.0639752 0.371333 -0.100609 -0.373288 0.922244
-0.207863 0.116793 0.680375 0.169945 -0.946325 0.274933
0.085651 0.0418444 0.349496 0 1 0
0.0729291 0.114979 0.524712 -0.0828144 -0.971052 -0.224054
-0.219189 0.12545 0.0192055 -0.382725 0 0.923862
-0.195386 0.203167 0.0137479 0 0.654626 0.755953
-0.14321 0.0418444 0.361473 0 1 0
-0.218237 -0.0734643 0.539138 -0.380106 -0.266568 0.885698
0.214742 0.145986 0.723747 0.734385 0.651783 -0.18936
-0.221052 -0.198406 0.19285 -0.382939 -0.914783 0.128567
-0.128687 0.0429224 0.331099 0 0 1
-0.150852 -0.197843 0.361725 0 -0.20467 0.978831
-0.198316 0.127166 0.667128 0.988441 0.145586 -0.0422963
-0.14868 -0.125381 0.331474 0 0 -1
0.204962 0.157187 0.745893 -0.397028 0.881364 -0.25606
-0.130974 0.147503 0.640647 0.28531 -0.916354 0.28088
-0.142043 0.101363 0.545835 0.264968 -0.925697 0.269958
-0.149886 0.0992353 0.546369 0.28829 -0.941533 0.174367
-0.207227 0.0902386 0.477509 0 -0.939691 -0.342024
-0.205923 -0.166123 0.434878 0 0.979818 -0.199892
0.20709 -0.156149 0.435697 0 -0.139225 -0.990261
-0.107718 0.190088 0.786023 0 0.173658 0.984806
0.246755 0.0166625 0.543482 1 0 0
0.189877 0.159693 0.787056 -0.120628 0 0.992698
-0.172647 0.15802 0.767986 0.316964 -0.908797 0.271334
-0.0130267 -0.0659546 0.331474 0 0 -1
0.00881998 -0.0301998 0.331474 0 0 -1
-0.036474 0.143104 0.393032 0 -0.375195 0.926946
0.0512387 0.196983 0.780631 0 -0.173669 -0.984804
0.198022 0.0857549 0.50939 -0.899049 -0.411445 -0.149748
0.199159 0.0406271 0.356911 1 0 0
0.105216 0.202273 0.779698 0 -0.173683 -0.984802
-0.209697 -0.144867 0.0122447 0 1 0
0.164119 0.197822 0.00529522 0 0 -1
0.0783759 -0.104717 0.331474 0 0 -1
0.214051 -0.206178 0.03613 -0.377927 -0.861998 -0.337832
-0.0407018 0.184672 0.762219 0.0154815 -0.958395 0.285026
-0.0284367 0.171493 0.371025 0.0314574 -0.972501 -0.230764
0.118574 0.165992 0.368454 0.0899427 0.69156 -0.716697
0.211598 -0.141821 0.49222 -0.38011 -0.803024 0.458986
-0.0720682 0.142704 0.586529 0.0746914 -0.952024 0.296768
-0.199159 -0.0790847 0.363724 -1 0 0
-0.117991 -0.226191 0.336862 0 -0.857659 0.514218
0.207361 -0.199175 0.0355067 -0.921892 -0.292413 -0.254186
-0.22412 0.147735 0.0152862 -0.923851 0 0.382752
-0.218926 0.133525 0.735188 -0.295575 -0.917388 0.266525
-0.145695 0.112905 0.591031 0.285317 -0.916353 0.280877
0.198281 -0.0912681 0.358836 -1 0 0
0.155397 -0.175571 0.364375 0 0 1
-0.0610328 -0.00863494 0.364375 0 0 1
0.216053 0.0882131 0.553295 0.899037 -0.420487 0.122163
0.077323 0.176981 0.749814 -0.138828 -0.949514 0.281336
0.0969776 -0.134222 0.331474 0 0 -1
0.246163 0.0968571 0.541677 0 0.0871529 0.996195
-0.0267251 0.169713 0.71116 0.0154815 -0.958395 0.285026
-0.0133332 -0.116224 0.364375 0 0 1
0.198281 -0.167713 0.335109 1 0 0
-0.210892 0.0952956 0.533557 0 -0.0871612 -0.996194
0.206111 -0.166715 0.351414 -0.923889 0.378938 -0.0532563
0.20797 -0.0546562 0.527869 -0.922816 0.0151102 -0.384945
-0.219357 0.0502862 0.545751 0 0.0871528 0.996195
-0.0922313 0.191518 0.785771 0 0.173658 0.984806
-0.0756028 0.118504 0.509037 0.0827299 -0.965452 -0.247099
0.143871 0.0124658 0.364375 0 0 1
0.00838069 0.176977 0.684805 -0.0154815 -0.958396 0.285022
0.20586 0.0986449 0.523504 -0.923889 0.0333529 0.381205
0.166254 0.104853 0.35363 -0.101847 -0.377882 0.920235
-0.0184248 -0.0541928 0.364375 0 0 1
0.199159 0.0380454 0.348022 1 0 0
-0.20563 -0.12211 0.523744 1 0 0
0.0324162 0.126309 0.49126 -0.0827933 -0.969641 -0.230092
-0.214585 -0.211671 0.109814 0.382636 -0.914908 0.128585
0.169497 0.12549 0.363026 -0.138828 -0.392551 0.909192
0.172737 0.0418444 0.348558 0 1 0
0.0864095 0.0825013 0.337995 -0.057389 -0.391511 0.918382
-0.155011 0.130835 0.610687 0.28531 -0.916354 0.28088
-0.246755 -0.0226975 0.545632 -1 0 0
0.126361 0.179051 0.783793 -3.55846e-06 -0.173599 -0.984816
-0.204784 0.112443 0.657802 0 -0.960293 0.278993
0.074892 0.188682 0.786271 0 0.173658 0.984806
-0.221225 0.0878001 0.570375 -0.708453 -0.677735 0.196901
-0.180171 -0.105251 0.364375 0 0 1
-0.0911534 0.0258622 0.364375 0 0 1
0.212234 -0.0332089 0.0190404 -0.38268 0 0.923881
0.0920058 0.0651022 0.331099 0 0 1
-0.218523 0.111756 0.00108151 -0.382734 0 -0.923859
0.0504252 -0.224149 0.340268 0 -0.857659 0.514218
-0.00628682 0.148369 0.409101 0.0314571 -0.9725 -0.23077
0.197404 0.0923871 0.56142 1 0 0
-0.130451 0.00152266 0.331474 0 0 -1
0.221838 -0.134999 0.51503 0 -0.642078 0.766639
0.0763865 0.123647 0.486657 -0.0827933 -0.969641 -0.230092
-0.230385 -0.00182158 0.55031 0 0.0871528 0.996195
-0.198979 0.138741 0.691675 0.397005 0.881373 -0.256063
0.200318 0.0793704 0.531815 -0.51131 -0.852723 0.106889
-0.150097 -0.213537 0.353305 0 -0.579757 0.81479
0.21644 0.171503 0.0203433 0.382636 0 0.923899
0.1272 0.103419 0.538319 -0.264971 -0.925696 0.269957
-0.0255453 -0.169891 0.311619 0 0.25033 -0.96816
0.217535 0.163538 0.765077 0.295583 0.917385 -0.266525
-0.0214297 0.138532 0.506775 0.0827299 -0.965454 -0.247093
-0.13559 0.117286 0.525938 0.266122 -0.939252 -0.21676
-0.207829 -0.197052 0.0528674 0.921874 0.36077 0.141396
-0.212739 0.0960082 0.541751 0 0.0871528 0.996195
-0.211752 0.108279 0.639582 -0.5159 -0.822634 0.238999
0.21509 -0.150583 0.479781 -0.380037 -0.80306 0.458984
-0.0318641 -0.1626 0.318393 0 0.86158 -0.507621
0.0413039 0.144759 0.585378 -0.0746906 -0.952024 0.296768
-0.0522374 0.223165 0.776447 -0.144306 0.974505 -0.171802
-0.0822251 -0.00795338 0.331474 0 0 -1
-0.0635743 0.203029 0.0066952 0 0.654632 -0.755947
0.208705 0.128179 0.720086 -0.169945 -0.946325 0.274933
0.242424 0.0511843 0.537416 0 -0.0871612 -0.996194
-0.125062 -0.104913 0.331474 0 0 -1
-0.219071 0.093021 0.514428 -0.382751 -0.0805237 -0.920335
-0.11932 -0.132365 0.364375 0 0 1
0.144148 0.116257 0.548847 -0.288286 -0.941538 0.17435
-0.0736773 0.14171 0.476863 0.0827299 -0.965454 -0.247093
-0.202854 0.085995 0.492091 0.515951 -0.804956 -0.292985
0.0122952 0.108451 0.379006 0 -0.375195 0.926946
-0.224064 -0.167453 0.391427 -0.923827 -0.379085 0.0532771
0.0472168 0.117773 0.522105 -0.08281 -0.971057 -0.224034
0.11067 0.127568 0.554576 -0.288286 -0.941538 0.17435
-0.239296 -0.104487 0.536888 0 -0.455689 0.890139
0.0117811 0.154678 0.441525 -0.0827934 -0.969642 -0.230086
0.00118613 0.0301694 0.331474 0 0 -1
-0.206931 0.0881652 0.574237 0 -0.960293 0.278993
0.0580976 0.144764 0.410852 -0.0311778 -0.963866 -0.264556
0.129897 0.185886 0.782588 0 -0.173661 -0.984806
0.188696 0.13741 0.366767 -0.0628747 -0.741535 -0.667961
0.206757 0.12225 0.691557 0 -0.960293 0.278993
0.134377 0.198211 0.78459 0 0.173658 0.984806
0.097824 0.132142 0.559128 -0.0746906 -0.952024 0.296768
-0.0842951 0.133747 0.44469 0.144409 -0.963567 -0.225132
0.219533 0.0418352 0.519099 0.382662 -0.0805269 -0.920372
0.125285 0.131484 0.463681 0.839074 0 -0.544017
-0.00210292 0.159395 0.625345 0.0154815 -0.958396 0.285022
0.20994 0.142646 0.700884 0.265405 0.925854 -0.268988
-0.219592 -0.163729 0.446616 0 0.979818 -0.199892
-0.0896514 0.140109 0.582629 0.0746914 -0.952024 0.296768
0.20171 0.124689 0.698597 -0.397093 -0.881337 0.25605
-0.101528 0.161198 0.658774 0.245497 -0.929456 0.275396
0.135358 0.171659 0.774207 -0.245502 -0.929456 0.275392
0.155381 -0.0893227 0.364375 0 0 1
-0.134258 0.173702 0.730152 0.245497 -0.929456 0.275396
-0.212942 -0.166826 0.328704 0 0.50747 0.861669
0.0530459 0.0398045 0.331474 0 0 -1
0.0855586 -0.164052 0.331474 0 0 -1
-0.205573 0.0844418 0.566055 0.397096 -0.881336 0.256052
-0.0488181 0.0104614 0.331474 0 0 -1
0.0630087 -0.0118069 0.364375 0 0 1
-0.214864 0.105035 0.476857 -0.734224 0.637966 0.232195
-0.223863 -0.181231 0.216076 -0.923843 0.379047 -0.0532705
-0.135601 0.17943 0.750679 0.245497 -0.929456 0.275396
-0.208521 -0.157789 0.373131 0.923909 0.378889 -0.0532483
0.00477326 0.201752 0.767916 -0.0154815 -0.958396 0.285022
0.0973512 0.122441 0.484707 -0.144406 -0.963568 -0.225132
-0.198281 -0.141791 0.337726 -1 0 0
0.012904 0.203181 0.774812 0 0 1
-0.098668 0.149474 0.431527 0.144421 -0.963568 -0.225121
-0.198422 0.112473 0.382517 1 0 0
-0.198294 0.0898164 0.542978 5.30356e-06 -0.279009 -0.960288
0.207225 -0.164114 0.350593 -0.923889 0.378938 -0.0532563
-0.199159 -0.0671744 0.346662 -1 0 0
-0.216664 0.0928038 0.560861 -0.988442 0.145578 -0.0422942
-0.170133 -0.0551799 0.331474 0 0 -1
-0.0240976 0.15848 0.625066 0.0746914 -0.952024 0.296768
0.10313 0.146808 0.438881 -0.258437 -0.940696 -0.219777
0.171008 0.187257 0.0129809 0 -0.65469 0.755897
0.018578 0.187762 0.721624 -0.0154815 -0.958396 0.285022
-0.0192504 0.0418444 0.349374 0 1 0
-0.150757 0.0965297 0.537817 0.264968 -0.925697 0.269958
0.0643334 -0.17032 0.364375 0 0 1
-0.246755 -0.102733 0.533159 -1 0 0
0.0604691 -0.0859831 0.364375 0 0 1
0.225747 -0.190475 0.182995 0.923908 0.378891 -0.0532497
-0.197405 0.0981603 0.582655 -1 0 0
0.195198 0.128272 0.645105 -0.316982 -0.908792 0.27133
0.198281 -0.0632704 0.359207 -1 0 0
-0.155171 0.186826 0.782422 0 -0.173669 -0.984804
0.207044 -0.209183 0.0760664 -0.921878 -0.387288 -0.0121779
-0.202336 0.132026 0.720504 0.515899 -0.822635 0.238997
-0.0148093 0.171321 0.715917 0.0154815 -0.958395 0.285026
0.052968 0.215283 0.78158 0 0.173735 0.984792
0.223534 -0.013825 0.539227 0.923904 0.0333497 0.381168
-0.129743 0.159643 0.679004 0.28531 -0.916354 0.28088
0.180903 0.11188 0.358891 -0.138828 -0.392551 0.909192
-0.0973192 0.150547 0.427796 0.144421 -0.963568 -0.225121
-0.0320667 -0.163442 0.316964 0 0.86158 -0.507621
0.0196966 -0.144158 0.331474 0 0 -1
-0.00339653 -0.222025 0.324284 0 -0.465512 -0.885041
-0.0638437 -0.12894 0.331474 0 0 -1
0.130353 0.171377 0.78573 -0.193493 -0.966161 0.170569
0.205621 0.138306 0.679881 -0.397028 0.881364 -0.25606
-0.201947 0.126048 0.643386 0.397005 0.881373 -0.256063
0.00947447 0.0922693 0.339543 0 -0.396393 0.918081
0.22175 0.0286617 0.539387 0 -0.0871612 -0.996194
0.0590818 0.183301 0.762143 -0.138828 -0.949514 0.281336
-0.0373405 0.137735 0.609343 0.0746821 -0.952024 0.29677
0.145431 -0.104213 0.364375 0 0 1
-0.0857546 0.13589 0.568115 0.0746914 -0.952024 0.296768
-0.14141 0.127722 0.392227 0.0534119 -0.36988 0.927543
0.105931 0.141772 0.647105 -0.245502 -0.929456 0.275392
0.1453 -0.192366 0.362871 0 -0.20467 0.978831
0.104771 0.0731525 0.335156 -0.057389 -0.391511 0.918382
-0.206657 0.134062 0.669236 0.265311 0.925879 -0.268995
0.138516 0.109639 0.573083 -0.28532 -0.916352 0.280876
-0.226014 0.0417013 0.528358 -0.923843 0.03336 0.381315
-0.0853232 0.123496 0.355368 0.0565473 -0.391593 0.918399
-0.207611 -0.183299 0.207391 0.923909 0.378889 -0.0532483
0.203602 0.114723 0.663678 -0.515965 -0.822596 0.238988
0.0392807 -0.172905 0.364375 0 0 1
0.0925844 -0.204568 0.325753 0 0.439239 -0.89837
-0.114935 -0.21036 0.323348 0 0.237688 -0.971342
-0.110722 0.166166 0.683738 0.245497 -0.929456 0.275396
-0.20427 0.108698 0.427221 0.515974 -0.804944 -0.29298
-0.215503 0.106343 0.471243 -0.734224 0.637966 0.232195
-0.176311 0.137848 0.370797 0.27751 -0.94164 -0.190533
0.160171 -0.21312 0.353602 0 -0.579757 0.81479
0.14807 0.135946 0.386694 -0.142921 -0.989734 0
0.108647 0.158347 0.705466 -0.245502 -0.929456 0.275392
-0.0190267 0.164006 0.403863 0.0314574 -0.972501 -0.230764
-0.0361132 0.144283 0.479387 0.0827299 -0.965454 -0.247093
-0.108319 0.132514 0.568734 0.28531 -0.916354 0.28088
0.222866 -0.149344 0.476869 0.379992 -0.803066 0.459011
-0.0850791 0.124811 0.355914 0.0565473 -0.391593 0.918399
-0.219425 -0.10446 0.536902 0 -0.455689 0.890139
0.195818 -0.170188 0.331474 0 0 -1
-0.0566911 0.155392 0.623362 0.0746914 -0.952024 0.296768
-0.0212377 0.18711 0.0128542 0 -0.65469 0.755897
0.123351 0.16147 0.729116 -0.245502 -0.929456 0.275392
0.0804409 0.0418444 0.342588 0 1 0
-0.194627 0.191882 0.00529522 0 0 -1
-0.189462 -0.214632 0.352527 0 -0.579757 0.81479
-0.12322 0.12622 0.563336 0.28531 -0.916354 0.28088
-0.00322017 0.148708 0.408092 0.0314571 -0.9725 -0.23077
0.105789 0.140099 0.363709 -0.0564338 -0.390807 0.918741
0.147945 0.171617 0.785104 -9.44301e-06 -0.173605 -0.984815
0.129363 0.0392892 0.331474 0 0 -1
0.139693 0.118529 0.603282 -0.28532 -0.916352 0.280876
0.0338935 0.166797 0.38737 -0.0311781 -0.963868 -0.26455
-0.161256 0.0637935 0.336217 0.101847 -0.377882 0.920235
-0.198281 -0.150373 0.357083 -1 0 0
0.0786431 0.214814 0.781662 0 0.173735 0.984792
0.0931005 0.157812 0.382765 -0.0185949 -0.471031 0.881921
-0.0276784 0.217595 0.781172 0 0.173735 0.984792
-0.211496 0.137992 0.6864 -0.265453 0.925842 -0.268984
0.210169 -0.156943 0.372515 -0.382802 0.91484 -0.12857
0.207148 -0.0838234 0.0139492 -0.923897 0 0.382642
-0.109523 0.164594 0.727333 0.245497 -0.929457 0.275393
0.206303 0.119949 0.621009 -0.265358 0.925867 -0.268991
-0.144185 0.10327 0.513135 0.25878 -0.930389 -0.259634
0.225608 0.0801253 0.534884 0 -0.0871612 -0.996194
-0.0708104 0.190156 0.0152677 0 0 1
-0.0681357 -0.0380443 0.331474 0 0 -1
-0.177254 0.135507 0.648521 0.28531 -0.916354 0.28088
0.177081 0.151935 0.703196 -0.316982 -0.908792 0.27133
-0.0456693 0.136271 0.559249 0.0746914 -0.952024 0.296768
0.208159 -0.148214 0.476264 -0.922817 -0.33446 0.191168
0.220039 -0.174992 0.43228 0 -0.979846 0.199755
0.000229433 -0.165121 0.3277 0 0.50747 0.861669
0.0347883 0.075242 0.332191 0 -0.396393 0.918081
-0.100533 0.131646 0.359779 0.0565473 -0.391593 0.918399
0.0633086 0.137302 0.566996 -0.0746906 -0.952024 0.296768
-0.119728 0.169867 0.754225 0.245497 -0.929457 0.275393
0.16098 0.16446 0.726449 -0.285313 -0.916353 0.280879
0.200482 0.121455 0.685561 -0.397093 -0.881337 0.25605
-0.224593 0.127229 0.00642058 -0.923852 0 -0.382751
0.216185 0.124387 0.658379 0.988413 0.145762 -0.0423475
0.152472 -0.214535 0.352596 0 -0.579757 0.81479
-0.0517196 0.142468 0.481253 0.0827299 -0.965454 -0.247093
-0.11554 0.129093 0.500112 0.258433 -0.940697 -0.219777
-0.224674 -0.142023 0.467554 -0.922753 0.3346 -0.191234
-0.208957 0.201091 0.0152677 0 0 1
0.198422 0.0586733 0.347203 -1 0 0
-0.0974619 -0.226314 0.336658 0 -0.857659 0.514218
-0.0496736 0.192776 0.741523 0.0746914 -0.952024 0.296768
-0.21603 0.100129 0.594479 -0.899037 -0.420487 0.122163
0.118567 0.0528731 0.331099 0 0 1
-0.20698 -0.100231 0.514164 0.922812 0.199861 -0.329352
-0.165758 0.174987 0.788685 -4.75582e-06 0.173608 0.984815
0.150965 -0.136556 0.364375 0 0 1
-0.0117367 0.125925 0.501428 0.0827299 -0.965452 -0.247099
0.00119184 0.147648 0.412571 -0.0827933 -0.969641 -0.230092
-0.0707884 -0.0860913 0.364375 0 0 1
-0.13307 -0.11329 0.364375 0 0 1
0.100645 -0.0572632 0.364375 0 0 1
0.130379 0.111613 0.494113 -0.258421 -0.940697 -0.219788
0.0479921 0.133862 0.5996 -0.0746813 -0.952024 0.29677
0.119818 -0.102181 0.331474 0 0 -1
0.197063 -0.0426845 0.364375 0 0 1
0.0407938 -0.164302 0.364375 0 0 1
-0.0279806 0.145676 0.417495 0.0314571 -0.9725 -0.23077
-0.0243233 0.15158 0.393114 0.0314571 -0.9725 -0.23077
0.0193586 -0.0234956 0.364375 0 0 1
0.189453 -0.0597682 0.331474 0 0 -1
0.211855 -0.213753 0.0588443 -0.378028 -0.925338 -0.0290587
0.230993 0.0488239 0.545879 0 0.0871529 0.996195
-0.129737 0.175039 0.730631 0.245497 -0.929456 0.275396
0.0143925 0.193226 0.785469 0 0.173658 0.984806
-0.129497 -0.129153 0.364375 0 0 1
-0.0743821 0.162612 0.699866 0.138831 -0.949514 0.281335
-0.220972 -0.134799 0.471158 -0.380197 0.803007 -0.458944
-0.108634 0.188442 0.757057 0.245497 -0.929456 0.275396
0.109517 0.130303 0.391409 -0.0535213 -0.370638 0.927234
0.0288072 0.226157 0.777232 0.048211 0.983668 -0.173416
-0.0329792 0.0735307 0.331452 0 -0.396393 0.918081
-0.0160941 0.160045 0.678072 0.0154815 -0.958395 0.285026
0.12774 0.194831 0.785186 0 0.173658 0.984806
-0.217549 -0.196961 0.213561 -0.382726 -0.914871 0.128574
0.222782 -0.197753 0.0854912 0.382529 0.914952 -0.128586
-0.0721951 0.138664 0.392604 0.0534119 -0.36988 0.927543
0.165353 0.0292027 0.331474 0 0 -1
0.207567 0.190182 0.0149608 -0.923897 0 0.382642
0.210649 0.153974 0.0183838 -0.38268 0 0.923881
-0.108542 0.184582 0.778047 0.0999401 0 0.994993
0.224387 -0.00220574 0.01464 0.923896 0 0.382643
-0.0526062 0.178284 0.695772 0.0746914 -0.952024 0.296768
0.069518 0.201892 0.00571054 0 0.654632 -0.755947
-0.01513 0.181457 0.700234 0.0154815 -0.958396 0.285022
-0.225074 -0.156131 0.415674 -0.923843 0.379047 -0.0532705
0.0642359 0.160712 0.689822 -0.0746813 -0.952024 0.29677
-0.0260934 -0.058384 0.331474 0 0 -1
0.183831 0.069367 0.374303 -0.100609 -0.373288 0.922244
0.0551559 0.131724 0.594544 -0.0746813 -0.952024 0.29677
0.0703154 0.220503 0.776902 0.239402 0.956175 -0.16857
0.214816 0.204575 0.00803425 0 0.654632 -0.755947
0.232411 0.080931 0.534814 0 -0.0871612 -0.996194
0.190802 0.138102 0.672893 -0.316982 -0.908792 0.27133
-0.173559 -0.114101 0.364375 0 0 1
0.162341 0.0764226 0.374815 -0.100609 -0.373288 0.922244
-0.0154886 0.214763 0.781671 0 0.173735 0.984792
-0.225089 -0.0354247 0.0129473 -0.923851 0 0.382752
0.220585 0.0997569 0.613838 0.708619 -0.677575 0.196854
0.193779 0.127296 0.689767 -0.316964 -0.908797 0.271334
0.221248 0.0995434 0.610714 0.708619 -0.677575 0.196854
0.193265 -0.140155 0.364375 0 0 1
0.21824 0.127631 0.64227 0.295583 0.917385 -0.266525
-0.102397 0.0418444 0.358452 0 1 0
0.109452 0.109524 0.541834 -0.264971 -0.925696 0.269957
0.0762524 -0.172346 0.364375 0 0 1
-0.0628269 0.0795599 0.368447 0.0543189 -0.370562 0.927218
-0.223484 0.0275827 0.539481 0 -0.0871612 -0.996194
-0.224759 0.125128 0.666403 -0.964771 0.252644 -0.0733996
-0.224289 0.0954128 0.014878 -0.923851 0 0.382752
-0.180486 0.172677 0.776646 0.316982 -0.908792 0.27133
-0.0329483 0.14868 0.404158 0.0314571 -0.9725 -0.23077
-0.0904248 0.0494428 0.36454 0 0 1
-0.0242429 0.133284 0.543763 0.0731975 -0.955257 0.286577
0.12477 0.160915 0.728507 -0.245502 -0.929456 0.275392
0.203409 0.148952 0.719956 -0.397028 0.881364 -0.25606
0.198281 -0.0338231 0.349824 -1 0 0
0.108143 -0.0547252 0.331474 0 0 -1
-0.080095 -0.214057 0.322443 0 0.237688 -0.971342
-0.101073 -0.110855 0.364375 0 0 1
0.0154737 0.167227 0.702188 -0.0154815 -0.958395 0.285026
0.198422 0.0448547 0.344521 -1 0 0
-0.220281 -0.175182 0.00969566 -0.377887 -0.454517 -0.806608
-0.20494 -0.17138 0.330856 0 -0.250362 0.968152
0.206745 -0.163327 0.364514 -0.923889 0.378938 -0.0532563
0.109131 -0.179322 0.327438 0 -0.861591 0.507603
0.00429605 0.190658 0.00529522 0 0 -1
0.226068 0.00444855 0.00998283 0.923897 0 -0.382642
-0.198281 -0.0698396 0.350322 -1 0 0
-0.198281 -0.213096 0.351567 1 0 0
-0.0772473 0.199671 0.00529522 0 0 -1
-0.0610955 -0.024557 0.364375 0 0 1
-0.0435125 0.189775 0.730345 0.0746914 -0.952024 0.296768
0.20348 0.124855 0.431215 -0.265485 0.905972 0.329747
0.00171075 0.0698243 0.331099 0 0 1
-0.198281 -0.0357929 0.344833 1 0 0
-0.00960838 0.144029 0.623868 0.0154815 -0.958395 0.285026
0.208217 -0.115954 0.498577 -0.922813 0.275947 -0.268831
0.172702 0.0646041 0.337816 -0.101847 -0.377882 0.920235
0.207588 -0.0482174 0.53843 -0.922778 -0.0151391 0.385033
0.0357366 -0.0710494 0.364375 0 0 1
-0.215011 0.114614 0.421499 -0.898969 -0.411599 -0.149804
0.198032 0.143043 0.728389 -0.988442 0.145583 -0.0422955
-0.142687 0.163542 0.374656 -0.216882 0.917435 0.33358
0.205629 -0.100123 0.53781 -1 0 0
0.0900846 0.124395 0.481005 -0.144406 -0.963568 -0.225132
0.169091 -0.165396 0.364375 0 0 1
0.195941 0.14645 0.764555 -0.397093 -0.881337 0.25605
0.218286 0.0229431 0.0195787 0.382636 0 0.923899
-0.127586 0.175166 0.779114 0.245497 -0.929457 0.275393
-0.0212485 0.186123 0.0119987 0 -0.65469 0.755897
0.0149214 0.167441 0.653096 -0.0154815 -0.958396 0.285022
-0.196053 0.112969 0.594847 0.316982 -0.908792 0.27133
-0.218668 -0.191536 0.117489 -0.382619 0.914915 -0.12858
0.0556389 0.165707 0.656186 -0.0746906 -0.952024 0.296768
0.24571 -0.062258 0.551556 0 -0.246389 0.969171
-0.0392467 -0.0788637 0.364375 0 0 1
0.115091 -0.028196 0.364375 0 0 1
0.102097 0.202287 0.779696 0 -0.173683 -0.984802
-0.0317966 -0.138299 0.331474 0 0 -1
0.206311 0.187997 0.00863535 -0.923897 0 -0.382641
-0.108178 0.155163 0.694301 0.245497 -0.929457 0.275393
-0.0155014 0.0418444 0.358522 0 1 0
0.0393061 -0.16451 0.32734 0 0.50747 0.861669
0.0438025 0.211061 0.778148 0 -0.173683 -0.984802
-0.19496 -0.202789 0.360691 0 -0.20467 0.978831
-0.148913 -0.205483 0.359036 0 -0.579757 0.81479
-0.195289 0.16035 0.752651 0.316982 -0.908792 0.27133
-0.123769 -0.171327 0.33087 0 -0.250362 0.968152
0.0663489 0.190888 0.741369 -0.138809 -0.949515 0.28134
-0.199159 -0.12994 0.334064 -1 0 0
-0.198281 -0.0251698 0.356057 1 0 0
-0.0189204 -0.0845003 0.331474 0 0 -1
-0.207324 -0.168233 0.329533 0 0.50747 0.861669
-0.0352152 0.120016 0.55182 0.074784 -0.957322 0.27918
0.0305324 -0.173351 0.310725 0 0.25033 -0.96816
-0.212886 -0.0586525 0.552106 0 -0.0247834 0.999693
0.223964 0.138619 0.731164 0.964714 -0.252847 0.073459
-0.20563 0.057841 0.542436 1 0 0
-0.0610302 0.146674 0.403854 0.0827299 -0.965452 -0.247099
-0.104267 0.0255655 0.331474 0 0 -1
-0.215363 -0.194283 0.0586169 0.377972 0.861994 0.337793
-0.198281 0.0113953 0.333365 -1 0 0
-0.165053 0.105095 0.386307 0.12357 -0.349406 0.928787
-0.198281 -0.00847593 0.357335 -1 0 0
-0.0303207 0.0559772 0.36454 0 0 1
-0.0253177 0.13487 0.549331 0.0747934 -0.957321 0.279181
-0.146101 0.144094 0.693194 0.285317 -0.916353 0.280877
-0.216189 0.196166 0.0204482 -0.382725 0 0.923862
0.0827587 -0.0168672 0.364375 0 0 1
0.212706 0.111276 0.664378 -0.170005 -0.946314 0.274931
-0.219939 -0.193747 0.105539 -0.382619 0.914915 -0.12858
0.221356 0.151458 0.732934 0.708547 0.677644 -0.196874
-0.117909 -0.214735 0.352454 0 -0.579757 0.81479
-0.224017 -0.0878491 0.54505 0 -0.246389 0.969171
-0.211251 -0.201916 0.169305 0.382636 -0.914908 0.128585
0.222077 -0.18578 0.279633 0.382849 -0.91482 0.128572
0.139681 0.0994844 0.348515 -0.0564338 -0.390807 0.918741
0.198281 0.00379164 0.34665 1 0 0
0.209363 0.158535 0.791107 9.37066e-05 0.279021 0.960285
-0.210873 0.148446 0.71003 0.170095 0.946301 -0.274923
-0.0133872 -0.061016 0.331474 0 0 -1
0.152344 -0.0437252 0.331474 0 0 -1
-0.0219624 0.0418444 0.33172 0 1 0
0.049811 0.141672 0.423094 -0.0311778 -0.963866 -0.264556
-0.225501 -0.138175 0.51237 0 -0.642078 0.766639
0.0869578 0.164633 0.662925 -0.138809 -0.949515 0.28134
-0.214084 -0.0557036 0.523983 0.380127 0.0363116 -0.924221
0.199159 -0.0134479 0.336933 1 0 0
0.245258 0.0672257 0.544269 0 0.0871529 0.996195
-0.223587 -0.157229 0.435849 0 0.139225 0.990261
0.219197 0.0312858 0.539157 0 -0.0871612 -0.996194
0.197404 0.158547 0.78911 1 0 0
0.221685 0.134151 0.67455 0.708547 0.677644 -0.196874
-0.0854916 0.216988 0.778513 -0.239395 0.956176 -0.168573
-0.118268 -0.120518 0.364375 0 0 1
0.218927 0.14976 0.719197 0.295583 0.917385 -0.266525
-0.036482 0.136583 0.390393 0 -0.375195 0.926946
-0.208491 -0.184061 0.186708 0.923909 0.378889 -0.0532483
0.0493354 0.104994 0.377818 -0.0535213 -0.370638 0.927234
-0.118287 0.177048 0.727205 0.245497 -0.929456 0.275396
-0.0924682 0.205738 0.0115212 0 0.654626 0.755953
0.205899 -0.158776 0.41158 -0.923889 0.378938 -0.0532563
-0.158498 -0.071399 0.364375 0 0 1
-0.079615 0.143957 0.592448 0.0746914 -0.952024 0.296768
-0.214587 -0.208691 0.131021 0.382636 -0.914908 0.128585
0.213059 -0.19467 0.226244 -0.382893 -0.914802 0.128565
0.216233 0.119436 0.429437 0.988412 0.142642 0.0519162
0.198281 -0.0499529 0.340575 1 0 0
0.208697 -0.200897 0.168955 -0.382681 -0.914889 0.128582
0.171201 -0.0166269 0.364375 0 0 1
0.129862 0.107092 0.555688 -0.288293 -0.941533 0.174366
-0.0649073 0.152328 0.37868 0.105907 -0.960234 -0.258331
0.072317 -0.0725522 0.331474 0 0 -1
0.199159 0.0378471 0.346779 1 0 0
0.208285 -0.172633 0.363734 -0.923872 -0.378976 0.0532628
0.105303 0.0887362 0.374575 -0.0541868 -0.369665 0.927584
0.208155 0.0261098 0.523167 -0.923889 -0.0333529 -0.381204
0.115141 0.177151 0.774721 -0.245502 -0.929456 0.275392
-0.159218 0.135341 0.629659 0.28531 -0.916354 0.28088
-0.151414 0.111442 0.532795 0.262394 -0.944842 -0.196015
0.0792804 0.126168 0.582791 -0.0746813 -0.952024 0.29677
-0.0545072 0.159363 0.63555 0.0746914 -0.952024 0.296768
-0.0794409 0.11547 0.383772 0.0543189 -0.370562 0.927218
-0.198281 -0.114212 0.335427 1 0 0
-0.213096 0.0133104 0.539559 0.38266 0.0805266 0.920373
-0.198281 -0.178479 0.361228 -1 0 0
0.20658 -0.149804 0.449921 -0.922794 0.371726 -0.10135
0.216854 -0.0733823 0.548728 0 -0.246389 0.969171
-0.0398702 0.182347 0.705598 0.0746914 -0.952024 0.296768
0.221073 0.108007 0.582358 0.708539 0.677652 -0.196876
-0.023653 0.189139 0.774812 0 0 1
0.210215 0.14716 0.716694 0.265405 0.925854 -0.268988
-0.221067 -0.0977235 0.00213567 -0.382734 0 -0.923859
-0.20859 0.123178 0.0174274 0.923897 0 0.382642
0.21388 -0.163605 0.314062 -0.382574 0.914933 -0.128588
0.0980616 0.147646 0.439737 -0.144418 -0.963568 -0.225121
-0.0633447 -0.154745 0.364375 0 0 1
0.155098 0.107306 0.509663 0.839074 0 -0.544017
0.07479 0.132198 0.55346 -0.074753 -0.955146 0.286544
-0.224339 -0.0428675 0.544322 0 0.0247725 -0.999693
0.20672 -0.0479972 0.531128 -0.922816 0.0151102 -0.384945
0.0280613 -0.114911 0.364375 0 0 1
0.011581 -0.15084 0.364375 0 0 1
-0.182324 -0.013888 0.331474 0 0 -1
0.10885 0.0703137 0.36744 -0.0541868 -0.369665 0.927584
0.185999 0.101027 0.59322 -0.28532 -0.916352 0.280876
0.111258 0.131749 0.569226 -0.285313 -0.916353 0.280879
-0.118276 0.148646 0.63148 0.28531 -0.916354 0.28088
-0.0371239 -0.0346786 0.331474 0 0 -1
0.207721 0.123349 0.388657 0.139143 -0.906016 -0.399717
0.209428 0.152372 0.724439 -0.170095 0.946301 -0.274923
-0.204884 0.0899169 0.534384 1.75114e-05 0.279039 0.96028
0.205899 -0.126862 0.521845 0 -0.642078 0.766639
-0.210409 -0.0100895 0.0182837 0.382635 0 0.9239
-0.145794 0.120771 0.500156 0.258433 -0.940697 -0.219777
0.131125 -0.210573 0.355415 0 -0.579757 0.81479
0.195827 0.124498 0.654384 -1 0 0
0.198281 -0.0152997 0.340461 1 0 0
-0.0945867 0.133784 0.612543 0.138831 -0.949514 0.281335
0.205629 0.0367683 0.545547 -1 0 0
0.107761 0.146463 0.6146 -0.245501 -0.929455 0.275396
-0.210315 0.176347 0.0182451 0.382635 0 0.9239
-0.240296 -0.160548 0.460067 0 0.910908 -0.41261
-0.170988 0.050425 0.365235 0.100609 -0.373288 0.922244
0.211094 0.0220446 0.00199469 -0.382688 0 -0.923878
-0.197595 0.105766 0.627083 0.397063 -0.88135 0.256054
-0.0336688 -0.193537 0.362626 0 -0.20467 0.978831
0.0769564 -0.166565 0.364375 0 0 1
-0.0822927 0.0419976 0.331099 0 0 1
0.210756 -0.201011 0.174272 -0.382681 -0.914889 0.128582
-0.150653 -0.170448 0.330837 0 0.50747 0.861669
0.211522 -0.0317614 0.53684 0 -0.99621 0.0869815
-0.115005 0.0825889 0.339794 0.0572535 -0.390582 0.918786
-0.0827543 0.191915 0.752927 0.138812 -0.949515 0.28134
-0.0640551 0.213789 0.781843 0 0.173735 0.984792
0.0205418 0.141931 0.429697 -0.0827933 -0.969641 -0.230092
-0.0288924 0.197325 0.754338 0.0154815 -0.958396 0.285022
-0.220971 -0.112801 0.532632 0 -0.455689 0.890139
-0.219827 -0.17124 0.450684 0 -0.979846 0.199755
-0.0681803 0.179088 0.702446 0.138812 -0.949515 0.28134
-0.208996 -0.091151 0.514851 0.37998 0.479869 -0.790785
0.0532286 -0.177706 0.331474 0 0 -1
0.0836791 -0.057269 0.331474 0 0 -1
0.0290489 0.152375 0.654223 -0.0746813 -0.952024 0.29677
-0.103174 -0.14783 0.331474 0 0 -1
-0.122596 0.176393 0.728836 0.245497 -0.929456 0.275396
0.109395 -0.0374413 0.331474 0 0 -1
-0.0640785 0.173212 0.383407 -0.109869 0.598805 0.793323
0.089032 0.150564 0.666434 -0.138828 -0.949514 0.281336
-0.12027 0.150303 0.688679 0.245497 -0.929457 0.275393
-0.174404 0.158897 0.772976 0.316964 -0.908797 0.271334
-0.161011 -0.175661 0.311859 0 -0.507412 -0.861704
-0.180112 -0.0752437 0.364375 0 0 1
-0.195827 0.122903 0.660884 1 0 0
-0.211008 -0.186936 0.156606 0.382529 0.914951 -0.128591
-0.199159 -0.061905 0.348463 -1 0 0
-0.184035 0.00199653 0.364375 0 0 1
-0.198114 0.143395 0.727718 0.988441 0.145586 -0.0422963
-0.0837239 0.127192 0.538653 0.0747934 -0.957321 0.279181
-0.102298 0.144795 0.448477 0.258433 -0.940697 -0.219777
-0.0219308 0.204983 0.00838795 0 0.654632 -0.755947
-0.0603604 -0.128335 0.364375 0 0 1
-0.235955 0.0702069 0.544008 0 0.0871528 0.996195
0.0761979 0.179146 0.756565 -0.138828 -0.949514 0.281336
-0.217564 -0.145634 0.020011 -0.377943 0.157583 0.912319
-0.195827 0.125135 0.654914 1 0 0
-0.207176 0.150023 0.0140135 0.923897 0 0.382642
0.223203 -0.111221 0.0174975 0.923896 0 0.382643
-0.103575 0.178821 0.783834 3.55848e-06 -0.173599 -0.984816
0.169159 0.118967 0.586339 -0.285313 -0.916353 0.280879
-0.205952 -0.0734417 0.528686 0.922814 0.111035 -0.368897
0.0055311 -0.168578 0.329736 0 0.50747 0.861669
0.223033 -0.134529 0.00295013 0.382644 0 -0.923896
-0.171372 -0.00350007 0.364375 0 0 1
0.135391 -0.226951 0.331328 0 -0.935105 -0.35437
-0.136293 0.187174 0.777431 0.245497 -0.929456 0.275396
-0.173434 -0.211083 0.323171 0 0.237688 -0.971342
-0.0171824 0.119705 0.524833 0.0828154 -0.971056 -0.224034
0.226187 -0.14697 0.0106563 0.921883 0.0659524 0.381813
0.207761 -0.0104184 0.00513252 -0.923897 0 -0.382641
0.181912 0.144677 0.734119 -0.316964 -0.908797 0.271334
-0.215182 0.113481 0.670347 -0.295492 -0.917412 0.266534
0.1824 0.00575331 0.364375 0 0 1
-0.153409 0.0458857 0.36454 0 0 1
-0.012271 -0.211452 0.323081 0 0.237688 -0.971342
0.099488 0.16457 0.668896 -0.138809 -0.949515 0.28134
-0.165816 0.0932658 0.529764 0.262401 -0.944828 -0.196075
-0.183367 0.110413 0.572863 0.28531 -0.916354 0.28088
-0.195827 0.14028 0.740425 1 0 0
-0.135731 0.144255 0.634885 0.28531 -0.916354 0.28088
-0.215318 0.0869233 0.499421 -0.899049 -0.411442 -0.149755
0.198281 0.0280198 0.361276 -1 0 0
-0.106309 -0.227216 0.335153 0 -0.857659 0.514218
-0.209028 0.109169 0.584758 -0.26547 0.925837 -0.268982
0.0940164 0.158021 0.644093 -0.138809 -0.949515 0.28134
0.0635587 -0.00731261 0.364375 0 0 1
0.102492 0.192935 0.766744 -0.245501 -0.929455 0.275396
-0.198281 0.0217556 0.357988 1 0 0
0.114515 -0.0419188 0.331474 0 0 -1
-0.0822591 -0.0666344 0.331474 0 0 -1
-0.13698 0.102602 0.523708 0.266111 -0.939264 -0.216719
-0.0449721 0.139179 0.615898 0.0746821 -0.952024 0.29677
0.0448096 0.177066 0.377015 0.0367217 0.974816 -0.219966
-0.199159 -0.0514891 0.342808 -1 0 0
-0.169586 -0.140205 0.364375 0 0 1
0.0342336 0.151777 0.388115 -0.0311778 -0.963866 -0.264556
0.157567 0.115074 0.561864 -0.285313 -0.916353 0.280879
0.231384 -0.10542 0.53641 0 -0.455689 0.890139
0.2125 -0.0321034 0.532927 0 -0.996195 0.0871561
-0.0372116 0.206272 0.778993 0 -0.173683 -0.984802
-0.216015 0.109501 0.626848 -0.899037 -0.420487 0.122163
0.240753 -0.0841376 0.545994 0 -0.246389 0.969171
-0.0146811 0.131037 0.582155 0.0746821 -0.952024 0.29677
0.191829 0.150034 0.714057 -0.316982 -0.908792 0.27133
-0.164447 0.134874 0.681751 0.285317 -0.916353 0.280877
-0.106662 -0.121766 0.364375 0 0 1
-0.198281 -0.0951462 0.336916 1 0 0
0.0528734 0.154931 0.668416 -0.0746813 -0.952024 0.29677
-0.216 0.120595 0.665144 -0.899036 -0.420488 0.122163
0.2104 -0.0315042 0.539786 0 -0.99621 0.0869815
-0.167351 0.141603 0.706811 0.316964 -0.908797 0.271334
0.215781 0.0948805 0.605658 0.295484 -0.917415 0.266533
-0.0973964 0.195857 0.777106 0.0492717 0 0.998785
0.109783 0.111009 0.54725 -0.264971 -0.925696 0.269957
0.107834 0.0220268 0.331474 0 0 -1
-0.0602604 0.124949 0.574095 0.0746821 -0.952024 0.29677
0.0265373 0.0418444 0.336487 0 1 0
0.14097 0.0224812 0.331474 0 0 -1
0.223504 -0.133701 0.49847 0.922811 -0.275963 0.268819
0.212162 -0.198141 0.198875 -0.382681 -0.914889 0.128582
0.0769852 0.198148 0.784602 0 0.173658 0.984806
0.207065 -0.0513529 0.537053 -0.922778 -0.0151391 0.385033
0.206328 0.117642 0.681505 -0.397125 -0.881323 0.256048
-0.068731 -0.0615535 0.364375 0 0 1
0.0424081 0.00672611 0.331474 0 0 -1
-0.151318 0.201748 0.00558633 0 0.654632 -0.755947
-0.18242 -0.0801128 0.364375 0 0 1
0.199159 -0.0921594 0.34009 1 0 0
0.187485 0.16052 0.744103 -0.316982 -0.908792 0.27133
0.118233 0.12896 0.497513 -0.258437 -0.940696 -0.219777
-0.205721 -0.13741 0.0105016 0.923897 0 0.382642
0.211238 -0.18995 0.254411 -0.382681 -0.914889 0.128582
0.192322 0.125419 0.681777 -0.316964 -0.908797 0.271334
0.179338 0.110179 0.616313 -0.28532 -0.916352 0.280876
-0.21639 -0.0736041 0.0203647 -0.382725 0 0.923862
-0.00780191 0.199165 0.00529522 0 0 -1
-0.120713 -0.16464 0.314932 0 0.86158 -0.507621
0.209369 -0.121406 0.512629 -0.379971 -0.662593 0.64544
-0.0605488 0.0187032 0.364375 0 0 1
0.108241 -0.195935 0.329608 0 0.159004 -0.987278
-0.216725 -0.0906187 0.512242 -0.380071 0.479866 -0.790743
-0.00134244 0.172013 0.372529 0.0314574 -0.972501 -0.230764
0.233215 -0.0892998 0.544663 0 -0.455689 0.890139
0.0205666 0.154588 0.61169 -0.0746906 -0.952024 0.296768
0.0543525 0.154748 0.37401 -0.144406 -0.963568 -0.225132
0.0262363 0.177455 0.687381 -0.0154815 -0.958396 0.285022
0.186348 -0.179245 0.327567 0 -0.861591 0.507603
0.0748749 0.137891 0.392442 -0.0535213 -0.370638 0.927234
0.0274278 0.179659 0.694858 -0.0154815 -0.958396 0.285022
0.0736155 0.160666 0.399692 -0.144418 -0.963568 -0.225121
-0.0883911 0.130076 0.549791 0.0747934 -0.957321 0.279181
0.199159 -0.0291131 0.357883 1 0 0
0.123766 -0.118064 0.331474 0 0 -1
0.0903377 0.142175 0.589429 -0.0746906 -0.952024 0.296768
0.0863676 0.193465 0.759943 -0.138809 -0.949515 0.28134
-0.221728 -0.161265 0.458483 0 0.910908 -0.41261
0.0138323 0.1241 0.559689 -0.0746813 -0.952024 0.29677
0.0950816 0.132063 0.606978 -0.138828 -0.949514 0.281336
0.00842634 0.206778 0.00994246 0 0.654632 -0.755947
0.125337 -0.000963721 0.331474 0 0 -1
0.212104 0.0687624 0.535878 0 -0.0871612 -0.996194
0.132541 0.133574 0.596798 -0.285313 -0.916353 0.280879
-0.142902 0.132177 0.602763 0.28531 -0.916354 0.28088
-0.190122 -0.061086 0.364375 0 0 1
0.077898 0.126454 0.583363 -0.0746813 -0.952024 0.29677
-0.211162 0.12731 0.649305 -0.265453 0.925842 -0.268984
-0.219026 0.0651878 0.544447 0 0.0871528 0.996195
0.0675705 -0.174275 0.331474 0 0 -1
-0.0839715 0.184079 0.727081 0.138812 -0.949515 0.28134
0.0159758 -0.21409 0.322435 0 0.237688 -0.971342
0.0655768 0.185201 0.721793 -0.138809 -0.949515 0.28134
-0.152243 0.111454 0.531629 0.262394 -0.944842 -0.196015
-0.198281 -0.181761 0.339327 -1 0 0
0.140255 0.159281 0.736805 -0.28532 -0.916352 0.280876
0.183583 0.114629 0.392359 -0.12357 -0.349406 0.928787
0.0240548 -0.206788 0.324668 0 0.439239 -0.89837
0.173127 0.120605 0.393216 -0.12357 -0.349406 0.928787
-0.131832 0.190968 0.0152677 0 0 1
0.14284 0.159241 0.690998 -0.285313 -0.916353 0.280879
0.0149879 0.132904 0.469738 -0.0827933 -0.969641 -0.230092
0.0532139 -0.0781715 0.364375 0 0 1
-0.199159 -0.0770927 0.362862 -1 0 0
-0.220344 -0.154355 0.473739 0 0.910908 -0.41261
0.199159 -0.0539356 0.350835 1 0 0
0.0965016 0.036113 0.364375 0 0 1
-0.0240488 0.141627 0.392434 0 -0.375195 0.926946
0.223196 -0.0943038 0.513151 0.922812 0.199861 -0.329354
0.00984031 0.0815888 0.334931 0 -0.396393 0.918081
-0.195518 0.10383 0.6132 0.316964 -0.908797 0.271334
-0.00470158 -0.174584 0.311225 0 -0.507412 -0.861704
-0.129678 -0.0373823 0.364375 0 0 1
-0.175013 0.138922 0.657387 0.28531 -0.916354 0.28088
-0.0109232 0.052116 0.331099 0 0 1
-0.00115748 0.0833214 0.368834 0 -0.375195 0.926946
-0.108084 0.0359175 0.364375 0 0 1
0.112913 0.14329 0.658451 -0.245502 -0.929456 0.275392
-0.169816 0.155583 0.706926 0.316982 -0.908792 0.27133
0.0559648 -0.179208 0.327632 0 -0.861591 0.507603
-0.0796884 0.0148256 0.364375 0 0 1
0.206508 -0.167203 0.371548 -0.923872 -0.378976 0.0532628
0.00336225 0.205816 0.779073 0 -0.173683 -0.984802
0.100692 0.127959 0.458946 -0.144406 -0.963568 -0.225132
0.0760549 0.0810098 0.369787 -0.0541868 -0.369665 0.927584
-0.183204 0.159527 0.787235 6.89772e-06 -0.173646 -0.984808
0.04324 0.108499 0.34655 0 -0.396393 0.918081
-0.168892 0.165441 0.738865 0.316982 -0.908792 0.27133
0.0817218 0.151856 0.618319 -0.0746906 -0.952024 0.296768
0.206869 -0.166026 0.343168 -0.923889 0.378938 -0.0532563
0.198281 -0.133349 0.335808 1 0 0
-0.0896647 0.128987 0.5464 0.0747934 -0.957321 0.279181
0.206717 0.116061 0.00765484 -0.923897 0 -0.382641
-0.0665214 0.191157 0.00529522 0 0 -1
0.153902 -0.220797 0.345859 0 -0.857659 0.514218
0.141882 0.182044 0.781396 -0.0999421 0 0.994993
0.103723 0.19482 0.781013 0 -0.173669 -0.984804
0.206701 0.122653 0.624328 -0.397028 0.881364 -0.25606
-0.0514935 0.144766 0.472351 0.0827299 -0.965454 -0.247093
0.218858 -0.08693 0.515506 0.379922 0.479881 -0.790806
-0.213158 -0.169842 0.403196 0.382849 -0.914821 0.128567
0.224602 -0.162336 0.363348 0.923888 0.378939 -0.0532554
-0.128015 0.067313 0.367366 0.0534119 -0.36988 0.927543
0.179401 0.0413407 0.331099 0 0 1
-0.244059 -0.154228 0.491506 0 -0.79647 0.604678
-0.133447 0.163467 0.69524 0.28531 -0.916354 0.28088
-0.209895 -0.174926 0.357308 0.382636 -0.914908 0.128585
0.0658056 0.0445041 0.331099 0 0 1
0.0850357 0.0258502 0.364375 0 0 1
-0.198281 -0.173398 0.351198 -1 0 0
0.0170239 -0.227277 0.332187 0 -0.935105 -0.35437
-0.246755 -0.0656398 0.542859 -1 0 0
-0.186062 0.0442169 0.36454 0 0 1
0.196042 0.0998933 0.562517 -0.397034 0.881361 -0.256059
