-0.216816 0.0804122 0.509187 0.999999 0.00172497 1.4312e-05
0.245712 0.139542 0.528882 0.707117 0.00122323 -0.707095
0.230682 -0.227789 0.263185 0.00171311 -0.999304 0.0372753
0.217013 -0.208275 0.0258816 -0.999998 -0.00173901 8.24745e-07
-0.0619645 0.165426 0.378716 0 0 1
0.0379817 -0.227302 0.414529 0 0 1
0.21703 -0.217996 0.350802 0.999999 0.00170349 2.10938e-05
0.247381 0.177656 0.281056 0.708316 -0.700173 -0.0896982
-0.25377 0.187632 0.290438 -0.00170045 0.99192 0.126853
-0.0833029 0.209511 0.646665 0.198273 -0.943124 0.266841
-0.226896 0.215005 0.0767506 -0.00170034 0.99192 0.126853
-0.251548 0.176316 0.312664 -0.705904 -0.702605 -0.0896992
0.23314 -0.233614 0.106921 0.00171311 -0.999304 0.0372753
0.230772 -0.194703 0.542557 0 0 -1
0.237425 0.184895 0.145932 0.708316 -0.700173 -0.0896982
-0.166169 0.172471 0.410856 0.00174915 -0.993497 -0.113845
-0.243195 0.0208103 0.542557 0 0 -1
-0.216746 0.0395593 0.524991 0.999999 0.00172497 1.4312e-05
0.118102 -0.22703 0.411712 0.00172595 -0.999999 0
-0.235278 -0.201122 0.355108 -0.708326 0.705393 -0.026357
-0.0682226 0.198064 0.600371 0.198445 -0.926454 0.319848
0.221723 -0.193883 0.14668 0.705872 0.707849 -0.0263569
-0.216354 -0.187693 0.530156 0.999999 0.00172651 8.43315e-07
0.221082 -0.215837 0 0 0 -1
0.252744 0.156083 0.4918 0.708316 -0.700173 -0.0896982
0.212903 0.103361 0.40877 0.95936 0.00165238 0.282181
-0.00729387 -0.204327 0.33395 0 0 -1
0.18624 0.145558 0.352984 0.00171179 -0.990341 -0.138643
0.00360852 0.16276 0.406732 0.00169072 -0.992276 -0.124038
0.211317 0.155467 0.589278 -0.389483 -0.919886 0.0459639
0.198261 -0.226893 0.411419 0.00170569 -0.999999 0.000234952
0.0871815 -0.0951536 0.378716 0 0 -1
-0.0818717 0.144352 0.358294 0.00170951 -0.990338 -0.138664
-0.0357759 0.170222 0.43614 0.00174164 -0.999998 0
-0.217618 0.144692 0.378323 -0.887209 -0.00153126 -0.461364
0.196386 -0.12136 0.378716 0 0 -1
-0.155061 0.168431 0.602783 0.373671 -0.912982 0.163812
-0.110512 0.0422796 0.414529 0 0 1
-0.253017 -0.219831 0.331099 -0.708326 0.705393 -0.026357
0.0612142 -0.00460191 0.414529 0 0 1
0.216308 0.200462 0.0412258 -0.999999 -0.0017262 -5.73813e-07
-0.134525 0.175661 0.383488 0.00169926 -0.993498 -0.113834
0.216498 0.0905564 0.523931 -0.999999 -0.00172497 1.19612e-05
0.037148 -0.22492 0.378716 0 0 -1
-0.149928 -0.227493 0.385667 0.00172595 -0.999999 0
0.0408778 0.222257 0.660029 -0.137132 -0.945972 0.293821
-0.0759909 0.145477 0.350326 0.00170951 -0.990338 -0.138664
-0.255491 0.18305 0.323451 -0.999998 -0.00177639 -7.84511e-06
-0.0831022 0.159797 0.518305 0.148536 -0.95528 0.255689
-0.133607 -0.239669 0.400788 0.00165454 -0.95936 0.282181
-0.0824834 -0.227377 0.40133 0.00172595 -0.999999 0
0.239959 0.129877 0.542557 0 0 1
0.139833 -0.136832 0.378716 0 0 -1
-0.220037 -0.192805 0.189103 -0.00156365 0.999304 -0.0372733
-0.189925 0.0623476 0.365124 0.999999 0.00172588 0
0.000136256 -0.20188 0.33395 0 0 -1
0.217005 -0.203442 0.0173703 -0.999998 -0.00173901 8.24745e-07
0.0457807 0.170363 0.439622 0.00170387 -0.999999 0
0.0427952 0.153878 0.33395 0 0 -1
0.254333 0.186025 0.30984 -0.00170084 0.99192 0.126853
0.221146 -0.189626 0.253928 -0.00178609 0.999304 -0.0372733
-0.0453912 0.171085 0.541057 0.0670282 -0.963832 0.257943
-0.109325 -0.229 0.378716 0 0 -1
0.126241 -0.191433 0.414529 0 0 1
0.183992 0.164192 0.485841 -0.0650932 -0.985351 -0.157628
-0.216939 0.151816 0.406001 0.999999 0.00173785 2.97279e-06
0.237356 -0.184923 0.519964 0.7071 0.00121972 -0.707112
-0.104664 0.126786 0.378716 0 0 -1
-0.2537 0.0124823 0.542557 0 0 1
-0.00349434 0.239757 0.71221 0.0629975 -0.965495 0.252685
0.242907 -0.0573317 0.525736 0.707117 0.00122323 -0.707095
0.209297 -0.171746 0.379496 0.51455 0.000886251 -0.85746
0.211886 -0.148203 0.378716 0 0 1
0.219197 -0.096445 0.542557 0 0 -1
-0.189293 0.1652 0.384551 0.00172824 -0.992278 -0.124026
-0.216332 -0.200042 0.0638385 0.999998 0.00172531 -3.10334e-07
-0.0295141 0.168969 0.397876 -0.00165689 0.959377 0.282122
0.216482 -0.0488151 0.3765 0.887218 0.00153127 -0.461348
-0.0400226 0.167508 0.402783 -0.00165689 0.959377 0.282122
-0.216877 0.1155 0.540957 0.999999 0.00172651 8.43315e-07
0.22051 0.13228 0.426163 0.00154804 -0.99192 -0.126852
0.0448328 0.220173 0.655164 -0.137132 -0.945972 0.293821
-0.14859 -0.0141598 0.414529 0 0 1
-0.216838 0.0930159 0.520353 0.999999 0.00172497 1.4312e-05
0.119952 -0.117717 0.414529 0 0 1
-0.216481 -0.113639 0.529177 0.999999 0.00172651 8.43315e-07
-0.0678535 0.148929 0.414529 0 0 1
-0.248451 -0.223143 0.409943 0.00173903 -0.999304 0.0372752
-0.0480545 0.159458 0.471738 0.00172274 -0.999999 0
-0.0434048 0.172497 0.349586 -0.00170951 0.990341 0.138643
-0.113458 0.142443 0.371536 0.00171179 -0.990341 -0.138643
0.0151125 -0.194542 0.378716 0 0 -1
0.243941 0.154027 0.438338 0.70831 -0.700179 -0.0896982
0.0127201 0.192562 0.570713 0.0015588 -0.904819 0.425793
0.189919 -0.0720956 0.340937 -0.999999 -0.00172589 0
0.0663048 0.117653 0.414529 0 0 1
0.197118 0.103847 0.378716 0 0 1
0.216995 -0.197606 0.135425 -0.999998 -0.00173901 8.24745e-07
-0.211958 0.103441 0.412095 -0.51455 -0.000887592 0.85746
-0.216688 0.00606817 0.517866 0.999999 0.00172497 1.4312e-05
0.159573 0.164561 0.58978 -0.370504 -0.914268 0.163834
0.219133 0.134711 0.407139 0.00177125 -0.99192 -0.126854
-0.194489 0.105615 0.414529 0 0 1
-0.149745 0.17206 0.414685 0.00171657 -0.993497 -0.113845
0.115638 -0.197439 0.414529 0 0 1
-0.235515 -0.212124 0.0670079 -0.708334 0.705385 -0.0263556
0.0571891 0.0163802 0.414529 0 0 1
-0.0242216 0.0162268 0.378716 0 0 -1
0.219614 -0.217413 0.541866 0.00171313 -0.999304 0.0372752
-0.166096 0.165381 0.550925 0.0692952 -0.99618 0.0531323
-0.21657 -0.0623145 0.541345 0.999999 0.00172651 8.43315e-07
-0.106267 0.155776 0.410403 -0.00172594 0.999999 0
0.246412 -0.212556 0.306394 0.705884 0.707837 -0.0263581
-0.201613 0.178039 0.706478 0.487426 -0.83448 0.257017
-0.216515 -0.0941489 0.511897 0.999999 0.00172497 1.4312e-05
-0.19614 0.0542664 0.337321 -0.88721 -0.00153122 -0.461364
0.213197 -0.131357 0.384101 0.959355 0.00165237 -0.282197
0.146467 -0.0778117 0.414529 0 0 1
-0.223151 0.0429351 0.542557 0 0 -1
-0.0566936 0.217433 0.675202 0.122008 -0.947823 0.294525
-0.2017 0.170127 0.364559 -0.00170951 0.990341 0.138643
0.114895 -0.052888 0.414529 0 0 1
-0.21991 0.154588 0.641332 0.263566 -0.95985 -0.096026
-0.217015 0.195534 0.17386 0.999999 0.00173785 2.97279e-06
0.139695 -0.226993 0.383967 -0.00172463 0.999999 0
-0.0108732 -0.227253 0.396051 -0.00172463 0.999999 0
0.145823 0.15621 0.378995 0.00172459 -0.999999 0
0.230162 0.140849 0.601139 0.00174953 -0.998751 -0.0499342
-0.216286 -0.226592 0.243056 0.999998 0.00173897 1.58014e-07
-0.170064 0.187848 0.693535 0.470382 -0.831177 0.296457
-0.254838 -0.1959 0.54708 -0.999999 -0.00172594 0
-0.0356145 0.0211487 0.378716 0 0 -1
0.24527 0.172453 0.415848 -0.00170084 0.99192 0.126853
0.0561349 0.0980825 0.378716 0 0 -1
-0.0711158 -0.169553 0.414529 0 0 1
0.111014 -0.223866 0.346226 0.00172247 -0.9992 0.0399536
-0.241672 0.0190544 0.548825 0 0 1
-0.00743087 -0.187594 0.36282 -0.00172247 0.999199 -0.0399761
-0.215199 0.155588 0.401319 -0.00163213 0.999999 2.10259e-05
-0.061208 0.169687 0.494998 0.0692451 -0.996019 -0.0561331
-0.233355 -0.103707 0.542557 0 0 1
-0.143481 -0.186426 0.414529 0 0 1
0.158703 0.172442 0.416003 0.00173365 -0.993498 -0.113834
0.113209 0.0981994 0.414529 0 0 1
0.245974 -0.229746 0.210036 0.00171313 -0.999304 0.0372752
-0.00867088 -0.043079 0.378716 0 0 -1
-0.253423 0.139413 0.613162 0.00169853 -0.998751 -0.0499342
0.00613335 -0.00533828 0.378716 0 0 -1
0.171252 0.168388 0.590652 -0.266634 -0.951768 0.151801
0.0469524 0.170365 0.449979 0.00170387 -0.999999 0
-0.227246 0.135587 0.440444 -0.705898 -0.702611 -0.0896992
-0.253924 -0.229761 0.0897303 -0.708326 0.705393 -0.026357
0.249343 -0.0623008 0.548825 0 0 1
0.0349108 0.152788 0.414529 0 0 1
-0.0477208 -0.13415 0.414529 0 0 1
-0.0371562 0.174975 0.55345 0.0670282 -0.963832 0.257943
0.0223222 -0.0268936 0.414529 0 0 1
0.0601466 0.236019 0.714766 -0.234101 -0.928473 0.288332
0.130301 0.0770983 0.378716 0 0 -1
-0.169066 0.155667 0.393023 -0.00172594 0.999999 0
-0.0223698 0.200335 0.61064 0.117881 -0.915765 0.384029
0.0960674 0.183345 0.596546 -0.213989 -0.927009 0.307998
-0.217006 0.19062 0.0493295 0.999999 0.00172616 5.68123e-07
-0.200667 0.145959 0.378716 0 0 1
-0.0310466 0.0502528 0.414529 0 0 1
0.0038154 0.172652 0.349055 -0.00170951 0.990341 0.138643
-0.161645 0.170822 0.360094 -0.00170951 0.990341 0.138643
-0.0611646 0.14659 0.378716 0 0 1
0.114295 0.174018 0.547575 -0.0692039 -0.986493 0.148469
0.202459 0.116681 0.378716 0 0 -1
-0.051346 0.176315 0.51887 0.00166417 -0.966003 0.258526
-0.207739 0.016372 0.359751 -0.887209 -0.00153126 -0.461364
0.216635 0.0113012 0.516917 -0.999999 -0.00172497 1.19612e-05
0.241466 -0.0113922 0.542557 0 0 1
0.231839 -0.230633 0.186914 0.00171311 -0.999304 0.0372753
-0.18977 -0.027634 0.344188 0.999999 0.00172588 0
-0.251547 -0.0161502 0.548825 0 0 1
0.0673162 -0.0645022 0.378716 0 0 -1
-0.241659 0.186346 0.156275 -0.705904 -0.702605 -0.0896992
0.242758 -0.183989 0.525368 0.7071 0.00121972 -0.707112
0.217047 -0.227647 0.243624 -0.999998 -0.00172629 -6.30917e-07
0.174627 -0.0102818 0.414529 0 0 1
0.0533636 0.146296 0.346077 0.00170951 -0.990338 -0.138664
0.0173584 -0.112141 0.378716 0 0 -1
-0.0966682 0.161464 0.531028 0.125035 -0.953135 0.2755
0.239623 -0.141011 0.522307 0.7071 0.00121972 -0.707112
0.0721143 -0.239933 0.398684 0.00165454 -0.95936 0.282181
-0.239243 0.166718 0.291007 -0.705898 -0.702611 -0.0896992
-0.150323 0.174453 0.334292 -0.00170951 0.990341 0.138643
-0.0684578 -0.221512 0.378716 0 0 -1
-0.254866 0.1454 0.696814 0.261662 -0.953028 0.152545
-0.0046498 0.169724 0.350901 0.00172819 -0.992276 -0.124038
0.220483 0.195375 0.00447655 0 0 -1
0.242949 -0.135483 0.542557 0 0 1
-0.106822 0.188455 0.596485 0.198435 -0.926453 0.319856
-0.189539 -0.161514 0.353046 0.999999 0.00172588 0
0.158348 0.162189 0.574587 -0.204673 -0.929063 0.308142
-0.21761 0.0959228 0.542557 0 0 1
-0.168232 -0.206444 0.378716 0 0 1
-0.237058 0.101909 0.548825 0 0 1
-0.0630466 0.16523 0.526954 0.148536 -0.95528 0.255689
0.166094 0.169121 0.586184 -0.266634 -0.951768 0.151801
-0.250882 0.202345 0.10354 -0.705904 -0.702605 -0.0896992
-0.21692 0.140836 0.464439 0.999999 0.00173785 2.97279e-06
-0.223741 0.174554 0.107636 -0.705898 -0.702611 -0.0896992
0.223521 0.15317 0.578441 0.00169853 -0.998751 0.0499342
-0.0542328 0.148536 0.414529 0 0 1
0.113245 -0.13244 0.378716 0 0 -1
0.231844 -0.191149 0.491161 0.705872 0.707849 -0.0263569
-0.15864 0.18913 0.665853 0.358651 -0.892141 0.274689
-0.178108 0.155895 0.581968 0.338207 -0.926655 0.164094
0.235907 0.0133363 0.518858 0.707117 0.00122323 -0.707095
-0.111591 -0.0087169 0.414529 0 0 1
-0.216858 0.104269 0.534818 0.999999 0.00172497 1.4312e-05
-0.149296 0.170951 0.571446 0.19304 -0.927569 0.319925
-0.228928 0.153454 0.59973 0.00172418 -0.99875 0.0499482
-0.250118 -0.215808 0.360867 -0.708326 0.705393 -0.026357
-0.119023 0.0922036 0.378716 0 0 -1
-0.184596 -0.114018 0.414529 0 0 1
0.0170431 0.213444 0.646061 -0.118764 -0.948232 0.294535
-0.217974 0.186023 0.00123273 0.0017844 -0.999998 0
-0.255168 -0.00458196 0.544597 -0.999999 -0.00172594 0
-0.228108 -0.223195 0.407593 0.00173905 -0.999304 0.0372752
0.191682 0.171028 0.428834 0.00169279 -0.993498 -0.113834
-0.216902 0.12996 0.538204 0.999999 0.00172497 1.4312e-05
-0.210478 0.00429265 0.380365 -0.51455 -0.000887592 -0.85746
-0.222266 -0.116067 0.542557 0 0 -1
0.0764474 0.00624681 0.378716 0 0 -1
-0.16348 -0.0485787 0.414529 0 0 1
-0.115416 0.184477 0.614026 0.207875 -0.928355 0.308133
0.0101587 -0.131482 0.414529 0 0 1
0.0718604 -0.110185 0.414529 0 0 1
0.00212683 0.0999574 0.378716 0 0 -1
0.135695 -0.150401 0.378716 0 0 -1
-0.201138 0.0832131 0.378716 0 0 -1
0.22257 0.142477 0.359734 0.70831 -0.700179 -0.0896982
-0.249025 -0.229115 0.249866 0.00173903 -0.999304 0.0372752
0.196865 -0.226895 0.386847 0.00172411 -0.999999 1.85924e-05
-0.106732 0.170868 0.425737 0.00169926 -0.993498 -0.113834
-0.170867 0.157248 0.452166 0.00175163 -0.994909 -0.100759
0.254224 0.0662027 0.542557 0 0 1
-0.190841 0.142558 0.378716 0 0 1
0.199741 0.176388 0.696524 -0.484561 -0.836146 0.257021
-0.128054 -0.235706 0.380981 0.00088739 -0.51455 -0.85746
-0.234751 -0.195339 0.49569 -0.708326 0.705393 -0.026357
-0.150912 0.110057 0.414529 0 0 1
0.237597 -0.164817 0.520241 0.7071 0.00121972 -0.707112
0.159559 0.0637578 0.378716 0 0 -1
-0.156799 -0.188777 0.339675 -0.00172246 0.999199 -0.0399762
-0.195505 0.149709 0.582888 0.338207 -0.926655 0.164094
-0.0328605 0.170227 0.491467 0.00174164 -0.999998 0
-0.074073 0.155831 0.41378 0.00172459 -0.999999 0
-0.214535 -0.15072 0.373375 -0.88721 -0.00153122 -0.461364
-0.0798642 0.172359 0.561094 0.125035 -0.953135 0.2755
0.222852 0.00211596 0.505783 0.7071 0.00121972 -0.707112
-0.206259 0.174753 0.382894 0.0685479 -0.985686 -0.154024
-0.214965 -0.104702 0.401829 -0.959343 -0.00165485 0.282239
0.042296 -0.125073 0.414529 0 0 1
-0.222638 0.154318 0.647263 0.263535 -0.959737 0.0972311
-0.207766 0.139919 0.378716 0 0 1
-0.00636677 0.208796 0.60528 0.00155877 -0.904819 0.425793
-0.233926 0.0275095 0.542557 0 0 1
0.172656 0.0569934 0.378716 0 0 -1
0.145874 0.144594 0.359375 0.00171179 -0.990341 -0.138643
-0.0381918 0.222916 0.685184 0.122008 -0.947823 0.294525
-0.212956 0.0747313 0.378716 0 0 1
-0.0861192 -0.144124 0.414529 0 0 1
-0.217164 -0.0134062 0.542557 0 0 -1
-0.0792672 0.169522 0.551009 0.125035 -0.953135 0.2755
-0.220975 -0.0547849 0.542557 0 0 -1
0.178103 -0.226927 0.399339 0.00172566 -0.999999 -1.81354e-05
-0.215778 0.0690917 0.393159 -0.959338 -0.00165484 -0.282256
-0.232329 -0.222742 0.419938 0.00173905 -0.999304 0.0372752
-0.184702 0.162349 0.33395 0 0 -1
-0.124928 0.155747 0.515888 0.00166308 -0.962539 0.271138
-0.214014 0.165125 0.384805 0.001747 -0.992276 -0.124038
0.240112 0.140626 0.605942 0.00174953 -0.998751 -0.0499342
0.0544202 0.228276 0.685729 -0.137132 -0.945972 0.293821
-0.195115 0.142793 0.378716 0 0 -1
-0.224108 -0.198103 0.542557 0 0 1
0.0703828 0.179684 0.351457 0.00171154 -0.993497 -0.113845
0.157432 0.162959 0.5763 -0.204673 -0.929063 0.308142
-0.233875 -0.19449 0.494882 -0.708326 0.705393 -0.026357
-0.149989 0.166308 0.517713 0.185146 -0.981316 0.0523499
-0.241578 -0.204621 0.430762 -0.708326 0.705393 -0.026357
0.254775 0.21874 0.023034 0.999998 0.00177638 6.01759e-06
-0.0534987 -0.137503 0.378716 0 0 -1
-0.224524 0.220823 0.0312932 -0.00170034 0.99192 0.126853
-0.22681 -0.197967 0.211944 -0.708334 0.705385 -0.0263556
0.0646014 0.202016 0.630802 -0.214215 -0.925719 0.311698
-0.00808001 0.16291 0.413036 -0.00088724 0.514465 0.857511
-0.173297 0.0872871 0.414529 0 0 1
-0.0892448 -0.175487 0.414529 0 0 1
-0.00545963 0.170275 0.48716 0.00174164 -0.999998 0
-0.229598 -0.19888 0.26245 -0.708334 0.705385 -0.0263556
0.0490879 0.152811 0.378716 0 0 1
0.219101 0.216926 0.0677451 -0.00170034 0.99192 0.126853
0.0655606 -0.1872 0.369516 -0.00172247 0.999199 -0.0399761
-0.222162 -0.184745 0.440909 -0.708334 0.705385 -0.0263556
-0.235428 0.140963 0.627735 0.263537 -0.959857 0.0960367
-0.0341494 0.217155 0.66497 0.122008 -0.947823 0.294525
0.182801 0.163925 0.582952 -0.266634 -0.951768 0.151801
-0.0922922 -0.187677 0.364409 -0.00172247 0.999199 -0.0399761
-0.150425 -0.187698 0.366388 -0.00172247 0.999199 -0.0399761
0.0591132 0.207368 0.644093 -0.17732 -0.939867 0.291905
-0.215439 -0.226664 0.399504 -0.959343 -0.00165485 0.282239
-0.166321 0.155672 0.413864 -0.00172594 0.999999 0
0.216405 0.144501 0.416058 -0.999999 -0.00171366 2.0045e-06
-0.0262433 0.223928 0.683491 0.122024 -0.947818 0.294534
-0.189978 0.0932164 0.355395 0.999999 0.00172588 0
-0.152451 0.202066 0.699785 0.358651 -0.892141 0.274689
-0.22846 -0.191074 0.440796 -0.708326 0.705393 -0.026357
-0.0291444 0.16492 0.388992 0.00170943 -0.992277 -0.124026
0.0995326 0.0745136 0.414529 0 0 1
-0.0298583 -0.061875 0.378716 0 0 -1
-0.216954 0.160017 0.463954 0.999999 0.00173785 2.97279e-06
-0.227796 -0.221388 0.456012 0.00173905 -0.999304 0.0372752
-0.226093 0.189626 0.00808591 -0.705904 -0.702605 -0.0896992
0.198544 0.0241173 0.414529 0 0 1
-0.235775 0.137328 0.493926 -0.705898 -0.702611 -0.0896992
-0.150669 -0.211598 0.33395 0 0 -1
-0.0651679 -0.0584865 0.414529 0 0 1
0.128609 -0.206547 0.378716 0 0 -1
0.0789758 -0.0692031 0.378716 0 0 -1
-0.117714 0.158266 0.443009 0.00168409 -0.994912 -0.100731
-0.236934 0.200349 0.00940722 -0.705904 -0.702605 -0.0896992
-0.235034 0.0121071 0.517919 -0.707102 -0.00122123 -0.70711
0.193539 0.164322 0.396855 0.00172824 -0.992278 -0.124026
-0.0351641 -0.164887 0.378716 0 0 -1
-0.235534 -0.062509 0.548825 0 0 1
-0.228271 0.182525 0.0808412 -0.705904 -0.702605 -0.0896992
0.100485 0.217536 0.68714 -0.195012 -0.943806 0.266832
0.216364 0.168433 0.344725 0.999998 0.00174981 -6.9198e-07
0.246309 0.000266105 0.529238 0.707117 0.00122323 -0.707095
0.211393 0.156138 0.603366 -0.389483 -0.919886 0.0459639
-0.13122 0.152714 0.33395 0 0 -1
-0.216448 -0.133163 0.522794 0.999999 0.00172651 8.43315e-07
0.0126854 0.15503 0.33395 0 0 -1
0.165428 -0.0517994 0.378716 0 0 -1
0.192822 -0.03051 0.378716 0 0 1
-0.0353235 -0.224833 0.378716 0 0 -1
-0.243111 0.0823659 0.548825 0 0 1
-0.214321 0.174319 0.334458 -0.00170951 0.990341 0.138643
-0.225814 0.162567 0.486804 -0.00170045 0.99192 0.126853
0.196266 0.0396652 0.337917 0.88721 0.00152859 -0.461364
-0.216297 -0.220525 0.455659 0.999998 0.00173897 1.58014e-07
0.00993668 -0.18841 0.341678 -0.00172246 0.999199 -0.0399762
0.158351 -0.125092 0.378716 0 0 -1
0.112728 -0.231652 0.378797 0.00088739 -0.51455 -0.85746
0.233866 0.205042 0.160865 -0.00170034 0.99192 0.126853
-0.203282 -0.080975 0.351504 -0.88721 -0.00153122 -0.461364
-0.0319733 0.161662 0.41502 0.00170943 -0.992277 -0.124026
0.0601339 0.156063 0.39079 -0.00172292 0.999999 -4.6649e-05
-0.16375 0.178744 0.356145 0.00174915 -0.993497 -0.113845
0.250377 0.211948 0.0370306 0.708316 -0.700173 -0.0896982
0.0197089 0.185359 0.57707 -0.0596688 -0.903225 0.425
0.140141 -0.226993 0.385331 0.00172411 -0.999999 1.85924e-05
0.255078 0.0432406 0.547196 0.999999 0.00172302 0
-0.12765 -0.205272 0.378716 0 0 -1
-0.0824776 -0.161714 0.414529 0 0 1
-0.149567 -0.218216 0.378716 0 0 -1
0.0179289 -0.210534 0.33395 0 0 -1
0.0626301 0.171922 0.419075 0.00173031 -0.993498 -0.113834
0.00693652 -0.227222 0.404186 -0.00172463 0.999999 0
-0.214363 0.014179 0.372498 -0.887209 -0.00153126 -0.461364
-0.0786854 -0.0457261 0.378716 0 0 -1
0.189621 0.100527 0.375982 -0.999999 -0.00172589 0
0.215851 0.16703 0.705564 -0.459538 -0.84598 0.270449
-0.251538 -0.137489 0.548825 0 0 1
-0.0032368 0.00988491 0.378716 0 0 -1
-0.0837247 -0.0718596 0.414529 0 0 1
-0.0661375 -0.237869 0.406511 0.00165454 -0.95936 0.282181
0.142925 0.177056 0.621858 -0.370504 -0.914268 0.163834
0.212219 0.0702197 0.368697 0.887218 0.00153127 -0.461348
0.206166 0.147582 0.357314 0.887218 0.00153127 -0.461348
0.216997 -0.198852 0.109863 -0.999998 -0.00173901 8.24745e-07
-0.165686 0.144535 0.355948 0.00170951 -0.990338 -0.138664
0.0999345 -0.239163 0.392104 0.00165454 -0.959355 -0.282197
0.201536 -0.187507 0.355979 -0.00172246 0.999199 -0.0399762
-0.117969 -0.0576119 0.378716 0 0 -1
0.105926 -0.00394559 0.414529 0 0 1
-0.112107 0.179912 0.346728 0.00169926 -0.993498 -0.113834
-0.0187749 0.170252 0.453499 0.00174164 -0.999998 0
-0.00254476 -0.236981 0.40916 0.00165451 -0.95936 0.28218
0.236813 -0.178354 0.519433 0.7071 0.00121972 -0.707112
0.216983 0.0361092 0.504059 0 0 -1
-0.16738 0.15567 0.386413 0.00172459 -0.999999 0
0.0837781 0.0568012 0.414529 0 0 1
-0.212683 -0.163611 0.384006 -0.959338 -0.00165484 -0.282256
-0.248383 0.157052 0.438653 -0.705898 -0.702611 -0.0896992
0.186588 -0.2401 0.395798 0.00165454 -0.959355 -0.282197
-0.108235 0.15229 0.502192 0.00171902 -0.994909 -0.100759
-0.248441 0.141975 0.542557 0 0 1
-0.189483 -0.187498 0.373055 -0.00172247 0.999199 -0.0399761
0.179626 0.12767 0.414529 0 0 1
0.198673 -0.0641032 0.342203 0.88721 0.00152859 -0.461364
0.170491 -0.173028 0.378716 0 0 -1
-0.2089 0.170045 0.36506 -0.00170951 0.990341 0.138643
0.223775 0.174339 0.400814 -0.00170034 0.99192 0.126853
0.0448763 0.159618 0.473259 0.00172277 -0.999999 0
-0.0780517 0.0731095 0.378716 0 0 -1
-0.216286 -0.226498 0.0634135 0.999998 0.00173897 1.58014e-07
-0.201492 0.050793 0.378716 0 0 1
-0.154917 -0.227501 0.383622 -0.00172463 0.999999 0
-0.0102124 0.170267 0.442608 0.00174164 -0.999998 0
-0.0529358 -0.227326 0.398953 0.00172595 -0.999999 0
-0.180898 0.163663 0.547577 0.256007 -0.961752 -0.0974339
-0.245525 -0.045353 0.548825 0 0 1
-0.102337 0.000354543 0.378716 0 0 -1
0.195892 -0.151031 0.336567 0.88721 0.00152859 -0.461364
-0.225608 -0.193644 0.295331 -0.708334 0.705385 -0.0263556
0.194232 0.15134 0.553501 -0.305002 -0.947627 -0.0947439
-0.206412 0.0435082 0.414529 0 0 1
0.160709 0.17998 0.35024 0.00173365 -0.993498 -0.113834
0.255135 0.00973551 0.547466 0.999999 0.00172302 0
0.217054 -0.231448 0.0401887 -0.999998 -0.00173901 8.24745e-07
0.0947541 -0.128978 0.378716 0 0 -1
-0.0975607 -0.210202 0.378716 0 0 1
-0.215532 0.145791 0.620469 0.416388 -0.904667 0.0905429
-0.141102 0.176006 0.613161 0.373671 -0.912982 0.163812
-0.0509019 -0.0783389 0.378716 0 0 -1
-0.217012 0.194266 0.00729248 0.999999 0.00172616 5.68123e-07
-0.248963 0.160007 0.420068 -0.705904 -0.702605 -0.0896992
0.214421 -0.118705 0.388334 0.959355 0.00165237 -0.282197
0.220725 0.168929 0.139587 0.00154804 -0.99192 -0.126852
0.21434 0.118374 0.403795 0.95936 0.00165238 0.282181
0.218211 0.145592 0.322039 0.00177125 -0.99192 -0.126854
0.216385 0.156265 0.243352 -0.999999 -0.0017262 -5.73813e-07
0.00677429 -0.0069302 0.378716 0 0 -1
0.0452302 -0.169563 0.378716 0 0 -1
0.217047 -0.227908 0.188601 -0.999998 -0.00172629 -6.30917e-07
-0.216998 0.18588 0.0198127 0.999999 0.00172616 5.68123e-07
0.0913561 -0.23116 0.414529 0 0 1
0.0574539 -0.02416 0.414529 0 0 1
0.00253043 0.14331 0.366773 0.00171179 -0.990341 -0.138643
0.25494 -0.22104 0.443028 0.00171313 -0.999304 0.0372752
-0.24816 0.212689 0.00447655 0 0 -1
0.223031 0.0813836 0.542557 0 0 -1
0.0212571 -0.187426 0.36579 -0.00172247 0.999199 -0.0399761
-0.254793 -0.221436 0.376978 -0.999999 -0.00162832 -4.34067e-06
0.184131 0.153548 0.563814 -0.306065 -0.94705 -0.0970629
-0.1981 0.170763 0.690117 0.470382 -0.831177 0.296457
-0.0791275 -0.202967 0.33395 0 0 -1
0.241673 -0.147332 0.524346 0.7071 0.00121972 -0.707112
0.0275124 0.159588 0.473991 0.00172277 -0.999999 0
0.162702 0.153805 0.491845 0.00173283 -0.994911 -0.100745
0.0657956 0.170397 0.45619 0.00174163 -0.999998 0
-0.202594 0.136791 0.378716 0 0 -1
-0.255331 0.0896264 0.54741 -0.999999 -0.00172594 0
-0.156242 -0.233547 0.379656 0.00088739 -0.51455 -0.85746
0.101025 -0.028916 0.378716 0 0 -1
-0.17743 0.0678904 0.414529 0 0 1
0.217044 -0.226074 0.0691706 -0.999998 -0.00173901 8.24745e-07
0.149901 -0.187197 0.365971 -0.00172246 0.999199 -0.0399762
-0.203533 0.165738 0.406882 -0.999998 -0.00178774 0
0.120495 0.215497 0.71341 -0.351075 -0.882093 0.314098
0.214984 0.16631 0.459802 -0.0650932 -0.985351 -0.157628
-0.140258 0.175607 0.579491 0.19304 -0.927569 0.319925
-0.113705 -0.194329 0.378716 0 0 -1
-0.215426 -0.141936 0.400043 -0.959343 -0.00165485 0.282239
-0.113471 0.0653452 0.378716 0 0 -1
0.254834 0.106759 0.548825 0 0 1
0.216359 0.171188 0.327146 -0.999999 -0.00171366 2.0045e-06
0.230704 0.0808053 0.513771 0.707117 0.00122323 -0.707095
0.0205281 0.159576 0.475964 0.00172277 -0.999999 0
-0.208969 -0.237574 0.391063 -0.679006 -0.681358 -0.273317
0.00907134 0.146826 0.34174 0.00170951 -0.990338 -0.138664
0.215208 -0.116138 0.373827 0.887218 0.00153127 -0.461348
-0.0898745 0.0920756 0.414529 0 0 1
-0.238318 -0.0139126 0.521248 -0.707102 -0.00122123 -0.70711
0.119499 0.157517 0.454451 0.00173633 -0.994912 -0.100731
0.0420018 0.159613 0.467305 0.00172277 -0.999999 0
-0.0582946 0.224169 0.6751 0.237295 -0.927661 0.288333
-0.12854 0.105405 0.378716 0 0 -1
0.0615737 -0.0408739 0.378716 0 0 -1
0.231764 -0.132363 0.542557 0 0 -1
-0.0705817 -0.0866829 0.414529 0 0 1
0.216997 -0.198516 0.289558 -0.999998 -0.00173901 8.24745e-07
-0.225208 0.152572 0.581975 0.00172418 -0.99875 0.0499482
0.219824 0.16594 0.69382 -0.452515 -0.869313 0.198811
0.190989 0.144459 0.360894 0.00171179 -0.990341 -0.138643
0.174851 0.168919 0.399246 -0.0016545 0.95936 0.28218
-0.255426 0.145317 0.663555 0.999999 0.00168902 1.20714e-05
0.14951 0.201468 0.69326 -0.355556 -0.893376 0.274698
0.107889 0.110759 0.414529 0 0 1
0.249785 -0.209836 0.469784 0.705872 0.707849 -0.0263569
-0.189326 0.105516 0.414529 0 0 1
0.225376 0.120724 0.508513 0.707117 0.00122323 -0.707095
0.0884206 -0.227082 0.382849 -0.00172463 0.999999 0
0.247522 -0.233006 0.122562 0.00171313 -0.999304 0.0372752
-0.216635 -0.0247938 0.532283 0.999999 0.00172651 8.43315e-07
-0.145067 -0.227484 0.382212 -0.00172463 0.999999 0
-0.143622 -0.0789277 0.378716 0 0 -1
-0.227787 0.210787 0.00447655 0 0 -1
0.123837 0.189516 0.609075 -0.189844 -0.928226 0.31993
-0.146232 0.171317 0.598727 0.373671 -0.912982 0.163812
0.20799 0.156326 0.579553 -0.266634 -0.951768 0.151801
0.216362 0.169084 0.285432 -0.999999 -0.00171366 2.0045e-06
0.0572143 0.0326362 0.378716 0 0 -1
0.131098 0.189722 0.623553 -0.382916 -0.91119 0.152015
-0.219844 0.126848 0.462691 0.0017733 -0.99192 -0.126854
-0.182347 0.109816 0.378716 0 0 -1
0.189837 -0.0245966 0.357449 -0.999999 -0.00172589 0
0.0585975 0.103144 0.414529 0 0 1
-0.242522 -0.206455 0.548825 0 0 1
-0.214268 -0.0649664 0.372578 -0.887209 -0.00153126 -0.461364
0.11224 0.198929 0.629915 -0.195012 -0.943806 0.266832
0.0157216 -0.227207 0.412081 -0.00172463 0.999999 0
0.00532183 -0.183078 0.378716 0 0 -1
0.116555 -0.152856 0.378716 0 0 -1
-0.216941 0.152675 0.342972 -0.999999 -0.00171264 5.8576e-06
-0.217462 0.158521 0.51855 -0.00170034 0.99192 0.126853
0.127464 0.172001 0.355231 -0.00170951 0.990341 0.138643
0.235649 0.083563 0.542557 0 0 -1
0.200857 -0.0804385 0.346347 0.88721 0.00152859 -0.461364
-0.208403 -0.101183 0.414016 -0.51455 -0.000887592 0.85746
0.195811 0.149554 0.565958 -0.306065 -0.94705 -0.0970629
-0.0277108 -0.227282 0.401796 -0.00172463 0.999999 0
0.165248 0.156165 0.46858 0.00173283 -0.994911 -0.100745
-0.12541 0.179051 0.354038 0.00169926 -0.993498 -0.113834
0.0934489 0.171743 0.356658 -0.00170951 0.990341 0.138643
-0.0139775 0.155935 0.392244 -0.00172292 0.999999 -4.6649e-05
-0.173875 0.0164147 0.414529 0 0 1
0.0791046 0.168972 0.489715 -0.0658148 -0.996252 -0.0561345
0.12825 0.15618 0.397239 -0.00172292 0.999999 -4.6649e-05
0.212801 0.0541857 0.369763 0.887218 0.00153127 -0.461348
-0.229029 0.140367 0.594906 0.00169853 -0.998751 -0.0499342
0.111141 0.168675 0.464404 0.00174223 -0.998415 -0.0562617
0.0124168 0.159562 0.476766 0.00172277 -0.999999 0
0.0981041 -0.16455 0.378716 0 0 -1
-0.192597 0.149048 0.378716 0 0 1
0.0454478 0.159619 0.498109 0.00172277 -0.999999 0
0.213656 0.166042 0.698966 -0.432779 -0.858683 0.274529
0.0643618 0.0548943 0.378716 0 0 -1
0.230305 -0.100423 0.513059 0.7071 0.00121972 -0.707112
-0.130108 0.113558 0.378716 0 0 -1
-0.0802258 0.180134 0.549437 0.195933 -0.968688 0.15249
0.136808 0.154995 0.414529 0 0 1
0.229755 -0.190397 0.455415 0.705872 0.707849 -0.0263569
0.141337 -0.138278 0.378716 0 0 -1
0.0356153 -0.0605656 0.378716 0 0 -1
0.130391 -0.0405113 0.414529 0 0 1
0.241388 -0.157756 0.524043 0.7071 0.00121972 -0.707112
-0.213214 0.173796 0.385929 0.0685479 -0.985686 -0.154024
-0.0458662 -0.171432 0.378716 0 0 -1
0.21631 0.098555 0.396029 0.959355 0.00165234 -0.282198
0.250502 -0.214818 0.355174 0.705884 0.707837 -0.0263581
0.252977 -0.227108 0.280418 0.00171313 -0.999304 0.0372752
0.223817 -0.00535452 0.542557 0 0 -1
-0.189861 0.0253193 0.36529 0.999999 0.00172588 0
-0.160141 -0.21345 0.414529 0 0 1
-0.145535 -0.0850698 0.414529 0 0 1
-0.115512 -0.224586 0.337987 0.0017225 -0.9992 0.0399539
0.236565 -0.203388 0.288909 0.705872 0.707849 -0.0263569
-0.0174278 0.142534 0.378716 0 0 1
-0.253795 -0.125413 0.548825 0 0 1
0.146549 0.167784 0.402937 -0.0016545 0.95936 0.28218
0.216669 -0.00833614 0.54209 -0.999999 -0.0017238 1.76593e-06
0.157908 -0.134222 0.414529 0 0 1
-0.0521751 -0.207217 0.378716 0 0 1
-0.251449 0.0368605 0.548825 0 0 1
0.217045 -0.22652 0.0815572 -0.999998 -0.00173901 8.24745e-07
0.139889 -0.223031 0.365867 0.00172247 -0.9992 0.0399536
-0.0166569 -0.0644505 0.414529 0 0 1
0.0132041 0.155982 0.414189 -0.00172594 0.999999 0
0.105616 0.204341 0.644216 -0.195012 -0.943806 0.266832
-0.201525 -0.106194 0.34821 -0.88721 -0.00153122 -0.461364
-0.174781 -0.144988 0.378716 0 0 -1
0.23729 -0.0921603 0.542557 0 0 1
0.0202556 -0.224347 0.338109 0.0017225 -0.9992 0.0399539
0.0250284 0.159584 0.437273 0.00172277 -0.999999 0
-0.160002 0.0679262 0.378716 0 0 -1
0.216609 0.0264906 0.543603 -0.999999 -0.0017259 0
0.177442 0.173177 0.663371 -0.467515 -0.832791 0.29646
0.209865 0.169261 0.44347 -0.0650932 -0.985351 -0.157628
0.216709 -0.031605 0.541974 -0.999999 -0.0017238 1.76593e-06
-0.0243895 0.190719 0.566932 0.00155877 -0.904819 0.425793
0.219071 -0.107439 0.542557 0 0 -1
0.216883 -0.132878 0.513392 -0.999999 -0.0017238 1.76593e-06
-0.135809 0.163516 0.556512 0.203379 -0.973572 0.103895
0.204395 -0.0665633 0.353197 0.88721 0.00152859 -0.461364
0.216376 0.161437 0.356471 -0.999999 -0.00171366 2.0045e-06
-0.122303 0.156743 0.378716 0 0 1
-0.161708 0.159473 0.43075 0.00167963 -0.992278 -0.124026
-0.133624 0.171337 0.356755 -0.00170951 0.990341 0.138643
0.21706 -0.235045 0.0206098 -0.999998 -0.00173901 8.24745e-07
-0.225324 -0.0680888 0.508347 -0.70711 -0.00121971 -0.707103
0.174281 0.176461 0.648763 -0.484561 -0.836146 0.257021
-0.159446 -0.190376 0.414529 0 0 1
-0.00597445 0.217586 0.628403 0.140397 -0.945493 0.293822
0.222252 -0.181721 0.487478 0.705872 0.707849 -0.0263569
-0.244075 -0.0430315 0.542557 0 0 -1
0.13312 0.167328 0.477757 -0.0536942 -0.992925 -0.10591
-0.0811405 0.0929549 0.414529 0 0 1
0.217012 -0.207862 0.00279235 -0.999999 -0.00174023 0
-0.21975 0.115736 0.548825 0 0 1
-0.0279585 -0.105779 0.378716 0 0 -1
-0.225033 0.129054 0.4742 -0.705898 -0.702611 -0.0896992
-0.232064 0.171602 0.196254 -0.705898 -0.702611 -0.0896992
0.214624 0.148528 0.638674 -0.413257 -0.906101 0.0905472
0.203357 -0.00227156 0.414529 0 0 1
0.216765 -0.0641688 0.519962 -0.999999 -0.0017238 1.76593e-06
-0.171267 0.173848 0.398756 0.00174915 -0.993497 -0.113845
0.00348188 0.209482 0.606702 0.0015588 -0.904819 0.425793
-0.191466 0.135127 0.414529 0 0 1
0.0251431 0.0714919 0.378716 0 0 -1
-0.22686 0.0287853 0.542557 0 0 -1
-0.230207 -0.145861 0.542557 0 0 1
-0.135863 0.178151 0.361736 0.00169926 -0.993498 -0.113834
-0.189765 -0.0300939 0.347697 0.999999 0.00172588 0
-0.212404 -0.0107068 0.368812 -0.887209 -0.00153126 -0.461364
-0.183061 0.171457 0.414314 0.0685479 -0.985686 -0.154024
-0.0706253 0.205727 0.646177 0.217428 -0.924974 0.311687
0.199048 0.147426 0.378716 0 0 -1
0.249482 0.0749635 0.542557 0 0 -1
-0.07695 0.175596 0.384916 0.00171154 -0.993497 -0.113845
-0.0171429 0.160315 0.426003 0.00170943 -0.992277 -0.124026
-0.230745 -0.175644 0.513953 -0.70711 -0.00121971 -0.707103
-0.0913747 -0.0533663 0.414529 0 0 1
0.245859 0.150463 0.481297 0.70831 -0.700179 -0.0896982
0.22814 -0.121939 0.542557 0 0 -1
-0.00297423 0.16407 0.412345 -0.00088724 0.514465 0.857511
-0.108106 -0.205955 0.378716 0 0 -1
-0.0531566 0.159449 0.458816 0.00174164 -0.999999 0
0.204002 -0.223529 0.350653 0.00172247 -0.9992 0.0399536
-0.189742 -0.0438981 0.3426 0.999999 0.00172588 0
-0.186073 0.179984 0.683325 0.487426 -0.83448 0.257017
0.216885 -0.133973 0.521597 -0.999999 -0.0017238 1.76593e-06
-0.074287 -0.0173718 0.414529 0 0 1
0.10065 0.172958 0.569972 -0.124438 -0.914896 0.384032
-0.234269 0.031961 0.51712 -0.707102 -0.00122123 -0.70711
0.187962 0.0376344 0.414529 0 0 1
0.183209 -0.189012 0.414529 0 0 1
-0.11663 0.112194 0.414529 0 0 1
0.216429 0.130392 0.507901 -0.999999 -0.00171366 2.0045e-06
0.18527 0.172835 0.33395 0 0 -1
0.040509 -0.0504216 0.378716 0 0 -1
0.216707 -0.0935999 0.396992 0.95936 0.00165235 0.28218
-0.233618 0.175419 0.386205 -0.00170045 0.99192 0.126853
-0.252278 0.149652 0.68155 0.263535 -0.959737 0.0972311
0.11419 0.171369 0.529925 -0.0692039 -0.986493 0.148469
-0.173246 0.163163 0.401066 0.00172824 -0.992278 -0.124026
0.0220069 0.223657 0.655731 -0.137132 -0.945972 0.293821
-0.249052 0.172186 0.325369 -0.705904 -0.702605 -0.0896992
-0.112263 -0.217421 0.378716 0 0 1
0.197021 -0.0956299 0.338921 0.88721 0.00152859 -0.461364
0.189623 0.0997893 0.343614 -0.999999 -0.00172589 0
0.118419 -0.0540288 0.378716 0 0 -1
-0.0768188 0.206776 0.632179 0.198273 -0.943124 0.266841
-0.231089 -0.0628264 0.542557 0 0 1
0.229542 -0.180718 0.542557 0 0 1
-0.0763026 0.161376 0.520256 0.148536 -0.95528 0.255689
-0.155646 0.160701 0.42101 0.00167963 -0.992278 -0.124026
0.0674485 0.158897 0.505311 -0.145239 -0.955782 0.255709
-0.216449 -0.132435 0.534673 0.999999 0.00172651 8.43315e-07
0.205432 -0.0709843 0.355177 0.88721 0.00152859 -0.461364
0.12112 0.168402 0.51344 -0.0692039 -0.986493 0.148469
-0.0235207 0.00588819 0.378716 0 0 -1
-0.0653333 0.227918 0.714265 0.18058 -0.939249 0.291893
-0.208101 0.119956 0.378716 0 0 1
-0.0856689 0.166116 0.385997 -0.00165452 0.959372 -0.282139
0.141819 0.15671 0.462798 0.00171904 -0.994911 -0.100745
0.254903 0.144362 0.626086 -0.999998 -0.00196655 -1.4687e-05
-0.250204 -0.131273 0.542557 0 0 1
-0.0673926 -0.0616551 0.378716 0 0 -1
-0.0183352 0.0729782 0.378716 0 0 -1
0.128883 0.170395 0.434418 0.00174223 -0.998415 -0.0562617
-0.181215 0.153096 0.525472 0.0761243 -0.991472 0.10578
-0.0691839 0.212741 0.667812 0.18058 -0.939249 0.291893
-0.216313 -0.210939 0.00133882 0.999999 0.0017143 0
0.0644877 0.0294171 0.378716 0 0 -1
-0.018659 -0.21277 0.378716 0 0 -1
-0.219099 0.171395 0.114373 0.00177313 -0.99192 -0.126854
-0.254764 0.189622 0.233749 -0.705904 -0.702605 -0.0896992
0.172215 0.114559 0.414529 0 0 1
-0.0787645 -0.0474451 0.414529 0 0 1
-0.245648 -0.169265 0.528846 -0.70711 -0.00121971 -0.707103
0.0925901 0.169725 0.460545 -0.0658148 -0.996252 -0.0561345
0.189908 -0.0658502 0.337492 -0.999999 -0.00172589 0
-0.102961 -0.187835 0.414529 0 0 1
-0.0335351 0.0235587 0.378716 0 0 -1
-0.216314 -0.210582 0.453726 0.999998 0.00172531 -3.10334e-07
0.0282558 -0.191891 0.378716 0 0 1
-0.100897 0.155785 0.401887 -0.00172594 0.999999 0
0.0239568 0.174119 0.510176 0.00164595 -0.966007 0.258511
0.140177 -0.0610562 0.414529 0 0 1
0.215745 -0.144333 0.374766 0.887218 0.00153127 -0.461348
0.217009 -0.205521 0.100833 -0.999998 -0.00173901 8.24745e-07
-0.156372 0.167989 0.362693 0.00167963 -0.992278 -0.124026
-0.216708 0.0174518 0.539727 0.999999 0.00172651 8.43315e-07
0.21252 -0.0978226 0.41125 0.95936 0.00165238 0.282181
-0.193438 0.026792 0.33395 0 0 -1
-0.216998 0.185819 0.139847 0.999999 0.00172616 5.68123e-07
0.208102 0.0134586 0.37897 0.51455 0.000886251 -0.85746
0.205437 0.164338 0.680679 -0.432779 -0.858683 0.274529
0.105624 -0.17647 0.414529 0 0 1
-0.252553 0.16089 0.499561 -0.00170045 0.99192 0.126853
-0.0916493 0.0291851 0.414529 0 0 1
0.144158 0.0944237 0.414529 0 0 1
-0.0341503 0.227677 0.674338 0.140397 -0.945493 0.293822
0.135693 -0.227 0.395774 -0.00172463 0.999999 0
-0.0153837 0.116281 0.378716 0 0 -1
0.221567 -0.209785 0.00447655 0 0 -1
-0.0575322 0.170184 0.439476 0.00170383 -0.999999 0
0.219233 0.0930732 0.504059 0 0 -1
0.0740881 -0.184989 0.378716 0 0 -1
-0.0808198 0.180471 0.552343 0.195933 -0.968688 0.15249
-0.249049 -0.0670595 0.542557 0 0 1
0.254905 0.143426 0.565593 -0.999999 -0.00173324 5.10335e-05
-0.0634697 0.223837 0.699982 0.18058 -0.939249 0.291893
0.0966044 0.0740314 0.414529 0 0 1
-0.164043 0.166559 0.612835 0.373671 -0.912982 0.163812
0.187244 0.158212 0.448748 0.00173283 -0.994911 -0.100745
0.0852831 0.179932 0.553604 -0.192584 -0.969358 0.152502
0.251972 -0.213402 0.432601 0.705884 0.707837 -0.0263581
0.240888 -0.212173 0.168766 0.705884 0.707837 -0.0263581
-0.118268 0.0626766 0.378716 0 0 -1
-0.174957 0.162309 0.504888 0.0692952 -0.99618 0.0531323
-0.111824 0.157884 0.33395 0 0 -1
0.0510017 0.178199 0.364125 0.00169279 -0.993497 -0.113845
-0.232158 -0.204525 0.180167 -0.708334 0.705385 -0.0263556
0.220216 0.125092 0.482365 0.00177125 -0.99192 -0.126854
-0.172503 0.0124626 0.414529 0 0 1
-0.200855 0.148574 0.587505 0.338207 -0.926655 0.164094
0.251684 -0.224212 0.134569 0.705884 0.707837 -0.0263581
0.0406511 0.161073 0.504097 0.00163892 -0.951328 0.308176
0.196297 0.156298 0.389157 0.00172459 -0.999999 0
0.149439 0.203547 0.699927 -0.355556 -0.893376 0.274698
0.217015 -0.209422 0.47333 -0.999998 -0.00172629 -6.30917e-07
-0.0011204 0.172129 0.352736 -0.00170951 0.990341 0.138643
0.0721263 0.160809 0.423282 0.00169066 -0.992275 -0.124049
-0.141773 0.153152 0.493115 0.00171902 -0.994909 -0.100759
0.225142 -0.219455 0.486891 0.00171313 -0.999304 0.0372752
-0.102085 0.179709 0.568215 0.198445 -0.926454 0.319848
0.0094972 0.182811 0.570222 -0.0596688 -0.903225 0.425
-0.21696 0.163939 0.247513 0.999999 0.00172616 5.68123e-07
-0.121423 -0.223289 0.370668 0.00172247 -0.9992 0.0399536
-0.226135 0.214482 0.0808516 -0.00170034 0.99192 0.126853
0.133153 0.150466 0.33395 0 0 -1
0.107815 0.156145 0.406094 0.00172459 -0.999999 0
0.0399654 0.170353 0.468051 0.00170387 -0.999999 0
-0.0815901 0.00768642 0.378716 0 0 -1
-0.236104 -0.233454 0.132927 0.00173903 -0.999304 0.0372752
-0.17659 0.163496 0.398357 0.00172824 -0.992278 -0.124026
0.00869313 0.233779 0.69075 -0.059662 -0.965707 0.252686
0.104759 -0.224017 0.342729 0.0017225 -0.9992 0.0399539
-0.184302 -0.188955 0.336408 -0.00172246 0.999199 -0.0399762
0.0783927 0.156094 0.388915 0.00172459 -0.999999 0
0.0861583 0.0444461 0.378716 0 0 -1
-0.0352251 0.15948 0.479411 0.00172274 -0.999999 0
0.198314 0.0957322 0.414529 0 0 1
-0.20988 -0.0121525 0.413222 -0.51455 -0.000887592 0.85746
-0.14589 0.162164 0.413341 -0.00088724 0.514465 0.857511
0.216367 0.16627 0.223587 -0.999999 -0.0017262 -5.73813e-07
0.0196359 0.159158 0.33395 0 0 -1
-0.142338 0.172367 0.34929 -0.00170951 0.990341 0.138643
-0.217034 0.206924 0.0277604 0.999999 0.00172616 5.68123e-07
0.023402 0.236642 0.705165 -0.059662 -0.965707 0.252686
0.213426 -0.221951 0.384346 0.959355 0.00165237 -0.282197
-0.230618 -0.0230706 0.542557 0 0 -1
-0.13648 0.176847 0.607303 0.373671 -0.912982 0.163812
0.198557 0.0905772 0.378716 0 0 -1
0.0487799 -0.0661643 0.378716 0 0 -1
0.0711195 0.157369 0.501683 -0.145239 -0.955782 0.255709
0.216469 0.10763 0.524682 -0.999999 -0.00172497 1.19612e-05
-0.125794 0.163318 0.542769 0.00166308 -0.962539 0.271138
0.140096 -0.101029 0.378716 0 0 -1
0.00501998 0.176126 0.550756 0.00163892 -0.951328 0.308176
0.0173623 0.169934 0.349525 0.00169072 -0.992276 -0.124038
0.0969752 0.171467 0.35867 -0.00170951 0.990341 0.138643
-0.136965 -0.205858 0.378716 0 0 1
-0.192136 0.170208 0.364101 -0.00170951 0.990341 0.138643
0.189885 -0.0522664 0.33916 -0.999999 -0.00172589 0
0.190102 -0.178178 0.337142 -0.999999 -0.00172589 0
-0.213311 -0.157538 0.386102 -0.959338 -0.00165484 -0.282256
0.222826 -0.203186 0 0 0 -1
-0.21635 -0.189485 0.449005 0.999998 0.00172531 -3.10334e-07
-0.153818 0.161074 0.568881 0.203379 -0.973572 0.103895
-0.067814 0.168068 0.363281 0.00169067 -0.992278 -0.124026
0.16792 -0.239424 0.399853 0.00165451 -0.95936 0.28218
-0.216948 0.156689 0.382263 0.999999 0.00173785 2.97279e-06
-0.216314 -0.210526 0.366119 0.999998 0.00172531 -3.10334e-07
0.198216 0.142822 0.342009 0.887218 0.00153127 -0.461348
0.217009 -0.205607 0.350773 0.999999 0.00170349 2.10938e-05
0.164668 0.177539 0.37161 0.00169279 -0.993498 -0.113834
0.141749 0.166457 0.481553 -0.0536942 -0.992925 -0.10591
0.197122 -6.45071e-05 0.378716 0 0 -1
0.0742683 0.150976 0.378716 0 0 1
-0.196251 -0.239443 0.401926 0.00165454 -0.95936 0.282181
0.158841 0.0714872 0.378716 0 0 -1
-0.239377 -0.236324 0.0561458 0.00173903 -0.999304 0.0372752
-0.149165 0.0966929 0.378716 0 0 -1
-0.216291 -0.224063 0.209442 0.999998 0.00173897 1.58014e-07
0.0212335 0.163385 0.511338 0.00163892 -0.951328 0.308176
0.153638 0.118795 0.414529 0 0 1
-0.0343752 0.161997 0.412306 0.00170943 -0.992277 -0.124026
-0.239894 -0.205105 0.372567 -0.708326 0.705393 -0.026357
0.225872 0.162983 0.709932 -0.459538 -0.84598 0.270449
-0.230807 -0.234093 0.115562 0.00173903 -0.999304 0.0372752
-0.0430261 0.110204 0.414529 0 0 1
0.0537568 0.156052 0.40937 0.00172459 -0.999999 0
0.230447 0.168762 0.216762 0.70831 -0.700179 -0.0896982
0.150554 0.159529 0.435109 0.00173633 -0.994912 -0.100731
-0.0751295 0.201971 0.638172 0.217428 -0.924974 0.311687
0.129149 -0.147009 0.414529 0 0 1
0.224824 0.185968 0.0380468 0.708316 -0.700173 -0.0896982
-0.0513211 0.159452 0.459594 0.00172274 -0.999999 0
-0.177492 0.181639 0.672424 0.487426 -0.83448 0.257017
-0.0693114 -0.187945 0.356713 -0.00172247 0.999199 -0.0399761
0.208093 -0.138094 0.360071 0.88721 0.00152859 -0.461364
-0.213828 0.120507 0.378716 0 0 1
-0.220248 -0.197345 0.0673922 -0.00178317 0.999304 -0.0372713
0.240129 0.178995 0.364623 -0.00170084 0.99192 0.126853
-0.0871697 0.0994011 0.378716 0 0 -1
-0.191001 -0.105335 0.33395 0 0 -1
-0.0170936 -0.240215 0.398249 0.00165454 -0.95936 0.282181
-0.151055 0.156555 0.378716 0 0 1
0.0554336 -0.22412 0.342272 0.0017225 -0.9992 0.0399539
0.0496786 -0.191591 0.378716 0 0 1
0.220777 0.14015 0.36463 0.00154804 -0.99192 -0.126852
0.25553 -0.218986 0.495005 0.999999 0.00156329 6.76652e-06
0.0126468 -0.22603 0.378716 0 0 -1
-0.219636 -0.230042 0.22364 0.00173905 -0.999304 0.0372752
-0.221041 0.21874 0.047628 -0.00170034 0.99192 0.126853
0.237459 -0.219664 0.480701 0.00171313 -0.999304 0.0372752
-0.153001 -0.188011 0.358675 -0.00172247 0.999199 -0.0399761
-0.154349 0.152955 0.494846 0.00171902 -0.994909 -0.100759
0.117901 -0.187686 0.355115 -0.00172246 0.999199 -0.0399762
0.11648 -0.227034 0.394755 0.00172566 -0.999999 -1.81354e-05
0.235954 -0.236278 0.0353851 0.00171311 -0.999304 0.0372753
0.0551943 0.159636 0.460973 0.00170382 -0.999999 0
0.0576559 0.0283099 0.414529 0 0 1
0.226228 -0.194442 0.252327 0.705872 0.707849 -0.0263569
0.110494 -0.0876561 0.378716 0 0 -1
-0.00242826 0.22819 0.687338 0.122024 -0.947818 0.294534
0.084153 -0.0030857 0.378716 0 0 -1
0.205813 0.147423 0.378716 0 0 1
-0.020881 -0.238721 0.403351 0.00165454 -0.95936 0.282181
-0.207137 0.155601 0.40203 -0.00172594 0.999999 0
0.216382 0.157756 0.282126 -0.999999 -0.0017262 -5.73813e-07
0.0347705 0.206451 0.607774 -0.137716 -0.937324 0.32009
-0.197095 -0.103807 0.414529 0 0 1
-0.224909 0.202722 0.172823 -0.00170034 0.99192 0.126853
-0.196355 0.163683 0.470098 0.0690036 -0.991987 -0.105832
0.0774954 0.0961578 0.378716 0 0 -1
0.165228 -0.0773572 0.378716 0 0 -1
-0.123487 0.155905 0.516439 0.00166308 -0.962539 0.271138
0.246535 0.0747341 0.529593 0.707117 0.00122323 -0.707095
-0.222357 -0.232651 0.153823 0.00173905 -0.999304 0.0372752
0.247112 0.0864547 0.548825 0 0 1
-0.249971 -0.130917 0.542557 0 0 -1
-0.237755 0.187678 0.115121 -0.705904 -0.702605 -0.0896992
-0.150507 0.179137 0.644634 0.377588 -0.877464 0.295777
-0.162626 -0.00849771 0.378716 0 0 -1
0.203395 -0.0157104 0.351443 0.88721 0.00152859 -0.461364
-0.236291 0.203103 0.169694 -0.00170034 0.99192 0.126853
-0.123397 0.0766898 0.378716 0 0 -1
0.188342 0.187955 0.712662 -0.484561 -0.836146 0.257021
0.135812 0.16598 0.489034 -0.0536942 -0.992925 -0.10591
-0.166598 0.165169 0.383253 -0.00165452 0.959372 -0.282139
-0.077141 0.173433 0.342482 -0.00170951 0.990341 0.138643
-0.246096 -0.224105 0.0307282 -0.708334 0.705385 -0.0263556
0.230768 -0.193488 0.399541 0.705872 0.707849 -0.0263569
0.234884 -0.0911065 0.548825 0 0 1
-0.19679 -0.196046 0.378716 0 0 -1
0.129157 0.196568 0.647466 -0.386639 -0.887472 0.250807
0.217028 -0.216619 0.37277 -0.999998 -0.00172629 -6.30917e-07
0.254813 0.196672 0.199702 0.999999 0.00155127 -2.08841e-05
0.118658 0.116964 0.414529 0 0 1
0.0238588 0.111673 0.414529 0 0 1
0.0394908 0.226313 0.67244 -0.137132 -0.945972 0.293821
0.189915 -0.0696115 0.335524 -0.999999 -0.00172589 0
-0.00381748 -0.150627 0.378716 0 0 -1
-0.0567906 0.172177 0.351701 -0.00170951 0.990341 0.138643
0.229419 -0.235918 0.0453242 0.00171311 -0.999304 0.0372753
-0.083949 0.144876 0.414529 0 0 1
-0.235173 0.220837 0.0310422 -0.00170034 0.99192 0.126853
0.186025 0.15492 0.590292 -0.33498 -0.927822 0.164116
0.231393 0.0748446 0.542557 0 0 1
-0.204335 0.155606 0.405004 -0.00172594 0.999999 0
0.202606 -0.212031 0.414529 0 0 1
0.134028 0.171359 0.586081 -0.204673 -0.929063 0.308142
-0.240638 0.134826 0.523311 -0.707102 -0.00122123 -0.70711
0.189927 -0.0764811 0.353858 -0.999999 -0.00172589 0
-0.025332 0.212098 0.645044 0.122008 -0.947823 0.294525
-0.242235 0.219968 0.0377386 -0.00170034 0.99192 0.126853
-0.175166 0.123006 0.378716 0 0 -1
-0.0525733 0.11893 0.378716 0 0 -1
-0.236387 -0.200711 0.39592 -0.708326 0.705393 -0.026357
-0.220805 -0.233924 0.119615 0.00173905 -0.999304 0.0372752
-0.215242 0.0846308 0.401998 -0.959343 -0.00165485 0.282239
-0.243381 -0.0941572 0.542557 0 0 -1
0.0859809 0.169466 0.372831 -0.00170951 0.990341 0.138643
0.0652052 0.209781 0.655563 -0.17732 -0.939867 0.291905
-0.0761297 0.063282 0.414529 0 0 1
-0.0272398 0.170237 0.451191 0.00174164 -0.999998 0
0.170458 0.167628 0.389637 -0.00165685 0.959355 -0.282197
0.121006 0.0382338 0.378716 0 0 -1
0.16536 0.175787 0.386911 0.00169279 -0.993498 -0.113834
-0.0330603 0.173013 0.346022 -0.00170951 0.990341 0.138643
0.00566316 -0.00182799 0.414529 0 0 1
0.0610492 0.1446 0.358281 0.00171179 -0.990341 -0.138643
-0.0132809 0.136487 0.378716 0 0 -1
-0.248666 0.0433771 0.542557 0 0 -1
-0.0052993 0.0172314 0.414529 0 0 1
0.230665 0.180392 0.35357 -0.00170084 0.99192 0.126853
0.0592783 0.137363 0.378716 0 0 -1
-0.216932 0.147582 0.356711 0.999999 0.00172616 5.68123e-07
0.147395 0.153499 0.414529 0 0 1
0.214406 -0.0443509 0.404525 0.95936 0.00165235 0.28218
-0.0544032 0.104649 0.378716 0 0 -1
-0.0529312 -0.234866 0.380554 0.00088739 -0.51455 -0.85746
-0.142159 -0.237706 0.385733 0.0016545 -0.959355 -0.282198
-0.219547 0.0253708 0.504059 0 0 -1
0.223396 -0.185921 0.405318 0.705872 0.707849 -0.0263569
0.094725 0.165349 0.387268 0.00169066 -0.992275 -0.124049
0.0511914 -0.238471 0.389466 0.00165454 -0.959355 -0.282197
0.0391871 0.175324 0.389038 0.00169279 -0.993497 -0.113845
0.0725361 0.176688 0.569749 -0.124438 -0.914896 0.384032
0.190237 0.146523 0.346139 0.00171179 -0.990341 -0.138643
-0.243639 0.178097 0.365125 -0.00170045 0.99192 0.126853
0.0575437 0.0196322 0.378716 0 0 -1
0.216434 0.127618 0.498617 -0.999999 -0.00171366 2.0045e-06
0.209398 0.149957 0.503669 -0.055594 -0.98818 -0.142859
-0.255273 0.0563622 0.538971 -0.999999 -0.00172709 -9.95131e-05
-0.0881353 0.151234 0.378716 0 0 1
-0.185332 0.172553 0.347435 -0.00170951 0.990341 0.138643
0.213632 0.100598 0.406308 0.95936 0.00165238 0.282181
0.134896 -0.0492182 0.414529 0 0 1
-0.22444 0.107518 0.542557 0 0 1
-0.15437 0.0517493 0.414529 0 0 1
0.0192866 0.206334 0.624075 -0.118764 -0.948232 0.294535
-0.194315 0.155624 0.382444 0.00172459 -0.999999 0
-0.163974 -0.0993789 0.378716 0 0 -1
-0.190652 0.15563 0.38657 0.00172459 -0.999999 0
0.194427 0.179663 0.697161 -0.484561 -0.836146 0.257021
-0.226476 0.169012 0.436396 -0.00170045 0.99192 0.126853
0.23888 0.0877943 0.548825 0 0 1
-0.179391 0.172035 0.41225 0.0685479 -0.985686 -0.154024
0.0774542 0.141858 0.378716 0 0 1
-0.233676 -0.231073 0.196663 0.00173903 -0.999304 0.0372752
-0.0264333 0.196594 0.579425 0.00155877 -0.904819 0.425793
-0.00596437 0.199724 0.605612 0.0627986 -0.903012 0.425
-0.080369 0.177852 0.365179 0.00171154 -0.993497 -0.113845
-0.23978 0.0687526 0.542557 0 0 -1
0.103141 -0.219584 0.378716 0 0 1
-0.050852 0.175425 0.386805 0.00173031 -0.993497 -0.113845
-0.0452907 -0.214373 0.378716 0 0 -1
-0.227235 -0.190845 0.413991 -0.708326 0.705393 -0.026357
0.0392456 0.0262537 0.378716 0 0 -1
0.141069 0.145751 0.351048 0.00171179 -0.990341 -0.138643
-0.102712 0.168026 0.473264 0.0692451 -0.996019 -0.0561331
0.0445388 0.20954 0.621023 -0.137716 -0.937324 0.32009
0.0539326 0.11052 0.414529 0 0 1
-0.216785 0.0620317 0.518949 0.999999 0.00172497 1.4312e-05
