0.1956 0.017374 0.360354 0 0 -1
0.143109 0.143398 0.0373458 0.061503 0.0617557 0.996195
0.150953 0.179446 0.748818 -0.231795 -0.903244 0.361139
0.0307968 0.156761 0.441642 -0.0763566 -0.970148 -0.230178
-0.189675 -0.0141777 0.394839 0 0 1
0.0111645 -0.224335 0.351648 -0.000617344 0.375529 -0.92681
0.0257383 0.142656 0.50277 -0.0763566 -0.970148 -0.230178
0.0312723 0.151002 0.531151 -0.076349 -0.970149 -0.230177
-0.0503713 0.0137451 0.394839 0 0 1
0.126368 -0.16061 0.360354 0 0 -1
0.10514 0.165862 0.648651 -0.129596 -0.920679 0.368178
-0.00851885 -0.0690764 0.272086 0.000284691 -0.173649 -0.984807
-0.0280493 0.143478 0.564153 0.0795723 -0.971302 -0.224146
0.2289 0.203983 0.0087299 0.265112 0.0529284 0.962764
0.234399 0.0698073 0.392605 0.000257236 -0.15743 -0.98753
-0.161413 0.105216 0.377433 0.999999 0.0014828 0.000357601
-0.0861128 -0.109476 0.0424785 0.160058 -0.27658 0.947568
0.15415 0.185912 0.775303 -0.000272211 0.173569 0.984822
0.0145834 -0.118855 0.28087 0.000284691 -0.173649 -0.984807
-0.203708 0.060561 0.36707 0.0965348 -0.377943 0.920782
-0.0454507 -0.0953698 0.337059 -0.000284266 0.173649 0.984807
-0.249293 -0.120106 0.472965 -0.000996067 0.595842 0.803101
-0.112067 0.155376 0.664383 0.13256 -0.920251 0.368194
-0.220122 0.154072 0.731692 -1 -0.000694813 -0.000414311
0.0715167 -0.167478 0.360354 0 0 -1
0.0330899 -0.0124111 0.289255 0.9771 0.21278 0
0.265871 -0.085501 0.443737 0.999999 0.0014776 -0.00040855
0.221876 -0.0718283 0.373608 0.999999 0.00163036 0
0.0226848 -0.221641 0.388481 0.00095189 -0.579831 0.814736
0.126873 0.155828 0.674291 -0.231795 -0.903244 0.361139
-0.261536 0.0560247 0.412258 -0.483203 0.137089 0.864709
0.0513973 -0.0377799 0.312017 -0.000424693 0.258946 0.965892
-0.122035 -0.0348477 0.311154 -0.000424693 0.258946 0.965892
-0.264934 0.0833675 0.405123 -0.999999 -0.00161199 -0.000171812
-0.0227119 0.141428 0.511726 0.0794706 -0.965704 -0.247186
0.01319 0.177408 0.697998 -0.0126036 -0.927759 0.372967
-0.263044 -0.162676 0.516616 -0.438383 -0.881397 0.175954
0.0550153 -0.138724 0.360354 0 0 -1
0.243825 -0.116897 0.539451 -0.000547868 0.341701 -0.939809
0.255525 -0.0431755 0.417338 0.000600132 -0.358977 -0.933346
0.218605 0.137106 0.687773 0.999999 0.00133894 9.63202e-05
0.081464 0.143433 0.484437 -0.0277369 -0.963964 -0.264582
-0.0321572 -0.00813328 0.27704 -0.977796 0.209559 0
0.209789 -0.142314 0.360354 0 0 -1
0.213363 0.170847 0.745778 -0.277573 -0.891754 0.357389
0.0528367 -0.0772822 0.0386776 -0.607046 -0.536313 -0.586398
0.248289 -0.11881 0.559852 0.000559652 -0.341753 0.93979
-0.0832489 0.0857601 0.0446188 -0.061703 0.0615507 0.996195
-0.0333807 0.168935 0.461465 0.0794868 -0.965702 -0.247185
-0.22183 0.00956263 0.394077 -0.999999 -0.00160505 -0.000692645
-0.121836 0.140221 0.426344 0.0508858 -0.369855 0.927695
-0.00541731 -0.0204675 0.0784918 -0.257188 -0.966361 0
-0.16495 0.115287 0.603129 0.266471 -0.891113 0.367302
0.23904 0.081317 0.563218 -0.000177224 0.108463 0.9941
0.204491 -0.233022 0.350459 8.13731e-05 -0.0494991 -0.998774
-0.191741 -0.0179724 0.325083 0.000684676 -0.414688 0.909963
0.104233 -0.160259 0.332768 0 0 1
-0.0670946 0.078602 0.363907 0.0545367 -0.390568 0.918957
-0.189305 -0.191324 0.0129314 0 0 1
-0.00780852 -0.0536855 0.360354 0 0 -1
-0.215122 0.0023375 0.334356 0.000705045 -0.414693 0.909961
0.0568573 -0.157026 0.34796 -0.000284691 0.173649 0.984807
-0.0183582 0.0218385 0.022781 0.708444 -0.705767 0
0.235643 -0.146194 0.520747 -0.00146477 0.89458 -0.446905
-0.21015 0.0886105 0.379876 0.131478 -0.392771 0.910189
-0.0441338 0.0277243 0.360354 0 0 -1
-0.155782 -0.142252 0.360354 0 0 -1
-0.0602128 -0.0726725 0.0257269 0.708278 -0.705934 0
0.0107119 -0.125217 0.360354 0 0 -1
-0.149133 0.12865 0.0377918 -0.277726 -0.161258 0.947029
-0.0458588 0.161928 0.394854 0.0484201 -0.414162 0.908914
-0.112379 -0.160184 0.325871 0 0 -1
-0.181272 -0.227702 0.350412 -0.000617344 0.375529 -0.92681
0.000530692 0.00142827 0.259657 -0.000283357 0.173631 0.984811
-0.132156 -0.223962 0.38701 0.000953134 -0.579791 0.814765
0.0995494 0.14321 0.541347 -0.076349 -0.970149 -0.230177
0.112721 0.101475 0.0181397 -0.0246314 -0.0247245 -0.999391
-0.182516 -0.208873 0.393551 0.000202744 -0.123329 0.992366
0.184227 0.140624 0.411597 -0.304966 -0.920996 -0.24241
-0.0309202 0.052006 0.0428996 0.607873 0.537408 -0.584536
0.188405 0.152457 0.671557 -0.263579 -0.891976 0.367295
0.167504 -0.00675195 0.394839 0 0 1
-0.176152 0.192365 0.00430154 0.880857 -0.172656 -0.440773
0.0277334 0.209444 0.739579 -0.012587 -0.927761 0.372963
-0.239634 0.117719 0.391892 0.000103796 -0.0633737 -0.99799
-0.161336 0.0594643 0.352308 0.999999 0.0014828 0.000357601
-0.0357412 0.173903 0.440315 0.031227 -0.972504 -0.230782
-0.00590043 0.00919485 0.394839 0 0 1
-0.168829 -0.239224 0.371248 0.00147473 -0.897075 0.441876
0.230921 0.0221086 0.568715 -0.000106847 0.0654296 0.997857
0.0240517 0.133069 0.543735 -0.0763566 -0.970148 -0.230178
-0.163003 0.187559 0.739386 0.266483 -0.891112 0.367297
0.0903356 -0.236884 0.374423 0.00125029 -0.761613 0.648031
0.0948304 0.0237769 0.394839 0 0 1
-0.0633459 -0.0873663 0.360354 0 0 -1
0.140439 0.0256536 0.360354 0 0 -1
0.135289 0.0979149 0.410043 -0.050396 -0.369819 0.927736
-0.149532 0.0912736 0.408349 0.0508858 -0.369855 0.927695
0.0661924 0.179422 0.398954 -0.117924 -0.965079 -0.233914
-0.226073 0.0631716 0.410049 0.483235 0.138554 0.864458
-0.117596 0.167789 0.417412 0.227803 -0.946275 -0.229497
0.0608451 0.0599454 0.0475977 0.0615229 0.0617319 0.996195
0.224242 -0.084816 0.550639 -0.533832 0.204186 -0.820568
-0.220775 -0.0362199 0.360392 0.999998 0.00164507 0.00122835
-0.116461 0.134702 0.571588 0.25191 -0.929013 0.271065
-0.140569 -0.025571 0.360354 0 0 -1
-0.233415 0.026343 0.399411 0.000256685 -0.15743 -0.98753
0.00700532 0.187293 0.393183 0.00173905 0.41467 -0.90997
0.115596 0.00499453 0.394839 0 0 1
0.0266736 -0.0868578 0.335579 -0.000284691 0.173649 0.984807
0.0197533 0.00890214 0.155419 0.965337 0.261008 0
-0.215588 0.121233 0.616852 0.30239 -0.885236 0.353438
0.247192 -0.0543354 0.572514 0.000197641 -0.118224 0.992987
-0.241024 -0.0575937 0.42534 0.000600103 -0.358975 -0.933347
0.121233 -0.072073 0.360354 0 0 -1
0.0619006 0.151794 0.517654 -0.076349 -0.970149 -0.230177
0.247795 -0.131428 0.463722 0.000955552 -0.595823 -0.803116
0.183957 0.103393 0.560429 -0.2464 -0.948993 -0.196724
0.100682 -0.0884115 0.0332976 -0.0617217 0.0615376 -0.996195
-0.0164337 0.0521324 0.395011 0 0 1
-0.220441 -0.240015 0.369275 0.999999 0.00166183 -0.00024819
-0.0503336 0.137529 0.518076 0.0794706 -0.965704 -0.247186
-0.101883 0.146805 0.639296 0.13256 -0.920251 0.368194
-0.240117 -0.0324441 0.434141 -0.00058654 0.358942 0.93336
-0.171162 0.158808 0.40009 0.308034 -0.919961 -0.242458
-0.0266398 -0.158596 0.337836 0.00163947 -0.999999 0
-0.210793 0.093997 0.572945 0.251879 -0.929029 0.271038
0.0388553 -0.0939974 0.394839 0 0 1
-0.021337 -0.00824133 0.181456 -0.965573 -0.260133 0
0.0267027 0.154088 0.605087 -0.0678975 -0.919235 0.38781
-0.171758 0.177359 0.023092 0.0617471 -0.061516 -0.996194
0.0699075 0.181767 0.678259 -0.0678975 -0.919235 0.38781
0.106144 0.159682 0.398677 -0.092466 -0.412993 0.906028
-0.0103059 0.109273 0.410071 0.000618004 -0.375194 0.926946
0.204729 0.10108 0.384238 -0.130131 -0.393202 0.910197
0.0333188 0.063039 0.395011 0 0 1
-0.0595728 -0.118233 0.394839 0 0 1
-0.161779 0.00748816 0.360354 0 0 -1
-0.0666971 0.151633 0.403771 0.136299 -0.990668 0
0.265853 -0.0709457 0.564941 0.999998 0.00178336 -0.000380909
-0.239253 0.11206 0.459745 0.00160737 -0.974924 -0.22253
0.22103 -0.147886 0.390168 -0.999998 -0.00159781 -0.000847929
0.127497 -0.125336 0.0173093 -0.0247246 0.0246309 -0.999391
0.14348 -0.0187901 0.360354 0 0 -1
-0.228736 -0.116505 0.450228 0.000753881 -0.461349 -0.887218
0.00720792 -0.0361996 0.326641 -0.000284266 0.173649 0.984807
-0.165478 -0.0518011 0.360354 0 0 -1
0.101778 0.135189 0.610212 -0.0678976 -0.919235 0.38781
0.0871397 -0.0950451 0.0190543 -0.0247273 0.0246285 -0.999391
-0.0475712 -0.0735282 0.394839 0 0 1
-0.140441 0.0394978 0.382651 -0.00164099 0.999999 0
-0.0753753 0.229071 0.767626 -0.000284984 0.173505 0.984833
-0.0970246 -0.242507 0.359813 0.001603 -0.976442 -0.215773
0.219783 0.0163009 0.408178 -0.999999 -0.00159848 -0.000258792
-0.129867 0.121639 0.542112 0.245738 -0.9439 -0.220603
0.193516 -0.212257 0.0301507 -0.263323 -0.1762 0.94848
0.23264 -0.00792471 0.570685 -0.000106847 0.0654296 0.997857
-0.200104 -0.176351 0.394839 0 0 1
0.117622 0.194413 0.726066 -0.231795 -0.903245 0.361136
0.0571707 0.126788 0.55953 -0.0763529 -0.971564 -0.224129
-0.0343767 0.180059 0.41456 0.031227 -0.972504 -0.230782
-0.246556 -0.0198993 0.409938 0.000410105 -0.250963 -0.967997
-0.15159 0.172018 0.0319836 0.534783 0.609087 0.585679
0.0759749 0.169873 0.651127 -0.0678975 -0.919235 0.38781
-0.252008 -0.147137 0.498014 -0.00143115 0.874044 0.485844
-0.0849979 -0.15603 0.323303 -0.0950037 -0.704143 -0.703674
0.200958 0.219682 0.0263545 -0.123361 0.614028 0.779585
-0.0298817 -0.12661 0.342572 -0.000284691 0.173649 0.984807
-0.22001 0.0850971 0.554099 0.999999 0.00164529 0.000157252
-0.165396 -0.178205 0.0152971 0.708278 -0.705934 0
0.0134015 0.0271056 0.360354 0 0 -1
-0.19227 -0.124516 0.360354 0 0 -1
0.106371 0.178611 0.680965 -0.129596 -0.920679 0.368178
-0.0187937 0.0150849 0.270359 -0.518133 0.8553 0
-0.24167 -6.68485e-05 0.57271 -0.00010933 0.0654465 0.997856
0.0492072 -0.0240681 0.360354 0 0 -1
0.262797 0.000958561 0.556063 0.483098 -0.0564483 -0.873745
-0.0964996 0.062237 0.395011 0 0 1
0.108378 0.197621 0.768847 0.000287832 -0.175169 -0.984538
0.219398 -0.0979812 0.394839 0 0 1
-0.156372 -0.107865 0.360354 0 0 -1
0.0623343 0.0398306 0.377151 -0.00164099 0.999999 0
-0.0459024 0.197752 0.750058 0.015671 -0.927712 0.372967
0.257798 -0.162104 0.512292 0.441836 -0.891594 0.0992011
0.26458 0.10843 0.397965 0.999999 0.00162211 6.59801e-05
0.221305 -0.056786 0.439461 -0.533908 0.302863 0.78944
-0.198617 0.113934 0.577567 0.274163 -0.945573 0.175289
-0.197044 0.113857 0.618572 0.309129 -0.884416 0.34964
0.204625 0.126052 0.403233 -0.314192 -0.949359 0
-0.183473 -0.203258 0.0314583 -0.0615174 -0.0617376 0.996195
0.183423 0.12024 0.539945 -0.999531 -0.00124783 0.030599
-0.105841 0.00696777 0.394839 0 0 1
0.169033 -0.0660231 0.360354 0 0 -1
0.0955957 0.145982 0.634711 -0.0678976 -0.919235 0.38781
-0.0654263 -0.082364 0.0462402 -0.0615174 -0.0617376 0.996195
0.17536 0.152233 0.699316 -0.263576 -0.891975 0.367298
0.154101 0.152486 0.647012 -0.263579 -0.891976 0.367295
0.264845 -0.0208395 0.414384 0.440434 -0.224629 -0.86923
-0.227325 -0.0846086 0.551371 0.483008 0.213133 -0.849281
-0.100478 0.137294 0.387096 0.00147963 -0.909921 -0.414778
0.16218 0.0917734 0.363463 -0.0006932 0.414687 -0.909964
0.0591471 0.157385 0.655359 -0.0678976 -0.919235 0.38781
0.156234 0.161556 0.670568 -0.263579 -0.891976 0.367295
-0.210693 0.191795 0.0197873 0.0617471 -0.061516 -0.996194
0.129844 0.14288 0.427701 -0.0497791 -0.370771 0.927389
-0.202375 0.103618 0.535416 0.312295 -0.921926 -0.229183
0.192135 -0.0530663 0.305483 0.00133687 -0.808868 0.587989
0.0972451 0.123399 0.56057 -0.0763529 -0.971564 -0.224129
-0.0225039 0.1401 0.383666 0.0483822 -0.414123 0.908934
0.0561005 -0.118077 0.3017 0.9771 0.21278 0
0.0167819 -0.14868 0.318908 0.00042501 -0.258869 -0.965912
0.108282 -0.101463 0.394839 0 0 1
-0.194173 0.137452 0.40934 0.308112 -0.919943 -0.24243
-0.227492 0.0784399 0.391964 0.483559 -0.0546777 -0.873602
-0.17141 -0.0275817 0.30932 -0.000685378 0.414688 -0.909963
0.149936 0.146232 0.386457 0.137752 0.410922 -0.901203
-0.144161 0.138155 0.521935 0.245742 -0.943893 -0.220628
-0.0473165 -0.0533506 0.305971 0.00158419 -0.965922 0.258827
0.146885 0.209303 0.766799 0.000285303 -0.17363 -0.984811
0.194731 -0.197017 0.0129314 0 0 1
0.0582102 -0.0667711 0.394839 0 0 1
-0.0485346 -0.0845497 0.2968 -0.977796 0.209559 0
-0.173331 0.0858537 0.372384 0.000684676 -0.414688 0.909963
0.185283 0.158666 0.393931 -0.000667491 0.414693 -0.909961
-0.0276259 -0.121252 0.394839 0 0 1
0.00431994 0.167609 0.470097 -0.076349 -0.970149 -0.230177
0.153299 -0.0675878 0.394839 0 0 1
0.218613 0.133397 0.415983 0.999997 0.00222959 0.000132271
0.0352846 0.166809 0.463198 -0.076349 -0.970149 -0.230177
0.152664 -0.0302976 0.307229 -0.00116203 0.70705 0.707163
0.159247 -0.158231 0.360354 0 0 -1
0.00619783 0.0898715 0.367637 0.00064765 -0.396396 0.918079
0.160666 -0.17104 0.0153623 -0.0247273 0.0246285 -0.999391
0.170164 0.110881 0.595165 -0.263576 -0.891975 0.367298
0.180885 0.136953 0.628509 -0.263579 -0.891976 0.367295
0.062356 0.0799439 0.398917 -0.050396 -0.369819 0.927736
-0.0335394 0.0762542 0.396722 0.000613 -0.375188 0.926948
-0.124039 -0.14595 0.0287357 0.277558 -0.159633 -0.947353
0.042534 0.143908 0.390942 0.000652906 -0.39639 0.918082
0.170364 0.185834 0.739668 -0.263579 -0.891976 0.367295
0.219617 0.117928 0.640156 1 0.000694814 0.000403173
0.222066 -0.188345 0.386238 0.999998 0.00159776 0.000850206
-0.120153 0.11775 0.383702 0.0538743 -0.391577 0.918567
0.169415 -0.0330463 0.360354 0 0 -1
-0.215746 0.112827 0.373341 -0.000685378 0.414688 -0.909963
0.0191281 -0.00155272 0.0813079 0.965508 0.260374 0
0.0610643 0.20661 0.760587 -0.0463863 -6.00159e-05 0.998924
-0.235066 -0.0218275 0.573292 0 0 1
0.226149 -0.0808765 0.435524 -0.592706 -0.372273 -0.714221
-0.157483 0.182852 0.775752 -0.000294604 0.173559 0.984824
-0.0017355 0.138861 0.527188 0.0312093 -0.972505 -0.230782
0.0465924 -0.0744151 0.291069 0.9771 0.21278 0
-0.237605 0.100615 0.551237 -0.00161595 0.978436 0.206543
-0.00142486 -0.21236 0.39241 0.000596135 -0.362627 0.931934
-0.126328 0.201105 0.748964 0.234781 -0.90247 0.361145
-0.226156 0.0192478 0.568427 0.592035 0.0537895 0.804115
0.209953 -0.206563 1.19916e-17 3.53754e-17 5.3117e-17 -1
0.050146 0.188238 0.726914 -0.0678976 -0.919235 0.38781
-0.0415659 -0.104502 0.278323 0.000284691 -0.173649 -0.984807
-0.2374 -0.165655 0.517318 0.00160556 -0.980562 0.196205
0.00248283 0.00904381 0.318662 -0.000309828 0.173723 0.984795
-0.219163 0.131562 0.39325 0.000705045 -0.414693 0.909961
-0.134202 0.16529 0.70338 0.23477 -0.902471 0.36115
-0.216054 0.0228188 0.360354 0 0 -1
-0.0252599 -0.221191 0.353082 -0.000722141 0.439277 -0.898351
-0.0834444 0.155882 0.61982 0.070925 -0.919008 0.387806
-0.0581515 0.142185 0.579626 0.0719802 -0.957501 0.279305
0.1039 0.155448 0.489522 -0.134511 -0.964939 -0.225387
-0.0407091 -0.0418501 0.394839 0 0 1
-0.193016 -0.175567 0.360354 0 0 -1
-0.16813 -0.14097 0.394839 0 0 1
-0.0994608 0.161998 0.463083 0.137638 -0.964495 -0.2254
-0.221462 -0.214532 0.372844 -0.999999 -0.00166934 0.000345528
0.207761 -0.0324107 0.318204 0.000684631 -0.414692 0.909962
-0.073295 -0.242873 0.363522 0.00147473 -0.897075 0.441876
-0.0860609 -0.0786779 0.394839 0 0 1
0.14821 0.056618 0.359961 0 0 1
-0.18518 0.166819 0.705158 0.266483 -0.891112 0.367297
-0.0118351 -0.0219004 0.127082 -0.705884 -0.708327 0
0.239597 -0.0568499 0.554851 -0.000197588 0.118197 -0.99299
-0.0482137 -0.154913 0.336552 0.00116527 -0.707195 0.707017
0.197107 0.0723408 0.370977 -0.0952897 -0.378275 0.920776
-0.236423 -0.133316 0.486002 -0.0009959 0.595843 0.8031
0.128119 0.1183 0.578379 -0.248866 -0.929833 0.271066
0.0642178 -0.190754 0.394839 0 0 1
-0.157309 0.139166 0.406742 0.136299 -0.990668 0
-0.00393849 0.0192882 0.214357 -0.260275 0.965535 0
0.239414 -0.0306576 0.556049 0 0 -1
0.0511633 -0.146484 0.394839 0 0 1
-0.0778223 0.14193 0.553192 0.0795719 -0.971301 -0.224148
0.177357 -0.187854 0.394839 0 0 1
0.0865374 0.17373 0.700574 -0.129579 -0.920679 0.368183
0.0136506 -0.189178 0.360354 0 0 -1
-0.204842 0.1739 0.00916003 -0.052339 -0.26521 0.962769
-0.0616527 0.1346 0.602183 0.0709325 -0.919009 0.387804
0.108869 -0.226221 0.38512 0.00095189 -0.579831 0.814736
-0.106778 -0.192038 0.332768 0 0 1
0.130377 0.153449 0.632325 -0.263579 -0.891976 0.367295
-0.148109 0.131864 0.424453 0.0508858 -0.369855 0.927695
-0.218775 0.0884136 0.414845 0.0953611 -0.373348 0.922777
0.0196133 -0.147542 0.340035 0.000424928 -0.25882 0.965926
-0.200424 -0.0499503 0.394839 0 0 1
-0.219331 -0.0544377 0.302968 0.00157846 -0.965961 0.258683
-0.158256 -0.0357055 0.286924 -0.000424911 0.259079 -0.965856
-0.00189157 -0.0428201 0.285757 0.000424906 -0.259078 -0.965856
0.184528 0.109423 0.384954 -0.130131 -0.393202 0.910197
-0.250218 -0.0636865 0.551529 -0.000197584 0.118212 -0.992988
0.0313184 -0.00427602 0.267832 0.9771 0.21278 0
0.0150657 0.0229995 0.0229064 -0.557522 0.830162 0
-0.0394366 -0.137259 0.326992 -0.00159155 0.965912 -0.258867
-0.136991 -0.10882 0.394839 0 0 1
-0.197121 -0.178198 0.0051521 0.193424 0.981115 0
0.199573 -0.0331043 0.360354 0 0 -1
-0.154589 -0.190899 0.360354 0 0 -1
-0.191073 0.178772 0.749135 0.309115 -0.884421 0.34964
0.03274 0.174615 0.43247 -0.0277534 -0.963968 -0.264568
-0.195209 0.11209 0.38785 0.131478 -0.392771 0.910189
-0.0295999 0.215811 0.755692 0.0156386 -0.927714 0.372963
0.177333 -0.16692 0.0340834 0.0617238 -0.061536 0.996194
0.0242084 0.0102563 0.300746 0.884325 0.466872 0
0.0489914 -0.0854315 0.314727 0.9771 0.21278 0
-0.262974 -0.00519888 0.423185 -0.483441 0.218877 0.847572
-0.242284 -0.0963829 0.439754 0.000753881 -0.461349 -0.887218
-0.178515 0.0263387 0.360354 0 0 -1
-0.22063 -0.124242 0.383047 0.999999 0.00162844 0.000185067
-0.083817 0.184022 0.687012 0.132576 -0.920251 0.368188
-0.233402 -0.130547 0.534575 -0.000645041 0.393946 -0.919133
0.248414 -0.152062 0.541881 0.00124328 -0.75931 0.650727
0.094003 -0.141706 0.321415 0.0949761 0.704014 -0.703807
0.120092 -0.045928 0.311649 0.000424689 -0.258946 0.965892
-0.244823 -0.103945 0.561533 0.000405412 -0.242516 0.970147
-0.142364 -0.0580115 0.394839 0 0 1
-0.0633425 -0.16987 0.394839 0 0 1
0.166111 0.0273609 0.334106 -0.0006932 0.414687 -0.909964
-0.0313295 -0.0089985 0.0493019 -0.680447 0.454045 0.575182
0.103747 0.187931 0.742142 -0.129579 -0.920679 0.368183
-0.220687 -0.0909286 0.391014 -0.999999 -0.00160509 -0.000690395
0.175296 0.163618 0.015909 0.708276 -0.705935 0
0.0860619 0.149194 0.520598 -0.076349 -0.970149 -0.230177
0.0085613 -0.240392 0.368285 0.00147272 -0.897109 0.441806
0.069984 -0.0653044 0.0366269 -0.0617045 0.0615519 -0.996195
-0.265962 0.113957 0.398976 -0.999999 -0.00163426 -6.5965e-05
-0.110956 0.19637 0.773382 -0.000287916 0.173742 0.984791
0.0295423 0.136086 0.599691 -0.0678976 -0.919235 0.38781
0.201515 0.182038 0.0210874 0.160386 -0.276885 -0.947423
0.169448 0.0602935 0.39817 -0.0941267 -0.373658 0.922778
0.112187 0.0876836 0.370335 -0.0533734 -0.391668 0.918557
0.247852 -0.10126 0.445624 0.000755395 -0.46135 -0.887218
0.131493 0.169285 0.710916 -0.231795 -0.903244 0.361139
-0.128918 0.153557 0.398343 0.0937705 -0.412743 0.906008
0.138062 -0.225337 0.351157 -0.000617344 0.375529 -0.92681
0.161263 -0.0478958 0.303908 0.999999 0.00144973 0
0.229997 -0.122065 0.475003 -0.000996228 0.595826 0.803113
0.0917139 0.12626 0.586064 -0.0675943 -0.957822 0.279298
-0.0293383 0.0242967 0.394839 0 0 1
0.04209 0.21643 0.760366 0 0 1
0.068919 0.142623 0.391243 -0.0524915 -0.390973 0.918904
0.183819 0.0400299 0.364216 -0.00164099 0.999999 0
0.15404 -0.24016 0.368272 0.00147272 -0.897109 0.441806
-0.0596632 0.128061 0.418068 0.0517397 -0.370537 0.927375
0.2379 0.0495189 0.415918 -0.000256751 0.157435 0.987529
-0.0392227 0.181788 0.71007 0.015671 -0.927712 0.372967
-0.175491 -0.0339764 0.394839 0 0 1
-0.126878 0.126472 0.0171738 0.0247252 -0.0246318 -0.999391
-0.0453596 -0.234447 0.377549 0.00125029 -0.761613 0.648031
-0.0316956 -0.097854 0.394839 0 0 1
0.0768418 0.157418 0.430823 -0.134459 -0.964938 -0.225422
0.221789 -0.0183115 0.384648 0.999999 0.00163036 0
-0.249602 -0.154356 0.536044 0.00131003 -0.800069 0.599906
-0.140916 -0.157392 0.394839 0 0 1
-0.00960358 0.00267792 0.0525877 0 0 -1
-0.0632376 -0.188949 0.360354 0 0 -1
-0.0897424 0.171606 0.418426 0.121038 -0.964693 -0.233918
0.236085 0.101517 0.550651 -0.00158249 0.978425 0.206597
0.00196264 0.153265 0.426954 0.00164715 -0.999999 0
0.220805 0.0869585 0.387177 -0.999999 -0.00163827 0
0.209305 -0.00303473 0.33159 0.000684631 -0.414692 0.909962
0.126196 0.104296 0.0401853 0.27794 -0.160048 0.947172
-0.200712 0.153381 0.684645 0.30239 -0.885236 0.353438
-0.165965 -0.0552576 0.29958 0.00157846 -0.965961 0.258683
0.0184287 0.201124 0.772581 -0.00028529 0.173622 0.984812
0.161777 0.127199 0.390976 0.00067042 -0.414689 0.909963
-0.073775 0.052118 0.395011 0 0 1
0.204809 0.204503 0.0129314 0 0 -1
0.184796 0.132241 0.489694 -0.282699 -0.9326 -0.224362
-0.195407 -0.21895 1.27678e-17 1.26186e-16 -1.25769e-16 -1
0.24685 0.119533 0.409104 -0.000105941 0.0633638 0.99799
0.216842 0.0949055 0.583907 -0.271079 -0.946472 0.175232
0.02844 -0.147176 0.285868 0.000284691 -0.173649 -0.984807
-0.000664872 0.165991 0.394833 0.0028866 -0.414685 0.90996
0.0336002 -0.0480477 0.394839 0 0 1
-0.228626 -0.0816344 0.432096 0.000753881 -0.461349 -0.887218
0.0667396 0.131241 0.594717 -0.0678976 -0.919235 0.38781
-0.145127 -0.239158 0.371304 0.00147473 -0.897075 0.441876
0.169348 -0.147841 0.0284725 0.53458 0.608978 -0.585978
-0.00862345 -0.140654 0.345054 -0.000284691 0.173649 0.984807
0.0998599 -0.00185167 0.360354 0 0 -1
0.173116 0.118888 0.616729 -0.263576 -0.891975 0.367298
0.00779654 -0.0897717 0.27574 0.000284691 -0.173649 -0.984807
0.206935 0.164768 0.725618 -0.277573 -0.891754 0.357389
-0.0440803 0.0987781 0.371518 0.00064765 -0.396396 0.918079
0.220752 0.024167 0.387905 0.999999 0.00163031 0
-0.102277 0.192878 0.715793 0.132576 -0.920251 0.368188
0.153121 0.0399796 0.383834 -0.00164099 0.999999 0
0.0171519 0.112639 0.411415 0.000613 -0.375188 0.926948
0.0433581 -0.033073 0.288468 -0.00115951 0.706979 -0.707234
-0.0635253 -0.00286227 0.394839 0 0 1
-0.163387 0.147986 0.681326 0.266471 -0.891113 0.367302
0.264945 -0.116045 0.547224 0.999999 0.00123474 0.000619561
0.247036 0.0535319 0.548906 0.000185354 -0.108446 -0.994102
-0.180854 0.0393933 0.394839 0 0 1
0.0574551 -0.0868948 0.360354 0 0 -1
0.178556 0.013635 0.394839 0 0 1
0.0558844 -0.158461 0.323541 0.00163947 -0.999999 0
-0.204379 0.128937 0.63484 0.309115 -0.884421 0.34964
0.0321893 -0.0941214 0.276514 0.000284266 -0.17365 -0.984807
-0.094112 0.1312 0.421227 0.0508858 -0.369855 0.927695
-0.26121 -0.0749236 0.445611 -0.440915 0.413508 0.796621
-0.100126 0.123398 0.558327 0.0795554 -0.971284 -0.224226
-0.035392 0.0177536 0.0414001 0.0617041 -0.0615518 -0.996195
0.185694 0.138563 0.653342 -0.999766 -0.00124956 0.0215753
0.0717743 0.236736 0.766317 -0.00028691 0.173806 0.98478
-0.219968 0.0593074 0.556772 0.999999 0.00162555 9.06559e-05
0.257981 0.0268364 0.416379 0.439767 0.142049 0.886807
-0.210018 0.208339 1.1834e-17 -1.45447e-17 -7.38721e-17 -1
-0.0266526 -0.0723735 0.360354 0 0 -1
0.15879 -0.106213 0.394839 0 0 1
0.249372 0.11094 0.468167 0.00163459 -0.974923 -0.222535
0.00221948 0.0213049 0.291138 -0.00157156 0.999999 0
-0.201078 -0.154627 0.394839 0 0 1
0.00428598 0.0232267 0.0525659 -0.0654442 0.326475 0.942937
0.11273 0.142797 0.471683 -0.242611 -0.944695 -0.220662
0.0849131 -0.209168 0.358428 -0.000261323 0.158962 -0.987285
-0.0357866 -0.214443 0.391622 0.000596135 -0.362627 0.931934
-0.124127 -0.0150489 0.394839 0 0 1
-0.181265 0.0680857 0.364293 0.000684676 -0.414688 0.909963
-0.158175 0.00647381 0.394839 0 0 1
-0.114018 -0.182339 0.360354 0 0 -1
0.155387 -0.145216 0.394839 0 0 1
-0.219079 0.124083 0.458449 -0.999997 -0.00231999 -0.000154614
-0.204561 -0.213507 0.392094 0.000595361 -0.362655 0.931923
-0.0754211 0.0874521 0.402721 0.0517397 -0.370537 0.927375
-0.182261 0.106406 0.594141 0.266471 -0.891113 0.367302
0.22905 0.0471046 0.396222 0.000257236 -0.15743 -0.98753
-0.107643 0.0869276 0.404309 0.0517397 -0.370537 0.927375
-0.161666 0.130684 0.638101 0.266471 -0.891113 0.367302
-0.21532 -0.0179399 0.394839 0 0 1
0.153333 0.127284 0.0314188 0.708379 -0.70583 0.00184542
0.259452 -0.0194453 0.55483 0.483006 0.000740474 -0.875617
-0.252679 0.0991416 0.554246 -0.00160656 0.974658 0.223693
-0.00594811 0.173311 0.446845 0.031227 -0.972504 -0.230782
-0.23429 0.071403 0.54687 0.000181288 -0.108441 -0.994103
-0.200235 0.160781 0.739606 0.280619 -0.890811 0.357363
0.0064527 0.178876 0.412096 -0.0279695 -0.971472 -0.235499
-0.0674767 -0.214517 0.35638 -0.000722141 0.439277 -0.898351
0.103823 0.146793 0.414396 -0.133064 -0.991107 0
-0.101379 0.00763628 0.360354 0 0 -1
0.260402 0.0908275 0.563003 0.439859 0.0980777 0.892695
-0.162891 -0.0275062 0.360354 0 0 -1
-0.250186 0.0792703 0.391742 0.000103334 -0.0633785 -0.99799
0.171313 0.155899 0.412368 -0.305012 -0.920975 -0.24243
-0.219882 0.00818652 0.415115 0.999999 0.00161283 0.00025401
0.0578101 0.0777479 0.0381021 -0.608552 0.534033 -0.586919
0.257377 -0.136731 0.553037 0.440816 -0.353026 0.82526
0.141254 0.114354 0.561547 -0.25553 -0.933524 -0.251471
0.0142949 0.164608 0.41433 -0.0277369 -0.963964 -0.264582
0.0501805 0.169089 0.401044 -0.02797 -0.97148 -0.235467
0.233863 -0.101886 0.544078 -0.00040548 0.242565 -0.970135
0.0884662 0.163308 0.465084 -0.134511 -0.964939 -0.225387
0.242394 -0.0506673 0.441454 -0.000599947 0.358942 0.93336
0.135152 0.135975 0.0167334 -0.0246443 -0.0247102 -0.999391
-0.188101 -0.0492474 0.360354 0 0 -1
-0.0362606 0.203541 0.767761 0.000284942 -0.173621 -0.984812
0.245597 0.0944063 0.408108 -0.000105975 0.0633839 0.997989
-0.053866 -0.0493396 0.360354 0 0 -1
0.111457 -0.0373659 0.394839 0 0 1
-0.220569 -0.162433 0.36423 -0.999999 -0.00163384 0
0.197526 0.0400524 0.377821 -0.00164099 0.999999 0
0.0920062 0.196947 0.773339 -0.000282742 0.173739 0.984792
-0.04175 -0.0684433 0.0447976 0.708226 -0.705986 0.000592043
-0.0742486 -0.139616 0.336187 -0.00116541 0.707288 0.706925
-0.0218121 -0.0233991 0.0278638 0.705775 0.708436 0
-0.237104 0.126422 0.408632 0 0 1
-0.0204493 -0.0155147 0.360354 0 0 -1
-0.190061 0.203955 0.0129314 0 0 1
-0.0205983 0.00600515 0.161814 -0.966516 0.256606 0
-0.125284 0.0494149 0.395011 0 0 1
0.0263287 -0.0776502 0.360354 0 0 -1
0.157994 0.166365 0.396868 0.137703 0.410889 -0.901226
0.0430536 0.0216923 0.394839 0 0 1
0.0729311 -0.0538432 0.303396 0.00158419 -0.965922 0.258827
-0.0175928 -0.0563948 0.330195 -0.000284266 0.173649 0.984807
-0.0911216 0.149907 0.517234 0.0794868 -0.965702 -0.247185
-0.200555 0.142026 0.427085 0.285936 -0.931602 -0.224407
0.250601 0.106063 0.527693 -0.00160675 0.974658 0.223693
0.109688 -0.0473725 0.287027 0.000424912 -0.259079 -0.965856
0.252415 -0.0653995 0.425883 0.000600132 -0.358977 -0.933346
0.11223 0.0655674 0.395895 -0.050396 -0.369819 0.927736
0.249149 0.0248752 0.571127 -0.000111844 0.0654436 0.997856
0.256339 0.102107 0.506917 0.00163459 -0.974923 -0.222535
-0.0406013 -0.177032 0.360354 0 0 -1
0.0115432 -0.0221661 0.263231 0.707998 -0.706215 0
-0.0975009 0.108416 0.0319513 0.0617041 -0.0615518 -0.996195
-0.124395 0.187675 0.714148 0.234781 -0.90247 0.361145
-0.24125 -0.100453 0.464219 -0.00077117 0.461378 0.887204
0.21865 0.10988 0.520434 0.999999 0.00133889 -1.88738e-05
0.214759 -0.172308 0.394839 0 0 1
0.176721 0.19063 0.0323426 0.061503 0.0617557 0.996195
-0.113575 -0.221343 0.353079 -0.000722141 0.439277 -0.898351
-0.223685 -0.148309 0.51486 0.531579 0.830358 -0.167118
-0.205658 0.125187 0.400204 0.317432 -0.948281 0
-0.0108999 0.242556 0.762777 -0.0405736 0.983928 -0.173893
0.0691765 0.0093179 0.360354 0 0 -1
0.0142863 -0.0866997 0.394839 0 0 1
-0.229739 -0.0421195 0.416625 0.000586585 -0.35897 -0.933349
0.0715879 0.13905 0.502757 -0.0763566 -0.970148 -0.230178
0.0143819 -0.195346 0.394839 0 0 1
-0.0227587 -0.113929 0.360354 0 0 -1
-0.201964 0.171908 0.775507 0.247428 -0.954148 0.168468
0.192657 0.115794 0.583972 -0.28501 -0.941319 0.180795
-0.0779206 -0.0519092 0.307515 0.00115962 -0.70705 0.707162
0.224739 -0.206459 0.0129314 0 0 -1
-0.145512 0.125712 0.388584 0.0538743 -0.391577 0.918567
0.035202 -0.02211 0.316967 0.9771 0.21278 0
-0.138401 0.140133 0.644145 0.266471 -0.891113 0.367302
-0.150047 -0.036619 0.394839 0 0 1
0.0666252 0.15865 0.48719 -0.076349 -0.970149 -0.230177
0.0116167 0.0170287 0.200415 0.705412 0.708798 0
-0.059915 -0.13765 0.313867 -0.977796 0.209559 0
0.086659 0.183265 0.398058 0.146177 0.894096 0.423349
0.244123 -0.00455134 0.408839 0.000419498 -0.250959 -0.967997
0.0303393 0.18956 0.690204 -0.012587 -0.927761 0.372963
0.189578 0.180576 0.0130578 -0.551416 -0.827609 0.104897
-0.0650964 0.149883 0.525698 0.0794868 -0.965702 -0.247185
-0.220535 -0.182466 0.38144 -0.999999 -0.00162844 -0.000185072
-0.070219 -0.144618 0.360354 0 0 -1
0.123277 0.127643 0.421257 -0.0497791 -0.370771 0.927389
-0.255156 -0.13734 0.532985 -0.000963197 0.588254 -0.808676
-0.0559471 0.169344 0.646693 0.070925 -0.919008 0.387806
-0.153567 0.151699 0.402172 0.225211 -0.94591 -0.233526
-0.164395 0.0138254 0.328185 -0.000681455 0.414687 -0.909964
0.175813 -0.184616 0.360354 0 0 -1
0.131756 -0.197697 0.360263 -0.000261329 0.158962 -0.987285
0.0672624 0.177066 0.418835 -0.134511 -0.964939 -0.225387
0.0519315 -0.0668511 0.360354 0 0 -1
0.221867 -0.0659723 0.394178 0.999998 0.00164164 -0.00115869
-0.0221394 0.193835 0.739317 0.015671 -0.927712 0.372967
0.214601 0.0733416 0.355024 -0.000667491 0.414693 -0.909961
0.00560633 0.0213103 0.256547 -0.00157156 0.999999 0
-0.0500287 -0.123776 0.281719 0.000284691 -0.173649 -0.984807
0.0111424 -0.00288619 0.360354 0 0 -1
-0.0257639 0.00736994 0.311414 -0.885975 0.463733 0
0.217694 0.107257 0.548693 -0.309311 -0.929868 -0.199177
0.108962 0.162923 0.450529 0.832031 0.00103949 -0.554729
-0.0804264 0.137125 0.6116 0.0709325 -0.919009 0.387804
0.0736211 0.150564 0.641725 -0.0678976 -0.919235 0.38781
-0.0481529 -0.138691 0.360354 0 0 -1
-0.0770561 0.176704 0.705084 0.13256 -0.920251 0.368194
-0.0630053 0.0799234 0.0456271 0.159605 0.277551 0.947361
0.135014 0.130644 0.565096 -0.246369 -0.948988 -0.196783
0.000332452 0.163238 0.489841 -0.076349 -0.970149 -0.230177
0.12624 0.114399 0.0192129 0.708276 -0.705935 0
-0.184708 0.0661232 0.402306 0.0953611 -0.373348 0.922777
-0.219994 0.0784615 0.363449 -0.999999 -0.00147332 -0.000353593
0.0118904 0.149608 0.543458 -0.076349 -0.970149 -0.230177
-0.104591 0.102008 0.37608 0.0545367 -0.390568 0.918957
0.0995686 0.0398917 0.378437 -0.00164099 0.999999 0
0.105871 -0.161442 0.360354 0 0 -1
-0.19272 0.183726 0.0268312 0.348525 -0.520213 0.779685
0.0108061 -0.0574811 0.330394 -0.000284691 0.173649 0.984807
0.127807 0.133263 0.495924 -0.242611 -0.944695 -0.220662
0.123348 0.149122 0.655257 -0.231795 -0.903244 0.361139
0.240901 -0.163498 0.524173 0.00160565 -0.980584 0.196092
-0.208534 0.0512455 0.345272 -0.000685378 0.414688 -0.909963
0.0989019 -0.111688 0.0423545 0.0617046 -0.061552 0.996195
0.14083 0.153443 0.399865 -0.137703 -0.410955 0.901196
-0.0673435 0.125606 0.383954 0.0538743 -0.391577 0.918567
0.114878 0.140576 0.589429 -0.248838 -0.929831 0.271098
0.0918905 -0.140951 0.394839 0 0 1
-0.210059 -0.226735 0.0129314 0 0 -1
-0.0543352 0.0396391 0.380262 -0.00164099 0.999999 0
-0.146545 0.021046 0.360354 0 0 -1
0.0713619 -0.130951 0.394839 0 0 1
-0.0197434 -0.00622282 0.261 -0.000283358 0.173634 0.98481
0.208448 0.146829 0.6736 -0.299454 -0.886226 0.353457
0.21416 -0.105269 0.360354 0 0 -1
-0.221109 -0.117158 0.469031 0.532373 0.505012 0.679369
-0.090707 -0.0897945 0.0442186 -0.0615171 -0.061738 0.996195
0.115232 -0.0181647 0.360354 0 0 -1
0.129019 0.123249 0.386433 -0.0524915 -0.390973 0.918904
0.0358006 -0.170571 0.394839 0 0 1
0.23218 -0.0255822 0.429427 -0.000410109 0.250975 0.967993
0.042454 -0.136948 0.330991 -0.00159153 0.965898 0.258916
-0.0324024 0.169619 0.400606 0.0311897 -0.971382 -0.235467
-0.26477 -0.0165422 0.561188 -0.999999 -0.00151785 -6.42904e-05
-0.136988 -0.177259 0.394839 0 0 1
0.26472 0.0206058 0.559532 0.999998 0.00178291 7.69197e-05
-0.0579853 0.144256 0.489335 0.0794706 -0.965704 -0.247186
0.145775 0.141161 0.415472 -0.133064 -0.991107 0
-0.108092 0.0395509 0.383614 -0.00164099 0.999999 0
0.0852849 -0.114316 0.360354 0 0 -1
0.177951 0.194177 0.766479 -0.299454 -0.886226 0.353457
-0.0638951 0.161542 0.480533 0.0794868 -0.965702 -0.247185
-0.0513607 0.0630034 0.359961 0 0 1
-0.176455 0.118773 0.568225 0.249499 -0.948159 -0.196837
-0.0277021 -0.135817 0.360354 0 0 -1
0.126805 0.181527 0.738524 -0.231795 -0.903244 0.361139
-0.220893 0.0342203 0.412962 0.999999 0.00157883 0.000173759
0.0416897 -0.208888 0.358485 -0.000261323 0.158962 -0.987285
-0.191921 -0.190003 0.0317581 -0.0615174 -0.0617376 0.996195
0.0512367 0.039715 0.360354 0 0 -1
-0.0743783 0.162351 0.41832 0.12104 -0.9647 -0.233886
0.200969 0.145382 0.702518 -0.299485 -0.886219 0.353446
0.0915253 0.0790218 0.400134 -0.050396 -0.369819 0.927736
-0.0901728 -0.0793566 0.360354 0 0 -1
-0.101574 -0.179025 0.394839 0 0 1
0.198974 0.168935 0.759884 -0.299485 -0.886219 0.353446
-0.181143 0.0399239 0.340091 -0.000673612 0.414691 -0.909962
-0.118601 -0.0522337 0.360354 0 0 -1
-0.00817329 -0.0231811 0.195288 -0.257245 -0.966346 0
0.210974 -0.240197 0.368007 0.00147272 -0.897109 0.441806
-0.0956783 0.150793 0.446923 0.137652 -0.964497 -0.225385
0.241288 -0.114869 0.472898 -0.000975775 0.595843 0.803101
0.0226602 -0.0260709 0.0223494 -0.0247273 0.0246285 -0.999391
0.213524 0.124945 0.62303 -0.299454 -0.886226 0.353457
0.0125607 0.0160891 0.226125 0.705412 0.708798 0
0.0233365 0.149338 0.3933 0.000652906 -0.39639 0.918082
0.0880776 0.14745 0.394391 -0.0524915 -0.390973 0.918904
0.132837 -0.143045 0.0279309 0.061751 -0.0615046 0.996195
0.0650527 0.174134 0.696093 -0.0678976 -0.919235 0.38781
0.158381 -0.194153 0.394839 0 0 1
-0.179973 -0.0464815 0.311632 0.000427985 -0.258946 0.965892
-0.239074 0.0937592 0.390823 0.000103775 -0.0633783 -0.99799
-0.00171816 0.0173423 0.0328188 0.19371 0.981059 0
-0.234175 0.134174 0.390611 -0.0016335 0.999999 0.000174583
-0.0967424 -0.0132298 0.394839 0 0 1
-0.0623661 0.0498856 0.0364589 -0.705945 -0.708267 0
0.17352 0.160485 0.680372 -0.263579 -0.891976 0.367295
-0.220077 0.12849 0.660349 -0.999999 -0.00133749 -0.000157862
-0.102485 0.0637811 0.359961 0 0 1
-0.0449637 0.178324 0.390892 -0.04838 0.414157 -0.908919
-0.0735852 0.144547 0.37708 -0.0937653 0.41272 -0.906019
-0.11782 0.0909071 0.0368259 -0.705932 -0.70828 0
-0.0606077 0.182111 0.6778 0.070925 -0.919008 0.387806
-0.185799 0.207879 1.08929e-17 -5.30162e-17 -3.55296e-17 -1
0.00646968 -0.0919869 0.336477 -0.000284691 0.173649 0.984807
-0.139464 -0.142912 0.0165811 0.0246324 0.0247235 -0.999391
-0.170055 0.192786 0.757186 0.266483 -0.891112 0.367297
0.094998 0.102592 0.0298473 -0.708227 0.705985 0.000372191
0.0491475 0.0439153 0.0389288 0.0615104 0.0617429 0.996195
-0.0473835 0.141083 0.614936 0.0709325 -0.919009 0.387804
0.0667068 0.163862 0.468086 -0.0277534 -0.963968 -0.264568
-0.133078 -0.131372 0.0390254 -0.0615171 -0.061738 0.996195
0.0208265 -0.00999501 0.106954 0.966283 -0.257482 0
0.234736 0.106904 0.485746 0.00160714 -0.974925 -0.222527
-0.0169825 0.153233 0.425384 0.00164715 -0.999999 0
0.187971 -0.227776 0.00682323 -0.554468 -0.832205 0
-0.155156 0.127567 0.583132 0.274163 -0.945573 0.175289
0.230886 -0.133854 0.53494 -0.000963356 0.588193 -0.80872
0.0323123 0.230016 0.763114 0.000283996 -0.17354 -0.984827
0.220834 -0.0260319 0.37071 0.999999 0.00163031 0
-0.13862 0.127371 0.613342 0.266471 -0.891113 0.367302
0.205422 0.131018 0.639738 -0.306166 -0.885441 0.349651
-0.0278144 -0.0734723 0.333203 -0.000284266 0.173649 0.984807
-0.219053 0.106376 0.544145 -0.999999 -0.00133753 -3.84234e-05
0.159631 0.120831 0.524138 0.823351 0.000571444 -0.567533
-0.0608227 -0.053741 0.035154 -0.708275 0.705936 0
-0.0852902 -0.207506 0.393701 0.000202744 -0.123329 0.992366
0.060122 -0.0288332 0.293855 -0.00158742 0.965884 -0.258971
0.0342829 0.019059 0.0517718 0.0615229 0.0617319 0.996195
-0.0340534 -0.0332929 0.265769 0.000284691 -0.173649 -0.984807
-0.105658 0.111187 0.413881 0.0508858 -0.369855 0.927695
0.0505801 -0.0927272 0.296205 0.9771 0.21278 0
-0.221727 -0.0529881 0.386118 -0.999999 -0.00166934 0.000345528
0.0175887 0.00123251 0.0224144 0 0 -1
0.169074 -0.127206 0.360354 0 0 -1
0.00449568 -0.0241485 0.176775 0.260101 -0.965581 0
-0.0195754 0.156186 0.608859 0.070925 -0.919008 0.387806
0.0132818 0.152678 0.636484 -0.0126036 -0.927759 0.372967
0.0422696 0.139108 0.51224 -0.0763566 -0.970148 -0.230178
-0.0281417 0.19296 0.698791 0.0156386 -0.927714 0.372963
-0.174961 0.131742 0.393405 0.131478 -0.392771 0.910189
-0.0469653 0.142865 0.560092 0.0795723 -0.971302 -0.224146
-0.0776077 0.20096 0.727111 0.132576 -0.920251 0.368188
-0.0738054 0.165331 0.64045 0.070925 -0.919008 0.387806
0.211175 0.112801 0.598645 -0.306166 -0.885441 0.349651
-0.172039 0.109894 0.545031 0.246067 -0.933543 -0.26067
0.178543 0.176443 0.761397 -0.299485 -0.886219 0.353446
0.228327 -0.000459475 0.422911 -0.000410109 0.250975 0.967993
-0.0794671 -0.0427656 0.394839 0 0 1
-0.108356 -0.235528 0.3764 0.00125029 -0.761613 0.648031
0.0550912 0.146254 0.591487 -0.0678975 -0.919235 0.38781
-0.0767399 0.0694568 0.0198195 0.0247133 -0.0246426 -0.999391
0.0164445 0.028029 0.394839 0 0 1
0.22534 0.0647685 0.566416 -0.483114 0.0941537 0.87048
-0.0351103 0.0466031 0.359961 0 0 1
0.143106 0.146162 0.661427 -0.263576 -0.891975 0.367298
0.0745615 0.0487844 0.0401275 0.536141 -0.606862 -0.586747
0.245335 0.125553 0.442736 -0.00163407 0.97466 0.223686
-0.210277 0.168893 0.731679 0.30239 -0.885236 0.353438
0.00543724 -0.158543 0.327435 0.00163947 -0.999999 0
-0.217371 0.103791 0.514286 0.312295 -0.921926 -0.229183
-0.261836 0.125936 0.437433 -0.00160656 0.974658 0.223693
-0.0204079 0.175506 0.655053 0.0156386 -0.927714 0.372963
-0.175091 -0.190498 0.0327667 -0.0615174 -0.0617376 0.996195
0.236356 -0.147706 0.472565 0.000996216 -0.595856 -0.803091
-0.0155832 0.0824151 0.399203 0.000613 -0.375188 0.926948
0.0536201 0.15335 0.403001 0.00164715 -0.999999 0
0.0625545 -0.0481564 0.394839 0 0 1
-0.00417529 0.0191348 0.360354 0 0 -1
0.0208694 0.00477433 0.254689 0.965337 0.261008 0
-0.262033 0.0271573 0.565395 -0.440719 0.0579494 0.895773
-0.11908 -0.0729108 0.394839 0 0 1
-0.108414 -0.145261 0.337033 -0.0965969 0.257542 0.961427
-0.00774284 0.132972 0.54963 0.0795554 -0.971284 -0.224226
-0.219934 0.0380479 0.565592 0.999998 0.00180038 7.54054e-05
-0.171852 0.153755 0.663795 0.266483 -0.891112 0.367297
-0.186978 0.14207 0.652676 0.309115 -0.884421 0.34964
-0.220788 -0.0273927 0.559065 0.999999 0.00154357 -2.43137e-05
-0.0358408 0.159134 0.655602 0.0709325 -0.919009 0.387804
-0.221795 -0.0114826 0.378172 -0.999999 -0.00163037 0
0.195817 -0.181581 0.00962943 -0.0531806 0.265136 0.962743
0.222098 -0.20783 0.367365 0.999999 0.00168067 -0.000446014
-0.0138643 -0.0329674 0.326065 -0.000284266 0.173649 0.984807
0.187515 -0.143773 0.394839 0 0 1
0.0788094 0.0763762 0.0454701 0.0615229 0.0617319 0.996195
0.126508 -0.216553 0.390697 0.000596135 -0.362627 0.931934
0.0461615 -0.038812 0.0383095 0.705949 0.708263 0
-0.0731192 0.194363 0.747803 0.13256 -0.920251 0.368194
-0.0485262 0.164214 0.414026 0.0312093 -0.972505 -0.230782
0.219788 0.0139292 0.559789 -0.999999 -0.00175009 5.74052e-05
0.264432 -0.129175 0.475875 0.43906 0.535752 0.721246
0.121257 0.157048 0.387585 0.0924319 0.413067 -0.905998
0.19188 -0.21443 0.391482 0.000596135 -0.362627 0.931934
0.0970133 -0.176317 0.325871 0 0 -1
0.231462 -0.026504 0.411854 0.000410098 -0.250958 -0.967998
-0.13601 0.135241 0.592872 0.266483 -0.891112 0.367297
-0.00807491 0.188639 0.687202 0.0156386 -0.927714 0.372963
-0.0308167 0.145109 0.494738 0.0794706 -0.965704 -0.247186
0.137051 -0.120766 0.0391238 0.276318 0.159764 0.947694
-0.00838783 -0.229138 0.350249 8.13731e-05 -0.0494991 -0.998774
0.191751 -0.150353 0.360354 0 0 -1
0.2253 0.118666 0.472597 -0.00163407 0.97466 0.223686
-0.260823 0.0531574 0.563873 -0.440784 0.0966382 0.892396
-0.184968 -0.102806 0.394839 0 0 1
-0.187476 0.216042 0.0229328 0.551205 0.827712 0.105198
-0.210824 -0.203182 0.0129314 0 0 -1
-0.162495 0.152131 0.425963 0.305189 0.000707631 0.952292
-0.010208 0.00726468 0.0870714 0 0 1
0.053202 0.149278 0.426221 0.000613 -0.375188 0.926948
0.115495 -0.131214 0.360354 0 0 -1
-0.175148 -0.0859567 0.394839 0 0 1
-0.200897 0.150769 0.715169 0.280619 -0.890811 0.357363
-0.221086 0.058658 0.377541 0.999999 0.00163827 0
-0.199695 -0.0295672 0.30558 -0.00159647 0.965884 0.258971
0.198758 0.0468951 0.395734 -0.0941267 -0.373658 0.922778
0.232964 -0.0424058 0.573292 0 0 1
0.153054 -0.16975 0.0354128 0.0617046 -0.061552 0.996195
0.0365666 -0.141628 0.360354 0 0 -1
0.176734 -0.0290968 0.394839 0 0 1
-0.00183168 -0.172322 0.394839 0 0 1
-0.135151 0.150988 0.66826 0.23477 -0.902471 0.36115
0.0228246 0.14251 0.570337 -0.0763699 -0.971546 -0.224203
-0.0869982 -0.136532 0.360354 0 0 -1
0.0037817 0.0193067 0.110801 0.257339 0.966321 0
0.209238 -0.073785 0.360354 0 0 -1
-0.190851 -0.0732074 0.360354 0 0 -1
0.0427727 -0.0568751 0.295813 0.9771 0.21278 0
0.0801641 -0.0858179 0.394839 0 0 1
0.0684072 0.0745011 0.0198993 -0.0246443 -0.0247102 -0.999391
0.219856 -0.0306947 0.298757 0.999995 0.00304889 0
-0.0480544 0.152926 0.643122 0.0709325 -0.919009 0.387804
-0.247342 -0.0838067 0.548796 -0.000405414 0.24255 -0.970139
-0.117621 -0.0541395 0.303457 0.00158418 -0.965922 0.258827
0.224309 -0.149899 0.502982 -0.48414 0.85426 0.189334
0.204284 0.0155657 0.340071 0.000684631 -0.414692 0.909962
0.0419275 -0.0529936 0.316587 0.9771 0.21278 0
0.185968 0.0672382 0.402667 -0.0941267 -0.373658 0.922778
0.0942122 0.159745 0.425012 0 0 1
-0.185798 0.175352 0.726913 0.30239 -0.885236 0.353438
0.0194741 -0.0256927 0.0444951 -0.707982 0.70623 0
-0.114262 -0.220159 0.389448 0.000595361 -0.362655 0.931923
-0.250793 -0.165504 0.499263 0.0015984 -0.976192 -0.216903
-0.00951171 0.202439 0.772341 -0.00028529 0.173622 0.984812
0.0659687 -0.0585546 0.0224693 0.705949 0.708263 0
0.0434341 0.168027 0.386086 0.0470296 0.41429 -0.908929
-0.26571 -0.0417763 0.563851 -0.999999 -0.001579 0.000138022
0.0874447 0.181233 0.719655 -0.129579 -0.920679 0.368183
-0.0658287 -0.140386 0.394839 0 0 1
-0.0600583 0.158732 0.432116 0.0794706 -0.965704 -0.247186
0.0533217 0.185879 0.685102 -0.0678975 -0.919235 0.38781
-0.00269547 -0.0465569 0.394839 0 0 1
0.0707101 0.119209 0.415063 -0.0497791 -0.370771 0.927389
0.195704 0.102383 0.368273 -0.000667491 0.414693 -0.909961
0.181575 -0.0794204 0.360354 0 0 -1
-0.194976 -0.204011 0.359333 -0.000261329 0.158962 -0.987285
0.190059 -0.0695615 0.394839 0 0 1
-0.00834765 -0.158566 0.341205 0.00163947 -0.999999 0
0.130839 -0.167939 0.394839 0 0 1
-0.127417 -0.207609 0.393697 0.000202744 -0.123329 0.992366
0.0114339 0.196372 0.706512 -0.012587 -0.927761 0.372963
-0.0109788 -0.15857 0.295054 0.00163947 -0.999999 0
-0.0838412 0.156183 0.431086 0.137652 -0.964497 -0.225385
-0.0850438 0.159875 0.666357 0.0709325 -0.919009 0.387804
-0.204253 -0.14217 0.360354 0 0 -1
-0.0475245 0.149929 0.531167 0.0794868 -0.965702 -0.247185
-0.140371 0.118718 0.0290327 -0.159923 -0.277823 -0.947227
-0.00595348 0.146799 0.582153 0.0704859 -0.955442 0.286639
0.0573475 0.175033 0.660097 -0.0678975 -0.919235 0.38781
0.218669 0.0986897 0.566183 0.999997 0.00232003 -0.000213445
0.128068 0.142032 0.524506 -0.242622 -0.944703 -0.220616
-0.26329 -0.124693 0.543067 -0.440637 0.306007 -0.843919
0.0391959 0.163985 0.630733 -0.0678975 -0.919235 0.38781
-0.0699715 0.170018 0.687636 0.0709325 -0.919009 0.387804
-0.112789 -0.136683 0.360354 0 0 -1
-0.250358 0.132605 0.408457 -0.00159208 0.974659 0.223689
0.135254 -0.0359027 0.31155 -0.000424693 0.258946 0.965892
-0.193156 -0.195156 1.1964e-17 0 0 -1
-0.191659 0.139299 0.449743 0.285936 -0.931602 -0.224407
-0.222748 -0.0337766 0.42901 0.483518 0.31483 0.816757
0.179789 -0.19147 0.0213991 -0.705914 -0.708298 0.000434972
-0.0176268 -0.05364 0.269362 0.000284691 -0.173649 -0.984807
0.11376 -0.18326 0.325871 0 0 -1
0.246479 0.0668206 0.410543 -0.000256678 0.157421 0.987532
-0.0144866 0.0661451 0.359961 0 0 1
0.162542 0.0852518 0.407269 -0.115805 -0.349916 0.929596
0.06449 -0.0906011 0.0423976 -0.533831 -0.608332 0.58733
-0.0937272 -0.0111601 0.360354 0 0 -1
-0.0485273 0.207094 0.734803 0.0156386 -0.927714 0.372963
0.013446 -0.063846 0.360354 0 0 -1
0.120714 0.111083 0.4145 -0.050396 -0.369819 0.927736
0.0663774 0.192332 0.739994 -0.129579 -0.920679 0.368183
-0.0472064 0.00615438 0.360354 0 0 -1
-0.240477 -0.0544522 0.572595 0.000197627 -0.118228 0.992987
-0.00104567 -0.0458488 0.267993 0.000284266 -0.17365 -0.984807
-0.147175 0.117615 0.595881 0.266471 -0.891113 0.367302
-0.050272 -0.0316776 0.360354 0 0 -1
-0.243616 0.116997 0.476512 -0.00159208 0.974659 0.223689
0.0599167 -0.135601 0.303377 0.9771 0.21278 0
0.00801778 0.141978 0.511505 -0.0763566 -0.970148 -0.230178
-0.245295 0.0855437 0.545325 0.000181288 -0.108441 -0.994103
-0.196871 0.133244 0.669852 0.266471 -0.891113 0.367302
-0.216682 -0.0328654 0.318314 0.000705045 -0.414693 0.909961
-0.0822773 0.139435 0.576417 0.0719802 -0.957501 0.279305
-0.245656 -0.0106752 0.553463 0 0 -1
0.220916 0.133939 0.392384 -0.482881 -0.000967824 -0.875685
-0.253311 0.122427 0.452783 -0.00160656 0.974658 0.223693
-0.0348259 -0.147111 0.285838 0.000284691 -0.173649 -0.984807
-0.136563 -0.105129 0.360354 0 0 -1
0.0212678 0.178957 0.410002 -0.0279695 -0.971472 -0.235499
-0.189805 0.157702 0.396646 -0.421829 0.825061 0.375944
-0.095973 0.16157 0.410365 0.121023 -0.964695 -0.233918
0.221012 -0.134672 0.378117 0.999999 0.00166944 -0.000346837
-0.166561 -0.199364 0.394729 0.000202482 -0.123339 0.992365
-0.00613987 0.0375391 0.394839 0 0 1
0.00996721 -0.0226747 0.113249 0.260101 -0.965581 0
0.15434 0.130834 0.632264 -0.263576 -0.891975 0.367298
-0.137466 -0.0663684 0.360354 0 0 -1
-0.128005 0.193343 0.730658 0.234781 -0.90247 0.361145
0.0238462 -0.0160846 0.394839 0 0 1
-0.119456 -0.11719 0.394839 0 0 1
0.197183 0.121069 0.519408 -0.309325 -0.922922 -0.229202
0.0293193 0.167058 0.673065 -0.0678976 -0.919235 0.38781
-0.0997085 -0.203934 0.35932 -0.000261329 0.158962 -0.987285
-0.0275329 0.139512 0.607581 0.0709325 -0.919009 0.387804
0.183852 0.122545 0.423961 -0.115805 -0.349916 0.929596
0.23718 -0.0983365 0.460613 -0.000755413 0.461367 0.887209
-0.224122 0.199642 0.0250004 -0.614435 0.12186 0.7795
-0.221667 -0.216013 0.0221609 -0.826057 -0.553725 0.104962
0.00104575 -0.0177501 0.323386 -0.000284266 0.173649 0.984807
-0.0833997 -0.097942 0.394839 0 0 1
0.0155458 0.0131183 0.138724 0.705412 0.708798 0
0.173682 0.108187 0.41729 -0.115805 -0.349916 0.929596
0.188421 -0.197297 0.360312 -0.000261329 0.158962 -0.987285
0.244804 0.0868924 0.3939 0.000103346 -0.0633734 -0.99799
-0.144266 0.206524 0.771581 -0.00028529 0.173622 0.984812
-0.00865825 0.151525 0.537432 0.0794868 -0.965702 -0.247185
-0.0342254 0.161377 0.427912 0.0312093 -0.972505 -0.230782
-0.152684 0.139908 0.0219489 -0.705945 -0.708267 0
0.00203716 -0.137904 0.324329 -0.00159155 0.965912 -0.258867
0.0979991 0.041717 0.359961 0 0 1
0.0990429 0.125507 0.385681 -0.0524915 -0.390973 0.918904
0.0187253 0.156872 0.510573 -0.076349 -0.970149 -0.230177
0.0882089 -0.0344239 0.28716 -0.000424911 0.259079 -0.965856
0.201931 -0.181737 0.360354 0 0 -1
0.0255455 -0.137416 0.326005 -0.00159166 0.965911 -0.25887
0.24551 -0.102029 0.564477 0.000405358 -0.242508 0.970149
-0.00987145 0.187509 0.723066 0.015671 -0.927712 0.372967
-0.255452 -0.0521248 0.438929 -0.000586575 0.358964 0.933351
0.245955 0.0920155 0.551054 0.00160714 -0.974925 -0.222527
-0.16117 -0.0423806 0.310585 0.999999 0.00148283 0.000357547
0.0611079 0.0356138 0.394839 0 0 1
-0.233171 -0.107896 0.542767 -0.000405469 0.242549 -0.970139
0.211313 0.186729 0.771016 0.493401 0.85661 -0.150913
-0.0121846 0.200335 0.755068 0.015671 -0.927712 0.372967
-0.0587743 0.154486 0.449116 0.0794706 -0.965704 -0.247186
0.194656 0.201632 0.0305534 0.061503 0.0617557 0.996195
0.163892 0.128841 0.541596 -0.242622 -0.944703 -0.220616
-0.202808 -0.0587955 0.360354 0 0 -1
0.0446342 -0.153775 0.287036 0.000284691 -0.173649 -0.984807
-0.265608 -0.106979 0.551031 -0.999999 -0.00149768 0.000314118
0.0201508 -0.140182 0.394839 0 0 1
-0.151093 0.12631 0.511065 -0.823677 -0.000571671 -0.567058
0.240978 0.0112782 0.402063 0.000410098 -0.250958 -0.967998
0.237322 0.0987312 0.562932 -0.00163065 0.999923 -0.0122754
