-7.65754e-05 0.201231 0.0319959 0.212191 -0.641058 -0.737577
-0.00455091 -0.153529 0.638722 0 0.372373 0.928083
0.0039544 0.0147082 0.148792 0.38294 -0.00772107 -0.923741
0.00705085 -0.181572 0.502281 0.923891 0.371275 -0.0926338
0.0129224 -0.425349 0.197504 0.995744 -0.0821201 0.0418278
-0.0456082 0.0266645 0.224519 -0.982827 -0.0435383 0.17932
-0.0116431 0.11536 0.276249 -0.573987 0.764476 -0.293455
-0.0998881 -0.161199 0.643033 0.145506 0.91451 0.377491
0.0129533 -0.207757 0.234282 0.99574 0.0651897 0.0652105
-0.00807177 0.155822 0.196825 -0.589573 -0.743541 0.315516
0.0678721 0.0380027 0.299476 1 0 0
0.0110691 0.120578 0.334569 0.984894 -0.161659 0.0620553
0.0449839 0.301636 0.152917 -0.995281 0.0903109 0.0355069
0.0876267 0.0362591 0.303836 0 -0.859714 0.510775
-0.0141725 -0.364809 0.259977 -0.982463 0.0846639 -0.16613
-0.0105922 -0.412172 0.0567046 -0.589621 -0.571068 -0.571165
-0.0699009 -0.163491 0.640074 0.0717138 0.921718 0.381173
-0.0134722 0.187677 0.056477 -0.839814 -0.433528 -0.326751
-0.0161059 0.448345 0.150506 -0.999573 0.0288911 0.00444619
0.00102038 0.0262766 0.18532 0 -0.916968 0.398962
0.0097495 0.152022 0.124968 0.839831 -0.528918 -0.122186
-0.0144597 0.433238 0.207097 -0.501082 0.783249 0.368018
0.0120731 0.42861 0.133019 0.995723 0.0906956 -0.0176201
0.103117 -0.161296 0.634705 -0.113491 0.915944 -0.384925
0.0877978 -0.161726 0.641023 -0.108674 0.919019 0.378937
-0.0142269 -0.43196 0.114706 -0.995729 -0.0861904 -0.0331026
-0.00783355 0.25904 0.28933 -0.589582 -0.263067 0.763668
-0.0387479 0.0607057 0.125674 0.0026981 -0.123621 0.992326
0.0243923 -0.307955 0.153536 -7.11553e-06 -0.596773 0.80241
0.0718751 0.0471662 0.296428 -1 0 0
-0.0354105 0.053601 0.223162 1 0 0
-0.047378 0.233253 0.229381 -0.604656 0.578691 0.547273
0.0244104 0.0286472 0.181304 1 0 0
-0.0116997 0.288806 0.300361 -0.139633 0.0764982 0.987244
-0.0244096 0.2927 0.117212 -0.701229 0.701754 0.125775
-0.0222385 0.319796 0.171789 -0.401411 0.467762 -0.787444
-0.0350532 -0.253685 0.147342 -0.955989 0.0266623 -0.292188
-0.0138803 -0.31577 0.0162355 -0.995716 -0.0144541 -0.0913229
-0.0550746 0.301776 0.153263 -0.996066 0.0811787 0.035535
-0.0142256 -0.383438 0.0542086 -0.982469 0.101525 0.156356
-0.039413 -0.00496849 0.198296 -1 0 0
-0.0447494 0.278209 0.137568 -0.999812 -0.0189016 -0.00429735
-0.0294129 0.166539 0.440525 -0.871129 -0.476143 0.120094
0.000179386 0.227796 0.290896 0.00041765 -0.300208 0.953874
-0.0137817 -0.441162 0.161379 -0.995737 -0.0921089 0.00482188
-0.00794365 0.0811162 0.179804 -0.573987 0.764476 -0.293455
0.132451 0.0444474 0.303471 0 0.935365 0.353684
-0.0748768 0.0601453 0.0571539 0 0 -1
-0.012839 0.175052 0.255337 -0.500973 -0.61667 0.607243
0.143011 -0.17127 0.643524 0.19515 -0.979263 0.0544085
0.0126334 -0.382768 0.257259 0.995747 -0.0579826 0.0715915
-0.00971945 0.215149 0.268695 -0.589676 -0.416039 0.692239
0.132272 -0.161246 0.63297 -0.0362517 0.375597 -0.926074
-0.014115 -0.183829 0.205009 -0.995734 0.0861334 0.0330761
0.0473444 0.281191 0.172687 0.876274 0.295871 0.380269
0.0128233 0.180552 0.21367 0.995745 -0.0754933 0.0528512
0.0344734 -0.294021 0.175014 0.0764876 -0.84566 0.528213
0.0121551 -0.383739 0.0399543 0.99572 -0.0503269 -0.0775165
0.00626365 -0.171978 0.532883 0.923891 0.371275 -0.0926338
-0.075851 0.0434889 0.0675891 0 0 1
-0.0239762 0.053147 0.185636 0 0.971535 0.236897
0.00140895 -0.192941 0.147451 0.204416 -0.977546 0.0511718
0.0485042 0.289054 0.160398 0.195016 -0.00159982 0.980799
0.0104512 -0.191222 0.643933 0.649372 -0.72234 0.237783
0.0121109 0.414776 0.235473 0.515764 0.68366 0.51633
0.00419838 -0.114995 0.320299 0.707091 0 -0.707123
0.00906116 0.295689 0.00473203 0.839875 0.0661996 -0.538728
0.00994563 -0.192066 0.0671118 0.839818 0.421918 -0.3416
-0.00133906 0.24241 0.0470107 -0.204185 0.474526 0.856232
-0.039413 0.0600514 0.133109 -1 0 0
-0.0578114 0.0340009 0.133595 0.309171 -0.95052 -0.0304263
-0.00481255 -0.395079 0.0825998 -0.204018 0.820957 0.533297
0.0429102 0.253821 0.159957 -0.552812 0.0999209 0.827293
0.00241266 0.204635 0.0763261 0.204148 0.781745 0.589236
0.0368097 -0.307743 0.147697 -1 0 0
0.0142928 -0.151468 0.157373 0.999577 0.0289721 0.00261125
-0.0185535 0.205102 0.448843 0.00526317 0.998058 -0.0620735
-0.0406886 0.0613291 0.11797 -0.831366 0.131131 -0.540032
0.0678721 0.0318804 0.191451 1 0 0
-0.0140667 -0.428789 0.14928 -0.982457 0.186236 -0.00973664
0.0121459 0.0716411 0.189993 0.984894 -0.161656 0.0620541
-0.0369243 0.105763 0.221188 1 0 0
-0.0342218 0.308109 0.128405 -1 1.55618e-06 -3.76785e-07
-0.0103566 -0.196225 0.460467 -0.923892 0.371272 -0.0926323
-0.0353438 0.313408 0.147384 1 0 0
-0.133174 -0.167799 0.633693 -0.110855 -0.379918 -0.918354
-0.00602994 -0.40463 0.179944 -0.389899 0.0644256 0.918601
0.00141045 0.0516735 0.175838 -0.173176 -0.919475 0.352952
-0.0368371 0.317494 0.135082 0 0.488224 -0.872718
0.00395475 -0.178366 0.285418 0.376301 -0.736368 -0.562281
0.0123075 0.314361 0.296632 0.515063 0.196757 0.834264
0.00384268 0.0469554 0.159587 0.573992 -0.764472 0.293455
0.00849135 0.218531 0.0579515 0.573659 0.537317 0.618228
0.0177117 0.288249 0.146623 3.14277e-07 -0.999341 -0.0363094
-0.12435 0.0354196 0.0617886 0 -0.996197 0.0871342
-0.0102331 0.102933 0.300253 -0.818856 -0.535874 0.205703
-0.0188531 0.0694599 0.320022 0.178108 -0.0443731 -0.98301
0.0158114 -0.206235 0.359097 0.54431 0.301509 0.782827
-0.00989342 -0.16534 0.329437 -0.980783 0 0.195103
-0.0458289 0.0391976 0.17406 0 -0.105134 -0.994458
0.0273005 -0.305914 0.154895 -1 0 0
0.000107365 0.224486 0.278483 0.212321 -0.503403 0.837559
-0.00969969 -0.192017 0.319298 -0.990859 0.10331 0.0867502
0.00399288 0.419993 0.218137 0.212385 0.885591 0.413063
0.0292609 -0.245542 0.258082 0.56729 0.787799 -0.239908
0.112652 0.0332781 0.296101 0 0 -1
-0.0320264 0.281231 0.150141 0 -0.971118 0.238598
0.0226494 0.0338377 0.180781 -1 0 0
-0.0410057 0.295834 0.152739 -1 0 0
-0.0144629 0.248295 0.269012 -0.995749 -0.03 0.0870897
-0.00251401 -0.452124 0.141419 -0.212469 -0.965119 -0.152979
-0.121338 -0.159956 0.632695 0.043687 0.32982 -0.943033
0.145949 -0.153944 0.635385 -0.036509 0.373958 -0.926727
-0.00398253 0.244346 0.250449 -0.204238 0.318815 -0.925551
-0.0105024 0.118033 0.33819 -0.81709 -0.511235 0.266464
0.00283748 -0.360368 0.0159871 0.212204 -0.350127 -0.912349
0.00441446 0.0530583 0.188088 0 0.930495 0.366305
0.00793398 0.385095 0.215803 0.573739 -0.654066 -0.492972
0.0446452 0.257651 0.20154 0.597363 0.587562 0.545828
-0.000439289 0.144913 0.149073 0.212288 -0.977057 -0.0171458
-0.0416541 0.176103 0.124655 0.00696606 -0.315119 0.949027
-0.00309933 -0.415476 0.128496 -0.204139 0.966879 0.153209
-0.0414992 0.118076 0.116196 -0.00415321 0.191348 -0.981513
-0.0143777 0.382575 0.0548982 -0.995717 0.06306 -0.0676107
-0.0332924 0.294313 0.167486 1 0 0
-0.00914338 -0.418883 0.132451 -0.573689 0.808978 0.128202
0.143965 -0.158663 0.632228 -0.0211274 0.333095 -0.942657
-0.0342218 0.297941 0.147223 -1 1.55618e-06 -3.76785e-07
0.00403031 0.16893 0.434957 0.000210425 0.362335 0.932048
-0.00150959 -0.0937249 0.335055 0 0 1
-0.0501954 0.307093 0.141632 0 1 0
0.0111138 0.204326 0.0393177 0.839828 -0.356109 -0.409726
0.0011093 0.0906535 0.200887 0.17316 0.919476 -0.352959
0.0678721 0.0392684 0.249775 1 0 0
0.0145917 0.131748 0.16036 0.193569 -0.121237 0.973567
0.00245707 0.183888 0.181627 0.204135 0.901154 -0.382428
0.00734809 -0.157649 0.60113 0.923891 0.371275 -0.0926338
-0.024964 0.154556 0.42921 -0.896538 -0.426354 0.120173
0.0132342 -0.24425 0.172948 0.510188 0.534855 -0.673527
0.0114978 -0.1731 0.629 0 -0.241663 -0.97036
-0.0410057 0.271243 0.147837 -1 0 0
0.0335959 0.226605 0.237446 -0.966598 0.244265 0.0776123
-0.0366865 0.0792602 0.165279 0 -0.966619 0.256217
0.00661923 -0.32871 0.00906624 0.589468 -0.126283 -0.797859
-0.0353438 0.282318 0.157194 1 0 0
-2.55425e-05 -0.0990267 0.178851 0.375743 -0.736564 -0.562397
-0.0157671 0.0988743 0.149524 -0.194945 -0.0252232 -0.98049
0.00634115 -0.301769 0.0370746 0.573699 -0.0429477 0.817939
-0.0413894 0.301995 0.155126 1 0 0
-0.0445494 0.0210728 0.228711 -0.982828 -0.0851808 0.163689
-0.00941791 -0.388393 0.177388 -0.510576 0.023075 0.859523
0.00392364 -0.189303 0.300257 0 0.766065 -0.642763
-0.0376923 -0.306552 0.14619 -0.997577 0.0248897 -0.0649584
0.0064194 -0.0458261 0.163224 0.922984 0.0932242 0.373377
-0.0334544 0.291792 0.151121 0 -0.257549 0.966265
0.0272339 0.281383 0.156582 0.510929 -0.328553 0.794358
0.00717715 0.12507 0.150785 -0.831311 0.0188889 -0.555486
-0.0434858 0.241435 0.224681 0.531825 0.689218 0.492078
-0.0379867 0.146585 0.208943 0 0.0724066 0.997375
0.014509 0.184361 0.258991 0.999575 -0.0178338 0.0230463
0.00615261 -0.139641 0.252949 0.92069 0.310245 0.23681
0.057142 0.0441132 0.276057 -1 0 0
-0.0141639 -0.427384 0.173785 -0.982462 0.180111 -0.0482522
-0.0675467 0.0474265 0.0616185 1 0 0
0.00936855 -0.163899 0.137357 0.83975 0.542231 -0.0283829
-0.0232332 0.0342384 0.189804 -1 0 0
-0.0127245 0.209439 0.234268 -0.843224 0.366654 -0.393114
-0.0332924 0.280932 0.123277 1 0 0
0.0124265 -0.163812 0.64764 0 0.690687 0.723154
-0.00931404 -0.228135 0.0297003 -0.589514 0.36679 -0.71968
0.0182711 0.1903 0.461777 0.244203 0.181579 0.952572
0.0130326 0.221209 0.0419755 0.99572 -0.0447951 -0.0808355
0.1077 0.0450729 0.300875 0 0.996197 -0.0871345
0.000280717 -0.172809 0.51708 0.382736 0.896541 -0.222997
-0.0145929 -0.178522 0.134941 -0.995728 0.0922132 -0.00482425
0.0345403 -0.275771 0.198069 0.468829 0.781892 -0.410906
0.0095621 0.206684 0.228406 0.843226 0.366643 -0.393119
0.0107385 -0.24246 0.315247 0 -0.644056 -0.764978
-0.039413 0.0614484 0.232142 0 0.917456 0.397837
0.0050651 0.0983761 0.1573 -0.980069 0.0381783 0.194952
-0.0111145 0.0836049 0.150882 0.555589 0.00400872 -0.831448
0.0047678 0.301742 0.293027 0.589471 0.0703195 0.804723
0.00708891 -0.197773 0.311002 0.830444 -0.394458 -0.393403
-0.00752463 0.294878 0.00224995 -0.589503 0.0985183 -0.801736
-0.00270578 -0.309305 0.00445016 -0.2123 0.0512144 -0.975861
0.0113382 0.115556 0.317213 0.984894 -0.161659 0.0620553
-0.0243036 -0.332317 0.15953 -0.525168 0.434409 0.73177
-0.00595474 -0.226089 0.371174 -0.382734 -0.896768 0.222083
0.00777264 -0.203807 0.353501 -0.234602 -0.264608 -0.935385
-0.11354 -0.159118 0.649008 0.158825 0.730325 0.66438
-0.0138809 0.0695571 0.324914 0.989586 0.102227 0.101334
0.057142 0.0395572 0.256581 -1 0 0
-0.0104244 0.349827 0.207692 -0.391003 0.797147 -0.460079
-0.00938751 0.150931 0.402763 -0.911861 -0.382588 0.148782
-0.0477972 0.243868 0.148882 0.194886 0.0352259 -0.980193
0.000840217 -0.184171 0.249861 -0.0478189 0.777187 0.62745
0.133334 0.0383044 0.296464 0 -0.306956 -0.951724
0.143 0.017505 0.302756 0 -1 0
-0.0197591 0.127572 0.159084 -0.555589 -0.00400822 0.831448
-0.00694809 -0.160133 0.576722 -0.382675 0.896565 -0.223005
0.00312371 -0.160694 0.172356 0.212305 0.96516 0.152947
-0.0140522 -0.195678 0.22733 -0.995737 0.0773506 0.050241
-0.0384241 0.304253 0.130886 -1 0 0
0.0121439 -0.4156 0.0709791 0.995727 -0.0774381 -0.0502986
-0.00980015 -0.199433 0.0547187 -0.589526 0.627798 -0.508261
0.00787657 -0.149129 0.257686 0.920679 -0.310249 -0.236847
-0.0409504 0.175944 0.169471 -0.990854 -0.00902259 -0.134634
0.0128229 0.38095 0.054456 0.995716 0.0630653 -0.0676164
-0.0592943 0.0482657 0.152429 0.309163 0.937873 -0.157522
0.00417227 -0.155548 0.199345 0.16779 0.938801 0.300831
-0.00693553 -0.245883 0.0187065 -0.589514 0.36679 -0.71968
-0.011782 -0.189437 0.127774 -0.843276 -0.519174 0.139082
0.0293764 -0.304539 0.14454 1 0 0
0.146109 0.0574247 0.306536 0 0 1
0.0181386 -0.222857 0.312567 1.10737e-05 0.864575 -0.502504
-0.016187 0.133883 0.179968 -0.999575 -0.0273069 0.01023
-0.0404912 0.273377 0.156583 0 -0.488228 0.872716
-0.0342219 0.262034 0.141012 -1 0 0
0.00791237 -0.20078 0.102223 0.573809 -0.729781 0.371704
0.0320454 0.179735 0.429626 0 0.193269 -0.981146
0.0144504 -0.301314 0.151195 0 0.999442 -0.0334083
0.0120047 0.19714 0.0474458 0.995723 -0.0606082 -0.0697336
0.0504954 0.304489 0.146886 0.99637 0.0773528 -0.0355465
-0.00843413 0.168807 0.465688 -0.3602 -0.0298413 0.932397
0.00105698 -0.263526 0.0465956 0.204229 -0.444498 0.872188
0.0483592 0.290309 0.160429 0.195016 -0.00159982 0.980799
0.00113055 0.112625 0.442707 0 -0.328606 -0.944467
0.0197212 0.313447 0.181778 0.389211 0.907086 -0.160344
-0.0948688 0.0313647 0.0675891 0 0 1
0.0122947 0.193418 0.0748372 0.982466 0.14889 0.112212
0.00536899 0.4372 0.13705 0.589461 0.807673 0.0141537
0.0492957 0.284897 0.164148 0.998331 -0.055867 -0.014655
0.00934323 0.313802 0.0327981 0.843257 -0.065557 0.533497
0.0118857 -0.2102 0.25153 0.839834 0.383792 0.383904
-0.0411597 0.246951 0.213383 0.965473 0.248618 0.0777831
-0.0220525 0.0685103 0.326829 -0.590658 -0.00249629 0.806918
0.0246496 -0.258135 0.23687 -0.988405 -0.150404 0.0208529
0.00958084 -0.148934 0.125838 0.167603 0.978893 -0.116955
-0.0332924 0.274336 0.154915 1 0 0
-0.00118708 -0.293754 0.0398214 -0.204121 -0.0513285 0.977599
-0.0106974 -0.00072525 0.326435 -0.957408 -0.288737 0
-0.0139558 0.225759 0.16519 0.968386 0.226512 -0.104499
-0.0140931 0.218572 0.247614 -0.982472 0.0960255 -0.159776
0.0312221 -0.244486 0.267961 0.986935 0.161075 -0.00370001
-0.0646034 -0.179162 0.632311 -0.071698 -0.921584 -0.381501
0.00369273 -0.0824521 0.184162 0.382003 0.546186 0.74549
0.00972718 0.0424994 0.160183 0 -1 1.21889e-05
0.0107158 0.247373 0.0150909 0.839841 -0.15867 -0.519125
0.0240252 0.176218 0.294608 -0.589122 0.570952 0.571794
-0.039732 0.1836 0.203087 -0.0487199 0.298248 0.953244
0.0265276 -0.291524 0.154605 -0.965516 -0.184355 -0.183825
-0.0253373 -0.320336 0.169922 -0.690316 -0.722601 0.0362037
-0.136938 -0.170225 0.636707 -0.21731 -0.902726 -0.371298
0.0352938 0.294129 0.125233 0 0.173546 -0.984826
-0.0388753 0.0900242 0.220949 0 -0.476666 -0.879084
0.0136337 -0.164199 0.64801 0 0.690687 0.723154
-0.0148311 0.126232 0.326114 -0.984894 0.161659 -0.062055
-0.0384241 0.291856 0.167296 -1 0 0
0.000427922 -0.421408 0.142259 0.389302 -0.253538 0.885529
0.00601156 0.132891 0.313326 0.173248 0.919463 -0.352949
-0.0180596 0.0506655 0.15936 -0.831334 -0.0188894 0.555452
-0.0332531 0.202032 0.260527 0.894466 -0.23177 -0.382379
0.00717396 -0.211147 0.0850299 0.573796 -0.636539 0.515341
0.000775636 -0.143579 0.264083 0.375713 0.736675 0.562272
0.00738008 -0.0812678 0.327393 1 0 0
0.0125583 0.259807 0.276143 0.995748 -0.0300012 0.0870983
-0.00477673 0.191279 0.465639 -0.241489 0.247394 0.938339
-0.0124124 0.0873234 0.160824 0.194954 0.0252235 0.980488
-0.114663 0.0384056 0.0571539 0 0 -1
-0.0332924 0.322908 0.146192 1 0 0
0.00821665 -0.160727 0.597453 0.923891 0.371275 -0.0926338
0.0434014 0.260711 0.1841 -0.241502 -0.731954 -0.637119
-0.0258398 0.158998 0.308556 0.639942 0.527747 0.558531
-0.0257527 0.0453536 0.173523 0 0.620669 -0.784073
-0.0243354 0.169025 0.453955 -0.800407 -0.289663 0.524827
0.00978969 0.14865 0.460169 0.844651 -0.33057 0.421057
0.0304374 0.27524 0.141443 -1 0 0
0.012703 0.419962 0.124103 0.995723 0.0906938 -0.0176189
-0.00477203 -0.215241 0.0363409 -0.21238 0.615027 -0.759366
-0.00313503 0.151969 0.467613 -0.462152 0.00927356 0.886752
-0.0137453 -0.189753 0.189525 -0.982466 -0.174055 -0.0668287
-0.0144609 -0.368703 0.127776 -0.510733 -0.534796 0.67316
-0.00995889 0.1518 0.391859 -0.93505 0.330411 -0.128488
-0.0143853 0.16232 0.136407 -0.995737 -0.0922251 -0.00162003
-0.00941623 -0.195282 0.454867 -0.923892 0.371272 -0.0926323
-0.0423219 0.137934 0.20341 -0.99975 0.0221241 0.00329585
0.125543 0.0611463 0.298954 0 1 0
-0.0321951 0.0356229 0.175865 0 -0.77771 -0.628624
-0.0161279 0.287931 0.296631 -0.999573 0.00225545 0.0291267
0.0678721 0.0411072 0.218564 1 0 0
-0.00788452 0.257468 0.236545 -0.690171 -0.723504 -0.0143497
0.0813996 0.0579654 0.306536 0 0 1
0.00697758 0.111596 0.453533 0.990947 -0.0993364 0.0903099
-0.00934482 0.140671 0.358772 -0.935057 0.330395 -0.12848
0.0212468 -0.273772 0.15606 -0.968374 -0.244751 -0.0484618
-0.0419709 0.18043 0.156851 -0.965725 -0.174555 0.192107
0.00920038 -0.148131 0.132014 0.167603 0.978893 -0.116955
0.000166254 -0.382224 0.0697299 0.203989 0.69221 0.692267
0.0110981 -0.407511 0.0566773 0.839846 -0.383787 -0.383883
0.00227921 0.0478588 0.164999 0.574026 -0.76445 0.293444
-0.00774978 -0.0757398 0.166179 -0.923723 -0.177378 -0.339517
-0.003637 0.437975 0.160081 -0.21233 0.977048 0.0171461
-0.0410057 0.306397 0.139567 -1 0 0
-0.0354105 0.0113156 0.182319 1 0 0
0.00223877 0.335869 0.251975 0.204018 -0.286119 -0.936223
0.000412812 -0.228164 0.369573 0.382736 -0.896769 0.222079
-0.109604 0.0587094 0.0675891 0 0 1
0.0359209 0.214464 0.149298 -0.552833 0.0999246 -0.827279
-0.00106051 -0.260391 0.254104 -0.204183 -0.350719 -0.913951
-0.00297198 -0.216968 0.0818671 -0.204105 -0.760849 0.615995
0.0312189 0.421484 0.149379 0.526456 0.100999 -0.844182
0.00553219 0.00357955 0.320295 0.703926 -0.0945053 -0.703958
0.010747 0.203977 0.457281 0.123396 0.679189 0.723516
0.00180045 0.40173 0.123573 0.203932 -0.961009 0.186747
0.00132335 0.111151 0.330741 -0.173176 -0.919475 0.352952
-0.00316971 0.00168833 0.332779 0.95793 0.286259 0.0206547
0.0123222 -0.296851 0.286125 0.995748 0.0143967 0.0909857
0.00531626 0.295241 0.00186768 0.589505 0.0985106 -0.801735
0.0524325 0.281151 0.152511 0.973989 0.117574 0.193707
0.0120501 0.274856 0.011375 0.995716 -0.00805055 -0.092114
-0.039413 0.0691327 0.13444 -1 0 0
-0.112251 -0.161445 0.650506 0.1083 0.423189 0.899546
-0.108934 -0.177334 0.63328 0.992517 -0.120483 -0.0198496
0.00641896 0.118285 0.275533 0.818857 0.535873 -0.205702
-0.0164493 -0.228763 0.278618 -0.998242 -0.0306384 -0.050745
0.0128824 -0.403666 0.229413 0.982469 0.144894 -0.117306
0.00196751 -0.18279 0.550116 0.382871 -0.896714 0.222069
-0.00242204 -0.368498 0.0585649 -0.20403 0.533067 0.821104
0.0305823 0.17518 0.428728 0 0.193269 -0.981146
0.00521212 -0.16197 0.175156 0.589458 0.797844 0.126433
0.00753035 -0.432059 0.0829728 0.589519 -0.677406 -0.439987
0.137027 -0.15734 0.632883 -0.0437818 0.330059 -0.942944
0.0108018 0.112011 0.276635 0.818852 0.53588 -0.205705
-0.0191478 0.266851 0.189614 -0.510768 0.523761 0.681755
0.0191613 -0.266341 0.160158 -0.965527 -0.259338 -0.0224018
0.0170713 0.142989 0.150275 -0.526495 0.31938 -0.787908
-0.0144223 -0.206124 0.235073 -0.99574 0.0651856 0.0652063
-0.131102 0.043007 0.0665161 0 0.689237 0.724536
-0.0396264 0.203506 0.266848 -0.645706 0.502268 0.575144
0.0970564 0.0382314 0.306536 0 0 1
-0.0784165 0.0396649 0.0675891 0 0 1
-0.00783557 -0.159675 0.581816 -0.92388 0.3713 -0.0926401
-0.0114296 0.194591 0.0815883 -0.843206 0.429299 0.323583
-0.0434472 0.0289166 0.120289 -0.982829 -0.0447925 -0.179
-0.136206 -0.157045 0.651576 0.118889 0.42156 0.898973
0.0357074 -0.301484 0.152064 0 0.91495 0.403567
-0.00494837 -0.253377 0.0512377 -0.204168 -0.444503 0.8722
-0.0132227 0.101925 0.285725 -0.818853 -0.535878 0.205705
-0.0431527 -0.181667 0.639944 -0.0129862 -0.92392 0.382365
-0.0141685 -0.382089 0.0438368 -0.99572 -0.050326 -0.0775172
-0.00681081 0.0435047 0.149049 -0.382943 -0.00798975 -0.923737
-0.016157 0.390698 0.25578 -0.999573 0.0183795 0.0227339
0.00258471 -0.402985 0.0950002 0.204026 0.820956 0.533297
-0.0354105 0.0397222 0.234947 1 0 0
0.133434 0.0452583 0.306536 0 0 1
-0.00744367 0.114654 0.266193 -0.574048 0.764435 -0.293443
0.025464 0.145323 0.159379 0.526495 -0.31938 0.787908
-0.108367 -0.175569 0.650744 0.992494 -0.120672 -0.0198687
-0.000819502 -0.101618 0.181714 0.376301 -0.736368 -0.562281
0.00720025 0.0154364 0.333334 0.633136 -0.0731096 0.77058
-0.00658516 -0.403758 0.207838 -0.573662 0.729854 -0.371786
-0.00998808 0.231699 0.246623 -0.573594 0.421977 -0.702087
0.00527086 0.125967 0.354091 0.573774 -0.755468 0.316309
-0.0406263 0.22047 0.174194 -0.999658 0.0244704 0.00918164
0.00436338 0.0208711 0.326207 -0.983363 0.18031 0.0220411
-0.0100209 -0.196063 0.465128 -0.92387 -0.371552 0.091726
0.00896879 -0.260743 0.0436911 0.573682 -0.371931 0.729764
0.0121147 -0.184265 0.1388 0.982469 -0.186172 0.00973324
0.00390057 -0.162766 0.322305 0 1 0
0.0117962 0.193904 0.245361 0.83975 -0.370349 0.397066
-0.00659035 0.365209 0.061125 -0.573657 -0.558683 0.598992
0.037829 -0.309352 0.149006 1 0 0
-0.0141222 0.413525 0.169709 -0.982467 -0.181653 -0.0419567
0.0125514 0.352896 0.25544 0.982458 -0.0904027 -0.163108
0.0299818 -0.301623 0.1494 0 0.886091 -0.463512
-0.0423208 0.0377964 0.239907 -0.831458 0.00195777 0.555584
0.0340111 0.287143 0.168161 0 -0.173719 0.984795
0.133073 0.0595485 0.296101 0 0 -1
-0.00549503 0.0581883 0.189422 -0.173176 -0.919475 0.352952
-0.0535538 0.282002 0.143463 -0.182076 -0.358191 -0.915722
-0.0353714 0.164366 0.160165 -0.194886 -0.0352257 0.980193
0.0671605 0.0387325 0.299626 -1 0 0
0.00787608 -0.344723 0.303819 0.0852026 -0.329452 0.94032
0.165232 -0.158175 0.645177 0.9925 0.120575 0.0201164
-0.0145362 0.0630494 0.150201 -0.194945 -0.0252232 -0.98049
-0.0329452 0.0135511 0.119975 -0.0507606 -0.467258 -0.882662
-0.0310325 -0.297781 0.153226 1 0 0
0.00271213 -0.186938 0.464447 0.382736 0.896541 -0.222997
-0.00969499 0.0532148 0.172875 -0.818856 -0.535874 0.205703
0.0357435 0.24252 0.214152 -0.965473 0.248618 0.0777831
0.012782 0.293592 0.0176494 0.995716 -0.00805001 -0.0921129
-0.00315782 0.253076 0.289278 -0.212183 -0.318252 0.923956
0.000534949 -0.225155 0.274233 0.21232 0.532151 0.819595
-0.00347984 -0.188469 0.254835 -0.0478195 0.696658 0.715807
-0.039413 0.0011023 0.189563 -1 0 0
-0.00165291 -0.200525 0.481816 -0.382869 -0.896715 0.222066
0.00847841 -0.164059 0.594087 0.923839 -0.371623 0.0917438
-0.0139419 0.406736 0.104724 -0.982469 -0.17161 0.0728271
0.012215 -0.179208 0.20117 0.995733 0.086144 0.033077
-0.0408104 0.132271 0.216724 -0.978213 0.061991 0.198133
-0.014678 -0.242801 0.0412096 -0.995716 0.0419868 -0.0823835
-0.0057217 -0.154701 0.103856 -0.0250383 0.927593 -0.372752
-0.0457042 0.0158372 0.13819 -0.982828 -0.0863274 -0.163087
0.0183914 -0.347644 0.154806 -0.966979 0.189997 -0.16986
-0.042302 0.0464082 0.178204 0 0.878385 -0.477954
0.0723441 0.0192088 0.306536 0 0 1
-0.0138804 -0.313644 0.0158998 -0.995716 -0.0144541 -0.0913229
0.00555232 -0.199321 0.108727 0.573492 -0.729938 0.371883
-0.013164 0.17922 0.465267 -0.242138 -0.131603 0.961275
-0.039413 0.0796638 0.163924 -1 0 0
-0.00634182 0.141893 0.343409 -0.573657 0.77668 -0.260164
-0.151247 0.0498175 0.0649682 -1 0 0
-0.0145454 -0.177591 0.14291 -0.995728 0.0922132 -0.00482425
0.0102015 -0.229933 0.333682 0.980771 -0.189495 0.0466804
-0.0553227 0.0366765 0.18641 1 0 0
-0.0022923 -0.164079 0.336121 -0.194914 0 0.98082
-0.0121121 0.151141 0.22766 -0.501095 -0.693182 0.518076
-0.0611703 0.0466858 0.0912683 -0.0740604 0.997036 -0.0208366
-0.0522814 0.270805 0.172703 -0.835003 -0.437705 -0.333444
0.0016599 0.424105 0.210521 0.212371 0.885595 0.413063
-0.00917271 0.230318 0.0176835 -0.589539 -0.391532 -0.706502
0.00537113 -0.195397 0.357437 -6.51473e-05 0.241923 0.970296
0.0419647 0.259226 0.202501 -0.526815 0.695098 0.489188
-0.0353438 0.290642 0.134699 1 0 0
0.00161073 -0.234354 0.353544 0.195144 -0.952314 0.234557
-0.0495446 0.244384 0.206495 -0.523361 -0.696974 -0.490225
-0.00404835 0.192571 0.272152 0.000291569 -0.612094 0.790785
0.00336367 -0.233853 0.354122 0.194885 -0.952358 0.234594
0.0158759 -0.358747 0.152391 -0.968394 0.246526 -0.0379279
-0.00369494 0.228017 0.280109 -0.212321 -0.503389 0.837568
-0.039413 0.0385273 0.187535 -1 0 0
0.0180594 0.190009 0.461887 0.244203 0.181579 0.952572
0.000154523 -0.257084 0.299734 -0.0479063 0.271571 0.961225
-0.00671369 -0.397199 0.0846007 -0.573638 0.686901 0.446214
0.0221163 0.0388715 0.166112 0 -0.017694 -0.999843
-0.120809 0.0444231 0.059688 0 0.859736 -0.510739
0.00680178 0.178467 0.165386 0.5737 0.804032 -0.156208
0.00439383 -0.0624367 0.320495 0.707091 0 -0.707123
-0.00474939 0.145557 0.156472 -0.212288 -0.977057 -0.0171534
-0.00631242 -0.0298397 0.162586 -0.382674 0.164211 0.909173
-0.0387227 0.167427 0.158231 -0.822228 -0.148618 0.549412
0.0144072 0.309643 0.296235 0.515403 0.0661268 0.854393
0.0131542 0.0215599 0.32565 0.970457 -0.21765 -0.10412
0.00572337 0.000714134 0.332826 0.704218 -0.0900591 0.704249
0.00316272 -0.241656 0.283458 0.212586 0.350076 0.912279
0.000669258 -0.427856 0.233048 0.212301 -0.759478 0.614916
0.0128678 0.0371813 0.195245 0 -0.366261 0.930512
-0.000302207 0.395889 0.189696 0.204049 -0.8872 -0.413811
0.0143685 -0.221134 0.274076 0.999577 0.0177424 0.0230591
0.0126023 -0.355672 0.0300174 0.995717 -0.0331248 -0.0863126
0.0123311 -0.177169 0.11068 0.995725 0.0892244 -0.023899
0.00512562 -0.401635 0.260402 0.589544 -0.508392 0.627675
0.0244104 0.0518795 0.180961 1 0 0
0.0124573 -0.262179 0.0253265 0.995715 0.0239435 -0.089324
-0.0332924 0.288065 0.145417 1 0 0
0.0507923 0.296821 0.154052 0.825283 0.121682 0.551453
-0.0332602 -0.259319 0.243253 -0.727534 -0.605224 0.323107
-0.00702182 -0.0332987 0.162912 -0.382674 0.164211 0.909173
-0.00561424 0.392084 0.130864 0.966937 -0.201257 0.156613
-0.0390536 0.0930023 0.231467 -0.0487199 0.298248 0.953244
0.0340742 0.188672 0.442994 0.968802 -0.11097 0.221605
-0.0353438 0.309626 0.142076 1 0 0
0.0101002 0.379526 0.258072 0.839763 0.356187 0.40979
-0.053852 0.253802 0.158866 -0.552813 -0.0999209 0.827293
-0.0353438 0.30491 0.151425 1 0 0
0.0139757 -0.247526 0.29222 0.515492 0.342519 0.785461
0.00476141 0.257025 0.289751 0.589586 -0.263044 0.763673
-0.014365 -0.381668 0.0521831 -0.982469 0.101525 0.156356
-0.0108562 -0.171153 0.10279 -0.839711 0.524547 -0.140486
0.0285808 0.298236 0.156554 0.690198 0.544996 0.476031
-0.039413 0.0659006 0.22576 -1 0 0
-0.00823463 -0.175351 0.286978 -0.920964 -0.309712 -0.236439
0.0122371 -0.358129 0.0408152 0.982465 0.0668001 0.174069
-0.0371952 0.0746342 0.179533 0 0.500012 0.866019
-0.0120978 0.10573 0.252051 -0.573987 0.764476 -0.293455
0.00684676 0.0431349 0.325503 -0.989195 0.103686 0.103643
0.0292284 -0.262926 0.236049 0.106428 -0.901483 0.419526
0.0247993 -0.291475 0.137652 0.690323 0.722595 -0.0362132
-0.0384241 0.291839 0.175219 -1 0 0
0.0122744 -0.318723 0.219828 0.701337 -0.70872 -0.0764406
0.0282566 -0.231287 0.305502 0.770046 0.621059 -0.145993
-0.00776637 -0.244111 0.0543923 -0.573622 -0.37195 0.729802
-0.0573913 0.266369 0.152282 -0.822228 -0.148618 -0.549412
-0.0384241 0.271247 0.147705 -1 0 0
0.00615759 -0.187747 0.521508 0.923871 -0.371548 0.0917273
-0.0133472 -0.425828 0.153206 -0.843293 0.53672 -0.0280813
0.0127029 0.167105 0.18731 0.995743 -0.0848532 0.036009
-0.0416055 0.134919 0.177041 -0.990854 -0.00902259 -0.134634
0.0119968 -0.224074 0.0397696 0.839857 0.341643 -0.421807
0.00209568 0.142892 0.352957 0.354544 0.871463 -0.338897
-0.130995 -0.152475 0.642684 0.19409 0.979475 -0.0543872
-0.0408823 0.123579 0.219088 -0.978213 0.061991 0.198133
0.000703031 -0.108296 0.335055 0 0 1
0.0104742 0.151864 0.131724 0.839826 -0.542772 -0.00953436
-0.0557503 0.284543 0.156131 -0.825283 0.121682 0.551453
-0.0353438 0.307142 0.136129 1 0 0
0.140257 0.0201606 0.296101 0 0 -1
-0.0140746 -0.410989 0.232281 -0.995745 -0.0716254 0.0579833
0.0145498 0.429697 0.204853 0.999576 0.0263605 0.0123921
0.00785788 -0.315398 0.0361485 0.573685 0.128053 0.809004
-0.0154517 0.10248 0.27409 -0.984894 0.161656 -0.0620542
-0.00748655 -0.266895 0.302125 -0.0479063 0.271571 0.961225
-0.107757 -0.176482 0.642066 -0.11377 -0.915838 0.385093
0.151233 0.0443113 0.303757 0 0.689263 0.724511
0.00150948 0.362827 0.0574154 0.389701 -0.59216 -0.705322
0.0106945 0.173188 0.160257 0.843273 0.527622 -0.102501
-0.00490028 -0.178188 0.566416 -0.382869 -0.896715 0.222066
-0.0019471 0.0391087 0.163789 -0.382929 0.00648308 0.923755
0.00691216 0.211682 0.0653694 0.573659 0.537317 0.618228
0.140761 0.017505 0.298255 0 -1 0
-0.0332924 0.327276 0.141924 1 0 0
0.0280736 -0.29524 0.151493 0.524731 -0.803451 -0.28129
-0.0196864 0.0859947 0.158127 -0.831313 -0.018889 0.555483
-0.00852082 -0.190219 0.256109 -0.247405 0.675774 0.694349
-0.0536539 0.265048 0.160148 -0.194895 -0.0352274 0.980191
-0.020205 0.198261 0.460752 -0.19534 0.18721 0.962702
0.0228532 -0.180407 0.631933 0.0120959 -0.92366 -0.383023
-0.00657573 0.085965 0.466689 -0.46656 0.00726004 0.88446
0.0105685 0.0673377 0.329174 -0.688882 0.10897 0.716636
-0.0432979 0.0921125 0.216233 -0.999485 0.026478 0.0181395
-0.0444955 0.264905 0.134789 -0.999835 -0.0178366 -0.00351853
0.00757946 -0.173171 0.207768 0.589611 0.754009 0.289532
-0.039413 0.00876691 0.214431 -1 0 0
0.000110099 0.362524 0.234843 0.204146 -0.642203 -0.73885
-0.00145926 0.240916 0.0478103 -0.204185 0.474526 0.856232
0.00379289 -0.147549 0.12913 0.167681 0.978883 -0.116921
-0.0405808 0.122074 0.170361 -0.990854 -0.00902259 -0.134634
-0.125794 -0.155908 0.641442 0.181482 0.909705 0.373499
-0.0342218 0.303964 0.145035 -1 2.14375e-06 2.39965e-07
0.00798754 -0.137234 0.242536 0.920679 -0.310249 -0.236847
0.0293764 -0.310219 0.147562 1 0 0
0.0511341 0.257405 0.152132 0.822228 -0.148618 -0.549412
-0.0122434 -0.169885 0.189335 -0.839733 0.506909 0.194658
0.00208035 -0.206405 0.360182 7.19611e-05 0.241916 0.970297
0.121204 0.017505 0.296587 0 -1 0
0.0125397 -0.173809 0.137205 0.995728 0.0922133 -0.00482399
-0.000570334 0.136153 0.318592 0.173248 0.919463 -0.352949
0.00855129 -0.211629 0.27465 0.167798 0.601148 0.781323
0.0678721 0.0443966 0.296175 1 0 0
-0.000385257 -0.396905 0.216254 0.204072 0.760843 -0.616014
-0.0443024 0.0739395 0.134435 -0.98283 0.121866 -0.138544
-0.00143937 -0.117116 0.230073 -0.376285 0.73649 0.562131
-0.0368189 0.00189413 0.200863 0 0.966615 -0.256233
-0.014735 -0.361128 0.183501 -0.525168 0.434409 0.73177
-0.0556275 -0.164588 0.636225 0.0129101 0.92385 -0.382536
-0.0137959 -0.40278 0.0564809 -0.995723 -0.0653218 -0.0653381
-0.0354105 0.00457133 0.151728 1 0 0
-0.00462432 0.0958093 0.211587 -0.574048 0.764435 -0.293443
-0.0139891 0.231441 0.267739 -0.995749 -0.0474499 0.0789515
0.00654424 0.0990808 0.150979 -0.555591 0.00400876 -0.831446
0.0209642 -0.287512 0.180112 0.525663 0.6451 -0.554549
-0.0231836 0.0332546 0.169752 1 0 0
-0.00898837 -0.10261 0.327855 -1 0 0
-0.0447622 0.0913922 0.19365 -0.982829 0.172758 0.0648245
-0.000666607 -0.185547 0.163296 0.565541 0.131127 0.814229
-0.00134222 0.265727 0.00262381 -0.212213 -0.0850701 -0.973513
-0.00281309 0.0834698 0.256598 -0.173176 -0.919475 0.352952
0.00810938 0.420086 0.211438 0.589496 0.732061 0.34144
-0.00303595 -0.224887 0.229789 0.965535 -0.235983 -0.109794
-0.0256633 0.16861 0.297104 0.965247 0.249314 0.0783686
-0.0101446 -0.148302 0.625499 -0.607803 0.782274 -0.136466
-0.0117644 0.359624 0.245047 -0.843267 -0.260528 -0.470134
-0.00533868 -0.215048 0.277974 -0.0481016 0.609191 0.791564
-0.00274909 -0.113391 0.318687 0 0 -1
0.0244104 0.0377927 0.193006 1 0 0
-0.112606 -0.174811 0.649172 -0.967103 -0.0832481 0.240378
-0.00650078 -0.205993 0.315934 -0.559016 -0.588104 -0.584495
-0.00130907 0.236137 0.293522 0.00041765 -0.300208 0.953874
-0.114032 0.0427399 0.0571539 0 0 -1
-0.0140735 0.16503 0.105489 -0.995735 -0.0898969 -0.0207614
-0.0353438 0.28416 0.16518 1 0 0
0.00907 -0.36631 0.28013 0.839689 -0.246594 0.483853
-0.0507294 0.298381 0.162599 0.973073 0.153395 0.172041
-0.041186 0.169495 0.122449 0.00700483 -0.316861 0.948446
0.0145807 0.231455 0.143574 0.701043 0.00209064 -0.713116
0.0112692 -0.18563 0.146233 0.843286 -0.536732 0.0280608
-0.0356289 0.00882237 0.229033 0 0.219282 0.975661
-0.0413483 0.184085 0.171854 -0.990854 -0.00902259 -0.134634
-0.00564136 -0.162896 0.216404 -0.0478618 0.907952 0.416332
0.00250663 -0.185182 0.0673663 0.212224 0.759487 -0.614931
-0.0818647 0.0364616 0.0593278 0 -0.689263 -0.724511
-0.00803448 0.114037 0.333665 -0.173217 -0.919468 0.352952
-0.0128051 -0.279324 0.218184 0.966948 -0.200552 -0.157448
0.0310228 0.0406748 0.173904 0 -0.105134 -0.994458
-0.0150362 0.111114 0.289986 -0.984894 0.161659 -0.062055
-0.000904923 0.0494308 0.192262 0 0.719586 0.694403
-0.00498119 0.28823 0.147157 0 -0.999341 -0.0362885
0.0237858 -0.250329 0.252183 -0.764968 0.603495 -0.224986
0.0120411 -0.339562 0.0347967 0.98247 0.0667842 0.174045
0.0293764 0.289862 0.144998 1 0 0
-0.0369243 0.238099 0.181204 1 0 0
0.11251 0.0433616 0.297223 0 0.553074 -0.833132
-0.0027427 0.0487108 0.166082 -0.173176 -0.919475 0.352952
-0.0820312 0.0417385 0.0675891 0 0 1
-0.00237118 0.295799 0.14823 0 0.999321 0.0368542
-0.00939798 0.155374 0.412677 -0.910411 -0.361439 0.20128
-0.00841816 0.270204 0.004957 -0.589553 -0.0703215 -0.804662
-0.0152292 0.11138 0.293742 -0.984894 0.161659 -0.062055
0.011663 0.399877 0.200872 0.843258 -0.487123 -0.227214
0.00758478 0.0174196 0.333206 0.633136 -0.0731096 0.77058
-0.0359284 0.0756725 0.178934 0 0.500012 0.866019
-0.0137849 0.170101 0.146542 -0.982469 0.186396 0.00327145
-0.0139011 0.425549 0.128579 -0.995724 0.0906851 -0.017618
-0.0143344 -0.299368 0.282122 -0.99575 -0.00482194 0.0919698
-0.0103716 0.407856 0.148699 -0.573527 -0.81906 -0.0143884
0.00578282 0.38373 0.126884 0.575674 0.224732 0.78619
0.0396893 0.276437 0.141989 0.997327 -0.0181441 0.0707769
0.0106997 -0.230627 0.309466 0 0.0958614 -0.995395
-0.0143781 0.167075 0.245968 -0.500973 -0.61667 0.607243
-0.0155537 0.106307 0.285676 -0.984894 0.161656 -0.0620542
0.0391859 0.271513 0.153714 1 0 0
-0.00379946 0.213744 0.284558 0.000415438 -0.411742 0.9113
-0.013981 -0.271917 0.281839 -0.995748 0.0143974 0.0909901
0.00463152 -0.0668286 0.320733 0.707091 0 -0.707123
-0.014437 0.418332 0.173862 -0.99573 0.0899416 0.0207736
-0.00610984 -0.178908 0.561423 -0.382734 -0.896768 0.222083
-0.00890799 -0.268058 0.0423095 -0.573676 -0.212067 0.791153
0.00801683 0.34243 0.0781271 0.510359 -0.524019 -0.681863
-0.00486151 -0.206948 0.27177 -0.0478865 0.609097 0.791648
-0.00702495 -0.32083 0.00691626 -0.589521 -0.126277 -0.797822
-0.00550384 -0.174921 0.578567 -0.382869 -0.896715 0.222066
-0.010018 -0.194154 0.324799 -0.980796 -1.95638e-06 -0.195035
0.0121031 -0.332652 0.0172784 0.995716 -0.0144546 -0.0913288
-0.0639101 0.0464493 0.0897593 -0.448398 0.893639 -0.0186678
0.00889696 -0.153311 0.108757 0.0837844 0.93609 -0.341638
0.00212175 -0.207789 0.207895 0.204264 -0.820914 -0.533269
-0.0996269 0.0607661 0.057929 0 1 0
-0.155371 -0.149551 0.637569 0.14251 0.891279 -0.430479
-0.00520819 0.192529 0.202589 -0.204267 0.901128 -0.382417
0.0502108 -0.165336 0.63452 -0.0129207 0.923822 -0.382605
0.0678721 0.0435231 0.288894 1 0 0
0.00477922 -0.399432 0.215067 0.573645 0.636615 -0.515415
0.00597162 0.0515478 0.151132 -0.555597 0.00400925 -0.831442
0.0738809 -0.164079 0.642745 -0.108333 0.918712 0.379779
-0.0137227 -0.355849 0.024233 -0.995718 -0.0331202 -0.0863037
0.141712 -0.157405 0.632722 -0.0210506 0.33291 -0.942724
-0.0374432 0.18246 0.444362 -0.979997 -0.116459 0.16138
0.0161567 0.105352 0.317891 -0.186231 -0.0550221 -0.980964
0.0039292 -0.159059 0.153561 0.212495 0.97583 -0.0510137
0.127826 -0.159626 0.63251 -0.043687 0.32982 -0.943033
-0.00397599 -0.268351 0.0447148 -0.204194 -0.253455 0.94555
-0.0322481 0.161736 0.298036 -0.955547 -0.287599 -0.064937
0.0037484 0.0752518 0.16206 0.17316 0.919476 -0.352959
0.137144 0.0291045 0.306536 0 0 1
-0.0333848 -0.0225889 0.191185 -0.0506576 -0.991007 0.123852
0.00251919 -0.187129 0.463347 0.382736 0.896541 -0.222997
-0.0430775 -0.015057 0.156682 -0.831402 -0.520248 -0.195227
0.00682406 0.196894 0.274327 0.146261 -0.510444 0.847381
0.0225257 0.16511 0.304007 -0.609022 0.530141 0.589951
-0.0112431 0.350463 0.0182212 -0.839818 0.176807 -0.51327
-0.0106404 0.153838 0.184581 -0.839749 -0.533006 0.103564
0.00857151 0.262537 0.298938 0.146407 -0.180773 0.972567
0.0111285 -0.150948 0.630875 0.926639 0.370356 -0.0646326
0.0046151 0.192819 0.203536 0.573703 0.670974 -0.469744
-0.0153365 0.112719 0.298933 -0.984894 0.161656 -0.0620542
0.0248976 0.181117 0.290305 -0.574122 0.602869 0.554015
-0.00698988 -0.379657 0.276436 -0.589573 -0.366797 0.719628
-0.000849954 -0.451373 0.134369 -0.212482 -0.965116 -0.152976
-0.0415382 0.107873 0.178359 -0.990854 -0.00902259 -0.134634
-0.00754012 -0.190901 0.647276 0 -0.161187 0.986924
0.09103 0.0437458 0.296101 0 0 -1
-0.00858441 -0.20529 0.334137 -0.813211 0.406682 0.41629
0.0431941 0.249148 0.197817 -0.243016 -0.742201 -0.624564
-0.0194071 0.105935 0.318057 0.191254 -0.0820632 -0.978104
-0.0242814 0.185169 0.430397 0 0.127969 -0.991778
-0.000332125 -0.187174 0.162488 0.400899 0.106919 -0.909862
-0.0131549 0.398971 0.202312 -0.843202 -0.487204 -0.227252
0.00624575 -0.00252068 0.159953 0.923694 0.00268882 0.383122
-0.011291 0.174684 0.141444 -0.843269 0.537409 0.00941838
-0.0410057 0.293513 0.145298 -1 0 0
-0.00979515 -0.158786 0.604924 -0.923892 0.371272 -0.0926323
-0.0299942 -0.234399 0.292471 -0.770908 0.615118 -0.165323
-0.0582349 0.0463903 0.0746621 0.308951 0.94267 0.126187
-0.00697425 -0.0380615 0.163844 -0.382843 0.221021 0.896984
-0.0142781 -0.210832 0.0601146 -0.995718 0.071845 -0.0581639
-0.00541462 0.0441109 0.154873 -9.24386e-06 0.999284 -0.0378341
-0.0143154 -0.329909 0.273714 -0.982466 0.0482735 -0.180082
-0.00680848 -0.177729 0.319478 -0.555453 0 -0.831548
-0.0105881 -0.35584 0.285426 -0.589595 -0.209139 0.780153
-0.00707505 -0.278289 0.305115 -0.0478746 0.15591 0.98661
0.0125683 0.419339 0.181057 0.99573 0.0899435 0.0207741
-0.0138386 0.11128 0.153383 0 0.542251 -0.840217
-0.0320517 -0.296953 0.153442 -1 0 0
0.037829 -0.30449 0.154034 1 0 0
0.0128656 0.169978 0.104924 0.99573 -0.0836576 -0.0390223
0.00467923 0.261244 0.242525 0.574802 -0.793744 -0.19893
0.00948427 -0.251976 0.21053 0.401383 0.666693 -0.628022
-0.00201412 0.0857004 0.186452 0.17316 0.919476 -0.352959
-0.0138956 -0.200922 0.237916 -0.99574 0.0651856 0.0652063
0.0125914 -0.423194 0.190552 0.98246 0.180119 -0.0482544
0.018848 0.259319 0.175164 0.701038 -0.456782 -0.547627
-0.0142216 0.193357 0.0722974 -0.98247 0.148872 0.112206
-0.0660527 0.0380244 0.181177 -1 0 0
0.000523808 -0.133162 0.335055 0 0 1
-0.039413 0.0541063 0.215612 -1 0 0
-0.0137402 -0.434481 0.106629 -0.995731 -0.0861693 -0.0330826
-0.0354105 0.00378759 0.1413 1 0 0
-0.0130557 0.0964354 0.149803 0.195003 -0.0114896 -0.980735
0.00676008 0.398542 0.190127 0.573777 -0.742253 -0.346179
0.024186 0.272088 0.1393 -0.968402 0.203598 0.14403
-0.0161951 0.236696 0.286233 -0.999573 -0.00876993 0.0278594
-0.00297087 -0.19382 0.247092 -0.212329 0.69092 0.691047
0.0126548 -0.390108 0.242718 0.982468 0.117343 -0.14487
0.0121846 0.41643 0.0935316 0.99572 0.0850759 -0.0361037
0.0013996 -0.22808 0.231019 -0.966957 -0.242248 -0.0794336
-0.14194 -0.169818 0.648373 -0.165933 -0.887034 0.430856
-0.0232332 0.0367008 0.179606 -1 0 0
-0.0342219 0.269367 0.137245 -1 1.55618e-06 -3.76785e-07
0.0114332 -0.316952 0.0808281 -0.9655 0.110517 0.235789
-0.0384241 0.294948 0.135779 -1 0 0
0.00984439 0.129938 0.159622 -0.524728 0.328645 0.785273
0.0107703 0.305881 0.00864895 0.839875 0.0661996 -0.538728
-0.0332924 0.282037 0.12957 1 0 0
-0.00934933 0.132444 0.36123 0.000294809 0.358362 0.933583
-0.000215546 0.394215 0.193328 0.204049 -0.8872 -0.413811
-0.0342437 0.172015 0.294738 -0.664305 0.372752 0.647885
-0.0384241 0.306947 0.125472 -1 0 0
0.00821526 0.10675 0.252634 0.818857 0.535873 -0.205702
-0.0525047 0.306409 0.147465 0.0839781 0.0025824 -0.996464
-0.00341058 -0.191061 0.517 -0.382869 -0.896715 0.222066
-0.0410057 0.281016 0.153726 -1 0 0
-0.00619648 0.207551 0.223757 -0.573595 0.558719 -0.599017
-0.0101741 -0.209916 0.407473 -0.92387 -0.371552 0.091726
-0.037808 0.231873 0.185423 0 0.077618 0.996983
0.0101217 -0.187836 0.138517 0.843286 -0.536732 0.0280608
-0.00372484 -0.384793 0.275114 -0.212431 -0.443713 0.870628
9.11644e-05 0.135431 0.201723 0.000346952 -0.916731 0.399506
-0.0191215 -0.334591 0.112223 -0.525657 -0.645099 0.554555
-0.012709 0.335382 0.0154248 -0.839865 0.176768 -0.513205
-0.00675688 0.322779 0.00511379 -0.589535 0.0985079 -0.801713
-0.00520819 -0.172073 0.525734 -0.382675 0.896565 -0.223005
0.00726768 0.38143 0.0752003 0.573702 -0.670992 0.469718
0.0246943 -0.180073 0.631186 0.0120959 -0.92366 -0.383023
-0.0187795 0.0533786 0.329109 -0.578413 -0.00316243 0.815738
-0.0442279 0.255465 0.205613 0.522432 0.696606 0.491737
-0.0189221 0.116238 0.318297 0.885682 -0.0569937 -0.460781
0.0304374 0.281061 0.151561 -1 0 0
-0.0332277 0.204559 0.264983 0.950681 0.304039 0.0613696
-0.0208421 0.1424 0.313639 0.982439 0.16885 0.0793988
0.010634 0.231772 0.045221 0.843255 0.260548 0.470145
0.00977905 0.367065 0.163787 -0.966935 -0.242687 0.0783545
-0.0217083 -0.217271 0.354455 -0.920236 0.376655 -0.106283
-0.000411045 -0.167244 0.0991639 0.21221 0.943953 -0.252824
0.0123037 -0.244678 0.0312297 0.995715 0.04199 -0.0823915
-0.00907266 0.176864 0.138978 -0.573769 0.818891 0.0143515
0.012703 -0.319954 0.0218089 0.995716 -0.0144562 -0.0913315
-0.01489 -0.182851 0.647166 0 -0.0678946 0.997692
-0.0137744 -0.421186 0.188993 -0.98246 0.18012 -0.0482526
-0.00903025 0.0549628 0.159656 0.830803 0.0396625 0.555151
-0.0137732 -0.424891 0.216897 -0.995744 -0.082117 0.041836
-0.029976 -0.303985 0.156405 1 0 0
-0.0372839 0.0660786 0.21459 0 -0.500012 0.866018
0.00613475 -0.159748 0.634292 0.00029182 0.2419 0.970301
-0.0798041 0.0607661 0.063748 0 1 0
-0.0333554 0.258608 0.13255 0 -0.959389 -0.282087
-0.130589 0.035535 0.0631077 0 -0.996197 0.0871342
-0.0120767 0.358977 0.245966 -0.843267 -0.260528 -0.470134
-0.0444984 0.0146854 0.225693 -0.982828 -0.0851801 0.163688
-0.00269183 0.379814 0.217617 -0.204088 -0.781752 -0.589247
0.0109977 -0.228004 0.318611 0 0.242032 0.970268
-0.0146774 -0.206299 0.231292 -0.995738 0.0773475 0.0502363
-0.0436548 0.0997642 0.178198 -0.982829 0.183096 -0.0228845
-0.0564698 -0.166208 0.632285 0.0129101 0.92385 -0.382536
0.135383 0.0453229 0.306536 0 0 1
-0.0138935 0.12867 0.339872 -0.887071 0.301328 0.349724
-0.0684096 0.0403009 0.173944 0 -0.105134 -0.994458
0.0994962 -0.16779 0.631097 -0.0152936 0.38018 -0.924786
0.0165352 -0.172646 0.648004 0.870769 0.0281918 0.490883
-0.0129915 0.194204 0.271174 -0.501302 -0.529621 0.68425
0.057142 0.0414686 0.231639 -1 0 0
0.142145 -0.170538 0.646811 0.165933 -0.887034 0.430856
-0.0356112 0.0137645 0.179535 0 0.256176 -0.96663
0.0102124 -0.198455 0.202639 0.843266 -0.50178 -0.192662
0.0727508 0.0471333 0.296101 0 0 -1
-0.111245 -0.157424 0.637216 0.154552 0.889272 -0.430475
0.0281059 -0.310225 0.141245 -0.969441 0.200287 -0.141665
-0.0128079 0.332404 0.280826 -0.839772 0.1587 0.519228
0.00838736 -0.21679 0.333709 0.981008 -0.135802 -0.138496
-0.0129077 -0.260837 0.039598 -0.84325 -0.244081 0.47891
0.00497389 -0.406809 0.201873 0.573601 0.729892 -0.371806
-0.00773759 0.158483 0.422312 -0.911859 -0.382594 0.148778
-0.00530696 0.22854 0.229067 0.965506 0.0843325 -0.246347
-0.0142652 0.41568 0.133565 -0.982469 -0.183003 0.0355517
-0.0422699 0.144465 0.181292 -0.990854 -0.00902259 -0.134634
-0.00183883 -0.43657 0.0841425 -0.212305 -0.819511 -0.532286
-0.00658559 -0.159999 0.262015 -0.376299 -0.736385 -0.562261
0.0362562 -0.297937 0.161554 0.997681 0.0188656 -0.065393
-0.00370982 -0.179441 0.312011 -0.000102224 0.766188 -0.642616
-0.0354105 0.0755704 0.14029 1 0 0
-0.0146245 0.399106 0.0809592 -0.982469 -0.152721 0.106915
-0.00977962 0.10551 0.153386 0.980317 0.030887 -0.194997
0.131247 -0.161907 0.632742 -0.0362517 0.375597 -0.926074
0.0103063 -0.320936 0.0341347 0.843251 0.0840345 0.53091
-0.0177375 -0.233086 0.365311 -0.425019 -0.111846 0.898248
-0.00662802 0.367924 0.231831 -0.573785 -0.537284 -0.61814
-0.00429907 0.230686 0.242411 -0.204098 0.504266 -0.839083
-0.0125086 0.284929 0.0287146 -0.84325 0.0467975 0.535481
0.00446995 -0.102732 0.333171 0.707091 0 0.707122
-0.01439 0.290982 0.0176643 -0.995717 -0.0080497 -0.0921042
0.00904182 0.0541568 0.168178 0.573992 -0.764472 0.293455
-0.0098994 0.125955 0.349811 -0.818572 -0.526312 0.230078
0.00724267 -0.413342 0.246466 0.589456 -0.627819 0.508317
-0.00936313 -0.21088 0.411736 -0.92387 -0.371552 0.091726
-0.00753385 -0.213329 0.363856 -0.382675 0.896565 -0.223005
-0.0360223 0.0156312 0.214136 0 0.49997 0.866043
-0.0374651 0.123607 0.211334 0 -0.0841474 -0.996453
-0.0122977 0.134009 0.344666 -0.984413 0.172759 -0.0329363
0.00994826 -0.440222 0.192775 0.839678 -0.524592 0.14051
0.0140917 -0.174589 0.628576 0.00671069 -0.381965 -0.924153
0.0227827 0.137237 0.152877 0.835708 -0.523418 -0.166207
-0.0353438 0.28678 0.171555 1 0 0
0.150945 0.0381621 0.305437 0 -0.553032 0.83316
-0.0126089 0.149416 0.224479 -0.501085 -0.749614 0.432427
0.00813499 -0.218759 0.0372885 0.589538 0.508385 -0.627686
0.00169434 -0.178558 0.284157 0.376301 -0.736368 -0.562281
-0.0382067 0.135093 0.213211 0 0.0776364 0.996982
-0.0139645 -0.329614 0.28385 -0.995749 -0.0238483 0.0889653
-0.0553227 0.0423919 0.158533 1 0 0
0.0210509 -0.223037 0.361535 0.844929 0.018709 0.534552
0.1103 -0.156298 0.635248 0.914168 0.38943 -0.112431
-0.00174683 -0.158009 0.159592 -0.2125 0.965118 0.152941
-0.0138651 0.34179 0.035721 -0.982468 -0.0607133 0.176266
-0.0288015 -0.278141 0.198582 0.980982 -0.186506 0.0537643
-0.0060092 0.402703 0.169921 -0.203903 -0.953866 -0.22037
0.00150657 -0.17276 0.214793 0.212327 0.912259 0.350288
-0.00541155 -0.155517 0.25536 -0.376299 -0.736385 -0.562261
-0.00259467 -0.194865 0.503047 -0.382869 -0.896715 0.222066
-0.0147094 0.109388 0.280303 -0.984894 0.161659 -0.062055
0.00587191 -0.218605 0.280406 0.167805 0.509313 0.844063
0.00301023 -0.230728 0.309456 0 0.0958614 -0.995395
-0.00763748 0.410328 0.243318 -0.139887 0.727893 0.67127
-0.00356059 0.377227 0.0283093 -0.212411 0.503365 -0.837559
0.00515299 0.054676 0.183978 0 0.930495 0.366305
-0.0771845 0.0304353 0.0675891 0 0 1
0.0145589 0.447032 0.142661 -0.990164 0.126319 0.0601539
0.0272161 0.281341 0.139429 0.7015 0.702163 -0.121916
-0.00887813 -0.154774 0.10418 -0.12915 0.9251 -0.357086
-0.079428 0.0446738 0.0571539 0 0 -1
-0.0342219 0.261568 0.161046 -1 0 0
-0.0397604 0.0348923 0.123778 -0.999762 -0.0218012 5.75021e-06
-0.0342219 0.288948 0.136851 -1 1.55618e-06 -3.76785e-07
0.0857484 0.0180135 0.306536 0 0 1
-0.00973243 -0.312355 0.0354919 -0.573683 0.128053 0.809006
0.00571377 0.1334 0.346974 -1.05825e-05 -0.362374 -0.932033
0.00283851 -0.4414 0.206221 0.212269 -0.870736 0.443578
0.0213447 0.133409 0.311919 0.670621 -0.405019 -0.621472
-0.0277883 -0.309322 0.164754 -0.524809 0.796251 -0.300932
0.0050253 -0.417729 0.169945 0.573672 0.791195 -0.211923
0.00505205 0.419044 0.0759388 0.589613 0.661672 -0.463192
-0.0393851 0.131769 0.120376 0.999762 0.0218012 -6.78795e-06
0.00659011 0.0984731 0.450822 0.993227 -0.0223929 0.114008
0.0108222 0.261809 0.263304 0.843248 0.175047 -0.508224
-0.00297388 0.400531 0.176516 -0.203903 -0.953866 -0.22037
-0.00469995 -0.00464794 0.31894 0.0649162 0.161814 -0.984684
-0.0391553 -0.0166528 0.163813 2.16341e-05 -0.860888 0.508794
-0.0332924 0.315535 0.136889 1 0 0
0.0122456 -0.422707 0.116267 0.98247 0.174028 0.0668377
0.0239836 0.293519 0.169535 0.700834 -0.702104 -0.126024
0.0255788 0.292921 0.12932 0.510359 -0.524019 -0.681863
-0.00809302 0.185855 0.104251 -0.573773 0.742255 0.346183
-0.016098 0.234871 0.28914 -0.999574 -0.00876593 0.0278526
-0.0141339 -0.401177 0.0600295 -0.995724 -0.0653175 -0.0653276
-0.0230856 0.15636 0.448846 -0.799927 -0.29137 0.524614
-0.00818289 -0.333035 0.240927 -0.401254 0.877293 0.263348
0.0036297 0.319655 0.291851 0.212437 0.0850605 0.973466
0.00529698 -0.180417 0.310848 0 0.76603 -0.642805
0.00386961 -0.0432645 0.165741 0.381028 0.2212 0.897713
0.0113616 0.247404 0.259237 0.843248 0.175047 -0.508224
0.112169 -0.169101 0.630139 0.954837 0.0994412 -0.279996
-0.0416786 0.171563 0.18948 -0.999485 0.026478 0.0181395
-0.0362795 -0.00802316 0.136032 -0.0506146 -0.823911 -0.564455
-0.0108136 0.104154 0.245434 -0.573987 0.764476 -0.293455
0.00755163 -0.370265 0.0907003 0.575222 0.52644 -0.626083
-0.0143069 -0.188256 0.107162 -0.98247 -0.180073 0.04824
-0.0144085 0.37813 0.0512061 -0.995717 0.06306 -0.0676107
0.057142 0.0430226 0.244491 -1 0 0
-0.00337737 0.17229 0.0631169 -0.212471 -0.780359 -0.588129
-0.00984365 0.372268 0.275722 -0.139536 0.502948 0.852979
0.00898647 0.241055 0.0430241 0.573662 0.397045 0.716427
-0.00316623 0.325609 0.296317 0.000446239 0.22952 0.973304
0.00939288 0.288931 0.290349 0.839755 -0.0662244 0.538911
-0.0141399 0.378245 0.236391 -0.982475 -0.122279 -0.14068
