0.00901734 -0.0881402 0.329544 0.908154 -0.269225 -0.320583
0.008386 -0.178939 0.213324 0.999848 0.0174195 -0.00106591
-0.00766978 0.300498 0.162645 -0.999848 -0.0174205 0.00106592
0.000942108 -0.235985 0.0922665 -0.999848 -0.017422 0.0010626
0.00309291 0.157566 0.128474 0.999848 0.0174202 -0.0010653
-0.000766017 0.376365 0.0844452 0.999848 0.0174199 -0.00106597
0.00184559 0.242904 0.353275 0.999848 0.0174221 -0.00106555
-0.00710662 0.270569 0.201787 -0.999848 -0.0174193 0.00106657
-0.00830175 0.329129 0.0376944 -0.999848 -0.0174203 0.00106475
0.000687367 0.289756 0.0323645 0.999848 0.0174199 -0.00106616
-0.00584144 0.204811 0.313985 -0.999848 -0.0174171 0.00106793
0.00252507 -0.315889 0.271329 -0.999848 -0.0174191 0.00106628
-0.00867118 0.352036 0.0655924 -0.999848 -0.0174214 0.0010644
-0.000957462 0.391349 0.149828 0.999848 0.0174188 -0.00106645
-0.000411602 0.357526 0.109016 0.999848 0.0174161 -0.00106697
-0.0173876 0.281487 0.216655 -0.99609 -0.057317 0.0672318
-0.000326435 0.366775 0.340215 0.999848 0.017419 -0.00106426
-0.00752024 0.28964 0.125469 -0.999848 -0.0174187 0.00106599
0.00794389 -0.139999 0.390614 0.899093 0.285938 0.331468
-0.00876219 0.363157 0.161926 -0.999848 -0.0174198 0.00106491
-0.00842117 0.444059 0.0696509 -0.0150392 0.83376 -0.551922
0.0944833 -0.209138 0.516443 -0.0764019 0.884188 -0.460841
-0.00012828 -0.163846 0.267236 -0.999848 -0.0174177 0.00106346
0.0171908 0.201655 0.346913 0.959502 0.191282 0.206804
0.0119845 -0.387232 0.184735 0.999848 0.0174188 -0.00107325
-0.00199925 0.448066 0.0994677 0.999848 0.0174194 -0.00106524
-0.0361849 0.19443 0.510269 -0.987077 -0.159571 0.0146833
0.0011906 -0.233916 0.359326 -0.999848 -0.0174198 0.00106622
0.000192903 0.320218 0.0663698 0.999848 0.0174199 -0.00106626
-0.00676613 0.260343 0.354117 -0.999848 -0.01742 0.00106612
-0.00013357 0.154129 0.0645707 0.0129064 -0.782493 -0.622526
0.0135814 -0.48017 0.163755 0.999848 0.0174202 -0.00106138
-0.0064675 0.226077 0.0741369 -0.999848 -0.0174185 0.00106496
-0.0160746 0.184314 0.375768 -0.955232 -0.292994 -0.0410724
-0.000670434 0.384286 0.3037 0.999848 0.0174195 -0.00106563
0.000921832 0.280839 0.106569 0.999848 0.0174209 -0.00106504
-0.00855735 0.350149 0.141516 -0.999848 -0.0174202 0.00106574
0.0107019 -0.306166 0.306516 0.999848 0.0174161 -0.00106411
0.00146121 -0.260466 0.179171 -0.999848 -0.0174198 0.00106498
0.0109213 -0.327965 0.155948 0.999848 0.0174218 -0.00106871
-0.0091833 0.170247 0.397203 0.2717 -0.846475 -0.457885
-0.0080558 0.180583 0.393398 0.690502 0.674816 0.260445
0.0118393 -0.370466 0.322479 0.999848 0.0174244 -0.00106451
-0.000894723 0.393459 0.243164 0.999848 0.0174206 -0.00106825
0.00941194 -0.243653 0.117983 0.999848 0.0174168 -0.00106842
0.0101733 -0.27236 0.3631 0.999848 0.0174177 -0.00106404
-0.00614622 0.210641 0.123307 -0.999848 -0.0174205 0.00106553
-0.00107899 -0.111519 0.230569 -0.999848 -0.0174196 0.00106552
0.00896214 -0.215445 0.157119 0.999848 0.0174209 -0.00106631
0.00987625 -0.266963 0.172566 0.999848 0.0174228 -0.00106253
0.00864936 -0.196893 0.166922 0.999848 0.0174192 -0.00106633
-0.000293761 0.0771309 0.275853 -0.242863 -0.912461 0.32929
6.32438e-05 0.1003 0.340315 -0.242573 -0.912528 0.32932
0.00920223 -0.225514 0.217781 0.999848 0.0174218 -0.00106739
-0.0268492 0.0111774 0.223823 -0.995611 -0.0901103 0.0252811
0.000115756 -0.185385 0.144092 -0.999848 -0.0174195 0.00106519
-0.00667908 0.246157 0.203869 -0.999848 -0.0174194 0.00106606
-0.00845416 0.347933 0.202083 -0.999848 -0.0174198 0.00106586
0.0184136 0.226851 0.298783 0.272872 -0.828553 -0.488918
0.0017023 -0.183942 0.395364 -0.9815 0.183129 -0.0558738
-0.00813468 -0.282984 0.181001 -0.999853 -0.0171141 0.00104264
-0.00427274 0.109003 0.219661 -0.999848 -0.0174194 0.00106578
0.0411273 -0.203581 0.328613 0.729965 0.647349 -0.219296
0.00896405 -0.21819 0.113978 0.999848 0.01742 -0.00106561
0.011942 -0.3746 0.351354 0.999848 0.017422 -0.00106573
0.00172025 -0.282682 0.0589856 -0.999848 -0.0174198 0.00106624
-0.0251777 0.0844188 0.21856 -0.999848 -0.0174309 0.000945491
0.00330374 -0.366766 0.170304 -0.999848 -0.0174196 0.00106589
-0.019505 0.324944 0.171903 -0.0129755 0.834277 0.551193
0.0920603 -0.197225 0.549053 -0.70421 -0.240022 0.66819
-0.0256684 0.0276335 0.207847 0.999848 0.0174278 -0.000941183
0.00395442 -0.404114 0.17029 -0.999848 -0.0174195 0.001065
0.00233711 -0.31312 0.140232 -0.999848 -0.0174191 0.0010645
0.00975337 -0.259081 0.186128 0.999848 0.0174208 -0.0010666
0.00106133 -0.246704 0.0289149 -0.999848 -0.0174186 0.00106501
-0.00979629 0.425912 0.217558 -0.999848 -0.017421 0.00106554
-0.00109228 0.399664 0.159245 0.999848 0.0174194 -0.00106573
-0.0201782 0.292606 0.180415 -0.999847 -0.0173809 0.00178519
-0.00886365 0.36328 0.0688099 -0.999848 -0.0174196 0.00106531
0.00498497 -0.461897 0.192627 -0.999848 -0.0174206 0.00106792
-0.000794871 0.391856 0.310687 0.999848 0.0174195 -0.00106563
0.0113972 0.194551 0.350821 -0.244607 -0.808937 -0.534591
-0.000868538 -0.121739 0.260973 -0.999848 -0.0174194 0.0010652
-0.000436472 -0.148937 0.221761 -0.999848 -0.0174196 0.00106552
-0.00628314 0.221091 0.165615 -0.999848 -0.0174196 0.00106504
-0.00821581 0.344118 0.363396 -0.999848 -0.01742 0.00106632
-0.00933366 0.393692 0.124939 -0.999848 -0.0174193 0.0010691
0.00331645 0.147953 0.181122 0.999848 0.0174207 -0.00106445
0.0935691 -0.223157 0.502868 0.0777124 -0.994301 0.0729842
0.0015651 0.253993 0.271369 0.999848 0.0174218 -0.00106414
0.00367838 -0.377143 0.352207 -0.999848 -0.0174193 0.00106544
-0.0178351 0.301461 0.164445 -0.999848 -0.0173619 0.00178134
0.00333289 -0.376959 0.0309955 -0.999848 -0.0174191 0.00106534
-0.0210632 0.0369068 0.15933 0.00587123 -0.389698 -0.920924
-0.025862 0.0406048 0.242246 0.999848 0.0174303 -0.000942335
0.000330881 -0.193993 0.205232 -0.999848 -0.0174194 0.00106401
0.00100169 0.290386 0.337633 0.999848 0.01742 -0.00106479
0.00446445 -0.425815 0.294107 -0.999848 -0.0174192 0.00106476
-0.00574814 0.187374 0.116447 -0.999848 -0.0174199 0.00106515
-0.00257461 0.0206661 0.255541 -0.713883 0.438795 0.545738
0.00358576 -0.172151 0.418552 -0.500592 0.548923 0.669396
0.000857722 0.285318 0.119651 0.999848 0.0174196 -0.00106483
0.00171923 -0.278978 0.118684 -0.999848 -0.0174268 0.00106428
-0.00517821 0.165631 0.295787 -0.999848 -0.0174203 0.00106555
0.00892504 0.0914066 0.288025 0.961419 0.260212 -0.0892409
-0.00200659 0.458958 0.270658 0.999848 0.0174202 -0.00106551
0.00740224 -0.127454 0.131876 0.999848 0.0174193 -0.00106569
0.00359891 -0.388017 0.0998101 -0.999848 -0.017419 0.00106596
-0.00785279 0.302327 0.020793 -0.999848 -0.0174188 0.00106482
0.00253674 -0.330385 0.0452811 -0.999848 -0.0174189 0.0010659
-0.00247446 0.482515 0.216741 0.999848 0.0174194 -0.00106496
4.00972e-05 -0.175636 0.232482 -0.999848 -0.0174193 0.001065
0.0013449 -0.24417 0.336485 -0.999848 -0.0174198 0.00106622
0.00171776 0.245183 0.270574 0.999848 0.0174218 -0.00106414
-0.0104639 0.293346 0.183314 0.999848 0.0173172 -0.00175957
-0.00087669 -0.112184 0.47481 -0.707053 -0.0554923 -0.70498
0.0101688 -0.290884 0.0559543 0.999848 0.0174201 -0.00106497
0.00339609 -0.364074 0.300975 -0.999848 -0.0174193 0.00106544
0.00134913 0.25081 0.0166279 0.999848 0.01742 -0.0010661
0.0115121 -0.352176 0.314594 0.999848 0.017422 -0.00106573
-0.00103335 0.391286 0.0775393 0.999848 0.0174208 -0.00106528
0.0038049 -0.398702 0.118414 -0.999848 -0.017419 0.00106622
0.0025087 0.197582 0.234541 0.999848 0.0174211 -0.00106543
0.00900977 -0.0943184 0.349256 0.699525 0.460116 0.546771
-0.0284419 0.0794183 0.187833 -0.999848 -0.0174179 0.000932407
0.0121902 -0.389174 0.345971 0.999848 0.0174198 -0.00106574
0.00167133 -0.267767 0.257029 -0.999848 -0.0174153 0.00106282
-0.0103471 0.455689 0.187592 -0.999848 -0.0174201 0.00106521
0.00246259 0.200425 0.237756 0.999848 0.0174211 -0.00106543
0.00745004 -0.131146 0.11638 0.999848 0.0174193 -0.00106569
0.00210556 -0.0699732 0.333537 -0.268879 0.617155 0.739476
0.0112604 -0.355155 0.029636 0.999848 0.0174164 -0.00106425
0.0219857 -0.307982 0.181535 0.999853 0.017108 -0.00103377
0.0124634 -0.406083 0.325824 0.999848 0.0174195 -0.001066
0.01008 -0.287924 0.0210505 0.999848 0.0174218 -0.00106489
0.000962877 0.294568 0.36961 0.999848 0.01742 -0.00106479
-0.00468079 0.13586 0.275833 -0.999848 -0.0174216 0.00106115
0.00150884 0.259069 0.301539 0.999848 0.0174156 -0.00106589
0.00461707 -0.440918 0.190387 -0.999848 -0.0174206 0.00106792
0.00146319 -0.251603 0.325968 -0.999848 -0.0174198 0.00106622
-0.0128942 0.164792 0.502842 0.029908 -0.161147 -0.986477
0.00952747 -0.256266 0.0201359 0.999848 0.0174201 -0.00106461
0.00187085 -0.275147 0.323509 -0.999848 -0.0174201 0.00106467
-0.0268814 0.0096944 0.208893 0.00744159 -0.334534 0.942354
0.00317869 -0.363529 0.105838 -0.999848 -0.0174218 0.00106708
0.0535705 0.0704219 0.131456 0.0171601 -0.997989 -0.0610223
-0.000902096 -0.123138 0.206616 -0.999848 -0.0174206 0.00106748
-0.00867077 0.3507 0.0441096 -0.999848 -0.0174212 0.00106451
-0.000385839 0.0352609 0.222073 -0.248783 -0.627707 -0.737625
0.0108092 -0.326365 0.0769369 0.999848 0.0174172 -0.00106476
0.0112936 0.195665 0.54152 0.100036 -0.194877 0.975713
-0.00190537 0.447147 0.172521 0.999848 0.0174194 -0.00106575
-0.00523527 0.167405 0.271261 -0.999848 -0.0174203 0.00106555
-0.0259853 0.0469891 0.229468 0.999848 0.0174303 -0.000942335
0.00128684 -0.24354 0.292262 -0.999848 -0.0174146 0.0010642
-0.00569101 0.198086 0.345196 -0.999848 -0.0174192 0.00106551
0.0094829 -0.236082 0.308375 0.999848 0.0174215 -0.0010669
-0.00823976 0.343351 0.328418 -0.999848 -0.01742 0.00106632
0.000249248 -0.074602 0.335834 -0.713883 0.438795 0.545738
0.00785549 -0.152732 0.143936 0.999848 0.0174193 -0.00106569
-0.028134 0.0641694 0.232566 -0.999848 -0.0174326 0.000942294
-0.00813717 0.150297 0.454394 -0.970035 0.226769 -0.0872247
-0.00234718 -0.0751138 0.324537 -0.962883 -0.194705 -0.186939
-0.0239557 0.0194992 0.215392 -0.995572 -0.0931963 0.0122593
-0.000628264 -0.141311 0.16651 -0.999848 -0.01742 0.00106327
0.00111518 0.282134 0.309199 0.999848 0.0174199 -0.0010648
-0.0229305 0.0450428 0.204386 0.999848 0.0174264 -0.000941603
0.0373877 -0.246903 0.238166 -0.986205 -0.151381 0.0669538
0.00111641 0.265804 0.0433672 0.999848 0.01742 -0.0010661
0.0152843 0.160705 0.199603 -0.962073 0.104987 0.251781
0.0113006 -0.341939 0.283447 0.999848 0.017422 -0.00106573
0.00998506 -0.276082 0.125608 0.999848 0.0174224 -0.00106565
-0.0342997 -0.212921 0.303098 -0.755416 0.623631 -0.201073
0.00902395 -0.208848 0.322985 0.999848 0.0174194 -0.00106552
0.0116885 -0.369726 0.193074 0.999848 0.0174188 -0.00107325
-0.00840602 0.34956 0.273942 -0.999848 -0.0174202 0.0010664
-0.00987913 0.433592 0.265397 -0.999848 -0.0174208 0.00106497
0.0219184 -0.302612 0.205206 0.999853 0.0171386 -0.00103578
0.000385347 -0.205218 0.0728254 -0.999848 -0.017422 0.0010626
-0.00548902 0.182914 0.286715 -0.999848 -0.0174199 0.00106611
-0.0352735 -0.206714 0.325343 -0.752613 0.621421 -0.217738
0.00880544 -0.195537 0.33555 0.999848 0.0174194 -0.00106552
0.00360363 0.127535 0.116731 0.999848 0.0174202 -0.0010653
-0.0101621 0.186978 0.381591 0.242951 0.877731 0.412992
-0.00108655 -0.0963991 0.338033 -0.990357 -0.108362 -0.0863166
-0.00158035 0.430263 0.2015 0.999848 0.0174194 -0.00106496
0.00858481 0.0694613 0.220371 0.961419 0.260212 -0.0892409
-0.00576888 0.18686 0.0885897 -0.999848 -0.0174205 0.00106553
0.00725882 -0.114375 0.369967 0.248754 0.624604 0.740264
-0.0767953 -0.213815 0.52987 0.54803 -0.55215 0.628326
-0.00583921 0.190606 0.0838393 -0.999848 -0.0174201 0.00106509
-0.0269148 -0.22218 0.292383 0.980916 0.179609 -0.0744565
0.00130596 0.253344 0.0175453 0.999848 0.01742 -0.0010661
-0.00548129 0.168777 0.062804 -0.999848 -0.0174201 0.00106509
-0.000568369 -0.150092 0.0791221 -0.999848 -0.0174188 0.00106558
0.012745 0.185157 0.539439 0.126985 -0.158757 0.979118
0.00452247 -0.439348 0.127305 -0.999848 -0.0174201 0.00106586
0.0098644 -0.270728 0.099946 0.999848 0.0174224 -0.00106565
-0.00616762 0.214458 0.165573 -0.999848 -0.0174196 0.00106504
0.0419578 -0.213606 0.340882 0.752424 -0.608996 0.250961
0.0088691 -0.216886 0.0462302 0.999848 0.0174193 -0.00106619
0.018464 0.170142 0.194647 -0.258757 -0.0293537 -0.965496
0.00921344 -0.157885 0.488046 0.974236 0.217807 -0.0585227
0.00270573 0.184216 0.200848 0.999848 0.0174194 -0.00106622
-0.00718185 0.263387 0.0137519 -0.999848 -0.01742 0.00106465
-0.00484185 0.13761 0.153288 -0.999848 -0.0174195 0.00106547
0.00127173 -0.245551 0.245231 -0.999848 -0.0174225 0.00106756
0.00338017 -0.118603 0.374488 -0.500592 0.548923 0.669396
-0.00184015 0.44567 0.209595 0.999848 0.0174194 -0.00106496
-0.0102374 0.453306 0.251511 -0.999848 -0.0174208 0.00106497
0.0127308 -0.423471 0.292526 0.999848 0.0174182 -0.00106706
0.000299694 0.314423 0.0718303 0.999848 0.0174195 -0.00106619
-0.00723371 0.273288 0.127015 -0.999848 -0.01742 0.00106621
0.00290428 -0.336562 0.28923 -0.999848 -0.0174168 0.00106671
0.00105542 -0.23124 0.276201 -0.999848 -0.0174226 0.00106748
0.00199536 0.218864 0.100759 0.999848 0.0174219 -0.00106682
-0.0192274 0.319439 0.180154 0.999848 0.0173695 -0.00179744
-0.0177768 0.301358 0.196225 -0.999847 -0.0173749 0.0017761
0.00926846 -0.223278 0.316484 0.999848 0.0174215 -0.00106694
0.00303847 -0.344694 0.282218 -0.999848 -0.0174193 0.00106544
-0.00878603 0.35548 0.0140872 -0.999848 -0.0174212 0.00106451
0.0115302 -0.363239 0.150625 0.999848 0.0174178 -0.00106414
-0.000197638 -0.150483 0.526112 -0.963981 0.24418 -0.105439
0.00897312 0.200505 0.350333 -0.964125 0.262953 0.0363054
-0.00721005 0.266091 0.0315159 -0.999848 -0.0174204 0.00106464
-0.01294 -0.195929 0.357764 0.325901 -0.0253451 -0.945064
-0.00844996 0.345403 0.164657 -0.999848 -0.0174181 0.00106828
0.00765795 0.146678 0.504735 -0.0314 -0.000241173 -0.999507
-0.0102803 0.457524 0.280251 -0.999848 -0.0174208 0.00106497
0.00261305 0.183572 0.103368 0.999848 0.0174204 -0.00106531
0.00171081 0.247208 0.297164 0.999848 0.0174221 -0.00106555
0.0104481 -0.307077 0.0532853 0.999848 0.0174201 -0.00106497
0.000458051 -0.19391 0.325924 -0.999848 -0.0174196 0.00106627
0.0114993 -0.355866 0.242159 0.999848 0.0174188 -0.00106524
-0.00776452 0.303902 0.129396 -0.999848 -0.0174205 0.00106592
0.0100904 -0.283714 0.0997199 0.999848 0.017422 -0.00106576
0.0245727 0.159279 0.509565 0.932977 -0.354413 0.0628103
0.0120315 -0.381402 0.324071 0.999848 0.0174198 -0.00106574
0.00473936 -0.44467 0.24383 -0.999848 -0.0174197 0.00106585
-0.0180495 0.311193 0.170887 0.0076689 -0.375653 0.926729
-0.0781478 0.0416604 0.287817 5.64995e-06 -0.0616239 0.998099
0.00348259 -0.365485 0.359072 -0.999848 -0.0174192 0.00106485
-0.00107011 -0.0352616 0.482777 -0.706883 0.0308494 0.706658
-0.0254238 0.219795 0.194997 0.959493 0.0996395 -0.263526
0.0089398 -0.212762 0.179996 0.999848 0.0174208 -0.0010666
0.012794 -0.425814 0.313521 0.999848 0.0174187 -0.00106642
0.0101457 -0.283353 0.157413 0.999848 0.0174224 -0.00106565
-0.00454378 0.123596 0.203907 -0.999848 -0.0174194 0.00106606
0.0111278 -0.341096 0.135075 0.999848 0.0174218 -0.00106871
-0.0527066 0.0662275 0.285736 -0.997634 0.0686227 0.0042439
0.00132559 -0.248654 0.245027 -0.999848 -0.0174225 0.00106756
-0.00795003 0.345723 0.00646764 -0.00711777 0.350143 -0.936669
-0.00568592 0.152088 0.476073 -0.694853 -0.677305 0.241736
0.0126372 -0.421732 0.233175 0.999848 0.0174205 -0.00106662
7.80069e-05 0.329471 0.109845 0.999848 0.0174226 -0.00106399
-0.00278824 0.154106 0.443093 -0.274899 0.903519 -0.328762
0.0077181 -0.147897 0.0940526 0.999848 0.0174196 -0.00106508
0.0192875 0.144823 0.519905 0.96432 -0.260587 0.0467112
-0.00974616 0.413945 0.0689772 -0.999848 -0.01742 0.00106561
0.000249742 0.330563 0.288831 0.999848 0.0174195 -0.00106445
0.00517985 -0.184783 0.431848 0.017723 -0.961473 0.274329
-0.00673567 0.251519 0.238483 -0.999848 -0.0174189 0.00106514
-0.00119258 0.409579 0.22724 0.999848 0.0174194 -0.00106503
0.00247389 -0.31867 0.177872 -0.999848 -0.0174178 0.00106116
0.0027611 0.185578 0.275123 0.999848 0.0174182 -0.00106776
0.00299436 0.171497 0.502408 0.695376 0.696858 -0.175617
0.00355574 0.0394363 0.463394 0.258754 -0.0544553 -0.964407
0.00974261 -0.266396 0.056436 0.999848 0.0174201 -0.00106461
-0.00960862 0.421694 0.324755 -0.999848 -0.0174195 0.00106506
0.0120387 -0.387332 0.23399 0.999848 0.0174185 -0.00106905
0.0123899 0.133601 0.19981 -0.962294 0.0738019 -0.261809
-0.00244529 0.00156932 0.252743 -0.699368 -0.474804 -0.534271
-0.00801522 0.319838 0.154686 -0.999848 -0.0174179 0.0010675
0.00351141 0.141509 0.258675 0.999848 0.0174205 -0.00106616
-0.00845871 0.163028 0.522489 0.00960492 -0.500339 0.865776
-0.00275663 0.127006 0.505736 0.0321657 -0.0790571 -0.996351
0.00979465 -0.263286 0.156098 0.999848 0.0174202 -0.00106575
0.0619951 -0.146941 0.548586 0.0247533 -0.975216 0.219868
-0.00906288 0.383857 0.218191 -0.999848 -0.0174198 0.00106586
0.000955954 -0.226504 0.260329 -0.999848 -0.0174196 0.00106627
-0.0105749 0.473066 0.257892 -0.999848 -0.0174208 0.00106497
-0.00146103 0.423411 0.201446 0.999848 0.0174194 -0.00106496
0.00031219 0.0416733 0.239706 -0.268879 0.617155 0.739476
0.00950699 -0.247787 0.139574 0.999848 0.0174202 -0.00106575
0.00893628 -0.218133 0.0888529 0.999848 0.0174193 -0.00106619
0.00371873 -0.379578 0.350263 -0.999848 -0.0174193 0.00106544
0.00423739 -0.411012 0.32306 -0.999848 -0.0174192 0.00106479
0.00230585 0.21217 0.282651 0.999848 0.0174209 -0.00106527
-0.0018051 0.438896 0.131746 0.999848 0.0174194 -0.00106573
0.00210656 -0.287389 0.344565 -0.999848 -0.0174201 0.00106467
-0.0195949 0.275178 0.221524 -0.996085 -0.0574397 0.0671907
-5.89875e-05 0.104972 0.30578 -0.274814 0.903541 -0.328771
0.00155844 0.253162 0.251515 0.999848 0.0174218 -0.00106414
0.00466027 0.0456542 0.235815 0.248754 0.624604 0.740264
-0.000447335 0.361352 0.138054 0.999848 0.0174214 -0.00106239
-0.00333877 -0.048469 0.306872 -0.968032 0.14013 0.208033
0.00267328 -0.317739 0.380206 -0.999848 -0.0174191 0.00106479
0.00378909 -0.39605 0.146982 -0.999848 -0.0174163 0.00106193
-0.0249316 0.070112 0.215208 -0.999848 -0.0174313 0.000943319
0.000423383 -0.191748 0.328749 -0.999848 -0.0174196 0.00106627
0.0327149 -0.204981 0.348085 -0.964153 -0.259693 -0.0544757
0.0107148 -0.3198 0.0956459 0.999848 0.0174172 -0.00106476
0.000715044 0.286501 0.00513523 0.999848 0.0174199 -0.00106616
0.00847433 -0.182477 0.238351 0.999848 0.0174205 -0.00106806
0.00396026 -0.409423 0.0889484 -0.999848 -0.0174197 0.00106672
0.000276137 0.332097 0.338713 0.999848 0.0174198 -0.00106468
-0.0068229 0.24358 0.0267628 -0.999848 -0.01742 0.00106465
-0.00063051 -0.057718 0.302935 -0.899027 -0.296656 -0.322096
-0.0232117 0.0310601 0.171925 0.997678 -0.0303843 -0.0609528
-0.000290514 0.360049 0.263919 0.999848 0.0174174 -0.00106237
-0.00640197 0.23114 0.218404 -0.999848 -0.0174193 0.00106657
-0.000589819 0.0554292 0.207386 -0.0135666 0.741453 -0.670867
0.00362058 -0.39337 0.032674 -0.999848 -0.0174191 0.00106534
-0.014059 0.27611 0.190108 0.999848 0.0173699 -0.00178431
-0.00847612 0.35915 0.364892 -0.999848 -0.01742 0.00106632
0.000991711 0.274381 0.0665763 0.999848 0.01742 -0.0010661
0.000816787 0.285433 0.0830998 0.999848 0.0174196 -0.00106602
0.00160848 0.240148 0.0856532 0.999848 0.017416 -0.00106161
-0.0081915 0.333241 0.20836 -0.999848 -0.0174186 0.00106269
-0.0264151 0.0725405 0.245959 0.999848 0.0174264 -0.00094248
0.00904976 -0.219334 0.175736 0.999848 0.0174208 -0.0010666
0.0771085 0.0494978 0.128026 -0.0171568 0.997986 0.0610626
0.00943596 -0.245119 0.116565 0.999848 0.0174168 -0.00106842
0.00309169 0.116297 0.252063 0.0166354 -0.930266 0.366508
-0.000670048 -0.1346 0.236982 -0.999848 -0.0174196 0.00106552
-0.012561 0.306163 0.173134 0.999847 0.0173973 -0.00176804
0.00360875 0.133444 0.218166 0.999848 0.0174194 -0.00106622
0.00109721 -0.242474 0.131782 -0.999848 -0.0174201 0.00106584
-0.00108507 -0.110726 0.149967 -0.0173927 0.986132 -0.165047
0.0123612 -0.401979 0.297079 0.999848 0.0174187 -0.00106642
0.00222559 -0.292206 0.377534 -0.999848 -0.0174201 0.00106467
-0.011283 0.293807 0.187589 -0.999848 -0.017354 0.001765
0.000918873 0.290699 0.265008 0.999848 0.01742 -0.00106599
0.00336081 0.149113 0.241699 0.999848 0.0174205 -0.00106616
-0.0208342 0.151034 0.519587 -0.954745 -0.293419 0.0486601
0.0269832 -0.152167 0.540242 0.00552278 -0.31569 0.948846
0.0109651 -0.323134 0.276036 0.999848 0.0174169 -0.00106497
0.010518 -0.453515 0.0833989 0.0130021 -0.782502 -0.622513
-0.00545489 0.184523 0.345027 -0.999848 -0.0174192 0.00106551
-0.00870327 0.371729 0.357398 -0.999848 -0.0174213 0.00106659
-0.000858233 0.384305 0.127754 0.999848 0.0174222 -0.00106297
0.00092189 -0.222567 0.292687 -0.999848 -0.0174226 0.00106748
0.00889738 -0.205125 0.265016 0.999848 0.0174205 -0.00106612
0.00311679 0.157207 0.451607 0.242348 0.91258 -0.329341
0.00134697 0.266619 0.273071 0.999848 0.017416 -0.00106703
-0.0165641 0.29846 0.164695 0.999847 0.0173793 -0.00177305
0.00272734 -0.337591 0.10634 -0.999848 -0.0174168 0.0010636
0.00124377 -0.238174 0.339623 -0.999848 -0.0174198 0.00106622
-0.000186645 -0.164329 0.204546 -0.999848 -0.0174194 0.00106401
-0.0249868 0.0727191 0.204744 -0.999848 -0.0174197 0.000939424
0.0349619 -0.223891 0.28163 -0.983034 0.166133 -0.077743
-0.00316035 0.157654 0.488662 -0.695379 -0.696865 0.175579
0.00191416 0.236837 0.318418 0.999848 0.0174221 -0.00106555
-0.00927266 0.392582 0.163983 -0.999848 -0.017421 0.00106538
0.0973391 -0.220492 0.493704 0.648812 -0.743418 -0.162394
0.0092236 0.0846131 0.274316 0.970038 -0.226756 0.0872206
0.000730378 0.30787 0.368902 0.999848 0.01742 -0.00106479
0.000903901 0.294978 0.320935 0.999848 0.01742 -0.00106479
0.0217007 -0.290829 0.189886 0.999853 0.0171248 -0.00100731
-0.00083445 0.0572131 0.22632 -0.268879 0.617155 0.739476
-0.000133296 -0.171353 0.139792 -0.999848 -0.0174195 0.00106519
0.000845124 -0.233276 0.0455508 -0.999848 -0.0174186 0.00106501
-0.0280341 0.057382 0.212976 -0.999848 -0.0174326 0.000942294
-0.0639267 0.0493622 0.288292 2.41237e-05 -0.0615626 0.998103
0.00343824 -0.367071 0.291507 -0.999848 -0.0174212 0.00106318
0.031148 -0.204635 0.365998 0.420442 -0.501468 0.756147
-0.00104383 -0.0842443 0.484942 -0.706883 0.0308494 0.706658
0.00896366 -0.219598 0.090589 0.999848 0.0174193 -0.00106619
0.000244042 0.32163 0.137472 0.999848 0.0174226 -0.00106399
-0.00533943 0.128971 0.412297 -0.694853 -0.677305 0.241736
0.000908352 0.282512 0.121271 0.999848 0.0174209 -0.00106504
-0.00123859 -0.0055145 0.481266 -0.258976 0.0544504 0.964348
-0.00881587 0.373442 0.279776 -0.999848 -0.0174195 0.00106506
-0.00172579 0.162815 0.503504 0.029908 -0.161147 -0.986477
-0.0055953 0.177098 0.0918717 -0.999848 -0.0174199 0.00106515
0.00950822 -0.241813 0.238395 0.999848 0.0174209 -0.00106587
-0.0237977 0.0943666 0.196431 0.999847 0.0174603 -0.000955486
0.00588232 0.0590937 0.222838 0.718491 -0.652733 0.240228
-0.0260693 0.0529131 0.249918 0.999848 0.0174303 -0.000942335
0.00158488 -0.264242 0.233485 -0.999848 -0.0174225 0.00106756
-0.050243 0.0422831 0.283901 0.994953 -0.100147 -0.00617959
0.00310955 -0.353171 0.210331 -0.999848 -0.0174196 0.00106491
-0.0247722 0.0601457 0.199978 -0.999848 -0.0174254 0.000942426
0.0125494 -0.422972 0.130435 0.999848 0.0174198 -0.00106552
-0.00551831 0.173312 0.102228 -0.999848 -0.0174199 0.00106515
-0.000430714 0.371952 0.326984 0.999848 0.017419 -0.00106426
0.00944778 -0.244612 0.135909 0.999848 0.0174202 -0.00106575
0.00110028 0.277291 0.216062 0.999848 0.0174218 -0.00106414
0.000910236 -0.167246 0.40375 -0.992785 0.052262 0.107925
-0.0311717 0.17482 0.51469 -0.959126 -0.279259 0.0457278
0.00470778 -0.443567 0.232226 -0.999848 -0.0174197 0.00106495
0.00270774 -0.335267 0.125964 -0.999848 -0.0174168 0.0010636
0.000315344 0.315145 0.0983098 0.999848 0.0174193 -0.00106484
0.000136441 0.33443 0.245765 0.999848 0.0174165 -0.00106341
0.00268429 -0.326713 0.24382 -0.999848 -0.0174219 0.00106432
0.000996496 0.271506 0.0240729 0.999848 0.0174196 -0.00106602
0.0116293 -0.367892 0.167581 0.999848 0.0174171 -0.00106218
0.00879251 0.155049 0.437806 0.960725 0.201948 0.190326
-0.00803889 0.312344 0.00990993 -0.999848 -0.0174203 0.00106475
0.00394987 -0.401906 0.202109 -0.999848 -0.0174207 0.00106574
-0.00937273 0.390137 0.0301697 -0.999848 -0.0174196 0.00106531
-0.0817396 0.043486 0.287991 0.017195 -0.997988 -0.0610208
0.0111822 -0.335324 0.280573 0.999848 0.0174173 -0.00106598
0.00138975 -0.244621 0.371168 -0.999848 -0.0174198 0.00106622
-0.0108099 0.31307 0.181503 0.999848 0.0173585 -0.00180795
0.00531827 -0.482809 0.163539 -0.999848 -0.0174196 0.00106518
0.00232284 -0.314687 0.101178 -0.999848 -0.0174191 0.0010645
0.0126917 -0.433651 0.0893974 0.999848 0.0174193 -0.00106462
-0.00852548 0.361089 0.350284 -0.999848 -0.0174202 0.0010664
0.00299169 -0.357223 0.0334666 -0.999848 -0.0174189 0.0010659
-0.0088428 0.366111 0.13461 -0.999848 -0.0174181 0.00106828
0.00190522 -0.292402 0.0736299 -0.999848 -0.0174196 0.00106625
-0.00668236 0.130834 0.413659 -0.694879 -0.677282 0.241727
-0.000414147 -0.152825 0.179181 -0.999848 -0.0174206 0.00106785
0.000927109 0.2817 0.125603 0.999848 0.0174209 -0.00106504
-0.0175588 0.287931 0.187595 -0.999848 -0.0173667 0.00175281
-0.00201316 0.447933 0.0842469 0.999848 0.0174194 -0.00106524
-0.00663463 0.251726 0.336655 -0.999848 -0.017419 0.00106648
0.00357363 -0.373373 0.315552 -0.999848 -0.0174193 0.00106544
-0.0134944 0.308366 0.195643 -0.999847 -0.0173861 0.00182253
-0.00046752 0.35992 0.0957003 0.999848 0.0174161 -0.00106697
0.00173531 0.238331 0.175021 0.999848 0.0174195 -0.00106504
0.00110149 -0.229106 0.354328 -0.999848 -0.0174146 0.0010642
0.00212423 -0.293324 0.264089 -0.999848 -0.0174196 0.00106625
0.00289582 0.167343 0.103373 0.999848 0.0174207 -0.00106603
-0.00100168 0.395582 0.177523 0.999848 0.0174194 -0.00106587
-0.00457286 0.124619 0.19334 -0.999848 -0.0174195 0.00106493
-0.0107087 0.473662 0.142093 -0.999848 -0.0174209 0.00106573
0.00275121 0.178094 0.143478 0.999848 0.0174198 -0.00106261
-0.0179423 0.291253 0.214942 0.00168875 -0.150878 -0.988551
-0.00240404 0.0836226 0.292285 -0.242863 -0.912461 0.32929
0.00902227 0.0926127 0.466555 0.96576 0.00103645 -0.259436
0.00445468 -0.436525 0.109849 -0.999848 -0.0174201 0.00106586
-0.00506813 0.152856 0.19023 -0.999848 -0.0174195 0.00106493
0.0121897 -0.396152 0.231536 0.999848 0.0174185 -0.00106905
0.00933722 -0.237902 0.14186 0.999848 0.0174202 -0.00106575
-0.0275588 0.0306382 0.22272 -0.999848 -0.017422 0.000944749
0.0206251 0.300827 0.190197 0.00202593 0.979739 0.20027
0.00717041 -0.112528 0.158327 0.999848 0.0174191 -0.00106642
-0.0251298 0.0821083 0.22663 -0.999848 -0.0174197 0.000939424
-0.0277723 0.044285 0.248629 -0.999848 -0.0174235 0.000942531
0.011113 -0.336396 0.19794 0.999848 0.0174197 -0.00105744
-0.0251186 0.0788528 0.178264 -0.999847 -0.0174379 0.000977977
-0.0207599 0.326939 0.188833 -0.999847 -0.017376 0.0017841
0.000616082 -0.206878 0.262246 -0.999848 -0.0174192 0.00106586
-0.0071873 0.16551 0.425214 -0.272625 0.847309 0.455789
0.0114303 -0.345451 0.347776 0.999848 0.017422 -0.00106573
-0.00110151 0.404241 0.225425 0.999848 0.0174194 -0.00106503
-0.00536059 0.16185 0.0628141 -0.999848 -0.0174199 0.00106515
-0.00701213 0.275393 0.369318 -0.999848 -0.01742 0.00106612
0.00291933 -0.34004 0.246466 -0.999848 -0.0174219 0.00106432
-0.00817293 0.328563 0.14933 -0.999848 -0.0174179 0.0010675
0.00759123 -0.196097 0.361338 0.00509881 -0.339594 -0.940558
-0.00753042 0.14913 0.46222 -0.965784 -0.0326396 -0.257286
-0.00332902 0.0450491 0.199857 0.016858 -0.948149 -0.31738
0.00464721 -0.44579 0.139032 -0.999848 -0.01742 0.00106577
0.0218876 -0.300916 0.203505 0.999853 0.0171211 -0.00104709
-0.0291496 -0.254243 0.225562 0.991081 -0.118319 0.0613092
-0.00570231 0.182803 0.0847226 -0.999848 -0.0174205 0.00106553
0.0101284 -0.166416 0.403713 0.990607 0.0882526 0.10445
-0.000407515 -0.152602 0.189034 -0.999848 -0.0174206 0.00106748
-0.00814476 0.162224 0.49023 -0.961429 -0.260177 0.0892273
0.00752637 -0.134902 0.12659 0.999848 0.0174193 -0.00106569
-0.00165485 0.431758 0.156035 0.999848 0.0174194 -0.00106587
0.0103907 -0.296497 0.172405 0.999848 0.0174196 -0.00106586
0.0126781 -0.432736 0.0915966 0.999848 0.0174193 -0.00106462
0.00136059 -0.200454 0.381679 -0.605664 -0.740615 0.290964
-0.00280299 -0.0545822 0.305229 -0.990357 -0.108362 -0.0863166
-0.00905292 0.37424 0.070377 -0.999848 -0.0174196 0.00106531
-0.0164555 0.281632 0.162666 0.997418 -0.0193104 -0.0691713
-0.00921634 0.390275 0.179164 -0.999848 -0.0174208 0.00106144
-0.017808 0.310942 0.194473 -0.999853 -0.0171147 0.00104892
0.00985782 -0.299861 0.187646 -0.121409 -0.743753 -0.657337
-0.00769802 0.30989 0.28972 -0.999848 -0.0174196 0.00106614
0.000599396 0.296577 0.0613078 0.999848 0.0174199 -0.00106616
-0.000175587 0.349211 0.194621 0.999848 0.0174195 -0.00106483
-0.00752563 0.293433 0.182403 -0.999848 -0.01742 0.00106621
-0.0198192 0.275469 0.214801 -0.999847 -0.0173737 0.0017783
-0.0180832 0.327557 0.186586 -0.998241 0.0584962 -0.00959742
-0.00191073 -0.0296023 0.296827 -0.713883 0.438795 0.545738
0.00328163 -0.359259 0.272242 -0.999848 -0.0174212 0.00106318
-0.00669535 0.206092 0.540202 -0.193486 0.27765 0.940996
-0.0034753 -0.156711 0.537563 -0.999847 -0.0174555 0.00107312
0.00769904 -0.485829 0.170436 0.0172704 -0.998899 -0.0436198
-0.00115913 0.39849 0.0772854 0.999848 0.01742 -0.00106565
-0.00369839 0.105569 0.351447 -0.694853 -0.677305 0.241736
0.012843 -0.428601 0.314003 0.999848 0.0174187 -0.00106642
0.00104283 -0.229034 0.300438 -0.999848 -0.0174187 0.00106491
-0.0295527 0.0517647 0.209931 -0.999848 -0.0174173 -0.00106767
-0.0275691 -0.230282 0.267273 0.983524 -0.178542 0.0283282
0.00502501 -0.462823 0.215054 -0.999848 -0.0174203 0.00106289
0.00871947 -0.189988 0.345584 0.999848 0.0174194 -0.00106552
-0.0138027 0.274495 0.193186 0.998816 -0.0445514 0.0195202
-0.0202726 0.0772205 0.24942 0.999844 -0.0172215 -0.003903
-0.00832521 0.346015 0.291809 -0.999848 -0.0174202 0.0010664
0.0105109 -0.00979882 0.270586 0.993343 -0.0754926 -0.0870068
0.0069903 -0.150075 0.400286 0.482597 0.568952 0.665878
0.00223117 0.202228 0.0500229 0.999848 0.0174205 -0.00106459
-0.000113486 0.353915 0.329786 0.999848 0.017419 -0.00106426
-0.00010863 0.336064 0.0424905 0.999848 0.0174231 -0.00106543
-0.00527042 0.16651 0.223618 -0.999848 -0.0174194 0.00106578
0.000324067 0.323907 0.249768 0.999848 0.0174222 -0.00106715
-0.00993011 0.434847 0.238069 -0.999848 -0.017421 0.00106554
0.00330718 0.146672 0.151451 0.999848 0.0174208 -0.00106515
0.00160623 0.241441 0.104731 0.999848 0.017416 -0.00106161
0.00447437 0.161972 0.521735 0.00960492 -0.500339 0.865776
0.0103958 -0.293512 0.22601 0.999848 0.0174196 -0.00106498
-0.00986686 0.434771 0.29621 -0.999848 -0.0174205 0.00106565
0.00593921 0.131914 0.386676 0.695127 0.677056 -0.241648
0.000276577 0.315964 0.0753263 0.999848 0.0174195 -0.00106619
-0.0062732 0.21989 0.155326 -0.999848 -0.0174208 0.00106841
-0.00894151 0.37072 0.117361 -0.999848 -0.01742 0.0010656
0.0133293 -0.467147 0.140111 0.999848 0.01742 -0.00106488
0.00945647 -0.251648 0.0290278 0.999848 0.0174218 -0.00106416
-4.75617e-05 0.151561 0.442403 -0.960405 -0.201322 -0.192592
-0.00655425 0.100755 0.30799 -0.970045 0.226729 -0.0872096
0.00223061 0.220564 0.349288 0.999848 0.0174221 -0.00106555
-0.00206178 0.451006 0.0888614 0.999848 0.0174194 -0.00106524
0.0105603 0.018285 0.471984 0.96576 0.00103645 -0.259436
-0.0203979 0.176843 0.536595 -0.0637133 -0.422842 0.903961
-5.13578e-05 -0.168366 0.265529 -0.999848 -0.0174177 0.00106346
-0.0141884 0.285853 0.212441 0.999847 0.0173903 -0.00177382
-0.0872456 0.0671062 0.290477 0.0171567 -0.997941 -0.0618003
0.0100548 0.0303718 0.234068 0.9686 -0.159785 -0.19048
0.00181899 0.242473 0.321253 0.999848 0.0174221 -0.00106555
0.0219276 -0.303253 0.203464 0.999853 0.0171228 -0.00104369
0.00764291 -0.136289 0.213286 0.999848 0.0174193 -0.00106429
0.0103727 -0.299933 0.0993783 0.999848 0.0174196 -0.00106586
-0.0190421 0.175309 0.502562 -0.0249483 0.265801 -0.963705
-0.00651279 0.237117 0.212131 -0.999848 -0.0174193 0.00106657
-0.00199892 0.448541 0.107555 0.999848 0.0174194 -0.00106524
-0.0189153 0.301665 0.181917 0.999847 0.017381 -0.00178014
0.0037146 -0.391565 0.150406 -0.999848 -0.0174163 0.00106193
-0.0176033 0.29138 0.196281 -0.999847 -0.0174088 0.00175177
0.0107156 -0.314858 0.177178 0.999848 0.0174188 -0.00106562
0.00129679 -0.245446 0.270428 -0.999848 -0.0174153 0.00106282
0.00228039 0.21499 0.304857 0.999848 0.01742 -0.001066
0.00140784 -0.0364775 0.305328 -0.268879 0.617155 0.739476
-0.00659924 0.23267 0.0582773 -0.999848 -0.0174185 0.00106496
0.00141857 -0.249171 0.323857 -0.999848 -0.0174198 0.00106622
0.000735142 -0.160141 0.397153 -0.990357 -0.108362 -0.0863166
0.00347128 0.140814 0.209664 0.999848 0.0174194 -0.00106622
-0.0264446 0.0704276 0.175699 0.999848 0.017427 -0.00094021
0.00146538 -0.252313 0.316425 -0.999848 -0.0174198 0.00106622
0.0917417 -0.189655 0.465623 -0.068984 0.908634 -0.411855
0.00257086 -0.314396 0.338722 -0.999848 -0.0174191 0.00106479
-0.00181263 0.437727 0.105562 0.999848 0.0174194 -0.00106524
-0.0213226 -0.20768 0.361926 0.0683 -0.924124 0.375939
-0.0261722 0.0549712 0.178883 0.999848 0.0174262 -0.000942442
0.0129978 -0.45049 0.101332 0.999848 0.0174198 -0.00106552
-0.00364976 -0.00765291 0.262516 -0.699368 -0.474804 -0.534271
-0.017962 0.310333 0.179776 -0.999847 -0.0173845 0.00176571
0.00423759 0.148508 0.531486 0.230041 -0.185586 0.955321
0.0123627 -0.401239 0.310583 0.999848 0.0174187 -0.00106642
-0.000717373 0.381757 0.218307 0.999848 0.0174195 -0.00106496
-0.0275446 0.0293578 0.214129 -0.999848 -0.017422 0.000944749
-0.0261275 0.0558949 0.243301 0.999848 0.0174262 -0.000942442
0.00325322 -0.354114 0.329726 -0.999848 -0.0174192 0.00106485
-0.0267493 -0.212002 0.324673 0.974522 0.213507 -0.0687112
-0.0175274 0.2882 0.207811 -0.999847 -0.0174055 0.00177321
0.00206607 0.215312 0.109031 0.999848 0.0174219 -0.00106682
-0.00126831 0.416249 0.265186 0.999848 0.0174202 -0.00106551
0.00940791 -0.181766 0.402403 0.974236 0.217807 -0.0585227
0.0136174 -0.479659 0.205878 0.999848 0.0174195 -0.00106461
-0.0277968 0.200508 0.198395 -0.705212 -0.0329732 0.708229
-0.00865919 0.363198 0.259327 -0.999848 -0.0174182 0.00106455
0.00138976 0.207845 0.522905 0.173599 0.954086 -0.244099
-0.00655996 0.236883 0.164048 -0.999848 -0.0174208 0.00106841
-0.0107676 0.477708 0.152983 -0.999848 -0.0174209 0.00106573
0.00189085 -0.295291 0.0129711 -0.999848 -0.01742 0.00106613
0.0129374 -0.445741 0.122344 0.999848 0.0174198 -0.00106552
-0.00925864 0.38916 0.121245 -0.999848 -0.0174204 0.00106511
0.018526 -0.314761 0.192995 -0.996663 -0.0787115 0.0216094
0.00635257 -0.256533 0.00501436 -0.00362381 0.147781 -0.989013
0.00482241 -0.449374 0.244863 -0.999848 -0.0174197 0.00106585
0.012162 0.29367 0.177707 0.999852 0.017146 -0.00105245
-0.0155799 0.300397 0.182413 -0.999848 -0.0173499 0.00178905
-0.00787206 0.322669 0.335316 -0.999848 -0.0174209 0.00106628
-0.00740208 0.286941 0.192189 -0.999848 -0.0174194 0.00106606
-0.0181496 0.299247 0.187896 -0.0299362 0.662338 -0.748607
0.0107618 -0.320031 0.136005 0.999848 0.0174167 -0.00106529
-0.0121258 0.282013 0.181925 0.999848 0.0173607 -0.00177318
-0.00656663 0.248826 0.353039 -0.999848 -0.017419 0.00106648
-0.0361645 0.0569695 0.206033 -0.422865 0.0486289 -0.904887
-0.0145988 0.30833 0.201385 0.999847 0.0173954 -0.00179751
0.00725371 -0.118833 0.133439 0.999848 0.0174193 -0.00106569
-0.00135956 0.414376 0.148956 0.999848 0.0174194 -0.00106573
0.00570666 -0.158546 0.538497 0.0155919 -0.86614 0.499558
0.00488154 -0.456127 0.189895 -0.999848 -0.0174206 0.00106792
0.0150567 0.127001 0.505391 -0.0291818 -0.0769667 -0.996606
0.00824097 -0.176028 0.124818 0.999848 0.0174196 -0.00106508
0.0037826 0.105837 0.200986 0.0172694 -0.998898 -0.0436436
0.00157186 -0.275747 0.033134 -0.999848 -0.0174198 0.00106624
-0.00183276 0.444457 0.196687 0.999848 0.0174194 -0.00106496
0.0020086 0.216126 0.068402 0.999848 0.017416 -0.00106161
0.00191455 0.142257 0.0795364 0.0130005 -0.782503 -0.622511
0.00161585 0.241784 0.119374 0.999848 0.0174217 -0.00106707
-0.00816331 0.330982 0.197878 -0.999848 -0.0174198 0.00106586
-0.00714866 0.279608 0.310154 -0.999848 -0.0174196 0.00106631
-0.000173951 -0.115643 0.487183 -0.706883 0.0308494 0.706658
-0.0264376 0.253318 0.267196 0.242755 0.846957 0.473005
0.00979832 -0.272435 0.00994797 0.999848 0.0174201 -0.00106461
0.00290899 0.169764 0.15535 0.999848 0.0174208 -0.00106515
-0.0155894 0.0442038 0.201731 0.016858 -0.948149 -0.31738
0.010334 -0.287949 0.258984 0.999848 0.0174196 -0.00106498
-0.0363116 -0.225284 0.283136 -0.982799 0.167372 -0.0780534
-0.00127858 0.218543 0.0172265 0.00711984 -0.46168 -0.887018
0.0135397 -0.474758 0.213083 0.999848 0.0174195 -0.00106461
-0.0202186 0.0732632 0.158042 0.99987 -0.0148892 0.00622787
-0.000915928 -0.124458 0.172116 -0.999848 -0.01742 0.00106327
-0.0232555 0.0633386 0.197829 0.999848 0.0174307 -0.00094454
0.00160949 -0.261452 0.302245 -0.999848 -0.0174198 0.00106622
0.00263757 0.194888 0.311388 0.999848 0.0174209 -0.00106527
0.00429191 -0.426921 0.114117 -0.999848 -0.0174163 0.00106193
-0.0175864 0.289013 0.182672 -0.999847 -0.0173882 0.00179182
-0.00809058 0.326941 0.200058 -0.999848 -0.0174198 0.00106586
0.0124005 0.280958 0.197464 0.999853 0.0171231 -0.00104403
-0.00604084 0.216237 0.313658 -0.999848 -0.0174192 0.00106551
-0.00823401 0.340915 0.294003 -0.999848 -0.0174202 0.0010664
-0.096286 0.0632715 0.287286 -2.79753e-05 0.0617477 -0.998092
-0.000210521 -0.170267 0.0850995 -0.999848 -0.0174192 0.001065
0.0040336 -0.399446 0.320915 -0.999848 -0.0174212 0.00106318
0.0888222 -0.214191 0.494377 -0.648701 0.743515 0.162395
0.00250434 -0.315774 0.253773 -0.999848 -0.0174168 0.00106686
0.0105425 -0.310549 0.0852053 0.999848 0.0174197 -0.00106479
0.00813497 -0.166707 0.177703 0.999848 0.0174191 -0.00106642
0.00840016 -0.173202 0.320388 0.999848 0.0174194 -0.00106552
-0.00934432 0.405215 0.303349 -0.999848 -0.0174195 0.00106506
0.00117718 -0.239159 0.261 -0.999848 -0.0174225 0.00106756
0.00732097 -0.173586 0.42278 0.729965 0.657977 -0.184981
0.0116969 -0.376032 0.0979312 0.999848 0.0174225 -0.00106788
-0.0248872 0.0655079 0.17715 -0.999847 -0.0174406 0.00095894
-0.00770692 0.299613 0.113336 -0.999848 -0.0174187 0.00106599
0.00102986 -0.166782 0.476779 -0.974126 -0.218261 0.0586523
-0.00727682 0.28633 0.299797 -0.999848 -0.01742 0.00106612
0.0783786 -0.155671 0.536938 -0.153743 -0.801605 0.577748
-0.0127741 -0.197209 0.372124 -0.478754 0.0435525 0.876868
-0.0193964 0.144521 0.508524 -0.954742 -0.29343 0.0486553
0.00800075 0.110926 0.462826 0.965751 0.00103389 -0.259468
-0.00955511 0.417202 0.301519 -0.999848 -0.0174205 0.00106565
0.00350426 -0.366758 0.358594 -0.999848 -0.0174192 0.00106485
-0.00054685 -0.151001 0.0844416 -0.999848 -0.0174188 0.00106558
0.000345063 -0.201633 0.0936593 -0.999848 -0.0174194 0.0010646
-0.00169834 0.429665 0.0809906 0.999848 0.01742 -0.00106565
-0.0186805 0.178558 0.162837 0.99987 -0.0148892 0.00622787
0.00074465 0.298732 0.232872 0.999848 0.0174196 -0.00106601
0.0102896 -0.296945 0.0702215 0.999848 0.0174201 -0.00106497
0.0119186 -0.387795 0.113676 0.999848 0.0174193 -0.00106462
-0.0174411 0.20574 0.524376 -0.1628 0.956385 -0.242536
-0.00707728 0.271275 0.240861 -0.999848 -0.0174165 0.00106701
-0.0112487 0.13673 0.528044 -0.217561 -0.0937215 0.971537
0.00162776 0.253221 0.317548 0.999848 0.0174156 -0.00106589
0.0125545 -0.411615 0.320894 0.999848 0.0174187 -0.00106642
-0.00570376 0.192534 0.242405 -0.999848 -0.0174192 0.00106566
-0.00162238 0.0897863 0.309941 -0.242863 -0.912461 0.32929
0.000844543 -0.234016 0.0329025 -0.999848 -0.0174186 0.00106501
0.00430098 -0.430747 0.0600909 -0.999848 -0.0174197 0.00106672
-0.0137171 0.30705 0.193374 0.996664 0.0807424 0.0119379
-0.00769452 0.295266 0.195407 0.137679 -0.195731 0.970945
-0.00595965 -0.288137 0.211714 -0.0045243 0.317198 0.948348
0.0113067 -0.342211 0.284755 0.999848 0.017422 -0.00106573
-0.00445515 -0.201553 0.375805 -0.374968 -0.574507 0.727558
0.000305348 0.324134 0.235946 0.999848 0.0174222 -0.00106715
-0.0846197 -0.209127 0.52434 -0.935735 0.273993 -0.222098
-0.00606452 0.217103 0.305586 -0.999848 -0.0174171 0.00106793
0.00255006 0.184671 0.0622191 0.999848 0.0174205 -0.00106459
0.000246844 0.320144 0.115769 0.999848 0.0174226 -0.00106399
0.00130601 0.270168 0.292628 0.999848 0.0174156 -0.00106589
0.00478311 -0.455506 0.107714 -0.999848 -0.0174201 0.00106586
-0.00418123 0.0506377 0.475915 -0.706864 0.0308505 0.706676
-0.00685295 0.304074 4.82434e-05 2.78631e-06 -0.0610513 -0.998135
-0.0093085 0.401291 0.272792 -0.999848 -0.0174205 0.00106565
0.0133023 -0.131514 0.481592 0.96576 0.00103645 -0.259436
0.0126701 -0.4289 0.146863 0.999848 0.01742 -0.00106488
0.0117672 -0.383239 0.0460536 0.999848 0.0174217 -0.00106653
0.00166317 0.254082 0.364839 0.999848 0.0174198 -0.00106479
0.0100558 -0.271802 0.261921 0.999848 0.0174218 -0.00106534
0.012522 -0.41207 0.282988 0.999848 0.0174182 -0.00106706
-0.00786715 0.302181 0.00491715 -0.999848 -0.0174199 0.00106454
0.0027348 -0.330549 0.228492 -0.999848 -0.0174202 0.00106572
0.00191532 -0.290314 0.117268 -0.999848 -0.0174268 0.00106428
-0.00883205 0.371392 0.231029 -0.999848 -0.0174186 0.00106269
0.00207252 0.0720268 0.21481 0.242332 0.912584 -0.329342
-0.02781 0.0823755 0.254322 -0.997476 0.0191973 0.0683537
0.00973147 -0.255266 0.227936 0.999848 0.0174209 -0.00106587
0.00265751 0.178321 0.0592334 0.999848 0.0174205 -0.00106459
-0.0199608 0.283406 0.212716 -0.999848 -0.0173488 0.00179671
0.0101987 -0.289276 0.110401 0.999848 0.017422 -0.00106576
0.00133826 -0.259752 0.0754971 -0.999848 -0.0174186 0.00106501
0.0105494 -0.300511 0.255763 0.999848 0.0174163 -0.00106513
0.0091571 -0.15665 0.534577 0.0158385 -0.999853 -0.00657548
-0.0229406 0.019642 0.229407 0.998111 -0.0500106 0.0356715
0.00195131 0.237065 0.356994 0.999848 0.0174221 -0.00106555
0.00743741 -0.128184 0.152941 0.999848 0.0174191 -0.00106642
-0.0266439 0.164472 0.516436 -0.906293 -0.416813 0.0699933
-0.00766926 0.297714 0.117635 -0.999848 -0.0174187 0.00106599
0.0947148 -0.210965 0.531179 0.0727 -0.663695 0.744462
0.000986727 -0.241203 0.0488416 -0.999848 -0.0174186 0.00106501
-0.00155752 0.419852 0.0527059 0.999848 0.01742 -0.00106565
0.00801824 0.308887 0.195655 -0.998817 0.0465764 0.0140036
0.00474731 0.0750708 0.461701 0.258749 -0.0544556 -0.964408
0.00908921 -0.217626 0.240658 0.999848 0.0174218 -0.00106739
0.000398091 0.310237 0.0957195 0.999848 0.0174195 -0.00106619
-0.00181245 0.447708 0.268905 0.999848 0.0174202 -0.00106551
0.0131901 -0.454065 0.223338 0.999848 0.0174195 -0.00106461
-0.0279637 0.0607176 0.160243 -0.99701 -0.0153875 -0.0757192
-0.0108298 0.482189 0.167863 -0.999848 -0.0174209 0.00106573
0.00458854 -0.44011 0.17685 -0.999848 -0.0174196 0.00106518
-0.00523367 0.170734 0.32717 -0.999848 -0.0174202 0.00106551
0.0803898 0.0799862 0.127196 0.0171523 -0.997984 -0.0611116
0.0357256 -0.232109 0.265066 -0.981572 -0.189848 0.021758
0.000996411 0.282982 0.211646 0.999848 0.0174218 -0.00106414
0.00866342 0.285591 0.176614 -0.996953 -0.0657111 -0.0420351
-0.0069157 0.247876 0.00991233 -0.999848 -0.01742 0.00106465
0.00738823 -0.126441 0.135288 0.999848 0.0174193 -0.00106569
0.0896262 0.0712633 0.131787 2.14789e-06 -0.0609281 0.998142
-0.00890439 0.380799 0.317016 -0.999848 -0.0174182 0.00106455
0.0017552 0.170399 0.487157 0.242348 0.91258 -0.329341
-0.000548869 0.363893 0.0843215 0.999848 0.0174161 -0.00106697
-0.00531125 0.159415 0.0692995 -0.999848 -0.0174199 0.00106515
0.000425804 0.302934 0.0023864 0.999848 0.0174199 -0.00106616
0.000521279 -0.199892 0.287496 -0.999848 -0.0174196 0.00106627
0.00036146 0.317641 0.182442 0.999848 0.0174192 -0.0010666
-0.0128823 0.313768 0.172918 0.995919 0.0681142 -0.0592048
0.0015563 0.256868 0.310102 0.999848 0.0174156 -0.00106589
-0.017762 0.307926 0.189127 -0.999853 -0.0171178 0.00103558
0.0123211 -0.409166 0.141935 0.999848 0.0174194 -0.00106336
-0.000109096 0.341729 0.134644 0.999848 0.0174198 -0.00106431
0.0115674 -0.372431 0.0353114 0.999848 0.0174217 -0.00106653
0.00855764 -0.186821 0.245486 0.999848 0.0174205 -0.00106806
-0.00384087 -0.30976 0.183904 0.998527 -0.0315363 -0.0441414
0.0974856 -0.19764 0.464988 0.641196 -0.351539 -0.68212
0.0103939 -0.286626 0.336898 0.999848 0.0174177 -0.00106404
0.0124483 -0.419647 0.089974 0.999848 0.0174193 -0.00106462
-0.00148688 0.415183 0.0426619 0.999848 0.01742 -0.00106565
0.00214489 -0.293115 0.286876 -0.999848 -0.0174197 0.00106477
0.0343398 -0.210774 0.344133 -0.9728 -0.230295 0.0249757
-0.00883482 0.378128 0.338616 -0.999848 -0.0174213 0.00106659
-0.00657653 0.250139 0.365209 -0.999848 -0.017419 0.00106648
-0.0101117 0.441325 0.173588 -0.999848 -0.0174203 0.00106136
-0.00652489 0.242263 0.284917 -0.999848 -0.0174171 0.00106793
0.0082178 -0.179636 0.0440337 0.999848 0.0174193 -0.00106619
0.0168627 0.183446 0.504595 0.0191954 0.273589 -0.961655
0.00855262 -0.189418 0.198341 0.999848 0.0174192 -0.00106436
-0.000342177 0.152467 0.504672 0.0298622 -0.103423 -0.994189
0.00321585 -0.363022 0.148972 -0.999848 -0.0174178 0.00106116
0.00512431 -0.469635 0.196859 -0.999848 -0.0174206 0.00106792
0.0084191 -0.175387 0.302418 0.999848 0.0174202 -0.00106528
0.00721636 -0.111085 0.225071 0.999848 0.0174195 -0.00106547
-0.00118924 0.411827 0.26709 0.999848 0.0174205 -0.00106598
-0.0100038 0.435713 0.183127 -0.999848 -0.0174201 0.00106521
0.00997455 -0.260436 0.37158 0.999848 0.0174177 -0.00106448
0.000712207 -0.211818 0.271696 -0.999848 -0.0174192 0.00106586
0.010083 -0.289185 0.00326175 0.999848 0.0174201 -0.00106497
0.00379894 -0.166003 0.0529555 -0.0130824 0.7008 -0.713238
0.000698005 0.295775 0.140747 0.999848 0.0174196 -0.00106483
-0.0082439 0.333872 0.169504 -0.999848 -0.0174181 0.00106828
-0.028106 0.240774 0.195437 0.959565 0.127652 0.250879
-0.0093848 0.390654 0.0273047 -0.999848 -0.0174196 0.00106531
0.00155102 0.243015 0.0785893 0.999848 0.0174209 -0.00106655
-0.0842469 -0.20434 0.466358 -0.630084 -0.373664 -0.680712
0.00867582 -0.0312539 0.469668 0.706974 -0.0308402 -0.706567
-0.00664282 0.233064 0.023828 -0.999848 -0.01742 0.00106465
-0.00760442 0.291834 0.0823513 -0.999848 -0.0174188 0.00106482
0.00157745 0.151964 0.31543 0.0128342 -0.700809 0.713233
0.0120015 0.304907 0.208293 0.999853 0.0171234 -0.00104868
-0.00924906 0.394826 0.222813 -0.999848 -0.017421 0.00106554
0.00282381 0.106576 0.183677 0.0172694 -0.998898 -0.0436436
0.000753302 0.28624 0.0367537 0.999848 0.0174199 -0.00106616
-0.000140017 0.344928 0.157966 0.999848 0.0174214 -0.00106239
-0.00453995 0.194084 0.542121 -0.119479 -0.162988 0.979367
0.0377802 -0.223588 0.265158 -0.822021 0.523992 -0.222967
0.0153227 0.105408 0.529539 0.656058 0.133752 0.742764
0.00511436 -0.464053 0.278833 -0.999848 -0.0174179 0.00106918
0.0108958 -0.31456 0.3513 0.999848 0.0174213 -0.00106493
0.0152481 0.229421 0.299702 -0.956994 -0.176855 -0.229967
-0.00584791 0.163812 0.495842 -0.961451 -0.267166 0.0650647
0.00320573 -0.356437 0.247142 -0.999848 -0.0174202 0.00106572
-0.00635389 0.21888 0.0630714 -0.999848 -0.0174185 0.00106496
0.0111406 -0.331575 0.302758 0.999848 0.0174173 -0.00106598
-0.000526803 0.159649 0.51232 0.014592 -0.865841 -0.500107
0.00464868 -0.435952 0.301263 -0.999848 -0.0174192 0.00106476
0.0981809 -0.204843 0.474667 0.926111 0.282005 0.250581
-0.00741608 0.289511 0.221093 -0.999848 -0.0174194 0.00106489
-0.0321517 -0.275414 0.202452 -0.994853 0.0316833 -0.0962454
-0.0242828 0.0330859 0.218706 -0.999848 -0.0174225 0.000946234
-0.0187639 0.294061 0.192738 0.999848 0.0173748 -0.00177368
0.0403059 -0.28772 0.193965 -0.918035 0.149664 -0.367169
-0.0044702 0.0657438 0.237644 -0.694879 -0.677282 0.241727
0.00830702 -0.167751 0.322088 0.999848 0.0174194 -0.00106552
-0.00831573 0.341228 0.222404 -0.999848 -0.0174197 0.00106453
0.00215529 -0.298461 0.209305 -0.999848 -0.0174191 0.00106628
-0.00505211 0.14753 0.118162 -0.999848 -0.0174195 0.00106566
0.00245342 -0.313331 0.245945 -0.999848 -0.0174168 0.00106686
0.00197037 -0.292043 0.140681 -0.999848 -0.0174268 0.00106428
