-0.00965261 0.422057 0.2894 -0.999848 -0.0174205 0.00106565
0.0030677 0.164207 0.213386 0.999848 0.0174194 -0.00106622
-0.011912 0.0848874 0.199339 0.259171 -0.0119241 -0.965758
0.00439793 -0.179608 0.34128 -0.0102666 0.635998 0.771623
0.000108351 -0.18183 0.195245 -0.999848 -0.0174194 0.00106401
-0.0103913 0.458878 0.198269 -0.999848 -0.0174201 0.00106521
0.0118138 0.315445 0.201251 0.999853 0.0171169 -0.00104357
0.000132138 0.338734 0.31208 0.999848 0.0174195 -0.00106445
-0.0120167 0.0647034 0.201543 -0.701087 -0.15636 -0.695722
-0.00988702 0.422558 0.0776132 -0.999848 -0.01742 0.00106561
0.0039718 0.0699546 0.477093 0.258694 0.0634825 0.963871
0.00296395 0.175276 0.297006 0.999848 0.0174198 -0.00106583
-0.00503198 0.157071 0.29306 -0.999848 -0.0174203 0.00106555
0.0080453 -0.15722 0.248667 0.999848 0.0174205 -0.00106806
0.000308601 0.314692 0.0845767 0.999848 0.0174195 -0.00106619
0.00742922 -0.191604 0.406811 0.753327 -0.631678 0.18298
0.0422033 -0.294629 0.196932 0.903794 -0.175844 0.390172
0.0345264 -0.220124 0.295188 -0.983034 0.166133 -0.077743
0.00779778 -0.144182 0.22957 0.999848 0.0174195 -0.00106547
0.00165621 -0.279754 0.0467791 -0.999848 -0.0174198 0.00106624
0.000948437 0.278065 0.0861891 0.999848 0.01742 -0.0010661
-0.0242433 0.17432 0.535144 -0.0637133 -0.422842 0.903961
-0.0592579 0.0698038 0.289637 -0.0171657 0.997949 0.0616773
0.00378306 -0.396659 0.13132 -0.999848 -0.0174163 0.00106193
-0.0194443 0.293769 0.230228 0.0199394 -0.95824 0.28527
0.0216663 -0.288144 0.200922 0.999853 0.0171283 -0.00104843
0.0100929 -0.275901 0.229716 0.999848 0.0174222 -0.00106551
0.00839365 -0.188109 0.0705272 0.999848 0.0174204 -0.00106541
0.00218961 -0.296715 0.27 -0.999848 -0.0174196 0.00106625
-0.0836205 -0.201506 0.529648 -0.545209 0.384777 -0.744778
0.00109934 0.277473 0.218162 0.999848 0.0174218 -0.00106414
-0.000937089 0.392718 0.191312 0.999848 0.0174195 -0.00106483
0.0114361 -0.355121 0.194973 0.999848 0.0174197 -0.00105744
-0.00431065 0.0115599 0.260592 -0.713883 0.438795 0.545738
0.00948443 -0.235317 0.322304 0.999848 0.0174215 -0.0010669
-0.00661992 0.133198 0.469872 -0.706864 0.0308505 0.706676
0.00821062 -0.172692 0.150867 0.999848 0.0174193 -0.00106569
-0.00118588 0.401045 0.0939629 0.999848 0.01742 -0.00106565
-0.000706222 0.383393 0.255466 0.999848 0.0174205 -0.00106598
-0.0938679 0.0346432 0.287251 0.0171643 -0.99795 -0.0616608
0.00161991 0.246563 0.201295 0.999848 0.0174208 -0.0010615
-0.0198943 0.150047 0.236491 0.00162852 -0.150877 -0.988551
-0.000856349 -0.126409 0.196086 -0.999848 -0.0174206 0.00106748
-0.0155371 0.299705 0.199682 -0.999847 -0.0174026 0.00179145
0.000479404 -0.201356 0.224233 -0.999848 -0.0174193 0.001065
0.00191281 0.157429 0.45629 0.258749 -0.0544556 -0.964408
0.00398372 0.111896 0.217756 0.999848 0.0174194 -0.00106622
-0.00786886 0.305258 0.0536504 -0.999848 -0.0174203 0.00106475
0.0108103 -0.308066 0.377178 0.999848 0.0174213 -0.00106493
0.0092923 -0.236132 0.128654 0.999848 0.0174202 -0.00106575
-0.00349126 0.297404 0.000456196 2.78631e-06 -0.0610513 -0.998135
0.00102103 -0.224264 0.357989 -0.999848 -0.0174187 0.00106491
-0.025816 0.0363944 0.213246 0.999848 0.017419 -0.000944619
0.0124415 -0.412289 0.203834 0.999848 0.0174195 -0.00106461
-0.00015926 -0.172829 0.0913057 -0.999848 -0.0174188 0.00106558
-0.00377297 -0.00522077 0.478762 -0.706864 0.0308505 0.706676
-0.00483616 0.140632 0.208057 -0.999848 -0.0174194 0.00106578
0.00338155 0.14263 0.15515 0.999848 0.0174208 -0.00106515
-0.0086556 0.367697 0.336239 -0.999848 -0.0174213 0.00106659
0.000865914 -0.232733 0.0739262 -0.999848 -0.0174199 0.00106508
-0.00591308 0.201138 0.186666 -0.999848 -0.0174194 0.00106467
0.00281038 -0.346632 0.0364581 -0.999848 -0.0174189 0.0010659
0.0664264 -0.150275 0.529768 -0.00551151 0.315339 -0.948963
0.011829 -0.387679 0.0314155 0.999848 0.0174217 -0.00106653
-0.00133824 0.083488 0.292698 -0.242863 -0.912461 0.32929
-0.0068932 0.264641 0.30517 -0.999848 -0.017419 0.00106648
0.00753008 -0.126014 0.275389 0.999848 0.0174201 -0.00106536
-0.000313471 0.352937 0.126081 0.999848 0.0174198 -0.00106431
0.00205245 -0.297117 0.134732 -0.999848 -0.0174197 0.00106459
0.0231698 0.0524266 0.219079 0.999848 0.0174074 0.00108349
0.0121026 -0.385136 0.329767 0.999848 0.0174198 -0.00106574
-0.0019461 0.446176 0.308168 -0.0129865 0.782483 0.622537
0.00242137 0.19559 0.119981 0.999848 0.0174207 -0.00106603
0.0137263 0.186906 0.378956 0.696908 0.612142 0.373633
-0.00959028 0.40917 0.137152 -0.999848 -0.017421 0.00106587
0.00289785 -0.332923 0.342695 -0.999848 -0.0174189 0.00106491
-0.00455303 0.119232 0.12386 -0.999848 -0.0174195 0.00106566
0.0190284 0.205518 0.528028 0.242074 0.956197 -0.164585
-0.00568411 0.192525 0.26077 -0.999848 -0.0174203 0.00106555
0.000572234 0.315752 0.349363 0.999848 0.01742 -0.00106479
-0.00530206 0.474931 0.259025 -0.0150296 0.894817 0.446179
0.00103083 -0.162793 0.476477 -0.981495 0.183155 -0.0558801
0.003119 0.159586 0.186044 0.999848 0.0174207 -0.00106445
0.00813286 -0.151157 0.543019 0.0010789 -0.000215102 0.999999
-0.000422277 -0.157891 0.0887012 -0.999848 -0.0174188 0.00106558
-0.00767834 0.310668 0.320892 -0.999848 -0.0174198 0.00106609
-0.0230964 0.0561223 0.233152 0.999848 0.0174254 -0.000943746
0.0112803 -0.351955 0.373423 0.00716964 -0.350143 0.936669
0.0435212 -0.212194 0.338255 0.980116 -0.164457 0.111028
0.0191818 0.145116 0.201063 0.707413 -0.0108026 0.706717
-0.0198302 0.27202 0.174984 -0.999848 -0.0173727 0.00177964
0.0106579 0.037544 0.231186 0.993343 -0.0754926 -0.0870068
0.0160424 0.108597 0.52815 0.829587 0.0830078 0.552173
0.00779067 -0.15082 0.114382 0.999848 0.0174196 -0.00106508
-0.00721083 0.267727 0.0575517 -0.999848 -0.0174204 0.00106464
0.0127981 -0.434292 0.178816 0.999848 0.0174209 -0.00106607
0.0123825 -0.411765 0.157115 0.999848 0.01742 -0.00106488
0.0120098 -0.387436 0.205162 0.999848 0.0174197 -0.00105744
0.0134925 -0.47193 0.215019 0.999848 0.0174195 -0.00106461
0.0010634 0.274108 0.129377 0.999848 0.0174209 -0.00106504
-0.00655931 0.229584 0.0452934 -0.999848 -0.0174185 0.00106496
0.000627945 -0.208492 0.247009 -0.999848 -0.0174177 0.00106346
0.000991368 0.287336 0.278057 0.999848 0.01742 -0.00106599
0.00551885 -0.481601 0.147772 0.0165107 -0.968 -0.250406
0.00491751 -0.462879 0.113294 -0.999848 -0.0174201 0.00106586
0.00743309 -0.127172 0.165415 0.999848 0.0174191 -0.00106642
-0.0058385 0.188626 0.0521184 -0.999848 -0.0174201 0.00106509
-1.2569e-05 0.330137 0.0357489 0.999848 0.0174199 -0.00106626
-0.0329064 -0.197073 0.349937 -0.742685 0.65786 -0.125059
0.0123325 -0.400874 0.288226 0.999848 0.0174187 -0.00106642
-0.00799518 0.320076 0.177362 -0.999848 -0.0174181 0.00106828
-0.00851419 0.353516 0.237073 -0.999848 -0.0174197 0.00106453
-0.00377203 -0.0398899 0.295189 -0.962883 -0.194705 -0.186939
0.00216831 -0.300826 0.182855 -0.999848 -0.0174168 0.0010636
-0.0229213 0.0435148 0.185923 0.999848 0.017431 -0.000941031
0.00920425 -0.229184 0.159671 0.999848 0.0174209 -0.00106631
0.00963302 -0.259627 0.064287 0.999848 0.0174218 -0.00106416
0.00309597 -0.345842 0.317379 -0.999848 -0.0174192 0.00106485
-0.00773032 0.301751 0.126326 -0.999848 -0.0174205 0.00106592
-0.00530459 0.163009 0.503363 0.029908 -0.161147 -0.986477
0.00122207 -0.168376 0.0506702 -0.0130808 0.7008 -0.713238
-0.010145 0.4447 0.197576 -0.999848 -0.0174201 0.00106521
-0.00387666 0.146886 0.0735963 0.0129064 -0.782493 -0.622526
0.00875953 0.281599 0.200675 -0.996951 -0.0601934 0.0496553
0.00243952 -0.317387 0.166602 -0.999848 -0.0174219 0.00106694
-0.00774606 0.296598 0.0272952 -0.999848 -0.0174199 0.00106454
-0.00131985 0.423335 0.332689 0.999848 0.0174195 -0.00106563
0.0130206 -0.43894 0.311593 0.999848 0.0174187 -0.00106642
-0.00795577 0.323079 0.263491 -0.999848 -0.0174212 0.00106514
-0.00886935 0.370223 0.176908 -0.999848 -0.0174208 0.00106144
0.00181054 0.23721 0.227277 0.999848 0.0174184 -0.00106785
-0.00021059 -0.1656 0.161335 -0.999848 -0.01742 0.00106327
-0.00583269 0.203489 0.300593 -0.999848 -0.0174202 0.00106551
-0.0106656 0.12431 0.527658 -0.20476 0.119551 0.971484
0.00131171 -0.248399 0.236201 -0.999848 -0.0174201 0.00106512
-0.0224041 0.218205 0.321939 -0.964895 0.156614 0.210832
0.000709651 -0.186916 0.380778 -0.753726 0.610375 -0.243596
0.00332732 0.151711 0.252738 0.999848 0.0174205 -0.00106616
0.000936324 0.283282 0.160145 0.999848 0.0174153 -0.00106285
0.0105399 -0.297368 0.298277 0.999848 0.0174177 -0.00106404
-0.00836598 0.341491 0.17952 -0.999848 -0.0174208 0.00106144
0.0108756 -0.322098 0.208984 0.999848 0.0174176 -0.00106667
-0.00551701 0.199632 0.508845 -0.0270525 0.254538 -0.966684
0.00489274 -0.459471 0.145761 -0.999848 -0.0174195 0.001065
-0.0103039 0.451804 0.164564 -0.999848 -0.0174209 0.00106573
0.00401693 -0.413186 0.0806248 -0.999848 -0.0174197 0.00106672
0.000171777 -0.188887 0.139401 -0.999848 -0.0174195 0.00106519
0.0109311 -0.336979 0.0177234 0.999848 0.0174164 -0.00106425
-0.00857511 0.364828 0.364826 -0.999848 -0.01742 0.00106632
0.00828975 -0.0148959 0.267204 0.714223 -0.447188 -0.538431
-0.0444301 0.299702 0.193539 0.0200113 0.749096 0.662159
0.0119402 0.212376 0.326576 -0.956994 -0.176855 -0.229967
-0.0362636 0.202023 0.528181 -0.996515 -0.0744624 0.0375981
0.00178203 0.230639 0.0930978 0.999848 0.0174205 -0.00106459
0.00290494 -0.34108 0.216005 -0.999848 -0.0174175 0.00106892
-0.00844952 0.340922 0.0918874 -0.999848 -0.0174214 0.0010644
0.034538 0.192625 0.513667 0.991587 -0.127812 0.0205027
-0.000412922 -0.155625 0.134521 -0.999848 -0.0174195 0.00106519
0.0100816 -0.278445 0.177536 0.999848 0.0174228 -0.00106253
0.00325049 0.147889 0.118136 0.999848 0.0174202 -0.0010653
-0.00665632 0.253123 0.339138 -0.999848 -0.017419 0.00106648
0.00172672 -0.281382 0.0863351 -0.999848 -0.0174266 0.00106293
-0.00530056 0.138838 0.406261 -0.718712 0.65252 -0.240147
0.000849964 -0.225019 0.185067 -0.999848 -0.0174191 0.0010676
0.00209514 0.216526 0.156186 0.999848 0.0174188 -0.00106311
0.00264012 0.188865 0.215328 0.999848 0.0174217 -0.00106165
0.00335187 -0.376677 0.0534116 -0.999848 -0.0174191 0.00106534
0.000354849 0.313107 0.102056 0.999848 0.0174193 -0.00106484
0.011745 -0.376635 0.13323 0.999848 0.0174195 -0.00106507
0.00264646 0.180818 0.0896856 0.999848 0.0174204 -0.00106531
0.00646499 -0.0426485 0.468809 0.258749 -0.0544556 -0.964408
-0.0149849 0.0553501 0.221028 0.00451691 -0.317085 0.948386
0.00445284 -0.430073 0.213574 -0.999848 -0.0174203 0.00106289
0.000926014 -0.234838 0.0959339 -0.999848 -0.017422 0.0010626
0.0028519 -0.346908 0.0709121 -0.999848 -0.0174162 0.00106482
-0.00254112 0.484746 0.19064 0.999848 0.0174194 -0.00106496
-0.00141001 0.417964 0.160263 0.999848 0.0174194 -0.00106587
-0.00926873 0.401073 0.30656 -0.999848 -0.0174195 0.00106506
-4.9596e-06 -0.169032 0.29819 -0.999848 -0.0174192 0.0010659
0.000647563 -0.22257 0.0351769 -0.999848 -0.017416 0.00106702
0.0014466 0.258854 0.239603 0.999848 0.0174218 -0.00106414
0.00459679 -0.434271 0.28003 -0.999848 -0.0174192 0.00106476
0.00229255 -0.299228 0.325527 -0.999848 -0.0174197 0.00106477
0.0049016 -0.453508 0.251598 -0.999848 -0.0174197 0.00106585
0.0108777 -0.319383 0.255325 0.999848 0.0174169 -0.00106497
-0.0282858 -0.230884 0.258396 0.985616 0.142821 -0.0903513
0.003824 -0.107487 0.488383 -0.259001 0.0544499 0.964341
-0.00908104 0.375646 0.0669779 -0.999848 -0.0174196 0.00106531
0.00370292 -0.38858 0.188257 -0.999848 -0.0174195 0.00106518
0.00974839 -0.263374 0.111325 0.999848 0.0174224 -0.00106565
0.00984045 -0.256476 0.310444 0.999848 0.0174214 -0.00106687
-0.0180518 0.318111 0.20527 -0.999848 -0.0173574 0.00175248
-0.00646181 0.225998 0.0781699 -0.999848 -0.0174185 0.00106496
-0.0448325 -0.148972 0.531291 -0.0163805 0.813003 -0.582029
0.000373101 -0.189341 0.320918 -0.999848 -0.0174196 0.00106627
-0.00793147 -0.293507 0.202955 -0.999853 -0.0171421 0.00104837
0.00387723 0.120038 0.250926 0.999848 0.0174205 -0.00106616
0.0434715 0.0598944 0.16531 0.81901 -0.572709 -0.0350284
0.000826733 -0.217197 0.2912 -0.999848 -0.0174226 0.00106748
-0.0278917 0.0943626 0.242329 0.00743346 -0.397717 0.917478
0.00395434 -0.1712 0.429626 -0.018016 0.961467 -0.274328
-0.00994761 0.435802 0.237268 -0.999848 -0.017421 0.00106554
0.0299097 0.172946 0.513499 0.920161 -0.385692 0.067422
0.000755507 0.298899 0.245771 0.999848 0.0174196 -0.00106601
0.0249776 -0.155986 0.53286 0.0124278 -0.804875 -0.593315
0.000130726 0.0689323 0.194871 -0.0123409 0.748773 -0.662711
-0.0370842 -0.216529 0.314324 -0.981234 0.179619 -0.0701179
0.00262323 -0.329062 0.148125 -0.999848 -0.0174219 0.00106694
0.0243338 0.264186 0.239531 -0.244041 -0.809092 -0.534617
0.00335202 0.145497 0.174326 0.999848 0.0174207 -0.00106445
0.00182997 -0.27589 0.273028 -0.999848 -0.0174273 0.00106754
0.00417299 -0.419836 0.118339 -0.999848 -0.0174163 0.00106193
0.00232005 0.208115 0.22974 0.999848 0.0174211 -0.00106543
-0.00857282 0.361511 0.312785 -0.999848 -0.0174213 0.00106659
-0.00923996 0.393823 0.214953 -0.999848 -0.017421 0.00106554
0.0159444 0.160295 0.531493 0.143111 -0.151064 0.97811
0.000323458 -0.19156 0.238049 -0.999848 -0.0174194 0.0010652
0.0117395 -0.369443 0.245632 0.999848 0.0174176 -0.00106667
-0.00805516 0.326055 0.218842 -0.999848 -0.0174197 0.00106453
0.00868327 -0.0997594 0.354252 0.699525 0.460116 0.546771
0.0913722 -0.16767 0.532619 -0.0604634 -0.177696 -0.982226
0.00704343 -0.373688 0.36533 0.00697168 -0.350185 0.936655
0.0133276 -0.465061 0.172638 0.999848 0.0174209 -0.00106607
-0.0827792 -0.159457 0.533309 -0.460095 0.0980534 -0.882439
0.0168624 0.126186 0.507766 0.993312 -0.113456 0.0214441
-0.00880654 0.372564 0.274182 -0.999848 -0.0174195 0.00106506
0.0115428 -0.0899947 0.483263 0.965814 0.0326342 0.257176
0.00853113 -0.183681 0.271943 0.999848 0.0174205 -0.00106612
0.0070917 0.120327 0.357524 0.695166 0.67702 -0.241635
0.0134478 0.143871 0.528368 0.230041 -0.185586 0.955321
0.00211763 0.216589 0.178336 0.999848 0.0174195 -0.00106504
-0.00981447 0.420872 0.118117 -0.999848 -0.0174193 0.0010691
0.000189386 -0.192249 0.100989 -0.999848 -0.0174192 0.001065
0.00183844 -0.271589 0.351307 -0.999848 -0.0174201 0.00106467
7.72386e-05 0.338021 0.248917 0.999848 0.0174165 -0.00106341
-0.0100852 0.445775 0.271247 -0.999848 -0.0174208 0.00106497
0.00215193 -0.307583 0.0569676 -0.999848 -0.01742 0.00106613
0.0106105 0.0917651 0.205611 -0.258574 0.0877199 0.962
0.00215824 -0.288867 0.368922 -0.999848 -0.0174201 0.00106467
0.000959451 0.292074 0.325592 0.999848 0.01742 -0.00106479
0.00145118 -0.269221 0.0265964 -0.999848 -0.0174198 0.00106624
0.0100396 -0.280621 0.10261 0.999848 0.017422 -0.00106576
0.00872218 -0.203733 0.123396 0.999848 0.0174228 -0.00106252
0.00333356 -0.137953 0.297327 -0.0130793 0.782481 0.622537
-0.00519998 0.15723 0.137984 -0.999848 -0.0174195 0.00106566
-0.00923928 0.387002 0.104122 -0.999848 -0.01742 0.0010656
0.0113358 -0.343357 0.293349 0.999848 0.017422 -0.00106573
-0.0386699 0.0551251 0.290449 0.00014922 -0.0616647 0.998097
-0.00612845 0.224263 0.362653 -0.999848 -0.017419 0.00106648
-0.0295944 0.24011 0.191945 0.257641 -0.0167851 -0.966095
0.00303209 -0.355455 0.100298 -0.999848 -0.0174191 0.00106534
0.00290714 0.179816 0.317915 0.999848 0.0174198 -0.00106583
0.000432739 0.0651963 0.220118 -0.268879 0.617155 0.739476
-0.0070004 0.257405 0.0862703 -0.999848 -0.01742 0.00106465
0.00120803 -0.248061 0.144419 -0.999848 -0.0174201 0.00106584
0.00209392 -0.211594 0.0200624 -0.00707397 0.350141 -0.93667
0.0107315 -0.320592 0.0983514 0.999848 0.0174172 -0.00106476
0.00192301 -0.297417 0.00837546 -0.999848 -0.01742 0.00106613
0.010476 0.309444 0.172012 -0.012143 0.662921 -0.748591
0.00144029 0.254414 0.161088 0.999848 0.0174207 -0.00106604
0.000562423 0.309134 0.231931 0.999848 0.0174191 -0.00106592
0.0894495 0.0716821 0.131813 2.14789e-06 -0.0609281 0.998142
-0.0102865 0.445114 0.0715624 -0.999848 -0.0174204 0.00106511
0.0017388 0.236933 0.155419 0.999848 0.0174188 -0.00106311
0.00117606 -0.243294 0.192308 -0.999848 -0.0174193 0.00106402
0.000616015 -0.0785348 0.318628 -0.899027 -0.296656 -0.322096
0.00758023 -0.132906 0.209761 0.999848 0.0174193 -0.00106429
0.0182067 -0.310795 0.189927 -0.996663 -0.0807379 -0.0119783
-0.00439939 0.111773 0.146081 -0.999848 -0.0174195 0.00106547
-0.000334603 -0.155623 0.208052 -0.999848 -0.0174194 0.00106401
0.0123858 -0.203079 0.375192 0.0179834 -0.945174 0.326071
-0.0107979 0.48331 0.216183 -0.999848 -0.0174201 0.00106521
-0.0760793 -0.214493 0.475201 0.934797 -0.249639 -0.252656
-0.00940539 0.406893 0.273471 -0.999848 -0.0174205 0.00106565
0.00300838 0.161331 0.1107 0.999848 0.0174202 -0.0010653
-0.0024255 0.164749 0.472042 -0.274899 0.903519 -0.328762
-0.043105 0.0531621 0.231783 -0.798724 -0.600554 -0.0370781
0.00362711 -0.378252 0.285924 -0.999848 -0.0174192 0.00106479
0.00513703 0.131073 0.459042 0.706951 -0.0308424 -0.706589
0.00133616 -0.241437 0.372942 -0.999848 -0.0174198 0.00106622
0.0116868 -0.374857 0.107611 0.999848 0.0174225 -0.00106788
0.00240965 0.193498 0.0747899 0.999848 0.0174205 -0.00106459
0.000767952 0.295387 0.200068 0.999848 0.01742 -0.00106599
-0.00659973 0.230639 0.0246157 -0.999848 -0.0174226 0.00106567
0.00968661 -0.263602 0.0495509 0.999848 0.0174201 -0.00106461
0.00811438 0.110051 0.333656 0.961437 0.260153 -0.0892203
0.0123801 -0.405248 0.261422 0.999848 0.0174205 -0.00106513
-0.00596664 0.160216 0.435786 -0.272625 0.847309 0.455789
0.0126193 -0.420633 0.234359 0.999848 0.0174205 -0.00106662
0.00893191 -0.20686 0.269065 0.999848 0.0174202 -0.00106528
0.00105383 -0.234844 0.215779 -0.999848 -0.0174187 0.00106294
0.00120836 -0.151682 0.39721 -0.907499 0.250804 0.336962
0.0046643 -0.449109 0.100812 -0.999848 -0.0174201 0.00106586
0.0120932 -0.386087 0.305434 0.999848 0.0174198 -0.00106574
0.00268929 -0.338601 0.0541171 -0.999848 -0.0174189 0.0010659
-0.00556843 0.181917 0.195867 -0.999848 -0.0174195 0.00106493
-0.00326564 0.0521936 0.476763 -0.706883 0.0308494 0.706658
-0.0752201 0.052101 0.286597 -2.64276e-05 0.06165 -0.998098
-0.00932474 0.400575 0.245825 -0.999848 -0.0174186 0.00106268
-0.0068457 0.258912 0.256065 -0.999848 -0.0174165 0.00106701
0.00242057 -0.308805 0.289065 -0.999848 -0.0174189 0.00106491
-0.00792997 0.324991 0.318943 -0.999848 -0.0174209 0.00106628
-0.00930944 0.395616 0.179118 -0.999848 -0.0174203 0.00106136
0.00977152 -0.253869 0.288409 0.999848 0.0174215 -0.0010669
0.000962935 0.27334 0.0225673 0.999848 0.0174199 -0.00106616
-0.00859062 0.355801 0.202664 -0.999848 -0.0174198 0.00106586
0.000569658 -0.210551 0.158601 -0.999848 -0.0174198 0.00106498
0.00376435 0.121451 0.168113 0.999848 0.0174207 -0.00106445
-0.0173326 0.282986 0.191256 -0.999853 -0.0171159 0.00106454
0.00168213 0.24865 0.293838 0.999848 0.0174221 -0.00106555
-0.00655039 0.329996 0.00378086 -0.0036417 0.147785 -0.989013
0.00266306 -0.142928 0.490073 -0.259001 0.0544499 0.964341
-0.0005227 -0.141957 0.254977 -0.999848 -0.0174194 0.0010652
-0.0054616 0.172673 0.144957 -0.999848 -0.0174193 0.00106511
0.000572713 -0.107305 0.215455 -0.0173905 0.998896 0.0436449
0.00203698 0.216849 0.106867 0.999848 0.0174219 -0.00106682
0.0037783 -0.394256 0.166185 -0.999848 -0.01742 0.00106577
0.0105172 -0.307236 0.11556 0.999848 0.0174196 -0.00106586
0.0117022 -0.362738 0.320296 0.999848 0.0174244 -0.00106451
0.00753975 -0.134982 0.137836 0.999848 0.0174193 -0.00106569
0.00111582 -0.23625 0.251012 -0.999848 -0.0174225 0.00106756
0.0104767 -0.296316 0.256127 0.999848 0.0174196 -0.00106498
-0.00609554 0.217232 0.278628 -0.999848 -0.0174202 0.00106551
-0.00895627 0.373774 0.15338 -0.999848 -0.0174198 0.00106491
0.00392948 -0.406384 0.109742 -0.999848 -0.017419 0.00106622
0.0101792 -0.285551 0.15296 0.999848 0.0174224 -0.00106565
0.00102125 -0.136094 0.385104 -0.907499 0.250804 0.336962
0.00347258 0.106412 0.187708 0.0172694 -0.998898 -0.0436436
-0.00139772 0.411457 0.0654131 0.999848 0.01742 -0.00106565
0.00407861 -0.401937 0.322422 -0.999848 -0.0174192 0.00106479
0.00778778 -0.147424 0.167157 0.999848 0.0174191 -0.00106642
0.0339331 0.202736 0.533784 0.242074 0.956197 -0.164585
-0.0203111 0.151356 0.504197 0.025154 -0.0954052 -0.995121
-0.00961233 0.413773 0.191762 -0.999848 -0.0174201 0.00106521
-0.0260048 0.0355171 0.166186 0.997477 -0.0192261 -0.0683402
0.000267282 0.320421 0.139514 0.999848 0.0174226 -0.00106399
-0.00813846 -0.283151 0.17464 -0.999853 -0.0171141 0.00104264
0.00297683 0.171515 0.247638 0.999848 0.0174211 -0.00106543
-0.00553703 0.178917 0.176276 -0.999848 -0.0174194 0.00106467
-0.00286929 -0.00217388 0.27352 -0.713883 0.438795 0.545738
0.0040304 0.0229538 0.23231 0.26848 -0.617232 -0.739556
0.00169612 0.249427 0.319667 0.999848 0.0174221 -0.00106555
0.0114922 -0.361001 0.15154 0.999848 0.0174178 -0.00106414
-0.00875244 0.354822 0.0348503 -0.999848 -0.0174212 0.00106451
-0.00911375 0.375043 0.0264157 -0.999848 -0.0174212 0.00106451
0.0639641 -0.144264 0.549862 -0.0227344 0.97524 -0.219977
0.00482615 -0.454016 0.172478 -0.999848 -0.0174196 0.00106518
0.000396125 0.327238 0.371897 0.999848 0.0174198 -0.00106468
0.00931758 -0.469838 0.269715 0.016635 -0.930258 0.36653
0.00152642 -0.255373 0.32367 -0.999848 -0.0174198 0.00106622
0.00200252 -0.289001 0.220605 -0.999848 -0.0174273 0.00106754
0.0087917 0.197888 0.542024 0.184656 0.276641 0.943065
-0.00402364 0.0439404 0.208824 0.0168588 -0.979751 0.199507
-0.00667974 0.255689 0.359096 -0.999848 -0.0174196 0.00106631
-0.00226976 0.14343 0.304193 0.0149841 -0.833778 0.551897
0.00269747 -0.332234 0.165899 -0.999848 -0.0174208 0.00106587
0.00351514 -0.384529 0.0782415 -0.999848 -0.017419 0.00106596
0.00386268 -0.400396 0.144995 -0.999848 -0.0174201 0.00106586
0.00462351 -0.445636 0.119319 -0.999848 -0.0174201 0.00106586
-0.00249409 0.13565 0.0877489 0.0130005 -0.782503 -0.622511
-0.0201454 0.145952 0.196285 -0.257969 -0.074095 -0.963308
-0.00766647 0.295886 0.0903754 -0.999848 -0.0174188 0.00106482
-0.0129771 0.286929 0.213198 -0.996286 -0.0454698 0.073125
-0.00464414 0.130345 0.220077 -0.999848 -0.0174194 0.00106578
-0.0104319 0.289938 0.172099 0.997197 -0.00705412 -0.0744873
0.0487186 0.0677775 0.127259 -0.0172103 0.997987 0.0610364
0.0076112 -0.141529 0.0978426 0.999848 0.0174196 -0.00106508
-0.00824099 0.340026 0.272939 -0.999848 -0.0174209 0.00106502
-0.00753586 0.300958 0.29586 -0.999848 -0.0174196 0.00106614
-0.00405915 -0.075799 0.477725 -0.965792 -0.0326383 -0.257256
-0.00523256 0.17106 0.333545 -0.999848 -0.0174202 0.00106551
0.00365961 -0.383304 0.233889 -0.999848 -0.0174197 0.00106495
0.00623564 -0.133004 0.36339 0.501186 -0.554664 -0.664199
-0.00802704 0.33289 0.356985 -0.999848 -0.01742 0.00106632
0.0110402 -0.323903 0.334007 0.999848 0.0174213 -0.00106493
0.00900415 -0.220359 0.116138 0.999848 0.01742 -0.00106561
0.00176483 0.242226 0.266397 0.999848 0.0174218 -0.00106414
0.00132789 -0.255655 0.132732 -0.999848 -0.0174227 0.00106374
0.00148076 0.255912 0.223573 0.999848 0.0174184 -0.00106785
-0.00030086 0.362052 0.287003 0.999848 0.0174195 -0.00106563
0.0110036 -0.335832 0.104594 0.999848 0.0174179 -0.0010628
-0.00704798 0.150676 0.531238 -0.168255 -0.251691 0.95307
0.000411121 0.307937 0.0703503 0.999848 0.0174195 -0.00106619
-0.00949187 0.405141 0.163612 -0.999848 -0.0174209 0.00106573
-0.0281388 0.0614576 0.177216 -0.999848 -0.0174285 0.000943194
-0.0203051 0.328135 0.21249 0.00599151 -0.232491 0.97258
-0.00487395 0.146657 0.27108 -0.999848 -0.0174216 0.00106115
0.0101911 0.0087706 0.475806 0.965814 0.0326342 0.257176
-0.0105076 0.461909 0.138594 -0.999848 -0.017421 0.00106587
-0.00691987 0.25013 0.0428758 -0.999848 -0.01742 0.00106465
0.0114889 -0.359495 0.173174 0.999848 0.0174171 -0.00106218
-0.00646125 0.236148 0.24471 -0.999848 -0.0174189 0.00106514
0.00472706 0.174767 0.394336 -0.960405 -0.201322 -0.192592
-0.020192 0.0199067 0.235073 -0.0138332 0.755396 -0.655123
0.0923992 -0.212344 0.54145 -0.694812 -0.416913 0.58602
-0.0101657 0.440879 0.115618 -0.999848 -0.0174193 0.0010691
-0.0012543 -0.110044 0.356139 -0.992785 0.052262 0.107925
-0.00312104 0.0673576 0.246044 -0.694853 -0.677305 0.241736
-0.00543588 0.175571 0.53724 -0.0987445 -0.381579 0.919047
0.00669863 0.102795 0.307272 0.695166 0.67702 -0.241635
0.00140088 0.269461 0.370134 0.999848 0.0174198 -0.00106479
-0.0274963 0.0785418 0.159659 -0.0176556 0.998027 0.0602498
-0.0266512 0.0071716 0.198318 -0.995607 -0.09252 -0.0143599
0.00018412 -0.194891 0.0528171 -0.999848 -0.0174199 0.00106508
0.00193291 0.218898 0.0426679 0.999848 0.0174209 -0.00106655
0.000488377 -0.203375 0.199628 -0.999848 -0.0174193 0.00106402
-0.0153754 0.177544 0.503084 -0.0249483 0.265801 -0.963705
-0.0079293 0.317803 0.20202 -0.999848 -0.0174186 0.00106269
0.0959661 -0.210711 0.472409 0.644827 -0.549517 -0.531252
0.00206976 0.226749 0.299465 0.999848 0.01742 -0.001066
-0.00646967 0.0835495 0.262317 -0.970045 0.226729 -0.0872096
-0.0750623 -0.22098 0.510521 0.936802 -0.342515 0.0713113
-0.00927425 0.396719 0.230131 -0.999848 -0.0174208 0.00106497
-0.00774877 0.305121 0.164106 -0.999848 -0.0174218 0.00106557
-0.001327 0.40628 0.0471321 0.999848 0.0174199 -0.00106597
-0.00755295 0.299948 0.263316 -0.999848 -0.0174197 0.00106488
-0.00822348 0.32669 0.0712859 -0.999848 -0.0174203 0.00106475
-0.00871606 0.357486 0.112538 -0.999848 -0.0174179 0.00106734
0.00141227 0.257489 0.185101 0.999848 0.0174195 -0.00106504
-0.0060399 0.211911 0.243811 -0.999848 -0.0174216 0.00106115
0.00355617 -0.370641 0.343834 -0.999848 -0.0174168 0.00106671
0.0114717 -0.352884 0.264994 0.999848 0.0174228 -0.001062
0.00836613 -0.185627 0.0852759 0.999848 0.0174204 -0.00106541
6.65444e-05 -0.180315 0.1808 -0.999848 -0.0174206 0.00106785
-0.00143541 0.426282 0.272412 0.999848 0.0174202 -0.00106551
0.00293711 -0.347709 0.137763 -0.999848 -0.0174219 0.00106694
0.00122942 0.274334 0.288866 0.999848 0.0174199 -0.0010648
0.0941982 -0.185244 0.549614 -0.0598531 -0.0873882 -0.994375
0.00822497 0.116933 0.469465 0.965814 0.0326342 0.257176
-0.00555472 0.186299 0.280394 -0.999848 -0.0174203 0.00106555
0.0088648 -0.214677 0.0782934 0.999848 0.0174193 -0.00106619
-0.0203618 0.306166 0.209672 -0.999847 -0.0173721 0.00177764
0.00295049 -0.345762 0.182201 -0.999848 -0.0174196 0.00106589
0.00124832 -0.242333 0.275827 -0.999848 -0.0174187 0.00106491
2.18714e-05 0.0330078 0.246833 -0.268879 0.617155 0.739476
-0.00654404 0.233342 0.121127 -0.999848 -0.0174168 0.00106358
0.00106077 0.277328 0.179597 0.999848 0.0174188 -0.00106311
0.00721039 0.061947 0.464134 0.706951 -0.0308424 -0.706589
0.00369019 -0.379704 0.321417 -0.999848 -0.0174193 0.00106544
-0.00126777 0.41471 0.240562 0.999848 0.0174206 -0.00106825
0.00432595 -0.425996 0.161177 -0.999848 -0.0174195 0.001065
0.00158167 0.18599 0.0357228 0.0102086 -0.635991 -0.771629
0.00252207 -0.109425 0.157361 -0.0173939 0.986132 -0.165046
-0.0022526 0.46915 0.206414 0.999848 0.0174194 -0.00106496
-0.023229 0.196855 0.539528 -0.193486 0.27765 0.940996
0.0136754 -0.484696 0.178011 0.999848 0.0174209 -0.00106607
0.00953028 -0.255548 0.0345219 0.999848 0.0174218 -0.00106416
-0.00211378 0.463367 0.242164 0.999848 0.0174194 -0.00106503
0.0039375 -0.398715 0.242704 -0.999848 -0.0174197 0.00106585
-0.00933073 0.406838 0.342647 -0.999848 -0.0174195 0.00106506
0.00345764 -0.37302 0.212474 -0.999848 -0.0174194 0.00106553
-0.00082368 0.380183 0.0927602 0.999848 0.0174208 -0.00106528
0.00496859 -0.458769 0.228415 -0.999848 -0.0174203 0.00106289
0.00527422 -0.474623 0.256038 -0.999848 -0.0174197 0.00106585
-0.00717857 -0.190236 0.365893 -0.016043 0.945359 -0.325636
0.0012431 -0.258279 0.0102279 -0.999848 -0.0174198 0.00106624
-0.021481 0.0942445 0.158398 -0.00212451 0.0338918 -0.999423
0.00746011 -0.157431 0.524237 0.0172821 -0.923951 0.382119
-0.0282088 0.104398 0.181802 -0.0153746 0.878635 -0.477247
-0.00889899 0.374407 0.217472 -0.999848 -0.0174198 0.00106586
0.0952714 -0.211678 0.511885 0.523102 0.835719 -0.167146
-0.000310927 0.358431 0.218355 0.999848 0.0174207 -0.00106821
0.0191757 0.220958 0.30957 0.716457 -0.622707 -0.314524
0.00295546 0.161852 0.0695617 0.999848 0.0174204 -0.00106531
-0.0155116 0.104043 0.520112 -0.998664 -0.0286498 -0.0430057
3.02256e-05 0.342802 0.282932 0.999848 0.0174221 -0.00106734
-0.00202941 0.452861 0.149564 0.999848 0.0174194 -0.00106587
0.00126249 0.274046 0.315195 0.999848 0.0174198 -0.00106479
-0.00971112 0.421687 0.22841 -0.999848 -0.017421 0.00106554
-0.0281356 0.062119 0.192872 -0.999848 -0.0174204 0.000940469
-0.019326 0.315052 0.160159 0.996089 0.057404 -0.0671692
0.00357281 0.139717 0.286988 0.999848 0.0174211 -0.00106548
0.00910932 -0.213709 0.323609 0.999848 0.0174215 -0.00106694
-0.00977503 0.417425 0.098788 -0.999848 -0.0174204 0.00106511
0.0020486 -0.286702 0.30139 -0.999848 -0.0174197 0.00106477
-0.0274283 0.0549684 0.258893 -0.996795 -0.0193785 0.0776152
-0.0822436 -0.172279 0.533017 -0.53407 -0.166544 -0.828874
-0.00329023 -0.0529871 0.309781 -0.992785 0.052262 0.107925
-0.000569214 0.380546 0.337523 0.999848 0.017419 -0.00106426
0.0103757 -0.291721 0.236469 0.999848 0.0174196 -0.00106498
-0.00821488 0.331664 0.160661 -0.999848 -0.0174202 0.00106574
-0.00373949 0.0937063 0.474477 -0.706864 0.0308505 0.706676
0.0123106 0.284667 0.172297 0.999852 0.017146 -0.00105245
-0.0678804 -0.155097 0.530518 0.00495947 -0.302224 -0.953224
-0.00468754 0.13522 0.259028 -0.999848 -0.0174192 0.00106566
0.00313198 -0.362967 0.0712158 -0.999848 -0.0174191 0.00106534
-0.00152779 0.427467 0.205118 0.999848 0.0174194 -0.00106496
0.00250869 -0.329551 0.0326057 -0.999848 -0.0174189 0.0010659
-0.0156835 0.306411 0.182882 -0.999847 -0.0173772 0.00177579
0.000696863 0.296164 0.146033 0.999848 0.0174196 -0.00106483
0.000380853 0.317026 0.190595 0.999848 0.0174195 -0.00106483
0.00155165 -0.254681 0.358646 -0.999848 -0.0174198 0.00106622
0.00306452 0.160982 0.157711 0.999848 0.0174208 -0.00106515
0.0130213 -0.442798 0.249215 0.999848 0.0174205 -0.00106662
0.00189652 0.230184 0.193052 0.999848 0.0174203 -0.00107023
-0.005782 0.190333 0.133046 -0.999848 -0.0174217 0.00106797
0.00479925 -0.449741 0.217092 -0.999848 -0.0174203 0.00106289
0.0420838 -0.219937 0.279621 0.759551 0.622946 -0.187137
-0.0114739 0.167444 0.405103 -0.690369 -0.674079 -0.262694
0.000698425 0.2902 0.0499814 0.999848 0.0174199 -0.00106616
0.000348777 -0.191492 0.262947 -0.999848 -0.0174192 0.0010659
-0.00709802 0.258328 0.00970584 -0.999848 -0.01742 0.00106465
-0.00989406 0.427188 0.14668 -0.999848 -0.017421 0.00106538
0.000304928 -0.200426 0.0757211 -0.999848 -0.0174194 0.0010646
1.08039e-05 0.339188 0.20567 0.999848 0.0174195 -0.00106496
-0.000544085 0.377369 0.309166 0.999848 0.0174195 -0.00106563
-0.0269337 -0.221237 0.303449 0.981568 -0.184959 0.0481038
-0.00147303 0.430275 0.302406 0.999848 0.0174202 -0.00106527
0.0869965 -0.146627 0.534661 0.151284 0.988427 0.0111467
0.0048001 0.127789 0.37184 0.695127 0.677056 -0.241648
0.000118583 -0.177027 0.283418 -0.999848 -0.0174192 0.0010659
-0.000750755 -0.133558 0.178333 -0.999848 -0.0174206 0.00106785
0.0103134 -0.298664 0.0644383 0.999848 0.0174201 -0.00106497
0.00757027 0.13078 0.388233 0.961437 0.260153 -0.0892203
-0.0242103 0.100018 0.202065 0.995568 0.093237 -0.0122791
-0.00094698 0.399446 0.292008 0.999848 0.0174202 -0.00106527
-0.00599666 0.214839 0.332252 -0.999848 -0.0174192 0.00106551
-0.00205046 0.461166 0.26559 0.999848 0.0174202 -0.00106551
0.00831094 -0.173016 0.2397 0.999848 0.0174205 -0.00106806
0.0235073 0.237961 0.195746 -0.258906 0.0877451 0.961909
-0.00191264 0.448162 0.182299 0.999848 0.0174195 -0.00106483
0.0236845 0.0462486 0.200307 0.999492 -0.0138472 0.0287243
0.00739832 0.0893628 0.271651 0.695166 0.67702 -0.241635
0.00235995 0.210979 0.313943 0.999848 0.01742 -0.001066
-0.0151221 0.0718276 0.214202 -0.0168582 0.948224 0.317154
-0.000159504 0.337466 0.0177005 0.999848 0.0174199 -0.00106626
-0.00734279 0.286505 0.240734 -0.999848 -0.0174194 0.00106489
0.0408572 -0.232679 0.246141 0.794837 0.520049 -0.312703
-0.0235043 0.0795173 0.233087 0.999847 0.0174425 -0.00094849
-0.00851782 0.347863 0.141232 -0.999848 -0.0174202 0.00106574
0.00185027 -0.286423 0.119878 -0.999848 -0.0174268 0.00106428
-0.00181735 0.436841 0.0866523 0.999848 0.0174194 -0.00106524
0.00996785 -0.267853 0.244008 0.999848 0.0174222 -0.00106551
0.01227 -0.411619 0.0538933 0.999848 0.0174202 -0.00106426
0.00323214 -0.370884 0.0357725 -0.999848 -0.0174191 0.00106534
-0.0185739 0.257131 0.18252 0.998181 -0.0578254 -0.01708
0.00191808 0.221053 0.0639782 0.999848 0.017416 -0.00106161
-0.000962414 0.402502 0.327504 0.999848 0.0174195 -0.00106563
0.016008 0.0581847 0.191073 0.00451456 -0.1994 -0.979908
0.00915076 0.0624037 0.209614 -0.0164982 0.930114 0.366899
0.000645416 -0.20615 0.301654 -0.999848 -0.0174196 0.00106627
-0.00932785 0.390605 0.0799295 -0.999848 -0.01742 0.00106561
0.0128493 -0.435617 0.205112 0.999848 0.0174195 -0.00106461
0.00481108 -0.075879 0.338469 0.482597 0.568952 0.665878
-0.00877446 0.357246 0.0538445 -0.999848 -0.0174214 0.0010644
-0.0299031 -0.210517 0.356014 0.0152145 -0.945374 0.325634
-0.005329 0.172001 0.258417 -0.999848 -0.0174216 0.00106115
0.00282322 -0.333297 0.266562 -0.999848 -0.0174168 0.00106686
-0.00103237 -0.056651 0.470595 -0.707087 -0.0554915 -0.704946
-0.0748103 0.0359365 0.28369 -4.8487e-05 0.0640817 -0.997945
0.0102018 -0.275593 0.336982 0.999848 0.0174196 -0.0010648
0.00952859 -0.243867 0.223939 0.999848 0.0174218 -0.00106739
0.0107912 -0.310428 0.320596 0.999848 0.0174161 -0.00106411
0.00348831 0.138569 0.188978 0.999848 0.0174207 -0.00106445
-0.000412724 0.372571 0.354005 0.999848 0.017419 -0.00106426
-0.00229291 -0.0259125 0.469439 -0.707053 -0.0554923 -0.70498
-0.0017593 0.438057 0.16099 0.999848 0.0174194 -0.00106587
-0.0104115 0.458725 0.176778 -0.999848 -0.0174203 0.00106136
0.000861432 0.299769 0.359429 0.999848 0.01742 -0.00106479
-0.00549286 0.1716 0.0981116 -0.999848 -0.0174199 0.00106515
-8.98829e-05 0.336896 0.0737002 0.999848 0.0174231 -0.00106543
0.00212993 -0.304874 0.0805933 -0.999848 -0.0174196 0.00106625
-0.00240491 0.472736 0.122134 0.999848 0.0174194 -0.00106573
0.0127148 -0.422878 0.287233 0.999848 0.0174182 -0.00106706
-0.00741569 0.284245 0.135379 -0.999848 -0.01742 0.00106621
0.00427297 -0.428163 0.0760396 -0.999848 -0.017419 0.00106622
-0.00513372 0.15737 0.202474 -0.999848 -0.0174194 0.00106606
0.00808495 -0.170354 0.0711338 0.999848 0.0174204 -0.00106541
-0.00094229 0.388382 0.115511 0.999848 0.0174222 -0.00106297
-0.00657285 0.234052 0.105675 -0.999848 -0.0174167 0.00106372
0.000243111 -0.193686 0.127901 -0.999848 -0.0174181 0.00106795
0.00161836 -0.272011 0.137887 -0.999848 -0.017416 0.00106707
0.0123526 -0.411435 0.134452 0.999848 0.0174194 -0.00106336
-0.00598896 0.210189 0.263501 -0.999848 -0.0174199 0.00106611
0.00567039 -0.346597 0.00788785 0.0036138 -0.267202 -0.963634
-0.000537648 -0.13936 0.283406 -0.999848 -0.0174194 0.0010652
0.00507662 -0.467467 0.187571 -0.999848 -0.0174206 0.00106792
0.00237132 0.212182 0.34426 0.999848 0.01742 -0.001066
0.0104425 -0.292595 0.284851 0.999848 0.0174196 -0.00106498
-0.0207156 0.322516 0.170574 -0.999847 -0.0173813 0.00177962
0.00579082 0.0929055 0.523311 0.504839 -0.846595 0.168568
-0.0389048 0.0577193 0.272799 0.292825 0.954348 0.0589363
0.00133179 -0.259226 0.078028 -0.999848 -0.0174186 0.00106501
0.0027584 -0.333654 0.199904 -0.999848 -0.0174194 0.00106553
0.00156439 -0.263851 0.220671 -0.999848 -0.0174201 0.00106512
-0.000136663 0.35627 0.346568 0.999848 0.0174195 -0.00106445
0.00831424 -0.181589 0.102621 0.999848 0.0174228 -0.00106252
0.000379412 0.30791 0.0401749 0.999848 0.0174195 -0.00106619
0.0111721 -0.332528 0.316708 0.999848 0.0174173 -0.00106598
0.0113017 0.203072 0.511299 0.173599 0.954086 -0.244099
-0.00101102 -0.118531 0.179781 -0.999848 -0.0174206 0.00106785
-0.0253556 0.253256 0.259517 0.712794 -0.540826 -0.446577
0.00203465 0.131319 0.425164 0.274737 -0.903563 0.328776
-0.0162167 0.186752 0.368023 -0.690369 -0.674079 -0.262694
0.0112539 -0.351557 0.0823593 0.999848 0.0174179 -0.0010628
0.00457359 -0.430414 0.32135 -0.999848 -0.0174192 0.00106479
0.00197409 -0.290483 0.16971 -0.999848 -0.017416 0.00106707
0.00233041 -0.309155 0.198808 -0.999848 -0.0174175 0.00106892
-0.00749941 0.301371 0.336807 -0.999848 -0.0174198 0.00106609
-0.000483346 0.363617 0.141307 0.999848 0.0174214 -0.00106239
0.00377559 0.124895 0.234947 0.999848 0.0174194 -0.00106622
0.00905024 -0.216228 0.226968 0.999848 0.0174218 -0.00106739
0.00798248 -0.150433 0.300671 0.999848 0.0174202 -0.00106528
0.0120136 0.294462 0.213133 0.00458417 -0.199856 0.979815
-0.00432217 0.112615 0.23233 -0.999848 -0.0174194 0.00106578
0.00833748 -0.170077 0.312647 0.999848 0.0174202 -0.00106528
-0.0059239 0.203127 0.209036 -0.999848 -0.0174194 0.00106606
0.0174299 -0.29197 0.184953 -0.998528 0.0259831 -0.0476051
0.00488866 -0.460278 0.128745 -0.999848 -0.0174201 0.00106586
0.0126916 -0.433679 0.0888856 0.999848 0.0174193 -0.00106462
0.00862526 -0.196558 0.14979 0.999848 0.0174193 -0.0010657
0.00120429 0.26835 0.167481 0.999848 0.0174207 -0.00106604
-0.00639061 0.227234 0.165202 -0.999848 -0.0174196 0.00106504
-0.0296231 0.170852 0.501607 -0.0249483 0.265801 -0.963705
0.000196702 0.330134 0.232076 0.999848 0.0174165 -0.00106341
0.00383488 -0.390966 0.273037 -0.999848 -0.0174192 0.00106474
-0.00687133 0.257381 0.206961 -0.999848 -0.0174193 0.00106657
-0.0208176 0.330422 0.190436 -0.999847 -0.0173783 0.001747
0.0118817 -0.389354 0.0534974 0.999848 0.0174202 -0.00106426
0.0108334 -0.32745 0.0818275 0.999848 0.0174172 -0.00106476
0.00120533 0.262562 0.0737957 0.999848 0.0174205 -0.0010664
0.00260007 -0.315508 0.347954 -0.999848 -0.0174191 0.00106479
0.00880773 -0.195273 0.342004 0.999848 0.0174194 -0.00106552
-0.0073723 0.0974819 0.308578 -0.970035 0.226769 -0.0872247
0.00732649 -0.121978 0.150316 0.999848 0.0174191 -0.00106642
-0.00982087 0.430035 0.261915 -0.999848 -0.0174208 0.00106497
0.0422189 -0.15449 0.531193 0.0124293 -0.804852 -0.593346
0.0106738 -0.31979 0.0573295 0.999848 0.0174164 -0.00106425
0.00409877 -0.411246 0.189163 -0.999848 -0.0174196 0.00106518
-0.00544644 0.176437 0.220743 -0.999848 -0.0174194 0.00106578
0.00907206 -0.33482 0.377723 0.00366878 -0.147754 0.989017
0.000686846 -0.205163 0.356659 -0.999848 -0.0174187 0.00106491
-0.000141021 0.355493 0.329747 0.999848 0.017419 -0.00106426
-0.00932414 0.393968 0.138341 -0.999848 -0.0174193 0.0010691
0.0237687 0.244909 0.276386 0.959502 0.191282 0.206804
0.0120222 -0.393338 0.120279 0.999848 0.0174195 -0.00106507
0.0016216 -0.269045 0.189402 -0.999848 -0.0174191 0.0010676
0.00947304 -0.247211 0.117163 0.999848 0.0174168 -0.00106842
0.00047632 0.312616 0.208057 0.999848 0.0174165 -0.00106341
0.00405021 0.0531476 0.220201 0.0045169 -0.317085 0.948386
-0.0161933 0.130933 0.202937 0.704572 0.123629 0.698781
-0.00649351 0.231778 0.142978 -0.999848 -0.0174195 0.00106632
0.0117351 -0.374003 0.167006 0.999848 0.0174171 -0.00106218
0.0122684 -0.408805 0.0983804 0.999848 0.0174193 -0.00106462
0.0128962 -0.440818 0.164169 0.999848 0.0174202 -0.00106138
-0.02754 0.0283732 0.200787 -0.999848 -0.0174277 0.00094129
0.0374512 -0.204894 0.323338 -0.0179719 0.945322 -0.325643
0.0103644 -0.304289 0.0203707 0.999848 0.0174201 -0.00106497
0.0114563 -0.347532 0.338177 0.999848 0.017422 -0.00106573
0.00987503 -0.256444 0.343423 0.999848 0.0174177 -0.00106448
0.00950813 -0.24649 0.161878 0.999848 0.0174228 -0.00106253
-0.010588 0.467624 0.15662 -0.999848 -0.0174209 0.00106573
-0.00205128 0.452795 0.127956 0.999848 0.0174194 -0.00106573
0.00224022 0.201855 0.0524122 0.999848 0.0174205 -0.00106459
6.09281e-05 -0.181194 0.16116 -0.999848 -0.01742 0.00106327
0.00245681 -0.321801 0.110612 -0.999848 -0.0174191 0.0010645
-0.0257895 0.036058 0.235157 0.999848 0.017419 -0.000944619
0.0137092 0.196741 0.362804 0.244134 0.856247 0.455236
0.00511476 -0.16291 0.458605 -0.018016 0.961467 -0.274328
-0.00136138 0.410233 0.0794983 0.999848 0.01742 -0.00106565
-0.00579034 0.188856 0.101077 -0.999848 -0.0174199 0.00106515
0.0122269 -0.399518 0.211335 0.999848 0.0174229 -0.00105797
-0.0031437 0.147086 0.467596 -0.242573 -0.912528 0.32932
0.00130392 0.260969 0.140315 0.999848 0.0174217 -0.00106707
0.00239223 -0.323919 0.0154011 -0.999848 -0.01742 0.00106613
-0.00994814 0.43886 0.286805 -0.999848 -0.0174205 0.00106565
0.0111626 -0.344023 0.119881 0.999848 0.0174218 -0.00106871
0.00276902 -0.328693 0.290929 -0.999848 -0.0174168 0.00106671
0.00689817 -0.0391481 0.306453 0.899093 0.285938 0.331468
-0.0975702 0.053993 0.284601 0.999853 0.017126 0.00105975
-0.00632379 0.225918 0.206401 -0.999848 -0.0174194 0.00106606
-0.00144709 -0.00595199 0.257537 -0.899027 -0.296656 -0.322096
0.00103162 -0.226427 0.332548 -0.999848 -0.0174187 0.00106491
0.00465526 -0.443382 0.185947 -0.999848 -0.0174206 0.00106792
-0.0195052 0.147145 0.52221 -0.954745 -0.293419 0.0486601
0.00402105 0.145239 0.419108 0.242332 0.912584 -0.329342
0.00964427 -0.242261 0.358731 0.999848 0.0174177 -0.00106448
-0.00155728 0.424767 0.133301 0.999848 0.0174188 -0.00106645
-0.00741571 0.282104 0.100376 -0.999848 -0.0174187 0.00106599
-0.00704855 0.276793 0.358033 -0.999848 -0.01742 0.00106612
0.00973151 -0.158899 0.490536 0.0178753 -0.99798 0.0609556
-0.0146748 0.272141 0.210458 -0.995774 -0.077342 0.0495158
-0.00753572 0.283633 0.0126961 -0.999848 -0.0174199 0.00106454
0.00323712 -0.351252 0.361416 -0.999848 -0.0174192 0.00106485
0.0093484 -0.243425 0.0621211 0.999848 0.0174219 -0.00106416
0.00807471 -0.167768 0.103831 0.999848 0.0174196 -0.00106508
0.0112974 -0.337427 0.354216 0.999848 0.0174213 -0.00106493
0.007535 -0.18788 0.366486 -0.0177524 0.945309 -0.325693
0.0136103 -0.482079 0.159656 0.999848 0.01742 -0.00106488
-0.00817548 0.322445 0.0469091 -0.999848 -0.0174203 0.00106475
0.00151018 -0.268177 0.0990807 -0.999848 -0.017416 0.00106702
-0.0297368 0.0620396 0.214621 -0.999848 -0.0174209 -0.00106657
-0.000350198 0.362713 0.251458 0.999848 0.0174197 -0.00106663
-0.0051706 0.161938 0.242519 -0.999848 -0.0174192 0.00106566
-0.000974527 0.0748324 0.223715 -0.274814 0.903541 -0.328771
0.00814843 0.0650803 0.232327 0.718491 -0.652733 0.240228
-0.00715194 0.277014 0.264674 -0.999848 -0.0174222 0.00106417
-0.000715258 -0.131658 0.242654 -0.999848 -0.0174196 0.00106552
0.0017027 -0.184676 0.421362 -0.974123 -0.218276 0.058656
-0.00549924 0.170965 0.0817354 -0.999848 -0.0174199 0.00106515
-0.0795478 -0.200486 0.545603 0.998033 0.0263774 -0.0568715
0.00182957 -0.279973 0.205927 -0.999848 -0.0174201 0.00106512
0.0118279 -0.372642 0.276231 0.999848 0.0174195 -0.001066
0.0127776 -0.430356 0.223968 0.999848 0.0174229 -0.00105797
-0.0100237 0.439294 0.222958 -0.999848 -0.017421 0.00106554
0.00753613 -0.133758 0.154436 0.999848 0.0174191 -0.00106642
0.0298861 0.286649 0.20391 0.716106 -0.622999 -0.314744
0.0171031 0.169219 0.50207 -0.0230616 -0.155696 -0.987536
0.00870398 -0.194771 0.252835 0.999848 0.0174201 -0.00106536
0.019293 -0.200338 0.359609 -0.27025 -0.566148 -0.778743
0.00129103 -0.123893 0.488629 -0.259001 0.0544499 0.964341
-0.0260221 0.047681 0.203272 0.999848 0.0174303 -0.000942335
-0.0323373 0.179668 0.51985 -0.959126 -0.279259 0.0457278
-0.00617844 0.20965 0.0768564 -0.999848 -0.0174167 0.00106372
0.00135118 0.0370438 0.479558 -0.259001 0.0544499 0.964341
0.00323074 -0.360438 0.205256 -0.999848 -0.0174194 0.00106553
-0.0106061 0.470543 0.187345 -0.999848 -0.0174201 0.00106521
-0.00470009 0.129809 0.158783 -0.999848 -0.0174195 0.00106547
-0.029474 0.0470829 0.212625 -0.999848 -0.0174294 -0.00105694
-0.0404259 0.0612976 0.217685 -0.322537 0.946443 0.0147103
-0.000771436 0.382502 0.179743 0.999848 0.0174194 -0.00106588
0.000939032 -0.232899 0.139892 -0.999848 -0.0174182 0.00106805
-0.00345122 0.0120996 0.244702 -0.699368 -0.474804 -0.534271
0.00907641 -0.226173 0.0888961 0.999848 0.0174193 -0.00106619
-0.000222197 0.356824 0.27535 0.999848 0.0174174 -0.00106237
0.0399982 -0.197664 0.345097 0.718763 0.683596 -0.126789
0.0126033 -0.423503 0.172505 0.999848 0.0174209 -0.00106607
-0.0198791 0.276725 0.193407 -0.999847 -0.017378 0.00174271
0.00867379 0.154262 0.43608 0.964741 -0.259637 -0.0431725
-0.0812748 -0.222285 0.536001 -0.997948 -0.0584799 0.0260789
-0.0243439 0.0344889 0.179834 -0.999848 -0.0174184 0.000962919
0.00383776 -0.403968 0.0631948 -0.999848 -0.017419 0.00106596
-0.00669434 0.248846 0.233568 -0.999848 -0.0174189 0.00106514
-0.00430667 0.109759 0.200196 -0.999848 -0.0174195 0.00106493
0.00514036 -0.467851 0.241142 -0.999848 -0.0174197 0.00106495
-0.00881501 0.374243 0.293689 -0.999848 -0.0174182 0.00106455
0.000755262 0.302866 0.310399 0.999848 0.0174196 -0.00106465
0.0107635 -0.319037 0.153784 0.999848 0.0174167 -0.00106529
0.00472854 0.16675 0.490427 0.694719 0.697472 -0.175779
0.00788099 0.30696 0.188244 -0.998817 0.0445304 -0.0195399
0.00924667 -0.148072 0.475508 0.258754 -0.0544553 -0.964407
0.00292084 -0.341071 0.231038 -0.999848 -0.0174202 0.00106572
0.0107228 -0.113426 0.475303 0.706974 -0.0308402 -0.706567
0.00382408 -0.386281 0.339544 -0.999848 -0.0174193 0.00106544
0.0123196 -0.396937 0.340435 0.999848 0.0174198 -0.00106574
-0.00777951 0.319171 0.364945 -0.999848 -0.0174198 0.00106609
-0.017732 0.0560118 0.191359 0.00452442 -0.199457 -0.979896
-0.000253836 -0.156871 0.263442 -0.999848 -0.0174194 0.0010652
-0.000700917 -0.140351 0.113966 -0.999848 -0.0174195 0.00106519
-6.92618e-05 -0.178869 0.0770192 -0.999848 -0.0174194 0.0010646
0.00961751 -0.247063 0.255158 0.999848 0.0174173 -0.00106221
0.00994527 -0.279483 0.0326364 0.999848 0.0174201 -0.00106461
-0.0240516 0.196004 0.194191 0.259301 -0.0165883 -0.965654
0.013403 -0.471428 0.139287 0.999848 0.01742 -0.00106488
0.000557337 -0.202348 0.281173 -0.999848 -0.0174192 0.00106586
-0.0250176 0.074381 0.20281 -0.999848 -0.0174309 0.000945491
0.00280446 -0.147254 0.532349 -0.0163927 0.812809 -0.5823
-0.0230362 0.0494485 0.17374 0.999848 0.0174282 -0.00093838
0.0100433 0.0233905 0.470079 0.96576 0.00103645 -0.259436
0.0082605 -0.172504 0.200751 0.999848 0.0174193 -0.00106429
-0.0330794 0.270889 0.232744 -0.957611 -0.281647 -0.0604709
0.00303307 -0.344809 0.275256 -0.999848 -0.0174212 0.00106318
0.00876533 -0.200856 0.210964 0.999848 0.0174195 -0.00106591
0.00235094 -0.30369 0.307361 -0.999848 -0.0174191 0.00106479
-8.40478e-05 0.343805 0.192134 0.999848 0.0174195 -0.00106483
0.0076356 -0.132926 0.261388 0.999848 0.0174201 -0.00106536
0.0082407 -0.166665 0.277611 0.999848 0.0174205 -0.00106612
0.00827591 -0.177241 0.137777 0.999848 0.0174193 -0.0010657
0.00859398 -0.192377 0.188777 0.999848 0.0174192 -0.00106436
0.00986785 -0.272408 0.0756846 0.999848 0.0174201 -0.00106461
-0.0854647 -0.215291 0.522831 -0.964278 -0.215648 0.153833
-0.0248898 0.0686844 0.23309 -0.999848 -0.0174313 0.000943319
0.000917724 -0.233275 0.113751 -0.999848 -0.0174194 0.0010646
-0.010655 0.476747 0.242883 -0.999848 -0.017421 0.00106554
-0.0345742 0.1879 0.534069 -0.947966 -0.316972 0.0298055
-0.0045023 0.121329 0.20577 -0.999848 -0.0174194 0.00106578
0.00400558 0.159166 0.517214 0.0173775 -0.999849 -0.000482841
0.00441552 -0.165173 0.390656 -0.483154 -0.568762 -0.665636
-0.0070066 0.260285 0.127511 -0.999848 -0.0174219 0.00106696
0.00399875 -0.398443 0.304596 -0.999848 -0.0174192 0.00106479
0.00239101 -0.313791 0.179871 -0.999848 -0.0174208 0.00106587
-0.0268487 0.0963994 0.227298 0.999848 0.0174326 -0.000943963
0.000478205 -0.208107 0.112772 -0.999848 -0.0174192 0.001065
-0.00120291 0.414882 0.304214 0.999848 0.0174202 -0.00106527
0.0977398 -0.211869 0.526974 0.646855 -0.600801 0.469698
0.00102977 -0.228927 0.289931 -0.999848 -0.0174226 0.00106748
0.00760415 0.138653 0.504811 -0.0382352 -0.0113565 -0.999204
0.00415775 -0.417447 0.143114 -0.999848 -0.0174201 0.00106586
0.00233138 0.211154 0.289995 0.999848 0.0174209 -0.00106527
-4.83603e-05 -0.18118 0.0588338 -0.999848 -0.0174194 0.0010646
-0.00581758 0.197901 0.223368 -0.999848 -0.0174192 0.00106652
-0.00625133 0.223473 0.234425 -0.999848 -0.017422 0.0010614
-0.00800188 0.326797 0.281019 -0.999848 -0.0174212 0.00106514
-7.0379e-05 0.338074 0.111257 0.999848 0.0174162 -0.00106714
0.0115303 -0.353704 0.306658 0.999848 0.017422 -0.00106573
