-0.0102283 -0.44069 0.263131 -0.923475 -0.314667 0.219497
0.00735248 0.473169 0.19858 0.26552 0.960794 0.0798392
0.0244706 0.290712 0.15514 -0.852576 0.465793 0.236961
-0.00677528 0.432994 0.116051 -0.999993 -0.00342791 0.00152619
-0.0139385 0.2405 0.118227 0.000805962 0.642895 -0.765954
0.00642957 0.146091 0.402052 0.382763 -0.837289 0.390436
-0.00678432 -0.208019 0.0547042 -0.999993 -0.00223607 0.00299627
0.00624449 -0.331568 0.0539432 0.852358 0.466179 -0.236989
0.00374047 0.240187 0.448104 0.0416595 0.987873 -0.149569
0.016479 0.276695 0.114652 -0.852636 0.518646 0.0633885
-0.00966175 0.158939 0.258566 -0.953176 0.244661 -0.177752
-0.0143634 0.466534 0.179502 0.810024 -0.584383 -0.0485545
0.0126447 -0.366929 0.23647 0.852534 -0.438153 -0.28497
-0.0101619 -0.314829 0.0120174 -0.953481 0.0385474 0.298979
0.00225431 0.0804845 0.265451 0.382686 -0.837318 0.390447
-0.00011961 -0.14668 0.180702 -0.85282 0.15252 -0.499435
0.0204698 -0.304278 0.219127 0.852602 -0.518704 0.063372
0.0100177 0.160185 0.0805325 0.922997 -0.311318 -0.226182
0.00987878 -0.436531 0.0763974 0.923485 -0.299934 -0.239195
-0.00871473 0.386054 0.31358 -0.922999 0.192405 0.333245
0.00495129 0.357854 0.310249 0 -0.499996 -0.866028
0.00931218 -0.142854 0.215937 0.923462 0.374072 0.0853708
0.0325033 0.25438 0.165114 0.383025 0.151279 -0.911266
-0.00602682 0.17662 0.308145 0.253271 0.59893 -0.759695
-0.00943253 -0.144301 0.219645 -0.923461 0.37407 0.0853931
-0.0162113 -0.363811 0.144683 -0.852497 -0.314279 0.417705
-0.00494671 0.451055 0.262029 0.253303 -0.809004 -0.530424
0.00290802 -0.408205 0.270804 0.852534 -0.438153 -0.28497
-0.00356137 -0.227793 0.347719 0.270644 -0.671239 -0.690065
0.00918978 -0.205392 0.129958 -0.000415196 -0.342089 -0.939667
-0.00354596 -0.334066 0.304494 0.852597 0.518713 -0.0633692
-0.0137484 0.366033 0.20785 -0.000319661 -0.341972 0.93971
0.00972093 0.442669 0.246322 0.923022 0.351487 0.156486
-0.00756598 -0.387594 0.0260758 -0.923469 -0.188274 -0.334303
-0.00234575 0.327645 0.0319393 0.000130562 0.984804 0.173671
-0.0114385 -0.356604 0.2504 0.000382704 -0.865991 -0.50006
0.0387275 0.199692 0.423988 0.436738 -0.193391 -0.878556
0.0103782 -0.225947 0.316477 0.953552 -0.13069 -0.271401
0.00761361 0.0170794 0.154226 0.382737 0.653266 0.653266
-0.0383769 0.195264 0.425469 -0.415688 -0.274437 -0.867114
-0.035526 0.154684 0.111393 -0.999998 -0.000382553 -0.00184137
0.000718785 0.187869 0.278837 0 0.669133 -0.743143
-0.0133283 0.221023 0.139708 0.85247 -0.0277637 0.522039
0.0102911 -0.183173 0.0650764 0.953558 -0.235495 0.1878
0.135156 -0.176255 0.567038 0.759392 -0.0723046 0.646603
-0.00966568 0.0500428 0.130969 0.910929 0.218595 -0.349891
0.00987111 -0.417488 0.287272 0.953548 0.223 -0.202526
-0.00727018 0.242666 0.344524 0.253271 0.318934 -0.91331
-0.129917 -0.168478 0.555636 0.358625 -0.189841 -0.913974
0.124267 -0.203371 0.582893 -0.357086 -0.877019 0.321445
-0.00894627 0.414039 0.0688063 -0.790472 -0.495534 0.36
0.0188615 -0.334933 0.132923 -0.852384 0.509409 -0.118082
0.00659594 0.117536 0.197191 -0.253246 0.964745 -0.071653
-0.0392104 0.0633992 0.122102 -0.999985 0.00521585 -0.00141344
-0.0143079 0.36614 0.15601 -0.000670891 0.342131 0.939652
-0.0321261 0.0260184 0.111853 1 0 0
0.00996691 -0.214271 0.0396887 0.953547 -0.180178 0.241421
-0.0250627 0.159544 0.455285 -0.919647 -0.335608 0.204003
-0.0116052 0.199989 0.166264 -0.852436 -0.152452 0.500111
0.0061876 0.148256 0.352275 -0.902421 0.420303 0.0947708
-0.00330073 0.277637 0.322475 0 0.104529 -0.994522
-0.0073486 -0.040294 0.262889 -0.924549 0.257675 0.280737
0.00303886 -0.269244 0.350607 -0.169394 -0.200973 -0.96484
-0.00740326 0.216596 0.308928 -0.790471 0.306247 -0.530441
-0.00625451 0.0692262 0.222772 7.14274e-06 0.998723 -0.0505226
-0.00686904 -0.336335 0.0211492 -0.79151 0.155032 0.591166
-0.00512715 0.176532 0.433425 0.100383 -0.263174 -0.959512
0.0124901 0.421589 0.29539 0.848361 0.388762 0.35937
-0.00451714 -0.424938 0.122557 -0.852497 -0.314279 0.417705
-0.0360799 -0.238955 0.321377 -0.574567 -0.66287 0.480079
-0.0355237 0.291048 0.148122 -0.999998 -0.000455866 -0.00192684
-0.0137899 0.249044 0.237919 0.000382704 -0.865991 -0.50006
0.0209066 0.146435 0.149097 -0.921646 -0.00512889 0.387998
-0.0213339 0.282978 0.137946 -1.45239e-05 0.866023 -0.500004
0.0617148 -0.219706 0.558355 0.718071 0.0695718 -0.692484
0.0111025 0.388466 0.199759 0.000154155 0.342046 -0.939683
-0.00606684 -0.0175609 0.239424 -0.923124 -0.17748 -0.34109
-0.00822175 0.324395 0.00819063 -0.923012 0.040219 -0.382664
-0.00313831 0.204342 0.0539717 0 0.669142 0.743134
-0.0394345 0.086196 0.164929 -1 -0.000956146 -4.94758e-05
0.00690416 0.43833 0.22272 0.999994 -0.00328507 -0.00146272
0.00643295 0.24207 0.280553 0 0.866024 0.500002
0.00489614 0.132582 0.333213 0.382667 0.837326 -0.39045
0.00801491 -0.140754 0.127797 0.923454 0.367845 -0.109197
0.00664673 0.0904149 0.244501 0.382686 0.837319 -0.390447
0.0084207 -0.00631268 0.1587 0.923902 -0.27056 -0.270559
-0.0293 -0.0259609 0.124527 0.00521892 -0.999546 -0.0296794
-0.0326683 0.263779 0.210879 -0.923418 0.277458 0.265172
-0.00821042 -0.0419966 0.210972 -0.923847 0.270654 0.270653
0.0169471 -0.369276 0.18146 0 0 1
-0.00541468 -0.160325 0.284587 -0.177407 0.788089 0.589442
-0.0102437 -0.193831 0.428463 -0.951004 -0.289112 0.109568
-0.000330946 -0.157661 0.235007 -0.852607 0.314231 -0.417516
-0.0275672 0.122436 0.184209 0.512121 -0.0372504 0.858105
-0.00679654 0.412977 0.275553 -0.999993 -0.00303552 -0.00220532
-0.0825066 0.0835293 0.184313 -6.3121e-06 -0.26723 -0.963633
-0.00359994 -0.124524 0.155356 0.16914 -0.982358 0.0797753
0.0284225 0.325227 0.178689 -0.0401267 0.176299 -0.983518
-0.0174069 0.243341 0.147555 0.852174 -0.0279965 0.522508
0.0352428 -0.192913 0.529152 0.147451 -0.395211 -0.906679
-0.0334595 0.251713 0.167539 -0.923018 -0.104305 0.37035
-0.00991208 -0.430531 0.278435 -0.923472 -0.284017 0.25794
0.0160052 -0.216971 0.340874 0.30744 0.947406 -0.088892
0.0352086 -0.258934 0.269148 0.6257 -0.740256 0.24601
0.0152212 -0.273861 0.108776 -0.8526 0.35662 0.381963
-0.0227455 0.09943 0.145074 -0.383337 -0.175957 0.906693
-0.00779132 -0.161667 0.10607 -0.791438 -0.558942 0.247407
0.00522751 -0.217407 0.38749 0.587687 -0.756576 0.286737
0.0228863 -0.329172 0.181446 -0.852772 0.152512 -0.499519
-0.00619954 -0.450717 0.143148 0 0.987184 0.159586
0.0378059 -0.0159804 0.0765102 0.00703866 0.707179 -0.707
-0.0125191 -0.233412 0.123669 0.852385 -0.438299 -0.285191
0.00224929 0.376862 0.3354 0.265566 0.456326 0.849259
-0.0103622 0.374965 0.0330119 -0.953203 -0.151166 0.261826
-0.0294322 0.200753 0.189064 7.85137e-05 -0.0522549 0.998634
0.00613134 -0.235824 0.275887 -0.000382706 0.86599 -0.50006
-0.0303725 0.23523 0.246577 -0.922455 0.26125 0.284296
0.0180752 0.311431 0.224735 -0.852592 -0.51872 -0.0633672
-0.0345677 0.0429459 0.12202 -1 0 0
0.0164826 -0.330242 0.235294 0.000382369 0.865992 0.500058
-0.0189733 0.296906 0.226729 -0.852636 0.518646 0.0633885
-0.00951444 -0.321426 0.332871 -0.953487 0.0193212 -0.300815
0.0101512 0.118944 0.475346 0.532605 0.046813 0.845069
0.00160121 0.307788 0.345646 0.381244 0.096625 0.919411
0.00713621 0.410185 0.310209 -0.253349 -0.592276 -0.764868
0.00244094 0.180621 0.0865468 0.85255 0.204536 -0.480961
-0.00577271 -0.166182 0.426358 -0.918877 0.343393 0.194286
-0.00674819 -0.131977 0.303717 -0.38264 0.653295 0.653294
0.00406206 -0.195444 0.254579 -0.000211581 0.642758 -0.76607
0.0157424 0.290575 0.175628 0 -0.951141 0.308758
0.0013009 0.332736 0.351447 0.26551 0.154973 0.951571
-0.0104662 -0.275918 0.013053 -0.923481 0.049055 -0.380495
-0.0297468 0.0213774 0.137672 0.00131932 -0.587744 0.809046
-0.0295048 0.05599 0.179874 -0.564881 0.0418484 -0.824111
0.00966692 -0.456283 0.110667 0.923464 -0.350854 -0.155294
-0.0086522 0.130893 0.14313 -0.923 -0.37639 -0.0800082
0.0180244 -0.35743 0.161691 -0.852619 0.314225 -0.417498
0.00926504 -0.314317 0.278757 -0.000605562 0.984827 0.173541
0.0294202 0.263826 0.215761 -0.381877 0.726695 0.571038
0.0181881 -0.303582 0.178701 0 -0.383075 0.923717
-0.00278438 0.360792 0.342546 -0.265586 0.309916 0.912916
0.00232621 0.462676 0.211325 0.381186 0.904298 0.192206
-0.00937686 0.199732 0.132123 0.85247 -0.0277637 0.522039
-0.00969627 -0.206092 0.145617 0.852605 -0.314233 -0.41752
0.00567471 0.374276 0.0468755 0 -0.500005 0.866022
0.0235508 0.233278 0.246739 -0.920996 -0.24802 -0.300419
-0.00115313 0.129612 0.248731 -0.265546 -0.885802 0.380578
-0.0251108 -0.313592 0.19004 -0.852577 0.465793 0.236961
-0.00823234 -0.237779 0.329004 -0.923472 0.166462 0.345674
0.00985302 0.167357 0.270512 0.953243 0.244481 -0.17764
0.0079209 0.456981 0.124476 0.923023 0.376337 -0.0799956
-0.0101466 -0.204682 0.391359 -0.951018 0.289073 -0.109554
-0.00779892 -0.239791 0.0786271 0.000301651 0.866 0.500045
0.0177147 0.341564 0.203029 0.000301645 0.642829 -0.76601
0.00736078 -0.412501 0.221279 0.852611 -0.31423 -0.41751
0.00778382 0.301071 0.0171361 0.790363 -0.0640383 0.609282
-0.00792954 -0.386399 0.0943482 -0.000779562 0.642688 -0.766128
0.0803346 -0.0240941 0.0771407 1.66599e-06 0.707095 0.707119
-0.00878498 -0.292385 0.281244 -0.000168832 -0.984803 0.173676
0.0351916 -0.271119 0.236197 0.625881 -0.720375 0.298886
0.0121863 0.218123 0.464863 0.119661 0.00838701 0.992779
-0.00344938 -0.451361 0.201102 0 0.974934 -0.222496
-0.00970032 -0.0706808 0.22786 -0.923862 -0.270627 -0.270628
0.0065036 0.427538 0.103889 0 -0.913546 0.406735
-0.00776503 0.0271456 0.143349 -0.923847 0.270654 0.270653
0.00452382 -0.425139 0.052648 0.38229 -0.642873 -0.663753
-0.000297695 0.465792 0.236389 -0.265558 0.882454 0.388272
-0.00882733 0.200344 0.427498 0.133795 -0.197164 -0.971198
0.0177677 -0.253072 0.147997 -0.852494 0.0277452 0.521999
-0.0083779 0.269243 0.00815776 -0.923012 -0.0402199 -0.382664
-0.00123698 0.180321 0.302576 -0.3812 -0.618601 0.687037
0.0183086 0.225281 0.423648 -0.18538 0.17028 -0.967801
-0.0391905 -0.0118564 0.132696 -0.999986 -0.00520996 -0.0012732
-0.00568879 0.175577 0.209112 0.000571713 -0.341929 -0.939726
-0.0100765 -0.400958 0.166456 0.852057 0.152379 0.500779
0.00485505 0.397945 0.250339 0.000301645 0.642829 -0.76601
-0.0333259 0.0649248 0.157066 0 -0.104648 0.994509
-0.00679158 -0.224761 0.306932 -0.999993 -0.00203952 -0.00313295
0.00606697 0.0288074 0.232863 0.923539 0.0752478 0.376049
-0.0258921 0.209804 0.422639 0.0207366 -0.111585 -0.993539
0.0134307 0.21453 0.18146 0 0 1
0.00690076 -0.278995 0.0252285 0.999994 -0.0004582 0.00355416
-0.0242129 0.231896 0.458442 -0.477249 0.342911 0.809101
0.0093251 0.34343 0.0156256 0.923012 0.118903 -0.365937
0.0164455 -0.285138 0.23437 -0.000168834 0.984803 -0.173678
0.00431776 -0.16116 0.516057 0 0.342168 0.939639
-0.0101202 -0.449709 0.0992465 -0.923483 -0.350811 -0.155275
-0.0927046 0.103567 0.181915 0 0.963641 -0.267201
0.00870301 0.249073 0.324715 0.790303 0.189335 -0.582729
0.0032226 -0.18607 0.299882 0.382259 0.599016 0.703603
-0.0331544 -0.250127 0.254285 -0.39762 0.842412 -0.363649
0.00172169 -0.368988 0.308978 0 0.433907 -0.900958
-0.0053038 -0.404137 0.24914 0.852643 0.438044 0.28481
0.0145875 -0.163749 0.27505 0.926235 0.301849 0.22578
-0.00970715 0.116593 0.157182 -0.265575 -0.960047 -0.0882058
-0.0909196 0.0692638 0.189805 0 -0.963636 0.267219
-0.00243464 0.308333 0.00245003 -0.381132 0.0966502 -0.919455
-0.0207581 -0.276602 0.20516 -0.852547 0.43814 -0.284952
-0.00893188 0.345068 0.346095 -0.265586 0.309916 0.912916
-0.0336563 0.172494 0.448854 -0.836836 -0.486832 0.2504
-0.0175998 -0.145865 0.157156 0.995938 -0.0895507 0.00940679
0.00824436 0.059551 0.211921 0.923901 -0.346781 0.161707
0.0102985 0.144571 0.114584 0.953248 0.276064 0.122909
0.0377163 -0.272523 0.219048 0.913511 0.357755 -0.193673
-0.00949639 0.219982 0.0331594 -0.953214 0.151149 0.261795
-0.00499853 0.147211 0.0865061 -0.381173 -0.747936 -0.543415
0.0104326 0.132069 0.161336 0.923003 -0.384792 0
0.0122888 0.444444 0.26649 0.848355 0.442747 0.29029
-0.0278147 -0.0116005 0.0978298 -0.999987 -0.004461 -0.0024977
0.00703764 -0.146611 0.296036 0.382713 -0.653274 -0.653272
-0.0958952 -0.226372 0.572795 -0.13096 0.224479 -0.965639
0.00812634 -0.0726064 0.223989 0.923902 -0.27056 -0.270559
0.0066632 -0.164997 0.314203 0.382713 -0.653274 -0.653272
-0.0226161 0.267412 0.175713 0.85217 0.314419 0.418267
0.0102275 -0.15968 0.0993211 0.953561 -0.27542 0.121924
0.00143319 0.0426365 0.129644 -0.000503904 0.951058 -0.309011
0.00543998 0.0172 0.236428 0.384193 0.181153 0.905306
-0.00771712 -0.222546 0.250989 0.852569 0.204513 -0.480938
-0.0378539 0.0297639 0.170084 1 0 0
-0.0158175 0.125373 0.46134 -0.974611 -0.210721 -0.075692
-0.00455255 -0.0468602 0.275613 -0.385029 0.623617 0.680335
-0.00920284 0.370989 0.312855 -0.790425 -0.306285 -0.530489
0.00480932 -0.376938 0.062023 -0.000382483 -0.865992 0.500058
0.00963553 0.185795 0.314217 -0.25334 0.598903 -0.759694
-0.0361863 -0.282599 0.19712 -0.91735 0.325032 -0.229832
0.00343576 -0.124696 0.195246 -0.169269 -0.972964 -0.157129
0.00947547 -0.138256 0.160218 0.923483 0.383442 -0.0122926
-0.0174091 -0.360905 0.187562 0.852444 0.3143 0.417798
0.00937527 0.19751 0.0391162 0.922991 -0.192414 -0.333262
-0.00735145 0.178198 0.166872 -0.852436 -0.152452 0.500111
-0.0133835 0.152574 0.274132 -0.848336 -0.445298 0.286419
-0.00377806 0.43245 0.071773 -0.381219 0.74792 -0.543403
-0.000501287 0.36146 0.0139366 -0.381194 0.285674 -0.879251
-0.00679362 0.198731 0.295198 -0.999994 0.00240647 -0.00267264
0.00721975 -0.0488518 0.198383 0.382713 -0.653274 -0.653272
-0.00704025 0.139793 0.192995 -0.790447 0.599144 -0.12736
0.0253454 -0.248672 0.168842 -0.705608 0.0286379 0.708023
0.00694146 -0.09777 0.319992 0.92372 0.26998 0.271756
-0.039191 0.207364 0.172641 -0.58298 0.235317 -0.777664
-0.0345455 0.29873 0.18811 0.00198552 -0.392768 -0.919636
-0.00984575 -0.182018 0.0681559 -0.953491 -0.235658 0.187936
0.00902871 -0.0987542 0.253218 0.923902 -0.27056 -0.270559
0.00906493 0.327476 0.329393 0.7903 -0.0640484 -0.609364
-0.00996802 0.245416 0.0178495 -0.923005 -0.118906 -0.365956
-0.00496135 -0.153019 0.382499 -0.371628 -0.807963 -0.457261
-0.0292145 0.168278 0.155173 -0.923101 -0.100793 0.371113
0.0080869 -0.257274 0.0112387 0.923473 0.0973173 -0.371116
0.00665783 0.0357409 0.165182 0.382686 -0.837318 0.390447
-0.0332521 0.107115 0.0976544 -0.00105003 0.858318 0.513117
-0.0101704 -0.18212 0.460444 0 0.342064 0.939676
0.0263423 -0.288469 0.176522 -0.000273014 0.64275 -0.766076
0.00731791 0.113044 0.293687 0.382686 0.837319 -0.390447
0.00775521 -0.258264 0.324181 0.791311 -0.192658 -0.580266
-0.0176835 -0.281712 0.225764 0.852356 0.357015 -0.382138
0.0227833 0.181278 0.310786 0.915141 0.213006 0.342264
-0.0391251 0.0191987 0.0750811 -0.999987 -0.000620963 -0.00507481
-0.0496645 0.20894 0.437575 -0.933059 0.253285 -0.255438
-0.0274257 -0.238272 0.167393 -0.997925 0.0640359 -0.00672037
-0.0100545 -0.255854 0.0168144 -0.923471 0.0973214 -0.371119
-0.0152661 -0.18066 0.532142 -0.0632204 0.900848 0.429506
0.0207934 -0.177634 0.161492 -0.7029 0.0108512 0.711206
-0.0345677 0.0384685 0.147935 -1 0 0
-0.0131168 0.260666 0.0992991 -0.000265631 0.866002 -0.500041
-0.0316846 0.260497 0.188724 -0.00127378 0.858183 0.513342
0.00809081 0.347211 0.321759 0.79033 -0.189318 -0.582698
0.00691125 -0.294076 0.326971 0.999994 -0.000229721 -0.00357665
-0.0345677 0.024694 0.0920968 -1 0 0
-0.00104174 -0.330873 0.321481 0 0.191177 -0.981556
-0.00450228 -0.221252 0.36941 -6.7082e-05 -0.70706 0.707153
0.0322737 0.236164 0.166527 0.923064 -0.103659 0.370415
0.00691824 -0.396114 0.0489901 0.999994 0.00214373 0.00287218
-0.0391224 0.0743441 0.100232 -0.999985 0.00521585 -0.00141344
-0.00865947 -0.406136 0.203024 4.50282e-05 -0.342016 -0.939694
0.0130353 0.210104 0.150975 0.852483 0.0277536 -0.522017
0.00764868 -0.340836 0.339822 0.92348 -0.0733364 0.376571
0.00299028 -0.222223 0.0219444 0.382355 0.453449 -0.805102
-0.00231762 -0.0850781 0.259413 -0.382736 0.653265 0.653267
0.00943517 -0.46957 0.178515 0.923471 -0.38347 -0.0123111
0.0342331 0.29884 0.171006 0 0.951039 -0.309069
0.00297411 0.176669 0.467607 0.109089 0.123169 0.986372
0.0032366 -0.20207 0.322628 -0.169369 -0.529334 -0.831336
-0.00315699 -0.29976 0.00168932 -0.38222 0 -0.924071
0.00539262 0.00124899 0.240481 0.379628 0.425343 0.821563
0.0226103 0.206866 0.423553 -0.204884 -0.185545 -0.961039
-0.00904217 -0.371391 0.0217457 -0.923469 -0.143984 -0.355632
-0.0061041 -0.170619 0.342736 -0.38264 0.653295 0.653294
-0.00679644 -0.155182 0.126037 -0.999993 -0.00358464 0.00106394
-0.00661258 0.151846 0.39149 -0.923929 0.34672 -0.161681
0.0220246 0.313797 0.14797 -0.000306146 -0.642829 -0.766009
-0.0142432 0.282513 0.346335 -0.848333 -0.00231566 0.529458
-0.00678267 0.446608 0.162732 -0.999994 -0.00359445 0
0.00969909 0.39376 0.299422 0.953255 -0.202185 -0.224559
-0.00786976 -0.0198218 0.189959 -0.923847 0.270654 0.270653
-0.00878414 0.0696125 0.208014 -0.923845 0.346905 -0.161764
-0.0216932 0.328535 0.169697 -0.000142829 0.342046 0.939683
0.0105906 -0.218472 0.353204 0.56791 0.628248 0.531773
-0.00900398 -0.188572 0.283329 -0.79148 -0.452444 -0.410919
0.00198148 -0.13092 0.368431 0.37141 0.808105 0.457189
-0.00272566 -0.128437 0.216502 0.169201 -0.947038 -0.272928
0.00513029 0.441853 0.0855771 0.381211 0.747923 -0.543405
0.00921766 0.219912 0.245968 -0.852494 -0.204608 -0.481029
0.00834897 -0.409433 0.142311 -0.852607 0.314229 -0.417518
0.117626 -0.213906 0.572345 0.354153 -0.45305 -0.81812
-0.00777405 -0.010311 0.160915 -0.923845 -0.270658 -0.270657
0.00309012 -0.295655 0.355297 0.17747 0.0833479 0.98059
0.00685316 0.103435 0.310161 0.382763 -0.837289 0.390436
0.0968721 -0.0193054 0.0619213 1 0 0
0.00780834 0.119495 0.342961 0.923901 -0.346781 0.161707
-0.0261969 -0.294431 0.165969 -0.000607555 0.984825 0.173547
0.0260989 -0.316197 0.16723 -0.000382483 -0.865992 0.500058
-0.00137808 -0.401392 0.287743 0 0.648225 -0.761449
0.0943461 -0.232579 0.577133 0.0721641 -0.969769 -0.23311
0.00878428 0.216855 0.31095 0.790363 0.306324 -0.530558
0.00691039 -0.199699 0.0611434 0.999994 -0.00249309 0.00257421
-0.126884 -0.200252 0.574069 -0.759297 -0.0722217 0.646724
-0.0133632 -0.195795 0.312152 -0.926177 0.239304 0.291426
0.0313406 0.177996 0.457026 0.62711 -0.243844 0.739779
0.00850776 0.133465 0.219703 0.923009 -0.376371 0.0800003
-0.00983029 -0.463801 0.21113 -0.923478 -0.37403 0.0853792
-0.0076566 0.179104 0.0504255 -0.922989 -0.257498 -0.285982
-0.0046845 0.162097 0.293942 0.253265 0.716086 -0.650444
-0.00365332 0.423992 0.298306 0.253296 -0.710382 -0.656657
-0.0391861 0.0324013 0.0868926 -0.999986 0.00153514 -0.00507811
-0.0023402 -0.400968 0.316212 -0.382365 -0.504085 0.7744
-0.00279037 0.196764 0.466073 -0.11179 0.0226522 0.993474
-0.00362045 -0.240539 0.297621 -0.852592 0.509111 -0.117867
-0.00373183 -0.273768 0.34314 -0.382331 0.176651 0.906983
-0.0172858 0.142584 0.465264 -0.924294 -0.0763292 0.37397
0.0192721 0.329493 0.135529 0.852628 0.438059 0.284832
-0.0296866 -0.00992858 0.162749 0.00334911 -0.778983 0.627037
0.026852 0.109075 0.14362 0.922283 -0.118311 0.367964
-0.0193801 -0.345718 0.150352 0.000153683 0.342048 -0.939683
-0.00997322 -0.416508 0.0586273 -0.953472 0.209735 0.216569
-0.017217 -0.307416 0.171313 0 -0.923852 -0.382751
-0.00680394 0.436167 0.238456 -0.79047 -0.55954 -0.249143
0.0147436 0.372697 0.166183 0 0 -1
-0.00966893 -0.464162 0.178581 -0.953497 0.301249 0.00964887
0.00864601 0.403769 0.0470348 0.922991 0.25749 -0.285984
0.00970865 -0.0174191 0.174205 0.923902 -0.27056 -0.270559
0.0069053 0.30828 0.324506 0.999994 -0.000375871 -0.00357615
0.00916182 0.374646 0.310498 0.790318 -0.306354 -0.530609
0.0214431 0.205678 0.275605 -0.381176 -0.683812 -0.622179
0.00454374 0.0469698 0.149271 0.382686 0.837319 -0.390447
-0.0126488 0.14944 0.352185 -0.375297 0.658368 0.65246
0.0343757 0.0103467 0.110325 1 0 0
0.0413305 -0.00965804 0.0885652 0.965511 0.184087 0.184118
0.00108338 0.203563 0.32023 0.381206 -0.462241 0.800634
-0.00677844 0.281499 0.0238772 -0.999993 0.000392149 0.00373091
0.0202222 -0.347876 0.18146 0 0 1
0.00690652 0.406751 0.0705587 0.999994 -0.00240625 0.00267244
0.0090652 0.0937796 0.260739 0.92389 0.346807 -0.161718
-0.0237891 0.314445 0.189074 0.000411951 -0.342089 0.939668
-0.0363046 -0.250053 0.29284 -0.61905 -0.745228 0.247815
0.00203949 -0.13767 0.244282 -0.169264 -0.907324 -0.384855
0.00585955 0.17209 0.137235 0.852483 0.0277536 -0.522017
0.00147524 -0.158545 0.268091 0.382335 0.757858 0.52865
-0.00117288 0.160061 0.428951 -0.382707 -0.837301 0.390464
-0.00677735 -0.211633 0.293527 -0.999993 -0.00242387 -0.00284724
-0.0214119 0.0279488 0.141553 0.0016307 0 0.999999
-0.0208525 0.0637109 0.129033 -0.383163 0.126804 -0.914935
0.00717641 0.0439847 0.182353 0.382763 -0.837289 0.390436
0.0491602 0.210241 0.434226 0.934531 0.248475 -0.254778
0.0104118 -0.130786 0.289972 0.923885 -0.270589 -0.27059
-0.0030075 -0.464076 0.111008 -0.382414 -0.844925 -0.373979
0.0102709 -0.350236 0.0187163 0.953548 0.0764099 0.291391
0.0239559 0.269537 0.181018 0.852738 -0.152505 -0.499579
-0.118124 -0.191527 0.566796 0.857163 0.192665 -0.477652
-0.0121485 0.130725 0.237424 -0.848353 -0.486439 0.208983
-0.00297178 0.370791 0.0576017 -0.000360204 0.866056 0.499948
-0.0106191 -0.203232 0.363985 -0.923857 0.270636 0.270637
0.024835 -0.225991 0.164438 3.77051e-05 -0.104517 -0.994523
-0.00594327 0.388443 0.327984 -0.265543 0.456319 0.84927
-0.0379027 0.108292 0.180949 0.999999 0.00113191 5.86035e-05
-0.00276968 -0.153663 0.163673 0 -0.999486 0.0320522
-0.00913147 -0.387968 0.235732 0.852643 0.438044 0.28481
0.0101901 0.0267442 0.131686 0.923902 -0.27056 -0.270559
0.00976507 0.442797 0.113388 0.953227 -0.276123 0.122943
-0.0332131 0.307658 0.15351 -0.00126662 0.858377 0.513017
0.00674633 0.141032 0.443792 0.130136 -0.306336 -0.942986
0.0366544 -0.0274235 0.0683775 0.00718943 -0.382435 -0.923954
-0.0256873 0.20678 0.156512 0.381869 0.191922 -0.90407
0.00735698 -0.214445 0.32956 -0.52694 -0.456477 -0.716912
0.0093396 0.21165 0.113466 -0.852552 0.438135 -0.284944
-0.00678113 0.143812 0.172659 -0.999994 0.00359545 0
-0.0321261 0.0696445 0.138321 1 0 0
0.0023927 -0.420885 0.0851583 0.852591 0.204484 -0.480911
-0.00843942 0.26826 0.282633 -0.852657 0.465652 0.236949
-0.0392051 0.00150406 0.102445 -0.999987 -0.00387815 -0.00341089
-0.0139959 0.140867 0.253529 -0.84837 -0.48641 0.20898
0.00837342 -0.201805 0.422208 0.587687 -0.756576 0.286737
0.0105871 -0.151279 0.115487 0.953561 -0.27542 0.121924
-0.00496688 0.35165 0.287441 0.000661817 -0.866081 0.499904
0.0228959 0.269156 0.162214 -0.000273031 -0.64275 0.766076
-0.0133887 -0.12857 0.183331 -0.926169 0.376813 0.014918
0.000986323 -0.279745 0.322158 0 -0.191177 -0.981556
-0.0103945 -0.227415 0.0294583 -0.923469 0.188272 -0.334304
-0.00151546 -0.0757318 0.305014 -0.382937 0.651055 0.655352
0.0261663 0.130594 0.141769 0.382877 0.14834 -0.911812
-0.0693654 0.0876541 0.183169 -6.3121e-06 -0.26723 -0.963633
-0.009012 0.435641 0.262338 -0.923018 0.311277 0.22615
0.0135852 0.122164 0.181338 -0.810117 0.584655 -0.0434572
-0.00818737 -0.150242 0.319295 -0.923847 0.270654 0.270653
-0.00678709 -0.377338 0.0394925 -0.999994 0.0017584 0.00312209
-0.00787215 0.46661 0.221588 0.253296 -0.937618 -0.238147
-0.00904742 0.403296 0.314869 0.253251 -0.592271 -0.764904
0.00731237 -0.236395 0.330671 0.382404 0.400896 0.832496
0.0050492 0.236135 0.435088 -0.0238519 0.861388 -0.507387
-0.00679075 -0.442482 0.241067 -0.999994 0.00317756 -0.00165753
0.00730244 -0.193557 0.343138 0.382713 -0.653274 -0.653272
-0.0616259 0.0715353 0.19503 0.707114 -0.681382 0.188968
0.00146708 0.161747 0.396012 -4.08894e-05 0.422548 0.90634
-0.00723331 -0.276846 0.0618965 0.85241 -0.519031 0.0632766
-0.00701099 0.0143529 0.135129 -0.382582 -0.653312 -0.65331
-0.0262524 0.0620848 0.0890896 0.999986 -0.00368652 0.00367821
0.00691771 0.153472 0.236607 0.999994 0.00328588 -0.00146308
0.0426851 0.213743 0.451799 0.573522 0.192366 0.796284
-0.0377938 0.00983601 0.159946 0.999991 0.00427309 0.000785141
-0.144035 -0.159911 0.554157 -0.751952 -0.47424 -0.457892
0.0242975 0.383122 0.189094 0.188805 0.192629 -0.962937
-0.065475 -0.218133 0.566138 -0.192406 0.919677 0.342308
-0.00177642 0.136742 0.362531 0.903402 0.417407 0.0981651
0.00983158 0.176666 0.0650501 0.953255 0.202191 0.224551
-0.00946524 -0.398701 0.0455315 -0.953475 0.180312 0.241605
0.00528126 0.265427 0.00525878 0.381171 -0.0966485 -0.919439
-0.0174494 -0.355952 0.207963 -0.852573 0.204508 0.480933
0.0129548 0.155432 0.468956 0.317025 0.166203 0.933741
-0.0321261 0.0375561 0.104403 1 0 0
0.0355982 -0.231962 0.304185 0.388612 0.863482 -0.321526
0.0084078 0.0152155 0.137128 0.923902 -0.27056 -0.270559
0.00450771 0.34904 0.336058 0.381227 0.285695 0.879229
0.0144345 0.139312 0.24863 0.848353 -0.486436 0.208991
-0.00551674 -0.130161 0.342775 -0.918722 -0.343682 -0.194505
0.00359618 0.23272 0.295104 -0.85254 -0.356716 -0.382008
0.00143372 -0.428168 0.293797 0.382338 -0.684033 0.621221
0.00636208 -0.307364 0.344787 0.382355 -0.0592157 0.922116
0.00559159 -0.136413 0.353592 0.918941 -0.343238 -0.194253
0.00691442 0.447697 0.153085 0.999994 -0.0035176 0.000747695
0.0148993 0.326157 0.10645 0.852618 0.509074 0.11784
-0.00679379 0.144921 0.135789 -0.999994 0.00351681 0.000747509
0.000400009 -0.154224 0.220051 -0.000310657 0.341974 -0.93971
0.00761797 0.224045 0.328713 0.923003 -0.192397 0.33324
0.0101138 -0.335412 0.0153436 0.953558 0.0763946 0.29136
-0.0266262 0.359663 0.185292 -0.754908 0.159751 -0.636077
-0.0384211 0.161675 0.186286 -0.482652 -0.0465328 0.874575
-0.00698103 0.422106 0.287859 -0.381218 0.747923 0.5434
0.000687497 0.434288 0.275594 0.381236 0.747917 0.543396
-0.00678422 0.237425 0.0327107 -0.999994 0.00113724 0.00340853
-0.00471369 -0.359296 0.336012 -0.382284 -0.291182 0.876967
0.0143257 -0.244842 0.336842 0.926239 0.120681 0.357095
0.127628 -0.166899 0.559276 -0.865227 0.173402 -0.470441
0.00411225 -0.456912 0.251297 0.382358 -0.819228 0.427396
-0.0170025 0.236305 0.166428 0.852057 0.152379 0.500779
-0.000319627 0.466345 0.197794 -0.381182 0.904299 0.192207
-0.0141637 0.128382 0.219995 -0.848352 -0.514262 0.125829
0.0187972 -0.253532 0.184653 -0.85262 -0.314228 0.417492
0.0324225 0.276537 0.198812 0.923376 0.278977 0.263722
-0.0321261 0.0551285 0.0952428 1 0 0
-0.0189047 0.293406 0.124504 0.852429 -0.466054 0.236978
-0.00856514 -0.357399 0.0148419 -0.923469 -0.143984 -0.355632
0.00249446 0.27247 0.352258 -0.253309 0.163811 -0.953415
-0.00681503 -0.179819 0.43666 -0.918939 -0.343257 -0.194232
-0.00728133 -0.0955396 0.266967 -0.38264 0.653295 0.653294
0.0235199 0.179986 0.152928 -0.921734 0.127846 -0.366144
0.00364231 -0.123736 0.16489 -0.169303 -0.98233 0.079773
0.00559323 0.0410836 0.221275 0.923935 -0.0267902 -0.381611
0.0142275 0.12637 0.208444 -0.810047 0.569565 -0.139353
-0.0344805 -0.29844 0.187289 0.396952 -0.738814 0.544594
-0.00191322 -0.213622 0.35254 -0.136782 0.988544 0.063808
-0.0392617 -0.00428202 0.15108 -0.999982 -0.00568523 -0.00199563
0.00643781 -0.382956 0.301312 0 0.545499 -0.838112
-0.00270279 0.442106 0.20087 0 -0.978147 -0.207913
-0.0394317 0.082338 0.18138 -1 -0.000671566 -3.47372e-05
0.0104785 -0.141671 0.195692 0.923485 0.381862 0.0368368
-0.0131368 -0.246321 0.340103 -0.92618 0.120729 0.357232
-0.00208693 0.0873598 0.280237 -0.382762 -0.83729 0.390434
-0.0261546 0.285438 0.173728 1 0 0
-0.00887731 -0.162518 0.246319 -0.791425 -0.541955 -0.282722
0.00256663 -0.131215 0.182859 0.382377 0.919736 0.0887338
0.00578559 0.115286 0.15923 0.265597 -0.960042 -0.0881935
-0.0391448 0.00163422 0.132814 -0.750391 0.639933 -0.165528
0.0169388 0.181255 0.430496 -0.182666 -0.241049 -0.953168
-0.0394188 0.0635237 0.174712 -1 -0.000671566 -3.47372e-05
-0.00932335 0.166572 0.0803858 -0.953179 0.244652 0.177752
0.00844093 0.14107 0.385616 0.923881 -0.346827 0.161727
0.00186877 -0.0858216 0.232219 0.382582 -0.65331 -0.653313
-0.0428425 -0.206749 0.548097 0.894341 -0.446989 -0.018857
0.00399777 -0.0926804 0.303043 0.383039 -0.651044 -0.655304
0.00558609 -0.44818 0.215044 0 0.974934 -0.222496
0.0244269 0.310535 0.18717 -0.852452 -0.509311 0.118015
0.00952773 -0.146133 0.148152 0.953533 -0.297426 0.0480914
0.0102687 -0.154517 0.242154 0.923476 0.340148 0.177457
0.0034377 0.394499 0.080938 -0.852589 0.204487 0.480912
-0.0192929 0.343818 0.1633 -0.852505 -0.0277369 -0.521983
0.0104813 -0.113067 0.272491 0.923885 -0.270589 -0.27059
-0.00604198 0.107766 0.475239 -0.431109 -0.490579 0.757283
-0.0345677 0.301468 0.171088 -1 0 0
0.010599 -0.190726 0.533284 1 0 0
0.00893558 -0.382194 0.0264772 0.92347 -0.188278 -0.334296
-0.0102454 -0.463282 0.14553 -0.953504 0.297517 0.0480952
-0.00827071 -0.454562 0.127943 -0.791455 0.585968 0.173899
-0.0138097 -0.282531 0.095282 -0.852391 -0.466119 -0.236987
0.0121427 -0.265918 0.0944884 -0.8526 0.35662 0.381963
-0.00117313 -0.353116 0.315587 0 0.315091 -0.949061
-0.00196084 -0.13819 0.381197 -0.37136 0.808112 0.457217
-0.0095804 0.3982 0.295447 -0.953181 -0.202341 -0.224733
-0.0180923 0.0357762 0.119408 -0.0013193 0.587837 -0.808978
-0.0188603 -0.334152 0.211513 0.000382704 -0.865991 -0.50006
0.00234321 -0.239591 0.0477274 0.000265632 -0.866002 -0.500041
0.0171469 -0.254229 0.205253 -0.000211581 0.642758 -0.76607
-0.0321261 0.025609 0.126404 1 0 0
-0.00972386 0.239802 0.457484 -0.192392 0.961571 0.195877
-0.0120837 -0.144185 0.252728 -0.55392 0.766469 0.325111
-0.00803255 -0.45308 0.223585 -0.791388 0.573704 -0.211114
0.00436879 0.278333 0.305512 -0.852656 -0.465653 -0.236951
-0.0314245 0.231233 0.19029 -4.19042e-05 -0.0414409 0.999141
-0.0321261 0.0509213 0.151221 1 0 0
0.0589084 -0.0197095 0.0727561 0 0.7071 0.707114
-0.00137114 0.320379 0.344367 -0.381157 0.0966287 0.919447
0.00578726 -0.43881 0.108374 0 0.914407 0.404795
0.000403402 -0.32325 0.0249601 0 0.127861 0.991792
0.0187203 0.326666 0.215565 -0.852789 -0.508829 0.117662
-0.00962755 0.392245 0.146508 -0.000670891 0.342131 0.939652
-0.0394984 0.140676 0.173397 -0.999999 -0.00154365 -7.99684e-05
0.0244811 0.0299315 0.123418 1 0 0
0.00691817 -0.456986 0.149226 0.999994 0.00353788 0.000571833
-0.00753947 0.117715 0.304063 -0.923845 0.346905 -0.161764
-0.00862723 -0.191719 0.412396 -0.587687 0.756578 -0.28673
-0.00498153 -0.183872 0.309903 -0.177348 0.624511 0.760614
0.016518 0.0864114 0.134452 -0.919756 0.150571 -0.36246
-0.00993749 -0.0337624 0.191752 -0.923862 -0.270627 -0.270628
-0.0136957 0.176932 0.300459 0.810006 0.363057 -0.460521
-0.00327104 -0.152712 0.405798 -0.37136 0.808112 0.457217
0.00833904 0.212118 0.425346 -0.141846 -0.178958 -0.973578
-0.0246834 -0.232254 0.341499 -0.528986 -0.626288 0.572658
-0.0224509 0.225037 0.256533 0.921099 -0.248888 -0.299386
0.0263825 -0.303265 0.187801 0.852372 -0.509426 -0.118096
-0.0101989 0.274809 0.335677 -0.923004 -0.0402217 0.382681
-0.00722993 -0.385499 0.323548 -0.382366 -0.400902 0.83251
0.125868 -0.185709 0.571628 0.356824 0.185565 0.915556
0.00404199 -0.196313 0.0394771 0.382385 0.552653 -0.740511
0.0147012 0.160344 0.281575 0.848342 -0.391902 0.35599
-0.00992983 -0.221083 0.113548 -0.852661 -0.204394 -0.480824
0.00314088 -0.104745 0.33296 0.38303 0.651025 0.655327
-0.00974972 -0.122289 0.279637 -0.923862 -0.270627 -0.270628
-0.0278279 0.0689698 0.101704 -0.999987 0.00362981 -0.00364906
0.0105723 0.457339 0.164377 0.923003 0.384792 0
0.000260769 0.115236 0.143131 0.265597 -0.960042 -0.0881935
-0.0106521 0.117521 0.193488 -0.848334 -0.528006 0.0392349
0.0147596 0.0590094 0.138215 -0.377376 -0.0885864 0.921813
0.00795982 -0.0417261 0.21198 0.923897 0.270568 0.270568
-0.00774166 0.236838 0.319603 -0.790467 0.189269 -0.582529
-0.00614659 0.227498 0.275239 0.000382704 -0.865991 -0.50006
-0.0376062 -0.0157107 0.123834 0.999986 0.00521104 0.000108343
0.00437486 -0.126403 0.135455 0.177212 0.964248 -0.197034
0.0109473 -0.130869 0.218722 0.553963 0.799983 0.230547
0.00127785 0.475994 0.184781 0.265502 0.960799 0.0798329
-0.0321261 0.0145963 0.102768 1 0 0
-0.102946 0.0976552 0.190886 0 0.267235 0.963631
0.0207093 0.281211 0.134609 -0.852616 0.518679 0.0633789
0.00990929 0.200356 0.308689 0.923001 -0.192398 0.333244
-0.00144996 -0.173681 0.287882 -0.38222 0.684048 0.621277
0.13744 -0.155977 0.562921 0.294529 0.220893 0.929763
-0.00905821 0.409615 0.0540281 -0.923011 0.257458 -0.285949
0.0786531 -0.0389268 0.0850007 0 -0.707107 0.707107
0.0502863 -0.211231 0.559234 -0.311826 0.598557 0.737899
0.0119263 -0.184764 0.455052 0 -0.342064 -0.939677
-0.0104879 -0.0160886 0.175957 -0.923862 -0.270627 -0.270628
-0.00740857 -0.328453 0.005275 -0.923478 -0.0490645 -0.3805
-0.0102122 0.45325 0.205566 -0.953158 -0.295862 -0.0628997
0.00691564 -0.154243 0.133364 0.999994 -0.00343591 0.0010198
0.00438947 0.454068 0.256857 -0.253304 -0.885464 -0.389604
0.000729039 -0.187799 0.0781631 0 -0.781826 0.623497
0.00687843 0.29936 0.172606 0 0.951039 -0.309069
-0.0371188 0.080473 0.124398 0.690604 -0.698057 0.189163
0.00242558 -0.226002 0.294998 0.852513 -0.35676 0.382026
-0.007685 -0.29936 0.0167754 -0.791516 0 0.611148
-0.0100574 0.190702 0.0509282 -0.953217 0.202272 0.22464
-0.0102304 0.0980203 0.282367 -0.923861 -0.346869 0.161747
-0.0103875 -0.438431 0.0815197 -0.923483 -0.328063 -0.198879
0.00440621 0.409522 0.300797 0.381303 0.61856 0.687016
0.0225389 -0.30114 0.204024 0.000168758 0.984804 0.173671
-0.0100583 0.447263 0.120185 -0.953159 -0.27632 0.123023
0.00346684 0.071281 0.244526 0.382686 -0.837318 0.390447
-0.00243722 -0.409804 0.0754186 -0.852656 -0.438034 0.284788
-0.037915 -0.26622 0.232591 -0.98835 -0.146059 0.0427809
-0.0340512 0.00871603 0.0745933 0.00497533 -0.361613 -0.932315
0.00338281 -0.282896 0.344938 0.382361 0.0591981 0.922115
0.0141064 -0.209521 0.318651 -0.89166 -0.243139 -0.381872
0.0145264 0.328076 0.342993 0.848341 0.0851036 0.522566
-0.0308126 -0.246686 0.267057 0.618584 0.728155 -0.295203
0.0687536 -0.0153098 0.0588884 0 0.707107 -0.707107
0.00778539 0.00343084 0.146787 0.923902 -0.27056 -0.270559
-0.00249436 -0.106583 0.280814 -0.382736 0.653265 0.653267
-0.00814169 0.108397 0.316548 -0.923841 -0.346914 0.161769
-0.00878999 0.295155 0.351796 0.253305 0.00422682 -0.967377
0.0277493 -0.300645 0.167476 -0.85262 -0.314228 0.417492
0.0148849 0.150178 0.342258 0.903482 -0.417252 -0.0980876
-0.09178 0.0829141 0.194974 -1.40833e-05 0.267231 0.963633
-0.0407734 0.211297 0.425023 -0.41842 0.0480337 -0.906983
-0.139214 -0.165824 0.563437 -0.759387 -0.0723171 0.646608
0.00970586 -0.170205 0.262435 0.953558 -0.247046 -0.172325
-0.00986344 -0.252155 0.330012 -0.923472 0.120903 0.364119
-0.0240303 -0.191416 0.535741 0.203439 -0.922071 0.329237
0.0108726 0.245834 0.343689 -0.810088 0.193279 -0.553534
-0.00181398 0.215607 0.337044 -0.265569 -0.463718 0.845245
-0.00933032 -0.305709 0.333296 -0.953498 0.0193121 -0.300782
-0.0413098 0.204415 0.453565 -0.528137 0.030887 0.848597
-0.0170405 -0.34758 0.126922 -0.000779562 0.642688 -0.766128
-0.00885709 -0.260109 0.346825 0.527097 -0.173247 -0.831958
-0.00340905 0.00649684 0.167199 -0.382736 0.653265 0.653267
-0.0202859 -0.274758 0.138309 -0.852547 -0.356706 -0.382
0.0461794 -0.192878 0.539631 0.402099 0.753756 0.519776
0.00161198 0.0626521 0.227839 0.382686 -0.837318 0.390447
0.0146036 0.16964 0.318226 -0.378693 -0.671851 -0.636559
-0.00776186 0.150132 0.374851 -0.923845 0.346905 -0.161764
0.00912749 -0.203847 0.383639 0.951059 0.288954 -0.109508
0.0101891 -0.17553 0.338172 0.923897 0.270568 0.270568
0.0167105 0.100979 0.140015 -0.919756 0.150571 -0.36246
-5.6053e-05 -0.132373 0.231815 0.169201 -0.947038 -0.272928
-0.0117277 0.271352 0.263215 0.000304079 -0.984798 -0.173701
0.00818603 -0.422624 0.0704432 0.791354 0.477992 0.38116
0.0125559 0.297864 0.348047 -0.810069 0.00255434 -0.586329
-0.00455914 -0.18983 0.362852 -0.38264 0.653295 0.653294
-0.00077782 -0.226821 0.329005 -0.382365 0.400905 0.832509
0.00811317 0.232606 0.0796288 0.852653 0.356534 -0.381925
-0.0067868 0.316746 0.0225306 -0.999993 -0.000392092 0.00373092
0.00567646 -0.0720063 0.283738 0.92372 -0.269991 -0.271746
0.000751615 -0.178252 0.531306 0 0.819158 0.573568
-0.00309678 -0.219425 0.357575 0 -0.341999 -0.9397
0.00708029 0.211517 0.0256759 0.381195 -0.462257 -0.80063
-0.00409138 -0.171382 0.505612 -0.96592 -0.212033 -0.148462
-0.0311631 0.233735 0.442863 -0.424811 0.896794 -0.123676
-0.0321261 0.0084973 0.122956 1 0 0
-0.00697072 -0.422207 0.166923 -0.852435 -0.152452 0.500113
0.00914755 -0.144809 0.170728 0.791378 -0.611013 0.0195999
-0.0174822 -0.246588 0.160195 0.852605 -0.314233 -0.41752
-0.000896305 0.186875 0.0389759 -0.381186 -0.618606 -0.68704
-0.0593312 0.0980979 0.180923 1 0 0
-0.00660342 0.391049 0.10183 -0.852664 -0.204391 -0.480821
-0.00735938 0.44814 0.144153 -0.79049 -0.599087 0.12736
-0.0282236 0.170174 0.185122 -0.999999 -0.00166932 -8.65621e-05
-0.028919 0.0574685 0.0782087 0.00488028 0.705647 -0.708547
0.0386068 0.213639 0.423736 0.414777 0.15576 -0.896493
-0.0123609 0.330889 0.345851 -0.84836 0.0850987 0.522536
0.00441049 -0.198862 0.438097 0.587743 -0.756539 0.286718
-0.0208655 0.253534 0.166803 -0.852388 -0.152443 0.500196
-0.00677865 -0.173234 0.250653 -0.999993 -0.00331442 -0.00172911
0.0113822 -0.395089 0.18096 -0.85276 0.152509 -0.499541
-0.00964145 -0.417736 0.286501 -0.953481 0.223162 -0.202664
0.0772215 -0.0290809 0.0669322 5.71497e-05 -0.707162 -0.707052
0.0104447 -0.444357 0.255107 0.953562 0.267041 -0.139316
0.0980063 -0.0262239 0.0746622 1 0 0
3.99323e-05 -0.477183 0.175962 -0.382308 -0.92356 -0.0296211
-0.0101154 0.443404 0.270841 0.809993 -0.490426 -0.321549
0.0161144 0.239341 0.135774 -0.852556 0.43813 -0.284939
0.00299803 -0.44136 0.131765 0.852472 0.027762 -0.522035
0.00443741 -0.204592 0.369585 0.587687 0.756576 -0.286737
-0.0141788 0.357555 0.334889 -0.848356 0.170189 0.501325
-0.0843448 0.0962888 0.191265 0 0.267235 0.963631
0.0210158 0.258491 0.152588 0.85255 0.204536 -0.480961
0.00950336 0.453323 0.192591 0.953268 -0.29552 -0.0628271
0.0194145 0.146233 0.448456 0.85161 -0.389382 -0.350917
-0.000133578 0.127935 0.369165 -0.382762 -0.83729 0.390434
-0.0119367 -0.226209 0.338324 0.722952 -0.0911887 -0.684854
0.0107528 -0.205363 0.393754 0.951059 0.288954 -0.109508
-0.00848678 0.206479 0.328415 0.253286 0.465288 -0.848147
-0.00145369 0.259028 0.350192 0.253309 0.163826 -0.953413
0.00409382 -0.193356 0.46228 0 -0.939706 0.341984
-0.00249158 0.0787581 0.215553 -0.382686 0.837319 -0.390446
-0.0210761 0.295833 0.178466 0 0 1
0.0309135 0.221967 0.164505 0.382714 -0.169525 0.90818
-0.0231437 0.29741 0.147627 0.852429 -0.466054 0.236978
0.0181099 0.181309 0.464202 0.292915 0.0610136 0.95419
0.0158837 0.125447 0.460237 0.974334 -0.212075 -0.0754872
-0.010362 -0.0783961 0.240027 -0.923857 0.270636 0.270637
-0.00882711 -0.183961 0.33816 -0.923845 -0.270658 -0.270657
0.0101136 0.134054 0.175521 0.953245 0.302199 0
-0.0222941 0.195719 0.425966 0.203503 -0.214901 -0.955198
-0.0139877 0.378612 0.324154 0.809994 -0.277584 -0.516581
0.0137538 0.46607 0.204765 0.848351 0.513143 0.130325
-0.00970583 0.153731 0.0976445 -0.953178 0.276267 0.122999
-0.00116732 -0.18231 0.470705 -0.3825 -0.868237 0.316003
-0.00937417 0.113581 0.456444 -0.399553 -0.47116 -0.786363
0.0114852 0.282806 0.350953 0.848368 -0.00231542 0.529401
-0.0265321 0.0335453 0.17626 1 0 0
-0.00977805 -0.144161 0.194936 -0.953482 -0.300057 -0.0289454
-0.00686651 0.0563504 0.171787 -0.382667 0.837326 -0.39045
-0.00647871 -0.141807 0.118714 -0.382384 0.885797 -0.262955
0.00168994 -0.218658 0.0498292 0 -0.59812 0.801407
-0.0378883 0.0945666 0.173025 1 0.000960807 4.97091e-05
0.00691293 -0.0388646 0.188216 0.382713 -0.653274 -0.653272
-0.0262693 -0.0175843 0.116653 0.999986 0.00513522 0.0014553
-0.00679046 0.308145 0.326997 -0.999993 -0.000392166 -0.00373085
0.00531693 -0.178227 0.166655 -0.852376 -0.15244 0.500218
0.00211183 0.403184 0.319097 0.265589 0.590222 0.7623
-0.0345677 0.018534 0.165556 -1 0 0
0.0691067 -0.0262199 0.0792665 1.66599e-06 0.707095 0.707119
-0.0279032 -0.229429 0.314729 0.561421 0.648099 -0.514562
-0.0075755 0.190299 0.307559 -0.922993 -0.257491 0.285977
-0.026022 0.289688 0.16023 -0.852657 -0.438032 0.284788
0.010103 -0.124948 0.155229 -0.715108 -0.695189 0.0730256
-0.00282431 -0.429227 0.256141 0 0.820176 -0.572112
0.00441192 0.177363 0.0494223 0.381241 -0.618591 -0.687023
-0.00687214 0.100007 0.302668 -0.382686 -0.837318 0.390449
0.0290713 0.165884 0.440692 0.71311 -0.607594 -0.349719
0.00035615 0.366888 0.0357174 0.852586 0.50912 0.117874
0.123584 -0.203582 0.566266 0.282642 -0.429599 -0.857647
0.0107068 0.0959269 0.275861 0.923881 -0.346827 0.161727
-0.0216851 0.188918 0.305624 -0.38049 0.680703 0.625996
0.0116458 -0.207981 0.16619 0.852436 0.152452 0.500111
0.00690205 0.262622 0.321438 0.999994 0.00111126 -0.00342
0.000625236 0.113332 0.18122 0.26561 -0.96143 0.0714369
0.00487224 -0.16353 0.289072 0.177277 0.788108 0.589456
-0.00677866 0.29141 0.324865 -0.999993 0.000392131 -0.00373085
0.00679371 -0.183535 0.442541 0.918941 -0.343238 -0.194253
-0.026283 -0.0178251 0.133201 0.999985 0.00527948 0.00129162
0.0142763 0.434635 0.274046 -0.810044 -0.490371 -0.321504
0.00296142 -0.0492105 0.260734 0.38499 -0.624529 -0.679519
-0.00793936 0.0564059 0.206209 -0.923841 -0.346914 0.161769
-0.00968562 0.229273 0.0223825 -0.923005 -0.118906 -0.365956
-0.0364579 -0.0188749 0.1456 0.623528 0.761875 -0.175382
-0.00290097 0.154285 0.414872 -0.382707 -0.837301 0.390464
-0.0102336 0.139034 0.224513 -0.92301 -0.35151 0.156501
-0.0224853 -0.27134 0.169402 -0.852494 -0.0277454 -0.522
-0.00885347 -0.164065 0.330845 -0.923857 0.270636 0.270637
0.0402308 0.194488 0.454453 0.521266 -0.0622979 0.851117
-0.0141054 -0.132288 0.152586 0.891604 -0.451331 0.0366381
0.00280039 0.218585 0.0550576 -0.852388 0.509403 -0.118078
0.0105702 0.134407 0.148331 0.953246 0.295592 0.0628332
0.00420575 -0.17078 0.0648723 0.38237 0.72243 -0.576097
-0.00169083 0.314867 0.354214 -0.265541 0.154971 0.951563
0.010173 -0.299706 0.17136 0 0.923948 -0.382519
0.00570703 0.0247371 0.142516 0.382686 -0.837318 0.390447
0.0100819 0.0542427 0.190038 0.923901 -0.346781 0.161707
0.00943519 0.253078 0.020558 0.953256 0.0933783 0.287375
-0.0278376 -0.00233169 0.093846 -0.999987 -0.00380111 -0.00341917
0.0054388 -0.368966 0.332389 0.382406 -0.400898 0.832494
0.0098515 -0.0229313 0.186727 0.923887 0.270585 0.270586
-0.00516237 0.0338631 0.134136 5.09365e-05 0.70713 -0.707084
-0.122428 -0.176167 0.561203 0.933981 0.337747 -0.11665
-0.0126112 -0.318485 0.348781 0.891581 0.0161858 -0.452573
0.00251353 -0.292598 0.0238375 0 -0.127861 0.991792
-0.0321261 0.0553637 0.12498 1 0 0
-0.00856484 -0.451927 0.251714 -0.923474 -0.340152 0.17746
0.00641348 -0.0118912 0.237064 0.922432 -0.178245 -0.342561
-0.024022 -0.236251 0.328508 0.763753 -0.548067 -0.341034
-0.00504186 0.0354843 0.119174 -0.0013193 0.587837 -0.808978
-0.0190445 0.238437 0.446862 -0.230379 0.961031 -0.15279
-0.000586193 -0.292964 0.346692 -0.382278 0.0592003 0.922149
-0.0267801 0.133895 0.142619 -0.38317 0.152075 -0.911073
-0.11208 -0.20814 0.570797 0.85409 0.199771 -0.480231
-0.0391821 0.0657328 0.11073 -0.999985 0.00521585 -0.00141344
-0.00568836 -0.215513 0.332333 -0.177328 0.528556 0.830171
-0.0203115 0.222177 0.422813 0.178691 0.168155 -0.969429
-0.0034948 0.401842 0.308149 -0.381263 0.618583 0.687018
-0.0551343 0.0661816 0.165849 -0.934133 -0.252357 -0.252412
0.00394422 0.289055 0.0239676 0 0.104532 0.994521
0.00140652 -0.214079 0.400053 0 -0.935098 0.354389
0.0179242 0.237089 0.439159 0.089318 0.965158 -0.245951
-0.0345677 0.285082 0.18003 -1 0 0
-0.00265848 0.038326 0.174524 -0.382686 -0.837318 0.390449
-0.037815 0.0168235 0.150897 0.99999 0.00441866 0.00108046
-0.0247673 0.0906771 0.134972 -0.921627 0.0044728 -0.388051
0.000765834 0.162542 0.244511 0 0.913564 -0.406696
0.0135652 -0.270362 0.345774 0.926259 0.0768395 0.368972
-0.00677611 0.385071 0.0533263 -0.999993 -0.00251026 0.00278796
0.0293206 0.190368 0.15932 0.382809 -0.167482 0.908519
0.0117104 -0.226634 0.332715 -0.526943 -0.366901 -0.766626
0.00645976 -0.170035 0.430504 0.918878 0.343379 0.194301
0.00690839 0.150465 0.223487 0.999994 0.00328462 -0.00146223
-0.00651942 0.42491 0.0633189 -0.381219 0.74792 -0.543403
-0.00679542 0.268526 0.0206884 -0.999993 0.000392125 0.00373124
-0.00817433 -0.19447 0.441716 -0.587744 -0.756537 0.286722
-0.0355242 0.127035 0.180111 -0.999998 -0.000383142 -0.00184236
0.0131822 0.397311 0.313738 -0.810032 -0.358998 -0.463647
-0.0276198 -0.306078 0.179214 -1 0 0
-0.00577958 0.166581 0.468865 -0.103226 0.178722 0.97847
0.00754192 -0.124588 0.342321 0.92372 -0.269991 -0.271746
-0.00445274 -0.160163 0.394709 -0.371628 -0.807963 -0.457261
0.00837373 -0.431758 0.283035 0.923474 -0.284013 0.257938
0.00502973 0.461619 0.136708 0.381185 0.904295 -0.19222
0.00709013 0.361121 0.274017 0.852675 -0.356496 0.38191
-0.00163209 0.420498 0.255495 0 -0.809018 -0.587784
-0.0322389 0.073072 0.0860342 0.00121209 0.753281 -0.657697
-0.0101332 0.131647 0.183373 -0.923002 -0.384796 0
0.0105623 -0.152256 0.313623 0.923887 0.270585 0.270586
0.00798569 0.277029 0.329545 0.7903 0.0640527 -0.609363
0.00810758 0.149391 0.0875947 0.923006 -0.311297 -0.226173
0.0379966 -0.234885 0.316961 0.980339 -0.0865386 0.177333
0.00512787 0.120816 0.215457 -0.253256 0.939672 -0.229954
-0.00849099 -0.158744 0.0891534 -0.923468 0.328095 -0.198897
0.0135035 -0.128807 0.189903 0.926228 0.376668 0.0149027
-0.0086776 0.137083 0.160763 -0.790443 0.612535 0
-0.0380391 0.197368 0.183047 0.999998 0.00179083 9.28601e-05
-0.0142199 -0.164951 0.277658 -0.926191 0.301936 0.225845
0.0362141 -0.293208 0.183023 0.913353 0.306381 -0.268173
-0.00373936 0.146787 0.362665 -0.382667 0.837326 -0.39045
-0.0386798 0.0323364 0.131781 -1 0 0
0.00268627 0.158655 0.0690461 0.381212 -0.747929 -0.543396
-0.0614678 0.0849224 0.194417 1.87995e-06 0.267223 0.963635
-0.0262709 0.0453986 0.0828027 0.999986 -0.00137974 0.00503068
0.00261069 0.106278 0.274565 0.382667 0.837326 -0.39045
-0.0205256 0.267521 0.207433 -0.852686 0.356478 0.381902
-0.0461071 0.042192 0.150379 0 -0.707162 0.707051
-0.0091609 -0.214672 0.38287 -0.951018 -0.289072 0.109556
0.000929007 -0.121645 0.176313 0.177328 0.983382 0.0389288
-0.0341837 0.273284 0.173685 0 -0.411685 0.911326
-0.00308855 0.336411 0.00691945 -0.381118 0.285701 -0.879275
-0.00858331 0.355163 0.084669 -0.000360204 0.866056 0.499948
0.00383348 0.177649 0.267063 0 0.809003 -0.587805
0.00555277 0.208265 0.296609 0 0.499996 -0.866028
0.00314329 0.130342 0.122528 0.381243 -0.904272 -0.192215
-0.00928142 -0.281927 0.331725 -0.95349 -0.0576178 -0.295865
-0.0341043 -0.262318 0.258846 0.397574 -0.86452 0.307475
-0.00754434 -0.100592 0.320327 -0.923745 0.269938 0.271714
-0.116225 -0.208116 0.579731 -0.354134 0.178779 0.917947
0.00779707 -0.10985 0.260108 0.923902 -0.27056 -0.270559
-0.0316154 0.247561 0.186929 0.999998 -8.19717e-05 0.00193107
0.00179923 0.154083 0.286291 -0.2533 0.716079 -0.650438
0.00329141 -0.172403 0.100539 0 -0.855117 0.518435
-0.00740942 0.0690464 0.235747 -0.382686 -0.837318 0.390449
0.00951745 0.183418 0.287337 0.953279 0.202138 -0.224498
0.010357 0.285784 0.0123015 0.953252 0.0315862 0.30052
-0.0287614 0.00594779 0.173849 0.617611 -0.339943 0.709222
-0.0282013 0.156852 0.181313 -0.999999 -0.0015017 -7.78703e-05
-0.0322242 0.277564 0.145686 -0.00193889 -0.22292 0.974835
0.113232 -0.196961 0.58052 0.357195 0.876931 -0.321564
-0.0395152 0.151406 0.177119 -0.999999 -0.0015437 -7.99034e-05
0.0126101 0.375866 0.327984 -0.81003 -0.277531 -0.516554
-0.00577812 -0.200359 0.320996 0.169348 -0.529318 -0.831351
0.00763039 -0.457929 0.202258 0.79141 0.595962 -0.136013
-0.00593161 -0.246953 0.286634 -0.852592 0.509111 -0.117867
0.00823078 0.145485 0.366855 0.92389 0.346807 -0.161718
0.00525656 0.127573 0.237706 -0.253251 0.888832 -0.381892
-0.00975881 0.454918 0.251352 0.253304 -0.885462 -0.389608
-0.0290262 0.107494 0.184428 5.51269e-06 -0.0441373 0.999025
-0.00594728 -0.332158 0.291961 -0.000605562 -0.984826 -0.173541
-0.00376077 -0.399056 0.03061 -0.38225 -0.552656 -0.740579
-0.0365716 -0.245105 0.307044 -0.617965 -0.745944 0.248368
0.00418638 0.00584064 0.226749 0.383977 -0.179321 -0.905763
