-0.0072181 0.327722 0.301203 -1 -8.62385e-07 1.23333e-05
-0.00382719 -0.242416 0.21413 -0.959423 0.204472 -0.194162
0.00561061 0.115879 0.191875 0.76807 -0.618661 0.165313
-0.00857157 -0.269752 0.0301663 -1 9.04102e-06 -1.06844e-05
0.00407198 0.205393 0.105494 0.455193 0.825542 0.333587
0.000283323 -0.218693 0.349844 0.156499 -0.884632 0.439242
0.00732763 0.0388317 0.177871 0.988056 -0.0879775 -0.126514
-0.108616 -0.178565 0.49384 0.242584 -0.898665 -0.365451
-0.0298974 0.0850945 0.133914 1 0 0
-0.00652938 -0.179751 0.141944 -0.704106 0.705531 -0.0803854
-0.0447361 -0.15699 0.496832 0.00774564 0.037731 -0.999258
-0.0331809 0.215043 0.149228 -0.650782 -0.182802 0.736931
0.00571622 0.457624 0.0743017 0.704064 0.570857 -0.422394
0.00502875 0.169863 0.353908 -9.61729e-05 0.258032 0.966136
0.00689599 -0.246668 0.270427 1 0 0
-0.0080269 -0.219529 0.314823 -0.0646537 0.812846 -0.57888
-0.0203868 0.185919 0.144646 0.811313 0.0486059 0.582588
-0.00857149 -0.447859 0.237964 -1 -1.15668e-05 7.22698e-06
-0.00733543 -0.46164 0.229435 -0.70403 -0.570877 0.422423
-0.0468829 0.305119 0.187408 -0.928413 -0.341699 -0.145915
0.010045 -0.340776 0.153836 -1 0 0
-0.00704782 -0.139834 0.493345 -0.939596 -0.302787 0.159622
-0.00358055 -0.115634 0.27351 -0.668079 -0.415515 -0.617266
-0.0226379 0.328266 0.163365 1 0 0
-0.00832666 -0.461078 0.216299 0 -0.92051 0.390718
0.0085758 0.241682 0.0466266 1 0 0
0.0334481 0.325612 0.168858 -1 0 0
-0.0177359 0.354915 0.161091 1 0 0
-0.00249158 -0.464908 0.187982 -0.256688 0.96028 -0.109426
-0.0245517 0.107794 0.103319 1 0 0
-0.0483296 -0.284411 0.219703 0.245335 -0.8144 0.525892
-0.00279155 0.465623 0.207447 0 0.927192 0.374587
-0.00820225 0.160161 0.32215 -0.890961 0.438689 -0.117224
-0.0201918 0.316951 0.146216 -1 0 0
0.00490589 0.249441 0.287983 0.704014 -0.442103 0.555796
-0.00856942 -0.369042 0.0233068 -0.462707 0.214458 0.86018
-0.023475 0.321626 0.15969 -1 0 0
0.00639171 0.115756 0.155647 0.761338 0.626111 -0.168373
0.00676419 -0.351349 0.295154 0.965365 0.038569 -0.258036
-0.00587338 -0.249715 0.0253786 -0.704052 0.442083 -0.555763
-0.0387488 -0.250726 0.263987 0.87402 0.374959 -0.309022
-0.00819385 -0.416352 0.275573 -0.965363 -0.162429 0.204183
-0.132782 -0.149421 0.508715 0.0179066 0.453676 0.890987
0.00633273 0.28536 0.0122317 0.704071 -0.260252 -0.660721
-0.000598532 -0.169041 0.43995 -0.000182847 0.4219 0.906642
0.0048 0.47246 0.130768 0 0.970297 -0.241916
0.00285951 -0.184682 0.107157 0.256611 0.899262 -0.354229
-0.00857149 -0.468001 0.114387 -1 -1.32909e-05 -3.06912e-06
-0.0048306 -0.191156 0.151607 -0.70412 -0.705515 0.0803924
0.0334481 0.328044 0.162177 -1 0 0
-0.00566628 -0.15573 0.465912 -0.767477 -0.583089 0.266431
-0.0268401 0.0896728 0.176037 0 0.310415 -0.950601
0.110725 -0.152453 0.509475 1.5829e-06 0.121845 0.992549
0.00532967 -0.450546 0.0815707 0.704036 0.555782 0.442086
-0.00820476 -0.107413 0.273402 -0.909759 -0.23216 -0.344152
-0.00508507 0.157456 0.315469 -0.866088 0.482878 -0.12931
0.00120379 -0.243788 0.0387328 0 0.642776 -0.766054
0.109161 -0.156909 0.494251 3.56945e-06 -0.121526 -0.992588
0.00190486 -0.227794 0.326503 0.588301 -0.723773 0.360632
-0.038772 0.132834 0.0652621 -0.714472 0.669065 0.204648
-0.0298662 0.175245 0.401915 -0.986907 -0.130733 -0.0944692
-0.00392883 -0.0789543 0.387058 -0.51113 0.162219 0.844056
-0.00762524 -0.292156 0.017947 -0.704072 -0.104961 0.702329
-0.023475 0.327056 0.145408 -1 0 0
-0.0113308 -0.321004 0.162165 1 0 0
-0.0255667 0.259032 0.177187 0 -0.00638756 -0.99998
0.00421156 -0.45125 0.224776 0.704099 0.570819 -0.422386
0.032365 -0.246496 0.285323 -0.882107 -0.432215 0.18729
-0.024274 0.322396 0.169425 1 0 0
-0.00814731 -0.216104 0.0598305 -0.965367 0.209723 -0.155189
-0.00857151 -0.233096 0.0510026 -1 8.76667e-06 -1.0448e-05
-0.00608653 -0.0411516 0.226054 -0.593711 -0.447975 -0.66845
0.00640351 -0.128688 0.287151 0.766617 -0.357304 -0.53351
-0.00798348 -0.361163 0.0138107 0 -0.241905 -0.9703
-0.00884884 -0.269601 0.0228932 -0.965357 -0.104049 0.23929
-0.00425552 0.190714 0.0969153 -0.704144 -0.651169 -0.283127
-5.64267e-05 0.046189 0.363757 0.140322 0.187152 0.972257
0.0341022 -0.258525 0.265747 -0.882107 -0.432215 0.18729
0.0108062 -0.345414 0.153368 0.70213 0.499935 -0.507029
-0.0208775 0.0785812 0.129011 1 0 0
0.00566495 0.134985 0.342837 0.881611 0.0866099 0.463962
-0.00114354 0.264121 0.0184145 -0.256719 -0.354211 -0.899239
-0.0116696 0.340204 0.158818 -1 0 0
-0.036573 0.229728 0.148783 -0.896496 -0.17888 0.405335
-0.025067 0.248498 0.248406 0.954629 -0.102373 -0.279649
-0.00124767 0.230522 0.0610275 -0.256831 0.756355 0.601636
0.000359673 0.200984 0.109672 -0.256651 0.886348 0.38538
0.0249931 0.170732 0.136814 0.679385 0.0230311 -0.73342
0.00479811 -0.45289 0.0787964 0 -0.857143 -0.515078
0.00689589 -0.464261 0.104991 1 0 0
-0.00702569 -0.192616 0.0937635 -0.704077 0.660707 -0.260271
-0.0193547 0.33767 0.171984 1 0 0
0.00178057 -0.146927 0.461115 0.499972 0.785102 -0.365571
-0.00523755 0.187396 0.132542 0 -0.974369 -0.224956
-0.00408315 0.0185388 0.183734 -0.668079 -0.415515 -0.617266
-0.00622361 -0.151839 0.300355 -0.593711 -0.447975 -0.66845
-0.086125 -0.150148 0.500641 0.0480165 0.959206 -0.2786
0.0301528 0.266994 0.156235 -0.512409 -0.0384602 0.85788
-0.00597235 -0.415252 0.265556 -0.704046 0.44208 -0.555774
-0.0162748 0.206132 0.420033 -0.131499 0.632443 0.763364
-0.0068049 -0.345804 0.015548 -0.704071 0.0803844 0.705565
-0.00720308 0.126918 0.23322 -0.708169 -0.682554 0.180599
0.0679482 -0.156752 0.496653 -0.00776759 0.0381864 -0.99924
0.0206317 0.238188 0.263855 -0.838423 0.456747 0.297369
-0.0932255 -0.161759 0.506997 -0.0452909 -0.797456 0.601675
-0.00277871 0.163333 0.364278 -0.342206 -0.907642 0.243067
0.00291271 0.0668213 0.169803 0.460961 0.495996 0.735869
-0.000343235 0.398963 0.259651 0.540984 -0.758621 0.363085
0.0085758 0.195959 0.189434 1 0 0
-0.00368637 0.251682 0.0356591 0 -0.529905 -0.848057
0.00728439 0.318102 0.301176 0 -0.0697528 0.997564
-0.0116696 0.320792 0.164439 -1 0 0
-0.0357155 0.120848 0.0685481 0.160564 -0.920135 -0.35717
0.00689599 -0.284642 0.285611 1 0 0
0.0329241 0.249832 0.247673 0.991283 -0.0358369 0.126781
-0.00400968 -0.427255 0.0368508 -0.256683 -0.574884 -0.776932
-0.00332629 0.334675 0.159883 0.0340809 0.757272 0.65221
0.00454695 0.29297 0.287285 0.455225 0.200333 -0.867547
-0.00429251 -0.482969 0.144846 -0.256713 -0.955874 -0.142841
-0.0303346 0.0744758 0.168003 0 0.64516 -0.764047
-0.0117209 -0.158182 0.494931 -1 0 0
-0.00857152 -0.471084 0.168018 -1 -1.35867e-05 1.18871e-06
0.00587283 -0.348264 0.011522 0 -0.0871631 -0.996194
-0.0409935 0.318507 0.165385 -1 0 0
0.00509903 0.344263 0.291878 0.366346 -0.107765 -0.924217
0.00372807 -0.0900721 0.274587 0.511296 0.481616 0.711775
0.00229787 -0.209131 0.323449 0.156374 0.895262 -0.417197
0.00734721 0.118638 0.175904 0.972614 0.224483 -0.0602478
0.00714108 0.413626 0.0440239 0.704135 -0.442039 0.555694
-0.0470048 -0.249609 0.266932 -0.875215 0.468122 -0.121908
0.00898301 0.371746 0.148629 -0.517543 0.371286 0.770906
0.00164116 0.163184 0.317677 0.371468 0.897099 -0.239217
-0.00780909 0.337531 0.157768 1 0 0
-0.00151973 0.309449 0.0507716 0.958842 0.283928 -0.00249308
0.00128893 0.243539 0.0502886 0.256691 0.574893 0.776922
0.00197069 0.445488 0.203858 0.543497 -0.190013 0.817622
0.0148484 0.19564 0.300154 -0.754959 -0.355571 -0.551005
-0.0053651 -0.483026 0.150276 -0.704089 -0.702314 -0.104943
-0.00767172 -0.467462 0.118953 -0.704062 0.702339 0.104958
-0.0210649 0.196612 0.311057 -0.614284 0.49861 0.611591
0.000975295 -0.462632 0.212637 0 -0.92051 0.390718
0.028714 0.243714 0.154097 -0.121298 -0.103808 0.987173
0.000972421 0.447919 0.222206 0 -0.857156 -0.515057
0.00744709 0.157649 0.420892 0.108112 -0.0322524 0.993615
-0.00660953 0.34156 0.298513 -0.965366 -0.0295379 -0.259222
0.00689594 -0.2101 0.079395 1 -2.62559e-06 -3.54848e-06
-0.00886368 0.0779642 0.150091 -0.909759 -0.23216 -0.344152
0.00187202 -0.229533 0.250066 0.256818 -0.756343 -0.601656
0.0359468 0.28957 0.159808 -0.121556 -0.103776 0.987145
0.0877661 -0.162626 0.505885 0.0452802 -0.797425 0.601717
0.00349511 -0.167208 0.403327 0.511508 0.162923 0.843691
-0.00264802 0.336142 0.00350776 -0.256815 0.142862 -0.955843
-0.00508059 -0.0365398 0.22189 -0.668079 -0.415515 -0.617266
0.00496001 -0.465871 0.087999 0.704091 -0.65121 -0.283163
0.0402865 -0.337497 0.153463 1 0 0
-0.00212816 -0.227751 0.0619429 -0.256731 -0.77691 0.574891
-0.0072182 0.472438 0.143009 -1 1.22533e-05 -1.07205e-06
-0.00207297 -0.150299 0.386556 -0.235478 -0.182746 -0.954544
-0.0704648 0.13947 0.0575489 0 -0.0174525 0.999848
-0.0282343 0.0566491 0.133277 0.687404 -0.726137 0.0141635
0.00652147 -0.221048 0.0601153 0 0.754713 -0.656055
0.00630315 -0.465249 0.178818 0.462675 0.860199 -0.214453
-0.0199114 0.198367 0.3103 -0.248072 0.681519 0.688471
0.00388501 -0.135268 0.494189 0.000350573 0.421863 0.90666
-0.0193891 -0.332972 0.156667 -0.0456782 -0.873993 0.483787
-0.0042955 0.000853181 0.195869 -0.668079 -0.415515 -0.617266
-0.0440593 0.136084 0.0574898 0 -0.0174525 0.999848
-0.00785235 -0.104415 0.281942 -0.879582 0.266299 0.394233
-0.0651786 -0.158377 0.507064 -0.022361 -0.347927 0.937255
-0.00432342 0.358946 0.0207059 -0.703969 -0.104991 0.702428
-0.00857155 -0.469468 0.163149 -1 -1.35867e-05 1.18871e-06
0.00512567 -0.444241 0.243995 0 -0.754699 0.656071
-0.00330439 -0.185287 0.151426 0 0.996198 -0.0871153
-0.00124367 -0.192046 0.222654 -0.256756 0.886324 0.385365
-0.006609 0.0213372 0.198686 -0.71916 0.388695 0.575956
-0.00655903 -0.386138 0.198493 0.964238 -0.0442624 -0.261318
-0.0271322 0.215143 0.289754 -0.879282 0.250554 0.405075
0.00687026 -0.0492465 0.242428 0.977878 0.11575 0.174233
0.00728809 0.347324 0.213896 -0.963253 0.184019 -0.195654
0.00109585 -0.332286 0.290267 0.349673 0.0653628 -0.934589
0.00411598 -0.17149 0.312581 0.356784 -0.521781 -0.774887
0.00895779 0.382291 0.0216443 0.965361 -0.104043 0.239277
-0.00108194 -0.44373 0.0512076 -0.256662 -0.756378 -0.601678
0.0345403 0.28034 0.148113 -0.0746425 0.127196 -0.989065
-0.0296368 0.0767268 0.0990622 0 0.616513 0.787344
0.00157783 -0.294227 0.00552709 0.256881 0.142862 -0.955826
0.00613081 0.395133 0.020329 0.704037 0.283165 -0.651268
-0.00348588 -0.234808 0.0462679 0 0.642776 -0.766054
-0.0293046 0.333524 0.156895 -0.01089 0.874506 -0.484893
-0.00723792 -0.220673 0.323512 -0.000197786 -0.430538 -0.902573
0.0240241 0.169467 0.144437 0.819291 -0.166151 0.548777
-0.00576065 -0.396217 0.291561 -0.703959 -0.283225 0.651326
-0.00658634 -0.362832 0.0228253 -0.462707 0.214458 0.86018
-0.0290346 0.178413 0.105296 -0.687414 0.159648 -0.708501
0.00689599 -0.230056 0.249608 1 0 0
0.00356535 0.18745 0.101494 0.256735 -0.886327 -0.385373
0.129399 -0.150364 0.494481 -0.03364 0.54402 -0.838398
0.00610583 0.28475 0.289532 0.704068 0.283158 -0.651237
-0.00053739 0.480685 0.124168 -0.256687 0.960281 -0.109413
-0.00448458 -0.474433 0.163308 0 -0.996194 0.0871582
-0.0324378 0.243129 0.260554 -0.618375 0.50846 0.599234
0.0134051 0.19953 0.397095 0.232972 0.116929 -0.965428
0.0455533 -0.299615 0.187043 0.883266 0.35707 -0.303879
0.0396884 0.285467 0.151179 0.913955 -0.0678893 -0.400096
-0.0295994 0.123527 0.0940929 0 -0.205903 0.978572
-0.00256652 0.253724 0.0343836 0 -0.529905 -0.848057
-0.00711294 0.454229 0.0985445 -0.455057 -0.819679 0.347922
0.00957555 0.177127 0.421252 0.108405 -0.0240489 0.993816
-0.00020072 -0.132429 0.491066 0.173565 0.892782 -0.41571
-0.028537 0.133052 0.106017 0 0.887745 0.460336
0.004789 -0.185655 0.338501 0.511296 0.481616 0.711775
0.00615669 -0.359132 0.00728221 0.704065 -0.0803863 -0.705571
0.00394252 -0.159953 0.436988 0.766131 0.582621 -0.271287
0.0436781 0.0690733 0.209703 0 0.0174599 -0.999848
-0.0185731 0.338242 0.136977 -1 0 0
0.0362641 0.322557 0.168819 1 0 0
0.00886715 0.477129 0.162117 0.965362 0.258049 0.0385598
0.00838672 0.394406 0.290805 0.965366 0.0956223 0.242745
0.0284023 0.327777 0.156716 -0.00569611 -0.857477 -0.514491
-0.023475 0.315564 0.169141 -1 0 0
0.00902394 0.322483 0.11799 -0.963128 -0.184439 0.195876
-0.00538482 0.197294 0.110782 -0.704081 0.651228 0.283145
0.0048421 0.194346 0.149546 0.332748 0.940715 0.0658312
0.00733582 -0.0142978 0.217325 0.883816 0.263738 0.38641
0.00384547 0.152905 0.314976 0.866226 -0.482646 0.129248
0.00832649 0.473268 0.164541 0.965364 -0.25804 -0.0385638
-0.0245517 0.0972015 0.102893 1 0 0
-0.0381776 0.337168 0.153282 1 0 0
-0.00253572 -0.135326 0.383804 -0.235478 -0.182746 -0.954544
-0.00830512 -0.471557 0.110157 -0.965384 -0.239201 -0.104001
-0.0213345 0.0910967 0.11967 0 0.390763 0.920491
0.0133808 0.185714 0.396026 0.201532 0.0046615 -0.979471
3.05815e-05 0.0191454 0.36895 0.140322 0.187152 0.972257
-0.0071894 -0.391741 0.285997 0 -0.37461 0.927183
-0.027562 0.144334 0.179655 0.687222 -0.00370923 0.726438
-0.00895901 -0.121388 0.285258 -0.988348 -0.0851193 -0.126184
-0.00366234 0.460914 0.111327 -0.704116 -0.660679 0.260239
-0.046229 -0.311042 0.167766 0.881403 0.355731 -0.31078
-0.010043 -0.220869 0.312705 -0.0769504 0.910329 -0.406669
0.00215996 0.185385 0.395159 0.0298192 0.0174614 -0.999403
0.00748767 0.152254 0.313475 0.987681 -0.151179 0.0403975
0.0623292 0.078331 0.209864 0 0.0174599 -0.999848
-0.00793571 -0.231187 0.319003 0.11067 -0.954695 0.276242
-0.00584326 0.275121 0.0275498 -0.704077 0.260264 0.660711
0.00513396 -0.436268 0.263611 0.703974 -0.442122 0.555831
0.00374843 -0.449299 0.0599964 0.70407 -0.555752 -0.442069
0.00352067 0.237208 0.27873 0.256821 -0.601637 0.756357
0.00143804 0.378286 0.0342582 0.517136 -0.808911 -0.279702
-0.00334529 -0.216155 0.0834231 0 -0.848059 0.529902
0.00169303 -0.371944 0.0234188 0.256935 0.354197 0.899182
0.00701027 -0.461364 0.226248 0.965361 -0.242761 0.0956285
-0.00114698 -0.287446 0.293363 0 0.241915 0.970298
0.000679762 -0.349168 0.0216797 0 0.0738365 0.99727
-0.0106752 -0.193378 0.380332 -0.987676 -0.140186 0.0696051
0.0317929 0.272323 0.231858 0.249967 0.681838 0.687469
-0.00412876 -0.191468 0.151168 -0.256682 -0.960282 0.109423
0.118082 -0.157818 0.505367 0.0431684 -0.824372 0.564399
0.000200314 0.23273 0.0588702 -0.256831 0.756355 0.601636
-0.0177359 0.333735 0.183275 1 0 0
-0.00431867 -0.411757 0.266623 -0.256642 0.601663 -0.756397
-0.00857151 -0.278311 0.287938 -1 5.32833e-06 1.25533e-05
0.00835516 0.21013 0.237943 0 -0.848085 0.529861
-0.0275203 0.327111 0.166596 1 0 0
-0.00715541 -0.379196 0.282387 -0.462588 0.332157 -0.822
-0.0072182 0.188697 0.132413 -1 -1.19846e-05 -2.76681e-06
-0.0245517 0.130207 0.120348 1 0 0
-0.00857158 -0.258686 0.0377964 -1 7.02434e-06 -1.16897e-05
-0.00971326 0.17485 0.321068 0.044157 -0.729909 -0.682116
0.00754839 -0.0273836 0.22375 0.999999 -0.00105077 0.000489147
0.00899311 0.301517 0.300192 0.96538 -0.038561 0.257982
0.010975 0.167743 0.395522 0.200577 -0.0105402 -0.979621
0.00689599 -0.343012 0.296568 1 0 0
-0.00721359 0.0782994 0.146894 -0.668079 -0.415515 -0.617266
-0.0373133 0.276643 0.158151 0.121138 -0.100439 0.987541
0.00254126 0.0859957 0.355221 0.50698 0.162762 0.846452
-0.00485008 -0.399004 0.0385672 -0.462688 0.469796 0.751805
-0.0204677 0.138472 0.139315 -0.864926 -0.313049 0.392306
-0.0069055 -0.265999 0.0188161 -0.703981 0.283202 -0.651312
-0.00780909 0.328741 0.146284 1 0 0
0.00537412 -0.178687 0.425871 0.706859 -0.633554 0.314579
-0.0193547 0.335822 0.141024 1 0 0
-0.00676627 -0.273766 0.279188 -0.462569 -0.346406 -0.816108
-0.0259876 0.224646 0.178576 0.687222 -0.00370923 0.726438
0.00029166 0.470329 0.122221 0 0.970297 -0.241916
0.00275563 -0.402907 0.279881 0 -0.515057 0.857156
0.0280166 -0.235025 0.307098 -0.73955 -0.647818 -0.182749
0.0018316 -0.416656 0.0476327 0.256688 0.574895 0.776922
0.0167887 0.161128 0.417348 0.82127 -0.218022 0.527239
0.00769806 -0.467691 0.107421 0.965364 0.239271 0.104031
0.0373526 0.276453 0.148823 0.677864 0.002603 -0.735182
-0.00775813 -0.0932206 0.262758 -0.765953 -0.358811 -0.533452
0.0334481 0.339161 0.175113 -1 0 0
-0.0072182 0.215788 0.243219 -1 -9.28308e-06 8.06991e-06
-0.0498839 -0.274326 0.212666 -0.245188 0.814448 -0.525888
0.000831662 0.258832 0.275779 0.256758 0.385371 -0.886321
-0.00492946 -0.193282 0.222678 -0.704124 0.651185 0.283138
0.00475152 0.449296 0.221344 0.455206 -0.76319 -0.458616
0.0085758 0.461545 0.108373 1 0 0
-0.00817308 0.127699 0.231467 -0.891015 -0.438585 0.117197
0.00301805 0.321917 0.295235 0.256681 0.142866 -0.955879
-0.0398553 0.107621 0.123709 -0.918646 0.366465 0.147628
-0.0036609 -0.157143 0.301538 -0.668079 -0.415515 -0.617266
-0.0306612 0.241963 0.263371 -0.616309 0.509833 0.600195
0.000931639 -0.34818 0.0115147 0 -0.0871631 -0.996194
-0.00432466 0.197961 0.098241 0 -0.927179 -0.374618
-0.03398 0.109604 0.121836 0.922311 0.359738 0.141176
-0.0208775 0.0962226 0.150552 1 0 0
0.00184872 0.133176 0.205538 0.15557 0.954132 -0.255794
0.00398003 0.209834 0.219085 0.45507 0.819672 -0.347919
0.00202701 0.221422 0.0727593 0.256837 0.756342 0.601649
0.0414284 -0.270822 0.225564 0.244591 0.842265 -0.480381
-0.0972235 -0.161197 0.496491 -0.0336335 -0.730339 -0.682257
0.0351104 0.336909 0.142574 0 0.0372646 -0.999305
0.00711954 0.375182 0.0127235 0.704086 0.283153 -0.65122
0.00337409 0.237369 0.278907 0.256821 -0.601637 0.756357
0.00248227 -0.443448 0.0652818 0 -0.766037 -0.642796
-0.00356057 0.159718 0.305117 -0.453226 0.860334 -0.233264
0.00221822 0.383823 0.0133022 0.2568 0.385377 -0.886306
-0.0228749 0.228922 0.276838 0.547209 0.657731 0.517641
0.00730812 -0.2014 0.341141 0.999999 -0.00105077 0.000489147
-0.00424352 0.180566 0.355635 -0.00210274 0.963719 -0.266912
-0.0334153 0.118531 0.14865 -0.999493 0.0238143 0.0211406
-0.00627836 -0.466144 0.0891031 -0.70409 -0.651215 -0.283154
-0.00672272 0.265788 0.291331 -0.965357 -0.104048 0.239292
0.00716694 -0.455939 0.225705 0.965366 0.209723 -0.155191
0.00610107 -0.461166 0.194758 0.462573 0.860243 -0.214496
-0.108528 -0.177198 0.495004 -0.00716458 -0.369417 0.929236
0.00815883 0.200059 0.201522 0.455002 0.819696 -0.347952
0.0103296 0.18059 0.421213 0.333681 -0.0370527 0.941958
-0.03663 0.29538 0.15213 0.791319 0.185053 -0.582726
0.00479372 0.462239 0.186079 0.455091 -0.867613 -0.200348
0.0219028 -0.157111 0.496841 0 0.0379323 -0.99928
-0.00165561 0.198932 0.218113 0 -0.920495 0.390755
0.023726 -0.153206 0.505501 0 0.788322 0.615263
-0.00847852 -0.189043 0.111923 -0.965372 0.242724 -0.0956157
0.00209576 0.174797 0.334588 -0.499004 0.773644 0.390474
-0.00537498 -0.260085 0.290796 -0.704107 0.260256 0.660681
0.0363044 -0.280127 0.221981 -0.985431 0.100849 -0.136952
0.00707559 -0.141047 0.297721 0.910441 -0.229658 -0.344026
-0.0115781 0.1104 0.123371 0 0.446152 -0.894957
-0.00224373 -0.194311 0.355782 -0.148414 0.875366 -0.460117
0.00435143 0.198629 0.188299 0.455108 0.863991 -0.215399
0.00452363 0.443624 0.259671 0.256647 0.756405 0.601651
-0.0279878 -0.326647 0.156416 0.0276798 0.856429 0.515523
0.00573477 0.470452 0.214899 0.704077 0.651221 0.283172
-0.00824492 -0.400869 0.28548 -0.965362 -0.104038 0.239273
0.00195507 0.115678 0.140244 0.220146 0.94244 -0.25168
-0.00703851 0.367126 0.296616 -0.965366 -0.0956203 -0.242746
0.00413976 -0.208428 0.0860006 0.704124 -0.570803 0.422366
-0.00475183 0.393702 0.0325552 -0.704146 -0.283119 0.65117
0.00662324 0.272809 0.284899 0.704068 0.283158 -0.651237
0.00162796 -0.0862234 0.25402 0.356784 -0.521781 -0.774887
0.00146189 -0.357738 0.30577 0.256661 -0.142843 0.955888
-0.000588411 0.346097 0.0233686 0 -0.0697967 0.997561
0.0046388 0.287292 0.0253955 0.2567 0.354237 0.899234
0.0277623 0.106429 0.130861 0.985353 0.0516215 -0.162525
0.0402864 -0.337802 0.159644 1 -0.000316056 0.000299673
-0.00346287 0.37963 0.0312032 -0.455098 -0.333581 0.825596
0.00745994 0.15205 0.300781 0.98769 0.151125 -0.0403828
-0.0026706 0.366575 0.306764 -0.256906 0.109406 0.960224
0.020226 0.173633 0.416993 0.770999 -0.11434 0.626488
-0.00789739 -0.058906 0.377704 -0.988978 0.0275001 0.145485
-0.0076912 -0.0454154 0.376236 -0.906274 0.078765 0.415288
-0.00662026 0.465821 0.218795 -0.965362 0.239275 0.10404
-0.0105036 -0.185007 0.399626 -0.987676 -0.140186 0.0696051
0.0836031 -0.16299 0.505225 0.0650927 -0.832646 0.549967
-0.00321604 -0.119811 0.395154 -0.271894 0.181211 0.945112
0.00823022 -0.191183 0.374013 0.890971 0.406689 -0.201929
-0.0023965 0.253114 0.272278 -0.256753 0.60165 -0.75637
0.0065871 -0.20563 0.339541 0.910441 -0.229658 -0.344026
0.00129645 -0.181747 0.423893 0.156359 -0.884651 0.439255
-0.00876861 -0.236186 0.265916 -0.965361 -0.155204 -0.209738
-0.0298974 0.0653117 0.158409 -1 0 0
-0.00139574 -0.162334 0.436862 0.000304877 -0.421579 -0.906792
0.00875237 0.407577 0.0343875 0.965357 -0.162437 0.204204
-0.00579437 0.162874 0.345125 -0.9848 -0.167777 0.044931
-0.0442154 0.281584 0.153542 -0.989564 -0.144093 0.00112607
-0.00534051 0.277602 0.0157887 -0.704031 -0.260266 -0.660758
-0.00466362 0.482558 0.158162 -0.704107 0.705529 -0.080387
0.00886166 0.445837 0.24403 0.96537 -0.204167 -0.162408
-0.00294492 -0.194584 0.355489 -0.148414 0.875366 -0.460117
-0.0201918 0.336223 0.136892 -1 0 0
0.00528819 0.432733 0.0627056 0.703996 -0.570893 0.422457
0.000136821 -0.212884 0.254342 0.256755 0.756363 0.601657
0.00505156 0.39688 0.0199219 0.704086 0.283153 -0.65122
0.0085758 0.18723 0.17754 1 0 0
0.00607685 -0.426422 0.047267 0 -0.656036 -0.75473
0.0287425 0.075503 0.202592 0.910596 -0.412792 -0.0204124
0.0375799 -0.249078 0.262523 -0.241305 0.828402 -0.505492
0.00641998 0.123822 0.341056 0.988868 -0.0276356 -0.146204
0.00661065 -0.434643 0.0595367 0.704036 0.555782 0.442086
-0.00278262 -0.430379 0.0507067 0 -0.656036 -0.75473
-0.0258794 0.327138 0.152289 1 0 0
-0.0015033 0.157481 0.295137 -0.113406 0.959717 -0.257064
0.00833708 0.188983 0.135238 0.965382 0.257973 0.0385596
0.00357853 0.406861 0.0237132 0.256737 0.385377 -0.886324
0.00818808 0.210276 0.0792612 0.965375 0.204151 0.162399
-0.000523382 0.374631 0.294973 0 0.241926 0.970295
-0.00313118 -0.0558605 0.233154 0.175711 -0.549732 -0.816652
-0.00857157 -0.324548 0.29337 -1 1.18818e-06 1.35863e-05
0.047342 -0.319854 0.173427 0.987033 -0.101052 0.124715
0.0290909 0.234969 0.268007 0.881393 0.262945 0.392437
0.00144002 0.46078 0.219436 0 0.927192 0.374587
-0.073 0.126219 0.0506153 0 0.0174526 -0.999848
-0.00473856 0.269728 0.112183 -0.516597 -0.43491 0.737551
-0.0381334 0.12375 0.0616974 -0.7299 -0.59337 -0.339349
-0.0485272 -0.260567 0.239921 -0.638803 0.715888 -0.281841
0.00399994 -0.0236065 0.36415 0.573997 -0.153753 -0.804293
-0.00487931 -0.396062 0.026013 0 -0.390706 -0.920516
-0.0517702 -0.295518 0.202412 -0.641285 -0.604018 0.473198
0.00758986 0.127735 0.219218 0.987681 -0.151179 0.0403975
0.0601919 -0.161906 0.501008 0.0431924 -0.936667 -0.347547
-0.00161815 0.203208 0.0876033 0 -0.857161 -0.515048
-0.00409721 0.349066 0.294812 -0.704002 -0.0803906 -0.705633
-0.00047161 0.410739 0.0455757 -0.256718 -0.601644 0.756386
-0.00559846 0.235019 0.255432 -0.455103 0.572353 -0.682124
-0.0541747 -0.312009 0.168374 -0.882631 0.368929 -0.291298
-0.00627237 0.193087 0.160491 -0.455242 0.886979 -0.0776142
0.0173119 -0.22879 0.321888 0.0376408 -0.729063 0.68341
-0.100929 -0.155646 0.51004 -0.017912 -0.224774 0.974246
-0.000616507 0.306804 0.300092 0 -0.224947 0.974371
0.00424675 0.400492 0.223238 0.959354 -0.159315 0.232933
0.00463023 0.426232 0.265041 0 0.656021 0.754743
0.00689599 -0.431499 0.247888 1 0 0
-0.0304026 0.066036 0.109544 0 0.78827 0.61533
-0.00699623 0.181958 0.148877 -0.965362 -0.258048 -0.0385584
-0.00460277 0.394528 0.277085 -0.455005 -0.47184 -0.755207
-0.00684776 0.465375 0.0961283 -0.96536 0.242768 -0.0956211
-0.0226379 0.342161 0.157276 1 0 0
-0.000592414 0.459261 0.222743 0 0.857136 0.51509
-0.00674215 0.187385 0.161659 -0.965347 0.259291 -0.0295377
0.0074643 0.3643 0.112805 0.542502 -0.50339 -0.672525
-0.00721811 0.312006 0.298816 -1 -8.62385e-07 1.23333e-05
0.00725283 -0.448661 0.0735281 0.965377 0.204145 0.162397
-0.0142587 0.190434 0.305743 0.760632 -0.372212 -0.531881
-0.01068 -0.190397 0.386267 -0.987676 -0.140186 0.0696051
0.00330632 0.267452 0.0266736 0 -0.390759 -0.920493
-0.00721821 0.195846 0.110397 -1 -1.14045e-05 -4.60768e-06
-0.00571517 0.444598 0.0828891 -0.455061 -0.755147 0.471882
0.0362543 0.334038 0.156733 0 -0.992011 0.126151
-0.00593403 0.470199 0.192673 0 0.974362 0.224988
-0.00155313 0.0780394 0.342707 -0.176545 -0.185648 -0.966626
0.00387496 0.0248888 0.366039 0.667591 0.139283 0.731384
-0.00950686 -0.184316 0.387104 -0.890951 0.405781 -0.203833
-0.0224595 0.207301 0.285524 0.0427733 -0.72163 -0.690956
-0.00742659 0.265709 0.287042 -0.965371 0.104021 -0.239247
0.00710664 0.399119 0.284409 0 0.529944 0.848033
0.0207977 -0.155538 0.50724 0 0.27859 0.96041
-0.114917 -0.181756 0.490283 0.574699 0.0746225 -0.814955
0.00329468 -0.326982 0.246026 -0.547042 -0.828333 -0.120868
0.00884963 0.192684 0.110279 0.965383 0.239201 0.104008
0.00726517 -0.225469 0.309885 -0.0563611 0.0740267 -0.995662
0.00684364 -0.241998 0.0348334 0.965375 0.162392 -0.204158
-0.0208775 0.0787843 0.147007 1 0 0
0.0854266 -0.156184 0.503325 -0.949545 -0.115461 0.291604
-0.00709994 0.282611 0.158848 -0.541022 -0.296536 -0.786995
0.00846152 0.198709 0.0888367 0.965356 -0.239294 -0.104048
-0.0267166 0.343279 0.156201 -1 0 0
-0.00648197 -0.439485 0.242581 -0.704062 0.570848 -0.422408
-0.000870441 -0.228289 0.0617779 -0.256731 -0.77691 0.574891
0.00650091 -0.415397 0.0425421 0.704069 0.422392 0.570853
-0.0813704 -0.157474 0.508267 -0.997878 0.0651029 0.00116977
-0.0833344 0.133228 0.0519786 -1 0 0
0.00689599 -0.186295 0.154989 1 0 0
-0.00133622 0.259986 0.042259 0 0.529884 0.84807
-0.00450728 -0.1844 0.37595 -0.464735 0.784252 -0.41106
-0.0140416 0.332682 0.161324 -1 0 0
0.000348104 -0.351362 0.288189 0 0.224956 -0.974369
0.010134 0.136582 0.415674 0.870358 -0.278282 0.406246
-0.00407562 0.15997 0.356516 -0.000250738 -0.26759 -0.963533
0.00188066 -0.20806 0.328633 0 -0.422276 -0.906467
0.00650393 -0.134818 0.390512 0.988868 -0.0276356 -0.146204
-0.00906913 -0.0145406 0.215746 -1 -0.000850596 0.000247127
0.0241937 0.187449 0.147358 0.166949 -0.139116 0.976102
0.0277195 0.244958 0.245586 -0.0435347 -0.721216 -0.691341
-0.00312834 0.264627 0.286427 0 -0.515058 0.857155
0.00830624 0.392369 0.0286551 0.965356 -0.104048 0.239293
-0.0291474 0.126771 0.165263 0 -0.398579 0.917134
0.00744455 -0.450181 0.239257 0.965361 -0.209735 0.155208
-0.0245517 0.133498 0.139373 1 0 0
0.00104592 -0.467099 0.225402 0.25692 -0.899196 0.354172
-0.0288525 0.0737036 0.107409 0 0.713271 0.700888
-0.0391528 0.120619 0.072042 -0.622619 -0.727832 -0.287411
0.00661651 -0.1461 0.30893 0.883816 0.263738 0.38641
-0.0409935 0.338557 0.165155 -1 0 0
-0.00235275 -0.371191 0.0163109 0 -0.241905 -0.9703
-0.00659633 0.431873 0.256814 -0.965375 -0.204153 -0.162393
-0.0059039 -0.225463 0.0619171 -0.704063 -0.570852 0.422402
0.0202123 0.160556 0.404116 0.954429 -0.287338 -0.0806304
-0.00887627 0.147088 0.278386 -0.987689 0.151126 -0.0403829
-0.00174608 -0.220137 0.233301 0 -0.857134 -0.515094
0.0325009 0.277153 0.147857 -0.0746425 0.127196 -0.989065
0.00990698 0.297343 0.161454 0.515565 0.372015 0.771879
-0.00331475 -0.369788 0.288152 -0.256739 0.385373 -0.886325
0.00373829 0.169106 0.363704 0 0.266965 0.963706
0.000247637 0.481095 0.185667 -0.256688 0.95588 0.142845
2.02967e-05 -0.156991 0.429777 0.156379 0.886551 -0.435399
-0.0177787 0.326711 0.182461 0 -0.960025 0.279915
-0.029898 0.261189 0.23027 0.76408 -0.389201 -0.514495
-0.00270756 -0.457418 0.111075 0 0.927189 0.374594
0.00470799 -0.361355 0.0138588 0 -0.241905 -0.9703
-0.00721816 0.238418 0.266419 -1 -5.06702e-06 1.22151e-05
0.00166429 0.210514 0.109505 0.958722 -0.15578 0.237874
-0.000901343 0.421405 0.0450775 0 0.642798 -0.766036
0.0402865 -0.336091 0.160445 1 0 0
-0.00255663 0.220058 0.0498866 -0.256645 -0.756388 -0.601673
-0.00405135 0.448256 0.252707 -0.704074 0.555759 0.442055
-0.00857158 -0.451601 0.220022 -1 -1.15648e-05 7.2265e-06
-0.0193547 0.34405 0.160399 1 0 0
-0.0779827 0.142315 0.0508963 0 0.0174526 -0.999848
0.0347009 -0.233752 0.311155 0.536302 -0.560957 0.63064
-0.00249862 0.0543514 0.361958 -0.187937 0.185654 0.964475
-0.00722836 0.390484 0.026284 -0.965362 -0.104037 0.239276
-0.0260434 0.0718272 0.135646 -1 0 0
-0.00533952 0.189828 0.164674 -0.704106 0.705529 -0.0803937
-0.0298974 0.0669297 0.153742 -1 0 0
-0.00340685 -0.425264 0.0462602 0 -0.656036 -0.75473
-0.127265 -0.154977 0.496575 -0.00773558 -0.277855 -0.960592
0.000240913 0.139317 0.227264 0.220146 0.94244 -0.25168
0.00120287 0.448706 0.228559 0.256753 -0.756362 -0.60166
-0.0122033 0.108051 0.142784 -1 0 0
-0.00473773 0.474703 0.151919 0 0.996194 -0.0871582
0.000239532 -0.46156 0.126492 0.000106769 0.974359 0.224998
0.00364495 -0.291764 0.0155224 0 0.224967 -0.974366
0.00401432 0.262034 0.228941 0.959181 -0.233316 -0.159796
0.00840238 0.458305 0.220831 0.965371 -0.239244 -0.104023
-0.0298974 0.127343 0.117894 -1 0 0
-0.00754327 0.422108 0.26969 -0.96536 -0.155205 -0.20974
0.0202314 -0.160988 0.506257 0 -0.615651 0.788019
-0.00332038 -0.242441 0.27037 0 0.656046 0.754721
0.0350883 0.322101 0.153036 -0.0882937 0.0945961 -0.991593
-0.00893841 0.160172 0.358817 -0.890972 -0.437564 0.121274
-0.0209965 0.327644 0.135296 1 0 0
-0.00767795 -0.290678 0.00955615 -0.704058 0.104961 -0.702342
0.00353694 -0.316 0.292601 0.256911 -0.109392 -0.960224
0.0276692 0.248471 0.144916 -0.481787 0.163835 -0.860836
0.0433168 -0.31192 0.171283 0.247663 0.714116 -0.654752
-0.00709382 -0.151035 0.465113 -1 9.29812e-06 1.9994e-05
0.00673342 0.213528 0.0785339 0.704043 0.55577 0.44209
0.00627451 0.24971 0.286463 0.704014 -0.442103 0.555796
-0.00463066 0.255052 0.289625 -0.704017 -0.283195 0.651276
0.000293301 -0.192994 0.167592 0.256689 -0.955876 -0.142868
-0.0185731 0.333938 0.173623 -1 0 0
-0.00386089 -0.4839 0.150301 -0.256713 -0.955874 -0.142841
-0.0833344 0.129496 0.0547071 -1 0 0
0.00619769 -0.207649 0.217037 0.462768 -0.759842 -0.456603
-0.00282299 0.161262 0.356484 -0.342206 -0.907642 0.243067
-0.0302677 0.120654 0.0934776 -0.687414 0.159648 -0.708501
-0.00857158 -0.376463 0.0191057 -1 0 0
0.0085758 0.421598 0.269033 1 0 0
-0.0298973 0.0981127 0.109073 1 2.09176e-05 -3.87664e-07
-0.0209965 0.320993 0.156806 1 0 0
0.00689589 -0.227917 0.0575594 1 0 0
-0.0158459 -0.325917 0.156667 -1 0 0
0.0362641 0.32813 0.174681 1 0 0
-0.0159835 0.205954 0.29397 0.948339 -0.0774588 -0.307656
0.00734531 0.116452 0.167729 0.972614 0.224483 -0.0602478
-0.0102764 0.186951 0.42204 -0.0994613 -0.0173326 0.994891
0.00365535 0.185966 0.422083 0.0994604 -0.0173326 0.994891
-0.000483488 0.46094 0.114146 -0.256686 -0.899248 0.35421
0.00648677 0.0260441 0.35999 0.988868 -0.0276356 -0.146204
-0.00284349 0.286858 0.0189256 0 -0.241895 -0.970303
0.00630473 0.183088 0.117506 0.704042 -0.70236 -0.104953
0.0142391 -0.220954 0.312357 -0.0243616 0.762359 -0.646695
-0.00567016 -0.362226 0.00602511 -0.703967 -0.0803973 -0.705667
0.142678 -0.148366 0.497052 0.998615 0.0522041 -0.00652111
-0.0933449 -0.149627 0.501621 0.0480218 0.998121 0.0380574
0.0749549 -0.15795 0.504343 -0.997875 -0.0651458 -0.00118137
0.0085758 0.298141 0.0199332 1 0 0
-0.00700241 0.416357 0.276976 -0.965361 0.155197 0.209743
-0.0209112 0.119025 0.140247 0 0.152342 0.988328
0.00693175 -0.225299 0.330138 0.357642 -0.68861 -0.630799
-0.00326202 -0.329348 0.308934 -0.256895 0.109403 0.960227
-0.00528688 0.110746 0.40673 -0.307423 -0.948936 0.0707878
0.0063718 -0.223712 0.310061 -0.0637812 0.0356131 -0.997328
-0.00520582 0.209881 0.0926812 -0.455197 0.7632 0.458608
-0.00868046 0.0932745 0.137701 0 -0.887018 0.461734
0.00679935 -0.215883 0.0708267 0.965361 -0.209741 0.155202
-0.00313493 0.436608 0.255011 0 0.766059 0.64277
-0.00612922 0.217039 0.079852 -0.455203 0.763198 0.458605
-0.00864519 -0.467641 0.205187 -0.965366 -0.242747 0.0956139
-0.000390992 0.237447 0.05461 -0.256812 0.574874 0.776897
-0.0110819 -0.317348 0.135597 0.973206 0.0252917 0.22854
-0.00721822 0.195519 0.200336 -1 -1.19337e-05 2.9756e-06
-0.00238111 0.15675 0.340255 -0.341588 -0.907862 0.243116
0.000742404 -0.203878 0.100081 0.256568 -0.899271 0.354237
-0.00376661 -0.267488 0.274786 -0.462705 -0.469751 -0.751823
0.0451612 0.0693049 0.216409 0 -0.0174598 0.999848
0.0194719 0.231893 0.270254 -0.838423 0.456747 0.297369
0.00578982 0.324888 0.159068 0 -0.86173 0.507367
0.00103525 0.325651 0.301704 0 -0.0697528 0.997564
-0.00242858 -0.00430526 0.1986 0.175711 -0.549732 -0.816652
-0.00857157 -0.399355 0.274378 -1 -7.02334e-06 1.16887e-05
0.136465 -0.154429 0.496498 0.00772588 -0.277855 -0.960592
-0.00227738 -0.212932 0.320196 -0.0498471 -0.12302 -0.991152
0.000162884 0.119363 0.21712 0.156054 -0.954268 0.254991
-0.0298974 0.0641925 0.106595 -1 0 0
-0.024274 0.330686 0.151855 1 0 0
0.0280075 0.230533 0.262235 0.709378 -0.56516 -0.421162
0.00255256 -0.0728318 0.245428 0.356784 -0.521781 -0.774887
-0.0035084 -0.20705 0.0641537 -0.256731 0.776915 -0.574885
-0.00034241 -0.153048 0.49912 0 0.825224 -0.564806
-0.0201918 0.319845 0.136612 -1 0 0
-0.000915159 0.223585 0.0747619 0 0.761556 0.648099
0.0085758 0.452465 0.227382 1 0 0
-0.00721823 0.393839 0.0313645 -1 6.33534e-06 -1.0543e-05
-0.0339318 0.0928492 0.142111 -1 0 0
-0.00426867 0.205093 0.219473 -0.704108 0.660687 -0.260242
-0.00552637 -0.140408 0.478993 -0.76604 0.582719 -0.271333
0.00420765 -0.447463 0.251929 0.703991 -0.570908 0.422446
-0.0108186 -0.163252 0.495039 0 -0.7312 -0.682164
-0.0201918 0.32904 0.169093 -1 0 0
-0.00922649 0.128025 0.218744 -0.987681 -0.151179 0.0403979
0.00246536 0.209761 0.0961098 0 0.857152 0.515064
0.0874993 -0.157487 0.506837 0.0223605 -0.347928 0.937255
0.000442367 -0.201086 0.330818 0.356784 -0.521781 -0.774887
0.00142477 0.165682 0.372742 0.341589 -0.907859 0.243126
-0.00688698 0.432152 0.0656358 -0.455028 -0.672084 0.584168
0.00270236 -0.190295 0.0927921 0.256611 0.899262 -0.354229
0.00689599 -0.191958 0.179895 1 0 0
0.00399867 0.172946 0.377744 0.984813 0.16771 -0.0449118
-0.077227 -0.176108 0.495893 -0.937985 -0.311192 -0.152784
0.0085758 0.422782 0.0524691 1 0 0
-0.00501296 0.16685 0.369766 -0.866226 -0.482645 0.129253
0.0344419 -0.259202 0.25205 -0.876323 0.382293 -0.293105
-0.0116756 -0.225126 0.31 0.0703216 0.273103 -0.959411
0.00692608 -0.217109 0.345001 0.707003 -0.633428 0.31451
0.00750052 -0.234084 0.266189 0.965385 0.155144 0.209671
-0.0117209 -0.158831 0.501521 -1 0 0
0.0085758 0.362474 0.295509 1 0 0
0.000742104 -0.260487 0.270196 8.36847e-06 -0.529897 -0.848062
-0.000977086 -0.18874 0.34313 -0.190014 0.5484 0.814341
-0.00784325 0.133917 0.257156 -0.708921 -0.681821 0.180417
-0.00183067 0.342754 0.301102 0 0.0871178 0.996198
-0.00715548 -0.0535579 0.371721 -0.884315 -0.0871477 -0.458686
-0.00419279 -0.252082 0.040515 -0.256733 -0.601657 0.756371
-0.00791699 -0.0560019 0.377022 -0.988978 0.0275001 0.145485
0.0255978 0.253198 0.149594 -0.967007 0.145415 -0.209168
0.0402878 0.0896217 0.211474 0 0.999848 0.017445
0.00805079 -0.217461 0.340151 0.890972 -0.406686 0.201928
-0.0326439 0.250533 0.239992 -0.364099 -0.710288 -0.60243
0.000857704 0.450856 0.252144 0.256924 0.756328 0.601629
0.00514073 -0.330581 0.307148 0.703977 0.0804043 0.705657
-0.0208775 0.116527 0.141556 1 0 0
-0.00201237 0.417968 0.259017 -0.455204 -0.584152 -0.671979
-0.0298974 0.109246 0.0950231 -1 0 0
-0.0409935 0.344267 0.167481 -1 0 0
-0.00857157 -0.29951 0.289492 -1 3.29937e-06 1.32322e-05
-0.0267166 0.333281 0.159474 -1 0 0
0.0085758 0.449458 0.230108 1 0 0
0.00423466 -0.194489 0.16362 0.462673 -0.884369 -0.06185
-0.00137623 -0.360613 0.286053 0 0.224998 -0.974359
-0.0452375 -0.159586 0.50709 -0.022361 -0.347927 0.937255
-0.00677583 0.427223 0.262373 -0.965357 -0.155211 -0.209751
0.00836074 0.368244 0.295617 0.965371 -0.0956107 -0.242729
-0.00497506 -0.0719019 0.372655 -0.573627 -0.15275 -0.804748
0.0296894 0.292837 0.205055 -0.982371 0.186143 0.0172742
-0.00337315 0.374274 0.295062 0 0.241926 0.970295
-0.0116696 0.34255 0.159725 -1 0 0
-0.00800543 -0.250381 0.0367569 -0.965358 -0.162432 0.204204
-0.00664256 -0.1941 0.163527 -0.462606 -0.884404 -0.0618524
-0.00702119 0.41798 0.0439327 -0.965363 -0.162426 0.204188
0.00183305 0.457605 0.113246 0 -0.920508 0.390724
0.00309649 -0.185174 0.204863 0.256756 0.886319 0.385376
-0.0012979 0.136895 0.282999 -0.156055 -0.954268 0.254991
-0.0330067 0.265835 0.239011 0.16378 0.732022 0.661301
-0.00406901 -0.321268 0.299346 0 0.0871191 0.996198
-0.0294956 0.238729 0.267034 -0.249478 0.679165 0.690287
-0.0288536 0.175993 0.141211 -0.989555 -0.144147 0.00153507
0.00534879 -0.220433 0.242146 0.704024 -0.555787 -0.442098
-0.00758009 0.202993 0.229794 -0.96536 0.20974 -0.155205
-0.00697328 -0.170438 0.443673 -0.144926 0.151225 0.977818
0.00759175 0.0544554 0.168577 0.910441 -0.229658 -0.344026
0.00689599 -0.216403 0.241728 1 0 0
-0.00863982 -0.412153 0.274376 -0.965353 0.162453 -0.204212
0.0071712 0.131063 0.219361 0.972614 0.224483 -0.0602478
0.0085758 0.354472 0.295306 1 0 0
-0.00791615 -0.469519 0.20778 -0.965386 -0.242675 0.0955946
-0.00380783 0.372852 0.295417 0 0.241926 0.970295
0.00115629 -0.0841949 0.388487 0.271837 0.180987 0.945171
0.0365683 -0.281116 0.218708 -0.987274 0.121627 -0.102455
0.0072471 0.451571 0.0938834 0.455068 -0.819674 0.34792
-0.00879234 -0.477021 0.151628 -0.965368 -0.258027 -0.0385619
0.00695453 -0.0926183 0.265072 0.910441 -0.229658 -0.344026
0.00901045 0.183872 0.152574 0.965369 0.258021 0.0385611
0.00505127 -0.181747 0.420388 0.453823 -0.798121 0.396291
-0.0476598 -0.326413 0.152148 -1 5.15591e-05 -1.45617e-05
-0.00623582 -0.193445 0.18666 -0.704072 -0.702326 -0.104978
-0.0298818 0.0565769 0.1272 0 -0.26937 -0.963037
0.00691035 0.15938 0.394935 0.0324367 0.0129817 -0.999389
0.00862919 -0.360482 0.136504 -0.51937 -0.620654 0.587404
-0.00860132 -0.236586 0.0449129 -0.965361 -0.162425 0.204198
0.00158519 0.342508 0.294013 0.256707 -0.109426 -0.960275
0.00423953 -0.0365793 0.377572 0.881611 0.0866099 0.463962
-0.00633141 -0.254441 0.273088 -0.704109 -0.422385 -0.570807
0.005119 -0.332596 0.0146009 0.704071 0.0803831 0.705565
-0.0298974 0.0910489 0.136979 1 0 0
0.00744163 -0.216314 0.345148 0.890972 -0.406686 0.201928
-0.00922238 -0.165868 0.438617 -0.315575 -0.452834 -0.833879
-0.0209965 0.323858 0.176049 1 0 0
-0.000657464 -0.424746 0.059059 -0.551721 0.667828 -0.499609
-0.00881954 -0.241315 0.269946 -0.965361 -0.155204 -0.209738
-0.0304286 -0.152077 0.501453 0 0.960564 -0.278061
-0.0122033 0.110527 0.128066 -1 0 0
-0.000250347 0.19758 0.181896 0 0.970292 -0.241938
0.00363275 -0.222967 0.071641 0.462709 -0.669067 0.581592
0.0245733 0.187942 0.4142 0.744105 -0.0962924 0.661086
0.00680341 0.190917 0.139712 0.704087 0.702311 0.104976
-0.0136791 -0.325422 0.148255 -1 0 0
0.00815686 0.364822 0.0118452 0.965362 0.038566 -0.258049
0.0032187 -0.0876881 0.388138 0.511508 0.162923 0.843691
-0.0542973 -0.315164 0.173932 -0.88171 -0.355484 0.310192
0.000421842 0.468789 0.0900906 -0.256687 0.899252 -0.3542
0.00777708 0.4617 0.22995 0.704015 0.651281 0.283188
0.00912858 -0.208538 0.346961 0.987683 0.140144 -0.0695843
-0.00187957 0.449125 0.239609 0 0.857136 0.51509
-0.026831 0.202541 0.400165 -0.620357 0.143612 -0.771059
-0.00509982 0.473272 0.135564 0 0.996194 -0.0871582
0.00296468 0.160465 0.348807 0.642616 -0.740108 0.198202
0.00467611 -0.255721 0.279007 0 0.529944 0.848033
0.00134868 -0.462022 0.113163 0.256738 0.886326 0.385372
0.000818035 0.439368 0.236169 0 -0.766018 -0.64282
-0.00803182 0.335965 0.169178 0 0.488605 0.872505
0.00549798 0.129888 0.244962 0.70817 -0.682554 0.180599
0.00479309 -0.299518 0.0137322 0 0.224967 -0.974366
0.0860262 -0.153903 0.498664 -0.963472 0.112157 -0.243191
-0.0164379 0.13125 0.406822 -0.952334 -0.300674 0.0515224
-0.067281 0.120789 0.0505206 0 0.0174526 -0.999848
0.0752384 -0.162252 0.499002 -0.997923 -0.0644081 -0.000699087
-0.00897433 0.0511254 0.171604 -0.883923 0.264571 0.385594
-0.00721824 0.453662 0.0916802 -1 1.04319e-05 -6.51784e-06
0.0374911 -0.261355 0.265733 -0.246195 -0.841801 0.480373
-0.0216365 0.150161 0.414328 -0.81215 -0.263309 0.520654
-0.0260434 0.0736618 0.144817 -1 0 0
-0.112634 -0.156145 0.493929 3.5399e-06 -0.121613 -0.992578
-0.00469552 0.383339 0.114824 0.963741 0.0540123 0.261318
0.000244253 0.198585 0.128519 0 0.97437 0.224953
0.00588789 0.217426 0.239057 0.704099 0.570819 -0.422386
-0.00301562 -0.421143 0.0320003 -0.256683 -0.574884 -0.776932
0.02578 0.0773659 0.189868 0.287135 -0.89027 -0.353515
0.0334481 0.341576 0.152122 -1 0 0
3.9692e-05 0.440409 0.0798137 0 -0.848087 0.529857
-0.00974846 0.323662 0.139661 0.517633 0.434694 -0.736951
0.00689599 -0.267208 0.284954 1 0 0
0.0362641 0.336461 0.147929 1 0 0
0.000274173 0.215708 0.233428 -0.256664 0.776925 -0.574901
-0.028154 0.0767324 0.16968 0 0.552958 -0.833209
-0.0205634 0.151278 0.416567 -0.81215 -0.263309 0.520654
0.013655 0.200008 0.300539 -0.941643 -0.0558295 -0.331951
-0.0486041 -0.155415 0.507249 0.00775683 0.278389 0.960437
0.00689599 -0.471847 0.178378 1 -7.28194e-07 -4.35355e-06
-0.0177359 0.31598 0.163834 1 0 0
-0.00628868 0.463211 0.0864438 -0.704006 0.660773 -0.260296
0.0085758 0.18968 0.146432 1 0 0
0.00608198 -0.456808 0.206571 0.462637 0.816075 -0.346392
-0.0717538 0.121045 0.050525 0 0.0174526 -0.999848
-0.00289249 -0.158578 0.30235 0.175711 -0.549732 -0.816652
-0.00608205 0.203571 0.0946141 -0.704035 0.651268 0.283171
-0.00634929 -0.243698 0.271463 0 0.656046 0.754721
-0.00766479 -0.252481 0.033014 0 0.515067 -0.85715
-0.00861298 0.016417 0.197947 -0.995555 0.0504225 0.0795435
-0.0797001 0.143704 0.0509205 0 0.0174526 -0.999848
0.00598587 0.334304 0.012522 0 0.0697714 -0.997563
-0.00616773 0.215545 0.254368 -0.704001 -0.570904 0.422435
0.0418983 -0.322464 0.164215 0.553559 -0.578007 -0.599566
-0.02559 0.1301 0.11998 0 -0.026832 -0.99964
-0.00826107 -0.2935 0.287175 -0.46267 -0.214484 -0.860194
-0.00156176 -0.425648 0.0348531 -0.256852 -0.574872 -0.776884
0.0065137 0.0892103 0.348422 0.988978 0.027501 0.145489
-0.0284057 0.0571327 0.13208 1 0 0
0.0232283 0.195483 0.414709 0.672073 0.103639 0.733196
0.0334481 0.342179 0.168032 -1 0 0
0.00711456 -0.467249 0.197028 0.965357 0.242778 -0.0956304
-0.0295832 0.159649 0.178106 -0.687615 0.0129976 0.725959
-0.00824642 -0.223308 0.0510043 -0.965362 0.162425 -0.204192
0.00864898 -0.224701 0.323265 0.081427 0.279594 0.956659
0.00614567 -0.095145 0.275643 0.662304 0.420972 0.619787
-0.00888082 -0.199353 0.341629 -1 -0.000850596 0.000247127
0.0381788 -0.303974 0.183376 -0.953606 0.215352 -0.210378
-0.00152044 -0.449441 0.0848635 -0.256726 0.886329 0.385373
0.00138382 -0.380882 0.0195699 0 -0.390706 -0.920516
-0.00502714 0.471555 0.12714 0 0.970297 -0.241916
-0.00119215 -0.263118 0.27184 0 -0.529897 -0.848062
-0.0409935 0.332362 0.162778 -1 0 0
-0.000917861 0.119154 0.334685 -0.235478 -0.182746 -0.954544
-0.0181851 0.302477 0.158879 0 -0.312866 0.949797
-0.00884671 -0.196366 0.0980607 -0.96536 -0.242765 0.095627
-0.00284864 0.225685 0.24282 -0.455107 0.672038 -0.584159
-0.000629722 0.0936608 0.129287 0 -0.894904 -0.44626
-0.0049386 0.218921 0.260979 -0.704001 -0.570904 0.422435
-0.000387062 -0.425289 0.263805 0 -0.642819 0.766018
0.00575334 -0.0238578 0.372958 0.906263 0.0787335 0.415317
-0.0226379 0.332491 0.154017 1 0 0
-0.0209965 0.33083 0.160238 1 0 0
-0.00802567 -0.204845 0.223739 -0.965372 -0.239241 -0.104026
0.00688014 0.155488 0.333332 0.89113 -0.438366 0.11714
-0.0283575 0.335702 0.150459 -1 0 0
0.0221825 0.217176 0.148653 -0.813874 0.0334247 0.580079
0.017199 0.185477 0.321326 0.852138 0.17087 0.494635
0.0142211 -0.324274 0.156181 0.576894 0.805594 0.134948
0.00474794 -0.219661 0.0698063 0.704124 -0.570803 0.422366
0.0151729 0.193441 0.316264 0.208676 0.68485 0.698165
0.0173036 0.190483 0.39674 0.183059 -0.00372547 -0.983095
0.0333118 0.261895 0.229085 0.709378 -0.56516 -0.421162
-0.014945 0.127107 0.403212 -0.952333 -0.298697 -0.0619804
-0.00268491 -0.306784 0.29808 0 0.0871191 0.996198
0.0334481 0.336947 0.154779 -1 0 0
-0.0385589 0.131848 0.056568 1 0 0
0.00433107 -0.153873 0.451143 0.766131 0.582621 -0.271287
-0.00226796 0.0382771 0.16997 0.175711 -0.549732 -0.816652
-0.00215878 -0.451488 0.096396 0 0.927189 0.374594
0.0073306 -0.184638 0.331182 0.999999 -0.00105077 0.000489147
0.00369596 0.332275 0.0179909 0.256767 0.109411 0.96026
0.00110053 0.330845 0.0241037 0.51713 0.855131 0.0364289
-0.00453813 -0.405593 0.0317791 0 -0.529937 -0.848037
-0.00155146 -0.441206 0.048234 -0.256662 -0.756378 -0.601678
-0.0357993 0.10059 0.142576 0.00359064 -0.0573253 0.998349
-0.00721823 0.469432 0.176708 -1 1.22698e-05 8.57993e-07
0.00196351 -0.251824 0.230539 0.964005 0.24863 -0.0942254
-0.00409474 -0.276194 0.0278192 -0.256935 -0.385351 0.886278
0.00226839 0.256827 0.0211913 0.25672 -0.354231 -0.89923
-0.0135849 0.122217 0.136058 -0.90131 -0.432489 -0.0243896
-0.00412112 -0.191572 0.344226 -0.409563 0.509838 0.756521
-0.00976801 -0.22585 0.32727 -0.891029 -0.409693 0.195498
0.000412402 0.388499 0.0328306 -0.256897 -0.38536 0.886285
-0.00437582 0.38511 0.0234665 0 0.374643 -0.927169
-0.00857022 -0.193905 0.209693 -0.965358 0.239288 0.104046
-0.0017208 0.400536 0.0208485 -0.256737 0.385384 -0.886321
0.00328793 0.331052 0.0215544 0.343045 -0.0655546 0.937029
0.0059689 0.359796 0.293998 0.704002 -0.0804054 -0.705632
0.026355 0.172138 0.139596 0.996496 -0.083264 0.00793329
-0.0197033 0.185187 0.312668 -0.675558 -0.671009 -0.305562
-0.00568449 -0.229791 0.252649 -0.704078 -0.555745 -0.442065
0.00409179 -0.209092 0.247317 0.704117 0.555716 0.442039
0.00710201 -0.148511 0.309465 0.883816 0.263738 0.38641
-0.000631758 0.226696 0.0895774 -0.958405 -0.199691 0.203922
-0.000122249 0.295793 0.00653752 -0.256879 -0.109418 -0.96023
-0.00364802 0.380045 0.223469 0.516368 0.731633 -0.445058
0.00678274 0.231143 0.251105 0.455106 0.672062 -0.584133
-0.0260434 0.114149 0.112419 -1 0 0
-0.00539749 0.379297 0.0142318 -0.704088 0.283145 -0.651221
-0.00763016 -0.409255 0.283364 -0.70394 -0.442143 0.555857
0.00663306 0.161286 0.421098 0.108112 -0.0322524 0.993615
-0.00315043 -0.424498 0.275449 -0.256895 -0.601613 0.756351
-0.0117209 -0.15187 0.496326 -1 0 0
-0.0386538 0.129104 0.0579282 -0.98695 0.0047867 -0.160954
-0.0282898 0.167588 0.102135 -0.686927 0.159725 -0.708956
-0.033705 -0.237092 0.297536 0.971236 -0.22156 -0.0872434
-0.00521906 0.395983 0.164372 -0.959264 -0.00315291 0.282495
-0.0185731 0.33296 0.158132 -1 0 0
0.03705 -0.25147 0.25885 -0.23399 0.830109 -0.50613
0.00689589 -0.238148 0.0466429 1 0 0
-0.00823408 0.140349 0.248248 -0.891036 0.438545 -0.117186
0.0085758 0.320737 0.294846 1 0 0
0.017802 -0.226359 0.309223 -0.0563611 0.0740267 -0.995662
-0.0265233 0.076364 0.0993462 0 0.616513 0.787344
-0.0366949 0.262923 0.239366 -0.618375 0.50846 0.599234
-0.00136692 0.178491 0.384314 0 0.965964 -0.258677
0.0064224 0.41054 0.0469359 0.454935 -0.572396 0.6822
-0.0252631 0.207138 0.140159 0.478908 0.172682 -0.860713
0.00534021 0.200153 0.237384 0.70399 -0.570903 0.422455
-0.00560901 0.19145 0.181271 -0.704122 0.705513 -0.0803945
-0.00721824 0.469301 0.149143 -1 1.22545e-05 -1.07176e-06
0.00828904 0.181149 0.395283 0.0325232 0.015444 -0.999352
-0.0773579 -0.159205 0.497822 -0.022367 -0.564122 -0.825388
-0.00124421 0.21161 0.0736198 0 -0.857161 -0.515048
0.00797821 0.192954 0.161023 0.455097 0.887053 -0.0776207
-0.00319946 -0.223121 0.0729695 0 -0.754721 0.656046
0.135007 -0.147575 0.500902 -0.0480217 0.9594 -0.277931
0.00618853 0.252057 0.0265827 0.704044 -0.422424 -0.57086
-0.0847742 -0.150659 0.504552 0.0431798 0.936285 0.348576
-0.00800378 -0.183658 0.383095 -0.950165 0.274818 -0.147181
-0.00364878 -0.200084 0.119699 -0.462603 -0.860233 0.214472
-0.00499184 0.121867 0.222346 -0.454245 -0.86068 0.229983
-0.113226 -0.179368 0.492757 0.242584 -0.898665 -0.365451
-0.00464409 0.197314 0.0827008 -0.704144 -0.651169 -0.283127
-0.00715086 0.075795 0.35435 -0.882098 0.0881486 0.462744
0.00476208 0.239113 0.279824 0.256821 -0.601637 0.756357
0.00378027 -0.176014 0.39276 0.697647 -0.132419 -0.704098
0.00737985 -0.190277 0.194017 0.965383 -0.257971 -0.0385593
-0.0271936 0.293513 0.176967 0 -0.00638756 -0.99998
-0.0283077 0.228234 0.178087 -0.687615 0.0129976 0.725959
-0.00372928 0.264101 0.286111 0 -0.515058 0.857155
