-0.00494773 0.462966 0.18339 -1 9.54577e-08 -4.25005e-08
-0.00494776 0.262506 0.18095 -1 1.72702e-07 -5.37341e-08
0.00193006 0.415049 0.231876 1 -1.54898e-07 7.50651e-08
0.0335688 0.172681 0.158105 0.890825 -0.215053 0.400228
-0.00494777 -0.201522 0.264789 -1 9.11187e-08 -4.05687e-08
-0.0416567 0.0748301 0.152061 -0.0608662 0.918868 0.389843
-0.00494777 -0.211956 0.210744 -1 1.6279e-07 -4.05687e-08
0.0512832 -0.299401 0.183464 0.979338 0.201639 -0.0154667
0.00774112 -0.0754996 0.287941 0.888041 -0.323797 -0.326402
0.00193003 -0.221012 0.0427749 1 -1.28602e-07 -7.90409e-08
0.00193007 0.468468 0.165848 1 -1.5923e-07 3.38463e-08
-0.000834236 -0.14428 0.376269 -0.196435 -0.479911 -0.855043
0.00193003 0.203754 0.0945673 1 -1.52906e-07 2.05606e-08
-0.0269595 0.28401 0.140507 0 -0.182485 0.983209
0.0693713 -0.24576 0.492161 -0.235721 0.543475 0.805649
-0.0257417 0.305661 0.152529 -1 0 0
-0.00494777 0.233682 0.144397 -1 1.72702e-07 -5.37341e-08
0.0140825 -0.202245 0.34616 0.46932 -0.525665 0.709517
-0.00226072 -0.305998 0.335443 -0.380815 0.0966618 0.919585
0.00193003 -0.201942 0.14918 1 -1.98607e-07 4.22163e-08
0.000416078 0.285859 0.325378 0 -0.207934 0.978143
-0.00494776 -0.193262 0.173071 -1 9.11187e-08 -4.05687e-08
-0.0209621 0.0791718 0.14252 -1 0 0
-0.00494776 -0.205752 0.168965 -1 9.11187e-08 -4.05687e-08
-0.00494777 -0.211401 0.16434 -1 1.6279e-07 -4.05687e-08
-0.000596324 -0.173648 0.24094 0 0.866022 0.500006
0.00719231 0.0572782 0.274709 0.983634 0.0869445 0.157814
0.00513563 -0.22799 0.475929 0.855594 0.245538 0.455708
0.00359311 -0.169177 0.24109 0.923116 0.351278 0.156399
0.00357471 -0.341046 0.332452 0.923131 -0.0401956 0.382378
0.00193004 0.307367 0.312596 1 -1.47209e-07 5.13987e-08
-0.00494776 0.275367 0.245947 -1 1.72702e-07 -5.37341e-08
-0.00940469 0.0560422 0.164652 -0.892591 0.319457 0.318166
-0.00494776 0.322136 0.263613 -1 1.72702e-07 -5.37341e-08
0.00362498 -0.154732 0.195873 0.923149 0.376041 0.0799393
0.0241424 0.0600527 0.175087 -0.993352 -0.108271 -0.0391166
0.00193004 0.252858 0.0610053 1 -1.52906e-07 2.05606e-08
0.00193003 -0.232289 0.0565478 1 -1.64862e-07 -1.62369e-08
0.00193005 0.326131 0.1653 1 -1.5923e-07 3.38463e-08
0.00193003 0.213001 0.0642772 1 -1.52906e-07 2.05606e-08
-0.00494778 -0.290759 0.161758 -1 1.6279e-07 -4.05687e-08
0.00193002 -0.29016 0.218308 1 -1.48214e-07 5.29277e-08
0.00193004 0.253555 0.0917493 1 -1.52906e-07 2.05606e-08
0.00103612 0.14128 0.407942 0.342116 -0.901878 0.263768
0.00193004 0.272204 0.239655 1 -1.54898e-07 7.50651e-08
-0.00549546 0.153096 0.148189 -0.923149 -0.376042 -0.0799276
0.00193003 0.264018 0.244575 1 -1.54898e-07 7.50651e-08
0.00727409 0.0556389 0.274931 0.99016 -0.0672437 -0.122726
0.00193003 0.225135 0.126124 1 -1.52906e-07 2.05606e-08
-0.00151827 -0.188148 0.356668 6.65756e-05 0.445986 0.89504
0.00959092 0.141272 0.391104 0.98769 0.14999 -0.0444075
-0.0307663 0.0581986 0.12016 -1 0 0
0.00193004 -0.180064 0.201068 1 -1.98607e-07 4.22163e-08
0.00193006 0.379963 0.0261689 1 -1.31437e-07 -7.58948e-08
0.0040255 -0.388718 0.317406 0.923143 -0.192231 0.332948
-0.00494779 -0.383964 0.0629185 -1 1.65228e-07 -1.73693e-08
0.00324638 0.130632 0.366537 0.642675 -0.735334 0.215066
-0.00992151 -0.00071165 0.215659 -0.999999 -0.00108922 0.000390329
-0.00772336 0.10032 0.148648 0.87678 0.443687 -0.185469
-0.0049478 -0.408111 0.162269 -1 1.72445e-07 -5.12916e-08
-0.00494779 -0.331402 0.32683 -1 1.65228e-07 1.73693e-08
-0.00494774 0.420184 0.200686 -1 1.62587e-07 -4.25005e-08
0.0337202 -0.240253 0.280742 0.638163 -0.591257 0.493115
-0.0138947 0.0805453 0.140834 0.00815694 0.741169 -0.671269
0.0415925 0.262538 0.245079 0.248903 0.682758 0.686942
-0.0405157 -0.29349 0.188381 0.986839 0.093322 -0.132062
-0.00348375 0.264504 0.315901 -0.380897 0.285729 -0.879362
0.00193006 0.394607 0.177002 1 -1.5923e-07 3.38463e-08
-0.00494779 -0.355437 0.278685 -1 1.65228e-07 1.73693e-08
-0.00494773 0.467787 0.227139 -1 3.65326e-07 7.76521e-08
-0.00494778 -0.351909 0.0330508 -1 1.65228e-07 -1.73693e-08
0.029437 0.034316 0.233154 -1 0 0
0.00193004 0.353622 0.297138 1 -1.47209e-07 5.13987e-08
-0.0212071 0.334878 0.181566 1 0 0
-0.0063066 0.237522 0.310986 -0.923116 -0.192268 0.333002
0.0499021 0.285728 0.219024 0.235802 0.687062 0.687272
0.00688812 -0.200431 0.33886 -0.656926 -0.498429 -0.5657
-0.00494775 0.361589 0.320475 -1 3.27741e-07 2.77662e-07
-0.0512221 0.309156 0.170593 -0.998546 -0.00700453 -0.0534506
-0.00494776 0.286952 0.172741 -1 1.72702e-07 -5.37341e-08
-0.046485 0.0775757 0.126709 -0.992162 0.116125 0.046144
-0.128647 -0.247417 0.505158 -0.151326 0.961755 -0.228314
0.023225 -0.20815 0.308617 -0.230049 0.811618 -0.536987
0.00193004 -0.189842 0.129007 1 -1.98607e-07 4.22163e-08
-0.0238031 0.188962 0.443608 -0.306019 0.486507 -0.81833
-0.025081 0.0737055 0.166504 1 0 0
0.0438972 0.265322 0.160208 -0.263608 0.14507 -0.953659
-0.0049478 -0.441361 0.161024 -1 1.72445e-07 -5.12916e-08
0.00193003 0.310373 0.328031 1 -2.95287e-07 1.38906e-06
-0.00494777 0.257852 0.248486 -1 1.72702e-07 -5.37341e-08
-0.00494778 -0.308693 0.0638524 -1 1.6279e-07 -4.05687e-08
0.00658135 0.0215813 0.297167 0.92912 0.178434 0.323878
0.00193005 0.317908 0.0768408 1 -1.77013e-07 3.04528e-09
0.0213257 0.179507 0.439751 0.218106 0.381717 -0.898177
-0.00494781 -0.464028 0.106051 -1 -1.20115e-06 -6.93523e-07
-0.0869698 -0.255252 0.495353 0.237587 -0.836029 0.494578
-0.0318697 0.160049 0.159843 -0.645067 -0.193948 0.739103
0.00342245 0.190809 0.0755521 0.923145 0.311035 0.225968
0.0257156 0.0462049 0.227369 -0.709651 0.693642 0.123515
0.00228061 -0.142919 0.348011 0.298615 -0.676451 -0.673233
-0.00494773 0.399789 0.0406434 -1 1.65229e-07 -1.73661e-08
-0.0212071 0.317403 0.19201 1 0 0
-0.0275425 0.334207 0.172717 -1 0 0
0.00234574 0.0758411 0.25386 0.634768 -0.375276 -0.675453
0.00193 -0.413009 0.14606 1 -1.68448e-07 1.78813e-08
0.0285807 0.165094 0.446504 0.98481 -0.14483 0.0957772
-0.00276839 -0.201709 0.0485538 -0.380923 0.618677 -0.687122
-0.00494775 0.31411 0.0332884 -1 1.65229e-07 -1.73661e-08
-0.0302507 0.140552 0.443462 -0.956275 -0.282524 -0.0756167
-0.00494777 -0.202263 0.226215 -1 9.11187e-08 -4.05687e-08
0.00424543 -0.163881 0.211161 0.923114 -0.376124 -0.079941
0.00203145 -0.186073 0.355855 3.98105e-05 -0.438136 -0.898908
-0.0293004 0.13578 0.155097 -0.891131 -0.205345 0.404622
-0.00494777 0.231128 0.269812 -1 1.84278e-07 -1.63874e-07
0.000738597 -0.484726 0.186782 0.380776 -0.904456 0.192271
-0.00494777 0.237725 0.257319 -1 1.72702e-07 -5.37341e-08
0.0427279 -0.272886 0.22847 0.641414 -0.60021 0.477845
-0.00494775 0.339516 0.271365 -1 1.72702e-07 -5.37341e-08
0.00526809 0.192775 0.443585 0.0703822 0.671426 -0.737722
0.00193 -0.405226 0.181659 1 -1.68448e-07 1.78813e-08
-0.00494774 0.387118 0.145578 -1 1.62587e-07 -4.25005e-08
-2.73777e-05 0.0882814 0.242723 0.157077 -0.950487 0.268143
0.00193003 -0.249141 0.166652 1 -1.48214e-07 5.29277e-08
0.00540364 0.0782143 0.198227 0.768907 -0.615683 0.172382
0.00361743 -0.153017 0.417438 0.499998 0.780222 -0.375842
-0.023014 0.319313 0.1532 1 0 0
-0.0296491 0.166517 0.19461 0.687699 0.00283454 0.72599
-0.00288615 -0.450998 0.258607 0 -0.866022 0.500006
-0.00384982 0.368313 0.0131163 0 0.207916 -0.978147
-0.0049478 -0.423348 0.0891467 -1 1.6279e-07 -4.05687e-08
0.00192999 -0.450689 0.0845116 1 -3.57022e-07 -7.5887e-08
-0.00494778 0.204231 0.252379 -1 1.72702e-07 -5.37341e-08
0.00193002 -0.257721 0.225975 1 -1.48214e-07 5.29277e-08
-0.00494777 -0.193682 0.24313 -1 9.11187e-08 -4.05687e-08
0.00193004 0.29283 0.0606885 1 -1.52906e-07 2.05606e-08
0.00427301 0.404354 0.0343227 0.923138 -0.192238 0.332958
-0.00661397 0.248875 0.0205358 -0.923127 -0.192253 -0.33298
0.00253079 0.437049 0.271651 0.380988 -0.747998 -0.543459
0.00424662 0.481624 0.162914 0.923154 0.384432 0
0.00192999 -0.469067 0.157017 1 -1.26287e-07 2.68429e-08
0.0395451 -0.247485 0.263537 0.871705 -0.313743 0.376424
0.00193006 0.406957 0.0358611 1 -1.31437e-07 -7.58948e-08
-0.00581894 0.0290898 0.281636 -0.634753 -0.375188 -0.675517
0.0905307 -0.265541 0.486854 0.932633 -0.356953 0.0527215
-0.0239354 0.322881 0.157823 -1 0 0
-0.0345264 -0.241009 0.258796 0.870281 0.308258 -0.384172
-0.00494779 -0.352211 0.235697 -1 1.72445e-07 -5.12916e-08
-0.00494777 -0.258689 0.087631 -1 1.6279e-07 -4.05687e-08
-0.00494775 0.386679 0.287555 -1 1.84278e-07 -1.63874e-07
-0.0314134 0.0603162 0.194824 0 0.168817 -0.985648
-0.025178 0.0689687 0.173808 0 0.0589685 0.99826
0.122797 -0.254665 0.496286 0.315016 -0.139306 -0.938807
-0.0431996 0.0948669 0.0967483 -0.287194 0.896286 0.337922
0.00240649 0.146616 0.393283 0.642685 0.736481 -0.211072
-0.0049478 -0.403234 0.262881 -1 1.72445e-07 -5.12916e-08
0.00193002 -0.276838 0.0849162 1 -1.68448e-07 1.78813e-08
-0.0323696 0.0596896 0.0987872 0.687343 -0.231591 -0.688422
-0.00781882 0.120224 0.297805 -0.707162 0.679795 -0.194426
-0.00778632 0.145122 0.358295 0.0444025 -0.74162 -0.669349
-0.0067725 -0.377864 0.0173931 -0.923127 -0.118815 -0.365676
-0.00298744 -0.239923 0.0330592 -0.381017 -0.46227 0.800708
0.0241652 -0.213251 0.300504 -0.230049 0.811618 -0.536987
-0.0275425 0.306515 0.167893 -1 0 0
-0.000782986 0.223137 0.307457 0.380949 -0.462302 0.800721
-0.00494773 0.451604 0.198505 -1 9.54577e-08 -4.25005e-08
-0.00494776 0.24514 0.0511504 -1 1.65229e-07 -1.73661e-08
0.00193004 0.27452 0.0450487 1 -1.52906e-07 2.05606e-08
0.00079037 -0.299935 0.334609 0.380851 0.09666 0.91957
-0.0364039 0.088311 0.130106 0 -0.506901 -0.862004
0.00193002 0.221467 0.283843 1 -2.91847e-07 2.12037e-07
-0.00447528 0.291202 0.0042537 -0.380793 -0.0966426 -0.919596
0.00383787 0.180661 0.07721 0.923113 -0.311095 -0.226014
0.00492445 0.346959 0.00967903 0.923152 -0.0401841 0.38233
0.00193005 0.344784 0.251154 1 -1.54898e-07 7.50651e-08
0.00930297 -0.159439 0.406837 0.891029 0.40816 -0.198677
0.00193001 -0.327796 0.309914 1 -1.47334e-07 5.02189e-08
-0.0395427 -0.249614 0.487952 0 -0.380642 0.924723
-0.107717 -0.247365 0.507137 0.253871 0.468152 0.846394
-0.0350077 0.054179 0.176323 1 0 0
-0.00494776 -0.179501 0.21197 -1 9.11187e-08 -4.05687e-08
0.0022752 0.474748 0.156495 0.380961 -0.924591 0
0.00193 -0.447707 0.110015 1 -1.26287e-07 2.68429e-08
-0.00230733 -0.330865 0.00609361 0 0 -1
-0.00916696 0.00688624 0.214675 -0.892591 0.319457 0.318166
-0.0350077 0.0731824 0.143973 1 0 0
-0.00395065 -0.0360411 0.264707 -0.461442 0.628755 0.62589
-0.00513575 -0.222746 0.30534 -0.380962 0.462301 0.800716
0.00605729 -0.080603 0.305882 0.545264 0.594689 0.590789
-0.00183914 0.18553 0.251681 -0.38082 0.748069 -0.543478
0.0117929 0.078353 0.143043 1 0 0
-0.00179173 -0.255206 0.475189 0 -0.729331 -0.684161
0.00193002 0.193472 0.246444 1 -1.47209e-07 5.13987e-08
-0.00454413 -0.275311 0.00766991 -0.380835 0.285732 -0.879387
-0.00494776 -0.212154 0.0625484 -1 1.6279e-07 -4.05687e-08
-0.00494774 0.428186 0.199838 -1 9.54577e-08 -4.25005e-08
-0.00515349 0.179271 0.243943 -0.380922 0.844664 -0.376087
0.00193006 0.420627 0.202213 1 -1.5923e-07 3.38463e-08
-0.0473321 -0.294025 0.200304 -0.643463 -0.583847 0.495055
0.0336897 -0.256283 0.240522 -0.983938 0.087813 -0.155419
-0.00494777 -0.219832 0.248108 -1 1.6279e-07 -4.05687e-08
0.00193001 -0.352753 0.254182 1 -1.48214e-07 5.29277e-08
0.00193 -0.417069 0.220443 1 -1.48214e-07 5.29277e-08
-0.00494777 -0.267663 0.141999 -1 1.6279e-07 -4.05687e-08
-0.00494778 -0.331208 0.0821722 -1 1.6279e-07 -4.05687e-08
-0.00494776 0.28081 0.234758 -1 1.72702e-07 -5.37341e-08
0.00193003 0.238751 0.108212 1 -1.52906e-07 2.05606e-08
-0.00463373 0.109403 0.429388 -0.0590748 -0.17152 -0.983408
-0.00494774 0.377409 0.0305929 -1 1.39216e-07 6.26927e-08
-0.00220713 0.240986 0.032817 -0.380849 0.462304 0.800768
-0.0184022 -0.207025 0.326374 0.943354 -0.27732 -0.182142
-0.0049478 -0.403457 0.210757 -1 1.72445e-07 -5.12916e-08
-0.00494779 -0.380918 0.101539 -1 1.6279e-07 -4.05687e-08
0.00193004 0.298554 0.271085 1 -1.54898e-07 7.50651e-08
-0.000746009 0.146594 0.430626 0.0353799 0.0813739 -0.996055
0.025385 0.123222 0.154637 0.893057 -0.192573 0.406651
0.0176444 0.144779 0.152486 -0.971266 0.0997224 -0.216096
0.00193003 0.251555 0.122291 1 -1.77013e-07 3.04528e-09
0.0466322 -0.314445 0.165493 1 0 0
-0.0494962 0.101769 0.0554169 0 0 -1
0.00193003 0.219112 0.113075 1 -1.52906e-07 2.05606e-08
-0.0100392 0.104412 0.262325 -0.987695 0.150362 -0.0430032
0.00193001 -0.323625 0.304982 1 -1.47334e-07 5.02189e-08
0.0290192 0.0728113 0.138552 0.000422788 0.254835 -0.966984
-0.0311151 0.322139 0.159556 -1 0 0
0.00193004 0.324571 0.227342 1 -1.54898e-07 7.50651e-08
0.00436943 0.280513 0.0127588 0.923128 0.118818 0.365673
-0.0049478 -0.414611 0.229381 -1 1.72445e-07 -5.12916e-08
0.00193 -0.379835 0.254046 1 -1.48214e-07 5.29277e-08
0.00193003 0.209958 0.165327 1 -1.52906e-07 2.05606e-08
0.00193003 -0.199824 0.212989 1 -1.98607e-07 4.22163e-08
0.00193001 -0.28857 0.278864 1 -1.48214e-07 5.29277e-08
-0.126345 -0.248093 0.513127 0.253871 0.468152 0.846394
0.03146 0.162688 0.153038 0.905585 -0.135112 -0.402071
-0.00494778 -0.275297 0.186771 -1 1.6279e-07 -4.05687e-08
-0.0336131 0.164445 0.151604 -0.672493 -0.0492412 -0.738464
-0.112671 -0.257169 0.504312 0.232686 -0.836439 0.496213
-0.0058263 0.188436 0.260281 -0.923136 0.311051 -0.225981
0.0332969 -0.244955 0.477125 0 0.650124 -0.759828
0.00193002 0.189623 0.243609 1 -1.47209e-07 5.13987e-08
-0.00274085 0.16547 0.100428 -0.380973 -0.844658 -0.376049
-0.00494776 0.287799 0.221125 -1 1.72702e-07 -5.37341e-08
0.00193007 0.425883 0.098324 1 -1.5923e-07 3.38463e-08
0.0987755 -0.246556 0.492968 0.237273 0.836101 -0.494608
0.137248 -0.248316 0.51054 0.0544684 0.996032 0.0703823
-0.0350077 0.0236625 0.134706 -1 0 0
0.0401495 -0.313138 0.164713 0 0.341864 -0.939749
0.00364884 -0.187565 0.381328 0.454103 -0.80108 0.389952
-0.0340431 0.202748 0.302356 -0.982566 -0.0725045 0.171194
-0.00654167 -0.177398 0.358593 -0.229481 0.783014 0.578124
-0.0252727 0.0698439 0.172638 0 0.95098 0.309252
0.00193006 0.375968 0.121181 1 -1.5923e-07 3.38463e-08
0.00193001 -0.365329 0.147854 1 -1.68448e-07 1.78813e-08
-0.00494775 0.319608 0.139408 -1 1.62587e-07 -4.25005e-08
-0.00545073 -0.453982 0.0743339 -0.923121 -0.311075 -0.226008
-0.0015771 -0.459291 0.0905255 0 -0.866013 -0.500021
0.029437 0.0290722 0.236783 -1 0 0
-0.00335082 0.452235 0.258022 0 0.866022 0.500006
-0.0094111 0.138487 0.390379 0.000162254 0.274875 0.96148
0.00451474 -0.450517 0.258454 0.923136 0.311047 -0.225985
-0.00494774 0.362355 0.0383403 -1 1.65229e-07 -1.73661e-08
-0.00664479 0.0698734 0.169708 -0.768613 -0.615646 0.173824
-0.00494775 0.339203 0.227527 -1 1.72702e-07 -5.37341e-08
-0.00975739 0.0773262 0.158142 -0.0672329 0.678356 0.731651
-0.00494774 0.407157 0.107249 -1 1.62587e-07 -4.25005e-08
0.0145224 -0.206788 0.338629 -0.275743 -0.917349 0.287119
0.00193002 -0.236499 0.250564 1 -1.48214e-07 5.29277e-08
-0.00479838 -0.246496 0.487826 0 0.245465 0.969405
0.00820427 -0.13047 0.347988 0.999999 -0.00134982 0.000657252
-0.00562548 0.448914 0.0799713 -0.923164 -0.310988 0.225954
-0.00494777 -0.285993 0.0555892 -1 1.6279e-07 -4.05687e-08
0.00609476 0.0219665 0.297726 0.791351 0.297609 0.534034
-0.00494777 -0.22629 0.141256 -1 1.6279e-07 -4.05687e-08
0.00112305 0.298653 0.00667135 0 -0.207916 -0.978147
0.00193001 -0.321486 0.303716 1 -1.47334e-07 5.02189e-08
-0.00494775 0.281806 0.0276131 -1 1.65229e-07 -1.73661e-08
0.00193002 -0.282188 0.103005 1 -1.68448e-07 1.78813e-08
-0.00494776 0.302043 0.178048 -1 1.72702e-07 -5.37341e-08
-0.0210634 0.125859 0.146028 0.0870453 0.0985582 -0.991317
-0.00494779 -0.364574 0.0411572 -1 1.65228e-07 -1.73693e-08
-0.107609 -0.250776 0.48992 -0.328696 0.207767 -0.921299
-0.08016 -0.245098 0.49429 0.144701 0.7702 0.621171
-0.00183953 -0.476843 0.141134 0 -0.994522 -0.104531
-0.0827628 -0.263414 0.470708 -0.243539 0.145651 -0.958892
0.138303 -0.249045 0.517471 -0.169172 0.741715 0.64903
-0.00494773 0.41523 0.0422953 -1 1.39216e-07 6.26927e-08
-0.0054583 0.185745 0.0821507 -0.923158 0.311009 0.225949
-0.00248497 -0.430536 0.0519643 0 -0.743161 -0.669112
0.00193005 0.368592 0.171329 1 -1.5923e-07 3.38463e-08
-0.00450377 0.426386 0.294597 -0.380871 0.618701 0.687129
0.00193003 -0.267104 0.0923388 1 -1.68448e-07 1.78813e-08
-0.00982136 0.120807 0.314649 -0.987686 0.150421 -0.043021
0.00193 -0.389851 0.206543 1 -1.48214e-07 5.29277e-08
0.00193 -0.393594 0.15365 1 -1.68448e-07 1.78813e-08
-0.0315881 -0.215246 0.316093 -0.858327 -0.330017 0.392891
-0.00494776 0.276001 0.0946496 -1 1.62587e-07 -4.25005e-08
0.000501361 -0.35216 0.33301 0.380851 -0.0966653 0.91957
0.00224935 -0.188278 0.0639531 0.380982 0.748014 -0.54344
-0.0231708 0.132187 0.158051 0.11916 -0.0618171 0.990949
0.00192999 -0.468138 0.179903 1 -1.26287e-07 2.68429e-08
-0.0066174 0.270853 0.0151324 -0.923128 0.118815 0.365674
-0.0304138 0.213354 0.125505 -0.687319 0.157722 -0.709025
-0.00494773 0.473559 0.159263 -1 9.54577e-08 -4.25005e-08
-0.0163579 0.147193 0.431054 -0.0353797 0.0813738 -0.996055
-0.0194256 0.327658 0.1935 1 0 0
-0.00599769 -0.352977 0.00735076 -0.923129 -0.118814 -0.365671
-0.0897581 -0.247568 0.490761 -0.941293 -0.058887 0.332414
0.00193007 0.450652 0.153577 1 -1.5923e-07 3.38463e-08
-0.00607587 0.147206 0.407064 -0.984801 0.166965 -0.0478498
-0.00494775 0.290803 0.0746653 -1 1.62587e-07 -4.25005e-08
0.00193004 -0.190507 0.14764 1 -1.98607e-07 4.22163e-08
0.0420013 0.262514 0.244955 0.248903 0.682758 0.686942
-0.00494776 -0.173106 0.143138 -1 9.11187e-08 -4.05687e-08
0.0311863 0.0287625 0.23157 0 0 -1
0.0362656 0.210303 0.154272 0.322649 0.0347149 -0.945882
0.00193006 0.393782 0.126779 1 -1.5923e-07 3.38463e-08
-0.00494776 -0.182373 0.166842 -1 9.11187e-08 -4.05687e-08
-0.00494778 -0.311536 0.107133 -1 1.6279e-07 -4.05687e-08
-0.00494773 0.416388 0.0960621 -1 1.62587e-07 -4.25005e-08
-0.0046759 -0.151709 0.165046 -0.380776 0.924667 0
-0.00494777 0.201656 0.20293 -1 1.72702e-07 -5.37341e-08
0.0188397 0.145517 0.456448 0.325345 -0.126032 0.937159
-0.00494777 0.265993 0.253603 -1 1.72702e-07 -5.37341e-08
0.0328006 -0.248161 0.248181 -0.871633 0.313537 -0.376764
-0.0227708 0.18775 0.459897 -0.530629 0.527205 0.663693
-0.140342 -0.257003 0.505137 -0.227405 -0.542517 -0.808679
0.00193002 -0.303185 0.175489 1 -1.48214e-07 5.29277e-08
0.00193001 -0.336323 0.184972 1 -1.48214e-07 5.29277e-08
-0.00494773 0.462636 0.146742 -1 9.54577e-08 -4.25005e-08
-0.0479211 -0.285738 0.191122 -0.643603 0.634858 -0.427471
0.00193005 0.364037 0.185514 1 -1.5923e-07 3.38463e-08
-0.00494777 -0.260568 0.157063 -1 1.6279e-07 -4.05687e-08
0.00193005 0.353894 0.142423 1 -1.5923e-07 3.38463e-08
-0.0402845 -0.259637 0.246071 0.63638 -0.720666 0.275064
-0.0027372 0.260854 0.0164166 0 -0.406729 -0.913549
-0.00463359 -0.255186 0.475168 0 -0.729331 -0.684161
-0.006191 0.380811 0.320342 -0.923115 0.118823 0.365704
0.00193001 -0.362259 0.227125 1 -1.48214e-07 5.29277e-08
0.00193 -0.443827 0.0772513 1 -3.57022e-07 -7.5887e-08
0.00452072 -0.25498 0.0206729 0.92313 -0.118814 0.365669
-0.0333661 0.0240371 0.155882 1 0 0
0.00123723 -0.188482 0.356834 0.000146031 0.445956 0.895055
0.00564109 -0.0057948 0.313885 0.832803 0.268455 0.48412
0.0787143 0.0396664 0.233802 1 0 0
0.00193005 0.370777 0.240357 1 -1.54898e-07 7.50651e-08
-0.00494779 -0.399776 0.084816 -1 1.6279e-07 -4.05687e-08
0.00193007 0.457787 0.182223 1 -1.5923e-07 3.38463e-08
-0.00494778 -0.285666 0.195942 -1 1.6279e-07 -4.05687e-08
0.00193001 -0.345532 0.14255 1 -1.68448e-07 1.78813e-08
-0.0500146 -0.289059 0.200217 -0.986183 -0.0811237 0.144437
-0.0221284 0.318824 0.172256 -1 0 0
0.0245055 0.170714 0.33315 0.914277 -0.396585 -0.0825723
0.00193004 -0.18143 0.138354 1 -1.98607e-07 4.22163e-08
-0.00494778 0.180782 0.221168 -1 2.52793e-07 -5.37341e-08
-0.032762 0.184261 0.194099 -0.687728 0.0323243 0.725248
0.00193007 0.448788 0.0762408 1 -1.5923e-07 3.38463e-08
-0.00112354 0.0507752 0.17823 -0.149296 0.700367 0.697995
-0.150611 -0.264326 0.510727 0.272349 -0.843131 -0.463633
-0.00494777 -0.228713 0.136827 -1 1.6279e-07 -4.05687e-08
0.00193004 0.258058 0.0566734 1 -1.52906e-07 2.05606e-08
0.0321334 0.209819 0.155016 -0.263608 0.14507 -0.953659
-0.00494777 -0.219664 0.279907 -1 1.72445e-07 -5.12916e-08
0.00193001 -0.363454 0.219838 1 -1.48214e-07 5.29277e-08
-0.0303488 0.0746564 0.185373 0 -0.839033 0.544081
0.00193001 -0.369673 0.203019 1 -1.48214e-07 5.29277e-08
0.00193003 0.229964 0.0756873 1 -1.52906e-07 2.05606e-08
-0.00494774 0.356924 0.0235604 -1 1.39216e-07 6.26927e-08
0.00193005 0.315071 0.139254 1 -1.77013e-07 3.04528e-09
0.00193001 -0.355634 0.0895308 1 -1.68448e-07 1.78813e-08
0.00193001 -0.321223 0.169102 1 -1.48214e-07 5.29277e-08
-0.0341716 0.0364976 0.149913 0.00212449 0.168041 0.985778
0.00639808 0.122703 0.350201 0.707134 -0.679392 0.195927
0.00193 -0.432734 0.212154 1 -1.68448e-07 1.78813e-08
-0.00494778 -0.261192 0.29329 -1 1.65228e-07 1.73693e-08
-0.00494776 0.297716 0.254655 -1 1.72702e-07 -5.37341e-08
-0.00494774 0.389029 0.231208 -1 1.62587e-07 -4.25005e-08
-0.00494778 0.182523 0.172658 -1 2.52793e-07 -5.37341e-08
-0.00494778 -0.305055 0.0186663 -1 1.65228e-07 -1.73693e-08
-0.0307663 0.0985277 0.15077 -1 0 0
-0.0360947 0.226894 0.158343 0.787615 0.204545 -0.581226
-0.00492891 0.477901 0.192129 0 0.994522 0.104528
-0.0350077 0.0608084 0.166704 1 0 0
-0.00494777 -0.255111 0.0861963 -1 1.6279e-07 -4.05687e-08
-0.00394133 -0.172451 0.43492 -0.394166 -0.438124 -0.807887
-0.00277358 0.0640056 0.277498 -0.136956 0.488633 0.861673
-0.00494776 0.280547 0.186781 -1 1.72702e-07 -5.37341e-08
0.00193001 -0.353283 0.0392733 1 -1.64862e-07 -1.62369e-08
-0.00494779 -0.333525 0.317797 -1 1.65228e-07 1.73693e-08
-0.00494775 0.346837 0.202293 -1 1.62587e-07 -4.25005e-08
-0.00494778 -0.297522 0.0675216 -1 1.6279e-07 -4.05687e-08
-0.00380277 -0.16659 0.210585 -0.381101 -0.904333 -0.192206
-0.0333661 0.086848 0.163334 1 0 0
-0.00494773 0.423532 0.0565991 -1 1.62587e-07 -4.25005e-08
-5.4409e-05 0.0109546 0.289291 0.196436 -0.479911 -0.855043
0.00193004 0.262941 0.0884156 1 -1.52906e-07 2.05606e-08
-0.00583823 -0.174439 0.0860892 -0.923116 0.351277 -0.1564
0.00193002 -0.289589 0.0250264 1 -1.64862e-07 -1.62369e-08
0.00193004 0.329912 0.302667 1 -1.47209e-07 5.13987e-08
-0.0238415 0.341293 0.172317 0 0.582624 -0.812742
-0.00494777 -0.269961 0.019834 -1 1.49476e-07 3.11107e-08
-0.00494776 -0.186883 0.25389 -1 3.48721e-07 7.41225e-08
0.00193004 0.275906 0.103172 1 -1.77013e-07 3.04528e-09
-0.0453787 -0.269085 0.233325 -0.240472 -0.802386 0.546214
0.00193003 -0.274423 0.0533308 1 -1.64862e-07 -1.62369e-08
-0.00494779 -0.321261 0.285478 -1 1.65228e-07 1.73693e-08
0.00193005 0.361109 0.187091 1 -1.5923e-07 3.38463e-08
0.134384 -0.252443 0.503276 0.330288 0.359939 -0.872556
0.037684 -0.248339 0.488065 0 -0.0694332 0.997587
-0.00973549 0.0835483 0.182403 -0.987686 0.150421 -0.043021
0.00193 -0.39172 0.283808 1 -1.47334e-07 5.02189e-08
0.00193002 0.20188 0.245358 1 -1.47209e-07 5.13987e-08
0.00193006 0.389859 0.0816729 1 -1.77013e-07 3.04528e-09
-0.000966852 -0.193277 0.0551536 0.380879 0.618689 -0.687135
-0.0391666 -0.242326 0.483151 0 0.997551 0.0699446
-0.00494775 0.321955 0.130873 -1 1.62587e-07 -4.25005e-08
-0.0212071 0.323286 0.169472 1 0 0
0.00193003 -0.202431 0.247931 1 -1.98607e-07 4.22163e-08
0.00708569 0.0515163 0.27567 0.99016 -0.0672437 -0.122726
-0.00494777 0.24867 0.252646 -1 1.72702e-07 -5.37341e-08
0.0497161 0.316673 0.17569 1 0 0
-0.0818993 -0.24245 0.493583 0.109836 0.877512 0.466806
0.00356229 0.338486 0.00447362 0.92312 0.0401878 -0.382406
-0.00959964 0.153252 0.366415 -0.232437 0.661666 0.712862
-0.0298742 0.265112 0.193234 -0.687728 0.0323243 0.725248
0.007628 0.0709422 0.161517 0.891069 -0.436769 0.123403
0.00193003 -0.229247 0.0922569 1 -1.68448e-07 1.78813e-08
0.00193003 0.196651 0.178716 1 -1.52906e-07 2.05606e-08
-0.0863313 -0.242782 0.486545 -0.24593 0.794043 -0.55589
-0.00337317 -0.234892 0.313192 -0.380962 0.462301 0.800716
0.00193 -0.420186 0.0716258 1 -1.68448e-07 1.78813e-08
0.000101171 0.127152 0.360739 0 -0.959794 0.280706
-0.000909592 0.252539 0.31052 0.380801 0.462314 -0.800785
0.00193003 -0.216546 0.0998908 1 -1.48214e-07 5.29277e-08
0.0193446 0.119195 0.145381 -0.0857904 0.10421 -0.990848
-0.00494776 -0.191057 0.152873 -1 9.11187e-08 -4.05687e-08
0.00193001 -0.360306 0.169351 1 -1.68448e-07 1.78813e-08
-0.00599513 0.158869 0.183981 -0.923121 0.384509 0
-0.00494773 0.444876 0.139721 -1 9.54577e-08 -4.25005e-08
-0.0194256 0.336504 0.188141 1 0 0
0.00317926 -0.475121 0.177324 0.380961 0.924591 0
-0.0283157 0.261457 0.192974 0.687018 0.00287755 0.726635
-0.0049478 -0.440883 0.108388 -1 1.72445e-07 -5.12916e-08
-0.00494773 0.463788 0.173551 -1 9.54577e-08 -4.25005e-08
-0.0441937 -0.3136 0.166965 -0.999765 0.00717841 0.020464
0.00193002 0.182405 0.130874 1 -1.24818e-07 2.65308e-08
0.0485303 0.265062 0.234298 0.981406 -0.0774602 0.175621
-0.00494777 -0.202289 0.269109 -1 9.11187e-08 -4.05687e-08
-0.00805624 -0.125542 0.334187 -0.693192 -0.510249 -0.50905
-0.00494776 -0.179398 0.249572 -1 -1.031e-06 -9.2829e-07
0.00193005 0.33678 0.0720617 1 -1.77013e-07 3.04528e-09
-0.00494777 0.180711 0.132411 -1 2.52793e-07 -5.37341e-08
0.00193003 0.23946 0.0805597 1 -1.52906e-07 2.05606e-08
0.00163555 0.0589674 0.139411 0.0232472 -0.725201 -0.688145
0.00193003 0.240397 0.296558 1 -1.47209e-07 5.13987e-08
0.000234677 -0.154884 0.205958 0.380778 0.90446 0.19225
-0.00494775 0.29648 0.0504421 -1 1.65229e-07 -1.73661e-08
-0.00494778 0.175876 0.221585 -1 0 0
-0.00494779 -0.316453 0.257651 -1 1.72445e-07 -5.12916e-08
-0.00494774 0.42242 0.18616 -1 1.62587e-07 -4.25005e-08
-0.00116014 0.481264 0.13114 -0.380777 0.904459 -0.192255
0.00705524 -0.17204 0.407735 0.707108 -0.63578 0.309487
0.00193004 0.288046 0.160712 1 -1.77013e-07 3.04528e-09
0.00193001 -0.371833 0.143639 1 -1.68448e-07 1.78813e-08
0.00193005 0.342169 0.193653 1 -1.5923e-07 3.38463e-08
-0.00494781 -0.470307 0.166482 -1 0 0
-0.00494777 -0.295466 0.0170095 -1 1.49476e-07 3.11107e-08
0.135119 -0.256749 0.50073 0.315016 -0.139306 -0.938807
-0.00494778 -0.340856 0.104471 -1 1.6279e-07 -4.05687e-08
0.021527 0.108623 0.148082 0.876841 -0.24672 -0.41265
-0.051609 0.307655 0.196877 0.150667 0.70969 0.688214
-0.00494777 0.211065 0.102664 -1 1.72702e-07 -5.37341e-08
0.00193 -0.392033 0.0952574 1 -1.68448e-07 1.78813e-08
0.0249071 0.157256 0.437081 0.741625 -0.0189816 -0.670546
-0.00494778 -0.320905 0.129629 -1 1.6279e-07 -4.05687e-08
0.00281506 -0.215997 0.0489466 0.380864 -0.618694 0.687139
-0.00494776 0.268694 0.0617868 -1 1.65229e-07 -1.73661e-08
-0.00494773 0.452173 0.109622 -1 9.54577e-08 -4.25005e-08
0.0182004 0.19177 0.314503 -0.98599 0.161273 0.0425987
0.00193003 -0.206527 0.262039 1 -1.98607e-07 4.22163e-08
-0.0049478 -0.421217 0.234302 -1 1.72445e-07 -5.12916e-08
-0.00157184 -0.330688 0.0133171 -0.38096 0.0966415 0.919527
0.0488755 0.283346 0.221759 0.248903 0.682758 0.686942
0.0232944 -0.217766 0.318501 -0.245671 -0.85149 0.463261
-0.00494778 -0.294485 0.20008 -1 1.6279e-07 -4.05687e-08
0.00319458 0.182853 0.250308 0.380987 0.748013 -0.543438
0.00193003 -0.230239 0.163713 1 -1.48214e-07 5.29277e-08
-0.00494776 0.248223 0.121057 -1 1.62587e-07 -4.25005e-08
-0.00372506 -0.185261 0.0845924 -0.380979 -0.748005 0.543456
0.00193003 -0.218237 0.12726 1 -1.48214e-07 5.29277e-08
-0.00494778 -0.30549 0.248918 -1 1.72445e-07 -5.12916e-08
0.00193003 -0.24991 0.0290926 1 -1.28602e-07 -7.90409e-08
0.00193002 -0.230482 0.242886 1 -1.48214e-07 5.29277e-08
-0.149052 -0.264545 0.513542 0.379746 -0.910479 -0.16377
-0.00494778 0.180628 0.144022 -1 2.52793e-07 -5.37341e-08
-0.0097631 0.159982 0.357829 0.522518 0.742359 0.419378
-0.0015286 0.158673 0.431695 0 0.961302 -0.275497
-0.00494777 0.246162 0.293064 -1 1.84278e-07 -1.63874e-07
-0.00493002 0.108102 0.247314 -0.454076 0.856617 -0.244993
-0.0049478 -0.411382 0.221528 -1 1.72445e-07 -5.12916e-08
-0.00494776 -0.171448 0.222372 -1 3.48721e-07 7.41225e-08
-0.000273149 0.0189972 0.185317 0.152244 -0.700553 -0.697171
0.00193005 0.307273 0.0266667 1 -1.52906e-07 2.05606e-08
-0.125309 -0.249458 0.513571 0.253859 0.468219 0.846361
-0.0330906 0.122567 0.109087 0 -0.192467 0.981303
-0.00494781 -0.430608 0.259352 -1 1.72445e-07 -5.12916e-08
-0.000562989 -0.199414 0.0574016 0 0.743161 -0.669112
-0.00494778 0.170022 0.147849 -1 2.52793e-07 -5.37341e-08
-0.000457953 -0.46719 0.106371 0 -0.95106 -0.309008
-0.00328111 -0.0151297 0.322088 -0.322112 0.465304 0.824461
-0.00858405 -0.0563068 0.279759 -0.892591 0.319457 0.318166
-0.0049478 -0.395146 0.22141 -1 1.72445e-07 -5.12916e-08
-0.029086 0.210373 0.126309 0 -0.192467 0.981303
-0.00324552 -0.25593 0.32382 -0.380948 0.28571 0.879346
0.00830049 0.0850825 0.203437 0.987688 -0.150407 0.0430166
0.00193 -0.365935 0.297552 1 -1.47334e-07 5.02189e-08
-0.00494774 0.388174 0.103906 -1 1.62587e-07 -4.25005e-08
-0.00494776 0.300201 0.290798 -1 1.84278e-07 -1.63874e-07
0.00473865 -0.156304 0.190404 0.923149 0.376041 0.0799393
-0.00582281 -0.25367 0.473668 0 -0.451332 -0.892356
0.00193004 0.26001 0.0760276 1 -1.52906e-07 2.05606e-08
-0.0049478 -0.429227 0.227955 -1 1.72445e-07 -5.12916e-08
-0.00448259 -0.161701 0.425722 -0.502534 -0.780749 0.371336
-0.00494779 -0.396073 0.143139 -1 1.72445e-07 -5.12916e-08
0.00192999 -0.450998 0.191586 1 -1.68448e-07 1.78813e-08
-0.00494778 0.183243 0.159754 -1 2.52793e-07 -5.37341e-08
-0.00951485 0.0915153 0.228216 -0.956979 -0.279428 0.0781756
-0.00494776 -0.186324 0.0751566 -1 0 0
-0.0049478 -0.369726 0.263644 -1 1.72445e-07 -5.12916e-08
0.046617 0.324356 0.157599 -1 0 0
-0.0899926 -0.251833 0.48748 -0.260371 -0.406868 -0.875594
0.00193006 0.430158 0.220182 1 -1.54898e-07 7.50651e-08
-0.00494777 -0.254934 0.185325 -1 1.6279e-07 -4.05687e-08
0.151914 -0.246417 0.517673 -0.060123 0.925029 0.37511
0.046617 0.315698 0.185389 -1 0 0
-0.00829525 0.0964617 0.216456 -0.707162 0.679795 -0.194426
-0.00331992 0.474377 0.164146 -0.380962 -0.924591 0
-0.0275696 0.27901 0.137858 0.687517 0.132511 -0.713976
-0.0350077 0.0934204 0.106645 -1 0 0
-0.00494777 0.229017 0.301864 -1 1.07983e-06 -9.72256e-07
-0.00494781 -0.445556 0.221765 -1 1.72445e-07 -5.12916e-08
-0.128434 -0.273294 0.486659 -0.286301 0.6605 -0.694097
-0.130984 -0.24906 0.511394 0.150892 0.770875 0.618857
-0.00135346 0.0817486 0.450721 0.307973 -0.947437 0.0866932
0.00193002 -0.26531 0.157258 1 -1.48214e-07 5.29277e-08
-0.00487901 0.039234 0.275119 -0.634753 -0.375188 -0.675517
-0.00674507 0.218639 0.297822 -0.923128 -0.257272 0.285736
-0.0787302 0.104358 0.0627919 0 0 1
0.00295587 -0.471085 0.232794 0.380922 -0.84467 0.376072
-0.00494773 0.415703 0.0697298 -1 1.62587e-07 -4.25005e-08
0.0626629 0.0251731 0.236467 0 -1 0
-0.00494775 0.368373 0.256144 -1 1.72702e-07 -5.37341e-08
0.00193004 0.312142 0.175901 1 -1.5923e-07 3.38463e-08
-0.00865869 -0.0852514 0.350983 -0.987713 -0.0750955 -0.137056
0.0060252 -0.161845 0.410558 0.000205041 -0.446042 -0.895012
0.00193002 0.187603 0.25824 1 0 0
-0.00516927 -0.0658546 0.271546 -0.624371 -0.553676 -0.551003
-0.00235985 -0.150755 0.171894 -0.380776 0.924667 0
-0.00744614 -0.119971 0.327826 -0.529388 -0.599663 -0.600128
-0.049433 0.298192 0.19079 0.448362 -0.735638 -0.507749
-0.00494778 -0.320303 0.204783 -1 1.72445e-07 -5.12916e-08
-0.0297035 0.249689 0.191946 0 -0.0242195 -0.999707
0.00193005 0.393783 0.300433 1 -1.54898e-07 7.50651e-08
-0.0304575 0.0847993 0.112789 0 0.457799 -0.889056
-0.037093 0.236377 0.160514 0.957991 0.198156 -0.207336
0.00103396 -0.39525 0.0327324 0.381017 0.462269 0.800708
0.00193005 0.409674 0.271661 1 -1.54898e-07 7.50651e-08
-0.00494779 -0.318688 0.270206 -1 1.72445e-07 -5.12916e-08
-0.0128058 -0.239889 0.484749 -1 0 0
-0.00154439 0.452145 0.24882 -0.380967 -0.748005 -0.543464
-0.00494778 -0.299157 0.165515 -1 1.6279e-07 -4.05687e-08
-0.00661684 -0.157377 0.181135 -0.923121 -0.384509 0
-0.00494777 0.260039 0.296258 -1 1.84278e-07 -1.63874e-07
-0.00494776 0.271782 0.09864 -1 1.62587e-07 -4.25005e-08
-0.00119955 -0.240385 0.470472 -0.490347 -0.420458 -0.763397
-0.00231385 0.0124758 0.216405 -0.149296 0.700367 0.697995
-0.00494779 -0.368076 0.0419049 -1 1.65228e-07 -1.73693e-08
-0.00494776 0.297153 0.223421 -1 1.72702e-07 -5.37341e-08
-0.00180313 0.446017 0.0797906 -0.380826 -0.74806 0.543487
0.00193002 -0.304316 0.0263399 1 -1.64862e-07 -1.62369e-08
-0.0144596 0.0897482 0.151854 -0.819088 -0.422703 0.387837
-0.0281201 0.149095 0.455759 -0.762896 -0.17696 0.621831
-0.00494776 0.285026 0.121864 -1 1.62587e-07 -4.25005e-08
0.00193003 0.233048 0.283906 1 -1.47209e-07 5.13987e-08
0.00193 -0.437672 0.185225 1 -1.68448e-07 1.78813e-08
0.01656 0.125578 0.452263 0.81217 -0.254197 0.525132
-0.00494775 0.344059 0.122145 -1 1.62587e-07 -4.25005e-08
-0.000614553 -0.176811 0.259496 0.380969 0.748005 0.543462
-0.0307663 0.0995466 0.152332 -1 0 0
0.00193003 -0.20274 0.196955 1 -1.98607e-07 4.22163e-08
0.00193006 0.404039 0.0973138 1 -1.77013e-07 3.04528e-09
0.00193002 -0.300519 0.1158 1 -1.68448e-07 1.78813e-08
-0.0682901 0.105652 0.0627919 0 0 1
0.00193004 0.298224 0.0839616 1 -1.77013e-07 3.04528e-09
-0.00494777 -0.192931 0.207318 -1 9.11187e-08 -4.05687e-08
-0.0447766 0.278813 0.213831 0.761759 -0.373636 -0.529262
-0.00494775 0.336915 0.203065 -1 1.62587e-07 -4.25005e-08
-0.00697658 0.151693 0.389538 -0.988831 0.142912 -0.0423056
-0.00494776 0.267862 0.229138 -1 1.72702e-07 -5.37341e-08
0.00193002 -0.253864 0.18636 1 -1.48214e-07 5.29277e-08
0.0232769 0.143869 0.14748 -0.0870323 0.0976647 -0.991407
-0.00494774 0.400206 0.171412 -1 1.62587e-07 -4.25005e-08
0.000552774 -0.156519 0.179513 0 0.994522 0.104528
-0.00494774 0.378214 0.0901606 -1 1.62587e-07 -4.25005e-08
0.00381233 0.441884 0.267468 0.923136 -0.311046 -0.225989
-0.00494779 -0.316814 0.311295 -1 1.65228e-07 1.73693e-08
-0.023014 0.319036 0.181546 1 0 0
0.00193 -0.417295 0.0887995 1 -1.68448e-07 1.78813e-08
0.00193005 0.403199 0.271033 1 -1.54898e-07 7.50651e-08
0.00193001 -0.350861 0.0236407 1 -1.64862e-07 -1.62369e-08
0.00193002 -0.330492 0.0664108 1 -1.68448e-07 1.78813e-08
0.00193002 -0.306397 0.123629 1 -1.68448e-07 1.78813e-08
-0.00248679 -0.463813 0.0856538 -0.380902 -0.84468 -0.37607
-0.00494778 -0.342573 0.0442857 -1 1.65228e-07 -1.73693e-08
0.00465711 0.14958 0.419799 0.98479 -0.166765 0.0487744
-0.00494781 -0.447164 0.236881 -1 1.72445e-07 -5.12916e-08
-0.00494778 -0.317396 0.140359 -1 1.6279e-07 -4.05687e-08
0.00262046 -0.275861 0.320059 0.380953 -0.285713 -0.879342
0.00308136 0.0845593 0.444373 0.766375 -0.638815 -0.0677116
-0.0448879 0.0872199 0.113978 -0.704838 0.663743 0.250296
-0.00561913 0.379869 0.322092 -0.923115 0.118823 0.365704
-0.00494777 0.318708 0.320474 -1 1.84278e-07 -1.63874e-07
-0.00494776 0.280215 0.142285 -1 1.62587e-07 -4.25005e-08
-0.00350992 0.158752 0.142573 0 -0.994522 -0.104531
-0.0221284 0.33993 0.169884 -1 0 0
0.0177443 0.136117 0.155661 -0.806143 0.0949153 0.584058
0.00193003 0.200405 0.110858 1 -1.52906e-07 2.05606e-08
-0.00494775 0.382071 0.291353 -1 1.84278e-07 -1.63874e-07
0.00429449 0.0142262 0.289924 0.634768 -0.375276 -0.675453
0.0686095 0.0251731 0.237716 0 -1 0
0.00193 -0.443874 0.122094 1 -1.26287e-07 2.68429e-08
0.00193007 0.45324 0.101334 1 -1.5923e-07 3.38463e-08
-0.0387011 0.0873398 0.0940999 0.99385 -0.103166 -0.0402468
0.124458 -0.248173 0.509233 -0.152659 0.771292 0.617903
0.00133533 0.0197478 0.302593 0.322098 0.465194 0.824529
0.00286264 0.074488 0.255097 0.634768 -0.375276 -0.675453
-0.00494779 -0.355585 0.227545 -1 1.72445e-07 -5.12916e-08
0.00193 -0.428491 0.14256 1 -1.68448e-07 1.78813e-08
-0.0291808 0.053766 0.112272 0 0.73185 -0.681466
0.00157973 -0.0909519 0.364953 0.322098 0.465194 0.824529
-0.00494776 -0.198607 0.089327 -1 9.11187e-08 -4.05687e-08
-0.00494779 -0.326915 0.319855 -1 1.65228e-07 1.73693e-08
-0.00494775 0.371076 0.317341 -1 3.27741e-07 2.77662e-07
-0.00494777 -0.209153 0.167663 -1 1.6279e-07 -4.05687e-08
0.00193004 0.307878 0.235073 1 -1.54898e-07 7.50651e-08
-0.00412237 0.450574 0.0681775 -0.380928 0.748033 -0.543453
0.0767244 0.0251731 0.237748 0 -1 0
-0.00494773 0.461602 0.232844 -1 3.65326e-07 7.76521e-08
-0.0350304 0.0253297 0.164843 -0.687399 -0.671941 0.275641
0.00193005 0.323413 0.0333929 1 -1.77013e-07 3.04528e-09
-0.00494773 0.424431 0.0663457 -1 1.62587e-07 -4.25005e-08
-0.00494778 -0.317099 0.0233075 -1 1.65228e-07 -1.73693e-08
-0.0049478 -0.396193 0.167739 -1 1.72445e-07 -5.12916e-08
-0.00494778 -0.271092 0.242692 -1 1.72445e-07 -5.12916e-08
0.00329877 0.196669 0.0678261 0.380832 0.748067 0.543473
-0.0424574 -0.297713 0.194331 0.638963 -0.639087 0.428128
-0.00183543 0.241394 0.309687 0 -0.406734 0.913547
0.00193006 0.42123 0.23947 1 -1.54898e-07 7.50651e-08
-0.0110375 0.322687 0.171764 0.00856039 0.865727 0.500443
-0.00877611 0.111865 0.308098 -0.890986 -0.436256 0.125796
0.00581545 0.159554 0.432222 0.036358 0.11212 -0.993029
-0.00494773 0.395981 0.0498432 -1 1.65229e-07 -1.73661e-08
0.00555604 -0.252258 0.486446 0 -0.649804 0.760102
0.00193003 0.240597 0.212848 1 -1.5923e-07 3.38463e-08
-0.0350076 0.092973 0.127518 1 -6.64483e-06 -1.60879e-06
0.141438 -0.252525 0.505912 0.330294 0.359685 -0.872659
-0.00494778 -0.273267 0.174834 -1 1.6279e-07 -4.05687e-08
-0.00494776 0.261193 0.0953878 -1 1.62587e-07 -4.25005e-08
0.00193003 -0.23915 0.166895 1 -1.48214e-07 5.29277e-08
-0.0275425 0.301997 0.160194 -1 0 0
-0.00478908 -0.424948 0.283613 -0.381001 0.618655 -0.687099
0.00193003 0.237673 0.248756 1 -1.54898e-07 7.50651e-08
-0.0212071 0.345381 0.16664 1 0 0
0.00491425 0.123872 0.359611 0.707751 -0.678797 0.195764
0.00193004 0.305344 0.0254414 1 -1.52906e-07 2.05606e-08
0.00193 -0.404385 0.158841 1 -1.68448e-07 1.78813e-08
-0.00494778 0.187552 0.17444 -1 1.72702e-07 -5.37341e-08
-0.000126528 0.231915 0.303971 0 -0.587765 0.809032
-0.00494773 0.44654 0.0848158 -1 0 0
-0.00146881 0.475666 0.20508 0 0.951057 0.309016
0.00193 -0.426627 0.099538 1 -1.68448e-07 1.78813e-08
0.00193007 0.445565 0.0679333 1 -1.05539e-06 9.50229e-07
0.0275187 0.175982 0.446099 0.966434 0.229717 -0.115041
0.00193001 -0.318109 0.237828 1 -1.48214e-07 5.29277e-08
0.0323846 0.243546 0.264001 -0.546619 0.681749 0.486237
0.0491799 0.312662 0.16567 -0.0145232 0.853954 -0.520146
0.00820279 -0.131774 0.347549 0.999999 -0.00134982 0.000657252
0.00619811 -0.0539896 0.330397 0.814955 -0.280932 -0.506879
0.0307292 0.237712 0.27032 -0.546619 0.681749 0.486237
0.00193006 0.422844 0.13811 1 -1.5923e-07 3.38463e-08
0.00398912 0.193866 0.446894 0.106374 0.991246 -0.0782074
0.00505264 -0.479688 0.166108 0.923153 -0.384432 0
-0.0367933 -0.225088 0.28298 -0.636713 0.720152 -0.275641
-0.000535937 -0.242718 0.310677 0 0.406734 0.913547
-0.00494774 0.379655 0.0733235 -1 1.62587e-07 -4.25005e-08
-0.0512362 0.108531 0.0554169 0 0 -1
-0.0052204 0.371313 0.325727 -0.380946 0.28571 0.879346
0.135578 -0.248414 0.51604 -0.169172 0.741715 0.64903
-0.00494778 -0.287746 0.308472 -1 1.65228e-07 1.73693e-08
-0.00494781 -0.468603 0.115479 -1 -1.20115e-06 -6.93523e-07
-0.00154219 -0.314912 0.328675 0 0 1
-0.00494781 -0.444184 0.240506 -1 1.72445e-07 -5.12916e-08
-0.00328745 0.133905 0.347328 -0.342128 0.903288 -0.258878
0.00124002 -0.28074 0.321047 0.380831 -0.285747 -0.879384
-0.00494777 0.208375 0.0651461 -1 1.65229e-07 -1.73661e-08
0.00193004 0.257172 0.119952 1 -1.77013e-07 3.04528e-09
0.00607286 0.171823 0.462903 0.0925157 -0.0908958 0.991554
-0.0687288 0.118649 0.0618441 0 1 0
0.00193005 0.329558 0.143424 1 -1.5923e-07 3.38463e-08
-0.00148303 0.466806 0.232348 0 0.951057 0.309016
-0.020347 0.332327 0.186841 -1 0 0
-0.00160863 0.109178 0.315311 -0.156626 -0.948973 0.273712
0.00193003 -0.231235 0.122823 1 -1.48214e-07 5.29277e-08
-0.0049478 -0.40383 0.230219 -1 1.72445e-07 -5.12916e-08
0.00193003 0.242119 0.0544208 1 -1.52906e-07 2.05606e-08
-0.00494774 0.339857 0.0319879 -1 1.65229e-07 -1.73661e-08
-0.0049478 -0.451957 0.133397 -1 2.41302e-07 -5.12916e-08
-0.00494778 -0.271136 0.216869 -1 1.6279e-07 -4.05687e-08
0.00193003 0.219334 0.0735642 1 -1.52906e-07 2.05606e-08
-0.0347525 -0.226564 0.299701 -0.870431 -0.308369 0.383742
-0.0275425 0.318678 0.177517 -1 0 0
-0.112501 -0.253591 0.49503 -0.314822 -0.106543 -0.943152
0.0023339 -0.327406 0.334854 0.380851 -0.0966653 0.91957
0.00193002 -0.270748 0.0183346 1 -1.28602e-07 -7.90409e-08
0.136867 -0.255651 0.501153 0.315008 -0.139354 -0.938802
-0.00494779 -0.319465 0.27011 -1 1.72445e-07 -5.12916e-08
-0.00494774 0.419592 0.255421 -1 1.62587e-07 -4.25005e-08
0.0017166 0.452225 0.267097 0.380886 0.74804 0.543472
-0.00494774 0.444375 0.236772 -1 9.54577e-08 -4.25005e-08
-0.023014 0.307266 0.179572 1 0 0
-0.0333661 0.115707 0.150834 1 0 0
-0.00320171 -0.221251 0.292145 -0.380823 -0.618704 -0.687153
0.00193002 -0.255906 0.215028 1 -1.48214e-07 5.29277e-08
-0.00638744 0.411418 0.0340806 -0.923129 0.192246 -0.332979
-0.00494776 0.225707 0.102921 -1 1.62587e-07 -4.25005e-08
0.00193003 -0.24329 0.142778 1 -1.48214e-07 5.29277e-08
-0.00367589 -0.199182 0.363625 -0.0793985 -0.827249 -0.556197
-0.0111633 -0.1931 0.351812 -0.524458 0.163512 0.835588
0.00193002 -0.276877 0.0569255 1 -1.64862e-07 -1.62369e-08
-0.0318914 0.155702 0.150619 -0.672493 -0.0492412 -0.738464
-0.00494775 0.369119 0.288109 -1 1.84278e-07 -1.63874e-07
-0.00494777 0.208803 0.116668 -1 1.72702e-07 -5.37341e-08
0.00193003 -0.233553 0.047079 1 -1.64862e-07 -1.62369e-08
0.0352787 -0.317519 0.169286 0.00189878 -0.984743 0.174003
-0.0500497 -0.29158 0.186511 -0.87662 0.415928 -0.241954
-0.00494773 0.463082 0.199092 -1 9.54577e-08 -4.25005e-08
0.00625549 0.138693 0.390242 0 -0.283667 -0.958923
0.00193002 -0.28074 0.170344 1 -1.48214e-07 5.29277e-08
0.00432709 0.152825 0.460881 0.103585 -0.120105 0.987342
-0.0049478 -0.40143 0.149917 -1 1.72445e-07 -5.12916e-08
0.00193002 -0.313769 0.0376237 1 -1.64862e-07 -1.62369e-08
-0.00494778 0.196499 0.232933 -1 1.72702e-07 -5.37341e-08
-0.00494774 0.403963 0.301674 -1 -5.64218e-07 -1.2673e-06
-0.00494775 0.365294 0.179787 -1 1.62587e-07 -4.25005e-08
-0.0049478 -0.418932 0.133241 -1 1.72445e-07 -5.12916e-08
-0.148979 -0.254128 0.503924 -0.328686 0.207559 -0.921349
-0.00494775 0.331705 0.197335 -1 1.62587e-07 -4.25005e-08
-0.00218279 0.183717 0.256821 0 -0.866022 0.500006
-0.00494778 -0.293061 0.0858253 -1 1.6279e-07 -4.05687e-08
0.00819863 -0.133812 0.349696 0.999999 -0.00134982 0.000657252
-0.00494775 0.335393 0.132865 -1 1.62587e-07 -4.25005e-08
-0.00841172 -0.0173662 0.312008 -0.98771 -0.0751041 -0.137072
0.00193005 0.356141 0.0473729 1 -1.77013e-07 3.04528e-09
-0.0146 0.0782197 0.156869 -0.0672329 0.678356 0.731651
0.00295543 -0.434676 0.0503117 0.381005 -0.618646 -0.687105
-0.0350077 0.0396362 0.112712 -1 0 0
0.00193003 0.211685 0.0541555 1 -1.52906e-07 2.05606e-08
-0.00670231 0.47825 0.1958 -0.923149 0.376041 0.0799271
-0.0049478 -0.410358 0.138983 -1 1.72445e-07 -5.12916e-08
0.0565899 0.0279235 0.23157 0 0 -1
0.0117929 0.0615405 0.149066 1 0 0
-0.00494778 -0.353139 0.0172297 -1 1.65228e-07 -1.73693e-08
-0.0309029 0.141486 0.110986 0.687395 0.121795 -0.715998
0.00193 -0.392176 0.239798 1 -1.48214e-07 5.29277e-08
0.12522 -0.262427 0.507271 -0.0557977 -0.996888 -0.0556782
0.00193002 -0.287543 0.0199881 1 -1.64862e-07 -1.62369e-08
-0.00901584 0.135517 0.391183 -0.00138487 -0.28468 -0.958622
-0.00494773 0.451008 0.188898 -1 9.54577e-08 -4.25005e-08
-0.00702108 -0.214203 0.0446813 -0.923142 -0.257249 0.285712
-0.0347874 0.226467 0.268016 0.0430728 -0.729534 -0.682587
0.00193003 -0.233649 0.176682 1 -1.48214e-07 5.29277e-08
-0.023014 0.31155 0.1883 1 0 0
0.00193005 0.350707 0.245223 1 -1.54898e-07 7.50651e-08
0.00193007 0.455666 0.102558 1 -1.5923e-07 3.38463e-08
-0.0786919 0.103446 0.0627919 0 0 1
-0.00494777 -0.281152 0.0371221 -1 1.65228e-07 -1.73693e-08
0.00193004 0.326877 0.266412 1 -1.54898e-07 7.50651e-08
0.00435287 0.0190718 0.287286 0.634768 -0.375276 -0.675453
0.00193005 0.352977 0.24686 1 -1.54898e-07 7.50651e-08
-0.0269776 -0.244465 0.486806 0 0.527594 0.849497
-0.0274047 0.185978 0.157964 0.965794 0.157762 0.205797
-0.0386908 0.105692 0.0617822 0.99686 0.0643127 0.0461986
-0.00392675 -0.3827 0.314875 0 -0.406724 0.913551
0.00193002 -0.278696 0.0558293 1 -1.64862e-07 -1.62369e-08
-0.00494774 0.349453 0.0884196 -1 1.62587e-07 -4.25005e-08
-0.00616011 0.0945965 0.258978 -0.455494 -0.855377 0.24669
0.00193003 -0.245475 0.171647 1 -1.48214e-07 5.29277e-08
0.0193762 0.157893 0.349052 0.897866 -0.438942 -0.0341445
0.00193001 -0.342513 0.121987 1 -1.68448e-07 1.78813e-08
-0.0061798 -0.107571 0.314318 -0.529388 -0.599663 -0.600128
0.00193005 0.327548 0.177749 1 -1.5923e-07 3.38463e-08
-0.0030763 -0.334122 0.00609361 0 0 -1
0.00193004 0.357939 0.308938 1 -1.47209e-07 5.13987e-08
-0.00494778 0.180161 0.171475 -1 2.52793e-07 -5.37341e-08
-0.0049478 -0.428417 0.072156 -1 1.6279e-07 -4.05687e-08
0.0386959 0.268905 0.23529 -0.831905 0.497411 0.246001
0.00193 -0.346597 0.305273 1 -1.47334e-07 5.02189e-08
0.00193005 0.339154 0.1681 1 -1.5923e-07 3.38463e-08
-0.00494777 0.229061 0.1579 -1 1.72702e-07 -5.37341e-08
-0.00494774 0.379886 0.0442634 -1 1.65229e-07 -1.73661e-08
-0.0318771 0.172158 0.11776 -0.687319 0.157722 -0.709025
-0.00206663 -0.166551 0.206957 -0.380958 -0.904386 -0.19224
0.00193004 -0.182235 0.131753 1 -1.98607e-07 4.22163e-08
0.00193005 0.317094 0.0083063 1 -1.44348e-07 4.68993e-08
-0.0350077 0.0865296 0.18405 -1 0 0
0.00193002 0.188945 0.259154 1 -2.91847e-07 2.12037e-07
0.000734853 0.276814 0.0176723 0.380955 0.285726 0.879337
0.000388663 0.0659631 0.134717 0.00584865 -0.182433 -0.983201
0.00193007 0.470258 0.213398 1 -8.92198e-08 1.22783e-07
0.00193004 0.334533 0.324839 1 -1.50943e-07 1.58683e-08
-0.00174046 -0.30302 0.0134616 -0.380851 -0.0966461 0.919572
-0.00494778 0.182322 0.17365 -1 2.52793e-07 -5.37341e-08
-0.00494774 0.40811 0.24674 -1 1.62587e-07 -4.25005e-08
0.00193006 0.434588 0.197845 1 -1.5923e-07 3.38463e-08
-0.00494777 -0.237618 0.064995 -1 1.6279e-07 -4.05687e-08
0.0525696 0.268709 0.167148 0.981524 -0.191338 -0.000868576
-0.00494776 -0.174525 0.152968 -1 9.11187e-08 -4.05687e-08
0.00193001 -0.373508 0.145025 1 -1.68448e-07 1.78813e-08
0.00193007 0.472648 0.201102 1 -1.5923e-07 3.38463e-08
-0.0961924 -0.264174 0.482088 -0.313328 0.590033 -0.744101
-0.0257417 0.313397 0.183794 -1 0 0
-0.0394715 0.261111 0.233964 0.761759 -0.373636 -0.529262
-0.0333661 0.0596346 0.112292 1 0 0
-0.0288336 0.137071 0.149077 -0.672493 -0.0492412 -0.738464
-0.00494777 -0.226879 0.264268 -1 1.6279e-07 -4.05687e-08
0.00249953 -0.154753 0.440646 0.500057 -0.778735 0.378833
0.00193 -0.438435 0.139274 1 -1.68448e-07 1.78813e-08
0.0029964 -0.149597 0.423712 0.499998 0.780222 -0.375842
0.00193002 0.190148 0.165317 1 -1.52906e-07 2.05606e-08
-0.0333912 0.0209709 0.140621 -0.687405 -0.723864 -0.0591248
0.00193005 0.364338 0.145129 1 -1.5923e-07 3.38463e-08
0.00193002 -0.324739 0.154708 1 -1.48214e-07 5.29277e-08
0.00193 -0.334897 0.323266 1 -1.50945e-07 1.58628e-08
0.00193004 0.326282 0.246664 1 -1.54898e-07 7.50651e-08
-0.00417361 0.111704 0.321953 -0.454618 -0.855801 0.246834
-0.0347098 0.0608216 0.170814 0 0.322518 -0.946563
-0.0080046 -0.0340939 0.319959 -0.920723 -0.187892 -0.342003
0.00193005 0.342916 0.216879 1 -1.54898e-07 7.50651e-08
0.00193007 0.423695 0.0823463 1 -1.77013e-07 3.04528e-09
-0.00245224 -0.167065 0.240674 -0.380966 0.844657 0.376059
0.00193003 -0.181873 0.219494 1 -1.98607e-07 4.22163e-08
0.00193005 0.354829 0.083466 1 -1.77013e-07 3.04528e-09
-0.0257417 0.323978 0.183811 -1 0 0
-0.00494777 0.209303 0.121662 -1 1.72702e-07 -5.37341e-08
-0.00494773 0.416607 0.111668 -1 1.62587e-07 -4.25005e-08
0.0107835 0.14981 0.352837 -0.0442129 -0.741701 -0.669272
0.00193002 -0.310646 0.0618568 1 -1.68448e-07 1.78813e-08
0.00393606 -0.253776 0.484137 0 -0.969409 0.24545
-0.0508463 0.26649 0.16064 -0.321404 0.0365541 -0.946236
0.0179664 0.185757 0.326946 -0.833957 0.483608 0.265778
-0.00494776 -0.229256 0.0565645 -1 1.6279e-07 -4.05687e-08
-0.00434306 0.105093 0.235706 -0.454076 0.856617 -0.244993
-0.00494775 0.30732 0.0470139 -1 1.65229e-07 -1.73661e-08
0.00193003 0.236913 0.0746745 1 -1.52906e-07 2.05606e-08
-0.00494778 -0.321306 0.174799 -1 1.6279e-07 -4.05687e-08
0.00811069 0.0326764 0.179967 0.987454 -0.113898 -0.109371
