0.0467407 0.197393 0.160239 0.993836 -0.0640379 0.090498
0.00518967 0.238389 0.286261 0.833148 0.229844 -0.503027
-0.00834719 0.123399 0.250668 0.437915 0.76773 -0.467784
0.00203679 0.335989 0.0374879 0.758222 -0.183376 0.625678
0.00247202 0.410868 0.104629 0.71966 -0.61783 0.316822
-0.00673318 -0.154183 0.242871 -0.490975 0.752032 0.439763
-0.0187494 0.125736 0.23643 0.925491 0.350218 -0.144268
0.0528829 -0.0447818 0.214338 -0.0135126 -0.573322 0.819219
-0.00045911 0.282334 0.0316154 0.247744 0.0480387 0.967634
-0.0176751 0.355815 0.231546 0.669519 0.539853 -0.510199
-0.0115169 0.284223 0.0083828 -0.961714 0.00167463 -0.274051
-0.00278843 0.341529 0.347018 0.125347 -0.269744 -0.954739
-0.0188889 0.0492427 0.147657 -0.996073 -0.0371078 -0.0803869
0.0121482 -0.322219 0.309363 0.997682 -0.00666751 0.0677266
0.00232566 -0.232504 0.311145 0.262938 0.337066 0.904019
0.0117783 -0.271633 0.306006 0.977669 -0.0140542 -0.209679
-0.00504954 0.109592 0.418013 -0.854243 -0.04778 -0.517675
-0.0529383 -0.290044 0.163107 0.856236 0.469012 -0.216536
-0.0161823 -0.342427 0.343203 -0.523944 -0.21468 0.824255
-0.00401817 0.421027 0.18903 -0.758154 -0.633575 -0.154227
0.00570985 -0.244871 0.109858 -0.155623 0.728559 0.667071
0.0219842 -0.118702 0.201889 0.999545 0.0294706 0.00647367
0.0351698 0.159556 0.159798 -0.995081 0.0596865 -0.0790624
-0.0138008 -0.349874 0.342265 -0.449636 -0.30799 0.838433
0.00573651 -0.23282 0.119003 -0.233031 0.55971 0.795249
0.00644046 -0.320334 0.00468732 0.585975 -0.140046 -0.798136
0.0211754 -0.320104 0.336178 -0.99941 0.00666437 -0.0336891
-0.0094102 -0.277833 0.120488 0.214076 0.924066 0.31666
-0.0268218 -0.257439 0.178329 0.324918 -0.342275 0.881633
-0.0134517 -0.160974 0.234014 -0.999571 0.00980294 0.0276084
0.0796202 -0.00034902 0.210165 7.27566e-05 0.202295 -0.979325
0.0326093 -0.15744 0.566079 -0.000364334 0.984438 0.175733
0.00914235 0.432659 0.183923 0.917449 -0.395963 -0.0387325
0.0209744 -0.18513 0.305298 -0.993656 -0.0747667 -0.0840052
-0.00335508 -0.396267 0.152495 0.525721 0.117806 -0.84246
0.0159594 0.131588 0.252645 -0.802025 0.516017 -0.300802
-0.00175882 0.0127812 0.170745 0.000476076 -0.29198 0.956424
-0.03281 -0.280529 0.161771 -0.593561 0.146058 -0.791424
-0.0588018 -0.255594 0.324839 -0.290654 -0.9285 0.231101
-0.0170732 0.0519149 0.131639 0.995758 0.057282 0.0720001
0.026713 -0.206868 0.189012 0.833753 0.232156 -0.500959
0.0154527 -0.311078 0.348737 0.533023 -0.0841357 0.841907
-0.00928857 0.259202 0.0253003 -0.827426 0.136572 0.544715
-0.000614915 -0.20208 0.364001 0.00358441 0.660904 0.750462
0.0192656 0.386997 0.309754 0.999996 -0.00245629 0.00109114
-0.0435763 -0.293594 0.158211 -0.030976 -0.537276 -0.842838
0.00320378 -0.427723 0.247368 0.26207 -0.832826 0.487566
-0.001004 0.288786 0.031268 -0.368019 0.0588299 0.927955
0.0457243 0.146173 0.487041 0.995539 -0.0942547 -0.00420217
-0.0149767 0.314922 0.153226 0.982502 0.15089 -0.109191
0.0121177 -0.43763 0.141933 0.975504 0.21976 0.00985203
-0.0143607 0.285317 0.152185 0.99994 -0.00544523 -0.00951654
0.0428962 0.128505 0.489315 0.94544 -0.236215 0.224377
-0.0126818 -0.251664 0.0228846 -0.952692 -0.0852963 0.291722
-0.0128416 -0.231036 0.0202488 -0.854845 0.207781 -0.475466
0.00380823 0.0868059 0.312156 0.994802 0.0918766 -0.0439041
-0.0366601 0.0471091 0.126066 -0.999534 0.0264741 -0.015192
0.125042 -0.175789 0.557857 -0.006741 -0.809266 -0.587403
0.0437037 0.152148 0.497183 0.844367 0.0276152 0.535054
-0.00839271 0.337368 0.15216 0.242395 0.190912 0.951208
-0.00914447 0.116262 0.236114 -0.329381 -0.861265 0.386951
-0.00380561 -0.15223 0.241568 -0.258924 0.837371 0.481423
0.0163661 0.281647 0.158539 0.99997 -0.00529297 0.00559327
0.0122257 -0.357832 0.0268185 0.998334 -0.0214716 -0.0535629
0.0373238 0.131322 0.164425 0.0020904 -0.000685885 0.999998
-0.0307321 0.0731446 0.162094 0.856297 -0.0111112 0.516364
-0.10645 -0.175174 0.572522 0.18008 -0.897557 0.402445
-0.0339667 -0.158856 0.569821 0 0.865448 0.500999
0.00420998 -0.216562 0.198206 -0.709545 0.251862 -0.658112
-0.000736263 0.109484 0.222164 -0.0697701 -0.940815 0.331663
0.0104989 0.339105 0.301125 0.98117 -0.057464 -0.184398
0.00269625 -0.0254535 0.429248 0.685094 -0.0673499 -0.725334
-0.0348008 0.174627 0.157794 0.862981 0.0509244 -0.502664
0.0850603 -0.0222621 0.210315 0.0200522 0.354352 -0.934897
0.00277672 0.347689 0.28132 0.796857 -0.263305 -0.543773
0.144994 -0.172615 0.573553 0.196421 -0.652566 0.731831
-0.0125882 0.398747 0.283582 0.681276 0.530035 -0.504901
0.0384277 0.177806 0.500813 0.707966 0.21769 0.67186
-0.0172402 0.00427151 0.162194 0.99609 0.000336523 -0.0883431
0.0181482 0.133079 0.247027 -0.995074 0.0844031 -0.0519923
-0.0446847 0.292793 0.157142 0.239659 0.0701389 -0.96832
-0.0170985 -0.00369235 0.112481 0.995727 -0.0888113 -0.02531
0.0211776 -0.456011 0.225715 -0.99941 0.0325187 -0.0110882
-0.0209215 0.0871014 0.108116 -0.447553 -0.127223 0.885162
-0.0224137 0.102965 0.491853 -0.908408 -0.371858 0.191092
-0.00723916 0.161995 0.117879 -0.850279 0.495967 0.17619
-0.00848961 0.222985 0.0407406 -0.855921 0.256305 0.449118
0.00918691 0.330969 0.298461 0.917465 -0.107153 -0.383115
0.00328243 -0.421844 0.136632 0.715143 0.679398 0.164284
-0.00469865 0.031369 0.203725 -0.858836 -0.46053 0.224306
-0.0106905 -0.316339 0.179588 0.195782 0.576249 0.793477
0.0105177 0.441959 0.17945 0.988592 0.148794 0.0233777
-0.0220141 -0.110404 0.187404 -0.838632 0.527927 0.134126
-0.00773288 0.177661 0.238414 -0.853514 0.431564 -0.292004
-0.0175938 -0.22636 0.336299 0.610512 -0.248375 -0.752054
0.00108262 -0.477149 0.209315 -0.081568 0.962704 -0.257969
-0.0128446 -0.367034 0.336231 -0.373254 -0.379843 0.846404
-0.012038 -0.408918 0.0597653 -0.871324 -0.392412 -0.294629
-0.00582363 0.149539 0.234974 -0.519935 -0.741722 0.423694
-0.00905835 0.138333 0.42403 -0.00113698 0.0271472 0.999631
0.0212086 -0.33916 0.327863 -0.986917 0.0389742 -0.156445
0.0505821 -0.238999 0.384719 0.0865293 0.165029 0.982486
-0.0162971 -0.374042 0.330137 0.488049 0.376064 -0.787645
0.00302028 -0.0159962 0.197786 0.86623 0.32991 0.375239
-0.0598851 -0.288194 0.191714 -0.559044 -0.804199 0.201828
0.0215838 -0.136897 0.214348 0.977659 0.138681 -0.157959
0.00059583 0.174265 0.124294 -0.466229 -0.233978 0.853161
-0.00305047 0.177822 0.0964448 -0.758262 0.583831 0.290138
0.00451924 0.20683 0.174339 0.981362 -0.106369 -0.160042
-0.0224357 -0.111408 0.187028 -0.950937 0.304899 0.0524872
-0.0119174 -0.325261 0.313272 -0.834099 -0.0923631 0.543827
0.000795484 0.328271 0.00426177 0.0559435 0.250635 -0.966464
-0.0203131 0.298191 0.147663 0.999934 -0.0038536 0.0108613
-0.00175532 0.0795823 0.498552 -0.0864342 -0.266202 0.960034
-0.0107863 -0.145398 0.217077 -0.746998 0.626974 0.221131
-0.0194568 0.129516 0.245586 -0.809433 -0.527716 0.257554
0.0119111 -0.16631 0.247784 0.958844 0.232155 0.163467
0.0197462 -0.108997 0.179285 -0.908962 -0.41372 -0.0512154
-0.00354725 -0.0330928 0.204716 -0.627251 -0.514453 -0.584716
0.00473191 0.446869 0.122593 0.54104 0.814459 -0.209602
0.0150248 0.264729 0.166896 0.979553 -0.197453 0.03859
-0.00518374 -0.131611 0.297658 -0.974694 0.146759 0.168622
-0.0116211 0.171351 0.0797627 -0.963516 0.222722 0.148432
-0.00718809 0.444764 0.117171 -0.675279 0.714107 -0.184528
-0.0171198 0.068902 0.175673 0.996837 0.0186023 -0.0772604
-0.0525108 -0.278512 0.20311 0.572282 0.795796 -0.197996
-0.00815344 0.28739 0.112922 0.242148 0.966586 -0.0841135
0.0509313 -0.0245408 0.210055 -0.329098 -0.114093 -0.937378
0.0034143 0.280763 0.294111 0.78794 0.0295588 -0.615042
-0.00879138 -0.411898 0.229052 -0.81725 0.505127 -0.277398
0.0412593 0.129507 0.411198 0.0213652 -0.985367 -0.169102
0.0100203 0.176937 0.263156 0.966691 -0.19827 0.161854
0.0415072 -0.0432579 0.210682 -0.98917 -0.130794 -0.066603
-0.0232666 -0.238877 0.33224 -0.988127 0.0596106 0.141605
0.00318762 -0.295305 0.353364 -0.0993693 0.00784103 -0.99502
0.00951609 0.259944 0.313003 0.874499 -0.0796343 0.478445
0.00538906 0.362127 0.277991 0.85021 -0.266611 -0.453939
-0.0275304 0.130891 0.496819 -0.828466 -0.208851 0.51964
-0.0671464 -0.242058 0.361646 -0.796577 -0.108011 -0.59481
-0.0151813 0.352018 0.339506 -0.66368 0.268895 0.698014
-0.00372158 0.0623932 0.420733 -0.618521 -0.0722308 -0.782442
0.0068844 0.142247 0.470011 -4.57795e-05 -0.016258 -0.999868
-0.0026472 -0.273169 0.32169 -0.0833897 0.0829255 0.993061
0.00620116 -0.387147 0.0335952 0.593637 -0.47363 -0.650592
-0.00383702 -0.218024 0.0182374 -0.327898 0.395298 -0.858034
0.0149152 -0.300043 0.150389 -0.999944 -0.00267582 -0.0102453
0.00581815 -0.363719 0.138976 0.380089 -0.31738 0.868793
0.00193648 -0.261858 0.351146 -0.0679122 -0.163464 -0.984209
-0.0103867 -0.390786 0.260366 -0.791556 0.439035 -0.425072
0.020157 -0.115428 0.205799 -0.908317 -0.397893 -0.129001
-0.0231713 -0.204071 0.312572 -0.997344 -0.0454055 -0.0569543
0.00119004 0.47464 0.218262 -0.0256988 -0.960681 -0.276464
0.0451872 0.262951 0.202947 -0.614256 -0.674126 -0.410174
-0.0631225 -0.243836 0.360704 -0.127773 -0.361923 -0.92341
0.0133783 -0.167097 0.556377 -0.000197871 0 -1
-0.0170711 0.262273 0.344391 0.804591 0.109871 -0.583577
0.00429217 -0.10204 0.189591 -0.171139 -0.967577 -0.185761
0.0211898 -0.410776 0.286776 -0.999967 -0.00453978 0.00670101
0.0096417 0.18238 0.254837 0.916298 0.287109 -0.279225
0.00243462 -0.251272 0.286493 0.673522 -0.217933 -0.706309
0.00839082 -0.175365 0.0547417 0.721105 0.49846 -0.481192
0.0184656 -0.29798 0.180688 0.999422 -0.00799364 0.0330286
-0.0106182 -0.216948 0.434962 -0.572514 0.799472 -0.181857
-0.0757441 0.0442432 0.113424 -0.00713369 0.796158 -0.605047
-0.0173695 -0.284998 0.187024 0.975608 0.0801764 0.204353
-0.0710481 0.0521317 0.115945 -0.0266885 -0.735495 0.677005
0.0134008 0.286466 0.183533 -0.984106 -0.0859911 0.155372
0.00750653 0.258274 0.166783 -0.938363 0.126104 0.321826
-0.0413777 0.223682 0.155882 -0.00495725 -0.000896224 -0.999987
-0.00978817 -0.154416 0.138363 -0.827027 -0.557077 0.0754451
-0.0203414 0.289764 0.173637 0.999941 0.00363979 -0.0102588
0.0160271 -0.209043 0.329098 -0.614898 -0.33878 -0.712129
0.0434296 0.243962 0.237717 -0.829958 -0.474165 -0.293832
0.00851192 -0.297205 0.110127 0.976164 0.185364 -0.112888
0.0141079 0.00723195 0.166562 0.0157388 -0.864934 0.501639
0.0212142 -0.200494 0.318076 0.921906 0.189558 0.33787
0.103056 -0.1761 0.560587 -0.152457 -0.875333 -0.458856
0.00826715 0.476306 0.206114 -0.397083 -0.886708 -0.2368
-0.0135301 -0.279775 0.0126139 -0.999773 0.0117274 -0.0178031
0.00561752 -0.181203 0.318372 0.198499 0.556083 0.807075
0.00335792 0.0351499 0.424676 0.855337 -0.0472739 -0.51591
0.0440821 0.200462 0.164147 0.343557 -0.0224465 0.938864
0.0147819 0.473091 0.201707 -0.678808 -0.716276 -0.161765
0.0010053 0.166073 0.262461 0.0618891 -0.763582 0.642738
0.0106841 -0.265261 0.314233 0.871655 0.105706 0.478585
-0.0127717 -0.343195 0.0166437 -0.966328 -0.104915 -0.234953
-0.015491 0.301169 0.186522 0.977987 0.0778475 0.193599
-0.0189137 -0.00597229 0.17197 -0.995836 0.038144 0.0828037
-0.00849698 -0.47746 0.207252 -0.239567 -0.934937 0.261726
-0.0537574 -0.277498 0.203583 0.572282 0.795796 -0.197996
-0.0183462 -0.342127 0.341758 -0.611713 -0.212994 0.761867
-0.0470385 0.214877 0.283625 -0.616083 -0.676426 -0.403594
0.00954082 -0.295551 0.16372 -0.03646 0.44772 0.89343
0.0115016 -0.138779 0.147645 0.952555 0.303709 -0.0199841
-0.020228 0.255443 0.338534 -0.938163 -0.0494111 0.34265
-0.00524813 -0.323292 0.0734272 -0.195934 -0.93118 0.307429
-0.142862 -0.163994 0.553498 -0.245217 0.453536 -0.85684
0.00300988 -0.405141 0.316867 0.102568 -0.583013 0.805963
-0.00409724 0.0491952 0.227858 -0.628952 0.699675 -0.338932
0.00598551 -0.34373 0.345737 -0.199607 0.247565 -0.948087
-0.0234453 -0.221795 0.181664 0.309352 0.297135 -0.903334
-0.0117284 0.257761 0.0129906 -0.963898 -0.0458312 -0.262297
-0.00795976 -0.475092 0.216166 -0.215513 -0.938671 0.269166
0.0105431 0.196316 0.277914 0.999672 -0.0252663 0.00428621
-0.00213113 0.133446 0.420498 -0.222077 0.228667 0.947836
-0.010718 -0.135075 0.168568 -0.747203 0.664562 -0.00676191
-0.00814964 0.477616 0.203621 0.396583 -0.895182 -0.203397
-0.00195908 0.12241 0.375511 -0.33145 0.848427 -0.41269
-0.000622085 -0.17547 0.441486 0.0068771 -0.0912245 -0.995807
-0.00502655 -0.350125 0.0117596 -0.221279 -0.324963 -0.919475
0.0321698 -0.0271845 0.213061 0.997366 -0.0608769 -0.0394415
-0.00496161 -0.164364 0.124346 -0.761014 -0.6241 0.177081
0.0021061 -0.225333 0.24769 0.0671724 0.798506 -0.598228
-0.0154582 0.127859 0.251999 -0.663666 -0.640723 0.386033
0.0105514 0.239982 0.0231095 0.986598 0.0698925 0.147445
0.0300476 -0.290702 0.166931 0.0234689 0.174418 0.984392
0.00687214 0.183842 0.248159 0.833805 0.427177 -0.349699
-0.114298 -0.17724 0.569443 0.0207403 -0.905224 0.424428
-0.0114672 0.138779 0.162852 -0.97059 -0.240547 -0.00963929
-0.00104863 -0.344674 0.346827 -0.0035246 -0.255168 0.96689
0.0137469 -0.135149 0.220264 -0.618367 -0.306427 0.723689
0.149361 -0.160185 0.57297 0.232698 0.608279 0.758847
0.0520593 0.130591 0.413473 0.209298 -0.972825 -0.0990283
-0.0153934 0.0852473 0.489541 -0.850832 -0.456718 0.259794
-0.0101393 -0.203929 0.49637 -0.483378 0.86238 -0.15049
0.00726666 -0.206299 0.333075 0.196256 0.42054 0.885793
-0.0046887 -0.458542 0.256541 -0.185764 -0.854831 0.484515
-0.00996676 -0.294308 0.158017 -0.00383254 -0.625394 -0.7803
0.0012262 -0.23944 0.384688 0.00479673 0.230867 0.972974
-0.0112086 0.254938 0.348307 -0.218492 -0.171463 0.960657
-0.0189899 0.185496 0.311539 -0.811681 -0.335063 0.478443
0.0190549 0.124492 0.224549 0.996738 -0.0802962 0.008128
0.00124056 -0.30497 0.0444038 -0.277282 -0.952046 0.129317
0.00562667 0.384214 0.291231 0.508273 0.496671 0.703546
-0.0188302 0.00882731 0.179094 -0.995771 0.0816612 0.0420916
0.0437352 0.226012 0.265839 -0.850727 -0.447411 -0.275839
0.0584833 -0.241148 0.369845 0.976522 -0.20926 0.051133
0.0446171 0.16431 0.494094 0.959753 -0.0605705 0.274237
-0.0171382 0.0424386 0.151762 0.996509 -0.0362941 -0.0751802
-0.0126213 -0.279516 0.177516 -0.995539 0.0471147 0.08175
-0.0375155 0.0108179 0.167939 -0.211116 -0.612525 0.761737
-0.11142 -0.170374 0.576083 0.0727808 -0.418568 0.905264
-0.0512147 -0.238623 0.384244 -0.11063 0.214112 0.970524
-0.042244 0.14536 0.417891 -0.167956 0.74959 0.640238
0.00350824 -0.252682 0.350035 0.0263941 0.173089 0.984553
0.00109048 0.406904 0.223469 0.368873 -0.833056 -0.41225
0.150613 -0.158054 0.570456 0.227958 0.829005 0.510672
0.0416534 0.131194 0.474844 0.762359 -0.236961 -0.602211
-0.0987063 0.0762414 0.113507 -0.951522 0.146046 0.270696
-0.0201918 0.269172 0.150902 0.999944 0.00996231 0.00353463
-0.0993514 0.0603037 0.114623 -0.999513 0.0159156 -0.0268451
-0.00655275 -0.325927 0.317816 -0.460718 -0.161454 0.872738
-0.00138871 -0.35836 0.0573818 0.990628 -0.0339959 0.132288
-0.00758851 0.215925 0.0218566 -0.609312 -0.399431 -0.684977
0.0148752 -0.290598 0.151151 -0.999936 -0.00360837 -0.010723
-0.0448228 0.266928 0.19574 -0.00750701 -0.85661 -0.51591
-0.00561389 -0.190408 0.32413 0.282502 -0.466345 -0.838281
-0.0132197 0.141009 0.274269 0.53893 0.682503 -0.493705
0.00493291 -0.167784 0.110289 0.808773 -0.544426 0.222457
-0.00937417 -0.332497 0.149029 0.440313 -0.236205 0.866217
-0.00196318 -0.193897 0.443672 -0.335769 -0.12014 -0.934251
-0.00698348 0.267468 0.295742 -0.850298 0.09499 -0.517659
0.0225979 -0.172867 0.559729 -0.000454061 -0.866715 -0.498803
0.138853 -0.160492 0.575662 0.0177439 0.380809 0.924484
-0.0202427 0.27354 0.170781 0.999945 0.00993931 -0.00343741
-0.0074525 -0.255251 0.29239 -0.812975 -0.153186 -0.561788
-0.0104247 -0.287174 0.123779 -0.523448 0.85124 0.0373244
-0.0343636 0.0454627 0.131451 0.999728 0.00177574 0.0232527
0.00198837 -0.00487766 0.426731 0.630506 -0.0708501 -0.772944
0.0203775 -0.454962 0.245084 0.832688 -0.476804 0.281582
-0.0605833 -0.238194 0.3835 -0.792491 -0.567961 0.22221
-0.0088186 -0.435496 0.286791 0.304434 0.726969 -0.615497
-0.0166703 0.326872 0.344762 -0.648194 0.134595 0.749486
0.00339126 -0.186887 0.322863 0.104347 0.572891 0.812962
-0.0171668 0.0356316 0.1971 0.995824 -0.0821921 0.0397451
-0.12606 -0.155781 0.558359 0.0073377 0.809695 -0.586805
-0.0207983 -0.350523 0.335172 0.763205 0.223993 -0.606091
-0.00222901 0.340533 0.282671 -0.368001 -0.372663 -0.851879
-0.0244576 -0.28696 0.161354 -0.00416294 0.982593 -0.185726
-0.008078 -0.193768 0.514987 -0.299808 0.812447 -0.500046
0.0141803 0.229947 0.338536 0.663832 -0.269051 0.69781
-0.00501898 0.0203972 0.168826 0.00790723 0.695821 0.718171
-0.0208391 0.274492 0.155283 -0.999774 0.0200174 0.00718446
0.0498009 -0.234741 0.3849 -0.65901 0.74907 -0.067818
-0.00292074 0.164788 0.1937 -0.490442 0.850122 -0.191724
0.0540911 -0.257547 0.316237 -0.0584113 -0.968861 0.240619
0.00919808 0.306415 0.158688 -0.803385 0.0634832 0.592066
-0.0360662 0.133777 0.422072 -0.0345781 -0.467573 0.883278
-0.0102101 0.218328 0.299023 -0.755806 -0.316806 0.573054
0.00931195 -0.139918 0.275968 -0.291805 -0.774273 -0.561562
-0.00698616 0.311115 0.099225 -0.485273 -0.819892 -0.303788
-0.018841 0.0258673 0.194194 -0.996625 -0.0794257 0.0207428
-0.0340437 0.113499 0.15622 0.342146 0.00733277 -0.939618
0.0218252 -0.39734 0.299449 0.991006 0.0832086 -0.1048
0.0577554 -0.241024 0.359125 0.852041 0.503254 -0.144086
-0.00648253 0.352348 0.175356 0.856201 0.0478514 -0.514422
-0.00749903 0.389231 0.0647872 -0.845985 -0.375366 0.378694
-0.0201226 0.345235 0.217586 0.347256 0.705467 -0.617843
-0.0446423 0.0533088 0.11134 0.999583 0.00238797 -0.0287878
0.0121832 -0.300811 0.011673 0.997571 0.000972597 -0.0696549
0.0220209 -0.45483 0.226884 0.997275 0.0648884 -0.0351002
-0.00552681 0.109595 0.21908 0.311767 0.908899 -0.276955
-0.0219175 -0.345247 0.334696 0.948287 0.0838887 -0.306128
-0.0303121 0.0264094 0.163188 0.76557 -0.0205898 0.643023
0.0082232 0.267166 0.00668514 0.777964 -0.100587 -0.620205
-0.00736187 -0.364002 0.138192 -0.995538 -0.0925272 -0.0185001
0.00839488 0.305476 0.193314 0.538125 -0.750929 0.382788
0.0175408 -0.313504 0.147019 0.971021 -0.214571 -0.105252
-0.00714991 -0.270405 0.319752 -0.460449 0.147038 0.875424
0.00906706 0.310625 0.141342 0.425537 0.69915 0.57455
0.136581 -0.154294 0.5622 0.0225126 0.972281 -0.232729
-0.0190851 0.254979 0.33945 0.935257 0.0560798 -0.349499
-0.00105306 -0.2178 0.376717 -0.0254357 0.601687 0.798327
-0.0033656 0.0586122 0.428088 -0.71593 0.067282 0.694923
0.0168301 0.311824 0.34557 0.793229 0.0426209 0.60743
0.0220635 -0.36247 0.32253 0.999995 -0.00247436 -0.0017755
0.0122119 -0.147386 0.194253 0.975817 -0.213256 -0.0479995
-0.0128084 -0.321276 0.31202 -0.961775 -0.0380592 0.271185
-0.00591887 -0.437296 0.286549 -0.196137 -0.746022 0.636381
-0.0046154 -0.241462 0.0723274 -0.700238 -0.58505 -0.409124
-0.00785699 -0.249506 0.00784637 -0.483478 0.229721 -0.844676
0.00619429 0.311983 0.0991836 0.981345 0.190669 -0.0246441
-0.0172259 0.0239344 0.152909 0.995771 0.0715191 0.057663
-0.00462119 0.0572127 0.257018 -0.796671 -0.545003 0.261318
-0.00324512 0.419126 0.129386 -0.715205 -0.681655 0.154364
-0.00459879 -0.480425 0.195131 0.0985386 0.96986 -0.222849
0.113892 -0.161832 0.553635 -0.0192193 0.390113 -0.920566
0.0484908 0.239117 0.257516 0.278507 0.82116 0.498126
-0.00780932 0.171898 0.310854 -0.181922 -0.637794 0.748414
0.00760346 0.371811 0.0258708 0.763639 0.321557 -0.559872
-0.0168422 0.0614953 0.135338 0.995838 0.0397758 0.0820093
-0.00185839 0.389183 0.242785 -0.243132 -0.602231 0.760397
0.0101029 0.191359 0.0571575 0.933177 0.258286 0.249939
-0.0489812 0.268728 0.160735 -0.979529 -0.0613682 0.191723
0.0616229 -0.174556 0.564109 -0.000142723 -0.987464 -0.157845
0.0312756 -0.158927 0.569953 -0.000440155 0.866759 0.498727
0.00722361 -0.294448 0.215072 -0.397548 -0.914566 -0.0743332
-0.0130232 -0.163137 0.0934256 -0.972855 -0.211412 0.0941192
-0.0190532 0.0236801 0.117554 -0.996668 0.0799044 0.0163786
-0.0169715 -0.436392 0.279828 0.594473 0.608237 -0.525975
0.0218496 -0.175476 0.290684 0.990997 -0.0888039 -0.100192
0.0252808 0.339796 0.217208 0.984588 0.167948 -0.0487863
-0.00673835 -0.15683 0.162456 -0.817586 -0.575791 -0.00414089
-0.0107432 0.303966 0.303859 -0.915148 -0.0315955 -0.401877
0.00545301 -0.263351 0.22612 -0.664453 -0.705397 0.246814
-0.0243888 0.327658 0.209843 -0.363167 -0.69943 0.615554
0.0193479 -0.187985 0.202269 -0.338181 -0.336549 0.878845
-0.00945741 -0.239434 0.150124 -0.942273 0.156362 0.296095
-0.00194916 0.432137 0.293158 -0.0399037 0.711972 0.701074
-0.0517494 -0.274807 0.222222 0.821478 0.553389 -0.137602
0.011599 -0.222089 0.288902 0.977673 -0.0849426 -0.192197
-0.00618982 0.301051 0.321054 -0.527415 0.0755553 0.846241
0.0023771 -0.336686 0.0377699 0.715059 0.197441 0.670603
-0.000654224 0.346275 0.279662 0.248122 -0.376092 -0.892743
0.0486292 -0.246568 0.32899 -0.691061 -0.708423 0.143427
-0.0170868 -0.474276 0.204724 -0.577423 -0.786116 0.220463
-0.0232227 -0.44392 0.246389 -0.996829 0.074986 -0.0266279
-0.0133644 -0.427697 0.229091 -0.974519 -0.202766 0.095913
0.0506873 0.149218 0.39542 0.999225 -0.00577929 0.0389431
-0.0231372 -0.123293 0.220811 -0.995872 0.0750389 0.05107
0.0492248 0.225615 0.263823 0.323831 -0.811103 -0.487078
-0.0134262 -0.433195 0.113423 -0.999773 -0.0154974 -0.0146389
0.0437889 0.239285 0.253884 -0.860446 0.438929 0.258794
-0.00268177 0.390669 0.326579 -0.0289588 0.50044 0.865287
-0.013383 -0.193031 0.270712 -0.975697 -0.155827 -0.154056
0.00911063 -0.341235 0.0302629 0.803968 0.244512 0.542079
0.0407162 -0.0256607 0.209478 -0.997068 -0.0174286 -0.0745142
0.0231415 -0.234149 0.177646 -0.11748 0.302108 -0.946007
-0.00458435 0.160465 0.458024 -0.858867 0.460555 -0.224135
-0.00475402 -0.0308687 0.210454 -0.858168 0.337792 0.38658
0.00344968 -0.131821 0.145383 0.27788 0.957567 -0.0764776
-0.0449983 0.20675 0.161248 -0.979529 -0.0613599 0.191721
0.0370281 0.142156 0.421677 0.0437787 0.231688 0.971804
-0.0120531 -0.297176 0.143588 -0.207615 0.916108 -0.342989
0.0163545 0.402427 0.308968 -0.79556 -0.353809 -0.491836
-0.0204268 0.294121 0.156925 0.999936 -0.00127176 0.0112868
-0.00966249 0.306137 0.191754 -0.486444 0.813309 -0.31922
0.00866871 0.268885 0.18766 0.896701 0.275593 0.346375
-0.00518221 0.122699 0.383279 -0.961744 0.246677 -0.119162
0.00294468 -0.288471 0.000647577 0.258879 0.00352567 -0.965903
-0.0437557 0.290327 0.157193 0.239659 0.0701389 -0.96832
0.00371523 0.103543 0.344801 0.983321 0.163518 -0.0796363
-0.00319389 -0.0966988 0.434892 -0.366533 -0.0860166 -0.926421
0.133087 -0.177923 0.566834 0.00634336 -0.979045 0.203548
-0.000915636 -0.16698 0.124461 -0.227255 -0.931821 0.282958
0.00301154 0.374346 0.123411 -0.536717 -0.389769 -0.748342
0.00503258 0.100928 0.185106 0.18735 -0.966051 0.17789
-0.00648437 0.354602 0.175639 0.485332 0.16062 -0.85945
0.0106556 0.142152 0.168572 0.998767 -0.0492131 0.00649067
-0.00839373 0.297538 0.112344 -0.465441 0.883608 0.0510068
0.0567978 -0.289666 0.182053 0.841796 -0.526722 0.118086
-0.0047469 -0.364533 0.211976 0.881208 -0.198576 -0.429
0.00478082 0.143566 0.101533 0.519904 -0.80042 -0.298375
-0.0230354 0.366893 0.246863 -0.867446 0.419132 -0.268079
0.00693447 0.256135 0.12571 0.237274 0.663563 -0.709496
-0.0413377 0.159357 0.385675 0.851989 0.451216 0.265554
-0.00992947 -0.150748 0.290495 -0.306791 0.733075 0.607026
-0.00948422 -0.156455 0.192514 -0.812832 -0.563313 -0.148266
-0.0170037 0.00432457 0.201896 0.996486 0.0815213 0.0192622
-0.00624822 -0.243906 0.107483 0.931581 -0.321664 -0.169377
-0.0099066 0.313992 0.00672372 -0.771201 0.104361 -0.627979
0.00905755 0.311625 0.315945 0.777949 0.10055 0.620229
0.0179219 -0.274448 0.179145 0.980959 0.115721 0.155977
-0.0223656 0.160659 0.113932 0.999447 -0.0331411 -0.00251511
-0.0206103 0.419754 0.281899 -0.997957 -0.0444799 -0.0458565
-0.0224104 -0.366121 0.324194 0.987387 0.0593123 -0.146796
-0.00270977 0.20277 0.224262 0.7564 0.424049 0.498038
0.00660421 0.461944 0.247483 -0.313876 -0.863013 -0.395841
-0.0337669 0.17063 0.159741 0.982799 0.0586343 -0.175123
0.00312485 -0.207375 0.0245493 0.301783 0.466927 -0.831208
0.0299915 -0.251232 0.381707 0.00549822 -0.878064 0.478512
-0.0111326 0.456362 0.256159 -0.396169 0.793523 0.461922
-0.0060295 0.305034 0.233322 0.464891 -0.876033 0.12823
-0.0224961 -0.319645 0.332526 0.999952 -0.000702808 0.00973689
-0.000371106 0.445123 0.276657 -0.0162476 -0.810518 -0.585488
-0.0486381 -0.222195 0.376832 -0.262709 0.869771 0.41771
0.0409236 0.217436 0.156189 -0.648311 0.0401424 -0.760316
-0.023478 0.113083 0.111628 0.0829892 0.0942031 -0.992088
0.0401129 0.237696 0.160091 -0.978539 0.0606058 0.196946
0.0623274 -0.242253 0.36137 0.208727 -0.594034 -0.776889
-0.0514102 -0.241646 0.368816 0.976473 -0.209396 0.0515062
0.006051 -0.371968 0.0519006 0.821603 0.334388 0.461685
-0.0190072 -0.215536 0.331781 -0.657218 0.318812 0.682952
0.0152076 0.109433 0.195268 -0.672459 0.719772 -0.172414
-0.019676 0.462974 0.215509 0.976435 -0.200658 -0.0794404
-0.00979351 0.447427 0.144558 -0.794251 0.605326 -0.0524111
-0.00275453 0.130981 0.26584 0.106197 0.820051 -0.562351
0.00174646 0.397741 0.084153 0.693043 -0.574944 0.434892
-0.0102228 0.163308 0.249941 -0.770977 -0.518322 0.370049
0.00828932 -0.262751 0.127997 -0.214505 -0.743677 -0.633192
-0.00767769 -0.299046 0.0993803 0.152605 -0.980937 0.120313
-0.0526498 -0.241897 0.350041 0.614294 0.766013 -0.189389
0.0582298 -0.0440615 0.21457 -0.0145092 -0.231988 0.97261
0.0102757 0.387405 0.280328 0.974413 0.158247 0.159617
0.0176317 0.392811 0.312824 -0.926101 -0.202149 -0.318547
-0.0421383 0.288425 0.162596 -0.0232373 -0.993051 0.115364
-0.011565 0.433921 0.105509 -0.963906 0.25032 -0.0906925
-0.0185324 -0.171237 0.199963 0.362167 0.285903 -0.887183
-0.00111006 -0.401414 0.0912667 -0.219417 0.817976 0.531763
-0.0232351 -0.292468 0.336832 -0.996832 0.0143958 -0.0782195
-0.00966166 0.277712 0.140277 0.802606 -0.463787 0.375135
0.0177154 0.330083 0.206604 -0.983893 0.0819509 -0.15887
-0.0452417 0.258668 0.164627 -0.342644 -0.0211436 0.939227
-0.0174604 0.295878 0.139878 -0.999413 0.00628654 -0.0336905
0.0152512 0.472801 0.201022 -0.678808 -0.716276 -0.161765
0.0464078 -0.253213 0.307053 -0.677086 0.69382 -0.245293
0.00791013 -0.297138 0.105922 0.651107 0.745547 -0.142194
0.00835184 0.168555 0.0931818 0.888394 0.410079 0.206379
-0.0297435 0.131875 0.477122 -0.934299 -0.171005 -0.312799
-0.0171668 0.00905924 0.119038 0.996563 -0.0807285 0.018574
0.00368461 -0.234309 0.281071 0.757639 -0.284415 -0.587445
-0.00149617 -0.177086 0.108705 0.438881 -0.409372 -0.799874
-0.0426638 0.138203 0.417108 0.894362 0.125813 0.429287
0.0956612 -0.158353 0.558376 -0.149296 0.674285 -0.723222
-0.0679112 -0.237771 0.375789 -0.95152 0.0247013 0.306595
0.0146598 -0.231739 0.383301 -0.0226445 0.210983 0.977227
0.00425978 -0.158256 0.161806 0.729426 -0.68306 -0.0369661
-0.022382 -0.246472 0.334879 0.987395 -0.0489221 -0.150524
-0.00288927 -0.210477 0.0708052 -0.777913 0.51532 0.359578
-0.0188963 -0.324496 0.345132 -0.596145 -0.132192 0.791919
-0.0131318 0.288902 0.350754 -0.494947 -0.003193 0.868917
-0.0230635 -0.295445 0.163531 -0.00431859 -0.86275 0.505612
0.0212197 -0.398904 0.302259 -0.998749 0.0361655 -0.0345243
0.0106078 0.190323 0.268983 0.986998 0.121062 -0.105732
-0.0199049 0.351159 0.327102 0.999984 -0.00527481 -0.00223919
-0.0116837 -0.379706 0.0329338 -0.854902 -0.307735 -0.417662
0.013439 0.305948 0.143453 -0.991597 0.0659511 -0.111295
0.00590397 -0.22942 0.116224 0.628995 0.507719 0.588716
-0.0398102 0.0918923 0.158462 -0.861578 -0.0235939 -0.507077
0.00245955 -0.227269 0.39857 0.778706 0.612323 -0.136663
-0.0122724 0.464454 0.239313 -0.472261 0.795651 0.379355
0.0127624 -0.227175 0.33895 -0.452787 -0.303411 -0.838407
0.0203185 0.100834 0.503275 0.245414 -0.222363 0.943571
0.0242578 -0.19702 0.198801 0.570984 -0.229661 0.788183
0.00858318 0.00711756 0.166522 0.0108827 -0.83468 0.550628
0.00521116 0.143276 0.103061 0.519904 -0.80042 -0.298375
-0.0219174 -0.316769 0.340676 0.924496 0.0760315 -0.373531
-0.0465811 0.232873 0.252996 -0.331426 -0.809363 -0.484859
0.00803261 0.319905 0.15566 -0.803385 0.0634832 0.592066
0.021208 -0.410718 0.289157 -0.999923 -0.00730966 0.0100305
-0.0212244 0.13945 0.506552 -0.575615 -0.0770844 0.81408
0.00660061 0.443493 0.11517 0.678211 0.710098 -0.189183
-0.0119145 0.374012 0.283515 -0.982951 -0.109869 -0.147434
-0.0216713 -0.368926 0.325989 0.906595 0.195642 -0.373911
-0.0217469 -0.191001 0.312276 0.906695 -0.22593 -0.356174
0.00796436 0.258011 0.184506 0.42487 -0.545926 -0.722115
-0.0414082 0.195834 0.156158 -0.3438 -0.0221232 -0.938782
0.036158 -0.157505 0.566448 -0.000364334 0.984438 0.175733
0.0103268 0.394872 0.0582151 0.98919 -0.10309 0.104283
-0.011243 0.282408 0.147609 -0.484439 -0.757955 0.436833
0.00860815 -0.109797 0.216392 -0.293571 -0.91913 -0.262709
0.00388608 0.366593 0.050666 0.771296 -0.347545 0.533212
0.00385105 -0.168841 0.445473 0.982639 0.0170479 0.184743
-0.0109954 0.274593 0.150596 -0.837655 0.220801 -0.49958
-0.0228342 -0.111128 0.176471 -0.914863 0.403716 -0.00630555
-0.0388052 0.0734441 0.157613 -0.861578 -0.0235939 -0.507077
-0.0170345 0.120709 0.231544 0.665953 0.697059 -0.265735
0.00912707 -0.179211 0.315818 0.329504 0.552343 0.765732
7.93674e-05 0.370282 0.30239 0.107857 0.488078 0.86611
-0.0313348 0.150562 0.478313 -0.888909 0.0421994 -0.456136
-0.0603991 -0.266681 0.249307 -0.576991 0.792741 -0.196579
0.00953978 0.350842 0.292016 0.916129 -0.166188 -0.364815
-0.0294488 0.181279 0.488878 -0.88883 0.408154 0.208307
-0.0215576 -0.466355 0.210705 0.912996 0.38887 -0.12336
-0.00687957 -0.370841 0.15552 -0.439941 -0.114511 0.890696
-0.00237606 0.116111 0.508547 -0.193579 -0.275161 0.941708
-0.0195276 -0.271855 0.149371 -0.984215 0.151149 -0.092059
-0.0045493 0.423162 0.180906 -0.758201 -0.647929 -0.072932
0.108534 -0.159838 0.575305 -0.0192391 0.602405 0.797959
-0.00746211 -0.232644 0.19158 0 -0.444032 0.896011
0.00311726 0.220508 0.0911819 0.588909 0.52777 -0.612083
0.0382971 0.18505 0.496639 0.800591 0.382692 0.461086
-4.98518e-05 -0.188176 0.0856408 -0.543121 0.457374 0.704152
-0.0289289 -0.251697 0.361603 -0.0280883 -0.28109 -0.95927
0.0211817 -0.412375 0.291112 -0.991573 0.0790548 -0.102634
0.0444811 0.173074 0.48374 0.991191 0.0684826 -0.113359
-0.0246571 0.0939297 0.106645 -0.122203 0.0409045 -0.991662
-0.0337326 0.165137 0.158666 0.862981 0.0509244 -0.502664
-0.0107958 0.228746 0.0198514 -0.868604 -0.202734 -0.452135
0.00501264 0.322176 0.351042 0.214486 0.166466 0.962437
0.00432513 0.211468 0.15567 0.139409 -0.0924218 0.985912
-0.0198156 -0.470888 0.208755 -0.661861 -0.723975 0.19442
-0.0260313 0.28799 0.160196 -0.0460987 -0.955725 -0.290627
0.0441837 0.266942 0.208115 -0.828299 0.482956 0.284034
0.0129661 0.286176 0.153337 -0.999856 -0.0154932 -0.00697648
-0.0319817 0.0156352 0.170148 -0.10632 0.0271388 0.993962
-0.0221917 0.302719 0.170601 0.631675 0.52378 -0.571525
0.0120865 -0.179194 0.0600175 0.962557 0.213624 -0.166881
-0.0362172 0.102341 0.156142 -0.135616 -0.00602732 -0.990743
0.018541 0.14798 0.25787 -0.999962 -0.00720849 0.00488159
0.019273 0.277845 0.338464 0.999694 0.00170224 0.0246653
0.00247039 -0.209109 0.447278 0.794039 -0.101538 -0.599326
-2.38405e-05 -0.411319 0.269887 0.0328554 -0.752655 0.657595
-0.0200264 -0.296613 0.153181 -0.999936 -0.00361977 -0.0107316
-0.0171224 0.302116 0.18317 -0.987994 0.0500847 0.146146
-0.029018 -0.230172 0.179692 -0.632534 0.3062 -0.711437
-0.00276077 -0.481902 0.189404 0.076924 0.971425 -0.224537
-0.000175406 -0.364479 0.339479 -0.0994761 0.347604 -0.93235
0.00786548 -0.315148 0.297881 0.82447 0.0951916 -0.557842
0.0180139 -0.306122 0.180359 0.983201 -0.109945 0.145697
-0.0305985 0.136626 0.405962 0.0290258 0.158401 -0.986948
-0.0519155 -0.237879 0.377568 0.972424 0.226421 0.0559071
-0.0480816 0.157384 0.391791 -0.616679 0.672747 0.408801
-0.0170021 0.00242943 0.123206 0.996423 -0.0760467 0.036849
0.0129403 0.28787 0.167506 -1 -0.000693411 -0.000481516
0.00972226 0.423411 0.0810935 0.887387 0.398318 -0.232137
0.00638954 0.282688 0.298847 0.853513 0.0372134 -0.519742
-0.0202425 0.287393 0.182442 0.999941 0.00363979 -0.0102588
-0.0172802 -0.0199582 0.161594 0.996597 -0.000258661 0.0824235
0.00271439 -0.205843 0.231806 0.560568 0.566685 -0.603847
-0.0123469 0.18939 0.321374 -0.544425 -0.469792 0.694908
-0.0196014 0.323673 0.17457 0.893261 0.431246 0.126934
-0.0245633 -0.164031 0.204932 -0.846009 0.242168 -0.474998
-0.0205644 0.118147 0.199407 -0.995903 -0.0904304 0.00014413
-0.0431373 0.260144 0.20769 0.323871 -0.809283 -0.49007
0.0536872 -0.286837 0.16917 0.300358 0.909879 -0.286192
-0.0266138 0.113169 0.482772 -0.931682 -0.338482 -0.131906
0.011251 0.458096 0.250078 -0.524051 -0.742 -0.418099
0.0427204 0.193519 0.321655 -0.880823 -0.402889 -0.248658
0.003983 -0.362593 0.339681 -0.183253 0.338676 -0.922885
0.00518086 -0.313984 0.243639 0.77633 0.583655 0.238032
0.0573256 -0.264576 0.284032 0.770725 -0.618559 0.152865
-0.0223412 0.00780961 0.156889 -0.0109727 -0.835004 -0.550134
0.0294453 0.302504 0.174266 0.986099 -0.0666466 0.152207
-0.00277886 -0.327999 0.287142 -0.443749 0.266591 -0.855579
-0.0225025 -0.174017 0.288298 0.999969 0.00544 0.00568747
0.0189703 0.012964 0.153613 0.00930492 -0.274931 -0.961419
-0.0512542 -0.242452 0.358227 0.979193 0.196864 -0.0492437
-0.129279 -0.161638 0.553625 0.0128041 0.396997 -0.91773
-0.018422 -0.313767 0.17771 -0.164808 -0.386633 0.907388
0.0220556 -0.414859 0.286876 0.999995 -0.00171372 -0.00251908
0.00989088 -0.171068 0.308232 -0.316606 -0.623076 -0.715218
-0.109528 -0.164502 0.55304 0.0576926 -0.0764052 -0.995406
0.047938 -0.250227 0.338117 -0.808414 -0.563954 0.168587
-0.0016371 -0.411343 0.0530075 -0.0549052 -0.758006 -0.649932
0.0245172 -0.157728 0.562244 0 0.984817 -0.173597
-0.00977955 0.32852 0.161747 -0.957474 0.0784892 0.277638
-0.0146309 0.146511 0.416344 -0.00145241 0.989676 0.143315
0.0023331 -0.400155 0.0871691 0.673483 0.620999 0.400975
0.00646968 0.101177 0.181635 -0.234659 0.95687 -0.171274
-0.0132157 0.480741 0.175974 0.555541 -0.819145 -0.142741
-0.017961 0.342023 0.2243 0.83709 -0.455522 0.302954
0.000658553 -0.169749 0.449622 0.331064 0.086507 0.939635
0.0106818 -0.300077 0.17073 -0.995538 0.0547338 -0.0768642
-0.013524 -0.427133 0.293415 0.510814 0.604429 -0.611338
0.0104692 -0.35937 0.0212931 0.854876 -0.207451 -0.475554
0.00930151 -0.137336 0.133319 0.716617 0.68639 -0.12381
-0.0211091 0.387422 0.274 -0.983761 0.171715 -0.0522262
0.012173 -0.250348 0.306059 0.998036 0.0200039 0.0593674
-0.0186678 0.475066 0.174412 0.938031 -0.335695 -0.0860583
-0.0510943 0.0374826 0.11453 0.354696 0.0327026 0.93441
-0.0108973 0.483063 0.17165 -0.342407 0.931676 0.121395
0.138296 -0.16022 0.57556 0.0177439 0.380809 0.924484
-0.0325825 0.072863 0.156567 0.706357 0.0125672 -0.707744
0.018563 0.184979 0.302092 -0.999984 0.00572108 -0.000250095
-0.0488133 0.228942 0.270332 -0.862103 0.430774 0.266855
-0.0113206 -0.285867 0.187913 -0.387415 0.911656 -0.137085
0.0373032 0.168787 0.156566 -0.631645 0.0377181 -0.774339
0.0183599 0.291985 0.339819 -0.995432 0.0160224 -0.094118
-0.0555458 -0.26641 0.2457 0.286677 0.929688 -0.231294
-0.0167994 0.130285 0.251945 0.829281 0.475257 -0.29398
-0.0543455 -0.250694 0.377439 -0.310486 -0.868873 0.385562
0.0118187 -0.435161 0.189449 0.975371 0.208684 -0.0714268
-0.0189167 -0.00344138 0.173824 -0.9965 -0.0386031 -0.0741409
0.010451 0.283986 0.308194 0.986997 0.0247816 -0.158815
0.0386771 0.156437 0.504327 0.642052 0.079613 0.762516
0.00788775 -0.249744 0.171044 -0.871726 0.030987 -0.489013
0.000354729 -0.380048 0.257341 0.329812 0.654101 -0.680717
-0.00538028 0.396107 0.0775282 -0.770847 -0.508376 0.383859
-0.0107876 -0.158375 0.0788957 -0.697235 0.617612 -0.363895
-0.00441527 -0.226119 0.0867017 -0.107192 -0.7365 -0.66789
0.00989905 0.164075 0.0752785 0.962702 -0.218187 -0.159997
-0.00519466 0.278148 0.294358 -0.771126 0.0765427 -0.632065
-0.001634 -0.0191016 0.427173 -0.327759 -0.0889578 -0.940564
-0.019912 0.140645 0.246275 0.999963 -0.00771438 0.0037359
0.00356653 0.346465 0.0399084 0.787914 -0.238111 0.567886
-0.0620539 -0.256146 0.301318 -0.964051 0.25819 -0.0627919
-0.0182801 0.405336 0.297448 -0.968859 -0.0430608 0.24384
-0.0320328 0.053628 0.164393 0.588416 0.0249004 0.808175
0.00513508 -0.236061 0.283893 0.809718 -0.243893 -0.533735
0.0263556 -0.199193 0.195993 0.841391 -0.125279 0.525705
-0.00990346 0.379799 0.330876 -0.386831 0.469796 0.793507
-0.0225212 -0.222561 0.322871 0.999969 0.00316892 0.00721097
0.00134553 0.356425 0.275551 0.411076 -0.3962 -0.821001
-0.0164578 0.106571 0.182726 0.681096 0.71849 -0.140994
-0.00834925 0.104324 0.19562 0.355757 0.906234 -0.228425
0.0337081 0.119907 0.471575 0.370107 -0.0676431 -0.926523
0.00122382 -0.478896 0.204933 0.0773108 -0.964887 0.25103
0.0056677 0.354547 0.192045 0.739482 0.353096 -0.573141
-0.0187627 0.161296 0.288982 0.925499 0.279758 -0.255318
-0.0180937 -0.161296 0.572258 0.000396103 0.642968 0.765893
-0.0450368 -0.220619 0.373936 -0.157284 0.978583 0.132806
-0.00571453 -0.415756 0.308115 -0.185548 -0.637597 0.747691
-0.00242562 0.0980596 0.169771 -0.0741943 -0.989756 0.121979
0.0167152 0.181371 0.309915 0.810438 -0.348408 0.470959
0.00666935 0.187487 0.280726 0.676223 -0.483317 0.555991
-0.00839049 0.384764 0.328674 -0.386831 0.469796 0.793507
0.055041 -0.279842 0.228018 0.288405 -0.929527 0.229787
0.0105213 0.343971 0.0233513 0.981158 -0.074518 0.178261
-0.00240262 -0.253078 0.0397736 -0.762511 -0.590558 -0.264231
-0.0176711 -0.107471 0.190666 0.624058 -0.759825 -0.182258
0.0190942 0.131813 0.227541 0.995689 0.0840343 -0.0392702
-0.00187769 -0.410137 0.312659 0.0995009 0.631736 -0.768772
-0.00759287 0.160706 0.203127 -0.855915 0.486837 -0.174352
0.000445749 0.196247 0.471133 0.00137834 0.348047 -0.937476
-0.0322415 -0.172907 0.570145 0.000440421 -0.866758 0.498729
0.0129359 0.293799 0.168066 -1 -0.000693411 -0.000481516
-0.0133145 -0.223114 0.357772 -0.00471967 0.954457 -0.298311
-0.0168468 0.0126274 0.116958 0.999941 0.000891552 0.010832
-0.0190808 0.0508829 0.193107 -0.995698 0.0594477 -0.0710704
0.000407347 0.456346 0.260801 0.0967401 0.8554 0.508855
-0.0161919 -0.105297 0.189489 -0.522749 0.830902 0.190618
0.0192219 0.376005 0.31579 0.997888 -0.0238827 -0.0604032
0.0163597 0.282611 0.161141 0.999874 -0.014561 0.00633671
-0.00644975 0.107601 0.213734 -0.243839 -0.932177 0.26756
-0.0109858 0.291248 0.007054 -0.887776 0.00240016 -0.460269
-0.00494928 0.0757505 0.421007 -0.86367 -0.0470065 -0.501861
-0.0586206 -0.287579 0.19652 -0.285074 -0.930726 0.229089
-0.0101044 -0.137987 0.274607 -0.299314 0.772686 0.559793
-0.000564013 -0.12831 0.261822 -0.0873493 -0.861429 -0.50031
-0.0257967 0.0233617 0.161419 -0.00867456 0.990835 -0.134796
0.000771613 0.36119 0.272167 0.41128 -0.5154 -0.751806
0.00382021 0.148188 0.0897844 0.494688 -0.790044 -0.362097
-0.0130192 -0.165161 0.247579 -0.951572 0.243554 0.187596
0.0924569 -0.023199 0.20937 -0.999979 -0.00526078 -0.00376841
0.00528911 -0.408983 0.227937 0.812617 0.513078 -0.276413
0.0102636 0.336302 0.0227414 0.986596 -0.0412391 0.157887
-0.0594358 -0.291027 0.181499 -0.285074 -0.930726 0.229089
0.000115572 0.10019 0.350065 0.337112 -0.846622 0.411808
0.0318562 0.00619593 0.172638 0.999709 0.00471799 -0.023668
-0.0206072 0.132767 0.240694 -0.999914 -0.0123486 0.00432789
-0.0029118 -0.379808 0.0754307 -0.985129 -0.167429 0.0385936
-0.0188846 0.0544557 0.201621 0.0482102 0.557523 0.82876
0.0426124 0.127977 0.478083 0.917993 -0.174653 -0.356069
0.0052885 0.312146 0.295889 0.850187 -0.0877449 -0.519117
0.00449058 0.177 0.314655 -0.131757 0.597359 -0.791077
0.00511728 -0.229127 0.280371 0.833791 -0.258347 -0.487903
0.00165875 0.118044 0.242109 -0.122276 0.897622 -0.423465
-0.00422227 0.372266 0.227584 -0.988404 0.144663 -0.0461621
-0.0253541 0.156039 0.504295 -0.559595 0.0741228 0.825445
-0.011783 -0.112059 0.223324 -0.294824 0.896782 0.329941
0.00837745 0.151047 0.157087 0.904982 0.424531 0.0279338
0.00843315 -0.298142 0.300509 0.819654 0.0125586 -0.572721
0.0158989 0.450331 0.255664 -0.801972 -0.518544 -0.296569
0.0498165 -0.0452856 0.212329 -0.311973 -0.374987 -0.872959
0.00256941 -0.295506 0.0299034 0.715156 0.0446916 0.697535
0.00732582 0.152779 0.167256 0.843697 0.535763 -0.0336696
-0.0171015 0.0402635 0.183212 0.996324 0.0537546 -0.0667058
-0.053815 -0.238379 0.360757 0.357093 0.906642 -0.224688
0.000841632 0.36154 0.253582 -0.929996 -0.332563 0.156557
0.0121855 0.103063 0.175993 -0.555547 0.819141 -0.142742
0.00134894 0.323527 0.288445 0.502504 -0.20186 -0.840679
-0.01696 0.0489562 0.166977 0.994067 -0.0246063 0.10595
0.00444763 0.354458 0.0424593 0.842668 -0.250983 0.47636
0.0121022 -0.140282 0.214022 -0.97841 -0.0125967 -0.206288
-0.0191304 -0.430514 0.284131 0.766219 0.496963 -0.407353
0.0213919 0.375372 0.261195 0.982749 0.176167 -0.0563063
-0.00393838 0.152769 0.455352 -0.628891 -0.699232 0.339956
-0.00773135 -0.310781 0.296526 -0.833409 0.0758859 -0.547422
-0.0119119 -0.239712 0.393675 -0.583182 -0.792205 0.179749
0.0438361 0.00131582 0.209802 0.977598 0.137584 -0.159286
0.00391167 -0.376553 0.109908 0.942641 0.0900227 -0.32144
-0.0190635 -0.00816491 0.188925 -0.995709 0.0709509 0.059409
-0.011228 0.335134 0.0134365 -0.890925 0.117623 -0.438655
-0.0111155 -0.102459 0.187409 -0.360029 0.917694 0.167979
0.0935258 -0.00241145 0.21451 -0.603736 0.20828 0.769495
-0.010237 0.253935 0.298092 -0.92065 0.0973182 -0.378065
-0.00526603 0.435677 0.090647 -0.539475 0.764994 -0.351782
-0.00111792 -0.387501 0.291404 -0.125076 -0.566506 0.81451
-0.0115527 0.298159 0.350943 0.499947 0.000503573 -0.866056
-0.020723 -0.390989 0.317552 -0.72933 -0.334083 0.597048
-0.0190309 0.473523 0.179489 0.928072 -0.36961 -0.0455099
0.00217219 0.205339 0.260792 0.758179 0.449659 -0.472199
-0.0225019 -0.433113 0.261008 0.999969 -0.00655971 0.00437475
0.000506914 0.408547 0.272808 0.055947 0.711731 0.70022
-0.0267261 0.306807 0.170894 -0.0283134 0.770099 -0.637296
-0.0534982 -0.261276 0.299946 0.507946 -0.83608 0.207271
0.00207401 -0.113087 0.275062 0.596668 -0.529386 -0.603106
0.0037224 -0.18699 0.34588 0.985479 0.112348 0.127318
0.00074789 -0.304853 0.0332147 0.225146 0.966147 -0.125975
0.00608373 -0.437817 0.0970344 0.447809 -0.812866 -0.372446
0.00720315 0.264038 0.117172 0.945761 0.223861 -0.235418
-0.00155984 0.192455 0.0766351 -0.411028 0.653405 0.635703
-0.0187281 -0.37136 0.329353 0.643988 0.319719 -0.695025
-0.0132289 -0.140303 0.144763 -0.974479 0.223509 -0.0208527
0.089616 -0.0431499 0.21183 0.585236 -0.565986 -0.580654
-0.00499837 0.0352247 0.210438 -0.868003 -0.446131 0.218031
0.0135512 0.236793 0.340741 -0.689847 0.194634 -0.697301
-0.0319189 0.142959 0.160565 0.985934 0.064934 0.154006
-0.0036074 0.0492347 0.421857 -0.618521 -0.0722308 -0.782442
-0.0545323 -0.288039 0.163408 -0.0178996 0.870358 0.492095
0.0224333 0.184091 0.507229 0.256459 0.313582 0.914273
-0.0609526 -0.289473 0.166003 -0.84787 0.48823 -0.206756
0.00607261 0.461413 0.250272 0.177859 0.884925 0.430435
-0.0394962 0.11562 0.15717 -0.634265 -0.0176043 -0.772915
0.0165621 -0.106391 0.184886 -0.633111 -0.759584 -0.149005
0.000588819 -0.352785 0.343606 -0.0873189 0.325561 -0.941481
-0.0146595 0.270127 0.16695 0.9987 -0.0495381 -0.0119938
0.0051787 -0.244721 0.222156 0.0671724 0.798506 -0.598228
0.0171318 -0.478919 0.175083 0.599328 -0.798007 0.0631705
-0.0049206 0.0788417 0.300365 -0.857159 -0.46291 0.225814
0.0347535 0.15202 0.159349 -0.995081 0.0596865 -0.0790624
0.00654564 0.201072 0.265359 0.851917 0.345384 -0.393634
-0.0203564 0.294697 0.17279 0.999937 -0.00120864 -0.0111326
0.0513855 0.195037 0.319721 0.965978 -0.22421 -0.128903
-0.0169665 0.00444282 0.120854 0.995981 0.0872943 -0.0200236
0.00422263 0.363867 0.274574 0.842568 -0.287166 -0.455648
-0.00380894 0.0875399 0.425111 -0.621232 0.0707551 0.780426
0.000356469 0.287621 0.160777 -0.00400892 -0.986051 -0.166394
0.00540806 0.292187 0.15694 -0.00108437 -0.0328271 -0.99946
0.00689257 -0.166036 0.107251 0.810295 -0.537043 0.234537
-0.018274 -0.287809 0.164143 -0.0044526 0.870378 0.492363
-0.0171943 0.0386827 0.173548 0.996415 0.0374188 -0.07587
0.0128785 0.335206 0.344294 -0.587106 -0.201914 -0.783925
-0.00855734 0.44967 0.158326 -0.77115 0.636623 -0.00630093
0.0356061 0.0601199 0.163899 0.333534 -0.0218055 0.942486
0.00285881 -0.246783 0.285616 0.715049 -0.197429 -0.670617
-0.0218722 -0.242945 0.336102 0.945898 -0.083923 -0.313424
0.00859823 0.398185 0.254507 0.917006 -0.28543 -0.278621
0.00276062 0.0616062 0.427052 0.633783 0.0707696 0.770267
0.00793493 0.133556 0.423018 0.00546812 -0.336452 0.941685
-0.00706786 -0.247961 0.347846 0.207903 -0.241028 -0.947988
-0.0119166 -0.115153 0.231585 -0.304842 0.892545 0.332317
-0.0172091 0.0539307 0.192618 0.996324 0.0537546 -0.0667058
-0.00762558 0.174866 0.053739 -0.608204 -0.608421 -0.509815
-0.0446258 0.211185 0.288237 -0.0216248 -0.856177 -0.51623
0.00411548 0.155227 0.245348 0.537609 -0.728058 0.425333
-0.0133623 -0.366696 0.034232 -0.977705 0.125641 0.168248
0.0224953 -0.26082 0.17019 -0.604861 0.204639 -0.769588
-0.0232324 -0.434639 0.260764 -0.994425 0.0864222 -0.0604214
0.00844401 0.153227 0.0883968 0.760867 -0.563188 -0.322336
0.00154515 -0.194791 0.327061 -0.0678402 -0.514923 -0.854548
0.0143048 0.454765 0.253198 0.663678 0.640538 0.386319
0.00235087 0.264238 0.263729 0.241482 0.929344 0.279297
0.0120161 -0.212781 0.334344 0.431302 0.367536 0.823951
0.000162546 0.354016 0.0535081 -0.929907 0.274688 0.244581
-0.0105468 -0.311304 0.197927 -0.930938 0.269273 0.24667
0.00364672 0.122194 0.251283 0.180425 -0.847995 0.498348
-0.00375897 0.231584 0.0442204 -0.799544 0.261899 0.540498
-0.0417159 0.1533 0.160743 -0.99181 -0.0611528 0.112129
-0.019047 -0.39901 0.314009 -0.658689 -0.431482 0.616403
-0.0507248 0.0394436 0.113557 0.628864 0.777302 -0.0181921
0.0288741 0.0355106 0.163261 -0.680813 0.0416183 0.731274
-0.0224801 -0.332966 0.333831 0.999448 0.00492066 -0.0328645
0.00307338 -0.393688 0.177526 0.379729 0.101745 0.919486
-0.00384422 -0.318093 0.255668 0.776427 -0.583512 -0.238066
-0.00274054 0.473817 0.220814 0.0315284 -0.939201 -0.341917
0.00967877 0.144353 0.114909 0.901478 -0.417043 -0.115815
0.000269236 0.100972 0.331333 0.337127 0.846586 -0.41187
-0.00510227 0.283533 0.0841781 0.996555 6.60375e-05 0.0829382
-0.00599093 0.221801 0.15523 0.241777 0.0984265 -0.965327
0.00253291 -0.13082 0.15678 0.326428 0.945211 -0.00465969
-0.0604445 -0.249517 0.34573 -0.580282 -0.790261 0.196875
0.00965601 0.167524 0.0695038 0.901412 -0.352395 -0.251546
0.0484964 -0.276731 0.210699 -0.588917 0.784871 -0.192754
0.019176 0.402513 0.296827 0.997562 -0.0345715 -0.0606262
-0.013528 -0.438659 0.140693 -0.999572 -0.0186941 -0.022519
0.00588914 0.312155 0.100354 0.42447 0.872396 0.242388
-0.135369 -0.177859 0.563094 -0.0321976 -0.985479 -0.166715
0.0160408 -0.280053 0.13773 -0.978236 0.078108 -0.192232
-0.00515532 0.403772 0.234119 -0.786533 -0.518608 -0.335278
0.0106463 -0.433581 0.145947 0.896901 0.440153 0.0428376
-0.00527477 -0.2323 0.239149 -0.8927 0.403136 -0.201414
0.00618913 -0.102298 0.191525 0.17138 0.957239 0.233069
-0.0373328 0.084366 0.164072 -0.426091 -0.00295884 0.904675
-0.00481451 0.149812 0.291 -0.327995 -0.733338 0.595512
0.00425973 -0.423726 0.142284 0.745848 0.660981 0.0825472
-0.0112352 0.162584 0.300155 0.431645 0.630315 -0.64528
-0.0120076 0.397919 0.0582975 -0.996182 -0.0589438 0.0644004
0.0173574 0.382035 0.319977 -0.938943 -0.189448 -0.287222
-0.0152177 -0.108902 0.204251 0.478514 -0.855653 -0.197187
-0.0530695 -0.272345 0.22628 0.572282 0.795796 -0.197996
-0.00446353 -0.282453 0.0713483 0.995559 -0.0193091 0.0921364
0.00152171 -0.123353 0.252696 -0.0785261 -0.870194 -0.486411
0.0300905 0.0700482 0.162042 -0.849717 0.0542447 0.524441
0.0216438 -0.451204 0.24578 0.988986 -0.124143 0.0805889
0.00422517 0.145455 0.0962994 0.494688 -0.790044 -0.362097
-0.00244117 -0.113022 0.436095 -0.366616 -0.0851125 -0.926471
-0.00704444 -0.287378 0.0261573 -0.812179 -0.0166037 0.583171
0.00393324 -0.375471 0.154732 -0.995543 0.0942787 -0.00252284
0.0157681 -0.273116 0.144179 -0.98501 0.104303 -0.13739
0.0191499 0.444839 0.243764 0.995653 -0.0843928 -0.0394096
0.046432 0.23405 0.26589 -0.329361 0.80937 0.486253
