-0.00944987 0.101944 0.328163 -0.353694 -0.440927 -0.824915
-0.013475 0.0962369 0.167859 -0.0133155 -0.382557 0.923836
-0.0408937 0.0346856 0.201047 -1 0 0
-0.0489588 -0.276075 0.21853 -0.349324 0.877916 -0.327469
-0.0121415 0.472917 0.165894 -0.99735 0.0724223 -0.00687287
3.28659e-05 -0.158867 0.519651 -0.382648 -0.867514 0.317804
0.0214153 0.0937564 0.165466 -0.0321417 -0.923435 0.382406
-0.0657222 0.0558305 0.0649082 0 1 0
0.0838036 0.0426426 0.250345 0 1 0
0.0321801 0.0554967 0.150906 0 -0.45396 0.891022
-0.0629483 0.0519084 0.0950682 -0.991756 0.0554539 -0.115522
0.0492519 0.288242 0.196666 0.999475 0.00935466 -0.0310338
0.0404819 0.148653 0.267414 0.812906 0.182317 0.553122
-0.0434212 0.174553 0.163707 -0.904645 -0.0766296 -0.41922
0.0109205 0.179337 0.279226 0.995782 0.0706883 -0.0584889
0.0134468 0.347106 0.227374 -0.254076 -0.780141 0.571687
0.00651406 -0.195368 0.413457 -0.454342 0.836243 -0.307037
0.00323161 0.1157 0.529454 0.199134 0.132887 -0.97092
-0.0374248 0.187887 0.200271 -1 0 0
0.00274369 -0.246963 0.0453254 0.286517 -0.314118 0.905118
-0.00986623 -0.228618 0.543008 -1 0 0
0.0523009 -0.284576 0.205309 0.90463 0.419369 -0.0759851
-0.00381077 -0.320511 0.30705 -0.254298 0.921821 0.292538
-0.00476456 0.212818 0.0612287 -0.431027 0.531599 0.729121
-0.0130796 0.144349 0.0990761 -0.860203 0.449865 0.240151
0.00271944 -0.263697 0.312235 -0.897105 -0.439913 -0.0409718
-0.00710837 0.25365 0.328259 -0.430901 0.295805 -0.852539
-0.0378181 0.0206163 0.132091 0.999281 -0.0268034 -0.0268017
-0.036261 -0.216996 0.346681 -0.322838 0.511699 -0.796203
-0.00778073 0.120575 0.329234 -0.382628 0.878485 -0.286112
0.0103602 0.40932 0.0783646 0.431481 -0.657768 0.617386
0.06191 0.0647867 0.249643 0 -1 0
0.00542907 -0.13317 0.506098 0.999393 -0.03388 -0.00812453
-0.109521 0.065277 0.0733384 0.991441 0 0.130554
0.00769382 0.130284 0.355565 0.382704 0.878441 -0.286146
0.00873975 0.390419 0.139077 0.258227 0.371634 0.891744
0.0126328 -0.457696 0.146495 0.925695 0.367316 0.0903736
-0.0066629 -0.138838 0.408274 -0.12975 -0.310247 -0.94176
0.0310943 0.0215693 0.330702 0.858036 0.206436 0.470274
-0.00386553 0.111856 0.386772 -0.00397522 0.300545 0.953759
-0.00519315 -0.195238 0.525646 -0.923839 -0.191921 -0.331191
0.0455526 0.288857 0.182984 -1 -0.000443578 0.000847111
0.00463429 0.0952993 0.55155 0.0730562 0.107381 0.99153
-0.0257122 0.196126 0.506554 0.112203 0.123413 0.985992
0.0024867 0.36168 0.0485974 0.27411 -0.419502 0.86538
-0.0369661 0.274806 0.173996 0.974891 -0.21993 -0.0348919
-0.0436837 0.205361 0.231381 -0.831207 -0.316931 -0.456782
-0.0409074 0.0540059 0.112203 -1 0 0
0.0110155 0.164857 0.108857 0.995779 0.0801004 0.044821
-0.0012572 -0.039528 0.287531 -0.377171 -0.925334 -0.0387283
-0.0117441 0.0709736 0.155542 -0.119818 -0.0922259 -0.988503
0.0135001 0.465391 0.187722 0.974264 -0.225367 -0.00428624
0.00516871 0.413637 0.0868375 0.274368 -0.740843 0.613085
-0.022247 0.207541 0.547402 -0.267855 -0.0587927 0.961664
-0.0121755 0.247378 0.018319 -0.997347 -0.0224008 -0.0692546
-0.0410481 0.252655 0.200762 -1 0 0
0.0129178 0.459358 0.149671 0.925715 -0.370298 0.0770203
0.0105891 -0.448073 0.22878 0.996159 0.0842661 -0.0237816
0.0626615 0.0686556 0.25553 0 1 0
-0.0408896 0.155181 0.171402 -0.348658 -0.0956345 0.932358
-0.0484499 0.310766 0.173241 -0.999998 -0.000950181 -0.00155568
0.00495848 0.360579 0.0473096 0.274096 -0.367993 0.888512
-0.0202385 0.207304 0.517087 0.396663 -0.172104 -0.901687
0.000885791 -0.166572 0.233681 0.966134 -0.246267 0.0770582
0.00544593 -0.160487 0.515882 0.382651 -0.867503 0.317832
-0.153445 -0.234376 0.562074 0.003236 0.0792772 0.996847
0.0119808 0.156456 0.292703 0.0663618 -0.803263 0.591916
-0.0369778 0.217028 0.139844 1 0 0
0.02802 0.12389 0.170805 -0.345965 0.0413737 0.937335
0.109769 -0.238699 0.556907 -0.0956445 -0.923083 0.372519
-0.0151935 0.103966 0.35885 -0.995296 -0.0310113 -0.0917857
-0.00989901 0.383978 0.0503655 -0.995865 -0.0490089 0.0764931
-0.0374248 0.207323 0.201818 -1 0 0
-0.010844 -0.14771 0.507703 -0.990885 0.126614 -0.0459864
-0.0369652 0.0748536 0.152928 0.999763 -0.0215204 0.00340837
-0.00777323 0.37448 0.0179025 -0.350227 0.381336 -0.855526
-0.0414447 0.0179103 0.146482 -0.999762 0.0215334 0.00340718
-0.00101415 -0.427209 0.112616 -0.0224183 0.558167 -0.829426
0.0112151 -0.293787 0.183332 -0.00249809 0.933673 -0.358118
0.0433802 0.168878 0.255519 0.869141 -0.294828 -0.397078
0.0160829 0.127028 0.393095 0.411759 -0.410882 -0.813407
-0.040433 0.00796109 0.153903 1 0 0
-0.0104811 -0.338384 0.112351 -0.956416 0.192251 -0.219791
0.14999 -0.245424 0.551117 0.144894 -0.98624 -0.0796008
0.00391084 -0.213892 0.533342 -0.013364 0.930712 -0.365509
0.0447714 0.0574312 0.252563 -0.998061 0.0182946 -0.0594901
0.0404756 -0.257296 0.261872 0.349374 0.877945 -0.327339
0.0138236 -0.228295 0.336036 0.974227 -0.0991298 -0.202622
0.141558 -0.245016 0.54805 -0.960043 -0.251749 -0.122227
-0.0324314 -0.232942 0.315514 0.301322 0.432768 -0.849657
-0.00916518 -0.236697 0.538103 -0.545784 -0.826871 -0.135664
-0.0174787 0.128669 0.537028 -0.864602 0.000241356 0.502457
0.00658598 -0.433857 0.0623791 -0.603491 -0.58493 -0.5419
-0.0356563 0.208427 0.517624 -0.976221 0.00701684 -0.216663
-0.00960787 0.424097 0.0862551 0 0.770419 -0.637537
-0.0457528 -0.295914 0.179639 0.0737104 -0.0107736 -0.997221
-0.00247359 -0.023588 0.38942 -0.923682 -0.354866 0.144507
0.0425201 -0.279835 0.209718 -0.349421 0.850786 -0.392516
-0.0123568 0.146853 0.107515 -0.998253 -0.053073 -0.0259547
0.00978065 -0.164287 0.115144 0.448159 -0.80445 0.389889
-0.0420239 0.0595201 0.166534 -0.979715 0.0909762 0.178558
-0.0451166 -0.250832 0.283838 -0.904928 0.41811 -0.0793072
-0.0217602 -0.215447 0.532941 -0.0138078 0.402783 -0.915191
-0.0181717 0.193724 0.512323 0.0582123 0.357019 0.932281
-0.0368145 0.171541 0.261022 0.012783 0.445046 0.895417
0.0485253 0.0513362 0.228621 -0.995116 -0.0540966 -0.0825715
-0.0378679 0.015504 0.176615 0.999276 -0.0338951 0.0172795
0.0444459 -0.238913 0.344471 0.294077 -0.407787 0.864424
-0.00335171 0.201743 0.516811 0.776939 -0.178699 0.603682
0.00546341 -0.139004 0.27324 0.893569 0.396013 0.211445
0.0200453 0.303441 0.190991 0 0.500027 0.86601
-0.00694754 0.141399 0.437941 -0.922974 -0.368641 0.110558
0.0141958 -0.113077 0.403318 0.668863 -0.232532 -0.706082
0.0246355 -0.221614 0.381896 -0.430832 -0.832514 0.348288
-0.0397051 -0.285597 0.217973 0.904872 -0.418429 0.0782509
-0.0409074 0.0218815 0.121197 -1 0 0
0.003658 -0.181663 0.0929034 0.286819 -0.774063 0.564412
-0.0410618 0.31384 0.171604 -1 0 0
-0.00811569 -0.0755745 0.447818 -0.105474 0.304321 0.946712
-0.0431597 0.192092 0.239634 -0.831207 -0.316931 -0.456782
-0.00870368 -0.228872 0.350678 -0.224775 -0.470148 0.853485
-0.0414882 0.0256418 0.130377 -0.999762 0.0154254 0.0154237
0.010871 0.22989 0.0481395 0.995775 0.0400514 0.0826275
-0.00568957 0.136818 0.102447 0.604163 -0.715844 -0.350077
-0.0285189 0.0371608 0.147108 0.998766 -0.044245 -0.0225431
0.00272814 -0.18492 0.400604 0.0424232 0.299553 0.953136
-0.0615437 0.055231 0.152397 -0.0119134 0.444998 -0.895452
-0.00913025 -0.388607 0.152485 0.397975 -0.208909 0.893293
0.0222859 -0.00156824 0.34257 -0.874091 0.206339 0.43976
-0.00863606 -0.225009 0.0453176 0 0.488462 -0.872585
-0.00510869 0.395521 0.299937 -0.431078 -0.575156 -0.695246
0.042791 -0.286499 0.199335 -0.761756 -0.136183 -0.633389
-0.0132042 0.0725567 0.390076 -0.994356 0.0307678 0.101538
0.0109258 -0.221917 0.144722 0.700473 0.341245 0.626808
-0.0369778 0.190362 0.1302 1 0 0
-0.030893 -0.302461 0.189746 0.00357815 -0.309069 0.951033
0.015537 -0.0501591 0.432771 0.994151 0.0333531 0.102716
-0.000901004 -0.405709 0.333024 -0.0934894 0.252529 0.963062
-0.000553973 0.437632 0.231676 -0.606097 0.311745 -0.731753
-0.0311339 0.0602526 0.147793 -0.782611 -0.27726 0.557357
0.0537654 0.0485454 0.218664 0.000467965 -0.99983 0.0184184
0.00729018 0.151785 0.214078 0.431183 0.881372 -0.193039
-0.0121341 0.473353 0.160269 -0.86024 -0.50546 0.0670553
-0.0087158 0.0651263 0.188665 -0.923884 0.364446 -0.116695
-0.0400769 0.246798 0.201415 0 0.974661 0.223687
-0.0405874 0.189367 0.203779 1 0 0
-0.0217941 0.310996 0.185774 0.999996 0.00286238 0
-0.036971 0.127308 0.202741 1 0 0
-0.0047396 0.267317 0.0372523 -0.431008 0.193102 0.881444
-0.012446 0.38507 0.328422 -0.967013 -0.12794 -0.220268
-0.0768501 0.0654794 0.0712645 0.600384 0 0.799712
0.0327505 -0.239857 0.338292 -0.349483 -0.86527 0.359402
0.0139902 -0.459443 0.127933 0.995991 -0.0840899 -0.0305252
0.0210464 -0.0097798 0.33805 -0.858029 -0.206441 -0.470286
0.00712016 -0.27773 0.0355489 0.44837 -0.138292 0.883085
-0.0140423 -0.0566775 0.399677 -0.995074 -0.0307627 -0.0942443
0.016213 0.0953563 0.287646 0 -0.924148 -0.382034
0.0125813 -0.137009 0.176911 0.925798 -0.377403 0.0215531
-0.00779234 0.393474 0.220018 0.576265 -0.356211 0.735549
-0.0152182 -0.0525439 0.412383 -0.994089 0.0349014 0.102804
-0.0365661 0.0777379 0.125015 0.999763 -0.0154007 0.0154007
0.00670508 -0.234462 0.0406602 0 0.436186 -0.899857
0.00911065 0.150332 0.472778 0.950416 -0.296605 0.0934631
0.0157032 -0.327317 0.253473 0.794485 -0.606176 -0.0366495
0.00635731 0.127083 0.343949 0.382704 0.878455 -0.286102
0.00891209 0.0908726 0.250473 0.923299 0.365909 -0.116747
-0.00328027 0.0698774 0.230902 -0.382708 -0.877869 0.287888
-0.0121226 -0.269062 0.0209833 -0.967027 -0.0518535 0.249339
0.0108349 -0.395188 0.339081 0.978242 -0.11061 0.175523
0.00684685 -0.393219 0.246244 -0.577118 -0.383158 -0.721196
-0.0029827 0.309728 0.00062792 -0.14544 0.0563084 -0.987763
0.0608724 0.0483429 0.163066 0.998958 -0.0413085 -0.0194223
-0.0400428 -0.229534 0.32286 -0.270449 0.875488 0.400472
-0.0197044 -0.318216 0.152799 0.793926 -0.385321 0.470329
0.0169815 -0.0801113 0.412036 0.995063 -0.0311218 -0.0942432
-0.0368421 0.0648452 0.132491 0.999763 -0.00985539 0.0194212
-0.0112699 0.015329 0.360294 -0.669974 -0.23445 -0.704392
0.00284324 -0.180078 0.128732 -0.955557 -0.0385995 0.292269
-0.0280911 -0.238801 0.33934 0.662699 0.0157319 0.74872
0.0556846 0.0570647 0.244582 0.985896 0.037504 0.163104
0.0059208 0.221055 0.321327 0 -0.488437 0.872599
-0.00538522 0.218673 0.311003 -0.43104 0.486734 -0.759799
-0.00115051 0.30604 0.333043 -0.266766 -0.0305955 -0.963275
0.0963634 -0.229529 0.544856 0.0720309 0.402547 -0.912561
0.0210968 0.327644 0.210889 -0.577908 -0.567274 0.586704
0.0325226 0.0354714 0.321993 0.85803 0.20644 0.470285
0.0450887 0.283462 0.195639 -0.992843 0.0746432 -0.0932289
-0.0116355 -0.191772 0.309629 -0.96706 -0.165821 -0.193129
0.0416622 -0.286407 0.225524 -0.349362 -0.878304 0.326386
0.00623994 0.121254 0.325897 0.382626 0.878462 -0.286185
-0.0168477 0.295773 0.157158 0.698538 0.656027 0.285786
-0.0417875 0.0512173 0.164579 0.999885 -0.00529957 -0.0141717
-0.00568493 0.16278 0.473589 -0.925156 0.362022 -0.114134
0.0181705 0.192692 0.507587 -0.0548306 -0.881086 0.469767
-0.0414704 0.127621 0.122054 -1 0 0
-0.0406796 0.023237 0.125389 0 -0.139609 0.990207
0.0153654 0.2857 0.138721 -0.701925 -0.700103 0.130989
-0.00175961 0.464433 0.103107 -0.145329 0.888829 -0.434583
0.0455918 0.302061 0.177565 -0.999985 -0.000422649 -0.00540352
0.0592164 -0.231857 0.54797 -0.317293 -0.868355 0.381162
0.0139664 -0.159483 0.0923959 0.974233 -0.190836 0.120217
0.0113027 -0.149751 0.239779 0.889722 -0.429081 -0.155831
-0.0408937 0.0204085 0.188276 -1 0 0
-0.0717895 0.0651731 0.0607311 -0.937845 0 -0.347053
0.01686 -0.190284 0.382556 0.070018 0.832439 -0.549675
-0.00929405 0.440498 0.0691597 -0.350291 0.733137 -0.58293
-0.0695427 0.0520101 0.068299 0 0.342039 0.939686
-0.00906716 -0.389045 0.310544 -0.996243 0.0510217 -0.0699792
-0.0121864 0.28996 0.357455 -0.997352 -0.00414993 0.0726075
0.0152231 0.0384619 0.40586 0.673554 0.232253 0.701701
-0.0394671 0.163417 0.25281 -0.831207 -0.316931 -0.456782
0.0117446 0.383751 0.342629 0.0657991 0.469977 0.880223
0.0163859 0.214998 0.501467 0.090189 -0.959727 -0.266065
0.0391854 0.227842 0.175794 -0.906031 0.0620155 0.418644
0.0132315 0.16157 0.297509 0.559258 0.271725 0.783197
-0.0406011 0.205105 0.134221 1 0 0
0.00466474 -0.281772 0.0021031 0.14544 0.0935752 -0.984932
-0.0374455 0.130695 0.120394 -1 0 0
-0.0410618 0.191433 0.133083 -1 0 0
0.0177198 -0.158488 0.446728 0.972296 -0.159976 0.170434
-0.0123772 -0.408979 0.0577874 -0.967051 0.165854 0.193143
0.0161701 -0.0814583 0.403914 0.995063 -0.0311218 -0.0942432
0.0192432 0.339206 0.219561 0.399149 -0.476441 0.78338
-0.00600469 -0.165987 0.496295 -0.000265661 -0.341384 -0.939924
0.00233379 -0.344749 0.362804 0.0933444 -0.901353 0.422906
0.0113764 0.261308 0.261507 0.956471 -0.290573 -0.0270432
-0.0684725 0.0557562 0.163918 0.0119343 0.445386 0.895259
-0.00578923 -0.479272 0.15499 0.603626 -0.785953 -0.133838
-0.00021584 -0.445506 0.295885 0.727558 -0.552206 0.407097
-0.0069698 -0.294405 0.183512 0 1 0
0.0183412 0.245531 0.533464 0.162724 0.890824 -0.42421
-0.00975415 0.425733 0.091388 -0.995866 -0.0733942 0.0535121
0.00840021 0.167037 0.490308 0.707107 0.673516 -0.215348
-0.00709396 -0.164308 0.485806 -0.923865 -0.359362 0.131648
-0.067262 -0.232515 0.541961 -0.123609 -0.385412 -0.914428
0.0034294 -0.462031 0.0999607 0.093793 -0.916632 0.388573
-0.0210198 -0.268784 0.178503 0.794306 -0.328145 -0.511272
-0.00442088 -0.181191 0.515352 -0.923839 -0.191921 -0.331191
-0.0219209 0.061107 0.314988 0.872382 0.255955 0.416456
0.0166768 -0.334312 0.157559 0.257312 0.733541 -0.629054
-0.0142511 -0.1633 0.461014 -0.993815 -0.10481 0.0366829
0.00849758 -0.194125 0.403151 0.0742712 0.219502 0.972781
0.011737 -0.310799 0.0245764 0.925799 0.0215464 0.377402
0.0112008 0.411456 0.297683 0.889979 -0.322403 -0.322481
-0.0115342 0.186427 0.0476211 -0.559149 -0.783306 0.271631
0.00753039 -0.403355 0.0348901 -0.603682 -0.449069 -0.658715
0.0128039 -0.260672 0.358014 0.559156 -0.693793 0.453866
-0.0123859 0.469961 0.180393 -0.998256 0.0590163 -0.00112425
0.0107266 -0.453061 0.154405 0.996162 0.0854994 0.0187258
0.0430824 0.147527 0.167318 0.88483 -0.239801 0.399464
-0.0410678 0.149121 0.122862 -1 0.000702106 0.000120807
0.00723551 -0.213148 0.345138 -0.603725 0.375479 0.703229
-0.0105134 0.143299 0.0954326 -0.0655392 -0.862808 -0.501266
0.034692 0.165185 0.16182 -0.350047 0.0770547 -0.933557
-0.104756 0.0622671 0.0666325 1 0 0
0.00268414 0.239907 0.356786 0.0942455 0.514567 0.852255
0.00488221 0.213256 0.0950154 -0.258645 -0.733135 0.62898
0.00108869 -0.210483 0.0253606 -0.727535 0.323105 -0.605224
-0.0233199 0.303513 0.197102 -0.999944 0.00183535 0.0104125
-0.000551727 -0.184046 0.456262 -0.382751 -0.873158 0.301822
-0.0367943 -0.24707 0.287454 0.349213 0.852192 -0.389638
0.0169729 -0.012809 0.406776 0.994076 0.0336973 0.103331
0.00645799 -0.147204 0.518348 0.0272466 0.354427 0.934687
-0.00603157 -0.135146 0.107036 -0.224808 0.869802 0.439211
-0.00681419 0.157146 0.464872 -0.925156 0.362022 -0.114134
-9.12696e-08 -0.16552 0.501451 -0.38277 -0.867456 0.317815
-0.0210959 -0.0285575 0.343199 -0.0155339 -0.438099 -0.898792
-0.0150953 -0.335743 0.197361 0.955626 0.126297 -0.266135
-0.0327487 -0.25174 0.309818 0.34952 -0.86563 0.358498
-0.0101558 0.148144 0.131255 -0.924504 0.358289 0.130083
-0.00365262 -0.21443 0.101417 0.701326 -0.519173 -0.488468
0.00592077 -0.343592 0.00787903 0.893501 -0.107274 -0.436059
0.000498507 0.469611 0.117793 0.727538 0.636134 -0.256948
-0.0335931 -0.300172 0.190499 0.00356078 -0.308809 0.951117
0.0620123 0.0686556 0.247106 0 1 0
0.0379949 -0.224701 0.383437 0.349403 -0.864328 0.361738
-0.00126124 0.433217 0.230381 -0.606097 0.311745 -0.731753
-0.0233159 0.294765 0.197344 -0.999944 -0.00183591 0.0104123
-0.00321695 -0.146399 0.476693 -0.353189 0.73451 -0.579441
0.000506124 0.393403 0.0686839 -0.266595 -0.61439 0.742598
-0.0367645 0.0426912 0.18676 0.999762 0.00990117 -0.0194186
-0.0476292 -0.290922 0.215808 -0.349397 -0.852546 0.388699
0.159031 -0.229924 0.556522 0.464171 0.748851 0.473041
0.00956195 0.260759 0.360877 0.224247 -0.880524 0.417602
0.00974403 -0.262851 0.0856247 0.896911 -0.332249 -0.291823
-0.040433 0.0145885 0.182455 1 0 0
0.013725 -0.165267 0.293655 0.995997 0.0699599 0.0556456
-0.0143526 -0.233209 0.211906 -0.399449 -0.20843 0.892747
-0.0347692 0.175709 0.173159 0.350458 -0.0156248 0.936448
0.0436266 0.155164 0.168822 0.904014 -0.121088 0.409995
0.014486 0.376498 0.343158 0.860349 -0.223893 -0.457899
-0.0197973 0.344904 0.173525 -0.896963 0.0396063 -0.440328
0.0465633 -0.305029 0.201965 0.0892852 -0.492846 0.865524
0.0529003 -0.300717 0.185693 0 0.923927 -0.382568
-0.0120933 0.339506 0.0137571 -0.997348 0.0173915 -0.0706752
-0.0123705 0.213805 0.337954 -0.558535 -0.820005 -0.12502
-0.0124437 -0.446675 0.101008 -0.998253 -0.051088 -0.0296804
-0.0119138 0.426077 0.306068 -0.557876 0.74925 -0.35693
0.000256344 -0.157697 0.188538 -0.792581 -0.187933 -0.580083
-0.0347003 -0.233462 0.353706 0.349457 -0.865283 0.359395
0.0059912 -0.403623 0.0352078 0.893529 -0.252982 -0.370953
-0.0192724 -0.295412 0.146418 0.976354 -0.104481 0.18925
-0.0336214 -0.245694 0.323206 0.349478 -0.865275 0.359395
-0.0763708 -0.224169 0.55234 -0.0386226 0.920182 0.389581
-0.162081 -0.229828 0.548275 -0.0450373 0.963148 -0.265176
0.012353 -0.236902 0.0354382 0.925663 -0.141709 0.350808
0.0356154 0.199963 0.545022 0.428172 -0.130718 0.894193
0.0133016 -0.16027 0.0965344 0.974233 -0.190836 0.120217
-0.0417515 -0.232938 0.359136 -0.352553 -0.935303 -0.0302503
0.00324521 -0.368985 0.307963 0.270302 0.416043 -0.868242
0.00167736 -0.258327 0.363474 -0.72755 0.163847 0.666202
-0.000262182 -0.163601 0.0620314 -0.0937107 0.985246 0.143206
0.0506737 0.0601278 0.173831 -0.920807 0.363345 0.141755
0.0464175 -0.275147 0.250232 0.349424 -0.85122 0.391571
0.0115747 0.367784 0.328859 0.925657 -0.166228 -0.339893
0.00387762 0.0303694 0.191848 0.325959 0.781173 0.532466
-0.0101227 -0.186316 0.298467 -0.924625 -0.269322 -0.269323
0.00292701 -0.465194 0.10568 0.0937255 -0.902155 0.421107
0.00600505 -0.477139 0.144034 0.893504 -0.436054 -0.107269
-0.00692765 0.330678 0.0288776 0 0.213973 -0.976839
9.8379e-05 -0.449785 0.0803353 0.72737 -0.567003 -0.386576
-0.0261219 0.240354 0.531464 -0.410519 0.794823 -0.446913
-0.0369641 0.149839 0.203773 1 0 0
-0.011056 0.0699078 0.341361 -0.77156 -0.201641 -0.603354
0.0158362 -0.104099 0.447392 0.993756 0.034062 0.106245
-0.0410618 0.230374 0.142908 -1 0 0
-0.0374455 0.13441 0.124809 -1 0 0
0.0288992 0.232707 0.516107 0.20135 0.769481 -0.606101
-0.0369641 0.187879 0.200792 1 0 0
0.0442922 -0.22302 0.379673 0.908504 -0.3855 0.161277
0.0252231 -0.286507 0.176952 0.948437 0.2777 0.152806
-0.0374248 0.27344 0.199296 -1 0 0
-0.0121919 -0.135678 0.127898 -0.997348 0.0684116 -0.0248459
0.0129156 -0.030877 0.357309 -0.00979643 0.440698 0.897602
0.0105139 -0.405562 0.302454 0 -0.684373 0.729132
0.0467593 -0.20792 0.395305 0.870477 0.47986 0.109561
-0.011465 -0.475133 0.222472 -0.0651949 -0.976956 0.203238
-0.0114917 0.36894 0.0351966 -0.967 -0.103738 0.2327
-0.066628 0.0423484 0.0687963 0 0 -1
-0.0350582 -0.244998 0.293541 0.349213 0.852192 -0.389638
0.0107605 -0.287825 0.0283191 0.996166 -0.00822181 0.0870957
-0.0136746 -0.140331 0.423274 -0.995019 -0.0310322 -0.0947315
0.00700633 -0.0274842 0.432441 0.105234 0.312845 0.943956
0.0469355 -0.231392 0.343929 0.719258 -0.517088 -0.463991
-0.0487577 0.273759 0.180758 -0.251688 -0.165342 0.95358
0.0143481 -0.269307 0.358889 0.860437 -0.0855507 -0.502323
-0.0459697 0.22058 0.164577 -0.197684 0.0240883 -0.97997
-0.00909881 -0.391377 0.309295 -0.996242 0.0510224 -0.0699875
0.0301748 0.0251404 0.319286 0.874059 -0.206363 -0.439813
-0.133881 -0.22386 0.562185 -0.938789 0.239027 0.248075
0.00465446 0.0625428 0.210014 0.382681 -0.877911 0.287798
-0.00603735 0.171409 0.484323 -0.999911 -0.00260176 0.0130514
-0.00511333 0.137517 0.377681 -0.382707 0.87844 -0.286144
0.00763902 0.229229 0.352269 0.225172 -0.940386 0.254897
-0.0122783 -0.36823 0.342647 -0.998253 -0.0240587 0.0539633
-0.000589129 0.179319 0.476263 -0.153845 0.941169 -0.300886
0.0428529 0.159323 0.162147 0.197683 0.0240883 -0.97997
0.00686689 -0.0621723 0.383157 0.000898143 -0.316434 -0.948614
0.0302353 -0.23215 0.349408 -0.680586 0.00106165 0.732668
0.00977582 0.117353 0.180972 0.350631 -0.936343 -0.017875
-0.000897816 -0.212567 0.540761 -0.00469952 0.916656 0.39965
-0.0368664 0.0791392 0.151017 0.999763 -0.0215201 0.00340651
0.0329123 0.13511 0.17217 -0.39074 0.0580722 0.918667
0.00707271 -0.205079 0.381385 -0.035586 -0.19362 -0.980431
-0.00953669 0.302306 0.0250518 -0.92464 -0.0073164 0.380772
-0.012161 0.438433 0.288847 -0.997348 0.0585943 0.043178
0.042343 -0.251037 0.30817 0.908482 -0.386277 0.159532
-0.00599463 0.138002 0.434569 -0.922974 -0.368641 0.110558
0.0111625 -0.14008 0.268111 0.978242 0.183015 0.0977174
0.00671826 -0.133705 0.110676 -0.603756 0.72815 -0.324464
-0.0123667 0.140205 0.245023 -0.998252 -0.0547973 0.0221262
-0.146791 -0.224908 0.556439 -0.927197 0.359968 0.103583
-0.0427014 0.0557683 0.15521 -1 0 0
0.0138662 0.241488 0.216792 0.701302 -0.341065 -0.625979
0.00622885 -0.342925 0.328841 0.448147 0.242905 -0.860326
0.0178733 0.101943 0.162342 0.0321432 0.923367 -0.382571
-0.0263347 0.139883 0.271951 0.870221 0.283926 0.402619
0.0244901 -0.286736 0.162784 -0.101706 0.939006 0.328518
0.0131968 0.478955 0.174707 0.0669965 0.996116 -0.0571272
-0.0127674 -0.0132833 0.372051 -0.995074 -0.0307627 -0.0942443
0.0319642 0.165052 0.535101 0.822183 -0.22764 0.521722
0.0599047 0.0433266 0.155522 0.930622 -0.360222 -0.0646805
0.0173405 0.0631392 0.367602 0.995284 -0.0286647 -0.0926672
-0.040433 0.0580978 0.205181 1 0 0
0.00455714 -0.20891 0.382232 -0.0443156 -0.186692 -0.981419
-0.0565213 0.0479646 0.162368 0.00951758 -0.698677 0.715374
0.0151322 0.37641 0.189118 0.793822 0.152335 0.588762
-0.00855132 -0.356028 0.244545 0.956447 0.26837 0.11483
-0.0103124 -0.449117 0.0853038 -0.0655402 -0.824393 -0.562211
-0.0128048 0.059567 0.157722 -0.888064 -0.351162 -0.296696
0.0231642 0.0164016 0.335462 -0.0169647 0.413022 0.910563
-0.018806 -0.280207 0.203721 -0.955516 0.292519 0.0377163
-0.0368234 0.0156826 0.139482 1 0 0
-0.00381289 -0.351132 0.360494 -0.0937175 -0.916159 0.389704
-0.00727437 -0.0350235 0.33811 -0.913189 -0.406387 -0.0306001
-0.0175313 0.143607 0.53745 -0.834276 -0.11174 0.539906
0.0105509 -0.438756 0.251677 0.996159 0.0787958 -0.0381959
0.0120217 -0.208238 0.403831 0.0723495 -0.479659 0.874467
0.0523548 0.0595032 0.205983 -0.00079071 0.999951 -0.00989712
0.00978033 -0.384901 0.229375 0.699238 0.152087 0.698524
0.00111118 -0.0200916 0.371149 0.382433 0.869014 -0.313944
-0.0143376 -0.159034 0.458293 -0.992147 0.0902824 0.0865599
-0.0103199 0.311648 0.344434 -0.924635 -0.0359578 -0.379153
-0.015013 -0.334473 0.131193 0.399364 -0.693407 0.599746
-0.00936732 -0.149119 0.234524 -0.924513 -0.362651 -0.117303
0.00697842 -0.291029 0.182143 0.00699111 0.809015 -0.587747
0.055519 -0.287156 0.188956 -0.980818 0.157693 0.11458
-0.00981239 -0.365359 0.0395849 -0.9245 0.155201 0.348157
0.0151878 0.137828 0.39294 0.888063 0.442283 0.125416
0.117897 -0.239554 0.542998 -0.0448698 -0.50567 -0.861559
-0.0364749 -0.224185 0.386019 0.349399 -0.86433 0.361738
-0.0085562 0.0778858 0.230894 -0.923868 -0.363316 0.120289
0.0124102 -0.123907 0.147311 0.0662809 0.976868 -0.203313
-0.00608711 0.117997 0.165651 0.60382 -0.793554 -0.0753236
-0.0140639 -0.337799 0.123304 -0.397617 0.694245 -0.599938
0.0107441 -0.479303 0.20539 0.226507 -0.684539 -0.692893
0.0369683 0.20762 0.165026 -0.92355 0.107009 -0.368244
-0.000783622 0.169737 0.474766 0.000242692 -0.304487 -0.952516
-0.0612838 0.059086 0.159618 0.00213451 0.987095 0.160121
0.0383371 -0.284734 0.225238 -0.904576 -0.419677 0.0749187
0.0138749 0.465503 0.126149 0.860452 -0.478944 0.173879
-0.00142767 0.286512 0.33266 -0.266735 0.0905859 -0.959503
0.0253087 -0.288781 0.176204 0.957467 -0.288475 0.0063092
0.00570577 0.309824 0.366645 0.89359 0.0256932 0.448149
-0.00780804 -0.148034 0.139391 0 0.962407 -0.271612
0.000568745 0.0265836 0.19911 -0.325898 0.781024 0.532722
-0.0043749 0.444448 0.222985 -0.430787 -0.868527 -0.24512
0.00613008 -0.434505 0.118729 0.448025 0.804493 0.389954
-0.0106752 0.396018 0.0325054 -0.0652362 0.531944 -0.844263
-0.0556288 0.0615955 0.147396 -0.0113128 0.968459 -0.248915
-0.00923955 -0.157216 0.249276 -0.996238 -0.0779881 -0.0377932
0.0154255 -0.0284764 0.356161 -0.0155295 0.438101 0.898791
-0.0200886 0.243709 0.532262 -0.392467 0.825754 -0.405092
0.117618 -0.241407 0.552494 -0.0933499 -0.905895 0.413087
-0.0105724 -0.446236 0.117708 -0.92449 0.348176 0.155216
-0.00477344 0.139734 0.445259 -0.387736 -0.88139 0.269838
-0.000314044 0.399927 0.0306929 -0.0942873 0.988796 -0.115723
0.000517239 -0.16189 0.23566 -0.140716 -0.307168 0.941194
0.00927089 0.205147 0.338152 0.224159 0.343898 0.911859
0.0115808 -0.478164 0.164744 0.0666255 -0.989121 -0.131149
-0.0103512 -0.192814 0.0643687 -0.924614 -0.248122 0.289006
0.0440582 -0.291736 0.189149 -0.00700176 0.809016 0.587745
-0.011265 -0.441204 0.266194 -0.967028 0.22023 -0.127893
0.0175226 -0.152439 0.441509 0.995007 -0.0311507 -0.0948232
-0.0406011 0.274627 0.146491 1 0 0
0.0114857 -0.449422 0.283838 0.559326 0.18433 0.808194
-0.00932578 -0.321796 0.0279975 -0.924597 0.0500752 0.37764
0.0168387 0.346388 0.186135 0.701004 -0.0921365 0.707181
-0.0538776 0.0480757 0.0981422 0.997458 -0.0500225 0.0507501
-0.013866 -0.051768 0.425196 -0.994089 0.0349014 0.102804
-0.0154651 -0.345387 0.168443 -0.955619 -0.25862 0.141097
0.0155184 -0.0523316 0.387054 0.995061 -0.0324452 -0.0938119
0.0105451 -0.442852 0.242196 0.996157 0.0809187 -0.0335135
0.00557768 0.129464 0.116469 0.893525 -0.416325 -0.168183
0.00722432 0.206488 0.231612 -0.700956 0.34114 0.626325
-0.00524681 0.12419 0.231662 0.604016 -0.76658 0.217993
-0.00379158 -0.0516469 0.379794 -0.000683077 -0.311565 -0.950225
-0.0086469 0.0776851 0.227341 -0.923884 0.364446 -0.116695
-0.0134787 -0.0581923 0.394221 -0.995074 -0.0307627 -0.0942443
-0.00595928 0.440442 0.0681983 0.603519 0.623969 -0.496415
0.0134182 0.431322 0.284109 0.97425 -0.181495 -0.133774
-0.186385 -0.230726 0.559831 -0.00655364 0.260837 0.965361
-0.0117213 -0.297524 0.350064 -0.967069 -0.00489031 -0.254466
-0.0119377 -0.173902 0.0567598 -0.886178 0.327647 -0.327622
-0.0435558 0.310178 0.187525 -1 -0.0004161 -0.000415997
-0.00571581 -0.261549 0.338469 0 0.271612 0.962407
-0.00663623 0.160626 0.474467 -0.925156 0.362022 -0.114134
-0.0369348 0.0763816 0.161346 0.999763 -0.0215237 -0.0034174
-0.0123881 0.274783 0.00806522 -0.556542 -0.812231 -0.174762
-0.0368097 0.00945709 0.161247 1 0 0
0.0460145 0.295803 0.196978 -0.112784 -0.0673236 0.991336
0.023659 -0.223366 0.532388 0.0041758 -0.365687 -0.930728
0.0351916 0.184296 0.540354 0.596103 -0.308664 0.741207
-0.0255905 -0.22509 0.354669 0.636057 -0.0369947 -0.770754
-0.00374667 -0.413057 0.123775 -0.955592 -0.258671 0.141182
-0.0121837 -0.126131 0.174018 -0.99735 0.072631 -0.00413979
-0.0435558 0.281193 0.185795 -1 0.000524278 -0.000267146
-0.041351 0.0206931 0.156393 -0.999763 0.0215238 0.00336588
0.0470554 -0.22528 0.363528 0.507883 0.128438 0.851797
-0.0070577 -0.391343 0.305514 -0.448172 0.52665 -0.722345
-0.109455 -0.24452 0.555536 0.0497603 -0.969141 0.241433
0.00724357 0.148745 0.187974 0.431373 0.901723 -0.0284994
0.0156793 0.050956 0.398561 0.994151 0.0333531 0.102716
0.0129911 0.151235 0.114985 0.925652 0.3456 0.154043
0.00663918 -0.260101 0.0748962 0.103622 -0.938695 -0.328808
-0.0121463 0.155241 0.0864585 -0.997351 -0.0600965 -0.040971
-0.00893587 -0.140833 0.513053 0.416085 0.723747 0.550512
-0.00517416 0.321125 0.364489 0.6039 0.104821 0.790138
-0.040485 0.285276 0.161915 0.000922943 -0.707017 -0.707195
-0.000529598 0.358496 0.312312 0.0140069 -0.941044 0.337994
-0.0401813 0.305776 0.191708 0.000733495 0.45401 0.890996
-0.0089187 0.388131 0.159546 0.976337 -0.212325 -0.0410506
0.0466277 -0.217218 0.380385 0.908492 -0.385515 0.161306
0.0166857 -0.0793612 0.408665 0.995063 -0.0311218 -0.0942432
-0.000595934 0.271031 0.335925 -0.712083 0.661437 0.235455
0.00960921 -0.454675 0.0910733 0.226295 -0.118016 -0.966883
0.0169711 -0.0966915 0.434194 0.994076 0.0338383 0.103285
-0.0235423 -0.288139 0.193914 -0.999997 0.00187987 0.00127956
0.00913944 0.0612243 0.155122 0.116099 -0.321936 -0.939616
0.00279973 -0.22247 0.548546 0 -0.382728 0.923861
-0.00317218 0.134471 0.430373 -0.389392 -0.880691 0.269735
-0.0366457 0.295088 0.186996 0 -0.809036 0.587759
-0.0124936 0.141092 0.241195 -0.998253 -0.0555428 0.020172
0.0441001 -0.207536 0.380693 0.908485 0.385531 -0.161312
-0.0112228 0.157655 0.264635 -0.967018 0.220243 -0.127942
-0.0120035 0.400787 0.0521258 -0.967041 -0.151038 0.204987
-0.0371441 0.134972 0.167012 -0.878129 -0.315157 0.359952
-0.0886433 -0.239741 0.54635 0.0153841 -0.763327 -0.645829
-0.00718766 0.394504 0.0574083 0 0.589092 -0.808066
0.0499042 0.307143 0.166829 0.999998 -0.000950181 -0.00155568
0.003719 0.237835 0.296001 -0.698361 -0.534428 -0.476108
0.0137797 -0.464304 0.234614 0.99599 -0.0851184 0.0275294
0.0250228 -0.30539 0.191624 0.999997 -0.0012383 0.00190762
-0.00786833 0.0812236 0.396408 -0.00397522 0.300545 0.953759
-0.0204029 0.00819854 0.327661 0.883484 -0.173381 -0.435195
0.0118924 -0.239299 0.150496 -0.955537 -0.0385714 0.292336
0.00972795 0.195325 0.0733097 0.431358 0.6174 0.657836
0.0528146 0.0526486 0.249967 0 -0.984806 -0.173655
0.199334 -0.233656 0.548606 0.946652 0.268417 -0.17833
0.0080982 0.118121 0.206373 0.350748 -0.928342 0.123113
-0.00795354 -0.191704 0.413105 0.89118 0.425853 -0.156355
0.0160606 0.00197677 0.374022 0.995061 -0.0324452 -0.0938119
0.0499449 0.284553 0.172908 0.999997 0.00130965 0.00194911
-0.00574203 0.132958 0.257421 0.604425 -0.727552 0.324558
0.0139129 0.143631 0.102716 0.860443 0.449492 0.239988
0.0136682 0.128407 0.212331 0.997359 -0.0716048 0.0121904
0.0850163 0.0674553 0.254474 -0.600098 0 0.799927
-0.012417 0.133251 0.21845 -0.998255 -0.0578183 0.0120154
0.0138072 -0.467281 0.245777 0.886096 -0.435623 0.158326
-0.00106091 0.478248 0.140952 -0.145256 0.960741 -0.236385
-0.00493155 0.227033 0.278152 -0.103159 0.792933 0.600513
-0.0113157 -0.0964582 0.397489 -0.66692 -0.233147 -0.707715
-0.00957919 -0.318306 0.34279 -0.924613 0.0501221 -0.377595
-0.0270902 0.0517951 0.319719 0.0171076 0.412862 0.910633
-0.00926345 -0.1828 0.291808 -0.871205 -0.360124 -0.333636
0.0124058 -0.315927 0.0234005 0.92579 0.035732 0.376346
-0.00837427 0.481716 0.181274 -0.350432 0.936421 -0.0176938
0.0455649 0.299948 0.197171 -0.999999 0.000218357 0.0010425
0.0945585 0.0426426 0.253439 0 1 0
-0.0409074 0.0232456 0.121829 -1 0 0
-0.00195964 -0.192527 0.0365584 -0.0934504 -0.252458 -0.963084
-0.00436472 -0.480394 0.210334 -0.89348 -0.44519 0.0591613
-0.0407966 0.235116 0.176888 0.215913 -0.0403633 0.975578
-0.015218 0.0599976 0.374534 -0.994137 0.0320919 0.103256
0.0102476 -0.438569 0.122394 0.44938 0.825341 0.341863
0.0134161 0.155177 0.103289 0.974221 0.199014 0.106239
-0.00920484 0.412529 0.0732216 -0.871144 -0.347167 0.347252
-0.0393176 0.0275101 0.121639 0 0.997442 -0.0714844
0.0109618 0.438252 0.25006 0.995775 -0.0826315 -0.0400553
-0.00891835 -0.158102 0.513204 -0.758783 -0.612184 0.222438
-0.0090724 -0.440395 0.247874 -0.996237 0.0800725 -0.0331603
-0.12599 -0.226859 0.552924 -0.0847045 0.920524 -0.381393
0.00437422 0.11958 0.322116 0.161349 0.0894917 -0.982831
-0.038844 0.29548 0.154923 0 0.877738 0.47914
-0.00170714 -0.0141971 0.428247 -0.105181 0.314722 0.943338
0.0116747 0.340652 0.339045 0.925715 -0.103456 -0.363797
-0.0136087 0.0256224 0.401452 -0.994137 0.034682 0.102412
0.0144847 0.35503 0.0157413 0.886155 0.142568 -0.440911
0.011655 -0.211372 0.397186 -0.123382 -0.925512 0.358057
0.00386914 0.382828 0.0599303 0.274359 -0.518718 0.809727
0.00613368 -0.44455 0.121709 0 -0.923907 -0.382616
-0.0421998 -0.234786 0.311315 -0.382399 0.836492 -0.392494
-0.0104854 -0.460854 0.184759 -0.924631 0.380795 0.00724839
-0.0110529 -0.137069 0.192922 -0.967073 -0.254083 -0.0145729
0.0429435 0.198571 0.247627 0.854621 0.152893 0.496232
-0.0255214 0.102114 0.291622 0 0.924105 0.382139
-0.0408937 0.0635283 0.202206 -1 0 0
0.00295486 0.43776 0.239882 0.274245 -0.888439 -0.368058
-0.00746378 0.219058 0.144559 0.956356 -0.0264779 0.291003
0.0106802 -0.172972 0.276027 0.996165 -0.0707007 -0.0515484
0.00741276 -0.246955 0.0357105 0 0.327811 -0.944743
0.014854 0.0724917 0.341897 0.837503 -0.170784 -0.519059
0.0246967 0.309646 0.171096 0.999944 0.00529485 -0.00916967
0.000982668 -0.196271 0.380354 -0.0218936 -0.126572 -0.991716
-0.00636883 -0.401287 0.146275 0.102222 0.325944 -0.939846
-0.0124478 -0.252781 0.0221823 -0.998253 0.0161665 -0.0568252
0.00839233 0.0092222 0.359345 -0.0664112 -0.310762 -0.948165
0.0212891 0.0756088 0.303446 -0.87238 0.255959 0.416458
-0.0374248 0.253183 0.197819 -1 0 0
-0.0108038 0.23637 0.352073 -0.0650224 -0.340632 0.937945
-0.0405874 0.30768 0.194315 1 0 0
-0.0685273 -0.226923 0.555775 0.144382 0.385767 0.911229
0.0122157 0.223638 0.34538 0.557142 0.580385 0.593924
0.00776921 -0.0641933 0.444415 0.105811 0.291646 0.950656
0.00374219 -0.0147503 0.400702 0.923665 0.354903 -0.14452
0.183857 -0.231374 0.555535 0.402021 0.843138 0.357067
-0.00568974 0.141461 0.448647 -0.922974 -0.368641 0.110558
0.0132164 0.0686041 0.166449 0 0.891 0.454002
-0.00110421 0.223139 0.0559948 -0.266429 0.470837 0.841028
-0.0123945 -0.430509 0.293722 -0.998256 -0.0461886 0.0367528
-0.037983 0.0954455 0.139368 0.999281 0.0337876 -0.0171921
-0.00882142 0.392841 0.311164 0.99014 0.0830974 0.112769
-0.0369641 0.2833 0.199417 1 0 0
-0.007702 0.370387 0.350191 -0.225143 -0.470001 0.853469
0.0122663 -0.373946 0.231982 -0.101521 -0.566614 -0.817705
0.0378287 0.11993 0.279711 0.869141 -0.294828 -0.397078
0.0224416 -0.308032 0.196581 -0.992356 0.0869429 -0.0875793
-0.0121975 -0.129695 0.409261 -0.665372 -0.233454 -0.709069
0.00623963 0.208725 0.303808 0.431264 0.531529 -0.729032
0.0112172 0.256975 0.0334889 0.995776 0.024942 0.0883584
-0.00843767 0.118147 0.178303 -0.225306 -0.572896 -0.788053
-0.0484916 0.285717 0.189364 -0.99996 0.00628672 0.00636411
-0.000131656 0.463646 0.26538 0.727487 0.616389 0.301377
-0.135774 -0.238892 0.560388 0.0802053 -0.381479 0.920891
0.0499307 0.312328 0.187223 0.999988 -0.00433167 -0.00237039
-0.00544843 0.4501 0.177385 -0.431221 -0.901793 0.0286011
0.00561487 0.152155 0.212022 0.431211 0.881355 -0.193055
-0.0692716 0.0563452 0.0676563 -1 0 0
-0.00415874 0.334571 0.0381497 -0.430976 -0.193106 0.881459
-0.024918 -0.0226135 0.340616 -0.0316263 -0.413161 -0.910108
-0.000700914 -0.227855 0.54463 0 -0.85528 0.518166
-0.0369345 -0.240943 0.340704 -0.274302 -0.342167 0.89871
-0.00459319 0.0658533 0.16705 -0.382676 0.879097 -0.284161
0.0106796 -0.11819 0.179338 0.225376 0.573132 -0.787861
-0.011683 0.120796 0.389264 -0.923871 -0.365337 0.113978
0.00704076 0.224349 0.105777 -0.253399 0.780224 -0.571873
0.0140622 0.158138 0.27657 0.995993 -0.0756586 0.0476827
-0.0124738 -0.364965 0.339503 -0.966995 0.0954216 -0.236252
0.00937236 0.0686513 0.184467 0.923299 0.365909 -0.116747
-0.00152656 -0.164404 0.234194 -0.977583 0.188611 -0.0935795
-0.0400548 0.246217 0.146267 0 -0.439054 0.898461
0.0391459 -0.231897 0.362139 0.286836 -0.382927 0.878118
0.0145683 0.449876 0.0906162 0.860343 -0.431244 0.27173
-0.0226778 -0.299696 0.20277 0 0.0308411 0.999524
-0.117998 -0.243668 0.541933 0.99827 0.00222162 -0.0587529
-0.0124963 0.315717 0.351364 -0.967055 -0.0240785 -0.253428
0.0601134 0.0463125 0.179023 0.894896 -0.43477 0.100683
-0.0410703 -0.295692 0.179926 0 0.382696 0.923874
0.0360615 0.226503 0.22509 -0.813701 -0.192763 -0.548391
0.00900909 -0.0996611 0.455509 -0.0259222 0.305925 0.951703
-0.0412849 0.0255814 0.167804 -0.999763 0.0194115 -0.00989599
-0.00963172 0.250515 0.0106148 -0.978197 -0.0568137 -0.199756
-0.0254287 0.297078 0.174142 0 -0.173643 -0.984809
0.025492 0.127668 0.163047 -0.889101 0.219364 -0.40172
-0.0372704 0.0716018 0.206739 -1 0 0
0.00072766 0.45549 0.278463 0.727556 0.593221 0.344602
-0.00189607 -0.140364 0.276507 -0.145227 0.855449 0.497107
-0.00291733 -0.363496 0.320047 -0.278652 0.418901 -0.864219
-0.00652989 0.0931521 0.33139 -0.00663754 -0.3267 -0.945105
-0.0614959 0.045842 0.0893058 -0.876656 -0.471433 -0.0960495
-0.0183913 0.29304 0.167203 0.698538 0.656027 0.285786
-0.0118382 -0.185688 0.388898 -0.21814 0.893833 -0.391761
-0.00929781 -0.367291 0.0433897 -0.996239 0.0377973 0.0779761
0.0102457 0.252365 0.335025 0 -0.327875 0.944721
0.00198873 -0.11726 0.161976 -0.727455 0.680206 -0.0901607
-0.0123563 -0.231618 0.0317938 -0.966999 -0.103719 0.232713
-0.00477195 0.15072 0.492265 -0.86737 -0.47402 0.151571
0.00695452 -0.177439 0.407865 0.450457 0.784255 -0.426654
-0.00686537 0.0995439 0.159965 0.0133166 0.382587 -0.923824
-0.0137409 -0.0671604 0.431595 -0.99409 0.0338782 0.103138
-0.00239463 -0.425303 0.265608 -0.278736 0.808667 -0.518039
-0.0760275 0.0450308 0.0690632 -1 0 0
-0.0122846 0.128409 0.202718 -0.998256 -0.0587727 0.00558409
-0.00815371 0.296225 0.284874 -0.102098 0.994583 0.0195318
-0.00196501 0.124788 0.4005 -0.389392 -0.880691 0.269735
0.0135428 0.468702 0.229356 0.997357 0.0698828 0.0198789
0.0137983 -0.461553 0.254348 0.557608 -0.572278 -0.601308
0.0116509 0.330536 0.341348 0.925751 -0.0770153 -0.370209
-0.0592314 0.044657 0.0664514 0 -0.992919 -0.118792
0.0801018 0.0407936 0.244651 0 0 -1
0.00965119 0.30691 0.342156 0 0.0316887 0.999498
0.00450467 -0.00752864 0.427061 0.923678 -0.354881 0.144495
-0.0104614 0.144749 0.139444 -0.924501 0.366628 0.10432
-0.0450292 -0.263059 0.249233 -0.349324 0.877916 -0.327469
0.0361525 0.131053 0.280126 0.854621 0.152893 0.496232
0.0498447 0.315071 0.179841 -0.00766654 0.998667 0.0510502
0.000106762 0.155928 0.178555 -0.966122 0.21084 -0.148846
0.004039 -0.134748 0.504384 -0.999769 0.0151922 -0.0151878
-0.0116957 0.446105 0.10825 -0.967009 -0.224707 0.120005
-0.00736006 0.35106 0.326435 -0.43083 -0.295817 -0.852571
-0.00753593 0.148509 0.197815 -0.431171 0.898273 -0.084835
-0.0169172 0.334084 0.144887 0.57654 0.589277 0.565998
-0.0475642 -0.272157 0.227546 -0.349324 0.877916 -0.327469
-0.0411556 0.0292537 0.198158 0 0.758304 0.651901
-0.0108002 0.453787 0.233167 -0.924497 -0.362698 -0.117283
0.139731 -0.225502 0.560467 0.327526 0.710631 0.62268
0.0136588 0.15248 0.0883117 0.86044 0.431126 0.271613
0.00389223 0.22704 0.516171 0.0122975 -0.0209285 -0.999705
0.00459239 -0.00386643 0.435494 0.923678 -0.354881 0.144495
-0.0410481 0.151549 0.203953 -1 0 0
0.00566012 -0.0383783 0.285672 0.377168 -0.925279 -0.0400308
-0.00515979 -0.13065 0.405369 -0.12975 -0.310247 -0.94176
0.0535895 -0.301847 0.177751 0 -0.382632 -0.923901
0.0057106 -0.232727 0.537802 -0.980175 -0.194872 -0.0357913
-0.0120911 -0.444405 0.282923 -0.997349 -0.0601255 0.0409891
0.00580965 0.211259 0.503329 -0.852706 0.515318 -0.0856695
0.0155207 -0.0629482 0.437099 0.994076 0.0338383 0.103285
-0.0110751 -0.461574 0.200017 -0.967066 0.253387 -0.0240483
-0.0421693 -0.303304 0.178652 0 -0.923882 -0.382678
-0.00582387 -0.450864 0.230989 0 -0.962379 0.271711
0.012543 0.325403 0.124342 -0.956463 -0.290597 -0.0270638
0.0927558 0.0402777 0.253345 0 -1 0
-0.0379771 0.24135 0.224675 0.831707 0.31159 0.459539
0.011028 0.387905 0.310719 0.99578 -0.0540647 -0.0741517
-0.0427353 0.18692 0.173967 -0.348658 -0.0956345 0.932358
-0.00783704 0.367025 0.353249 -0.350276 0.350767 0.868487
-0.0273396 -0.236622 0.348622 0.865708 -0.465588 -0.183784
0.0112544 0.457185 0.169798 0 0.99558 -0.093918
-0.0410481 0.269798 0.202225 -1 0 0
0.00720417 -0.135241 0.263269 -0.603571 0.716247 0.350274
-0.0285712 0.178618 0.534414 -0.900212 -0.394305 0.184776
0.000542001 0.0467771 0.408158 -0.0813613 0.313634 0.946052
-0.0124488 -0.145564 0.255021 -0.998253 0.053967 0.0240504
0.00964931 -0.117285 0.186774 0.351013 0.936199 0.0179421
-0.025703 -0.239852 0.31237 0.923168 0.337552 -0.183899
0.0392938 0.190203 0.519142 0.871313 -0.313451 -0.377574
-0.00950881 0.262382 0.117852 0.956511 -0.19191 0.219674
0.0136519 0.461275 0.247072 0.997357 0.0673679 0.0272022
-0.0451499 -0.238388 0.321386 -0.908507 0.386114 -0.159783
0.0188014 0.296859 0.179242 0 -0.309071 -0.951039
-0.0411567 0.0435006 0.200871 -0.99958 0.0182525 0.0225139
-0.00959653 0.452239 0.139728 -0.924519 -0.366595 0.104272
0.0116096 0.13995 0.16869 0.925808 0.376299 0.0357495
0.00280692 0.164348 0.471574 0.385263 0.88239 -0.270111
0.0411926 -0.24076 0.344363 0.365177 -0.928695 0.0645803
0.00712987 0.0870179 0.281383 0.382681 -0.877911 0.287798
0.0109625 0.260101 0.264268 0.955418 0.141008 0.259411
-0.004078 -0.404322 0.130387 0.258701 -0.500541 0.826155
-0.022951 -0.31306 0.1605 -0.577101 -0.720122 0.3852
-0.0409074 0.0981992 0.118213 -1 0 0
-0.0413006 0.0691004 0.131438 -0.999763 -0.00994108 0.0193413
0.0145022 0.164513 0.486999 0.222086 -0.0376396 -0.9743
-0.00918287 -0.173519 0.280386 -0.871078 -0.395399 -0.291348
-0.0307961 -0.2469 0.298929 0.905126 0.350826 -0.240141
0.0218105 -0.291876 0.219866 -0.398754 0.846101 -0.353707
0.0147185 -0.230175 0.189362 -0.976321 -0.188947 -0.105339
0.0136879 0.134251 0.235446 0.997357 -0.069134 0.0223595
-0.00994378 0.057456 0.156836 -0.289531 -0.859003 -0.422239
0.0130982 -0.15553 0.509876 0.92387 -0.359352 0.131645
-0.0121008 -0.473382 0.165726 -0.997349 -0.0721297 -0.00956736
-0.011756 -0.297388 0.350193 -0.967069 -0.00489031 -0.254466
-0.00357872 0.22635 0.0767653 -0.897179 -0.430639 0.0980775
0.0101868 -0.194331 0.528401 0.923888 0.191862 0.331089
0.0142949 0.18361 0.0493437 0.886297 -0.301685 -0.351373
-0.0410684 0.14766 0.125865 -1 0.000702107 0.000120807
-0.0121611 0.107886 0.525912 -0.865875 -0.324113 -0.381065
0.0116404 0.280392 0.36273 0.0667163 -0.0943886 0.993297
-0.0395998 -0.235499 0.349488 -0.349457 -0.865282 0.359398
0.110729 -0.244114 0.548406 -0.0610095 -0.916027 -0.396449
-0.00153581 -0.229868 0.0148886 -0.145227 0.370426 -0.917439
-0.00514317 -0.381134 0.265638 -0.254063 0.573886 0.778529
0.0292442 -0.231572 0.330344 -0.908498 0.38613 -0.159795
0.0245108 0.327289 0.187577 0.57654 0.113817 -0.809103
0.00324092 -0.217882 0.531508 -0.012989 0.39953 -0.916628
-0.00313713 -0.467123 0.259504 -0.145505 -0.903674 0.402743
0.0161899 -0.226592 0.536153 -0.00398633 -0.916636 -0.399704
-0.00329357 0.430583 0.256244 -0.266548 -0.841031 -0.470765
-0.00540371 0.121474 0.328816 -0.382628 0.878485 -0.286112
-0.0213077 -0.273338 0.156154 -0.976343 0.195858 -0.0916225
0.0598902 0.0564394 0.251417 0 0.866031 0.499991
0.00796328 0.148293 0.184586 0.431555 0.901632 -0.0286236
0.0212789 0.0385504 0.321745 -0.874083 0.206346 0.439772
-0.00890735 -0.314753 0.33664 -0.447625 0.0840381 -0.890264
-0.0149188 -0.0307874 0.407893 -0.994089 0.0349014 0.102804
-0.0650776 0.0461998 0.0586554 1 0 0
-0.0117031 0.297759 0.349154 -0.967059 0.00484911 -0.254508
-0.0232231 -0.300277 0.189674 -1 0 0
-0.0093709 0.379514 0.021191 -0.978189 0.0912375 -0.186607
0.0244688 -0.281514 0.204578 0.399143 -0.476444 0.783381
0.012889 -0.46131 0.208246 0.925767 0.374815 -0.0496892
0.0138387 0.132974 0.199871 0.974258 0.224428 -0.021285
0.0140167 0.209473 0.0404315 0.995993 -0.0476725 -0.0756686
-3.40454e-05 0.0229081 0.416054 -0.105181 0.314722 0.943338
-0.0123527 -0.470115 0.197339 -0.998255 -0.0587785 0.00558119
-0.00591224 0.144141 0.416311 -0.925156 0.362022 -0.114134
0.0524078 -0.294517 0.195385 0 0.382674 0.923883
-0.0124968 0.467732 0.183489 -0.967068 -0.25447 0.0048476
0.0374337 -0.240359 0.34579 -0.294008 -0.407539 0.864564
0.0110474 0.470856 0.240614 0.978225 0.197468 0.0638871
-0.0107503 0.451616 0.128882 -0.924493 -0.358305 0.130112
-0.0043217 0.326387 0.331723 -0.431103 -0.13962 -0.891435
0.00182939 -0.155692 0.211731 0.0215198 0.223135 -0.97455
-0.0684841 0.0517651 0.154947 -1 0 0
0.0242157 0.0474045 0.321419 -0.0169647 0.413022 0.910563
-0.0415724 -0.27473 0.254803 0.349312 -0.878275 0.326517
0.0173241 -0.129578 0.431916 0.995007 -0.0311507 -0.0948232
-0.0125526 -0.304789 0.265731 -0.397694 -0.914256 0.0773031
-0.0146721 0.0470231 0.383882 -0.994137 0.034682 0.102412
0.0178297 -0.217921 0.545988 -0.00418358 0.365475 0.930812
-0.00378283 0.2037 0.504846 -0.371992 0.132684 0.918704
-0.0093044 -0.369673 0.151494 0.955468 0.258914 -0.141577
-0.0128904 -0.471839 0.142351 -0.886033 -0.450219 -0.110669
0.000999194 -0.163106 0.24357 0.286481 -0.885175 -0.366598
0.067389 0.0662907 0.252103 0 1 0
-0.032467 -0.198818 0.389477 -0.224668 0.898896 -0.376179
-0.0379925 0.0610613 0.202719 0.999276 0.00598745 0.0375646
-0.00330321 -0.157812 0.518513 -0.382648 -0.867514 0.317804
-0.0452992 0.295094 0.175816 0.0777414 0.948078 -0.308389
-0.00489871 -0.150163 0.203702 -0.448246 -0.883144 -0.138321
-0.0411819 0.151126 0.169784 -0.904015 -0.121087 0.409995
0.0143455 -0.149364 0.481892 0.846702 0.466254 0.256324
-0.0187375 0.0104287 0.330034 0.857629 -0.196434 -0.475274
-0.00122725 -0.273921 0.0459456 -0.253939 -0.921927 -0.292516
0.00429668 -0.15155 0.206828 0.286576 -0.946516 -0.148264
0.0172725 -0.0859175 0.417026 0.995063 -0.0311218 -0.0942432
0.0264961 0.134224 0.27172 -0.813701 -0.192763 -0.548391
0.0169585 0.285531 0.144457 -0.256672 -0.963372 0.0776745
0.00979544 -0.262192 0.338619 0 0.213983 0.976837
-0.00700828 -0.251498 0.279942 -0.955507 0.292551 0.037703
0.00130654 0.2364 0.0508862 0.984588 0.0547717 0.166092
-0.0120567 -0.0128421 0.423416 -0.671637 0.233673 0.703065
-0.0405874 0.256574 0.201141 1 0 0
0.174809 -0.245139 0.548761 0.238976 -0.898625 -0.367917
-0.00412429 -0.193965 0.0354091 -0.0943396 0.992303 -0.0802155
0.007097 -0.20897 0.0269839 -0.603783 0.400418 -0.689283
-0.0759314 -0.227061 0.544134 -0.0811643 0.38255 -0.920363
-0.0147911 -0.101439 0.422261 -0.995019 -0.0310322 -0.0947315
0.0113893 -0.228454 0.32788 0.889663 -0.200605 -0.410192
0.00216773 0.270096 0.333201 0.984608 0.0354308 -0.171147
-0.0408937 0.0443464 0.203641 -1 0 0
-0.00941745 0.145677 0.220902 0 -0.976837 0.213984
-0.0368377 0.0968885 0.116259 0.999705 0.0240116 0.00350725
-0.0349281 -0.211357 0.370492 0.12423 -0.0532325 -0.990824
0.0176325 -0.0290558 0.344223 -0.589169 0.358966 -0.723895
0.0100183 -0.147212 0.189235 0.447665 -0.893754 -0.0282734
-0.0652877 0.0577505 0.141284 -0.998115 0.0480919 -0.0381143
-0.00621694 -0.15867 0.50735 -0.923865 -0.359362 0.131648
0.0134655 0.40475 0.0392361 0.556637 -0.463599 -0.68937
0.00265801 0.13122 0.110324 0.145318 -0.903668 -0.402824
-0.0093185 0.209977 0.199446 -0.955527 -0.126267 0.266506
0.0229918 -0.000431046 0.330397 -0.858029 -0.206441 -0.470286
-0.00949787 -0.19107 0.300942 -0.924629 -0.258845 -0.279394
0.000239242 -0.30272 0.189787 0.00132461 -0.553582 0.832794
0.0108201 -0.241933 0.0382679 0.996154 -0.0335326 0.0809444
0.00443174 0.101108 0.529531 -0.166967 -0.162816 -0.972426
0.0239552 0.0868352 0.30213 -0.872365 0.255975 0.41648
-0.00926694 -0.437829 0.258244 -0.99624 0.0756042 -0.0423146
0.00299992 0.481684 0.197791 0.0942981 0.695736 -0.712081
0.032525 0.186156 0.24452 -0.813701 -0.192763 -0.548391
0.00116016 0.15425 0.202821 0.984587 0.174894 -0.00077199
-0.024524 -0.221353 0.379357 0.681002 -0.430332 -0.592495
0.095689 -0.225268 0.553689 0.0416687 0.92249 0.383765
0.0273794 -0.231092 0.34324 -0.9085 -0.385835 0.160498
0.00793321 -0.332018 0.0371311 0.448242 0.191345 0.873193
-0.00423501 0.460001 0.27154 -0.893493 0.396159 0.21149
0.0103611 -0.174278 0.316846 0.225976 0.969289 -0.097022
0.00953672 0.442356 0.073608 0.224511 0.943987 0.241832
-0.00122626 0.221185 0.550135 -0.028339 0.0374354 0.998897
0.0143467 -0.430039 0.0643686 0.886338 -0.339638 -0.314724
-0.0437286 -0.248085 0.317779 -0.92316 -0.367957 0.111278
0.0115302 0.201994 0.0331381 0.0662755 -0.531919 -0.844198
0.0174172 -0.306771 0.217028 -0.956314 0.291057 0.027392
0.0154412 -0.0928046 0.447466 0.993756 0.034062 0.106245
0.0104099 -0.28997 0.0321262 0.996165 -0.00823043 0.0871091
0.0138353 -0.443553 0.079341 0.886237 -0.372864 -0.274874
-0.0222138 -0.280526 0.164157 -0.104249 -0.792714 -0.600613
0.0143965 -0.326229 0.245386 0.95632 -0.291038 -0.027381
-0.0215544 -0.2787 0.164753 0.577473 0.58861 0.565741
-0.0054875 0.107616 0.549057 -0.244294 0.0578067 0.967977
0.0166298 -0.141076 0.428407 0.995007 -0.0311507 -0.0948232
