-0.00232882 0.147475 0.284344 -0.0943517 -0.116124 0.988743
-0.0402232 0.115871 0.200561 0 0.244587 -0.969627
-0.00407316 -0.239058 0.357659 -0.893591 0.15325 0.421911
-0.00390249 0.0164429 0.417832 -0.0813613 0.313634 0.946052
-0.0106084 0.305986 0.36225 -0.557622 0.787301 0.263088
-0.00887317 0.241954 0.256047 0.976311 0.1961 -0.0914403
0.0180497 -0.202008 0.379059 -0.194212 -0.0868164 -0.97711
0.0165522 -0.0591807 0.425945 0.994076 0.0336973 0.103331
0.00605281 -0.164822 0.502569 -0.509046 0.780863 -0.362112
0.0474856 0.058699 0.149522 0 0.483765 -0.875198
0.000373379 0.137559 0.445574 -0.389392 -0.880691 0.269735
-0.0285827 0.0625917 0.1403 0.998767 0.0225417 -0.044239
0.0125194 0.0604849 0.343304 0.666932 -0.252434 -0.701056
0.0365333 -0.245419 0.289648 -0.349178 0.850886 -0.392515
-0.000295943 -0.00663268 0.42588 -0.105181 0.314722 0.943338
0.00364097 -0.305115 0.186654 0.00246318 -0.937336 0.348417
-0.0108975 -0.146741 0.519704 0 0.600706 0.79947
-0.00940993 0.156383 0.487072 -0.987694 -0.148966 0.0476327
-0.00473669 -0.412709 0.1426 -0.397949 0.208916 -0.893303
-0.00854053 -0.142037 0.0956326 -0.224293 0.898939 0.376299
-0.00918381 -0.122929 0.225195 -0.226152 0.756283 -0.613915
-0.009131 0.287286 0.267204 0.254293 -0.921824 -0.292533
0.0154341 0.0475695 0.402033 0.994151 0.0333531 0.102716
0.0101691 0.354241 0.325963 0.431059 -0.3453 -0.833641
-0.0148311 0.302873 0.120111 0.399144 -0.9136 0.0775835
0.00777292 0.329097 0.28726 -0.398756 0.846104 -0.353698
0.01386 0.138832 0.242932 0.99599 -0.0840873 0.0305413
0.00622699 0.402318 0.0742493 0.431455 -0.617347 0.657822
0.0141849 -0.309953 0.00724439 0.886346 -0.0264448 -0.462268
-0.0423115 0.233885 0.177172 0.215913 -0.0403633 0.975578
0.182936 -0.237943 0.544013 0.333944 0.0525946 -0.941125
-0.0125587 0.124221 0.166826 -0.860363 0.507394 0.0482329
-0.0123927 -0.468772 0.165627 -0.998255 -0.0585353 -0.00776753
-0.0123794 0.457936 0.121216 -0.998253 0.0547852 -0.022127
0.011286 0.102133 0.289312 0 0.923574 -0.383421
-0.0150468 -0.0563824 0.415345 -0.994089 0.0349014 0.102804
0.00950612 0.474955 0.22919 0.224382 0.385661 0.89494
-0.0412952 0.266371 0.145202 0 -0.0610196 -0.998137
-0.0366165 0.0805014 0.131058 -0.999759 0.0154987 -0.0155436
0.00582106 0.0248464 0.354404 -0.0664112 -0.310762 -0.948165
-0.0808957 -0.227811 0.55702 0.0297761 0.381338 0.923956
-0.017272 0.295527 0.2329 0.976306 0.104951 -0.189239
-0.0484552 0.278832 0.178644 -0.999991 -0.000597069 0.00424614
0.0164896 0.00306992 0.37827 0.995295 -0.0312166 -0.0917291
0.0171464 0.0621405 0.380584 0.994151 0.0344322 0.102364
0.0112173 0.435863 0.260722 0.995776 -0.0801192 -0.0448499
-0.00968809 0.155606 0.243369 -0.99586 0.0839841 -0.0347858
0.0125688 0.236068 0.132982 -0.794703 -0.221955 0.564964
-0.0121091 0.458338 0.234184 -0.967014 -0.242371 -0.078358
0.0159102 -0.124049 0.415235 0.995063 -0.0311218 -0.0942432
0.0049639 0.447783 0.205331 0.274346 -0.950033 -0.148903
0.0489752 0.313668 0.186005 -0.0272362 0.899241 0.436606
0.00879975 -0.334751 0.339089 0 -0.213982 0.976838
0.0109841 0.183184 0.0830564 0.995783 0.0706872 0.0584846
0.0489434 0.246515 0.177737 0.214754 -0.0770864 0.973621
0.0113226 0.39832 0.306934 0.995777 -0.0585278 -0.0707328
0.0459769 0.216686 0.164187 0.197683 0.0240883 -0.97997
-0.00500522 0.16684 0.113278 -0.430949 0.787395 0.440786
-0.00793222 0.246068 0.103094 0.97636 0.0267534 0.214489
-0.040433 0.0771931 0.205846 1 0 0
-0.159543 -0.235516 0.54598 -0.0303748 0.492311 -0.869889
0.010503 -0.434176 0.259412 0.996161 0.0763871 -0.0427583
0.0320596 0.0264006 0.32682 0.85803 0.20644 0.470285
0.00160404 0.369121 0.0562386 -0.0103232 -0.860393 -0.509527
0.011544 -0.0603831 0.383366 0.668853 -0.235757 -0.705021
-0.0129548 -0.0639334 0.390563 -0.995074 -0.0307627 -0.0942443
-0.035124 0.101272 0.288976 -0.869141 -0.294827 -0.397078
-0.0655684 0.0589364 0.156223 -0.00616784 0.886509 -0.46267
-0.00197187 -0.210885 0.382777 0.04531 -0.193543 -0.980045
-0.0882341 0.0666529 0.0723661 0 -1 0
-0.00974438 -0.177089 0.458407 -0.864433 -0.475073 0.164501
-0.00915212 -0.446784 0.135838 -0.996236 0.081884 0.0284235
-0.00951911 0.287511 0.0304678 -0.995868 0.00853558 0.0904114
0.0111106 0.222822 0.225303 0.698325 0.152527 0.699341
-0.0142062 0.128534 0.522156 -0.975085 0.0352952 -0.219007
-0.0396697 0.221456 0.53738 -0.918266 0.246217 0.310105
-0.012265 0.352718 0.0200868 -0.998253 0.0181809 -0.056218
-0.00366015 -0.383174 0.26557 0.95552 -0.0545118 -0.289843
0.00802683 0.194034 0.167194 0.698662 -0.287618 0.655093
-0.0094349 0.441843 0.296248 -0.978241 0.162384 0.129137
0.0125927 0.230268 0.019929 0.557876 -0.82917 0.0353769
-0.0367997 0.0316681 0.137826 0.999763 0.0154018 0.0154081
-0.0123779 -0.30202 0.0171532 -0.967072 0.00487208 0.254458
0.00565798 -0.212262 0.527421 0.382799 -0.463208 -0.799314
-0.00768185 -0.477173 0.22599 -0.350273 -0.90957 0.223589
-0.00627372 0.0543173 0.160705 -0.289531 -0.859003 -0.422239
0.00701093 0.143025 0.387645 0.184 0.14454 -0.972241
0.013397 0.172281 0.310498 0.88631 -0.327455 0.327455
0.0261284 0.0346096 0.158204 0 -0.987691 0.156418
0.0472189 0.0583708 0.162182 0 0.706996 0.707217
-0.00638616 -0.295295 0.0800017 0.976336 -0.104662 0.189246
-0.0175069 0.332328 0.171401 -0.956562 0.149621 0.250204
0.018676 0.32962 0.204555 0.956453 -0.115565 0.268035
0.000705952 -0.403607 0.0350818 0.727578 -0.386566 -0.566743
-0.000188499 -0.433162 0.222319 -0.140796 -0.304783 -0.941957
0.00320991 0.172303 0.498154 0.387523 0.881532 -0.269681
0.0137727 -0.206973 0.0396389 0.995993 0.0476721 -0.075663
0.00957537 -0.145602 0.502069 -0.916177 -0.376696 0.136822
-0.00186846 -0.192137 0.403345 -0.0721254 0.20722 0.975632
-0.0121143 -0.185504 0.317186 -0.99735 0.0473907 0.0551962
-0.0418435 0.0468487 0.165623 0.996193 -0.0545093 0.0680262
0.0032894 0.014044 0.204006 0.330639 -0.761237 -0.557849
-0.0306313 -0.301227 0.179818 -0.00357757 -0.309328 -0.950949
-0.00222125 0.241624 0.358169 -0.0934245 -0.929642 0.356423
-0.0379818 -0.279503 0.230632 0.904872 -0.418429 0.0782509
-0.00834379 -0.0994249 0.395665 -0.66692 -0.233147 -0.707715
-0.00440599 -0.139943 0.501415 -0.999904 -0.00769715 -0.0115077
0.0069653 -0.410213 0.166715 0.255496 -0.295211 0.920637
-0.00268632 -0.220358 0.54942 0 -0.382728 0.923861
0.0137762 -0.452198 0.105309 0.995991 -0.0789032 -0.0421333
0.00172557 -0.172188 0.491922 0.014598 0.308116 0.951237
0.0159986 -0.039524 0.424861 0.994076 0.0336973 0.103331
-0.0120771 -0.470531 0.146995 -0.997347 -0.0712718 -0.0148205
-0.0373441 -0.23647 0.349035 0.349478 -0.865275 0.359395
0.0139446 -0.402194 0.320809 0.995995 -0.0530342 0.071976
0.0169843 -0.0734867 0.409878 0.995063 -0.0311218 -0.0942432
-0.0364462 0.247944 0.217433 0.831707 0.31159 0.459539
0.0035302 0.442791 0.226013 0.274033 -0.925546 -0.261286
-0.0372661 0.266522 0.201074 0 0.976173 0.216995
-0.0124756 0.153444 0.101158 -0.967024 0.220242 0.127895
0.0493089 0.283763 0.200857 0.999776 0.0211077 0.0015096
-0.00633862 0.123787 0.230675 -0.226091 -0.777816 -0.586417
0.0438744 0.183937 0.250798 0.812906 0.182317 0.553122
2.34618e-06 -0.354373 0.359484 0.727562 -0.211127 0.652748
-0.0376346 0.0739614 0.159797 0 -0.0344478 0.999406
-0.0239638 -0.318987 0.175081 -0.102824 -0.326036 0.939749
-0.0187522 0.292296 0.180539 0 -0.939795 -0.34174
-0.00488599 0.369564 0.0934079 0.794043 -0.56626 -0.221011
-0.0117662 -0.379934 0.329242 -0.967005 0.119978 -0.224736
-0.00269508 -0.324213 0.0028565 -0.145502 -0.130107 -0.980766
0.0136918 -0.144815 0.0954127 0.886148 0.400756 -0.23267
0.0139691 0.195853 0.318858 0.995995 -0.0530412 0.0719711
-0.056411 -0.29994 0.187598 -0.991987 -0.0390355 0.12016
-0.00958099 0.177072 0.546904 -0.183319 -0.149262 0.971656
0.0116874 -0.121985 0.212482 0.0663633 0.983638 0.167486
-0.027927 0.00649755 0.329047 -0.873716 -0.226568 -0.43045
-0.0107748 -0.338068 0.010574 -0.556553 -0.822818 -0.114974
-0.0122864 -0.236716 0.344923 -0.998253 0.0221234 0.0547906
0.0136638 0.155694 0.28103 0.997359 -0.0600043 0.0409136
0.0140495 0.425806 0.296723 0.995996 0.067822 0.0582405
-0.00558655 0.450225 0.179253 -0.431221 -0.901793 0.0286011
-0.040433 0.0126631 0.182997 1 0 0
-0.020926 0.0996716 0.169008 0.0133159 0.382567 0.923832
-0.00796257 0.112183 0.320302 -0.869236 0.23743 -0.433655
0.0176969 -0.276989 0.164275 -0.956262 -0.219431 -0.193424
0.013574 -0.379889 0.179307 -0.103343 0.022584 -0.994389
0.00679069 -0.192958 0.133194 0.956571 0.219061 0.192311
-0.0038458 -0.44902 0.197552 -0.448184 0.889983 -0.084032
-0.0125044 0.363624 0.3396 -0.998253 0.02213 0.0547911
-0.00612091 -0.225544 0.112607 0.254422 0.573785 0.778486
-0.00513081 0.190081 0.145067 -0.102236 -0.325944 0.939845
-0.135994 -0.234976 0.56176 0.0297801 0.382541 0.923458
0.0111775 -0.295925 0.364798 0.978288 0.00394628 0.207211
-0.00738956 0.196247 0.50281 -0.0418442 -0.0503675 -0.997854
-0.00815431 0.296795 0.335979 -0.431368 0.0285365 -0.901725
-0.0124856 -0.456988 0.245198 -0.998253 -0.0547839 0.0221302
-0.00342241 0.224135 0.279265 0.577483 -0.588601 -0.565741
0.0135119 -0.35006 0.0169747 0.558639 0.659287 -0.503253
0.0602289 0.0446611 0.153245 0.890429 -0.372101 -0.262063
0.00962728 0.192266 0.0367311 0.350756 -0.555553 -0.753877
0.0117998 0.190383 0.302098 0.9258 0.256951 -0.277254
0.0097408 0.245814 0.0418818 0.431094 0.295861 0.852423
-0.00775467 -0.304749 0.290892 -0.397694 -0.914256 0.0773031
-0.126816 -0.227303 0.552036 -0.0847045 0.920524 -0.381393
0.0114329 0.102946 0.164604 0.0321432 0.923366 0.382573
0.0104623 -0.154522 0.234885 0.996158 -0.0827309 -0.0287078
0.00566406 -0.142928 0.207533 0 0.98795 0.154775
-0.107562 -0.239387 0.547623 0.0273272 -0.634544 -0.772404
-0.00969293 0.359764 0.10989 -0.399597 0.784608 0.474039
0.0019427 -0.353366 0.046079 0.286579 0.366652 0.885121
0.0105 0.457782 0.179433 0 0.999498 -0.0316886
-0.0316908 -0.228158 0.538372 0.0484404 -0.914046 -0.402708
0.0052976 -0.158843 0.520547 0.382651 -0.867503 0.317832
0.0163847 -0.100638 0.412514 0.995063 -0.0311218 -0.0942432
0.0400339 0.219465 0.544471 0.454128 0.00917666 0.890889
-0.00581942 -0.442631 0.297738 0.603739 -0.623816 0.49634
-0.00926928 0.124715 0.351059 -0.923863 0.36391 -0.118521
-0.0121747 0.240666 0.027965 -0.966998 0.0869721 0.239482
0.0584576 0.0594322 0.245821 0.997199 0.015227 0.0732251
-0.0151448 -0.0974293 0.428006 -0.99409 0.0338782 0.103138
-0.00896205 -0.449419 0.215883 -0.996241 0.0846211 -0.018528
0.00143043 0.439649 0.134322 0.274252 -0.908512 0.315265
0.0109204 0.322358 0.363707 0.978283 0.0272997 0.205468
-0.0369864 0.28088 0.188817 0 -0.890293 0.455389
-0.143379 -0.234722 0.543405 0.0420913 0.732444 -0.679524
-0.0263463 0.173631 0.534251 -0.787646 -0.367779 0.494321
0.0109915 0.240553 0.547225 0.0364113 0.216351 0.975637
-0.0120899 0.255496 0.0120148 -0.55673 -0.826328 -0.0850518
0.0472658 -0.237601 0.323073 0.66204 -0.0161961 -0.749293
-0.160164 -0.229917 0.560194 -0.0293537 0.648436 0.760703
0.0135624 0.150898 0.0918794 0.997357 -0.0614736 -0.0387288
0.0424339 0.193959 0.537506 0.806737 -0.349403 0.476542
0.00809522 -0.18182 0.324367 0.224685 -0.206232 0.952357
-0.0119838 0.0354646 0.152149 0 -0.891037 -0.453932
0.0274911 0.150648 0.536952 0.835482 -0.112018 0.53798
0.00124373 -0.41217 0.282049 0.286734 0.73812 -0.610707
-0.0407978 0.0233607 0.147997 -0.000106271 -0.948272 -0.317459
0.000929502 -0.382527 0.0615745 0.286554 0.516799 0.806725
-0.0124598 -0.300614 0.352888 -0.967069 0.00488952 -0.254466
-0.0125824 0.051061 0.401675 -0.671637 0.233673 0.703065
0.0433287 0.204786 0.244744 -0.012783 0.445044 0.895418
0.186597 -0.23312 0.557718 0.0776734 0.962824 0.258721
-0.00640562 0.067413 0.177517 -0.923884 0.364446 -0.116695
0.00403023 0.423541 0.0484237 0.145562 0.672442 -0.725695
-0.00620739 -0.192491 0.153483 -0.102795 -0.288605 -0.951914
-0.012082 0.473741 0.204151 -0.860265 -0.505421 -0.0670393
0.00683859 -0.141252 0.181985 0 0.999498 -0.0316919
0.00492433 -0.257133 0.0712944 -0.577425 0.733654 0.358234
-0.0423768 0.218945 0.176712 -0.214834 -0.0752031 0.973751
0.0109958 0.317695 0.0309027 0.995783 -0.00862116 0.0913357
-0.0317028 0.220479 0.513555 -0.811057 0.294939 -0.505171
0.0246908 -0.300864 0.183488 1 0 0
-0.0366826 0.0880103 0.161914 0.999763 -0.0215194 -0.00340847
0.00636405 0.426255 0.314158 0.893652 0.317356 0.317288
-0.0152277 -0.128216 0.437319 -0.99409 0.0338782 0.103138
0.0191859 -0.27935 0.192946 -0.698056 -0.618164 0.361374
-0.00742174 -0.468371 0.115926 -0.350029 -0.868608 -0.350713
-0.0175675 -0.282351 0.19874 0.955627 -0.292134 -0.0378748
-0.0444225 -0.220956 0.359375 -0.908477 0.386171 -0.159815
-0.0760275 0.047498 0.063475 -1 0 0
0.0125608 -0.125257 0.22807 0.0662791 0.968923 0.238317
0.0420426 0.151174 0.161839 0.904645 -0.0766296 -0.41922
0.00753169 -0.197623 0.392173 -0.891153 0.429522 -0.14614
-0.0129508 0.266262 0.357612 -0.860227 0.103865 -0.49922
0.00539668 0.23158 0.317545 0.431035 0.393581 -0.811975
0.00673566 0.163034 0.47703 -0.707176 -0.673451 0.215326
-0.0426607 -0.249475 0.283121 -0.349136 0.877971 -0.327523
0.0109741 -0.161023 0.301123 0.224738 0.952332 -0.206292
0.0106762 0.212858 0.501775 0.553251 -0.788456 -0.268796
-0.100378 0.0380404 0.0617229 0 -1 0
0.0135529 0.309723 0.349802 0.97427 -0.0128184 -0.225018
-0.0484499 0.275956 0.166556 -0.999984 -0.00491145 -0.00287922
0.00972019 -0.150223 0.155497 0.448243 -0.873197 0.191324
-0.0122548 0.140814 0.236177 -0.967004 0.242396 -0.0784077
0.0130666 0.127046 0.137992 0.558697 -0.479019 0.677051
-0.0115314 -0.37289 0.156711 0.976297 0.147518 0.158372
-0.065386 0.0478863 0.145058 -0.998673 -0.0489025 0.0161623
0.0117757 0.471939 0.133647 0.0661133 0.959781 -0.272854
-0.0408937 0.00683403 0.153879 -1 0 0
0.0173093 0.0464503 0.384247 0.994151 0.0333531 0.102716
-0.0149541 0.010156 0.387551 -0.995113 -0.0305562 -0.0938943
-0.00842604 0.219366 0.347381 -0.350491 -0.411377 0.841383
-0.00707494 0.187156 0.295579 0 -0.729083 0.684425
0.0529109 0.0478608 0.196658 4.33066e-06 -0.998466 0.055376
-0.0123029 -0.222365 0.53199 -0.00582903 -0.360245 -0.93284
0.00144534 0.258592 0.36244 -0.727601 -0.16394 0.666123
-0.0410687 0.132549 0.120647 -1 0 0
0.0106557 -0.381159 0.0490587 0.717637 0.349792 0.602199
-0.0358829 -0.226182 0.327958 -0.288433 0.896089 0.337388
0.0687339 0.0541178 0.24858 0 0 -1
0.00743661 -0.0366958 0.311119 0.913373 -0.406066 -0.0293343
0.0144243 0.323099 0.0081672 0.8863 0.0609666 -0.459081
-0.0123292 -0.214014 0.33324 -0.998254 0.0296746 0.0510795
0.0317204 0.172547 0.521163 0.580919 -0.43134 -0.690274
0.0178462 -0.363786 0.180522 0.976339 -0.188951 -0.105161
-0.0489967 0.225807 0.226875 -0.869141 -0.294827 -0.397078
0.0172294 -0.148242 0.437053 0.995007 -0.0311507 -0.0948232
0.00871116 -0.317575 0.335539 0.448413 0.0841009 -0.889861
-0.00868345 0.134848 0.260034 -0.225427 -0.220732 0.948926
-0.0115178 -0.286526 0.0209289 -0.967061 -0.0240683 0.253403
0.00247184 -0.260304 0.0064611 0.0934408 0.885839 -0.454487
-0.0126864 0.110811 0.335989 -0.945636 0.309235 -0.100731
0.00994893 -0.0278037 0.351944 -0.153661 0.986618 0.0545311
0.011065 -0.473332 0.136619 0.978242 -0.199562 -0.056724
-0.00310212 -0.191004 0.036789 -0.145314 0.587072 -0.796386
0.0146192 0.0804177 0.392891 0.673485 0.223831 0.704498
0.010394 -0.172969 0.0993714 0.996163 -0.0736976 0.0472101
0.00604672 -0.040738 0.343859 0.377168 -0.925279 -0.0400308
-0.0378482 0.0705728 0.136355 0 -0.494613 0.869113
-0.00905725 0.394521 0.218843 -0.896923 0.290881 -0.333044
-0.0382307 -0.258747 0.260626 0.349213 0.852192 -0.389638
-0.0117368 0.12767 0.384564 -0.923881 -0.363863 0.118521
0.0032194 0.0686905 0.230676 0.382715 -0.877898 0.287792
-0.0229601 0.037891 0.325945 0.0171076 0.412862 0.910633
0.0107091 -0.31491 0.106327 -0.701035 -0.701009 0.130904
-0.0488854 0.262565 0.178802 -0.252969 -0.116074 0.960486
0.0153663 0.0755373 0.342554 0.995293 -0.0286036 -0.0925948
0.0115079 0.357226 0.354106 0.0663077 0.307152 0.949348
-0.00170345 -0.296679 0.0355134 -0.278924 -0.030436 0.959831
-0.0120096 0.123918 0.150267 -0.559127 -0.428177 0.709959
0.0175244 -0.0377225 0.409595 0.994076 0.0336973 0.103331
0.000259175 0.440751 0.167473 0.711573 -0.0989765 0.695606
-0.0512487 -0.274716 0.227888 -0.904928 0.41811 -0.0793072
-0.0248704 0.320127 0.181752 -0.976318 0.212375 0.0412224
-0.0157847 -0.26525 0.193122 0.70112 0.304266 -0.644866
0.00402645 0.483218 0.188922 0.145246 0.989211 0.0191305
-0.00690052 -0.398531 0.213013 0.794314 0.328141 0.511263
-0.0106855 0.346172 0.254295 0.794424 0.384702 -0.469994
0.0183412 0.0538497 0.175893 0 0.156528 0.987673
0.0110601 0.211568 0.0565824 0.99578 0.0540638 0.074156
-0.053722 -0.288119 0.21145 -0.905218 -0.351271 0.23914
0.038879 0.254759 0.21404 -0.872044 0.357662 0.334091
-0.00216268 0.143334 0.400119 -0.0616265 0.450546 0.890623
-0.0242625 0.282974 0.19791 -0.397853 -0.785047 -0.474779
0.0358732 0.209532 0.17129 -0.909627 0.0634006 0.41056
-0.0339136 0.198614 0.518305 -0.899186 -0.436728 0.0270801
0.0371632 -0.280455 0.235034 -0.904576 -0.419677 0.0749187
-0.0123117 0.128699 0.200939 -0.998256 -0.0587727 0.00558409
0.019039 0.285678 0.12746 0.976334 0.0416789 -0.212215
-0.0291243 0.0467755 0.17744 0 -0.156513 0.987676
-0.00415927 0.0141272 0.357978 0.0644058 -0.315815 -0.946632
0.0167515 0.0183127 0.375924 0.995295 -0.0312166 -0.0917291
0.0217148 0.24586 0.535328 0.148836 0.886697 -0.437741
-0.0321803 0.301719 0.179076 0 0.309073 -0.951038
-0.0123615 0.170389 0.0771251 -0.967054 0.199218 0.158489
0.00219556 0.161493 0.128299 0.274242 0.888478 0.367966
-0.00269533 0.17437 0.0495416 -0.145432 -0.672503 -0.725664
0.0109693 0.417701 0.0854797 0.995781 -0.070693 0.0585
0.00596763 0.145222 0.149191 0 -0.976842 -0.213962
0.0160935 -0.00681539 0.41331 0.994151 0.0333531 0.102716
0.0899969 0.0426426 0.244893 0 1 0
0.000428172 0.451042 0.286058 0.7274 0.566954 0.38659
0.0337473 0.0662361 0.163173 1 0 0
0.0265517 0.107806 0.158161 -0.346652 0.120011 -0.930285
-0.00796518 0.110988 0.524913 0.267451 -0.179471 -0.94671
-0.0102913 0.153418 0.117268 -0.924487 0.348183 0.155219
-0.0111035 -0.336638 0.343328 -0.967024 0.0608615 -0.247305
0.0338419 -0.257015 0.266905 -0.349421 0.850786 -0.392516
0.0134524 -0.120518 0.174707 0.886301 0.462356 -0.0263918
0.016735 -0.108869 0.440457 0.994076 0.0338383 0.103285
-0.0313864 -0.199571 0.391097 -0.31432 0.733253 0.602945
0.0110984 -0.223588 0.548083 0 -0.382728 0.923861
-0.00491446 -0.480902 0.175416 0.60381 -0.795832 -0.0454397
-0.0128362 0.125626 0.217367 -0.559085 -0.428396 -0.70986
0.0129526 -0.278683 0.267184 -0.102239 -0.952746 0.286044
0.021446 0.283521 0.192172 0.698598 -0.287627 0.655158
0.00015935 -0.399446 0.0767341 -0.984606 0.117334 0.129554
0.0502901 -0.286547 0.221271 0.90482 -0.349234 0.243591
0.013018 -0.180487 0.440297 0.92388 -0.359716 0.130574
0.0169145 0.104926 0.350101 0.995284 -0.0286647 -0.0926672
-0.0184797 -0.311955 0.196496 0.955482 0.126249 -0.266675
-0.00878236 0.215589 0.0231651 -0.224842 0.407941 -0.88489
0.00298745 -0.184175 0.455996 0.382745 -0.873292 0.301442
0.0138976 0.466768 0.1491 0.995995 0.0875407 -0.0182035
0.00785777 -0.382198 0.0236193 0.225735 -0.956176 -0.186473
0.00893611 -0.278031 0.335123 0.448312 -0.1383 -0.883114
-0.0020785 -0.352938 0.0100236 -0.094125 0.544619 -0.833385
0.0138928 0.14575 0.109678 0.99599 -0.0803628 -0.0393049
-0.0410179 0.036414 0.160188 -0.999762 0.0215238 -0.00340924
-0.0194297 -0.304908 0.162623 -0.956354 0.28495 -0.0647394
0.00554113 0.0605602 0.202788 0.382681 -0.877911 0.287798
0.00771453 0.132891 0.258211 -0.603486 -0.728202 0.324848
-0.00937866 -0.171246 0.277985 -0.924612 -0.306653 -0.225956
0.000712969 0.117302 0.192788 0.727454 -0.685039 0.0391394
0.0145239 0.0909054 0.537861 0.379081 -0.863207 -0.333425
0.0214282 -0.330596 0.155679 0.399142 0.476446 -0.78338
-0.00776355 0.201771 0.0679159 -0.431129 0.575182 0.695193
0.0449194 -0.273551 0.255037 0.349424 -0.85122 0.391571
-0.0360716 0.292123 0.15882 0.0428975 -0.156422 -0.986758
0.00604298 -0.191693 0.300734 0 0.684427 0.729082
0.0434487 0.272072 0.179518 -0.96759 -0.00982275 0.252336
-0.0119917 -0.435753 0.0702782 -0.556982 -0.721403 0.41152
0.0102975 -0.339415 0.361188 0.226216 0.614105 0.756109
-0.0207266 -0.018081 0.338418 -0.0170268 -0.411989 -0.91103
0.00897284 0.110285 0.527992 -0.199244 0.132884 -0.970898
-0.0122683 -0.157171 0.0877203 -0.998255 0.0487922 -0.0332681
0.0140184 0.224195 0.180337 -0.399555 0.0750886 0.913629
-0.00630488 0.0886419 0.280678 -0.924455 -0.361941 0.119922
0.0137094 0.469817 0.214361 0.995994 0.0881545 0.0150081
-0.013154 -0.0152281 0.376767 -0.995074 -0.0307627 -0.0942443
0.000734601 0.147667 0.547344 -0.0508871 0.0379436 0.997983
-0.0391267 0.103779 0.116127 0 0.395937 -0.918278
-0.00189528 -0.261303 0.0405366 -0.278787 -0.260933 0.924225
-0.00119418 0.0744385 0.189032 -0.382676 0.879097 -0.284161
0.0195331 0.075695 0.156743 0.421025 -0.0856251 -0.902999
-0.0410481 0.197002 0.204393 -1 0 0
0.0449473 0.267521 0.166135 -0.266622 0.0366893 -0.963103
-0.013089 0.454836 0.26906 -0.885987 0.40906 0.218396
-0.0410481 0.293535 0.199149 -1 0 0
-0.044024 0.282779 0.20446 0.991967 0.125512 -0.015758
-0.00808243 0.391359 0.305037 -0.431232 -0.531536 -0.729046
0.0246152 -0.209956 0.398046 0.919947 0.389686 -0.0429325
0.0283783 0.0958195 0.29868 -0.0155386 0.438106 0.898789
-0.00969365 0.398748 0.0637376 -0.995869 -0.0578893 0.0699531
0.00854788 0.400479 0.33512 0.224306 -0.310486 0.923735
0.0051482 0.399289 0.295925 0.274433 -0.658055 -0.701178
-0.0136226 -0.181238 0.427272 -0.821854 -0.555068 -0.128276
0.0111261 0.143948 0.185691 0.995784 0.0916809 -0.00291389
0.0268071 0.12928 0.534874 0.971934 -0.0336572 0.232833
-0.0011048 0.481279 0.164539 -0.0936605 0.549487 -0.830236
-0.0405874 0.236962 0.202748 1 0 0
-0.00859511 0.366486 0.353161 -0.350276 0.350767 0.868487
-0.00375608 0.181341 0.199713 0.254674 -0.00658221 -0.967005
-0.0295616 0.228732 0.544538 -0.329616 0.105369 0.938217
-0.0124298 0.380606 0.0350811 -0.998253 0.0278284 -0.0521227
-0.0489793 0.258159 0.206502 -0.997158 -0.0753385 0.000191915
-0.054736 0.052777 0.11861 0.997978 0.0529467 0.0351608
-0.00297191 0.434658 0.248044 -0.266521 -0.867332 -0.420359
-0.037019 0.213446 0.140832 0 -0.183939 0.982938
-0.0714021 0.0380404 0.0728814 0 1 0
0.0322783 0.173631 0.16887 -0.909627 0.0634006 0.41056
-0.0408207 0.159973 0.124668 0 0.171805 -0.985131
-0.0179274 0.293678 0.158986 0.256562 -0.940876 -0.221199
0.0033576 0.208225 0.519675 -0.214248 -0.0559059 -0.975178
0.000707555 0.390255 0.0688974 -0.141265 0.800222 0.582829
0.00543913 0.200006 0.251675 -0.39889 0.597833 0.695329
-0.0372704 0.0243224 0.197258 -1 0 0
-0.0123305 -0.131138 0.125712 -0.886 0.435835 -0.158281
-0.0233178 0.298186 0.199006 0.794529 -0.552837 0.251188
0.0104316 0.44658 0.125736 0.613757 -0.737153 0.282681
-0.00551729 0.149624 0.168653 -0.431128 0.898294 0.084837
0.00171155 -0.346276 0.313191 -0.976327 0.158515 -0.147168
-0.0321629 0.170457 0.172272 0.906031 0.0620166 0.418643
0.010591 -0.419965 0.0872321 0.996166 0.0674058 0.0557696
-0.00896846 -0.200155 0.308049 0 0.637454 0.770489
0.0046468 0.267039 0.037956 0.274187 0.205799 0.939398
0.00205763 0.0784549 0.336364 -0.0660008 -0.326199 -0.942994
-0.00606064 0.144447 0.418484 -0.925159 0.362014 -0.114132
0.0179703 0.304759 0.182062 0 0.809032 -0.587765
0.000862539 -0.110446 0.398654 -0.000196117 -0.300509 -0.953779
0.0138834 0.45295 0.259369 0.995991 0.0803581 0.0392954
-0.00825579 0.14991 0.210753 -0.431124 0.891407 -0.13973
0.0466749 0.224349 0.530319 0.831048 0.355373 -0.427866
0.0135755 -0.157117 0.4789 0.80504 0.145878 -0.575004
-0.0374248 0.308252 0.192804 -1 0 0
-0.000109304 0.171975 0.26064 -0.266377 0.841026 -0.470869
0.0126362 0.258157 0.341412 0.925705 0.103446 -0.363825
0.142576 -0.241318 0.549143 -0.0408928 -0.919799 -0.390252
0.0108545 -0.205931 0.312101 0.996158 -0.0515934 -0.0707636
-0.000282519 0.285718 0.332267 -0.266589 0.0905103 -0.959551
0.00623908 -0.0398018 0.361047 0.382439 -0.869152 0.313554
0.000775623 0.126856 0.411211 -0.389392 -0.880691 0.269735
0.0161644 -0.0710039 0.433543 0.994076 0.0338383 0.103285
-0.013547 -0.0742105 0.400172 -0.995074 -0.031004 -0.0941656
0.0825098 -0.227802 0.544525 0.0720309 0.402547 -0.912561
-0.00556891 -0.392624 0.136024 0.69875 0.47443 -0.535411
0.0159616 -0.0491937 0.39067 0.995061 -0.0324452 -0.0938119
-0.0431808 0.162075 0.165469 -0.904645 -0.0766296 -0.41922
-0.00953393 0.18649 0.0429506 -0.978247 -0.129161 -0.162328
-0.0360392 0.191375 0.251152 0.0151516 0.44514 0.895333
-0.0050959 0.105885 0.388648 -0.00397522 0.300545 0.953759
0.0150679 -0.150344 0.467631 0.67484 0.225802 0.70257
0.0315181 -0.0211485 0.345855 0.851018 -0.411911 -0.325726
0.0113189 0.192323 0.0684105 0.995777 0.0628297 0.0669397
0.0105416 -0.378262 0.317658 0.99616 0.0427615 -0.0763961
-0.000526253 0.442525 0.0686193 0.727368 0.53701 -0.427267
-0.0131288 0.113963 0.378268 -0.994356 0.0307678 0.101538
-0.00854602 0.318782 0.0268507 0 0.154802 -0.987945
0.0107782 0.204328 0.303177 0.431793 0.575066 -0.694877
-0.011796 0.302785 0.349479 -0.967069 -0.00488597 -0.254469
0.00361379 -0.220884 0.311852 0.28677 -0.516735 -0.806689
-0.00465627 -0.449155 0.169259 -0.448212 0.889969 0.0840305
0.0374033 0.126313 0.167117 0.896048 -0.24484 0.37034
0.00873155 -0.191637 0.188458 0.577542 0.114008 -0.808361
0.00395787 -0.0246 0.257156 0.319608 -0.764568 -0.55972
-0.108092 0.0495064 0.0627951 -0.98821 0 -0.153104
-0.00811162 0.043126 0.348039 0.0644251 -0.315049 -0.946886
0.0128227 0.332193 0.115332 0.701519 0.643703 0.305807
0.0135503 -0.152058 0.279133 0.99736 0.0614386 0.0387095
-0.012097 0.133575 0.129216 -0.997348 -0.069249 -0.0223898
-0.001305 0.0550872 0.188397 -0.380696 -0.878694 0.288041
-0.00371647 -0.230373 0.0518976 -0.447974 -0.389981 0.804509
-0.012323 -0.120913 0.189037 -0.886199 0.463221 0.00884301
-0.0119375 0.203362 0.0487306 -0.967029 0.143494 0.21039
0.00842336 -0.434364 0.308184 0.350803 -0.686989 0.636383
0.0158639 0.124332 0.547453 0.253695 0.0719396 0.964605
-0.00115473 -0.00987454 0.411263 -0.382222 0.855843 -0.34848
0.00816081 -0.251057 0.093186 0.257219 0.824956 0.503275
0.027676 0.136743 0.268935 -0.855087 -0.158202 -0.493759
0.000459011 -0.464295 0.263471 0.727478 -0.616389 0.301398
0.00153731 0.093868 0.320848 0.382698 -0.878452 0.28612
-0.00181925 0.412415 0.0861754 -0.266756 -0.74252 0.614414
-0.11361 0.0632313 0.074078 0 0 1
0.00478496 -0.404861 0.335169 0.145468 -0.55746 0.81736
-0.000296605 0.365674 0.0133069 -0.0938822 -0.484247 -0.86988
-0.0319225 -0.217869 0.360516 0.349477 0.865553 -0.358725
0.00906108 -0.228266 0.351303 0.225092 -0.47014 0.853406
0.00767892 0.117955 0.388839 0.142726 -0.635569 -0.758736
0.00800167 0.152317 0.482186 -0.891083 0.432279 -0.138224
-0.00690293 -0.151947 0.292487 -0.350298 0.754029 0.555636
-0.0440862 0.296227 0.179787 1 0.000123834 -0.000623583
-0.0137499 0.100656 0.160327 0.0133175 0.382567 -0.923832
0.00871912 0.174321 0.269305 0.431171 0.759792 -0.48663
0.0135497 -0.373169 0.343615 0.997356 -0.0295883 0.0663727
-0.0871336 0.0640518 0.0600584 0 -1 0
0.0282414 0.152414 0.262737 -0.813701 -0.192763 -0.548391
0.00343979 0.232418 0.30387 0.25758 -0.824901 -0.503181
0.0140101 -0.119709 0.458802 0.673555 0.226052 0.703722
-0.0352582 0.126982 0.270431 -0.831207 -0.316931 -0.456782
0.00607944 -0.403335 0.254124 0.976317 -0.214801 0.0258069
0.00559022 0.181074 0.163751 0.253861 -0.295108 0.921122
-0.0394541 -0.293002 0.176823 1 0 0
0.0123365 0.440891 0.0742073 0.556776 0.705798 0.438005
0.0275892 0.116933 0.275433 -0.855087 -0.158202 -0.493759
-0.0108466 -0.171304 0.308829 -0.557872 0.749251 -0.356933
0.0137041 -0.400681 0.0444508 0.995996 -0.0530354 -0.0719621
0.012335 0.305635 0.00526464 0.557535 0.787507 -0.262656
-0.00937589 0.144977 0.492405 0.324668 -0.445424 -0.834379
-0.0243057 0.0725757 0.296841 -0.0155794 -0.438075 -0.898804
-0.00551836 0.318359 0.365077 0.603774 0.0753802 0.793583
0.00652914 -0.198033 0.414476 0.165827 0.116739 0.979221
0.0357915 0.225129 0.230638 -0.83173 0.311576 0.459505
-0.00528549 -0.403391 0.200482 0.955626 0.126297 -0.266135
0.0328238 -0.21879 0.531891 0.165814 0.39348 -0.904256
0.00621976 0.036161 0.150782 0 -0.891037 -0.453932
0.0194211 0.318981 0.177251 -0.956378 -0.0639653 -0.285043
-0.0174138 0.31787 0.199287 0.956464 0.192079 -0.219733
-0.0129204 -0.146223 0.417259 -0.995074 -0.031004 -0.0941656
0.00874547 0.117776 0.178241 0.225323 -0.572985 -0.787983
-0.0163842 0.11072 0.163678 0.885747 0.287653 -0.364293
0.00212829 0.254335 0.00601874 0.0934424 -0.901581 -0.422398
-0.00783533 0.430434 0.10727 -0.430948 -0.787418 0.440746
-0.041446 0.0702399 0.124537 -0.999762 -0.00989561 0.0194204
-0.0432663 -0.218451 0.395147 -0.349451 -0.864342 0.361659
0.0194793 0.287431 0.155101 0.956595 0.2505 -0.148916
-0.0295017 -0.231369 0.340358 0.908507 0.386112 -0.159789
0.000212319 -0.167196 0.256648 -0.0208018 0.510873 -0.859404
0.0209932 0.298068 0.206661 0.956471 -0.290573 -0.0270432
0.00523818 -0.182087 0.526733 0.382688 0.463225 0.799358
-0.0147562 -0.20735 0.380906 0.214539 -0.181415 -0.95972
-0.00187674 -0.150302 0.17737 -0.27871 -0.959895 0.0303847
-0.0108678 0.176057 0.289164 -0.92464 0.288948 -0.248092
-0.0148444 0.261177 0.172647 0.956466 -0.0262351 0.290661
0.011399 0.123449 0.507429 0.71277 -0.571571 -0.406528
-0.00925221 0.167836 0.271709 -0.871234 0.405558 -0.27654
0.0140792 -0.467112 0.16397 0.995997 -0.0886076 -0.011735
-0.00858278 -0.214514 0.311258 -0.447903 -0.482273 -0.752859
-0.00411143 -0.207629 0.0661019 -0.448196 -0.526642 0.722335
0.0430234 -0.300137 0.194009 -0.999725 -0.0233555 0.00188153
0.00822612 -0.448406 0.1569 0.448102 0.873262 0.191358
-0.000487518 -0.294857 0.00117787 0.727321 0.0132316 -0.68617
-0.00528246 -0.176088 0.0983957 -0.448227 -0.722306 0.526656
0.00723941 -0.265337 0.363784 -0.603853 0.162282 0.780402
-0.0617869 0.0463259 0.062869 0 -0.614545 -0.788882
-0.0387923 -0.271971 0.25925 0.349264 -0.878291 0.326526
0.0295696 0.00614509 0.340233 -0.0169613 0.413022 0.910563
-0.0282277 0.138381 0.171108 0.343475 0.0679836 0.936698
0.0244362 -0.316729 0.18991 0 -0.9336 0.358317
0.000650353 0.471225 0.122596 0.727559 0.644843 -0.234168
-0.038966 0.221251 0.236346 0.012783 0.445046 0.895417
-0.0129883 -0.236978 0.171372 -0.700885 0.132861 0.700791
-0.00787348 -0.327944 0.364936 -0.350716 -0.157059 0.923218
0.0053507 0.334291 0.0382211 0.431196 -0.193083 0.881356
0.0138314 0.394672 0.0411997 0.995995 0.0503743 -0.0738688
-0.0410618 0.186968 0.132104 -1 0 0
-9.17764e-05 0.272452 0.330702 -0.021786 0.975168 0.220391
-0.00641093 -0.120427 0.158468 -0.226331 0.709572 0.667294
0.031545 0.162369 0.254024 -0.855087 -0.158202 -0.493759
0.0575861 0.303715 0.187388 0 0.809032 0.587765
-0.0371283 0.227594 0.166748 0.923545 0.10701 -0.368258
0.0289081 0.199842 0.547508 0.218859 -0.0691379 0.973304
0.0117783 -0.166237 0.274564 0.925759 -0.312404 -0.213011
0.0151811 0.33912 0.21442 -0.701026 0.490191 -0.517953
0.0024806 -0.238877 0.538642 -0.127583 -0.978742 -0.160582
-0.0119829 -0.455899 0.128969 -0.96701 0.239423 0.0869948
-0.0139527 -0.0817939 0.43436 -0.99409 0.0338782 0.103138
-0.0070345 0.265672 0.00534467 -0.22635 0.640985 -0.733419
0.00645876 0.223796 0.105423 -0.699332 0.617272 -0.360431
0.0132911 -0.230978 0.334727 0.974206 -0.0919014 -0.206098
-0.0628144 -0.220892 0.545908 -0.322396 0.888902 -0.325446
-0.0133281 0.160158 0.519847 0.687519 0.102355 -0.718917
0.034827 -0.239786 0.301405 -0.334505 0.715859 -0.612905
0.0172751 -0.0274833 0.39719 0.995295 -0.0312166 -0.0917291
-0.0121441 0.228599 0.0331843 -0.967003 0.111923 0.228864
-0.0271221 0.0872982 0.289713 -0.0155842 -0.4381 -0.898791
0.00963576 -0.382806 0.226889 0.256595 -0.371561 -0.892245
0.00596473 -0.278747 0.366057 0.893629 0.0591185 0.444896
0.0108502 -0.420371 0.286609 0.996162 0.0674371 -0.0558026
0.0128646 0.247412 0.0132943 0.55869 0.659199 -0.503311
0.016444 0.107494 0.548231 0.481785 0.0316337 0.875718
0.00170255 -0.437366 0.133929 0.575935 0.385556 -0.720865
0.0198308 0.0161711 0.329367 -0.874091 0.206339 0.43976
-0.00542537 -0.146516 0.224934 0 0.962407 0.271612
-0.000480141 -0.0414957 0.326979 -0.377171 -0.925334 -0.0387283
0.0331365 0.178005 0.246259 -0.855087 -0.158202 -0.493759
0.00871469 0.202911 0.0292018 0.350563 -0.499288 -0.792349
0.0433014 -0.24979 0.299929 0.90482 -0.349234 0.243591
-0.0160414 0.0474772 0.140433 0 -0.156357 -0.987701
0.00585465 -0.268601 0.29744 -0.577071 -0.804331 0.141563
0.0496646 -0.274926 0.227187 0.90463 0.419369 -0.0759851
-0.0166551 -0.028749 0.344747 0.589167 0.358967 -0.723896
-0.00791644 0.212956 0.515097 -0.539699 -0.449003 0.712125
0.0208471 -0.19116 0.384507 0.776895 0.566973 -0.273817
0.0319524 0.0646142 0.310241 0.85803 0.20644 0.470285
-0.0252794 0.0440498 0.310406 -0.0170268 -0.411989 -0.91103
0.045188 -0.259495 0.261 0.349135 0.878014 -0.327409
0.0376449 0.241408 0.217502 -0.813701 -0.192763 -0.548391
-0.0151293 -0.0261562 0.401226 -0.995113 -0.0305562 -0.0938943
0.00648942 0.191082 0.32969 -0.603417 -0.473089 0.64193
0.0350971 -0.226144 0.545207 -0.178024 -0.392642 0.902297
0.0608455 0.0549592 0.257538 0 0 1
0.0435077 -0.216728 0.37246 0.236094 -0.272658 -0.932694
0.00996198 0.0643081 0.175517 0.923299 0.365909 -0.116747
-0.00700501 0.136121 0.375927 -0.382707 0.87844 -0.286144
0.0247864 0.108929 0.289109 -0.870221 0.283927 0.402618
-0.0123293 0.424687 0.301143 -0.998256 0.0433001 0.0401186
0.0607718 0.0403909 0.244736 -1 0 0
-0.00898749 -0.148416 0.211136 -0.996243 -0.08556 -0.0134041
-0.00421938 0.343276 0.361536 -0.893552 0.107286 0.435952
-0.00891451 -0.416135 0.0864259 -0.996244 0.06671 0.0552042
0.0941958 0.0662907 0.255511 0 -1 0
-0.0147946 -0.160824 0.453365 -0.993815 -0.10481 0.0366829
0.0135068 -0.465394 0.189925 0.974265 0.225367 -0.00428623
0.00435942 -0.0279468 0.322236 0.366884 0.930257 0.00418609
-0.0118909 0.291314 0.0183524 -0.967059 0.0145373 0.254135
0.0284026 -0.219246 0.364914 -0.908498 0.38613 -0.159795
0.0109081 0.188332 0.289383 0.995783 0.0668952 -0.0627839
0.0458919 0.302927 0.179541 0 0.809032 -0.587765
-0.107807 -0.240621 0.561351 0.98816 -0.0729506 0.134976
-0.0368234 0.0134335 0.131836 1 0 0
-0.00401355 0.383304 0.02221 -0.0936005 -0.388758 -0.916573
-0.00510078 -0.187359 0.327801 0.603819 0.496315 0.623759
-0.00101919 0.326681 0.330628 -0.266656 -0.206221 -0.941471
-0.0123184 -0.182417 0.0651127 -0.967073 -0.179934 0.179983
0.190631 -0.24547 0.556523 -0.483346 -0.735669 0.474519
0.038625 0.235699 0.530063 0.621932 0.633963 -0.459664
-0.0132315 0.259013 0.229759 -0.700637 -0.519535 -0.489072
-0.0369641 0.315042 0.186623 1 0 0
0.0251625 0.127345 0.163631 -0.901567 0.217834 -0.373799
-0.0152186 0.241883 0.525888 -0.0833537 0.89519 -0.437821
0.0442121 -0.232983 0.35561 0.284684 -0.37603 0.881792
0.0162805 0.116954 0.368308 0.991657 0.10266 0.0779579
-0.0121162 -0.421293 0.311227 -0.558457 -0.761624 -0.328717
0.00959731 0.12208 0.22511 0.350469 -0.909454 0.223751
-0.0494827 0.238087 0.223543 -0.812891 0.182327 0.553141
0.0173804 0.00101252 0.398348 0.994076 0.0336973 0.103331
-0.00966107 -0.379035 0.34638 -0.978205 -0.0912127 0.186537
0.0136295 -0.161378 0.0921893 0.974241 -0.186324 0.127039
-0.0136831 0.128766 0.397067 -0.891763 -0.271882 0.361716
-0.0121581 -0.247179 0.3522 -0.860333 -0.156814 -0.485011
0.0137769 0.132839 0.195229 0.97426 0.22506 -0.0128535
0.039861 0.211601 0.228302 0.0127307 -0.444963 -0.895459
0.0137569 0.389316 0.324689 0.97423 -0.120247 -0.190834
-0.0321677 0.0500152 0.150098 -0.999906 -0.00609771 -0.0122519
-0.00825316 0.343842 0.329333 -0.430946 -0.245189 -0.868428
0.042017 0.197264 0.516124 0.899186 -0.436728 0.02708
0.0158575 -0.0269812 0.381883 0.995061 -0.0324452 -0.0938119
0.013595 -0.434144 0.0737401 0.997362 -0.0567987 -0.0451895
-0.00196639 0.150939 0.199145 -0.266784 0.95949 -0.0905848
-0.0374385 0.23708 0.143141 -1 0 0
-0.0115611 0.132561 0.246952 -0.557247 0.00560724 0.830328
-0.0250117 0.194345 0.510455 -0.415077 -0.868786 -0.27004
0.0585612 0.0554866 0.219786 0.993707 0.0620051 0.0932785
0.0370062 -0.202383 0.385354 0.349493 0.864306 -0.361703
-0.0121123 -0.318927 0.0101955 -0.559133 0.739168 -0.375501
-0.00465876 0.322928 0.00346948 -0.893603 0.0590242 -0.444961
0.0219498 -0.336834 0.205906 0.793665 -0.469413 -0.386971
0.10307 0.056695 0.250953 0 0.984806 -0.173655
-0.0136736 -0.157072 0.428747 -0.995019 -0.0310322 -0.0947315
-0.0082305 0.284291 0.279378 -0.700695 -0.707727 -0.0902734
0.0427012 -0.215037 0.400318 0.336722 -0.729668 0.59515
9.96701e-06 0.24603 0.544566 -0.0437755 0.799498 0.599072
-0.00987411 0.337432 0.0083676 -0.0653327 0.203162 -0.976963
-0.0105246 -0.290334 0.345956 -0.924622 -0.0216831 -0.380269
-0.0769279 0.0357201 0.0610518 0.840296 0 -0.542128
0.153119 -0.229855 0.547939 0.113827 0.845523 -0.521665
0.00360497 -0.168848 0.210646 -0.25553 -0.29522 0.920624
-0.0565809 0.0546786 0.0616997 0.0832203 0.486522 -0.869696
-0.00255195 -0.150628 0.198888 -0.278672 -0.956134 -0.0902779
0.0161758 0.0343662 0.399141 0.994151 0.0333531 0.102716
-0.0236997 -0.30105 0.199726 -0.948523 -0.286205 0.135612
-0.0122309 0.388992 0.33204 -0.998254 0.0296732 0.051083
-0.0110525 -0.397109 0.0369086 -0.886077 -0.247076 -0.392201
0.0103815 -0.318159 0.0333185 0.996164 0.0135417 0.0864576
0.050486 0.256891 0.209964 0.888108 -0.180433 -0.422738
0.0111743 0.124509 0.345669 0.923881 0.363869 -0.118508
-0.00620277 -0.446299 0.24377 0 -0.923907 0.382617
-0.0124474 -0.264422 0.349014 -0.967021 -0.0518629 -0.249362
-0.0047074 0.134292 0.428867 0.707075 0.673553 -0.21534
0.00796229 0.136082 0.373722 0.382704 0.878441 -0.286146
-0.036661 0.0414438 0.191457 -0.999762 -0.00992105 0.019408
0.00894949 -0.178267 0.276174 0.448349 -0.722247 -0.526633
0.0313755 0.308959 0.180218 0 0.939753 -0.341855
0.0214424 0.0562173 0.308357 -0.858031 -0.206439 -0.470282
0.035576 -0.260163 0.289633 -0.349262 -0.878337 0.326404
-0.0051182 -0.401846 0.295473 -0.448191 0.611799 -0.651788
5.92137e-05 0.0901804 0.393844 -0.0818364 0.310794 0.946948
-0.00407428 -0.0283454 0.278738 -0.918375 0.395564 -0.0107581
0.0608753 0.0582044 0.168628 0.998983 0.0438003 -0.0106635
0.00726406 0.450166 0.193367 0.431314 -0.898207 -0.0848085
0.00908357 0.286242 0.341733 0 -0.0940228 0.99557
-0.128019 -0.24789 0.550841 0.0425208 -0.971568 -0.232911
0.0039687 -0.181839 0.0925133 0.286872 -0.738052 0.610724
-0.0411928 0.0636146 0.180816 0.999763 0.00993142 0.0193878
0.0137526 0.382184 0.0291202 0.860329 -0.240109 0.449647
-0.0133314 -0.175486 0.444554 -0.864458 -0.472418 0.171856
0.0101003 0.461453 0.102014 0.225894 0.186624 -0.956108
-0.00831088 0.296219 0.00182182 -0.350496 -0.0179976 -0.936391
-0.00926839 -0.351579 0.0372458 -0.996238 0.0284064 0.0818667
0.00852196 -0.16926 0.0585914 0.22548 0.965035 0.133663
0.0122444 -0.137463 0.109338 0.558279 -0.0653037 -0.827079
-0.0407885 0.0753958 0.174458 0 -0.781471 -0.623941
-0.00703296 -0.143732 0.278806 -0.226118 0.117823 0.966948
-0.0063043 -0.251916 0.276681 0.258487 0.890616 -0.374149
-0.00196792 0.0869695 0.544614 -0.567829 -0.760429 0.315147
-0.0580877 0.0456776 0.104801 0.000420603 -0.999951 0.00991585
-0.0193466 0.344409 0.172986 -0.576605 -0.144026 -0.804228
-0.00605193 -0.156719 0.135897 -0.4479 -0.844668 0.293123
0.0231215 0.144909 0.520063 0.936212 -0.244408 -0.252529
-0.00647597 0.0991377 0.31106 -0.923868 -0.363316 0.120289
-0.0271661 -0.229565 0.354296 0.687294 -0.00471732 0.726364
-0.00587346 -0.150793 0.158821 -0.44818 -0.883177 0.138326
0.0178092 0.147347 0.545967 0.40682 0.0443751 0.91243
0.00999383 -0.151899 0.222228 0.447081 -0.860883 -0.242899
-0.0123702 -0.411548 0.0560293 -0.998257 -0.0384526 -0.0447795
-0.0122638 -0.278553 0.356044 -0.998255 0.00776581 0.0585336
-0.0264172 0.147482 0.26677 0.870221 0.283926 0.402619
0.098453 0.0426426 0.257016 0 1 0
-0.00363729 -0.0909063 0.453245 -0.105474 0.304321 0.946712
0.0104585 -0.276879 0.0330656 0.996164 -0.0135421 0.0864505
-0.00875896 -0.4564 0.206011 0 -0.987949 0.154777
0.0101833 0.425337 0.269713 0.43117 -0.759734 -0.48672
-0.00279869 -0.161834 0.513339 0.510241 0.80828 -0.293833
0.166342 -0.240281 0.559579 0.386981 -0.378552 0.8408
0.0121878 -0.144264 0.140001 0.925694 -0.363853 0.103452
0.0134999 -0.277264 0.130136 -0.956437 -0.290675 -0.0271198
-0.0308708 0.18321 0.52814 -0.920164 -0.380385 -0.0927722
-0.0272932 -0.238696 0.31682 0.639396 0.522925 0.563669
-0.0121656 0.241541 0.545807 -0.14409 0.378087 0.914488
0.00331019 -0.170685 0.109505 0.286611 -0.835995 0.467939
0.0134086 -0.17789 0.297042 0.974268 -0.165347 -0.153174
-0.172457 -0.231238 0.560735 -0.0396492 0.91179 0.408738
-0.0132936 0.0648563 0.351666 -0.995112 -0.0323026 -0.0933154
0.000264062 0.240755 0.522024 0.0292349 0.875837 -0.481721
-0.00867964 -0.365087 0.0159616 -0.225461 0.500149 -0.836073
0.0111185 0.150873 0.229174 0.995776 0.0883652 -0.0249483
-0.0072965 0.165986 0.491526 0.890991 -0.432452 0.138279
0.0708651 -0.234457 0.543124 -0.138288 -0.899888 -0.413615
-0.0123278 -0.147609 0.105769 -0.998254 0.0521155 -0.0278174
0.00119887 -0.431671 0.247658 -0.00916081 0.396502 0.917988
0.00748983 -0.161198 0.12437 0.448141 -0.825896 0.342148
0.04702 0.230797 0.230729 0.812906 0.182317 0.553122
-0.0122789 -0.265172 0.0161591 -0.998254 0.012028 -0.0578299
0.0305411 0.184625 0.515978 -0.675917 0.153723 -0.720767
0.0147555 0.352202 0.151598 0.698325 -0.152532 -0.69934
-0.0532329 0.303474 0.18772 0 0.809032 0.587765
-0.0210838 0.0902665 0.168489 -0.401338 -0.161715 0.901541
-0.0448061 -0.266163 0.27265 -0.349397 -0.852546 0.388699
0.010294 0.229593 0.351266 0.225314 -0.940516 0.254291
0.013621 0.25952 0.353409 0.99736 -0.0173509 0.0705142
0.011601 0.285703 0.103311 0.699816 0.702249 -0.130779
0.0283121 0.212473 0.512464 -0.653666 -0.641554 -0.401409
-0.00795271 -0.315005 0.336136 -0.448376 0.0840414 -0.889885
-0.0314079 0.0584614 0.311861 -0.856854 0.182141 0.482313
-0.00298131 -0.0680356 0.385167 -0.000683077 -0.311565 -0.950225
-0.0409074 0.0510358 0.113983 -1 0 0
-0.0110662 0.427901 0.0840252 -0.967048 -0.199222 0.158521
0.0221215 0.291771 0.177308 -0.99949 0.0244573 0.020529
-0.0550702 0.0550424 0.131479 0.998875 0.0474064 0.00136205
-0.0227233 -0.320506 0.186938 0.89665 0.0393282 -0.44099
0.0114696 -0.183684 0.399272 0.25692 0.842228 0.473966
0.0139287 0.207353 0.324042 0.974235 0.120234 -0.190813
-0.0410481 0.171738 0.203493 -1 0 0
0.02341 -0.213743 0.374321 -0.709681 0.0451383 -0.703076
0.0140132 -0.223809 0.533139 0 0.382613 0.923909
-0.00884452 -0.435275 0.26467 -0.870805 0.42508 -0.246992
-0.00129683 -0.422765 0.268979 -0.278675 0.808699 -0.518022
-0.00732649 -0.316358 0.288013 -0.956465 -0.284549 0.064866
0.013891 -0.253487 0.349384 0.995991 0.0244761 0.0860405
-0.00333458 -0.420132 0.200694 0.254681 -0.0065737 -0.967003
0.00898024 0.0751693 0.238893 0.923865 -0.363255 0.120496
-0.0321623 0.0409543 0.165685 -1 0 0
-0.0139247 0.0402204 0.366857 -0.995113 -0.0305562 -0.0938943
0.0230752 -0.292243 0.173415 0.661674 -0.688496 -0.29692
0.00284695 0.233808 0.0136427 0.0939089 0.484304 -0.869845
-0.0393228 -0.242602 0.33499 -0.288357 -0.388741 0.87506
0.0112176 0.163646 0.100608 0.889718 0.386258 0.243323
-0.00710972 0.252355 0.0930526 -0.2553 -0.917515 0.30494
0.0500956 -0.290614 0.187677 -0.00700176 0.809016 0.587745
-0.0121802 -0.304564 0.26925 -0.794291 -0.587673 0.154085
0.0176891 -0.128931 0.435533 0.995007 -0.0311507 -0.0948232
0.0222622 -0.29057 0.190607 -0.0291107 0.838167 0.544637
0.0982552 -0.23738 0.556514 -0.0946885 -0.401542 0.910933
0.0503186 0.272003 0.19969 0.86413 0.454904 -0.21527
0.00954043 0.373916 0.0516598 0.431005 -0.440752 0.787384
-0.0372704 0.087072 0.201675 -1 0 0
-0.00949383 0.178644 0.089002 -0.995869 0.0699544 0.0578885
-0.00644403 0.229747 0.35272 0.60351 -0.298691 0.739297
-0.0248198 0.104424 0.293682 0.870221 0.283926 0.402619
0.00340178 0.131683 0.109553 0.145318 -0.903668 -0.402824
0.0136485 -0.133798 0.200687 0.974259 -0.224421 -0.0213174
0.000948048 -0.427367 0.109099 0.286431 0.836042 0.467965
-0.00451604 0.164408 0.249312 -0.43083 0.812082 -0.393583
-0.0510152 0.240807 0.173205 -0.913231 -0.003085 0.40743
-0.00482394 -0.194568 0.292761 -0.448349 -0.611696 -0.651775
0.0136333 0.231994 0.0320597 0.974206 0.0918824 0.206106
0.011002 0.277707 0.0045646 0.978264 -0.02727 -0.205563
-0.00124608 0.460679 0.0956543 -0.145477 0.87274 -0.466006
0.0118815 -0.321477 0.00649453 0.0664085 -0.13114 -0.989137
-0.0507543 -0.288736 0.194521 -0.999999 0.00120094 -0.000905097
0.0125542 0.368159 0.138758 -0.794235 -0.469033 -0.386262
0.00378498 -0.230325 0.0148277 0.145227 0.370426 -0.917439
0.00773672 0.426348 0.102047 0.431161 -0.759776 0.486663
0.0112875 -0.332239 0.273765 0.577965 0.73324 0.358212
-0.0120199 0.330201 0.23378 0.955471 -0.292675 -0.0376479
-0.0869679 -0.237524 0.545381 -0.0294197 -0.381377 -0.923951
-0.0430624 0.298944 0.17084 -0.999997 -0.00114987 0.00225702
-0.0238411 0.0762791 0.30798 0.0154404 0.438134 0.898777
0.0357872 -0.230262 0.325389 0.349477 0.865549 -0.358736
0.018804 -0.261299 0.2172 -0.794119 0.22253 -0.565558
0.0134018 0.409864 0.307347 0.974264 -0.146843 -0.171019
0.040195 0.143965 0.170917 0.372368 -0.130029 0.918931
0.0211294 0.0482122 0.316914 -0.874083 0.206346 0.439772
0.017506 -0.0739059 0.421581 0.994076 0.0338383 0.103285
-0.0590417 0.0455211 0.0884366 0.000802398 -0.999958 0.0091845
0.0198074 0.311263 0.236241 0.79419 -0.512359 0.326726
0.117044 -0.226605 0.550727 0.0834635 0.90642 -0.414049
-0.00686695 -0.421836 0.0498523 -0.225099 0.170084 -0.959376
-0.00719783 -0.201156 0.338573 -0.35029 0.499303 0.79246
-0.0089204 0.270087 0.0346012 -0.431022 0.1931 0.881438
0.0114894 0.406014 0.064458 0.889878 -0.297172 0.346131
0.00834871 0.402596 0.200084 0.698194 0.28768 -0.655566
0.00235196 0.10867 0.293093 0.382672 0.87915 -0.284002
-0.00985562 0.429572 0.273199 -0.995864 -0.0764993 -0.0490112
-0.191227 -0.24188 0.548139 0.022845 -0.649176 -0.760295
-0.0369778 0.314341 0.162093 1 0 0
0.0517964 0.0594688 0.196973 -0.000587002 0.999999 0.00104995
-0.00212615 0.117173 0.311228 -0.382627 0.878498 -0.286073
0.0108254 -0.202953 0.190364 0.398051 0.0747953 0.914309
0.00524316 -0.450789 0.0810145 0.145193 -0.81743 -0.557428
-0.0233299 0.127201 0.170124 0.343475 0.0679836 0.936698
-0.00476526 0.169082 0.310775 -0.893533 -0.31749 0.317488
-0.000575615 0.169694 0.547346 -0.050944 -0.0264119 0.998352
-0.00341678 -0.207945 0.528054 -0.923839 -0.191921 -0.331191
-0.0368097 0.0487568 0.204328 1 0 0
0.0122611 -0.153395 0.512571 0.990884 -0.126627 0.0459801
0.0108097 -0.252634 0.335141 0.99616 -0.0287042 -0.0827066
0.0088959 -0.408922 0.290176 0.448403 0.65182 -0.611608
0.0246923 0.298891 0.167219 0.999944 -0.00184002 -0.0104274
0.00575912 -0.357179 0.332138 0 -0.38267 0.923885
-0.0276285 0.0204936 0.321141 -0.0316263 -0.413161 -0.910108
-0.0148564 -0.0899201 0.419173 -0.995019 -0.0310322 -0.0947315
-0.0298111 0.152985 0.163253 0.905085 0.110417 -0.410645
0.0160241 -0.09132 0.405629 0.995063 -0.0311218 -0.0942432
0.0019344 0.132812 0.355621 0.382704 0.878441 -0.286146
-0.00517264 0.235527 0.320115 -0.430764 0.393637 -0.812091
-0.0152544 0.268274 0.223125 -0.956604 -0.268018 -0.114344
-0.0127994 -0.129977 0.233624 -0.860217 -0.490491 -0.139446
0.0717989 0.0426426 0.247345 0 1 0
-0.0359874 0.211256 0.519032 -0.973116 -0.00257344 -0.230303
0.0121982 -0.47216 0.230233 0.558862 -0.479062 -0.676884
-0.00694271 0.19997 0.336834 -0.226188 -0.970574 0.0826182
0.00836906 0.181888 0.279246 0.431375 0.695097 -0.575114
0.00822739 -0.193043 0.0373957 0.224328 -0.276366 -0.934505
-0.0124937 -0.126831 0.151071 -0.86024 -0.499208 0.103822
0.0160844 -0.155473 0.427413 0.995007 -0.0311507 -0.0948232
-0.0151382 0.094765 0.361359 -0.995296 -0.0310113 -0.0917857
0.0276866 0.240363 0.527171 0.386842 0.818132 -0.425456
0.0396366 0.197264 0.235422 0.0127307 -0.444963 -0.895459
0.0152916 0.279581 0.236206 0.254088 0.784776 0.565302
-0.0015709 0.377963 0.349293 -0.093747 -0.421087 0.902163
-0.0370411 0.0548854 0.139196 0.999773 -0.00328401 0.0210426
0.00207845 -0.473886 0.127011 -0.727543 -0.652766 -0.211136
-0.0124258 0.467089 0.194786 -0.967065 -0.254115 -0.0145438
