0.00909763 -0.275344 0.304864 0.83969 0.199033 0.505278
0.010814 0.26199 0.0403076 1 0 0
0.0025642 -0.140026 0.449484 0.34169 0.14616 0.928378
0.00148158 -0.180041 0.0916366 0 0.930422 -0.36649
0.117813 -0.314542 0.52216 0.383269 0.234472 0.89338
-0.00430276 0.229515 0.180635 0.669363 0.709322 -0.220941
-0.0338934 0.358353 0.143532 -1 0 0
-0.0130258 0.347482 0.126825 0 0.552177 -0.833727
-0.00160405 0.456794 0.123675 0 0.984504 -0.17536
0.00628282 0.12188 0.170837 0.984781 -0.159683 0.0686114
-0.00700143 -0.341729 0.284475 -1 0 0
-0.104884 0.0157124 0.173338 0 0.113157 0.993577
-0.109818 -0.270006 0.460239 -0.833359 0.102827 0.543083
-0.00498501 -0.203994 0.223796 0.706884 0.592546 0.38627
0.00508371 -0.461597 0.0832284 0 -0.878834 -0.477128
0.115173 -0.313519 0.52207 0 0.253857 0.967242
0.00751186 -0.451946 0.102073 0.74818 0.629216 0.210508
0.00848526 0.30371 0.0237358 0.712341 0.139952 0.687738
-0.000581074 -0.21765 0.0749439 0 0.778247 -0.627958
0.000508452 0.261001 0.239424 0 -0.693401 0.720551
0.00369279 0.214761 0.369798 0.642435 0.704097 -0.302529
-0.00587866 0.237313 0.217131 0.66905 -0.632353 0.390514
0.010814 0.402345 0.265403 1 0 0
0.0109815 0.310546 0.165214 -0.375139 -0.514152 -0.77131
-0.0168176 0.254245 0.315105 0.844603 0.510722 0.160652
0.0838012 0.212313 0.144505 0 -0.993573 0.113194
-0.0414674 0.084349 0.130658 -0.73903 0.504215 0.446768
-0.0124147 -0.330457 0.187448 -0.678266 -0.7328 -0.0544032
-0.114114 0.0420746 0.168486 -0.83176 0.318846 0.454437
0.0576149 0.229726 0.148954 0 0.113166 0.993576
0.010814 0.209039 0.109492 1 0 0
-0.0169096 0.134284 0.186326 0 0.446132 0.894967
0.0018052 -0.178329 0.0959829 0 0.930422 -0.36649
0.00633133 -0.253008 0.0418215 1 0 0
-0.0062808 -0.341432 0.310894 -0.757072 -0.0965702 0.646155
0.0113207 -0.21309 0.0536811 0.839694 0.406724 -0.359846
0.00651218 -0.237891 0.0480224 0.74821 -0.413024 0.519224
0.0140596 -0.318458 0.143041 -1 0 0
-0.00416939 -0.00178168 0.221558 -0.337748 -0.43176 -0.836367
-0.00434895 -0.184815 0.425443 -0.499707 0.829127 -0.250683
-0.00700143 -0.350196 0.279506 -1 0 0
-0.00906667 -0.422749 0.271393 -0.757106 -0.406685 0.511271
0.00831117 -0.176883 0.483524 0.672017 0.19468 0.714488
0.010814 0.229202 0.0671961 1 0 0
0.00244567 0.445445 0.0831562 0 -0.852633 0.52251
0.00303182 -0.126836 0.447038 0.642497 0.119175 0.756964
0.010814 0.316334 0.0178009 1 0 0
-0.00121808 -0.259634 0.274881 0 0.471023 0.882121
0.00559102 0.327619 0.0341847 1 0 0
0.00514673 -0.400837 0.214245 0.990291 -0.110504 0.0843344
-0.00812572 0.21486 0.375061 0.658898 -0.608937 -0.441644
-0.0188072 -0.316022 0.151128 -1 0 0
-0.0332576 0.240358 0.106269 0.707148 -0.0563668 -0.704815
0.00816879 0.386277 0.168888 -0.372375 -0.440363 0.816956
-0.00332697 -0.479933 0.171659 0 -0.999656 0.0262123
0.00591209 -0.267997 0.223736 0.408953 0.75093 -0.518518
-0.0122152 0.364991 0.138101 0.375235 0.202919 0.904446
0.00887004 0.392619 0.274359 0.812079 0.213881 0.542939
0.00899104 0.447782 0.231863 0.812098 0.456655 0.363268
0.00176325 0.143512 0.405139 0.341391 0.146179 0.928485
-0.0117013 0.128897 0.166813 0.108096 -0.98772 0.112803
0.087453 0.214486 0.142918 0.93633 0.348865 -0.0397451
-0.0786282 0.0305487 0.166959 0 -0.233196 0.97243
-0.00535397 -0.0453835 0.421343 -0.64269 -0.11915 -0.756805
0.00967854 0.278764 0.0325314 0.712378 0.366688 0.598379
-0.00811654 0.158895 0.246264 -0.865945 0.459517 -0.197443
0.117943 -0.310463 0.502454 0.382293 -0.234759 -0.893723
0.00785318 -0.220207 0.509311 0 0.398808 -0.917034
-0.0257778 0.259186 0.151222 0.85435 0.199681 0.479807
-0.0379421 0.0782827 0.18859 1 0 0
0.0161671 0.177562 0.154383 0.334838 -0.182332 -0.924467
-0.0126914 0.177777 0.156743 0.856089 0.0754883 -0.511285
0.00987689 -0.408937 0.0302441 0.839662 -0.283778 -0.463075
-0.00700143 -0.25534 0.0429084 -1 0 0
-0.00774174 0.274609 0.248232 -1 0 0
0.0354374 0.117648 0.17009 -0.81307 -0.348348 0.466444
-0.00675455 -0.293052 0.219938 -0.4103 -0.797291 0.442698
0.0115543 -0.470271 0.16572 1 0 0
0.0115543 -0.448674 0.240465 1 0 0
0.00243349 -0.475686 0.195768 0 -0.979931 0.199338
0.010814 0.206926 0.164618 1 0 0
-0.00557064 0.461854 0.141437 0.669102 0.741078 0.0557314
-0.00574396 0.265969 0.249245 -0.707984 0.43963 -0.552706
0.00211438 -0.210959 0.521001 0.642775 0.0867087 0.761132
0.000541236 0.420695 0.234541 0 0.675597 0.737271
0.0340613 -0.286892 0.220837 -0.98 -0.197733 0.0223943
-0.00556965 0.461987 0.123529 -0.708035 -0.692005 0.140767
-0.00408178 -0.185077 0.424043 -0.499707 0.829127 -0.250683
-0.00941303 -0.469417 0.133929 -1 0 0
-0.00700143 -0.406541 0.0498502 -1 0 0
-0.00104083 0.321842 0.266781 0 -0.137094 0.990558
-0.00549461 -0.279156 0.307089 -0.757063 0.130249 0.640227
0.00637154 -0.24764 0.113587 0.89899 0.314104 0.305213
0.0767591 0.228749 0.149065 0 0.113166 0.993576
0.0194873 -0.228978 0.51114 1 0 0
-0.00772612 0.276267 0.240436 -0.669476 0.36578 -0.646534
-0.00490497 -0.203696 0.190629 0.707061 -0.66982 -0.22673
0.00514266 0.480181 0.141141 0 0.999656 -0.0262166
0.00819957 -0.390545 0.298345 0.839678 -0.259116 0.477283
-0.0340989 0.257222 0.147599 -0.971879 -0.177967 -0.154206
0.0412725 0.127572 0.160396 0.726088 -0.0427104 -0.686274
-0.00753162 0.226204 0.0967122 -0.668798 -0.668776 -0.324727
-0.00139945 0.218596 0.167086 0 -0.984564 0.175027
0.00633133 -0.411153 0.260142 1 0 0
0.00504657 -0.424485 0.277687 0 -0.622529 0.782597
0.010814 0.470142 0.144231 1 0 0
-0.0315764 0.11853 0.191728 1 0 0
0.00311277 -0.0743942 0.259859 0.636943 -0.353626 -0.68502
-0.0336028 0.336186 0.160417 -0.947058 -0.0767441 0.311755
0.00172107 0.307049 0.26292 0 -0.260503 0.965473
0.00483306 0.453751 0.102979 0.669515 0.675928 -0.308011
0.00111765 0.232475 0.0882196 0 -0.899571 -0.436774
0.0115543 -0.412444 0.0382635 1 0 0
-0.037611 0.0910821 0.137625 0 0.697712 0.716379
-0.0324483 0.0802932 0.159091 0 0.981909 0.189355
0.00790123 -0.168289 0.180357 0.839696 0.53709 0.0802754
-0.00773117 0.1854 0.395402 -0.865761 0.077833 0.494368
-0.0321266 -0.297483 0.204396 0.980417 -0.170062 0.0993007
0.00048013 0.231868 0.0539539 0 -0.78261 -0.622512
0.0113326 -0.440066 0.253329 0.839676 -0.406749 0.35986
0.0438426 0.224205 0.137333 -0.856489 0.0760022 -0.510539
-0.0311494 -0.246865 0.263089 -0.326985 0.819896 -0.469948
-0.0271355 0.287376 0.246716 0.658898 -0.608937 -0.441644
0.00499176 -0.229172 0.0766067 0 -0.77824 0.627967
-0.005121 0.145962 0.170315 0 0.97241 0.233279
-0.00249333 -0.43908 0.211451 0 0.850825 -0.52545
0.118705 -0.312481 0.520925 0.706873 0.179997 0.684055
0.00714154 0.479759 0.150105 0.812055 0.583381 -0.0152995
-0.0311614 0.311929 0.117935 -0.477388 0.435705 -0.763061
0.000697098 -0.345013 0.0246298 0 -0.113203 -0.993572
0.00358025 -0.422499 0.0788461 -0.706989 0.539372 0.457432
0.0080945 -0.394399 0.296438 0.839678 -0.259116 0.477283
0.0106729 -0.454727 0.233833 0.839684 -0.46305 0.283754
0.00695856 -0.442973 0.22822 0.748188 0.565714 -0.346673
-0.0389323 0.0677664 0.156085 0.73909 -0.65159 -0.170812
0.00396525 -0.169699 0.487096 0.765994 0.621901 -0.162764
-0.0104124 -0.288253 0.161266 0.899403 -0.0458648 -0.434707
-0.0292896 0.289238 0.172542 -0.012725 0.243083 0.969922
-0.00806537 0.297021 0.196146 -0.988055 -0.0956811 0.120802
-0.0122597 0.205823 0.382869 -0.51618 -0.854822 -0.0532734
0.0086491 -0.478121 0.167672 0.839708 -0.542851 0.0142343
0.00802531 -0.211153 0.371236 0.984796 -0.166278 0.050274
-0.00305129 0.40707 0.0552988 0 -0.597586 0.801805
0.00308548 -0.142366 0.308811 0.636949 0.353625 0.685015
-0.0394871 0.15624 0.162875 0 0.993568 -0.113237
0.00319529 0.38063 0.225284 0.126112 0.883776 -0.450596
0.00622017 0.179014 0.304706 0.984781 -0.159683 0.0686114
0.0044737 0.0144401 0.41325 0.642717 -0.119147 -0.756782
0.0107948 -0.318917 0.102507 0.411381 -0.895495 -0.169867
0.0118191 0.354196 0.175851 0.126112 0.883776 -0.450596
0.000626013 -0.199457 0.373332 0 0.957204 -0.289416
0.00546117 0.226698 0.233593 0 -0.748932 0.662647
0.00633133 -0.340349 0.0234152 1 0 0
-0.00147041 0.224465 0.167022 -0.376927 0.226585 0.898101
-0.0168218 0.220804 0.483499 -0.97339 -0.227685 0.0259
-0.00941303 -0.429788 0.257979 -1 0 0
-0.0588894 0.0828471 0.165008 0 -0.0290516 0.999578
0.0259638 0.162789 0.153376 -0.999771 0.0207657 -0.00518514
0.00633133 -0.29973 0.286782 1 0 0
-0.0154241 0.344727 0.143978 0.375601 0.20282 0.904316
-0.10182 0.0478068 0.169681 0 0.113194 0.993573
-0.00647204 0.226695 0.149187 0 0.998719 -0.05061
0.00633133 -0.372131 0.0396587 1 0 0
-0.00418169 -0.218194 0.0404893 -0.757106 0.406684 -0.511271
-0.0101533 0.232864 0.2304 -1 0 0
0.00642928 0.212912 0.383062 -0.0895875 -0.492941 0.865438
-0.0430513 0.106308 0.175684 0.98752 0.11611 -0.106404
-0.0354437 0.17555 0.107629 -0.983848 0.138821 -0.113015
0.00812955 -0.344888 0.0917757 -0.137927 0.938951 -0.315193
-0.00753243 -0.194871 0.333632 -0.862597 0.232059 0.449528
0.000548736 0.281484 0.0173078 0 -0.366566 -0.930392
0.010939 -0.204714 0.252493 0.839735 0.424953 0.338024
0.00629418 -0.110968 0.284579 0.984334 -0.0808788 -0.156672
-0.00990406 0.467528 0.190591 -0.721822 0.656315 0.219598
-0.0345134 0.117039 0.199482 -0.94704 -0.0122201 0.320881
0.00127793 0.21249 0.211439 0 -0.852658 0.522469
-0.0342603 0.312009 0.140447 0.856031 0.0754653 -0.511386
-0.000551608 -0.161754 0.510984 -0.173821 0.951812 -0.252667
-0.0173312 0.271115 0.458863 0 0.126153 -0.992011
-0.00160439 -0.185683 0.508328 0 -0.113191 -0.993573
-0.0260533 0.340866 0.132559 1 0 0
0.00032986 -0.360064 0.0275444 0 -0.356741 -0.934203
-0.0385911 -0.309202 0.172381 -0.887165 0.399622 -0.230737
-0.0247952 0.282018 0.258172 0.872536 -0.357976 -0.332466
-0.005014 -0.198643 0.511523 -0.642775 -0.0867249 -0.76113
-0.00808621 -0.1153 0.442122 -0.86572 0.0778434 0.494438
0.00330363 0.249912 0.216531 -0.669314 0.632107 -0.39046
-0.00700143 -0.190829 0.137015 -1 0 0
-0.0303468 0.290918 0.083191 0.68364 -0.461336 -0.565513
-0.00612462 0.292112 0.201011 -0.124128 -0.788721 -0.602089
-0.0072642 0.222773 0.198881 -0.707952 0.657121 -0.258837
0.0693485 -0.232701 0.518087 -0.348127 -0.753792 0.557319
-0.0121346 -0.329028 0.180111 0.410367 -0.879547 -0.240822
0.00600094 0.111943 0.400399 0.865814 -0.0778187 -0.494277
0.0396081 0.347379 0.143524 0.0894623 0.493134 -0.865341
-0.0369991 0.334166 0.135734 -0.942162 0.0379489 0.333004
0.00512759 0.151087 0.401089 0.865735 0.0778391 0.494413
0.00332771 -0.380596 0.26994 -0.706738 0.34838 -0.615753
0.0320055 -0.229275 0.312074 0.774989 0.320742 0.544534
0.00659464 0.339991 0.205064 -0.988055 -0.00298077 -0.154075
0.00914843 -0.477222 0.172495 0.839708 -0.542851 0.0142343
0.00907327 -0.210232 0.0713517 0.748203 -0.496915 0.439622
-0.0287802 0.273196 0.464489 -0.998756 -0.0495353 0.00564407
0.0055222 -0.254468 0.275233 0.706839 0.333185 0.623992
-0.00774174 0.406551 0.0569486 -1 0 0
0.116252 -0.287613 0.517168 0.691156 -0.389804 0.60857
0.0387881 0.342495 0.16526 0.365438 0.784273 0.50137
0.00535755 0.407281 0.24855 0.669251 0.34998 0.655452
0.00148587 -0.332152 0.0231644 0 -0.113203 -0.993572
-0.00293546 -0.287426 0.00388523 0 0.147842 -0.989011
-0.0323766 0.135277 0.165461 0 0.222094 0.975025
0.11784 -0.31236 0.502909 0.383269 -0.234247 -0.893439
-0.00481364 0.323289 0.026165 0.6688 -0.0841599 -0.738663
0.0045276 -0.344344 0.0217372 -0.707384 -0.0800153 -0.702286
-0.0054673 0.207826 0.384224 -0.642634 -0.703942 0.302467
0.0115543 -0.447913 0.23058 1 0 0
-0.00462861 -0.180306 0.485951 -0.335796 -0.367092 0.867459
0.00559102 0.253494 0.228362 1 0 0
0.00192878 -0.434953 0.0466165 0 -0.662579 -0.748992
0.00585307 0.295251 0.281406 0 -0.317294 0.948327
-0.00479666 -0.307652 0.019021 -0.744102 -0.0987317 0.66073
0.00450117 0.262213 0.460855 0 -0.493458 -0.86977
-0.00700143 -0.425397 0.0771639 -1 0 0
-0.00437104 -0.36985 0.00759315 -0.7571 -0.239456 -0.607833
0.00216106 -0.291841 0.276154 0.990291 -0.0364582 -0.134143
0.00559102 0.292935 0.254086 1 0 0
0.00453409 -0.305576 0.293541 -0.707067 0.167476 0.687028
-0.00521257 0.273123 0.0550011 0.668884 0.429587 0.60667
-0.00331601 -0.253239 0.090714 -0.138415 0.690134 0.710321
0.010814 0.344508 0.278469 1 0 0
-0.00475368 -0.190913 0.406082 -0.50042 0.828731 -0.250569
-0.0341295 0.150817 0.177854 0 0.92404 0.382296
-0.00746325 -0.257125 0.0314803 -0.744033 -0.318812 0.587175
-0.00762456 0.212485 0.13002 -0.707989 0.698469 0.104369
0.0115522 -0.456798 0.102215 0.748197 0.629196 0.210511
-0.00507421 0.221506 0.411589 -0.642695 -0.719833 0.262268
-0.0182114 0.2605 0.300656 0.971272 0.237667 -0.0120448
-0.00941303 -0.463839 0.11656 -1 0 0
-0.00347228 -0.187151 0.46999 -0.341906 -0.899518 0.27197
0.0227255 0.294175 0.478556 0 0.993568 -0.113233
-0.00774174 0.281473 0.0475497 -1 0 0
-0.00431806 -0.198016 0.143734 0.707103 -0.696153 0.123997
0.00174559 0.390179 0.278612 0 0.366518 0.930411
0.00633133 -0.393466 0.267413 1 0 0
0.00228806 0.396445 0.0367881 0 -0.477143 0.878826
-0.00653313 0.465144 0.146185 -0.708054 -0.705914 0.0185416
-0.00503435 -0.308685 0.281268 0.709328 -0.0798054 -0.700346
-0.00684901 -0.251678 0.167874 -0.67896 0.229594 -0.697352
-0.0315764 0.121202 0.193249 1 0 0
-0.00838355 -0.379014 0.18108 -0.677353 0.215929 0.703255
0.108891 -0.270713 0.520275 -0.575584 -0.134435 0.806617
0.00633133 -0.370372 0.0348022 1 0 0
-0.00875795 -0.180048 0.448176 -0.984784 -0.0270274 -0.17167
0.00128252 -0.242239 0.0454868 0 -0.622528 0.782597
0.0367806 -0.245869 0.309843 0.626336 -0.158827 0.763202
0.010814 0.42996 0.241159 1 0 0
0.00188138 0.340847 0.235937 -0.880689 0.45057 -0.146201
-0.0293018 0.350465 0.156174 0.998104 0.0351342 0.0505426
0.0412767 -0.289345 0.225841 0.919246 -0.349058 0.182057
-0.0757436 0.0182279 0.15957 0 -0.113165 -0.993576
0.00630531 0.0561161 0.410928 0.984785 -0.0270258 -0.17166
0.0039011 -0.42319 0.233046 -0.707113 0.601597 -0.371581
0.00178041 -0.268541 0.304989 0 0.366502 0.930417
-0.00453685 0.192939 0.476857 0 -0.194154 -0.980971
0.003821 0.169763 0.293949 0.642431 -0.704098 0.302537
0.00572239 -0.304076 0.0208369 0 -0.147787 0.989019
-0.00628156 0.272129 0.254034 -0.707971 0.336994 -0.620654
-0.0376103 0.301021 0.108177 -1 0 0
-0.0318978 0.292467 0.0823476 -0.603412 -0.226857 -0.76448
0.0331317 0.133448 0.153655 1 0 0
-0.00700143 -0.207898 0.104732 -1 0 0
0.010814 0.460173 0.0854235 1 0 0
-0.00161355 -0.414406 0.197235 0.41145 0.429683 0.803792
-0.00299524 0.213214 0.39461 -0.341409 0.146176 0.928478
-0.00846997 0.465031 0.092158 -0.72183 0.643927 -0.253612
-0.0394189 0.336432 0.161205 0.87241 -0.358189 -0.332568
0.0115543 -0.401065 0.284214 1 0 0
0.00438515 -0.236594 0.0514528 -0.707501 0.422338 -0.566634
-0.00266535 0.140127 0.406238 -0.341671 0.146163 0.928384
0.0331317 0.127855 0.149813 1 0 0
0.00558364 -0.23992 0.064621 0.707005 -0.42265 0.567019
0.00469814 0.184259 0.386732 0.865829 -0.0778145 -0.494252
-0.00507512 0.430359 0.0805081 1 0 0
-0.00438021 -0.327751 0.0188054 -0.744086 0.0174726 0.667856
0.00929125 0.405912 0.0371239 0.712282 -0.334903 0.616842
-0.032171 0.11427 0.16624 -1 0 0
0.00844564 -0.223145 0.0381552 0.839729 0.338029 -0.42496
0.010814 0.437399 0.237601 1 0 0
-0.00774174 0.457994 0.167624 -1 0 0
-0.00216975 0.314196 0.0342815 0 0.113206 0.993572
0.107842 -0.260585 0.510057 -0.360218 -0.212797 -0.908274
0.00633744 -0.36805 0.0263765 0.748257 0.243118 0.617256
0.0132035 0.0976633 0.173238 0 -0.958766 0.284196
0.00630973 0.217569 0.388664 0.984786 0.15966 -0.0686016
0.0115543 -0.453332 0.23118 1 0 0
0.0335373 0.322882 0.199768 0.365438 0.784273 0.50137
0.00602481 0.222116 0.395158 0.984786 0.15966 -0.0686016
-0.00774174 0.263888 0.0520963 -1 0 0
-0.0378626 0.124292 0.213988 0 -0.930163 0.367147
-0.0421704 0.12013 0.217379 0 -0.0634017 0.997988
0.0115543 -0.441767 0.240504 1 0 0
0.00944452 -0.210547 0.263538 0.839735 0.424953 0.338024
0.0133193 0.330783 0.142931 -1 0 0
-0.00332399 0.373851 0.00932815 0 0.31729 -0.948329
0.0114949 -0.455845 0.0996368 0.748181 0.583081 0.316609
-0.00443207 -0.433724 0.26869 -0.757046 -0.489354 0.432914
0.0136355 0.151478 0.164926 0.856233 -0.0727989 0.511434
0.00881853 0.268225 0.0276166 0.812089 -0.304879 -0.497554
0.00143405 0.103156 0.167267 0.337766 -0.431754 -0.836363
-0.00838813 -0.0294281 0.246584 -0.862551 0.232095 0.449598
-0.0323021 0.134836 0.191964 0.947005 0.172834 0.270759
-0.0416189 0.325342 0.177859 -0.312428 -0.847113 -0.429869
0.00759816 -0.238169 0.0250482 0.839668 0.259126 -0.477297
-0.00300646 0.287765 0.256412 0 -0.492421 0.870357
0.0107096 -0.228946 0.322188 0.607151 -0.525493 -0.596008
0.0105211 0.373561 0.126092 -0.122638 0.465503 0.876508
-0.00941303 -0.459736 0.0996028 -1 0 0
-0.00923046 0.371523 0.0216886 -0.707944 -0.224103 0.669771
-0.00453539 -0.166554 0.15751 -0.757069 0.653111 -0.0171014
0.0113033 0.199657 0.492804 0.912765 -0.0845784 0.399634
-0.105652 -0.318965 0.477701 0 0.995576 -0.0939616
0.00292441 0.241057 0.072321 -1 0 0
-0.110646 -0.296516 0.487113 -0.993678 -0.111505 0.0130749
0.0274024 0.277543 0.46142 0.630735 0.0676406 -0.773045
0.00559102 0.405797 0.0525323 1 0 0
0.00497357 0.392616 0.0477976 0.668824 -0.282102 0.687818
0.0138623 0.203474 0.155863 -0.971031 0.182954 0.153707
-0.00429731 -0.41184 0.24702 0.707285 0.49019 -0.509373
-0.0315764 0.114474 0.180283 1 0 0
-0.00474031 -0.187586 0.167098 0.707238 0.704984 0.0530269
0.0276103 0.150379 0.157073 -0.979105 -0.197286 0.0493095
-0.0319245 -0.29041 0.226249 0.743316 -0.631185 0.221557
-0.0425234 0.115244 0.161884 1 0 0
-0.0381477 0.161112 0.109865 0.0721939 -0.0865736 -0.993626
0.0435192 -0.219295 0.514598 0 0.894945 -0.446176
-0.0112479 0.145295 0.158603 0.00111578 -0.124439 -0.992227
-0.00498444 0.398276 0.256668 -0.707925 -0.369026 -0.602214
-0.00700143 -0.410811 0.252907 -1 0 0
0.00627042 -0.0138532 0.423988 0.984775 0.0270349 0.171717
0.010814 0.423793 0.25091 1 0 0
-0.00941303 -0.437379 0.0672642 -1 0 0
0.00441026 -0.425454 0.0382141 0 -0.662579 -0.748992
0.00847066 0.273618 0.256552 0.712376 0.334878 -0.616747
-0.0328631 0.147867 0.168178 0 0.996021 0.089116
0.00399696 -0.354863 0.0357 -0.706802 0.252353 0.66087
0.00633133 -0.356075 0.283819 1 0 0
0.00257319 -0.441247 0.221658 0 -0.850805 0.525481
-0.10378 -0.322524 0.476237 1 0 0
-0.00278028 -0.177479 0.507689 -0.342128 -0.10636 -0.933614
0.0251284 0.121526 0.139963 0.271804 0.0586357 -0.960565
0.00197857 0.141852 0.232132 0.341964 -0.863387 0.370976
0.0168995 0.34543 0.143814 0.637664 0.0721167 -0.766932
0.00660159 0.465103 0.0821165 0 0.852618 -0.522535
-0.0038277 -0.244372 0.131988 0.679252 -0.295343 -0.671855
-0.00288125 -0.184821 0.423294 -0.342034 0.899474 -0.271954
-0.0104236 0.33603 0.135901 0.57632 -0.593078 -0.56224
0.00627539 -0.319335 0.281984 0.707072 0.00863764 -0.707089
-0.0148576 0.247974 0.323941 0.971306 0.237525 -0.0121308
0.00164008 0.455844 0.166003 0.123648 0.16637 -0.97828
0.00633133 -0.233162 0.0679018 1 0 0
-0.0125769 -0.344019 0.18119 -0.408855 0.677328 0.611607
0.043045 -0.299191 0.186238 0.721633 0.62338 -0.301071
-0.00298411 0.259339 0.029554 0 -0.522487 -0.852647
0.00633133 -0.264493 0.0463175 1 0 0
0.000835199 -0.462382 0.230997 0 -0.85264 0.522499
-0.0315764 0.0899843 0.130902 1 0 0
0.00155274 -0.0966607 0.270466 0.337302 -0.431833 -0.836509
-0.00882307 0.441279 0.0557139 -0.721889 0.518266 -0.45856
0.00770108 -0.385709 0.0137166 0.839708 -0.199042 -0.505246
0.0120544 0.22255 0.493798 0 0.102195 0.994764
-0.0309418 0.224358 0.107032 0.995438 0.00953456 0.0949353
-0.0363858 0.298508 0.113396 -0.863396 -0.314 0.394908
-0.00457218 -0.297848 0.0791651 0.136755 -0.937702 -0.319396
0.0246095 0.278917 0.26224 0.313788 -0.841676 -0.439453
-0.00941303 -0.199315 0.0827814 -1 0 0
0.00618146 0.214443 0.131586 0.71235 0.694118 0.103719
-0.00195686 0.283344 0.0165751 0 -0.366566 -0.930392
0.00525587 0.129557 0.196001 0.865858 -0.459655 0.197502
0.00890094 0.458295 0.193067 0.712366 -0.665544 -0.222677
0.111341 -0.323005 0.471787 -1 0 0
0.00839655 -0.210477 0.0498109 0.839725 0.406699 -0.359802
-0.00237653 0.19915 0.124055 0 -0.989017 -0.147804
0.00905084 0.144631 0.167845 0.00244808 0.135167 0.99082
0.0105906 0.432885 0.245168 0.812114 0.386626 0.437025
-0.0131765 -0.314093 0.137002 0 0.688281 -0.725444
-0.0271315 -0.274232 0.255941 0.74356 -0.630085 0.223856
0.000475641 -0.212787 0.329244 0 0.957204 -0.289416
-0.00529443 0.357009 0.00716727 -0.721785 0.102344 -0.684509
-0.0301544 0.100353 0.169222 -0.515761 -0.821431 0.243395
-0.0181553 0.229779 0.491016 -0.89747 -0.17048 0.406797
0.0456194 0.209472 0.150896 0.831577 0.318878 0.454748
0.00334186 0.230989 0.417964 0.865822 0.470115 -0.1713
0.0215131 0.350121 0.139501 1 0 0
-0.00768074 -0.219696 0.348764 -0.865997 -0.478649 0.144722
-0.00416566 0.179046 0.318927 -0.341635 -0.863497 0.371023
0.00633133 -0.423551 0.0655785 1 0 0
-0.109289 -0.28754 0.474993 -0.833317 0.499063 0.237739
-0.00243317 -0.335644 0.0492613 -0.899259 0.400714 -0.175387
-0.0101533 0.428777 0.244941 -1 0 0
0.0261921 0.288762 0.4844 0.323486 0.126396 0.937753
-0.0436666 0.106389 0.17108 0 -0.675613 -0.737256
-0.0343178 -0.237725 0.290377 -0.982847 0.171285 -0.0683611
-0.00445383 -0.219969 0.359852 -0.49977 -0.829091 0.250676
-0.0165371 0.248995 0.49097 0 0.150364 0.988631
0.00607867 0.0660557 0.19184 0.984323 -0.0809073 -0.156726
0.00294134 -0.458155 0.152896 -0.707098 -0.70621 0.0357818
0.01499 0.169353 0.16394 0.340655 0.0714647 0.937469
0.00300407 0.0622251 0.404478 0.642683 -0.119151 -0.75681
-0.113349 0.0119067 0.165724 -0.707249 -0.70242 0.0800329
-0.00856734 0.18519 0.310674 -0.984796 0.159606 -0.0685789
-0.0361973 0.0891831 0.165597 0 -0.999925 0.0122595
0.00825456 0.478023 0.142971 0.812055 0.583381 -0.0152995
0.029966 -0.252756 0.280342 -0.984462 -0.164014 0.0627147
0.00878662 -0.474102 0.12024 0.839688 -0.515001 -0.17233
0.00198455 0.272565 0.459337 0.0739745 0.210109 -0.974875
0.000163157 -0.167902 0.454756 0.341391 0.146179 0.928485
0.0331317 0.134975 0.156112 1 0 0
-0.00582493 -0.170698 0.509584 -0.865946 -0.0566204 -0.496922
-0.00424171 0.24231 0.0730652 0.668637 -0.567115 -0.480941
-0.0237272 0.238382 0.155388 0.633777 0.19736 0.747914
-0.00104669 -0.203049 0.217611 0 0.837715 0.546108
-0.00370872 -0.21769 0.226427 0.707158 -0.592313 -0.386125
0.000590522 0.141972 0.150063 0 0.803857 -0.594823
0.016025 0.259479 0.462406 0 -0.493458 -0.86977
-0.00123018 0.468252 0.0893862 0 0.930444 -0.366434
-0.0742399 0.0394049 0.157157 0 -0.113206 -0.993571
-0.00669997 0.420242 0.238381 0 0.675606 0.737263
0.00536681 0.405683 0.249395 0.669251 0.34998 0.655452
-0.0101533 0.208588 0.146376 -1 0 0
0.00587506 0.165228 0.485526 0 0.961302 0.275498
0.00292441 0.384659 0.249128 -1 0 0
0.00122971 -0.354707 0.280054 0 0.260499 -0.965474
-0.00125896 -0.334965 0.0554591 0.899072 0.431296 0.0751902
-0.0210874 0.176153 0.159155 -0.971866 -0.177974 -0.154278
-0.0336749 0.329728 0.151096 0 0.750736 -0.660602
0.0401214 -0.244004 0.30121 0.984604 -0.137263 0.108233
0.00106007 0.129394 0.203984 0.341964 -0.863387 0.370976
0.0114602 0.370236 0.159942 0.125177 0.432837 -0.892739
0.00839744 -0.475461 0.124117 0.839687 -0.537106 -0.08027
0.00947894 -0.316001 0.00326865 0.839723 -0.0142139 -0.542829
0.00541563 0.291279 0.248764 0.668977 0.366002 -0.646926
-0.010301 -0.317002 0.142128 1 0 0
-0.00775141 -0.433873 0.051648 -0.757115 -0.432882 -0.489275
-0.032171 0.107549 0.156517 -1 0 0
-0.00494013 0.0324669 0.219038 -0.337453 0.431806 0.836462
-0.0113647 0.255254 0.464803 0 -0.493458 -0.86977
0.0115543 -0.176325 0.186538 1 0 0
0.000437312 0.207614 0.199772 0 -0.930417 0.366503
-0.00694584 0.362686 0.267165 -0.669018 0.176035 0.722099
0.00855453 -0.269033 0.30328 0.839685 0.199038 0.505284
-0.0195663 -0.237507 0.310871 0.783258 -0.426365 -0.45246
-0.0328057 0.240853 0.103828 0.0736052 -0.0744976 -0.994501
0.00621303 -0.171198 0.199088 0 0.948334 0.317275
0.00559102 0.39512 0.0409191 1 0 0
-0.00858462 -0.0101226 0.231573 -0.984333 -0.0808799 -0.156674
0.0056114 0.0992814 0.180784 0.862577 0.232074 0.449557
-0.0319969 0.211012 0.106181 0.074037 -0.0693183 -0.994843
-0.00565943 0.408397 0.268805 -0.721787 0.361629 0.590126
0.0319876 0.103159 0.173601 0.846841 -0.475987 0.237269
-0.00688544 -0.446685 0.216758 -0.706775 -0.601897 0.371739
-0.0307204 0.357395 0.131924 1 0 0
0.0472842 0.204671 0.151218 0.831577 0.318878 0.454748
0.00303472 -0.259317 0.301356 0 0.366502 0.930417
0.0157617 0.261006 0.46154 0 -0.493458 -0.86977
0.0104859 0.216152 0.473763 0 -0.113218 -0.99357
-0.00608245 0.460622 0.179374 -0.708067 -0.669657 -0.224053
-0.0266277 0.143995 0.171556 -0.521604 0.829581 0.199309
-0.00700143 -0.401208 0.0537052 -1 0 0
0.010814 0.262646 0.0351447 1 0 0
-0.00700143 -0.449605 0.171069 -1 0 0
0.00392491 -0.422747 0.233719 -0.707113 0.601597 -0.371581
-0.0334634 0.142363 0.188325 0 0.847053 -0.531508
-1.34613e-05 -0.30975 0.036899 -0.89986 0.398647 0.177012
0.111341 -0.324868 0.478046 -1 0 0
0.00499288 0.0944162 0.401393 0.865829 -0.0778145 -0.494252
0.00788111 -0.284695 0.0968086 -0.13603 -0.830553 -0.540072
-0.000719745 0.393792 0.0457964 0 -0.379469 0.925205
0.0222534 -0.334595 0.153578 1 0 0
0.00685886 0.261946 0.265747 0.812104 -0.278446 0.512791
-0.0348249 0.0695498 0.167076 0 -0.999924 0.0123334
-0.00914773 -0.202663 0.24888 -0.757106 0.511271 0.406685
-0.0315764 0.101255 0.182636 1 0 0
-0.0102894 -0.30787 0.187353 0.990291 -0.059819 -0.125479
0.0677291 0.192268 0.145306 0 -0.993573 0.113194
-0.00734992 0.172862 0.298307 -0.865771 -0.459793 0.197562
-0.00276496 -0.412433 0.194728 -0.135574 -0.428022 -0.893542
0.0398541 -0.266906 0.268029 0.926576 -0.314904 0.20565
0.00669711 0.27389 0.254651 0.712376 0.334878 -0.616747
-0.0266437 0.31422 0.103206 0.942102 -0.0379617 -0.33317
0.00337358 -0.159638 0.31746 0.636949 0.353625 0.685015
-0.00433481 -0.452184 0.112313 1 0 0
0.0107161 0.412608 0.253846 0.712331 -0.366718 -0.598417
0.0018722 0.265256 0.246956 0 0.622504 -0.782617
0.00176544 -0.241054 0.269077 0 -0.522502 -0.852638
-0.00881572 -0.184002 0.450177 -0.984785 0.0270263 0.17166
0.00448168 0.34094 0.288261 0 0.0261746 0.999657
0.010814 0.346552 0.0139367 1 0 0
-0.0146019 -0.323437 0.148345 0.677554 0.735437 0.00725354
0.0029252 -0.205313 0.221324 -0.707161 0.592308 0.386127
-0.00237399 0.252645 0.259034 0 -0.62252 0.782604
0.00319867 0.310228 0.285569 0 -0.147809 0.989016
-0.00941303 -0.470202 0.145352 -1 0 0
-0.10904 -0.279701 0.465851 -0.833296 0.353475 0.425057
-0.00941303 -0.448316 0.230057 -1 0 0
-0.096431 0.0503053 0.169396 0 0.113194 0.993573
-0.00651128 -0.0830125 0.277256 -0.63695 0.353624 0.685014
0.0129069 -0.355888 0.179238 0.677463 -0.517697 -0.522526
0.0331786 0.130647 0.168135 -0.91181 -0.0697217 0.404651
0.00434422 0.134239 0.394279 0.642717 -0.119147 -0.756782
0.00394702 0.1818 0.386453 0.642717 -0.119147 -0.756782
-0.0362841 0.139124 0.148784 -1 0 0
-0.0994751 -0.316505 0.509619 1 0 0
0.0140596 -0.335494 0.143504 -1 0 0
0.0310025 0.114615 0.185127 0.521495 -0.340291 0.78246
0.010814 0.3429 0.278515 1 0 0
0.0064678 -0.435828 0.0473909 0 -0.662579 -0.748992
0.00527985 -0.38985 0.093773 0.13708 0.66513 -0.734038
-0.0103429 -0.295891 0.177888 0.899252 0.155171 -0.408983
-0.00100208 0.327956 0.0327136 0 0.113206 0.993572
0.00559102 0.443112 0.104929 1 0 0
0.0223722 -0.330123 0.147018 0.85968 -0.496781 -0.118995
0.00605931 -0.029538 0.427668 0.984784 0.0270271 0.17167
0.0100119 0.206169 0.181179 0.812069 -0.571849 0.116331
0.00633133 -0.448637 0.107975 1 0 0
0.000347301 0.223878 0.193851 0 0.930422 -0.36649
-0.00859235 -0.18059 0.323577 -0.984317 0.08092 0.156752
0.0107704 0.466378 0.122287 0.712437 -0.687661 0.139841
-0.0379227 0.127241 0.112025 -0.94705 0.0448304 -0.317942
0.00584189 -0.324639 0.293543 0.707002 -0.00863707 0.707158
0.0263229 0.169557 0.150936 -0.731726 -0.14987 -0.664918
0.00109693 0.435728 0.191251 0.879576 -0.0660426 0.471152
-0.11079 -0.289336 0.50869 -0.993679 -0.101765 0.0473839
-0.00777159 0.269589 0.0396016 -0.707995 0.368999 0.602149
-0.00392369 -0.169551 0.123729 -0.757085 0.640201 -0.130254
-0.00516726 0.192844 0.349994 -0.642634 -0.703943 0.302467
-0.00675423 -0.457467 0.113541 -0.744039 0.633614 0.211989
-0.00941303 -0.47143 0.169585 -1 0 0
-0.0154973 -0.325067 0.156186 -0.0863552 -0.789048 -0.608232
-0.0088127 0.0575499 0.412165 -0.984774 0.0270364 0.171727
0.00694734 0.269641 0.0236949 0.812068 -0.304904 -0.497573
-0.00744783 -0.0358607 0.430733 -0.86572 0.0778434 0.494438
0.0378005 -0.321097 0.147836 0.00329413 0.958966 -0.283501
0.0296353 0.303235 0.233344 0.364616 0.784608 0.501443
-0.111203 0.0224318 0.172571 0 0.113206 0.993572
0.00489801 0.191628 0.477116 0 -0.194154 -0.980971
0.00490697 0.218949 0.382664 0.865821 0.459714 -0.197528
0.00499867 0.155148 0.234576 0.865945 0.459518 -0.197441
0.00153835 0.0597334 0.189725 0.337766 -0.431754 -0.836363
0.014258 0.320716 0.157456 0.371855 -0.607639 -0.701783
-0.00465273 -0.178258 0.312855 -0.337301 -0.43183 -0.836511
-0.0038535 0.234596 0.208041 0 -0.850781 0.525521
-0.0394268 0.124879 0.205049 -1 0 0
0.00371955 0.227681 0.234704 0 -0.748932 0.662647
-0.00691809 -0.45256 0.215091 -0.744049 0.621635 -0.244868
0.00471598 -0.439855 0.262722 0 -0.748978 0.662595
-0.00862508 0.129069 0.401981 -0.984774 0.0270364 0.171727
0.00538459 0.0323464 0.411851 0.865814 -0.0778187 -0.494277
0.00250375 -0.423311 0.124557 -0.410506 0.313844 -0.856146
0.000370959 -0.26394 0.0115191 0 0.317314 -0.948321
-0.0329883 0.31373 0.165656 -0.999468 -0.0285993 -0.0156984
0.00336839 0.103283 0.168374 0.636616 -0.353753 -0.685258
0.00678384 -0.265871 0.0303835 0.748263 -0.31655 0.583008
0.000385981 -0.376598 0.28508 0 0.317333 -0.948314
0.00482887 0.218328 0.379517 -0.846049 0.504722 0.17163
0.00659558 -0.198188 0.424403 0.765541 -0.615852 0.186206
-0.00911734 -0.374549 0.177645 -0.411504 -0.42968 -0.803766
-0.0394268 0.0783727 0.164821 -1 0 0
-0.00592832 0.464579 0.147792 -0.707958 -0.706012 0.0184941
0.0414122 0.342697 0.138298 0.00651214 0.99802 0.062566
-0.038435 0.143273 0.112801 -0.0721593 0.08647 0.993638
0.00740746 0.249508 0.236747 0.712417 0.525584 -0.464998
0.00783649 0.365417 0.199851 0.120663 -0.866229 0.484859
-0.00207919 0.226364 0.0936352 0 0.878791 0.477208
0.00516119 0.199713 0.120288 0 -0.989017 -0.147804
0.0299576 -0.248603 0.277695 -0.982933 0.14457 -0.113763
-0.00943966 0.365328 0.0127821 -0.721804 0.102333 -0.684491
-0.032171 0.133228 0.169422 -1 0 0
0.00456766 0.258903 0.0516811 0 0.662634 0.748943
-0.032273 0.296692 0.147179 0.85435 0.199681 0.479807
-0.0166346 -0.225931 0.308225 0.725128 -0.0626215 -0.685761
-0.00790372 0.0789108 0.411865 -0.865761 0.077833 0.494368
0.010814 0.436491 0.240185 1 0 0
-0.0163426 0.152928 0.165052 -0.8559 -0.0754185 0.511612
0.00337793 0.332626 0.0343447 -0.668749 0.0841692 0.738709
-0.0338277 0.147157 0.153537 0 0.58859 0.808432
0.00260378 0.0937507 0.187359 0.337302 0.431831 0.83651
0.00223117 0.21137 0.474308 0 -0.113218 -0.99357
-0.032171 0.125966 0.173253 -1 0 0
-0.00874885 -0.270648 0.141077 -0.135908 0.295743 0.94555
0.00598378 0.076262 0.186056 0.862623 -0.232039 -0.449487
-0.014181 0.323705 0.126482 -0.640146 -0.687969 0.341923
-0.0394268 0.124032 0.213357 -1 0 0
0.0115543 -0.397552 0.0338018 1 0 0
0.00815999 0.316913 0.284471 0.812092 -0.0862512 0.57712
-0.0442852 0.333518 0.164165 -0.616429 -0.722138 -0.313897
-0.000576135 -0.200079 0.0592614 0 0.748969 -0.662605
0.0115543 -0.34193 0.0105537 1 0 0
-0.000907907 -0.309556 0.0275587 -0.410668 -0.9101 -0.0554085
-0.00890121 0.149747 0.232981 -0.984791 0.159629 -0.0685885
-0.00390413 -0.215889 0.0764256 0.707542 0.549965 -0.44376
-2.92912e-05 0.171069 0.386096 0 -0.15552 -0.987833
0.00559102 0.454664 0.153754 1 0 0
0.0115287 -0.407848 0.274505 0.748201 0.413028 -0.519233
-0.0332216 0.148042 0.166223 0 0.996021 0.089116
0.00225801 0.45177 0.133505 -0.669344 -0.731434 0.130323
-0.00821239 0.149158 0.400265 -0.865761 0.077833 0.494368
0.00729119 0.215386 0.174019 0.712236 0.687841 -0.139978
-0.00774174 0.297835 0.258773 -1 0 0
0.00978871 0.352019 0.283628 0.812102 0.0152733 0.583315
-0.00412624 -0.456236 0.0739456 -0.757101 -0.57414 -0.311707
-0.0362841 0.0927238 0.155986 -1 0 0
0.0115543 -0.33879 0.306673 1 0 0
0.0289627 0.316275 0.201037 -0.87315 -0.359985 -0.328663
-0.00877824 0.085352 0.406508 -0.984784 -0.0270274 -0.17167
0.0101188 0.455542 0.202631 0.712369 -0.616763 -0.334864
-0.00161877 -0.250601 0.017967 0 0.477123 -0.878836
0.00559102 0.380177 0.037359 1 0 0
-0.00076472 0.258285 0.0643077 0 0.76267 0.646787
0.0120541 0.204028 0.489656 0.985264 -0.169941 0.0193629
0.00559102 0.236196 0.0832298 1 0 0
0.000511582 -0.399395 0.0465334 0 -0.57785 -0.816143
-0.00645651 -0.216763 0.364831 -0.765616 -0.615768 0.186178
-0.0632733 0.028489 0.162607 0 -0.99955 0.0300059
-0.00774174 0.411614 0.24283 -1 0 0
-0.0332146 0.122619 0.180871 0 0.262311 0.964983
0.0173777 0.224712 0.152792 -0.971034 0.182952 0.153691
-0.034094 0.351343 0.128743 -0.998104 -0.0467671 0.0400234
-0.00440717 0.448568 0.1975 0.669449 0.703632 0.238202
0.00571312 -0.0330212 0.429049 0.86572 0.0778433 0.494438
0.00559102 0.452015 0.154988 1 0 0
-0.00364988 -0.125319 0.301012 -0.337301 0.43183 0.836511
-0.000251268 0.198671 0.127257 0 -0.989017 -0.147804
-0.00673175 0.454612 0.198634 -0.707964 -0.620673 -0.336974
0.0115543 -0.411817 0.042098 1 0 0
-0.000729577 -0.0101224 0.225212 0 -0.458716 -0.888583
0.0115543 -0.181308 0.115971 1 0 0
-0.0320616 -0.307519 0.186421 0.975477 -0.190874 0.109602
0.0835162 0.198063 0.14123 1 0 0
0.000780039 -0.381715 0.0435272 0 0.356734 0.934206
-0.0600989 0.110484 0.159335 -0.97824 0.205477 -0.028742
-0.0315764 0.110247 0.142559 1 0 0
-0.0376103 0.302212 0.110657 -1 0 0
-0.0743058 0.0110145 0.162971 0.70709 -0.702578 0.0800434
-0.0328513 0.106414 0.201614 0 0.336096 -0.941828
0.00205789 0.31332 0.00759517 0 -0.199356 -0.979927
0.111744 -0.282238 0.520407 0.0786612 -0.167441 0.982739
-0.0409825 0.125415 0.114477 0.992253 -0.061606 0.107885
0.004754 0.0798919 0.412952 0.865735 0.0778391 0.494413
0.00965745 -0.422238 0.0400096 0.839661 -0.35988 -0.406762
0.00481718 -0.116687 0.44379 0.865735 0.0778391 0.494413
0.00667239 0.385221 0.0131366 0.812051 0.185166 -0.553432
-0.105308 -0.291494 0.507099 0 0.990839 0.135045
-0.104683 -0.25358 0.518703 -0.641764 0.277653 0.714876
-0.00646578 -0.278057 0.291434 -0.744056 -0.244868 -0.621627
-0.00400775 -0.43758 0.0837597 0.709855 -0.590099 -0.384564
-0.00941303 -0.460434 0.0986645 -1 0 0
-0.00129112 0.22231 0.391828 0 0.993569 -0.113229
-0.00307164 -0.4338 0.0937066 0 0.899555 0.436807
-0.0182696 0.099348 0.15218 0 -0.833811 -0.55205
-0.0312394 0.327758 0.125579 0 -0.993571 0.113214
0.000667389 0.400366 0.0546559 0.375511 0.798447 0.470611
0.0101178 -0.250324 0.0228817 0.83973 0.259108 -0.477196
-0.000941352 -0.270167 0.00943571 0 0.317314 -0.948321
-0.00161183 0.218709 0.391958 0 0.446359 0.894854
-0.00190812 -0.204635 0.356671 -0.172734 0.942817 -0.285059
-0.0140362 0.10394 0.146378 0 -0.725598 -0.688119
0.00439908 0.138532 0.14609 0 0.68846 -0.725274
-0.00127134 0.132745 0.212654 0 -0.918776 0.394779
-0.00434025 0.124704 0.394052 -0.341359 -0.146179 -0.928497
0.00719577 -0.439268 0.234778 0.748188 0.565714 -0.346673
-0.0500688 0.122364 0.165422 0.914141 -0.142034 0.379701
0.00263261 0.48 0.134206 0 0.999656 -0.0262166
-0.00163359 0.248529 0.0608595 0 0.662634 0.748943
0.0126196 0.369674 0.142668 0.375396 0.0254846 -0.926514
0.0113504 0.198962 0.483933 0.99278 -0.119181 0.0135739
-0.00527773 -0.0873871 0.440993 -0.642497 0.119174 0.756964
0.00633133 -0.366217 0.0316196 1 0 0
0.00202582 0.452856 0.145426 0 -0.997182 -0.0750193
0.0446014 -0.307056 0.186853 0.971563 -0.143511 0.188333
0.00875955 0.357694 0.284355 0.812107 0.116325 0.571796
-0.00941303 -0.470982 0.180319 -1 0 0
-0.00739139 -0.382653 0.0163988 -0.757086 -0.239456 -0.60785
0.0222534 -0.325025 0.142032 1 0 0
0.010814 0.222388 0.0858241 1 0 0
0.00424018 0.424317 0.034031 0 0.622501 -0.782619
0.005144 -0.153189 0.448964 0.86572 0.0778433 0.494438
0.00366472 -0.310111 0.032713 -1 0 0
0.00283608 0.397925 0.275561 0 0.366518 0.930411
0.0019182 0.474636 0.186706 0 0.948311 0.317343
-0.00859795 0.433069 0.234516 -0.707918 -0.552737 -0.439698
-0.0044312 -0.253035 0.0540333 0.706637 -0.422856 0.567325
0.010814 0.207357 0.133551 1 0 0
0.00833189 0.199724 0.151928 0.812053 -0.583383 0.0152996
-0.000976382 -0.389945 0.039842 0 -0.57785 -0.816143
-0.0326349 0.252286 0.105017 -0.99553 -0.0221528 -0.0918072
0.113816 -0.325978 0.472684 0 -0.999522 0.0309144
0.000758135 -0.368207 0.0383691 0 0.356734 0.934206
-0.00378662 0.0101614 0.426287 -0.341671 0.146163 0.928384
0.014125 0.246008 0.333702 0.0270966 0.865251 0.500607
0.00309383 0.239329 0.4396 0.865822 0.470115 -0.1713
0.00559102 0.320633 0.258193 1 0 0
-0.0101533 0.434224 0.0535986 -1 0 0
0.00574602 0.261252 0.0283822 0 -0.522487 -0.852647
-0.0328638 0.349491 0.128819 0.0437217 -0.652882 0.756197
0.00192585 0.225545 0.198082 0 0.930422 -0.36649
-0.00387065 0.132726 0.142019 0 0.398716 -0.917074
-0.00745308 -0.346256 0.00602956 -0.757089 -0.130244 -0.640197
0.00913165 -0.233037 0.266998 0.748213 -0.439627 -0.496896
-0.00376509 -0.0367737 0.239459 -0.337748 -0.43176 -0.836367
-0.111004 0.0319249 0.161963 0 0.233569 -0.97234
-0.00309283 0.0145123 0.410941 -0.341359 -0.146179 -0.928497
0.0027307 0.224063 0.230326 0 -0.852658 0.522469
-0.00647546 0.15693 0.26363 -0.642634 -0.703942 0.302467
-0.0315764 0.127721 0.121681 1 0 0
-0.0315764 0.12143 0.138586 1 0 0
0.0105506 0.472325 0.174007 0.81209 0.577125 0.0862305
-0.00182493 0.248047 0.217477 0 0.850823 -0.525453
-0.0044243 -0.167323 0.496856 -0.765825 0.622095 -0.162816
-0.010301 -0.314157 0.155175 1 0 0
0.00633133 -0.452664 0.125169 1 0 0
-0.00700143 -0.407563 0.0504976 -1 0 0
0.0150891 0.0962357 0.166767 0 -0.993574 0.113184
-0.00104563 -0.209681 0.176927 -0.678352 -0.0425277 0.733505
-0.00789422 -0.181513 0.483182 -0.765894 -0.623133 0.158466
0.0114622 -0.373356 0.139798 0.899625 -0.00229695 -0.436657
-0.00168608 -0.206171 0.0915363 0 0.909955 -0.414707
0.0471024 0.217766 0.143679 0.952668 -0.30206 0.0344131
-0.0137191 0.218994 0.387732 -1 0 0
0.0064195 -0.0813054 0.433752 0.984775 0.0270349 0.171717
0.0115543 -0.391291 0.285761 1 0 0
0.0085248 -0.172291 0.478571 0.939624 0.327163 -0.100357
0.0168858 -0.330002 0.156228 -0.138507 -0.161685 -0.977074
0.0105638 0.262392 0.0340395 0.812089 -0.304879 -0.497554
-0.00700143 -0.211422 0.215149 -1 0 0
-0.10378 -0.319881 0.486205 1 0 0
0.0420653 0.328712 0.134057 0.632192 -0.207561 -0.746493
-0.00495983 0.427272 0.229437 0.669243 0.501979 0.547842
-0.00405393 0.209036 0.38067 -0.341359 -0.146179 -0.928497
0.112928 -0.265287 0.450724 0.06232 -0.0831367 -0.994588
0.00396333 -0.255368 0.0153791 0 0.477123 -0.878836
0.00658101 0.277672 0.125726 -0.37622 0.319023 -0.869875
-0.0196595 0.192986 0.152612 0.00111578 -0.124439 -0.992227
0.0214567 0.125304 0.139629 0 0.233561 -0.972342
-0.00694356 -0.433081 0.265025 -0.75709 -0.489302 0.432896
0.00868221 0.296418 0.108129 0.126581 -0.694455 0.708314
-0.00415888 -0.353351 0.0335999 0.709986 0.166737 0.684192
-0.000697217 0.272153 0.0454539 0 -0.577835 -0.816154
-0.00700143 -0.197094 0.129444 -1 0 0
0.00611929 0.0146767 0.218619 0.984334 -0.0808788 -0.156672
-0.0394268 0.156217 0.176255 -1 0 0
0.00516645 -0.445184 0.0932922 0 0.878782 0.477224
-0.0073256 0.457894 0.0757476 -0.721827 0.590074 -0.361633
-0.00669471 -0.226882 0.330385 -0.765616 -0.615768 0.186178
0.0199842 0.112735 0.188354 0 -0.398624 0.917114
0.0010249 -0.380023 0.279158 0 -0.49241 0.870363
-0.0119003 0.315425 0.114092 -0.638981 -0.6887 0.342629
-0.0342156 0.109445 0.153189 -1 0 0
-0.000661671 -0.426963 0.243625 0 -0.693404 0.720549
-0.00791084 -0.308114 0.21942 -0.676773 -0.6789 0.284732
-0.0744502 -0.235465 0.518513 0.126106 -0.547602 0.827181
-0.0423382 0.0737862 0.181128 -0.691474 -0.277057 -0.66716
0.00617611 0.117257 0.16161 0.984781 -0.159683 0.0686114
-0.00524465 0.31474 0.266958 0.669272 -0.193561 0.717363
0.0027835 0.242235 0.0687185 0 0.782608 0.622515
0.00601365 -0.381567 0.103206 -0.89921 -0.195395 0.391462
-0.00700143 -0.267207 0.275047 -1 0 0
-0.000609693 -0.115855 0.44658 0 0.155523 0.987832
-0.0394268 0.0798231 0.180849 -1 0 0
0.0236031 0.0963339 0.164649 0.267535 -0.961739 -0.0590206
-0.0093168 0.267237 0.488196 0 0.150364 0.988631
-0.0092481 -0.443964 0.248693 -0.75709 -0.489302 0.432896
0.107045 -0.307668 0.503545 -0.923933 -0.0971911 -0.370003
-0.0338354 0.108489 0.214786 0 0.899097 0.437749
-0.00700143 -0.201012 0.132599 -1 0 0
0.00555585 -0.480121 0.164503 0 -0.999656 0.0262123
-0.000904625 0.188176 0.341659 0 -0.918776 0.394779
-0.000339559 -0.347885 0.312739 0 -0.147821 0.989014
-0.00235591 -0.209666 0.343271 5.71408e-05 -0.794138 0.607737
0.00907945 0.206568 0.495414 0.367827 0.00859427 0.929854
0.00292441 0.240289 0.203342 -1 0 0
-0.00774174 0.229045 0.0969375 -1 0 0
-0.00448598 -0.314 0.0184224 -0.744102 -0.0987317 0.66073
0.00201483 0.208413 0.380915 0.34134 -0.146182 -0.928503
-0.106586 0.0172993 0.160627 0 0.812153 -0.583444
0.00555902 -0.235638 0.264389 0 -0.662629 -0.748948
0.00317013 -0.448399 0.181599 -0.707374 0.674858 -0.210211
-0.00864711 0.203369 0.361593 -0.984791 -0.159629 0.0685885
0.001013 -0.184842 0.16469 0 -0.999657 0.0261783
-0.011267 -0.329647 0.163667 0.309778 -0.222155 0.924492
0.0214852 0.24848 0.470224 0.638564 -0.507237 -0.578746
-0.0281284 0.329511 0.134778 0.398202 -0.774791 0.491055
-0.00744316 -0.455022 0.210436 -0.744058 0.621625 -0.244868
-0.00529098 0.0186373 0.42429 -0.642497 0.119174 0.756964
0.0437505 -0.326167 0.144529 0.0190081 -0.11351 -0.993355
0.00720987 0.219381 0.0718098 0.81214 -0.512751 -0.278414
0.0267521 -0.230339 0.304584 -0.764449 -0.204276 -0.611465
-0.0335624 0.155345 0.123992 0.94705 0.218368 -0.235395
-0.00668283 -0.222768 0.319504 0.760905 -0.207067 -0.614937
0.00571413 -0.275933 0.0838787 -0.13648 -0.830537 -0.539983
-0.104111 -0.321006 0.454824 0.707186 0.705815 -0.0413854
-0.00410595 -0.377293 0.0776376 -0.899375 0.277021 -0.338208
-0.0334946 0.198556 0.109659 -0.992003 0.0686344 -0.105923
-0.0183798 0.108929 0.186575 0 -0.551959 0.833871
-0.00970084 0.450749 0.0816393 -0.708019 -0.602115 0.369008
-0.0328619 -0.246488 0.304134 -0.926566 -0.314926 0.205662
-0.00888885 0.209245 0.371274 -0.984791 0.159629 -0.0685885
0.00121507 -0.390551 0.0582864 0.990291 0.0771607 0.115628
-0.00464561 -0.173703 0.110139 -0.757065 0.607881 -0.239443
0.0161548 -0.231299 0.512315 0 -0.833652 -0.55229
-0.0338934 0.344395 0.123421 -1 0 0
-0.0543607 0.0445214 0.162051 0.998581 0.0532353 -0.0015981
0.0102046 -0.330194 0.0147847 0.748227 0.0173584 0.663216
0.043675 0.219656 0.150101 0 0.113204 0.993572
-0.0386334 -0.2872 0.215551 -0.999113 0.0213758 0.036281
-0.00814196 -0.1741 0.190986 -0.757058 0.64617 0.0965787
0.00806453 -0.460515 0.083357 0.839684 -0.477272 -0.259116
0.000516126 0.407528 0.270605 0 0.522498 0.85264
-0.00579943 -0.190085 0.189461 0 0.947208 0.320619
0.0273991 -0.235344 0.31964 0.707849 0.0219315 0.706023
-0.00514224 0.18917 0.397568 -0.642497 0.119174 0.756964
-0.0458514 0.123136 0.177849 -0.98752 0.0653102 0.143313
-0.0314616 0.31215 0.166627 -0.0128729 0.242164 0.97015
-0.00498803 0.241132 0.224685 -0.708014 0.528897 -0.467957
-0.00774174 0.253515 0.0615186 -1 0 0
0.00452672 -0.458115 0.131977 -0.706677 -0.693332 -0.141062
-0.0137191 0.216081 0.386622 -1 0 0
0.00719252 0.440042 0.245149 0.812042 0.38672 0.437076
0.0113776 -0.321521 0.198148 -0.410818 0.90859 -0.0754495
-0.016138 0.337604 0.152697 0 -0.0609544 0.998141
-0.0485661 0.113317 0.165074 -1 0 0
-0.00433481 -0.449517 0.107051 1 0 0
-0.0414189 0.338708 0.134578 0.339246 -0.0625265 -0.938618
-0.00727223 0.244475 0.0450307 -0.721831 -0.458589 -0.51832
0.00607874 -0.440639 0.200421 0.707142 0.675078 -0.210284
0.0140596 -0.325805 0.133923 -1 0 0
0.00238356 0.283 0.0167105 0 -0.366566 -0.930392
-0.0505326 0.113906 0.160841 0.990607 -0.135419 0.0189422
0.00547416 0.477408 0.118422 0 0.979929 -0.199346
-0.0358734 0.316615 0.145037 0.633777 0.19736 0.747914
-0.0342792 0.105442 0.19452 0 0.792534 0.609827
0.00559102 0.224574 0.155494 1 0 0
0.010814 0.407612 0.260794 1 0 0
0.00986624 -0.453691 0.214608 0.748191 0.617316 -0.243171
-0.00178781 -0.384625 0.0369233 0 -0.356741 -0.934203
0.00368079 -0.415554 0.126836 -0.410506 0.313844 -0.856146
-0.00736203 -0.0669452 0.426671 -0.86584 -0.0778112 -0.494233
-0.00700143 -0.290239 0.0307711 -1 0 0
0.00222231 -0.211346 0.0827563 0 0.778247 -0.627958
-0.00500583 0.429576 0.254848 -0.721845 0.458588 0.518302
-0.0082553 -0.331545 0.309912 -0.757069 0.0171013 0.653111
0.00976526 0.278427 0.0326346 0.712378 0.366688 0.598379
-0.0362841 0.143775 0.152163 -1 0 0
-0.0307298 0.295961 0.110599 0 -0.993588 0.113061
-0.00700143 -0.448177 0.207158 -1 0 0
0.0107721 0.205404 0.120837 0.812092 -0.577119 -0.0862545
-0.00399656 -0.449391 0.205698 0.707076 -0.675148 0.210282
0.00298111 0.215867 0.134218 -0.66882 -0.728496 -0.148233
-0.03445 0.0615409 0.15904 0 -0.122316 -0.992491
-0.00930296 0.133418 0.169423 -0.00171571 0.124342 0.992238
0.0013666 -0.304514 0.0207714 0 -0.147787 0.989019
0.0108308 -0.417151 0.276761 0.839705 -0.338053 0.424989
-0.00298271 0.237536 0.0926474 0 0.899544 0.436831
0.0035051 -0.411713 0.0543835 -0.707291 -0.408495 -0.57695
-0.0756142 0.0153252 0.159901 0 -0.11316 -0.993577
-0.00865147 0.00682323 0.223245 -0.984333 -0.0808799 -0.156674
0.00138876 -0.448635 0.206339 0 -0.95476 0.297377
0.00319461 0.435139 0.222413 -0.669742 0.622095 0.405516
0.109104 -0.315506 0.522591 0 0.253857 0.967242
0.00559102 0.434665 0.081702 1 0 0
0.0272564 0.14519 0.163194 0.521609 0.8477 -0.0965848
0.00633133 -0.196754 0.147959 1 0 0
0.00633133 -0.225284 0.0714263 1 0 0
-5.86736e-05 -0.0628048 0.422916 0 -0.15552 -0.987833
0.00633133 -0.361374 0.0335084 1 0 0
0.00512158 0.20875 0.380899 0.865735 -0.45985 0.197588
0.00987495 -0.225565 0.328732 -9.88417e-05 0.262799 0.964851
-0.0270331 0.342928 0.120463 0.758202 0.647827 -0.0738218
0.0106673 0.459072 0.196397 0.71245 -0.66545 -0.222691
0.0214777 -0.232457 0.325139 0.586898 -0.218889 0.779512
5.33517e-05 0.216335 0.16769 0 0.979915 -0.199416
-0.00399368 -0.416265 0.0583217 0.70661 -0.539678 -0.457657
0.00914437 0.350075 0.284576 0.812102 0.0152733 0.583315
-0.00958365 0.151008 0.16646 0.633918 0.197366 0.747793
0.0172079 0.334801 0.152054 0 -0.233599 0.972333
0.00335679 0.199855 0.119336 0 -0.989017 -0.147804
-0.00863251 -0.191677 0.429365 -1 0 0
0.000683207 -0.478771 0.135923 0 -0.989009 -0.147852
-0.010301 -0.330587 0.14388 1 0 0
-0.00497265 -0.151175 0.437718 -0.341722 -0.146161 -0.928366
-0.00417492 -0.408968 0.249954 0.707285 0.49019 -0.509373
0.0277387 0.255686 0.152649 0.00244808 0.135167 0.99082
0.0299848 0.110712 0.145162 0.51583 -0.382322 -0.766648
-0.0101533 0.206378 0.172257 -1 0 0
0.00116632 0.250896 0.220699 0 0.693373 -0.720578
-0.00941303 -0.290565 0.302779 -1 0 0
-0.00268459 0.475672 0.18361 0 0.948311 0.317343
-0.0130305 -0.346537 0.166449 -0.137944 0.392946 0.909156
-0.0183533 0.279187 0.486378 0 0.150403 0.988625
-0.00886723 0.368927 0.0127166 -0.721785 0.102344 -0.684509
-0.0374151 0.179391 0.197084 0.999871 0.0154013 0.00460071
-0.00700143 -0.330579 0.022043 -1 0 0
-0.05824 0.03004 0.159222 0 -0.0146532 -0.999893
-0.00128534 -0.21096 0.21655 0 -0.837718 -0.546103
-0.00700143 -0.192266 0.140985 -1 0 0
-0.00508298 0.432841 0.0845786 0.669237 -0.578292 0.466584
-0.0145084 0.352818 0.134815 0 0.958802 -0.284076
0.0177327 0.230509 0.490727 0.896738 -0.170129 0.408554
-0.0315764 0.0799736 0.13838 1 0 0
-0.0364048 0.173165 0.154073 0 0.413668 0.910428
0.0082021 -0.247283 0.152391 0.899413 0.141116 0.413694
-0.00462682 -0.431384 0.219673 0.707172 0.601554 -0.371537
0.00781844 0.394431 0.0178997 0.812068 0.185167 -0.553407
-0.00488005 -0.445437 0.0606993 -0.757114 -0.511268 -0.406673
-0.017689 -0.326677 0.13253 0 -0.113241 -0.993568
0.0389473 0.118492 0.171144 0 -0.598366 0.801223
-0.00869493 -0.455418 0.0835342 -0.757055 -0.574177 -0.311752
0.0220054 -0.315517 0.136445 0.617236 0.434181 -0.65613
-0.0394268 0.129998 0.212526 -1 0 0
0.00792025 0.332139 0.274013 0.712402 -0.018345 -0.701532
-0.04361 0.131373 0.167484 0.976317 -0.214954 0.0244982
