-0.00774174 0.270279 0.0518767 -1 0 0
-0.00941303 -0.408347 0.277297 -1 0 0
-0.00390574 -0.182258 0.50872 -0.642721 -0.0867275 -0.761175
-0.00367844 -0.222231 0.252431 -0.744026 -0.522889 -0.415948
-0.0062111 0.17987 0.496539 0 0.020811 0.999783
0.00837224 0.299306 0.108991 -0.378566 0.676387 -0.631813
-0.0315764 0.145292 0.202871 1 0 0
0.0396026 -0.277858 0.25039 0.749621 -0.571148 0.334454
-0.105568 -0.298759 0.477923 -0.0619328 -0.965976 -0.251108
0.00493055 -0.209975 0.267357 0 0.662598 0.748976
0.00444156 -0.39601 0.211385 -0.410859 0.597319 0.688771
0.00633133 -0.418237 0.24274 1 0 0
0.00553755 0.160437 0.391952 0.865814 -0.0778187 -0.494277
-0.00142462 0.0204592 0.409807 0 -0.15552 -0.987833
-0.00941303 -0.180615 0.127732 -1 0 0
0.00639253 0.127725 0.400997 0.984775 0.0270349 0.171717
0.0429187 -0.312603 0.184675 0.721845 -0.568359 0.39485
0.00526247 0.479308 0.127761 0 0.979929 -0.199346
-0.0735819 0.0463807 0.159878 1 0 0
-0.00700143 -0.385909 0.0435375 -1 0 0
-0.00884367 0.074289 0.189624 -0.984333 -0.0808799 -0.156674
-0.00811869 0.354407 0.0968827 0.879164 -0.475778 -0.0265704
-0.00881022 -0.275459 0.0218888 -0.744119 -0.211978 0.633524
0.011455 -0.254783 0.0304086 0.748263 -0.31655 0.583008
-0.0391995 0.191812 0.19591 -0.0103308 0.259555 0.965673
0.0205355 0.193402 0.159342 0.85622 -0.0727931 0.511458
0.00779688 0.388211 0.116281 -0.121783 -0.498874 -0.858075
-0.00700143 -0.448173 0.19644 -1 0 0
0.027572 0.284065 0.261209 0.981964 0.0682184 0.176333
0.00618795 0.386173 0.204553 0.988054 0.0953913 0.121032
-0.00568232 0.376312 0.252281 0.669377 -0.175946 -0.721788
0.00953128 -0.263629 0.151987 0.134648 -0.0164869 -0.990756
-0.00700143 -0.191926 0.166991 -1 0 0
0.0215131 0.333767 0.134387 1 0 0
-0.0110413 0.341893 0.128763 1 0 0
-0.0203843 0.176554 0.15674 -0.85423 -0.199688 -0.480017
-0.0315764 0.15821 0.140945 1 0 0
-0.00433114 -0.472433 0.110179 -0.757052 -0.619587 -0.207326
-0.0352904 -0.272892 0.223273 -0.749618 0.562429 -0.348922
0.117917 -0.291547 0.510423 0.993707 -0.10154 0.0472805
-0.0413994 0.0661355 0.165864 -0.542419 -0.840102 -0.00326699
0.0279447 -0.23732 0.318874 0.626336 -0.158827 0.763202
-0.0394268 0.15228 0.194693 -1 0 0
-0.00706871 -0.316907 0.299164 -0.744064 -0.0174815 -0.667879
0.010814 0.379211 0.274024 1 0 0
-0.00894758 0.334362 0.283921 -0.721803 0.0181154 0.691862
0.0008705 -0.374672 0.261187 -0.40978 0.845472 0.342429
0.0860188 0.218797 0.146973 0.93633 0.348865 -0.0397455
-0.00602103 0.214847 0.13556 0 -0.979934 -0.199323
0.0122909 0.159947 0.165638 0.340655 0.0714647 0.937469
0.0032143 -0.379146 0.284046 0 0.477131 -0.878832
-0.0145722 -0.319881 0.175276 -0.899096 -0.370844 0.232595
6.67749e-05 -0.262536 0.302624 0 0.366502 0.930417
-0.00131062 -0.374838 0.0296149 0 0.366468 0.930431
0.00480595 -0.313959 0.0708785 -0.89986 0.398647 0.177012
-0.00453093 0.398925 0.192193 0.374716 0.517588 -0.769214
0.000742814 0.408712 0.0437282 0 -0.622498 0.782621
0.000571669 0.146751 0.244829 0.341653 -0.86349 0.371024
0.0222534 -0.315708 0.146697 1 0 0
0.010814 0.251488 0.250433 1 0 0
0.00828594 -0.406363 0.0435489 0.748252 0.346622 0.56566
0.0062433 0.17557 0.296359 0.984781 -0.159683 0.0686114
0.00521623 0.416824 0.264908 0 0.522498 0.852641
0.0264357 0.263357 0.473417 0.965291 -0.259497 0.0295672
0.0104237 -0.332465 0.310331 0.839696 -0.0802752 0.53709
-0.00767711 0.376488 0.0297426 -0.668528 0.282227 -0.688054
0.00859918 -0.461664 0.183678 0.74822 0.650133 -0.132264
0.0435023 0.220989 0.13681 -0.831644 0.20846 -0.514698
-0.0110975 0.378549 0.132898 -0.637583 -0.118499 -0.761213
0.00256044 0.21518 0.162016 0 0.979915 -0.199416
-0.00507238 -0.168452 0.13581 -0.757085 0.640201 -0.130254
-0.0070344 0.460787 0.158158 -0.669066 0.74111 0.0557338
0.00561021 -0.071448 0.261592 0.862623 -0.232039 -0.449487
0.010814 0.222196 0.089087 1 0 0
-0.00700143 -0.200282 0.210438 -1 0 0
0.00195265 -0.292121 0.0334161 0 -0.137439 0.99051
0.0323732 0.284525 0.139362 -0.00262156 -0.135139 -0.990823
-0.00700143 -0.29201 0.28363 -1 0 0
-0.0129331 -0.325091 0.138039 0.990291 0.016469 0.13803
0.0182754 0.35201 0.144141 0 0.916947 0.399008
0.00633133 -0.443048 0.196165 1 0 0
-0.00320086 -0.0433669 0.420093 -0.341359 -0.146179 -0.928497
0.0117167 0.207841 0.382139 1 0 0
0.014915 0.333297 0.152646 -0.638715 -0.644556 -0.420227
0.00238381 0.0329531 0.218833 0.337302 0.431831 0.83651
-0.0064171 -0.116461 0.294611 -0.636949 0.353625 0.685015
0.0426975 -0.291295 0.207463 0.999998 -0.00107733 -0.00182858
-0.0307204 0.346301 0.158791 1 0 0
0.0415511 0.115391 0.165854 0 -0.938109 0.346341
0.0326257 -0.247845 0.264935 -0.749564 0.561481 -0.35056
-0.00118366 0.220909 0.379533 0 0.99357 -0.113216
-0.00774174 0.397946 0.25049 -1 0 0
-0.0074338 0.235774 0.0537533 -0.721829 -0.541622 -0.430823
0.000656201 -0.227275 0.282661 0 0.662598 0.748976
-0.0308815 0.263513 0.153083 -0.00119049 0.124423 0.992229
-0.00438289 0.158906 0.236903 -0.341945 0.863394 -0.370978
-0.0785974 0.016653 0.15975 0 -0.11316 -0.993577
-0.00642162 -0.192602 0.444887 -0.765616 -0.615768 0.186178
0.00575614 -0.0541785 0.259727 0.862597 0.232059 0.449528
-0.00722262 -0.455087 0.104781 -0.744039 0.633614 0.211989
0.0360503 0.318007 0.19928 0.972605 -0.232451 0.00238494
-0.0325335 0.358741 0.12705 0 -0.397194 -0.917735
0.00733482 0.274495 0.156412 0.12279 -0.200007 -0.97207
-0.00814152 0.230224 0.214443 -0.707946 0.602196 -0.369015
0.00633133 -0.361643 0.279561 1 0 0
-0.00571956 0.234874 0.445929 -0.865979 -0.469865 0.171195
-0.00941303 -0.424279 0.263494 -1 0 0
-0.00774174 0.277109 0.247075 -1 0 0
0.0115543 -0.17564 0.165002 1 0 0
0.0048577 -0.445359 0.133527 0 0.979927 0.199357
-0.0340532 0.0687263 0.139057 0 -0.64906 0.760737
-0.00306676 0.243885 0.0812867 0 0.76267 0.646787
-0.104331 -0.312198 0.502677 0 -0.254409 -0.967097
0.00932273 -0.279766 0.0093431 0.839707 0.172314 -0.514976
-0.00545803 -0.359787 0.0221363 -0.74411 0.133209 0.654642
-0.0394268 0.0820577 0.179389 -1 0 0
-0.0394268 0.0794181 0.156682 -1 0 0
-0.0352449 -0.251432 0.269361 -0.982847 0.171285 -0.0683611
-0.0292194 0.274968 0.275203 -0.98098 0.0639643 0.183269
-0.00162904 -0.278862 0.250001 0.13799 -0.902687 0.407572
0.00654625 0.304041 0.0256767 0.712341 0.139952 0.687738
-0.00858968 -0.171739 0.481307 -0.631477 0.416556 0.654002
-0.00302034 0.439722 0.246404 0 0.662647 0.748932
-0.00348166 0.0692115 0.402473 -0.341359 -0.146179 -0.928497
0.0149844 -0.34956 0.161297 0.677924 0.0395427 0.734068
-0.00850907 0.125846 0.183151 -0.984792 -0.159629 0.0685884
-0.043492 0.345129 0.156672 -0.0275525 0.86935 0.493428
0.00847993 0.187758 0.478399 0.380035 -0.205096 -0.901947
-0.00197804 -0.23775 0.222864 -0.898826 0.355849 -0.255896
0.00633133 -0.249957 0.0555497 1 0 0
-0.00309992 0.252765 0.18418 -0.638715 0.225682 0.735602
-0.00661744 0.330229 0.0797777 0.128753 -0.981968 0.138426
-0.00136784 -0.245853 0.272017 0 -0.522502 -0.852638
-0.0315764 0.155033 0.151476 1 0 0
0.00559102 0.441331 0.208258 1 0 0
-0.00298551 -0.440851 0.229336 0 0.852638 -0.522502
-0.032171 0.134396 0.16318 -1 0 0
0.00633133 -0.307778 0.023436 1 0 0
0.0348123 -0.275756 0.223089 -0.915771 0.292148 -0.275706
-0.00578312 0.135957 0.162136 0.856089 0.0754883 -0.511285
-0.00700143 -0.220428 0.231429 -1 0 0
0.00588701 -0.460349 0.153717 0.707643 -0.705667 0.0357192
0.00414277 0.422931 0.0550385 0 -0.622498 0.782621
0.00296034 -0.0414733 0.242723 0.636943 -0.353626 -0.68502
0.00834765 -0.395029 0.133744 0.990292 -0.133263 -0.0395383
0.0288146 0.307154 0.227221 0.0267933 0.865277 0.500578
-0.00427809 -0.168508 0.454235 -0.341671 0.146163 0.928384
0.00518505 -0.0991071 0.275054 0.862553 -0.232095 -0.449594
-0.00700143 -0.334385 0.287758 -1 0 0
0.00383735 0.139392 0.223233 0.642431 -0.704098 0.302537
0.0107542 0.328022 0.0171439 0.712356 0.0183427 0.701578
-0.00110259 0.177171 0.385135 0 -0.15552 -0.987833
0.00586624 0.346278 0.0774157 -0.373421 0.911509 0.172358
-0.0631677 0.0286744 0.160862 0 -0.781164 -0.624326
-0.00774174 0.332432 0.0250931 -1 0 0
-0.00774174 0.292551 0.0367085 -1 0 0
0.00143163 0.276574 0.0192424 0 -0.366566 -0.930392
-0.00774174 0.437311 0.203596 -1 0 0
-0.00915734 0.475129 0.159786 -0.721802 0.684501 0.102274
-0.0208303 0.237083 0.47596 -0.97339 -0.22768 0.0259374
0.00867206 0.213518 0.120672 0.71235 0.694118 0.103719
-0.00700143 -0.278068 0.040712 -1 0 0
-0.00802716 -0.199391 0.335016 -0.862597 0.232059 0.449528
-0.0405974 0.145581 0.11104 0.072159 -0.0866199 -0.993625
0.0115543 -0.184749 0.104495 1 0 0
-0.0289554 -0.246511 0.310231 -0.321643 -0.584431 0.744974
0.00366472 -0.278431 0.284968 -1 0 0
0.00688431 0.459998 0.219452 0.81204 0.512884 0.278461
0.00531413 0.145409 0.401656 0.865735 0.0778391 0.494413
0.00459464 0.278696 0.189603 -0.637543 -0.38393 -0.667935
-0.00507516 0.228832 0.173482 1 2.33371e-06 5.12845e-06
-0.00223956 -0.440573 0.26191 0 -0.748978 0.662595
0.00663527 -0.25917 0.18627 -0.990291 -0.126295 -0.0580746
-0.00543245 0.254075 0.0545686 -0.707967 0.467979 0.528941
-0.00321713 -0.230395 0.171733 -0.137368 0.203912 -0.969304
0.00776612 0.288274 0.263645 0.712367 0.222696 -0.665537
0.00556067 0.105254 0.177798 0.862577 0.232074 0.449557
-0.0199939 0.131363 0.141427 0 0.398716 -0.917074
-0.0259954 -0.272912 0.251604 0.91144 -0.402748 0.0840916
0.00649765 -0.245754 0.152894 -0.409688 -0.0249561 0.911884
0.0817708 -0.231641 0.509837 0.225974 0.537495 -0.812425
0.0128846 -0.290888 0.170887 0.136436 0.43188 -0.891552
-0.0574085 0.0838481 0.158003 0 -0.0864944 -0.996252
-0.00700143 -0.423487 0.241824 -1 0 0
0.00559102 0.449782 0.181886 1 0 0
-0.00700143 -0.307934 0.281908 -1 0 0
0.00585146 0.248715 0.491013 0 0.150364 0.988631
-0.00507512 0.439838 0.0976596 1 0 0
0.00621721 0.0378174 0.416158 0.984784 0.0270271 0.17167
-0.0326621 0.125852 0.17969 0 0.451516 0.892263
-0.00420024 -0.152683 0.314916 -0.337301 0.43183 0.836511
0.00635189 0.223773 0.196963 0.712307 0.653033 -0.257227
0.00292441 0.448971 0.125169 -1 0 0
-0.00774174 0.361417 0.263127 -1 0 0
0.00854275 0.326123 0.27395 0.712385 0.103736 -0.69408
-0.0017042 0.456432 0.106596 0 -0.930425 0.366483
-0.00490571 -0.254344 0.261045 0.707051 -0.333091 -0.623802
-0.00273339 -0.160965 0.438435 -0.341722 -0.146161 -0.928366
0.0461466 0.337048 0.136163 0.384034 -0.669196 -0.636156
-0.0439217 0.319473 0.143464 -0.85603 -0.0754659 0.511388
0.00233536 0.342114 0.00517382 0 -0.0261879 -0.999657
0.049531 0.200997 0.149212 0.590281 0.802 -0.0914562
0.00932444 0.280182 0.0320836 0.712378 0.366688 0.598379
0.010465 0.463325 0.0912935 0.812075 0.542958 -0.213845
-0.0101533 0.319393 0.0150607 -1 0 0
0.00467309 -0.220464 0.0382404 0 0.622516 -0.782607
-0.00487459 0.228221 0.11805 0.668847 0.728473 0.148227
-0.00756421 0.200429 0.361526 -0.865735 -0.459851 0.197586
-0.00941303 -0.192477 0.231907 -1 0 0
-0.0324518 0.150147 0.170418 0.947058 0.315263 0.0607524
-0.0101533 0.219864 0.201808 -1 0 0
-0.0430319 0.123248 0.148531 0.987522 -0.0313921 0.154323
-0.0010509 0.146432 0.167823 0 0.998137 0.0610045
0.0408987 -0.32582 0.159815 -0.273317 -0.853701 0.443274
0.0107162 0.33955 0.17872 -0.88015 0.45164 -0.146141
0.0127607 0.20892 0.492648 0.897431 -0.170548 0.406854
0.00980606 0.177438 0.489419 0.997637 -0.0682699 0.00778428
-0.00769327 0.220402 0.0988998 -0.707955 0.669765 0.224086
-0.0356059 0.318558 0.1127 -0.43405 0.101988 0.895097
-0.00511578 -0.470697 0.207705 -0.75711 -0.607822 0.239452
-0.008821 -0.24195 0.0383706 -0.744039 -0.415933 0.522881
-0.00390926 -0.212527 0.332949 -0.341906 0.899519 -0.271966
0.00430105 -0.320486 0.249657 -0.13807 0.989664 -0.0387417
-0.0192184 0.237265 0.336956 -0.84437 -0.51104 -0.160866
-0.00526665 0.430335 0.0653101 0.668412 0.578841 -0.467085
0.00633133 -0.212674 0.0910485 1 0 0
0.00361413 -0.462136 0.231399 0 -0.85264 0.522499
-0.014353 0.192471 0.157824 0.971871 0.17797 0.154254
-0.0094412 -0.327906 0.112811 0.899072 0.431296 0.0751902
-0.0322479 -0.282591 0.211077 0.71582 0.519222 -0.466915
-0.005319 0.214405 0.0809195 -0.721809 -0.608216 -0.33025
-0.0754255 0.035475 0.170151 -0.817398 -0.249288 0.519341
0.00633133 -0.440284 0.100669 1 0 0
-0.00346738 0.0841944 0.176891 -0.337748 -0.43176 -0.836367
0.00238882 -0.362949 0.00520315 0 -0.19936 -0.979926
-0.0508117 -0.225335 0.521214 -0.110593 0.112508 0.987477
0.111341 -0.323609 0.501669 -1 0 0
0.0117516 -0.218461 0.324542 0.939684 0.330019 -0.0898995
0.0111554 0.292976 0.483376 -0.303922 0.747789 0.59029
-0.00215467 0.361727 0.0278768 0 0.137431 -0.990511
0.00847463 0.236816 0.241238 0.812078 -0.437039 0.386687
-0.00700143 -0.416423 0.0666219 -1 0 0
0.00546818 0.41541 0.142431 0.120772 0.0542617 0.991196
0.00376992 0.200102 0.335843 0.642435 0.704097 -0.302529
-0.0350958 0.16859 0.166556 0 0.22202 0.975042
0.0035176 -0.400503 0.0206017 0 -0.522506 -0.852636
0.0180394 0.127508 0.189103 0 0.284037 0.958813
-0.00684906 0.174175 0.302971 -0.642634 -0.703942 0.302467
-0.0310022 0.297758 0.0995706 0 -0.262126 -0.965034
-0.0155006 -0.232968 0.326125 -0.645191 -0.171246 0.744583
-0.00202644 0.348701 0.0260695 0 0.137431 -0.990511
-0.00700143 -0.281339 0.276518 -1 0 0
-0.00266234 0.261573 0.100441 0.375637 0.504004 -0.777738
0.000681984 -0.344204 0.00138964 0 -0.19936 -0.979926
-0.0101533 0.209187 0.170059 -1 0 0
0.0418587 -0.221606 0.521345 0 0.595161 0.803607
0.0419948 -0.271336 0.234063 0.983072 0.1662 -0.0771141
-0.00668848 -0.292868 0.0237655 -0.707098 0.0971912 -0.700405
-0.0082092 0.105098 0.407207 -0.865761 0.077833 0.494368
0.0115543 -0.184914 0.202683 1 0 0
-0.0325805 0.245815 0.102196 0.580226 0.0428649 0.813326
0.0169948 -0.230613 0.511279 0 -0.833652 -0.55229
-0.0356861 0.140902 0.184087 0 0.766655 0.642059
-0.00692861 -0.332098 0.0211378 -0.707457 -0.0800077 -0.702214
0.00220138 -0.259723 0.0628617 0.136434 0.830536 0.539996
-0.0375914 0.108529 0.214704 0 0.899097 0.437749
0.0224723 0.104498 0.183362 0 -0.688461 0.725273
-0.000458813 0.187607 0.302016 0 0.918778 -0.394775
-0.00774174 0.257494 0.235277 -1 0 0
0.00624202 0.0891475 0.407934 0.984784 0.0270271 0.17167
-0.0332905 0.119976 0.11579 0 0.0385646 -0.999256
-0.00517216 -0.19195 0.4038 -0.642731 0.733306 -0.221717
0.000141836 0.343408 0.288196 0 0.0261746 0.999657
-0.00774174 0.314962 0.256906 -1 0 0
0.00827331 -0.479001 0.156267 0.839708 -0.542851 0.0142343
-0.0285302 0.292425 0.481868 -0.781786 0.476816 0.401817
-0.00774174 0.294999 0.255781 -1 0 0
0.000701392 -0.0199602 0.246827 0.337471 0.431802 0.836457
-0.00721759 0.324633 0.213076 -0.988055 -0.0311452 0.150925
0.0368212 -0.281895 0.21164 -0.745885 0.516096 -0.421071
0.107082 -0.244466 0.516957 0.515314 0.505407 0.692109
-0.100931 0.0188435 0.169008 0 0.993573 -0.113196
-0.0376103 0.335349 0.124593 -1 0 0
-0.0134413 -0.218409 0.311649 0.326993 0.62022 -0.713024
-0.00836347 -0.391262 0.283431 -0.744055 0.318794 -0.587156
0.00629381 -0.205759 0.198385 0.707061 -0.66982 -0.22673
0.0389841 0.31358 0.13582 0.334953 -0.182344 -0.924423
-0.00968603 -0.217305 0.521356 0 0.834046 0.551694
-0.00700143 -0.454416 0.182736 -1 0 0
0.0102881 0.235208 0.0691435 0.712426 0.549181 0.436862
0.00559102 0.380129 0.253483 1 0 0
-0.00402961 -0.445162 0.092386 -0.744038 0.587146 0.318851
0.0143814 0.358245 0.154803 0.63887 0.409722 -0.651132
0.0115543 -0.460815 0.202439 1 0 0
-0.00080132 0.215471 0.366865 0 0.918778 -0.394775
-0.0239716 -0.249318 0.288131 0.984463 -0.164012 0.0627177
0.00193302 -0.186755 0.178981 0 -0.989019 -0.147791
0.00883418 -0.227254 0.0531374 0.74821 -0.413024 0.519224
-0.00328014 -0.286053 0.310398 0 0.199374 0.979924
-0.00344948 0.0337075 0.422704 -0.341671 0.146163 0.928384
0.00325365 -0.431299 0.089605 -0.706893 0.636274 0.308963
0.0278514 0.144689 0.167566 0.515529 0.855268 0.0524007
0.0305632 -0.228715 0.513903 0 -0.833731 -0.552171
-0.0101533 0.407533 0.0320969 -1 0 0
0.00339502 -0.47993 0.171795 0 -0.999656 0.0262123
0.00559102 0.219294 0.147042 1 0 0
-0.0288075 0.323403 0.163639 -0.0184487 0.215682 0.976289
-0.00734376 -0.367547 0.292436 -0.744087 0.21198 -0.63356
-0.00724486 -0.297676 0.207529 0.678253 0.617224 -0.398759
0.0304422 0.210213 0.149747 0 0.153017 0.988223
-0.0336132 -0.32884 0.156467 0 -0.398779 0.917047
-0.00407364 -0.103385 0.444058 -0.341671 0.146163 0.928384
-0.00743886 0.205043 0.385334 0 -0.958776 0.284163
-0.012959 -0.342327 0.12982 -0.899375 0.277021 -0.338208
-0.0174442 0.256964 0.30529 0.980963 -0.0640663 -0.183325
-0.00506139 -0.188714 0.0784764 -0.757077 0.557043 -0.341376
-0.00665127 0.387783 0.263384 -0.707939 -0.258842 -0.657133
-0.00574039 -0.463427 0.156068 -0.744064 0.667879 -0.0174807
0.00320818 0.110877 0.158205 0.642431 -0.704098 0.302537
-0.104341 -0.282655 0.519746 -0.0754166 -0.249459 0.965444
-0.0053284 -0.344804 0.0217824 0 -0.113203 -0.993572
-0.0331129 0.214182 0.107259 -0.0726009 0.0826518 0.99393
-0.00732139 -0.263698 0.165534 0.408648 0.113778 -0.905572
0.0072899 0.311229 0.284846 0.812092 -0.0862512 0.57712
-0.0357708 -0.308075 0.169068 -0.273717 0.826284 -0.492275
-0.00189608 -0.191803 0.200075 0 -0.948314 -0.317334
0.00559102 0.276188 0.0520784 1 0 0
0.0265265 0.100003 0.153113 0.267475 -0.883667 -0.384174
-0.00910712 -0.178914 0.159267 -0.744063 -0.667881 0.0174805
0.00113214 -0.390849 0.0584932 0.898478 -0.278717 0.339196
-0.00700143 -0.223839 0.0717661 -1 0 0
0.0164649 -0.312744 0.168405 0.899293 -0.250797 0.358291
0.00559102 0.428505 0.219255 1 0 0
0.00540012 0.119285 0.171463 0.865858 -0.459655 0.197502
0.00319533 0.461332 0.14567 -0.669102 0.741078 0.055726
0.010814 0.309899 0.0172273 1 0 0
0.00633133 -0.392652 0.262104 1 0 0
0.00559102 0.235328 0.100275 1 0 0
-0.10891 0.0393046 0.159212 0.95267 -0.302052 0.0344153
-0.00594585 -0.213288 0.377959 -0.642779 -0.733268 0.221704
0.0115543 -0.376192 0.298108 1 0 0
-0.00714892 -0.080055 0.428362 -0.86584 -0.0778112 -0.494233
-0.00469991 -0.20618 0.0537945 -0.757069 0.489328 -0.432903
0.00465165 0.193596 0.347654 0.642431 -0.704098 0.302537
0.00644129 -0.118549 0.289727 0.984317 0.0809203 0.156751
-0.00149494 0.145272 0.156525 0 0.95884 -0.283948
-0.00520824 0.474178 0.186151 -0.721759 0.656368 0.219647
-0.00473429 0.243529 0.209255 0.668997 0.632386 -0.390551
0.0147388 -0.33766 0.182594 0.990291 -0.0602194 0.125287
-0.0315764 0.125802 0.138145 1 0 0
0.0700651 0.225386 0.145848 0 -0.993573 0.113196
0.00989219 -0.464195 0.0960581 0.839684 -0.477272 -0.259116
0.0753441 0.210019 0.143193 0 -0.917605 -0.397492
-0.00666331 -0.1751 0.464256 -0.765738 0.615629 -0.186134
-0.00774174 0.406383 0.2377 -1 0 0
0.0034213 0.414918 0.228068 -0.669235 -0.501999 -0.547833
-0.0550009 0.0566013 0.164413 0.998581 0.0532315 -0.00161511
-0.0038014 0.00751917 0.426697 -0.341671 0.146163 0.928384
0.00738027 0.444647 0.077485 0.712391 -0.598354 0.366703
0.0436882 0.215232 0.150605 0 0.113204 0.993572
-0.10401 -0.292092 0.46399 -0.0619836 -0.769344 -0.63582
0.00559102 0.451776 0.164171 1 0 0
0.0430833 -0.322036 0.147229 0 -0.895098 0.445869
-0.000340019 0.437789 0.163168 0.880188 -0.0500058 -0.471983
-0.0353234 0.179644 0.107343 0.572313 -0.02325 0.819706
-0.0362841 0.10385 0.18857 -1 0 0
0.00517613 0.100872 0.149878 0 -0.833811 -0.55205
-0.00863251 -0.191641 0.429627 -1 0 0
-0.0363094 -0.31573 0.156534 -0.243406 0.832337 -0.497965
-0.00661549 -0.411452 0.245328 -0.707159 0.490273 -0.509468
-0.0010428 0.238579 0.471207 0 -0.113218 -0.99357
0.010814 0.250842 0.0439939 1 0 0
-0.00652083 -0.17171 0.187707 -0.757058 0.64617 0.0965787
-0.00192568 -0.143173 0.293897 0 -0.458716 -0.888583
-0.00700143 -0.322086 0.282856 -1 0 0
0.00920833 -0.454673 0.0763039 0.83972 -0.477215 -0.259106
0.00511493 0.0790529 0.192179 0.862577 0.232074 0.449557
0.00936572 0.404978 0.0365313 0.71238 -0.334901 0.61673
0.00633133 -0.383741 0.0432757 1 0 0
0.00269061 -0.193928 0.120719 0 0.984501 -0.175378
-0.0315764 0.106763 0.203193 1 0 0
-0.00215776 -0.0127671 0.415038 0 -0.15552 -0.987833
0.00559102 0.248292 0.0662228 1 0 0
0.00504689 0.370048 0.0263017 0 -0.317306 0.948323
-0.00805201 0.161866 0.252896 -0.865945 0.459517 -0.197443
-0.012375 0.334077 0.169331 0.639603 0.766607 0.0567656
0.00633133 -0.214972 0.227682 1 0 0
0.00474697 0.22727 0.493313 0 0.102195 0.994764
-0.0372376 0.340751 0.112324 -0.942155 0.333022 -0.0379425
0.0103589 0.143997 0.153407 0 0.894924 -0.446219
-0.00774174 0.430138 0.227689 -1 0 0
-0.00637587 0.198976 0.14189 -0.721806 -0.691858 0.0181444
0.00646333 0.0541397 0.200441 0.984317 0.0809203 0.156751
0.0231474 0.23482 0.146166 -0.00244791 -0.135166 -0.99082
0.0111134 0.221008 0.388149 0.870433 0.357215 0.338737
0.00431493 0.221661 0.226406 0 -0.852658 0.522469
0.00795747 0.266902 0.0270217 0.812068 -0.304904 -0.497573
0.11037 -0.293796 0.465011 -0.593816 -0.653099 -0.46994
0.00615086 0.436117 0.0434169 0 0.622501 -0.782619
0.00893605 -0.367907 0.114586 -0.411346 0.66581 -0.622488
-0.0345855 -0.243696 0.279296 -0.926308 0.337935 -0.166595
-0.00072337 -0.426594 0.231669 0 0.850825 -0.52545
0.0125656 -0.298462 0.118016 0.899416 -0.275505 -0.339335
-0.0101533 0.462513 0.104619 -1 0 0
0.0123539 -0.355431 0.14593 -0.678588 -0.115635 0.72536
0.00474332 0.00153886 0.22225 0.862553 -0.232095 -0.449594
0.0841168 -0.238614 0.518789 -0.225987 -0.537518 0.812407
-0.0427791 0.0740618 0.146403 -0.739116 0.616765 0.270757
-0.00861437 0.0408964 0.209101 -0.98435 0.0808386 0.156592
0.0112816 -0.464851 0.131587 0.748199 0.656188 0.0980629
-0.00553869 0.161594 0.276475 -0.642634 -0.703943 0.302467
0.00432562 -0.404763 0.0623448 -0.70696 0.408682 0.577223
-0.00494635 0.425496 0.258541 -0.721845 0.458588 0.518302
0.0115543 -0.428045 0.261734 1 0 0
-0.0442406 0.128515 0.167535 0.976317 -0.214954 0.0244982
-0.0509698 0.110852 0.161866 0.990607 -0.135419 0.0189422
0.00633133 -0.192367 0.133937 1 0 0
0.0137606 0.357806 0.13325 0.374225 -0.398763 -0.837224
0.0287794 -0.327234 0.152414 -0.0165026 -0.399851 0.916431
0.0278078 0.342367 0.136305 -0.012708 0.895686 -0.444506
-0.00400091 -0.0179228 0.229823 -0.337748 -0.43176 -0.836367
-0.0121897 0.347766 0.118244 0.129007 0.92526 0.356722
0.0653507 -0.231746 0.512303 -0.210029 -0.708356 -0.673884
-0.00555282 -0.34988 0.0352626 0 0.113197 0.993572
0.00122584 0.340572 0.252368 0.879911 -0.452113 0.146117
-0.0546586 0.0290269 0.165452 0.731025 -0.682043 0.0204745
-0.102532 -0.270948 0.510953 0.412213 0.0284004 -0.910645
-0.0385634 0.0879801 0.126364 0.542247 0.505227 0.671352
-0.00303033 0.110787 0.395761 -0.341359 -0.146179 -0.928497
0.00715709 0.198311 0.160385 0.812053 -0.583383 0.0152996
-0.0251141 0.265196 0.48773 -0.69918 -0.0694604 0.711563
0.0112737 0.314365 0.163256 -0.879822 0.384946 0.2788
-0.00886017 -0.0700224 0.264816 -0.98435 0.0808386 0.156592
0.0115543 -0.468116 0.147071 1 0 0
0.010476 -0.366955 0.187334 0.136445 -0.615526 -0.776215
-0.00484595 0.2653 0.142582 0.988054 0.153991 0.00596787
-0.00700143 -0.440532 0.205744 -1 0 0
0.00960145 0.460349 0.189172 0.71245 -0.66545 -0.222691
-0.0323147 0.286046 0.250729 -0.844616 -0.510703 -0.160643
-0.00162451 -0.241948 0.0785237 -0.678001 -0.428006 -0.5976
-0.0435443 0.116534 0.114349 -0.680078 -0.18205 0.710177
0.00767791 -0.29312 0.216975 -0.409725 -0.829837 0.378808
-0.0163185 0.242743 0.491721 0 0.106437 0.994319
0.00185025 0.147884 0.211166 0.341963 0.863388 -0.370975
0.00842823 0.270374 0.487718 0 0.150403 0.988625
-0.0994751 -0.29449 0.505429 1 0 0
0.0369166 0.134894 0.157058 0 -0.184458 -0.98284
0.00648583 -0.176093 0.468733 0.840466 0.412808 0.351008
0.000138288 -0.261772 0.0337796 0 -0.477098 0.87885
-0.0320527 0.131231 0.201487 0 -0.35867 -0.933465
0.0217835 0.246204 0.483571 0.995043 -0.0988059 0.0112583
-0.0295734 0.289498 0.467204 -0.998756 -0.0495356 0.00564477
-0.0114671 0.220421 0.390242 -0.521312 0.507242 0.68625
-0.0347122 0.238718 0.184762 -0.0158264 0.228645 0.973381
0.0031509 -0.347911 0.312735 0 -0.147821 0.989014
-0.0061289 0.255395 0.259216 -0.72179 -0.430853 0.541649
-0.0123649 0.202064 0.478083 -0.910687 -0.202758 -0.359915
-0.0942773 -0.2389 0.517181 -0.37743 0.629509 0.679165
0.0128144 -0.230444 0.328821 -0.634961 -0.77095 -0.0496044
0.0212101 0.325849 0.143097 0.57729 -0.782897 0.231969
0.00961516 -0.445594 0.229677 0.748209 0.5657 -0.346652
0.000971368 -0.342109 0.294163 0 0.147792 -0.989018
-0.0338934 0.325844 0.135443 -1 0 0
-0.0172801 0.352582 0.134019 0 0.958802 -0.284076
0.0506915 0.194129 0.139529 0 -0.113188 -0.993574
-0.0399996 0.155176 0.208134 -0.00121347 0.379532 0.925178
0.00633133 -0.239194 0.256599 1 0 0
-0.00774174 0.224745 0.132957 -1 0 0
0.00755532 0.368547 0.204878 0.88011 -0.335967 0.33546
-0.00696 -0.211545 0.101888 -0.707368 -0.643203 0.293123
-0.00626971 0.39667 0.050695 0 -0.597636 0.801767
-0.00700143 -0.363172 0.0319879 -1 0 0
0.00620317 -0.357971 0.22626 -0.677766 0.698375 0.230014
0.00832821 0.459178 0.104712 0.712442 -0.652908 0.257173
0.00569658 -0.439517 0.0830936 0.707496 -0.635722 -0.308718
0.00633133 -0.193037 0.168695 1 0 0
0.00776148 0.20193 0.115732 0.812092 -0.577119 -0.0862545
0.00559102 0.236516 0.0870569 1 0 0
0.0028492 -0.187127 0.236615 0 0.878815 0.477162
-0.0260533 0.331387 0.109478 1 0 0
0.00758405 -0.201775 0.406736 0.86603 -0.478595 0.144703
-0.0221373 0.311056 0.0935531 0.658587 -0.709075 0.251944
-0.00872738 -0.0415446 0.248691 -0.984334 -0.0808789 -0.156672
-0.00676926 -0.22596 0.333126 -0.765616 -0.615768 0.186178
-0.0346466 0.11816 0.126096 0 -0.0386989 0.999251
-0.00448377 -0.227851 0.033255 -0.757106 0.406684 -0.511271
-0.00879495 -0.132238 0.440861 -0.984784 -0.0270274 -0.17167
0.0038165 -0.207634 0.349535 0.50042 0.828732 -0.250564
-0.00756548 -0.321933 0.150452 0 0.91683 0.399278
-0.00759047 -0.201053 0.0841438 -0.744069 -0.569648 0.349088
0.0103769 -0.172951 0.129795 0.839707 0.532139 -0.10826
0.00366472 -0.442464 0.114838 -1 0 0
-0.0303877 0.235078 0.153665 -0.85603 -0.0754659 0.511388
-0.00522165 0.13048 0.393543 -0.64269 -0.11915 -0.756805
-0.00433481 -0.238412 0.064809 1 0 0
-0.0101533 0.209421 0.123468 -1 0 0
-0.00700143 -0.198601 0.18322 -1 0 0
-0.0315764 0.110336 0.152673 1 0 0
0.00141707 0.263948 0.245915 0 0.622504 -0.782617
-0.00941303 -0.18229 0.113935 -1 0 0
0.00479642 -0.408978 0.128712 -0.410252 0.313842 -0.856269
0.111556 -0.325503 0.465502 -0.706429 -0.707446 0.0218722
-0.00774174 0.23165 0.103602 -1 0 0
0.00559102 0.396012 0.253453 1 0 0
-0.00235664 0.124582 0.193657 0 -0.918776 0.394779
0.00883669 0.476272 0.163726 0.812079 0.577142 0.0862271
0.00104656 0.379361 0.264275 0 -0.36649 -0.930422
-0.00657049 0.457806 0.219859 -0.721838 0.608203 0.330212
-0.00119038 0.272514 0.0417748 0 0.5225 0.852639
-0.0269281 -0.269752 0.238219 0.974922 0.090024 -0.203525
0.015428 0.217608 0.481738 0.973391 -0.22768 0.0259375
-0.00133183 0.446429 0.183022 0 -0.947221 -0.320581
-0.00849106 0.125114 0.169762 -0.984791 0.159629 -0.0685885
-0.00217194 -0.169836 0.307662 0 -0.458716 -0.888583
0.0317757 -0.271877 0.241732 -0.995832 -0.0462917 -0.0785857
0.00452872 -0.285406 0.0246105 0 -0.317341 0.948312
-0.00774174 0.250221 0.0649556 -1 0 0
0.00559102 0.411386 0.0600417 1 0 0
-0.0920152 0.0110586 0.161264 0 -0.922578 -0.38581
0.00970231 -0.291988 0.19465 -0.990292 -0.08624 -0.109015
0.00565786 -0.185734 0.426677 0.642731 0.733308 -0.221714
-0.0042942 0.34123 0.0316634 0.668797 -0.102199 0.736387
-0.00914059 0.363523 0.195924 -0.879802 0.469944 -0.0714186
-0.00685852 -0.113462 0.281239 -0.636943 -0.353629 -0.685018
-0.0232808 -0.237916 0.300865 0.999633 -0.0137512 -0.0233459
-0.00287254 0.21777 0.174745 0 0.979915 -0.199416
-0.0126004 -0.302284 0.136555 -0.13667 0.690121 0.710672
-0.00327764 0.256928 0.463854 0 -0.493458 -0.86977
-0.0315764 0.123581 0.208833 1 0 0
-0.00577775 0.135178 0.214487 -0.642634 -0.703943 0.302467
-0.011969 -0.35644 0.170695 -0.677279 0.215967 0.703315
0.00208414 -0.181613 0.0876461 0 0.930422 -0.36649
0.0219074 -0.31588 0.136113 0.617236 0.434181 -0.65613
-0.0312024 -0.322787 0.144971 -0.00275777 0.552137 -0.833749
0.00231237 0.447576 0.200073 -0.671147 0.666618 0.324318
-0.00307037 0.23898 0.221361 0 0.748936 -0.662642
-0.00847904 0.198746 0.340955 -0.984796 0.159606 -0.0685789
-0.00693878 0.332875 0.26945 -0.669172 -0.00907774 0.743052
-0.0394268 0.0870024 0.137724 -1 0 0
0.00559102 0.446042 0.104842 1 0 0
-0.0317645 0.305453 0.0851082 -0.515629 0.66447 -0.540931
-0.00298865 -0.425593 0.0647815 0 0.782634 0.622482
0.00814005 -0.219784 0.0621429 0.748206 -0.496914 0.439619
-0.00574333 0.218309 0.400344 -0.865979 -0.469865 0.171195
-0.00863905 0.18496 0.393102 -0.984774 0.0270364 0.171727
-0.00197167 -0.39984 0.267947 0 -0.49241 0.870363
0.0267521 0.184943 0.146504 -0.757208 -0.176619 -0.628841
-0.099815 -0.262409 0.455518 0.972147 -0.0196337 -0.233546
-0.000991535 0.20832 0.201566 0 -0.930417 0.366503
0.010814 0.21148 0.182596 1 0 0
-0.0329717 0.162354 0.19215 0 0.722719 -0.691142
0.039225 0.143943 0.162103 0.990446 0.133786 -0.0334384
-0.00561699 -0.396861 0.0383612 -0.744113 0.34908 0.569596
0.00155588 0.392539 0.277682 0 0.366518 0.930411
0.00590314 -0.173113 0.493751 0.999979 0.00169537 0.00622212
-0.02036 0.101146 0.149464 0 -0.833811 -0.55205
-0.0249938 -0.255711 0.260418 0.982928 0.144594 -0.113773
-0.00241164 -0.196363 0.148147 0 -0.984505 0.175359
0.00345665 -0.373126 0.0409555 -0.707005 0.252299 0.660673
-0.00941303 -0.188009 0.2149 -1 0 0
-0.00738757 0.373942 0.0123986 -0.721767 0.219618 -0.656369
0.0162713 0.211075 0.157311 -0.632067 0.207557 0.7466
0.00559102 0.24719 0.216226 1 0 0
-0.00442991 0.100991 0.168609 -0.337748 -0.43176 -0.836367
-0.00774174 0.348054 0.266113 -1 0 0
-0.0334241 0.0971236 0.156064 0 0.923657 0.383221
-0.00359826 -0.237736 0.266246 0 -0.662629 -0.748948
0.000905128 -0.221952 0.0810896 0 -0.778259 0.627943
-0.0119075 0.306237 0.126929 -0.374687 -0.504064 0.778157
-0.0340035 0.126873 0.220501 0.947051 0.0523893 0.316779
-0.107475 -0.322502 0.514867 -0.706993 -0.680492 0.192591
0.00484105 -0.229011 0.152361 0.136812 0.0545639 0.989093
0.0071951 -0.236759 0.288994 0 0.522498 0.852641
-0.00700143 -0.231694 0.246576 -1 0 0
-0.00548467 -0.388914 0.262624 0 0.492444 -0.870344
0.00615775 -0.0576001 0.427985 0.984773 -0.0270369 -0.171727
0.00342964 -0.291392 0.00329239 0 0.147842 -0.989011
0.00559102 0.226837 0.167371 1 0 0
-0.0670812 -0.234102 0.51829 0.239347 -0.780291 0.577805
-0.0107378 0.1991 0.494826 -0.701522 -0.0332609 0.711871
-0.0338558 0.130963 0.191598 0 0.451226 0.89241
-0.00941303 -0.352819 0.299822 -1 0 0
0.00552209 0.159289 0.24651 0.865821 0.459714 -0.197528
0.000581964 -0.41351 0.0533178 0 0.662571 0.748999
-0.00258032 -0.407935 0.19293 0.678918 -0.215114 -0.701995
0.0237193 0.0976466 0.172376 0.2674 -0.923853 0.273848
0.00735182 -0.368591 0.0253598 0.748257 0.243118 0.617256
0.0128044 0.313768 0.124294 0.376522 -0.676737 0.63266
0.0115543 -0.310512 0.0106974 1 0 0
0.00399741 -0.192087 0.51242 0.865944 -0.0566198 -0.496926
-0.0104192 0.175697 0.484391 -0.997636 -0.0682716 0.00777569
0.107456 -0.272158 0.518199 -0.954703 -0.178102 0.238374
-0.0324993 0.350102 0.1376 -1 0 0
-0.0283465 0.253725 0.144985 0.00119092 -0.124427 -0.992228
0.00354707 -0.457867 0.170544 -0.707098 -0.70621 0.0357818
-0.00309611 0.480089 0.137607 0 0.999656 -0.0262166
0.00403274 0.425939 0.233161 0 0.675606 0.737263
0.00249264 -0.0910385 0.282797 0.337302 0.431831 0.83651
0.00646496 -0.107066 0.437547 0.984775 0.0270349 0.171717
0.0184935 0.271085 0.289234 -0.616793 0.716723 0.325385
-0.00787886 0.281913 0.261168 -0.707963 0.337002 -0.62066
-0.0195475 0.33045 0.145141 -1 0 0
-0.0074814 -0.0372654 0.430895 -0.86572 0.0778434 0.494438
0.026233 0.27971 0.460655 0.631302 0.0674872 -0.772595
-0.00869018 0.0852771 0.408502 -0.984774 0.0270364 0.171727
-0.0324966 0.138889 0.12015 0 0.429296 -0.903164
-0.00631348 -0.331073 0.0823191 -0.138615 0.98073 -0.137674
0.000107804 0.197252 0.476003 0 -0.194154 -0.980971
0.000540099 -0.32054 0.0194206 0 0.0261533 0.999658
0.00601328 -0.433622 0.240992 0.748213 0.496895 -0.439627
0.00401645 0.459302 0.177997 0 -0.948328 -0.31729
0.010814 0.412404 0.255115 1 0 0
0.0279168 0.271863 0.482934 0.998757 -0.049529 0.00564508
-0.0250829 0.256077 0.476322 -0.965292 -0.259496 0.0295528
-0.0341983 -0.333325 0.144854 0 -0.833968 -0.551813
0.00184771 0.118219 0.139602 0 -0.113264 -0.993565
0.0073115 0.270444 0.269645 0.812104 -0.278446 0.512791
-0.0263731 0.0976088 0.165858 -0.521575 -0.847719 0.0966077
0.00841279 -0.21951 0.253579 0.748217 -0.519213 -0.413024
0.00846997 -0.183902 0.134694 0.74822 -0.650133 0.132264
-0.0836118 -0.242262 0.508996 0.144175 -0.44523 -0.883733
0.00302738 0.300013 0.221766 -0.638758 -0.64452 -0.420217
0.00526423 0.462289 0.161537 0.712463 -0.694005 -0.103702
-0.00648024 -0.377834 0.283219 -0.707283 -0.348115 0.615277
-0.00980684 0.289372 0.0269722 -0.70792 0.258839 0.657154
0.00454326 0.391916 0.034329 0 -0.477143 0.878826
-0.010301 -0.315383 0.143895 1 0 0
-0.00774174 0.354361 0.032298 -1 0 0
-0.00764466 -0.173355 0.322309 -0.862597 0.232059 0.449528
-0.0075848 -0.334396 0.208871 0.990291 0.028111 -0.136137
0.0286899 0.164229 0.151163 0 -0.242243 -0.970216
0.0115543 -0.331084 0.0130505 1 0 0
0.0125548 0.251849 0.317358 -0.972652 0.232253 -0.00250504
-0.0149017 0.144925 0.173655 0 0.917054 0.398762
0.0138414 0.246212 0.333365 0.0267933 0.865277 0.500578
0.00270081 -0.22379 0.349383 0.341932 -0.899509 0.271967
0.00554529 -0.184991 0.159004 0 -0.999657 0.0261783
-0.115511 0.0245649 0.163491 -0.952695 -0.301975 0.0344034
-0.0138116 -0.333058 0.159695 0.899417 0.288386 0.328453
-0.0366246 0.326811 0.187462 0.615995 0.722413 0.314117
0.00566771 -0.186993 0.32135 0.862553 -0.232095 -0.449594
0.00559102 0.224434 0.113495 1 0 0
0.00859026 -0.394594 0.168405 0.677465 -0.226679 -0.699756
-0.0061627 0.106206 0.1799 -0.63695 0.353624 0.685014
0.00610541 0.445464 0.239967 0 0.782585 0.622544
0.0414679 -0.261525 0.266856 0.982947 -0.144914 0.113205
-0.0188335 0.335069 0.124559 -0.583396 -0.230073 -0.778919
-0.00902056 -0.417187 0.0485976 -0.744112 0.442658 0.500351
0.00300898 -0.369169 0.30784 0 -0.317307 0.948323
-0.0339939 0.286708 0.092145 -0.731319 0.662491 0.162108
-0.00129706 0.287161 0.462841 0.150872 0.567335 -0.809548
0.00633133 -0.251063 0.0440892 1 0 0
-0.0045423 -0.455294 0.121387 0.706673 -0.693338 -0.141055
-0.0994751 -0.310653 0.513428 1 0 0
-0.00129346 -0.265891 0.278222 0 0.471023 0.882121
0.00532841 -0.27722 0.0874304 -0.990292 -0.0779855 0.115069
-0.00407378 -0.212085 0.51226 -0.642775 -0.0867249 -0.76113
0.00602599 -0.167411 0.444518 0.984773 -0.0270369 -0.171727
0.0260263 0.295466 0.233778 -0.365764 -0.78414 -0.501338
0.01599 -0.329238 0.140099 0.410863 -0.876162 0.252055
0.0115543 -0.371754 0.0162218 1 0 0
0.022275 0.137912 0.18376 0 0.594851 0.803836
0.0107841 -0.274715 0.292711 0.748192 -0.24317 -0.617315
0.0237957 0.25627 0.151117 -0.632067 0.207557 0.7466
0.00300649 0.194355 0.320848 0.642228 0.704256 -0.3026
0.01324 0.34314 0.13874 -0.861717 0.504032 0.0582675
-0.0372666 0.156034 0.123931 -0.947044 0.218348 -0.235439
-0.0325152 0.130885 0.128131 0 -0.335866 0.94191
-0.0015845 -0.180941 0.486655 -0.11702 -0.443697 0.888504
-0.00523188 0.201464 0.178197 -0.721766 -0.678245 0.137975
0.00332678 -0.45151 0.1066 0 0.948335 0.317271
0.110593 -0.301074 0.488691 -0.593788 -0.799141 0.0937556
0.0215131 0.34166 0.148069 1 0 0
-0.00503014 -0.443194 0.058159 -0.757114 -0.511268 -0.406673
-0.0328601 0.315477 0.204218 0.971306 0.237525 -0.0121308
0.00661556 -0.388061 0.0962586 0.899229 0.195366 -0.391433
-0.0100156 0.239776 0.230759 -0.707974 0.528941 -0.467968
0.00845147 -0.329501 0.298605 0.748205 -0.0173688 -0.66324
-0.00870372 0.0140656 0.417304 -0.984784 -0.0270274 -0.17167
0.0286579 -0.239025 0.306773 -0.775463 -0.430382 -0.461983
0.00559102 0.339155 0.265477 1 0 0
-0.00485306 -0.300665 0.291982 0.707127 0.167469 0.686968
0.00409598 -0.406291 0.250232 -0.706984 0.4904 -0.50959
0.0115543 -0.396224 0.283414 1 0 0
-0.0114228 0.377787 0.151245 -0.377699 0.230463 -0.896789
-0.109862 -0.301825 0.499964 -0.381342 -0.234843 -0.894107
-0.00256922 0.0716758 0.199753 -0.337301 0.43183 0.836511
0.0331317 0.122428 0.152728 1 0 0
-0.027363 0.310256 0.113111 0.758506 0.0737738 0.647477
0.114515 -0.309655 0.515818 0 0.936126 0.351666
-0.0338738 0.345451 0.125269 0 -0.238539 0.971133
0.00176491 0.261482 0.0530093 0 -0.577835 -0.816154
0.00178599 -0.0907949 0.442019 0.34169 0.14616 0.928378
-0.00110728 -0.222348 0.126985 0.136403 0.259034 0.956188
0.00544023 0.471768 0.195275 0 0.948311 0.317343
-0.0328509 0.296905 0.22765 0.0272491 -0.869376 -0.493399
-0.00408522 -0.166288 0.147719 -0.757069 0.653111 -0.0171014
-0.00308712 -0.269784 0.00956376 0 0.317314 -0.948321
0.0323424 0.327001 0.192041 -0.313756 0.841681 0.439465
0.00352328 0.355338 0.287803 0 0.199346 0.979929
-0.00913444 -0.305438 0.104461 -0.409794 0.875494 0.256085
0.00352476 0.368273 0.267513 0 -0.19938 -0.979922
0.000524928 -0.201573 0.222928 0 -0.878833 -0.47713
-0.00228457 -0.466736 0.221657 0 -0.930405 0.366533
-0.110366 -0.268067 0.459053 -0.833383 0.0812472 0.546692
-0.0110298 -0.312027 0.157022 0.624846 0.650898 0.43116
-0.0124938 0.122136 0.139368 0 0.0609393 -0.998141
0.0162743 0.20117 0.151174 -0.340653 -0.0714691 -0.937469
-0.0394268 0.0940153 0.197966 -1 0 0
-0.00582195 0.00826229 0.230778 -0.63695 0.353624 0.685014
-0.0160513 -0.341347 0.149801 0 -0.993546 0.113427
-0.0226151 0.266082 0.45866 0 -0.493458 -0.86977
-0.00271402 -0.391553 0.0155348 0 -0.366533 -0.930405
-0.00280346 -0.173334 0.511465 -0.499824 -0.833943 0.233912
0.00471105 0.0927888 0.175082 0.862553 -0.232095 -0.449594
0.00404324 0.0586497 0.416977 0.642497 0.119175 0.756964
-0.0314852 0.341688 0.100515 0 0.87449 -0.485043
0.00126317 -0.199663 0.129622 0 -0.984505 0.175359
-0.0438342 -0.227337 0.511856 0.163928 -0.440463 -0.882678
0.00559102 0.237329 0.207348 1 0 0
0.00383638 0.289777 0.47335 -0.224057 0.968309 -0.110341
0.0394817 0.341079 0.153802 0.314389 -0.841535 -0.439292
-0.00912972 -0.460723 0.114935 -0.744039 0.633614 0.211989
-0.00631486 0.414427 0.264308 -0.721787 0.361629 0.590126
-0.00850199 0.165639 0.264235 -0.984796 0.159606 -0.0685789
0.000191293 0.220196 0.121935 0 -0.979913 -0.199428
-0.00800695 -0.00841026 0.236465 -0.862551 0.232095 0.449598
-0.00537462 -0.250174 0.295186 -0.757055 0.341375 0.557074
-0.00700143 -0.193619 0.126236 -1 0 0
0.011164 -0.287116 0.297085 0.748198 -0.132279 -0.650155
-0.0168047 0.236488 0.348578 -0.658454 0.609314 0.441785
0.00789402 -0.275004 0.216335 0.899293 -0.250797 0.358291
0.00435541 0.3934 0.213818 0.988054 0.0953913 0.121032
-0.00835932 0.138973 0.401611 -0.865761 0.077833 0.494368
0.0115543 -0.272894 0.0204617 1 0 0
0.00216176 -0.429074 0.0414161 0 -0.662579 -0.748992
0.00274169 0.276117 0.241657 -0.668882 0.366036 -0.647004
-0.00693545 -0.194771 0.323286 -0.636943 -0.353629 -0.685018
-0.00833715 0.32187 0.283392 -0.721819 -0.102296 0.68448
0.107343 -0.259329 0.454269 -0.97218 -0.0136565 -0.233838
-0.00442526 -0.248701 0.0572562 0.706637 -0.422856 0.567325
0.00633133 -0.352461 0.289586 1 0 0
0.0044124 0.13727 0.16779 -0.631975 0.207552 0.746679
0.00633133 -0.375499 0.271628 1 0 0
0.0353769 -0.293211 0.215181 -0.915818 -0.382457 0.122493
0.0421177 -0.302792 0.200296 0.680861 -0.604331 0.413777
0.0115543 -0.311879 0.301783 1 0 0
-0.00369806 0.246493 0.454843 -0.34207 0.882893 -0.321695
0.0170687 0.125633 0.139708 0 0.233561 -0.972342
0.00559102 0.258914 0.235545 1 0 0
0.0399086 -0.240256 0.282965 0.926318 0.337914 -0.166582
-0.031892 0.139751 0.174491 0 -0.923717 -0.383075
-0.00666613 0.232315 0.0779143 -0.708035 0.620602 0.336956
0.0339057 -0.284317 0.231955 -0.915766 -0.382757 0.121941
-0.0068889 -0.407824 0.264886 -0.706868 -0.490465 0.509688
0.00138131 -0.065093 0.438122 0.34169 0.14616 0.928378
0.000841257 -0.387055 0.0349096 0 0.522532 0.85262
0.00576173 0.264951 0.12203 0.638781 0.121275 -0.759771
0.00537612 0.0201247 0.21387 0.862623 -0.232039 -0.449487
0.00482802 -0.448114 0.150328 0 0.99872 -0.0505831
0.00910124 0.464289 0.120518 0.712437 -0.687661 0.139841
0.0128279 0.238806 0.492128 0 0.102195 0.994764
-0.00755027 -0.443301 0.0807414 -0.744097 0.587104 0.318793
-0.0160764 0.272749 0.487357 0 0.150403 0.988625
0.00453083 0.14452 0.233694 0.642431 -0.704098 0.302537
-0.00351278 -0.0816856 0.278542 -0.337301 0.43183 0.836511
-0.0315764 0.076763 0.148215 1 0 0
-0.00536589 -0.430357 0.0930343 0 0.899547 0.436824
-0.0101533 0.258679 0.249853 -1 0 0
0.0138768 0.148555 0.163815 0.972285 -0.136122 0.190087
0.0101635 0.448802 0.0649438 0.812077 0.437038 -0.38669
-0.0315764 0.153037 0.18531 1 0 0
-0.0117013 0.347871 0.149441 0.581642 0.538452 0.609723
-0.028241 -0.281124 0.233629 0.974641 -0.222705 -0.0218397
-0.00458611 0.442346 0.194016 0.669903 -0.703252 -0.238047
-2.4426e-05 -0.418752 0.251527 0 -0.693404 0.720549
-0.0128414 -0.307665 0.168457 0.410349 0.508999 -0.75666
0.00559102 0.282313 0.252487 1 0 0
0.00366472 -0.302721 0.281043 -1 0 0
0.00143955 0.0453346 0.212822 0.337471 0.431802 0.836457
0.0337045 0.124751 0.168304 -0.91181 -0.0697217 0.404651
-0.0347216 0.074644 0.187132 0 -0.667351 -0.744743
-0.00088604 0.370515 0.0362494 0 -0.379469 0.925205
-0.00822846 -0.463886 0.0988684 -0.757052 -0.619587 -0.207326
-0.00258711 0.239487 0.434433 -0.342057 0.882898 -0.321696
-0.00130491 -0.415331 0.260401 0 0.622535 -0.782592
-0.00516514 -0.209231 0.0759667 -0.744018 -0.569711 0.349095
0.00559102 0.316019 0.0308691 1 0 0
0.00539378 0.187979 0.331365 0.865735 -0.45985 0.197588
-0.00527476 -0.19941 0.159594 0 -0.997185 -0.0749808
0.00367145 0.234649 0.443324 0.865945 -0.469918 0.171221
-0.0435998 0.0705584 0.176277 -0.542358 -0.769663 0.336847
-0.0342156 0.105926 0.175337 -1 0 0
-0.110095 -0.278833 0.463131 -0.833249 0.334609 0.440152
-0.0603755 0.109603 0.162726 -0.979104 0.203265 -0.00617189
0.00690647 0.256276 0.0318177 0.812068 -0.304904 -0.497573
-0.0101533 0.247824 0.0461797 -1 0 0
-0.0315764 0.0759964 0.16611 1 0 0
0.00822811 -0.353071 0.0044851 0.839721 -0.108256 -0.532118
0.0238243 0.285905 0.250339 -0.365764 -0.78414 -0.501338
-0.0197081 -0.227195 0.509723 -0.71342 -0.199251 -0.671812
-0.00834927 0.208963 0.10121 -0.721821 -0.656306 -0.219628
-0.0626768 0.0769392 0.165149 0 0.0301321 0.999546
-0.0153115 -0.233971 0.314905 0.783258 -0.426365 -0.45246
0.010814 0.387116 0.0229663 1 0 0
0.107002 -0.288036 0.510046 -0.895314 0.371946 -0.245089
0.00351741 0.46549 0.209963 0 0.878826 0.477142
-0.0054437 0.479555 0.149898 -0.721805 0.691859 -0.0181444
-0.0115807 0.210487 0.374833 -0.515367 -0.383245 -0.766498
-0.00774174 0.458945 0.145834 -1 0 0
-0.0218921 0.254884 0.315625 -0.658454 0.609314 0.441785
-0.00558353 0.157533 0.389591 -0.64269 -0.11915 -0.756805
-0.00775349 -0.475601 0.165758 -0.757086 -0.653091 0.0171096
-0.0782418 0.0507559 0.169345 0 0.113194 0.993573
-0.00173704 -0.134558 0.449524 0 0.155523 0.987832
0.0404781 -0.250894 0.289227 0.984604 -0.137263 0.108233
-0.00930038 0.461013 0.207987 -0.721753 0.608261 0.33029
0.106302 -0.261902 0.510976 -0.362186 -0.206746 -0.908888
0.00414666 -0.169065 0.19069 0 0.989014 0.147821
0.00228669 0.221536 0.392663 0.341391 0.146179 0.928485
0.0190168 -0.335504 0.160752 0 -0.551893 0.833915
0.00690316 -0.285413 0.228511 0.409494 0.829916 -0.378886
0.00383195 0.415333 0.101443 0.639077 -0.283523 -0.714979
0.00465837 -0.089477 0.269082 0.636616 -0.353753 -0.685258
-0.0252139 -0.241754 0.279402 0.926411 0.311985 -0.210781
0.00900855 -0.448797 0.248435 0.839678 -0.463056 0.283761
0.015681 -0.344898 0.148446 0.990291 -0.133343 -0.0392788
0.00111473 -0.221565 0.52046 -0.000156974 -0.993559 0.113313
-0.0394268 0.0793622 0.169076 -1 0 0
-0.0404234 0.131124 0.212219 0 -0.262633 -0.964896
-0.1063 -0.261233 0.510651 -0.28702 0.00301201 -0.95792
0.00541748 -0.150739 0.302154 0.862553 -0.232095 -0.449594
-0.00774174 0.450888 0.131677 -1 0 0
-0.0156734 0.275518 0.459423 0 0.126153 -0.992011
-0.00855811 -0.178354 0.450766 -0.984785 0.0270263 0.17166
-0.0048878 -0.449969 0.215499 -0.744049 0.621635 -0.244868
-0.00885898 -0.00707309 0.422074 -0.984774 0.0270364 0.171727
-0.0110413 0.335745 0.145081 1 0 0
0.0100058 0.165778 0.156149 -0.340653 -0.0714691 -0.937469
0.0532626 0.225051 0.136756 0 -0.922687 -0.38555
-0.0109514 0.350201 0.107345 -0.12391 -0.926164 -0.356184
-0.00834317 0.0309187 0.412982 -0.865829 -0.077814 -0.494252
0.0232597 -0.225875 0.307754 -0.735493 -0.0517543 -0.675553
-0.00727673 -0.0228247 0.42898 -0.86572 0.0778434 0.494438
-0.00424601 -0.19918 0.377724 -0.499707 0.829127 -0.250683
-0.0364798 0.0829436 0.119404 -0.947057 -0.199522 -0.251544
-0.00188654 -0.416508 0.284033 0 -0.622529 0.782597
0.00760295 0.208226 0.390541 0 -0.688353 0.725376
0.00651008 -0.2181 0.358897 0.765541 -0.615852 0.186206
-0.00700143 -0.259528 0.273452 -1 0 0
-0.00759752 0.443837 0.082557 -0.669512 0.675928 -0.308018
0.00491159 0.137556 0.193254 0.865945 0.459518 -0.197441
0.0037879 0.434173 0.0876905 -0.671033 -0.630442 0.390201
0.0220137 -0.314023 0.158783 0.617624 0.570493 0.541366
0.00712761 0.16863 0.495757 0.378106 -0.355094 0.854953
-0.00622812 -0.455934 0.204428 -0.744058 0.621625 -0.244868
-0.00314357 -0.304596 0.0207592 0 -0.147787 0.989019
0.00292441 0.392199 0.0462481 -1 0 0
0.0215131 0.339987 0.125748 1 0 0
0.00577852 -0.222213 0.50853 0 0.233155 -0.97244
0.010814 0.425866 0.0467291 1 0 0
-0.00941303 -0.2207 0.261226 -1 0 0
0.03994 -0.22459 0.511329 0 0.0615108 -0.998106
0.0115543 -0.231431 0.0426988 1 0 0
0.00527071 -0.111221 0.281473 0.862553 -0.232095 -0.449594
0.0147104 -0.305424 0.146195 -0.135953 0.464695 0.874972
0.00633133 -0.204573 0.106523 1 0 0
0.0137115 0.329185 0.117808 0.988055 -0.0517475 -0.145155
-0.0485661 0.118454 0.169133 -1 0 0
-0.0349373 0.136166 0.137546 0 0.944905 0.327345
0.00598158 0.0732961 0.40645 0.865814 -0.0778187 -0.494277
-0.0410242 0.153097 0.164673 -0.976317 0.214954 -0.0244982
0.00392942 0.174904 0.480426 0 -0.194154 -0.980971
0.00389842 0.215156 0.134028 0 0.98902 0.147784
-0.00162674 -0.0460194 0.260516 0 0.458712 0.888585
-0.00941303 -0.212173 0.250725 -1 0 0
0.00631743 0.173945 0.394152 0.984784 0.0270271 0.17167
0.0054499 0.446399 0.0881865 0.669393 0.676026 -0.308062
0.00531533 0.25009 0.0770461 0.669304 0.566619 0.480598
-0.00338275 -0.21459 0.0429132 0 0.622516 -0.782607
-0.032171 0.121127 0.151908 -1 0 0
-0.0315764 0.109797 0.116665 1 0 0
-0.000130317 -0.204646 0.0948826 0 0.909955 -0.414707
0.000989963 0.230604 0.19298 -0.375244 -0.4368 -0.817556
-0.00838363 -0.136974 0.302111 -0.862551 0.232095 0.449598
0.0179048 0.104474 0.145815 0 -0.725598 -0.688119
0.00679934 0.274718 0.459495 0 0.147304 -0.989091
-0.0025789 -0.204744 0.261298 0 0.782614 0.622507
0.00864346 0.260514 0.461819 0 -0.493458 -0.86977
0.00172619 -0.227011 0.201556 -0.899298 -0.289873 0.327469
0.000142156 -0.456291 0.194657 0 0.979927 -0.199358
-0.0014329 0.21927 0.41008 0 -0.939575 0.342343
-0.00288256 -0.336176 0.0308777 0 0.113204 0.993572
-0.00632983 -0.448279 0.248585 -0.757047 -0.557083 0.341377
-0.00254412 0.274121 0.272658 0 -0.47719 0.8788
-0.0882945 0.0434655 0.161095 0 -0.993573 0.113196
-0.00358777 0.437428 0.215268 0 0.837716 0.546106
0.0062925 -0.191431 0.410011 0.765663 0.615713 -0.186164
0.0377385 -0.273874 0.260374 0.326981 -0.820448 0.468986
0.00377787 0.272561 0.0838508 0.376623 0.591211 -0.713179
-0.00913448 0.219241 0.21345 -0.721935 -0.589973 0.361583
-0.00774174 0.260972 0.0634736 -1 0 0
0.115359 -0.298468 0.498486 0.688937 -0.693228 0.211662
-0.0101533 0.268664 0.26255 -1 0 0
-0.00200418 -0.143317 0.435591 0 -0.15552 -0.987833
-0.00941303 -0.467782 0.139085 -1 0 0
0.00282234 0.119728 0.150847 4.59978e-05 -0.357831 -0.933786
0.0847405 0.209292 0.137801 0 -0.113204 -0.993572
0.000162451 -0.354688 0.280059 0 0.260499 -0.965474
0.031778 0.305811 0.144017 -0.852869 0.207762 0.479008
0.0331317 0.10788 0.156583 1 0 0
0.00559102 0.343943 0.0293095 1 0 0
-0.00941303 -0.268535 0.295617 -1 0 0
0.00412542 -0.0227082 0.418802 0.642717 -0.119147 -0.756782
0.00559102 0.297403 0.0382973 1 0 0
-0.00774174 0.454212 0.182615 -1 0 0
0.0111736 -0.172666 0.17541 0.839686 0.537106 0.0802725
-0.00774174 0.304389 0.033337 -1 0 0
-0.0147363 0.223698 0.473076 -0.368387 -0.190846 -0.909873
-0.00941303 -0.327796 0.306886 -1 0 0
