-0.0362284 0.218854 0.157347 0.852768 0.153349 0.49927
0.00910361 0.171219 0.162246 0.748288 0.660852 -0.0577963
0.0190845 -0.231853 0.341 0.997131 0.0756084 -0.00354704
-0.0238833 0.0448973 0.138593 -0.947065 0.30632 -0.0961012
0.00277279 0.0435433 0.188212 0 0.886468 -0.462789
-0.00279839 0.363109 0.260094 0 -0.481693 -0.87634
0.00685612 0.168769 0.524839 0.637262 -0.746316 0.192119
-0.0870718 -0.0267024 0.0303457 0 0 -1
0.0641605 0.0225556 0.268856 0.950748 -0.00609068 -0.309906
-0.0162791 0.305789 0.165919 -1 0 0
-0.0241108 0.0597392 0.101419 0 -0.477336 -0.878721
0.0389034 -0.338062 0.145707 0.999933 -0.0115326 -5.68237e-06
0.0394717 -0.280915 0.265135 0.203198 -0.913793 0.351699
0.0102467 0.120738 0.344398 0.642142 0.679555 -0.354765
-0.00831882 -0.237563 0.605322 0.011895 0.64291 0.765849
-0.00914929 -0.0660695 0.22522 -0.875061 0.249959 0.414474
-0.035058 0.171582 0.552379 -0.929208 -0.348263 0.123633
0.0838753 -0.247145 0.583152 1 0 0
0.00904895 -0.0216496 0.387492 0.34192 0.0869554 0.935697
0.032263 0.286469 0.213111 -0.998036 0.0594646 0.0196909
-0.00950178 -0.199611 0.364197 -0.856586 -0.433996 -0.279119
-0.010878 -0.118343 0.251741 -0.981372 0.161722 0.103709
-0.0108359 0.310605 0.143826 1 0 0
-0.00692579 -0.279588 0.290828 -0.999933 0.0115517 -2.68152e-05
0.0356146 0.0227377 0.204433 -0.0191699 0.997402 -0.0694338
-0.00607354 0.339147 0.0110937 -1 0 0
-0.0281056 0.333664 0.20366 -0.844254 0.472915 -0.252163
0.0310767 0.0915387 0.155281 0.966427 -0.189739 -0.173255
-0.00132483 0.145298 0.145264 -0.0200683 -0.999681 0.0153323
0.0142014 0.416945 0.241502 1 0 0
0.0081009 0.33458 0.229016 -0.679962 0.640506 -0.356937
0.0140084 0.252971 0.282255 0.748235 0.2804 -0.601266
-0.00308869 -0.330862 0.288983 0.705834 -0.0968053 0.701732
0.00405911 -0.00714202 0.145361 -0.0156102 -0.866007 -0.499789
-0.0081615 -0.211757 0.408367 -0.60232 0.67302 0.429249
-0.00303682 0.380034 0.248232 -0.707248 -0.415543 -0.571948
-0.00797345 -0.45267 0.20682 -0.763876 -0.583322 0.276095
0.126402 -0.249302 0.587977 0 -0.500014 -0.866017
-0.00584571 0.304667 0.0923779 -0.990291 -0.00098428 -0.139004
-0.0101101 -0.220303 0.499833 -0.911209 -0.409605 0.0438354
0.008201 0.221458 0.24288 0 0.587784 -0.809018
-0.00179224 -0.13826 0.258795 -0.311719 -0.797906 -0.515923
-0.00187838 -0.070937 0.205783 -0.345837 -0.479131 -0.806741
-0.0072621 -0.318163 0.112461 0.903396 0.410651 0.123456
-0.0291426 0.0195862 0.20457 -1 0 0
-0.00344822 -0.311928 0.289983 0.00138573 0.125323 0.992115
-0.00234897 0.031352 0.158476 0.0177468 0.984569 0.174092
-0.00590855 -0.191558 0.210411 -0.999933 0.0115759 1.76185e-05
-0.0061861 0.162322 0.220761 -0.735164 -0.566673 0.372042
-0.000960002 -0.141998 0.30607 -0.328531 0.796988 0.50683
0.00428194 -0.210664 0.110627 0.415009 0.397822 0.818233
0.00160801 0.310922 0.00054026 0 0.0871958 -0.996191
-0.0162954 0.0141044 0.177296 0.00313241 0.173766 0.984782
0.0322235 -0.248637 0.590086 -0.00925294 -0.499726 -0.866134
-0.00378379 0.236992 0.172538 -0.899149 0.00941564 0.437542
0.0428171 0.194636 0.560029 0.245508 0.0764443 0.966376
0.00131944 -0.0867516 0.394721 -0.341903 0.0869557 0.935704
0.00942158 0.28753 0.278023 1 0 0
0.00265833 0.177351 0.248319 0 0.833558 -0.552432
-0.00523424 -0.351433 0.285685 -0.742038 0.181492 -0.645322
-0.0119755 0.131957 0.409192 -0.271663 -0.947352 -0.169481
0.00851168 -0.387801 0.160852 -0.133972 0.0899277 0.986896
-0.0291426 0.038833 0.198016 -1 0 0
-0.0340462 -0.0124493 0.136967 0.987521 0.127408 0.0925682
0.00746702 0.342665 0.0357303 -0.707286 -0.175797 0.68472
0.00664212 -0.33687 0.075799 -0.903445 -0.368887 0.218423
-0.00386111 -0.265793 0.207052 -0.671127 0.58307 -0.45784
0.0142014 0.400071 0.0457286 1 0 0
-0.0280125 -0.0480559 0.153063 0 1 0
-0.0420537 0.248128 0.530995 -0.997153 0.0725133 -0.0206917
0.00423581 -0.340808 0.010469 -0.00100783 -0.0871568 -0.996194
0.0351638 -0.270346 0.286226 -0.570889 -0.773892 0.274186
0.0137203 -0.174235 0.338694 0.983471 0.152418 0.0977428
-0.0351473 0.210153 0.295058 -0.965211 -0.260864 0.0178506
-0.00178167 -0.410688 0.140619 0.412508 0.191244 -0.890653
0.000608806 -0.0160108 0.204217 0 0.408015 0.912975
0.01633 0.215025 0.556246 0 0.253068 0.967449
-0.00609979 -0.208108 0.244215 -0.999933 0.0115554 2.22675e-06
0.00394441 -0.21475 0.320271 -0.0756279 0.99058 -0.114156
-0.00819448 0.0588292 0.257236 -0.865744 -0.443665 0.23162
-0.00460405 0.44249 0.161351 -0.74407 -0.665557 -0.0582503
0.063958 0.289693 0.156431 0.340576 -0.0351737 0.939559
-0.0185647 -0.0147573 0.122756 1 0 0
0.00152624 0.169829 0.471072 0 0.968428 -0.249292
0.00994112 -0.215943 0.240171 0.741879 -0.552085 -0.380549
0.00468059 -0.396524 0.250194 -0.702071 0.42388 -0.572208
0.00319912 0.239795 0.319674 0 0.939825 -0.341657
0.0264609 0.286039 0.144718 0 -0.865991 -0.50006
0.00425662 0.142074 0.399055 0 -0.170566 -0.985346
0.114705 0.0286744 0.28097 0 0.64225 -0.766495
-0.00447111 0.00959425 0.36506 -0.642818 -0.070881 -0.762733
0.00185597 -0.246952 0.343111 -0.270007 -0.956382 0.111488
0.00943097 -0.303138 0.0825446 0.401686 -0.875023 -0.270156
0.0115012 -0.391427 0.0409023 0.999933 -0.0115564 -7.56271e-06
-0.0712611 0.00759947 0.0341389 0.93635 0.351068 0
-0.00427259 -0.429079 0.206581 0.714613 0.631444 -0.301011
0.00386698 -0.272007 0.308455 -0.00427758 -0.370061 -0.928998
0.0029913 -0.223338 0.590089 0.00676188 0.594321 0.804199
0.0100167 -0.260579 0.129992 -0.682667 -0.359732 -0.636049
-0.00793457 -0.366899 0.0268318 -0.999933 0.011544 -2.21887e-05
-0.00500277 0.337254 0.298869 0.8908 -0.140416 -0.432156
0.0346333 0.200371 0.312466 0.963677 -0.265867 0.0253157
-0.00398726 0.331512 0.0955857 0.137194 0.878353 0.457901
0.0144133 0.201878 0.529893 0 -0.404898 -0.914362
0.0111203 -0.350733 0.202576 0.126155 -0.850184 -0.511148
-0.00607354 0.2991 0.293362 -1 0 0
-0.0120375 0.0717264 0.161218 0.852768 0.153349 0.49927
-0.0068705 -0.211687 0.525324 -0.995037 -0.0823365 -0.0558665
0.00789094 -0.235715 0.160191 -0.409597 0.0180738 -0.912087
0.00678189 -0.347358 0.27467 0.707864 0.0804602 -0.701751
0.0163069 0.334682 0.170743 0.677452 -0.296956 0.67296
0.00424488 0.145095 0.132432 6.33107e-06 -0.99988 0.0154607
0.0791648 0.00129996 0.29213 0 0 1
0.0138375 -0.189239 0.109887 0.999933 -0.0115544 4.47375e-06
0.00736299 -0.370018 0.0354262 0.999933 -0.0115532 1.30991e-06
-0.00526648 0.153813 0.201902 -0.606435 -0.742598 0.284228
0.072138 -0.258127 0.584741 0.0583361 -0.0495508 -0.997067
0.0133837 -0.228505 0.0510302 0.999933 -0.0115581 1.01571e-05
-0.0291426 -0.0322717 0.195391 -1 0 0
0.0137431 -0.197404 0.22141 0.999933 -0.0115789 -7.44122e-06
-0.046596 0.298997 0.16412 0.737494 -0.604542 -0.301051
-0.0115062 0.240541 0.551331 -0.0994602 0.132816 0.986138
-0.0064045 -0.436998 0.19207 -0.999933 0.0115594 7.49625e-07
-0.00301357 -0.277642 0.0422293 -0.00275725 -0.248675 0.968583
-0.00562517 0.0577429 0.377249 -0.642822 0.0708813 0.762729
0.00685188 -0.311507 0.035585 0 0 1
-0.00370467 0.191809 0.0874157 -1 0 0
0.0127104 0.254203 0.0239685 0.748267 0.280369 0.60124
-0.0185647 0.0199001 0.118918 1 0 0
0.00929554 -0.255871 0.596311 -0.0184992 -0.999829 0
-0.00370467 0.279755 0.022245 -1 0 0
-0.00502739 0.236568 0.27356 -0.744082 0.282367 -0.605484
0.00983603 0.259602 0.302311 -0.895074 0.0835571 -0.438019
-0.00180744 0.263443 0.281144 -0.744108 0.172886 -0.645302
-0.00908295 -0.228603 0.375578 -0.995103 0.0973958 -0.0168735
-0.00603512 -0.405016 0.257384 -0.999933 0.0115587 4.42424e-06
0.012831 -0.300894 0.204757 0.894745 -0.354055 0.272168
0.0082538 0.162728 0.230326 0 -0.832469 0.554072
-0.113195 -0.00812587 0.0407007 0 -0.866227 0.499651
0.0122193 0.352387 0.180068 -0.409678 0.422971 -0.808245
0.0120065 0.337539 0.201265 -0.135042 0.832605 -0.537152
-0.00333649 -0.381933 0.289805 -0.760259 -0.267321 0.592068
0.0187738 0.338031 0.318574 0 -0.173561 -0.984823
-0.0185647 -0.0262179 0.100802 1 0 0
-0.00271805 0.182 0.150967 0 0.998026 0.0628076
-0.00509088 0.0940785 0.331354 -0.64219 -0.679518 0.35475
0.0202317 -0.215049 0.499612 0.676027 0.135133 0.72438
-0.00683289 0.455191 0.201203 -0.691474 0.634259 0.345804
0.00822742 0.00789614 0.124594 0.642146 0.679552 -0.354763
0.0167648 -0.323558 0.131267 0.90363 0.368476 -0.218355
0.0142014 0.163411 0.175 1 0 0
0.00796136 0.247267 0.0838725 -0.409524 0.732473 -0.543851
0.00895756 0.302541 0.0296314 0.707132 0 0.707082
-0.00232565 -0.442169 0.117764 0.0116517 0.96585 0.258841
0.0145247 -0.285398 0.157712 -0.413622 -0.123512 0.902032
-0.00385688 0.244077 0.0295593 -0.744105 0.282341 0.605468
0.0330291 0.312489 0.164165 1 0 0
-0.00742737 -0.0102801 0.155426 -0.018023 -0.999838 0
0.0407294 0.0181828 0.16772 0.908575 0.39215 -0.143907
0.0352904 0.221284 0.523553 0 0.0332072 -0.999448
0.000293318 -0.234733 0.444142 -0.269937 -0.956402 0.111489
0.00321137 -0.428284 0.0577319 -0.00817568 -0.707051 -0.707115
-0.0524294 0.312506 0.147253 0.925831 0 -0.377937
0.0553358 0.0295666 0.258245 -0.0324377 0.992535 -0.117567
-0.00415004 -0.241884 0.060077 -0.999933 0.0115603 -4.21688e-06
0.0150169 0.120084 0.36721 0.984816 0.0160629 0.172854
-0.00302572 -0.118449 0.375741 -0.642818 -0.070881 -0.762733
0.00276069 -0.0579425 0.368208 0 -0.0925353 -0.995709
0.0833464 0.0528753 0.291048 0 0.872947 0.487814
0.00277577 -0.172653 0.311385 0 -0.839748 -0.542977
-0.0124898 0.139049 0.541084 0 -0.106633 -0.994298
0.0109573 -0.438491 0.226852 0.999933 -0.0115502 -4.8992e-06
0.0150317 -0.142782 0.391553 0.984816 0.0160629 0.172854
0.0129084 0.175802 0.202968 0.748286 0.601236 -0.280329
0.00920127 -0.210922 0.090958 0.999933 -0.0115541 7.47307e-06
-0.00195434 0.246506 0.107252 0.677931 0.50377 -0.535374
-0.0209183 0.0464893 0.120751 0 -0.820694 0.571367
0.00955717 0.298549 0.224582 -0.679413 0.733268 -0.026743
0.00349138 -0.375246 0.241932 -0.419338 -0.734752 -0.533194
-0.00401654 0.273338 0.09193 -0.409013 0.782174 -0.470013
-0.00584424 -0.310441 0.21122 0.148994 0.973891 -0.171279
-0.0250172 -0.263862 0.296804 0.571959 -0.792952 0.209977
-0.00223607 -0.218992 0.225405 -0.00938173 -0.770463 -0.637416
-0.00954466 -0.204459 0.564426 -0.960806 0.260037 -0.0960848
0.0131582 -0.352768 0.138937 -0.132954 0.406433 -0.903956
0.0398536 0.385607 0.322558 -0.499815 0 0.866132
0.00908731 -0.243983 0.295016 -0.582683 -0.441911 -0.682052
-0.0156993 0.0982017 0.155885 0.971599 0.161024 -0.173397
0.047127 -0.316019 0.141703 0.0115299 0.999933 0
0.00777061 -0.365232 0.101652 -0.894005 0.41256 -0.174785
0.00137859 -0.196543 0.174941 -0.0115855 -0.982219 -0.187381
0.00240103 0.0152045 0.177042 0.00313241 0.173766 0.984782
0.0407052 0.171385 0.539793 0.808263 -0.374046 -0.454754
-0.0461332 0.229248 0.149077 -0.335702 -0.0740666 -0.939052
-0.00412486 0.405169 0.268508 0.867062 -0.266955 -0.42064
-0.00909221 0.323666 0.171963 -0.136383 -0.674898 0.725198
0.117099 -0.248856 0.603131 -0.00320542 -0.173272 0.984869
-0.00247664 0.363386 0.105762 0.134153 -0.605166 -0.784715
0.0660467 0.00460481 0.279406 -1 0 0
-0.0333487 -0.00541816 0.0855624 -0.73905 0.130183 0.660952
0.012466 0.0548058 0.225939 0.86564 0.443826 -0.231704
-0.0185647 -0.02285 0.172151 1 0 0
-0.0582531 -0.236255 0.595542 0.0185131 0.999829 0
-0.0179912 0.327834 0.318723 -0.766067 0.00125788 -0.642759
0.0113124 -0.177761 0.354253 0.841427 0.455594 0.290576
-0.0219347 0.197071 0.324094 0.609602 0.711872 0.348746
0.0113959 0.139061 0.383331 0.86564 0.443826 -0.231704
0.0516677 0.0249839 0.231048 0.711596 0.649355 -0.268272
0.00540323 0.195144 0.26828 0 0.637437 -0.770502
-0.0063514 -0.187129 0.23839 -0.502691 0.723378 0.473313
0.00733685 0.213702 0.0692415 -0.707053 0.484104 0.51548
0.0949527 -0.251781 0.590194 0 -0.765839 -0.643032
0.00806856 -0.159264 0.140403 0.414089 0.708103 -0.571945
0.000967019 -0.103382 0.396138 -0.341903 0.0869557 0.935704
0.00559625 0.325668 0.308782 0 -0.0627957 -0.998026
0.0112712 -0.217531 0.368817 0.433405 0.895249 -0.103385
-0.00602039 0.160376 0.482429 -0.862778 -0.489621 0.12604
0.00413257 -0.424686 0.218339 -0.999933 0.0115418 7.33856e-06
-0.00321305 0.0908234 0.376208 -0.642822 0.0708813 0.762729
-0.00139961 -0.218262 0.540334 -0.43321 -0.897234 0.0854446
0.0400172 0.239956 0.246061 -0.659507 -0.560585 -0.500795
-0.00607354 0.163193 0.163613 -1 0 0
0.0166646 0.0298817 0.163526 0.0169402 0.939732 0.341491
-0.00234838 -0.448079 0.0853539 -0.0105729 -0.90625 -0.422609
-0.0258125 0.20404 0.559119 0 0.253068 0.967449
0.0083752 0.345271 0.280782 0 0.368118 0.929779
-0.027152 -0.336802 0.124675 -0.0264205 -0.642416 -0.7659
-0.00472083 -0.291276 0.0333537 -0.999933 0.0115459 1.19916e-05
-0.0712136 -0.263555 0.585046 -0.0584072 -0.0497688 -0.997051
-0.00120754 -0.302062 0.00993172 0.00101698 0.0871567 -0.996194
0.0142014 0.376868 0.277061 1 0 0
0.00634256 -0.387492 0.195079 -0.680362 -0.284283 -0.675492
-0.0010407 -0.0131794 0.129656 -0.341398 -0.833208 0.434985
0.0310406 0.210348 0.557469 0 0.253068 0.967449
-0.00379174 0.239627 0.291004 0.881314 0.201199 -0.427556
-0.00818667 -0.190446 0.346229 -0.626751 -0.654895 -0.42225
-0.00607354 0.41958 0.241594 -1 0 0
-0.00607354 0.41704 0.0638209 -1 0 0
-0.0115258 -0.302829 0.17112 -0.671127 0.58307 -0.45784
-0.0138822 0.289331 0.172038 1 0 0
-0.0248261 0.300276 0.170432 0.982287 -0.177886 -0.0589023
-0.0264448 -0.0342982 0.0878185 -0.947055 -0.169793 -0.272503
-0.0030836 0.041253 0.232318 -0.341474 -0.833183 0.434973
-0.0190294 -0.0157263 0.138369 0.947078 -0.26337 -0.183519
0.00988178 -0.445544 0.110874 0.755615 0.632106 0.171717
0.120623 0.0354736 0.29213 0 0 1
0.0539989 0.233821 0.146114 0.332546 -0.0931273 -0.938478
-0.00370467 0.184154 0.111573 -1 0 0
-0.0156677 0.205084 0.528473 0 -0.404898 -0.914362
0.0251853 -0.238131 0.302366 0.203776 0.858082 -0.47135
-0.000376075 0.112219 0.568975 0 0.0306227 0.999531
-0.0236908 0.0244312 0.226229 0 0.99914 -0.0414637
-0.0250434 0.0650765 0.176841 0 0.918915 0.394456
-0.00246639 0.209185 0.056393 -0.744113 0.472377 0.472394
0.0205821 0.103263 0.550034 0.535187 -0.306454 -0.787185
-0.0408053 -0.00758594 0.15189 -0.707196 -0.571985 0.41558
-0.0209399 0.0702517 0.148338 0 1 0
-0.00332486 0.186301 0.187869 -0.706583 0.695099 -0.132584
0.00784755 -0.25948 0.0511353 0.702999 -0.34886 0.619749
-0.00477639 0.0523646 0.208594 -0.642112 0.679578 -0.354777
0.0116102 -0.000287987 0.383616 0.642817 0.0708816 0.762733
0.00917128 0.304595 0.287032 0.74822 0.0578449 -0.660925
-0.00370467 0.426703 0.125141 -1 0 0
0.0453657 -0.30817 0.173632 0.456002 0.846918 -0.27348
0.0146061 -0.170992 0.19602 0.351043 0.92321 0.156373
-0.0315684 0.35465 0.319532 0.939688 0 -0.342033
0.0281728 0.133857 0.5472 0.986946 -0.151776 0.0538654
0.00631389 0.459045 0.178756 0 -0.987981 -0.154575
0.0360801 0.384941 0.301817 0.99801 0.0556451 -0.0296704
-0.0259748 0.274459 0.243987 0.368779 -0.882401 -0.292183
-0.0068026 0.149086 0.429406 -0.984372 -0.170539 0.0439009
0.0214204 0.148154 0.566827 0 0.102623 0.99472
-0.0406077 0.00329654 0.139736 -0.707091 0.21851 -0.672514
0.00784528 0.101478 0.345608 0.642205 -0.679507 0.354744
0.0134376 0.463759 0.156188 0.452031 -0.863977 -0.22184
-0.00091281 0.276602 0.237593 -0.898599 0.359866 0.25103
0.0134849 -0.0481093 0.210409 0.985129 0.0885408 0.147245
-0.000836695 -0.448968 0.144867 -0.0117886 -0.997958 -0.0627738
-0.027859 0.0520419 0.211867 0.999987 0.00511566 0.000267289
0.0147559 -0.32029 0.179013 -0.893985 0.439704 -0.0863224
-0.00607354 0.424608 0.0773579 -1 0 0
0.0138042 -0.19212 0.207888 0.999933 -0.0115789 -7.44122e-06
0.00361702 -0.227332 0.311808 -0.0078834 -0.115131 -0.993319
0.00248912 0.415911 0.208122 0 -0.904826 -0.425783
-0.00672941 -0.262593 0.0270057 -0.999933 0.0115454 2.20921e-05
-0.00370467 0.386243 0.0598402 -1 0 0
0.0142014 0.33314 0.292947 1 0 0
0.0995586 -0.277364 0.596469 0.0856343 -0.995011 0.051191
-0.0543018 0.00482573 0.074694 0 0.994855 -0.101311
-0.00215711 0.00306936 0.176171 -0.00616435 -0.341982 0.939686
0.0444626 -0.28688 0.234047 0.998257 0.0532299 0.0254782
0.0144577 -0.200716 0.258257 0.539619 0.650614 0.534334
-0.0234665 -0.0641932 0.134627 0 -0.00904341 -0.999959
0.0043109 0.397757 0.0813935 0.990291 -0.111924 0.082441
0.049294 0.210895 0.146721 0.332537 -0.0931259 -0.938481
-0.00363697 -0.197476 0.119973 -0.999933 0.0115623 2.2202e-06
-0.00754017 0.149789 0.186536 -0.606435 -0.742598 0.284228
0.0115215 0.430018 0.235131 0.839745 0.444795 0.311425
0.00965692 -0.451206 0.13271 0.755549 0.63219 0.171703
0.0257967 0.301928 0.132675 0 -0.173455 -0.984842
0.0294462 0.00930187 0.162199 -0.996601 -0.0493656 0.0659505
0.00946796 -0.187843 0.15303 0.999933 -0.0115428 -3.18617e-06
-0.00885704 0.318763 0.118844 -0.898843 -0.31974 -0.299745
0.0142014 0.383696 0.0374202 1 0 0
-0.0607992 0.29994 0.11539 0.585337 -0.325405 -0.742625
-0.0167718 0.171584 0.3491 0.659466 -0.561983 -0.499279
-0.0332369 -0.0324106 0.179492 -0.987521 -0.12741 0.0925703
-0.0165443 0.101415 0.556827 -0.979687 -0.192852 0.0549758
-0.00607354 0.439555 0.109523 -1 0 0
0.0143857 -0.116926 0.380557 0.865997 -0.0462711 -0.497904
-0.120953 -0.236696 0.605826 0 0.643153 0.765738
-0.00831314 0.0759014 0.368826 -0.984808 0.0160677 0.1729
-0.0269694 -0.257849 0.276575 0.633974 0.591415 -0.498303
-0.0314928 0.150143 0.162644 -0.00197124 0.0181096 0.999834
0.0327039 0.323823 0.184981 -0.844342 0.472796 -0.252091
-0.00403206 0.243948 0.524816 0 0.051765 -0.998659
-0.00370467 0.376508 0.0396353 -1 0 0
0.103651 0.0062209 0.274083 0 0 -1
0.105314 0.0486533 0.274083 0 0 -1
-0.0809325 0.302547 0.0842753 0.720674 -0.609042 -0.331204
-0.0199735 0.120982 0.562883 -0.979755 -0.188662 0.0669857
0.0378197 0.226159 0.282792 0.368394 0.742577 0.559344
-0.0171066 0.257413 0.183429 -0.0143712 0.123836 0.992199
0.0139407 -0.0132062 0.189853 0.986004 0.0660265 0.153088
-0.00598313 -0.400526 0.0632577 -0.999933 0.0115567 3.677e-07
0.0133661 0.441531 0.127271 0.748205 -0.640856 0.171738
-0.0140055 -0.242369 0.325348 -0.638642 -0.207523 0.740993
-0.0317805 0.042373 0.0821507 0.581324 -0.142002 0.801185
0.0144451 0.0841457 0.361974 0.865997 -0.0462711 -0.497904
0.0178593 0.0236824 0.14085 0.0115848 0.64265 -0.766072
0.00535702 -0.278167 0.280451 -0.00299243 -0.258792 -0.965929
-0.0103988 0.0773192 0.277351 -0.984758 0.154183 -0.0804926
-0.0111272 -0.0502034 0.208682 -0.985142 0.0882893 0.14731
-0.05317 -0.00105703 0.104554 0 -0.998332 0.0577295
-0.025853 0.205024 0.115452 -0.993195 0.0807062 -0.0839712
-0.0185647 0.0419553 0.154495 1 0 0
0.0226077 0.387391 0.318635 -0.173739 0.000285803 -0.984792
-0.00716269 0.375408 0.286371 -0.850765 0.282721 0.443022
-0.0245975 0.113677 0.201613 -0.0127189 0.134019 0.990897
0.00717713 -0.455799 0.210976 0.83396 -0.501839 0.229496
-0.0185647 0.0216268 0.0912489 1 0 0
0.0330291 0.315832 0.139557 1 0 0
-0.0313089 -0.287915 0.225012 0.80851 0.510739 -0.29233
-0.0420357 0.191371 0.552024 -0.984123 -0.17068 0.0486782
-0.0681935 0.307844 0.146822 -0.925831 0 0.377938
0.00176153 -0.208355 0.58514 0.00785549 0.115213 0.99331
-0.00472822 -0.465388 0.15331 -0.764566 -0.642027 -0.0569295
-0.0257246 0.312488 0.163129 0.685579 0.642389 -0.342517
-0.00370467 0.300108 0.279569 -1 0 0
-0.070377 -0.0160092 0.0394251 0.93635 -0.351068 0
0.00932744 0.0341033 0.176785 0.642146 0.679552 -0.354763
-0.0329708 -0.0322144 0.209598 -0.00012769 -0.540313 0.841464
-0.0216081 0.258559 0.131611 -0.574418 0.243147 -0.781616
-0.00292817 0.195268 0.231587 -0.706961 -0.544957 0.450808
0.0087055 -0.205177 0.466879 0.269992 0.956387 -0.111487
0.0181716 -0.31826 0.161901 0.147569 0.982702 0.111895
0.0131349 0.0634023 0.249923 0.984756 0.154192 -0.0804974
-0.0103574 0.147245 0.566921 0 0.102623 0.99472
0.00843835 -0.211397 0.412874 0.269992 0.956387 -0.111487
0.00553032 -0.411047 0.234652 0.0085448 0.770473 -0.637416
-0.0379986 0.250644 0.549033 -0.230339 0.168651 0.958385
0.0127471 0.0559406 0.36171 0.642813 -0.0708815 -0.762737
-0.0154517 0.302153 0.121506 0 -0.998222 -0.0596017
-0.0478658 0.311725 0.158433 0.925831 0 -0.377937
-0.00292364 0.388294 0.0449325 -0.7441 -0.383197 0.547243
0.0140559 -0.232487 0.283323 -0.58268 -0.441911 -0.682055
0.00242253 -0.418482 0.0827674 0.00995842 0.844277 0.535815
-0.0100637 0.0539142 0.238132 -0.984758 -0.154182 0.0804917
0.00517207 -0.146784 0.272362 0.311644 -0.798162 -0.515573
-0.00414916 0.161517 0.538095 0 -0.132024 -0.991246
0.0613448 -0.264003 0.597456 -0.993372 0.111437 -0.0281733
0.00385337 -0.465181 0.175391 -0.0115183 -0.996126 0.0871806
0.0188316 0.140039 0.405709 1 0 0
0.0188539 -0.00606012 0.143501 -0.0138072 -0.765978 -0.642719
-0.0804126 -0.240018 0.589741 0.00925295 0.499558 -0.866231
0.00984928 0.213574 0.0532638 0.74824 0.469106 0.469123
0.0214025 0.365425 0.320958 -0.999999 0.00164502 0
0.0154004 0.32915 0.120626 0.136329 -0.739141 -0.659609
0.00054839 0.436608 0.175983 0 -0.965915 -0.258859
0.0078278 -0.329794 0.0242793 0.999933 -0.0115509 1.16081e-05
0.00596218 0.177153 0.562981 0 0.131645 0.991297
-0.00803018 -0.179117 0.218853 -0.946375 0.303096 0.111837
-0.0747325 0.0217867 0.0431926 0 1 0
-0.0127296 0.224025 0.185553 0.999718 0.0149973 0.0184287
0.0114224 0.283708 0.0037492 0.839704 -0.047353 -0.540976
0.00975625 0.156799 0.455902 0.984359 -0.17061 0.0439193
0.0131542 0.344499 0.103616 0.899543 -0.235094 -0.368175
0.00218921 -0.220279 0.283487 0.00728067 0.630819 0.775896
-0.0297698 -0.308851 0.142917 -0.999933 0.01156 -0.000247101
0.0202036 0.160284 0.367291 0.3079 -0.825051 -0.473802
0.0151167 0.251503 0.524744 -0.0467753 0.0389583 -0.998145
0.0168553 -0.303524 0.164515 0.143246 0.528439 -0.836799
-0.00666879 -0.263018 0.287691 -0.753878 0.284838 0.592061
0.0789353 0.0298419 0.283246 0 0.984975 -0.1727
-0.0222974 0.322571 0.143672 -1 0 0
0.00142337 0.360379 0.301882 0 0.30857 0.951202
-0.00456963 0.430237 0.230632 -0.757137 0.535145 0.374652
-0.0630347 -0.00263878 0.0596967 -0.998581 0.00621315 0.0528971
0.0559481 0.286775 0.148745 -0.96846 0.179151 -0.173175
0.00259047 -0.303189 0.265356 0.893984 -0.444027 -0.0602751
0.000481269 -0.132919 0.291896 0 0.843826 0.536617
0.00942158 0.414649 0.0780005 1 0 0
-0.00673325 0.268037 0.186745 -0.678703 0.447805 0.582094
-0.0134359 -0.302282 0.149643 0.999934 -0.0115213 -0.000100698
-0.018778 0.155393 0.379931 -0.965211 -0.260864 0.0178506
0.0532801 0.259608 0.21876 0.835699 -0.522764 -0.168298
-0.0443216 -0.247363 0.602374 -0.00926393 -0.500313 0.865795
0.0110168 -0.235475 0.430405 0.411974 -0.904646 0.109059
0.00942158 0.397437 0.0599436 1 0 0
-0.0020878 -0.372552 0.044954 0.00534251 0.481721 0.876308
-0.00379532 -0.441092 0.238881 -0.763216 -0.526379 0.374735
0.011699 -0.291878 0.29811 0.841264 0.13084 0.524553
-0.00186589 0.164714 0.514534 -0.337475 -0.911614 0.23467
-0.00639071 -0.135855 0.39396 -0.865996 0.046271 0.497906
-0.0249079 0.0296965 0.123329 -1 0 0
0.0137561 -0.131663 0.265989 0.981356 -0.161789 -0.103753
-0.0062401 -0.220254 0.253814 -0.999933 0.0115531 4.89323e-06
-0.00365931 -0.19941 0.192889 -0.999933 0.0115576 1.13617e-06
0.0845736 -0.236811 0.588398 0 0.6428 -0.766034
-0.0188115 0.177015 0.194252 -0.0186543 0.102583 0.99455
-0.0104735 0.143078 0.403641 0.0892665 -0.587783 0.804079
-0.0336267 0.0126737 0.143348 0.70729 0.218448 -0.672325
-0.00370467 0.21244 0.236217 -1 0 0
-0.00841633 -0.215618 0.446194 -0.901337 0.429536 -0.0555914
0.0249337 0.30314 0.320695 0.939687 -0.00154581 0.342033
-0.0184533 0.344484 0.321426 -0.766058 0.00125787 0.64277
0.00512829 -0.283873 0.248394 -0.421217 -0.862011 0.281982
-0.0011351 0.430517 0.251962 0 0.728053 0.685521
0.00740162 0.330065 0.272187 -0.70743 -0.0885914 -0.70121
0.0478857 0.0223247 0.21458 0.711596 0.649355 -0.268272
-0.0218472 0.0168961 0.163224 0 -0.758614 -0.651541
0.0112654 0.356199 0.0261871 0.748246 -0.280359 0.601271
-0.00944143 -0.171802 0.320773 -0.856586 -0.433996 -0.279119
-0.00126091 0.114983 0.353137 -0.342151 -0.0869504 -0.935613
0.0219761 -0.341206 0.15257 -0.889392 -0.393274 0.233061
-0.00814611 -0.26871 0.304704 -0.568641 0.310105 0.761894
-0.0927022 -0.236017 0.598626 0.0174026 0.939547 0.341977
-0.000232985 -0.0317418 0.211424 0 0.517722 0.855549
0.00689313 -0.410678 0.250671 0.999933 -0.0115549 -8.14819e-07
0.00234095 -0.162915 0.162837 0.0115095 0.985988 0.166416
0.00870754 0.393826 0.23564 0.707336 -0.54465 -0.450592
-0.124825 -0.0146321 0.0303457 0 0 -1
0.0256729 -0.24047 0.318866 0.962824 -0.269104 0.0235381
-0.00374339 -0.206687 0.0889243 -0.999933 0.0115535 -6.18972e-06
-0.0170112 -0.309345 0.121381 0.0205442 0.499513 -0.866063
0.00750521 -0.243258 0.376195 0.0756825 -0.990203 0.117347
0.0142014 0.197577 0.243055 1 0 0
0.00670064 0.176099 0.50294 0.636915 0.746592 -0.192198
-0.117419 0.011552 0.0335576 0.590047 -0.807369 0
-0.0185647 -0.0531946 0.172372 1 0 0
0.00675235 -0.187921 0.403783 0.34192 0.0869554 0.935697
-0.00840423 -0.159819 0.390213 -0.984808 0.0160677 0.1729
-0.00522159 -0.322441 0.316776 -0.521457 0.0888658 0.848637
-0.00352817 -0.402575 0.0359788 -0.761365 -0.365962 -0.535159
-0.00854496 -0.230092 0.408742 -0.968859 -0.246461 0.0238749
0.00891131 0.150023 0.424072 0 0.497247 0.867609
-0.00768587 0.262974 0.144078 -0.411968 0.0818147 -0.907518
0.0058213 -0.197697 0.561168 0.433073 0.898081 -0.0767938
0.00743972 -0.261612 0.0872148 -0.144002 -0.762476 -0.630788
-0.0593656 -0.250516 0.596883 -0.0185129 -0.999829 0
-0.12607 -0.0141451 0.0483922 0 0 1
-0.0198518 0.0109238 0.126459 0 0.999126 0.0417996
0.0068419 -0.298645 0.0368664 -0.00302861 -0.248663 0.968585
-0.0185647 0.00909026 0.209085 1 0 0
0.0390003 -0.32965 0.133407 0.999933 -0.0115486 1.64956e-06
0.0308911 0.13173 0.149229 -0.340181 0.0350906 -0.939705
0.0097482 0.322042 0.0761276 -0.135345 0.958337 0.251539
0.0489442 0.229476 0.549316 0.997153 0.0725115 -0.0206795
0.00148578 0.152972 0.397821 0 0.886468 -0.462789
-0.0349652 -0.0635374 0.152646 -0.739155 0.665583 -0.103189
-0.0573028 0.275694 0.157218 -0.855651 -0.13541 0.499525
0.00495185 -0.3913 0.0580935 -0.704592 0.422373 0.57022
0.0118282 -0.260645 0.300306 -0.584895 -0.294366 -0.755808
0.00924189 0.0099506 0.167761 0.64222 -0.679496 0.354738
0.0188894 0.323209 0.150901 0.680214 0.151625 -0.71716
-0.00498658 0.193724 0.560793 0 0.132246 0.991217
-0.0498587 -0.315643 0.153597 -0.705783 0.13082 0.696244
0.000472471 -0.346147 0.0331628 -0.894188 0.446849 0.0274632
0.00855272 0.198982 0.0710378 0 0.819156 0.573571
0.000723908 -0.1192 0.233984 0 -0.51064 -0.859795
-0.019262 0.0282591 0.15386 0.947018 0.319515 0.0326639
0.00889606 -0.390317 0.268737 0.752605 0.371846 -0.54343
-0.0110068 0.293153 0.142537 -0.135213 -0.595149 0.792159
-0.0163796 0.282904 0.318666 0.500103 -0.000821175 -0.865965
-0.0720147 -0.250077 0.59809 -0.0173966 -0.939545 0.341983
0.0428969 0.179333 0.555156 0.930588 -0.352034 0.100388
0.0161087 0.354781 0.291711 0.874536 0.150431 0.46104
0.00903716 -0.103022 0.227521 0.659158 -0.384303 -0.646392
-0.0327382 0.295998 0.32261 0.499792 0 0.866146
-0.020624 0.0363047 0.0930757 0 0.970339 0.24175
0.0115355 -0.00146427 0.366023 0.642813 -0.0708815 -0.762737
0.00942158 0.328178 0.0216666 1 0 0
0.0428815 -0.272606 0.253011 0.563441 0.724853 -0.396388
0.00942158 0.272216 0.27646 1 0 0
0.00847239 -0.277942 0.221039 -0.148913 -0.850696 0.504124
0.015005 -0.28594 0.140477 0.676225 -0.199543 -0.709156
0.00208082 -0.0576399 0.392072 0 0.0925321 0.99571
-0.00185104 -0.281212 0.0791182 -0.125946 0.897062 0.423577
-0.00370467 0.346857 0.275587 -1 0 0
0.00529638 0.293611 0.312918 0 0.0627013 0.998032
0.00263939 0.202423 0.0399454 0 -0.707082 -0.707131
0.022163 -0.309722 0.138162 -0.999933 0.0115587 2.01057e-05
0.00942158 0.431945 0.14259 1 0 0
-0.00196389 0.363945 0.209246 -0.678114 0.57511 -0.457613
0.0101516 0.423333 0.217843 0.748181 -0.601343 -0.280378
-0.00501728 0.276106 0.297139 -0.757073 -0.169103 0.631067
-0.00505938 -0.253694 0.589908 -0.0141869 -0.765463 -0.643324
-0.0056796 0.174865 0.101814 -0.74407 0.605501 0.282362
0.0330291 0.292384 0.168706 1 0 0
-0.00867388 0.0111928 0.138687 -0.865746 0.443662 -0.231619
-0.0108176 -0.160154 0.308918 -0.981384 -0.161532 -0.103887
0.00942158 0.235694 0.266059 1 0 0
0.00942158 0.320201 0.280968 1 0 0
0.0114137 -0.215745 0.528538 0.810834 -0.570006 0.132823
0.010851 0.170518 0.128724 0.748206 0.640865 0.171698
-0.00581679 0.283322 0.00779807 -0.75708 -0.0569359 -0.650836
-0.0323013 -0.00311196 0.172028 -0.0115843 -0.64266 0.766064
0.0136057 0.180825 0.215598 0.748185 0.601317 -0.280424
-7.45291e-07 -0.0279743 0.365962 -0.342151 -0.0869504 -0.935613
-0.00312306 -0.197427 0.155224 -0.715147 -0.697563 0.0443937
-0.000325099 0.130204 0.542032 0 -0.106617 -0.9943
-0.0439519 0.214092 0.538478 -0.999315 -0.0355785 0.010149
0.0168864 0.158173 0.53854 0 -0.132024 -0.991246
-0.00679633 -0.296282 0.106284 -0.418181 -0.785243 -0.456638
0.0135384 -0.176492 0.168758 0.845874 0.53128 0.0473246
-0.0181575 0.329598 0.162913 -1 0 0
-0.00523514 -0.0234438 0.385122 -0.642822 0.0708813 0.762729
0.0100399 0.429564 0.101002 0.748275 -0.601244 0.280337
-0.117992 -0.248591 0.587567 0 -0.500014 -0.866017
0.0155424 -0.161853 0.389204 0.984811 -0.0160662 -0.172884
0.00676383 -0.299643 0.0676088 0.124762 -0.959757 -0.251597
0.0115392 -0.221878 0.332304 0.433405 0.895249 -0.103385
-0.0391812 0.235068 0.2511 0.0311976 -0.832134 -0.553696
0.00942158 0.227237 0.0471835 1 0 0
0.0173105 0.318642 0.135129 -0.408423 0.653955 0.636815
-0.0144108 0.214185 0.556465 0 0.253068 0.967449
-0.0204997 -0.240998 0.297783 -0.230515 0.860224 -0.454838
-0.0291426 0.0507001 0.112131 -1 0 0
-0.0185647 -0.0307876 0.139481 1 0 0
-0.0314488 0.205382 0.528341 0 -0.404898 -0.914362
0.00942158 0.31664 0.0203988 1 0 0
0.00902323 -0.213402 0.553186 0.810895 -0.569921 0.132812
0.0168375 -0.252692 0.315246 0.393303 -0.661747 -0.638282
0.0115808 0.42672 0.252222 0.795601 0.442673 0.413593
-0.0384605 0.223501 0.553774 -0.212945 0.233541 0.948743
-0.00555647 -0.127787 0.280367 -0.60232 0.67302 0.429249
-0.0242225 0.289623 0.13814 0.693189 -0.0186009 -0.720516
-0.00876349 -0.350678 0.16533 0.901733 0.239223 0.360071
-0.00147853 -0.168577 0.192161 -0.60186 0.787646 0.131828
0.00238261 -0.185055 0.220819 0.0104789 0.906238 0.422638
-0.00749279 -0.103449 0.250366 -0.658949 0.389089 0.643736
0.0112212 0.0309429 0.20297 0.865736 -0.443679 0.231625
-0.0185647 -0.0546615 0.121005 1 0 0
0.00163429 0.0970677 0.569439 0 0.0306227 0.999531
-0.0872616 -0.0282353 0.0483922 0 0 1
0.00807772 -0.213449 0.394401 0.269993 0.956386 -0.111487
0.00464561 0.216683 0.0286879 0 -0.573578 -0.819151
-0.102058 -0.274617 0.59321 -0.0583343 -0.0494357 -0.997072
-0.00374755 -0.229235 0.474065 -0.583218 -0.80707 0.0921623
0.00942158 0.192875 0.0863332 1 0 0
0.00942158 0.179905 0.143437 1 0 0
-0.0016304 0.0396558 0.381896 -0.341938 0.086955 0.935691
-0.0308155 0.0874631 0.0935401 -0.0681257 -0.164933 0.983949
0.014208 0.322507 0.200673 0.899212 -0.342787 0.271873
-0.00437801 -0.183842 0.105734 -0.750208 0.600792 -0.276112
-0.0107109 0.312932 0.159465 0.408435 0.592182 -0.694623
-0.007466 0.442572 0.218394 -0.819722 -0.501919 -0.275923
-0.00395923 -0.225374 0.0732324 -0.999933 0.0115547 -1.3412e-06
-0.000919686 0.245037 0.0129604 -0.757058 -0.276109 -0.592138
0.00740177 0.148208 0.195308 -6.95905e-05 -0.929301 0.369323
-0.00405265 -0.366492 0.280971 -0.00408253 -0.368116 0.929771
-0.00167916 -0.234071 0.180047 -0.674337 0.315031 -0.667851
0.00942158 0.414199 0.228822 1 0 0
0.0093197 -0.0595368 0.201934 0.647314 -0.390116 -0.654823
-0.0400313 0.014702 0.159732 0 0.809028 0.587771
0.0122876 -0.0106355 0.156289 -0.018023 -0.999838 0
0.0536993 -0.33129 0.151612 -0.00715416 -0.642585 0.766181
-0.0463422 0.0127078 0.128698 0 0.984996 -0.172576
0.0136423 -0.245632 0.333831 0.564161 -0.819607 0.099837
0.00486232 -0.434556 0.0989619 0.0103338 0.906257 0.4226
0.00825251 0.0269753 0.154021 -0.635687 0.0969359 -0.765836
-0.00788064 0.217551 0.274527 -0.679837 0.31226 -0.663563
0.00555931 -0.189447 0.083653 0.0106167 0.90625 -0.422609
-0.0435949 0.303952 0.148968 -0.0296652 -0.341238 -0.939509
0.0942396 -0.250701 0.605289 0 -0.643148 0.765742
0.00189778 0.0221494 0.360765 0 -0.0925353 -0.995709
0.00748433 -0.326689 0.235788 -0.147501 -0.982713 -0.111887
-0.0249079 0.0234067 0.184113 -1 0 0
0.00667169 -0.18993 0.136782 -0.0115186 -0.996127 0.0871692
0.00186346 0.411928 0.217248 -0.898777 -0.325609 0.293563
0.0273995 -0.331888 0.120502 -0.0136537 -0.341784 -0.93968
0.0117459 0.145845 0.179895 0.0381716 -0.998992 0.0236392
-0.00411455 -0.247417 0.269714 -0.748515 -0.374543 -0.547214
-0.00899009 -0.233597 0.345379 -0.99713 -0.0756207 0.00354802
-0.00607354 0.393561 0.262979 -1 0 0
-0.000267514 0.220024 0.256138 0 0.573575 -0.819153
-0.0051359 -0.296484 0.289075 -0.744702 -0.0496338 -0.665549
-0.00570872 0.188626 0.241701 -0.757084 -0.535159 0.374739
0.0398676 0.00963101 0.156009 0.990244 0.0325611 -0.135484
0.0103286 -0.28566 0.208564 -0.148913 -0.850696 0.504124
-0.0235459 -0.054063 0.188334 0 -0.731079 -0.682293
0.122878 0.0351122 0.276488 0.817409 0.306558 -0.487714
0.0112886 -0.107908 0.251858 0.868276 0.256192 0.424808
-0.00220894 -0.216448 0.414705 2.31724e-05 -0.824827 0.565384
-0.0185647 -0.0104862 0.213319 1 0 0
-0.00958532 -0.198918 0.584136 0.00853954 0.114862 0.993345
0.0924391 0.0436854 0.283208 0 -1 0
0.0127393 -0.178725 0.21561 -0.469972 -0.818655 -0.330047
0.00542847 -0.286605 0.313975 0.00188887 0.175609 0.984458
-0.0337605 0.310625 0.151684 -0.0157737 0.866137 -0.499558
-0.0389144 0.22608 0.266861 -0.609593 -0.711877 -0.348751
-0.00212042 -0.161549 0.336061 -0.328531 0.796988 0.50683
0.0647879 0.0397406 0.278887 -0.952669 0.304009 0
0.00391526 -0.424083 0.0927292 -0.700162 0.605154 0.378896
-0.0592652 -0.00395388 0.0421737 0 0.342001 0.939699
-0.00200724 -0.338142 0.278379 0.708392 0.0804276 -0.701222
-0.00599573 0.318486 0.303705 -0.885222 0.0293142 0.464245
-0.00586913 0.141798 0.411295 -0.862715 -0.489726 0.126065
-0.0222974 0.292341 0.151696 -1 0 0
0.00744568 0.346249 0.267046 -0.707191 -0.260279 -0.65737
0.0277188 0.0283637 0.16461 0.52146 0.801836 0.291785
0.00746962 0.391682 0.277291 0 0.573574 0.819154
-0.0247527 0.164418 0.105481 0.990696 -0.110756 0.0790876
0.0608578 -0.24235 0.589905 0.00925306 0.49973 -0.866132
-0.00599327 -0.234177 0.591442 0.0174122 0.939469 -0.342192
0.0137461 -0.0363593 0.371957 0.866023 -0.0462663 -0.497859
-0.00574721 -0.436454 0.219067 -0.71471 -0.631353 0.30097
-0.0495811 0.00174888 0.0444798 0 0.994855 -0.101311
0.00401458 0.437848 0.0783325 0 0.906319 -0.422593
0.0079976 -0.241816 0.0520037 0.743782 -0.38916 0.543454
0.0401961 0.183006 0.159539 -0.332938 0.0931977 0.938332
0.0136534 -0.237615 0.587517 0.011895 0.642909 -0.76585
0.0131985 0.157104 0.15578 0.839748 -0.540911 0.0473087
0.0147212 -0.210879 0.449805 0.715148 0.694588 -0.078168
-0.0810692 -0.229865 0.58797 0 0.866068 -0.499925
-0.0284289 -0.061651 0.164095 0.532301 -0.253132 0.807824
-0.00370467 0.343387 0.0245784 -1 0 0
-0.0560767 0.00532688 0.134078 -0.979106 0.0237322 0.201959
0.00875473 0.353716 0.228424 0.899656 0.421883 -0.112404
0.00577077 -0.236236 0.064938 -0.712673 -0.475835 0.51544
0.0062809 -0.340667 0.285205 0.000993856 0.0871596 -0.996194
0.0137395 0.318554 0.00671283 0.839699 0.0473223 -0.540986
0.00864975 -0.313398 0.313374 -0.764389 -0.0546422 -0.642436
-0.0189308 -0.344491 0.139998 -0.0404682 -0.984009 -0.17346
-0.0337898 0.0357747 0.145844 0 0 -1
0.117532 -0.234077 0.591403 0 0.865938 -0.50015
-0.00752654 0.131134 0.397924 -0.642175 -0.679529 0.354756
0.0355126 0.25531 0.302826 0.589633 -0.766728 -0.253891
-0.00759302 -0.44962 0.128094 -0.736623 0.653835 0.172881
0.000541387 0.0694248 0.288182 0 -0.886468 0.46279
0.0179928 0.311598 0.161617 -0.680333 -0.668265 0.300946
0.00382813 0.399983 0.0337039 0 0.573578 -0.819151
-0.00988355 0.0735108 0.263752 -0.984761 0.154171 -0.0804867
0.0251229 0.420651 0.320707 0.939687 -0.00154581 0.342033
-0.0219797 -0.0185389 0.151767 -0.947096 -0.320949 0
-0.00925807 0.0975193 0.306228 -0.865746 0.443662 -0.231619
0.0105317 0.133915 0.370246 0.865738 0.443676 -0.231623
0.00648604 -0.445909 0.155881 0.999933 -0.0115512 -3.61193e-06
0.011706 -0.210464 0.432389 0.583046 0.807192 -0.0921839
-0.025369 0.0844018 0.206026 -0.00710015 0.16981 0.985451
0.0118214 0.409838 0.258919 0.839698 0.383987 0.384007
0.0106507 0.100269 0.306241 0.865738 0.443676 -0.231623
-0.00187388 0.186326 0.21774 0.706621 -0.640249 0.301277
0.010158 -0.148919 0.311055 0.62608 0.657425 0.419303
-0.00114955 0.249954 0.550725 -0.03447 0.121905 0.991943
0.0112885 -0.23925 0.39807 0.411974 -0.904646 0.109059
0.00388309 -0.394584 0.284029 -0.00663208 -0.573557 0.819139
-0.0188355 0.0120383 0.190099 0 0.151406 0.988472
0.0542105 0.288039 0.187326 -0.306486 0.825317 0.474256
-0.0363334 -0.28112 0.262327 -0.562226 -0.763924 0.316739
-0.00384699 -0.202584 0.499786 -0.373443 0.636727 0.674625
-0.00304036 0.249095 0.27696 -0.74411 0.282341 -0.605461
-0.00830633 0.289638 0.123338 0.136898 0.888175 -0.438638
0.0111144 -0.415197 0.0617806 0.753591 0.460456 0.469129
0.0142014 0.428707 0.0829446 1 0 0
-0.00504122 -0.177208 0.133013 -0.74954 0.659504 -0.0569507
-0.0220768 0.0435548 0.171988 0 0.658237 -0.752811
-0.00205775 0.352394 0.00958379 -0.75708 0.169097 -0.63106
-0.00321191 -0.218775 0.367658 -0.563698 0.819921 -0.0998726
-0.00805034 -0.225448 0.281363 -0.563 0.458821 0.687397
0.0149526 0.214346 0.276967 0.826704 -0.360398 0.432057
-0.00649324 -0.242165 0.0430146 -0.999933 0.0115399 1.89137e-05
0.00469104 0.27007 0.0237596 0 0.258806 0.965929
-0.0281168 0.125871 0.162917 -0.339561 -0.0400598 0.939731
-0.00971507 0.0552621 0.226993 -0.865746 0.443662 -0.231619
-0.00461352 -0.281994 0.277501 -0.999933 0.0115556 -2.8673e-08
-0.00611855 0.0271771 0.16937 0.0138082 0.765989 0.642705
-0.0317368 0.0589355 0.0884097 -0.994396 0.0303193 -0.101274
-0.0314212 0.256728 0.528853 0.00116036 0.961679 -0.274176
0.0856156 -0.278956 0.594595 0.285345 -0.956884 0.0543228
0.00972488 0.0890901 0.282832 0.642142 0.679555 -0.354765
0.0359722 0.368731 0.270133 0.951023 0.272768 -0.145438
0.00324324 -0.0619365 0.229695 0 0.517722 0.855549
0.103721 -0.232464 0.596451 0 1 0
-0.00535168 -0.347569 0.102974 0.670423 -0.611637 0.420039
0.00728235 -0.185917 0.168516 -0.699396 0.70236 0.132422
0.0028304 -0.226527 0.4 1.70407e-05 -0.824833 0.565376
-0.00650854 -0.445999 0.173323 -0.999933 0.0115519 -4.0409e-07
0.0101614 0.272377 0.308329 0.880778 -0.0890392 0.465083
0.00818523 -0.325513 0.318139 0.745432 0.0569986 0.664141
0.036096 0.291267 0.200774 0.951105 0.293209 0.0970973
-0.00631301 -0.429068 0.0857814 -0.999933 0.0115571 1.43411e-06
0.0711688 0.0181221 0.276987 0.952669 0.304009 0
-0.00680189 0.0572261 0.363602 -0.866013 -0.0462678 -0.497876
-0.0286357 0.291988 0.198298 -0.950991 0.293542 0.0972109
-0.0318836 0.0130632 0.0858302 0.575778 -0.057883 0.815554
-0.0895804 -0.24737 0.601885 -0.00926689 -0.500316 0.865793
-0.00370467 0.432228 0.150449 -1 0 0
0.00515536 0.459153 0.192737 -0.000299726 0.98771 0.156299
-0.0215747 -0.0209038 0.221921 0.947065 -0.111503 0.301058
-0.0222974 0.292294 0.163398 -1 0 0
-0.00281609 0.147626 0.446788 -0.337475 -0.911614 0.23467
-0.017059 0.00324441 0.137248 -0.00616441 -0.341985 -0.939685
0.0108058 -0.381309 0.0283541 0.836978 -0.239207 -0.492187
-0.013026 0.136557 0.421327 -0.521511 -0.550459 0.651937
0.0702021 0.0533533 0.27602 0 0.87295 -0.48781
0.015177 -0.313159 0.123546 0.401686 -0.875023 -0.270156
0.00480492 0.263865 0.538184 0.0235391 0.953091 -0.301768
0.00292409 0.05672 0.263847 0 -0.886468 0.46279
-0.00695328 0.175974 0.530474 -0.984373 -0.170538 0.0439008
-0.00572477 -0.25089 0.605465 -0.00925638 -0.50031 0.865797
0.0103685 0.00311261 0.137116 -0.00616441 -0.341985 -0.939685
0.00465098 0.428377 0.198296 0 0.904829 0.425776
-0.00256148 -0.432714 0.251279 -0.00955751 -0.819091 0.573584
-0.0253512 0.392849 0.314717 0.843336 0.474189 -0.252843
-0.00272187 0.398249 0.0555707 0 0.684544 -0.728971
-0.0572032 -0.319242 0.141751 -0.999933 0.0115688 0
-0.0739175 -0.0296474 0.0310291 0.872932 0 -0.487842
-0.0138822 0.282759 0.144077 1 0 0
-0.0291426 0.0317178 0.209658 -1 0 0
-0.0291426 -0.0183959 0.0962781 -1 0 0
-0.0435425 -0.311831 0.14203 -0.0109667 -0.984685 0.173996
0.0111098 -0.111992 0.394418 0.642817 0.0708816 0.762733
-0.00607354 0.448773 0.1746 -1 0 0
0.0109041 0.22153 0.288453 0.864469 -0.214729 0.454515
-0.00528996 0.25086 0.16842 -0.410671 0.226287 0.883257
-0.00115985 0.203247 0.0819885 0.706996 0.59713 0.378936
-0.00316687 0.183021 0.0663505 -0.757106 -0.535159 -0.374695
0.0140543 0.118738 0.568776 0 0.0306227 0.999531
0.0297946 -0.300738 0.131816 0.0345702 0.865367 -0.499945
0.0105148 -0.315688 0.14189 0.0115603 0.999933 0
-0.00526772 0.273253 0.287762 -0.744108 0.172886 -0.645302
-0.00396478 -0.225849 0.241865 -0.999933 0.0115503 3.48212e-06
-0.0132949 -0.32435 0.148864 -0.128587 0.565916 -0.814374
-0.00583691 -0.297661 0.215084 -0.903011 -0.345473 0.255382
-0.0223092 0.136287 0.563968 -0.801887 -0.0664259 0.593771
-0.00602781 0.163351 0.188461 -0.75715 -0.630978 0.169087
-0.0031785 0.317558 0.288382 -0.744063 -0.0582371 -0.665566
0.0415318 0.260014 0.541014 0.32463 0.909524 -0.25958
-0.00416317 0.300479 0.151823 0 -0.865685 -0.50059
0.00987739 0.0418901 0.22779 0.64222 -0.679496 0.354738
-0.0447655 0.260158 0.230567 -0.0311971 0.832134 0.553697
0.00514993 -0.226489 0.0407933 0.00663181 0.573533 -0.819156
-0.00796724 -0.217065 0.398023 -0.984818 0.0160635 0.172848
-0.0726397 -0.26197 0.601751 0.0583987 0.0493931 0.997071
-0.0238593 -0.0345275 0.165974 0 -0.578791 -0.815476
0.0347897 0.0232828 0.219049 -0.72499 0.677558 0.123715
0.0181125 0.0888584 0.155588 -0.968417 0.179137 -0.173431
-0.025569 0.0290168 0.167034 0.0156072 0.865785 0.500172
0.00694364 0.437976 0.226573 0 0.906319 0.422593
-0.00136684 -0.388579 0.222877 0.129304 -0.688501 -0.713615
-0.00486027 0.364702 0.277193 -0.744089 -0.282333 -0.605491
-0.106656 -0.022469 0.0334928 0 1 0
-0.00307159 0.0835088 0.313267 -0.341474 -0.833183 0.434973
-0.0696628 0.303555 0.106302 0.293648 -0.564777 -0.771231
-0.0460692 0.0073513 0.113308 0.990446 -0.0160944 -0.136962
-0.027849 0.0713356 0.131761 -0.947049 0.306357 -0.0961427
-0.0162086 0.311478 0.174583 0 0.341959 0.939715
-0.0291426 0.0598903 0.165425 -1 0 0
0.0315174 0.267335 0.319678 0 -1 0
0.00107798 -0.0821737 0.211994 0 -0.51064 -0.859795
-0.0314233 -0.0439174 0.0997027 -0.542096 -0.662616 -0.51679
0.0118729 -0.271077 0.283347 0.744966 -0.288999 -0.601253
-0.0112179 -0.00184137 0.183888 -0.985999 -0.0660395 -0.153118
-0.0101044 0.123202 0.361636 -0.984761 0.154171 -0.0804867
0.0123636 -0.135614 0.285126 0.841427 0.455594 0.290576
-0.00741886 -0.322268 0.297285 -0.999933 0.0115517 0
-0.00947814 0.0423916 0.220953 -0.865648 -0.443814 0.231695
0.0562803 0.296782 0.161684 -0.870801 -0.310301 -0.381338
0.0119822 0.305082 0.30359 -0.897872 -0.0276462 -0.439388
-0.0251243 0.378011 0.28975 0.982311 -0.165237 0.0881033
-0.038028 0.175925 0.540427 -0.808183 -0.374431 -0.454578
0.0127529 -0.209345 0.0777312 0.741864 -0.552099 0.380559
0.0228295 0.217463 0.523426 0 0.0332072 -0.999448
0.00939054 0.15906 0.472882 0.984359 -0.17061 0.0439191
0.0130745 -0.255271 0.0334065 0.999933 -0.0115586 8.45784e-06
0.0385083 0.00695619 0.173913 0.0496772 -0.982426 0.179918
0.0014813 -0.172052 0.211924 0.0101964 0.927918 0.372644
-0.0601478 0.314835 0.156534 0 1 0
0.011855 -0.186501 0.342595 0.856688 -0.433534 -0.279525
0.00849444 -0.434116 0.068084 0.834513 -0.454502 -0.311475
-0.006003 -0.105412 0.377326 -0.866013 -0.0462678 -0.497876
0.0514433 0.0279827 0.245948 -0.0324494 0.992535 -0.117567
-0.0261197 -0.269935 0.271895 0.996096 -0.0756555 -0.0454859
-0.0078624 0.0122828 0.377306 -0.984818 0.0160635 0.172848
0.0325834 -0.270798 0.269472 -0.995874 -0.0775721 -0.0470957
0.00251632 -0.197793 0.548619 0.0989391 0.988798 -0.111756
-0.0780734 -0.24184 0.602104 1 0 0
-0.00470643 0.452029 0.144805 -0.757059 0.650862 -0.0569247
-0.0601925 0.288089 0.154741 -0.971608 -0.161027 0.173344
-0.00269942 -0.358703 0.0788354 -0.124731 0.872387 -0.472635
0.00565229 0.406101 0.27696 0 0.535071 0.844807
-0.0273745 0.15556 0.151627 0.636348 0.0934311 -0.765723
-0.00624716 -0.423369 0.0743813 -0.999933 0.0115571 1.43411e-06
-0.0242978 0.104309 0.163378 -0.339561 -0.0400598 0.939731
-0.00536628 -0.348033 0.0152482 -0.758953 -0.160349 -0.631094
0.00886844 -0.239724 0.257576 0.999933 -0.0115544 -9.09623e-07
-0.00499108 -0.453969 0.101482 -0.763876 -0.583322 -0.276096
-0.0234881 -0.341975 0.151797 -0.0355936 -0.865411 0.499797
-0.00294627 0.172587 0.486131 -0.63695 0.746566 -0.192184
-0.0100042 0.11077 0.347767 -0.984767 -0.154137 0.080469
0.0106937 -0.22172 0.505115 0.38456 -0.466561 0.796514
-0.0371877 0.0103832 0.172588 -0.987521 0.0486672 0.149781
-0.00103325 0.0168836 0.162789 -0.335579 -0.362717 -0.869381
-0.0252761 0.269361 0.322402 0 -0.173857 0.984771
0.0328735 0.354399 0.247253 -0.771602 -0.5613 0.299287
0.00692834 0.370998 0.0359005 -0.707301 0.340557 -0.619473
0.0137433 -0.100937 0.240383 0.986044 0.0855853 0.142799
-0.0393666 -0.236605 0.59751 0.0185131 0.999829 0
-0.0318657 0.170855 0.161856 0.335635 0.0740557 0.939077
0.00764333 0.375159 0.251553 -0.707248 -0.415543 -0.571948
0.00628112 -0.23043 0.495738 0.247632 -0.963796 0.0988695
-0.0475363 0.214382 0.153214 -0.970569 -0.167246 -0.173277
-0.00769105 -0.189671 0.3744 -0.60232 0.67302 0.429249
-0.0673538 0.314835 0.117236 0 1 0
-0.0333859 -0.306831 0.181824 0.998593 -0.0485077 -0.0214152
0.0390399 -0.326238 0.150523 0.999926 -0.0121721 -0.000346123
0.0409062 0.291008 0.323054 0.173459 0 0.984841
-0.0185647 0.0285102 0.201847 1 0 0
-0.0212538 0.130437 0.544452 -0.513704 -0.173984 -0.840142
0.0484832 0.299759 0.152248 -0.00575157 -0.984683 -0.174262
0.00454497 0.372963 0.0166751 0 0.422607 -0.906313
-0.0185647 0.0488548 0.104984 1 0 0
0.0287745 0.143903 0.152907 -0.96846 0.179151 -0.173175
0.0107152 -0.00831447 0.129663 0.865736 -0.443679 0.231625
-0.0589149 0.28978 0.17356 -0.965211 -0.260864 0.0178506
-0.0265758 -0.268271 0.284979 0.798628 -0.586095 0.136697
0.0130247 0.145243 0.151462 -0.0361482 -0.999224 0.0156751
-0.0077894 -0.00710097 0.167725 -0.0156103 -0.866011 0.499781
-0.00538913 -0.377586 0.27579 -0.740793 0.29092 -0.605467
-0.00219807 -0.200778 0.382824 -0.341903 -0.0869555 -0.935704
0.0444197 -0.290002 0.222191 0.92222 0.367281 -0.120889
0.0114836 -0.164445 0.307249 0.856688 -0.433534 -0.279525
-0.00421112 0.397062 0.278231 -0.851374 0.281926 0.442357
0.0219886 0.299264 0.151744 -1 0 0
0.0449819 0.0197853 0.195829 0.990244 0.0325611 -0.135484
-0.0103586 0.0410816 0.207446 -0.984758 0.154183 -0.0804926
-0.00409781 -0.394022 0.264 -0.739623 0.39176 -0.54725
0.0108309 -0.449443 0.199254 0.999933 -0.0115444 -1.06965e-05
-0.0185647 -0.0418724 0.123044 1 0 0
0.00207687 0.207218 0.269867 0 -0.573574 0.819154
0.00886376 0.358678 0.0100142 0 0.422607 -0.906313
-0.00122952 0.218396 0.0489249 0.707001 -0.484109 -0.515546
0.00402776 0.235784 0.047287 0 0.481768 0.876299
0.00453257 -0.207979 0.255558 0.0080688 0.707076 0.707092
0.128716 -0.253044 0.600676 0.545718 -0.78746 0.286528
0.00251679 0.300261 0.0190572 0 0.0871239 0.996198
-0.00841897 -0.316187 0.144374 0.010012 0.866017 0.499914
-0.0186743 0.0827337 0.16389 -0.00196713 0.0181103 0.999834
0.0185868 -0.23025 0.32612 0.688761 0.254485 0.678856
0.0123099 0.22844 0.553157 0 0.132064 0.991241
-0.0830216 -0.252243 0.590696 -0.851674 -0.401355 -0.336996
-0.0282512 0.113028 0.0994464 -0.581289 0.142221 -0.801172
0.0406027 -0.297917 0.198471 -0.174975 0.890642 -0.419691
-0.0106039 -0.0365133 0.195169 -0.985149 -0.0880601 -0.147403
-0.00354898 -0.173767 0.160583 -0.749493 0.659557 0.0569577
-0.0126373 0.256819 0.525551 -0.050401 0.340281 -0.938972
-0.0342984 -0.0583958 0.128704 -0.739068 0.609468 0.286927
-0.00554308 0.0457639 0.197338 -0.642116 0.679574 -0.354775
-0.0108359 0.300461 0.171059 1 0 0
0.0474059 0.24696 0.536447 0.997154 0.0725272 -0.0205801
-0.0966592 -0.022469 0.04244 0 1 0
0.116266 0.0208988 0.289505 -0.81742 0.306506 0.487729
0.0611744 0.2973 0.144449 -0.340181 0.0350906 -0.939705
-0.039619 0.183406 0.150443 -0.632567 -0.121032 -0.76499
0.0115273 -0.37572 0.159674 0.677483 -0.051669 0.733721
