-0.0131884 0.193221 0.479771 0 0.0897149 0.995968
0.00192106 -0.276601 0.32507 0.748232 -0.0923157 -0.656983
0.00258235 0.0872677 0.32074 1 0 0
-0.0177066 0.310501 0.166243 1 0 0
-0.0407784 0.0507041 0.195059 1 0 0
-0.0141284 -0.443926 0.207799 -1 0 0
0.0033799 0.146936 0.213157 0.839725 -0.516436 0.167799
-0.0430812 0.062503 0.224114 0 -0.199636 0.97987
-0.0141284 0.327687 0.305325 -1 0 0
0.0140375 0.256659 0.302129 -0.814442 0.577665 0.054663
-0.0407784 0.0737846 0.218864 1 0 0
-0.00898704 -0.221626 0.291226 0 0.629333 0.777136
-0.00434224 -0.419421 0.0798755 0 -0.721753 -0.69215
-0.043711 0.260714 0.187545 -0.998822 -0.0468337 -0.0126595
-0.0407784 0.0634595 0.119614 1 0 0
-0.0112509 0.189247 0.23395 0.70703 0.623242 -0.334181
-0.0105015 0.202525 0.158236 -0.899577 -0.0834495 -0.428716
-0.0154225 -0.197758 0.444316 0 -0.867734 0.497028
-0.0141284 0.21634 0.0673996 -1 0 0
-0.00266127 0.0820015 0.290474 0 0.930546 -0.366175
-0.0167437 -0.146487 0.166681 -1 0 0
-0.022804 -0.0395434 0.0836165 -0.707155 0.707006 0.00864399
-0.00832038 0.285126 0.314402 0 -0.0732585 0.997313
-0.0106412 -0.276859 0.317802 0.707177 0.125193 0.695864
-0.0422459 0.0677392 0.185263 0 0.199858 -0.979825
-0.00255745 0.0833659 0.180486 -0.627406 0.190427 0.755049
0.00589332 -0.2776 0.131014 0.411014 -0.685223 -0.60128
0.00370093 0.347943 0.116764 -0.137145 -0.796002 -0.589553
-0.00173321 0.03842 0.177832 0 -0.997526 0.0702979
-0.0216023 0.0829725 0.298901 -1 0 0
0.00594838 0.189829 0.34804 0.0389714 -0.26224 -0.964216
-0.00304379 -0.420604 0.270798 -0.706747 -0.520771 0.47886
-0.0167437 -0.446958 0.26197 -1 0 0
0.00352035 -0.307026 0.0088376 0.839711 0.0189461 -0.542703
0.000555295 -0.219919 0.174827 0.136937 0.0443362 -0.989587
0.00305443 0.306162 0.231944 -0.680054 -0.72233 -0.125559
-0.00639052 -0.178713 0.238819 0 0.925867 0.37785
-0.0432274 -0.243117 0.533198 0 0.998627 -0.0523833
-0.00618853 -0.216511 0.319893 0 0.469455 0.882956
-0.00834095 0.163482 0.169742 0 -0.999945 -0.0104492
-0.0523178 0.0838812 0.113688 0.57446 -0.0509751 0.816944
-0.0118602 0.180542 0.128314 0.707301 0.682822 0.182974
-0.000286168 -0.206789 0.262935 0.706853 -0.567879 -0.421749
-0.0452291 0.247182 0.16141 0.851748 0.133936 -0.506544
-0.0126676 -0.225206 0.154402 -0.679182 -0.0678228 -0.730829
-0.0239602 -0.0237875 0.0647171 -1 0 0
0.00258235 0.10332 0.357227 1 0 0
-0.135642 -0.208406 0.54913 -0.365426 -0.0807139 0.927334
0.0282166 -0.261783 0.282019 -0.914205 -0.396778 0.0824453
0.00142166 0.306488 0.15843 0 -0.891436 -0.453147
-0.0132867 0.435455 0.124692 -0.707683 -0.659598 0.25321
0.00599401 -0.148567 0.182372 1 0 0
0.00341691 -0.200552 0.303741 0.8397 0.334336 0.427929
-0.00965271 0.463506 0.0976245 0 0.882943 -0.46948
0.00209799 -0.349495 0.0292261 0.748249 0.204992 0.630954
-0.0201725 0.143789 0.461047 -0.684866 -0.198132 -0.701215
0.0253022 0.178001 0.170672 0.964861 -0.188317 0.183248
-0.0488814 0.14251 0.206549 0.00812688 -0.214055 -0.976788
0.00210214 0.461905 0.164037 0.748224 -0.663042 -0.0231507
0.00561916 0.258889 0.176078 -0.137128 0.140159 0.980587
-0.0112229 -0.188374 0.522002 -0.765907 -0.628155 0.13714
-0.0399935 0.294203 0.11494 0 -0.0523413 -0.998629
0.00599401 -0.148933 0.186332 1 0 0
-0.0133263 0.410415 0.0365248 -0.757109 0.346161 -0.554038
-0.00316848 -0.354544 0.340889 0 -0.207887 0.978153
-0.00354841 -0.375414 0.0184125 0 -0.309055 -0.951044
-0.004958 0.228133 0.476448 -0.0120002 0.104016 0.994503
-0.00823804 -0.264416 0.282946 -0.409789 0.866024 -0.286489
-0.0166215 0.25985 0.327392 -0.757067 -0.244764 0.605756
-0.0235868 -0.309156 0.16376 -0.408706 0.905924 -0.110733
0.00529081 0.426833 0.286462 0.839702 0.403556 0.363377
-0.0118927 0.343125 0.253803 -0.408391 -0.823746 0.393268
-0.00122263 0.142173 0.363591 -0.96579 -0.00401069 -0.259294
-0.125392 -0.225081 0.550582 -0.540703 -0.332726 0.772614
-0.0134555 0.161065 0.481552 0 0.0412897 0.999147
0.00492695 -0.212734 0.356826 0.606762 0.197873 -0.769861
0.00599401 -0.388317 0.316148 1 0 0
0.0334327 0.15475 0.220356 0.780617 -0.357969 0.512343
0.00531299 -0.236737 0.314035 0.748228 -0.311466 -0.585785
-0.0408402 0.0349439 0.149562 0 0.849657 0.527336
0.00578673 -0.0665426 0.177914 1 0 0
0.00578673 0.0806498 0.0713444 1 0 0
-0.0102125 -0.347188 0.342452 0 -0.207887 0.978153
-0.00566684 0.183068 0.185131 -0.6781 0.183552 0.71168
-0.0141284 -0.18512 0.10612 -1 0 0
-0.00138456 0.136442 0.366436 -0.806457 0.204322 0.554869
-0.00577166 -0.134413 0.40304 0 0.690397 0.72343
0.00493364 -0.215695 0.360566 -0.000207673 0.460101 0.887867
-0.0065969 -0.201643 0.480159 0 -0.976239 0.216698
0.00198224 -0.474052 0.134543 0.839722 -0.531146 -0.112921
-0.00414196 0.392026 0.0504068 0 0.645455 -0.763798
-0.0384067 0.329885 0.157639 -0.0437275 0.980034 -0.193963
0.0871897 -0.258736 0.54002 -0.319591 -0.898354 0.301367
-0.00827896 0.234277 0.300385 0 0.529893 -0.848065
-0.0161596 0.29311 0.0157232 -0.744081 0.0929879 0.661587
-0.00616471 0.458669 0.183311 0 -0.99939 -0.0349125
-0.0141284 0.37839 0.0505943 -1 0 0
0.00578673 0.0038412 0.063534 1 0 0
0.00578673 -0.0699538 0.191765 1 0 0
-0.0430074 0.109829 0.214228 0 0.877985 -0.478688
-0.0167437 -0.463287 0.127801 -1 0 0
-0.079263 0.00425387 0.104612 -0.998581 0.0377012 0.0376198
-0.0205535 0.156319 0.443729 -0.707141 -0.549995 0.444361
-0.0216023 0.0401463 0.0986834 -1 0 0
0.0375102 0.314563 0.158896 -0.00243569 0.919695 -0.392626
0.00469265 -0.180785 0.263089 0.74821 -0.56265 -0.351578
0.0026197 -0.0644927 0.115048 0 -0.995606 -0.0936423
-0.0339544 0.195675 0.461676 -0.965292 -0.260816 0.0136857
-0.0281293 0.16745 0.170636 0.96512 0.205263 0.162514
-0.0230094 0.0715745 0.148047 0 -0.0524095 -0.998626
-0.0112368 0.328544 0.315563 1 0 0
0.00599401 -0.36671 0.323702 1 0 0
0.0331837 0.132249 0.20196 0.999771 0.0190451 0.00976184
-0.00256171 0.293353 0.0352506 -1 0 0
0.00497985 0.32048 0.326287 0.74823 -0.0923193 -0.656985
-0.00089645 -0.115196 0.341077 0 -0.866647 -0.498921
-0.0170804 -0.0637116 0.105919 0 -0.996703 -0.0811432
-0.00335145 0.475967 0.207135 0 0.978139 0.207951
0.00233651 0.193219 0.269812 0.748248 0.522784 -0.408439
-0.0488653 0.062582 0.118762 0 0.914637 -0.404277
-0.0172953 0.232464 0.475899 0.178038 0.442498 0.878919
-0.0141284 -0.199862 0.089178 -1 0 0
-0.0324192 0.190646 0.474138 -0.965291 -0.260818 0.0136872
-0.0107705 -0.425276 0.250667 0.706974 0.623304 -0.334185
-0.0112533 0.248366 0.233915 0.409875 -0.638286 -0.651608
-0.0534986 0.0781892 0.116656 -0.762617 0.64308 -0.0697403
-0.00315165 -0.178684 0.1111 -0.707175 0.660073 -0.25339
-0.0172468 -0.322693 0.219444 0.136174 -0.950884 -0.277985
-0.0429908 -0.297921 0.185025 -0.68132 0.652348 -0.332031
-0.0142248 -0.254418 0.126929 -0.13618 -0.615965 -0.775913
0.000330054 0.293069 0.0340556 1 0 0
-0.00931602 -0.284453 0.0285409 0 -0.207888 0.978153
-0.0165544 0.401856 0.297073 -0.744089 -0.411324 -0.526445
-0.0175107 0.00913747 0.0542242 0 -0.052336 -0.99863
-0.0119755 0.217961 0.159301 -0.135496 0.0810139 -0.98746
-0.0135434 -0.422616 0.299288 -0.757077 -0.43717 0.485508
-0.00303226 0.465093 0.10061 0 0.882943 -0.46948
-0.0106849 -0.238781 0.020873 0 0.374623 -0.927177
-0.131533 -0.214126 0.550251 -0.364527 -0.0796466 0.92778
0.0241048 0.306405 0.157847 -0.00456552 -0.79965 -0.600449
-0.0593344 0.308917 0.155552 0.338607 -0.000475841 -0.940928
-0.117048 -0.235114 0.542649 -0.506655 -0.731767 -0.45587
-0.0116373 -0.296292 0.0256856 -0.744087 -0.0233335 0.667676
-0.0239602 -0.0409633 0.0732218 -1 0 0
-0.0434492 -0.262019 0.253162 -0.91835 0.327952 -0.221543
-0.146174 -0.18495 0.537694 0.506905 0.731574 0.455901
-0.00336163 0.0734665 0.268218 0 0.939271 -0.343175
-0.0176482 0.128343 0.462267 -0.702128 -0.142877 -0.697569
-0.0562997 0.0579882 0.177772 -0.987521 -0.122388 0.099116
0.000330054 -0.174261 0.226537 1 0 0
-0.0535685 0.11473 0.216448 -0.999987 -0.00514106 -4.54375e-06
0.00219461 0.159485 0.249784 0.839682 -0.479507 0.254965
0.00599401 0.375858 0.0285249 1 0 0
-0.0401173 0.306408 0.147976 0 0.681181 -0.732115
-0.00099057 -0.293709 0.346149 0 0.139163 0.99027
-0.00130308 -0.168997 0.430926 0 0.573806 0.818991
-0.0153514 -0.461871 0.205124 -0.744082 0.661587 -0.092983
-0.0123966 0.228736 0.0228683 -0.757059 -0.306736 -0.576867
0.0466157 0.290306 0.155906 0.33252 -0.142297 -0.932299
-0.0472597 0.290003 0.233419 0.295262 0.890804 0.345382
-0.0194333 -0.00427952 0.0549274 0 -0.052336 -0.99863
-0.00359687 -0.44662 0.116447 0 0.927202 0.374562
-0.00596793 0.406556 0.311308 0 0.615664 0.788009
-0.0189909 0.0672322 0.250174 0 0.951623 -0.307269
0.00871086 0.323169 0.154134 -1 0 0
0.00599401 0.227967 0.0306483 1 0 0
-0.0167437 -0.181301 0.270607 -1 0 0
-0.0465886 0.0214262 0.143091 0 -0.694321 0.719665
0.00471219 0.34084 0.323121 0.748232 -0.0923182 -0.656983
0.093133 -0.25436 0.535901 0.71172 -0.699923 -0.05968
0.0387162 0.262601 0.157468 -0.0032076 -0.0768474 -0.997038
0.00604763 0.341446 0.214221 0.990291 0.079472 0.11405
0.0807759 0.165305 0.221826 0 -0.0523255 -0.99863
0.000987435 -0.0552543 0.224219 0 0.98522 0.171292
-0.00675239 -0.239955 0.538218 -9.48393e-05 -0.998634 0.0522542
-0.0147803 -0.416731 0.302658 -0.757109 -0.437133 0.48549
0.00584308 -0.312296 0.226908 0.410149 -0.911805 0.0197395
0.00132956 -0.358103 0.319719 0.748223 0.24853 -0.615139
0.0324521 -0.315117 0.173447 -1 0 0
0.000330054 -0.308005 0.0288396 1 0 0
-0.0394039 0.215232 0.170636 0.6296 0.181083 0.755521
0.0243754 -0.246373 0.323676 -0.67792 -0.732433 0.0629727
-0.0261587 0.218431 0.448227 0 0.186491 -0.982457
-0.0154451 -0.212944 0.0418742 -0.757113 0.346161 -0.554033
-0.0418637 0.217214 0.112261 0.582652 0.0216217 0.812434
0.00938319 0.310415 0.153212 -0.990291 -0.0255416 0.13664
0.0241579 0.16224 0.214084 0 0.464121 -0.885772
-0.0216023 0.0418637 0.115647 -1 0 0
-0.00522679 0.359512 0.298462 0 -0.416289 -0.909232
-0.000158674 -0.23214 0.302784 0.710272 0.370808 0.598344
0.0257214 -0.24726 0.306936 -0.98297 -0.182324 0.0229557
0.000924246 -0.0527495 0.0609564 0 -0.219184 -0.975684
-0.00466996 -0.309567 0.170135 0 0.390854 0.920453
-0.0223566 -0.140871 0.376145 -0.707184 -0.514848 -0.484584
-0.0239602 -0.0549807 0.199065 -1 0 0
-0.0135309 -0.175265 0.250272 -0.744068 -0.566577 -0.354053
-0.00482106 -0.161261 0.198953 0 -0.97815 -0.207898
-0.0592026 0.0657286 0.176648 -1 0 0
-0.0110253 0.194586 0.0944839 0.707145 0.616006 0.347107
-0.00915426 0.209185 0.205636 0.134962 -0.337254 -0.931689
0.0574164 -0.252668 0.539773 -0.0516885 -0.802607 0.594265
0.00572592 -0.076263 0.310056 0.707093 0.661153 0.250792
0.00414888 -0.0628748 0.0935783 0.707082 -0.706321 -0.0338283
-0.00256171 0.237913 0.053778 -1 0 0
-0.00582969 -0.1716 0.116647 0 -0.882948 0.469472
-0.00276394 -0.458992 0.186811 0 0.990266 -0.139185
0.0116617 -0.307508 0.183139 0 0.225514 0.97424
0.0175156 -0.295301 0.170529 0.887287 0.441051 0.13489
-0.0422965 0.295335 0.141744 0.36446 0.382433 -0.849066
-0.0121694 -0.190026 0.416531 0 -0.535103 -0.844787
0.00871086 -0.319221 0.175228 -1 0 0
-0.0482278 0.0352409 0.193861 0 0.847613 -0.530615
-0.000537324 -0.174792 0.173038 0.707151 -0.702377 0.0812732
-0.0043386 -0.182597 0.485038 0.12121 0.822662 0.55546
-0.0205617 -0.282543 0.168894 -0.41056 0.257277 0.874785
-0.00316151 -0.170099 0.209321 0.679177 -0.27172 0.681826
0.00578673 -0.0680164 0.0813511 1 0 0
-0.0141284 0.416417 0.263966 -1 0 0
0.00290663 -0.383088 0.0420059 0.748258 0.31145 0.585755
-0.0112001 -0.201508 0.0924519 0.707249 -0.57627 0.409525
0.0175965 0.315654 0.168833 1 0 0
0.00508933 -0.276187 0.0146567 0.839704 0.11291 -0.531177
-0.0161539 0.0376396 0.16475 0 -0.998631 0.0523171
0.000330054 -0.383017 0.0528715 1 0 0
-0.0142086 -0.161565 0.220233 -0.744097 -0.653473 -0.138898
0.00503274 -0.144067 0.170075 0.839708 0.542707 0.0189512
-0.00622417 0.00233771 0.0545806 0 -0.052336 -0.99863
-0.0167437 0.152557 0.208994 -1 0 0
-0.0492917 0.0759115 0.129635 -1 0 0
-0.0221039 0.204397 0.348181 0.299604 0.27998 0.912057
0.000330054 -0.288047 0.313835 1 0 0
-0.0112368 0.436592 0.216134 1 0 0
0.0318505 0.0742959 0.179686 0 -0.405146 0.914252
-0.000865059 -0.175251 0.169733 0 -0.993372 0.114945
0.00229409 -0.194735 0.476562 0.984801 -0.16956 0.0376373
-0.00048516 -0.23843 0.045612 0.706835 0.307867 -0.636869
0.0129348 -0.305875 0.177877 0.899298 -0.0869024 0.428616
-0.00625738 0.167636 0.204899 0 -0.971141 0.238508
-0.00760345 -0.168444 0.0797156 0 0.788008 -0.615665
-0.0490153 0.030008 0.135906 -0.947056 -0.233083 -0.220808
-0.00792419 -0.447623 0.188519 0 0.999945 0.0104674
-0.00109134 -0.345637 0.0306606 0 0.308994 0.951064
-0.00206672 0.0380376 0.074743 0 -0.062404 -0.998051
-0.0482872 0.283562 0.118933 -0.942129 -0.0175475 -0.334792
-0.0698635 0.0504986 0.142974 0 0.665261 -0.746611
0.0334329 -0.295593 0.195048 -0.975509 0.196846 -0.0981535
-0.0041468 -0.0881264 0.0907064 0 -0.975672 0.219234
-0.00843507 0.216655 0.109223 0.412083 -0.444239 0.795512
-0.0141284 0.193414 0.0846958 -1 0 0
-0.0239602 -0.0163998 0.0633062 -1 0 0
-0.0459072 0.044854 0.124972 0 -0.486798 -0.873514
-0.0239602 -0.0557854 0.0809235 -1 0 0
-0.0224389 0.303764 0.173025 0.899297 -0.226862 -0.373896
-0.0187309 0.0670544 0.292962 0 -0.930584 0.366079
0.0289103 -0.255062 0.307377 -0.764019 -0.608427 0.214689
0.00214511 0.461795 0.168579 0.748224 -0.663042 -0.0231507
0.00599401 -0.163138 0.242521 1 0 0
1.10306e-05 -0.21242 0.316777 0 0.615663 0.788009
-0.00943155 -0.296439 0.0381407 0 -0.197658 0.980271
0.000330054 0.308888 0.031096 1 0 0
0.00421237 0.114219 0.478879 0.919344 -0.0785996 0.385524
-0.0239602 0.00841902 0.064967 -1 0 0
0.00162974 -0.38247 0.183106 -0.898906 0.0739442 -0.431856
-0.042842 0.310162 0.138818 -1 0 0
0.0805646 -0.251731 0.541033 -0.136696 -0.221153 0.965612
-0.0129771 -0.189614 0.262573 0 0.802819 0.596223
-0.0239602 -0.0663701 0.238746 -1 0 0
-0.00377755 0.125242 0.37725 0 0.837243 -0.54683
-8.89719e-05 -0.208485 0.363573 -0.000150377 0.203551 0.979064
-0.0138433 0.419133 0.0923037 -0.707352 -0.576165 0.409497
0.00393723 -0.276796 0.0127059 0.839727 0.112915 -0.531139
0.0307943 0.105579 0.183916 0 0.507941 -0.861392
-0.0042201 -0.199188 0.408288 0.342034 0.917358 -0.203634
0.0274313 0.209009 0.161635 -0.0032076 -0.0768474 -0.997038
0.00419339 -0.438994 0.0716038 0.839718 -0.403555 -0.363342
-0.00384647 -0.200884 0.481479 0.342035 -0.917357 0.203637
-0.00658952 -0.366734 0.30172 0 0.318975 -0.947763
-0.0076246 -0.257434 0.531766 0 -0.956358 -0.292198
0.0222893 0.1274 0.203225 -0.757499 -0.283266 0.588181
0.000330054 0.43168 0.0983353 1 0 0
0.00426661 0.15114 0.118926 0.839708 -0.50349 -0.203438
3.52479e-05 -0.397412 0.0716749 0.707394 0.510159 0.489215
-0.00512501 0.384241 0.286309 0 -0.629319 -0.777147
-0.0125341 0.417419 0.300192 -0.757065 0.402237 0.514837
-0.00792538 0.28759 0.340536 0 -0.207887 0.978153
0.000395779 0.240399 0.326875 0 -0.37463 0.927174
-0.0407784 0.0874891 0.219271 1 0 0
0.00389609 -0.408169 0.311129 0.839725 -0.287746 0.460503
-0.00199148 -0.228345 0.367701 -0.000215167 0.203446 0.979086
-3.1488e-05 0.451344 0.0756894 0 0.78802 -0.615649
-0.137618 -0.206381 0.511152 -0.514755 -0.329837 0.79135
-0.016063 -0.259583 0.185667 0.899585 -0.0193621 -0.436316
0.00461197 0.130485 0.364905 0.55866 -0.250888 -0.790541
-0.0119965 0.359421 0.332355 -0.757077 0.201896 0.621348
-0.00965291 -0.343246 0.317872 0 -0.318974 0.947764
-0.0157022 0.146672 0.432534 0 -0.787558 0.61624
-0.0134553 0.418203 0.0631039 -0.744032 -0.447081 0.496522
-0.0167437 0.360693 0.324901 -1 0 0
0.000330054 0.447973 0.201865 1 0 0
-0.0863194 -0.239994 0.525504 0.677858 0.719258 -0.152241
-0.0239602 -0.149022 0.409192 -1 0 0
0.00674151 0.0947018 0.158812 0 0.838693 -0.544605
-0.0179947 -0.0760354 0.203155 0 -0.990693 -0.136112
-0.00589801 -0.261201 0.295353 -0.135033 -0.911964 0.387412
-0.00338906 0.307666 0.164246 0 -0.602095 0.798424
0.0026916 -0.205475 0.288985 0.748249 -0.408438 -0.522783
0.000424992 -0.375333 0.041052 0.748212 0.311495 0.585789
-0.0117132 -0.368356 0.312138 0.706858 -0.225618 0.67041
0.000330054 0.425562 0.255746 1 0 0
-0.0141284 0.431575 0.0939295 -1 0 0
-0.00903935 0.314015 0.308687 0 0.0732478 -0.997314
-0.0167437 -0.415324 0.0599913 -1 0 0
-0.013775 -0.180875 0.216944 -0.707256 -0.654555 -0.267108
-0.0384943 0.229777 0.461178 -0.998757 -0.0497839 0.00261229
-0.00159476 0.474857 0.128485 0 0.951053 -0.309028
-0.0130715 -0.388856 0.204621 -0.677648 0.172452 0.71488
0.00578673 -0.0682199 0.0843264 1 0 0
-0.00459315 -0.164047 0.181605 0 0.990748 0.135717
-0.00333666 0.168479 0.209037 -0.706884 -0.686917 0.168704
-0.0167437 -0.436141 0.0817054 -1 0 0
0.0283527 -0.311146 0.161571 0.00821677 -0.052772 -0.998573
-0.00368123 -0.315134 0.293202 0.137606 -0.990247 -0.0218095
0.00599401 0.436143 0.0775687 1 0 0
0.00367953 0.20695 0.446588 0 -0.439447 -0.898268
-0.00570834 -0.261609 0.290369 0.678463 0.640218 -0.360291
-0.0216023 0.159649 0.432279 -1 0 0
-0.0450909 0.0573502 0.114939 0 -0.999973 -0.0072936
-0.106742 -0.234009 0.538318 0.146297 -0.181641 -0.972422
-0.00431328 0.181784 0.099791 0 -0.871198 -0.490931
-0.0224742 0.191816 0.352075 0.0378513 0.272758 0.961338
-0.00812073 -0.0736326 0.185666 0 -0.990693 -0.136112
-0.0212249 0.170216 0.481174 0 0.0412897 0.999147
-0.00256171 -0.391481 0.284891 -1 0 0
0.00255311 -0.149177 0.230385 0.839723 0.503476 0.203415
-0.0453862 0.102135 0.160056 -0.947057 0.300907 -0.111972
0.00599401 0.40064 0.302796 1 0 0
-0.00293136 0.20126 0.269 -0.707301 -0.520353 0.478495
-0.00920526 -0.435368 0.291854 0 -0.788013 0.615659
-0.132694 -0.211695 0.509697 -0.457838 -0.674153 -0.57957
0.00578673 -0.0770024 0.233475 1 0 0
-0.00342802 0.195857 0.073374 0 0.743164 0.66911
0.0159941 -0.298707 0.178009 0 0.681878 0.731466
0.00258235 0.04558 0.202234 1 0 0
-0.00361714 -0.264659 0.27486 -0.678492 0.622301 -0.390372
-0.00375402 0.336684 0.00240966 0 0.20795 -0.97814
-0.00381042 0.411082 0.0334158 0 0.529875 -0.848076
0.000244282 0.219994 0.0502693 0.748258 0.408414 0.522789
-0.000245795 -0.225261 0.0277576 0 0.529878 -0.848074
-0.0119658 0.45322 0.133068 0.707042 0.660204 -0.25342
-0.0273229 0.112141 0.174488 -0.966447 -0.180443 0.18281
0.00511118 -0.344025 0.337415 0.839721 -0.112903 0.531151
-0.0130073 -0.280255 0.0265819 -0.744101 -0.138883 0.653471
0.0238162 0.213313 0.47418 0.998757 -0.0497838 0.00260868
-0.0424683 0.108321 0.209222 0 0.726109 0.68758
-0.014307 0.169171 0.413953 0 0.9206 -0.390507
-0.00466745 -0.242225 0.269486 -0.898976 0.272803 -0.342668
-0.0167437 -0.333411 0.333225 -1 0 0
-0.0167437 0.40813 0.292626 -1 0 0
-0.00921252 -0.142639 0.211631 0 0.978146 0.207919
-0.0909932 -0.236309 0.552033 0.374391 0.563385 0.736497
0.000330054 0.188349 0.248965 1 0 0
0.0745752 0.162883 0.234419 0 0.897237 0.441548
-0.0856774 0.00762827 0.111183 0 0.0523265 0.99863
-0.0464067 0.260368 0.100953 -0.591051 -0.686659 -0.423271
-0.0028426 -0.239127 0.533659 0.865888 -0.0261807 -0.499552
0.0101788 -0.257289 0.531292 0 -0.956358 -0.292198
-0.0112751 0.136321 0.393609 0 0.819591 -0.572949
-0.000608958 -0.422138 0.251101 0.70699 0.623277 -0.334203
0.00578673 -0.0510858 0.121541 1 0 0
-0.00740578 0.195245 0.245275 -0.676889 0.485071 0.553649
0.0334753 -0.299354 0.187085 -0.975509 0.196846 -0.0981535
0.00567059 0.364371 0.325488 0.839702 0.167816 0.516467
-0.0112895 0.417622 0.0692409 0.710296 0.518153 -0.476443
-0.00119327 -0.459172 0.178164 0 0.99939 0.0349112
0.00599401 -0.202657 0.294246 1 0 0
-0.0120795 0.275092 0.301057 0.706711 0.225649 -0.670554
-0.0492917 0.0315144 0.19406 -1 0 0
0.00258235 0.151756 0.431075 1 0 0
0.0114084 0.309757 0.181061 0.409169 0.907479 0.0951941
-0.030973 0.0506203 0.190942 -0.267907 -0.807979 0.524781
-0.0728485 0.0333102 0.126653 0 0.706346 -0.707867
-0.0171687 0.100189 0.333362 0 0.903616 -0.428343
-0.00310161 -0.155117 0.420817 0 0.612853 0.790197
-0.00276227 -0.164896 0.158307 -0.707113 0.702414 -0.0812774
-0.0425475 0.0897635 0.171732 0 0.257952 -0.966158
-0.011039 0.174117 0.274089 -0.757058 -0.514857 0.402226
-0.00571661 -0.257128 0.290705 -0.40937 0.803607 -0.432009
-9.79519e-05 -0.313777 0.169728 0 -0.602095 0.798424
-0.0141284 -0.17899 0.122443 -1 0 0
-0.0407784 0.0746964 0.222677 1 0 0
-0.034863 -0.306643 0.166829 0.00517701 0.992517 0.121999
-0.00872994 0.050768 0.130831 0 0.998076 -0.0620063
-0.0471451 0.126877 0.151494 -0.947051 0.300877 -0.112108
-0.0122941 -0.221229 0.364048 0 0.57712 0.816659
0.0392473 -0.295022 0.2145 0.681551 -0.657566 0.321084
-0.0971948 -0.0165981 0.111279 0 -0.846264 0.532763
-0.0564388 0.260499 0.161209 -0.848267 -0.205487 -0.488076
-0.0132044 0.23067 0.198999 -0.677285 0.172623 0.715183
-0.0403578 0.0939086 0.170304 -0.870512 0.479522 -0.110756
-0.00103877 0.281632 0.0693825 0.41153 0.85746 -0.308877
-0.0116608 0.38111 0.110037 -0.137114 0.645459 0.751387
0.00469043 0.434408 0.0620266 0.839702 0.427932 -0.334327
-0.0141284 -0.316355 0.0305849 -1 0 0
-0.00539634 0.427395 0.232991 0.678636 0.428501 -0.596524
0.0120863 0.228605 0.342057 0.772636 0.115427 0.624268
0.0129209 0.307057 0.168088 0.409645 -0.365554 0.8358
0.000330054 -0.372313 0.29991 1 0 0
-0.00677671 -0.167365 0.143429 0 0.993373 -0.114936
-0.00786711 -0.363954 0.0403223 0 -0.299043 -0.95424
-0.0480882 0.242139 0.159885 0.00210229 -0.0720302 -0.9974
0.0066812 0.182798 0.480622 0 0.0524486 0.998624
-0.0141284 -0.176457 0.215776 -1 0 0
-0.0356639 -0.275008 0.233223 0.982267 0.142292 -0.122082
-0.0108977 -0.393968 0.0666986 0.706854 0.37274 0.601184
-0.000746515 0.153017 0.416467 0 0.797905 -0.602783
-0.00256171 -0.253397 0.299559 -1 0 0
-0.0497605 0.0933919 0.118338 -0.573358 0.0647358 -0.816743
0.000330054 0.437414 0.101839 1 0 0
-0.053565 0.114046 0.216764 -0.999987 -0.00514106 -4.54375e-06
0.00578673 -0.00239348 0.0655312 1 0 0
-0.00730207 0.390288 0.0450092 0 -0.529887 0.848068
-0.00625523 -0.198232 0.411125 0 0.976239 -0.216698
-0.014283 0.221902 0.477143 0 0.0932619 0.995642
-0.0141284 0.433284 0.0942029 -1 0 0
-0.0116312 -0.273987 0.0104974 -0.75708 0.135853 -0.639042
-0.00898966 0.00311293 0.0781363 0 0.0523349 0.99863
0.000330054 0.255889 0.0372328 1 0 0
-0.00105293 -0.196862 0.44588 0 -0.867734 0.497028
0.00248492 -0.206573 0.417156 1 0 0
-0.0239602 -0.0761582 0.291694 -1 0 0
0.000946244 -0.41799 0.0713316 0.748239 0.493016 0.44393
-0.0119168 -0.0871092 0.338663 0 0.890001 0.455958
0.00578673 -0.0892386 0.286413 1 0 0
-0.0030035 -0.073965 0.188085 0 -0.990693 -0.136112
0.00599401 0.426467 0.275258 1 0 0
-0.00882999 -0.213382 0.0613149 0 -0.66911 0.743163
-0.0414232 0.0590738 0.166267 -1 0 0
-0.0206142 -0.0544022 0.0854785 0 0.21916 0.975689
0.00464816 -0.185162 0.269961 0.748245 -0.493022 -0.443913
-0.0210908 -0.306238 0.149698 0 0.292528 -0.956257
-0.0167437 0.221215 0.301813 -1 0 0
-0.00142614 0.139296 0.364677 -0.976131 0.115941 0.183644
-0.00256171 0.227819 0.0605402 -1 0 0
0.00371737 0.215528 0.29361 0.74821 0.443952 -0.49304
-0.00839046 -0.160357 0.161553 0 -0.990266 0.139186
-0.0128258 0.320432 0.0213986 0 0.0733431 -0.997307
-0.015815 0.2327 0.475399 0.304187 0.710825 0.634191
-0.0122388 -0.232047 0.0485552 0 0.435223 -0.900323
-0.0222188 -0.100799 0.312201 0 -0.924924 -0.380152
-0.00238451 0.279195 0.338752 0 -0.207887 0.978153
-0.039267 0.170915 0.114066 0.993907 -0.047045 0.0996764
0.0442927 0.154421 0.227134 0 -0.998629 0.0523375
0.0252337 -0.227078 0.339698 0.92924 0.167716 0.329217
0.00578673 -0.186997 0.42369 1 0 0
-0.012042 -0.065204 0.122415 0 -0.995034 -0.0995325
-0.0167437 0.166259 0.104382 -1 0 0
0.00599401 0.434582 0.275335 1 0 0
-0.00249227 -0.0178982 0.0792374 0 0.0523349 0.99863
-0.0250738 0.112546 0.17852 -0.634065 -0.071164 0.769998
-8.63924e-05 0.226827 0.0472673 0.707213 -0.372556 -0.600875
0.013594 -0.311326 0.172466 0.898883 0.0250254 -0.437474
0.157869 -0.189155 0.542839 0.703329 -0.479771 0.524546
-0.0212411 0.062902 0.278525 -0.707206 -0.661582 0.249339
0.0378104 0.0708109 0.173588 0 -0.93428 -0.356541
-0.0429657 0.0797544 0.204037 0 -0.869046 0.494732
0.000330054 0.230442 0.292668 1 0 0
-0.0127622 -0.461197 0.248837 -0.757089 -0.576837 0.306718
-0.0349939 0.19981 0.467167 -0.965293 -0.260813 0.0136729
0.00344505 0.221366 0.297123 0.748203 0.351568 -0.562665
-0.0141284 -0.273629 0.316845 -1 0 0
-0.00256171 -0.441973 0.111824 -1 0 0
-0.00167554 0.479917 0.172296 0 0.999392 0.0348656
-0.00476136 0.331701 0.318846 0 -0.139153 -0.990271
0.00599401 -0.443032 0.260195 1 0 0
-0.01446 0.20949 0.304408 -0.757105 -0.346172 0.554037
-0.0141284 0.451829 0.142449 -1 0 0
-0.0216023 0.14921 0.429949 -1 0 0
-0.0568808 -0.248824 0.529992 -0.246745 0.254304 -0.935118
-0.0228521 -0.30822 0.184906 -0.13652 0.973314 -0.184452
0.00578673 -0.0821891 0.26055 1 0 0
-0.0191279 0.154938 0.362387 0.299842 0.279975 0.911981
-0.00760684 0.249528 0.308076 0 0.374629 -0.927175
0.044144 0.297618 0.164662 -0.333005 0.142386 0.932113
-0.0402566 0.318871 0.119376 0 0.998631 -0.0523094
-0.00122057 0.098678 0.166146 0 0.920375 -0.391038
-0.0167437 0.470042 0.143924 -1 0 0
0.00037984 0.156948 0.421617 0 0.787688 -0.616074
0.000330054 0.453262 0.168754 1 0 0
-0.0108493 -0.225401 0.294998 0.706959 0.445098 0.549633
-0.00361523 0.132897 0.460608 0 -0.0926487 -0.995699
-0.00230381 -0.283185 0.320981 -0.707067 0.12522 0.695971
-0.000588458 -0.252761 0.256223 0.412218 -0.714275 0.565587
0.0147434 -0.227805 0.334842 -0.919626 -0.0184044 -0.392363
0.0220546 0.118384 0.192292 -0.731568 0.324838 -0.599407
-0.0347631 0.0767194 0.149623 -0.521516 0.104066 -0.846871
-0.013654 0.0817948 0.328799 0 -0.914079 0.405536
-0.00117177 0.137426 0.420416 0 -0.797865 0.602836
-0.0394012 0.300745 0.173657 1 0 0
-0.00666934 0.436929 0.249136 0 -0.848037 -0.529938
0.0202322 0.164256 0.223982 -0.99893 -0.0411519 -0.0210969
-0.00545477 -0.17603 0.232245 0 0.925867 0.37785
-0.00649626 -0.220755 0.541784 0.342188 0.0491604 0.938345
0.0978967 -0.243808 0.558317 0.286789 0.211887 0.934268
0.00578673 -0.0859036 0.0856051 1 0 0
-0.0119383 -0.189766 0.269345 -0.744104 -0.496471 -0.447018
-0.0349175 0.0707462 0.201182 -0.52137 -0.103885 0.846983
-0.0137035 0.151997 0.114528 -0.757086 -0.605746 -0.24473
-0.0140882 -0.183099 0.252286 -0.706994 0.567764 0.421667
0.153034 -0.181505 0.547747 0.119734 0.187336 0.974971
0.00379228 -0.149772 0.416631 0 0.632555 0.774515
0.00123428 -0.212422 0.292327 0.74823 -0.408459 -0.522794
0.0946802 -0.245335 0.558258 -0.250787 -0.332589 0.909115
0.00599401 -0.329407 0.336138 1 0 0
-0.000596764 -0.163863 0.202549 0.70715 0.700519 0.0959748
-0.0476815 0.0616811 0.225154 1 0 0
-0.0234481 0.324341 0.150885 0 0.838849 -0.544364
7.05961e-05 0.197306 0.0929694 0.7071 0.616047 0.347126
0.00268137 -0.459457 0.206599 0.748232 0.65698 -0.0923356
-0.00730247 0.271689 0.337156 0 -0.207887 0.978153
-0.0555194 0.0560264 0.159963 -0.987521 -0.132079 -0.0857742
-0.0239602 -0.0754469 0.258138 -1 0 0
-0.000121502 -0.185953 0.0579556 0 0.669168 -0.743111
0.0956606 -0.238277 0.548525 0.210357 0.60079 -0.771234
-0.0336483 -0.257285 0.275034 0.999658 -0.011869 -0.0232985
0.00599401 0.458938 0.222162 1 0 0
0.00384445 0.388855 0.0387768 0.748267 -0.351543 0.562595
-0.0164757 -0.313816 0.162618 0 -0.543474 -0.839426
-0.00302959 0.108418 0.463863 0 -0.133916 -0.990993
0.0965294 -0.235489 0.546457 0.32008 0.897995 -0.301918
-0.00819586 0.26678 0.0394523 0 0.299035 0.954242
0.0243993 0.140992 0.20295 0 0.464121 -0.885772
-0.0051441 0.190047 0.454858 0 -0.439447 -0.898268
0.00993646 -0.323115 0.160717 -0.135063 0.735063 -0.664409
0.00232792 -0.165713 0.125098 0.748226 -0.630973 0.205013
-0.0456333 0.0391587 0.179716 -0.94706 -0.310696 0.0809021
-0.0140797 -0.217679 0.0370502 -0.757113 0.346161 -0.554033
-0.0161102 0.396499 0.0415262 -0.744087 -0.354026 0.566569
-0.0416558 -0.263729 0.288984 -0.326748 -0.864038 0.38298
-0.00506718 -0.405019 0.034586 0 -0.61564 -0.788027
-0.0139421 0.233664 0.297621 -0.707072 -0.385133 0.593061
-0.00998634 -0.0606125 0.0627228 0 -0.219184 -0.975684
-0.0167437 -0.161675 0.237748 -1 0 0
-0.0178841 0.0427582 0.0789941 0 -0.122007 0.992529
-0.0113875 -0.283094 0.0431251 0.706791 -0.139821 0.693467
-0.0140144 -0.396926 0.0709068 -0.707413 0.510147 0.4892
0.051997 0.190162 0.228555 0 -0.998629 0.052344
-0.0447233 0.261439 0.103318 -0.731572 0.650399 0.204412
-0.0209158 0.292278 0.15602 0.410994 0.541607 -0.733311
-0.0167437 0.45969 0.114607 -1 0 0
0.00599401 -0.469996 0.176176 1 0 0
-0.0167831 0.148438 0.358969 0.503044 -0.195737 -0.841804
0.0418081 0.196688 0.234466 -0.872965 0.0254988 0.487117
-0.0112307 -0.0742576 0.190215 0 -0.990693 -0.136112
0.00189314 0.139987 0.154747 0.839709 -0.542705 -0.0189518
-0.0466656 0.0189878 0.187555 0 0.0432172 0.999066
0.000374012 0.313311 0.163699 0 0.681822 0.731518
-0.00581481 -0.312555 0.321267 0 -0.0732542 0.997313
0.00473523 0.275738 0.225149 0.679227 -0.681915 -0.271371
-0.0114035 -0.160386 0.199662 -0.744111 -0.653459 -0.138888
-0.0163478 -0.0737098 0.186228 0 -0.990693 -0.136112
-0.00402529 -0.375324 0.0544291 0 0.526946 0.849899
0.0348758 -0.259745 0.297362 0.766808 -0.574457 0.286363
-0.0488872 0.0470761 0.216585 0 0.461391 -0.887197
0.000330054 -0.172518 0.143224 1 0 0
-0.0066643 0.0513958 0.141961 0 0.998904 -0.0468105
0.0105946 0.287896 0.159868 0.898875 0.025032 -0.437489
0.00343423 0.0848082 0.199954 0 0.390764 0.920491
-0.0349855 0.0952686 0.188296 -0.515743 0.763425 0.388835
-0.00256171 -0.445946 0.184771 -1 0 0
-0.00512883 -0.405129 0.275398 0 0.736094 -0.676879
-0.0449023 0.0685148 0.196552 0 0.0994691 -0.995041
-0.00048408 -0.177218 0.151609 0.707151 -0.702377 0.0812732
-0.00853008 -0.406568 0.210934 0.898934 0.268112 0.34646
-0.00585948 0.434882 0.200872 0.136905 -0.262664 0.955125
-0.0442974 0.319627 0.133791 0 0.998629 -0.0523492
-0.0230149 0.207235 0.446449 0 -0.439447 -0.898268
0.00140298 0.21176 0.310901 0 -0.529888 0.848068
0.00830338 -0.32049 0.134949 0.990291 -0.0389543 -0.133437
-0.000565785 0.406541 0.0587535 0.70719 0.456362 -0.540014
0.0175965 -0.295867 0.162109 1 0 0
-0.0401168 0.24411 0.193088 -0.0160069 0.168653 0.985546
0.00818132 -0.28738 0.143725 0.411014 -0.685223 -0.60128
-0.01395 -0.231947 0.0645489 -0.707391 -0.456225 0.539867
-0.0141284 -0.212288 0.281068 -1 0 0
-0.0166878 0.347361 0.205131 0.138246 -0.664924 0.734005
-0.0188336 0.122112 0.47009 -0.997636 -0.0686182 0.00359699
-0.0436405 0.0858716 0.180691 -1 0 0
0.0107161 0.321273 0.18601 0.678703 -0.544181 0.493183
0.147834 -0.175264 0.535586 -0.740614 0.641092 -0.201223
-0.0230811 0.191733 0.454033 0 -0.439447 -0.898269
-0.0629462 0.311419 0.17801 -0.976113 0.034167 0.214558
-0.0167437 -0.324984 0.0172873 -1 0 0
-0.0112367 0.174317 0.147189 1 0 0
-0.013652 -0.191105 0.457648 -0.76625 0.627274 -0.139243
-0.00250272 -0.35282 0.319939 0 0.207936 -0.978142
-0.0156943 0.329381 0.00674827 -0.757101 0.022795 -0.6529
0.00328592 0.172075 0.23964 0.748228 0.585795 -0.311447
-0.0140972 -0.374401 0.0367811 -0.744072 0.313653 0.589897
0.00198632 -0.203916 0.41392 0.939683 0.33392 -0.0741237
-0.00314023 -0.319674 0.0303131 -0.706805 -0.0370236 -0.706439
-0.00699613 -0.370418 0.0424037 0 -0.416396 -0.909183
-0.0943387 -0.246448 0.5442 0.022369 -0.922235 0.385983
-0.0239602 0.0845886 0.0647831 -1 0 0
-0.044028 0.230536 0.194793 -0.999004 0.0362284 -0.0260646
-0.0308056 -0.306976 0.164391 -0.0101728 0.920632 -0.390299
-0.00925518 -0.27655 0.309451 0 -0.177107 -0.984192
0.00557371 -0.0813839 0.245804 0.707084 -0.696347 -0.123017
-0.0111626 -0.201312 0.476548 -0.500393 -0.845224 0.187625
0.00324966 0.0918836 0.0739796 0 0.992526 0.122037
-0.0122838 0.219755 0.161183 -0.136145 -0.118947 0.983522
-0.00701312 -0.458854 0.169073 0 0.99939 0.0349112
0.0338464 -0.233257 0.299453 0.748225 0.616968 -0.243947
-0.013127 0.217348 0.269608 0 0.736072 -0.676903
-0.057028 0.080666 0.167797 -0.976318 0.216044 -0.0113219
-0.0160924 0.448048 0.0997057 -0.744085 -0.589882 0.313649
-0.0393997 -0.312525 0.175999 0 -0.121746 0.992561
-0.0113614 0.326234 0.317213 0.707174 0.125198 0.695867
-0.00852048 0.208993 0.281828 0 0.669165 -0.743114
-0.0533 0.0856556 0.117543 0.706093 -0.0635224 -0.705265
0.000330054 0.177513 0.226654 1 0 0
-0.00882555 0.458131 0.154157 0 -0.990266 0.139185
0.0338578 0.159761 0.223209 0.780617 -0.357969 0.512343
0.00578673 -0.0269832 0.072574 1 0 0
0.0344915 -0.271537 0.233161 -0.719305 0.566799 -0.401671
0.0024803 0.145328 0.428237 0.707084 -0.560629 0.430961
-0.00908407 -0.0491864 0.0781007 2.7718e-05 -0.00139299 -0.999999
-0.0446366 0.0931159 0.14804 0 -0.522622 -0.852565
-0.0380934 0.323651 0.152149 0.0436065 -0.908214 0.416228
0.0293933 0.0608981 0.189198 1 0 0
-0.0112367 0.178643 0.129887 1 0 0
0.0627886 0.162194 0.223828 0 0.846245 -0.532794
0.00976663 -0.310335 0.18783 -0.899244 -0.413239 -0.143506
-0.0349305 0.261938 0.295257 -0.0399528 0.906286 0.420772
-0.0265773 0.157078 0.168948 0.851811 0.133957 -0.506432
-0.013259 -0.187695 0.535968 -0.984803 0.00908969 0.17344
-0.0113781 -0.394009 0.068649 0.707144 0.372611 0.600923
-0.00107132 0.457696 0.177074 0 0.990749 0.13571
0.00175335 -0.140405 0.199234 0.839723 0.531148 0.112903
0.00780827 -0.311637 0.208192 -0.135622 -0.988934 -0.0601411
-0.15405 -0.186009 0.522994 -0.737729 0.667169 -0.103157
-0.0217249 0.0349158 0.0780301 0 -0.122007 0.992529
0.0162066 -0.244762 0.53035 0 0.731195 -0.682168
-0.000255801 0.0548003 0.194706 0 0.992917 -0.11881
-0.0216023 0.147379 0.425206 -1 0 0
-0.00707252 0.0563931 0.26444 0 -0.942809 0.333335
0.00144641 0.227052 0.450285 -0.116054 0.207977 -0.971224
0.000330054 0.260821 0.0427943 1 0 0
-0.0213873 0.115793 0.178925 0.334292 0.134767 0.932784
-0.0161856 0.170878 0.242568 -0.744085 0.589879 -0.313656
-0.00963734 -0.183561 0.24932 0 0.802829 0.596209
-0.0043818 -0.346979 0.314902 -0.408789 0.863961 0.294045
-0.0434351 0.195474 0.170527 -0.851736 -0.133931 0.506565
-0.0141284 0.240077 0.0482888 -1 0 0
0.107727 -0.221716 0.558736 -0.376014 0.572921 0.728269
-0.0410021 0.152688 0.114428 0.0722502 -0.0257613 -0.997054
-0.0167437 -0.176257 0.0917624 -1 0 0
0.0331085 -0.287246 0.215393 -1 0 0
-0.0167437 0.175026 0.25848 -1 0 0
0.000731813 -0.270873 0.322081 0.748229 -0.20501 -0.630971
-0.0243749 0.306632 0.168872 -0.136904 -0.749147 -0.648102
-0.0141284 -0.187152 0.108995 -1 0 0
-0.115001 -0.214179 0.53766 0.652873 0.547621 -0.523325
-0.0356408 -0.24467 0.5385 0 0.798906 0.601456
-0.00875295 0.0463002 0.231399 0 -0.973281 0.229619
-0.00614888 0.378529 0.327199 0 0.469455 0.882957
-0.0154128 -0.462185 0.240111 -0.757089 -0.621337 0.201884
0.00599401 0.390583 0.307861 1 0 0
-0.00333668 0.451301 0.202585 -0.706894 0.700776 0.0959922
-0.00607315 0.151924 0.105562 0 -0.927174 -0.37463
-0.0310538 0.0967413 0.162327 -0.267502 0.808129 -0.524758
-0.0141284 -0.175938 0.145159 -1 0 0
-0.00256171 0.403776 0.282281 -1 0 0
-0.0239602 -0.0495558 0.125935 -1 0 0
-0.0167437 -0.462427 0.226844 -1 0 0
-0.0141487 0.153776 0.230859 -0.757044 -0.621386 0.201899
0.021538 0.116183 0.191729 -0.731568 0.324838 -0.599407
-0.0239602 -0.0182625 0.0653656 -1 0 0
-0.0426495 0.331216 0.160457 0 -0.998808 -0.0488148
-0.0134142 0.115852 0.482023 0 -0.0402337 0.99919
0.00341124 -0.29405 0.0229876 0.748245 -0.0231708 0.663018
-0.0407784 0.0227893 0.154568 1 0 0
-0.0155944 -0.190415 0.0614982 -0.757077 0.437185 -0.485493
-0.00827143 0.160197 0.155981 0 0.99939 0.0349112
-0.0305242 0.181265 0.469161 -0.987542 -0.157141 0.00824254
-0.0134593 -0.319212 0.32887 -0.744055 0.0233138 -0.667711
-0.00955898 -0.198319 0.412818 -0.342015 0.917365 -0.203636
-0.0106656 -0.215357 0.319071 0 0.615664 0.788009
0.0132399 -0.306959 0.177274 0.898966 -0.272821 0.342678
0.000320567 0.178251 0.238915 0.707 -0.623259 0.334215
-0.0106967 0.0618382 0.232222 0 0.961915 -0.27335
-0.00305308 -0.389965 0.326874 0 -0.529902 0.848059
-0.00022248 -0.192566 0.301226 0 0.743149 0.669126
-0.0167437 0.153753 0.126107 -1 0 0
-0.0584687 0.31266 0.183771 -0.0399528 0.906286 0.420772
-0.0171583 -0.167664 0.429992 0 0.573806 0.818991
-0.0933019 -0.240969 0.520464 0.677871 0.719267 -0.152141
0.0266222 0.0956109 0.181707 0.521542 0.815933 0.249496
-0.0385266 0.231025 0.472645 -0.998757 -0.0497837 0.00260867
-0.0237289 0.30793 0.169939 0.410107 0.144979 0.900441
-0.00778422 0.175425 0.136898 0 0.965912 0.258869
-0.0239602 0.0466276 0.0651452 -1 0 0
-0.0101916 -0.24658 0.0177219 0 0.374623 -0.927177
-0.107787 -0.23212 0.537808 0.146297 -0.181641 -0.972422
-0.0418059 0.0711482 0.185588 0 -0.00209099 -0.999998
-0.00133344 0.305543 0.260643 -0.990291 0.00582246 -0.138884
-0.01485 -0.182549 0.0876652 -0.744074 -0.52646 0.411331
-0.00771817 -0.331451 0.345797 0 -0.207887 0.978153
-0.00705398 0.35597 0.300084 0 -0.416289 -0.909232
0.00119918 -0.458634 0.200442 0.748223 0.65699 -0.0923422
-0.020921 0.0798943 0.321888 -0.707214 -0.649404 0.279504
-0.0196113 -0.289404 0.157326 0.899251 0.169354 0.40332
-0.0120236 -0.250486 0.316169 -0.744084 -0.206446 -0.635389
0.00410498 0.0980423 0.186099 0 0.891 0.454004
0.00336838 0.0998649 0.476021 0.902913 -0.429233 0.0225302
0.00599401 0.327964 0.0133372 1 0 0
-0.0132312 0.188984 0.287993 -0.757107 -0.437146 0.485482
-0.010871 -0.322175 0.32114 0.707058 -0.0517961 0.705256
0.000330054 -0.332472 0.320583 1 0 0
-0.0164107 0.307407 0.157391 0 -0.682698 -0.7307
0.0857151 0.179666 0.221073 0 -0.0523267 -0.99863
0.0107707 -0.321033 0.151775 0 -0.544264 -0.838914
-0.0345485 -0.240621 0.290513 0.926147 0.318643 -0.201789
-0.0141284 -0.360573 0.307387 -1 0 0
-0.0188184 -0.0739931 0.18829 0 -0.990693 -0.136112
0.00223374 -0.249499 0.208551 -0.409426 -0.48144 0.774975
-0.0141284 0.17057 0.172225 -1 0 0
0.0330844 -0.270419 0.238036 -0.914737 0.302771 -0.267556
-0.0226802 0.171988 0.351707 -0.300023 -0.279982 -0.911919
-0.00872617 -0.268714 0.01057 0 0.207942 -0.978141
0.000330054 -0.253024 0.0449425 1 0 0
-0.036933 0.208673 0.448912 -0.892899 0.0412058 -0.448368
-0.0129001 -0.17749 0.150386 0 -0.993372 0.114945
-0.0146382 0.317863 0.00512146 -0.757088 0.0228019 -0.652915
-0.00256171 0.316056 0.30707 -1 0 0
0.00350791 0.181291 0.0857183 0.74823 0.562615 0.351591
0.085705 0.16831 0.234615 0.817421 -0.280492 0.503137
-0.0457224 0.142999 0.116248 0.700802 -0.115288 -0.703979
-0.0193242 0.0944655 0.320777 0 0.918538 -0.395334
-0.0239602 0.0507095 0.0648364 -1 0 0
0.00258235 0.124828 0.393125 1 0 0
-0.0214133 0.165026 0.417794 -1 0 0
0.00508433 0.25904 0.328429 0.839695 -0.203446 0.50351
0.000330054 -0.390243 0.29165 1 0 0
0.00258235 0.0425227 0.129467 1 0 0
0.00504415 0.210184 0.039021 0.839684 -0.334345 -0.427953
-0.0226393 -0.063814 0.111487 -0.707412 -0.704089 -0.061853
0.00358581 0.459603 0.245557 0.839667 0.503561 0.203436
0.00196153 0.429093 0.291644 0.839703 0.403555 0.363377
-0.0116189 0.342147 0.251672 0.13719 -0.925951 0.351844
-0.0133203 0.189258 0.26525 -0.744109 0.526412 -0.411331
-0.0476815 0.0462687 0.220209 1 0 0
-0.0443516 0.0573728 0.19283 0 0.570111 -0.821568
-0.013319 0.429496 0.109078 -0.707683 -0.659598 0.25321
-0.00279982 0.036698 0.144919 0 -0.998907 0.0467432
-0.01064 -0.387012 0.289248 0.707096 0.385129 -0.593036
-0.00298855 0.174337 0.197248 -0.706984 0.686813 -0.168706
0.00211426 -0.394873 0.0296621 0.839679 -0.254962 -0.479515
0.0056817 -0.472932 0.160052 0.839724 -0.542683 -0.0189401
0.00248221 0.0354462 0.076485 0.707104 -0.0441291 -0.705731
-0.0492917 0.0477135 0.130345 -1 0 0
-0.00311024 -0.173705 0.405383 0 -0.593449 -0.804872
-0.0166776 -0.418009 0.288994 -0.744072 0.447055 -0.496486
0.0239945 0.22843 0.474107 0.892908 -0.00412794 0.450221
0.0313049 -0.274105 0.256664 -0.91348 -0.399686 0.0761873
-0.0060175 -0.0592774 0.247686 0 0.985332 0.170651
0.00549733 0.0734449 0.147949 0 -0.0524095 -0.998626
-0.0019106 0.225012 0.276681 -0.706639 0.385374 -0.593421
0.0061701 0.160591 0.419526 1 0 0
-0.0158945 -0.203257 0.433249 -0.984817 -0.16947 0.0376189
0.000330054 0.174131 0.217016 1 0 0
-0.00317542 -0.27973 0.309688 -0.707054 -0.125235 -0.695982
0.000330054 -0.30034 0.315072 1 0 0
-0.0407784 0.0791252 0.12422 1 0 0
-0.0161492 0.0567186 0.208777 0 0.985304 -0.170807
-0.0464882 0.0310461 0.218431 -0.947064 -0.208731 0.243928
-0.0239602 -0.0632175 0.149902 -1 0 0
-0.03364 -0.228176 0.33516 -0.928586 0.168461 0.33068
-0.0158768 -0.0788626 0.320815 0 0.924952 0.380083
-0.00190998 -0.4426 0.282597 0 -0.788013 0.615659
0.00152419 0.142419 0.136683 0.839723 -0.531148 -0.112903
0.00599401 0.365898 0.0245043 1 0 0
0.00968742 -0.292156 0.173147 -0.408893 -0.0342774 -0.911938
0.000330054 -0.423719 0.0914981 1 0 0
0.00218213 -0.258563 0.337826 0.839712 0.167812 0.516452
0.00529282 0.322961 0.00665599 0.839721 0.0189524 -0.542687
-0.0239602 -0.1985 0.429358 -1 0 0
-0.0386454 0.258499 0.296698 -0.874821 0.348152 0.336866
0.00599401 0.156805 0.22857 1 0 0
0.0090762 0.0973651 0.187428 0 0.891 0.454004
-0.0119049 -0.401025 0.29318 0.707348 -0.384983 0.59283
-0.0233822 -0.227715 0.330063 0.918901 -0.0194366 -0.39401
-0.0183528 0.11941 0.479182 -0.919484 -0.0785935 0.385191
-0.0164862 -0.291264 0.129665 0.678528 0.630511 0.376903
-0.0140623 -0.174831 0.250694 -0.744068 -0.566577 -0.354053
0.000330054 -0.294665 0.0366845 1 0 0
-0.0172804 0.0810871 0.178923 0.107722 -0.992824 0.051921
-0.0239602 -0.0803077 0.262996 -1 0 0
-0.00400026 -0.181194 0.2449 0 0.925867 0.37785
-0.0445157 0.1277 0.11429 0.983858 -0.145439 0.104267
-0.0375368 -0.296043 0.211529 0.886632 -0.426728 0.178288
0.00995339 0.152197 0.471739 0.973388 -0.228851 0.0120025
0.031811 -0.254286 0.26149 -0.743478 0.526633 -0.412187
-0.015639 -0.201997 0.427114 -0.984817 0.169471 -0.0376194
-0.0141284 0.428398 0.237581 -1 0 0
-0.00751263 0.186661 0.0849494 0 0.848027 0.529952
0.000909252 0.193443 0.0742389 0.748209 0.493064 0.443927
-0.0181625 0.0487158 0.0979084 0 0.998058 -0.0622829
0.04479 0.305681 0.154694 -0.338351 -0.00212675 -0.941017
0.0285941 0.114623 0.18925 0 0.507941 -0.861392
0.000144678 0.34825 0.256789 0.677755 0.70234 -0.217639
0.0021914 -0.275313 0.325197 0.748232 -0.0923157 -0.656983
-0.0457245 0.0628034 0.147582 0 0.30114 0.95358
-0.00182603 0.133653 0.4827 0 0.00670205 0.999978
-0.00346213 -0.332989 0.0392465 -0.70678 0.037024 0.706464
-0.0141284 -0.182864 0.109627 -1 0 0
-0.0141284 0.162907 0.178117 -1 0 0
-0.00636489 0.204501 0.447786 0 -0.439447 -0.898268
0.00506294 0.26078 0.175011 -0.990291 0.137963 -0.0170201
-0.000869333 -0.181212 0.517818 0.939677 0.336158 -0.0632814
0.00171788 0.0916937 0.0615432 0 0.788053 -0.615607
-0.0371444 0.0548999 0.158517 -0.515618 -0.584408 -0.626582
-0.00522238 -0.371688 0.3083 0 -0.318974 0.947764
-0.00780966 0.450341 0.207878 0 0.965852 0.259093
-0.0430963 0.0576754 0.176785 0 0.93692 -0.349545
-0.0509062 0.29638 0.203292 0.664821 -0.619407 -0.41755
-0.0167437 0.245654 0.31946 -1 0 0
0.00517734 -0.171338 0.104298 0.748222 -0.585789 0.311473
-0.00250871 -0.393549 0.06826 -0.707141 0.372619 0.600921
0.00578673 -0.0442375 0.0804565 1 0 0
-0.0143218 0.158229 0.48167 0 0.0412897 0.999147
-0.00496482 0.139071 0.16352 0 -0.999391 -0.0348997
-0.00815608 0.277108 0.286231 -0.89979 -0.436146 0.0124606
-0.00210736 -0.224208 0.296602 -0.707043 0.445043 0.54957
-0.0161051 0.145402 0.160181 -0.757086 -0.652917 -0.0228105
-0.00524149 -0.281654 0.314936 -0.899437 0.435419 0.0377214
0.0327005 0.290638 0.217342 -0.583092 0.790473 0.187498
-0.158632 -0.190595 0.529149 -0.759889 0.649161 -0.0340526
0.000330054 0.245996 0.0480616 1 0 0
-0.00216672 -0.16004 0.18661 0 -0.99939 -0.0349125
0.00549785 0.33997 0.0178911 0.748242 -0.137925 0.648931
-0.00416317 0.378424 0.0788395 -0.990291 -0.0851573 0.10987
-0.00220771 -0.142874 0.137027 0 0.951053 -0.309027
-0.0162102 0.0538224 0.256876 0 -0.951602 0.307332
-0.0114646 -0.220898 0.2983 -0.744108 -0.411303 -0.526434
-0.000731238 -0.16837 0.126033 0 -0.951058 0.309011
-0.0974153 0.00281453 0.105903 0 -0.601297 0.799026
-0.0709325 0.0597598 0.165125 -0.922485 -0.115283 0.368418
0.0124773 -0.307032 0.183946 0.990291 0.0580297 0.126315
-0.0141284 -0.266165 0.0389527 -1 0 0
-0.00669893 -0.212962 0.541422 0 0.0523188 0.99863
-0.00141917 -0.17832 0.2488 0 -0.848037 -0.529937
-0.0443822 0.271157 0.257401 -0.593405 -0.771288 -0.230185
-0.00928119 -0.186896 0.112504 0 -0.933576 0.358379
-0.0211209 0.0631842 0.241333 -0.707103 0.68018 -0.193289
-0.0239602 -0.0631156 0.156333 -1 0 0
0.0333525 -0.266274 0.284882 0.327136 -0.850061 0.412769
0.0279313 -0.248724 0.277765 -0.91224 0.290897 -0.288439
0.00257917 -0.37368 0.0374215 0.748212 0.311495 0.585789
-0.0470993 0.318343 0.132578 -0.75842 0.650872 -0.0341221
-0.0179213 0.322202 0.134525 0.898871 -0.435234 -0.0510221
-0.0131293 0.459315 0.0956235 -0.757089 0.576837 -0.306717
-0.0464929 0.135079 0.116 -0.0720929 0.0255236 0.997071
-0.0668652 -0.25013 0.542269 -0.0650047 -0.881138 0.468371
-0.00137262 0.470075 0.113768 0 0.951053 -0.309028
-0.0215205 0.0445228 0.215849 -0.707026 -0.696785 0.120853
0.0963851 -0.251025 0.535574 0.71172 -0.699923 -0.05968
0.00958442 -0.213828 0.359598 0 0.460082 0.887877
0.00578673 -0.0655854 0.205636 1 0 0
-0.0443821 0.252292 0.112593 -0.686627 0.2665 0.676403
-0.00759049 0.164065 0.134949 0 0.978149 0.207906
-0.000858674 0.278706 0.338648 0 -0.207887 0.978153
-0.0101339 -0.360334 0.0135122 0 -0.309055 -0.951044
0.00258235 0.0695626 0.268427 1 0 0
-0.00981367 -0.288154 0.0318371 0 0.197664 -0.98027
-0.000874327 0.0736909 0.147936 0 -0.0524095 -0.998626
-0.00455035 -0.188152 0.0559755 0 0.669168 -0.743111
-0.0141284 0.387387 0.0501589 -1 0 0
-0.0407784 0.0534217 0.174752 1 0 0
-0.00250929 0.471748 0.118916 0 0.951053 -0.309028
0.00265599 0.457185 0.210534 0.74824 -0.648933 -0.137926
0.00561392 0.225408 0.0296774 0.839688 -0.254958 -0.4795
-0.0485412 0.309058 0.119763 -1 0 0
0.00578673 -0.078451 0.252215 1 0 0
-0.0167233 -0.299798 0.225205 0.134499 0.965783 -0.22175
-0.0141284 -0.218066 0.0695669 -1 0 0
-0.0141284 0.216432 0.0564692 -1 0 0
-0.00955394 0.434069 0.227518 0 -0.925877 -0.377825
0.00407276 -0.0683367 0.0883369 0.707125 0.154966 0.689898
0.00164502 -0.260718 0.244403 0.67739 -0.545312 0.493739
0.133947 -0.204746 0.518986 0.711706 -0.699937 -0.0596914
-0.0062288 0.359509 0.290305 -0.409789 0.866022 -0.286494
-0.0111578 -0.0398398 0.102514 0 0.997829 0.0658633
0.0230614 0.258285 0.291771 0.975206 0.0311719 0.219094
0.0606198 0.154677 0.232035 0 -0.998629 0.0523375
-0.00189534 -0.448667 0.121154 -0.706577 -0.683522 -0.183157
0.00599401 0.176764 0.25645 1 0 0
0.00201552 -0.164422 0.223385 0.74824 -0.615118 -0.248532
-0.00810277 -0.14259 0.211398 0 0.978146 0.207919
-0.0128244 -0.313376 0.0897381 -0.136768 0.987583 -0.0772958
-0.0141284 -0.454998 0.18726 -1 0 0
-0.1413 -0.188365 0.53317 0.686345 0.695676 -0.212051
-0.0123001 0.291865 0.30401 0 0.0732572 -0.997313
-0.126072 -0.22044 0.533621 -0.0894246 -0.421685 -0.902322
0.0145196 -0.327229 0.173147 0 -0.920622 0.390456
-0.0442371 0.0443364 0.19004 0 -0.765576 -0.643346
0.0293933 0.0597568 0.181188 1 0 0
-0.0455362 0.14589 0.114275 0.072265 -0.0255775 -0.997057
-0.0415315 0.296413 0.147238 0 0.337232 -0.941422
-0.0132076 -0.360757 0.0506762 -0.707599 0.211337 0.67427
-0.0236863 0.293959 0.154552 0 -0.890966 -0.454069
-0.0387388 -0.313986 0.175819 0 -0.121746 0.992561
-0.00213438 -0.251249 0.525734 0 -0.225328 -0.974283
0.00400042 -0.0956467 0.299053 0 -0.94425 -0.32923
-0.00739392 0.332953 0.034965 0 -0.197646 0.980273
-0.0141284 0.441471 0.208395 -1 0 0
-0.0136947 0.163675 0.0888351 -0.757043 -0.554089 -0.346223
0.00799499 0.344406 0.168101 0.136937 0.0443365 -0.989587
-0.00828784 -0.312752 0.170256 0 -0.292052 0.956402
0.132908 -0.201775 0.535491 -0.350865 0.0716974 -0.933677
0.0175965 0.303173 0.159116 1 0 0
-0.00463402 0.37629 0.0140593 0 0.374614 -0.927181
-0.0211088 0.284935 0.178331 -0.409227 0.272626 0.870752
-0.00925701 0.349941 0.310689 0 0.177089 0.984195
-0.0108566 0.459207 0.0898112 -0.757089 0.576837 -0.306717
-0.0239602 -0.0440423 0.0690722 -1 0 0
-0.0104723 -0.191357 0.268723 0 -0.74315 -0.669125
-0.0465356 0.105176 0.195598 0 -0.791812 -0.610765
-0.0137098 -0.328267 0.24662 -0.136919 0.950756 0.278059
0.013737 0.224018 0.449288 0 0.186491 -0.982457
0.00258235 0.108619 0.361198 1 0 0
-0.0239602 -0.0458033 0.105161 -1 0 0
-0.00450416 0.267279 0.301531 0 0.318965 -0.947767
-0.0101129 -0.195425 0.426787 -0.342015 0.917365 -0.203636
