-0.0134043 -0.349356 0.0468965 -0.707599 0.211337 0.67427
-0.000325826 0.425507 0.0460483 0 0.669143 -0.743134
0.000459634 0.0945362 0.320941 0 0.918538 -0.395334
0.0358428 -0.290647 0.196695 -0.273421 0.847746 -0.454498
-0.0394012 0.294739 0.15166 1 0 0
-0.0215066 0.297587 0.161133 0.677787 -0.315209 0.664265
-0.00334966 -0.195948 0.496422 0.339606 -0.725392 -0.598728
0.00379724 0.164878 0.481395 0 0.0412897 0.999147
-0.087453 -0.0171939 0.108832 0.707119 -0.706125 0.0370076
-0.000253074 0.330688 0.303487 0.706955 -0.125244 -0.696081
-0.0150296 0.350058 0.021415 -0.744079 -0.138895 0.653494
-0.00237509 0.138999 0.165579 0 -0.999391 -0.0348997
-0.0283983 0.171653 0.467915 -0.973387 -0.228853 0.0119748
0.000965549 0.0870669 0.151874 0 0.453841 -0.891083
-0.0167437 0.266243 0.0172107 -1 0 0
-0.0149961 0.244666 0.193811 -0.411299 0.272019 0.869965
-0.00971377 0.477573 0.199582 0 0.978139 0.207951
-0.0159662 0.329482 0.219934 0.410549 -0.865738 0.286265
0.00599401 -0.223254 0.0427228 1 0 0
-0.0148759 -0.352711 0.336386 -0.7571 -0.135812 0.639026
0.00435871 -0.294976 0.0218859 0.748245 -0.0231708 0.663018
-0.0422349 0.0470579 0.192871 0 -0.723525 0.690298
0.0414513 0.165411 0.236364 0 0.0523255 0.99863
-0.00242971 -0.445288 0.178581 -0.706997 0.707178 0.00739715
0.00511887 0.308154 0.21996 -0.408121 0.912721 -0.0194232
0.00512596 0.0850915 0.173358 0.84593 -0.215525 -0.487802
0.000650402 -0.144714 0.380121 0 -0.728185 -0.685381
0.0206016 0.269008 0.269423 -0.814446 0.577659 0.05466
-0.0024722 -0.171656 0.0756043 0 0.788008 -0.615665
0.000330054 -0.236682 0.294368 1 0 0
0.00578673 -0.0987701 0.317524 1 0 0
0.00151372 0.353164 0.335888 0.8397 0.167818 0.51647
-0.0153258 -0.186257 0.082058 -0.744074 -0.52646 0.411331
0.00599401 0.33022 0.00935408 1 0 0
-0.0496719 0.0308047 0.139417 0.542248 0.720529 0.43221
-0.00576256 0.0403097 0.0746009 0 -0.062404 -0.998051
-0.100888 -0.236564 0.539676 0.146297 -0.181641 -0.972422
-0.00827668 0.159165 0.25147 0 -0.882942 0.469481
-0.0113139 -0.434483 0.291919 -0.757074 -0.514826 0.402234
0.00487194 -0.408115 0.296299 0.74821 0.443952 -0.49304
0.00340504 0.412283 0.0567746 0.748231 -0.443933 0.493025
0.000330054 0.444473 0.131289 1 0 0
-0.0141284 -0.29203 0.0298444 -1 0 0
-0.0373401 0.0818162 0.198082 -0.515704 0.33469 0.78869
0.00599401 0.469808 0.149404 1 0 0
0.00086955 0.201384 0.0389404 0 -0.615624 -0.78804
-0.0109665 -0.387113 0.0247487 -0.757077 -0.306717 -0.576853
-0.0239602 -0.0642397 0.241064 -1 0 0
-0.0407784 0.11567 0.169194 1 0 0
-0.0201535 -0.0678339 0.0884955 0 0.21916 0.975689
-0.0167437 0.333153 0.330191 -1 0 0
0.000330054 -0.387902 0.288136 1 0 0
-0.0369229 -0.243025 0.534954 0 0.998627 -0.0523833
0.000330054 0.267869 0.303635 1 0 0
-0.0539781 0.0805316 0.176239 -1.58559e-05 0.99863 -0.0523337
-0.0467083 0.276541 0.245416 -0.294622 -0.890941 -0.345575
0.00161894 0.398512 0.293691 0.74823 -0.408459 -0.522793
-0.0169041 -0.0981525 0.358546 0 0.852934 0.522018
-0.00427036 -0.220908 0.391988 0.342035 -0.917357 0.203637
-0.00869588 0.0387363 0.181952 0 -0.996595 0.0824541
-0.00375224 -0.17004 0.431657 0 0.573806 0.818991
-0.0140587 0.14537 0.482201 0 0.0412897 0.999147
-0.0565875 0.0751067 0.159657 -0.987521 0.040757 -0.152122
0.127698 -0.200332 0.538413 -0.553036 0.303266 -0.776004
-0.00256171 -0.343598 0.319003 -1 0 0
-0.0216023 0.121386 0.376419 -1 0 0
-0.0100782 0.1989 0.479259 0 0.0897149 0.995968
-0.00970461 0.346666 0.258863 0.679257 0.639479 -0.360106
-3.74109e-05 0.38769 0.0443421 0.707285 0.307691 -0.636455
0.00464151 -0.307462 0.0105572 0.839723 0.0189517 -0.542684
0.00599401 -0.203756 0.0544591 1 0 0
-0.120817 -0.216354 0.514235 0.677874 0.719269 -0.152113
0.00258235 0.144828 0.417538 1 0 0
0.000330054 -0.207951 0.276368 1 0 0
-0.0208232 -0.199244 0.422161 0 -0.497117 -0.867684
-0.0411758 0.0536576 0.168529 -0.870603 -0.438404 -0.223276
0.000385306 -0.160762 0.154182 0.748222 -0.656991 0.0923427
0.00151091 -0.43144 0.0856017 0.748195 0.562653 0.351606
-0.0219888 0.0463043 0.0794225 -0.707109 -0.086272 0.701822
-0.00469214 -0.065845 0.128514 0 -0.994498 -0.104757
-0.0407784 0.057567 0.126664 1 0 0
-0.0159891 -0.4554 0.230791 -0.744088 0.635385 -0.206446
0.00719116 0.28514 0.145859 -0.899708 -0.218086 0.378105
-0.00169985 0.204055 0.0653865 -0.707107 -0.510376 -0.489403
-0.0134033 -0.208312 0.437065 -0.765877 -0.627709 0.139335
-0.00868909 0.0860671 0.0843179 0 -0.122007 0.992529
-0.0239602 0.00567698 0.0757296 -1 0 0
-0.0130672 -0.469555 0.226224 -0.757106 -0.621316 0.201886
0.0163266 0.13482 0.17114 0.963133 -0.214796 -0.16198
-0.110566 -0.219168 0.538215 0.540116 0.331782 -0.773431
-0.0211277 0.30398 0.144617 0 -0.390752 -0.920496
0.00300906 -0.174129 0.277032 0.839676 0.460568 0.287787
-3.99684e-05 0.171872 0.227783 0.707 -0.623259 0.334215
0.108578 -0.236944 0.544951 0.152705 -0.385137 -0.910138
0.000330054 -0.165421 0.19567 1 0 0
-0.0141284 0.363109 0.0364338 -1 0 0
-0.150378 -0.18299 0.526159 0.652217 0.545593 -0.526252
-0.0141284 0.188235 0.0950622 -1 0 0
-0.00277891 -0.239617 0.081801 0.410252 -0.685564 -0.601411
0.00498495 -0.438011 0.279717 0.839687 -0.427942 0.334352
-0.0103421 0.421023 0.249929 0.706846 -0.567887 -0.42175
-0.0849727 0.0118017 0.097111 0.817382 0.280528 -0.503181
0.0347346 0.104668 0.184557 0.725892 0.419568 -0.545017
-0.0458835 0.0917756 0.155883 -1 0 0
-0.0129406 -0.18676 0.488554 -0.685227 0.653888 0.320773
-0.00123031 -0.426487 0.268213 0 -0.736089 0.676885
-0.00397837 -0.416053 0.281502 0 0.669146 -0.743131
-0.013002 0.0511146 0.05628 0 0.12201 -0.992529
0.115484 -0.223789 0.522141 0.711731 -0.699905 -0.0597679
-0.0403532 0.319044 0.122664 0 0.998631 -0.0523094
0.0350461 -0.25835 0.252472 -0.325786 0.795616 -0.510744
-0.0204823 -0.293128 0.189322 0.410198 0.554302 -0.724215
-0.0216023 0.144709 0.408208 -1 0 0
-0.0147991 0.0488047 0.240572 0 -0.961922 0.273323
-0.0139585 0.375335 0.184197 0.67787 0.0874095 -0.729967
-0.0139597 -0.279381 0.248658 -0.899356 -0.341202 0.273386
-0.0236466 -0.0720016 0.183812 -0.707168 -0.700466 -0.0962343
0.00451161 -0.0628221 0.0990538 0.707087 -0.70558 -0.0467496
-0.0215338 0.153227 0.357089 -0.299602 -0.279983 -0.912057
-0.111535 0.00732505 0.10325 0 0.974202 -0.22568
-0.0167437 -0.456148 0.245639 -1 0 0
-0.137029 -0.198451 0.528621 0.540616 0.332695 -0.772689
-0.0144216 -0.186522 0.0634945 -0.757074 0.514833 -0.402227
-0.00206855 0.259295 0.256805 -0.679221 0.681923 0.271366
0.00528295 0.235109 0.45607 -0.410123 0.910778 -0.0477802
0.00599401 0.184571 0.0752162 1 0 0
-0.0114292 -0.435521 0.062703 -0.7571 -0.485508 -0.437129
-0.00256171 -0.36081 0.0373153 -1 0 0
-0.0773654 0.0204502 0.123562 -0.754992 -0.40289 0.517365
-0.0136911 0.233334 0.0432083 -0.707078 -0.372627 -0.60099
-0.010175 0.16616 0.214261 0 0.951058 -0.309011
-0.0024708 0.453705 0.199917 -0.707456 0.700218 0.0959219
0.0288179 -0.251786 0.271873 -0.91224 0.290897 -0.288439
-0.0765981 0.0439213 0.145683 -0.979107 0.143897 0.143676
-0.023615 -0.135619 0.372183 -0.707044 -0.542744 -0.45334
0.00599401 -0.442445 0.261597 1 0 0
-0.0429083 0.258476 0.0991345 -0.59038 -0.685931 -0.425382
-0.0103735 0.470904 0.116318 0 0.951053 -0.309028
0.00578673 0.0697349 0.0745416 1 0 0
-0.00431898 -0.192813 0.301458 0 0.615663 0.788009
-0.0388876 0.269202 0.279235 -0.0406115 0.906209 0.420876
-0.0239602 -0.085601 0.298102 -1 0 0
-0.0141284 0.167904 0.185953 -1 0 0
-0.000794149 0.376507 0.304661 0 -0.469487 -0.882939
-0.0273838 0.141542 0.167194 0.00210229 -0.0720302 -0.9974
-0.00325142 -0.378387 0.0468324 -0.707073 -0.372617 -0.601003
-0.0419547 0.231201 0.111666 0.58446 0.0445805 0.810197
-0.0141284 0.170787 0.129761 -1 0 0
0.00913862 0.310716 0.148062 -0.409654 -0.905452 -0.111087
0.00151653 0.200937 0.302596 0.839725 -0.363353 0.403529
-0.00256171 -0.255917 0.311991 -1 0 0
-0.0216023 0.0394713 0.132492 -1 0 0
0.0514335 0.162 0.223519 0 0.846245 -0.532794
-0.0177066 0.3159 0.158683 1 0 0
0.0838703 -0.244446 0.532907 -0.719104 0.613112 -0.327082
0.0206658 -0.24002 0.325758 -0.916051 -0.310286 -0.254113
8.44904e-05 -0.159617 0.18266 0.748246 -0.663017 -0.0231617
-0.016882 -0.226822 0.34722 0.929946 -0.166908 -0.32763
0.0862763 0.176318 0.230364 0 -0.998635 0.0522399
-0.0162342 -0.30035 0.224193 0.677736 0.694095 -0.242708
0.0220181 0.129429 0.198322 -0.731568 0.324838 -0.599407
-0.00849143 0.149101 0.112548 0 -0.927174 -0.37463
-0.0121265 -0.399187 0.298657 -0.744063 0.35404 -0.566591
0.00342658 -0.258238 0.148914 -0.899701 -0.294304 -0.322371
-0.0141284 0.318141 0.0259997 -1 0 0
0.00966442 -0.299871 0.153306 -0.309102 0.572286 -0.759568
-0.0133624 -0.272411 0.32486 -0.744088 -0.206446 -0.635384
-0.0492917 0.0303365 0.158909 -1 0 0
0.000480544 -0.0668181 0.0641169 0 -0.219184 -0.975684
0.00118695 -0.387098 0.328665 0 -0.529902 0.848059
-0.00352151 0.337694 0.318004 0 -0.139153 -0.990271
-0.0111779 -0.191591 0.446186 -0.500313 0.84527 -0.187632
0.00599401 0.218426 0.0374734 1 0 0
-0.0175413 -0.272358 0.1656 0.990291 -0.135539 0.0308618
0.0293933 0.0685928 0.157274 1 0 0
-0.0141284 0.264816 0.299015 -1 0 0
-0.0239602 0.0789331 0.0704936 -1 0 0
-0.00245833 -0.193255 0.266068 -0.706916 0.567827 0.421714
-0.0492917 0.0928105 0.126784 -1 0 0
-0.01336 0.113948 0.359101 0 0.862554 -0.505965
0.00578673 -0.0448985 0.0855095 1 0 0
-0.0104831 -0.0392481 0.0919946 0 0.999324 0.0367634
-2.67681e-06 0.459541 0.163727 0.748224 -0.663042 -0.0231507
0.00648968 -0.342295 0.196361 -0.412458 0.55393 0.723215
0.00413955 -0.362359 0.0184625 0.83973 -0.167804 -0.516426
-0.0112367 -0.246387 0.0552934 1 0 0
0.000510843 -0.225547 0.133209 0.89883 -0.0674054 -0.433083
-0.00195281 -0.267731 0.341915 0 0.309028 0.951053
-0.000588159 0.338343 0.0240788 0 -0.20788 0.978154
0.0290574 0.1499 0.218014 0 -0.535141 0.844763
-0.00354594 -0.225835 0.32485 0 0.469455 0.882956
-0.0118581 -0.452172 0.0854421 -0.757097 -0.554045 -0.346177
-0.00985196 -0.147788 0.121904 0 0.951053 -0.309027
0.00578673 -0.00712688 0.0616458 1 0 0
0.000330054 0.434303 0.231136 1 0 0
0.00198719 -0.0565215 0.231507 0 0.98522 0.171292
-0.0192535 0.0821835 0.290937 0 0.930546 -0.366175
-0.0145489 -0.313513 0.110767 0.678297 -0.721749 0.137812
0.00633296 -0.31115 0.211696 -0.89942 -0.412853 -0.143516
-0.0134659 -0.194044 0.106156 -0.707358 -0.57618 0.409464
-0.0134109 0.263698 0.332301 -0.757081 -0.135817 0.639048
0.00354631 -0.312192 0.343516 0.83971 -0.0189512 0.542705
0.033405 0.123823 0.195733 0.999771 0.0190451 0.0097618
0.0285625 -0.231685 0.304509 -0.766648 0.563334 -0.308067
-0.0457398 0.0926046 0.184021 0 -0.849568 -0.527478
-0.004589 -0.140762 0.151158 0 0.990269 -0.139163
0.0620408 -0.243154 0.535205 0.183327 0.674147 -0.715484
-0.00656405 0.448276 0.17074 0.137001 0.0443452 -0.989578
-0.0152342 0.474191 0.187279 -0.757105 0.652896 0.0227775
-0.0138504 -0.165945 0.212971 -0.706941 0.700727 0.0960033
-0.0141284 0.39878 0.272747 -1 0 0
0.0333513 0.169768 0.218028 0 0.464121 -0.885772
-0.0224846 -0.0493697 0.180703 -0.707169 0.700464 0.0962427
-0.0031056 -0.122003 0.390373 0 0.72814 0.685429
-0.0162665 0.0448319 0.225175 0 -0.973281 0.229619
-0.00401741 -0.211983 0.530996 0.642862 -0.0400888 -0.764932
-0.00367333 0.321658 0.0247135 0 0.197659 -0.980271
-0.0130212 0.106759 0.481657 0 -0.0402337 0.99919
0.00324702 0.065776 0.148895 0 -0.225018 -0.974355
-0.0433907 0.292919 0.128803 0 0.0523416 0.998629
-0.00641773 0.0513853 0.141738 0 0.998904 -0.0468105
-0.0110594 -0.111414 0.334382 0 -0.878634 -0.477495
-0.00754419 0.0334557 0.091315 0 -0.998061 0.0622492
-0.0139031 0.443889 0.180745 -0.70734 -0.700333 -0.0959357
-0.0114869 0.446611 0.233595 -0.744102 -0.619432 -0.250232
0.0209772 0.0545038 0.194671 0.271867 -0.703818 0.656298
0.00191059 0.388706 0.170969 0.136142 -0.00601924 0.990671
-0.0139223 -0.36033 0.227758 0.135163 -0.723786 -0.676657
-0.000195882 0.160178 0.156549 0 0.99939 0.0349112
-0.0261181 0.195488 0.479567 0 0.0897149 0.995968
-0.00113771 -0.269598 0.267433 0.136252 -0.892245 0.430504
-0.00169392 -0.142742 0.212114 0 0.978146 0.207919
-0.00567629 0.202372 0.240835 -0.135183 0.566947 0.812587
-0.0239602 -0.0779519 0.268887 -1 0 0
-0.00252067 0.163707 0.197871 -0.707438 -0.686377 0.168575
-0.00419979 0.0784939 0.0596457 0 0.12201 -0.992529
-0.0412981 -0.259231 0.251548 -0.748198 0.558611 -0.357985
-0.00939041 0.0918799 0.194965 0 0.681993 0.731359
0.00599401 0.220828 0.306433 1 0 0
0.000586003 0.100878 0.366112 0 -0.862568 0.505942
-0.000163347 0.34279 0.245785 -0.899485 0.327526 -0.28923
-0.0180115 -0.343951 0.186411 0.89882 -0.0326033 -0.437103
-0.0430369 0.12948 0.161036 0 0.058032 -0.998315
-0.0141284 -0.417832 0.0786383 -1 0 0
-0.0319026 -0.230229 0.341218 -0.91968 0.0183237 0.39224
-0.0167437 0.462883 0.20565 -1 0 0
0.0362159 -0.290235 0.226519 -0.303942 -0.857694 0.414705
0.00454017 -0.397146 0.0481556 0.748257 0.408428 0.522779
0.0105531 0.0650632 0.201534 0 -0.292351 0.956311
-0.0151504 0.119781 0.395771 0 -0.825152 0.56491
0.00108704 0.186768 0.289873 0 -0.669144 0.743133
-0.0121454 0.155879 0.420229 0 0.792534 -0.609828
0.000330054 -0.444579 0.124197 1 0 0
0.000330054 0.292593 0.306315 1 0 0
-0.0168878 0.306447 0.108644 -0.678296 0.721749 -0.137813
-0.0212968 -0.309968 0.160231 0.990291 0.0084757 0.138749
-0.0458835 0.0592914 0.142156 -1 0 0
0.000330054 -0.402154 0.277712 1 0 0
-0.0157278 0.177043 0.253077 -0.744021 0.589958 -0.31366
0.111902 -0.220158 0.54197 -0.34995 0.0708102 -0.934088
-0.0407784 0.0223697 0.193082 1 0 0
0.000330054 0.214146 0.278364 1 0 0
-0.010199 -0.206998 0.286081 0 -0.615669 -0.788005
0.0419303 0.312175 0.156296 -0.00617264 0.454727 -0.89061
-0.0283244 -0.222836 0.32323 0.723116 0.457968 -0.517076
-0.013703 -0.277197 0.0314716 -0.707151 0.139758 -0.693112
-0.00623336 0.0569023 0.209837 0 0.985304 -0.170807
0.00871086 -0.313686 0.17402 -1 0 0
0.00191672 -0.194713 0.0761384 0.748164 -0.522849 0.408509
-0.00143587 0.163645 0.259896 0 -0.882942 0.469481
-0.000204349 0.282288 0.0725951 0.677521 0.673959 -0.294525
-0.0239602 -0.0282042 0.0614719 -1 0 0
-0.0453865 0.0917783 0.207825 0 -0.48674 -0.873547
0.00349081 0.447578 0.265628 0.839707 0.460528 0.287761
-5.27629e-05 0.423931 0.0992233 0.707333 -0.57619 0.409493
-0.00992764 0.217202 0.314301 0 -0.529888 0.848068
-0.0141284 -0.212111 0.0763166 -1 0 0
-0.0560338 0.301631 0.189418 0.039952 -0.906282 -0.420781
0.000330054 -0.2256 0.0561873 1 0 0
-0.0261691 0.0898021 0.196902 0 0.681993 0.731359
-0.0492917 0.0743015 0.215133 -1 0 0
0.00534269 0.126994 0.47101 0.997636 -0.0686199 0.0036034
-0.0141284 -0.354647 0.312829 -1 0 0
0.00578673 -0.166104 0.413655 1 0 0
-0.0130694 -0.387785 0.0657339 0 0.526989 0.849872
0.0434086 0.188601 0.235149 0 0.0523267 0.99863
0.0101083 0.239032 0.329892 -0.0438812 -0.926402 -0.373971
0.000330054 -0.373772 0.306151 1 0 0
-0.0166184 0.29125 0.326784 -0.744055 0.0233129 -0.667711
-0.00663808 -0.286078 0.311165 0 -0.177107 -0.984192
-0.0119898 0.202458 0.253697 0.706734 0.520756 -0.478895
-0.00955158 -0.415017 0.164914 0.138022 -0.0806314 0.987142
-0.0102007 -0.243481 0.541751 0 0.545239 0.838281
-0.0159469 0.279444 0.119751 0.134912 0.864098 -0.484906
-0.0937469 -0.240108 0.55176 0.0916661 0.122538 0.988221
0.00177039 0.0975026 0.46828 0.651841 -0.712763 -0.258982
0.0129252 0.30989 0.17529 0.899344 -0.327816 0.289338
-0.0021889 0.188872 0.232492 -0.706933 0.623328 -0.334228
0.00129563 0.413225 0.281643 0.748214 -0.493036 -0.44395
-0.0469971 0.113002 0.129356 0 -0.52266 -0.852541
-0.062848 -0.248268 0.532203 -0.350307 -0.794074 -0.496721
-0.000677339 -0.209518 0.370739 0.64285 0.747792 -0.165988
0.000330054 -0.320676 0.316974 1 0 0
0.00599401 0.470848 0.178439 1 0 0
-0.116817 -0.0169494 0.110721 0 -0.846264 0.532763
-0.00379776 -0.364939 0.270793 -0.990291 0.0674731 -0.121536
-0.0109188 -0.252596 0.0155068 -0.757036 0.244768 -0.605793
0.0036824 -0.196368 0.420487 0 -0.516206 -0.856464
0.0391104 -0.264121 0.274167 0.98217 -0.141353 0.123939
0.000330054 -0.324829 0.0314293 1 0 0
0.0336313 -0.309459 0.175321 0 0.224891 0.974384
-0.0141284 0.366383 0.305931 -1 0 0
-0.00814951 0.0491671 0.105141 0 0.998058 -0.0622829
-0.0141284 -0.202168 0.0891456 -1 0 0
-0.000757173 -0.182221 0.539874 0.939641 -0.333628 0.0759375
-0.0216023 0.0816335 0.310553 -1 0 0
0.001741 0.261061 0.315059 0.748212 0.248552 -0.615143
-0.0200328 -0.296043 0.140393 -0.898868 0.435239 0.051021
-0.00341578 0.373141 0.0127867 0 0.374614 -0.927181
0.00354774 -0.282836 0.010806 0.839727 0.112915 -0.531139
-0.00183675 -0.397297 0.0721769 -0.707334 0.510204 0.489254
0.00255093 -0.0832393 0.247892 0 -0.984752 -0.173965
0.000330054 -0.314615 0.0365233 1 0 0
0.000330054 -0.448245 0.160741 1 0 0
-0.0141284 0.227499 0.0563555 -1 0 0
-0.0203758 0.211643 0.478111 0 0.0897953 0.99596
0.037397 0.278799 0.158379 -0.85051 0.139121 -0.507226
-0.0079925 -0.177109 0.521367 -0.1738 0.965467 -0.194079
-0.013298 -0.158229 0.19966 -0.744111 -0.653459 -0.138888
-0.0167437 0.251381 0.0245272 -1 0 0
-0.00567727 -0.175001 0.203975 0 -0.990748 -0.135715
-0.0157458 0.183856 0.457562 0 -0.14275 -0.989759
-0.00745963 -0.275953 0.0422714 0 -0.197658 0.980271
-0.0239602 -0.0506814 0.133815 -1 0 0
0.000330054 0.218445 0.0579076 1 0 0
0.00383912 0.399046 0.0301607 0.839728 0.287752 -0.460495
-0.0216023 0.0465543 0.191363 -1 0 0
0.00105769 0.294339 0.0205154 0.748222 0.0923526 0.65699
-0.0344037 0.235395 0.456017 -0.331728 0.942079 -0.0494223
-0.00518893 0.272007 0.0417763 0.41011 -0.890218 0.198296
-0.0411774 0.0881291 0.143843 0 -0.683582 -0.729874
-0.00256171 -0.449298 0.226396 -1 0 0
-0.020261 -0.0626041 0.265838 0 0.981086 0.19357
0.000330054 0.170211 0.142368 1 0 0
-0.0468971 0.303896 0.154383 -0.727747 -0.609964 0.313572
0.00171345 0.144469 0.12845 0.839723 -0.531148 -0.112903
-0.0143392 -0.185298 0.268028 -0.744103 -0.566554 -0.354017
-0.0197739 -0.183197 0.412104 0 -0.573888 -0.818934
-0.0228609 -0.199553 0.440019 -0.707123 -0.613558 0.351459
-0.0239602 -0.0964208 0.328134 -1 0 0
-0.0516763 0.0377064 0.193117 0 -0.62931 -0.777155
-0.03616 0.170789 0.17463 -0.338609 0.000475627 0.940927
-0.0132207 0.401838 0.0547635 -0.707221 0.456343 -0.539991
-0.00253725 0.170001 0.116477 0 0.927188 0.374596
-0.014257 0.154042 0.231271 -0.757044 -0.621386 0.201899
-0.0141284 -0.453465 0.180116 -1 0 0
-0.0529765 0.0443806 0.21549 -1 0 0
-0.00256171 0.371957 0.0372193 -1 0 0
-0.00472643 -0.426864 0.103046 0 0.871212 0.490906
0.027193 -0.306877 0.164645 0.0014075 0.974509 -0.224344
-0.0214361 0.166771 0.481317 0 0.0412897 0.999147
-0.0167437 -0.472334 0.173848 -1 0 0
-0.00273341 0.1974 0.08957 -0.707163 0.61599 0.347096
-0.0516812 0.134473 0.21211 -0.986954 0.154572 -0.0450467
-0.0121384 -0.248854 0.0404771 0.706779 0.307891 -0.636919
0.00599401 -0.205076 0.29556 1 0 0
-0.00133771 0.153981 0.100471 0 -0.927174 -0.37463
-0.0159014 -0.149076 0.416062 0 0.632555 0.774515
0.00599401 -0.458871 0.120765 1 0 0
-0.0484149 0.1658 0.202407 -0.996985 0.0704469 -0.0325375
-0.0487731 0.123159 0.114444 0.572257 -0.0732189 0.8168
-0.039706 -0.285305 0.238409 -0.325168 -0.883235 0.337879
0.000544414 0.460513 0.250736 0 0.848074 0.529878
-0.0460999 0.314864 0.160276 2.22025e-05 0.99855 -0.0538239
0.00431605 -0.427306 0.0589054 0.83972 -0.403552 -0.363341
-0.0394012 0.332098 0.171485 1 0 0
0.00437091 -0.45984 0.213922 0.748229 0.630971 -0.205011
0.000608563 0.414042 0.0357244 0 0.669143 -0.743134
-0.0407784 0.0716964 0.118403 1 0 0
-0.0249209 0.307993 0.170488 -0.67801 -0.40688 0.61217
-0.0141284 -0.176006 0.134182 -1 0 0
-0.0239602 -0.15873 0.399929 -1 0 0
-0.00921793 -0.091673 0.28663 0 -0.962722 -0.270491
0.00412167 0.0879125 0.0611197 0.707094 0.0862706 -0.701838
-0.0141284 0.444636 0.123829 -1 0 0
-0.0404247 0.177235 0.113982 0.0729674 -0.0199814 -0.997134
-0.0141284 -0.227186 0.283737 -1 0 0
-0.0159235 0.275503 0.322823 -0.74406 0.138901 -0.653515
0.0265136 -0.225617 0.333869 0.91372 0.312669 0.259526
0.027839 -0.25472 0.304369 -0.916791 -0.383838 0.110284
0.0145964 0.217646 0.448078 0 0.186491 -0.982457
-0.00814152 0.160235 0.0878933 0 -0.848076 -0.529875
-0.0411193 -0.274958 0.263699 -0.326283 -0.86665 0.377435
0.00468682 -0.153995 0.118751 0.839711 0.516453 -0.167812
0.000330054 0.453153 0.153793 1 0 0
-0.00605792 0.326414 0.000907035 0 0.0348922 -0.999391
0.0017276 -0.108568 0.32887 0 -0.889981 -0.455998
-0.016345 -0.000160994 0.0547115 0 -0.052336 -0.99863
0.00270056 0.428269 0.290852 0.839702 0.403556 0.363377
-0.0239602 -0.0514207 0.161818 -1 0 0
-0.00182498 0.458781 0.180128 0 -0.99939 -0.0349125
-0.0177066 -0.307148 0.180202 1 0 0
-0.0131475 0.248232 0.127908 0.677632 0.475177 -0.561268
-0.0112145 0.298618 0.316316 0.707031 -0.0517981 0.705283
0.0109874 -0.229067 0.347226 -0.909358 -0.339965 -0.239773
-0.00013134 -0.45827 0.0927701 0 -0.848068 -0.529888
0.000330054 0.398083 0.276615 1 0 0
-0.0239602 -0.0506334 0.112202 -1 0 0
-0.00395065 -0.269851 0.308245 0 -0.177107 -0.984192
-0.015405 0.395857 0.311872 -0.757069 0.306712 0.576866
-0.0167437 0.456404 0.23974 -1 0 0
-0.00343468 0.432268 0.248096 -0.707178 0.567639 0.421528
-0.0370819 0.313819 0.143507 0.998103 0.0157836 -0.0595156
0.000330054 0.311596 0.309107 1 0 0
0.0322025 0.290542 0.212598 -0.952035 0.293551 -0.0863558
-0.0167437 -0.16308 0.235462 -1 0 0
0.00555682 -0.47362 0.174239 0.839724 -0.542683 -0.0189401
-0.00312605 -0.193952 0.433712 0.342035 0.917358 -0.203634
-0.00660426 -0.22817 0.0259403 0 0.529878 -0.848074
-0.110178 -0.23079 0.514059 -0.461669 -0.670608 -0.580643
-0.00226943 0.0200294 0.0536534 0 -0.052336 -0.99863
-0.0042754 -0.424059 0.302351 0 -0.669145 0.743132
0.002602 -0.473793 0.137935 0.839722 -0.531146 -0.112921
-0.0167437 0.365679 0.321574 -1 0 0
-0.159958 -0.191856 0.534717 -0.760637 0.64833 -0.0331569
0.0355089 -0.243089 0.53372 0 0.998627 -0.0523833
0.00578673 0.00643647 0.0745263 1 0 0
-0.0146258 -0.367165 0.319187 -0.744069 0.250274 -0.619455
-0.0303264 0.195211 0.452478 -0.34646 -0.478823 -0.806656
-0.0104766 0.0479098 0.0849925 0 0.998058 -0.0622829
-0.000666164 -0.161268 0.16966 0 0.993374 -0.114928
0.00578673 -0.118111 0.364649 1 0 0
0.00578673 -0.0832033 0.30981 1 0 0
-0.0141284 0.247395 0.03892 -1 0 0
-0.00659698 0.381969 0.32537 0 0.469455 0.882957
0.0269699 0.277087 0.237876 -0.876088 -0.355483 -0.325732
0.00515071 -0.358024 0.154768 -0.135993 0.35686 -0.924206
-0.00851411 -0.207952 0.451132 -0.174214 -0.961308 0.213394
0.0280402 0.0938575 0.188355 0 -0.405146 0.914252
-0.0141284 0.175676 0.226085 -1 0 0
-0.0397076 -0.302918 0.164719 0 0.974368 -0.22496
-0.0529765 0.0853779 0.222705 -1 0 0
-0.0111928 0.396907 0.287267 0.706753 0.445217 0.549802
-0.00256171 0.183387 0.246156 -1 0 0
-0.00251961 0.355514 0.274974 0.678501 -0.622293 0.390369
-0.0145633 0.438362 0.255373 -0.744063 -0.566592 -0.35404
-0.00779972 0.45299 0.18901 0 0.990752 0.135688
-0.00199701 -0.467996 0.113701 0 -0.927175 -0.374629
-0.0125458 -0.0845281 0.0680953 0 -0.219184 -0.975684
-0.00628272 0.0669389 0.249266 0 0.951623 -0.307269
0.00472334 0.283426 0.212895 -0.898319 0.428956 0.0949767
-0.00146186 -0.45839 0.179771 0 -0.999945 -0.0104475
0.00233426 0.191192 0.479954 0 0.0897149 0.995968
-0.0492917 0.107089 0.202843 -1 0 0
-0.00754563 -0.0832224 0.330604 0 0.909264 0.416221
-0.0141792 0.07007 0.300564 0 -0.927487 0.373856
-0.0401851 0.30529 0.182301 -0.0236206 0.042381 0.998822
-0.0120167 -0.339786 0.34252 -0.7571 -0.135812 0.639026
-0.00483503 0.125018 0.482392 0 -0.0402337 0.99919
0.00764566 0.213854 0.347623 -0.0378797 0.262181 0.964275
0.00206105 -0.284547 0.326346 0.748232 -0.0923157 -0.656983
-0.015447 0.342676 0.00925253 -0.757099 0.135835 -0.639023
-0.0162438 -0.0699255 0.158684 0 -0.990693 -0.136112
-0.0659706 0.0543782 0.146431 0 0.665261 -0.746611
-0.0112367 0.453736 0.144701 1 0 0
-0.0492917 0.119301 0.180708 -1 0 0
-0.0121708 0.303411 0.0776485 -0.409595 -0.912259 -0.00395264
0.00253489 -0.17667 0.100618 0.748222 -0.585789 0.311473
0.00225189 0.156494 0.442803 0.707149 -0.55001 0.44433
-0.00809317 -0.050236 0.188487 0 0.990692 0.13612
0.00748182 0.270119 0.154599 0.409645 -0.365554 0.8358
-0.0170318 -0.0169344 0.0555906 0 -0.052336 -0.99863
-0.0211506 0.31102 0.183982 0.89887 0.384841 -0.209596
0.147438 -0.194063 0.549858 0.363382 -0.0499766 0.930299
-0.00979542 0.00406762 0.0780863 0 0.0523349 0.99863
0.00599401 0.352998 0.322165 1 0 0
-0.015488 -0.191702 0.502936 -0.631595 -0.0746832 0.771693
0.00256591 0.200482 0.449752 0 -0.439447 -0.898268
-0.120135 -0.0119303 0.0976643 0 -0.0523329 -0.99863
-0.0433121 0.274775 0.185385 -0.999754 -0.00858049 -0.0204576
-0.013694 0.185588 0.0587234 -0.757101 -0.485495 -0.437142
-0.000828481 -0.257021 0.338435 0 0.309028 0.951053
-0.00647436 -0.25701 0.294306 -0.677751 -0.702345 0.217635
-0.00360949 -0.26771 0.0320993 0 -0.207888 0.978153
-0.0206394 0.10822 0.169614 0.00210229 -0.0720302 -0.9974
-0.0141284 0.331343 0.308329 -1 0 0
-0.0239602 -0.131079 0.394234 -1 0 0
-0.0125747 0.337939 0.240595 0.678569 -0.711237 0.183538
-0.0167437 -0.223779 0.0373357 -1 0 0
0.00258235 0.047019 0.127027 1 0 0
0.00578673 -0.118431 0.379815 1 0 0
-0.0112553 0.0913416 0.313469 0 0.921764 -0.387752
-0.0239602 -0.0517911 0.0753939 -1 0 0
-0.00715693 -0.203675 0.471002 0 -0.976239 0.216698
-0.0112368 0.197662 0.266038 1 0 0
-0.0118549 0.423815 0.263917 0.707118 0.567655 0.421606
-0.0201232 0.180205 0.349586 0.502775 -0.195803 -0.841949
0.00582934 0.158634 0.12796 0.748242 0.648929 0.137932
0.00545993 0.260841 0.0138579 0.83972 -0.167805 -0.516442
0.00416909 0.316575 0.325748 0.748222 0.02315 -0.663044
-0.0222493 0.230644 0.450546 0 0.186491 -0.982457
0.139109 -0.210368 0.548025 0.756656 -0.618679 0.211444
0.000647007 -0.255718 0.540272 0 -0.731173 0.682192
-0.00679188 -0.432891 0.128421 -0.990291 0.130518 0.0478345
-0.000884878 -0.418585 0.256271 0 0.736087 -0.676887
0.00379075 -0.222354 0.303746 0.74823 -0.408459 -0.522794
-0.00624705 -0.172434 0.404428 0 -0.612803 -0.790236
-0.0407784 0.084112 0.176314 1 0 0
-0.0247171 -0.305931 0.171163 -0.899245 0.364026 0.242575
-0.0193704 0.235778 0.466565 0.409951 0.910853 -0.0478136
0.0115075 -0.230046 0.361702 -0.289483 -0.900089 0.325638
-0.0892823 -0.247857 0.51687 0.207561 -0.385625 -0.899006
-0.128952 0.0042901 0.0982711 0 -0.897287 -0.441448
0.00672678 0.357719 0.168618 0.409969 0.0806178 -0.908529
-0.0204404 -0.128162 0.360752 0 -0.8057 -0.592324
-0.012083 0.246312 0.327594 -0.757076 -0.244756 0.605748
0.00599401 0.236513 0.0299254 1 0 0
-0.0141284 0.171164 0.167014 -1 0 0
-0.01517 0.157411 0.201924 -0.744092 0.661575 -0.092987
-0.00489745 -0.301224 0.0375387 0 0.052337 0.998629
-0.00174682 -0.16376 0.210711 0 -0.97815 -0.207898
-0.0187118 0.338359 0.162052 0.899084 -0.215709 -0.380943
-0.00674948 -0.43856 0.251978 0 0.882963 -0.469442
-0.0037677 -0.215221 0.416762 0.34204 -0.917355 0.203637
0.00599401 -0.382228 0.316071 1 0 0
0.000330054 0.267213 0.0293076 1 0 0
0.00913758 -0.291159 0.198336 0.410659 0.780678 -0.471063
-0.0115577 0.0901893 0.346613 0 -0.890616 0.454756
0.0206551 0.254687 0.302994 0.975206 0.0311713 0.219093
-0.0942116 -0.249415 0.533978 -0.67788 -0.719275 0.152058
-0.0072686 -0.45685 0.202054 0 0.990266 -0.139185
-0.0106169 -0.212469 0.0619667 -0.744081 -0.447026 0.4965
0.0941171 -0.236079 0.542895 -0.0501552 0.977199 -0.206318
0.00599401 0.375511 0.315111 1 0 0
-0.0143845 0.279309 0.0196594 -0.744102 0.0929954 0.661562
0.00599401 0.185371 0.274503 1 0 0
-0.0379648 -0.307355 0.187561 0.860589 -0.464364 0.209174
-0.0440549 -0.317108 0.161889 -1 0 0
0.0109028 0.10803 0.174583 0.964867 -0.188322 0.18321
0.0123705 0.326617 0.155317 0 0.974348 -0.225048
0.00568308 -0.287718 0.224121 0.410726 0.851056 -0.327121
-0.0572246 0.303051 0.164438 0.629439 0.181063 0.755661
0.00578673 -0.131861 0.377183 1 0 0
-0.0167437 -0.281436 0.0154774 -1 0 0
0.118352 -0.208277 0.553418 -0.571909 0.677044 0.463176
-0.0119117 0.34944 0.0411182 0.707399 -0.139734 0.692865
0.00359167 -0.164545 0.259995 0.839699 0.460532 0.287778
-0.0050192 -0.47779 0.148535 0 -0.978139 -0.207951
-0.00706441 -0.131032 0.399813 0 0.690397 0.72343
-0.0930994 0.0259501 0.0980771 0 0.998629 -0.0523402
-0.0533595 0.104799 0.217646 -0.999109 -0.0405076 0.011832
-0.0167437 0.40685 0.294549 -1 0 0
-0.0532135 0.0178692 0.177272 -0.739143 0.644033 -0.197202
0.00578673 -0.0627014 0.243505 1 0 0
-0.00937946 0.214089 0.286417 0 0.669165 -0.743114
-0.0194105 -0.299372 0.153581 0 0.601755 -0.798681
0.000330054 0.191777 0.247369 1 0 0
-0.0126897 0.439946 0.0925389 -0.744033 -0.589946 0.313652
0.0123668 0.293758 0.154996 0 -0.928663 -0.370924
-0.00801007 0.450919 0.0751451 0 0.78802 -0.615649
0.00833458 -0.281676 0.173359 -0.409107 -0.0343093 -0.911841
-0.0418718 0.103526 0.158752 0.947083 0.300835 -0.111945
0.00578673 -0.0446579 0.0720601 1 0 0
-0.0130411 0.203631 0.0857942 0 0.721768 0.692135
-0.0070919 0.146586 0.407908 0 0.802964 -0.596027
-0.0012666 0.1038 0.340677 0 0.890639 -0.454712
0.0519053 0.175042 0.230492 0 -0.601778 0.798664
0.00599401 0.147784 0.180191 1 0 0
0.0111086 0.157179 0.473046 0.973388 -0.228851 0.0120025
-0.0174604 -0.0545833 0.0613683 0 -0.219184 -0.975684
-0.0489211 0.0526229 0.118193 0.739077 -0.219874 -0.636727
-0.00950724 0.157782 0.481688 0 0.0412897 0.999147
0.134636 -0.188958 0.540533 -0.740614 0.641092 -0.201223
-0.0381921 -0.26707 0.238612 0.302793 0.805325 -0.509674
-0.0147179 -0.343895 0.117285 0.137104 0.863992 -0.484479
-0.0239602 -0.0761961 0.234923 -1 0 0
-0.0082891 0.217896 0.10816 0.410994 0.541607 -0.733311
-0.0196709 0.09131 0.0786447 0 0.992526 0.122037
-0.00869628 -0.0190776 0.0792992 0 0.0523349 0.99863
-0.0114527 0.414217 0.0369837 -0.757112 0.43713 -0.485489
0.0374063 -0.282012 0.246449 0.30278 -0.8865 0.349916
-0.0139249 0.3938 0.0269608 -0.757032 0.34624 -0.554094
0.00553838 0.462272 0.202238 0.748252 -0.648917 -0.137929
-0.00747738 0.194755 0.158334 0.678679 0.0213134 0.734126
0.00258235 0.155255 0.429424 1 0 0
-0.0257968 -0.294083 0.164225 -0.309545 0.926541 -0.213783
-0.0167437 0.222846 0.0356429 -1 0 0
-0.00843328 -0.289624 0.281825 0.4101 -0.90267 0.130406
-0.0047956 -0.08573 0.0924845 0 -0.534985 0.844861
0.00465285 -0.0493494 0.178045 0.707 0.700631 0.0962656
-0.0140012 -0.224819 0.366585 0 0.577133 0.81665
-0.00674531 -0.237808 0.307603 0 -0.469472 -0.882947
-0.00874023 0.03789 0.169115 0 -0.998262 0.0589402
-0.0216023 0.173782 0.455013 -1 0 0
0.000685331 -0.239768 0.5343 0 0.998627 -0.0523833
-0.0449637 0.27897 0.114342 -0.673427 -0.73886 0.0241278
-0.0409247 0.0713039 0.13912 0.947064 -0.000496498 -0.321046
0.00535934 -0.181726 0.0724102 0.83971 0.427919 -0.334323
-0.0532071 0.0678311 0.180541 0.707202 -0.549469 0.444913
-0.0210639 -0.249999 0.525445 0 -0.225328 -0.974283
-0.0217639 -0.21219 0.350208 -0.668715 0.743065 -0.0259658
0.0443528 0.310584 0.168399 -0.28741 0.910455 0.297436
-0.10899 0.0224198 0.095864 0 -0.0523307 -0.99863
-0.0172647 0.161331 0.459096 0 -0.0523328 -0.99863
-0.0160489 -0.256049 0.0297221 -0.744101 -0.250263 0.619421
-0.0188088 0.132794 0.46252 -0.707516 -0.143438 -0.691988
-0.0436866 0.10334 0.144972 0 -0.789883 0.613257
0.00529359 -0.160503 0.13031 0.748226 -0.630973 0.205013
0.0262688 -0.250819 0.291232 -0.998579 -0.0241899 -0.0474842
-0.0079778 0.0796315 0.284451 0 0.930546 -0.366175
-0.012241 -0.18944 0.23637 0 -0.925876 -0.377828
-0.0103749 -0.228734 0.0643906 0.707172 -0.456371 0.540031
-0.00200392 0.441111 0.279365 0 0.743132 0.669145
0.0118017 0.175411 0.480851 0.367619 -0.0481136 0.928731
-8.54713e-05 0.445865 0.114781 0.706605 0.660603 -0.253601
0.00578673 -0.145233 0.392231 1 0 0
0.00392425 -0.281822 0.239251 0.898907 -0.328711 0.289679
-0.00972956 -0.187962 0.528847 -0.34216 -0.0491785 -0.938354
0.00205947 -0.240334 0.175482 -0.899038 -0.136793 0.415954
0.00473636 -0.337086 0.328938 0.748195 0.137943 -0.64898
-0.00369912 0.479693 0.178744 0 0.999392 0.0348656
-0.0104199 -0.1635 0.141023 0 -0.951058 0.309011
0.00871086 -0.31825 0.160937 -1 0 0
-0.0239602 0.0431301 0.0591243 -1 0 0
-0.0180972 0.0879562 0.152506 0 0.601887 -0.798581
-0.0990172 -0.235831 0.559084 0.756048 -0.647636 0.0946577
-0.0329205 -0.244864 0.29389 0.982305 0.142697 -0.121303
-0.0532034 0.0192723 0.153835 -0.542293 -0.761127 -0.355815
-0.0407784 0.0246399 0.165597 1 0 0
0.00578673 0.0446762 0.070867 1 0 0
-0.0141284 -0.406044 0.073116 -1 0 0
-0.00263718 0.200098 0.273818 0 0.669165 -0.743114
-0.00549269 -0.18165 0.12617 0 -0.933576 0.358379
-0.0113939 -0.177881 0.107883 0.706903 0.660331 -0.253477
-0.0141284 0.432904 0.10426 -1 0 0
-0.0117028 0.371683 0.0508725 0.707227 -0.307722 0.636503
-0.00581693 -0.443663 0.109128 0 0.927202 0.374562
-0.026931 0.315311 0.147265 -1 0 0
-0.0167437 -0.153856 0.153089 -1 0 0
0.0119897 0.165126 0.460529 0.683708 -0.197921 -0.702404
-0.00608311 -0.1542 0.10496 0 0.882944 -0.469479
-0.0172328 0.108481 0.378551 0 -0.843188 0.537619
-0.0167437 0.470935 0.148046 -1 0 0
-0.00543796 0.242602 0.283729 0.133957 -0.874365 -0.466413
-0.00605442 0.368738 0.308792 0 -0.469487 -0.882939
0.000330054 0.347334 0.312003 1 0 0
-0.042842 0.327939 0.145546 -1 0 0
0.00201341 -0.0650964 0.277668 0 0.974232 0.225549
-0.0214872 0.142525 0.473017 -0.973387 -0.228853 0.0119887
-0.0141284 -0.430348 0.111361 -1 0 0
0.0175965 -0.315033 0.180134 1 0 0
0.031986 0.0807052 0.182526 0 -0.405146 0.914252
-0.00159466 0.354442 0.0282208 0 0.197663 -0.98027
-0.0427642 0.151423 0.11372 -0.983837 0.145446 -0.104452
0.00507966 0.214365 0.29463 0.74821 0.443952 -0.49304
-0.0271393 0.131043 0.177897 -0.33859 0.000479734 0.940934
-0.00775922 -0.449901 0.136444 0 -0.965929 -0.258806
-0.0878015 -0.246162 0.543435 -0.171315 -0.963431 0.206039
-0.0218515 -0.226761 0.333586 0.918901 -0.0194366 -0.39401
0.0161833 0.191898 0.454308 0.34646 -0.478823 -0.806656
-0.0521438 0.0925255 0.114129 0.573341 -0.0647344 0.816756
-0.00286766 -0.295712 0.325375 0 -0.139149 -0.990271
0.00258235 0.0447395 0.204945 1 0 0
-0.0407784 0.0350875 0.134232 1 0 0
0.0952884 -0.233712 0.561456 -0.681866 -0.727146 0.0794861
-0.0436405 0.0601726 0.158774 -1 0 0
0.00401131 -0.0742028 0.0897175 0.707125 0.154966 0.689898
-0.00906228 -0.381032 0.293545 0 0.544646 -0.838666
-0.0448992 0.0670652 0.206101 -0.947058 -0.0319375 0.31947
-0.0326132 0.046993 0.18196 -0.267771 -0.938767 0.216832
0.0100514 -0.28923 0.185609 0.408026 0.481574 -0.77563
-0.000462843 0.144452 0.214922 0 -0.951043 0.309058
-0.00371628 -0.142877 0.410773 0 0.651818 0.758375
0.0367909 -0.277047 0.25958 0.325467 -0.879497 0.347212
-0.0360083 0.307335 0.120825 1 0 0
0.00947305 0.283499 0.185782 0.898986 0.128493 0.418705
-0.00991642 0.177305 0.0999197 0 0.848027 0.529952
0.00576275 -0.437138 0.0731692 0.83972 -0.403552 -0.363341
-0.0407784 0.0365767 0.199483 1 0 0
-0.0141284 -0.428802 0.0895818 -1 0 0
-0.00223943 -0.331473 0.00716027 0 -0.139161 -0.99027
-0.0324194 -0.236698 0.307312 0.98389 0.133738 -0.118635
-0.00833117 0.242004 0.0500131 0 0.526942 0.849901
-0.0791441 0.00679583 0.105222 -0.998581 0.0377012 0.0376198
0.00835914 0.336568 0.183855 0.134365 0.485385 -0.863914
-0.00309313 0.31414 0.000478486 0 0.0348922 -0.999391
0.000330054 0.186599 0.1024 1 0 0
-0.00169956 0.327218 0.068662 -0.135841 0.970106 0.2011
0.000330054 -0.350558 0.0440684 1 0 0
-0.00133419 -0.216685 0.40448 0.642522 -0.748058 0.166056
0.00865936 0.174529 0.356128 0.965731 0.0040738 0.259514
0.00121648 0.321636 0.0955123 -0.899546 0.387785 0.201098
-0.00238203 -0.361279 0.316614 0 0.374595 -0.927188
0.0293933 0.060594 0.186789 1 0 0
-0.00820901 0.414824 0.144145 0.41051 -0.257279 -0.874808
-0.0133255 0.477203 0.161524 -0.757093 0.646951 -0.0909162
-0.00957059 -0.204162 0.263951 0 -0.802818 -0.596225
0.000330054 0.16303 0.168854 1 0 0
-0.0165065 0.317021 0.215837 0.898884 -0.436587 -0.0374001
-0.00113923 0.416738 0.0673083 0 0.64547 -0.763786
-0.0139978 -0.161613 0.254297 -0.757073 0.55406 0.346205
-0.0152612 -0.0671323 0.138353 0 -0.990693 -0.136112
0.00599401 0.294341 0.33266 1 0 0
-0.00256171 0.177519 0.205735 -1 0 0
0.000330054 -0.21762 0.28276 1 0 0
-0.0168497 -0.257197 0.163162 -0.136188 0.237498 0.961794
-0.0126267 -0.350908 0.0298868 -0.744107 0.206445 0.635363
-0.0268443 0.324986 0.167908 -0.884658 0.415424 0.211667
-0.0042681 -0.181867 0.246548 0 0.925867 0.37785
0.0145969 -0.253517 0.539844 1 0 0
-0.0244903 0.214225 0.447429 0 0.186491 -0.982457
-0.0780582 0.035411 0.134668 -0.999771 -0.0151475 -0.0151242
0.00592767 -0.275637 0.336694 0.839709 0.075574 0.537752
-0.0400474 0.226226 0.16511 0.966448 0.180445 -0.182806
-0.013826 -0.338558 0.32175 -0.710112 -0.139167 0.690198
-0.0214487 -0.283901 0.168161 -0.89897 0.030395 -0.436954
-0.0239602 -0.0635472 0.216194 -1 0 0
-0.0089951 0.218256 0.066148 0 0.721767 0.692137
-0.102171 -0.242788 0.548775 -0.258191 -0.960076 -0.107665
0.0206417 0.158677 0.215475 -0.99893 -0.0411519 -0.0210969
-0.0123093 -0.0886626 0.274987 0 -0.974237 -0.225527
-0.010435 0.168831 0.074136 0 -0.848076 -0.529875
-0.00733646 -0.28691 0.345193 0 0.139163 0.990269
0.00211132 0.0340446 0.0813825 0.707128 -0.705715 0.0440159
-0.00256171 0.385053 0.296423 -1 0 0
-0.0268769 0.23025 0.335218 -0.0376454 -0.27276 -0.961345
-0.00207628 -0.0420622 0.0585555 0 -0.219184 -0.975684
-0.00487497 -0.039007 0.0809758 0 0.999999 -0.00143533
-0.0214262 0.29538 0.1728 0.678974 -0.171827 -0.713772
-0.0129965 -0.452644 0.216865 0 -0.971142 0.238502
-0.00221936 0.439443 0.0990625 -0.706968 0.576501 -0.409685
-0.043125 0.127473 0.187575 0 -0.0399427 0.999202
0.0240029 0.219218 0.166613 -0.963159 0.214791 0.16183
-0.129876 -0.221087 0.549164 -0.540703 -0.332726 0.772614
0.00578673 -0.111995 0.34363 1 0 0
0.0225999 -0.223858 0.345491 0.92924 0.167716 0.329217
0.0512142 -0.251241 0.540302 -0.231143 -0.484267 0.843836
-0.000596046 0.174369 0.165352 0.707064 0.707111 0.00742552
-0.00428279 -0.062649 0.0867717 0 -0.999658 -0.0261537
-0.00866817 -0.387332 0.0526766 0 -0.526942 -0.849901
-0.0183975 0.0424685 0.213339 0 -0.985285 0.17092
0.00371917 0.224859 0.449543 -0.116054 0.207977 -0.971224
0.0147036 -0.229168 0.335558 -0.929196 -0.170046 -0.328146
0.00599401 0.437265 0.0742414 1 0 0
-0.00898833 -0.201166 0.0778749 0 0.815125 -0.579286
0.00340653 0.19149 0.0514702 0.83972 -0.40354 -0.363352
0.0161419 0.0600645 0.151087 0 -0.390646 -0.920541
-0.00154173 0.388775 0.0194783 0 0.529875 -0.848076
-0.0098266 0.306761 0.341373 0 -0.0348996 0.999391
-0.00444443 0.187594 0.123235 0.677532 0.160187 -0.717837
-0.0137136 -0.164352 0.126829 -0.744085 -0.635388 0.206446
-0.0372877 0.274296 0.128368 0.758654 0.0341013 0.6506
-0.0384684 0.255759 0.296436 -0.957187 -0.281629 0.066919
0.0351633 -0.278253 0.221118 -0.722906 0.608952 -0.326474
-0.0412414 -0.295651 0.187058 -0.274352 0.854651 -0.440797
-0.0131855 0.0655255 0.0580515 0 0.12201 -0.992529
-0.0141284 -0.428518 0.262094 -1 0 0
0.000330054 0.398134 0.0567827 1 0 0
-0.0441394 -0.2401 0.3039 -0.983037 0.181824 -0.0240565
-0.00846257 -0.32126 0.346367 0 -0.0348986 0.999391
-0.0072107 -0.153372 0.388562 0 -0.69039 -0.723437
-0.0132437 -0.157023 0.187671 -0.744105 -0.667656 -0.0233119
-0.0167437 -0.159328 0.223923 -1 0 0
0.00258235 0.0671008 0.267058 1 0 0
-0.0420389 0.0352018 0.149146 0 0.849657 0.527336
0.0300682 0.241363 0.167749 -0.627261 0.190404 0.755175
0.0238739 0.213442 0.454578 0.998757 -0.049784 0.0026123
-0.0185364 0.0506648 0.129171 0 0.998076 -0.0620063
-0.0108851 0.286203 0.00216238 -0.757087 -0.0909167 -0.646957
0.00468344 -0.339666 0.0132838 0.839727 -0.0755659 -0.537726
0.00139299 0.0496986 0.241933 0.707112 -0.680177 0.193267
-0.0328321 -0.247639 0.316561 0.8698 -0.470944 -0.14717
-0.0409581 0.0804973 0.156154 -0.870545 0.143832 -0.470599
0.024364 0.223613 0.461024 0.998757 -0.049784 0.0026123
-0.0203165 -0.284887 0.198099 -0.899425 -0.179583 0.398479
-0.0125784 0.43023 0.0787762 -0.744026 -0.526514 0.41135
0.000330054 -0.243288 0.056519 1 0 0
-0.0177066 -0.317818 0.173348 1 0 0
-0.0178419 -0.293793 0.214258 0.135005 -0.926116 0.352254
0.00258235 0.0494062 0.14944 1 0 0
-0.0479585 0.0436868 0.139379 0 0.652741 0.757581
0.157973 -0.188338 0.543441 0.702256 -0.477575 0.527976
-0.00618722 0.13563 0.418014 0 -0.803066 0.59589
-0.00857383 0.305682 0.0328455 0 0.052337 0.998629
-0.0239602 -0.157474 0.413234 -1 0 0
-0.000944136 0.0749619 0.0829528 0 -0.122007 0.992529
0.0507047 0.198417 0.231015 0 0.998629 -0.0523375
-0.0163458 0.101672 0.178639 0.6296 0.181083 0.755521
0.00833582 0.0964849 0.176235 0.964867 -0.188322 0.18321
-0.0141565 -0.30145 0.330267 -0.744082 0.0232988 -0.667682
-0.0167437 0.456107 0.115702 -1 0 0
-0.0117375 0.0588901 0.220223 1.10132e-05 0.973242 -0.229784
-0.0112206 0.120036 0.369106 0 0.849554 -0.527502
-0.0122571 -0.182194 0.510418 -0.765981 0.630693 -0.124498
-0.0041977 -0.160205 0.424714 0 0.593585 0.804771
-0.0181661 -0.312145 0.122016 -0.898958 0.411337 -0.15059
-0.00084104 0.0709363 0.302714 0 -0.927487 0.373856
0.142965 -0.20335 0.537534 0.395417 -0.556922 -0.7304
-9.23807e-05 -0.0407249 0.113867 0 0.996166 0.0874813
0.00203833 -0.203241 0.417622 0.939683 0.33392 -0.0741237
-0.0167437 0.188721 0.275605 -1 0 0
-0.0458037 -0.251049 0.52906 0 -0.225432 -0.974259
0.0203567 0.154144 0.169478 0.963133 -0.214796 -0.16198
-0.00256171 0.230671 0.046203 -1 0 0
0.03726 0.299556 0.187481 -0.952027 0.293581 -0.0863419
0.00605907 0.269351 0.129187 0.898643 -0.392608 0.195703
0.0055336 0.33009 0.220305 0.409226 -0.803678 0.432013
0.00599401 0.450544 0.0976019 1 0 0
-0.0239602 -0.0626613 0.0680943 -1 0 0
-0.0239602 0.0165649 0.0610796 -1 0 0
-0.0492917 0.0581582 0.216417 -1 0 0
0.0336664 -0.231553 0.315139 0.861792 0.478267 0.169044
0.0740364 0.19835 0.229741 0 0.998629 -0.0523375
-0.0239602 -0.121781 0.375436 -1 0 0
-0.0109987 0.231318 0.322776 -0.757074 -0.346204 0.554059
-0.00188969 -0.22717 0.537169 0.984802 0.00908996 0.173445
-0.00908272 -0.213103 0.427247 -0.342021 -0.917362 0.203639
-0.0525986 0.0895269 0.166966 0.976317 -0.216047 0.011322
-0.00692441 0.433958 0.28731 0 0.743132 0.669145
-0.0180891 0.115695 0.465754 -0.919745 -0.114438 -0.375463
-0.00972357 -0.325694 0.320302 0 -0.0732542 0.997313
-0.120152 -0.209657 0.535966 0.652873 0.547621 -0.523325
-0.0167437 0.44118 0.0786059 -1 0 0
0.0385083 0.182932 0.224573 -0.95267 0.303589 -0.0159109
-1.26064e-05 -0.410453 0.266002 0.707228 0.520401 -0.478551
-0.00697926 -0.22733 0.292997 0.412218 -0.714275 0.565587
-0.0103432 -0.373094 0.0531046 0.706854 0.37274 0.601184
-0.0239602 -0.180767 0.422744 -1 0 0
0.00261502 -0.313229 0.250889 0.410307 -0.911733 0.0197652
-0.0128809 0.294011 0.0225833 0 -0.052337 -0.99863
-0.0136119 0.269282 0.313211 -0.706975 -0.225574 0.6703
-0.0237155 0.0318415 0.0556583 -0.707185 0.0862594 -0.701747
0.00228227 -0.21572 0.382335 0.984787 -0.169637 0.0376559
-0.0140591 -0.366102 0.033146 -0.74407 0.206439 0.635407
-0.0130818 -0.341315 0.0112764 -0.757109 -0.0909228 -0.64693
0.000330054 0.256499 0.306285 1 0 0
-0.00960352 -0.315854 0.313188 0 0.0732446 -0.997314
-5.0699e-05 -0.456201 0.150376 0.707125 -0.682993 -0.183015
-0.00900492 -0.0829547 0.246281 0 -0.984752 -0.173965
-0.0122625 -0.220016 0.35656 0.92638 -0.217327 -0.307554
-0.000486119 0.0599593 0.224752 1.10132e-05 0.973242 -0.229784
-0.0173857 0.169414 0.421009 -0.271449 0.92043 0.281289
0.0101546 0.29623 0.190755 0.677607 0.590443 0.438434
-0.00802704 0.0366042 0.142913 0 -0.998907 0.0467432
-0.0126585 0.441013 0.14268 0 -0.993368 0.114976
0.0473661 0.28311 0.162516 0.964861 -0.188317 0.183248
-0.0149715 -0.0716361 0.171134 0 -0.990693 -0.136112
-0.0414486 0.10376 0.179247 0.947062 0.31094 0.0799415
-0.0141284 0.366197 0.296004 -1 0 0
-0.0212134 0.132306 0.390112 -0.707135 0.583644 -0.399149
-0.0855985 -0.00751768 0.102693 0.936348 -0.350593 0.0183735
-0.0188726 -0.0633128 0.100381 0 -0.997814 -0.0660869
-0.0141284 0.435593 0.116566 -1 0 0
0.000330054 -0.249549 0.299285 1 0 0
0.00599401 0.299853 0.00847217 1 0 0
-0.0149057 -0.0361674 0.0813826 0 0.21916 0.975689
0.000330054 0.386019 0.0559304 1 0 0
-0.0114593 -0.184419 0.225976 0.707218 -0.654586 -0.267133
-0.00318889 -0.172205 0.181233 -0.707152 -0.700521 -0.0959486
0.00599401 -0.354355 0.326789 1 0 0
-0.0200956 -0.333015 0.18332 0.410848 0.379837 0.828811
0.00599401 0.456721 0.110561 1 0 0
-0.0135031 -0.175216 0.435043 0 0.535178 0.844739
-0.0197753 0.0366898 0.144743 0 -0.998907 0.0467432
-0.0127776 -0.199766 0.281848 -0.744104 -0.496471 -0.447019
-0.000885898 0.0894069 0.308791 0 0.924631 -0.380863
-0.0548327 0.0536081 0.15578 -0.987521 -0.132079 -0.0857742
-0.0141284 -0.238148 0.047766 -1 0 0
-0.00101381 0.236262 0.0944355 0.408603 -0.703226 0.581822
-0.0144434 -0.0792193 0.321683 0 0.924952 0.380083
0.00534667 -0.0880219 0.277705 0.707125 -0.688872 -0.159468
-0.00172544 -0.438767 0.215539 -0.707198 0.686615 -0.168614
0.0303426 0.131034 0.2061 0 -0.456163 0.889896
0.0317735 -0.237053 0.326159 0.918954 0.0193092 0.393893
-0.11694 0.0193116 0.109956 0 -0.846246 0.532792
-0.0112367 0.175195 0.14441 1 0 0
-0.0214802 0.0751581 0.0829769 0 -0.122007 0.992529
0.0175965 0.304419 0.164841 1 0 0
0.00249475 -0.376892 0.218849 0.990291 -0.115595 0.0772096
-0.00259752 -0.221729 0.222589 -0.990291 -0.122305 -0.0660641
-0.0438449 0.0169945 0.183084 0 -0.44999 -0.893034
0.00578673 -0.0651676 0.259727 1 0 0
0.0696253 0.189888 0.223338 0 -0.998629 0.052344
0.00599401 -0.183368 0.270918 1 0 0
-0.00430493 0.22365 0.476925 -0.0120002 0.104016 0.994503
0.00282219 0.160014 0.248712 0.839682 -0.479507 0.254965
0.011239 -0.32818 0.162108 0 -0.992551 -0.121832
-0.0442866 0.0614263 0.194864 0 0.392803 -0.919623
0.00157189 -0.373503 0.0179093 0.839702 -0.167831 -0.516462
-0.0129772 0.220239 0.272751 0 0.736072 -0.676903
-0.017927 0.152827 0.426117 -0.268169 -0.580075 0.769155
-0.00217393 0.141482 0.201061 0 -0.99027 0.139159
0.0489904 0.154673 0.231956 0 -0.998629 0.0523375
-0.0172164 0.305489 0.161131 0.58499 -0.803821 0.107973
-0.013353 0.14158 0.178235 -0.757086 -0.652917 -0.0228105
-0.0407784 0.092051 0.194333 1 0 0
-0.0406591 -0.252211 0.262328 -0.325844 0.804052 -0.497319
0.00599401 0.468906 0.161129 1 0 0
0.0791129 -0.238161 0.546126 -0.0833463 0.980391 -0.178568
-0.0141284 0.336955 0.0276795 -1 0 0
0.10852 -0.21648 0.552227 -0.699487 0.701121 0.138376
-0.0785369 0.0135894 0.11453 -0.998581 0.0377012 0.0376198
0.00327439 -0.224152 0.0316865 0.839673 0.287773 -0.460583
-0.000742708 0.187169 0.0840379 0 -0.871211 -0.490909
-0.00862523 -0.267522 0.0755346 0.410664 0.812086 0.414574
-0.0120411 0.0590542 0.151679 0 -0.544785 -0.838576
0.00893248 -0.290155 0.1474 0.411014 -0.685223 -0.60128
-0.0138835 -0.0569172 0.233801 0 0.98559 0.169154
-0.106158 -0.219765 0.548693 0.636057 0.760667 0.129684
-0.0101093 0.402293 0.069317 0 -0.64546 0.763794
-0.0191127 0.0522195 0.159543 4.82178e-06 0.998905 -0.0467748
-0.0448205 0.118957 0.139321 0 -0.340306 -0.940315
-0.000205256 0.24179 0.0378501 0.707059 -0.372645 -0.601002
0.00222146 -0.42165 0.0732469 0.748239 0.493016 0.44393
-0.0239602 -0.0612544 0.194738 -1 0 0
-0.0116299 0.382065 0.109189 -0.410776 0.623849 0.664888
0.00199895 -0.293385 0.00695982 0.839711 0.0189461 -0.542703
0.000330054 0.323393 0.317374 1 0 0
-0.121998 0.00233071 0.105439 0 -0.838995 0.54414
1.78262e-05 0.440698 0.203395 0.707321 -0.700351 -0.0959439
-0.0134611 0.180038 0.211029 -0.706996 0.68681 -0.168667
-0.0167437 0.393152 0.0378913 -1 0 0
-0.0239602 -0.0505151 0.150044 -1 0 0
-0.04142 0.0468625 0.121748 0.947053 -0.127091 -0.294855
-0.0136354 0.201989 0.0427157 -0.757103 -0.402203 -0.514809
-0.0485412 0.28116 0.124829 -1 0 0
-0.00297825 -0.103142 0.366253 0 0.838647 0.544676
-0.0150118 0.102447 0.337975 0 0.897497 -0.44102
0.0164183 0.228586 0.450155 0 0.186491 -0.982457
-0.0403201 0.208131 0.172369 0.334346 0.134776 0.932764
0.00559135 -0.301468 0.340727 0.83971 -0.0189512 0.542705
-0.0141284 -0.218003 0.290266 -1 0 0
-0.0137497 -0.399474 0.0521251 -0.744116 0.411292 0.526432
0.0296966 0.199317 0.1655 0.846099 -0.215535 -0.487506
-0.0621995 0.0655828 0.157552 0.926826 0.146085 -0.345908
-0.0316931 0.146687 0.176225 -0.634065 -0.071164 0.769998
0.102396 -0.245939 0.547631 0.711889 -0.699792 -0.0592069
-0.0131724 0.0923835 0.176625 0.96512 0.205263 0.162514
0.00599401 -0.152574 0.189119 1 0 0
