-0.00759759 -0.217792 0.259883 -0.707214 -0.517065 -0.482174
-0.00130076 0.188355 0.154003 0.748199 0.659838 -0.0693647
-0.00054765 -0.108264 0.505092 0.98438 -0.0954367 -0.147948
-0.0534747 0.20641 0.253618 0.623755 0.505524 0.596134
-0.000477598 0.128589 0.345043 0.866036 0.095978 -0.490684
-0.0460799 0.137269 0.126625 0 -0.340389 -0.940285
-0.00796733 -0.191914 0.228056 -0.707105 -0.620832 -0.338481
-0.0129132 0.0877912 0.348881 -0.642816 -0.147056 0.751772
-0.00548689 -0.135018 0.516849 0.341613 -0.868946 0.358097
0.0279125 0.279097 0.146122 -0.633117 0.0751905 -0.770395
-0.0201499 -0.224166 0.300904 -0.75709 0.286393 0.587191
-0.0262463 0.319457 0.154462 -1 0 0
-0.0370372 -0.290404 0.161383 0.00645884 0.945482 0.32561
-0.00657506 -0.282934 0.324826 0 0.104541 0.994521
-0.0219866 -0.291354 0.112754 -0.411022 -0.862443 -0.295386
-0.0522676 0.0590708 0.200955 0 -0.534364 0.845254
0.000331415 -0.318237 0.196624 -0.67696 -0.646324 -0.352123
-0.000222515 0.37824 0.0161061 0.839718 0.220878 -0.496071
-0.0671761 0.087942 0.146457 0 0.665242 -0.746627
-0.000999513 -0.241475 0.0193587 0.839742 0.220863 -0.496036
-0.0193492 -0.172993 0.121905 -1 0 0
-0.0055969 -0.331499 0.029065 1 0 0
0.01792 -0.252786 0.271286 -0.966238 -0.256194 -0.0273545
0.0183613 -0.179651 0.366905 0.268998 0.853613 -0.446077
-0.00680377 0.214714 0.0882413 0 0.811066 0.584954
-0.0193492 -0.179169 0.218928 -1 0 0
0.00188665 -0.0671155 0.328458 0.929945 -0.252942 -0.266877
0.0196697 0.162797 0.191159 0 0.464131 -0.885767
-0.0239793 0.183337 0.470705 0 0.17993 0.983679
-0.0174668 -0.207841 0.268338 0.707316 0.516987 0.482108
-0.0506383 0.120343 0.160605 0 0.0523349 0.99863
-0.0175254 0.32644 0.0125421 -1 0 0
-0.00180693 -0.140429 0.467974 0.765656 0.592299 -0.250904
-0.0918958 -0.173577 0.582122 0.0351276 -0.731679 -0.680744
-0.0108738 -0.324031 0.00306665 0 -0.104576 -0.994517
-0.0170533 0.179038 0.162443 -0.757062 -0.649767 0.0682577
0.0258076 -0.212093 0.343031 -0.20732 0.587864 0.781943
0.0127941 0.181301 0.150905 -0.000734733 -0.0586628 -0.998278
0.00703197 -0.209299 0.361394 0.743383 0.359108 -0.56429
-0.00587623 -0.339124 0.287454 0.706979 0.13009 -0.695168
-0.00933565 0.42536 0.0754181 0 -0.808987 0.587827
-0.0177551 0.0818233 0.157893 0 -0.956303 -0.292376
-0.0220399 -0.216468 0.334039 0.240127 0.69234 0.680445
-3.30512e-05 -0.190627 0.378674 -0.971998 -0.141927 -0.18729
-0.0155674 -0.256421 0.240164 0.409715 0.760374 -0.503949
-0.0191385 -0.200744 0.0414214 -0.757088 0.453816 -0.469967
-0.0139207 -0.354726 0.0101581 0 -0.275606 -0.961271
-0.0323251 0.148525 0.269253 0.222688 0.0268604 -0.97452
0.00120989 0.444885 0.336001 0 0.613432 -0.789747
-0.087446 0.0344869 0.100264 0 0.0522688 0.998633
0.00361672 -0.282816 0.159747 0.137672 0.132103 0.981629
-0.0414471 0.0853441 0.182094 1 0 0
-0.0128519 -0.111373 0.567071 -0.765935 -0.602917 0.223238
-0.00148522 0.339981 0.275114 0.748188 -0.0693653 -0.659851
-0.0216877 -0.399396 0.0504362 -0.744107 0.392645 0.540495
-0.0487798 0.09717 0.197082 0 -0.202975 -0.979184
-0.00306584 0.257771 0.103483 -0.402455 -0.581042 0.707404
-0.0276633 0.269452 0.346254 0.975776 0.217957 -0.0188453
-0.0229906 -0.308041 0.138965 0.617373 -0.150255 -0.772188
0.000393877 0.151669 0.15823 -0.967742 0.173536 -0.182649
0.00235977 0.288812 0.130427 -0.417319 0.657491 -0.627336
-0.0175254 0.391708 0.0276588 -1 0 0
-0.0218367 -0.14803 0.180332 -1 0 0
-0.0228335 0.384749 0.349327 0 -0.292534 -0.956255
-0.0175548 -0.0913458 0.34327 -0.780429 -0.429982 -0.453922
-0.0441424 0.0550836 0.167256 0 0.0431622 0.999068
-0.00408985 0.210323 0.438467 0 -0.560205 -0.828354
0.0169781 0.229536 0.460467 0.323431 0.199559 0.92497
-0.0452163 -0.305813 0.150398 -0.0271907 -0.347487 -0.93729
-0.00290971 0.382601 0.0411813 1 0 0
-0.0102342 0.138528 0.276866 -0.342115 0.844783 -0.411459
-0.0174958 0.039152 0.288796 -0.984806 -0.172547 0.0196071
-0.0420162 0.0610314 0.114016 0.94705 -0.183849 -0.263242
-0.0320663 0.402846 0.334469 0 -0.0926819 -0.995696
-0.0213916 0.0993534 0.168378 0.108162 -0.992756 0.052312
-0.0186217 -0.361839 0.193464 0.678513 -0.26976 -0.683264
0.002349 -0.0437942 0.311263 0.992789 -0.0824898 -0.0869789
-0.0144783 0.111885 0.265173 0.417903 0.873216 0.250703
-0.00982295 0.197209 0.0655604 0 -0.829037 -0.559194
-0.0441032 0.224757 0.104128 -0.0730161 0.0205097 0.99712
-0.0130815 0.240774 0.232267 0.707126 0.448802 -0.546397
-0.00124073 0.22187 0.0589128 0.748195 0.477289 0.460869
-0.0162377 -0.359155 0.243707 -0.990591 -0.0764482 0.113516
-0.000528025 0.069286 0.333354 0.865984 0.0960011 -0.49077
-0.0108484 0.267215 0.222085 0.665276 0.657721 0.353287
-0.0139641 -0.142894 0.194378 0 0.970294 0.24193
-0.00538522 0.437667 0.105268 -1 0 0
-0.0245643 -0.191577 0.357258 0.525498 0.844538 0.102991
-0.0130914 0.27537 0.253796 0.707428 0.298706 -0.640562
-0.0122269 0.13836 0.458844 0 -0.270544 -0.962708
-0.0165436 0.414917 0.0546135 -0.74416 -0.464021 0.480532
-0.0175966 0.246883 0.353225 0 -0.00920956 -0.999958
-0.00738622 -0.427985 0.194166 0 0.991674 -0.128775
-0.0105782 -0.148105 0.485995 -0.341683 -0.867272 0.362067
0.0208091 -0.196967 0.384374 0.00233997 0.692892 0.721038
-0.0140722 0.373207 0.280059 -0.757102 0.286398 0.587174
-0.000209599 -0.175863 0.244441 1 0 0
-0.0156786 -0.172348 0.261004 0 0.82904 0.55919
-0.0055969 -0.429292 0.112877 1 0 0
-0.00339234 0.287151 0.0814144 -0.68149 -0.641967 0.351354
-0.0167119 -0.183279 0.113909 0.706944 -0.618595 0.342887
-0.00600604 -0.149795 0.438307 0.476078 0.605657 0.637596
0.0252792 0.214469 0.152032 0.850735 -0.190859 -0.489717
0.00159582 0.176783 0.406261 0.521993 0.837342 -0.162423
-0.0102104 -0.395697 0.0704273 0 0.640085 0.768304
-0.00334577 0.190166 0.447636 0 -0.190794 -0.98163
-0.00600044 0.432757 0.17228 -0.707535 -0.685092 -0.173332
-0.000857833 0.0517969 0.207521 0.774849 -0.434729 -0.458933
-0.0233987 -0.295787 0.131416 0.990291 -0.0366984 0.134077
-0.0402281 0.311955 0.135583 -0.0270624 0.551066 0.834023
-0.0055969 -0.434635 0.16836 1 0 0
-0.0202786 -0.0716266 0.333234 -0.992791 -0.0824523 -0.0869946
-0.0055969 -0.196208 0.0893011 1 0 0
0.0288425 -0.279134 0.216526 -0.294793 -0.896316 0.331232
-0.0150943 -0.399898 0.165463 0.409048 0.0222643 -0.912241
-0.0218367 -0.455675 0.181511 -1 0 0
-0.00538522 0.231321 0.0679782 -1 0 0
-0.040738 0.196881 0.184121 0.0179223 -0.156939 -0.987446
0.12405 -0.173531 0.596346 0.0203625 -0.541163 0.840671
-0.0110984 -0.359903 0.281241 0 0.422618 -0.906308
-0.0294729 0.437926 0.341134 0 -0.0127439 0.999919
-0.00597045 -0.168288 0.597536 0 -0.545283 0.838252
-0.00489602 -0.15862 0.167026 0.748218 -0.661837 -0.0462787
-0.0055969 -0.167629 0.157728 1 0 0
-0.0336532 -0.210912 0.366978 0.0189725 0.992827 0.118046
-0.0553806 -0.166734 0.595373 0.0998231 -0.543697 0.833324
-0.0422966 0.235203 0.161663 -0.635821 -0.0549353 0.769879
-0.0152868 0.384158 0.245658 -1 0 0
-0.0110637 -0.0303499 0.278411 0 -0.687477 -0.726207
-0.0023848 0.388075 0.353277 0 0.311557 0.950228
-0.0108682 0.274701 0.369671 0 -0.40426 0.914644
-0.0193492 -0.216251 0.0639728 -1 0 0
-0.00852175 -0.0916503 0.482663 0 -0.667637 -0.744487
-0.0530537 0.29491 0.156812 -0.85664 -0.10187 0.505758
-0.00866707 -0.43104 0.217093 -0.706967 -0.656663 0.262661
-0.0235026 0.193827 0.348822 -1 0 0
0.0366171 0.301353 0.166724 -0.989263 -0.0917751 -0.11374
-0.00962782 0.355218 0.358152 0 -0.146806 -0.989165
-0.015287 -0.222159 0.0223613 0 0.559238 -0.829007
0.00219209 0.00832932 0.260039 0.992789 -0.0824898 -0.0869789
-0.0194107 -0.137867 0.392726 -0.932242 -0.248909 -0.262621
-0.0474351 -0.192133 0.388743 -0.883457 -0.395725 0.25081
-0.00946763 0.0939707 0.223219 0 -0.899391 0.437145
0.000724932 -0.137481 0.416202 0.932251 0.249057 0.262447
-0.0204239 0.0776652 0.193396 -0.992791 -0.0824523 -0.0869946
0.0654284 -0.158324 0.590949 0.0372291 0.99777 0.0554056
0.0682378 -0.173137 0.597944 0.020112 -0.544082 0.838791
-0.0894284 -0.19011 0.589142 -0.0724423 0.948779 0.307522
-0.00671753 -0.288524 0.303941 0 0.066261 0.997802
-0.0384624 -0.301123 0.164881 -0.0208183 -0.945215 0.325784
-0.00559687 0.296735 0.0199829 0 0.104486 0.994526
0.0294766 -0.286792 0.18376 -0.991478 -0.0747022 -0.106726
-0.00161583 0.402139 0.0463275 0.748264 -0.460824 0.477222
0.00188818 0.113974 0.274914 0.801678 0.375128 -0.465393
0.00166453 0.358226 0.274233 0.7482 -0.182868 -0.637774
-0.0186787 -0.162006 0.178767 -0.707219 0.70699 -0.00248427
-0.00883461 0.231816 0.340338 0 0.0625434 -0.998042
-0.00898382 0.395831 0.235427 0 -0.731363 -0.681988
-0.0967387 -0.157788 0.587065 0.0198263 0.95562 -0.293934
0.0160815 -0.172281 0.384712 -0.145147 -0.041635 0.988534
-0.00071062 -0.0633313 0.467988 0.982261 -0.143009 -0.121288
-0.0148801 -0.15329 0.0996442 0 0.898806 -0.438347
-0.0480784 -0.232102 0.321649 -0.283313 -0.510076 -0.812131
-0.0227526 -0.298608 0.160452 1 0 0
0.00193891 0.316715 0.286307 1 0 0
-0.0168352 0.391418 0.258329 -0.744093 -0.392683 -0.540486
-0.019389 -0.314615 0.321735 -0.757095 -0.0455615 0.651714
-0.0152868 0.208762 0.206493 -1 0 0
-0.0314036 0.200958 0.464949 -0.913357 -0.0665359 0.401686
-0.00358936 0.15527 0.39447 0.865804 -0.440991 0.236454
0.00193891 0.230631 0.0439536 1 0 0
-0.0055969 -0.310534 0.0228927 1 0 0
0.0530593 0.207409 0.218133 0 0.0523752 0.998627
0.0137351 -0.229013 0.323523 3.765e-05 0.573641 0.819107
-0.00141044 0.0934495 0.196762 0.864613 0.451772 -0.219878
-0.0115294 -0.27286 0.0452548 0.41068 -0.892529 -0.186372
-0.0519881 0.260832 0.205912 0.623755 0.505524 0.596134
0.0199032 0.15459 0.275577 0.3973 -0.218516 0.891293
-0.0066609 -0.176114 0.183568 0 -0.969439 -0.245332
-0.0844976 0.0283332 0.0867517 0 -0.0523238 -0.99863
-0.0149012 -0.133489 0.378797 -0.476117 -0.604626 -0.638545
-0.0218367 -0.439928 0.103347 -1 0 0
-0.00899259 0.0456791 0.253403 0 0.688796 0.724956
-0.00307635 0.0793913 0.177636 0.774849 -0.434729 -0.458933
-0.00455893 0.180069 0.420028 0.642269 0.675501 -0.362199
-0.0418549 0.0718443 0.162007 0.947048 -0.310669 0.081148
-0.00792725 0.0909702 0.15117 0 -0.0524637 -0.998623
-0.00190309 -0.0181297 0.407653 0.617973 -0.640638 -0.455733
-0.00613171 0.383336 0.252186 -0.707535 0.380768 0.595324
-0.0450131 -0.262849 0.228816 0.680145 0.63475 -0.366736
-0.0183763 -0.454719 0.211411 -0.757093 -0.628007 0.180048
-0.00437072 -0.220896 0.0448227 0.748233 -0.37101 0.55
-0.0227201 0.172383 0.40121 -0.870381 0.239052 -0.430454
-0.000636972 -0.0433052 0.445336 0.983755 -0.127777 -0.126095
-0.0152868 0.441258 0.157761 -1 0 0
-0.00290971 0.259479 0.0406925 1 0 0
0.138636 -0.171305 0.580338 -0.0144055 -0.11686 -0.993044
-0.0116922 -0.114215 0.35816 -0.46916 -0.607119 -0.641323
-0.00484033 0.043575 0.272509 0.342023 0.907544 -0.24369
-0.0193492 -0.430642 0.145939 -1 0 0
-0.0152868 0.273748 0.028173 -1 0 0
-0.104213 0.0465059 0.087101 0 0.846043 -0.533114
0.0770056 -0.172944 0.582316 -0.0197089 -0.452318 -0.891639
-0.00893399 -0.428275 0.230365 0 0.898816 -0.438325
-0.000748998 0.20555 0.0798935 0.748147 0.55009 0.371049
-0.0433541 0.164944 0.103726 0.0727575 -0.0210905 -0.997127
-0.0079951 0.236736 0.433406 -0.0649667 0.0916586 -0.993669
-0.0520606 0.0453471 0.187141 0 -0.903039 0.42956
-0.00161697 0.351747 0.0207143 0.748224 -0.160496 0.643741
-0.0423525 0.194006 0.101799 0.993908 -0.0467741 0.0997955
0.00980275 -0.173349 0.416258 0 0.190714 0.981646
-0.00266225 0.132752 0.163952 -0.850632 0.190851 0.489899
-0.0134662 -0.125991 0.580251 -0.866069 -0.095401 -0.490737
-0.0101525 0.388477 0.274779 0 0.438389 0.898785
0.0181194 -0.165023 0.595699 0 -0.3918 0.92005
-0.0166979 0.143923 0.373253 -0.865807 -0.440986 0.236451
-0.0169567 -0.0473573 0.44343 -0.983727 -0.128288 -0.125795
-0.0142559 -0.101675 0.581739 -0.999979 0.00218134 0.00607283
-0.00247345 -0.386913 0.283374 0.748168 0.371026 -0.550077
-0.0541465 -0.314372 0.157209 0 -0.981624 0.190828
-0.00465725 0.370517 0.0429595 -0.70692 -0.376928 0.598489
0.0585041 0.172572 0.219959 0 0.0523848 0.998627
-0.137298 -0.171333 0.594815 -0.0482498 -0.546317 0.836188
-0.00565544 0.399777 0.178849 -0.893838 -0.00712315 -0.448334
-0.0247384 -0.277063 0.153377 -0.135057 0.371109 0.918715
-0.00690561 0.118244 0.355179 0 -0.191973 0.9814
-0.0116347 0.174131 0.122924 0 -0.970299 -0.241909
-0.11824 0.012376 0.0884014 0 0.846042 -0.533116
-0.0193492 -0.418088 0.23921 -1 0 0
-0.0152868 0.196529 0.148467 -1 0 0
-0.0119255 0.462203 0.117632 0 0.961268 -0.275615
-0.00654136 -0.340112 0.301097 0 0.24195 -0.970289
-0.0200673 -0.326589 0.30925 -0.744075 0.161646 -0.648246
-0.0172526 0.0336403 0.331894 -0.984808 -0.161891 -0.0628144
0.0035937 -0.182005 0.391934 0.661115 -0.28302 -0.694857
-0.0482141 -0.170232 0.398481 -0.707979 0.536383 0.459412
-0.0539477 0.0657329 0.144585 -0.98752 -0.132083 -0.0857774
-0.00156035 -0.453701 0.20799 0.839749 -0.521948 0.149641
-0.00240394 -0.269677 0.215182 0.136996 0.844252 -0.518141
-0.0152868 0.440953 0.129912 -1 0 0
-0.00325452 -0.430849 0.259641 0.839666 -0.439374 0.319236
-0.0055969 -0.25664 0.285766 1 0 0
-0.0755898 -0.179377 0.587419 -0.987144 -0.159834 0.000738557
-0.0342748 0.41031 0.343308 -0.705107 0.239993 0.667253
-0.00906402 -0.218035 0.278456 0 -0.587788 -0.809015
-0.0173799 -0.377062 0.0214575 -0.757105 -0.286409 -0.587164
-0.0107994 0.120016 0.278601 0.0976148 -0.6312 -0.769453
-0.012241 0.235842 0.108944 -0.99073 -0.114032 -0.0738267
-0.0175254 0.456234 0.133741 -1 0 0
0.000844764 0.448094 0.176269 0.748284 -0.64367 -0.1605
-0.0193492 -0.372218 0.0453676 -1 0 0
-0.0270002 -0.182878 0.405872 -0.170732 0.81661 0.551361
-0.0535467 0.0789183 0.146591 0.98752 0.132083 0.0857774
0.00783836 -0.194132 0.391005 0.0565534 0.533083 0.844171
-0.00290971 0.20371 0.179169 1 0 0
-0.0164461 0.323934 0.279475 -0.744072 -0.0698475 -0.664438
-0.00644255 0.079031 0.192482 0 -0.899391 0.437145
-0.0055969 -0.436094 0.18284 1 0 0
0.0199655 -0.212112 0.370615 0.353921 -0.564552 0.745668
-2.33522e-05 0.208916 0.465704 0 0.22744 0.973792
-0.013912 -0.212512 0.298957 0 0.5878 0.809006
-0.0165988 -0.380475 0.267909 1 0 0
-0.0202913 -0.0101471 0.29058 -0.993046 0.0810412 0.0853983
0.00116786 0.301199 0.189924 -0.89825 0.43845 0.0301327
-0.0207246 -0.0453089 0.318928 -0.992788 0.0824948 0.0869849
-0.0167315 0.09124 0.335535 -0.866039 0.0959828 -0.490677
-0.0455771 -0.20383 0.342271 -0.688989 0.724088 0.0314722
0.00395279 0.298489 0.371336 -1 0 0
-0.015636 -0.177913 0.0943981 0 -0.898799 0.438362
-0.0414471 0.047246 0.132184 1 0 0
0.00237455 -0.314601 0.163484 -1 0 0
-0.0193492 -0.166601 0.1666 -1 0 0
0.00144621 -0.21489 0.331284 -0.87104 0.155537 -0.465937
-0.0156369 0.00350849 0.389627 -0.865941 0.36183 0.34529
-0.0175078 0.184666 0.358218 0 0.431845 0.901948
0.00335973 0.0999607 0.166723 0.851702 -0.132328 0.507043
-0.0495446 0.0454881 0.153184 -1 0 0
0.134442 -0.160713 0.587727 0.0371836 0.997619 0.058079
-0.00160374 0.00200003 0.289277 0.774679 0.435512 0.458478
-0.00290971 0.241701 0.24263 1 0 0
0.0337952 0.313536 0.145164 -0.0373705 -0.796016 -0.604121
-0.0526191 0.310867 0.139968 -0.877018 -0.292388 0.381247
-0.0120983 -0.300744 0.0325351 0 -0.0593019 0.99824
-0.0055969 -0.178138 0.215769 1 0 0
-0.0106275 -0.146453 0.582289 -0.341938 -0.179292 -0.92246
-0.0252478 0.280648 0.3723 0 -0.40426 0.914644
-0.0055969 -0.436681 0.157937 1 0 0
-0.00215095 0.419099 0.228766 0.748268 -0.47721 -0.460832
-0.00367457 0.415503 0.208122 0.707462 -0.620507 -0.338332
-0.00290971 0.309811 0.271322 1 0 0
-0.0495446 0.124175 0.180774 -1 0 0
-0.0262637 -0.317579 0.170777 -0.135478 0.461543 0.876712
-0.00725099 -0.208425 0.0316263 0 0.559238 -0.829007
0.0396843 0.179324 0.205771 0 -0.052363 -0.998628
0.025297 0.0875995 0.166844 1 0 0
-0.0164658 -0.281126 0.0220278 -0.744103 -0.0466185 0.666437
-0.0019287 -0.412893 0.261451 0.748169 0.46092 -0.477281
-0.0454119 0.302557 0.132538 0 -0.824911 0.565263
-0.0463029 0.0757932 0.181182 -1 0 0
-0.0125168 -0.196644 0.2592 0 -0.719347 -0.694651
-0.0159385 0.269214 0.127121 0.414022 0.494816 -0.764031
-0.00445277 0.180145 0.0988017 0 -0.970299 -0.241909
-0.00863584 0.102709 0.203002 0.342117 0.844738 -0.411551
0.0288238 -0.185295 0.393407 0.861212 -0.480862 -0.164577
-0.00931373 -0.356626 0.317173 0 -0.40671 0.913557
-0.0148459 0.216774 0.339395 0 0.0625434 -0.998042
-0.0172717 -0.225023 0.131725 -0.134951 -0.336347 -0.932019
-0.00263725 0.286145 0.271176 0.748235 0.160495 -0.643728
-0.017742 -0.159009 0.235862 -0.757046 0.596874 0.265749
-0.0163278 -0.00248772 0.257014 -0.774869 -0.43462 -0.459003
0.0222297 -0.246936 0.260408 0.295598 0.893014 -0.339334
-0.00112043 0.310754 0.353181 -1 0 0
-0.0147176 0.277744 0.271178 -0.744103 0.16162 -0.64822
-0.109349 -0.172836 0.58044 0.0351139 -0.727692 -0.685004
-0.00776023 0.342661 0.0303431 0 -0.305696 0.952129
-0.00290971 0.207526 0.108009 1 0 0
-0.0152868 0.441896 0.171307 -1 0 0
-0.00217698 0.242235 0.168664 0.681878 -0.23059 -0.694169
-0.0115637 0.335397 0.359034 0 -0.0261904 -0.999657
-0.00737494 -0.0766742 0.369653 0 0.688796 0.724956
-0.0055969 -0.20719 0.251319 1 0 0
-0.0175254 0.412317 0.244408 -1 0 0
-0.00263679 -0.156984 0.180157 0.748218 -0.661837 -0.0462787
-0.0410452 -0.216806 0.31966 -0.343751 0.162594 -0.924878
0.010468 -0.321564 0.150545 -0.0147137 -0.945399 -0.325582
-0.0234897 -0.191771 0.394426 0.699112 -0.355152 0.620572
0.000421663 0.432145 0.060523 0.839724 0.439313 -0.319168
-0.0551836 0.240645 0.224713 -0.0283746 0.663623 0.747529
-0.0491073 0.325629 0.121901 0 0.998631 -0.0523135
0.011871 0.323879 0.138028 1 0 0
0.0249864 -0.189742 0.362827 0.150659 0.72915 0.667565
0.00193891 0.24266 0.261891 1 0 0
0.00395279 0.362344 0.358458 1 0 0
0.0958131 -0.160041 0.592999 0.0435442 0.918651 0.392662
-0.035574 -0.319562 0.163592 0.0100344 -0.856774 0.515595
-0.00538522 0.427353 0.189887 -1 0 0
0.0371435 0.189576 0.271332 -0.622947 0.522424 0.582246
-0.0218367 -0.152016 0.149645 -1 0 0
0.0291711 0.253888 0.146994 0.335639 -0.118963 -0.934449
-0.0174714 0.128434 0.270306 -0.865962 0.449678 -0.218859
-0.00137543 -0.345004 0.197939 0.139983 -0.67457 -0.724817
-0.00181553 -0.118209 0.539529 0.840442 -0.136707 0.524374
-0.00349039 0.0958749 0.301371 -0.505642 -0.155305 -0.84865
-0.0146541 0.351365 0.206202 0.121091 0.820585 -0.558549
0.00214705 -0.142124 0.402118 0.99305 -0.0809613 -0.0854215
-0.0165988 -0.182873 0.234311 1 0 0
-0.0292589 0.233709 0.459913 0 0.227525 0.973772
-0.0386455 0.223713 0.179591 0.999623 0.0228543 0.0152425
-8.46552e-05 -0.19797 0.36944 -0.86746 -0.384766 -0.315385
-0.036273 -0.313721 0.140679 -0.0167587 -0.514978 -0.85704
-0.0295214 -0.290383 0.148416 -0.00691378 0.933487 -0.358544
-0.0170516 -0.115787 0.400515 -0.780407 0.430634 0.453343
0.111608 -0.195044 0.589841 0.0178057 -0.452571 -0.89155
-0.00166644 0.107037 0.223673 0.864613 0.451772 -0.219878
-0.045353 0.338944 0.149577 0 0.98871 0.149843
-0.0700913 0.061662 0.133323 0 -0.746974 0.664853
-0.0055969 -0.215595 0.0675697 1 0 0
-0.00318863 0.0231778 0.271838 0.774679 0.435512 0.458478
-0.0480131 0.0796153 0.208784 1 0 0
-0.00264563 0.190655 0.129705 0.748237 0.661816 0.0462682
-0.0172533 -0.430898 0.0667151 -0.757084 -0.541657 -0.365284
-0.0114391 0.301752 0.0662214 0.897321 0.439307 0.0427179
-3.10438e-05 0.0371506 0.327945 0.865984 0.0960011 -0.49077
-0.0119997 0.356458 0.268874 0 -0.275635 -0.961262
0.00576387 -0.298378 0.171955 0.990291 0.074811 0.11716
-0.0142003 0.355604 0.0372325 0 -0.305687 0.952132
-0.0292484 0.157349 0.166449 -0.338667 -0.0014407 0.940905
-0.00808482 -0.291641 0.265139 0.139247 0.987218 -0.0775244
0.0112113 -0.220722 0.352986 -0.0161056 -0.374333 -0.927155
-0.0443134 0.100798 0.136695 0 -0.483401 0.875399
-0.0344711 0.300322 0.350711 -1 0 0
-0.0193798 0.190131 0.447643 0 -0.190794 -0.98163
-0.00856319 -0.343784 0.0389071 -0.709189 0.219395 0.670013
-0.0447575 0.128269 0.203394 0 0.652751 0.757573
-0.0194946 0.336655 0.184898 -0.988917 0.0745573 0.128395
-0.0193492 -0.357709 0.291363 -1 0 0
-0.00104719 -0.167195 0.427734 0.865909 -0.464096 0.186591
-0.0177192 0.287084 0.114466 -0.402475 0.717742 -0.568208
-0.0132797 -0.411401 0.0433 0 -0.719325 -0.694674
-0.0152868 0.20362 0.170815 -1 0 0
-0.00196875 -0.335126 0.318769 0.839705 -0.131379 0.526911
-0.00364062 -0.141493 0.498902 0.499597 -0.801358 0.328981
-0.000832704 -0.155229 0.109262 0.839697 0.522016 -0.149697
-0.0188791 -0.0655607 0.348453 -0.932251 0.249131 0.262378
-0.00857458 0.132139 0.263461 0.342117 0.844738 -0.411551
0.00145834 -0.0798237 0.33901 0.929945 -0.252942 -0.266877
-0.0193492 -0.419809 0.107198 -1 0 0
0.0131121 0.243395 0.432726 0 0.0479153 -0.998851
-0.0218367 -0.244786 0.0224657 -1 0 0
-0.0338403 -0.312502 0.154862 -0.00263606 -0.156489 0.987676
-0.00949081 0.45537 0.0938691 0 0.898797 -0.438364
-0.0410719 -0.297771 0.146174 -0.0808279 0.705322 0.704264
0.00193891 0.278002 0.0144237 1 0 0
-0.003489 0.251461 0.0515157 0.70648 0.453065 0.543708
-0.00549549 -0.286181 0.0216534 0.748245 -0.0463217 0.661803
0.00237455 -0.303608 0.1483 -1 0 0
-0.0196807 -0.149491 0.123705 -0.757073 0.628018 -0.180095
-0.00672355 0.109746 0.165863 -0.850632 0.190851 0.489899
-0.0464796 0.274705 0.160426 -0.338655 -0.00143872 0.94091
-0.0200226 0.0733624 0.212589 -0.929957 0.253089 0.266696
-0.0495446 0.129754 0.136785 -1 0 0
-0.0164305 0.446162 0.184077 -0.744091 -0.64823 -0.161637
-0.0191805 -0.257972 0.113327 0.411795 0.632032 0.656476
-0.0189632 -0.266309 0.00909776 -0.757027 0.158054 -0.633979
-0.00856253 0.034772 0.216762 0 -0.687477 -0.726207
-0.0484148 -0.282859 0.204832 0.868662 -0.486675 0.0925918
-0.00493411 -0.0938067 0.384323 0.476078 0.605657 0.637596
0.00292023 0.347781 0.165392 0.113146 -0.250472 0.961489
0.116799 -0.177051 0.586098 -0.0184588 -0.920657 -0.389935
0.0297749 0.269252 0.159784 0.000685808 0.0586727 0.998277
-0.0280245 0.29491 0.373049 0 0.0287695 0.999586
-0.0454085 0.254825 0.101963 -0.595146 -0.153288 -0.788862
0.078695 0.181196 0.217527 0.817332 -0.280557 0.503246
-0.0187437 0.310176 0.112629 -0.138982 0.972677 -0.185965
-0.0152868 0.337088 0.265967 -1 0 0
-0.0154464 -0.217558 0.0493877 0 -0.559225 0.829016
-0.0101164 0.151343 0.455225 0 -0.229948 -0.973203
-0.0117532 -0.388822 0.0262068 0 -0.587771 -0.809027
0.0374332 0.283558 0.187331 -0.612731 0.527629 0.588361
-0.00754815 0.275882 0.0504678 -0.679999 0.709203 -0.186098
-0.0120387 0.265969 0.282749 0 -0.40677 0.91353
-0.0150737 -0.110573 0.502256 -0.626623 -0.511936 -0.587592
-0.0132256 0.250617 0.0520044 0.706406 0.453112 0.543765
-0.110636 0.0291164 0.0923482 0 0.974352 -0.22503
-0.0136976 0.20145 0.444468 0 -0.560205 -0.828354
-0.000667627 -0.177867 0.258632 0.83971 0.45019 0.303672
0.000641523 0.332377 0.00509266 0.839727 0.0379093 -0.541685
-0.0115414 0.0997986 0.235209 0 -0.899391 0.437145
-0.0122891 0.0161868 0.353272 -0.642702 -0.665847 -0.378922
-0.0275217 -0.221995 0.316875 -0.0664269 -0.759367 -0.647264
-0.025503 0.171493 0.457942 -0.973387 -0.224943 0.043799
-0.000599731 -0.0546077 0.458601 0.982261 -0.143009 -0.121288
-0.0181952 0.365551 0.36213 0 0.365965 0.930628
-0.0218367 -0.455517 0.166361 -1 0 0
-0.0414471 0.084961 0.130743 1 0 0
-0.0841868 -0.173509 0.596458 -0.0482498 -0.546317 0.836188
0.0272432 0.240436 0.160837 0.337277 -0.00877609 0.941365
-0.0121407 -0.0434602 0.337397 -0.47606 0.605736 0.637535
-0.0193492 -0.375669 0.279433 -1 0 0
0.0711762 0.202191 0.207833 -0.56931 -0.821 0.0429517
-0.0149354 0.422216 0.22747 -0.744136 -0.553822 -0.373554
-0.0171416 -0.21491 0.277893 -0.744065 -0.392705 -0.540509
-0.00290971 0.441158 0.142897 1 0 0
0.00104004 -0.274646 0.192514 0.411555 -0.628899 0.659628
-0.00082144 0.43408 0.0844615 0.748197 -0.596333 0.29084
-0.0175154 0.121742 0.477007 -0.651465 -0.629338 0.423707
-0.00889843 -0.459807 0.124973 0 -0.970306 -0.241881
-0.0473116 -0.26142 0.255882 -0.907131 -0.330196 0.260929
-0.0179761 -0.282052 0.0845076 -0.409123 0.893148 0.186828
-0.0143346 0.119127 0.240443 -0.342115 0.844783 -0.411459
-0.0183996 0.0631694 0.321877 0.0889762 0.825625 -0.557159
0.0199139 0.225002 0.442935 0.998757 -0.0489311 0.00950804
-0.0011584 0.381968 0.0317617 0.74829 -0.269857 0.606002
-0.00769268 -0.310694 0.305913 0 0.0697544 -0.997564
-0.0175254 0.308544 0.00816972 -1 0 0
-0.0162142 -0.116685 0.530533 -0.939651 0.31825 -0.125589
-0.041639 0.064586 0.176081 0.947052 -0.253589 0.196937
0.00170436 0.192057 0.20704 0.839723 -0.488071 0.238016
0.00937362 -0.206211 0.339409 0.496275 -0.850614 0.173685
0.00193891 0.405198 0.25127 1 0 0
0.0244697 -0.211968 0.329504 0.476867 -0.0570547 -0.877122
-0.0143865 0.233405 0.459925 0.010391 0.234588 0.972039
-0.00137933 0.00930142 0.371073 0.984802 -0.138425 -0.104897
-0.000560883 0.175645 0.161919 0.839694 -0.540081 0.0568045
-0.0147475 -0.170016 0.427812 -0.642112 -0.706551 0.297451
-0.0462288 0.305488 0.156297 -1 0 0
-0.00934181 -0.15266 0.430171 0 0.923693 -0.383134
-0.0134372 0.0843366 0.182676 3.61252e-05 -0.333491 -0.942753
0.00237078 -0.0212599 0.296694 0.993048 0.080999 0.0854083
-0.0175254 0.367232 0.0208502 -1 0 0
-0.0241339 0.243703 0.340956 0.684263 0.146373 -0.714395
-0.00492219 -0.160401 0.14086 0.748234 -0.6598 0.069351
0.0242612 -0.269678 0.236763 -0.661307 -0.720636 0.208223
0.0100168 0.185792 0.450486 0.683731 -0.293745 -0.668002
-0.000295994 -0.359384 0.0184326 0.839727 -0.238034 -0.488056
-0.0155025 -0.240964 0.292213 0 -0.438357 -0.898801
-0.00999781 0.0941295 0.280217 0.18637 -0.260298 0.947371
0.0254461 -0.303159 0.150131 0.618439 0.379988 -0.687854
-0.00218381 -0.44102 0.114534 0.748241 0.606054 0.269877
-0.00606625 -0.311897 0.292356 0.70693 0.130096 -0.695215
-0.0186831 -0.183503 0.247619 -0.744082 -0.553863 -0.3736
-0.0414412 0.284343 0.111353 1 0 0
-0.0472777 0.118288 0.104471 0.0721384 -0.0256301 -0.997065
-0.0154442 0.234493 0.0448109 -0.744148 0.392664 0.540425
-0.0659409 0.0488198 0.111954 0.731278 0.470538 -0.493788
-0.000729003 0.0802888 0.335151 0.865984 0.0960011 -0.49077
-0.011116 -0.403423 0.291266 0 -0.559198 0.829034
-0.000209599 -0.432641 0.240046 1 0 0
-0.0200556 -0.425628 0.262328 -0.757026 -0.52861 0.384034
0.00084209 -0.22446 0.337678 -0.879283 -0.466456 -0.0963331
-0.0139884 -0.0187252 0.40504 -0.627719 -0.634315 -0.451235
-0.0481654 0.152211 0.196779 -0.00709135 0.221204 0.975202
-0.0193492 -0.378844 0.0567733 -1 0 0
-0.0161541 -0.253244 0.0296215 -0.744122 -0.271698 0.610297
-0.00293942 0.0711789 0.312207 -0.833309 0.427772 0.350153
-0.0440668 0.10603 0.152345 -0.947065 0.30083 -0.112113
-0.00731709 0.244413 0.0203182 0 -0.438414 -0.898773
-0.0152868 0.30464 0.0209361 -1 0 0
-0.0147173 0.18601 0.201239 -0.757104 -0.587186 0.286365
-0.00812216 -0.39588 0.271387 0 0.69467 -0.719329
-0.0162948 0.0154123 0.240009 -0.774869 -0.43462 -0.459003
-0.072363 0.0724887 0.144154 -0.92252 -0.115202 0.368354
0.0210155 -0.19391 0.34823 0.365561 0.900397 -0.235904
-0.0218367 -0.434085 0.0887065 -1 0 0
-0.000511782 0.412068 0.23871 0.748199 -0.477291 -0.46086
-0.0126495 0.176268 0.471998 0 0.17993 0.983679
-0.0355866 0.0989245 0.154856 -0.23743 0.71047 -0.662465
-0.00597735 0.145122 0.476885 0 0.0992314 0.995064
-0.0066742 0.457331 0.193509 0 0.970308 0.241872
-0.0132003 0.271655 0.0944063 0.684311 -0.540347 0.489636
-0.0126347 -0.447159 0.236888 0 -0.898769 0.438423
-0.0398308 0.0845093 0.156179 -0.237424 -0.775709 -0.584726
0.00320817 0.165903 0.401863 1 0 0
-0.0204561 -0.0887885 0.363293 -0.993046 0.0810412 0.0853983
-0.00964758 0.0318446 0.30575 0 -0.998887 -0.0471628
-0.0208069 -0.188807 0.271836 -0.757084 0.469961 0.453829
-0.0333979 0.232776 0.432217 0 0.0479153 -0.998851
-0.0405523 -0.23095 0.306401 -0.889957 0.449545 -0.0767118
-0.0175254 0.205134 0.0707035 -1 0 0
0.00158056 0.300831 0.112774 -0.137226 0.926949 -0.349191
-0.12862 -0.160999 0.579628 0.0483542 0.543639 -0.837925
0.0036334 0.31589 0.128486 -0.664128 -0.746291 0.044543
-0.0462455 0.0384273 0.137307 0 0.140588 -0.990068
-0.0318032 0.241559 0.155999 0.973982 0.154642 0.165667
-0.0537798 0.0485761 0.126886 -0.542368 -0.720354 -0.432351
0.0285742 0.131978 0.18246 0.732011 -0.296741 0.613274
0.0141092 0.101459 0.158149 0 0.920759 -0.390133
0.0241814 -0.16884 0.387138 0.581064 0.637335 -0.50613
-0.0105928 0.152029 0.36663 0 -0.981649 0.190696
-0.0165988 -0.167676 0.196727 1 0 0
0.0143581 0.207949 0.150317 -0.633117 0.0751905 -0.770395
-0.0394688 -0.167931 0.587688 0 -0.837687 -0.546151
-0.0414471 0.0981274 0.110982 1 0 0
0.00378957 -0.169953 0.388082 -0.639023 0.763407 0.0941184
-0.0530495 0.102564 0.206999 -1 0 0
-0.0022529 -0.250929 0.314167 0.839707 0.149675 0.522005
-0.0172632 -0.174782 0.174735 0.70684 -0.707369 0.0024796
0.0143949 0.249643 0.44675 0 0.981632 -0.190782
-0.0208233 0.00985871 0.262238 -0.993047 -0.081003 -0.0854118
-0.0119625 0.102172 0.334056 -0.341959 0.18039 -0.922238
-0.0151303 0.257016 0.181954 -0.893948 -0.300772 -0.332254
0.00585285 0.166614 0.459124 0.97339 -0.22493 0.0437966
0.0149937 -0.18598 0.357279 -0.0725093 0.995345 -0.0634915
-0.0152868 0.405509 0.0691071 -1 0 0
-0.0244103 0.356167 0.358011 0 -0.146806 -0.989165
-0.0202973 -0.370954 0.0334884 -0.744104 0.292887 0.600438
0.0921104 -0.17395 0.582575 -0.0211506 -0.730232 -0.682872
-0.0126974 0.200777 0.231885 -0.757082 -0.528558 0.383997
-0.0446996 0.117819 0.139264 0 -0.340362 -0.940294
0.000559617 0.220644 0.249377 0.839756 -0.377169 0.39058
-0.0193492 -0.434524 0.157237 -1 0 0
-0.0138557 -0.176366 0.130547 0 -0.967707 0.252077
-0.062361 0.0821849 0.156381 0 -0.746974 0.664853
-0.0055969 -0.221433 0.0571604 1 0 0
-0.0251661 0.338018 0.358965 0 -0.0261904 -0.999657
-0.0495446 0.0806522 0.108592 -1 0 0
-0.000209599 -0.152952 0.191106 1 0 0
-0.0124491 0.370645 0.0099436 -0.757083 0.265741 -0.596831
-0.0104476 0.322303 0.359377 0 -0.0261904 -0.999657
-0.00980758 0.320454 0.146346 0 0.839342 -0.543604
-0.022256 -0.227973 0.328442 -0.171729 0.66021 0.731185
-0.0048202 0.288509 0.0343461 -0.706553 0.135014 0.694661
-0.0415773 0.119939 0.152891 0.947069 0.317236 -0.0492065
-0.00699408 -0.240014 0.313814 0 0.438366 0.898796
-0.0172247 0.225519 0.242382 -0.744146 0.464027 -0.480547
-0.044889 -0.297058 0.157081 -1 0 0
-0.0104731 0.238048 0.0596002 0 0.640118 0.768277
-0.0141595 -0.208968 0.0724678 0 -0.726598 0.687063
-0.00433051 0.212374 0.218085 0 0.808952 -0.587874
-0.00802206 -0.117117 0.408078 0 0.688796 0.724956
-0.00214698 0.258089 0.353938 -0.959727 0.275745 -0.0537505
-0.0205068 -0.101499 0.374766 -0.993046 0.0810412 0.0853983
-0.000785865 -0.146448 0.478124 0.865909 -0.464096 0.186591
0.0503359 0.177 0.212626 0 0.998634 -0.0522464
-0.0147192 0.122759 0.158388 0.85662 0.101863 -0.505792
-0.00112043 0.397523 0.33744 -1 0 0
-0.016887 0.0870942 0.290201 -0.201282 -0.917838 0.342138
-0.0142433 0.0197178 0.330941 0.00013746 -0.981409 -0.191927
-0.0368045 -0.23263 0.343999 -0.0894583 -0.791467 0.60463
-0.0149804 0.264512 0.0435736 -0.70839 0.302817 0.637562
-0.0191341 -0.367597 0.165289 0.899039 0.142274 0.414111
-0.0210635 0.408248 0.346151 0 0.338448 0.940985
-0.056994 0.0947738 0.150218 -0.987521 0.0407564 -0.152123
-0.00905649 0.207069 0.24115 0 -0.809034 0.587762
-0.00134966 0.264792 0.0113386 0.839666 -0.238101 -0.488127
-0.00560895 -0.182456 0.091568 0.707299 0.618284 -0.342714
-0.00742184 0.241121 0.354432 0.670406 -0.218235 0.709175
-0.00616089 0.408384 0.346103 0 0.338448 0.940985
0.00122918 -0.0595584 0.319004 0.929945 -0.252942 -0.266877
-0.0130381 0.023678 0.369521 -0.342017 0.748959 0.567525
-0.076782 0.051522 0.119121 -0.999771 -0.0151547 -0.0151156
-0.0377713 -0.172475 0.40769 -0.707167 0.134907 0.694057
-0.0125537 0.172466 0.147815 -0.756999 -0.651823 -0.0455992
-0.0055969 -0.385575 0.0598582 1 0 0
-0.0893328 0.0450374 0.0997112 0 0.052368 0.998628
0.011871 0.329084 0.148476 1 0 0
-0.0157192 -0.176871 0.409132 -0.765521 -0.592447 0.250966
0.0185818 -0.176349 0.399587 0 -0.19082 -0.981625
0.0247759 -0.312136 0.141399 1 0 0
-0.0460395 0.313479 0.149403 -0.00477822 -0.921467 0.388426
-0.0175254 0.18259 0.176784 -1 0 0
-0.00799775 -0.397148 0.186832 -0.677922 -0.0970143 -0.728704
-0.00279201 -0.13378 0.379977 0.780426 -0.429894 -0.454011
0.0227735 0.165038 0.271344 -0.562095 0.338745 -0.75452
0.0362337 -0.287161 0.169417 0.681313 0.597529 -0.422814
-0.016036 0.107571 0.29269 0.23501 0.634249 -0.736545
-0.0350357 -0.16848 0.385058 -0.0518382 0.998598 -0.010753
-0.0166586 -0.27106 0.322894 -0.757041 0.180084 0.62806
0.0410794 0.205108 0.218253 0 0.0523752 0.998627
-0.0131403 -0.342962 0.320825 0 -0.241931 0.970294
-0.0235428 0.184834 0.156355 0.973989 0.136481 -0.180882
-0.0165955 -0.146732 0.207555 -0.757067 0.633929 0.158062
-0.0128853 0.259699 0.258225 0.707539 -0.298647 0.640468
-0.0184578 -0.252152 0.300438 -0.744092 -0.184151 -0.642196
-0.000209599 -0.401231 0.0448205 1 0 0
0.011871 0.315662 0.159778 1 0 0
-0.0188753 -0.290251 0.00532385 -0.757027 0.0456245 -0.651789
-0.00959927 -0.237612 0.0412303 0 0.532888 -0.846185
-0.0461493 -0.24936 0.268717 -0.967709 0.251281 0.0199536
-0.0183498 0.312192 0.144346 1 0 0
-0.00783899 0.130123 0.353472 0 0.981403 0.191957
0.0100434 -0.181081 0.369896 -0.101797 0.623641 0.775055
-0.0125492 0.0449662 0.323084 -0.342124 0.180389 -0.922177
0.0172056 -0.316184 0.166943 0.0189454 -0.629195 0.777016
-0.00482539 0.419749 0.0914604 -0.707063 -0.618493 0.342824
-0.0193492 -0.265248 0.0400568 -1 0 0
-0.00803497 0.033527 0.264949 0 0.688796 0.724956
0.0170087 0.0982138 0.169244 0.110348 0.678122 0.726618
-0.0093336 0.0872564 0.213899 0 0.688796 0.724956
-0.000644168 0.00848345 0.248911 0.774849 -0.434729 -0.458933
-0.00419986 -0.219267 0.303205 0.839714 0.238046 0.488072
-0.0436843 0.0326441 0.159645 0 -0.260975 -0.965346
0.000295005 0.279086 0.121742 -0.684522 0.558987 -0.467935
0.000804153 -0.273517 0.174496 -0.677373 -0.341553 0.651542
-0.0525356 -0.297878 0.158101 0.633882 0.633741 -0.443358
-0.0193492 -0.242105 0.0449386 -1 0 0
-0.00698466 0.0445098 0.340755 0 -0.191973 0.9814
-0.0177828 0.0779416 0.323832 -0.178149 0.890477 -0.418706
0.00177977 -0.176057 0.405121 -3.15194e-05 0.337968 0.941158
-0.0151363 0.384328 0.0384668 -0.707637 0.376483 -0.597922
-0.0425862 0.0733765 0.121372 0 0.39616 0.918181
-0.0117893 0.381902 0.350198 0 -0.292534 -0.956255
-0.0142237 -0.263788 0.288267 0 -0.312318 -0.949977
0.00162833 0.180704 0.174945 0.839695 -0.522017 0.149699
-0.00818736 -0.124029 0.549037 -0.118069 -0.877599 -0.464629
-0.0414471 0.0791892 0.170757 1 0 0
-0.00592926 -0.00893719 0.259016 0.476116 -0.604555 -0.638613
-0.00253544 -0.00850291 0.388959 0.607322 -0.706765 -0.362828
-0.0527088 0.283127 0.152567 -0.973975 -0.154642 -0.165704
0.0678189 0.191742 0.213999 0 0.682281 0.73109
0.0163955 -0.238104 0.314886 0.299536 -0.865572 0.401327
-0.000371875 -0.0159226 0.27249 0.774849 -0.434729 -0.458933
-0.00559153 -0.463342 0.183655 0 -0.994524 0.104507
-0.00923861 0.158028 0.40485 0 -0.945583 -0.325381
-0.00500379 0.277547 0.0252414 -0.710414 -0.220142 -0.668467
0.0198393 0.176555 0.198368 0 0.464131 -0.885767
-0.0179437 -0.191374 0.0485449 -0.75707 0.453836 -0.469976
-0.00778642 0.0559108 0.196751 0 -0.687477 -0.726207
-0.0436168 0.0971351 0.125324 0 0.999941 -0.0108529
0.00715992 -0.218058 0.325308 0.453608 -0.733556 -0.506098
0.00736422 0.0843598 0.154077 0 -0.681692 -0.731639
-0.016328 -0.156936 0.584656 0 0.682694 -0.730705
-0.0100692 -0.412629 0.0918517 0 0.811084 0.58493
-0.0067812 0.402658 0.265821 0 0.587743 0.809048
-0.0175254 0.42766 0.0682097 -1 0 0
-0.0135097 0.203548 0.13372 0.707033 0.701909 0.0861811
-0.091217 0.00860334 0.10162 0 0.0523698 0.998628
-0.0055969 -0.408645 0.0764325 1 0 0
-0.0154654 0.294295 0.356773 0 0.226319 -0.974053
-0.000383042 -0.456522 0.138015 0.839713 -0.526906 -0.131352
-0.0414412 0.320814 0.130131 1 0 0
-0.00261079 -0.227328 0.0229298 0.839742 0.220863 -0.496036
-0.0208371 -0.0366068 0.309391 -0.992788 0.0824948 0.0869849
-0.0205523 -0.444129 0.122651 -0.744087 0.648242 0.161606
-0.0903136 -0.160635 0.595858 -0.0353637 0.727826 0.68485
0.0154801 0.228651 0.158094 -0.850714 0.190859 0.489754
-0.013581 0.0998218 0.305442 -0.37003 0.0424963 0.928047
-0.00676533 0.17584 0.433193 0.642743 -0.675068 0.362167
0.00171516 -0.287846 0.136603 -0.410081 0.762674 0.500162
-0.0121167 -0.43712 0.254245 0 -0.809006 0.5878
0.0370732 -0.167304 0.586726 0 -0.837687 -0.546151
-0.00990585 -0.0237798 0.319397 0 0.688796 0.724956
0.00250973 0.0798189 0.199194 0.992786 0.0825321 0.0869693
-0.00717348 -0.384337 0.0978651 0.899298 0.163948 -0.405443
-0.0184869 -0.0822929 0.336801 -0.929953 -0.252853 -0.266931
-0.0699142 -0.161285 0.589927 0.999904 -0.0138652 -0.000751806
0.00640718 -0.296123 0.160374 0.990291 0.138141 -0.0155014
-0.0055969 -0.360816 0.0366372 1 0 0
-0.0475214 0.0887955 0.101271 -0.947071 -0.000421406 -0.321025
-0.00387244 -0.147603 0.446088 0.642264 0.706432 -0.297406
-0.046435 0.244828 0.157935 -0.85664 -0.10187 0.505758
-0.00643037 0.463698 0.164344 0 0.997562 0.0697886
-0.0078639 0.398821 0.024511 0 0.55918 -0.829046
0.0221652 0.244288 0.147784 -0.337257 0.00877602 -0.941372
-0.0152868 0.200742 0.156806 -1 0 0
0.011871 0.309816 0.146684 1 0 0
-0.00569385 -0.121371 0.507705 0 -0.643713 -0.765267
-0.0202903 -0.0267396 0.290825 -0.992791 -0.0824523 -0.0869946
-0.0055969 -0.261892 0.295548 1 0 0
0.00639363 -0.304964 0.138046 -0.0285247 0.0672123 -0.997331
-0.012135 0.100072 0.162911 0.10778 -0.992813 0.0520093
-0.00996304 0.254056 0.277444 0 -0.40677 0.91353
0.00245499 -0.149689 0.412868 0.99305 -0.0809613 -0.0854215
-0.0188755 0.0757518 0.309897 0.27965 -0.695654 0.661711
-0.0176299 -0.339379 0.303264 -0.744075 0.161646 -0.648246
-0.0349389 -0.235775 0.297942 0.977168 0.113987 -0.179301
-0.00497282 -0.36631 0.217196 0.409596 -0.64978 -0.640325
-0.00291276 0.165536 0.452423 0 -0.190794 -0.98163
-0.0152868 0.394397 0.0569711 -1 0 0
-0.00290971 0.271026 0.253912 1 0 0
-0.0193492 -0.17589 0.105281 -1 0 0
-0.0195838 0.137258 0.167045 0.635999 0.135129 0.759767
-0.0371983 0.273721 0.15072 0.856642 0.101869 -0.505754
-0.0461179 -0.267661 0.218937 0.90704 0.328355 -0.263556
-0.0157833 -0.0742034 0.484137 -0.859145 0.339189 0.383172
-0.027825 0.24884 0.442614 0 0.981671 -0.190584
0.00134623 0.0478663 0.217596 0.929945 -0.252942 -0.266877
-0.000990812 -0.160594 0.443891 0.865909 -0.464096 0.186591
-0.0257204 -0.327278 0.174638 -0.679853 -0.433089 -0.591805
-0.0388526 0.235439 0.447331 -0.998757 -0.0489338 0.00948326
-0.0487265 -0.207936 0.359119 -0.775355 0.176845 0.60626
-0.0150109 0.425005 0.100357 -0.707026 -0.618529 0.342836
-0.0055969 -0.169914 0.133812 1 0 0
-0.0142934 -0.179614 0.209195 0 -0.96945 -0.24529
-0.00894583 0.187559 0.434017 0.342023 0.828039 -0.444266
-0.00901388 0.194422 0.223742 0 -0.809034 0.587762
-0.00459831 0.210145 0.0487627 0 -0.719328 -0.69467
-0.013968 -0.323769 0.0342248 0 0.19081 0.981627
-0.0694642 -0.194428 0.593708 -0.0720743 0.451409 0.889402
-0.012412 -0.138748 0.465867 -0.34175 0.868901 -0.358074
-0.0218367 -0.155152 0.137288 -1 0 0
-0.00290971 0.245027 0.0427948 1 0 0
-0.0055969 -0.227137 0.270302 1 0 0
-0.0495446 0.138945 0.164716 -1 0 0
0.00395279 0.375953 0.351688 1 0 0
-0.0271084 0.378364 0.357092 0 0.365965 0.930628
-0.0228012 -0.287462 0.207906 -0.676697 0.718636 -0.160137
-0.00538522 0.385758 0.241348 -1 0 0
-0.0193492 -0.43858 0.138105 -1 0 0
0.00204337 -0.0963668 0.371714 0.992786 0.0825321 0.0869693
-0.00576207 0.155964 0.475743 0 0.146185 0.989257
-0.0122073 0.363238 0.0297087 0.706425 0.216312 -0.673924
-0.0158887 -0.0618715 0.312502 -0.774869 -0.43462 -0.459003
0.00193891 0.453577 0.127698 1 0 0
-0.0174796 0.0455376 0.246592 -0.774699 0.435399 0.458551
-0.0427299 0.0757157 0.147994 0 -0.791823 -0.61075
-0.0130611 0.337139 0.29048 -0.757128 0.0683069 0.649686
-0.0135475 0.198794 0.189622 0.706366 -0.657227 0.262868
-0.0134148 0.342743 0.224351 -0.656152 -0.653879 0.376706
0.02919 0.183634 0.20221 0.783284 0.264704 -0.562493
0.107888 -0.176745 0.593132 -0.00255349 -0.955259 0.295759
-0.0116709 -0.105295 0.3497 -0.46916 -0.607119 -0.641323
-0.007025 0.319226 0.0215412 0 0.0592641 -0.998242
0.00193891 0.446166 0.193363 1 0 0
-0.0273404 -0.285863 0.163061 -0.899863 0.168019 -0.402513
-0.0165987 -0.186097 0.0852347 1 0 0
-0.00290971 0.219482 0.0740147 1 0 0
-0.0274756 0.132178 0.155458 -0.635996 -0.135123 -0.75977
-0.00236865 0.021334 0.233827 0.774849 -0.434729 -0.458933
-0.0138075 -0.0186513 0.427455 -0.323846 0.764478 0.557403
-0.000866168 -0.177707 0.0690993 0.839728 0.439313 -0.319157
-0.0200169 -0.268636 0.306972 -0.7441 -0.184152 -0.642187
-0.00605007 0.424246 0.0455617 0 0.694665 -0.719333
-0.000209599 -0.454496 0.171956 1 0 0
-0.0227704 -0.192426 0.383018 0.15743 0.574564 0.803177
-0.00640068 -0.032207 0.326889 0.469168 0.608281 0.640215
-0.0414471 0.105056 0.196197 1 0 0
-0.00121377 0.421089 0.0654675 0.748287 -0.53669 0.38991
-0.107501 0.0100479 0.0877114 0 -0.0523662 -0.998628
-0.00245725 0.128696 0.46156 0 -0.270544 -0.962708
0.0024082 0.0604434 0.213081 0.992789 -0.0824898 -0.0869789
-0.0359095 0.191498 0.151968 -0.636117 -0.135138 -0.759666
-0.0163397 -0.463644 0.148926 -0.75708 -0.651729 -0.0455927
-0.00437694 -0.305458 0.158783 0 0.0169603 0.999856
-0.000209599 -0.40636 0.0564272 1 0 0
-0.00542376 0.0931109 0.311599 0.366281 0.899578 -0.2379
-0.0281435 0.344 0.367402 0 0.155344 0.98786
-0.000209599 -0.35564 0.306684 1 0 0
0.00121451 -0.205174 0.345943 -0.875211 0.18592 -0.446587
-0.0193764 -0.179091 0.0640707 -0.757071 0.52857 -0.384002
-0.00986123 0.26552 0.353053 0 -0.00920956 -0.999958
-0.030808 0.160054 0.153289 -0.636117 -0.135138 -0.759666
0.00054254 0.143383 0.165056 -0.631544 0.164896 0.757603
-0.0136233 -0.148399 0.391962 -0.476117 -0.604626 -0.638545
-0.0119766 0.389283 0.0181689 0 0.406756 -0.913537
0.00395279 0.298598 0.359241 1 0 0
-0.0158056 -0.149248 0.447645 -0.865807 0.46426 -0.186657
-0.0293978 0.36169 0.348533 1 0 0
-0.0177632 -0.0330192 0.43519 -0.984238 -0.125876 -0.124218
-0.0167295 0.131142 0.343337 -0.866039 0.0959828 -0.490677
-0.00368319 0.301667 0.260203 0.707465 0.130016 -0.694686
-0.0387248 -0.198151 0.348216 -0.0344464 0.474058 0.87982
0.0428348 0.194391 0.26177 0.979743 -0.137897 -0.145219
-0.00308067 0.177896 0.184991 0 -0.961263 0.275632
-0.0183015 -0.446885 0.176073 -0.744139 0.664367 -0.0698054
0.0271896 -0.280589 0.20425 -0.966238 -0.256194 -0.0273545
-0.0293978 0.342665 0.349774 1 0 0
0.000420017 0.103489 0.294975 0.778558 0.519587 0.351961
-0.0354963 -0.18446 0.404151 0.125458 0.621586 -0.773234
-0.0107691 0.0483031 0.294512 -0.341896 0.933719 -0.106193
-0.00724082 -0.122141 0.588304 0.341509 0.179356 0.922607
-0.00712108 0.185635 0.355998 0.707043 0.305388 0.637831
-0.00290971 0.42552 0.204551 1 0 0
0.085253 -0.176027 0.574682 0.0177338 -0.452565 -0.891555
-0.00650736 0.192926 0.144842 0 -0.992544 -0.121888
0.00193891 0.251922 0.267147 1 0 0
-0.0154683 -0.288748 0.325437 0 0.104541 0.994521
-0.0272931 0.301773 0.358428 0.707019 0.160051 -0.688845
-0.0055969 -0.418959 0.238537 1 0 0
-0.0483107 0.0545185 0.177022 0 0.896902 -0.442229
-0.0194993 0.0269119 0.236883 -0.929953 -0.252853 -0.266931
0.000352602 -0.125528 0.521736 0.984799 -0.16272 0.0607703
-0.00346416 -0.187248 0.252887 0.748224 -0.550017 -0.371003
-0.111346 -0.176115 0.590352 -0.0194925 -0.957469 0.287876
0.00935293 -0.210929 0.371637 -0.368554 -0.511001 0.77656
-0.0141073 0.214252 0.0956545 0 0.931038 0.364923
-0.0191241 -0.037203 0.296309 -0.929953 -0.252853 -0.266931
-0.0664207 0.0403116 0.101659 0.782848 0.468466 -0.409498
-0.010115 -0.263439 0.03094 0 0.305649 -0.952144
-0.00455185 0.0933393 0.187144 0.340366 0.845354 -0.411737
-0.00487145 0.446487 0.0756577 0 0.898797 -0.438364
-0.00290971 0.429192 0.0958935 1 0 0
-0.0167574 -0.313535 0.292365 0.706923 0.130098 -0.695223
-0.00321117 0.382883 0.0502426 0.708055 -0.376323 0.597528
-0.00571287 0.209516 0.190304 -0.708211 0.655507 -0.262198
0.00262932 -0.284354 0.179781 0.13582 0.740534 -0.658151
-0.000904894 0.116559 0.246232 0.864613 0.451772 -0.219878
-0.0196687 -0.445177 0.197395 -0.744134 0.64215 -0.184141
0.0250192 0.259694 0.159779 -0.335639 0.118962 0.934449
0.036102 0.220432 0.237718 -0.879885 -0.310722 -0.359518
-0.0127211 -0.25459 0.318806 0 0.275624 0.961265
-0.00183966 -0.311512 0.321635 0.839705 -0.0378718 0.54172
-0.053362 0.296598 0.109917 -1 0 0
-0.0152868 0.218197 0.0802325 -1 0 0
-0.0204454 0.265565 0.353052 0 -0.00920956 -0.999958
-0.0168736 0.157628 0.381486 -0.865683 0.441175 -0.236555
-0.0527386 0.0933119 0.159782 1 0 0
-0.0136315 -0.161275 0.450982 -0.642112 -0.706551 0.297451
-0.0227754 -0.29635 0.141951 0.886496 0.25609 -0.385413
-0.0469762 -0.190236 0.378383 0.281415 -0.487391 -0.826593
-0.0155315 0.361315 0.282263 -0.757085 0.180082 0.628007
-0.0183263 -0.403623 0.0635896 0 -0.640122 -0.768273
-0.00290971 0.358456 0.263983 1 0 0
-0.0183498 0.325738 0.152267 1 0 0
-0.0365669 -0.176364 0.376547 -0.0432547 0.420819 0.906113
-0.0134914 -0.156419 0.462821 -0.642112 -0.706551 0.297451
-0.00752235 -0.283761 0.290447 -0.707352 -0.0468681 -0.705306
-0.0256905 0.105479 0.159807 -0.856732 -0.154182 -0.492177
-0.00988626 -0.0467235 0.293912 0 -0.687477 -0.726207
0.0359719 -0.311501 0.147899 0.706666 -0.464402 -0.533811
-0.00331361 0.349302 0.269166 0.707033 0.220901 0.671794
-0.00379239 -0.4462 0.143457 0.748217 0.661842 0.0462277
-0.00289023 0.0650748 0.342169 0.642813 -0.147057 0.751775
-0.0213722 -0.401418 0.285165 -0.757152 -0.453762 0.469915
-0.00170303 0.184539 0.0897038 0.839746 -0.496023 -0.220878
-0.0536415 0.102163 0.185168 -0.98752 0.0564472 0.14703
-0.0300223 0.314493 0.372042 0 0.155344 0.98786
-0.112156 0.0394189 0.0913277 0 -0.998625 0.0524242
-0.00698712 0.219041 0.174077 -0.418328 0.22635 0.879641
-0.0193492 -0.416831 0.0941151 -1 0 0
-0.0174369 -0.365008 0.0156513 -0.757105 -0.286409 -0.587164
-0.0180049 0.170733 0.417369 0 0.358116 0.933677
0.0192255 0.208196 0.16338 0.000771893 0.0586554 0.998278
0.025297 0.0967387 0.16129 1 0 0
-0.0183485 -0.42075 0.271368 -0.757032 -0.4539 0.469975
-0.0183013 -0.042566 0.328672 -0.932251 0.249131 0.262378
-0.000995922 -0.262768 0.012159 0.839635 0.131388 -0.52702
0.00169146 0.199921 0.0714944 0.839698 -0.450209 -0.303677
-0.0551913 0.29127 0.178956 -0.666422 0.507994 0.545733
0.0119852 0.156695 0.165472 0.632883 -0.0751315 0.770593
-0.0593687 0.211884 0.247042 -0.880461 0.331993 0.33848
-0.0132565 0.449733 0.084598 -0.757071 0.587213 -0.286398
-0.0132655 0.416113 0.254172 -0.757107 0.469961 0.453791
-0.0110707 -0.340587 0.0267353 0 0.275699 0.961244
0.0376103 0.204171 0.24979 -0.368967 -0.614761 -0.697088
0.0378263 0.278809 0.155504 0.851849 -0.132374 0.506784
-0.0159219 -0.437901 0.207627 -0.744127 0.642158 -0.18414
-0.0173396 -0.167325 0.410632 -0.939758 0.317977 -0.125478
0.0278385 -0.198868 0.364182 0.147331 -0.624745 -0.766804
-0.0183588 -0.053012 0.338386 -0.932251 0.249131 0.262378
-0.0637198 -0.183018 0.593377 -0.0722962 0.452714 0.88872
-0.0218367 -0.409891 0.0531388 -1 0 0
-0.0155802 -0.274681 0.299674 0 0.312323 0.949976
-0.0175167 0.00551975 0.379655 -0.984802 -0.125649 -0.119905
-0.0139313 0.0377303 0.345335 -0.342112 0.875983 0.340021
-0.0454932 0.127507 0.170487 0 -0.938452 -0.34541
-0.00402058 -0.164583 0.119712 0.748234 -0.637732 0.182875
0.0248479 -0.169057 0.404752 -0.984596 -0.0713416 0.159626
-0.0149307 0.0944827 0.204302 -0.469161 0.608212 0.640286
0.00426464 0.307864 0.151452 -1 0 0
-0.0113794 0.24527 0.247293 0 -0.634723 0.77274
-0.0159041 0.360364 0.0106619 -0.757092 0.158028 -0.633908
-0.00473008 0.196719 0.468257 0 0.17993 0.983679
0.00405262 0.327691 0.132524 -0.390684 -0.834784 -0.387946
-0.0205997 -0.152923 0.414018 -0.993047 -0.081003 -0.0854118
-0.0175254 0.336017 0.00877952 -1 0 0
-0.00210718 0.310473 0.372498 0 0.0921482 0.995745
-0.00166091 -0.190406 0.0673801 0.748212 -0.536746 0.389977
-0.0236289 -0.208692 0.36731 0.118134 -0.700941 -0.703367
0.0773432 0.176068 0.208736 0.983968 -0.178103 0.00931794
-0.0119811 -0.201997 0.0948729 -0.899197 0.126542 0.418846
-0.00389644 -0.143352 0.192459 0.839705 0.526912 0.131379
-0.0152868 0.212911 0.215869 -1 0 0
-0.01195 0.375204 0.249372 0 -0.538735 -0.842475
0.00202054 -0.321556 0.177271 -0.677853 -0.415041 -0.606841
-0.0182913 0.0251115 0.264447 -0.932251 0.249131 0.262378
