-0.0875643 -0.393332 0.457343 -0.0431734 -0.0195902 0.998875
-0.026089 0.0685753 0.202373 0 0 1
0.0168104 0.200196 0.135315 -0.99995 -0.0100442 0
0.0897258 -0.345355 0.468706 0.623394 0.457286 -0.634247
-0.00519478 -0.277919 0.347746 -0.80795 0.154711 0.568578
0.00255186 -0.320445 0.321515 0.288021 -0.953934 0.0839804
-0.0420406 0.306249 0.181526 -0.989727 -0.142284 -0.0139644
-0.00250977 -0.0820089 0.413915 -0.309052 0 0.951045
0.00577742 -0.417358 0.047219 1 0 0
-0.00694257 -0.181641 0.0726747 -0.993137 -0.0955404 0.0674614
0.00450033 -0.252687 0.339651 0.807831 0.251185 0.533213
0.0244164 0.00739962 0.200389 1 0 0
-0.0263462 -0.317813 0.173363 -0.0280029 -0.308778 -0.950722
-0.00667789 -0.227015 0.142495 -0.289664 -0.237357 -0.927231
0.00603553 -0.160193 0.315078 0.809014 0.397861 0.43267
-0.00501092 0.425616 0.05474 -0.334626 -0.656363 0.676175
0.0209981 -0.281198 0.272962 0.716328 0.695172 -0.0600832
0.0130713 -0.281792 0.194375 0.343324 0.14289 -0.928284
0.0257211 0.0119753 0.160836 0.0606993 -0.949311 0.308423
0.00461151 -0.165786 0.0918947 0.808004 0.533016 -0.251044
0.000785111 0.439584 0.0534537 0.307872 0.670177 -0.675335
-0.00408443 -0.443544 0.0614374 -0.30795 -0.675325 -0.670151
-0.00591487 -0.197726 0.346526 -1 0 0
0.0948806 -0.327054 0.393698 0.932933 -0.116159 -0.340797
0.0218586 -0.00872366 0.126404 1 0 0
0.00984673 -0.276621 0.372715 0 0 -1
0.00520206 0.194005 0.289134 0.731983 0.479832 -0.483697
-0.00237413 0.336021 0.315945 -0.762295 -0.605697 0.228118
-0.00677186 0.0900766 0.34569 0.929293 -0.144492 -0.339906
0.00541033 0.353559 0.072898 -0.790754 0.559159 0.249097
-0.00656938 0.1777 0.268839 -0.993778 0.0902752 -0.0652338
-0.0118603 0.122553 0.330057 0.816617 0.418209 0.397792
-0.0219707 -0.269746 0.318154 -0.989024 0.145312 -0.0267485
0.0246268 0.179896 0.281256 0.930972 0.148627 0.33347
-0.00704924 0.147109 0.145619 -0.993774 0.108032 0.0272267
0.00973715 0.252454 0.167663 -0.976975 0.0455507 0.208434
0.0853096 -0.3256 0.475679 -0.304172 0.229077 -0.924664
0.00468865 -0.274078 0.295725 0.791136 -0.563757 0.237237
-0.00320961 -0.295728 0.311783 -0.342485 0.919756 -0.191714
-0.0229933 0.0297798 0.157957 0 0.707116 -0.707098
0.00524394 0.224451 0.320915 0.807831 -0.336165 0.48415
-0.00567326 0.476088 0.113267 -0.807987 0.533035 -0.251059
-0.000967312 -0.413452 0.308206 -0.334643 0.528952 -0.779887
-0.022556 -0.296176 0.484659 9.96452e-05 -0.93175 0.363099
0.00191736 0.0250257 0.406315 0.809035 0 -0.587761
-0.0294483 0.256142 0.172767 0.808604 0.0574494 0.585541
-0.00990115 -0.298452 0.117124 -0.288563 0.954581 0.0742075
0.00971914 0.0556589 0.378247 0.930972 0.148627 0.33347
0.00445484 -0.480018 0.184004 0.73638 0.673881 -0.0602505
0.00250025 0.23479 0.317972 0.736332 0.284768 -0.613778
0.00337131 -0.423756 0.114859 -0.976793 0.172699 -0.126691
0.00606314 0.417585 0.149319 0.762338 0.0139868 -0.647028
0.00404932 -0.145907 0.411273 0.80905 0 0.587739
-0.00688241 -0.161195 0.10725 -0.993131 -0.10585 0.049859
0.000594214 0.422567 0.0541889 -0.29148 -0.675092 0.677709
0.0353761 -0.00551131 0.12367 -1 0 0
0.0157937 -0.329759 0.180955 -0.290082 0.795665 -0.531761
0.00125694 0.277849 0.0181158 -0.291487 0.249368 0.923499
-0.0242334 0.0414594 0.178843 -1 0 0
0.0157902 -0.326553 0.172431 0.343504 0.183187 0.921112
-0.00677395 -0.452618 0.0812074 -0.993134 0.0960863 0.0667219
0.0218586 0.0212947 0.138955 1 0 0
-0.00571784 -0.46922 0.236432 -0.291404 0.92352 -0.249389
-0.00160015 0.288225 0.315114 0.790617 0.608264 0.0702887
-0.0944522 -0.354233 0.41009 -0.48977 0.525088 0.695994
0.000755576 -0.02617 0.199803 -0.30907 0.643735 0.700058
0.0930086 -0.359595 0.470293 0.920882 -0.255683 0.294283
0.0401891 -0.0208497 0.106463 0 0.707104 -0.70711
0.00499986 0.446642 0.28616 0.808027 0.418185 0.414987
-0.00414924 -0.1489 0.40714 -0.309056 0 -0.951044
0.0913349 -0.366828 0.411649 0.11274 -0.791224 -0.601044
0.00397229 -0.191844 0.411379 0.80905 0 0.587739
0.0255968 0.255063 0.172231 -0.320174 -0.0423818 0.94641
0.00482346 0.444152 0.279556 0.736375 -0.554969 -0.386991
-0.032361 0.232973 0.241353 -0.986949 -0.157257 -0.0346644
0.0186548 -0.278318 0.265344 0.888001 0.449745 -0.0958311
-0.00704672 0.298679 0.267081 -0.342651 -0.91943 -0.192973
-0.00284593 0.00172187 0.406716 -0.309065 -1.89846e-07 -0.951041
-0.0242334 0.055224 0.191487 -1 0 0
-0.00272655 0.188222 0.0721607 -0.334622 0.779875 0.528983
0.00545015 0.145093 0.159334 0.8078 -0.58741 -0.0490744
0.0260169 0.200919 0.268185 0.956087 0.0988546 0.275909
0.00366849 -0.0663845 0.233243 0.809012 0.397862 0.432672
-0.00399529 0.0226129 0.225502 -0.30831 -0.945572 0.104107
0.00379567 0.0425647 0.334598 0.808995 0.584282 -0.064349
0.0116793 0.093213 0.158462 0.795669 -0.146421 0.587769
0.0347864 -0.292103 0.47741 -0.00192798 -0.528454 -0.84896
0.00565861 0.177562 0.0806366 1 0 0
-0.00352318 -0.150604 0.119949 -0.307986 0.918021 -0.249764
-0.0044861 -0.229755 0.411509 -1 0 0
0.018856 -0.278851 0.333288 0.856195 -0.514696 0.04491
-0.0176734 0.176833 0.164315 0.792617 0.0539629 0.607328
0.0352049 0.0852563 0.481553 0.9439 -0.325494 -0.0557402
-0.00202852 0.477194 0.161919 -0.334708 -0.937413 0.0960643
-0.00439053 0.434864 0.173636 -0.34224 -0.0291142 -0.939161
-0.00143569 0.194377 0.073416 -0.288917 -0.68443 0.66939
-0.0468121 0.0587529 0.195668 0 0 -1
-0.0248367 0.187768 0.166761 -0.291763 -0.120274 0.948899
-0.00380797 0.153055 0.198507 -0.291532 0.952757 -0.0852224
-0.00650964 -0.415149 0.0458344 -0.993776 0.065244 0.0902943
-0.00248908 0.254206 0.0240703 -0.334611 0.4109 0.848055
-0.0301735 0.260602 0.223914 0.882716 0.354326 0.308651
-0.00755329 -0.40419 0.185678 0.343468 -0.028965 0.938718
0.0147633 0.164278 0.290832 -0.991021 0.132508 0.017856
-0.0166798 -0.28331 0.277435 0.931672 -0.362959 0.0157504
-0.0044861 -0.242733 0.411894 -1 0 0
0.00438163 -0.161 0.101317 0.808004 0.533016 -0.251044
0.0146749 0.330159 0.168989 -0.568204 0.419393 -0.707993
0.0200297 -0.267409 0.370058 0.979637 0.200331 -0.0133447
-0.0100771 0.252625 0.143138 -0.342682 -0.293848 0.892313
0.016311 -0.26138 0.373615 0.329749 0.943685 -0.0269087
0.00449212 -0.472405 0.129094 0.736437 0.653788 0.173842
0.00074307 -0.176036 0.0728778 0.308083 0.777212 -0.54866
-0.0044861 -0.167467 0.40736 -1 0 0
-0.0223739 -0.275334 0.289358 -0.949108 0.313962 -0.0249244
-0.00909711 0.116575 0.32835 0.955842 -0.0911937 -0.279372
-0.000194879 0.0169294 0.47917 -0.184498 0.0329082 0.982282
-0.00448317 -0.227816 0.109288 0.878438 -0.38782 -0.279181
0.0218452 0.149872 0.20108 0.999788 0.0195957 -0.00636551
-0.00591496 -0.0295813 0.190829 -1 1.07631e-05 1.22261e-05
0.00219256 0.186932 0.0576066 0.307836 -0.675351 -0.670177
0.006723 0.235872 0.120611 -0.791413 0.34208 -0.506603
-0.0180238 0.125222 0.327125 -0.593941 0.441849 0.672312
-0.00490392 -0.287339 0.489191 -1.42393e-05 -0.00128 0.999999
-0.00591487 0.0397792 0.33246 -1 0 0
0.00456028 -0.474549 0.220554 0.731982 0.657394 -0.178987
0.0934124 -0.364165 0.465059 0.920882 -0.255683 0.294283
-0.0128543 -0.332345 0.143023 -0.762703 -0.64672 -0.00608599
0.0813917 -0.36502 0.453022 -0.973018 0.216236 -0.0804815
-0.00587822 -0.295864 0.084305 0.96878 -0.237347 0.0716365
-0.00407628 -0.396017 0.0247 -0.30801 -0.405388 -0.860692
-0.0198693 0.171837 0.158567 -0.319251 0.0373708 -0.946933
-0.000551258 -0.383473 0.0175653 0.30801 -0.405374 -0.860698
0.00920395 0.261533 0.220627 -0.341698 -0.732215 -0.589155
-0.00496826 0.0490251 0.462468 -0.309041 -0.945334 0.1041
0.0218586 0.0547909 0.146826 1 0 0
0.00577742 -0.283666 0.0116103 1 0 0
0.0277156 0.252001 0.217494 -0.59422 -0.452461 -0.664968
0.00512297 0.0443453 0.367453 0.808995 0.584282 -0.064349
-0.0176075 -0.286595 0.290042 0 -0.986048 0.166461
-0.0312974 -0.308293 0.193166 0.922401 0.251639 -0.293008
0.00256249 -0.172059 0.407202 0.80905 4.96125e-07 -0.587739
0.0382723 0.00639953 0.133712 0 0.707104 -0.70711
-0.00689046 -0.471853 0.243845 -0.993133 0.105835 -0.0498528
0.00366588 -0.0291306 0.189463 0.808971 -0.397901 -0.432714
-0.0036936 0.437907 0.124461 -0.790962 0.244271 0.560992
0.0225876 0.171313 0.290775 0.930972 0.148627 0.33347
-0.00358738 -0.407192 0.0307933 -0.307816 -0.548692 -0.777294
0.000259985 -0.043927 0.215913 -0.30907 0.643735 0.700058
-0.00357182 0.389335 0.0300233 -0.334698 -0.385522 0.859854
0.0224186 0.120645 0.199237 0.999806 0.0197191 0
0.00577742 -0.413756 0.043435 1 0 0
0.0183253 0.0496103 0.201601 -0.999949 -0.01008 0
-0.00407976 0.220518 0.0976631 0.9687 0.227737 -0.098777
-0.0143402 0.319894 0.173371 0.00429468 0.999991 0
-0.0355656 0.261995 0.167383 -0.303744 0.040625 -0.951887
-0.000725322 -0.157851 0.180128 -0.3422 -0.0291246 -0.939176
-0.00456428 0.316963 0.0116794 -0.291549 -0.0815236 0.953076
-0.0822261 -0.367862 0.460884 0.923886 -0.346875 0.161592
-0.0138823 0.327262 0.156045 0.976815 -0.14642 -0.156184
-0.00640747 0.153232 0.207881 -0.993773 0.107185 -0.0304335
-0.0858656 -0.384455 0.457746 0 0.0186588 -0.999826
0.00087353 -0.188331 0.405507 -0.309065 -1.89846e-07 -0.951041
-0.00655726 -0.430327 0.29923 -0.993777 0.0775864 -0.0799235
-0.0825394 -0.300526 0.477206 0.265497 -0.0178582 -0.963946
0.0237056 0.237995 0.23959 -0.987436 0.151672 0.0443328
-0.035206 0.302491 0.190219 0.882716 0.354326 0.308651
-0.00195196 -0.0160237 0.473992 0.0540001 -0.325173 0.944111
0.0907546 -0.346542 0.395864 0.168718 -0.48256 -0.859459
-0.0110643 0.29044 0.117421 -0.762409 0.49103 -0.421452
0.0112224 -0.263591 0.157212 0.976928 -0.0241896 -0.212195
-0.0268074 0.19189 0.267083 -0.989727 -0.142284 -0.0139644
0.00577742 -0.150108 0.216051 1 0 0
0.0246997 0.0338156 0.157964 0.00234951 0.951054 0.309015
-0.012097 0.358588 0.178847 -0.791213 0.0365214 -0.610449
0.0634958 -0.0230272 0.103733 0 0 -1
0.0215292 0.13921 0.197336 0 -6.99786e-05 -1
0.00798854 -0.0050184 0.477104 0.0400208 -0.183624 0.982181
0.000429188 -0.0875493 0.2561 -0.30907 0.643735 0.700058
-0.00588236 -0.457599 0.274744 -0.807885 -0.481449 0.339895
0.00577742 -0.391473 0.0289584 1 0 0
-0.011425 0.3146 0.2248 -0.791146 0.607601 -0.0700651
0.0103141 -0.36478 0.225289 0.762255 -0.56016 -0.324327
-0.0374918 0.0940675 0.479731 -0.9288 -0.369933 0.0219054
0.00227484 0.157527 0.135092 0.736429 0.653797 0.173841
-0.0067013 0.316045 0.0082737 -0.993775 -0.00806315 0.11111
-0.00682473 0.226183 0.0325973 -0.993137 0.0674592 0.0955425
-0.0116535 -0.316402 0.183085 0.027992 0.308778 0.950722
-0.00622215 0.299527 0.269299 0.790617 0.608264 0.0702887
0.00424726 -0.395403 0.268186 -0.878238 0.429425 0.210457
0.000117127 -0.187876 0.298742 0.308192 0.675231 0.670135
0.00520638 -0.264258 0.377977 0.800175 0.599767 -1.69308e-06
-4.25698e-05 -0.164803 0.32693 -0.30907 0.643735 0.700058
0.00876853 0.353275 0.231107 -0.790513 -0.495518 0.359932
-0.0891714 -0.377384 0.457878 0 0.0186588 -0.999826
-0.0890945 -0.392112 0.41662 -0.951143 0.291934 -0.100506
-0.0219714 -0.277094 0.349724 -0.990138 -0.139908 0.00722457
0.00417003 0.452671 0.266063 0.73195 -0.559707 -0.388558
0.0160352 0.303517 0.153015 0 -0.151995 0.988381
-0.0044861 0.00497083 0.411566 -1 0 0
-0.0325175 0.282731 0.169237 0.793897 0.15551 -0.587831
0.00474737 -0.180001 0.330217 0.808982 -0.397891 -0.432702
-0.00663925 0.177249 0.277062 -0.808104 -0.481181 0.339754
-0.00148587 0.0532468 0.375798 0.929293 -0.144492 -0.339906
-0.00670861 -0.339262 0.34804 -0.808069 -0.0490437 0.587043
-0.00645661 0.0411283 0.153826 -0.291763 -0.120274 0.948899
-0.00188992 0.0301548 0.300239 -0.30831 -0.945572 0.104107
0.00141994 -0.236489 0.40563 0.80905 4.96125e-07 -0.587739
-0.00591487 0.020901 0.167849 -1 0 0
0.00331305 0.376242 0.338699 0.807998 0.251052 0.533021
-0.00383681 0.470877 0.0983157 -0.308058 0.860679 -0.405379
0.00441251 -0.276728 0.406906 0.800141 -0.599812 7.26602e-07
-0.0064392 0.150931 0.190243 -0.993774 0.110835 -0.0113579
0.0097573 -0.387279 0.174623 0.290228 -0.266429 0.919121
-0.00588447 0.39363 0.109726 0.790788 0.363868 0.492193
-0.00516883 0.0403785 0.30697 -0.309413 0.94521 -0.104119
-0.00648308 0.293351 0.0119346 -0.993773 0.0113553 0.110842
0.0250327 -0.291034 0.225194 -0.979398 0.0415503 -0.197618
0.0186303 0.00301869 0.19978 -1 0 0
0.0200374 0.238746 0.197329 0 -6.99786e-05 -1
0.0160435 0.306179 0.198229 1 0 0
0.0298823 -0.316885 0.182019 0.0280005 0.309051 0.950633
0.00565861 0.234185 0.0269525 1 0 0
-0.00682385 0.148514 0.149394 -0.993134 0.116579 0.00973947
0.00713579 0.0916143 0.344506 -0.505885 -0.493979 -0.707152
0.000921878 -0.183718 0.41503 -0.309056 6.67635e-08 0.951044
-0.00688577 -0.255348 0.339106 -0.80791 0.251104 0.533131
0.00545483 0.277086 0.0620508 0.968782 0.171603 -0.178923
-0.000941843 0.319837 0.174724 0.00429468 0.999991 0
-0.00680555 -0.364132 0.0170193 -0.993136 0.0307168 0.112861
-0.0024588 -0.400911 0.0397655 -0.334603 0.551933 0.763813
0.0196785 0.106207 0.202248 0 0.0101543 0.999948
0.00377485 -0.220105 0.0448293 0.736324 -0.387025 0.555013
-0.00524577 -0.211441 0.356222 -0.309068 -0.643737 -0.700057
-0.0252648 0.220074 0.256401 0.882716 0.354326 0.308651
0.00465819 -0.328132 0.0141895 0.731941 0.0621078 0.678532
0.0438366 -0.0257989 0.103733 0 0 -1
0.00627071 0.0657264 0.149552 -0.267474 0.114001 -0.956798
0.00860575 0.11564 0.154868 -0.301629 0.117058 -0.946212
0.0194856 -0.264713 0.370589 0.979637 0.200331 -0.0133447
0.000421729 -0.0349513 0.191429 -0.309068 -0.643737 -0.700057
-0.0104631 0.274653 0.212516 0.791542 0.420138 0.443786
0.00390283 -0.435958 0.197285 -0.976783 0.0508513 -0.208108
-0.0329034 0.268108 0.220064 -0.50254 0.485085 0.715644
-0.00197778 -0.169769 0.252728 -0.334666 -0.859866 -0.385524
0.00212458 0.194793 0.100773 -0.968839 -0.0175238 0.247072
0.00438631 -0.153482 0.144792 0.736277 -0.653272 0.176441
0.00341062 -0.10916 0.412152 0.80905 0 0.587739
0.000114908 0.261943 0.329359 -0.33467 0.230355 -0.913746
0.00158314 0.466474 0.23371 0.73634 -0.613774 -0.284753
-0.0114482 0.105083 0.331095 -0.301439 -0.613157 -0.730187
-0.00595326 0.368938 0.264464 -0.790945 -0.510071 0.337985
0.00673003 -0.40394 0.233456 0.791181 -0.331506 -0.513942
-0.00198136 -0.308417 0.341693 -0.334704 -0.0960618 -0.937414
0.0202029 -0.28111 0.264501 0.716328 0.695172 -0.0600832
-0.00455074 -0.139299 0.289577 -0.309068 -0.643737 -0.700057
-0.00691774 0.152408 0.221382 -0.993133 0.112887 -0.0307235
-0.00657227 -0.309473 0.0117517 -0.993776 -0.00804839 0.111103
0.0388058 0.0987394 0.491929 0.248625 -0.426562 0.869615
0.0205852 0.184358 0.197332 0 -6.99786e-05 -1
-0.00240442 -0.246269 0.0183511 -0.308184 0.398721 -0.863739
-0.00945742 0.286167 0.112696 0.968755 -0.135859 0.207499
0.0046985 0.190285 0.28467 0.736339 0.477502 -0.47937
-0.00598884 0.290482 0.00528958 -0.808097 -0.0536381 -0.586603
-0.00133157 0.409104 0.0282084 -0.307717 0.542769 -0.78148
0.00346274 0.218345 0.319649 0.808066 -0.336026 0.483855
-0.00591487 -0.173583 0.325936 -1 0 0
0.0223574 0.179656 0.288484 0.956087 0.0988546 0.275909
0.00206346 -0.362536 0.0491626 -0.968898 -0.172004 0.177909
0.0218586 0.00948415 0.192504 1 0 0
-0.0341241 0.290968 0.175807 0.808604 0.0574494 0.585541
-0.00697281 0.221217 0.176303 0.790751 0.0364326 0.611053
-0.000413531 0.466819 0.172475 0.568505 0.000548114 0.82268
0.00565861 0.204652 0.045429 1 0 0
0.00609655 -0.409721 0.121567 0.968728 0.0165557 -0.247572
0.00515672 -0.124889 0.284258 0.809014 0.397861 0.43267
0.003204 -0.261587 0.439559 0.800181 0.599759 0
0.00768482 -0.274606 0.470318 0.950622 0.0188096 -0.309782
-0.00677411 0.219541 0.0378136 -0.993137 0.0674592 0.0955425
-0.0276806 0.252226 0.220489 0.955842 -0.0911937 -0.279372
0.00525164 0.0809119 0.35333 -0.505885 -0.493979 -0.707152
-0.0128438 0.323558 0.137256 -0.34251 0.798014 0.495843
-0.00128873 0.465587 0.171553 -0.34224 -0.0291142 -0.939161
-0.00539916 0.170767 0.0805597 -0.807909 -0.484031 -0.336149
-0.0208054 0.195696 0.262465 0.955842 -0.0911937 -0.279372
0.00204459 -0.0504766 0.40649 0.80905 4.96125e-07 -0.587739
0.00288906 0.039036 0.291175 0.808773 0.584585 -0.0643918
0.0159694 0.320252 0.182642 0.878347 0.39111 0.274845
0.0265792 0.214788 0.261267 0.956087 0.0988546 0.275909
0.0244164 -0.0227033 0.144675 1 0 0
-0.00591487 0.0411427 0.374113 -1 0 0
0.0940359 -0.371965 0.430569 0.929068 -0.356644 -0.0981681
0.00578773 -0.385393 0.103414 -0.762181 0.566899 -0.312579
-0.00156117 -0.193302 0.304097 -0.307702 0.675344 0.670247
-0.0410837 0.0737944 0.198726 0 1 0
-0.0851024 -0.371812 0.456865 0.0481256 -0.905362 0.421905
-0.018157 0.0277969 0.46284 -0.980465 -0.195166 0.0244795
-0.00458337 0.335202 0.060977 0.968801 -0.237255 0.0716497
0.0123609 0.350402 0.185619 0.342057 0.142827 -0.928761
0.0156495 0.0839934 0.490388 0.152405 -0.413804 0.897518
0.019668 0.0530092 0.109034 0 0.161263 -0.986911
-0.0332959 0.288809 0.174875 0.808604 0.0574494 0.585541
0.0879452 -0.376654 0.433604 -0.0498172 -0.960017 -0.275473
0.00577742 -0.469869 0.244394 1 0 0
0.00367424 0.357963 0.0575012 -0.790754 0.559159 0.249097
0.00213657 -0.46357 0.24419 0.73637 0.61264 -0.287109
-0.0112488 0.312115 0.217489 0.968589 0.199329 -0.148671
0.00314302 -0.427164 0.31224 0.307888 -0.670174 0.675331
0.0138097 -0.291494 0.489188 1.57602e-05 -0.00042715 1
-0.00500753 0.0467789 0.441954 -0.309041 -0.945334 0.1041
0.000739934 -0.21044 0.303221 -0.291496 -0.550186 -0.782512
0.00118401 0.168047 0.0815404 0.308059 -0.781398 -0.542694
0.00923023 0.100276 0.159698 -0.285337 -0.0482073 0.957214
0.00577742 -0.246973 0.332487 1 0 0
-0.0025136 0.473762 0.138325 -0.334579 -0.906529 0.257415
-0.0217091 -0.28194 0.246623 -0.529993 0.830111 -0.173273
-0.0377199 -0.318126 0.184033 0.0273257 -0.308784 0.95074
-0.00150798 -0.19962 0.064058 -0.291532 -0.675089 0.67769
0.0671056 -0.0297079 0.110438 0 0 1
0.0109128 0.122558 0.155026 -0.267474 0.114001 -0.956798
-0.000338966 -0.162351 0.0923051 0.308057 0.860699 -0.405338
-0.00457799 0.298418 0.348629 -0.308149 -0.0792769 0.948029
0.0496614 -0.0255815 0.103733 0 0 -1
-0.0123252 0.333722 0.200578 0.968612 0.0570707 -0.241937
0.0931998 -0.315144 0.395723 0.907271 0.134088 0.398596
-0.0148766 -0.329323 0.172454 0.342994 -0.929665 0.134455
-0.00615244 -0.361662 0.0947727 0.762552 -0.491666 0.420451
-0.00415281 -0.18087 0.327627 -0.309068 -0.643737 -0.700057
-0.0204389 0.310911 0.177338 -0.00346423 -0.808941 0.58788
-0.080808 -0.344258 0.475161 0.944013 -0.122925 0.306151
-0.00678454 -0.183403 0.0725702 -0.993776 -0.0902933 0.0652438
-0.00638929 -0.157202 0.129238 -0.993773 -0.107191 0.030433
0.00389195 0.18639 0.059929 0.808021 -0.418193 -0.41499
0.00381076 -0.282815 0.37942 0 0 1
-1.92169e-05 -0.278729 0.381522 -0.300349 -0.953829 -2.728e-07
0.00761185 0.0997184 0.338504 -0.505885 -0.493979 -0.707152
0.0189418 0.0643174 0.197341 0 -6.99786e-05 -1
-0.0406184 0.0559325 0.196209 0 -1 0
-0.0357816 0.269045 0.167768 -0.319251 0.0373708 -0.946933
-0.011512 0.266532 0.180037 0.287319 0.414264 0.863616
-0.0393449 0.313609 0.1774 -0.176838 0.98424 2.0938e-06
0.0121722 -0.272604 0.362109 -0.985165 -0.171505 0.00593816
-0.00186483 0.438086 0.051805 -0.3079 0.670171 -0.675328
-0.0395142 0.288425 0.174954 -0.991297 -0.130762 -0.0151962
0.00565861 0.232007 0.0302613 1 0 0
0.0313566 0.284838 0.191897 -0.59422 -0.452461 -0.664968
-0.00227437 0.480761 0.120299 -0.307986 0.918021 -0.249763
0.00462853 -0.247012 0.020714 0.807979 0.246951 -0.534963
0.00988442 0.369537 0.154975 -0.761935 -0.012693 0.647529
-0.0044861 -0.245101 0.412447 -1 0 0
-0.00720834 -0.354925 0.103574 0.976925 0.211944 -0.026415
0.0125325 0.101197 0.153555 0.760787 -0.0373888 -0.647923
-0.0913309 -0.328464 0.477563 -0.569661 0.225962 -0.790207
-0.00531491 -0.153042 0.150473 -0.291501 -0.95277 0.0851887
-0.0152436 0.121798 0.154918 -0.254323 0.0489704 -0.965879
0.00577742 -0.197696 0.0557492 1 0 0
0.00579163 -0.164321 0.31933 0.809014 0.397861 0.43267
-0.0223126 -0.26842 0.374155 -7.14142e-05 -0.00194773 0.999998
-0.00549491 0.394312 0.329059 -0.808078 0.251041 0.532906
0.0220599 0.055947 0.202758 0 0.0101543 0.999948
-0.00353714 0.438136 0.124582 -0.790962 0.244271 0.560992
0.017972 0.312516 0.154399 0 -0.151995 0.988381
-0.00677416 0.468489 0.24315 -0.993772 -0.101677 -0.0455965
0.0160435 0.312998 0.18382 1 0 0
-0.00591487 0.0412829 0.37934 -1 0 0
-0.00146437 0.0514541 0.376619 0.929293 -0.144492 -0.339906
0.0228525 0.0986428 0.200833 0.999806 0.0197191 0
-0.0069159 0.482767 0.156079 -0.993134 -0.116498 0.0106535
-0.00591487 0.0319427 0.251428 -1 0 0
0.00407822 0.151293 0.11973 0.807906 -0.569826 -0.150289
-0.0258908 0.0649334 0.481462 -0.293463 -0.244923 0.924063
0.0454595 -0.0260158 0.110438 0 0 1
0.0129728 0.285146 0.146741 0.343331 -0.451769 0.823425
0.00140931 -0.368752 0.0328993 0.968787 0.171582 -0.178915
-0.0348734 -0.316021 0.174023 -0.0273258 0.308784 -0.95074
0.0178728 0.186017 0.160641 -0.267474 0.114001 -0.956798
0.0177804 0.263113 0.146802 0 -0.151995 0.988381
0.0868894 -0.307691 0.488572 0.0316438 0.0415876 0.998634
-0.0340609 -0.299566 0.213204 -0.894718 0.444285 0.0457281
-0.00602586 0.34341 0.0135095 -0.334663 -0.230331 0.913755
0.0233042 -0.0288758 0.163315 -0.15213 -0.975663 0.157917
0.0363678 0.281381 0.199304 0.884299 -0.347906 -0.31141
0.00295195 -0.266833 0.412784 0.80905 0 0.587739
0.00534136 0.0267834 0.21074 0.808773 0.584585 -0.0643918
0.00351069 0.437139 0.0526959 0.808056 0.414963 -0.418152
-0.00220807 0.47845 0.175313 -0.291631 -0.953052 -0.0815002
-0.0316319 -0.312893 0.176562 -0.0162103 0.808983 -0.587608
-0.00740008 -0.22955 0.208495 -0.342413 -0.349761 0.872021
0.0219323 -0.265342 0.37942 0 0 1
-0.0149467 0.143011 0.31536 0.882716 0.354326 0.308651
-0.0049966 -0.35313 0.00971689 -0.8079 -0.154721 -0.568647
0.0752807 -0.290019 0.488471 0.275174 0.533216 0.799975
0.00493116 0.287403 0.345332 0.807793 -0.0490752 0.587419
-0.00215394 -0.0833421 0.237064 -0.309068 -0.643737 -0.700057
-0.00591487 -0.0830111 0.247782 -1 0 0
0.0148754 -0.312163 0.19462 -0.288183 -0.858959 -0.423249
-0.00155297 0.30092 0.349821 -0.308076 -0.0792893 0.948052
-0.0192839 -0.270538 0.289292 0 0.979087 -0.203442
-0.00289053 -0.217726 0.267818 0.341967 -0.580378 0.739067
-0.0115438 0.0757938 0.361707 -0.986949 -0.157257 -0.0346644
-0.00226323 -0.261437 0.33299 -0.29164 -0.249354 -0.923455
-0.00591487 -0.0414039 0.210255 -1 0 0
0.0299924 0.241734 0.225494 0.884299 -0.347906 -0.31141
0.00130354 0.03975 0.28204 -0.309041 0.945332 -0.104122
0.0810798 -0.340797 0.476669 -0.929027 0.18754 -0.318964
0.00865295 -0.266684 0.112901 0.976809 0.204257 0.0642131
-0.000564907 -0.290269 0.0293071 0.762707 -0.646716 0.00608307
0.00132094 -0.0914027 0.405493 0.80905 4.96125e-07 -0.587739
-0.00269112 0.0456792 0.438844 -0.309041 -0.945334 0.1041
-0.0193926 0.135266 0.315375 -0.986949 -0.157257 -0.0346644
-0.00322732 0.478152 0.167093 -0.334708 -0.937413 0.0960643
-0.00458088 -0.15622 0.249146 -0.807886 0.535066 0.24703
0.00606588 0.0261068 0.213703 0.808995 0.584282 -0.064349
-0.0325327 0.256108 0.212667 -0.410844 -0.597454 -0.688663
-0.00032561 -0.0766785 0.230129 -0.309068 -0.643737 -0.700057
0.000229991 0.226724 0.0395717 -0.29154 0.550182 0.782499
-0.0435835 -0.285992 0.488614 -0.000427961 0.491284 0.870999
-0.00959068 0.249542 0.186202 0.790465 -0.173786 -0.587335
0.00266388 -0.400545 0.317647 0.731953 0.388572 -0.559693
0.0116672 0.302771 0.12465 0.343231 -0.875392 0.340414
0.0287144 0.280228 0.204674 -0.991021 0.132508 0.017856
-0.0155482 -0.269043 0.318743 0.928239 0.357924 -0.101302
0.0124451 0.30419 0.216437 0.968553 -0.223432 0.109472
0.00338712 -0.232858 0.376279 0.808982 -0.397891 -0.432702
0.0218586 0.0171483 0.145384 1 0 0
0.0224197 -0.0227036 0.14564 -0.122972 0.976045 0.179481
0.034529 0.286715 0.188252 0.816053 -0.414747 -0.402545
-0.0496788 0.058805 0.202373 0 0 1
0.0184427 0.0788428 0.118464 0 -0.151995 0.988381
0.0104133 0.0773905 0.156234 0.795669 -0.146421 0.587769
-0.00653442 -0.482062 0.179243 -0.993774 0.111118 0.00805771
0.00565861 0.172689 0.0867794 1 0 0
-0.0520945 0.0574997 0.195668 0 0 -1
0.00136769 0.0289407 0.298858 -0.30831 -0.945572 0.104107
-0.0908483 -0.358632 0.458308 -0.6714 0.550752 -0.495877
0.00103154 0.29702 0.00214888 0.308077 -0.0865312 -0.947418
-0.00494411 -0.375204 0.271938 0.976925 -0.128852 -0.170338
0.0034248 0.429372 0.058333 0.731936 -0.479862 0.483738
0.0318748 0.306202 0.187325 -0.991021 0.132508 0.017856
0.003061 -0.0104181 0.182915 0.809012 0.397862 0.432672
-0.00452467 0.028707 0.199099 -0.309413 0.94521 -0.104119
0.0273991 -0.289731 0.489189 -1.42393e-05 -0.00128 0.999999
-0.00565003 0.144758 0.206524 -0.807955 -0.568576 0.154691
-0.0044861 -0.0026353 0.410246 -1 0 0
-0.00409238 -0.466535 0.241003 -0.334488 0.848105 -0.410896
-0.00245499 -0.296885 0.470188 4.01297e-05 -1 -0.000123513
-0.00542405 -0.358662 0.0206338 -0.334676 0.257392 0.906499
-0.00454282 -0.429117 0.0471132 -0.807903 -0.418308 -0.415103
-0.00591487 0.0433831 0.380564 -1 0 0
-0.00695532 -0.407116 0.321974 -0.993136 0.0667123 -0.0960745
-0.0162189 -0.330032 0.179988 -0.968709 -0.247732 -0.0151886
-0.0210626 0.0256184 0.163279 0 -0.70711 0.707103
-0.0882847 -0.392968 0.469127 0 -0.999936 0.011303
-0.00648807 0.457516 0.0911299 -0.993778 -0.100226 0.0485733
-0.0377292 0.300942 0.176871 -0.410844 -0.597454 -0.688663
0.031456 0.263604 0.224711 -0.301224 0.60374 0.73808
0.0218586 0.041457 0.17474 1 0 0
0.0911537 -0.362173 0.470653 0 0.785945 -0.618297
-0.00432886 -0.10132 0.266662 -0.309028 0.643744 0.700068
0.00980325 0.0665984 0.373137 0.930972 0.148627 0.33347
-0.00652328 -0.446861 0.280504 -0.993777 0.0902874 -0.0652398
0.0332417 -0.296634 0.482771 -2.54112e-05 -0.94414 -0.329544
-0.00591487 0.0346377 0.307881 -1 0 0
-0.00684893 -0.199872 0.0544426 -0.993135 -0.0823906 0.0830364
0.0240283 0.0116288 0.148423 0.070236 -0.5863 -0.807044
-0.000483545 -0.209146 0.318168 0.307868 0.548686 0.777278
0.00448262 0.418756 0.312939 0.808092 0.33971 0.481232
0.00501215 0.210938 0.311919 0.807831 -0.336165 0.48415
0.0822407 -0.349853 0.39969 -0.924492 -0.191754 -0.329462
0.0077616 -0.267667 0.424413 0.800181 0.599759 0
0.00483134 -0.263329 0.480294 0.611927 0.79091 0.0024551
-0.00117 -0.46627 0.239171 -0.334488 0.848105 -0.410896
-0.00654756 -0.16506 0.105817 -0.993778 -0.100234 0.0485719
0.0287143 0.249664 0.234929 -0.41422 0.586977 0.695615
-2.76396e-05 -0.196632 0.30763 0.308192 0.675231 0.670135
0.00352524 -0.0930244 0.411994 0.80905 0 0.587739
0.0134995 -0.299976 0.15613 0.342703 -0.889603 -0.30193
0.00100166 0.434879 0.302494 0.307857 0.675342 0.670177
0.00263055 -0.192325 0.350992 0.809012 0.397862 0.432672
-0.00591489 -0.0491814 0.214411 -1 1.07631e-05 1.22261e-05
0.00677789 -0.266355 0.378998 0.800175 0.599767 -1.69308e-06
-0.00493817 -0.00578299 0.178543 -0.309028 0.643744 0.700068
0.00056342 -0.0804641 0.405608 -0.309065 -1.89846e-07 -0.951041
-0.0239663 0.215845 0.245218 0.929293 -0.144492 -0.339906
-0.00180991 -0.185811 0.131738 0.968888 -0.0282924 0.245879
0.00761233 -0.267468 0.400039 0.800181 0.599759 0
0.0111865 -0.369497 0.17769 -0.288456 0.267673 -0.919317
-0.0304368 0.24388 0.164973 -0.319251 0.0373708 -0.946933
0.0218586 -0.00466222 0.174898 1 0 0
0.0251957 0.207424 0.162294 0.760787 -0.0373888 -0.647923
0.000890663 0.414783 0.0500888 0.76214 -0.40537 -0.504796
0.00553701 0.176705 0.0757929 0.807829 -0.484145 -0.336178
-0.0149554 0.289404 0.169374 -0.976846 -0.0118379 0.213618
0.00022236 -0.256615 0.343926 0.308199 0.249702 0.917966
-0.081903 -0.367763 0.416981 0.929258 -0.315217 -0.192659
-0.034002 0.296743 0.18433 0.955842 -0.0911937 -0.279372
-0.0242334 0.0315875 0.164989 -1 0 0
-0.00106167 0.318408 0.170601 0.00346486 0.809088 -0.587678
-0.0409601 0.298241 0.186531 -0.989727 -0.142284 -0.0139644
0.0205008 0.207386 0.197331 0 -6.99786e-05 -1
-0.0161976 0.321854 0.178828 -0.761916 0.60657 0.22706
0.0218586 0.0598755 0.152494 1 0 0
-0.0902478 -0.365581 0.437359 -0.705434 0.702987 -0.0903988
0.013144 -0.277746 0.345549 -0.855258 -0.518119 -0.00935242
-0.0046176 -0.257058 0.0719305 -0.976924 0.211944 0.0264198
0.00566368 -0.276194 0.0771558 0.342703 -0.889603 -0.30193
0.0807227 -0.370837 0.435457 -0.9444 -0.328569 0.0122688
0.00411053 -0.0822961 0.247048 0.809012 0.397862 0.432672
0.0341882 0.268802 0.215547 0.956087 0.0988546 0.275909
0.00817773 -0.26309 0.37942 0 0 1
0.00429668 -0.263988 0.37942 0 0 1
0.00197133 -0.358004 0.00993525 0.307853 -0.249791 -0.918058
0.0716341 -0.032669 0.108332 1 0 0
-0.00591487 -0.172712 0.329279 -1 0 0
0.000296613 0.474424 0.171634 0.878375 -0.117634 -0.463271
-0.00277684 -0.289922 0.489189 1.57602e-05 -0.00042715 1
-0.0044861 -0.0348045 0.407546 -1 0 0
-0.00484345 -0.463304 0.248283 -0.334488 0.848105 -0.410896
-0.0393011 -0.314154 0.182887 0.0179852 0.808959 0.58759
-0.010546 0.307186 0.236583 -0.968798 0.198456 0.148479
-0.0107599 0.313205 0.222092 0.968589 0.199329 -0.148671
0.00565861 0.158068 0.115572 1 0 0
-0.00660519 -0.219277 0.31587 -0.993131 -0.0674886 -0.0955868
-0.0120158 0.312765 0.216913 -0.341517 0.920079 -0.191889
0.0055728 -0.201791 0.050629 0.807831 0.415149 -0.418403
0.0049271 0.0214758 0.189673 0.80868 -0.584714 0.0643962
-0.0044861 -0.0773509 0.411389 -1 0 0
0.00632641 -0.26465 0.456759 0.808857 0.587796 -0.0157273
-0.00619091 0.416393 0.174864 -0.34224 -0.0291142 -0.939161
0.000705011 -0.482527 0.129426 0.308224 -0.919825 -0.242733
-0.000455864 -0.1536 0.180965 -0.762046 0.119472 0.636406
-0.0216845 -0.270568 0.372715 0 0 -1
-0.0046631 -0.29403 0.467335 -0.83305 -0.0741206 -0.54821
0.00431751 -0.348156 0.0170902 0.736331 0.17638 0.653228
-0.0188526 -0.272927 0.277797 0 0.979087 -0.203442
0.0160468 -0.326736 0.188969 0.79068 0.0766206 -0.607416
-0.00529595 0.28666 0.00468446 -0.808097 -0.0536381 -0.586603
-0.00833489 -0.251605 0.131697 -0.342334 -0.625959 -0.700702
-0.00430591 -0.341476 0.0600806 -0.289673 -0.954358 0.0727342
0.00190864 -0.0427604 0.19871 0.808982 -0.397891 -0.432702
-0.0373147 0.271995 0.168715 -0.991206 -0.13233 0
0.0110578 0.133265 0.315321 -0.991021 0.132508 0.017856
-0.00671172 0.185877 0.0631407 -0.808101 -0.418147 -0.414881
-0.00447497 -0.0544337 0.413277 -0.309052 0 0.951045
0.00604936 -0.143932 0.3001 0.809014 0.397861 0.43267
-0.00696071 -0.201203 0.0517849 -0.993135 -0.0823906 0.0830364
-0.00347482 0.215554 0.0922297 0.878173 0.389366 -0.277859
-0.0358066 0.0898059 0.482428 -0.936506 -0.350652 0.000756225
0.00182367 0.0358178 0.248577 0.808773 0.584585 -0.0643918
-0.00710654 0.301807 0.259509 0.790617 0.608264 0.0702887
-0.00487025 -0.182042 0.290738 -0.808106 0.418148 0.414869
0.00367488 -0.20259 0.244618 0.762339 0.426614 -0.486662
-0.00682338 0.483575 0.173536 -0.993134 -0.116498 0.0106535
0.0158972 -0.312987 0.189912 -0.97677 0.0234323 0.213005
-0.00591487 0.0213791 0.200665 -1 0 0
0.00880517 -0.253386 0.150709 -0.968882 -0.205114 -0.138551
-0.0112593 0.1076 0.501398 -0.0394487 -0.588194 0.807757
0.00311168 -0.262326 0.460673 0.308926 0.950841 -0.0215779
-0.00230132 0.160421 0.227993 -0.291444 0.92351 -0.24938
-0.00591487 0.0476724 0.425106 -1 0 0
-0.0016381 0.46585 0.171739 -0.976799 0.0841641 -0.196925
0.0213248 0.0162187 0.144854 0.070236 -0.5863 -0.807044
0.00859726 -0.286006 0.253822 0.343364 -0.895079 0.284489
-0.033723 -0.298941 0.201097 0.253038 0.862951 -0.437364
-7.56027e-05 -0.46947 0.261032 0.30803 -0.860707 0.405342
0.0131272 -0.283265 0.479282 0.00453445 0.55425 -0.832338
-0.00864316 -0.267082 0.231473 0.790699 -0.421594 0.443907
-0.00694663 -0.287524 0.347059 -0.993135 -0.0106526 -0.116488
-0.0025227 0.379452 0.0537246 0.762224 0.491223 0.421562
-0.00391039 0.242665 0.32234 -0.334677 0.385506 -0.85987
0.0039196 -0.0472972 0.411452 0.80905 0 0.587739
0.0182416 0.160967 0.303274 -0.301224 0.60374 0.73808
0.0934663 -0.374579 0.443303 0.915004 -0.378851 0.138709
0.00547497 0.0344923 0.282414 0.808995 0.584282 -0.064349
0.00515341 0.240164 0.0884087 -0.288961 0.795879 -0.532051
-0.0125168 -0.273209 0.188118 -0.968586 0.181029 -0.170497
0.00420422 0.480283 0.174963 0.736379 -0.673881 0.0602581
0.0239223 0.184834 0.271825 0.884299 -0.347906 -0.31141
-0.0405261 0.307801 0.187254 -0.593941 0.441849 0.672312
0.0201742 0.1599 0.15914 0.760787 -0.0373888 -0.647923
0.0218586 0.027777 0.186223 1 0 0
-0.0220557 -0.283679 0.239354 -0.529993 0.830111 -0.173273
0.0160435 0.298244 0.173645 1 0 0
-0.0138052 0.307841 0.197293 0.289817 0.921634 -0.258062
0.00565861 0.384458 0.0233355 1 0 0
-0.0200377 -0.280185 0.34723 -0.1293 -0.990027 0.0559238
0.00577742 -0.472213 0.116665 1 0 0
-0.0153261 -0.314101 0.191389 0.968567 -0.111804 -0.222212
0.0340314 -0.314759 0.184358 -0.832169 -0.552028 -0.0525255
-0.0122246 0.310863 0.218586 -0.790849 -0.60811 -0.0689942
0.00441085 -0.231991 0.0273181 0.807815 0.24701 -0.535184
0.0206068 0.0212211 0.103839 0 0.161263 -0.986911
0.0048513 0.431793 0.148332 0.968893 0.0730422 -0.236453
-0.00941929 0.330753 0.108991 0.790957 0.594892 0.143147
0.00949365 -0.285568 0.110858 0.976921 -0.154957 -0.147014
0.00225286 0.0389853 0.382279 0.809021 -0.584248 0.0643304
0.0164663 -0.327747 0.178891 0.342493 0.938714 0.0389204
0.00719963 0.0484826 0.153383 0.795669 -0.146421 0.587769
0.0324936 0.26406 0.172845 0.795675 -0.146421 0.58776
-0.0432197 0.0737944 0.196403 0 1 0
-0.00207352 -0.351574 0.337488 -0.291698 0.245745 -0.924403
0.00359571 -0.303107 0.351734 0.808065 0.0535856 0.586651
0.00560666 -0.404802 0.234231 -0.968813 -0.0112024 -0.247538
0.00375193 0.190996 0.150998 -0.762485 0.23328 -0.603488
-0.0163813 0.11488 0.159253 -0.991297 -0.130762 -0.0151962
-0.0127745 0.354146 0.179459 -0.791213 0.0365214 -0.610449
0.0248732 -0.277298 0.376434 0.892836 -0.244253 -0.378398
0.00336656 -0.162305 0.238458 0.732031 -0.618581 -0.285461
-0.00353724 0.310152 0.349948 -0.308149 -0.0792769 0.948029
-0.0127864 -0.343284 0.205811 -0.289196 -0.871487 -0.396076
0.00565861 0.479603 0.140438 1 0 0
0.0201285 0.100374 0.497058 0.133986 -0.404249 0.904782
0.00124144 0.487152 0.14429 0.30783 0.91807 -0.249776
0.0019952 0.0169349 0.406422 0.809035 0 -0.587761
-0.0165646 -0.282257 0.294876 0.931672 -0.362959 0.0157504
0.0234153 0.036406 0.111938 0 -0.151995 0.988381
-0.000403779 -0.170793 0.103895 -0.291536 -0.86615 0.405945
0.0230334 0.0894723 0.197591 0.999806 0.0197191 0
-0.0021676 0.309068 0.0126055 -0.334652 0.0960533 0.937434
-0.00363068 -0.186254 0.279972 -0.334623 -0.779876 -0.528982
-0.0946125 -0.321168 0.395516 -0.942316 -0.025246 -0.333771
-0.00832039 -0.259121 0.235754 -0.568279 0.530212 -0.629233
0.0201519 -0.273978 0.338532 0.987043 -0.160226 0.00857656
-0.0102375 0.374379 0.142322 -0.968522 0.0290022 -0.247232
0.0329634 0.284276 0.208253 -0.41422 0.586977 0.695615
0.0142537 -0.313641 0.162417 -0.976812 0.213639 0.0139985
0.0143207 0.0827164 0.490025 0.152405 -0.413804 0.897518
-0.0135928 -0.34051 0.203073 -0.790803 0.510906 0.337055
0.0320417 0.263122 0.225021 0.956087 0.0988546 0.275909
0.0363587 -0.312916 0.193101 0.881953 -0.354909 0.31016
-0.0039709 0.158067 0.221413 -0.334648 0.9065 -0.257425
0.0245559 0.210834 0.161644 -0.292614 0.115918 -0.949179
0.0170947 0.171891 0.129237 -0.99995 -0.0100442 0
0.00118222 -0.218938 0.415115 -0.309056 6.67635e-08 0.951044
-0.00640731 -0.345179 0.0154899 -0.993777 0.0113566 0.11081
-0.00279811 -0.193359 0.4067 -0.309056 0 -0.951044
0.0220465 0.198197 0.25917 -0.59422 -0.452461 -0.664968
-0.0189944 0.135228 0.319692 -0.593941 0.441849 0.672312
0.0408615 -0.00681224 0.129982 0 -0.707108 0.707105
-0.000206477 -0.240044 0.322802 -0.291468 -0.405956 -0.866168
0.00577742 -0.149366 0.195561 1 0 0
-0.00477868 0.396185 0.329262 -0.807913 0.251102 0.533127
0.0110491 0.344206 0.122121 0.968877 -0.0960891 -0.228134
-0.00584421 0.473866 0.134363 -0.334579 -0.906529 0.257415
0.0205131 -0.0173467 0.130031 0.122881 0.724095 0.678666
0.000458363 0.15578 0.247435 0.30803 -0.860701 0.405354
-0.0940409 -0.338537 0.476389 -0.64877 0.282504 -0.706604
-0.0233293 0.0236874 0.161348 0 -0.70711 0.707103
0.00565861 0.418403 0.307064 1 0 0
0.00245974 0.00259623 0.172072 0.809012 0.397862 0.432672
0.00717279 -0.29678 0.4788 0.997803 -0.0480679 0.0455883
-0.00173459 -0.319712 0.341645 -0.291619 0.081535 -0.953053
-0.0153744 -0.277755 0.320647 0.984176 -0.176514 0.0155306
0.005948 -0.278631 0.085392 -0.28775 -0.924854 -0.248687
-0.0104886 0.0837959 0.490877 -0.0539184 -0.395166 0.917026
0.000988253 -0.0237778 0.466234 0.0382602 -0.8038 0.593668
0.003019 0.174754 0.0729245 0.307892 -0.781456 -0.542705
-0.014291 0.137476 0.163478 0.808604 0.0574494 0.585541
0.0928871 -0.311596 0.485518 0.925262 0.0841617 0.369874
-0.0139199 0.279883 0.173581 -0.976846 -0.0118379 0.213618
0.00160008 0.0298341 0.307378 0.809021 -0.584248 0.0643304
0.0112328 -0.296636 0.483496 -0.000104648 -0.92985 0.367938
0.00104292 0.0178207 0.196896 -0.30831 -0.945572 0.104107
0.00725342 -0.272938 0.394393 0.800143 -0.599809 0
0.023156 -0.278365 0.373071 0.892836 -0.244253 -0.378398
0.00570074 -0.166551 0.253644 0.732031 -0.618581 -0.285461
-0.0104904 -0.315012 0.234311 0.761936 0.606547 -0.227056
-0.00587681 -0.151427 0.193063 -0.334652 -0.939873 -0.0681722
0.00845818 0.287975 0.252577 0.878347 0.39111 0.274845
0.0130408 0.149402 0.305146 -0.987436 0.151672 0.0443328
0.00577742 -0.429387 0.0566033 1 0 0
0.00441902 -0.25812 0.407621 3.22489e-05 -0.736108 0.676864
0.0420808 0.00608444 0.133916 1 0 0
-0.0363211 0.0911798 0.482303 -0.936506 -0.350652 0.000756225
-5.01191e-06 -0.153437 0.193244 -0.291632 -0.953053 -0.0814947
-0.0419722 0.105295 0.479374 -0.9288 -0.369933 0.0219054
-0.00861668 0.265227 0.241883 -0.976853 0.128207 0.171235
0.0247203 -0.298533 0.224704 -0.973747 0.0386798 -0.224322
-0.060102 -0.282509 0.482944 -0.105867 0.979985 -0.168589
0.0218586 -0.0140063 0.162044 1 0 0
0.0173343 0.175007 0.128968 0 0.161263 -0.986911
0.00757262 0.252153 0.105217 0.342113 0.744247 -0.573633
-0.00918474 -0.27558 0.40437 -1 0 0
-0.0288469 -0.303738 0.215797 0.887674 -0.456468 -0.0605882
0.00565861 0.381019 0.331061 1 0 0
-0.0146144 -0.306672 0.201579 -0.790744 0.420897 -0.444488
0.000724355 0.46257 0.14602 -0.761935 -0.012693 0.647529
0.0172012 0.188084 0.131105 0 0.161263 -0.986911
-0.0139159 -0.345131 0.179481 -0.289527 -0.412995 -0.863486
0.00488336 0.0742114 0.15709 -0.285337 -0.0482073 0.957214
0.00565861 0.208324 0.306385 1 0 0
0.0187132 0.114535 0.119087 0 0.161263 -0.986911
0.0034397 0.31415 0.0112157 0.736316 0.0602856 0.673947
0.00532444 -0.278885 0.467243 0.518432 -0.00668532 -0.855093
-0.00311929 0.334259 0.304153 -0.341517 0.920079 -0.191889
-0.087217 -0.378075 0.443666 0.0481256 -0.905362 0.421905
-0.0136597 -0.305981 0.203464 0.790699 -0.421594 0.443907
0.0183848 0.194074 0.270717 -0.991021 0.132508 0.017856
-0.00298809 -0.443236 0.296907 -0.308009 -0.670146 0.675303
-0.0889753 -0.36358 0.430892 -0.407675 0.885188 0.224149
-0.00629877 -0.473708 0.22197 -0.993774 0.107181 -0.0304325
-0.0163244 -0.27982 0.276732 0.965003 -0.252819 -0.0696578
-0.00633835 -0.211766 0.0495605 -0.993136 -0.0667107 0.0960739
-0.00324911 -0.218421 0.413675 -0.309056 6.67635e-08 0.951044
-0.00079946 0.389865 0.304287 0.791503 0.510048 -0.336712
0.00222623 -0.26824 0.0517263 -0.968863 -0.246264 0.025678
0.0227828 0.177577 0.161274 0.809671 -0.047178 -0.584985
-0.000257107 -0.184476 0.405875 -0.309056 0 -0.951044
0.00188326 0.224861 0.310524 0.736398 0.386985 -0.554942
0.00506726 -0.32264 0.350038 0.807991 -0.0490787 0.587148
-0.000874757 0.16689 0.224293 -0.341468 0.34876 0.872792
0.0176405 -0.270696 0.291716 0.888001 0.449745 -0.0958311
0.0142388 0.326889 0.181083 -0.976934 0.15794 -0.14372
-0.000667742 0.458605 0.225431 0.287511 -0.413061 0.864128
0.00174239 -0.319687 0.173145 -0.0280029 -0.308778 -0.950722
0.0246543 0.205217 0.161786 0.760787 -0.0373888 -0.647923
0.00402861 -0.184891 0.0644168 0.807831 0.415149 -0.418403
0.00965694 0.372627 0.14519 -0.34349 0.486047 0.8036
0.00250923 0.189709 0.280603 0.731961 0.556552 -0.393043
0.0051431 0.474428 0.238476 0.807988 0.534953 0.246941
0.0156523 -0.317109 0.169495 -0.762318 -0.220958 0.608317
-0.00222225 0.465218 0.265276 -0.308018 0.781423 0.54268
0.0225105 0.171322 0.282912 0.884299 -0.347906 -0.31141
0.00325134 0.18707 0.151284 -0.791019 -0.0752859 0.607141
-0.0053796 -0.453019 0.090078 -0.334747 0.779852 0.528938
-0.0943657 -0.365752 0.449845 -0.466083 0.785539 -0.407057
-0.0278847 0.237059 0.17207 -0.289912 -0.120114 0.949486
0.0176522 0.11639 0.119739 -0.99995 -0.0100442 0
0.00296009 0.269331 0.0467507 -0.289669 -0.867721 0.403922
-0.00194905 -0.392297 0.308891 -0.790803 0.510906 0.337055
-0.00310898 0.42801 0.0580054 -0.334626 -0.656363 0.676175
-0.00526763 0.0299277 0.288156 -0.309041 -0.945334 0.1041
-0.01581 -0.304907 0.174866 -0.976904 0.0107401 0.213408
-0.00857945 -0.281783 0.107336 -0.762374 -0.491849 -0.420559
-0.00877902 0.246946 0.141267 0.761892 -0.106658 0.638861
-0.0382083 -0.309175 0.179665 0.688755 0.564191 -0.455309
0.0244164 -0.0248986 0.145001 1 0 0
0.0122862 -0.273078 0.36735 -0.985165 -0.171505 0.00593816
-0.00792286 0.293363 0.0943501 0.976819 -0.179218 0.117073
0.0132984 -0.285458 0.195325 0.761854 -0.000890171 0.647749
-0.0892548 -0.382585 0.472384 0 0.00612251 0.999981
0.00565861 0.480134 0.198248 1 0 0
0.0155916 0.301546 0.174699 -0.567695 -0.823175 -0.010242
0.0263602 -0.292788 0.249354 0.959602 -0.179138 0.216965
0.0292901 0.228997 0.246782 0.956087 0.0988546 0.275909
0.0217112 0.156509 0.199141 0.999806 0.0197191 0
0.0165497 0.225778 0.199237 -0.999945 -0.010017 0.00325394
-0.00654976 0.414974 0.307815 -0.993774 -0.065251 -0.0903069
0.0117839 -0.29565 0.215314 -0.976933 0.157942 -0.143721
0.00501866 -0.425446 0.164435 -0.791054 -0.0755539 0.607063
0.0388084 -0.31216 0.186534 0.953424 -0.158183 0.256827
-0.00681556 -0.285964 0.345743 -0.993775 -0.0113569 -0.110825
-0.0235789 0.167039 0.290428 -0.986949 -0.157257 -0.0346644
0.0850529 -0.385769 0.459441 -1 0 0
0.00499927 -0.276746 0.282399 -0.790805 0.563721 -0.238424
0.000701685 0.174629 0.0895967 0.288983 0.404026 -0.867901
-0.0375662 0.298808 0.195779 -0.593941 0.441849 0.672312
-0.016853 0.124016 0.155523 -0.303744 0.040625 -0.951887
-0.00217063 -0.261876 0.387829 -0.300426 0.953805 3.13712e-07
-0.0943182 -0.340779 0.397484 -0.909926 -0.167705 -0.379354
-0.0171349 0.0237048 0.471149 -0.980465 -0.195166 0.0244795
-0.00632843 -0.329256 0.0145653 -0.993777 0.0113566 0.11081
-0.0275308 0.252646 0.168013 0.793897 0.15551 -0.587831
0.00774324 0.348893 0.0863839 0.968751 0.24659 -0.0267178
0.0597239 -0.0329964 0.110304 0 -1 0
0.0553275 -0.0161806 0.110438 0 0 1
0.0131656 -0.289472 0.193422 -0.762256 -0.000413218 -0.647276
-0.0136438 0.320305 0.139595 -0.762369 -0.491855 -0.420562
0.0107109 -0.265357 0.372715 0 0 -1
-0.00537859 -0.277042 0.403309 -0.300351 -0.953829 0
-0.00963605 -0.251214 0.198928 -0.342413 -0.349761 0.872021
-0.00535667 -0.262879 0.427639 -0.300424 0.953806 6.35506e-07
0.0489705 -0.282964 0.486903 8.36426e-06 0.500859 0.865529
-0.0193869 0.315144 0.168991 0.00132675 0.308901 -0.951093
0.0417782 -0.0207899 0.106522 0 0.707104 -0.70711
0.0114474 -0.351321 0.151719 -0.96888 -0.0174405 0.246916
0.00479962 -0.411544 0.12138 -0.96888 -0.0174405 0.246916
-0.0121992 0.323328 0.1361 0.976815 -0.212557 -0.0255266
0.0924575 -0.353879 0.476984 0.920882 -0.255683 0.294283
0.0042546 0.150393 0.167012 0.731915 0.679036 0.0566604
-0.00368141 -0.458798 0.276718 -0.308172 -0.777169 0.548669
0.0160435 0.308306 0.170509 1 0 0
0.000251615 -0.117086 0.267031 -0.309068 -0.643737 -0.700057
-0.0244104 0.222998 0.250601 0.882716 0.354326 0.308651
-0.00199489 -0.484763 0.138011 -0.3078 -0.919958 -0.242768
0.00360348 0.354064 0.00684763 0.808012 0.150304 -0.569671
-0.0108756 -0.350068 0.219956 0.79107 -0.509919 -0.33792
-0.0249688 -0.271674 0.37403 -0.892917 0.24422 -0.378227
-0.0372608 0.277427 0.168597 -0.319251 0.0373708 -0.946933
-0.0107199 -0.256544 0.195733 -0.976904 0.0107401 0.213408
-0.00196746 -0.202835 0.346861 -0.309068 -0.643737 -0.700057
0.0293821 -0.306515 0.20443 -0.931312 -0.355791 -0.0779128
-0.00466765 -0.407396 0.325843 -0.807913 -0.336146 0.484028
0.0160435 0.315968 0.177816 1 0 0
0.000961856 -0.0122787 0.475088 0.0390378 -0.305938 0.951251
-0.0106525 0.262698 0.14602 0.288102 -0.237636 0.927646
-0.0120817 0.0184127 0.167564 -0.105282 -0.584502 0.804533
0.022635 -0.276494 0.37942 0 0 1
-0.00572863 -0.167789 0.327165 -0.309028 0.643744 0.700068
-0.00468151 0.0324722 0.147732 -0.303744 0.040625 -0.951887
-0.00566102 -0.436264 0.0564918 -0.807903 -0.418308 -0.415103
-0.00591491 -0.132433 0.285465 -1 1.07631e-05 1.22261e-05
0.0850529 -0.383107 0.463037 -1 0 0
0.0115385 -0.32579 0.223984 -0.976797 -0.196046 -0.0862213
0.0315702 0.241017 0.230776 0.884299 -0.347906 -0.31141
0.00728736 0.0112623 0.162212 0.0588311 -0.947917 0.313036
-0.0283286 -0.284444 0.478634 -0.00606308 0.56639 -0.824115
-0.001612 0.169234 0.171963 0.968635 0.110727 -0.222456
0.0847415 -0.347828 0.467155 -0.354505 0.586814 -0.727994
0.0148257 0.0951549 0.346184 0.884299 -0.347906 -0.31141
-0.0139845 0.325084 0.154591 0.968801 -0.237255 0.0716497
-0.0923787 -0.350595 0.397171 -0.909926 -0.167705 -0.379354
0.0161317 -0.308525 0.173613 -0.289384 -0.565871 0.772041
0.000595105 0.363584 0.315414 -0.762611 -0.639134 0.0996596
0.0353761 0.0159029 0.151369 -1 0 0
0.0299245 0.294804 0.175054 -0.992746 0.120233 0
-0.0044861 -0.178328 0.409164 -1 0 0
0.0218586 0.0505101 0.140848 1 0 0
-0.0154035 0.10762 0.157937 -0.991297 -0.130762 -0.0151962
0.00217525 -0.00083679 0.175761 0.809012 0.397862 0.432672
-0.00580257 -0.485897 0.15863 -0.807872 -0.587308 -0.0491117
0.00171816 0.27386 0.0189726 0.736342 0.176408 0.653208
0.00374084 -0.230441 0.0270223 0.807815 0.24701 -0.535184
-0.00481253 0.258429 0.0112339 -0.807904 -0.154708 -0.568644
-0.02742 -0.301587 0.215771 0.744645 -0.655776 0.124345
-0.00102642 -0.313295 0.00339983 -0.308063 0.0792796 -0.948057
0.00555678 0.0348201 0.15334 -0.064826 0.989133 -0.131963
0.0183916 0.0177813 0.167096 0.0265747 0 0.999647
-0.00275537 0.0405748 0.301579 -0.309413 0.94521 -0.104119
-0.0906097 -0.377791 0.45954 -1 0 0
0.0189842 0.0788299 0.487441 0.152405 -0.413804 0.897518
0.0889323 -0.300177 0.48053 0.509128 0.2754 -0.81544
-0.00971483 -0.31094 0.252338 -0.97679 0.208596 0.0486782
0.00644309 -0.265908 0.411315 0.800181 0.599759 0
0.00837104 0.357115 0.235296 -0.341977 -0.707291 0.618702
-0.00372777 -0.18033 0.0860797 -0.334628 -0.763815 0.551915
0.0195638 -0.285387 0.488303 -0.000427961 0.491284 0.870999
0.0182936 0.193996 0.266233 -0.991021 0.132508 0.017856
0.0206718 -0.280978 0.271615 0.716328 0.695172 -0.0600832
0.0877607 -0.361225 0.472253 0 0.00612251 0.999981
0.00181109 0.38152 0.336855 0.307999 0.405387 0.860696
0.000923472 -0.17212 0.255517 -0.29149 -0.86772 -0.402612
0.00477528 -0.417228 0.316834 0.807834 -0.336176 0.484138
0.0158374 0.00928886 0.466212 0.981616 -0.185332 0.0456404
-0.00690128 0.173577 0.0834633 -0.993135 0.0960829 0.0667176
0.00191865 0.0485768 0.473593 0.809021 -0.584248 0.0643304
-0.0300838 0.216752 0.245982 -0.989727 -0.142284 -0.0139644
0.0167978 0.319892 0.155791 0 -0.582986 0.812482
0.00649789 -0.388471 0.25872 0.790509 0.439683 0.426351
0.0216098 0.161824 0.128915 0.999807 0.0196492 0
-0.0932692 -0.369585 0.42368 -0.96269 -0.266076 -0.0493019
-0.0174383 -0.283125 0.486996 8.36426e-06 0.500859 0.865529
0.00932028 0.117339 0.331974 -0.987436 0.151672 0.0443328
-0.00591489 -0.133341 0.288154 -1 1.07631e-05 1.22261e-05
-0.0488126 0.0579661 0.195668 0 0 -1
-0.00441943 -0.219214 0.101952 -0.968865 0.227147 0.0985092
-0.0725812 -0.301796 0.482919 0.606933 -0.756597 -0.243298
-0.00667218 0.340011 0.340738 -0.993777 -0.0113588 -0.110807
0.0243469 0.244499 0.227418 -0.991021 0.132508 0.017856
0.0183051 0.147017 0.299294 0.816053 -0.414747 -0.402545
-0.00263068 -0.234963 0.0359533 -0.334633 -0.385532 0.859875
0.0907518 -0.392294 0.441671 1 0 0
0.0214962 0.167414 0.198152 0.999806 0.0197191 0
0.0227854 -0.286 0.488651 -0.000427961 0.491284 0.870999
-0.093232 -0.363735 0.41228 -0.906516 -0.314821 -0.281278
-0.0084661 -0.28672 0.477277 -0.00020963 0.497088 -0.8677
-0.00186626 0.0161142 0.172781 -0.30831 -0.945572 0.104107
-0.00196867 -0.417427 0.30594 -0.334643 0.528952 -0.779887
-0.0208832 -0.263072 0.364206 -0.893499 0.448249 -0.027075
-0.0216529 0.194444 0.160387 0.819184 0.156784 -0.551685
