-0.00358142 -0.151162 0.239061 -0.307701 0.863861 0.398828
0.0118935 0.272938 0.170272 -0.762487 0.221726 0.607825
0.0138439 -0.320197 0.147181 0.97692 -0.213211 -0.0130113
0.00614225 0.226113 0.225888 -0.3423 0.434497 0.833092
-0.00687945 0.290677 0.0738816 -0.762687 -0.646739 -0.00608278
-0.0314497 0.259187 0.20935 -0.410844 -0.597454 -0.688663
-0.0128443 -0.313944 0.21305 0.342676 0.919692 0.191679
-0.0364967 0.302565 0.193825 0.882716 0.354326 0.308651
-0.022482 -0.294292 0.256348 0.767991 -0.640041 -0.0231633
-0.00351792 0.193287 0.212381 0.762414 0.328739 0.557365
0.0189419 -0.28631 0.477505 -0.00020963 0.497088 -0.8677
0.0848107 -0.362034 0.427567 -0.464435 0.840479 0.279097
-0.00591487 0.02681 0.248704 -1 0 0
0.00347546 0.30841 0.296908 -0.790637 -0.610767 -0.0430931
0.00432074 0.430167 0.195016 -0.288699 0.0841836 -0.953712
-0.000216237 0.408244 0.323837 0.308047 0.548633 0.777245
0.000460362 0.41049 0.290311 -0.968703 0.101398 -0.226567
0.000297803 0.059817 0.467214 -0.309041 0.945332 -0.104122
0.0125455 0.334188 0.209401 0.791147 -0.563744 0.237233
-0.0162028 0.102348 0.498535 -0.0539184 -0.395166 0.917026
0.00809309 -0.406942 0.190842 0.976759 -0.0496297 0.208516
-0.025234 -0.287499 0.477132 1.86347e-07 -0.000441878 -1
0.00436403 -0.116795 0.278298 0.809014 0.397861 0.43267
0.0218586 0.0447541 0.14557 1 0 0
0.00507556 0.469358 0.101676 0.807908 0.533124 -0.251125
0.00573559 -0.283677 0.0107187 0.807794 0.15033 -0.569973
0.0300656 0.254793 0.165313 -0.292614 0.115918 -0.949179
0.000550876 0.465924 0.200775 -0.790999 -0.148202 0.593596
0.0233323 0.0743155 0.197707 0.999806 0.0197191 0
-0.00647628 -0.217452 0.0442051 -0.993777 -0.0625265 0.0921844
-0.00793801 -0.327135 0.26063 0.76185 -0.606225 -0.228201
-0.0133928 0.316675 0.200183 0.341147 0.9202 0.191964
-0.00329929 -0.192523 0.183411 0.976936 -0.083096 0.1967
-0.00814319 0.401193 0.176372 -0.976799 0.0841641 -0.196925
-0.00203556 -0.261833 0.393359 -0.300426 0.953805 3.13712e-07
-0.00398707 -0.190922 0.300584 -0.308194 0.67528 0.670085
0.040784 0.0220503 0.152896 0 0.707069 0.707144
0.0137679 0.15524 0.301367 -0.987436 0.151672 0.0443328
0.00532572 -0.283672 0.487312 8.36426e-06 0.500859 0.865529
0.00327462 -0.0698077 0.408183 0.809035 0 -0.587761
0.00490278 0.16767 0.100061 0.732036 0.61858 0.285451
-0.0217069 -0.265932 0.337456 -0.855937 0.512476 -0.0688443
0.00585643 -0.392649 0.263037 0.968628 -0.241272 -0.0595605
0.0101359 -0.256212 0.151935 0.79068 -0.267209 -0.55084
0.00554542 -0.221199 0.372092 0.809014 0.397861 0.43267
-0.0166799 0.15534 0.165024 0.808604 0.0574494 0.585541
-0.00985497 0.368026 0.143705 0.791099 -0.243135 -0.561292
0.0440446 -0.0325018 0.103733 0 0 -1
-0.00601611 -0.173652 0.276214 -0.808075 0.483866 0.335988
0.00537103 0.445063 0.0641511 0.80783 0.415143 -0.418409
0.0218586 0.00787808 0.128181 1 0 0
0.0420808 -0.00621771 0.122355 1 0 0
0.00172959 0.135308 0.322278 0.0210937 0.808951 0.587498
0.00877938 0.385364 0.136523 0.762672 0.415211 0.495914
-0.00692162 -0.245778 0.333955 -0.993134 -0.0498529 -0.105827
-0.00897359 0.108259 0.159102 0.553111 0.00720873 0.833076
0.0218586 0.0134649 0.185428 1 0 0
0.0157961 -0.304459 0.172606 0.976921 -0.154957 -0.147014
0.000933743 0.217225 0.0574699 -0.976899 -0.0994111 0.189173
-0.00591487 -0.163641 0.322396 -1 0 0
0.0181448 0.133929 0.158375 0.809671 -0.047178 -0.584985
0.0049878 0.473283 0.224571 0.731959 -0.658836 -0.173697
0.00210575 -0.0541427 0.209546 0.808982 -0.397891 -0.432702
0.0168909 0.182074 0.27685 -0.991021 0.132508 0.017856
0.00277639 0.187835 0.294425 0.307857 -0.670177 0.675342
-0.0838486 -0.303318 0.489505 0.377564 -0.0796748 0.922549
0.0199071 0.0520453 0.108876 0 0.161263 -0.986911
-0.00370617 -0.29925 0.299246 0.968589 0.199329 -0.148671
0.0243945 0.0977482 0.495245 0.152405 -0.413804 0.897518
0.00668757 -0.397664 0.127286 -0.342514 0.452992 -0.823093
-0.00878196 0.236632 0.177498 0.342194 -0.0291253 0.939178
-0.00426493 -0.340803 0.0560343 -0.790902 0.594965 -0.143146
0.00577742 -0.359204 0.340121 1 0 0
-0.00589408 0.147677 0.13548 -0.808084 -0.569589 -0.150227
0.00459997 -0.021514 0.410007 0.809035 0 -0.587761
-0.027764 0.239546 0.241195 0.882716 0.354326 0.308651
0.0010661 -0.181013 0.415077 -0.309056 6.67635e-08 0.951044
0.0143172 0.314468 0.1921 -0.288142 -0.85897 -0.423256
-0.0025591 0.162357 0.260895 -0.308031 -0.860687 0.405383
-0.00549697 0.04074 0.382669 -0.301439 -0.613157 -0.730187
0.00389304 -0.27257 0.0687698 -0.791203 0.55858 0.24897
-0.0552118 -0.296556 0.485843 0.140864 -0.900761 0.410837
0.0115327 -0.00763757 0.467697 0.945005 -0.326147 -0.0243561
0.00786456 -0.267805 0.418317 0.800181 0.599759 0
-0.0871625 -0.372713 0.457965 0 0.0186588 -0.999826
0.0141299 -0.335951 0.173158 -0.96861 0.24253 -0.05454
-0.0105491 0.0391701 0.479183 -0.215575 -0.104044 0.970929
-0.00106866 -0.108021 0.406138 -0.309065 -1.89846e-07 -0.951041
0.0218423 -0.282361 0.246446 -0.919358 0.296871 -0.258164
0.0193522 0.0979428 0.121402 0 -0.151995 0.988381
-0.00763486 0.39955 0.135554 -0.976889 0.145425 0.156652
0.0137712 0.00973457 0.149701 -0.000752998 -0.857736 -0.514089
-0.00880881 0.302989 0.253527 -0.968798 0.198456 0.148479
0.023891 0.220753 0.256453 -0.41422 0.586977 0.695615
0.0141897 -0.309824 0.20473 0.288026 -0.676778 0.677505
-0.0360091 0.0559325 0.200348 0 -1 0
-0.0142268 -0.280456 0.372715 0 0 -1
-0.00643067 -0.441703 0.0714065 -0.993775 0.0799364 0.0775981
-0.026582 0.214289 0.260983 -0.50254 0.485085 0.715644
-0.00924959 -0.373835 0.139405 0.289108 0.683476 -0.670281
0.0307988 0.259736 0.209476 -0.59422 -0.452461 -0.664968
0.00409023 -0.104573 0.25963 0.809067 -0.397809 -0.432618
-0.00449728 -0.202758 0.22037 -0.791023 -0.173441 0.586687
-0.00496283 -0.143418 0.204725 -0.807873 0.587305 0.0491296
-0.0135332 0.0336339 0.154077 -0.0950382 0.946752 -0.307617
-0.00192696 0.358271 0.332555 -0.291555 -0.249396 -0.92347
0.00260401 -0.279141 0.435414 0.800141 -0.599812 7.26602e-07
-0.00397154 -0.296764 0.466654 -0.83305 -0.0741206 -0.54821
0.00757677 0.248016 0.239665 0.968587 -0.241342 -0.0599372
-0.0115268 0.291837 0.12157 -0.791065 -0.547077 0.273719
0.0543611 -0.292208 0.488811 0.000255838 -0.527489 0.849562
-0.00788002 0.323318 0.262959 -0.976788 0.208606 0.0486742
0.00826275 0.395966 0.191273 0.790385 0.149399 -0.594115
0.00199166 0.327439 0.337488 0.736394 -0.060273 -0.673862
0.0306613 0.294563 0.185902 -0.59422 -0.452461 -0.664968
0.00366986 0.223551 0.0393289 0.736299 0.3892 0.553522
-0.00518774 -0.36716 0.084664 0.341476 0.798275 -0.496136
0.0190536 0.209322 0.197331 0 -6.99786e-05 -1
0.0085657 0.289383 0.0933483 0.343231 -0.875392 0.340414
0.00852458 0.245881 0.127054 0.343331 -0.451769 0.823425
0.00614009 0.0370836 0.149749 0.760787 -0.0373888 -0.647923
0.00357142 -0.246145 0.398722 0.809014 0.397861 0.43267
0.00581163 -0.208958 0.159144 0.342583 0.124685 0.931177
0.00972395 0.0647389 0.154015 0.795669 -0.146421 0.587769
-0.0821409 -0.337988 0.391734 0.928762 -0.116549 -0.351878
-0.0142413 -0.297528 0.198148 -0.790685 -0.510387 0.338115
-0.00440064 -0.301407 0.341838 -0.334704 -0.0960618 -0.937414
-0.00434958 0.201932 0.126981 0.341658 0.292597 -0.893117
-0.00696379 -0.144538 0.183783 -0.993132 -0.116593 -0.00974026
-0.0144758 0.325766 0.157656 0.790957 0.594892 0.143147
0.0050717 -0.221175 0.129132 -0.968882 -0.205114 -0.138551
-0.00867734 -0.247406 0.186812 0.968567 -0.111804 -0.222212
0.0299899 0.248208 0.236706 -0.301224 0.60374 0.73808
0.0158309 0.126924 0.329993 0.956087 0.0988546 0.275909
-0.00447618 -0.336474 0.29806 0.289724 -0.922021 -0.256782
0.0283286 0.0320495 0.163372 0.00234951 0.951054 0.309015
0.0122515 0.355379 0.156393 0.791082 0.135739 0.59646
-0.00998317 -0.262136 0.152681 0.342647 -0.293854 -0.892325
0.014813 0.326633 0.17378 -0.762166 -0.41643 -0.495671
-0.0128723 -0.286752 0.181793 0.79057 0.174867 -0.586873
-0.0224279 -0.275741 0.286283 -0.949108 0.313962 -0.0249244
-0.00556807 0.0534117 0.426475 -0.309413 0.94521 -0.104119
0.00541123 -0.485495 0.190629 0.807799 -0.587009 0.0536806
-0.00465345 -0.25385 0.285067 -0.968727 0.247734 -0.0139629
-0.00460129 -0.382291 0.029413 -0.33467 0.410901 0.848031
-0.0059673 0.42237 0.175653 -0.762583 0.119479 0.635761
-0.00508852 0.48825 0.169198 -0.80788 0.586904 -0.0536087
0.0547475 -0.0181181 0.110438 0 0 1
-0.0927007 -0.367413 0.442257 -0.705434 0.702987 -0.0903988
-0.0143402 0.286102 0.160692 -0.976918 0.0628472 -0.204161
0.00577742 -0.443676 0.285982 1 0 0
0.00520772 0.395829 0.320819 0.731905 -0.290438 -0.61641
0.00329819 0.357974 0.0548525 -0.968928 -0.245998 0.0257657
-0.0157025 -0.318521 0.191303 0.343468 -0.028965 0.938718
-0.00660407 0.297342 0.0104409 -0.993773 0.0113553 0.110842
-0.0858614 -0.353779 0.413981 0.268026 0.713195 0.647699
0.00978686 -0.289006 0.124374 -0.791203 0.55858 0.24897
-0.00924533 -0.279352 0.235295 0.761764 -0.61117 0.214912
0.0218586 -0.00855876 0.162301 1 0 0
-0.000912668 0.377634 0.0256535 -0.291552 -0.402599 0.867705
0.0212859 0.0379295 0.466871 0.973376 -0.228963 -0.0107498
0.00361366 0.178105 0.266212 0.736331 0.553498 -0.389175
-0.00636168 -0.469559 0.120025 -0.993771 0.101687 0.0456042
-0.0035649 -0.261348 0.344494 -0.308201 0.249774 0.917946
0.0205528 0.0776837 0.486684 0.182315 -0.235331 0.954662
0.00565861 0.348012 0.00978885 1 0 0
-0.00154608 0.153027 0.160844 -0.291509 0.953086 0.0815397
-0.0341682 0.295656 0.184116 0.955842 -0.0911937 -0.279372
-0.000300119 0.191834 0.271762 0.968827 -0.0576696 -0.240931
-0.00944979 0.0596533 0.375311 -0.986949 -0.157257 -0.0346644
0.0125557 -0.34509 0.199469 -0.790947 -0.439832 -0.425384
-0.0150323 -0.273097 0.315572 0.992855 0.116749 -0.0246603
0.0911873 -0.353737 0.463831 0.533731 0.6763 -0.507691
0.0809965 -0.330859 0.396719 -0.976552 0.0380034 0.211902
0.00437281 -0.477091 0.118773 0.808023 -0.534908 -0.246925
0.0812544 -0.350205 0.406196 -0.966755 0.169602 0.191364
0.00754919 -0.282868 0.103471 -0.791203 0.558581 0.24897
-0.0396763 0.0997128 0.482441 -0.9288 -0.369933 0.0219054
0.0935464 -0.373004 0.42971 0.929068 -0.356644 -0.0981681
-0.0351999 0.269994 0.167609 -0.319251 0.0373708 -0.946933
0.00204234 -0.169172 0.107604 0.7364 -0.612607 0.287103
-0.000163728 -0.258782 0.376485 0.191203 0.958923 0.209545
0.0250747 0.235289 0.171169 -0.320174 -0.0423818 0.94641
0.0129231 -0.277034 0.358759 -0.985165 -0.171505 0.00593816
-0.0113217 -0.333099 0.127043 -0.790902 0.594965 -0.143146
0.0218586 0.0265001 0.156464 1 0 0
0.00602855 0.0328708 0.279307 0.80868 -0.584714 0.0643962
-0.00664036 -0.464448 0.102768 -0.993137 0.10619 0.0490089
0.0204948 0.0226984 0.203096 0 0.0101543 0.999948
0.0364525 0.302097 0.170152 0.809671 -0.047178 -0.584985
0.003896 -0.0281661 0.197674 0.809012 0.397862 0.432672
0.00206189 0.160525 0.124717 0.736429 0.653797 0.173841
0.00303516 -0.203502 0.059293 0.731932 -0.479856 0.483749
0.0213815 0.0107089 0.104897 -0.190109 -0.22607 -0.95538
-0.0142432 0.333582 0.191111 -0.976921 -0.128864 0.170349
-0.00641905 0.196326 0.0617188 -0.993776 0.0799306 0.0775926
-0.0264497 -0.319854 0.183148 0.0273257 -0.308784 0.95074
-0.00221397 -0.144928 0.406511 -0.309056 0 -0.951044
0.0067897 0.0785108 0.366048 -0.301224 0.60374 0.73808
-0.093878 -0.338079 0.395234 -0.909926 -0.167705 -0.379354
-0.017445 0.141473 0.303013 -0.301439 -0.613157 -0.730187
0.00528709 -0.387874 0.327612 0.731917 0.285485 -0.618705
0.0174368 0.137836 0.126117 -0.99995 -0.0100442 0
-0.00299562 -0.210863 0.406765 -0.309056 0 -0.951044
0.00565861 0.278416 0.339435 1 0 0
-0.0145723 -0.269478 0.352538 0.992234 0.122241 -0.0229833
-0.00819145 0.25134 0.227819 -0.341684 -0.580417 -0.739167
0.00577742 -0.411727 0.0389734 1 0 0
-0.00711028 -0.33673 0.0901687 0.289909 0.954187 -0.0740292
-0.00293363 0.0115965 0.478835 -0.184498 0.0329082 0.982282
-0.0143995 0.288378 0.180823 -0.761631 -0.118275 0.637126
0.0181659 -0.280977 0.322073 0.856195 -0.514696 0.04491
-0.0044861 -0.0527348 0.410015 -1 0 0
0.000765752 0.329329 0.0143677 -0.291549 -0.0815236 0.953076
-0.00376318 0.450988 0.284892 -0.30756 0.781508 0.542819
-0.00282554 0.0159587 0.168528 -0.30831 -0.945572 0.104107
0.00784656 -0.31308 0.175216 -0.0162103 0.808983 -0.587608
-0.0101801 0.122658 0.322659 0.955842 -0.0911937 -0.279372
0.0198115 0.117626 0.197337 0 -6.99786e-05 -1
0.00880908 0.306991 0.248613 0.34217 0.939412 -0.0206098
-0.00502091 0.255255 0.0654951 -0.762409 0.49103 -0.421452
-0.00663926 0.480924 0.189115 -0.993775 -0.111118 -0.00805805
0.0079951 0.363408 0.241921 0.762285 -0.416642 0.495309
0.0228468 -0.265383 0.379388 0.892913 0.244219 0.378238
0.00119985 -0.0737913 0.226801 -0.309068 -0.643737 -0.700057
-0.0058653 0.0763036 0.354024 0.929293 -0.144492 -0.339906
0.00573447 -0.274965 0.401234 0.800143 -0.599809 0
0.0106932 -0.265055 0.203435 -0.289384 -0.565871 0.772041
-0.00410133 0.187424 0.172573 -0.342385 0.0304181 -0.939067
-0.0296609 0.0715383 0.467802 -0.958132 -0.285488 0.0218897
0.000834596 -0.163026 0.209766 0.288656 -0.0828642 0.95384
0.00482581 0.295163 0.00523826 0.807829 -0.0536715 -0.586968
0.00565861 0.147699 0.175308 1 0 0
-0.00672713 -0.318244 0.0100507 -0.993136 0.0106508 0.116483
-0.00773531 -0.308794 0.2602 0.968589 0.199329 -0.148671
0.0950398 -0.368356 0.44992 0.915004 -0.378851 0.138709
-0.00171812 0.249595 0.0266088 -0.334611 0.4109 0.848055
-0.00579351 0.0395693 0.301479 -0.309413 0.94521 -0.104119
0.005155 -0.457379 0.264135 0.736332 0.553497 -0.389175
-0.00915832 -0.299596 0.115075 0.762707 -0.646716 0.00608307
-0.0129813 -0.348493 0.189383 0.343468 -0.028965 0.938718
-0.083047 -0.326725 0.478376 0.501294 0.329275 -0.800177
0.0391887 -0.284302 0.478733 0.00453445 0.55425 -0.832338
0.0211503 -0.280599 0.281703 0.716328 0.695172 -0.0600832
-0.0149209 -0.329597 0.162647 -0.976949 0.179215 -0.115985
-0.00657418 -0.286993 0.0136067 -0.993771 -0.0272524 0.108059
0.00906162 -0.322905 0.252729 -0.289572 0.95357 -0.0827777
-0.00420327 0.216569 0.253356 -0.790649 -0.421632 -0.443961
-0.00466124 -0.0936308 0.247632 -0.309068 -0.643737 -0.700057
0.0213756 -0.022422 0.126522 0 -0.892533 -0.450981
-0.0244895 0.319713 0.176157 0.00347481 0.809088 0.587678
-0.0184075 0.159447 0.288098 -0.410844 -0.597454 -0.688663
-0.00797803 -0.270885 0.475598 -0.960712 0.0170352 0.277025
0.0104394 0.33925 0.120582 -0.341239 0.889736 0.303192
0.0882796 -0.393071 0.460004 0 -0.999936 0.011303
0.00789135 0.347533 0.254905 0.968828 0.245815 0.0307867
0.00581052 0.0230772 0.19312 0.80868 -0.584714 0.0643962
0.00577742 -0.363287 0.018845 1 0 0
-0.00441226 -0.440514 0.181813 -0.791085 -0.0376898 -0.610544
-0.000837012 0.142173 0.14485 -0.307589 -0.920024 -0.242786
0.00851716 -0.387312 0.225481 0.791181 -0.331506 -0.513942
-0.0887073 -0.363619 0.472268 0 0.00612251 0.999981
-0.0065501 0.156633 0.224519 -0.993773 0.107185 -0.0304335
-0.00518737 0.282208 0.345928 -0.808064 -0.150234 0.569617
0.0108348 0.361137 0.190421 -0.568204 0.419393 -0.707993
-0.0431201 0.312086 0.170119 -1 0 0
0.00295941 -0.157718 0.135063 0.736277 -0.653272 0.176441
-0.00592003 -0.334755 0.34191 -0.334768 0.0681715 -0.939831
-0.00607558 0.22797 0.103965 -0.79101 0.363652 -0.491996
-0.0094857 0.29352 0.0983898 -0.762687 -0.646739 -0.00608278
0.024288 0.207477 0.250853 -0.59422 -0.452461 -0.664968
-0.00591487 0.0380283 0.342154 -1 0 0
0.00462373 -0.424639 0.243893 0.976832 -0.169926 -0.130091
-0.00252383 0.243922 0.285889 0.968785 0.247515 0.0138547
-0.00640869 -0.484545 0.152428 -0.807872 -0.587308 -0.0491117
-0.00879614 0.355711 0.237725 -0.34265 -0.828367 0.443169
-0.0201161 0.194049 0.162525 0.793897 0.15551 -0.587831
0.00334223 -0.40352 0.316468 0.731953 0.388572 -0.559693
-0.00417327 0.0301839 0.211462 -0.309413 0.94521 -0.104119
0.00565861 0.40692 0.0368063 1 0 0
-0.0277737 0.238302 0.225275 -0.410844 -0.597454 -0.688663
0.0270093 -0.290957 0.218787 0.245296 0.909462 -0.335722
-0.0068558 0.438503 0.0610506 -0.993136 -0.082383 0.0830311
-0.00181144 -0.223046 0.327546 -0.307834 0.548692 0.777287
0.00764757 0.0975774 0.350719 -0.41422 0.586977 0.695615
-0.00313286 -0.378199 0.0699165 0.968792 -0.135728 0.207413
0.00321532 0.142919 0.201675 0.307962 -0.947454 0.0865419
0.00190054 -0.147903 0.295379 0.808982 -0.397891 -0.432702
0.0197117 0.255664 0.197327 0 -6.99786e-05 -1
-0.0071628 -0.270659 0.251771 0.968907 -0.24698 0.0147987
0.0153575 -0.268397 0.299599 0 0.979087 -0.203442
-0.0226688 0.180075 0.272745 -0.410844 -0.597454 -0.688663
0.0923706 -0.306715 0.484144 0.832069 0.449224 0.325359
-0.00282229 0.332349 0.302033 0.790402 -0.60867 0.0691841
-0.00415018 0.0334287 0.323266 -0.309041 -0.945334 0.1041
0.00285342 -0.199986 0.345053 0.808982 -0.397891 -0.432702
0.00401828 -0.358711 0.0566557 0.968787 0.171582 -0.178915
-0.00350474 0.367351 0.341838 -0.308194 0.249775 0.917948
0.00311006 0.453558 0.0884639 0.736325 -0.5535 0.389182
-0.00591487 -0.00454694 0.176053 -1 1.07631e-05 1.22261e-05
0.0218586 0.0372306 0.125269 1 0 0
-0.00694854 -0.330311 0.278544 -0.762629 0.605725 0.226923
-0.0369934 0.274995 0.211935 -0.593941 0.441849 0.672312
-0.000787858 -0.0269291 0.184586 -0.309068 -0.643737 -0.700057
0.00565861 0.466426 0.251705 1 0 0
0.0110711 -0.291542 0.232939 0.791136 -0.563757 0.237237
-0.00668885 0.223815 0.315511 -0.993774 0.0625383 -0.0922037
-0.00326989 -0.262438 0.460005 -0.308926 0.950841 -0.0215779
0.00714656 -0.27559 0.464638 0.952199 -0.305169 0.0137123
0.00398643 0.197611 0.302447 0.808025 -0.414988 0.418186
0.00439977 -0.424576 0.11517 0.79109 -0.343236 0.506325
-0.00580612 0.0485802 0.45594 -0.309041 -0.945334 0.1041
-0.00529891 0.252704 0.265509 0.342662 -0.828362 -0.44317
0.0908332 -0.324406 0.487361 0.55119 -0.0736565 0.831122
0.00799955 0.0990339 0.153037 -0.267474 0.114001 -0.956798
0.0245044 0.309635 0.17559 -0.00428239 -0.999991 0
0.00859291 -0.340943 0.0984663 0.968787 0.171582 -0.178915
-0.0324232 -0.308504 0.209008 0.794616 -0.607098 -0.00407362
0.00223465 -0.200378 0.293823 0.736404 -0.479309 -0.477464
-0.00644236 -0.453655 0.0878405 -0.993778 0.092178 0.0625177
-0.00160134 0.300333 0.337655 -0.291622 0.0815028 -0.953055
0.000609394 -0.26106 0.0273696 0.790463 -0.559043 -0.250277
-0.00647465 0.424925 0.299295 -0.993133 -0.0830439 -0.0824003
0.00673867 -0.257806 0.104683 -0.288903 0.662189 0.691405
-0.00412382 0.468786 0.0940945 -0.308058 0.860679 -0.405379
0.00153801 -0.153976 0.163472 -0.291501 -0.95277 0.0851887
0.0138582 0.324479 0.143538 0.790902 0.487534 0.369844
-0.00212627 -0.427996 0.296013 -0.29153 0.675092 -0.677688
-0.000164487 0.447696 0.268948 -0.291479 -0.784642 -0.547154
-0.00463467 -0.257331 0.0721632 -0.968549 -0.136606 -0.207972
0.0194001 0.232629 0.142114 0 -0.151995 0.988381
-0.00424348 -0.474053 0.21744 -0.334587 0.906521 -0.257432
-0.00520935 0.404793 0.0976617 -0.97681 -0.0620677 -0.204916
-0.00401261 0.434372 0.214467 -0.790425 -0.173811 0.587383
-0.0212316 0.0405876 0.168766 0 0.707116 -0.707098
0.0218586 0.0426015 0.1791 1 0 0
-0.0044526 0.477489 0.156348 -0.334708 -0.937413 0.0960643
0.00464244 0.416077 0.116712 0.288066 0.549691 0.784129
0.00522705 -0.148945 0.181045 0.731992 -0.678954 -0.0566536
0.00549116 -0.331213 0.348738 0.807878 -0.0490655 0.587304
0.00577742 -0.373508 0.336916 1 0 0
-0.00684464 -0.370441 0.0184113 -0.993777 0.0304266 0.107151
-0.00535149 0.347231 0.0147196 -0.334663 -0.230331 0.913755
-0.00622571 -0.397301 0.251121 -0.790659 -0.42162 -0.443953
0.0244164 -0.0265472 0.169636 1 0 0
-0.0276258 -0.301875 0.228432 0.606622 -0.783467 0.134869
-0.00405138 0.370298 0.065009 0.790706 -0.547451 -0.274011
-0.00116608 0.104087 0.500169 -0.0539184 -0.395166 0.917026
-0.00671411 -0.333643 0.0115698 -0.993136 0.0106508 0.116483
0.00617743 0.230473 0.119033 -0.762253 -0.220999 0.608383
-0.00442964 -0.377195 0.277864 0.762021 0.610502 0.215894
0.0392218 0.0961365 0.484527 0.941657 -0.326556 -0.0815084
-0.00584905 -0.476795 0.238673 -0.807951 -0.533084 0.251073
-0.00920909 0.0841969 0.347709 -0.301439 -0.613157 -0.730187
-0.00677165 0.297684 0.272244 -0.790849 -0.60811 -0.0689942
0.0134829 -0.341262 0.15581 0.762214 0.222154 -0.608011
0.00439706 -0.24501 0.27153 -0.762134 0.41586 -0.496198
0.00197525 0.214543 0.303451 0.736398 0.386985 -0.554942
0.0201357 0.153125 0.201772 0 0.0101543 0.999948
-0.0859658 -0.351151 0.478385 -0.113657 -0.554497 0.824388
-0.0849107 -0.391443 0.42988 1 0 0
-0.0149887 0.308835 0.158521 0.968766 0.0293172 0.246236
-0.00154417 -0.0707428 0.239775 -0.309028 0.643744 0.700068
-0.00454781 0.474165 0.213742 -0.33462 -0.913766 -0.230349
0.0182587 -0.264238 0.338349 0.857196 0.512904 -0.0463124
-0.00681394 -0.263338 0.412133 -0.300426 0.953805 3.13712e-07
-0.00022324 0.0490366 0.476659 -0.309041 -0.945334 0.1041
-0.0596822 -0.282329 0.484502 -0.032784 0.927822 0.371581
-0.00465665 0.314574 0.0114468 -0.291549 -0.0815236 0.953076
0.0176859 0.179176 0.12965 0 0.161263 -0.986911
0.025394 -0.291245 0.254901 0.959602 -0.179138 0.216965
-0.00350894 -0.227521 0.383071 -0.30907 0.643735 0.700058
-0.0142783 0.304769 0.19034 0.790402 -0.60867 0.0691841
-0.00665022 -0.222108 0.141554 -0.968599 0.0291 -0.246921
-0.00929346 -0.256295 0.138171 -0.762142 0.50052 0.410633
0.0141106 0.291536 0.16039 -0.288961 0.795879 -0.532051
-0.00554582 0.372376 0.269184 -0.96879 0.247497 -0.0138375
-0.000738662 -0.203342 0.0432617 -0.307715 0.54277 -0.781481
0.00574937 -0.348084 0.015464 0.731886 0.179014 0.657493
0.0697339 -0.287136 0.488457 0.275174 0.533216 0.799975
0.00270968 -0.0404613 0.211198 0.809012 0.397862 0.432672
0.00577742 -0.180167 0.277911 1 0 0
0.0218586 0.02483 0.128796 1 0 0
-0.00272391 -0.424033 0.0911972 -0.567892 0.52957 -0.630123
0.00876716 0.30634 0.0935023 0.28988 -0.951531 -0.102756
0.00565861 0.156913 0.23283 1 0 0
-0.00481939 -0.148491 0.130428 -0.807954 0.568578 -0.154691
0.00409314 -0.427895 0.0473402 0.807824 -0.418417 -0.415147
-0.00591487 -0.218924 0.369264 -1 0 0
0.0182874 0.198719 0.16466 -0.992746 0.120233 0
0.00388871 -0.320005 0.304234 -0.289572 0.95357 -0.0827777
0.00676109 -0.278673 0.0861201 0.790463 -0.559044 -0.250276
-0.0933118 -0.367889 0.455768 -0.94262 -0.297321 0.151879
-0.00644678 0.410068 0.310226 -0.993774 -0.065251 -0.0903069
-0.00636702 -0.18851 0.0718627 -0.993776 -0.0902933 0.0652438
0.00233255 -0.285443 0.339103 0.736298 -0.176393 -0.653262
-0.00853698 0.311057 0.170806 -0.00347417 -0.808941 -0.58788
0.0218586 -0.00118135 0.184882 1 0 0
-0.0034513 0.0340416 0.413609 -0.309052 0 0.951045
-0.00643927 0.460746 0.253117 -0.993772 -0.101677 -0.0455965
-0.0158906 -0.285101 0.488124 -0.000427961 0.491284 0.870999
-0.0146295 0.103646 0.333615 -0.301439 -0.613157 -0.730187
-0.0857164 -0.341191 0.470616 0.528903 0.33332 -0.780486
0.00287374 -0.317825 0.0479337 -0.878524 0.461732 0.122471
0.00171785 0.0225578 0.239813 0.809021 -0.584248 0.0643304
-0.0303234 -0.292928 0.488386 -4.32689e-06 -0.533393 0.845868
0.0186303 -0.0251739 0.142558 -1 0 0
0.0300563 0.00954739 0.15251 0.0606993 -0.949311 0.308423
0.0045226 -0.164235 0.315299 0.808982 -0.397891 -0.432702
0.00740966 -0.241265 0.142523 -0.968882 -0.205114 -0.138551
-0.00193501 -0.275272 0.0208406 -0.291464 -0.245813 0.924459
0.0366866 0.298532 0.196238 0.956087 0.0988546 0.275909
0.0148595 -0.319361 0.165802 -0.790762 -0.488378 -0.369029
0.0030952 0.430582 0.238062 0.76232 0.426627 -0.48668
0.0129563 0.120207 0.320359 -0.59422 -0.452461 -0.664968
-0.00845292 -0.279236 0.105657 -0.791002 0.547679 0.272698
-0.00177663 0.360346 0.0193349 -0.334663 -0.230331 0.913755
0.0323164 0.271966 0.218222 -0.301224 0.60374 0.73808
0.00266428 0.269225 0.0461432 -0.762087 -0.560544 0.324056
0.00565861 0.477022 0.126352 1 0 0
0.00293753 -0.284404 0.373024 0.191137 -0.959033 -0.209098
-0.00506601 -0.182536 0.290855 -0.808106 0.418148 0.414869
0.00815462 0.396636 0.15133 0.762338 0.0139868 -0.647028
-0.00598253 -0.349166 0.339456 -0.334662 0.230355 -0.913749
0.00186514 0.00922385 0.150827 0.809067 -0.397809 -0.432618
-0.00377284 -0.303506 0.0157066 -0.334571 -0.0681632 0.939902
0.0298024 0.246274 0.220337 0.816053 -0.414747 -0.402545
0.0157128 -0.303611 0.183051 0.342592 -0.487435 -0.803142
0.0143098 -0.333648 0.18786 -0.968752 0.150369 -0.197252
-0.0782022 -0.307914 0.47979 0.958419 -0.0924688 0.269966
0.0631856 -0.0329964 0.106992 0 -1 0
0.0828202 -0.376619 0.442056 -0.9444 -0.328569 0.0122688
-0.010118 -0.366871 0.15407 0.976742 0.145622 -0.157382
-0.00360439 0.445147 0.0769288 -0.29152 -0.782506 0.550183
-0.00479293 -0.425563 0.216729 0.288505 0.414227 0.863239
-0.0234044 0.0505598 0.469669 -0.960867 -0.276932 0.00654717
-0.00713485 -0.381856 0.239642 0.76211 -0.317506 -0.56425
0.0930006 -0.355341 0.412643 0.633541 0.542157 0.551989
-0.0136693 -0.30233 0.151304 -0.762131 0.647383 -0.00716452
-0.0034952 -0.262293 0.426159 -0.300424 0.953806 6.35506e-07
0.00577742 -0.155622 0.234023 1 0 0
0.00140544 -0.39931 0.0402569 -0.291488 0.550192 0.782511
-0.0148356 -0.303598 0.183285 0.976667 0.12908 -0.171639
-0.00112414 0.177999 0.0880052 -0.291634 0.784624 0.547097
-0.00703327 -0.395983 0.119105 -0.968643 -0.228153 0.098376
-0.00665736 -0.431635 0.0582221 -0.993135 0.083035 0.0823861
0.0935367 -0.331921 0.391678 0.932933 -0.116159 -0.340797
0.0345721 -0.316031 0.190368 0.397462 -0.807849 0.435206
0.0806919 -0.338383 0.479396 -0.897877 -0.211745 0.385982
0.00351341 0.428043 0.294476 0.73627 -0.479428 -0.477551
-0.00482286 -0.463765 0.247315 -0.334488 0.848105 -0.410896
-0.0245928 0.198224 0.27327 -0.50254 0.485085 0.715644
0.00611994 0.398833 0.127556 -0.790653 0.268301 0.550347
-0.00607934 -0.464426 0.264191 -0.808076 -0.532916 0.251026
0.000727297 -0.0897861 0.258289 -0.30907 0.643735 0.700058
0.00568111 0.0491977 0.431918 0.80868 -0.584714 0.0643962
-0.00507635 -0.146472 0.218097 -0.807983 0.569718 0.15028
-0.00538204 0.289056 0.0584502 -0.762687 -0.646739 -0.00608278
0.0181797 0.045355 0.478576 0.301971 -0.158063 0.940122
0.0055864 -0.202061 0.307186 0.807836 0.418412 0.41513
0.0136112 0.143134 0.315828 -0.41422 0.586977 0.695615
-0.0047316 0.0788987 0.152676 0.819184 0.156784 -0.551685
0.00305529 -0.489062 0.174598 0.308058 -0.948059 -0.0792784
0.00401015 -0.36124 0.30274 0.976831 -0.213797 0.00956847
0.0035808 -0.216561 0.0359778 0.808004 0.336073 -0.483925
0.00577742 -0.183608 0.0700445 1 0 0
-0.00647691 0.426757 0.054169 -0.993776 -0.0775915 0.0799302
-0.080058 -0.323692 0.393368 0.62384 0.21781 0.750588
-0.00662051 0.238943 0.115225 0.9687 0.227737 -0.098777
0.00745687 -0.322349 0.0966864 -0.791283 -0.610661 0.0310582
0.02436 -0.285404 0.233981 -0.919358 0.296871 -0.258164
0.00411403 -0.203276 0.118132 0.96859 0.206439 0.138626
0.000609812 0.488295 0.153925 0.30803 0.947434 -0.0865313
0.00233854 -0.202046 0.360477 0.809012 0.397862 0.432672
-0.0401374 -0.290678 0.477134 -2.94208e-05 -0.000782267 -1
-0.0169064 0.143451 0.156447 -0.319251 0.0373708 -0.946933
-0.0349765 0.0874208 0.474131 -0.9288 -0.369933 0.0219054
-0.00645942 -0.47954 0.20065 -0.993774 0.110836 -0.0113584
0.0218586 -0.00813345 0.126557 1 0 0
0.00248687 0.448956 0.146042 -0.342758 -0.123386 -0.931285
0.0121834 -0.267383 0.36939 -0.986122 0.165361 -0.0148025
-0.0367747 0.299481 0.169304 -0.319251 0.0373708 -0.946933
0.0191343 0.274868 0.197326 0 -6.99786e-05 -1
0.0326422 0.266724 0.173308 0.795675 -0.146421 0.58776
-0.00419158 0.0123581 0.407153 -0.309056 0 -0.951044
0.0218586 0.044361 0.16159 1 0 0
0.00328431 -0.41656 0.319714 0.307734 -0.542732 0.781499
0.0161263 0.268207 0.145488 -0.999949 -0.00959477 -0.00311681
0.00439581 -0.239359 0.410796 0.80905 0 0.587739
-0.00701193 0.161307 0.103731 -0.993134 0.106212 0.0490201
-0.0195255 -0.280407 0.250959 0.886414 0.4144 -0.206258
0.00812899 0.0483746 0.151432 0.760787 -0.0373888 -0.647923
-0.00936659 0.382944 0.14017 -0.976889 0.145425 0.156652
0.00350216 0.166322 0.244751 0.736372 0.612634 -0.287116
0.0126116 -0.275659 0.347056 -0.980157 -0.197855 0.012044
-0.0168019 -0.283697 0.301139 0.807843 -0.581538 0.0959273
0.00686846 0.212369 0.183797 0.968787 -0.146401 -0.200047
-0.00560296 -0.138838 0.289617 -0.309068 -0.643737 -0.700057
-0.00466264 -0.272904 0.374057 0 0 -1
0.017742 0.0245821 0.475791 0.268711 -0.124238 0.955175
-0.00279293 -0.292623 0.0533207 0.96878 -0.237347 0.0716365
-0.00670288 0.387944 0.325928 -0.993776 -0.0485697 -0.100248
-0.00314547 -0.230154 0.318774 -0.334586 -0.551926 -0.763826
-0.0928637 -0.346543 0.405406 -0.48977 0.525088 0.695994
0.0052745 0.0745913 0.488049 0.0626194 -0.23913 0.968966
0.00138302 -0.0101332 0.47576 0.0390378 -0.305938 0.951251
0.0255354 0.189665 0.271009 0.884299 -0.347906 -0.31141
0.0107972 -0.267616 0.164618 -0.878344 -0.0403802 0.47632
-0.0849107 -0.391214 0.456685 1 0 0
0.0160014 -0.313559 0.190453 -0.97677 0.0234323 0.213005
-0.0122324 -0.317025 0.22803 -0.97679 0.208596 0.0486786
-0.00327856 -0.213636 0.269528 -0.568279 0.530212 -0.629233
0.0142872 -0.299422 0.158519 0.762081 0.637499 0.113257
-0.00332164 -0.0301582 0.413651 -0.309052 0 0.951045
-0.00986033 0.249634 0.142235 -0.790702 -0.243244 0.561803
-0.0253376 -0.272186 0.377569 -0.892836 -0.244246 0.378401
-0.00263767 -0.128007 0.278349 -0.309068 -0.643737 -0.700057
0.0218586 0.0192543 0.115528 1 0 0
0.0917576 -0.373679 0.465461 1 0 0
-0.00683677 -0.161286 0.249472 -0.993136 -0.106197 -0.0490145
-0.00255409 0.0378925 0.36854 -0.309041 -0.945334 0.1041
-0.0202832 0.169303 0.295899 -0.50254 0.485085 0.715644
-0.0064408 0.197256 0.051144 -0.808101 -0.418147 -0.414881
0.00307526 -0.174771 0.0941617 0.736356 -0.553481 0.389152
0.00806883 0.311429 0.170196 -0.00347417 -0.808941 -0.58788
0.0218586 0.057948 0.149975 1 0 0
0.00709886 -0.346011 0.272298 0.288663 0.859391 0.422043
0.00540104 0.0358581 0.293886 0.808995 0.584282 -0.064349
-0.00471158 -0.160962 0.121436 -0.291463 -0.923502 0.249384
-0.0175287 0.060779 0.195909 1 0 0
-0.00676086 0.272428 0.0136017 -0.993132 0.0307227 0.112894
0.0806768 -0.348141 0.474008 -0.897877 -0.211745 0.385982
-0.00918471 -0.269458 0.430798 -1 5.94057e-06 1.05592e-06
0.00464662 -0.47278 0.129851 0.736437 0.653788 0.173842
-0.00464331 0.0276432 0.269263 -0.309041 -0.945334 0.1041
0.0241027 0.0352563 0.197592 0.999806 0.0197191 0
-0.0374081 0.0737944 0.198874 0 1 0
-0.00837794 -0.335878 0.108682 0.976818 -0.179224 0.117073
-0.00091234 -0.117487 0.414434 -0.309056 6.67635e-08 0.951044
0.00304668 0.236401 0.319375 0.736332 0.284768 -0.613778
0.00512941 0.0241087 0.142513 -0.0592005 0 -0.998246
0.0212805 0.159082 0.293094 0.884299 -0.347906 -0.31141
0.089234 -0.32945 0.474354 0.607967 0.152021 -0.779272
0.00608565 0.0438746 0.378504 0.80868 -0.584714 0.0643962
-0.091608 -0.361489 0.405527 -0.185037 -0.733567 -0.653943
0.00535962 0.404443 0.221266 -0.878363 -0.337086 0.338897
0.00550841 0.0675135 0.362506 -0.505885 -0.493979 -0.707152
0.00306555 0.243185 0.0174013 0.307903 -0.405403 -0.860723
0.00553184 0.479912 0.196874 0.731991 -0.678955 -0.0566536
-0.00595111 0.150477 0.17463 -0.334665 0.939868 0.068175
0.0168321 0.0267306 0.143772 0.0164026 0.58771 -0.808906
0.00565861 0.373354 0.333353 1 0 0
0.00565861 0.462024 0.0921356 1 0 0
0.00314973 0.466012 0.23874 0.732021 -0.618595 -0.285457
0.040443 -0.322674 0.175023 -0.00109715 -0.999999 0
-0.0130572 0.00299162 0.469894 -0.980819 -0.193676 0.0220046
-0.0397278 0.288938 0.193983 -0.989727 -0.142284 -0.0139644
-0.000365206 -0.435916 0.2795 0.968894 -0.0574963 -0.240703
-0.00591487 0.048425 0.395938 -1 0 0
0.0294614 -0.282471 0.4857 0.000133066 0.930483 0.366335
-0.00388809 0.028525 0.16595 -0.0978146 0.584275 0.80564
0.0181763 0.322136 0.156579 0.98307 0.155767 -0.0964935
-0.0139411 -0.319411 0.173517 -0.0280029 -0.308778 -0.950722
0.00999972 0.338137 0.223087 -0.968785 -0.24584 -0.0319177
0.0846171 -0.344122 0.394094 -0.101901 -0.356757 -0.928623
-0.0299021 0.22335 0.252141 -0.593941 0.441849 0.672312
-0.00288596 0.346775 0.336149 -0.334531 -0.2574 -0.906551
0.00577742 -0.389554 0.0298421 1 0 0
0.0080048 0.387563 0.210285 0.341181 -0.503441 0.793815
-0.00592576 -0.159765 0.10505 -0.808082 0.53291 -0.251018
0.00238403 0.0211107 0.218293 0.80868 -0.584714 0.0643962
0.00268876 -0.310811 0.341924 0.736305 -0.060286 -0.673959
-0.00602829 -0.150336 0.174508 -0.334708 -0.937412 0.0960683
-0.00519635 -0.16464 0.265207 -0.808075 0.483866 0.335988
-0.00711252 0.0654888 0.362554 -0.301439 -0.613157 -0.730187
0.00230652 0.054172 0.413672 0.809056 -1.74141e-07 0.587732
0.0329117 0.283491 0.191424 -0.59422 -0.452461 -0.664968
0.0131464 0.0969652 0.340405 0.816053 -0.414747 -0.402545
-0.00687635 -0.405511 0.184832 0.976798 0.0841647 0.19693
-0.0223833 -0.271136 0.32586 -0.989024 0.145312 -0.0267485
0.0430969 -0.0151345 0.104841 0 1 0
0.0143091 0.329569 0.192543 0.791147 -0.563744 0.237233
-0.0906761 -0.306265 0.479264 -0.690622 0.0254797 -0.722767
-0.00674063 0.187194 0.284585 -0.993778 0.0902752 -0.0652338
-0.00677809 0.329261 0.345884 -0.808149 0.0536369 0.586531
-0.00382452 -0.238359 0.0339657 -0.334633 -0.385532 0.859875
-0.0816195 -0.367303 0.446109 0.691971 0.716056 -0.0918703
-0.00521178 0.486449 0.200833 -0.807873 0.587306 0.0491116
-0.010344 -0.378503 0.195795 -0.791013 0.174592 0.586359
-0.00862697 -0.363985 0.249567 -0.968709 -0.247732 -0.0151886
0.00982246 -0.388643 0.186871 0.791281 0.0624572 0.608254
0.0864341 -0.358931 0.403784 -0.176685 -0.672973 -0.718254
0.021948 0.319196 0.171821 0.00346486 0.809088 -0.587678
0.00565861 0.276723 0.0122492 1 0 0
-0.00661222 0.169703 0.0937229 -0.993775 0.092195 0.0625351
-0.00993033 0.243126 0.189788 -0.976846 -0.0118379 0.213618
-0.00365735 0.0287577 0.196982 -0.309413 0.94521 -0.104119
-0.0213844 -0.280704 0.315121 -0.856222 -0.514197 0.0498624
-0.00404702 0.221542 0.0287422 -0.308026 -0.548675 -0.777223
-0.00631567 0.260476 0.0203626 -0.334681 0.257412 0.906492
0.000841542 0.324071 0.00132268 0.308065 0.0793045 -0.948054
0.0125219 -0.271601 0.327457 -0.994201 0.105412 -0.0212882
0.00224354 -0.1789 0.339371 0.809012 0.397862 0.432672
-0.00663957 -0.286872 0.478338 -0.857844 -0.0254991 0.513277
0.00091145 0.0465482 0.344924 -0.309041 0.945332 -0.104122
0.00329781 0.38101 0.0149168 0.80798 0.246949 -0.534962
0.01324 -0.326387 0.215956 0.762407 -0.637398 0.111621
-0.0010554 0.0455134 0.442194 -0.309041 -0.945334 0.1041
0.0106578 0.297409 0.232123 0.878347 0.39111 0.274845
-0.00289645 -0.273426 0.336485 -0.334739 -0.25738 -0.90648
-0.0111212 0.313059 0.224769 -0.288436 -0.922434 0.25675
0.00229368 -0.169602 0.406832 0.80905 4.96125e-07 -0.587739
0.0175745 -0.296768 0.483159 -2.54112e-05 -0.94414 -0.329544
0.000276799 -0.0174712 0.175419 -0.309068 -0.643737 -0.700057
-0.0194791 -0.287084 0.287147 0 -0.986048 0.166461
0.00299712 0.260756 0.330305 0.736299 0.173869 -0.653936
-0.0712302 -0.300412 0.486001 0.290881 -0.127716 0.948197
-0.00493922 0.482383 0.130667 -0.807952 0.56858 -0.154692
-0.00591487 -0.199357 0.350806 -1 0 0
-0.01073 -0.349244 0.219118 0.976925 -0.128852 -0.170338
-0.0245197 -0.2834 0.263014 -0.98411 -0.0925644 0.151524
0.00407002 0.394316 0.0721314 0.976809 0.204259 0.0642151
0.0285981 -0.296999 0.203435 0.243468 0.917108 -0.315654
0.00333579 0.188916 0.151544 -0.976975 0.0455507 0.208434
0.00163437 0.148112 0.125178 0.307586 -0.920048 -0.242698
-0.00591487 -0.0990288 0.261235 -1 0 0
0.00167234 0.0521475 0.384663 -0.987436 0.151672 0.0443328
0.00206523 -0.141449 0.414004 0.809056 -1.74141e-07 0.587732
0.00210698 0.0254562 0.261243 0.809021 -0.584248 0.0643304
-0.0535114 0.0563869 0.202373 0 0 1
-0.038977 -0.304704 0.187302 -0.743435 0.667244 -0.0457201
0.00176553 -0.174495 0.319579 0.808982 -0.397891 -0.432702
-0.0299571 0.218106 0.16372 -0.303744 0.040625 -0.951887
0.0172431 -0.270704 0.288495 0 0.979087 -0.203442
0.00389344 0.0706091 0.370973 -0.987436 0.151672 0.0443328
-0.00351291 0.183783 0.0607265 -0.308084 -0.675294 -0.670121
0.0126262 -0.27887 0.29676 -0.985402 -0.169866 0.0113177
-0.0408418 -0.31935 0.183231 0.794616 -0.607098 -0.00407362
-0.00298865 0.291201 0.303741 -0.288221 0.922144 0.258027
0.00212101 -0.155656 0.406595 0.80905 4.96125e-07 -0.587739
0.0224591 0.194673 0.261199 -0.59422 -0.452461 -0.664968
0.0282609 0.215367 0.165809 0.809671 -0.047178 -0.584985
-0.0189724 0.0258517 0.163512 0 -0.70711 0.707103
0.011342 0.0883111 0.359382 0.956087 0.0988546 0.275909
-0.0197209 0.0360621 0.47258 -0.977459 -0.211125 -0.000590699
0.00577742 -0.472686 0.233249 1 0 0
-0.00066768 -0.341713 0.00546521 -0.307877 -0.0865399 -0.947482
-0.0131678 0.121414 0.154317 -0.319251 0.0373708 -0.946933
0.00383451 -0.176378 0.266934 0.731955 -0.55971 -0.388544
-0.000602177 -0.489231 0.162431 -0.308058 -0.948057 -0.0792923
0.00565861 0.3522 0.340032 1 0 0
0.000534384 0.366979 0.323725 0.761572 0.64049 -0.0989001
-0.0227711 -0.28695 0.236806 0.90899 -0.408189 -0.0843759
0.0137984 0.145884 0.156998 -0.267474 0.114001 -0.956798
0.0195949 -0.278329 0.258661 0.905701 -0.328542 0.26789
0.0161735 0.302294 0.164385 -0.791053 -0.488125 -0.36874
-0.00973646 0.284416 0.11097 0.287948 -0.778367 0.557881
-0.00617652 -0.325914 0.349887 -0.808069 -0.0490437 0.587043
-0.00458225 0.206627 0.298582 -0.291448 0.675112 -0.677704
-0.000738825 0.215474 0.3196 -0.307558 -0.54282 0.781508
0.0343595 0.270711 0.205522 0.884299 -0.347906 -0.31141
0.00229804 -0.199817 0.406838 0.80905 4.96125e-07 -0.587739
-0.026205 0.241526 0.166861 0.793897 0.15551 -0.587831
-0.00541206 -0.239527 0.393272 -0.30907 0.643735 0.700058
-0.0098842 -0.26311 0.37942 0 0 1
0.00865685 0.342315 0.106866 -0.968928 -0.245998 0.0257657
-0.0368235 0.30559 0.17801 -0.289912 -0.120114 0.949486
0.0174524 0.15154 0.129644 0 -0.151995 0.988381
-0.0842025 -0.36187 0.424552 0.620694 0.691228 0.370059
0.00346795 -0.288909 0.350613 0.808065 0.0535856 0.586651
-0.0257295 0.229275 0.234688 0.929293 -0.144492 -0.339906
0.0075088 0.00752571 0.479066 0.342001 -0.0247284 0.939374
0.00592632 -0.0578845 0.221205 0.809014 0.397861 0.43267
0.00948672 0.125735 0.15949 -0.992793 0.118163 0.0199935
0.00250282 -0.425224 0.0588232 0.736324 0.479366 0.47753
0.0100246 0.11144 0.32859 -0.505885 -0.493979 -0.707152
-0.00645356 -0.407077 0.141821 0.34286 0.292593 -0.892657
0.0889092 -0.395128 0.426953 0.0275262 -0.998079 0.055494
0.00239647 -0.485927 0.144455 0.308224 -0.919825 -0.242733
-0.00591487 0.0468219 0.407171 -1 0 0
0.00385545 0.153703 0.142872 0.731977 0.658817 0.173692
0.00832844 -0.269849 0.453572 0.995733 -0.0900963 -0.0199341
0.00399099 -0.0938059 0.411353 0.80905 0 0.587739
-0.0147201 0.309979 0.147037 -0.968865 0.136459 -0.20659
0.0205356 0.0871383 0.202442 0 0.0101543 0.999948
0.0218586 0.0238238 0.169189 1 0 0
-0.00671353 -0.15453 0.229716 -0.99313 -0.113145 -0.0298416
0.00565861 0.186604 0.0655032 1 0 0
0.0299941 0.0860534 0.488226 0.248625 -0.426562 0.869615
-0.00632377 -0.207859 0.304539 -0.993772 -0.0652623 -0.0903183
-0.00437906 -0.271107 0.0105856 -0.308103 0.242702 -0.919874
0.00376101 -0.212353 0.0502535 0.736324 -0.387025 0.555013
-0.00522609 0.48013 0.22766 -0.807884 0.569844 0.150337
0.00424545 0.275441 0.0606141 -0.762087 -0.560544 0.324056
0.0218586 -0.00207249 0.147594 1 0 0
0.0265679 0.217272 0.24366 0.816053 -0.414747 -0.402545
-0.0101211 0.262592 0.137139 0.878173 0.389366 -0.277859
-0.00903886 0.305891 0.239521 0.96887 -0.198868 -0.147454
-0.00531136 -0.259045 0.273567 -0.288961 0.87209 -0.394918
-0.0138256 -0.327296 0.199904 0.76211 -0.317506 -0.56425
0.0027936 -0.0188117 0.47276 0.0540001 -0.325173 0.944111
-0.00621446 0.404982 0.0292544 -0.80809 0.33598 -0.483847
0.016592 0.221557 0.199189 -0.999949 -0.01008 0
-0.00653102 0.464739 0.105156 -0.993778 -0.100226 0.0485733
-0.013638 0.325803 0.14397 -0.341657 -0.930169 -0.134374
-0.0051771 -0.176365 0.075383 -0.807894 0.481439 -0.339887
-0.0216449 0.198853 0.258787 0.929293 -0.144492 -0.339906
0.00172653 0.032911 0.406052 0.809035 0 -0.587761
0.00257852 -0.252743 0.329348 0.736263 -0.287212 -0.61272
0.0842994 -0.318747 0.397178 -0.221842 0.254085 0.941396
0.00286989 -0.415115 0.0497295 0.73192 0.39307 0.556586
0.0260968 -0.3024 0.223051 -0.966762 0.123542 -0.22385
-0.0044861 -0.000137914 0.408104 -1 0 0
-0.00338793 -0.316497 0.172963 -0.0273257 0.308781 -0.95074
0.0259129 0.248937 0.172064 -0.320174 -0.0423818 0.94641
0.00361305 -0.152896 0.151191 0.731899 -0.678575 0.0621232
-0.00528609 0.0570709 0.483897 -0.181977 -0.252133 0.950428
0.0137554 0.143146 0.303773 -0.505885 -0.493979 -0.707152
-0.00323767 0.0304672 0.147385 -0.303843 -0.0546622 -0.951153
0.0138653 0.303099 0.190524 -0.878218 0.464276 -0.114808
-0.00653459 0.376144 0.329938 -0.993137 -0.0498441 -0.105808
-0.00589284 0.0477401 0.375952 -0.309413 0.94521 -0.104119
0.0186303 -0.0115636 0.187849 -1 0 0
-0.00591489 -0.0817541 0.242347 -1 1.07631e-05 1.22261e-05
-0.0328249 0.250408 0.217786 -0.410844 -0.597454 -0.688663
0.00208062 0.318821 0.338356 0.736394 -0.060273 -0.673862
-0.0826054 -0.377393 0.441141 0.866144 -0.492647 -0.0842228
0.00198197 -0.225912 0.0718454 -0.878403 0.275157 0.390765
-0.0104597 0.328864 0.119445 0.968801 -0.237255 0.0716497
0.00577742 -0.232481 0.327008 1 0 0
0.0363755 -0.0126854 0.114627 0 0.707104 -0.70711
0.00912456 -0.285706 0.249259 0.290301 0.929179 -0.228807
0.0110538 0.259469 0.173898 0.343504 0.183182 0.921113
0.00828511 -0.260686 0.377489 0.191203 0.958923 0.209545
0.00413532 0.442706 0.28032 0.736375 -0.554969 -0.386991
0.0076325 -0.277298 0.477215 0.957489 0.00463989 0.288434
0.00565025 0.231944 0.0310188 0.731922 0.290455 0.616381
-0.000352281 0.173391 0.255913 -0.291589 0.866132 -0.405944
0.0115708 0.0847006 0.491323 0.133986 -0.404249 0.904782
0.022896 0.173836 0.281198 0.884299 -0.347906 -0.31141
0.00247389 -0.310838 0.0158038 0.731952 -0.0566409 0.678997
-0.0072121 -0.361469 0.0953288 -0.7915 -0.546627 0.273362
0.00493527 0.474726 0.112622 0.807908 0.533124 -0.251125
-0.00576343 -0.344979 0.0167974 -0.2916 0.0852475 0.952734
-0.083905 -0.381143 0.464151 1 0 0
0.00148053 0.196806 0.286224 0.736339 0.477502 -0.47937
-0.00980132 -0.256857 0.194871 0.342226 0.348578 -0.872568
-0.00503827 0.391438 0.0303953 -0.334698 -0.385522 0.859854
0.0183898 0.131737 0.320133 0.930972 0.148627 0.33347
-0.00642251 -0.237344 0.325121 -0.993772 -0.0485824 -0.100285
0.00512734 -0.478836 0.204937 0.7319 0.678575 -0.0621185
0.0188286 0.300171 0.200278 0 0.0101543 0.999948
0.00103798 -0.476782 0.170762 -0.291621 0.953056 0.0815013
0.0218586 0.0419377 0.114028 1 0 0
-0.00588751 -0.276881 0.40431 -0.300351 -0.953829 0
0.00919921 -0.375819 0.221573 -0.342307 0.434501 0.833088
-0.0231664 0.165769 0.163975 -0.991297 -0.130762 -0.0151962
0.00805013 -0.271876 0.427284 0.800141 -0.599812 7.26602e-07
0.00406197 0.209183 0.0489532 0.731936 0.393062 0.556572
0.00439813 0.382852 0.325972 0.731905 -0.290438 -0.61641
0.0203703 0.167125 0.158953 0.760787 -0.0373888 -0.647923
0.011466 0.27955 0.143016 -0.97678 0.172727 -0.12675
-0.0109782 0.0984473 0.152611 -0.254323 0.0489704 -0.965879
0.0126093 -0.273235 0.314379 -0.992028 0.124074 -0.0220505
-0.00933961 -0.380486 0.149463 -0.288244 0.238899 -0.927277
-0.00523432 -0.28488 0.466966 -0.83305 -0.0741206 -0.54821
-0.017659 -0.276159 0.268706 0.999581 -0.0287433 0.00327299
0.00015558 -0.38854 0.0202046 0.30801 -0.405374 -0.860698
0.00334055 -0.278158 0.415673 0.800141 -0.599812 7.26602e-07
0.00222137 -0.191778 0.336324 0.808982 -0.397891 -0.432702
-0.00591283 0.0463213 0.36313 -0.309413 0.94521 -0.104119
-0.00679333 -0.226876 0.034395 -0.993777 -0.0625265 0.0921844
-6.73571e-05 0.0399206 0.394336 -0.30831 -0.945572 0.104107
-0.0182287 0.0916675 0.493512 -0.146054 -0.423511 0.89404
0.0233217 0.0628135 0.48175 0.294612 -0.262008 0.918997
0.000689015 0.147873 0.226273 0.307986 -0.918027 0.249741
0.00441124 -0.157393 0.248316 0.808097 0.534804 0.246908
0.0748189 -0.301188 0.486042 -0.593865 -0.661403 0.458117
0.00797009 -0.387059 0.13259 -0.342514 0.452992 -0.823093
0.00565861 0.145865 0.189959 1 0 0
0.0203258 0.0866447 0.11453 0 0.161263 -0.986911
0.0307903 0.0719735 0.478567 0.961256 -0.273568 -0.0338748
-0.0010641 -0.140969 0.304562 -0.30907 0.643735 0.700058
-0.00337463 0.0415855 0.154825 -0.289912 -0.120114 0.949486
-0.0196148 0.314024 0.169177 -0.00132675 -0.308901 -0.951093
-0.00693962 0.147967 0.205105 -0.993774 0.110835 -0.0113579
-0.00490039 -0.422472 0.314984 -0.807913 -0.336146 0.484028
-0.0132497 -0.292259 0.171315 0.968596 -0.228288 -0.0985228
-0.00848259 0.0686276 0.486351 -0.181977 -0.252133 0.950428
-0.00321666 -0.294353 0.00569552 -0.307893 0.0793083 -0.94811
-0.0142443 0.316191 0.179078 0.00132716 0.308994 0.951063
-0.0203063 -0.296635 0.482779 -2.54112e-05 -0.94414 -0.329544
0.0218586 0.021883 0.192884 1 0 0
-0.0265511 -0.289037 0.226863 -0.611559 0.785106 -0.098004
-0.0336484 0.0969159 0.49216 -0.230896 -0.422812 0.876309
0.00771453 -0.288874 0.475279 0.997803 -0.0480679 0.0455883
0.00557271 0.183034 0.276856 0.731961 0.556552 -0.393043
0.005923 0.371943 0.249703 -0.968703 0.101398 -0.226567
-0.0024636 -0.249588 0.295766 0.968907 -0.24698 0.0147987
0.0868933 -0.36358 0.43899 -0.602338 0.77316 0.198528
0.0193126 -0.276152 0.368869 0.980416 -0.196498 0.0131397
-0.00443124 -0.170425 0.330162 -0.309028 0.643744 0.700068
-0.0329867 0.315967 0.169239 0.00132325 0.308994 -0.951063
0.00167802 0.476468 0.188079 0.736344 -0.674147 -0.0576496
0.00183092 0.268996 0.020159 0.736342 0.176408 0.653208
0.0012364 0.157574 0.197522 0.790793 0.0626501 0.608869
0.00292746 0.308992 0.308566 0.289374 -0.953516 0.0840873
0.00577742 -0.252539 0.0212688 1 0 0
-0.00637168 -0.169953 0.0993194 -0.993778 -0.100234 0.0485719
-0.00182129 -0.261113 0.404367 -3.32258e-05 -0.736116 0.676856
0.0104514 0.367158 0.146966 0.343011 -0.487316 -0.803036
-0.00591498 0.00533647 0.158635 -1 1.07631e-05 1.22261e-05
-0.0308214 0.263964 0.221907 0.882716 0.354326 0.308651
0.00543263 0.0514136 0.455165 0.809021 -0.584248 0.0643304
0.00313321 -0.237066 0.0821808 -0.968605 0.0960976 0.229279
-0.00353747 -0.464186 0.0884406 -0.308059 -0.781405 -0.542684
0.0218586 0.00214782 0.166767 1 0 0
-0.0161099 0.149293 0.311474 0.882716 0.354326 0.308651
0.00024735 -0.444679 0.0812693 -0.291521 0.784628 0.547152
-0.00981458 -0.273906 0.225078 0.287943 0.540618 -0.790456
-0.0114609 0.128569 0.316508 0.929293 -0.144492 -0.339906
0.000253225 -0.140652 0.190597 0.307932 0.948098 0.0792926
0.0218586 -0.0197171 0.151555 1 0 0
-0.00553736 0.253364 0.32777 -0.334677 0.385506 -0.85987
-0.0150377 0.298863 0.155099 -0.761548 0.105611 -0.639446
0.00737351 0.286065 0.254469 -0.288142 -0.85897 -0.423256
-0.00683121 -0.146843 0.159975 -0.993134 -0.1165 0.0106541
-0.00523934 0.277757 0.335306 -0.33467 0.230355 -0.913746
0.0257721 -0.289141 0.48919 -1.42393e-05 -0.00128 0.999999
0.0826713 -0.310219 0.48856 -0.502736 -0.147435 0.851774
-0.0108085 0.356573 0.143619 0.762284 -0.499646 -0.411434
-0.00445475 0.0413109 0.313312 -0.309413 0.94521 -0.104119
0.0100192 -0.335581 0.248358 0.968674 0.169119 0.181851
0.0177532 0.109857 0.123234 0 -0.151995 0.988381
-0.0151489 0.0235274 0.476467 -0.152141 -0.139994 0.978394
0.0160435 0.312889 0.175099 1 0 0
0.00578363 -0.295623 0.486069 9.96452e-05 -0.93175 0.363099
0.0850529 -0.379153 0.464315 -1 0 0
0.00205552 -0.41418 0.291483 0.289035 -0.784548 -0.548583
0.0119879 -0.279645 0.194803 -0.762256 -0.000413218 -0.647276
0.0148031 -0.310778 0.157136 0.96884 -0.0962021 -0.22824
0.00523712 -0.46329 0.0922762 0.808005 -0.483919 -0.336081
-0.00774211 0.29177 0.0852268 -0.28978 -0.954327 0.0727205
-0.00444237 -0.368889 0.33392 -0.334662 0.230355 -0.913749
0.0164408 -0.278515 0.270407 -0.979398 0.0415503 -0.197618
0.0235617 0.0625073 0.110818 0.999807 0.0196492 0
-0.00529174 -0.0593626 0.216399 -0.309068 -0.643737 -0.700057
-0.01036 -0.344376 0.120282 -0.976772 -0.212739 0.0256593
-0.00204371 -0.16368 0.239476 -0.29149 -0.86772 -0.402612
0.00394034 -0.106539 0.269659 0.809012 0.397862 0.432672
0.0274568 0.236422 0.228326 -0.59422 -0.452461 -0.664968
-0.00641908 -0.411397 0.0441197 -0.993776 0.065244 0.0902943
-0.0149962 -0.27404 0.341546 0.986645 -0.162573 0.0100951
-0.00253786 0.289414 0.337178 -0.334669 0.0681717 -0.939867
-0.00684311 -0.292653 0.347957 -0.808145 0.0536374 0.586536
-0.00758883 0.086151 0.359591 0.882716 0.354326 0.308651
0.00576133 0.038977 0.338107 0.80868 -0.584714 0.0643962
