0.00179892 0.20297 0.281864 0.999995 0.000462945 0.00314977
0.00619677 0.293653 0.326498 0.998852 0.000745273 0.0479047
0.0023749 0.414485 0.0681789 0.999995 0.000463417 0.00315594
0.00183161 0.37762 0.245865 -0.999995 -0.000462097 -0.00315316
0.00179919 0.335106 0.262376 -0.999995 -0.000462097 -0.00315316
-0.0166762 -0.0924911 0.443088 -0.693502 -0.15817 -0.702877
0.00228236 0.315204 0.112118 -0.999995 -0.000465501 -0.00315688
0.00201018 0.310196 0.199164 0.999995 0.000463332 0.00315532
0.00037745 -0.223146 0.0815798 -0.999995 0.00228092 -0.00222201
0.00574973 0.364231 0.0586834 0.0276672 -0.455111 0.890005
-0.0135299 -0.441654 0.257789 -0.000727765 -0.371829 -0.928301
-0.000265726 -0.339459 0.251248 -0.999995 0.00228197 -0.00222471
-0.0475128 0.175769 0.197015 -0.837798 -0.22115 -0.499187
-0.0124026 0.145449 0.12708 -0.0122319 -0.978802 -0.204444
0.00290368 0.287385 0.340057 0.00113176 -0.192297 0.981336
0.0126499 -0.427725 0.244886 0.996811 -0.0630071 0.0489605
-0.00903056 0.133861 0.573309 0.0255375 -0.604952 -0.795852
0.0383716 -0.287429 0.219674 -0.534326 0.745531 -0.398345
-0.0190548 0.00726333 0.231437 -0.684183 0.00132167 0.72931
-0.0195566 -0.311689 0.314727 -0.997004 -0.00661463 0.0770662
-0.0985252 -0.272054 0.548819 -0.000305786 -0.99994 -0.010996
-0.0160971 0.258586 0.324371 -0.997201 -0.0104539 0.0740285
-0.00926055 0.0320436 0.426979 -0.12704 0.230918 0.964644
0.0125596 -0.442678 0.211438 0.996768 -0.0744079 0.0302741
-0.0137821 0.225639 0.0265526 -0.017966 -0.553923 -0.832374
0.00200386 0.431741 0.183304 -0.999995 -0.000462097 -0.00315316
-0.00891715 -0.170281 0.442102 -0.12987 0.737675 0.662548
-0.0238014 0.124822 0.318273 0.392226 0.596237 0.700472
0.000148974 -0.289505 0.116187 -0.999995 0.00228295 -0.00222945
-0.0110562 0.338577 0.0474725 -0.999068 0.0102398 -0.0419285
-0.0098705 0.0921669 0.403486 -0.416424 0.843677 -0.338821
0.000225869 -0.278792 0.0925966 0.999995 -0.00228089 0.00222558
-0.000187711 -0.28846 0.268493 -0.999995 0.00228197 -0.00222471
4.52692e-05 -0.332179 0.119039 0.999995 -0.00228121 0.00222567
0.0136103 0.188032 0.0980698 0.0145833 0.893809 0.44821
0.0380268 0.183431 0.266269 0.939099 -0.282358 -0.195873
-2.78257e-05 -0.327218 0.156897 -0.999995 0.00228242 -0.00222745
-0.000197316 -0.415686 0.142375 0.999995 -0.00228466 0.00222719
0.00284704 -0.163908 0.180125 0.0149177 -0.993657 -0.111457
-0.00496543 -0.171832 0.26954 -0.00984811 0.803769 0.59486
0.00359438 -0.426178 0.0768473 0.998709 -0.0400838 -0.0311919
0.0077547 0.118231 0.402364 -9.7438e-05 0.763484 -0.645827
0.0124644 -0.415729 0.264114 0.996799 -0.0631897 0.0489753
0.00774289 -0.0152533 0.225505 -0.00272756 -0.902968 -0.429698
0.0123707 0.418146 0.294756 0.996821 0.0589235 0.0536272
0.0100502 -0.137702 0.189877 0.996645 0.0815538 0.00695135
0.00228821 0.277618 0.115776 0.999995 0.000463405 0.00315188
-0.016478 0.16218 0.0889724 -0.997502 -0.0640289 -0.029821
-0.0191504 -0.164352 0.149978 0.016851 -0.988022 0.153389
0.145633 -0.259396 0.550813 0.000305194 0.999943 0.0106332
-1.05986e-05 -0.267616 0.210314 0.999995 -0.00228121 0.00222567
3.32443e-05 -0.226915 0.232332 0.999995 -0.00228121 0.00222567
0.00671059 0.210059 0.0850156 0.998696 -0.0384633 -0.033575
0.00331841 -0.0467538 0.303969 0.402662 0.680997 0.611642
0.00017328 -0.189204 0.208032 -0.999995 0.00228242 -0.00222745
-0.0106358 0.0816607 0.35184 0.813535 0.440059 0.380144
-0.00450238 -0.141141 0.410523 -0.129846 0.737677 0.66255
0.0118501 0.298254 0.00640451 0.996435 -0.00626381 -0.0841348
-0.0148483 -0.0151199 0.23375 -0.00306116 -0.927393 0.374076
-0.0154513 0.314784 0.335347 -0.997151 0.00859674 0.0749356
0.102712 -0.271079 0.553457 0.000884749 -0.740988 0.671517
0.00187743 0.342022 0.236562 -0.999995 -0.000464823 -0.00315583
-0.0123067 0.0292064 0.29683 -0.416413 -0.843682 0.338824
-0.059516 0.0764226 0.21665 1.45538e-05 -0.889354 -0.45722
-0.00107411 -0.321483 0.332603 -0.000288793 -0.0984636 0.995141
0.00575198 0.417914 0.278963 0.9989 0.033815 0.0324849
-0.00958617 0.288087 0.0189815 -0.0308153 -0.0588673 -0.99779
0.0133075 0.423592 0.0771477 0.996658 0.0678845 -0.0454281
-0.00979064 -0.0072585 0.260309 -0.402672 0.680993 0.611639
-0.0127078 0.0512163 0.409406 -0.224799 -0.209952 -0.951518
0.00694007 0.211803 0.267385 0.998758 -0.035016 0.0354347
-0.0113344 -0.281079 0.00283996 -0.0165367 0.0959822 -0.995246
-0.0267743 0.0511762 0.217406 -0.837798 -0.22115 -0.499187
0.00213464 0.340771 0.155168 -0.999995 -0.000464193 -0.00315528
0.000281515 -0.254303 0.0927686 -0.999995 0.00228265 -0.00222737
0.0020781 0.38005 0.167367 0.999995 0.000463401 0.0031531
4.12336e-05 -0.0304606 0.442055 0.0690677 0.232419 0.97016
0.00348613 -0.241531 0.0271974 0.998737 0.0166905 -0.0473875
0.00236197 0.234757 0.0986818 0.999995 0.000463517 0.0031527
-0.0184305 0.269769 0.037467 -0.997505 -0.0222653 -0.0669879
-0.0166468 0.150443 0.211688 -0.997401 -0.0670823 0.0262775
0.00170238 0.274578 0.301966 -0.999995 -0.000464823 -0.00315583
-0.0123414 -0.208155 0.0485895 -0.999117 0.0254743 -0.0333982
0.0102871 -0.151535 0.231093 0.996691 0.0763484 0.0279032
0.00719309 0.149588 0.113311 -0.0145654 -0.894 -0.447831
-0.000132585 -0.254656 0.278387 -0.999995 0.00228197 -0.00222471
0.00763817 0.0950526 0.400116 0.224306 -0.206887 -0.952305
-0.0133748 0.139376 0.184589 -0.0096854 -0.998529 0.0533444
0.00192782 0.177495 0.24474 -0.999995 -0.000464665 -0.00315574
0.0109067 0.0265786 0.278644 0.716124 -0.647694 0.260115
0.00419142 0.149501 0.197783 -0.0163807 -0.998376 0.054558
-0.0180418 -0.464489 0.178777 -0.997266 -0.0720164 0.0165775
-0.0349806 0.0111531 0.24074 0.00189724 0.670228 0.742153
7.25414e-05 -0.261708 0.179014 0.999995 -0.00228088 0.00222536
-0.0428952 0.254993 0.210395 0.935613 -0.0876117 -0.341982
0.00179813 0.278158 0.271096 -0.999995 -0.000464823 -0.00315583
0.014113 0.231278 0.305774 0.996698 -0.0398398 0.0707499
0.000142249 -0.219267 0.191159 -0.999995 0.00228242 -0.00222745
-0.000102206 -0.359112 0.157609 -0.999995 0.00228242 -0.00222745
0.0116054 -0.214597 0.286621 0.996753 0.0511903 0.0621559
-0.00748138 0.430968 0.146155 0.0167126 -0.952758 0.303272
-0.033762 0.189996 0.255119 0.686852 -0.352681 -0.635492
0.00029366 -0.187166 0.156085 -0.999995 0.00228295 -0.00222945
-0.00764897 -0.232284 0.45734 -0.212866 -0.9325 0.291772
-0.000151487 -0.341392 0.197954 -0.999995 0.00228116 -0.00222417
-0.000226049 -0.395687 0.175784 -0.999995 0.00228099 -0.00222302
-0.00256752 0.451802 0.0942629 -0.0124358 0.842805 -0.538076
-0.0426873 -0.240265 0.32171 -0.434794 0.885858 -0.161896
0.0125512 0.247502 0.0260858 0.996317 -0.0275173 -0.0812132
-0.0104089 0.246951 0.016937 -0.0187643 -0.319052 -0.947551
-0.0171167 0.40212 0.0514579 -0.99733 0.0507315 -0.0525372
-0.0162976 0.460909 0.126154 -0.997155 0.0723589 -0.0211226
0.0135154 0.166544 0.581139 0.564561 0.118036 0.816908
0.0134895 0.161498 0.135888 0.996262 -0.083933 -0.0204027
0.00169784 0.32344 0.296248 0.999995 0.000463044 0.00315049
0.0100105 0.109417 0.591772 0.484268 0.127906 0.86552
-0.00442941 -0.190097 0.0845652 0.0188556 -0.773223 0.633854
0.010356 -0.436601 0.0720034 0.996407 -0.0660321 -0.0530321
-0.0591135 0.285735 0.196901 -0.686772 0.352739 0.635546
-0.0164964 -0.206532 0.43595 -0.434794 0.885858 -0.161896
-0.0176475 -0.135292 0.17405 -0.0148952 0.993701 0.111073
0.000137397 -0.180364 0.233233 0.999995 -0.00228012 0.00222484
-0.0325389 0.166587 0.202694 0.980935 0.177595 0.0789093
-0.0109684 0.400178 0.0845173 -0.999015 0.0306143 -0.032136
-0.00827067 -0.392328 0.298565 0.0018813 -0.583017 0.812458
-0.0101148 0.450966 0.200741 -0.998951 0.0449418 0.00879973
0.00289119 -0.150379 0.133381 -0.0276342 0.987637 -0.154302
-0.0101466 0.169445 0.205036 0.00698999 0.950938 -0.309302
-0.000179976 -0.264154 0.0158487 -0.0294211 0.350355 -0.936155
-0.0193722 -0.426573 0.232316 -0.997201 -0.0660753 0.0349885
-0.0126474 -0.29515 0.0212464 -0.999144 0.00453548 -0.0411218
0.000235881 -0.317809 0.0481295 -0.999995 0.0022813 -0.0022246
0.00194739 0.231847 0.230581 0.999995 0.000462811 0.00315149
0.00903238 0.0028307 0.214177 0.000350665 0.0101061 -0.999949
-0.00813268 0.112763 0.482625 -0.980366 0.183885 -0.0712016
0.0123852 0.270155 0.336669 0.00113176 -0.192297 0.981336
-0.00686796 0.314813 0.0437501 0.0297731 -0.205549 0.978194
0.0020812 0.282666 0.180654 -0.999995 -0.000464193 -0.00315528
-0.00402325 0.082798 0.43569 -0.135121 -0.919454 0.369252
-0.00721702 0.00460624 0.426683 0.52994 -0.543278 0.651162
0.0214895 -0.250145 0.368501 -0.419953 -0.899403 0.1213
-0.00884762 0.0366823 0.389317 0.843709 -0.3638 -0.394721
0.00227608 0.232919 0.126198 0.999995 0.000463405 0.00315188
-0.000413248 -0.434053 0.220572 0.999995 -0.00228816 0.00222985
0.000174612 -0.258155 0.13679 -0.999995 0.00228295 -0.00222945
-0.0113259 0.349921 0.335941 0.00180851 0.317283 0.948329
-0.000766189 -0.188107 0.480078 0.127039 0.232156 0.964347
0.000175615 -0.295593 0.0979639 0.999995 -0.00228012 0.00222484
-0.019199 -0.0415097 0.283485 -0.957261 -0.215177 -0.193263
0.164998 -0.304864 0.584429 0.674567 -0.584874 -0.450424
0.0131217 0.18759 0.284287 0.996608 -0.0579432 0.0584305
0.0130091 0.390823 0.0428634 0.996586 0.0357346 -0.0744275
-0.056284 -0.257171 0.310159 -0.947562 -0.181513 0.26302
-0.000390571 -0.448485 0.195586 -0.999995 0.00228251 -0.00222833
0.00291393 -0.314009 0.0012679 -0.0145862 -0.162012 -0.986681
5.26078e-05 -0.361345 0.085847 0.999995 -0.00228121 0.00222567
-0.013319 -0.374074 0.0573642 -0.999149 -0.0269789 -0.0311838
0.00214929 0.40101 0.141708 0.999995 0.000463373 0.0031529
-0.00399292 0.438247 0.0730652 -0.0124423 0.842807 -0.538072
0.0280539 -0.245882 0.316723 -0.432678 0.845506 -0.312904
0.00419632 -0.342194 0.293197 -0.000640626 0.351983 -0.936006
0.00465958 -0.185219 0.107265 0.99883 0.0435666 -0.0210033
-0.0280072 0.172037 0.277604 0.87086 0.385737 0.304648
-0.00273361 0.0296356 0.412787 0.0683642 -0.210199 -0.975266
0.00221588 0.000978224 0.434369 0.0690677 0.232419 0.97016
0.000310137 -0.227257 0.10756 0.999995 -0.00228333 0.00222723
-0.0644299 -0.26312 0.276949 0.506642 0.798247 -0.325755
0.0105075 -0.287519 0.329221 0.996801 0.0124723 0.0789458
-7.24507e-06 -0.296614 0.179086 0.999995 -0.00228121 0.00222567
0.000626394 0.211135 0.313638 -0.000200253 -0.444561 0.895748
0.00395974 -0.32822 0.313494 0.9989 -0.00645846 0.0464456
-0.0380108 0.114172 0.213336 -0.921064 -0.0939969 0.377896
0.00358827 -0.40765 0.0570077 0.998692 -0.0313179 -0.0404243
-0.0611393 -0.302202 0.181041 0.0196644 0.984612 -0.173643
0.00215772 0.361485 0.144808 -0.999995 -0.000461456 -0.00315154
-0.0104023 -0.208359 0.268291 0.00713863 -0.624413 -0.781062
-0.0106726 0.179136 0.141333 0.020418 0.978725 0.204158
-0.0109338 -0.172474 0.116548 0.018196 -0.912707 0.408209
0.00650818 0.278248 0.0398857 0.998771 -0.016968 -0.0465684
-0.0125573 -0.237091 0.0346701 -0.999124 0.0154468 -0.0388859
-0.0106808 0.212526 0.277548 0.00208744 0.664847 -0.746977
-0.018496 -0.358517 0.0114544 -0.997481 -0.0315479 -0.0635362
-0.0190403 -0.210838 0.29032 -0.997055 0.0471297 0.0604964
-0.0206761 -0.208315 0.477397 -0.983902 -0.170557 0.053365
0.00186214 0.418658 0.230177 -0.999995 -0.000460068 -0.0031507
-0.00703566 0.186957 0.0564549 -0.0165456 -0.749523 -0.661771
0.00269196 -0.137218 0.37635 0.402738 -0.680972 -0.61162
0.00381665 -0.199331 0.0605005 0.998794 0.0371374 -0.0321111
-0.0120874 0.063724 0.374127 0.528168 0.625793 0.573953
0.00196086 0.392743 0.304612 0.000624754 0.551006 0.834501
0.0395417 -0.249742 0.338362 0.795291 -0.545936 0.263566
0.000319053 -0.299371 0.0296361 0.999995 -0.00228089 0.00222558
0.000179077 -0.337839 0.0531092 0.999995 -0.00228088 0.00222536
0.0103136 -0.412948 0.290708 0.99683 -0.0482665 0.0632448
-0.00732309 0.446177 0.239057 -0.00448459 0.892391 0.451241
0.0198803 0.00981736 0.241807 0.00188566 0.670316 0.742074
-0.0170379 -0.0717757 0.310274 -0.70192 -0.5299 -0.475935
-0.0110062 0.375019 0.290029 -0.998984 0.0267198 0.036283
-0.00490952 -0.273506 0.0403894 0.0272006 -0.0976643 0.994848
-0.012903 0.151552 0.588593 -0.0945452 0.161195 0.982383
5.52495e-05 -0.208448 0.241356 -0.999995 0.00228116 -0.00222417
-0.0337179 0.0923927 0.217527 -0.684183 0.00132167 0.72931
-0.00676141 0.163305 0.109396 -0.0241672 -0.893652 -0.44811
0.010477 -0.157831 0.458309 0.693501 -0.162095 -0.701984
-0.00770818 0.12697 0.517561 -0.828546 0.522145 -0.202179
-0.0129769 -0.193492 0.23986 -0.998964 0.0365043 0.0271675
-0.0303484 -0.30591 0.186746 0.0193115 0.469443 0.882752
-0.0205566 -0.218039 0.40519 0.970653 -0.0767861 -0.227895
0.000316505 -0.206612 0.125925 -0.999995 0.00228295 -0.00222945
0.00763246 -0.201058 0.527456 0.673806 0.273258 0.686524
0.0141756 0.296295 0.327333 0.996811 0.00265971 0.079756
0.0118777 -0.0614294 0.308873 0.957247 0.21521 0.193293
-0.00819439 0.217682 0.0773007 0.0272464 0.748224 0.662887
0.00161515 0.316531 0.323481 0.999995 0.000460942 0.00314842
-0.00265288 -0.0614841 0.449844 0.127039 0.232156 0.964347
-0.012415 -0.187965 0.0723535 -0.999099 0.0337832 -0.0257007
0.00568832 0.153647 0.18121 0.998692 -0.0511104 0.00163483
-0.0179578 0.182013 0.0957193 -0.997479 -0.0644234 -0.0297669
-0.000241093 0.25195 0.302482 0.000174497 0.444237 -0.89591
-0.0211822 0.190628 0.580792 -0.300427 0.149541 0.942009
-0.0459514 0.222355 0.230646 -0.392331 -0.596219 -0.700428
0.00613535 0.367811 0.305754 0.998888 0.0241216 0.0405167
-0.00965043 -0.307668 0.0371812 0.0241484 0.1612 0.986626
-0.000976191 -0.23607 0.318708 -0.00451738 0.404599 0.914483
0.00255978 0.306246 0.0254811 0.999995 0.000460906 0.00314325
0.00886896 0.0339983 0.403778 -0.477699 0.641642 0.600082
0.00493277 -0.218199 0.496286 0.590482 -0.770228 0.240998
-0.00913748 -0.171101 0.211569 0.0125113 -0.930199 -0.366842
-0.00027482 -0.385372 0.208269 0.999995 -0.00228491 0.00222743
0.00358941 -0.158141 0.112293 0.998842 0.0432447 -0.0210656
0.00183636 0.0519634 0.357168 0.135121 -0.919453 0.369254
0.0100065 -0.0282555 0.261697 0.701917 -0.529902 -0.475937
-0.000456071 -0.388171 0.28687 -0.999995 0.00228256 -0.00222587
0.013299 0.202248 0.573362 -0.00420108 0.235198 -0.971938
0.0431108 -0.260852 0.265674 -0.476208 -0.873724 0.0991542
0.00039486 -0.240641 0.0558 0.999995 -0.00228334 0.00222724
-0.00175373 0.0166519 0.230161 0.00315946 0.999404 0.0343722
0.00192952 0.19855 0.241104 -0.999995 -0.000464665 -0.00315574
-9.38759e-05 -0.342951 0.17049 0.999995 -0.00228311 0.00222696
-0.0116169 -0.2053 0.514141 -0.411939 -0.878417 0.24226
-6.99486e-05 -0.373439 0.128489 0.999995 -0.00228311 0.00222696
-0.000277342 -0.300536 0.296419 -0.999995 0.00228112 -0.00222141
0.0130651 0.178547 0.0872741 0.996237 -0.0765639 -0.0406062
-0.00683105 -0.452897 0.0933974 -0.00450574 -0.933756 -0.357882
0.0202136 0.181812 0.568453 0.00816806 0.232258 -0.97262
-0.00133794 0.215899 0.046212 -0.0294197 -0.552416 -0.833049
0.000441335 -0.19186 0.436702 0.129869 -0.737675 -0.662548
-0.0151461 0.010047 0.413649 -0.528228 -0.625767 -0.573925
0.0140035 0.306847 0.316307 0.996719 -0.00386709 0.0808512
0.00212843 0.303894 0.162561 -0.999995 -0.000464193 -0.00315528
0.00384212 -0.225233 0.526946 0.376653 -0.35443 -0.855869
-0.0185241 -0.100714 0.354109 -0.957247 0.215211 0.193293
0.0114917 -0.451303 0.124713 0.996483 -0.0765134 -0.0341599
0.010828 -0.37572 0.0487037 0.0122508 0.408626 0.91262
0.0121504 -0.43059 0.0981148 0.996379 -0.0661617 -0.0533989
0.170029 -0.278818 0.566907 0.929968 0.173344 0.324209
-0.0166716 0.156928 0.227414 -0.997426 -0.066842 0.0259567
-0.019374 -0.155365 0.208279 -0.997242 0.0682808 0.0290895
0.00218439 0.446767 0.123845 -0.999995 -0.000462259 -0.00315233
0.010186 -0.398299 0.0342421 0.996321 -0.0511624 -0.068748
0.00395149 -0.271925 0.551471 0.000306849 -0.935853 0.352391
-0.0104613 0.444542 0.159065 -0.998957 0.0455976 -0.0024146
-0.000194237 -0.403136 0.153831 -0.999995 0.00228099 -0.00222302
0.00238055 0.377851 0.0717801 -0.999995 -0.000464665 -0.00315574
-0.0189123 -0.161736 0.461914 -0.955338 -0.0713359 -0.286775
-0.029258 0.16361 0.581461 -0.559579 0.115352 0.82071
0.00720247 -0.0883106 0.347681 0.402674 0.680993 0.611639
0.00215892 0.270328 0.157861 0.999995 0.000463373 0.0031529
-0.0129397 -0.234404 0.536716 -0.950897 -0.107922 -0.290084
0.00178249 0.378884 0.261264 -0.999995 -0.000460848 -0.00315146
0.00673051 -0.237415 0.411793 -0.419953 -0.899403 0.1213
0.0362741 -0.262466 0.544019 -0.00135438 0.428214 -0.903676
0.00222365 0.431864 0.113583 0.999995 0.000463405 0.00315188
0.00699326 0.00252809 0.24668 0.402674 0.680993 0.611639
7.95185e-05 -0.295765 0.140939 -0.999995 0.00228252 -0.00222811
-0.00118419 0.0983057 0.416989 0.13506 0.919462 -0.369255
0.00338841 -0.395395 0.0747039 0.0163305 0.630016 0.77641
0.0018326 0.239541 0.265814 0.999995 0.000462708 0.00315744
0.00248315 0.203145 0.0649131 0.999995 0.000463424 0.00315599
-0.011994 -0.138679 0.131221 -0.0168555 0.987933 -0.153961
-0.166114 -0.306634 0.589407 -0.902589 -0.373225 -0.214559
-0.000110207 -0.279195 0.243187 0.999995 -0.00228015 0.00222413
-0.0100944 0.423725 0.0827331 -0.998996 0.0381516 -0.0234755
-0.0436414 0.207873 0.256075 -0.313802 0.532842 0.78588
-0.00112305 -0.208471 0.482239 -9.85571e-05 -0.359075 -0.933309
-0.0102099 0.285136 0.317322 -0.999082 -0.00549949 0.0424886
-0.0184227 -0.388018 0.309985 -0.997088 -0.0423207 0.0634447
-0.0325547 -0.243885 0.361494 0.328689 -0.943109 0.0500905
0.0019281 0.276219 0.230151 -0.999995 -0.000461456 -0.00315154
0.00603128 0.33826 0.316933 0.998871 0.012633 0.0457977
0.00171688 0.000203416 0.228328 0.135071 -0.91946 0.369255
-0.00164001 0.39314 0.0304048 -0.0168437 0.45511 -0.890276
0.0141208 0.0782932 0.340558 -0.194725 -0.572057 -0.796764
0.00183262 0.316646 0.254498 -0.999995 -0.000464823 -0.00315583
0.00616666 0.380128 0.0489173 0.998872 0.0202972 -0.0429303
-0.0150146 0.359559 0.0138356 -0.0181924 0.204432 -0.978712
-0.00570097 -0.460891 0.16367 -0.0042996 -0.995068 -0.0991006
-0.0123919 -0.353093 0.309775 -0.998991 -0.013744 0.0427458
0.0135846 0.171404 0.113392 0.9962 -0.0768126 -0.0410561
-0.0169917 0.388121 0.0382074 -0.997385 0.0345146 -0.0635017
-0.0195199 -0.224534 0.0333587 -0.997527 0.0411701 -0.0569645
0.0011016 0.16651 0.160609 0.0122427 0.978748 0.204701
-0.00134473 -0.411518 0.281624 0.00182353 -0.765787 0.643092
0.0133853 -0.050061 0.437881 0.955327 -0.0732003 -0.286343
0.00190967 0.37575 0.221418 0.999995 0.000462811 0.00315149
0.00219072 0.204032 0.157525 -0.999995 -0.000463797 -0.00315522
0.00222028 0.328431 0.129842 -0.999995 -0.000464193 -0.00315528
0.0121325 -0.440935 0.229784 0.996768 -0.0744079 0.0302741
-0.0286484 -0.262459 0.555864 0.00162442 0.373191 0.927753
0.0116269 -0.369297 0.0373258 0.996227 -0.0326444 -0.0804111
0.000175356 -0.169585 0.227214 -0.999995 0.00228116 -0.00222417
0.0145959 0.093191 0.341562 -0.459045 0.575565 0.676759
-0.0071507 -0.175867 0.1426 0.0276556 -0.987726 0.153731
-0.00233567 0.46023 0.184107 -0.0123276 0.998755 -0.0483424
-0.0103713 0.329428 0.0288764 -0.999076 0.0103294 -0.0417202
-0.0166503 0.427585 0.0671611 -0.997306 0.0507792 -0.052934
-0.000125227 -0.393466 0.132791 0.999995 -0.00228015 0.00222413
0.000453449 -0.228068 0.0423337 -0.999995 0.00228038 -0.00222175
-6.59423e-05 -0.407327 0.0919474 0.999995 -0.00228311 0.00222696
0.00226232 0.200071 0.135406 -0.999995 -0.000460523 -0.00315075
-0.0185142 0.042352 0.312069 -0.960382 -0.259045 0.10277
4.14902e-05 -0.196445 0.259858 0.999995 -0.00228121 0.00222567
0.000280498 -0.327962 0.0176583 -0.999995 0.00228093 -0.0022254
-0.000441574 -0.374306 0.294575 -0.999995 0.00228256 -0.00222587
-0.0231674 0.0729967 0.348327 -0.870779 -0.385819 -0.304774
0.0107606 -0.171958 0.0812145 0.996435 0.0644465 -0.0544463
-0.0166278 0.156291 0.106627 -0.997502 -0.0640289 -0.029821
-0.170169 -0.279049 0.566309 -0.930586 0.17743 0.3202
0.00990113 -0.111437 0.457532 0.693581 0.162389 0.701837
0.00179792 0.413227 0.251353 -0.999995 -0.000460068 -0.0031507
0.0118954 -0.176463 0.469354 0.955336 0.0601915 0.289327
-0.0167486 0.332315 0.0122541 -0.997467 0.0162198 -0.0692504
-0.0161044 0.0594652 0.331873 -0.716081 0.647735 -0.260131
-0.0166579 -0.198924 0.462528 -0.853626 0.49712 -0.155542
0.031307 0.154066 0.284399 0.458981 -0.57558 -0.67679
-0.0124762 -0.443803 0.122144 -0.999146 -0.0393263 -0.0126649
-0.000722498 -0.13036 0.46617 0.127039 0.232156 0.964347
-0.0123959 -0.450297 0.15085 -0.99913 -0.0416615 -0.00159819
-0.0132576 0.43088 0.114607 0.00976812 -0.953376 0.301627
-0.0200004 -0.173223 0.0957313 -0.997468 0.0655889 -0.027503
-0.0167378 -0.347399 0.0363931 0.0122508 0.408626 0.91262
-0.000431658 0.101494 0.43534 -3.10157e-05 0.353807 0.935319
0.0365245 -0.253145 0.301955 -0.476208 -0.873724 0.0991542
-0.00957936 0.197754 0.572308 -1.67964e-05 0.234994 -0.971997
0.00220802 0.374982 0.126879 -0.999995 -0.000464193 -0.00315528
-0.0102861 0.151137 0.17047 -0.999158 -0.0408883 0.0033941
0.0116316 -0.186355 0.449182 0.957259 0.215182 0.193268
0.0235306 -0.253572 0.350162 -0.419953 -0.899403 0.1213
0.0111743 -0.21728 0.417351 -0.432678 0.845506 -0.312904
-0.0196992 -0.387135 0.290513 -0.997088 -0.0423207 0.0634447
-0.000180403 -0.259886 0.294544 0.999995 -0.00228015 0.00222413
2.81009e-06 -0.370353 0.0989598 -0.999995 0.00228295 -0.00222945
0.00236322 0.324013 0.0852063 -0.999995 -0.000465501 -0.00315688
-0.0188267 -0.333307 0.00897062 -0.997502 -0.0134285 -0.0693438
-0.000376319 -0.355396 0.28461 0.999995 -0.00227865 0.00222318
0.00209195 0.32074 0.171645 -0.999995 -0.000464193 -0.00315528
0.0118553 -0.312194 0.0254259 0.9962 -0.0118308 -0.0862919
-0.0240706 0.173312 0.566399 -9.16775e-05 0.235006 -0.971994
0.00252776 0.239228 0.0454454 -0.999995 -0.000460756 -0.00315024
-0.00201675 -0.0817849 0.454647 0.127039 0.232156 0.964347
0.00204134 0.450949 0.168607 0.999995 0.000463401 0.0031531
-0.00736745 0.266091 0.335896 0.0011612 -0.192279 0.98134
-0.0119454 -0.247514 0.311855 -0.998951 0.0192463 0.0415551
0.00237882 0.303161 0.0832844 0.999995 0.000463417 0.00315594
-0.00513887 -0.431936 0.271578 0.00178428 -0.76492 0.644122
0.000389671 -0.281749 0.0159806 -0.999995 0.00228489 -0.00223771
5.6162e-05 -0.251653 0.196626 -0.999995 0.00228099 -0.00222302
0.00816641 0.0754421 0.368933 0.716114 0.647703 -0.260118
0.0102588 -0.365166 0.320975 0.996833 -0.0295571 0.0738249
0.0900903 -0.263621 0.543391 -0.00135438 0.428214 -0.903676
0.00236842 0.178747 0.104871 -0.999995 -0.00046303 -0.00315247
-0.00573911 -0.177698 0.130583 0.0276556 -0.987726 0.153731
0.0306896 -0.230299 0.382229 0.940705 0.334617 0.0557279
0.00221577 0.395372 0.121447 0.999995 0.000463405 0.00315188
0.00181766 0.295038 0.262421 -0.999995 -0.000464823 -0.00315583
-0.000317852 -0.438761 0.172883 -0.999995 0.00228099 -0.00222302
-0.00590464 0.178393 0.567627 5.90051e-05 0.234969 -0.972003
0.0432484 0.227546 0.230545 0.737921 -0.470402 -0.483936
-0.0102288 0.392051 0.0649664 0.014882 -0.673405 0.739124
0.0107621 -0.341209 0.0167834 0.9962 -0.0118308 -0.0862919
0.0218835 -0.214412 0.435484 0.940705 0.334617 0.0557279
0.00232497 0.413542 0.0841376 0.999995 0.000463417 0.00315594
0.000310406 -0.136395 0.144531 -0.016844 0.987932 -0.153968
0.00455231 -0.263319 0.0419012 0.998723 0.0169798 -0.0475876
0.000235188 -0.157656 0.212566 0.999995 -0.00228333 0.00222723
0.00199352 0.404002 0.190667 0.999995 0.000463332 0.00315532
-0.00855073 -0.423847 0.0521136 -0.00967356 -0.629162 -0.777214
0.0129288 -0.440421 0.196336 0.996682 -0.0808741 0.00916137
0.00168902 0.336002 0.297199 0.999995 0.000463044 0.00315049
0.0024671 0.189308 0.0720284 0.999995 0.000463424 0.00315599
0.00207858 0.178418 0.196832 -0.999995 -0.000463797 -0.00315522
-0.00315737 -0.311629 0.305748 0.00030911 0.0980887 -0.995178
-0.0171971 -0.122046 0.450253 -0.693502 -0.15817 -0.702877
-0.0194199 -0.180337 0.468356 -0.955323 0.0582838 0.289761
-0.0167658 0.32225 0.316998 -0.997151 0.00859674 0.0749356
-0.0191309 -0.389656 0.0386229 -0.997431 -0.0479053 -0.0532575
0.0516078 -0.286205 0.235992 0.53431 -0.74555 0.398332
0.00252707 0.341389 0.0307238 0.999995 0.00046328 0.00316067
-0.0303503 -0.00937182 0.217507 -0.00189784 -0.670407 -0.741991
-0.000342614 -0.41785 0.205437 0.999995 -0.00227865 0.00222318
0.0121013 0.155944 0.250784 -0.00442425 -0.837712 0.546095
-0.00681681 -0.365848 0.0250874 -0.0204376 -0.40926 -0.912189
0.0116087 -0.0509741 0.290844 0.957261 -0.215177 -0.193263
-0.000146171 -0.204634 0.0827745 0.0308646 -0.773807 0.632669
-0.0570452 -0.291502 0.227208 0.0106687 -0.886807 0.462017
0.0144119 0.204769 0.27933 0.996588 -0.0582307 0.0584983
-0.00672977 0.11726 0.584346 0.00127288 -0.503347 -0.864084
-0.0029746 -0.454847 0.213529 0.000761917 -0.907679 0.419665
0.00198196 0.346243 0.202815 0.999995 0.000463332 0.00315532
-0.0176673 -0.466726 0.129616 -0.00437154 -0.933787 -0.357803
0.00388722 -0.153782 0.184606 0.998895 0.0468332 0.00397235
-0.0181819 -0.139598 0.399096 -0.957247 0.215211 0.193293
0.000328479 -0.169161 0.158884 0.999995 -0.00228333 0.00222723
-0.00776029 -0.185611 0.221378 0.0207811 -0.930669 -0.365273
0.00605076 0.162673 0.207146 0.998709 -0.0487779 0.0141504
-0.0185714 -0.201916 0.0342997 -0.0187792 0.58001 -0.814393
-4.1447e-05 -0.220938 0.272017 0.999995 -0.00228121 0.00222567
0.00120166 -0.229596 0.0168095 -0.0179624 0.348902 -0.936987
0.00244947 0.247594 0.0690674 -0.999995 -0.000462637 -0.00315281
-0.0130312 -0.24077 0.282639 -0.998941 0.019455 0.041684
-0.0106431 0.389125 0.289669 -0.998991 0.0265442 0.0362112
0.00207562 0.436454 0.159863 0.999995 0.000463401 0.0031531
0.000165965 -0.357076 0.0392907 -0.999995 0.0022813 -0.0022246
0.00174887 0.236622 0.29282 -0.999995 -0.000461456 -0.00315154
0.00229194 0.344328 0.104795 -0.999995 -0.000464665 -0.00315574
0.00216505 0.426769 0.132923 0.999995 0.000463405 0.00315188
0.0529447 -0.310556 0.188138 0.831041 -0.486036 0.270443
-5.57979e-05 -0.248586 0.250127 0.999995 -0.00228121 0.00222567
0.0120725 -0.177416 0.236547 0.996697 0.066136 0.0471303
0.00279605 0.0976091 0.451389 0.983137 -0.170258 0.0667442
0.0284837 -0.0593767 0.242159 0.956517 0.0480916 0.287685
0.00238611 0.281114 0.0842095 0.999995 0.000463417 0.00315594
-0.0403408 -0.252267 0.349482 -0.726078 -0.62147 0.294253
0.0368665 0.212973 0.25278 0.194536 0.572097 0.796781
0.000298399 -0.262574 0.0766822 -0.999995 0.00228092 -0.00222201
-0.0499288 -0.27777 0.246702 0.824396 -0.473883 0.309527
-0.0104254 0.200592 0.0662854 -0.999144 -0.0306323 -0.027806
-0.00910641 -0.00770133 0.216199 -0.000815992 -0.351262 -0.936277
-0.0469392 0.054927 0.219806 -0.995915 -0.0148876 -0.0890578
0.00687319 0.219679 0.277053 0.998758 -0.035016 0.0354347
-0.0128928 0.0364026 0.268346 -0.416424 0.843677 -0.338821
0.00403671 0.0363758 0.316306 0.416415 -0.843681 0.338823
-0.000240643 -0.38852 0.189704 -0.999995 0.00228099 -0.00222302
0.0090553 0.441724 0.191936 0.00443759 -0.977936 -0.20886
-0.000121922 -0.301968 0.225108 0.999995 -0.00228015 0.00222413
0.00184542 0.358512 0.244318 0.999995 0.000462642 0.00315696
0.000171127 -0.231144 0.166031 0.999995 -0.00228012 0.00222484
0.0130125 0.154788 0.222024 0.996407 -0.0816911 0.0223472
-0.0202221 -0.185197 0.0828887 -0.997486 0.0553829 -0.0442188
0.0118786 -0.383058 0.288877 0.99682 -0.0484051 0.0632929
-0.000276648 -0.290285 0.30663 0.999995 -0.00228491 0.00222743
0.00366488 0.43023 0.26834 -0.00147348 0.747219 0.664577
-0.0189057 -0.121378 0.370956 -0.957261 -0.215177 -0.193263
0.00565253 0.275149 0.0226634 0.998771 -0.016968 -0.0465684
0.00923994 0.229528 0.322768 -0.000175151 -0.444547 0.895756
0.00233861 0.194257 0.112047 0.999995 0.000463517 0.0031527
0.00221622 0.247285 0.143086 -0.999995 -0.000465501 -0.00315688
0.0143037 0.190263 0.264269 0.996483 -0.0725639 0.0419075
-0.00213659 -0.169861 0.411703 0.129869 -0.737675 -0.662548
6.38909e-05 -0.339705 0.102945 -0.999995 0.00228295 -0.00222945
0.000142216 0.388029 0.276465 -0.000696551 -0.551312 -0.834299
0.00170487 0.362939 0.288228 -0.999995 -0.000460068 -0.0031507
0.00223115 0.310582 0.129027 -0.999995 -0.000464665 -0.00315574
0.00573128 0.355251 0.31879 0.998871 0.012633 0.0457977
-0.00867622 0.0880844 0.392603 -0.13506 0.919461 -0.369256
-0.00807103 -0.332182 0.0411475 0.024116 0.161184 0.98663
-0.00181596 -0.432325 0.141889 0.0043055 0.995088 0.0989045
-0.00024083 -0.432458 0.251897 -0.000748433 -0.372182 -0.92816
-0.0123037 -0.441268 0.215866 -0.999075 -0.0377161 0.0206305
-0.0111323 0.172946 0.157004 -0.999148 -0.0405322 -0.00771077
0.000100855 -0.218749 0.210284 -0.999995 0.00228099 -0.00222302
0.00914631 0.0675887 0.353179 -0.654097 -0.124073 0.746165
-0.000430582 -0.39703 0.266318 -0.999995 0.00228131 -0.00222266
-0.00970417 0.361407 0.0459258 0.0168255 -0.455635 0.890008
0.000496011 -0.179718 0.0728031 0.999995 -0.00228042 0.00222178
-0.0201819 -0.406519 0.268355 -0.997081 -0.0619321 0.0446476
-0.0407362 0.138781 0.210859 -0.684301 0.00128247 0.729199
0.0066515 0.399789 0.0766918 0.998883 0.0310094 -0.0356639
-0.0466246 0.014639 0.229807 -0.956568 0.0480608 0.287521
0.00186481 0.442346 0.225873 0.999995 0.000462811 0.00315149
3.54971e-05 -0.295872 0.160642 0.999995 -0.00228121 0.00222567
-0.000312079 -0.351283 0.259965 0.999995 -0.00228491 0.00222743
-0.000269913 -0.322175 0.270862 -0.999995 0.00228131 -0.00222266
-0.0163469 0.0168716 0.21966 -0.340402 -0.202507 -0.918214
-0.0107792 -0.429213 0.130981 0.00799415 0.934415 0.356098
0.0113951 -0.188775 0.266881 0.996725 0.0659964 0.046729
-0.0170827 0.456352 0.188885 -0.997026 0.075252 0.016629
-0.0125119 -0.255474 0.5481 -0.950144 0.127223 0.284678
-0.00131363 -0.207599 0.432406 0.12929 0.766514 -0.629079
-0.00830864 0.140069 0.555568 -0.980391 0.183768 -0.0711547
0.0114149 -0.45955 0.192325 0.996698 -0.080674 0.00925803
-0.0615181 -0.270253 0.545146 -0.0013543 -0.711111 -0.703079
0.00311897 -0.138491 0.205462 -0.0148952 0.993701 0.111073
0.00194815 0.312363 0.218517 0.999995 0.000462811 0.00315149
-0.0168581 0.223497 0.299968 -0.997265 -0.0288327 0.0680511
0.00021245 -0.24101 0.137347 0.999995 -0.00228089 0.00222558
0.00226366 0.305779 0.30445 -0.00183197 -0.0716201 -0.99743
0.0405757 -0.270554 0.274379 -0.36303 0.85267 -0.375717
0.004221 -0.075386 0.308513 0.402738 -0.680972 -0.61162
-0.00760196 0.135393 0.5917 0.069536 0.161529 0.984415
-0.0263256 -0.221948 0.381936 0.970653 -0.0767861 -0.227895
0.000384522 -0.157818 0.145367 0.999995 -0.0022872 0.00222986
-0.00627785 0.442804 0.186543 0.00454102 -0.977954 -0.208771
-0.0204601 -0.249089 0.0373521 -0.997506 0.0241334 -0.0663234
-0.0186131 -0.144876 0.113021 -0.997468 0.0655889 -0.027503
0.000465752 -0.168168 0.0982756 -0.999995 0.00228092 -0.00222201
-0.0173426 0.301175 0.0179751 -0.997508 -0.00305708 -0.0704855
-0.00338823 -0.244075 0.0411798 0.017974 -0.349512 0.93676
-0.00191256 -0.0856376 0.437689 0.0683642 -0.210199 -0.975266
-0.000213546 -0.338444 0.228898 0.999995 -0.00228466 0.00222719
0.0104275 -0.385801 0.309633 0.99682 -0.0484051 0.0632929
0.0287061 -0.232102 0.404811 0.963516 -0.170691 0.20616
0.00218471 0.232881 0.155184 0.999995 0.000463373 0.0031529
-0.00820522 0.188029 0.118065 0.0241274 0.893453 0.448508
-0.0268517 -0.00811524 0.242576 -0.0014858 -0.376036 0.926604
-0.0146971 -0.0993909 0.337568 -0.701922 -0.529899 -0.475934
-0.00570521 -0.183628 0.492443 -6.3153e-05 0.315873 0.948802
0.00219675 0.280326 0.14438 -0.999995 -0.000464665 -0.00315574
-1.52764e-05 -0.351786 0.126138 0.999995 -0.00228311 0.00222696
-0.014234 -0.056538 0.289546 -0.402736 -0.680972 -0.611622
-0.00526774 -0.192148 0.467163 -0.12987 0.737675 0.662548
-0.0043613 0.203194 0.258052 0.00797348 0.83669 -0.547619
0.0129989 0.401643 0.0513925 0.996611 0.0539825 -0.0620688
-0.0183695 -0.158287 0.247805 -0.997155 0.0595618 0.0461921
-0.000316755 -0.301369 0.313266 0.999995 -0.00228491 0.00222743
0.00224383 0.15989 0.14716 0.999995 0.000463373 0.0031529
-0.000165606 -0.331939 0.214022 0.999995 -0.00228015 0.00222413
-0.0198107 -0.194066 0.0624424 -0.997508 0.0552776 -0.043842
0.0363202 -0.275414 0.256176 -0.832525 -0.499198 0.240218
-0.0398164 0.237015 0.229089 0.87086 0.385737 0.304648
0.0139732 0.177744 0.250459 0.996507 -0.0722317 0.041917
0.014211 0.163442 0.179287 0.99629 -0.0860545 0.000860156
-0.0198445 -0.262979 0.30567 -0.996999 0.0124989 0.0763953
0.0108475 0.4659 0.211096 -0.00444959 0.977907 0.208993
-0.00908867 -0.435717 0.0836826 -0.0121451 -0.809382 -0.587157
0.00581306 -0.00396242 0.421197 0.224306 -0.206887 -0.952305
-0.0188295 -0.338191 0.302958 -0.00106675 0.350483 -0.936569
0.00719817 0.15058 0.586792 0.302804 0.152821 0.940721
-0.00555974 -0.0321883 0.289009 -0.129846 0.737677 0.66255
-0.0186054 -0.154622 0.0894974 -0.997468 0.0655889 -0.027503
0.0024239 0.273434 0.0733636 0.999995 0.000463417 0.00315594
-0.00604661 -0.458214 0.136818 -0.00435535 -0.995066 -0.0991215
0.00669738 0.202038 0.0938107 0.998696 -0.0384633 -0.033575
-0.00328751 0.0676822 0.398183 0.135071 -0.91946 0.369255
0.00166377 0.291002 0.311788 -0.999995 -0.000460848 -0.00315146
-0.000906876 -0.446448 0.082265 -0.00707601 -0.80844 -0.588537
-0.0535386 0.289266 0.180516 0.920706 0.0957051 -0.378341
0.000156944 -0.313644 0.087854 0.999995 -0.00228088 0.00222536
0.00227241 0.218754 0.129445 0.999995 0.000463405 0.00315188
0.00183036 0.264265 0.262915 -0.999995 -0.000461456 -0.00315154
-0.00884574 0.17511 0.18579 0.0163163 0.998381 -0.0544934
0.00982841 -0.172688 0.0632893 0.996435 0.0644465 -0.0544463
0.0116253 -0.227515 0.0433774 0.996317 0.0496092 -0.0699417
0.00085251 -0.219555 0.0677082 0.030703 -0.581809 0.812746
0.00659158 0.300614 0.0393922 0.998794 -0.00420539 -0.0489129
-0.0164562 0.417811 0.0540696 -0.99733 0.0507315 -0.0525372
0.0019246 0.434246 0.20809 0.999995 0.000462811 0.00315149
-0.0507447 -0.296597 0.195028 0.240159 0.868637 -0.433352
0.00376501 -0.364354 0.306026 0.998888 -0.0186506 0.0433088
-3.21441e-05 -0.209868 0.27918 -0.999995 0.00228197 -0.00222471
0.00254206 0.251208 0.0391557 -0.999995 -0.000460756 -0.00315024
0.00198654 0.160828 0.228589 0.999995 0.000463332 0.00315532
0.0157056 0.051188 0.369933 0.47792 -0.641558 -0.599996
0.00410433 -0.238884 0.298723 0.998915 0.0181662 0.0428805
-0.000183764 -0.430318 0.121281 0.999995 -0.00228466 0.00222719
8.70048e-05 -0.307714 0.125338 -0.999995 0.00228252 -0.00222811
0.000502329 -0.190181 0.247651 0.00985457 -0.803736 -0.594904
0.00333578 0.45796 0.199085 -0.00821417 0.977994 0.208472
0.000480485 -0.181141 0.424776 0.129869 -0.737675 -0.662548
0.00060448 0.33285 0.325569 -0.000261052 0.982258 -0.187534
0.164317 -0.266192 0.54284 -0.00162458 0.0334751 -0.999438
0.0136756 0.20121 0.072705 0.996209 -0.064228 -0.0586734
0.00166197 0.270117 0.315427 -0.999995 -0.000464823 -0.00315583
0.012368 0.391041 0.314973 0.996833 0.0424324 0.0672537
-0.00552378 -0.193508 0.291938 -0.00713155 0.62434 0.78112
-0.000365736 -0.387241 0.24719 -0.999995 0.00228131 -0.00222266
0.000141844 -0.279076 0.130065 -0.999995 0.00228295 -0.00222945
-0.0104583 0.185972 0.259336 -0.999146 -0.0333359 0.0244109
0.0100813 -0.225015 0.458166 0.853629 -0.497115 0.155543
-0.000314286 -0.367945 0.243857 -0.999995 0.00228197 -0.00222471
0.155332 -0.302597 0.596879 -0.346083 0.703694 0.620517
-0.0205625 -0.211714 0.455735 -0.983896 0.170585 -0.0533746
-0.0156948 -0.174224 0.422358 -0.701922 -0.529899 -0.475934
-0.0195883 -0.347962 0.0232943 -0.997456 -0.0318979 -0.0637487
0.00243782 0.349517 0.0577818 0.999995 0.000463424 0.00315599
0.00087776 0.469377 0.150661 -0.0070132 0.998864 -0.0471348
-0.131187 -0.261541 0.555315 0.00135404 0.711307 0.70288
-0.0208136 0.0714513 0.363379 -0.843782 0.363717 0.394642
0.00192486 0.247848 0.235374 0.999995 0.000462642 0.00315696
0.0118638 -0.414036 0.249244 -0.00177518 0.764737 -0.64434
-1.59256e-07 -0.21722 0.257271 -0.999995 0.00228251 -0.00222833
0.0111989 -0.274785 0.318481 0.99678 0.0123386 0.0792289
0.00972478 -0.32422 0.30451 0.000284846 0.09811 -0.995176
0.0102242 -0.411018 0.0442616 0.996321 -0.0511624 -0.068748
-0.0120883 -0.150357 0.147931 -0.99905 0.0432588 -0.00528867
0.000323419 -0.234952 0.0937775 -0.999995 0.00228092 -0.00222201
-0.00326884 0.308589 0.311669 -0.00182313 -0.0729332 -0.997335
0.00431205 -0.419382 0.0910502 0.998699 -0.0401641 -0.0314175
-0.018172 -0.447084 0.0859699 -0.997426 -0.0602478 -0.0388878
0.00206022 0.295496 0.185461 0.999995 0.000463332 0.00315532
0.00188323 0.213841 0.253522 -0.999995 -0.000461456 -0.00315154
-0.0128795 0.251834 0.302422 0.000174497 0.444237 -0.89591
0.00230578 0.427794 0.0881267 0.999995 0.000463417 0.00315594
-0.00504348 0.35009 0.306414 -0.00177659 -0.317578 -0.94823
-0.00159894 0.244161 0.319746 -0.00132265 -0.444253 0.8959
0.00200149 0.217899 0.215447 -0.999995 -0.000464665 -0.00315574
-0.000381391 -0.338567 0.304187 -0.999995 0.00228256 -0.00222587
-0.00314054 0.40139 0.273569 0.000317144 -0.748234 -0.663435
0.000246257 -0.25199 0.110904 0.999995 -0.00228089 0.00222558
-0.0164456 0.14121 0.169361 -0.997455 -0.0709196 0.00728888
-0.0402885 -0.242543 0.37462 -0.336417 -0.894623 0.294062
0.0440078 -0.0575671 0.243725 -0.000496662 0.11109 0.99381
0.00247918 0.309567 0.0505435 0.999995 0.000463424 0.00315599
-0.0430875 0.229692 0.191797 0.980948 0.177579 0.0787877
0.00631375 0.214432 0.0684297 0.998723 -0.0285676 -0.0416765
0.0455976 -0.262505 0.293654 0.795291 -0.545936 0.263566
-0.00204358 -0.458978 0.109204 -0.00437154 -0.933787 -0.357803
-0.0018908 0.173437 0.0889276 -0.0241672 -0.893652 -0.44811
0.0182662 0.132473 0.30353 -0.834566 -0.249896 -0.490971
0.00227828 0.17453 0.134083 0.999995 0.000463373 0.0031529
0.00238858 0.216196 0.0929891 -0.999995 -0.000462637 -0.00315281
0.0142133 0.319699 0.326085 0.9968 0.00257421 0.0798967
0.000422172 -0.19038 0.0950879 -0.999995 0.00228092 -0.00222201
0.00010985 -0.194311 0.231321 0.999995 -0.00228012 0.00222484
0.112197 -0.259662 0.551902 0.000884254 0.925885 0.377805
-0.00536363 0.356197 0.0254844 -0.029838 0.204903 -0.978327
0.00228038 0.359732 0.106188 0.999995 0.000463405 0.00315188
0.00236849 0.251256 0.0942289 -0.999995 -0.000460523 -0.00315075
-0.0130926 -0.39698 0.0699285 -0.999149 -0.0269789 -0.0311838
-0.0240133 0.0290188 0.222796 -0.917425 -0.209182 -0.338487
0.00211148 0.438894 0.148131 0.999995 0.000463401 0.0031531
0.00591624 0.308492 0.181492 -0.000398906 0.898784 0.438392
-0.0121148 -0.184618 0.51549 -0.950897 -0.107922 -0.290084
-0.0142006 -0.470111 0.16299 -0.00202822 -0.994961 -0.100243
-0.0618229 0.256439 0.185293 -0.837779 -0.221152 -0.499217
0.00421165 0.284893 0.00678974 -0.0188478 -0.060176 -0.99801
-0.0202625 -0.161056 0.173506 -0.997306 0.072661 0.0100504
-0.00304323 0.424832 0.288871 -0.000286639 0.748007 0.663691
-0.000158869 -0.289181 0.254789 -0.999995 0.00228197 -0.00222471
-0.000225021 -0.303564 0.26977 -0.999995 0.00228197 -0.00222471
-0.012713 -0.405547 0.24792 -0.00181451 0.7656 -0.643314
0.000154657 -0.385667 0.0567519 0.00966839 0.62909 0.777272
0.0118575 -0.186471 0.0840743 0.996396 0.0650103 -0.0544862
0.00620872 -0.166952 0.130447 0.016851 -0.988022 0.153389
-0.00437967 -0.107806 0.342527 -0.129869 -0.737675 -0.662548
-0.000233045 -0.324576 0.251824 -0.999995 0.00228197 -0.00222471
0.0115175 -0.440043 0.143058 -0.0728322 0.992306 0.100118
0.00183831 -0.223756 0.407213 0.644344 0.759697 -0.0876453
-0.018564 -0.454597 0.190342 -0.997286 -0.0717825 0.0163441
-0.0067495 -0.160855 0.0760331 -0.0188774 0.772776 -0.634398
0.0136489 0.387938 0.297959 0.99682 0.0424271 0.0674562
-0.00034069 -0.402714 0.220086 0.999995 -0.00227865 0.00222318
-0.0189986 -0.417354 0.0610297 -0.997402 -0.0606384 -0.0388939
-7.40303e-05 -0.311974 0.193297 -0.999995 0.00228099 -0.00222302
0.000128069 -0.246263 0.169863 -0.999995 0.00228242 -0.00222745
0.00249444 0.285154 0.0492993 -0.999995 -0.000460523 -0.00315075
0.00233682 0.169031 0.116324 -0.999995 -0.000460756 -0.00315024
0.0107199 -0.20982 0.0430026 0.996357 0.0490607 -0.0697493
-0.00132186 -0.310609 0.175944 -0.0193193 -0.469446 -0.88275
-0.016418 0.305864 0.323526 -0.997133 0.00877658 0.0751572
-0.0564205 -0.262696 0.294852 -0.336417 -0.894623 0.294062
-0.0118685 0.245586 0.330733 -0.000175151 -0.444547 0.895756
0.00579944 0.443142 0.103334 0.998909 0.0388639 -0.0258758
-0.00779729 0.408506 0.265542 0.000272829 -0.748208 -0.663465
0.0136002 -0.206858 0.4844 0.983898 -0.170579 0.0533717
0.0124789 0.335342 0.33567 0.99683 0.0228815 0.0761934
0.000424232 -0.255032 0.0278211 -0.999995 0.00228093 -0.0022254
-0.00634301 -0.422398 0.238535 -0.0010963 0.907242 -0.420608
-0.00668115 0.148392 0.570152 -0.551103 0.77814 -0.301302
-0.0126831 -0.440776 0.186718 -0.999101 -0.0412242 0.00985418
0.00210985 0.215842 0.181415 -0.999995 -0.000465501 -0.00315688
-0.0465184 0.219528 0.247023 -0.314001 0.532777 0.785845
0.0120963 -0.344415 0.304513 0.99682 -0.0297249 0.07394
0.0125343 0.145978 0.211146 0.996407 -0.0816911 0.0223472
0.0293887 -0.26085 0.316479 -0.419953 -0.899403 0.1213
0.0129654 0.4624 0.177803 0.996752 0.080383 -0.00497384
-0.000182715 -0.381516 0.170871 0.999995 -0.00228466 0.00222719
-0.00511743 0.409031 0.292155 -0.00152046 0.747207 0.66459
-0.000382856 -0.435698 0.205244 0.999995 -0.00227943 0.00222393
0.0120332 0.0577285 0.34757 0.960369 -0.258654 0.103875
-0.00322617 0.187519 0.29289 -0.00209691 -0.665095 0.746756
0.014142 0.407132 0.273953 0.996805 0.0589817 0.0538658
0.00183607 0.194649 0.271296 -0.999995 -0.000461456 -0.00315154
-0.0104861 0.375744 0.303816 -0.998984 0.0267198 0.036283
0.00578347 0.1786 0.20886 0.0120907 0.95038 -0.310857
0.0136274 0.278495 0.0288163 0.996396 -0.0059662 -0.0846132
-0.00459149 -0.292548 0.323458 -0.00444507 0.158322 0.987377
0.00935961 0.309528 0.0333206 0.0188542 0.0594672 0.998052
-0.0167924 0.166583 0.245187 -0.997365 -0.0581592 0.0433597
-0.00981586 0.459097 0.166895 -0.998957 0.0455976 -0.0024146
0.0020517 0.246113 0.195414 0.999995 0.000463332 0.00315532
0.00025351 -0.170149 0.191532 0.999995 -0.00228333 0.00222723
0.00192419 0.290988 0.229229 -0.999995 -0.000461456 -0.00315154
0.00242281 0.325951 0.0660456 -0.999995 -0.000465501 -0.00315688
-0.00995953 0.43713 0.0987809 -0.998996 0.0381516 -0.0234755
-0.00449911 0.232898 0.0549219 0.0179575 0.553382 0.832734
-0.0182057 0.0545232 0.345631 -0.960374 -0.25907 0.102781
0.0129853 0.319144 0.0188963 0.996476 0.0157825 -0.082386
0.0616226 -0.259908 0.547146 -0.000306083 0.936018 -0.351953
0.00203852 0.373949 0.180799 -0.999995 -0.000462259 -0.00315233
0.00143964 0.256765 0.0133979 -0.0187578 -0.319056 -0.94755
-0.00870574 0.0603652 0.420245 -0.0692446 0.23349 0.96989
0.000224873 -0.26875 0.103393 -0.999995 0.00228265 -0.00222737
0.0219249 -0.00351065 0.217377 1 -0.000382479 -0.00051781
0.00613154 -0.149427 0.416432 0.402662 0.680997 0.611642
0.0021737 0.218368 0.160809 0.999995 0.000463373 0.0031529
0.0132027 -0.238412 0.424848 0.444031 -0.855751 0.265569
-0.0123757 -0.205365 0.0824761 0.0308042 -0.773829 0.632645
-0.0188975 0.0828983 0.404792 -0.46005 -0.196911 -0.865783
-0.00240505 -0.0168581 0.241298 0.129887 -0.737674 -0.662546
-0.0101044 -0.15944 0.401397 -0.40266 -0.680998 -0.611643
-0.0125802 -0.422203 0.0815475 -0.999155 -0.0342473 -0.0227415
-0.0172487 0.442138 0.233087 -0.996999 0.0691992 0.0347136
-0.00640962 0.433458 0.169981 0.0124118 -0.998748 0.0484707
-9.61437e-05 -0.370897 0.142857 0.999995 -0.00228311 0.00222696
-0.00463616 0.463965 0.219812 -0.0045967 0.977887 0.209086
-0.0104025 0.140343 0.203223 -0.00970037 -0.99853 0.0533349
0.00173425 0.373666 0.277309 0.999995 0.000462708 0.00315744
-0.0162759 -0.404106 0.301679 0.00182355 -0.581663 0.813428
0.00243721 0.392973 0.0515995 -0.999995 -0.000465501 -0.00315688
-0.000572021 0.187234 0.100123 0.0145833 0.893809 0.44821
0.000282231 -0.277374 0.0687662 -0.999995 0.00228092 -0.00222201
-0.00889805 -0.0112995 0.437402 -0.12704 0.230918 0.964644
-0.00711346 0.117537 0.406595 -0.0692446 0.23349 0.96989
-0.00742827 -0.166652 0.133879 0.016851 -0.988022 0.153389
0.00209911 0.252472 0.179424 -0.999995 -0.000464665 -0.00315574
0.00768916 -0.011436 0.261769 0.402674 0.680993 0.611639
0.0197066 0.121634 0.320838 -0.459045 0.575565 0.676759
-0.0183903 0.348251 0.0395265 -0.997445 0.0160606 -0.0696171
0.0111636 -0.419579 0.0659824 0.996407 -0.0660321 -0.0530321
0.00475729 -0.175102 0.138213 0.99886 0.046958 -0.0086192
0.0119338 -0.160617 0.188858 0.996611 0.0819343 0.00728471
-0.0142428 -0.0748869 0.451033 -0.394911 0.209786 0.894447
-0.00498016 0.235897 0.03308 -0.0294837 -0.552395 -0.833061
-0.019378 -0.446117 0.162862 -0.999174 -0.0302951 -0.0270983
-0.00419399 -0.358931 0.324867 0.00104895 -0.350822 0.936441
-0.0164196 0.247973 0.0461768 0.0187518 0.318364 0.947783
-0.0239235 0.104808 0.593517 -0.477746 0.136924 0.867762
0.0443171 0.243998 0.216739 0.459127 -0.575549 -0.676717
0.0110454 -0.460837 0.137005 0.996609 -0.0813118 -0.0126273
-0.104955 -0.259322 0.55104 0.000305194 0.999943 0.0106332
0.000283756 -0.221043 0.125838 -0.999995 0.00228295 -0.00222945
-0.000266121 -0.430424 0.158149 0.999995 -0.00228491 0.00222743
-7.94053e-05 -0.244373 0.265052 0.999995 -0.00228121 0.00222567
0.00355742 -0.423173 0.260743 0.998815 -0.0411456 0.0260027
0.00551693 0.0334799 0.425685 0.226237 0.223475 0.948091
-0.01908 -0.222567 0.298802 -0.997055 0.0471297 0.0604964
-1.0437e-06 -0.230621 0.243939 0.999995 -0.00228121 0.00222567
-0.000601429 -0.448545 0.227155 0.000821807 -0.907669 0.419685
-0.0159218 0.195082 0.295076 -0.997344 -0.0450596 0.0572311
0.00899281 -0.146052 0.466439 0.693581 0.162389 0.701837
-0.00873874 0.0381114 0.322693 -0.135071 -0.919459 0.369256
0.00155136 0.369395 0.0318839 -0.0277184 0.454703 -0.890212
0.156607 -0.283958 0.566506 -0.929927 -0.173427 -0.324282
-0.0109941 0.409518 0.0978711 -0.998987 0.0382467 -0.0237082
0.0301141 0.171099 0.270184 0.143254 -0.608408 -0.780588
-0.00598542 -0.164643 0.239773 -0.020854 0.930757 0.365044
-1.75254e-05 0.101399 0.473323 0.571766 -0.765804 0.294326
-0.015413 -0.321248 0.332622 -0.000299776 -0.0984706 0.99514
0.00183478 0.392044 0.242775 0.999995 0.000462642 0.00315696
-0.00584678 -0.0525968 0.430769 -0.126913 -0.208988 -0.969648
-0.0205526 -0.204693 0.491252 -0.983898 -0.170578 0.0533746
-0.0531786 0.200542 0.195864 -0.981159 -0.176451 -0.078693
-0.0592106 0.271726 0.199795 -0.983773 -0.179401 -0.00239512
-0.011346 -0.221858 0.485903 -0.590486 -0.770225 0.240997
-0.0264352 0.122463 0.212444 0.838631 0.21947 0.49853
0.00802704 -0.425179 0.283681 0.00181731 -0.824592 0.565725
-0.0033789 -0.135157 0.174754 -0.0148972 0.9937 0.111075
0.00889586 0.0341358 0.387209 -0.28038 -0.686392 -0.671009
-0.00798541 0.458704 0.154033 -0.0123276 0.998755 -0.0483424
-0.0165745 0.172855 0.258643 -0.99739 -0.0580116 0.0429852
0.0074055 -0.143419 0.218136 -0.0124883 0.93028 0.366637
0.00227629 0.264825 0.121469 -0.999995 -0.000463797 -0.00315522
-0.055468 -0.259875 0.552816 0.000884254 0.925885 0.377805
-0.0183314 -0.143414 0.215971 -0.997242 0.0682808 0.0290895
0.0139391 0.169614 0.125344 0.9962 -0.0768126 -0.0410561
0.0126897 -0.436807 0.127192 0.996483 -0.0765134 -0.0341599
-0.00874261 -0.174939 0.254783 -0.0166059 0.804702 0.593446
0.0131151 0.219676 0.313299 0.996698 -0.0398398 0.0707499
0.0072607 -0.232779 0.391519 -0.921592 -0.36423 -0.134178
0.00184337 0.329964 0.249152 0.999995 0.000462642 0.00315696
0.00236819 0.391919 0.0736189 0.999995 0.000463417 0.00315594
-0.000148066 -0.437651 0.0977308 0.999995 -0.00228466 0.00222719
0.000192687 0.015184 0.266187 0.135071 -0.91946 0.369255
-0.000477736 0.205134 0.296202 -0.00431459 -0.664225 0.74752
-0.0567351 0.258006 0.210666 -0.983777 -0.179382 -0.00236927
-0.0061476 -0.140753 0.118333 -0.0182026 0.912431 -0.408827
0.00368443 -0.149288 0.153908 0.998872 0.0466684 -0.00876071
0.00609091 -0.146914 0.104036 -0.0182242 0.912436 -0.408813
-0.0193214 -0.247893 0.0206267 -0.997529 0.0242267 -0.0659507
-0.0227806 0.145179 0.293842 0.983776 0.179385 0.00237029
0.00204761 0.319994 0.185821 -0.999995 -0.000461456 -0.00315154
-0.0119261 0.0225039 0.232549 -0.416424 0.843677 -0.338821
-0.010219 0.270332 0.0246606 -0.999117 -0.0120935 -0.0402272
-0.0103166 0.0958585 0.446521 -0.980317 -0.184855 0.0693379
0.00211145 0.166582 0.188155 0.999995 0.000463332 0.00315532
