-0.0857625 -0.355393 0.476968 0.972764 0.163396 -0.164414
0.0331433 -0.261148 0.302084 0.402613 0.895083 -0.191647
0.0413477 -0.288394 0.227067 0.317067 -0.905529 0.281932
-0.0181791 0.159567 0.171402 -0.903262 -0.0812109 0.421334
0.0116876 -0.379141 0.263407 0.998006 -0.0373577 0.0508846
0.00923935 0.332418 0.0355952 0.998376 0.0121365 -0.0556535
-0.000484798 -0.293941 0.323261 0 -0.2028 -0.97922
0.00422879 -0.260207 0.480096 0.189783 -0.981756 0.011769
0.0924603 -0.342205 0.498078 -0.386351 -0.537057 0.749868
0.0173846 0.0995983 0.481664 0.746676 -0.19399 0.636273
-0.00102135 -0.487858 0.161927 0 -0.993958 -0.109766
-0.0731679 0.11122 0.0639277 0 1 0
0.00930098 0.450054 0.148056 0.998384 0.054143 -0.0172786
0.00701243 -0.226148 0.291275 0 -0.58356 -0.81207
7.89379e-05 -0.270572 0.316822 0 -0.401917 -0.915676
-0.000447223 -0.354521 0.318528 -0.997997 -0.0134787 0.0618167
0.00847362 -0.169586 0.173612 0 -0.993958 -0.109758
-0.032043 0.0880015 0.131914 0 -1 3.34236e-05
0.0094525 -0.456156 0.12001 0.998006 -0.0599327 -0.0198219
0.011825 -0.399276 0.0998401 0.997997 -0.0467931 -0.0425814
-0.003671 -0.269119 0.25346 -0.998006 0.0368381 0.0512636
-0.00357059 0.237657 0.078666 -0.998384 -0.0331645 -0.0461546
0.0094093 -0.426771 0.0549478 0.999441 0.0195012 0.0271397
0.0122403 0.335133 0.273284 0.998376 0.0115525 0.0557782
0.00848873 0.291624 0.342872 0.998384 -0.000295824 0.0568328
-0.00486059 0.340232 0.277257 -0.998376 0.0228957 0.0521583
-0.000955368 -0.170238 0.192136 -0.999441 -0.0332191 -0.00366823
0.0168254 -0.308258 0.153505 0.998006 0.0373693 -0.0508757
0.00942927 -0.250982 0.309357 0.999441 -0.0134317 -0.0306011
0.00408403 -0.271533 0.317244 0 -0.401917 -0.915676
0.00959606 0.388856 0.297059 0.998384 0.0331648 0.0461537
0.0922395 -0.282045 0.424614 -0.966949 0 -0.254968
-0.00370297 0.361982 0.289868 -0.998376 0.0228957 0.0521583
0.00889225 0.127576 0.175663 0.999547 0.0299002 0.0033028
-0.00548099 -0.273283 0.219741 -0.997997 0.0467935 0.0425823
-0.00200164 0.168783 0.245746 -0.998376 -0.04948 0.028221
-0.00424001 0.256319 0.281964 -0.998376 -0.0234444 0.0519144
-0.0305239 0.0950216 0.104057 0.995218 0.0195582 -0.0956991
0.0141252 -0.386143 0.200545 0.997997 -0.0549577 0.031346
-0.00164304 0.154494 0.22391 -0.998384 -0.0541439 0.0172815
0.00883005 -0.223291 0.0590745 0.998006 0.0373693 -0.0508757
-0.0365522 -0.300847 0.200548 -0.312608 -0.790695 0.526381
-0.00136824 -0.433444 0.0911578 -0.997997 -0.0467928 -0.0425811
-0.0937161 -0.364183 0.481038 -0.0591253 -0.912533 0.404707
-0.00168002 -0.235874 0.365714 0.789454 -0.311884 -0.528669
-0.0363805 0.297947 0.182976 -1 1.81524e-05 1.64789e-05
0.0134771 -0.306045 0.247634 0.997997 0.0128296 0.0619551
-0.00053703 -0.43189 0.274235 -0.997997 -0.0472364 0.0420911
0.0263229 0.165756 0.172176 0.496077 -0.0768069 0.864875
0.00054611 -0.242793 0.450403 -0.559494 -0.0633855 -0.826407
0.0101926 0.186411 0.236675 0.998376 -0.0494798 0.0282207
-0.0263968 0.260317 0.172297 -0.99011 -0.0653527 -0.12414
0.0260061 -0.252754 0.326294 0.402613 0.895083 -0.191647
0.00885028 0.423365 0.0479411 0.999548 -0.0178064 0.0242404
0.0116144 0.241251 0.265821 0.998384 -0.0336456 0.0458048
0.0131022 0.364363 0.125675 0.998376 0.0425285 -0.037894
-0.00262367 0.326362 0.320845 -0.998376 0.0115525 0.0557785
-0.000434076 0.000146359 0.228752 0.895064 -0.226521 -0.384121
-0.0847748 -0.334318 0.427045 0.965751 -0.0497719 -0.254654
0.00871987 0.15328 0.10141 0.999548 0.0259664 0.0151734
-0.00166913 0.480219 0.183794 -0.999548 -0.0298985 -0.00330154
-0.00303101 -0.332646 0.280637 -0.998006 -0.000329753 0.0631261
0.0929206 -0.367149 0.451024 -0.721728 -0.619724 -0.308302
-0.00046757 -0.341829 0.0233222 -0.997997 -0.0128303 -0.0619526
0.0171271 0.296921 0.179657 0.998384 -0.0539584 -0.0178512
0.0115229 0.282575 0.0760576 0.998376 -0.0115509 -0.0557778
-0.00920472 -0.313447 0.173299 -0.998005 0.059927 0.0198455
0.00993207 0.0974537 0.244054 0.980624 -0.195241 0.0160464
-0.00197348 0.109128 0.433463 -0.974343 -0.224898 0.00869976
-0.00231062 -0.44367 0.1561 -0.997997 -0.0628851 -0.00694501
0.00981308 -0.0429524 0.442992 0.980576 0.0150122 0.195563
0.0155457 0.279641 0.155016 0.998376 -0.0421306 -0.0383362
-0.0180653 0.145328 0.166382 -0.99011 -0.0653527 -0.12414
0.0119833 -0.301938 0.0733123 0.997997 0.013479 -0.061815
0.00285866 0.0789113 0.481407 -0.163512 -0.168799 0.971993
-0.00461489 -0.304613 0.511999 -0.0121364 0.735749 0.677146
-0.00467635 -0.253996 0.12888 -0.997997 0.0549568 -0.0313433
-0.00616861 0.304632 0.103533 -0.998384 0.000298062 -0.0568323
0.00953453 -0.442007 0.0955418 0.997997 -0.0546258 -0.0319186
0.015742 -0.327673 0.13027 0.998006 0.00033755 -0.0631251
-0.0192899 0.206248 0.173882 0.497388 0.00181282 0.867526
-0.00499987 0.236735 0.251882 -0.998376 -0.0425291 0.0378942
-0.00180385 0.189295 0.0803158 -0.998376 -0.042131 -0.0383363
0.0119248 0.228252 0.245944 0.998376 -0.0425287 0.0378941
-0.00324918 0.176448 0.183106 -0.998376 -0.0566802 0.00566022
-0.00150797 -0.308921 0.304364 -0.997997 0.0128295 0.0619547
0.104746 -0.344076 0.434293 0.390912 0.553481 0.735422
0.00992217 0.443307 0.181737 0.998376 0.0566797 -0.00565699
0.0383498 0.298932 0.175056 8.52821e-05 -0.324139 -0.946009
0.0156679 0.0935678 0.174988 -0.000872654 0.190239 0.981737
-0.00175904 0.482954 0.178411 -0.999548 -0.0299308 0.00298736
0.0110074 0.299816 0.298669 0.998384 -0.000295824 0.0568328
-0.00245047 -0.218229 0.223602 -0.997997 0.0546243 0.0319214
0.0015726 0.100388 0.171305 -0.0038009 0.828625 0.559791
0.0090928 -0.22529 0.0627609 0.998006 0.0373693 -0.0508757
0.00886963 0.483195 0.16465 0.999548 -0.0299298 0.00298752
0.0124393 -0.39559 0.233931 0.997996 -0.0472368 0.0420914
0.0458681 -0.285254 0.21741 0.73913 0.66836 -0.0835568
0.00493579 -0.449684 0.263625 0 0.746596 -0.665278
-0.00440519 0.360976 0.27664 -0.998384 0.033165 0.046154
0.00923393 -0.208409 0.0850019 0.997997 0.0472356 -0.0420892
-0.00262035 0.44587 0.198107 -0.998376 0.0566179 0.00625262
0.00996899 0.0107827 0.438086 0.980548 0.0150218 0.195702
-0.099448 -0.303534 0.426928 -0.966827 0 -0.255431
0.00986463 0.442282 0.201317 0.998376 0.0566176 0.00625259
0.0188003 0.17286 0.349101 0.96178 -0.259692 -0.0868254
0.0927647 -0.283446 0.430884 -0.736177 0 0.676789
-0.00507966 0.131212 0.403696 -0.983006 -0.180138 -0.0353626
0.00941108 0.113286 0.470024 0.980565 -0.196192 0
-0.00616809 -0.275381 0.138883 -0.997997 0.0549568 -0.0313433
0.014927 0.26293 0.159801 0.998376 -0.0491805 -0.028739
0.0041367 0.364646 0.343232 0 -0.40195 -0.915662
-0.000379384 -0.423374 0.057663 -0.998006 -0.0368354 -0.051264
-0.00312628 0.100699 0.268005 -0.980693 -0.194896 0.0160218
0.00940488 0.440676 0.238114 0.998384 0.0539605 0.0178406
-0.0211788 0.240678 0.174694 0.842649 0.0394677 0.537015
0.0153125 0.103035 0.164707 -0.00448965 0.979703 0.200405
0.00656717 0.27758 0.012514 0 0.202793 0.979222
0.0164738 -0.304237 0.194622 0.998005 0.0368387 0.0512637
0.00737755 0.158034 0.267502 0 0.868664 -0.495401
-0.0357395 -0.323776 0.172617 0.00313941 0.996845 0.0793069
0.0661954 0.100055 0.27115 0 0 1
-0.00202339 0.44886 0.231299 -0.998384 0.0539608 0.0178407
-0.00179041 0.459682 0.0930074 -0.999548 -0.0261222 0.0149007
-0.00101733 0.335041 0.0153386 -0.998376 0.0121366 -0.0556538
0.00972535 -0.217679 0.258008 0.997997 0.0467939 0.0425826
-0.000669157 -0.179071 0.160733 -0.997997 0.0629547 -0.00628271
-0.0347993 -0.298364 0.205318 -0.312608 -0.790695 0.526381
0.000980061 -0.436344 0.278595 0 0.746596 -0.665278
0.010015 0.225374 0.0741552 0.998384 -0.0331643 -0.0461544
-0.00145776 0.203311 0.0576415 -0.998384 -0.0331645 -0.0461546
0.0111434 0.387695 0.100254 0.998376 0.0425285 -0.037894
0.0015115 0.0995596 0.328962 -0.19589 -0.977329 0.0803458
0.00123862 0.132666 0.234273 0 -0.952657 0.304046
-0.00116193 0.173864 0.282437 -0.998376 -0.0425291 0.0378942
-0.0031424 0.369577 0.0660671 -0.998376 0.023441 -0.0519152
0.010769 -0.21573 0.224508 0.997997 0.0546247 0.0319216
-0.00299432 0.439992 0.191622 -0.998376 0.0566179 0.00625262
-0.00297126 -0.425765 0.215506 -0.998006 -0.0601345 0.0191994
-0.0261501 0.141946 0.140625 0 0.644001 -0.765025
-0.00633363 0.268698 0.247183 -0.998383 -0.0336633 0.0457953
0.00173104 0.178885 0.311351 0 -0.746663 0.665203
0.00887389 0.449256 0.28872 0.999548 -0.0222458 -0.0202457
0.0485044 0.0817698 0.27115 0 0 1
0.034021 0.0882568 0.207904 0 -1 6.29607e-06
0.00606898 -0.0938698 0.451046 0.195328 0.0750139 0.977865
0.0920262 -0.345532 0.485291 -0.910387 -0.0267542 -0.412892
-0.00136322 -0.206234 0.107132 -0.997997 0.0549568 -0.0313433
0.00083897 0.151809 0.256587 0 0.868664 -0.495401
0.00912451 -0.398106 0.299546 0.997997 -0.0260375 0.0576634
-0.0172411 0.182927 0.168007 0.50414 -0.016066 0.863473
0.00333389 -0.045671 0.258277 0.193244 -0.503133 -0.842327
0.0355034 0.311496 0.183162 -0.169513 0.753199 0.635576
-0.00168798 0.451512 0.0855535 -0.999547 -0.0261311 0.014903
0.00905618 0.433322 0.26448 0.998376 0.0491787 0.0287409
0.0084067 0.329326 0.343104 0.998376 0.0115525 0.0557782
-0.00284361 0.0988365 0.262648 -0.980669 -0.195014 0.0160303
0.0388618 0.286949 0.173927 0.984154 -0.058292 0.167463
0.0146464 0.253342 0.175078 0.998376 -0.0566174 -0.00625399
0.00888597 0.210898 0.302996 0.998384 -0.0336456 0.0458048
0.0124406 -0.294693 0.261709 0.997997 0.025432 0.0579331
-0.00547609 0.313623 0.27187 -0.998384 -0.000295826 0.0568331
-0.000179458 -0.452248 0.0695987 0 -0.739599 -0.673048
0.0119244 0.0985741 0.164773 -0.00191437 0.286475 -0.958086
0.0274321 0.204155 0.166452 -0.839432 0.103205 -0.533575
0.0163753 0.327558 0.172976 0.998384 0.0541429 -0.0172789
0.00544417 -0.375232 0.0257978 0 0.401965 0.915655
-0.00171962 0.158441 0.274853 -0.999547 0.026131 -0.0149025
0.0153449 -0.323973 0.220137 0.998006 -0.000329728 0.0631266
-0.0278241 0.0906039 0.194126 -1 0 0
0.0139342 0.340864 0.237702 0.998384 0.0331648 0.0461537
-0.00290579 0.194492 0.258836 -0.998376 -0.04948 0.028221
-0.00992819 0.184682 0.343193 0.843212 0.459186 0.279538
0.000987173 0.220658 0.33098 0 0.411518 -0.911402
0.00810853 0.474912 0.186255 0.998376 0.0566176 0.00625259
-0.00179598 0.418977 0.0443908 -0.999547 -0.017807 0.0242411
-0.00186129 0.170673 0.109075 -0.998376 -0.0491807 -0.0287394
-0.000917247 -0.172181 0.143599 -0.999442 -0.0332504 0.00331804
0.0136678 -0.338851 0.24548 0.997997 -0.0134786 0.0618172
0.00256059 -0.163549 0.141155 0 0.995062 -0.099259
0.000344744 0.369713 0.341008 0 -0.40195 -0.915662
-0.00674957 0.238648 0.174652 -0.998376 -0.0566177 -0.00625402
-0.00707275 0.293418 0.242666 -0.998376 -0.0121367 0.0556542
-0.0070185 0.24339 0.188593 -0.998376 -0.0566802 0.00566022
-0.00122377 -0.248373 0.0578741 -0.998006 0.037369 -0.0508754
0.0182224 0.111256 0.165275 -0.987772 0.0958384 -0.122967
0.104527 -0.326664 0.4318 0.735803 0 0.677196
-0.00137942 -0.319269 0.306818 -0.998006 -0.000329753 0.0631261
0.0163566 -0.303352 0.196269 0.998005 0.0368387 0.0512637
-0.0239718 0.0576024 0.179597 1 0 0
-0.00213945 0.0276611 0.205868 0.980153 0.0998848 0.171239
-0.00219314 0.158474 0.189385 -0.998376 -0.0566802 0.00566022
-0.00134846 -0.232087 0.0726274 -0.997997 0.0472352 -0.0420889
-0.000786937 0.102625 0.350601 -0.555325 -0.828837 0.0681384
-0.0318949 0.0880019 0.143732 0 -1 3.34236e-05
-0.0280747 0.130233 0.473104 -0.634416 -0.261944 0.727257
0.0752411 -0.310661 0.506622 0.447632 0.862743 0.23516
-0.0355596 -0.277719 0.246149 -0.832594 0.552821 -0.0342931
0.00830022 0.161428 0.103289 0.998376 -0.0491805 -0.028739
0.00520194 0.483465 0.139492 0 0.952667 -0.304015
0.0673165 0.0777609 0.27115 0 0 1
-0.00156399 -0.454806 0.149642 -0.997997 -0.0628851 -0.00694501
-0.00880728 0.331777 0.161977 -0.998376 0.0425287 -0.0378942
0.00949787 -0.444748 0.245121 0.997997 -0.0549577 0.031346
0.00897185 -0.412607 0.052033 0.998006 -0.0368357 -0.0512644
0.00821839 0.469915 0.213963 0.998376 0.0566176 0.00625259
-0.0239718 0.127486 0.1558 1 0 0
-0.00650414 -0.324294 0.118373 -0.998006 0.000331107 -0.0631239
0.013358 0.268418 0.11554 0.998384 -0.0331643 -0.0461544
0.00875004 0.451804 0.241104 0.998384 0.0539605 0.0178406
-0.00356099 -0.417607 0.210402 -0.998006 -0.0601378 0.0191921
-0.00107932 -0.267616 0.299383 -0.997997 0.0254318 0.0579326
0.000210889 0.137545 0.215993 0 0.995043 -0.099446
-0.00380072 0.424772 0.161834 -0.998376 0.05668 -0.00565702
-0.0302235 0.11808 0.467681 -0.548709 -0.163754 0.819819
0.0104104 0.364157 0.295679 0.998376 0.0228955 0.052158
-0.00257863 -0.244886 0.367416 0.974202 0.113954 0.194793
-0.0037825 0.186606 0.19075 -0.998376 -0.0566802 0.00566022
-0.0051009 -0.306695 0.246027 -0.997997 0.0128295 0.0619547
-0.000363841 0.0959354 0.272676 -0.555325 -0.828837 0.0681384
-0.00367874 0.364501 0.289225 -0.998376 0.0228957 0.0521583
0.00954437 -0.430539 0.0807434 0.997997 -0.0467931 -0.0425814
0.00768029 -0.313084 0.502525 0.000977736 -0.385185 -0.922839
0.00503698 -0.236697 0.0339744 0 0.591999 -0.805939
0.00964169 -0.475923 0.229748 0.999442 0.0318325 -0.010161
0.0133621 -0.308992 0.0940338 0.997997 0.013479 -0.061815
0.0127741 -0.292815 0.255138 0.997997 0.025432 0.0579331
-0.0243823 0.117537 0.193579 0 0.743171 -0.669102
0.00819933 0.420639 0.0596591 0.998376 0.0425285 -0.037894
-3.39998e-05 0.395716 0.328492 0 -0.583554 -0.812075
-0.00670949 -0.37139 0.191499 -0.998006 -0.0601345 0.0191994
0.0146864 -0.374618 0.141297 0.997997 -0.0546258 -0.0319186
-0.00274216 0.33112 0.0454253 -0.998376 0.0121366 -0.0556538
-0.00685742 0.363316 0.215371 -0.998376 0.0491789 0.0287411
-0.00208947 0.186476 0.272155 -0.998376 -0.0425291 0.0378942
-0.00384021 -0.253334 0.236274 -0.997997 0.0467935 0.0425823
0.0307272 0.0964249 0.183793 0 1 -4.07293e-05
0.00340229 0.253976 0.00710026 0 -0.202814 -0.979217
-0.0335379 -0.316786 0.505499 -0.0139253 -0.78193 -0.623211
-0.018375 0.254434 0.254094 0.843212 0.459186 0.279538
-0.00337858 0.132238 0.408955 0.965325 0.241889 0.0981743
-0.0271796 0.0760467 0.164912 -0.027407 -0.999314 0.0248954
0.00880101 0.223905 0.336752 0.999548 0.0123774 -0.0274132
-0.00109858 -0.349466 0.330356 -0.999442 0.0071173 -0.0326481
-0.00387289 0.28696 0.0646057 -0.998376 -0.011551 -0.0557781
0.0106178 -0.39623 0.0723083 0.998006 -0.0368357 -0.0512644
0.00834339 0.311535 0.0177333 0.998384 0.000298061 -0.056832
0.0171771 -0.325889 0.152968 0.998006 0.00033755 -0.0631251
0.0137531 -0.362805 0.109329 0.998006 -0.0368357 -0.0512644
-0.00588005 0.387872 0.199941 -0.998384 0.0539567 0.0178615
0.015156 0.279458 0.1465 0.998384 -0.0331643 -0.0461544
-0.00403106 0.420777 0.162453 -0.998376 0.05668 -0.00565702
0.0153753 -0.301822 0.129901 0.997997 0.0260383 -0.0576613
0.0088354 0.171843 0.295904 0.999547 0.0224611 -0.0200107
-0.00595763 0.271663 0.255862 -0.998376 -0.0234444 0.0519144
0.0097106 -0.256621 0.37091 0.979309 -0.202357 0.00242449
-0.00286458 -0.0199828 0.440672 -0.980544 0.0150246 0.195724
-0.0350502 0.314696 0.206975 0.791851 0.423628 0.439899
0.0190307 0.117729 0.163827 -0.987772 0.0958384 -0.122967
0.0125642 0.257188 0.106439 0.998384 -0.0331643 -0.0461544
-0.00150891 -0.191961 0.179828 -0.997997 0.0628855 0.00693986
0.0110587 0.353018 0.0750402 0.998376 0.0234408 -0.0519149
0.0153463 -0.282737 0.148081 0.997997 0.0549572 -0.0313435
-0.000423036 -0.260494 0.347246 -0.5426 -0.839931 0.0100688
0.00890224 -0.47527 0.172417 0.997997 -0.0629548 0.00628696
0.0133648 -0.245877 0.160275 0.997997 0.0629551 -0.00628276
-0.00460772 0.242816 0.0973934 -0.998384 -0.0331645 -0.0461546
-0.00127472 -0.193344 0.134889 -0.998006 0.0601367 -0.0191933
0.0960834 -0.326755 0.495459 0.57772 0.753306 -0.314277
0.0091583 0.444634 0.239943 0.998384 0.0539605 0.0178406
0.00652639 0.101041 0.1985 0.5553 0.828854 -0.0681429
-0.0097191 0.295053 0.19275 -0.998384 -0.0336458 0.045805
-0.00112003 -0.210708 0.285477 -0.999441 -0.0247166 -0.0224937
0.0168522 0.320836 0.183823 0.998384 0.0539564 0.0178615
0.00949955 -0.422691 0.273219 0.997996 -0.0472368 0.0420914
-0.00160409 0.45954 0.141035 -0.998384 0.0541433 -0.0172787
-0.0363805 0.30073 0.162714 -1 0 0
-0.00774186 0.356764 0.175985 -0.998376 0.05668 -0.00565702
0.0104623 -0.440327 0.221526 0.998006 -0.0601382 0.0191925
0.00161459 -0.260973 0.396592 -0.18939 -0.981831 0.0117699
0.00198533 -0.247563 0.443605 -0.199778 0.979665 -0.0185895
-0.00475092 -0.300716 0.250426 -0.997997 0.0128295 0.0619547
0.00856354 0.37959 0.0390534 0.998376 0.0234408 -0.0519149
0.00780984 -0.0442573 0.245147 -0.82821 0.284416 0.482883
-0.0991012 -0.278113 0.425616 -0.966827 0 -0.255431
0.0128528 -0.36315 0.093301 0.997997 -0.0254334 -0.0579308
-0.00124126 0.436805 0.0805126 -0.998376 0.0425287 -0.0378942
0.0126939 -0.38556 0.105133 0.997997 -0.0467931 -0.0425814
0.0329355 0.266961 0.228011 0.388584 -0.747401 -0.538882
-0.00181442 -0.371183 0.291381 -0.997997 -0.0260372 0.057663
-0.00943681 0.318029 0.198659 -0.998384 0.0331633 0.0461555
-0.0270784 -0.261006 0.309664 -0.832594 0.552821 -0.0342931
-0.00229859 0.442237 0.235932 -0.998384 0.0539608 0.0178407
-0.00189151 -0.388601 0.282182 -0.997997 -0.0260372 0.057663
-0.00784093 0.301861 0.230265 -0.998384 -0.000295826 0.0568331
0.0157115 -0.32527 0.1298 0.998006 0.000331107 -0.0631244
0.0106227 0.236173 0.0795404 0.998384 -0.0331643 -0.0461544
0.00813994 0.143118 0.26171 0 -0.868635 0.495453
-0.00235225 0.395361 0.0669261 -0.998384 0.0336469 -0.0458041
0.00652036 -0.106225 0.280772 -0.549999 0.424533 0.719216
-0.0278241 0.0451405 0.178803 -1 0 0
-0.0918987 -0.355302 0.47024 0.362068 0.864638 -0.348292
-0.00042364 -0.393557 0.0338423 0 0.401965 0.915655
0.0446141 -0.284286 0.218277 0.316197 0.923752 -0.216105
0.00975981 0.109442 0.344533 0.980681 0.194954 -0.016026
0.00962093 0.185769 0.107515 0.998376 -0.0491805 -0.028739
0.00687398 0.0891266 0.194331 0.555322 -0.82884 0.0681386
-0.00280796 0.177236 0.13548 -0.998384 -0.0539599 -0.0178451
0.00878136 0.449808 0.245389 0.998384 0.0539605 0.0178406
-0.0239717 0.105123 0.164799 1 1.55857e-05 -3.88956e-07
0.00846621 0.365226 0.0306961 0.998376 0.0234408 -0.0519149
-0.00471072 -0.363873 0.0995129 -0.997997 -0.025433 -0.0579305
0.0137102 0.23671 0.186817 0.998376 -0.0566799 0.00566019
0.0119095 0.133996 0.397489 -0.770994 -0.455248 -0.445329
-0.0235994 -0.307457 0.503245 -0.00635185 0.385071 -0.922865
0.0308348 0.247256 0.172329 -0.982295 0.0829192 0.167992
-0.00560354 0.328376 0.0961574 -0.998376 0.0121366 -0.0556538
0.00885222 0.420296 0.0456068 0.999548 -0.0178064 0.0242404
0.0136417 0.27248 0.118899 0.998376 -0.0228989 -0.0521562
0.00967795 -0.43851 0.288905 0.999441 0.0249508 -0.0222325
-0.00446835 0.377346 0.263511 -0.998384 0.033165 0.046154
-0.00521634 -0.266596 0.125612 -0.997997 0.0472352 -0.0420889
0.00475968 0.165187 0.0670824 0 -0.739603 -0.673043
0.0133852 0.370733 0.141965 0.998376 0.0494783 -0.0282223
0.00519496 0.226342 0.0185166 0 -0.401961 -0.915657
0.00886801 0.140684 0.117101 0.999548 0.0285543 0.00944139
0.0160685 0.33383 0.174903 0.998384 0.054143 -0.0172786
0.00839709 -0.258123 0.474012 0.822485 -0.568745 0.00681029
0.00723032 0.109928 0.458507 0.554139 -0.832424 0
-0.00321896 -0.369972 0.0764912 -0.997997 -0.025433 -0.0579305
0.0320222 -0.256475 0.332223 0.805066 -0.53592 0.25428
0.0353136 -0.275367 0.247228 -0.991629 -0.0403741 -0.122647
-0.00698698 0.288311 0.120065 -0.998376 -0.011551 -0.0557781
-0.00140095 0.204147 0.307281 -0.998384 -0.0336458 0.045805
0.0329036 0.287055 0.211836 -0.842857 0.464658 0.271448
-0.00449714 -0.256192 0.224018 -0.997997 0.0467935 0.0425823
-0.0278241 0.0604167 0.155155 -1 0 0
0.00900637 0.203883 0.0679713 0.998376 -0.0421306 -0.0383362
-0.082765 0.0849179 0.0661453 0 -3.12185e-05 1
0.0117771 -0.426158 0.197553 0.998006 -0.0601382 0.0191925
0.01579 0.146646 0.495958 0.0122312 -0.28823 0.957483
0.0131206 -0.304733 0.505409 0.0167413 0.735849 -0.676938
-0.00209297 0.163198 0.137927 -0.998384 -0.0539599 -0.0178451
0.0106375 0.306475 0.305202 0.998384 -0.000295824 0.0568328
0.0116009 0.202428 0.15621 0.998384 -0.0539596 -0.017845
-0.0016022 -0.387635 0.0563932 -0.997997 -0.025433 -0.0579305
-0.0239273 0.250133 0.175604 -0.386545 -0.0636213 0.920073
0.0144909 0.293973 0.236378 0.998376 -0.0121367 0.0556539
0.00920174 -0.440084 0.260761 0.997996 -0.0472368 0.0420914
0.0161735 -0.337373 0.20497 0.997997 -0.0260375 0.0576634
0.0111288 -0.209196 0.172688 0.997997 0.062886 0.00693991
0.0117753 -0.388884 0.25453 0.998006 -0.0373731 0.050876
0.00939582 -0.177004 0.127084 0.999442 -0.0318304 0.0101579
-0.0202717 0.0978685 0.167404 0.00379827 -0.828053 -0.560637
0.0140173 0.330572 0.121802 0.998376 0.0234408 -0.0519149
-0.00119446 -0.163438 0.147716 -0.999441 -0.0332551 0.00331725
-0.00499708 -0.268302 0.225608 -0.997997 0.0467935 0.0425823
0.014156 0.274612 0.128351 0.998384 -0.0331643 -0.0461544
0.00037373 0.101863 0.350795 -0.555325 -0.828837 0.0681384
-0.00799184 -0.294127 0.17103 -0.997997 0.0629547 -0.00628271
-0.000739033 -0.250066 0.381277 -0.554733 0.831871 -0.0161857
0.00829212 0.298271 0.352982 0 0.00524588 -0.999986
-0.00751566 0.356237 0.158911 -0.998384 0.0541432 -0.0172789
0.0138621 -0.329028 0.10054 0.998006 0.000331107 -0.0631244
0.00979786 0.441801 0.150905 0.998384 0.054143 -0.0172786
0.0111248 0.196035 0.21421 0.998384 -0.0541436 0.0172814
-0.0367645 -0.293846 0.210961 -0.306961 -0.793568 0.52538
0.0289092 -0.254628 0.341187 0 -0.00494546 0.999988
0.00894988 -0.442116 0.264452 0.997996 -0.0472368 0.0420914
-0.00292466 0.436492 0.145119 -0.998384 0.0541433 -0.0172787
0.0943205 -0.298939 0.422352 -0.735878 0 -0.677114
-0.00493626 0.352725 0.270324 -0.998376 0.0228957 0.0521583
0.0919665 -0.28496 0.425649 -0.966949 0 -0.254968
-0.00131633 0.14523 0.153019 -0.998376 -0.0566177 -0.00625402
0.0100055 0.2712 0.311876 0.998376 -0.0121367 0.0556539
0.0418594 0.145949 0.473194 0.634412 -0.261942 0.727261
-0.0831777 0.0839573 0.0661452 0 -3.12185e-05 1
0.0124555 0.25774 0.2596 0.998384 -0.0336456 0.0458048
-0.00174511 0.168124 0.109402 -0.998376 -0.0491807 -0.0287394
-0.00162504 0.263361 0.333837 -0.998376 -0.0121367 0.0556542
-0.0074939 0.251186 0.179965 -0.998376 -0.0566177 -0.00625402
-0.00329142 0.362787 0.0658673 -0.998376 0.023441 -0.0519152
-0.00108704 -0.441563 0.0959312 -0.997997 -0.0546254 -0.0319184
0.00884788 0.199 0.06921 0.998376 -0.0421306 -0.0383362
-0.0351217 -0.285744 0.209443 -0.307819 0.797429 -0.518993
-0.0263798 0.110856 0.186159 -0.000163859 0.743158 -0.669116
0.00821838 0.297507 0.0154635 0.998384 0.000298061 -0.056832
0.0132888 0.337391 0.110871 0.998376 0.0234408 -0.0519149
0.010203 0.421614 0.118595 0.998376 0.0494783 -0.0282223
-0.0100676 0.0994633 0.15677 -0.00257185 0.559626 -0.828741
-0.00165912 0.350616 0.0144961 -0.999548 -0.0064077 0.0293868
0.065082 0.0831999 0.263128 0 2.55978e-05 -1
-0.00206963 -0.378422 0.0604009 -0.997997 -0.025433 -0.0579305
0.0129228 0.390281 0.180013 0.998376 0.0566797 -0.00565699
0.0111274 -0.356459 0.0613983 0.997997 -0.0128302 -0.0619531
0.0132785 0.259868 0.243226 0.998384 -0.0336456 0.0458048
-0.00261887 0.424642 0.25767 -0.998376 0.0491789 0.0287411
-0.00196607 -0.369861 0.0548583 -0.997997 -0.025433 -0.0579305
-0.00690332 0.240632 0.181294 -0.998376 -0.0566802 0.00566022
0.00935371 -0.00577429 0.226256 -0.980153 0.0998848 0.171239
0.0157863 -0.363432 0.185625 0.998006 -0.0601382 0.0191925
-0.00374988 -0.405838 0.226222 -0.997997 -0.0549573 0.0313457
-0.000488362 0.416572 0.0498533 0 -0.592005 0.805935
-0.00771786 0.296344 0.131484 -0.998376 -0.011551 -0.0557781
-0.00229796 -0.185353 0.334366 0.974016 -0.115695 -0.194698
0.00973849 0.302362 0.0421933 0.998384 0.000298061 -0.056832
0.0366291 0.312078 0.173591 0.0632328 0.142764 -0.987735
-0.00110428 -0.433898 0.054246 -0.999441 0.0247178 0.0224936
0.0150329 -0.375643 0.186538 0.998006 -0.0601382 0.0191925
0.00677415 -0.259755 0.461831 0.555353 -0.831493 -0.0142422
0.0054454 0.166298 0.281992 0 0.868664 -0.495401
-0.00784241 0.298712 0.133223 -0.998376 -0.011551 -0.0557781
0.0130744 0.330069 0.259403 0.998376 0.0115525 0.0557782
0.0262585 -0.260497 0.33785 0.410495 -0.911851 -0.00468729
-0.00277627 -0.239145 0.245617 -0.997997 0.0467935 0.0425823
-0.000980242 0.424095 0.0593714 -0.998376 0.0425287 -0.0378942
0.0106279 0.396061 0.0960581 0.998376 0.0425285 -0.037894
-0.099671 0.0727969 0.0598359 0 -1 -0.000162567
0.00810606 0.468939 0.13819 0.998384 0.054143 -0.0172786
0.00894616 0.476342 0.24148 0.999548 -0.0285589 -0.00944474
0.00948271 -0.445243 0.0714728 0.999442 0.0247146 0.0224888
0.0380327 0.092533 0.23644 0.995132 -0.0187052 -0.0967579
0.00939044 0.208215 0.29003 0.998384 -0.0336456 0.0458048
-0.00479657 -0.255773 0.129592 -0.997997 0.0549568 -0.0313433
0.0153317 0.164856 0.36412 -0.98284 0.181363 0.0336555
-0.00699877 0.147175 0.388846 -0.996081 -0.0311531 0.0827783
0.00894535 -0.297704 0.0251875 0.997997 0.013479 -0.061815
0.00218097 -0.0552237 0.435526 -0.164118 -0.0754383 -0.983552
-0.0271222 -0.272404 0.288331 -0.392111 -0.872627 0.291154
-0.0855666 -0.356993 0.474547 0.940861 0.310695 -0.135089
0.00986818 0.442275 0.161866 0.998376 0.0566797 -0.00565699
0.0113536 -0.436108 0.175438 0.997997 -0.0629548 0.00628696
-0.00367574 -0.386631 0.248638 -0.998006 -0.0373728 0.0508756
0.0022321 -0.248448 0.394298 -0.196225 0.980384 -0.0185139
0.0116243 -0.227814 0.125869 0.997997 0.0549572 -0.0313435
0.00936895 0.452721 0.178425 0.998376 0.0566797 -0.00565699
0.00450474 0.0415501 0.474909 0.198047 -0.174625 0.964512
0.00965454 -0.184288 0.0910391 0.999442 -0.0290225 0.0165557
-0.000519192 -0.412863 0.0528318 -0.998006 -0.0368354 -0.051264
-0.003859 0.233966 0.0875568 -0.998384 -0.0331645 -0.0461546
-0.000319638 -0.1197 0.441548 -0.559494 -0.0633855 -0.826407
-0.0100243 0.100304 0.157718 -0.00383447 0.834369 -0.551192
0.00869436 0.149306 0.252967 0.999547 0.026131 -0.0149025
0.0132543 -0.248956 0.201588 0.998006 0.0599321 0.0198223
-0.005518 -0.264803 0.207396 -0.997997 0.0546243 0.0319214
0.0119887 -0.275021 0.0833885 0.997997 0.0260383 -0.0576613
0.00233925 0.20089 0.0463243 0 0.583574 0.81206
0.00994409 -0.236303 0.0713705 0.998006 0.0373693 -0.0508757
0.0106345 0.188462 0.218806 0.998384 -0.0541436 0.0172814
-0.0994694 -0.360203 0.479418 -0.735817 -0.495115 0.46199
0.00934925 -0.303875 0.313677 0.997997 0.0128296 0.0619551
0.0346224 0.0882568 0.213625 0 -1 6.29607e-06
-0.105658 0.0899046 0.0581242 0 -1.56098e-05 -1
0.0118319 -0.407722 0.109283 0.997997 -0.0467931 -0.0425814
-0.00248663 -0.254274 0.0783132 -0.998006 0.037369 -0.0508754
-0.00328678 0.360474 0.0647337 -0.998376 0.023441 -0.0519152
0.00274837 -0.462902 0.0849188 0 -0.863424 -0.504479
0.0808154 -0.32398 0.496613 -0.581139 -0.10554 -0.806932
0.00159939 -0.261301 0.369001 -0.18939 -0.981831 0.0117699
-0.00171234 0.245426 0.0178285 -0.999548 0.0120894 0.0275394
0.0922969 -0.268587 0.430375 -0.736177 0 0.676789
-0.0116977 0.17912 0.34362 -0.983006 -0.180138 -0.0353626
0.00861216 0.2615 0.00554198 0 -0.202814 -0.979217
0.00995139 0.172044 0.202273 0.998376 -0.0566799 0.00566019
0.0100011 0.175281 0.2141 0.998384 -0.0541436 0.0172814
-0.0040516 -0.412512 0.200857 -0.998006 -0.0601378 0.0191921
-0.00414299 0.370645 0.0878028 -0.998384 0.0336469 -0.0458041
0.00970736 0.429969 0.115709 0.998376 0.0494783 -0.0282223
-0.00155663 -0.45626 0.182016 -0.997997 -0.0629543 0.00628691
0.000956627 -0.486809 0.191989 0 -0.995056 0.0993158
0.00920232 -0.453863 0.238548 0.997997 -0.0549577 0.031346
0.00998864 0.246217 0.0605027 0.998376 -0.0228989 -0.0521562
-0.00543518 0.365104 0.111898 -0.998384 0.0336469 -0.0458041
-0.00555752 0.218635 0.1984 -0.998376 -0.0566802 0.00566022
0.00948384 -0.328943 0.328993 0.999442 0.000175189 -0.0334174
-0.0442037 -0.31698 0.505296 0.192963 -0.341002 -0.920045
0.0137505 -0.350831 0.103356 0.997997 -0.0254334 -0.0579308
0.0106725 0.184969 0.159671 0.998376 -0.0566174 -0.00625399
0.0133209 -0.313543 0.0923764 0.997997 0.013479 -0.061815
0.00999036 0.10875 0.377908 0.980697 -0.194874 0.01602
0.00887337 0.311008 0.0270409 0.998384 0.000298061 -0.056832
-0.00434073 -0.401258 0.215439 -0.997997 -0.0549573 0.0313457
-0.00119548 -0.437623 0.0925794 -0.997997 -0.0546254 -0.0319184
0.0148516 0.356446 0.182279 0.998376 0.0566176 0.00625259
-0.0014997 0.174655 0.0566777 0 -0.739603 -0.673043
0.00940178 -0.329758 0.326535 0.999442 0.000175189 -0.0334174
-0.0014695 -0.257594 0.493707 -0.822284 -0.568684 0.0211432
-0.00564307 0.33683 0.0993714 -0.998376 0.023441 -0.0519152
0.00766756 0.0705013 0.42714 0.554345 -0.0636498 -0.82985
0.00884758 0.434946 0.303144 0.999548 -0.0222435 -0.0202421
-0.000657635 -0.398981 0.0455525 -0.998006 -0.0368354 -0.051264
0.00243752 -0.260782 0.425764 -0.189785 -0.981755 0.0117622
0.0103643 0.333612 0.0560365 0.998376 0.0121365 -0.0556535
-0.00137104 -0.220995 0.0856104 -0.997997 0.0472352 -0.0420889
0.00949741 -0.252772 0.312368 0.999441 -0.0134317 -0.0306011
0.00894301 -0.174742 0.174821 0.997997 0.062886 0.00693991
0.0143458 0.283875 0.127375 0.998376 -0.0228989 -0.0521562
-0.00284563 0.193232 0.258754 -0.998376 -0.04948 0.028221
0.0129607 -0.278157 0.244275 0.998006 0.0368384 0.051264
0.0142641 0.262418 0.222657 0.998376 -0.0425287 0.0378941
0.0100442 -0.00305727 0.437043 0.980577 -0.015011 -0.195561
-0.00397568 -0.305413 0.263887 -0.997997 0.0128295 0.0619547
-0.00158486 -0.380599 0.0530053 -0.997997 -0.025433 -0.0579305
-0.00225819 -0.00696068 0.226743 0.980153 0.0998848 0.171239
-9.50797e-05 0.204161 0.331728 0 -0.591991 0.805945
0.00882495 -0.183171 0.225695 0.998006 0.0599321 0.0198223
-0.00781451 0.265265 0.209265 -0.998376 -0.04948 0.028221
0.00730204 -0.346438 0.334505 0 -0.213038 0.977044
0.0110124 -0.215563 0.213498 0.998006 0.0599321 0.0198223
0.0120029 -0.354494 0.0750952 0.997997 -0.0128302 -0.0619531
0.0141481 -0.266418 0.13854 0.997997 0.0549572 -0.0313435
0.0113036 -0.21689 0.141431 0.998006 0.0601372 -0.0191934
0.0403371 -0.32408 0.17312 0.00351299 0.995698 0.0925957
0.0128515 -0.331863 0.084548 0.998006 0.000331107 -0.0631244
0.0108019 0.251558 0.289411 0.998376 -0.0234443 0.0519141
-0.0239718 0.0918453 0.130964 1 0 0
0.0348063 0.273384 0.226399 0.980398 0.0761134 0.18173
0.0991417 0.0732087 0.263174 0 -1 -7.43017e-05
0.000192512 -0.243859 0.362184 0.498128 0.44079 0.746708
-0.0275344 0.10483 0.187319 0.000267422 -0.866008 0.50003
0.00938209 0.233195 0.0548449 0.998384 -0.0331643 -0.0461544
-0.0176453 0.222179 0.290754 -0.991847 -0.127192 0.00783738
0.0639829 0.0896911 0.27115 0 0 1
-9.56468e-06 0.486339 0.2056 0 0.993961 0.109735
0.0129299 0.227017 0.156211 0.998384 -0.0539596 -0.017845
-0.00325794 -0.226318 0.20927 -0.998006 0.0599316 0.0198222
-0.00404175 0.343404 0.0715448 -0.998376 0.023441 -0.0519152
0.0117603 0.338677 0.082184 0.998376 0.0121365 -0.0556535
0.0119057 0.394497 0.231929 0.998376 0.0491787 0.0287409
-0.00583005 -0.274979 0.213423 -0.997997 0.0467935 0.0425823
0.0116782 -0.337726 0.277846 0.997997 -0.0134786 0.0618172
0.102921 -0.36921 0.454089 0.381634 -0.924108 -0.0195019
-0.100042 0.0727968 0.06049 0 -1 -0.000162567
0.00853294 0.374299 0.0360759 0.998376 0.0234408 -0.0519149
0.0147898 -0.27218 0.194496 0.998006 0.0599321 0.0198223
-0.0046549 -0.393439 0.125129 -0.997997 -0.0546254 -0.0319184
-0.00888113 0.275704 0.183641 -0.998376 -0.0566802 0.00566022
-0.00190842 0.152351 0.0864794 -0.999548 0.0259663 0.015173
0.0134512 -0.251186 0.198415 0.998006 0.0599321 0.0198223
0.0134918 0.323468 0.253299 0.998376 0.0115525 0.0557782
-0.0289203 0.0961706 0.143157 0 1 3.33453e-05
0.00687014 -0.260083 0.415522 0.555259 -0.83152 0.0161706
0.0111295 -0.21303 0.19994 0.998006 0.0599321 0.0198223
0.0127538 0.289487 0.266562 0.998376 -0.0121367 0.0556539
0.00872491 0.460009 0.217692 0.998384 0.0539605 0.0178406
0.00545069 0.194841 0.0506713 0 0.583574 0.81206
-0.0904308 0.075063 0.066145 0 -3.12185e-05 1
-0.0136744 0.126928 0.486542 -0.745708 -0.222254 0.62811
-0.0187014 0.183039 0.173223 -0.496361 -0.0684974 0.86541
-0.0239718 0.0925198 0.206366 1 0 0
0.00894305 0.478576 0.234396 0.999548 -0.0285589 -0.00944474
-0.000913506 -0.0833486 0.439155 -0.554343 -0.0636953 -0.829848
0.069439 -0.308602 0.505465 0.357272 0.912352 -0.199925
0.000181351 0.403125 0.0399756 0 -0.592005 0.805935
0.00529772 -0.248298 0.407039 0.199782 0.979666 -0.0185001
-0.00188405 0.341543 0.00486669 -0.999548 -0.00640652 0.0293845
0.00231347 -0.0358841 0.252197 0.193244 -0.503133 -0.842327
0.00431972 -0.213951 0.0507342 0 0.746614 -0.665257
-0.00190093 0.241245 0.0430313 -0.998376 -0.022899 -0.0521565
-0.00100537 -0.414967 0.280206 -0.998006 -0.0373728 0.0508756
0.00868294 0.307022 0.33954 0.998384 -0.000295824 0.0568328
-0.00172533 0.449417 0.0793747 -0.999547 -0.0261311 0.014903
-0.00733023 -0.345714 0.137179 -0.998006 -0.0368354 -0.051264
-0.0330483 0.0896706 0.144526 -0.995132 0.0187026 0.0967588
0.0138709 0.154584 0.376815 -0.98284 0.181363 0.0336555
0.0103073 0.351927 0.30302 0.998376 0.0228955 0.052158
0.011885 -0.404659 0.107161 0.997997 -0.0467931 -0.0425814
0.013887 0.364503 0.148794 0.998376 0.0494783 -0.0282223
0.0088013 0.446461 0.0752304 0.999547 -0.0224597 0.0200113
0.0104733 -0.207601 0.127362 0.998006 0.0601372 -0.0191934
-0.00948408 0.290629 0.194225 -0.998376 -0.0425291 0.0378942
0.0131896 -0.251916 0.210751 0.997997 0.0546247 0.0319216
-0.0207185 0.253519 0.255981 -0.978195 0.100239 0.181899
-0.0278241 0.0553445 0.130596 -1 0 0
-0.00621295 -0.282607 0.131275 -0.997997 0.0472352 -0.0420889
-0.0015298 -0.281169 0.046436 -0.997997 0.026038 -0.0576609
-0.00720891 0.338867 0.131287 -0.998384 0.0336469 -0.0458041
0.00218899 -0.202125 0.351499 0.165914 -0.505827 -0.846529
-0.0278241 0.0639825 0.202723 -1 0 0
-0.00308423 -0.251144 0.0923976 -0.997997 0.0472352 -0.0420889
0.0152757 -0.303184 0.127563 0.997997 0.0260383 -0.0576613
-0.00358262 0.203762 0.251144 -0.998376 -0.04948 0.028221
-0.0875857 0.0727964 0.0627919 0 -1 -0.000162567
-0.00132238 0.467969 0.157254 -0.998376 0.05668 -0.00565702
0.0104309 0.288631 0.0552583 0.998376 -0.0115509 -0.0557778
0.011032 -0.210411 0.196934 0.998005 0.0599275 0.0198456
0.0349416 -0.317758 0.509133 0.0193705 -0.966808 0.254769
0.00996359 -0.241818 0.276509 0.998006 0.0368384 0.051264
0.0115786 -0.413715 0.111035 0.997997 -0.0546258 -0.0319186
-0.00190889 0.455531 0.0767564 0 0.86862 -0.495479
0.0055645 -0.0404783 0.434501 0.179021 -0.0752399 -0.980964
-0.00178352 0.456063 0.140507 -0.998384 0.0541433 -0.0172787
0.010926 0.188812 0.198287 0.998376 -0.0566799 0.00566019
0.00835955 0.35594 0.0249419 0.998376 0.0121365 -0.0556535
-0.00170693 0.342951 0.0111984 -0.999548 -0.0064077 0.0293868
-0.00857472 0.0879901 0.479839 -0.799456 -0.181498 0.57265
0.00174883 -0.480622 0.220574 0 -0.952642 0.304094
-0.00186397 0.447251 0.0698781 -0.999547 -0.0224605 0.0200119
-0.00293018 -0.0939045 0.443744 -0.980572 -0.0150127 -0.195583
0.008571 0.312345 0.353056 0 0.00524588 -0.999986
-0.00244668 -0.211146 0.140051 -0.998006 0.0601367 -0.0191933
-0.00600651 0.334807 0.257704 -0.998376 0.0228957 0.0521583
-0.00504335 0.404487 0.185941 -0.998376 0.0566179 0.00625262
0.00521432 -0.344331 0.0186011 0 0.202783 0.979224
0.0112698 -0.229554 0.11153 0.997997 0.0549572 -0.0313435
-0.00235269 -0.426231 0.109266 -0.997997 -0.0546254 -0.0319184
0.0083213 0.228445 0.0363892 0.998376 -0.0228989 -0.0521562
-0.00223167 0.276559 0.325833 -0.998376 -0.0121367 0.0556542
0.0104833 0.203856 0.256542 0.998376 -0.0425287 0.0378941
0.0104123 -0.208684 0.120822 0.997997 0.0549572 -0.0313435
0.00333625 -0.202184 0.280222 0 0.739581 0.673067
-0.002117 0.436625 0.254599 -0.998376 0.0491789 0.0287411
-0.00294978 0.0151651 0.437547 -0.980544 0.0150246 0.195724
0.00415041 -0.153142 0.322394 -0.165928 -0.50569 -0.846608
0.0119572 0.317905 0.0812516 0.998384 0.000298061 -0.056832
-0.0176015 0.092365 0.175192 -0.000872654 0.190239 0.981737
-0.00616169 0.288699 0.105213 -0.998376 -0.011551 -0.0557781
8.01813e-05 0.35392 0.00619947 0 0.213019 -0.977048
-0.00167449 0.135987 0.21738 -0.999548 0.0286485 -0.00914335
0.0110041 0.359525 0.286348 0.998376 0.0228955 0.052158
-0.0851229 -0.283283 0.430091 0.966958 0 0.254937
0.0123224 0.386118 0.231793 0.998376 0.0491787 0.0287409
0.00913527 0.195123 0.0809546 0.998376 -0.0421306 -0.0383362
-0.00168457 0.448471 0.0804502 -0.999547 -0.0261311 0.014903
0.0104543 -0.220937 0.100676 0.997997 0.0549572 -0.0313435
-0.00200646 -0.0676413 0.265978 0.789454 -0.311884 -0.528669
0.00992834 -0.269213 0.508437 0.979316 -0.00107737 0.202334
-0.00473561 -0.306671 0.0922445 -0.997997 0.0134789 -0.0618145
0.00570007 -0.375634 0.0259743 0 0.401965 0.915655
0.0144549 -0.263707 0.158606 0.998006 0.0601372 -0.0191934
0.0155373 -0.330698 0.21706 0.998006 -0.000329728 0.0631266
0.0276901 0.0962679 0.155311 -0.0396816 0.331337 -0.942678
-0.00438795 0.364187 0.0883983 -0.998384 0.0336469 -0.0458041
0.0108105 0.362534 0.0745629 0.998376 0.0234408 -0.0519149
0.00233116 0.428927 0.301628 0 -0.739572 -0.673078
0.0100304 -0.374945 0.294326 0.997997 -0.0260375 0.0576634
0.0154589 0.283624 0.150059 0.998384 -0.0331643 -0.0461544
0.00917746 0.289581 0.0326256 0.998376 -0.0115509 -0.0557778
-0.0278241 0.067054 0.120302 -1 0 0
0.00550731 -0.181586 0.112851 0 -0.952666 0.304019
-0.00248741 0.10647 0.302204 -0.831397 0.55381 -0.0455253
-0.0205425 0.248516 0.252192 -0.74583 -0.559675 -0.361248
0.00945962 -0.461659 0.137008 0.998006 -0.0599327 -0.0198219
0.00907792 0.036186 0.204399 -0.980237 -0.101156 -0.170008
-0.00197069 0.445208 0.118522 -0.998376 0.0494785 -0.0282225
0.0357753 -0.265337 0.301665 0.805066 -0.53592 0.25428
0.0133352 -0.356914 0.0988723 0.997997 -0.0254334 -0.0579308
-0.00332134 -0.271426 0.261925 -0.998006 0.0368381 0.0512636
0.00219579 -0.248068 0.489618 -0.189779 0.981756 -0.0117625
0.0136573 0.350807 0.126705 0.998384 0.0336467 -0.0458038
-0.00298733 0.181511 0.230896 -0.998384 -0.0541439 0.0172815
-0.0176622 0.0923228 0.17093 0.000869519 -0.189562 -0.981868
-0.0067264 0.241401 0.160685 -0.998384 -0.0539599 -0.0178451
-0.00151891 0.397317 0.0501989 -0.998384 0.0336469 -0.0458041
0.00967577 -0.400019 0.0566918 0.998006 -0.0368357 -0.0512644
0.0028658 -0.232481 0.0370708 0 0.591999 -0.805939
0.0100701 0.0985336 0.248753 0.980697 -0.194874 0.01602
-0.000953719 0.0810858 0.481143 -0.163512 -0.168799 0.971993
0.0157961 -0.362015 0.189553 0.998006 -0.060135 0.0191995
0.00956694 -0.48325 0.155942 0.999442 0.0332156 0.00366811
-0.0019447 0.369337 0.320294 -0.998376 0.0228957 0.0521583
0.105701 -0.361675 0.478387 0.707746 -0.636758 0.305997
-0.0662979 -0.3237 0.502554 0.451861 -0.860427 -0.235555
-0.00548596 0.225385 0.221722 -0.998376 -0.04948 0.028221
-0.0270561 0.280325 0.170611 -0.843207 -0.0326016 -0.536599
-0.00165771 0.0152141 0.211616 0.828182 0.284118 0.483106
-0.025387 0.140385 0.174731 0 -0.994525 -0.104503
-0.00417999 0.197483 0.15102 -0.998384 -0.0539599 -0.0178451
-0.00280013 0.215947 0.0775997 -0.998384 -0.0331645 -0.0461546
0.00335435 0.257146 0.0167457 0 0.202793 0.979222
-0.00165136 -0.239776 0.0725769 -0.998006 0.037369 -0.0508754
-0.0033947 0.257151 0.0646413 -0.998376 -0.022899 -0.0521565
0.0291349 -0.26858 0.3054 0.393461 -0.875567 0.280304
-0.0194965 0.196818 0.165036 -0.387113 0.0210367 -0.921792
0.00950822 -0.221573 0.292173 0.999442 -0.0195024 -0.0271391
0.00965862 0.175264 0.12968 0.998384 -0.0539596 -0.017845
0.0140845 -0.341829 0.238103 0.997997 -0.0134786 0.0618172
-0.0525272 0.11122 0.0637464 0 1 0
0.0100874 -0.206924 0.113563 0.997997 0.0549572 -0.0313435
0.00941952 -0.315807 0.327138 0.999442 0.000175189 -0.0334174
0.0121715 0.390975 0.134515 0.998376 0.0494783 -0.0282223
-0.00568296 -0.382297 0.205948 -0.997997 -0.0549573 0.0313457
0.0623547 0.111043 0.263129 0 2.55978e-05 -1
0.00936988 -0.28141 0.0355945 0.997997 0.013479 -0.061815
-0.000763673 -0.434617 0.265801 -0.997997 -0.0472364 0.0420911
0.00191766 -0.428883 0.0458308 0 -0.583548 -0.812078
-0.0081216 -0.324835 0.143943 -0.998006 0.000337548 -0.0631246
-0.00180748 0.468517 0.107352 -0.999548 -0.0261222 0.0149007
0.00891006 0.451571 0.232852 0.998384 0.0539605 0.0178406
0.0153573 -0.36206 0.202372 0.997996 -0.0472368 0.0420914
0.0130196 0.264007 0.111389 0.998384 -0.0331643 -0.0461544
0.00888862 0.0613566 0.19016 -0.828183 -0.28485 -0.482673
-0.0069447 0.241943 0.175975 -0.998376 -0.0566177 -0.00625402
-0.00180727 0.301241 0.336255 -0.998384 -0.000295826 0.0568331
-0.00196336 0.158879 0.143736 -0.998384 -0.0539599 -0.0178451
0.0135222 0.270701 0.24574 0.998376 -0.0234443 0.0519141
0.00307442 -0.0963299 0.288476 0.193244 -0.503133 -0.842327
0.0136803 -0.274972 0.227977 0.998005 0.0368387 0.0512637
0.00831309 0.37783 0.0147162 0 0.411545 -0.911389
0.00822552 0.278849 0.0178091 0.998376 -0.0115509 -0.0557778
0.106447 -0.280318 0.428223 0.966801 0 0.25553
-0.0251795 -0.273688 0.274985 0.989309 0.000779616 -0.145833
0.00877479 0.333266 0.00889565 0.999548 -0.00640749 0.0293858
0.00895303 0.478557 0.127764 0.999548 -0.0286532 0.00914382
-0.00116174 -0.444808 0.0636816 -0.999441 0.0247178 0.0224936
0.00451797 0.129121 0.223166 0 -0.952657 0.304046
-0.000997656 0.363438 0.341011 -0.998376 0.0228957 0.0521583
-0.00159312 0.452736 0.243655 -0.998384 0.0539608 0.0178407
0.00875713 0.241154 0.020337 0.999548 0.0120897 0.0275426
0.0245029 -0.261337 0.327063 -0.990558 0.000732903 -0.137095
0.00953388 0.165956 0.211878 0.998384 -0.0541436 0.0172814
0.010223 -0.412321 0.0766288 0.997997 -0.0467931 -0.0425814
-0.00327293 0.212268 0.0933282 -0.998376 -0.042131 -0.0383363
0.00799425 0.110524 0.462914 0.8305 -0.557018 0
0.0118911 -0.424151 0.14602 0.998006 -0.0599327 -0.0198219
0.00905032 -0.411687 0.0528995 0.998006 -0.0368357 -0.0512644
0.00951621 0.17409 0.238383 0.998384 -0.0541436 0.0172814
0.00935451 0.116418 0.439064 0.980549 0.196273 0
0.0144249 -0.333112 0.234509 0.997997 -0.0134786 0.0618172
-0.00239296 -0.226195 0.452098 -0.830669 -0.0426095 -0.555133
0.00852386 0.158136 0.0755401 0 -0.863399 -0.504522
-0.00648784 0.239301 0.209721 -0.998384 -0.0541334 0.017304
0.0136176 -0.291852 0.103981 0.997997 0.0260383 -0.0576613
0.0149675 -0.275737 0.195929 0.997997 0.0546247 0.0319216
0.0118569 -0.254383 0.0956134 0.998006 0.0373693 -0.0508757
-0.0272348 0.273822 0.17212 -0.98382 -0.0622837 -0.167985
0.0144055 -0.271756 0.137377 0.997997 0.0549572 -0.0313435
0.00509591 0.105151 0.398077 0.195908 -0.977325 0.0803437
-0.00296696 0.373231 0.0643432 -0.998376 0.023441 -0.0519152
0.0138166 -0.360502 0.235319 0.997997 -0.0260375 0.0576634
0.00905977 0.27656 0.33001 0.998376 -0.0121367 0.0556539
-0.00112802 0.429638 0.293709 -0.998376 0.0421301 0.0383369
0.0560413 -0.314973 0.502816 -0.0478824 -0.781108 -0.622557
-0.0050842 -0.3647 0.23712 -0.998006 -0.0373728 0.0508756
0.0112766 0.226938 0.261547 0.998376 -0.0425287 0.0378941
0.00264424 -0.392674 0.02354 0 -0.401975 -0.915651
-0.00276714 0.0902728 0.163146 -0.980669 -0.195014 0.0160303
0.00978835 0.215611 0.28679 0.998384 -0.0336456 0.0458048
0.022118 0.110707 0.169166 0.901833 -0.0990845 0.420571
0.00482435 0.450286 0.2751 0 -0.863407 -0.504507
-0.00546445 -0.260286 0.200876 -0.998006 0.0599316 0.0198222
-0.00114564 -0.175926 0.236306 -0.999442 -0.031725 -0.01049
0.0113762 0.29972 0.07095 0.998384 0.000298061 -0.056832
0.00879835 -0.162879 0.454091 0.830423 0.0426376 0.5555
0.00738029 0.140531 0.105668 0 -0.863399 -0.504522
0.016097 0.313825 0.154561 0.998376 0.0121365 -0.0556535
0.0111808 0.41924 0.162734 0.998376 0.0566797 -0.00565699
0.0138893 -0.396102 0.170053 0.997997 -0.0628855 -0.00694506
0.0256756 0.095837 0.158608 -1 7.97069e-05 3.26607e-07
0.0095223 -0.487829 0.161663 0 -0.993957 -0.109766
0.00209524 0.0969746 0.298941 -0.19589 -0.977329 0.0803458
0.0112123 0.281271 0.0707683 0.998376 -0.0115509 -0.0557778
0.031062 0.0964257 0.203417 0 1 -4.07293e-05
-0.00364373 -0.393963 0.101103 -0.997997 -0.0467928 -0.0425811
-0.00207489 0.219857 0.0591021 -0.998384 -0.0331645 -0.0461546
0.0106275 0.243322 0.288853 0.998383 -0.033663 0.045795
0.0392611 -0.270698 0.279066 0.832582 0.552791 -0.0350637
0.0120412 -0.424183 0.185686 0.997997 -0.0629548 0.00628696
-0.00359737 0.133986 0.401834 0.99669 0.0229332 -0.0779968
-0.020822 0.235929 0.171084 0.50414 -0.016066 0.863473
0.0704073 -0.310884 0.512281 0.447744 0.635989 0.628525
0.014403 0.328663 0.234836 0.998376 0.0228955 0.052158
-0.00145771 0.106869 0.288243 -0.83166 0.553419 -0.0454979
0.00803061 0.471124 0.222927 0.998384 0.0539605 0.0178406
-0.0940544 0.072796 0.0652789 0 -1 -0.000162567
0.00110208 0.451509 0.0900623 0 -0.868659 0.49541
0.00873664 0.181757 0.302096 0.999548 0.0224506 -0.0200054
0.0173976 -0.310378 0.165387 0.998006 0.0601272 -0.019215
0.00650958 -0.173485 0.138238 0 -0.952666 0.304019
0.0118077 0.247089 0.265898 0.998384 -0.0336456 0.0458048
-0.00685082 0.292601 0.11674 -0.998376 -0.011551 -0.0557781
0.103601 -0.369101 0.462224 0.381634 -0.924108 -0.0195019
-0.00756739 0.320504 0.12967 -0.998376 0.0121366 -0.0556538
0.0159967 0.0843591 0.157696 0.0038016 -0.828779 -0.559563
0.0107679 0.220217 0.0958965 0.998376 -0.0421306 -0.0383362
-0.00217628 -0.286237 0.288661 -0.997997 0.0254318 0.0579326
0.0121459 -0.338751 0.0741372 0.997997 -0.0128302 -0.0619531
0.00804402 0.196096 0.325804 0 -0.591991 0.805945
0.00885254 -0.477557 0.15135 0 0.99396 0.109745
-0.00442833 0.210898 0.129417 -0.998376 -0.0491807 -0.0287394
0.00853967 0.466034 0.197801 0.998376 0.0566176 0.00625259
-0.0278241 0.0594398 0.158155 -1 0 0
-0.00611887 -0.275438 0.206809 -0.997997 0.0546243 0.0319214
0.0120011 0.241996 0.105174 0.998384 -0.0331643 -0.0461544
0.0227384 0.105015 0.477033 0.746676 -0.19399 0.636273
0.00547068 -0.411046 0.300015 0 0.592063 -0.805892
-0.00650421 0.235965 0.198328 -0.998384 -0.0541439 0.0172815
0.00302494 0.427624 0.303059 0 -0.739572 -0.673078
0.00537995 0.153177 0.0840256 0 -0.863399 -0.504522
0.00031514 -0.24419 0.362297 0.498128 0.44079 0.746708
-0.00325567 -0.254226 0.250843 -0.998006 0.0368384 0.0512633
-0.00528509 0.370148 0.112332 -0.998384 0.0336469 -0.0458041
-0.00390411 0.375817 0.0863954 -0.998384 0.0336469 -0.0458041
-0.0430046 -0.325399 0.173298 -1 3.09435e-06 -2.9926e-05
-0.00187567 0.353188 0.355619 -0.999548 -0.00609965 -0.0294521
0.0124412 -0.394569 0.109109 0.997997 -0.0467931 -0.0425814
-0.0993983 -0.268172 0.428188 -0.966827 0 0.255433
-0.00675653 0.369751 0.205701 -0.998384 0.0539608 0.0178407
0.00849498 0.0823498 0.178446 -0.828183 -0.28485 -0.482673
0.0111786 0.201136 0.227078 0.998384 -0.0541332 0.017304
0.0135983 0.365253 0.223173 0.998376 0.0491787 0.0287409
-0.0278241 0.0831547 0.161757 -1 6.39539e-06 -1.59325e-07
-0.0100623 0.31058 0.190482 -0.998384 0.0331633 0.0461555
-0.0288904 -0.283622 0.251184 -0.317077 -0.904771 0.284343
-0.000941218 -0.174586 0.212779 -0.999441 -0.0317306 -0.0104937
-0.00645095 0.377468 0.199462 -0.998384 0.0539608 0.0178407
0.0131117 -0.252733 0.129536 0.997997 0.0549572 -0.0313435
0.0119927 0.387727 0.122664 0.998376 0.0425285 -0.037894
-0.00305476 -0.404254 0.0986076 -0.997997 -0.0467928 -0.0425811
0.00894163 0.180376 0.0526041 0.999548 0.0222421 0.0202404
-0.0989633 -0.331324 0.42997 -0.966588 0.022197 0.255371
0.00966533 -0.345853 0.308571 0.997997 -0.0134786 0.0618172
0.0109822 -0.239211 0.252213 0.997997 0.0467939 0.0425826
-0.0278241 0.0840109 0.172174 -1 5.10858e-06 -3.52024e-06
-0.00191292 0.309301 0.334441 -0.998384 -0.000295826 0.0568331
-0.0851606 -0.279434 0.424692 0.966958 0 -0.254937
-0.0179449 0.25026 0.25268 0.99669 0.0229332 -0.0779968
0.00232764 -0.0915078 0.271311 0.166547 0.501501 0.848975
-0.00443961 -0.327218 0.175889 -0.00556198 -0.0759253 0.997098
0.0140859 -0.267969 0.133841 0.997997 0.0549572 -0.0313435
-0.00058267 -0.20261 0.25527 -0.997997 0.0546243 0.0319214
-0.0055288 0.273388 0.0983633 -0.998376 -0.022899 -0.0521565
0.00447875 0.332023 0.0117501 0 -0.213041 0.977043
0.00921373 -0.413451 0.286732 0.998006 -0.0373731 0.050876
0.00500078 -0.26027 0.462438 0.189783 -0.981756 0.011769
-0.00851336 0.343128 0.187486 -0.998376 0.0566179 0.00625262
0.00773404 0.285121 0.000649513 0 -0.202814 -0.979217
-0.00302136 0.235119 0.294712 -0.998384 -0.0336458 0.045805
-0.00356267 -0.236498 0.220093 -0.997997 0.0546243 0.0319214
-0.00279563 -0.41952 0.232615 -0.997997 -0.0549573 0.0313457
