0.00141427 0.114939 0.362897 -0.195987 0.977309 -0.0803479
0.00890707 0.129822 0.150848 0.999548 0.0298975 0.00330321
-0.0036053 -0.236891 0.124769 -0.997997 0.0549568 -0.0313433
0.00966976 -0.416676 0.038102 0.999442 0.0195002 0.0271369
-0.00109896 -0.216873 0.260453 -0.997997 0.0467935 0.0425823
0.00901481 0.359943 0.0388607 0.998376 0.0234408 -0.0519149
-0.00325833 0.242135 0.294438 -0.998376 -0.0234444 0.0519144
0.00918945 0.236481 0.0494789 0.998376 -0.0228989 -0.0521562
0.0100009 -0.361945 0.0443876 0.997997 -0.0128302 -0.0619531
0.013318 0.273073 0.250739 0.998376 -0.0234443 0.0519141
-0.00109654 -0.409836 0.0618965 -0.998006 -0.0368354 -0.051264
0.0990916 0.101668 0.263129 0 2.55978e-05 -1
-0.00497404 0.405014 0.170943 -0.998376 0.05668 -0.00565702
-0.00537153 -0.30955 0.242258 -0.997997 0.0128295 0.0619547
-0.000405131 -0.314272 0.322248 -0.998006 -0.000329753 0.0631261
-0.00450718 -0.240158 0.158283 -0.997997 0.0629547 -0.00628271
0.0101717 -0.450629 0.139512 0.998006 -0.0599327 -0.0198219
-0.00665328 0.274733 0.119298 -0.998376 -0.022899 -0.0521565
-0.0011467 -0.437847 0.252982 -0.997997 -0.0549573 0.0313457
-0.00837517 0.281513 0.212096 -0.998384 -0.0336458 0.045805
0.0098185 0.395061 0.287788 0.998384 0.0331648 0.0461537
0.00796113 -0.260089 0.322136 0 0.40197 0.915653
-0.00764374 0.335018 0.225238 -0.998384 0.033165 0.046154
-0.0275577 0.300538 0.195228 -0.843199 0.415513 0.341122
0.0371206 0.0882562 0.264074 0.000293507 -1 -4.16697e-05
0.00822394 -0.307411 0.514597 0 -0.486497 -0.873682
-0.000388769 -0.175507 0.151901 -0.997997 0.0629547 -0.00628271
-0.00383836 -0.282727 0.258487 -0.997997 0.0254318 0.0579326
0.0142848 -0.293838 0.114632 0.997997 0.0260383 -0.0576613
0.104849 0.0933737 0.27115 0 0 1
0.0103428 -0.272972 0.0558277 0.997997 0.0260383 -0.0576613
0.00432408 -0.369821 0.320115 0 0.212998 -0.977053
-0.00101127 0.209318 0.0436675 -0.998384 -0.0331645 -0.0461546
0.0130362 -0.312335 0.0880431 0.997997 0.013479 -0.061815
0.0097324 0.383672 0.297835 0.998384 0.0331648 0.0461537
0.0113344 -0.240124 0.244961 0.997997 0.0467939 0.0425826
-0.00528025 -0.275594 0.226783 -0.998006 0.0368384 0.0512633
0.0122294 0.364875 0.105917 0.998384 0.0336467 -0.0458038
-0.00263227 -0.436515 0.199449 -0.998006 -0.0601378 0.0191921
-0.00458838 0.322118 0.0765816 -0.998376 0.0121366 -0.0556538
0.00948264 0.441797 0.13268 0.998384 0.054143 -0.0172786
0.00842442 0.422801 0.295091 0.998376 0.0421299 0.0383367
-0.00159707 -0.206538 0.114045 -0.997997 0.0549568 -0.0313433
-0.000600201 -0.195893 0.0710002 0 0.746614 -0.665257
0.00825069 0.468014 0.22002 0.998384 0.0539605 0.0178406
-0.00302169 0.375149 0.0666707 -0.998384 0.0336469 -0.0458041
0.013827 -0.3939 0.152026 0.998006 -0.0599327 -0.0198219
-0.00196068 -0.198919 0.167003 -0.997997 0.0629547 -0.00628271
0.0110367 -0.290189 0.283661 0.997997 0.0128296 0.0619551
-0.0256662 0.115602 0.205975 0 -0.866024 0.500003
0.0116373 0.317994 0.0756323 0.998384 0.000298061 -0.056832
-0.00253086 0.319015 0.323636 -0.998384 -0.000295826 0.0568331
-0.00111665 -0.485181 0.163819 -0.999442 0.0332159 0.00366785
-0.0344547 0.279855 0.178966 1 0 0
0.00979559 -0.276879 0.509039 0.979316 -0.00107737 0.202334
-0.00257921 -0.212268 0.143429 -0.998006 0.0601367 -0.0191933
-0.00744757 -0.351733 0.143849 -0.997997 -0.0467928 -0.0425811
-0.000471817 -0.170501 0.181896 0 -0.993958 -0.109758
0.00894594 0.354849 0.327797 0.998376 0.0228955 0.052158
-0.00714442 -0.368661 0.172185 -0.997997 -0.0629543 0.00628691
0.00811198 0.290433 0.349484 0.998384 -0.000295824 0.0568328
-0.00157136 0.105911 0.27867 -0.83166 0.553419 -0.0454979
0.0005034 -0.0275464 0.234294 0.549973 0.42423 0.719416
0.091676 -0.268517 0.426751 -0.966949 0 -0.254968
0.00975481 0.349031 0.0484649 0.998376 0.0121365 -0.0556535
-0.00443611 -0.281439 0.0966166 -0.997997 0.026038 -0.0576609
-0.00322937 -0.226543 0.211387 -0.998006 0.0599316 0.0198222
0.0299372 0.301834 0.17417 -0.00376691 0.077485 -0.996986
-0.00516557 -0.258523 0.13652 -0.997997 0.0549568 -0.0313433
-0.00930136 -0.333156 0.176521 -0.998006 -0.0601345 0.0191994
-0.000517343 -0.415352 0.289497 -0.998006 -0.0373728 0.0508756
-0.00678232 -0.320978 0.122789 -0.998006 0.000331107 -0.0631239
-0.000781467 -0.184702 0.208132 -0.998006 0.0599316 0.0198222
0.0126453 -0.293978 0.0861932 0.997997 0.0260383 -0.0576613
-0.00042845 -0.174241 0.237583 0 0.949446 0.313929
-0.00498175 0.254317 0.266084 -0.998384 -0.0336458 0.045805
0.00995657 0.0944113 0.205539 0.980624 -0.195241 0.0160464
0.0105208 0.23917 0.0751843 0.998384 -0.0331643 -0.0461544
-0.00491607 0.285141 0.279549 -0.998376 -0.0121367 0.0556542
0.070494 0.108807 0.27115 0 0 1
-0.00288511 0.227306 0.291943 -0.998384 -0.0336458 0.045805
-0.00301433 0.103723 0.294185 -0.980677 0.194976 -0.0160284
0.00983911 -0.191608 0.198788 0.997997 0.062886 0.00693991
-0.00401382 -0.251193 0.229852 -0.997997 0.0467935 0.0425823
-0.00156936 0.465036 0.19237 -0.998376 0.0566179 0.00625262
-0.00711963 0.26645 0.134746 -0.998384 -0.0331663 -0.046153
0.014516 0.337632 0.227439 0.998384 0.0331648 0.0461537
0.00624252 0.033195 0.42905 0.554345 -0.0636498 -0.82985
0.011328 -0.407124 0.247336 0.997996 -0.0472368 0.0420914
-0.000475072 -0.25458 0.0401875 -0.997997 0.026038 -0.0576609
-0.00378637 -0.308137 0.267501 -0.997997 0.0128295 0.0619547
-0.00330614 0.431459 0.212147 -0.998384 0.0539608 0.0178407
-0.06327 0.0917142 0.0661455 0 -3.12185e-05 1
0.00958725 0.326669 0.322524 0.998376 0.0115525 0.0557782
0.00953169 0.436822 0.241975 0.998376 0.0491787 0.0287409
0.00813746 0.44703 0.0900839 0.998376 0.0494783 -0.0282223
0.00896851 0.471083 0.105222 0.999548 -0.0261214 0.0149002
-0.0853157 -0.310228 0.424467 0.735863 0 -0.677131
-0.00618171 0.3681 0.229727 -0.998376 0.0421301 0.0383369
0.0117197 -0.373371 0.265799 0.997997 -0.0260375 0.0576634
0.000825986 -0.434044 0.0630831 0 0.739627 0.673016
-0.00677556 0.328833 0.117539 -0.998376 0.023441 -0.0519152
0.0135573 -0.248073 0.17575 0.997997 0.062886 0.00693991
-0.0019553 0.163456 0.129446 -0.998384 -0.0539599 -0.0178451
0.0861085 -0.318432 0.508423 0.737229 0.429767 0.521339
0.00817447 0.304885 0.014731 0.998384 0.000298061 -0.056832
0.00966851 0.444447 0.211957 0.998384 0.0539564 0.0178615
-0.00106288 -0.211917 0.0597457 -0.999441 -0.0249517 0.0222311
-0.00177473 0.101995 0.234758 -0.831397 0.55381 -0.0455253
0.0141964 -0.296262 0.23215 0.997997 0.025432 0.0579331
-0.00264456 -0.321654 0.0573659 -0.998006 0.000331107 -0.0631239
-0.0863961 -0.365317 0.473571 0.732295 -0.623093 0.274771
-0.00632033 0.0893115 0.481664 -0.198048 -0.174625 0.964512
0.00807603 0.137586 0.188012 0.998376 -0.0566799 0.00566019
0.00957073 -0.281129 0.018262 0.999441 -0.0071199 0.0326527
0.00245304 -0.0391492 0.434248 -0.164118 -0.0754383 -0.983552
-0.000204918 0.00686343 0.442529 -0.554063 0.0636731 0.830036
-0.00323649 0.308541 0.311186 -0.998384 -0.000295826 0.0568331
0.0102095 -0.3896 0.284609 0.997997 -0.0260375 0.0576634
-0.00190516 0.17883 0.310339 -0.999547 0.022461 -0.0200109
-0.0885762 -0.358596 0.433291 0.3723 -0.581432 -0.723415
0.00953651 0.300588 0.324512 0.998384 -0.000295824 0.0568328
-0.0346652 -0.317683 0.175287 0.999965 -0.00761419 -0.00351888
-0.0101451 0.298783 0.18479 -0.998384 -0.0541334 0.017304
-0.00354344 0.196701 0.24015 -0.998376 -0.04948 0.028221
-0.0347169 -0.300225 0.190279 -0.292338 0.649933 -0.701517
0.00685291 -0.110809 0.440502 0.554345 -0.0636498 -0.82985
0.0339917 0.120563 0.470913 0.634412 -0.261942 0.727261
-0.000977247 0.107837 0.41245 -0.555325 -0.828837 0.0681384
-0.0198692 0.180492 0.171812 -0.903262 -0.0812109 0.421334
-0.0210385 -0.257299 0.341173 0 -0.00556084 0.999985
0.0103791 -0.214332 0.234306 0.997997 0.0546247 0.0319216
0.0109155 0.236561 0.27761 0.998384 -0.0336456 0.0458048
-0.00631049 -0.314102 0.228076 -0.997997 0.0128295 0.0619547
-0.00181032 0.214076 0.0290875 -0.999548 0.0175528 0.0244276
0.0153583 0.265613 0.185566 0.998376 -0.0566799 0.00566019
0.0102825 -0.224693 0.0915916 0.997997 0.0472356 -0.0420892
0.0147447 0.299935 0.233016 0.998384 -0.000295824 0.0568328
0.00296579 0.092915 0.25168 -0.195738 -0.977359 0.0803467
-0.00185756 -0.198704 0.19079 -0.997997 0.0628855 0.00693986
-0.00551394 0.366735 0.248518 -0.998384 0.0331633 0.0461555
-0.0871213 0.0758511 0.0581245 0 -1.56098e-05 -1
0.010554 0.284693 0.0582774 0.998376 -0.0115509 -0.0557778
-0.0256184 0.0897996 0.188271 0.000341307 -0.994526 -0.104488
-0.00167869 -0.215183 0.101485 -0.997997 0.0549568 -0.0313433
-0.00225503 -0.0421518 0.249512 0.980232 -0.101034 -0.170108
0.00803619 0.237345 0.336181 0.998376 -0.0234443 0.0519141
0.0136985 -0.318954 0.246193 0.998006 -0.000329728 0.0631266
0.00903521 -0.448896 0.252579 0.997997 -0.0549577 0.031346
0.00891122 0.15785 0.222455 0.998384 -0.0541436 0.0172814
0.0375266 0.306047 0.18957 0.063483 0.762561 0.643794
0.045027 0.108134 0.270295 -0.998163 0.0555922 0.0240739
-0.00555572 -0.392267 0.186077 -0.998006 -0.0601378 0.0191921
-0.00107235 -0.433598 0.28902 -0.999441 0.0249494 -0.0222319
0.0146803 -0.285855 0.127881 0.998006 0.0373693 -0.0508757
0.003244 -0.250647 0.505753 -0.16186 0.97291 0.165068
0.0122591 -0.403547 0.229274 0.997996 -0.0472368 0.0420914
0.013024 -0.336363 0.256416 0.997997 -0.0134786 0.0618172
-0.00451935 0.387417 0.11145 -0.998376 0.0425287 -0.0378942
0.0111315 0.381728 0.268965 0.998384 0.0331648 0.0461537
-0.00125824 -0.388441 0.0508217 -0.997997 -0.025433 -0.0579305
0.00947262 -0.4767 0.210683 0.999442 0.0318325 -0.010161
-0.00205281 0.441211 0.248982 -0.998376 0.0491789 0.0287411
0.0152635 -0.277609 0.157093 0.998006 0.0601372 -0.0191934
-0.0246227 0.119431 0.12018 0 0.27825 -0.960509
-0.00480293 0.308153 0.283667 -0.998384 -0.000295826 0.0568331
0.0155605 -0.325366 0.127412 0.998006 0.000331107 -0.0631244
0.00236922 -0.101556 0.451919 -0.201019 0.0749253 0.976718
0.0100024 -0.350936 0.302021 0.997997 -0.0134786 0.0618172
0.0089618 -0.345828 0.0243112 0.997997 -0.0128302 -0.0619531
-0.00175069 -0.436723 0.108398 -0.997997 -0.0546254 -0.0319184
0.0129751 0.385032 0.206625 0.998384 0.0539605 0.0178406
-0.00185709 -0.218909 0.243317 -0.997997 0.0546243 0.0319214
-0.0183809 0.151294 0.16882 -0.98945 -0.0760991 0.123276
0.0156109 -0.368236 0.179267 0.997997 -0.0629548 0.00628696
0.0106888 0.406878 0.253018 0.998376 0.0491787 0.0287409
-0.00176033 0.109459 0.325283 -0.83166 0.553419 -0.0454979
-0.00242435 0.106994 0.307425 -0.831397 0.55381 -0.0455253
-0.00330608 -0.29661 0.0713583 -0.997997 0.0134789 -0.0618145
-0.00214709 0.241925 0.315713 -0.998376 -0.0234444 0.0519144
-0.00411113 -0.416776 0.171321 -0.997997 -0.0628851 -0.00694501
-0.000973219 0.317018 0.350989 -0.998384 -0.000295826 0.0568331
-0.0241318 0.125403 0.474781 -0.629543 -0.260265 0.732077
0.0149125 0.343383 0.213402 0.998376 0.0421299 0.0383367
0.0575297 0.0894873 0.263128 0 2.55978e-05 -1
-0.00556789 -0.346191 0.106517 -0.997997 -0.025433 -0.0579305
-0.0177772 -0.315786 0.504013 -0.00848442 -0.735768 -0.67718
0.017588 -0.304318 0.506261 0.0221726 0.974577 -0.222951
-0.00106249 -0.169152 0.136716 -0.999442 -0.0318348 0.0101581
0.0163837 -0.298356 0.19036 0.997997 0.0546247 0.0319216
0.0087335 0.442983 0.288682 0.999548 -0.0222458 -0.0202457
-0.00651327 -0.271258 0.165321 -0.997997 0.0629547 -0.00628271
-0.000704747 -0.465376 0.209248 -0.998006 -0.0601378 0.0191921
-0.00451609 0.274663 0.0786652 -0.998376 -0.011551 -0.0557781
-0.00159928 0.371784 0.0373882 -0.998376 0.023441 -0.0519152
0.00845973 0.160819 0.109871 0.998376 -0.0491805 -0.028739
0.0091558 0.221979 0.305254 0.998384 -0.0336456 0.0458048
-0.00428803 0.394965 0.24952 -0.998376 0.0421301 0.0383369
-0.0719963 -0.324175 0.497906 0.581138 -0.105539 -0.806932
0.0952949 -0.358225 0.467133 -0.401461 0.840757 -0.363258
0.0115873 -0.217633 0.160945 0.997997 0.0629551 -0.00628276
0.0401057 -0.30666 0.189688 -0.999321 0.014534 0.0338727
-0.00159254 0.155416 0.100189 0 0.863397 0.504524
0.0125529 -0.412965 0.198548 0.998006 -0.0601382 0.0191925
0.0116975 -0.425556 0.203581 0.998006 -0.0601382 0.0191925
0.013681 -0.350573 0.102047 0.997997 -0.0254334 -0.0579308
0.0026284 0.303191 0.188961 -0.00371042 -0.0760743 0.997095
-0.00538867 -0.340593 0.241788 -0.997997 -0.0134787 0.0618167
0.00959975 0.186494 0.257795 0.998376 -0.0494798 0.0282207
-0.00298343 0.402619 0.275082 -0.998376 0.0421301 0.0383369
-0.00269046 0.166616 0.178771 -0.998376 -0.0566177 -0.00625402
0.0100462 0.339529 0.311645 0.998376 0.0115525 0.0557782
0.0087344 -0.294385 0.321616 0.997997 0.0128296 0.0619551
-0.00334358 -0.314181 0.0684569 -0.998006 0.000331107 -0.0631239
-0.0015719 0.249799 0.330331 -0.998376 -0.0234444 0.0519144
0.00820187 0.471936 0.198296 0.998376 0.0566176 0.00625259
-0.00179015 0.198362 0.0699945 -0.998376 -0.042131 -0.0383363
0.010118 -0.179342 0.451933 0.980576 0.0150122 0.195563
-0.00770582 -0.307209 0.202281 -0.998006 0.0368381 0.0512636
-0.00138076 -0.388436 0.291096 -0.997997 -0.0260372 0.057663
0.0400457 -0.288378 0.213252 -0.991629 -0.0403741 -0.122647
-0.00119979 -0.250433 0.0558908 -0.998006 0.037369 -0.0508754
0.0234219 0.105113 0.476261 0.746676 -0.19399 0.636273
-0.0019017 0.357974 0.00784859 -0.999548 -0.00640652 0.0293845
-0.00637215 0.284168 0.109918 -0.998376 -0.011551 -0.0557781
0.0117297 0.239475 0.262003 0.998384 -0.0336456 0.0458048
-0.00409857 0.361238 0.282622 -0.998376 0.0228957 0.0521583
0.00607174 0.0808468 0.182013 -0.550529 -0.428642 -0.716368
0.0155263 -0.346988 0.132483 0.998006 -0.0368357 -0.0512644
0.0102831 -0.233545 0.0816701 0.997997 0.0472356 -0.0420892
-0.00767347 0.352524 0.205491 -0.998376 0.0491789 0.0287411
0.0144325 -0.344298 0.231948 0.997997 -0.0134786 0.0618172
-0.00141975 0.0563291 0.428956 -0.83054 -0.042626 -0.555326
-0.00216664 0.159139 0.200722 -0.998376 -0.0566802 0.00566022
0.0301486 0.222192 0.174183 -0.387132 0.00212184 0.922022
0.00962428 0.394945 0.0712221 0.998384 0.0336467 -0.0458038
0.00873823 -0.353098 0.321958 0.997997 -0.0134786 0.0618172
-0.00244468 -0.136324 0.450996 -0.830423 0.0426423 0.555499
-0.00360145 -0.25458 0.243239 -0.997997 0.0467935 0.0425823
0.0369651 -0.317744 0.509029 0.0193705 -0.966808 0.254769
0.0111061 0.420447 0.161641 0.998376 0.0566797 -0.00565699
-0.000655573 -0.361632 0.313614 -0.997997 -0.0134787 0.0618167
0.00503325 -0.0629565 0.254547 -0.166561 0.501363 0.849054
0.0115724 0.248495 0.272058 0.998384 -0.0336456 0.0458048
0.00897955 0.370466 0.351444 0.999548 -0.012089 -0.0275392
-0.000728134 -0.231278 0.0607078 -0.998006 0.037369 -0.0508754
-0.0337403 -0.286941 0.215054 0.990548 -0.0428891 -0.130287
-0.00105185 -0.31883 0.311999 -0.998006 -0.000329753 0.0631261
0.0103119 0.253322 0.0635711 0.998376 -0.0228989 -0.0521562
-0.0807339 0.102019 0.0661458 0 -3.12185e-05 1
-0.00282216 0.336714 0.0480805 -0.998376 0.0121366 -0.0556538
0.0780392 0.0931686 0.263129 0 2.55978e-05 -1
-0.00414471 -0.239523 0.139435 -0.998006 0.0601367 -0.0191933
0.0078998 0.101587 0.21633 0.555369 0.828808 -0.0681383
-0.0344547 0.30192 0.162444 1 0 0
-0.00606252 0.250468 0.239298 -0.998376 -0.0425291 0.0378942
0.0129739 -0.245192 0.20432 0.998006 0.0599321 0.0198223
-0.00113597 -0.0871002 0.439592 -0.554343 -0.0636953 -0.829848
-0.00396569 -0.257862 0.105759 -0.997997 0.0472352 -0.0420889
0.013133 0.319879 0.10271 0.998376 0.0121365 -0.0556535
-0.00342715 0.412692 0.113039 -0.998376 0.0494785 -0.0282225
-0.00293439 0.112286 0.393465 -0.980665 0.195036 -0.0160327
0.00914428 -0.458784 0.231769 0.997997 -0.0549577 0.031346
-0.00198043 -0.418884 0.254607 -0.997997 -0.0472364 0.0420911
0.0053858 0.409235 0.0444637 0 -0.592005 0.805935
-0.00855966 0.338365 0.164295 -0.998376 0.0494785 -0.0282225
-0.0034764 -0.394213 0.0974565 -0.997997 -0.0467928 -0.0425811
0.0121062 0.267359 0.271463 0.998376 -0.0234443 0.0519141
0.0870667 0.0752181 0.263128 0 2.55978e-05 -1
-0.0886436 -0.324161 0.433167 0.3853 0 0.922791
0.0118386 -0.258644 0.092124 0.998006 0.0373693 -0.0508757
-0.00109569 0.138842 0.175626 -0.998376 -0.0566177 -0.00625402
0.0106174 -0.327677 0.294859 0.998006 -0.000329728 0.0631266
0.0112913 -0.235298 0.103609 0.997997 0.0472356 -0.0420892
0.00997944 -0.328925 0.0391558 0.998006 0.000331107 -0.0631244
-0.065946 -0.309934 0.508211 -0.447587 0.862301 0.236861
0.013318 -0.405113 0.16954 0.997997 -0.0628855 -0.00694506
-0.003507 -0.223123 0.170107 -0.997997 0.0629547 -0.00628271
0.00885518 -0.0816963 0.447775 0.830423 0.0426376 0.5555
-0.0917114 -0.346323 0.481832 0.000193554 0.49987 -0.8661
-0.0966142 -0.357031 0.470897 -0.392152 0.85306 -0.344247
-0.00919687 0.331464 0.17928 -0.998376 0.05668 -0.00565702
0.00683098 -0.194673 0.255456 0 -0.863407 -0.504507
0.0101024 0.279317 0.311908 0.998376 -0.0121367 0.0556539
-0.00311079 -0.254986 0.403631 -0.977527 -0.210779 0.00371307
-0.0266902 0.0937471 0.143666 0.995218 0.0195582 -0.0956991
0.0113149 0.195279 0.168884 0.998376 -0.0566174 -0.00625399
-0.00648965 0.327082 0.251499 -0.998376 0.0115525 0.0557785
-0.00639352 0.236498 0.156888 -0.998384 -0.0539599 -0.0178451
0.00986471 0.307291 0.0444364 0.998384 0.000298061 -0.056832
-0.0038353 0.21288 0.255791 -0.998376 -0.0425291 0.0378942
-0.0048098 0.219506 0.127938 -0.998376 -0.0491807 -0.0287394
0.00941966 0.375571 0.053703 0.998376 0.0234408 -0.0519149
0.00589603 0.473265 0.255045 0 0.949428 0.313986
-0.00222712 -0.42395 0.101435 -0.997997 -0.0546254 -0.0319184
0.00940973 -0.419298 0.278592 0.998006 -0.0373731 0.050876
0.0920812 -0.285502 0.425214 -0.966949 0 -0.254968
0.010557 0.199628 0.116318 0.998376 -0.0491805 -0.028739
-0.0227855 -0.264218 0.290861 0.990548 -0.0428891 -0.130287
0.0974459 -0.353226 0.444258 -0.401401 0.818936 0.410147
0.0136972 0.291228 0.250018 0.998376 -0.0121367 0.0556539
0.0131637 0.247881 0.235333 0.998376 -0.0425287 0.0378941
-0.00349132 0.252045 0.0687329 -0.998376 -0.022899 -0.0521565
0.00704431 -0.123271 0.303397 -0.495675 -0.445588 -0.745492
-0.00657114 -0.33744 0.120736 -0.997997 -0.0128303 -0.0619526
0.0119606 -0.348729 0.270887 0.997997 -0.0134786 0.0618172
0.00316115 -0.409474 0.0430624 0 0.583529 0.812092
0.00660307 0.183288 0.0471908 0 -0.739603 -0.673043
-0.00635833 -0.379702 0.183712 -0.998006 -0.0601378 0.0191921
-0.00190535 0.12455 0.180257 -0.999547 0.0299011 0.0033029
0.0139476 -0.331057 0.101881 0.998006 0.00033755 -0.0631251
0.0101229 -0.455425 0.165975 0.997997 -0.0628855 -0.00694506
0.0372416 0.280419 0.169406 0.387798 0.0097164 -0.921693
-0.00207618 0.224009 0.0561464 -0.998384 -0.0331645 -0.0461546
-0.00881579 0.27446 0.182712 -0.998376 -0.0566802 0.00566022
-0.00261969 0.19781 0.270905 -0.998376 -0.0425291 0.0378942
-0.00190631 0.481742 0.22752 -0.999547 -0.0285597 -0.00944529
-0.00332066 -0.421778 0.134509 -0.998006 -0.0599323 -0.0198216
0.00392515 -0.353492 0.0112269 0 -0.202794 -0.979221
0.0116376 -0.417616 0.224566 0.997997 -0.0549577 0.031346
-0.00284705 0.18663 0.116014 -0.998376 -0.0491807 -0.0287394
-0.00243627 0.232978 0.305892 -0.998384 -0.0336458 0.045805
0.00969421 0.114721 0.436962 0.980549 0.196273 0
-0.00646958 0.377336 0.198819 -0.998384 0.0539567 0.0178615
0.101332 -0.321457 0.433626 0.385693 0 0.922627
0.0133857 0.382079 0.184242 0.998376 0.0566176 0.00625259
0.0124511 -0.300302 0.262971 0.997997 0.0128296 0.0619551
-0.000410314 -0.333203 0.322067 -0.998006 -0.000329753 0.0631261
0.0134905 0.37254 0.214452 0.998376 0.0491787 0.0287409
0.011439 0.299496 0.0720521 0.998384 0.000298061 -0.056832
-0.00500055 0.396925 0.221776 -0.998384 0.0539608 0.0178407
0.012636 0.365399 0.248156 0.998384 0.0331632 0.0461552
0.00861014 0.391104 0.31677 0.998384 0.0331648 0.0461537
-0.00504616 0.327673 0.277213 -0.998376 0.0115525 0.0557785
-0.00114258 0.196702 0.0555729 -0.998384 -0.0331645 -0.0461546
-0.00905063 0.331488 0.193051 -0.998384 0.0539608 0.0178407
-0.000923004 -0.277083 0.0241088 -0.999441 -0.00711996 0.032653
-0.000354231 -0.180783 0.0945537 0 0.868612 -0.495493
-0.0278241 0.0444954 0.183498 -1 0 0
0.0115739 0.199252 0.188555 0.998376 -0.0566799 0.00566019
0.00766354 0.0147321 0.210215 -0.49822 0.440457 0.746843
-0.0195178 0.170383 0.494754 -0.639118 -0.221697 0.736464
0.00939895 -0.441541 0.0711266 0.999442 0.0247146 0.0224888
0.0411227 -0.283214 0.243959 0.317067 -0.905529 0.281932
0.011885 0.221526 0.23837 0.998376 -0.0494798 0.0282207
0.0086164 0.273043 0.337197 0.998376 -0.0121367 0.0556539
0.0165868 -0.329302 0.200437 0.997997 -0.0134786 0.0618172
0.00995739 -0.338708 0.305235 0.998006 -0.000329728 0.0631266
0.010931 -0.215857 0.218487 0.998006 0.0599321 0.0198223
-0.00481733 -0.25466 0.211945 -0.997997 0.0546243 0.0319214
-0.000539573 -0.199478 0.0927535 -0.997997 0.0549568 -0.0313433
0.0136836 -0.397512 0.188177 0.998006 -0.0601382 0.0191925
0.0068414 0.0692535 0.188359 -0.550529 -0.428642 -0.716368
-0.00165974 0.250718 0.0342552 -0.998376 -0.022899 -0.0521565
0.0167386 0.291405 0.174601 0.998384 -0.0539596 -0.017845
0.0134897 0.238915 0.151551 0.998384 -0.0539596 -0.017845
0.0123416 -0.252036 0.109728 0.997997 0.0472356 -0.0420892
0.00955202 -0.475201 0.12102 0.999441 0.0317283 0.0104934
0.00868585 0.373825 0.33931 0.999548 -0.012089 -0.0275393
0.0147407 0.316683 0.130853 0.998376 0.0121365 -0.0556535
-0.00663863 0.37558 0.1698 -0.998376 0.05668 -0.00565702
-0.00509148 0.215784 0.146677 -0.998384 -0.0539599 -0.0178451
-0.00254783 -0.240926 0.366139 0.974016 -0.115695 -0.194698
-0.0020586 0.209878 0.297156 -0.998384 -0.0336458 0.045805
0.0108414 0.266078 0.0681067 0.998376 -0.0228989 -0.0521562
0.0102421 -0.21904 0.246644 0.997997 0.0546247 0.0319216
0.00772695 -0.250724 0.344397 0.493879 0.737997 0.459829
-0.0323184 0.0895229 0.152062 -0.995132 0.0187026 0.0967588
-0.00460394 -0.310188 0.254755 -0.997997 0.0128295 0.0619547
0.0118743 0.265336 0.0882043 0.998376 -0.0228989 -0.0521562
0.0167624 0.163834 0.50112 0.0122312 -0.28823 0.957483
-0.000972344 0.346939 0.358561 0 0.2028 0.97922
0.0146714 0.297057 0.186357 -0.00719152 -0.797756 0.602937
-0.00171344 0.136095 0.221979 -0.999548 0.0286485 -0.00914335
0.0121015 0.299297 0.279446 0.998384 -0.000295824 0.0568328
-0.0278241 0.132749 0.135368 -1 0 0
-0.0179367 0.250092 0.252736 0.99669 0.0229332 -0.0779968
0.00589261 -0.192974 0.331497 -0.549999 0.424533 0.719216
0.0131919 -0.244339 0.190771 0.998005 0.0599275 0.0198456
0.0168099 -0.349017 0.177564 0.998006 -0.0601382 0.0191925
0.0127797 0.352781 0.109027 0.998384 0.0336467 -0.0458038
0.00895855 0.426324 0.0860418 0.998376 0.0425285 -0.037894
0.00911876 0.0016699 0.220582 -0.974203 0.113952 0.194789
-0.00552011 0.230427 0.133925 -0.998376 -0.0491807 -0.0287394
-0.00148242 -0.333397 0.305116 -0.998006 -0.000329753 0.0631261
-0.00495932 -0.388488 0.218088 -0.997997 -0.0472364 0.0420911
-0.00845634 0.307695 0.143738 -0.998384 0.000298062 -0.0568323
0.00171562 0.174006 0.07238 0 0.739595 0.673053
0.00822514 0.467066 0.1392 0.998384 0.054143 -0.0172786
0.00799897 0.343865 0.0158402 0.998376 0.0121365 -0.0556535
0.00781367 -0.070563 0.271189 -0.95937 -0.145277 -0.241876
0.00963335 -0.202878 0.278108 0.999441 -0.0247164 -0.0224935
0.00821035 0.330909 0.0168067 0.998376 0.0121365 -0.0556535
-0.00477746 -0.396433 0.134085 -0.997997 -0.0546254 -0.0319184
0.0150891 -0.375745 0.160678 0.998005 -0.0599297 -0.0198372
0.0111811 -0.350259 0.283139 0.997997 -0.0134786 0.0618172
-0.0874089 0.108661 0.0581239 0 -1.56098e-05 -1
0.00876987 0.133615 0.20574 0.999548 0.0299216 -0.00299041
0.0090776 -0.245427 0.0476713 0.998006 0.0373693 -0.0508757
0.0088638 0.448837 0.118981 0.998384 0.0541429 -0.0172789
-0.00754424 0.273948 0.224651 -0.998384 -0.0336458 0.045805
-0.000429789 -0.183779 0.120925 -0.998006 0.0601367 -0.0191933
-0.0076456 0.322371 0.231784 -0.998376 0.0115525 0.0557785
-0.000940596 0.429322 0.0641932 -0.998376 0.0425287 -0.0378942
-0.0363804 0.301135 0.183954 -1 1.81524e-05 1.64789e-05
-0.00166094 0.174437 0.0956747 -0.998376 -0.0491807 -0.0287394
0.0468689 -0.32088 0.175281 0.653423 0.484238 -0.581852
0.0117057 0.288022 0.0782011 0.998376 -0.0115509 -0.0557778
0.0140822 -0.258603 0.155213 0.998006 0.0601372 -0.0191934
-0.00463674 0.241946 0.264517 -0.998384 -0.0336458 0.045805
-0.00463288 -0.28056 0.242955 -0.998006 0.0368381 0.0512636
-0.00389047 0.189052 0.196203 -0.998376 -0.0566802 0.00566022
0.0102608 -0.285094 0.0491756 0.997997 0.013479 -0.061815
0.00897421 0.456168 0.215361 0.998384 0.0539605 0.0178406
-0.000568588 -0.469728 0.141716 -0.997997 -0.0628851 -0.00694501
0.0035899 0.444332 0.299688 0 0.739597 0.67305
0.106633 -0.347469 0.431255 0.966735 -0.136485 -0.216323
0.0082586 0.397363 0.0432304 0.998384 0.0336467 -0.0458038
-0.0853749 -0.349765 0.491682 0.725454 -0.480214 0.493063
0.0173978 -0.331904 0.15808 0.998006 -0.0368357 -0.0512644
0.00242913 -0.0980405 0.289352 0.165914 -0.505827 -0.846529
0.010453 -0.202389 0.142639 0.998006 0.0601372 -0.0191934
0.0110779 -0.41414 0.0986639 0.997997 -0.0467931 -0.0425814
0.00879945 0.0985448 0.173007 -0.00252888 0.551316 0.834292
-0.00383533 0.258063 0.290534 -0.998376 -0.0234444 0.0519144
0.0147955 -0.381021 0.18067 0.997997 -0.0629548 0.00628696
-0.00134133 -0.282802 0.301536 -0.997997 0.0254318 0.0579326
0.00766 -0.211068 0.458994 0.54995 0.0638817 0.832751
0.00517994 -0.149397 0.442785 0.179021 -0.0752399 -0.980964
-0.00309176 0.174813 0.168624 -0.998376 -0.0566177 -0.00625402
-0.0239718 0.0583306 0.126049 1 0 0
-0.000955324 0.167582 0.280656 -0.998376 -0.04948 0.028221
0.0110861 0.306954 0.297323 0.998384 -0.000295824 0.0568328
0.012648 0.341525 0.100414 0.998376 0.0234408 -0.0519149
-0.00171333 0.419991 0.289068 -0.998376 0.0421301 0.0383369
0.0182436 0.10455 0.161934 -0.901569 0.102196 -0.420392
-0.00102317 0.0803661 0.172212 0.828182 0.284118 0.483106
-0.00330195 -0.359208 0.271043 -0.997997 -0.0260372 0.057663
-0.00403395 -0.395575 0.232075 -0.997997 -0.0472364 0.0420911
-0.0011307 0.464979 0.130724 -0.998384 0.0541433 -0.0172787
-0.0038554 -0.41935 0.186705 -0.997997 -0.0629543 0.00628691
-0.00178482 0.440546 0.103774 -0.998376 0.0494785 -0.0282225
-0.00263508 -0.438893 0.184731 -0.997997 -0.0629543 0.00628691
-0.0239718 0.063288 0.198942 1 0 0
0.0112088 0.195375 0.207284 0.998384 -0.0541436 0.0172814
0.0120989 0.209417 0.166052 0.998376 -0.0566174 -0.00625399
-0.00907521 0.315024 0.207649 -0.998376 0.0228957 0.0521583
0.00867162 0.190431 0.289207 0.998376 -0.0425287 0.0378941
0.011114 -0.2458 0.256363 0.997997 0.0467939 0.0425826
0.0103826 0.320841 0.309495 0.998376 0.0115525 0.0557782
-0.00143307 0.285395 0.0212594 -0.998376 -0.011551 -0.0557781
-0.00311929 0.438569 0.17981 -0.998376 0.05668 -0.00565702
0.00946918 0.292798 0.037412 0.998384 0.000298061 -0.056832
-0.00293097 -0.224781 0.124531 -0.997997 0.0549568 -0.0313433
-0.00317644 0.372478 0.294955 -0.998384 0.033165 0.046154
0.00929477 0.0910482 0.187444 0.832093 -0.552773 0.0454312
-0.000961087 0.385169 0.332173 -0.998376 0.0228957 0.0521583
0.0101813 -0.0228907 0.439253 0.980577 -0.015011 -0.195561
0.00963555 -0.260744 0.504784 0.956246 -0.21469 -0.198749
-0.00418235 -0.364531 0.0906994 -0.997997 -0.025433 -0.0579305
0.0120961 0.217017 0.140025 0.998376 -0.0491805 -0.028739
0.00995786 -0.447662 0.224773 0.998006 -0.0601382 0.0191925
-0.00268113 0.211466 0.284613 -0.998376 -0.0425291 0.0378942
0.00900484 0.424804 0.277775 0.998376 0.0421299 0.0383367
0.0096187 -0.236194 0.0372892 0.999442 -0.0197826 0.0269323
-0.00542473 -0.258362 0.19706 -0.998006 0.0599316 0.0198222
0.0395213 -0.271982 0.26743 0.73913 0.66836 -0.0835568
0.0161408 -0.299535 0.146507 0.997997 0.0472356 -0.0420892
-0.00172897 -0.228669 0.25865 -0.997997 0.0467935 0.0425823
0.0117922 -0.287769 0.0742322 0.997997 0.0260383 -0.0576613
-0.0016947 0.445955 0.0768782 -0.999547 -0.0224605 0.0200119
0.0101447 0.0982457 0.240684 0.980697 -0.194874 0.01602
-0.0107656 0.152158 0.496863 -0.639118 -0.221697 0.736464
-0.00028162 -0.25922 0.46114 -0.542599 -0.839932 0.0100688
-0.00650033 0.310231 0.253859 -0.998384 -0.000295826 0.0568331
0.0148883 -0.32783 0.227337 0.998006 -0.000329728 0.0631266
-0.00172232 0.210285 0.0583536 -0.998384 -0.0331645 -0.0461546
-0.000717623 -0.249355 0.296754 -0.998006 0.0368381 0.0512636
-0.00174307 0.468717 0.113078 -0.999548 -0.0286504 0.00914395
0.00953314 0.445625 0.147591 0.998384 0.054143 -0.0172786
0.0104916 -0.440683 0.125542 0.998006 -0.0599327 -0.0198219
0.011433 0.124558 0.414346 0.990312 -0.138135 0.0141646
0.00948444 -0.297816 0.310244 0.997997 0.0128296 0.0619551
0.0118035 -0.384246 0.257383 0.998006 -0.0373731 0.050876
0.00887592 0.0921312 0.165421 -0.760202 -0.53962 -0.361805
-0.00812965 -0.299479 0.185084 -0.997997 0.0546243 0.0319214
-0.000499577 0.247948 0.343301 0 0.411518 -0.911402
0.0104385 -0.369262 0.0543924 0.997997 -0.0254334 -0.0579308
0.00174552 -0.424038 0.0423488 0 -0.583548 -0.812078
-0.00651833 -0.28165 0.13959 -0.997997 0.0472352 -0.0420889
0.0224126 0.200373 0.323229 0.839064 0.373867 0.395214
-0.0177409 0.204419 0.171084 0.983724 0.0635228 0.168083
-0.00450075 -0.372374 0.242928 -0.998006 -0.0373728 0.0508756
-0.0241305 0.134262 0.197443 0 0.926942 0.375204
-0.00306724 -0.245026 0.0988616 -0.997997 0.0472352 -0.0420889
0.00872614 -0.224747 0.458948 0.830423 0.0426376 0.5555
0.00590562 0.109047 0.446625 0.554139 -0.832424 0
-0.00618632 0.316816 0.104091 -0.998376 0.0121366 -0.0556538
-0.00147301 -0.253349 0.284918 -0.998006 0.0368381 0.0512636
0.0126919 -0.402171 0.126087 0.997997 -0.0546258 -0.0319186
0.0197731 0.142469 0.491802 0.746725 -0.191726 0.636901
0.00955278 0.172956 0.130737 0.998384 -0.0539596 -0.017845
-0.00225155 -0.354768 0.289344 -0.997997 -0.0134787 0.0618167
0.0101168 0.423454 0.244522 0.998376 0.0491787 0.0287409
-0.00122009 0.229381 0.327876 -0.998376 -0.0234444 0.0519144
-0.020693 0.300411 0.174543 8.52821e-05 -0.324139 -0.946009
-0.000526605 -0.460402 0.11065 -0.997997 -0.0546254 -0.0319184
0.010031 -0.408297 0.274487 0.998006 -0.0373731 0.050876
0.00902623 -0.464804 0.219505 0.998006 -0.0601382 0.0191925
0.0122453 0.233545 0.243442 0.998376 -0.0425287 0.0378941
0.00880966 0.271672 0.353793 0.999548 0.00640625 -0.0293831
0.0141553 0.3544 0.142239 0.998376 0.0425285 -0.037894
-0.0031711 0.430101 0.13933 -0.998384 0.0541433 -0.0172787
0.0134398 0.357681 0.236043 0.998376 0.0421299 0.0383367
-0.00998119 0.181751 0.338465 0.978265 -0.104495 -0.179105
0.089352 -0.337348 0.500087 -0.579245 -0.751679 0.315364
0.0090345 -0.283316 0.0297644 0.997997 0.013479 -0.061815
-0.0018512 0.128986 0.207412 -0.999547 0.029934 -0.00298859
0.0917932 0.111628 0.269096 0 1 0.000124471
-0.00526817 -0.267479 0.218351 -0.997997 0.0467935 0.0425823
-0.0270622 0.0872298 0.212724 0 -0.994522 -0.104528
-0.00107307 -0.270761 0.326821 0 0.40197 0.915653
-0.00633467 -0.37588 0.147599 -0.997997 -0.0546254 -0.0319184
-0.00684155 -0.299324 0.130652 -0.998006 0.03738 -0.0508693
0.0081322 0.219243 0.325556 0.998384 -0.0336456 0.0458048
0.00905465 0.181386 0.0953424 0.998376 -0.0491805 -0.028739
0.0212583 0.127849 0.161747 -0.496108 0.0879408 -0.863796
0.0129251 0.381178 0.144 0.998376 0.0494783 -0.0282223
-0.0847541 -0.346861 0.429516 0.963092 -0.0500234 -0.264484
0.012064 0.0552984 0.474726 0.55558 -0.202003 0.806552
-0.00481264 0.364474 0.0978661 -0.998384 0.0336469 -0.0458041
-0.00451822 -0.259189 0.117372 -0.997997 0.0472352 -0.0420889
0.00119756 0.199254 0.328123 0 -0.591991 0.805945
-0.000602653 -0.278497 0.312371 -0.997997 0.0254318 0.0579326
0.00773657 0.0371654 0.439893 0.554062 0.0637096 0.830034
-0.0027041 0.197655 0.0945732 -0.998376 -0.042131 -0.0383363
0.0995893 0.0732082 0.269565 0 -1 -7.43017e-05
-0.00164357 0.399231 0.0361705 -0.999548 -0.0178059 0.0242403
0.0095754 -0.224227 0.0476869 0.999441 -0.0197835 0.026933
-0.00235722 -0.0822393 0.272797 0.974016 -0.115695 -0.194698
-0.00283718 0.416521 0.0997944 -0.998376 0.0425287 -0.0378942
0.015906 -0.352197 0.200431 0.997996 -0.0472368 0.0420914
0.0108024 0.427499 0.185434 0.998376 0.0566176 0.00625259
-0.00392448 0.193587 0.214589 -0.998384 -0.0541439 0.0172815
-0.000943826 0.213841 0.338838 0 -0.591991 0.805945
-0.00253019 -0.256546 0.425953 -0.979326 -0.202276 0.0024221
-0.000937235 0.459105 0.257115 -0.998376 0.0491789 0.0287411
-0.00220895 -0.109802 0.289958 0.980232 -0.101034 -0.170108
0.0152037 -0.274157 0.169013 0.997997 0.0629551 -0.00628276
-0.00251123 0.106446 0.369733 -0.831424 -0.553771 0.0455204
0.00875936 0.251824 0.0155722 0.999548 0.012089 0.0275385
-0.00390436 0.207002 0.245443 -0.998376 -0.04948 0.028221
0.000303822 -0.486768 0.192399 0 -0.995056 0.0993158
-0.00292473 -0.30029 0.279755 -0.997997 0.0128295 0.0619547
0.0144081 -0.316736 0.23485 0.997997 0.0128296 0.0619551
0.0104056 -0.202157 0.203518 0.998006 0.0599321 0.0198223
-0.00253291 -0.282737 0.28098 -0.997997 0.0254318 0.0579326
0.0129461 0.0869826 0.481395 0.163511 -0.168799 0.971993
0.00957864 0.449316 0.183293 0.998376 0.0566176 0.00625259
0.0142304 0.255614 0.14812 0.998376 -0.0491805 -0.028739
-0.00122696 -0.197085 0.120685 -0.998006 0.0601367 -0.0191933
0.00817994 0.418753 0.305906 0.998376 0.0421299 0.0383367
0.0299459 0.140465 0.481469 0.625244 -0.260334 0.735728
-0.000919953 -0.465014 0.237989 -0.999442 0.0290287 -0.0165572
0.00916853 0.446158 0.23476 0.998384 0.0539605 0.0178406
0.0159422 0.0688124 0.473971 0.746676 -0.19399 0.636273
0.00334976 -0.261623 0.3876 -0.196216 -0.980375 0.0190843
0.0315814 -0.304247 0.509644 0.02432 0.974529 0.22294
0.0137152 0.271675 0.120925 0.998384 -0.0331643 -0.0461544
0.0089625 0.428098 0.0467906 0.999548 -0.0178064 0.0242404
0.00440726 -0.26281 0.334726 4.38537e-06 0.00524936 -0.999986
0.00998595 -0.416973 0.076185 0.997997 -0.0467931 -0.0425814
-0.00223767 -0.196726 0.337537 0.974202 0.113954 0.194793
-0.0505672 -0.309522 0.513703 -0.225317 0.761765 0.607409
-0.00203442 0.400823 0.299291 -0.998384 0.033165 0.046154
0.0934066 -0.367881 0.455709 -0.731987 -0.681167 -0.0143738
-0.00187712 0.432409 0.270146 -0.998376 0.0491789 0.0287411
-0.00619247 0.292007 0.258149 -0.998376 -0.0121367 0.0556542
0.0113995 -0.215466 0.190587 0.997997 0.062886 0.00693991
0.00875664 0.355717 0.0144082 0.999548 -0.00640631 0.0293836
-0.00194639 -0.4502 0.162888 -0.997997 -0.0628851 -0.00694501
-0.0128433 0.210718 0.304996 0.982462 -0.0891333 -0.163781
0.0100063 0.103634 0.288965 0.980669 0.195014 -0.0160315
0.00681403 0.0510091 0.188185 -0.549999 0.424533 0.719216
-0.00191354 0.448008 0.122779 -0.998384 0.0541433 -0.0172787
0.0138906 -0.281693 0.228713 0.998006 0.0368384 0.051264
0.00922646 0.157367 0.18317 0.998376 -0.0566799 0.00566019
-0.00295847 0.264791 0.310229 -0.998376 -0.0121367 0.0556542
0.011955 -0.418337 0.212809 0.998006 -0.060135 0.0191995
-0.00689749 0.240573 0.18173 -0.998376 -0.0566802 0.00566022
0.011565 0.357 0.0865746 0.998376 0.0234408 -0.0519149
0.000561995 0.0600681 0.182584 0.549973 0.42423 0.719416
-0.00167244 0.417583 0.0484605 -0.999548 -0.0178059 0.0242403
0.0151619 -0.372387 0.190031 0.998006 -0.0601382 0.0191925
-0.00247468 -0.335466 0.0546075 -0.998006 0.000331107 -0.0631239
0.0151643 -0.369906 0.148173 0.997997 -0.0546258 -0.0319186
0.00846624 0.33986 0.339857 0.998376 0.0115525 0.0557782
0.0104974 -0.42548 0.097521 0.997997 -0.0467931 -0.0425814
0.017311 -0.316917 0.15667 0.998006 0.0373802 -0.0508696
-0.00488214 -0.299985 0.096068 -0.997997 0.0134789 -0.0618145
-0.00513229 -0.298212 0.242995 -0.997997 0.0254318 0.0579326
0.00914 0.433156 0.101226 0.998376 0.0494783 -0.0282223
-0.00138966 0.183192 0.286906 -0.998376 -0.0425291 0.0378942
-0.00409233 -0.403699 0.219069 -0.997997 -0.0549573 0.0313457
-0.024261 0.0916454 0.112789 0 0.573357 -0.819305
-0.00666652 0.355084 0.131733 -0.998376 0.0425287 -0.0378942
0.0113265 -0.386713 0.0792667 0.998006 -0.0368357 -0.0512644
-0.0073435 0.359746 0.159956 -0.998384 0.0541432 -0.0172789
0.0109114 -0.42499 0.109471 0.997997 -0.0546258 -0.0319186
0.0110213 -0.346001 0.0575228 0.997997 -0.0128302 -0.0619531
0.00654896 -0.30407 0.00936149 0 0.213043 -0.977043
-0.00151345 0.262282 0.335604 -0.998376 -0.0121367 0.0556542
0.0137014 -0.393801 0.198877 0.998006 -0.0601382 0.0191925
-0.000413559 -0.440704 0.0767597 -0.997997 -0.0467928 -0.0425811
0.025114 0.213557 0.304366 0.995109 -0.0424561 0.0891976
0.00861232 -0.206071 0.0595774 0 0.746614 -0.665257
0.00946023 -0.22338 0.0735661 0.997997 0.0472356 -0.0420892
0.0124267 0.336078 0.269411 0.998376 0.0228955 0.052158
-0.00190445 0.260569 0.356713 -0.999547 0.00640917 -0.0293892
-0.0017491 0.322324 0.0259877 -0.998384 0.000298062 -0.0568323
-0.00189407 0.376693 0.0153011 -0.999548 -0.0123783 0.0274124
-0.000928608 -0.379094 0.317393 -0.999441 0.0137523 -0.0304581
0.00897248 0.445274 0.0653473 0.999547 -0.0224597 0.0200113
-0.0900874 -0.323207 0.421158 0.385308 0 -0.922788
0.0301015 0.249777 0.2498 0.388584 -0.747401 -0.538882
-0.0983349 -0.355788 0.443544 -0.969902 0.215179 0.113964
0.00558444 0.0971649 0.15517 -0.00256609 0.559682 -0.828704
-0.00946922 0.293276 0.166295 -0.998384 -0.0331663 -0.046153
0.0145303 -0.305091 0.1138 0.997997 0.0260383 -0.0576613
-0.000946557 -0.377113 0.0253974 -0.999442 0.0134325 0.0305985
-0.00905708 -0.310926 0.171915 -0.997997 0.0629547 -0.00628271
0.000574129 -0.481265 0.125444 0 -0.94942 -0.314008
0.0121589 -0.28912 0.264114 0.997997 0.025432 0.0579331
-0.05484 0.0732728 0.0661449 0 -3.12185e-05 1
-0.000401838 -0.344666 0.32141 -0.997997 -0.0134787 0.0618167
-0.00189612 0.27892 0.00288698 -0.999548 0.00609938 0.0294487
-0.00239871 0.379413 0.0562239 -0.998384 0.0336378 -0.0458091
-0.00283353 -0.0775481 0.445247 -0.980544 0.0150246 0.195724
0.00898466 0.481415 0.230214 0.999548 -0.0285589 -0.00944474
0.010563 0.403156 0.102313 0.998376 0.0425285 -0.037894
-0.00396686 0.277606 0.294934 -0.998376 -0.0121367 0.0556542
0.00926943 0.2394 0.313392 0.998376 -0.0234443 0.0519141
0.0139173 0.307932 0.115633 0.998384 0.000298061 -0.056832
-0.0049148 0.233683 0.250698 -0.998376 -0.0425291 0.0378942
0.00959111 -0.252861 0.028753 0.999442 -0.0137514 0.0304561
0.0100152 0.439172 0.156716 0.998376 0.0566797 -0.00565699
-0.0220384 0.102881 0.164582 -0.00452025 0.981779 -0.189975
0.00953243 -0.441005 0.0937613 0.997997 -0.0546258 -0.0319186
-0.00112782 -0.41509 0.305163 -0.999442 0.0197839 -0.0269315
-0.0194131 0.14782 0.487122 -0.745708 -0.222254 0.62811
0.00882879 -0.17617 0.204187 0.997997 0.062886 0.00693991
0.0129777 -0.360446 0.0942646 0.997997 -0.0254334 -0.0579308
0.0145306 -0.265245 0.186575 0.998005 0.0599275 0.0198456
-0.00254056 -0.391526 0.267311 -0.998006 -0.0373728 0.0508756
-0.000778528 -0.275986 0.0357733 -0.997997 0.026038 -0.0576609
-0.000831073 -0.234788 0.284078 -0.998006 0.0368381 0.0512636
0.0124981 -0.397972 0.114183 0.997997 -0.0467931 -0.0425814
0.0115289 0.414881 0.18049 0.998376 0.0566797 -0.00565699
-0.00137051 0.14687 0.146881 -0.998384 -0.0539587 -0.0178513
0.00987815 -0.205759 0.108941 0.997997 0.0549572 -0.0313435
0.00825546 0.194155 0.304352 0.998376 -0.0425287 0.0378941
0.0150393 0.271742 0.150509 0.998376 -0.0421306 -0.0383362
-0.00201909 -0.410495 0.0811926 -0.997997 -0.0467928 -0.0425811
-0.00106085 0.148573 0.124406 -0.998384 -0.0539599 -0.0178451
-0.0872779 -0.368904 0.456857 0.731971 -0.681184 -0.0143741
0.014695 0.286004 0.133124 0.998376 -0.0228989 -0.0521562
0.0127163 0.279866 0.0979792 0.998376 -0.0115509 -0.0557778
0.0122624 -0.343177 0.0769308 0.997997 -0.0128302 -0.0619531
0.0125397 0.26874 0.0994459 0.998376 -0.0228989 -0.0521562
0.00985113 0.185276 0.246767 0.998376 -0.0494798 0.0282207
0.00986772 0.0983153 0.258469 0.980624 -0.195241 0.0160464
-0.00717577 -0.341021 0.21221 -0.997997 -0.0260372 0.057663
-0.00216781 0.112368 0.482966 -0.980565 -0.196192 0
0.0112819 0.238178 0.0923597 0.998384 -0.0331643 -0.0461544
0.00857548 0.31036 0.341445 0.998384 -0.000295824 0.0568328
0.0334433 0.0882568 0.204442 0 -1 6.29607e-06
0.00878063 0.461944 0.261585 0.999547 -0.025971 -0.0151754
-0.00106301 -0.30898 0.515471 0 -0.486497 -0.873682
-0.0882912 -0.277183 0.421908 0.385308 0 -0.922788
0.0094848 -0.240262 0.304741 0.999441 -0.0195017 -0.0271373
-0.00123164 0.137748 0.113445 0 -0.949446 -0.313931
0.00802521 0.348172 0.00494627 0 0.213019 -0.977048
0.076543 0.0857488 0.27115 0 0 1
-0.004385 0.339066 0.286688 -0.998376 0.0115525 0.0557785
0.00954258 -0.166239 0.161033 0.999441 -0.0332548 0.00331752
0.0133857 -0.301106 0.0961343 0.997997 0.013479 -0.061815
0.0132634 0.299291 0.259034 0.998384 -0.000295824 0.0568328
-0.0915374 0.0999204 0.0661457 0 -3.12185e-05 1
-0.00124857 0.295082 0.346038 -0.998384 -0.000295826 0.0568331
0.00859404 0.328863 0.339847 0.998376 0.0115525 0.0557782
0.0015401 -0.174672 0.320598 0.193272 0.498871 0.844851
0.0019435 -0.227385 0.351651 0.166547 0.501501 0.848975
0.000757797 0.0913591 0.424629 -0.554343 -0.0636953 -0.829848
-0.00417326 0.352045 0.0779753 -0.998376 0.023441 -0.0519152
0.0100305 -0.317471 0.304191 0.998006 -0.000329728 0.0631266
-0.00370177 0.274552 0.0641125 -0.998376 -0.011551 -0.0557781
-0.00464357 0.406599 0.212495 -0.998384 0.0539608 0.0178407
0.0109864 0.317081 0.0641934 0.998384 0.000298061 -0.056832
-0.000476051 0.0975958 0.164819 -0.5553 0.828854 -0.0681421
-0.00211979 0.383731 0.309726 -0.998384 0.033165 0.046154
0.0114247 0.40313 0.129408 0.998376 0.0494783 -0.0282223
0.0548979 0.103505 0.27115 0 0 1
0.00886661 -0.217524 0.277963 0.997997 0.0467939 0.0425826
0.00807829 0.145134 0.230733 0.998384 -0.0541436 0.0172814
0.00822618 0.190179 0.0627129 0.998376 -0.0421306 -0.0383362
-0.000956237 -0.218037 0.286253 -0.999441 -0.0247166 -0.0224937
-0.00727355 0.29349 0.124122 -0.998376 -0.011551 -0.0557781
0.000975947 -0.321004 0.0178119 0 -0.00526385 0.999986
0.0107515 -0.301233 0.290543 0.997997 0.0128296 0.0619551
-0.00211451 -0.209568 0.216197 -0.998006 0.0599316 0.0198222
0.00888709 0.403769 0.0616351 0.998384 0.0336467 -0.0458038
0.0158231 0.280929 0.202358 0.998376 -0.0425287 0.0378941
0.0275577 0.0948781 0.194324 -0.995163 0.0186458 0.0964506
0.00851057 -0.160887 0.177534 0 0.993959 0.109748
0.00871779 0.478091 0.164316 0.999548 -0.0299282 0.0029878
-0.00206091 -0.13965 0.303384 0.828182 0.284118 0.483106
-0.104498 0.0871098 0.0661453 0 -3.12185e-05 1
0.015898 0.310766 0.150444 0.998384 0.000298061 -0.056832
0.0129694 0.25735 0.248113 0.998384 -0.0336456 0.0458048
0.0966727 -0.335027 0.488354 0.000709923 0.500198 -0.865911
-0.00540397 -0.394811 0.158213 -0.997997 -0.0628851 -0.00694501
0.00719582 -0.38954 0.321993 0 -0.411532 0.911395
0.00697283 -0.24973 0.371003 0.554739 0.831876 -0.0157081
-0.0251938 0.14348 0.172934 0 0.999405 -0.0344971
0.00912354 0.369021 0.0450504 0.998376 0.0234408 -0.0519149
0.000371678 -0.185635 0.239988 0 -0.863407 -0.504507
0.012647 0.378876 0.232908 0.998376 0.0491787 0.0287409
-0.00703024 -0.296038 0.207406 -0.998006 0.0368384 0.0512633
0.0943996 -0.364226 0.478467 -0.372044 -0.849302 0.374525
-0.019081 0.310149 0.183597 0.0117152 0.996882 0.078027
0.00847593 0.229282 0.0282421 0 0.401928 0.915671
0.0110053 -0.270983 0.276025 0.997997 0.025432 0.0579331
0.00969538 -0.40542 0.0292238 0.999442 0.013432 0.0305957
-0.0288891 -0.305109 0.505563 -0.0167413 0.735849 -0.676938
-0.0134088 -0.323753 0.171446 0.00313941 0.996845 0.0793069
0.0115651 0.337643 0.0784568 0.998376 0.0121365 -0.0556535
0.0121683 -0.41806 0.141561 0.998006 -0.0599327 -0.0198219
0.00876556 0.248886 0.327366 0.998376 -0.0234443 0.0519141
0.0121301 0.213878 0.151195 0.998384 -0.0539596 -0.017845
0.00909253 -0.188775 0.229166 0.998006 0.0599321 0.0198223
-0.00212589 0.348284 0.325214 -0.998376 0.0115525 0.0557785
-0.00222813 0.172065 0.243488 -0.998376 -0.04948 0.028221
0.00990409 -0.243606 0.278953 0.998006 0.0368384 0.051264
-0.0022552 0.307038 0.328417 -0.998384 -0.000295826 0.0568331
-0.0926156 -0.341076 0.423345 -0.0001773 -0.197929 -0.980216
0.00210443 0.101373 0.1962 -0.195987 0.977309 -0.0803479
-0.00119129 -0.209609 0.449032 -0.554343 -0.0636953 -0.829848
0.0111205 -0.256709 0.264687 0.998006 0.0368384 0.051264
0.00671278 -0.171713 0.229939 0 0.949446 0.313929
-0.00239525 -0.264694 0.275116 -0.998006 0.0368381 0.0512636
0.0117845 -0.335623 0.0676688 0.997997 -0.0128302 -0.0619531
-0.0137448 0.121201 0.484432 -0.745708 -0.222254 0.62811
0.0320676 0.0882559 0.237131 0.000293507 -1 -4.16697e-05
-0.000418941 -0.416385 0.0534113 -0.998006 -0.0368354 -0.051264
0.00888409 0.485006 0.177951 0.999548 -0.0299298 0.00298752
0.00969379 -0.369332 0.329381 0.999441 0.00711915 -0.0326515
0.0102205 0.396535 0.277182 0.998376 0.0421299 0.0383367
-0.00875836 0.306531 0.214173 -0.998384 -0.000295826 0.0568331
0.00955372 0.422958 0.0979831 0.998376 0.0494783 -0.0282223
0.00902026 -0.190383 0.108585 0.997997 0.0549572 -0.0313435
0.0144679 -0.376605 0.206357 0.997997 -0.0549577 0.031346
0.00996434 -0.198206 0.213785 0.998006 0.0599321 0.0198223
0.0102394 0.423818 0.123747 0.998376 0.0494783 -0.0282223
0.0108446 -0.431495 0.118514 0.997997 -0.0546258 -0.0319186
-0.00420658 -0.237188 0.194374 -0.998006 0.0599316 0.0198222
-0.00778551 0.261962 0.2045 -0.998376 -0.04948 0.028221
-0.00365037 0.427059 0.158215 -0.998376 0.05668 -0.00565702
0.00903512 -0.47016 0.202258 0.998006 -0.0601382 0.0191925
-0.00299191 -0.328536 0.281277 -0.998006 -0.000329753 0.0631261
-0.00415718 0.211835 0.118394 -0.998376 -0.0491807 -0.0287394
0.0151963 -0.28871 0.207842 0.997997 0.0467939 0.0425826
-0.00427553 -0.394524 0.116527 -0.997997 -0.0467928 -0.0425811
-0.00850723 0.324024 0.148684 -0.998384 0.0336378 -0.0458091
-0.000925015 -0.247563 0.307245 -0.999441 -0.0134318 -0.0306013
0.00771976 -0.48403 0.133803 0 -0.94942 -0.314008
0.00163471 0.202518 0.318003 0 0.592041 -0.805908
0.101867 0.0870488 0.263128 0 2.55978e-05 -1
-0.00562876 0.253757 0.111618 -0.998384 -0.0331645 -0.0461546
-0.00201847 0.189123 0.276996 -0.998376 -0.0425291 0.0378942
-0.0972928 0.0727972 0.0582419 0 -1 -0.000162567
0.0125604 -0.255069 0.232651 0.997997 0.0467939 0.0425826
-0.000752013 -0.179654 0.168049 -0.997997 0.0629547 -0.00628271
-0.0720822 -0.324973 0.508493 0.196625 -0.779483 0.594764
0.0101976 -0.316888 0.0426685 0.998006 0.000331107 -0.0631244
0.013763 -0.397227 0.162087 0.997997 -0.0628855 -0.00694506
-0.000928998 0.111629 0.339209 -0.5553 0.828854 -0.0681421
0.00143683 -0.199304 0.08082 0 -0.746639 0.665229
0.00896034 0.382399 0.345509 0.999548 -0.012089 -0.0275392
0.0159655 0.299378 0.211104 0.998376 -0.0121367 0.0556539
0.0109458 -0.43817 0.140816 0.998006 -0.0599327 -0.0198219
-0.000889284 -0.372263 0.306905 -0.997997 -0.0260372 0.057663
-0.00120822 0.472144 0.178932 -0.998376 0.05668 -0.00565702
0.00900304 -0.25037 0.301354 0.998006 0.0368384 0.051264
-0.00299728 -0.359458 0.0680563 -0.997997 -0.025433 -0.0579305
0.00881062 0.372001 0.018495 0.999548 -0.0123765 0.0274098
-0.00329681 -0.426242 0.197081 -0.998006 -0.0601378 0.0191921
-0.0032939 -0.271169 0.262274 -0.998006 0.0368381 0.0512636
-0.0017624 0.451269 0.23862 -0.998384 0.0539608 0.0178407
0.0155735 0.271592 0.169323 0.998384 -0.0539596 -0.017845
-0.0994504 -0.363929 0.456358 -0.967692 0.248741 0.0412301
-0.00177377 0.480895 0.152859 -0.999548 -0.0299282 0.0029878
-0.00182136 0.128743 0.167716 -0.999547 0.0299011 0.0033029
0.00980496 -0.287308 0.507438 0.979298 0.00153466 -0.202419
-0.00704578 0.341701 0.23337 -0.998384 0.033165 0.046154
-0.00541022 0.29967 0.272954 -0.998384 -0.000295826 0.0568331
0.000852099 0.448351 0.278412 0 -0.863407 -0.504507
-0.00522031 -0.393778 0.198783 -0.998006 -0.0601378 0.0191921
-0.00135793 -0.456136 0.204235 -0.998006 -0.0601378 0.0191921
-0.00365978 0.384313 0.0873105 -0.998384 0.0336469 -0.0458041
0.0385861 0.3011 0.180126 1 0 0
0.0150215 -0.360903 0.211405 0.998006 -0.0373731 0.050876
0.0716004 -0.318812 0.500079 -0.359706 -0.282231 -0.889358
-0.00208841 -0.443831 0.139145 -0.998006 -0.0599323 -0.0198216
0.101863 -0.28663 0.421525 0.385693 0 -0.922627
-0.0150573 0.226791 0.28268 0.99669 0.0229332 -0.0779968
0.011203 -0.228357 0.111503 0.997997 0.0549572 -0.0313435
-0.00281755 0.295351 0.0446159 -0.998384 0.000298062 -0.0568323
0.0104697 0.294777 0.308088 0.998384 -0.000295824 0.0568328
0.0134355 0.245275 0.225159 0.998376 -0.0494798 0.0282207
-0.0832053 -0.326641 0.493196 -0.000564764 0.500509 -0.865731
0.000947859 -0.181261 0.229896 0 -0.949427 -0.313988
