0.00335221 -0.295574 0.200046 0.992615 -0.104599 0.0614321
0.0104169 -0.338006 0.0169361 0.755617 -0.135788 -0.640784
-0.0401956 0.289762 0.176327 1 0 0
0.00441187 0.473498 0.261172 0.329224 0.86612 0.376096
-0.0096257 -0.300598 0.218653 0 0.153243 0.988189
0.00897141 -0.38614 0.0261156 0.732525 -0.318982 -0.60138
0.00250411 0.0585307 0.331407 0.707124 0.685873 0.171911
0.010079 0.34493 0.0101318 0.797037 0.151034 -0.58474
-0.00259929 0.127178 0.370163 0 0.890924 0.454153
-0.00754881 0.16492 0.0637418 -0.797001 -0.452443 -0.400107
0.10083 -0.208904 0.53436 -0.984762 -0.173907 -4.15242e-05
-0.00654379 0.180288 0.0660487 -0.66032 0.521807 0.540088
-0.00665483 -0.319665 0.021536 -0.9096 0.0345113 0.414049
0.0117799 0.277944 0.0114101 1 -0.000137948 -0.000979337
-0.00438154 -0.113333 0.190945 -0.418887 0.907804 0.0206428
0.00208153 0.291557 0.340584 0.934835 -0.355082 -0.000689787
-0.00469274 -0.251008 0.436942 -0.522995 -0.848742 0.0781918
0.00210715 -0.310282 0.348236 0.779571 0.0266197 -0.625747
-0.00729399 -0.472013 0.195579 -0.730838 0.682458 -0.011254
0.000587123 -0.145123 0.124495 -0.0488652 -0.916359 0.397365
0.00219787 0.235963 0.343885 0.145364 0.394246 -0.907436
-0.00132628 0.269348 0.180893 -0.992647 -0.0491972 0.110597
-0.00513483 0.210718 0.0366787 0.717479 -0.358411 -0.597299
-0.0399123 0.209187 0.469117 -0.461902 0.548744 -0.696797
1.10151e-05 -0.28549 0.30833 -0.46422 0.881243 -0.0889408
0.0108924 -0.245098 0.434988 0.976801 -0.160721 -0.141521
0.00903099 0.119852 0.408409 -0.0818044 -0.334504 -0.938837
-0.0375063 0.0963858 0.252502 -1 0 0
-0.00493821 0.213438 0.332466 -0.871018 0.247353 -0.424434
-0.0185381 -0.200842 0.393503 0.831511 -0.390345 -0.395248
0.00177246 0.223531 0.0357337 -0.712293 -0.322621 -0.62334
0.00781001 0.281274 0.00329474 0.584313 -0.0815393 -0.807422
0.00281868 0.104057 0.344694 0.41239 -0.873747 0.257876
0.033395 -0.211753 0.537234 -0.00838837 0.194405 0.980885
0.0112722 -0.156131 0.293565 0.999999 0.00080997 0.000568366
0.00193596 -0.399746 0.201808 0.823298 0.0525977 0.565167
0.00301303 0.0730415 0.256784 -0.000613721 -0.128295 -0.991736
-0.00217205 -0.324719 0.030581 -0.779601 0.0911068 0.619614
-0.00421498 0.163617 0.0878843 -0.502998 0.690423 0.519913
-0.0350045 0.0666001 0.200885 -1 0 0
0.00983424 0.4113 0.0533365 0.755458 0.430066 -0.494293
-0.00683524 0.155204 0.448531 0.00751969 -0.185591 -0.982598
-0.133403 -0.229652 0.531767 -0.00289971 -0.0154227 0.999877
-0.00869542 0.194196 0.0403653 -0.904918 -0.244198 -0.348555
0.00118664 0.131442 0.394949 -0.185331 -0.0286578 0.982258
0.031475 -0.285044 0.325966 -0.30974 -0.937171 0.160536
0.00642495 0.0991999 0.36291 0 -0.987697 -0.15638
-0.00325413 0.154565 0.0906419 0.717527 -0.578573 -0.387826
-0.0590757 0.2968 0.192095 -0.146696 -0.291388 0.94529
0.00294251 -0.292961 0.1894 0.823022 0.124734 -0.554145
0.0267157 0.180858 0.489771 0.100635 -0.0225109 0.994669
0.0288983 -0.299309 0.221257 -0.91352 -0.402089 0.0616986
-0.00823429 0.4099 0.0536275 -0.854918 -0.32824 0.401714
0.00275804 0.139709 0.164423 0.779603 0.619176 0.0940242
0.114861 -0.211467 0.522861 0.128822 -0.671278 -0.729926
-0.00275798 0.198623 0.0307864 -0.330145 -0.510847 -0.79375
-0.00588384 0.193223 0.331575 0.529086 -0.515808 0.673803
-0.00454842 0.125312 0.40221 0.357188 0.231538 0.904879
-0.00906879 -0.155597 0.286218 -0.905286 -0.357023 -0.230199
0.000183347 0.425282 0.103273 -0.992691 -0.0566552 -0.106561
-0.138997 -0.210409 0.531937 0.360776 -0.923657 0.129224
0.0102636 0.412814 0.0584593 0.969509 -0.160905 0.184831
0.0704051 0.108462 0.299601 0 0.997567 -0.0697171
-0.00791958 -0.135028 0.108303 -0.797348 0.543858 -0.261639
0.0016046 0.278979 0.233206 0.238837 -0.916065 -0.322153
-0.00864544 0.118247 0.183472 -0.90514 -0.425052 -0.00722857
-1.5978e-05 0.237282 0.18542 -0.46395 0.0201953 -0.885631
-0.0156525 -0.274559 0.180059 -0.601396 0.789516 -0.122422
0.0116367 0.421134 0.0593387 0.975623 -0.151674 0.158601
-0.00126682 -0.3092 0.195622 -0.663294 0.299783 0.68569
-0.0092772 -0.326373 0.00931063 -0.904961 -0.0569334 -0.421668
0.00663117 0.467633 0.271613 0.503847 0.778132 0.375032
0.0257672 0.119934 0.463983 0.602901 -0.0472543 -0.796416
0.0114223 -0.232494 0.468839 0.99371 0.106681 -0.0340583
0.000721379 0.3914 0.353155 -0.04888 0.472905 0.879757
-0.0452633 -0.300051 0.187841 -1 0 0
0.00338398 0.374726 0.0357194 -0.712283 0.314672 -0.627403
-0.00724549 0.463184 0.148966 -0.909616 -0.404849 0.0932498
0.000802546 -0.457722 0.253058 -0.712063 -0.647509 0.271477
-0.101513 0.061511 0.147191 0 0.951014 -0.309148
0.00215877 -0.26968 0.197617 0.663409 -0.136194 0.735758
-0.0571672 0.0427705 0.149671 0 0.629207 -0.777238
-0.00752844 0.145172 0.110845 -0.909598 0.371386 0.186287
-0.112919 -0.214659 0.528657 0.0149932 -0.992423 -0.121952
-0.0098327 -0.314666 0.164321 0 -0.519701 -0.854348
-0.00460808 -0.149078 0.10195 0.717557 0.603404 -0.347874
0.00436134 0.267643 0.00341394 0.330062 -0.168268 -0.928841
0.0167808 0.167307 0.489662 0 -0.0529225 0.998599
-0.00973448 -0.301566 0.203817 0.00857344 -0.0425536 0.999057
0.00509573 -0.153264 0.117989 0.871024 -0.440143 0.218153
-0.0281827 -0.110495 0.322925 -0.831492 0.328961 0.447666
-0.0240048 0.119596 0.215639 -0.195238 0.251891 0.947857
0.00605342 0.321415 0.194505 0.992075 0.122249 0.0290389
0.000529492 0.233713 0.333603 -0.779621 0.245063 -0.576312
0.00560117 -0.218893 0.0465173 0.871005 -0.25474 0.42007
0.00351429 0.0769103 0.256971 0.14925 0.0931298 -0.984404
-0.0401956 0.297582 0.177497 1 0 0
-0.00775024 -0.123232 0.186577 0.529267 0.848281 -0.017183
0.00330943 0.283312 0.176551 0.822773 0.340927 -0.454767
-0.000251635 0.0675225 0.28375 -0.48573 -0.501141 0.716187
-0.00562485 0.171758 0.312759 0.52911 -0.596208 0.603804
0.00863153 -0.152246 0.104981 0.909607 -0.359943 0.207501
0.00378157 -0.32225 0.0296562 0.87101 0.0714687 0.48604
-0.00525889 0.0387897 0.381695 -0.96594 -0.251002 -0.0629216
0.0056371 -0.152943 0.262475 0.871009 -0.435232 -0.227851
0.000179313 -0.456681 0.211221 -0.779788 0.61938 -0.0910998
-0.00243213 -0.1473 0.239393 -0.871006 -0.470226 -0.142257
0.000128365 -0.24879 0.451403 -0.111958 -0.946621 0.30228
0.00273598 0.414751 0.297677 0.779638 -0.472266 -0.411253
0.00966191 0.443962 0.0987557 0.90953 -0.356363 0.213918
-0.0348088 0.319396 0.172641 1 0 0
0.00939931 0.132377 0.237215 0.909597 0.398247 -0.118458
-0.0185567 -0.218373 0.41993 0.831762 0.406121 0.378466
-0.00803363 -0.131403 0.157691 -0.90958 -0.406503 0.0861364
-0.000357109 -0.172469 0.0767899 0.712373 0.531551 -0.458234
0.0266887 -0.215486 0.405542 0.555482 -0.608425 -0.566797
-0.00056103 -0.354684 0.216179 -0.464265 0.35692 0.810596
-0.00212118 -0.296058 0.198509 -0.992647 0.114662 -0.0387964
-0.0246502 0.0754336 0.237021 0 -0.669122 0.743153
-0.00698944 0.109734 0.483094 0 -0.166677 0.986012
-0.0399905 0.0749903 0.198895 -1 0 0
-0.0330362 0.121034 0.222184 1 0 0
0.00719824 -0.114328 0.188479 0.584199 0.811502 -0.0132305
-0.0346986 0.245866 0.192656 0.189631 0.318663 0.928705
0.00408123 0.13569 0.487035 0 -0.128939 0.991652
0.00236278 0.293892 0.228945 0.465042 -0.885059 -0.0201748
-0.00192941 -0.176825 0.0871606 -0.779602 -0.474356 0.408911
0.00528063 0.123284 0.24967 0.418012 -0.857536 0.29983
0.00972756 -0.128512 0.211561 0.969489 -0.243773 -0.0257923
-0.00886749 -0.414825 0.0573447 -0.969499 0.160069 0.185606
0.00197707 0.198954 0.0297668 0.0487674 -0.540602 -0.839864
0.0206638 -0.211112 0.402129 -0.555473 -0.596444 -0.5794
0.0105116 0.25302 0.359333 0.969495 0.0668872 -0.235809
0.00692812 -0.124543 0.194408 -0.717443 0.695988 0.0296061
0.019602 0.198329 0.196027 -0.831506 0.0862401 0.54878
0.00142085 0.354985 0.272341 0.238043 0.813063 -0.531286
-0.00439415 0.119457 0.142056 -0.503537 -0.836536 -0.216006
-0.000307835 -0.15669 0.281052 0.712306 0.600119 0.363974
-0.012533 0.0591109 0.295018 -0.0982564 0.324723 -0.940692
-0.0399905 0.100481 0.240157 -1 0 0
0.0572212 -0.204748 0.528223 -0.0749796 0.977878 -0.195274
-0.01425 -0.286168 0.188845 0.000365107 0.999094 0.0425456
-0.00862558 0.262948 0.0099247 -0.904981 -0.0922064 -0.415339
0.00146279 -0.277391 0.0226557 0.048646 -0.140042 0.98895
0.00968017 -0.44176 0.289498 0.969512 0.204193 -0.135466
-0.00591219 -0.236088 0.434838 -0.707405 0.673324 -0.214973
0.00125178 0.15015 0.274301 -0.71227 -0.601862 0.361156
0.00195961 0.295866 0.191353 0.000293267 -0.786844 -0.617152
-0.00286154 -0.218227 0.441128 -0.642763 -0.041109 -0.764961
0.00416447 -0.147633 0.135806 0.870989 -0.464067 0.161309
0.00974534 -0.405446 0.339764 0.855078 -0.297852 0.424412
-0.00728985 0.47892 0.234514 -0.796505 0.585382 0.151354
-0.00715019 -0.0489673 0.416936 -0.642462 -0.205092 -0.738363
-0.00115943 0.342795 0.191411 -0.992637 0.00795581 0.120866
0.0096146 0.258312 0.0212144 0.797065 0.153939 0.583944
0.00212126 0.123188 0.431368 -0.0881022 -0.361052 -0.928375
-0.00122074 0.323038 0.21006 -0.934812 0.238136 -0.263472
0.023904 0.0868585 0.228189 0 0.920499 0.390744
-0.0100339 -0.210313 0.0362783 -0.993917 -0.055994 0.0948348
-0.00133152 -0.318883 0.348012 -0.779558 0.0658704 -0.622857
-0.0348088 0.326203 0.196279 1 0 0
-0.00828733 -0.234314 0.47446 -0.943893 -0.314597 0.100477
0.00764668 -0.281439 0.211651 0 0.519764 0.85431
0.0289534 0.297845 0.19224 -0.000723929 0.223323 0.974744
-0.00898789 -0.409748 0.326355 -0.969473 0.152421 -0.192068
0.00528545 0.115419 0.371492 -8.57892e-06 0.89099 -0.454022
0.012604 0.0804749 0.259634 0.237642 0.328813 -0.914007
-0.0181454 -0.308819 0.186977 -1 0 0
0.0191094 0.222369 0.188129 -0.98079 -0.0222186 -0.193795
-0.0086768 0.0626623 0.307502 -0.146126 -0.33509 0.930786
0.00184498 0.295781 0.277007 0.464067 0.88466 0.044919
0.00979893 -0.441384 0.290255 0.855372 0.425943 -0.294807
0.00520653 0.16371 0.0953633 0.870999 0.408104 0.273516
-0.00350312 0.299673 0.35276 -0.871004 -0.0185509 -0.490926
0.00784888 -0.393422 0.0485121 0.909627 0.229645 0.346182
0.00345796 0.295486 0.205152 0.822848 -0.568198 -0.00850645
0.00524788 -0.440167 0.293452 -0.717615 -0.554968 0.420761
-0.00895769 -0.383111 0.0265343 -0.905037 -0.199293 -0.375752
0.00225653 -0.203027 0.315456 0.779608 -0.378322 -0.499084
0.0375736 0.158271 0.477922 0.967536 -0.209571 0.141262
-0.000259118 -0.298476 0.183122 -0.239802 0.962963 -0.123274
0.00170064 -0.412374 0.301757 0.77953 0.44777 -0.43799
-0.00953649 0.441777 0.079743 -1 0.000786234 -0.00059821
-0.0284948 -0.287599 0.310422 0.30905 -0.939256 0.149289
0.00112858 0.122189 0.431803 -0.111849 -0.332519 -0.936441
-0.00268169 0.211039 0.331762 -0.329862 0.506936 -0.796371
-0.00505469 0.167703 0.0574342 -0.584246 -0.58643 -0.561032
0.0109951 -0.406045 0.0429788 0.975238 -0.125847 -0.181859
0.00222299 0.293928 0.224141 0.465042 -0.885059 -0.0201748
-0.061153 0.0385733 0.152215 0 -0.965985 0.2586
0.00232667 0.287832 0.221691 0.464955 0.827045 0.315933
-0.000166085 -0.291412 0.250583 -0.464518 0.881088 -0.0889183
0.00875499 0.316887 0.0201245 0.909604 -0.0364664 0.413872
-0.0375063 0.0912159 0.218269 -1 0 0
-0.00907236 0.127357 0.134739 -0.945432 -0.31203 -0.0937867
-0.00874889 -0.48277 0.173673 -0.855501 -0.51513 -0.0525313
0.00311839 -0.3631 0.0291814 -0.712359 -0.271597 -0.647132
-0.0231043 0.0179804 0.25237 0.195038 0.405227 0.893169
-0.000866338 -0.226948 0.121043 -0.934955 -0.230712 -0.269502
-0.089286 -0.211839 0.537109 0 0.782242 0.622975
0.150506 -0.202648 0.538504 0.104468 -0.441091 0.891362
0.0440297 0.301374 0.188854 -0.0128022 0.92385 -0.382539
-0.0350045 0.0457932 0.201114 -1 0 0
0.00386121 0.120365 0.39821 0.698578 -0.686566 0.201534
0.108003 -0.197087 0.528898 -0.202194 0.96184 -0.184338
0.00883743 0.141018 0.106379 -0.529151 -0.758459 -0.380445
-0.0269202 -0.0292486 0.264887 -0.555535 -0.39006 -0.734325
0.070045 0.103915 0.297799 0 -0.997557 0.0698576
0.0093357 0.456505 0.124912 0.909652 -0.380169 0.167348
-0.0350045 0.107211 0.189472 -1 0 0
-0.00997122 -0.131015 0.248613 -0.993711 0.105674 0.0370271
-0.00886085 0.269563 0.00917509 -0.904979 -0.0758368 -0.418643
-0.00298572 0.486164 0.162806 -0.331907 0.934109 -0.131446
0.00961117 0.376601 0.342882 0.797144 -0.264903 -0.542576
0.0743773 0.124894 0.296218 0.000185485 -0.173138 -0.984897
-0.038469 0.0655612 0.249105 1 0 0
0.00540188 -0.250064 0.415543 0.739693 -0.281882 -0.611062
0.0353762 0.192919 0.487262 0.486622 0.0181469 0.873424
0.00258356 0.379224 0.167239 0.82296 0.167424 0.542868
-0.00795139 -0.453776 0.266775 -0.909623 0.372185 -0.184563
-0.117193 0.0434741 0.153369 0 0.707062 0.707151
-0.00792379 -0.137964 0.247058 -0.797159 -0.569808 -0.199639
-0.00683493 -0.313976 0.00452334 -0.660787 -0.0417771 -0.74941
-0.00264195 -0.456505 0.230597 -0.870921 0.473426 -0.131774
0.0111593 0.0562723 0.292435 0.131161 -0.216447 0.967444
-0.000695671 0.113026 0.204938 -0.14508 -0.98441 0.099445
-0.00108392 -0.357704 0.12615 -0.93542 0.251833 -0.248132
0.0112207 -0.475943 0.152934 0.993691 -0.109479 -0.024359
0.00697642 0.13923 0.432192 -0.598798 -0.616304 -0.511478
0.0034059 0.329635 0.189694 0.934789 0.0254034 -0.354294
0.00122904 0.304651 0.205309 0 0.965094 -0.261903
0.0296022 0.0532743 0.23078 0.980806 -0.0693517 -0.182236
0.00326028 -0.312309 0.176743 0.992647 -0.097062 0.0723229
0.00818136 -0.126112 0.438717 0.984526 -0.0559892 -0.166053
-0.00832082 0.141785 0.406693 -0.103144 0.329945 0.938348
-0.0419466 -0.295821 0.202051 -0.595507 0.371762 0.712155
0.00596163 -0.158465 0.438546 0.865342 -0.0829876 -0.494263
-3.91245e-05 -0.439602 0.252255 -0.663915 -0.322194 -0.67484
0.00129705 0.373661 0.0512285 0.779652 -0.315355 0.541012
-0.00779929 0.153907 0.462413 0 0.0432077 -0.999066
-0.046889 0.0508088 0.166977 0.913537 0.355756 -0.197201
0.0152054 -0.273739 0.19689 0.601145 0.77646 0.189037
-0.0330362 0.071845 0.196263 1 0 0
-0.0723637 -0.211505 0.536265 0.246165 0.686154 0.68454
-0.00448228 0.132295 0.189085 -0.871005 0.491121 0.0122844
0.000970936 -0.178616 0.0710729 -0.712257 0.501806 -0.490795
-0.0332812 0.130172 0.229295 0 0.998092 0.0617364
-0.00779706 -0.431488 0.299917 -0.909609 0.314643 -0.271315
-0.000894329 -0.348018 0.35369 0.712282 -0.203231 0.671827
-0.000967897 -0.272464 0.181453 0 0.988188 -0.153244
0.0109843 -0.234917 0.352796 0.97568 -0.0792381 -0.204377
-0.0411162 0.310086 0.183719 -1 0 0
0.00403268 0.420239 0.310847 -0.717358 0.495783 0.489486
0.0026132 -0.248442 0.35293 -0.712265 0.230432 0.663008
-0.038632 0.296116 0.214099 -1 0 0
-0.00406984 0.0881657 0.251238 -0.127126 -0.155743 0.979583
-0.00422359 0.0706478 0.2788 -0.707123 0.685871 0.171927
-0.00795387 -0.426071 0.0713314 -0.796865 0.434148 0.420144
-0.000349227 0.356519 0.148096 -0.662453 -0.407332 -0.628679
-0.0280348 0.190913 0.196933 -0.831478 0.0862339 0.548824
0.0445531 -0.300776 0.192442 1 0 0
0.00475547 0.126186 0.454191 0.0884627 0.212349 0.973182
1.28891e-05 0.25112 0.172238 -0.465428 0.263265 -0.845026
-0.000959659 0.467584 0.170151 0.712048 0.698588 -0.0704475
0.00548947 -0.138881 0.219374 0.870991 -0.484373 -0.0822096
0.0425386 0.084031 0.230936 0 0.325713 0.945469
0.00256912 -0.422811 0.291982 0.779606 0.47433 -0.408932
0.00862877 -0.461713 0.262492 -0.529175 -0.782388 0.328393
-0.0399905 0.0549269 0.239252 -1 0 0
-0.0043103 0.129187 0.236814 0.717484 -0.66766 0.198615
0.00137082 -0.290775 0.194064 0.23988 -0.180352 0.953903
-0.00745424 -0.1336 0.248727 0.529145 0.795146 0.296222
0.00883241 0.442105 0.0691351 0.731182 0.526163 -0.434195
0.0289302 -0.234531 0.453768 0.255875 0.366748 0.89444
0.0280025 -0.280436 0.317254 -0.911904 0.391761 -0.122287
-0.000199122 0.190856 0.322625 0.712235 -0.42669 0.557366
-0.0357279 0.0834906 0.229467 1 0 0
-0.00465756 0.180864 0.0450066 -0.503737 -0.549712 -0.666382
-0.00093828 0.335009 0.140678 -0.992638 -0.0871589 -0.0841059
0.0429001 0.252543 0.182458 0.501755 -0.489608 -0.71311
0.0024321 0.255422 0.302891 0.934907 -0.337317 -0.110299
-0.0085979 0.124268 0.440018 -0.510005 -0.55881 -0.653932
-0.0207113 0.208541 0.196616 0.555533 0.111955 0.823923
0.00164949 -0.236821 0.133053 0.465374 0.607763 0.643468
0.00930453 0.145406 0.113887 0.731912 0.613812 0.29587
-0.0228829 0.190217 0.46314 0 -0.0052918 -0.999986
0.00478163 0.14737 0.276658 -0.717475 -0.59731 0.358398
-0.000727844 0.285893 0.0204479 -0.144544 0.0994208 0.984491
0.00716856 -0.211703 0.331396 0.909594 -0.229723 -0.346216
0.0202647 -0.17436 0.377077 -0.831548 0.373555 0.411078
-0.00140242 0.310204 0.17977 -0.934914 -0.187471 -0.301315
-0.0008653 -0.31181 0.196803 -0.465554 -0.607739 -0.64336
-0.0286685 0.068923 0.226231 -0.980787 0.0655764 0.183731
-0.0361303 0.317308 0.203847 -1 0 0
-0.000889079 0.335129 0.245097 -0.992643 0.106885 -0.0568836
0.00934105 -0.13014 0.214655 0.909572 -0.409685 -0.0695515
0.00405985 0.0534326 0.31957 0.707106 -0.685889 -0.171923
-0.0219197 -0.136874 0.34685 0.19486 0.613132 0.765571
0.0249722 0.0937404 0.223351 0.19524 0.290989 0.936593
-0.00551363 -0.104532 0.428676 -0.642548 -0.140306 -0.75329
0.0454555 -0.304506 0.188925 0.809043 -0.580969 0.0890204
-0.0089063 -0.285746 0.362657 -0.855372 -0.0490736 -0.515684
0.0052543 0.0254981 0.413173 0.3418 0.313557 0.88592
0.00253985 -0.245016 0.138341 0.992616 -0.0724974 -0.0972472
0.0050481 0.134799 0.402684 -0.159617 0.27416 0.948345
-0.0330362 0.0522636 0.221495 1 0 0
-0.0264251 -0.101994 0.319419 -0.555542 0.478341 0.68012
0.0626756 0.297752 0.185932 0.00530565 -0.382872 -0.923786
0.00734442 0.470047 0.173582 0.584343 -0.807427 0.0812653
0.00269115 -0.30752 0.19837 0.822974 0.375026 0.426695
-0.00444267 -0.13891 0.122996 0.717566 0.642236 -0.269503
-0.0357279 0.0774687 0.203451 1 0 0
0.00674497 -0.20957 0.333328 0.583897 -0.435465 -0.685153
-0.00968322 -0.410743 0.0460871 -0.94546 -0.195735 -0.260372
-0.00709762 0.252893 0.353868 -0.909589 0.113395 -0.399736
0.00230483 0.134393 0.216433 0.145463 0.973539 -0.176245
-0.00107208 0.223546 0.0479498 -0.779607 0.287878 0.556182
0.0058294 0.057328 0.299694 -0.0243084 0.0022668 -0.999702
-0.012027 0.118555 0.381572 -0.0269056 0.203894 0.978623
-0.117567 -0.195879 0.530452 0.603488 0.786797 0.129431
0.00448565 -0.395564 0.049711 0.329801 0.537144 0.776343
-0.0108877 0.0774919 0.222906 0 -0.81915 -0.57358
0.00486263 0.067585 0.280787 0.965926 0.251053 0.0629313
-0.00933982 -0.46082 0.275091 -0.90507 -0.375668 0.199301
0.0117492 0.134201 0.254932 0.993707 -0.104205 0.0410889
0.00357426 0.135804 0.409662 -0.24345 0.0335448 0.969333
0.00377347 0.292816 0.199905 0.934927 -0.33727 -0.110274
0.0081817 -0.166844 0.073733 -0.529074 0.642719 -0.554069
-0.0218823 0.0428419 0.230199 0.195153 -0.367755 -0.909215
-0.0375066 0.304756 0.197112 1 0 0
0.0069147 -0.139861 0.132641 0.583387 -0.768233 0.263588
-0.00335981 0.449418 0.268683 -0.417998 -0.802393 -0.425961
0.000240331 0.0833905 0.25819 0.0964579 0.327199 -0.94002
0.0112241 0.13905 0.120212 0.945841 0.29775 0.12934
0.0147149 0.0835472 0.213457 0 0.104454 -0.99453
0.00142753 -0.236198 0.328692 0.822146 0.522777 -0.225343
0.00724465 -0.334513 0.0254184 0.909604 0.0861315 0.406451
0.00190467 0.438157 0.150086 0.661273 0.217296 0.717984
0.00323291 -0.156204 0.119025 0.779578 -0.561159 0.278134
0.00393166 0.193038 0.463125 0 -0.0052918 -0.999986
0.00255267 -0.254552 0.423557 0.110042 -0.986387 0.122191
0.0104494 -0.245262 0.443829 0.943889 -0.314611 0.100463
-0.0330362 0.0773139 0.245055 1 0 0
0.00363334 0.313744 0.202274 0.934858 0.238058 -0.263379
-0.00255703 0.209275 0.0538565 -0.871006 0.278716 0.404557
-0.0106973 0.0930718 0.458527 -0.449584 -0.0158446 -0.893097
0.00685106 0.132293 0.443319 -0.134338 -0.341821 -0.930114
0.00895029 0.436833 0.292405 0.731243 -0.544989 -0.410209
0.00217779 -0.31163 0.0986704 0.934711 -0.354281 0.0283022
-0.0239465 0.299318 0.192144 -0.00530139 0.382565 0.923913
0.00584977 0.20884 0.328173 0.87102 0.273553 -0.408034
-0.00777096 -0.117717 0.164419 -0.731715 0.675484 -0.0911876
0.0105301 0.47166 0.159364 0.855052 -0.510217 0.0925505
0.00332474 0.295291 0.205309 0.82282 -0.568239 -0.00850803
-0.0527263 0.0839348 0.230969 0 0.325713 0.945469
-0.00457597 -0.0708728 0.438331 -0.340867 0.154971 0.927251
-0.00936685 -0.231589 0.357706 -0.904979 0.153748 0.396704
0.00782721 -0.295915 0.217927 0 0.153243 0.988189
0.00463935 -0.244442 0.4325 0 -0.39152 -0.92017
0.0239844 0.223079 0.195309 -0.195225 0.111844 0.97436
-0.00651951 0.0814665 0.247268 0.0314303 0.441631 -0.896646
-0.0399905 0.0656777 0.234406 -1 0 0
0.00977379 -0.158871 0.0827019 0.75569 0.521937 -0.39562
0.02521 -0.122684 0.335823 0.195393 0.597029 0.778061
0.00375868 0.461076 0.243774 -0.712192 0.661928 0.23374
0.00657744 -0.349211 0.369465 0.503703 -0.220655 0.835222
-0.00112739 0.336796 0.178958 -0.935043 0.108951 0.337379
0.000381604 0.335513 0.242741 -0.463527 0.742381 -0.483749
0.00838615 0.114934 0.184101 0.661026 -0.750252 -0.0128979
0.00211218 -0.321561 0.196749 0.662562 -0.322613 -0.675967
0.0021506 -0.399548 0.201375 0.934673 0.0283445 0.354377
-0.000693564 0.270161 0.195348 -0.66347 -0.216793 -0.716106
0.00514054 0.150247 0.2604 0.871009 0.436311 -0.225778
-0.03689 0.159851 0.469998 -0.863856 -0.241968 -0.44182
-0.0375066 0.275266 0.190133 1 0 0
-0.00882724 -0.269454 0.369663 -0.85515 0.0895872 0.51058
-0.00738512 -0.183964 0.0648492 -0.909609 -0.278179 0.308589
0.0101077 -0.309728 0.0148097 0.969485 0.0203671 0.244303
-0.00868858 -0.18505 0.0549778 -0.755553 0.438629 -0.486565
-0.0100439 -0.233229 0.0237558 -0.999999 0.000363088 -0.000918905
0.00266468 -0.384524 0.0434019 0.143466 0.497844 0.855318
0.00517448 -0.353973 0.0347165 0.871004 0.161298 0.464041
-0.00254844 -0.246138 0.457498 -0.330063 -0.899206 0.287207
-0.0357478 0.0420543 0.226408 0 -0.0992646 0.995061
-0.00991972 -0.157828 0.299046 -0.975262 0.175811 0.133995
-0.00147488 0.277691 0.194732 -0.992628 -0.0449248 -0.112572
-0.122663 -0.212521 0.531156 -0.534818 -0.838155 0.107083
0.0327278 0.211998 0.484193 0.268654 0.806628 0.526476
0.00324215 0.179084 0.0645566 -0.712319 -0.467496 -0.523496
0.0057065 0.440563 0.312537 0.418471 0.680478 0.601524
-0.0179121 -0.157928 0.355879 0.98077 -0.128237 -0.147128
-0.00434311 0.354809 0.367044 -0.503535 0.252661 0.826205
-0.0537516 0.0764371 0.226028 0 -0.981639 -0.190746
0.00435131 0.125969 0.213656 -0.717571 -0.687196 0.113368
-0.00191066 -0.153374 0.272003 -0.238827 -0.85496 -0.460441
0.0273664 -0.0319932 0.275922 0.555598 0.405193 0.726037
-0.00126813 0.436289 0.110305 -0.779669 -0.536945 0.322191
0.00311165 0.110079 0.382151 0.0973098 0.373024 0.922705
0.0239982 0.112181 0.463098 0.638311 -0.0473135 -0.768323
-0.00653271 0.485313 0.198919 -0.661585 0.748684 0.0421698
-0.00876933 -0.189249 0.0560785 -0.855433 -0.329846 0.399294
0.00391002 -0.391906 0.322494 0.870988 0.280574 -0.403309
0.0028983 0.302007 0.182953 0.663195 0.706972 0.245691
0.00165771 0.225813 0.164084 0.240342 0.289916 -0.926382
0.0303283 0.148753 0.465382 0.537168 -0.0578975 -0.841486
-0.00926726 -0.289633 0.0132817 -0.755607 0.0278276 -0.654434
-0.0032263 0.15193 0.262615 -0.871006 0.43631 -0.225791
0.0211321 0.0481347 0.229041 -0.55525 -0.29577 -0.777314
-0.00608624 -0.127498 0.444343 -0.641776 0.0760576 0.763111
-0.00109726 0.083532 0.220789 0 0.292523 -0.956258
0.00934701 -0.153784 0.0894878 -0.529157 0.707012 -0.469177
0.00213739 -0.192305 0.177008 0.992623 0.0260989 0.118397
-0.00989729 -0.470017 0.129239 -0.975464 -0.207775 -0.0727909
-0.00476913 0.304514 0.181626 -1 0 0
0.00899273 -0.159143 0.0924503 0.909591 -0.346214 0.229739
-0.0178032 -0.235575 0.436195 0.980783 0.148134 0.12697
-0.0330362 0.0838028 0.235541 1 0 0
0.00207224 0.08543 0.477784 0 -0.241468 0.970409
0.083502 -0.213664 0.522407 0.0608404 -0.55241 -0.831349
0.000125663 -0.304665 0.160889 0 -0.153243 -0.988189
-0.00527485 0.435546 0.0966058 -0.871066 -0.404461 0.278667
-0.0399905 0.0795303 0.229701 -1 0 0
-0.00775371 -0.132061 0.114112 -0.731492 0.625584 -0.271227
0.019115 -0.208824 0.403086 -0.980766 -0.140013 -0.13599
-0.0341516 -0.294503 0.221434 -0.809017 0.581002 -0.0890423
0.0999713 -0.202243 0.523997 -0.113125 0.823952 -0.555253
0.000234701 -0.147386 0.263308 0.712299 0.641004 0.285908
0.00424014 -0.213612 0.445578 0.982939 -0.0529629 0.176142
-0.00755585 -0.441247 0.296811 0.529294 -0.676139 0.512526
0.0415188 -0.295924 0.177049 0.595502 0.430907 -0.67801
0.0288292 0.178854 0.193586 0.831543 -0.0975585 -0.546826
-0.00188844 0.0801201 0.275448 0.0961685 0.326436 -0.940314
0.00238708 -0.250309 0.144771 0.823316 0.392953 0.409559
0.0282337 0.0798915 0.213571 0.127672 -0.306391 -0.943305
0.000317445 0.314664 0.163569 -0.239209 -0.756302 -0.608923
0.00301803 -0.299258 0.358025 0.238928 -0.015843 -0.970908
0.00417382 0.116614 0.149581 0.239066 -0.948928 -0.205871
0.000810165 -0.155514 0.1278 0.779577 -0.577512 0.242362
-0.000354051 -0.142675 0.204204 -0.77965 -0.622745 -0.0658422
0.00373161 -0.229396 0.0155347 0.238758 0.356878 -0.903124
0.0446245 0.111318 0.274112 -1 0 0
-0.0100332 -0.459695 0.107895 -0.993725 -0.100497 -0.0491077
-0.00564194 -0.430543 0.0560516 -0.585052 -0.560307 -0.586319
0.0107395 -0.298866 0.364644 0.945794 -0.00529683 -0.324723
0.00904927 0.445509 0.286559 -0.529081 0.704858 0.472491
-0.00301565 0.139314 0.432697 -0.69849 0.686663 -0.201508
0.0012679 0.0394105 0.409518 0 0.334112 0.942533
-0.00206669 -0.486071 0.218832 -0.238118 -0.956636 0.167769
0.00836651 0.220723 0.340622 0.909596 0.186274 -0.371399
-0.00459983 0.401106 0.345507 -0.503134 0.467662 0.726738
0.0277106 -0.15616 0.35045 0.555435 -0.533197 -0.638117
0.00886723 0.43663 0.288097 0.909582 -0.345139 -0.231387
-0.0201363 -0.00086651 0.260006 0.555564 0.359194 0.749885
-0.130394 -0.208053 0.522399 -0.0519668 -0.375162 -0.925502
0.000301772 -0.198371 0.144373 -0.237737 0.414973 0.878224
-0.00926092 0.0796453 0.248645 -0.21059 -0.266391 0.940578
-0.0375063 0.0825679 0.209515 -1 0 0
-0.0049298 -0.418501 0.311486 -0.502763 0.600968 -0.621342
0.00376915 -0.268019 0.355102 0.330059 -0.19934 -0.922672
-0.0263547 -0.218323 0.522753 -0.0202431 -0.555287 -0.831413
-0.038632 0.274122 0.194827 -1 0 0
0.00297651 0.298193 0.135342 0.822642 -0.567584 -0.033288
-0.0349471 0.0463489 0.253239 0 -0.790254 0.61278
0.00010921 -0.200636 0.142259 -0.239043 -0.392378 -0.888199
0.0283704 -0.301384 0.203497 0.00857344 -0.0425536 0.999057
-0.0338504 0.103913 0.268871 0 0.461573 0.887102
-0.0225434 -0.00180132 0.249529 0.195174 -0.423717 -0.884517
0.000360369 -0.374662 0.110826 -0.24041 -0.723238 0.647403
0.00788105 -0.244507 0.356883 -0.529137 0.278596 0.801498
0.00368147 0.301088 0.192898 0.935039 0.301036 -0.187297
-0.100653 -0.196071 0.529693 0.745634 0.658145 -0.104279
-0.0331547 -0.29969 0.192999 0.91352 0.402101 -0.0616131
-0.0375063 0.0742117 0.196639 -1 0 0
-0.0350045 0.0681301 0.211132 -1 0 0
0.000760326 -0.389761 0.169594 0 0.186157 -0.98252
0.00409662 0.195743 0.0559465 0.238184 0.588176 0.772863
-0.00312425 -0.344184 0.357144 0.717577 -0.159471 0.677977
0.0101883 -0.412739 0.0550591 0.969502 0.160021 0.185631
0.000204897 -0.225181 0.054343 -0.465484 -0.764652 -0.445682
-0.0303725 0.20354 0.463411 -0.0932876 0.128015 -0.987375
-0.00114422 -0.291166 0.0212109 -0.144582 -0.0614488 0.987583
-0.0399905 0.0496517 0.236713 -1 0 0
-0.000694383 -0.312887 0.18269 -0.00460214 -0.844025 -0.536284
0.0288804 -0.246012 0.45436 0.256434 -0.236406 0.937206
-0.0019481 -0.355474 0.0387362 -0.779608 0.205619 0.591551
0.0200524 -0.236005 0.433676 0 0.468766 -0.883322
0.00199379 0.402019 0.308725 0.779558 -0.417235 -0.467124
0.00411394 0.206619 0.0480278 0.23869 0.525564 0.816584
0.0103583 0.0517922 0.461101 0 -0.999705 -0.0242653
0.00103579 0.321713 0.345032 0.779515 -0.101929 -0.618035
-0.00402961 -0.398717 0.320619 -0.87096 0.305485 -0.384848
0.0108312 0.0300747 0.404859 0.98473 0.0523614 0.166026
-0.00209787 -0.226257 0.34489 0.712255 0.311731 0.628901
0.0093206 0.167412 0.297335 0.731976 0.525612 -0.433524
0.0239638 -0.062225 0.294595 -0.195229 0.513143 0.835805
-0.00112956 -0.258415 0.445632 0 -0.997773 -0.0666954
-0.0100446 -0.149907 0.0940485 -1 0.000834569 -0.000530499
0.00533625 0.134738 0.401669 0.119114 -0.365844 -0.923022
0.00817426 0.409319 0.0566407 0.660573 -0.474934 0.581447
0.0450259 -0.206675 0.533801 -0.0526089 0.829878 0.555459
0.0101412 0.133265 0.418666 -0.0373655 -0.400364 -0.915594
0.0062625 0.285015 0.191298 1 0 0
-0.00175046 0.0643297 0.289704 0.36054 -0.635015 0.683204
0.0028859 0.3026 0.186278 0.662308 0.597126 0.452535
-0.00322814 -0.23516 0.444368 -0.983361 -0.0540146 0.173447
0.000201682 0.276302 0.206445 -0.465751 0.483196 0.741349
-0.00711232 -0.250525 0.453062 0 -0.379811 0.925064
-0.00265142 0.052332 0.461947 -0.74888 -0.662507 -0.0162415
-0.00633468 -0.476644 0.196764 0.52903 -0.848432 0.0170344
0.00541063 -0.377976 0.0387798 0.417325 0.425976 0.802735
-0.0350045 0.0415203 0.210839 -1 0 0
-0.000368059 -0.313932 0.246645 -0.463449 -0.870894 -0.163579
0.035183 -0.283079 0.328584 0.804967 -0.563678 0.185188
0.00564198 0.0638722 0.285299 0.0476529 -0.0739459 0.996123
0.00203156 -0.313323 0.0823098 0.934793 -0.354067 0.0282765
-0.00320685 0.0468071 0.378092 -0.707021 0.685981 0.171907
0.0100633 -0.403305 0.333405 0.755171 -0.374422 0.538074
-0.00818308 -0.397449 0.0470803 -0.909627 0.229701 0.346145
-0.0330362 0.122979 0.212377 1 0 0
0.000501799 0.112093 0.396316 -0.0861795 -0.301019 -0.949716
-0.00188042 -0.00143164 0.423001 0 0.279238 0.960222
0.00075753 0.272078 0.357073 0.712283 -0.10543 0.693929
0.00274167 0.294658 0.280239 0.935184 0.35325 0.0253892
0.0046973 0.378298 0.330382 0.871033 -0.252712 -0.421235
-0.00889593 0.128571 0.220861 -0.945901 0.319251 -0.0578865
-0.00226164 0.128005 0.387518 0.0231676 -0.0754159 0.996883
-0.038469 0.057718 0.217065 1 0 0
-0.000820095 0.260901 0.186653 -0.823027 0.00853242 -0.567939
-0.000976223 0.0652017 0.26068 0.164353 -0.302262 0.938949
-0.00293458 -0.464218 0.1481 -0.327068 0.913555 0.241751
-0.00947242 0.258997 0.0137812 -0.993709 -0.0242703 -0.109328
0.00963259 0.35224 0.0239338 0.797171 -0.173831 0.578188
-0.0100436 -0.461648 0.114425 -0.993907 0.0990012 0.048445
-0.00757128 -0.47036 0.171139 -0.909575 0.413238 0.0436808
0.000188965 -0.155586 0.0691468 -0.0492943 0.774077 -0.63117
0.0148743 -0.253934 0.45124 0 -0.513119 0.858318
0.0186264 -0.309913 0.187441 1 0 0
-0.00896366 -0.324906 0.361641 -0.905364 0.0595561 -0.420439
0.00312803 0.242769 0.170769 0.935059 0.0983431 -0.340579
-0.00648531 0.143956 0.102037 0.529157 -0.733115 -0.427241
-0.0182572 0.101864 0.217662 0.831428 0.164882 0.530605
0.00620283 -0.136382 0.212216 0.871033 -0.484289 -0.0822527
-0.0330362 0.0822112 0.232481 1 0 0
0.0104599 -0.0209779 0.414667 0.984692 -0.0637654 -0.16222
-0.000106709 -0.187026 0.339689 -0.0488174 0.600258 0.798315
0.00430832 0.193271 0.490033 0 0.0234374 0.999725
-0.00415976 -0.290649 0.21711 0 0.153243 0.988189
0.00759675 0.232722 0.0345201 0.909605 0.167429 0.380244
0.00549966 0.44376 0.283992 -0.71761 0.578487 0.387799
-0.00340362 -0.157352 0.310663 -0.330448 0.727645 0.601113
0.00568186 -0.202352 0.333955 -0.717529 0.385118 0.580376
-0.00680604 -0.144759 0.272903 0.529212 0.751706 0.393538
-0.0093692 0.406337 0.32956 -0.975666 -0.132803 -0.17447
0.0256242 0.0753176 0.229322 0.195167 0.329703 0.923691
0.00773984 0.130186 0.198291 0.584364 0.809966 -0.049744
-0.00476913 0.287005 0.180933 -1 0 0
-0.00215158 0.458817 0.246805 -0.330712 -0.879656 -0.341811
0.0293138 -0.0870821 0.301288 0.83142 -0.310135 -0.461038
-0.000326744 0.0367009 0.386105 0 -0.348043 -0.937478
0.00246214 -0.215827 0.054164 0.779643 -0.324753 0.535436
-0.00194134 -0.289891 0.377099 -0.239218 0.0541489 0.969455
0.0281388 -0.167531 0.371129 0.555362 0.559275 0.615454
0.00602912 0.339929 0.0301331 0.871013 -0.134051 0.472617
0.0339572 0.0756069 0.228869 0.99108 -0.121744 0.0542192
0.00249759 0.271567 0.202544 0 -0.851329 0.524632
-0.00896859 0.290233 0.3695 -0.945454 -0.0182966 0.325241
0.0156206 -0.222413 0.5282 0.0227916 -0.980455 -0.195419
-0.00446356 -0.2081 0.442731 -0.983929 -0.0494719 -0.17157
0.011197 -0.219749 0.516515 0.993715 -0.106635 0.0340514
0.0180954 0.109378 0.372768 0.922133 -0.175408 0.344822
0.00949503 -0.292463 0.177705 -0.0072424 0.53637 -0.843952
0.0062625 0.312982 0.181809 1 0 0
-0.00944138 0.461336 0.114709 -0.993909 -0.100854 0.0444203
-0.00731298 -0.238351 0.0307649 -0.909601 -0.145073 0.389332
-0.00423474 0.110788 0.359024 -0.825941 -0.539789 0.162631
0.00652987 -0.241852 0.468502 0.532014 -0.806591 0.257626
-0.00652565 -0.372311 0.344556 -0.660639 0.303047 -0.686818
0.00998821 -0.2051 0.334539 0.855363 -0.277902 -0.437178
0.00155856 -0.194014 0.0589564 0.0487072 -0.636135 0.770039
-0.000322856 -0.440286 0.28689 0.712147 -0.58502 0.38807
0.0255971 0.172546 0.192391 0.195283 -0.192303 -0.961709
0.00312025 0.238645 0.228893 0.992649 0.0568545 0.106846
0.00801294 0.29161 0.0130387 -0.529137 -0.0320525 -0.847931
-0.0375063 0.102931 0.203441 -1 0 0
0.0844626 -0.215451 0.523664 0.0608477 -0.552418 -0.831344
-0.00954047 -0.19058 0.32605 -0.945877 -0.20508 -0.251512
0.00638079 -0.452764 0.264796 0.503036 0.778934 -0.374455
-0.00252911 0.202355 0.333864 0.717498 -0.387834 0.578603
-0.00231818 -0.469913 0.157445 0.712277 -0.691976 -0.117605
0.0103369 -0.120391 0.218475 0.905043 0.421118 0.0596406
-0.00709307 0.48114 0.225988 -0.732316 0.665538 0.144127
-0.0029324 -0.16386 0.102385 -0.87103 -0.40932 0.271595
-0.0010408 0.39695 0.328925 0.712248 0.398322 0.577964
-0.018641 -0.181889 0.383027 0.831105 0.382535 0.403648
0.00359116 0.271788 0.196053 0.934986 -0.108984 -0.337526
0.0220276 -0.0630172 0.28281 -0.555697 -0.435014 -0.708494
0.000657934 -0.242244 0.250081 0 0.744836 -0.667247
0.058063 -0.219309 0.525441 0.0635921 -0.829189 -0.555339
0.013933 -0.300966 0.175199 -0.00858682 0.0424207 -0.999063
0.00470211 0.414528 0.317321 -0.717299 0.464049 0.519751
0.0062625 0.303439 0.194508 1 0 0
-0.010782 -0.249273 0.453576 0 -0.379811 0.925064
0.0252003 -0.0443749 0.271641 0.195278 -0.477987 -0.856385
0.0941582 -0.210389 0.530019 0.175442 0.98449 0
-0.000212768 -0.176379 0.30619 0.712317 0.521288 0.469962
-0.0348088 0.275403 0.203759 1 0 0
-0.0267838 -0.297701 0.237828 0.66936 -0.734344 0.112682
0.0070471 0.456857 0.141014 0.871009 -0.470886 0.140035
0.000818433 -0.348806 0.192719 0 -0.126625 -0.991951
0.00226281 0.13151 0.105274 0.144586 -0.891359 -0.42962
0.00398049 -0.197736 0.314265 0.870977 -0.320855 -0.37209
0.0296127 -0.118095 0.326815 0.980812 0.115446 0.157099
-0.00783483 0.0793176 0.238787 -0.0591994 -0.425538 0.903002
0.00187917 0.144342 0.231019 0.779624 0.600259 -0.178538
-0.000262396 0.338039 0.192853 -0.662806 -0.0151556 0.748638
-0.0039705 0.0850412 0.477687 0 -0.241468 0.970409
0.00289129 0.173347 0.0495797 0.145373 -0.659007 -0.737954
-0.0198804 0.0382163 0.233106 0.555231 -0.311919 -0.77099
-0.0033191 0.0290692 0.412698 -0.341799 0.313543 0.885926
0.00333228 -0.307092 0.182756 0.992638 -0.0971229 0.0723737
0.000617768 -0.457509 0.128967 0.0493388 0.92886 0.367131
-0.00355728 -0.393751 0.0268523 -0.418711 -0.45658 -0.784994
0.000415532 -0.327787 0.195113 0 0.101963 0.994788
0.0110526 0.327275 0.00840975 0.904958 0.0572522 -0.421631
-0.00251907 -0.258291 0.443777 0 -0.997773 -0.0666954
0.00383687 0.072141 0.292126 0.133377 0.262622 -0.955636
-0.0348088 0.325048 0.181171 1 0 0
-0.00819221 -0.351088 0.366198 -0.797313 -0.177023 0.577023
0.0292277 -0.266827 0.367824 0.800305 0.599593 0.000252278
0.00401474 -0.244447 0.454897 0 -0.0860735 0.996289
-0.0399905 0.0840142 0.217778 -1 0 0
-0.00604263 0.473181 0.175855 0.529432 0.844059 -0.0852345
0.00662992 0.149432 0.26457 0.871001 0.436319 -0.225796
-0.00312625 -0.00296652 0.423018 -0.342512 0.261515 0.902383
0.00161943 -0.30409 0.180046 0.46466 -0.881014 0.0889074
0.0116779 0.126694 0.422543 0.0559942 0.352115 0.93428
-0.0521368 0.0574581 0.175212 -0.49977 0.757552 -0.419934
-0.113322 0.0590606 0.154755 0 0.0520977 0.998642
-0.134428 -0.196226 0.522803 0.0185694 0.609166 -0.792826
0.00113385 0.152576 0.251689 0.779636 0.573115 -0.252402
0.00543112 0.230624 0.0398423 0.871012 0.19797 0.449606
0.00361534 -0.187333 0.339431 0.238794 0.58357 0.77616
0.00047325 0.42247 0.1527 -0.463561 -0.230642 -0.85552
-0.0359203 0.154288 0.480502 -0.862695 -0.29278 0.412357
0.0227981 0.0804401 0.213201 0 -0.308897 -0.951096
-0.00287559 0.138584 0.258693 0.717522 -0.637469 0.280707
-0.00648114 -0.399575 0.335366 0.529055 -0.484803 0.696468
0.0117796 0.123546 0.16374 1 -0.000979775 -0.000133049
-0.00626606 0.34721 0.00889077 -0.660777 0.187707 -0.726732
0.00869768 0.463714 0.240265 0.661777 -0.717938 -0.215908
0.004876 -0.459021 0.260698 -0.717569 -0.64223 0.269508
-0.0756692 -0.20399 0.525599 0.0854234 0.827179 -0.555407
-0.00124672 -0.3638 0.219193 -0.934701 0.136389 0.328226
-0.0091996 0.111546 0.38221 -0.0810999 -0.261979 -0.96166
0.0107027 0.143381 0.275468 0.969489 0.210199 -0.126124
-0.00190803 -0.301743 0.377422 -0.238214 -0.0222539 0.970958
-0.00643676 0.473567 0.177249 0.529432 0.847754 -0.0318532
-0.0330362 0.0888953 0.224225 1 0 0
0.0801031 -0.214244 0.536647 0.0571762 -0.552801 0.831349
0.0104142 0.203553 0.332233 0.855126 0.29535 -0.426062
-0.00053332 0.160382 0.0873109 0.712296 -0.557316 -0.426654
0.01116 0.232678 0.356841 0.945362 -0.11806 0.303896
0.000120009 0.360123 0.189905 -0.465392 0.0448901 -0.883966
-0.00772035 0.398623 0.0438192 0.529253 0.472542 -0.704695
0.0028555 -0.3063 0.138317 0.992638 0.118274 -0.0260786
-0.0330362 0.052303 0.236173 1 0 0
0.00899735 -0.168187 0.298447 0.909606 -0.32544 -0.258275
-0.005902 -0.177169 0.302509 -0.909593 -0.308605 -0.278216
-0.00629071 -0.468148 0.243878 0.528778 -0.801747 0.278558
0.0117652 0.397573 0.0380525 0.993694 0.0602156 -0.0945875
0.0131335 0.136439 0.425348 0.0915717 -0.361129 -0.928009
0.0287054 -0.284255 0.321007 -0.668836 -0.736648 0.100038
-0.000642961 0.294732 0.208174 -0.662367 -0.749025 -0.0152076
0.0061014 0.291004 0.354312 0.871052 0.0123308 -0.491036
-0.00902937 0.348206 0.358144 -0.969471 -0.0699034 -0.23503
0.00156114 -0.298211 0.227883 0.464559 -0.878236 0.113524
0.0105695 0.268371 0.0160495 0.969484 0.0398937 0.241888
0.0117796 0.465655 0.256307 1 0.000906155 0.000393641
-0.0195597 0.0507783 0.228382 0.55558 -0.295692 -0.777108
0.0101949 0.312296 0.0157614 0.969484 -0.0215159 0.24421
-0.0309479 -0.286167 0.188969 0.000365107 0.999094 0.0425456
-0.0350045 0.0600854 0.211325 -1 0 0
0.00223951 -0.271916 0.184229 0.663108 -0.0732242 -0.744934
-0.00716631 0.187648 0.463146 0 0.0108454 -0.999941
0.00522398 -0.147705 0.105594 -0.717578 0.603385 -0.347863
0.024108 -0.261692 0.393669 0.946186 0.258818 0.194281
0.0062974 0.17003 0.0692298 -0.717496 -0.495678 -0.48939
0.0208228 -0.312043 0.181176 -0.00460214 -0.844025 -0.536284
-0.00135134 -0.316553 0.00201542 -0.144794 -0.0938144 -0.985004
-0.0350045 0.0880157 0.19005 -1 0 0
-0.0375063 0.0944101 0.25619 -1 0 0
-0.0039161 -0.194032 0.321129 -0.41787 -0.574119 -0.704111
-0.00836391 0.243811 0.35459 -0.969493 0.0815571 -0.231155
-0.00164359 -0.299628 0.182209 -0.822972 0.5628 -0.0772798
0.0032296 0.0376706 0.379036 0.707021 -0.685966 -0.171965
0.00946382 -0.159537 0.0713693 0.797347 0.46779 -0.381326
-0.0399905 0.105252 0.211249 -1 0 0
0.0241415 -0.0239753 0.260416 -0.194824 -0.460085 -0.866237
-0.00464098 0.334182 0.00474833 -0.50348 0.149768 -0.850928
-0.00454381 0.127394 0.44622 -0.120716 -0.353126 -0.927755
0.0143966 0.0739088 0.26732 0.847793 0.236214 0.474815
0.0279305 -0.304795 0.175577 -0.00760745 -0.462683 -0.886491
-0.0050177 0.110594 0.350559 0 -0.156464 -0.987684
-0.0111678 -0.264207 0.397255 -0.053071 -0.706097 -0.706123
0.0186264 -0.310016 0.199872 1 0 0
0.00762724 0.473133 0.202649 -0.529143 0.845262 0.0744266
-0.000497368 0.289238 0.154291 -0.662545 0.716907 -0.216976
0.00410991 -0.218564 0.443448 0.983972 -0.0483044 -0.171656
0.0882711 -0.217206 0.523064 0 -0.225615 -0.974217
0.000657721 -0.357638 0.335952 0.779705 0.218681 -0.586719
0.000720213 -0.233556 0.264627 0 -0.728062 0.685511
-0.0263397 -0.160569 0.353929 -0.55564 -0.546266 -0.626784
-0.0879129 -0.205374 0.522825 0.064576 0.551844 -0.831443
-0.0100442 -0.45158 0.28422 -1 -0.000834582 0.000530715
0.00430303 -0.249479 0.414505 0.441643 -0.224087 -0.868756
-0.00260416 -0.450061 0.0759583 -0.330456 -0.750706 -0.572049
-0.00551509 0.202625 0.328036 -0.584024 0.462432 -0.667137
0.0079392 -0.467316 0.216363 0.909656 0.410946 -0.0604093
-0.0072874 0.142553 0.275491 0.52934 -0.753492 0.389936
0.0105568 -0.131229 0.14582 0.905399 -0.411156 0.105849
-0.0179901 0.0858598 0.218568 0.980787 -0.0617397 -0.185056
-0.00601117 -0.414474 0.0552061 0.52914 -0.554148 -0.642597
0.0097801 -0.276592 0.0174992 0.969483 -0.0410329 0.2417
-0.000563758 0.364461 0.145363 -0.934846 0.208153 0.287639
0.00258034 0.0691959 0.242581 0.171321 -0.196536 0.965413
-0.0024504 -0.354207 0.00945131 -0.238581 -0.278971 -0.93019
0.00725187 -0.286668 0.356394 0.909589 -0.0345096 -0.414074
0.00596655 -0.135013 0.276421 0.503564 0.760602 0.409765
-0.00994806 -0.448689 0.0928965 -0.993882 0.0928004 0.0598876
-0.00782672 -0.460825 0.113884 0.529411 -0.774802 -0.345552
-0.0350045 0.0645001 0.247893 -1 0 0
0.0107045 0.330039 0.0159654 0.755614 0.138821 -0.640138
-0.0056103 0.227632 0.0171595 -0.584429 -0.32703 -0.742627
-0.00380566 -0.486014 0.163852 -0.419407 -0.898819 -0.127365
0.000881786 0.28527 0.162998 0 -0.524569 -0.851368
-0.0132355 0.17337 0.489935 0 -0.0147092 0.999892
0.0456981 0.119504 0.283272 -0.669173 0.637 -0.382673
-0.00142501 -0.252772 0.198039 -0.934763 0.0825465 -0.345548
0.0048062 0.202315 0.489821 0 0.0234374 0.999725
-0.0350045 0.0770755 0.212864 -1 0 0
0.00825149 0.371171 0.341822 0.909626 -0.190932 -0.368952
-0.00535459 -0.328932 0.373776 -0.502612 -0.121104 0.855988
-0.00175948 -0.298205 0.195985 -0.822664 0.566083 -0.052675
-0.00111264 0.154318 0.306711 -0.239224 -0.74903 0.61784
-0.018659 0.0636984 0.231037 0.831449 0.186786 0.523263
0.0199185 -0.134339 0.333993 -0.831396 -0.338261 -0.440862
0.00867457 0.0682302 0.2832 0.105499 0.159421 -0.981557
0.0015734 0.294332 0.197979 0.238516 -0.970861 -0.0232248
0.00116586 -0.23874 0.423379 -0.109923 0.874625 -0.472173
-0.126962 -0.203195 0.539188 -0.0556447 -0.143168 0.988133
0.0027471 0.32044 0.171643 0.662851 -0.407184 -0.628355
0.017523 0.123837 0.365478 0.789708 0.605933 0.0959496
-0.00347269 0.134701 0.175748 -0.870979 0.489424 0.0431204
0.0841097 -0.213604 0.53678 0.0608413 -0.552418 0.831344
0.00487082 -0.454942 0.136768 0.871068 0.46023 0.17155
0.00991891 0.423735 0.064958 0.755621 0.460271 -0.466034
0.00302684 0.319101 0.199239 0.662621 -0.245802 0.707471
0.0196153 0.190971 0.197203 -0.831457 0.0862389 0.548856
-0.00782961 -0.242247 0.0272918 -0.797213 -0.199611 0.569743
0.00261863 -0.293298 0.24368 0.934891 0.35381 -0.028244
0.0094183 0.333614 0.369814 0.73336 0.121177 0.668954
-0.00824367 -0.120952 0.438841 -0.983971 -0.00771293 0.178163
0.024705 -0.0723934 0.288067 0.195307 -0.513129 -0.835795
-0.0286482 -0.0693142 0.292887 -0.980776 0.102088 0.166303
0.0298779 -0.250148 0.452723 0.255347 -0.366701 0.89461
0.0101163 0.158449 0.294243 0.969495 0.192721 -0.151452
0.0062625 0.285541 0.180855 1 0 0
-0.0682276 0.0201432 0.14964 0.965819 -0.258861 0.0135579
0.00355102 -0.36759 0.348303 -0.712344 -0.28576 0.64102
-0.00907358 -0.321523 0.0139616 -0.755573 -0.0952952 -0.648096
-0.000607771 -0.350909 0.077618 -0.934932 0.317354 -0.158707
-0.0348088 0.282293 0.189103 1 0 0
-0.00462992 -0.162246 0.437385 -0.642451 -0.107351 -0.75877
-0.0399905 0.106247 0.234548 -1 0 0
-0.00908365 -0.427343 0.308758 -0.90527 0.307164 -0.293491
0.00676106 -0.304784 0.0229525 0.871006 0.00999212 0.491172
-0.018079 0.298835 0.191824 -0.0022066 0.680709 0.732551
0.00842365 0.145443 0.264937 0.909625 0.368953 -0.190933
0.00650954 -0.457391 0.267931 -0.717567 -0.623988 0.309412
0.0032525 0.344309 0.226154 0.992639 0.0841039 -0.0871503
-0.0348088 0.283931 0.204629 1 0 0
-0.0228293 0.170254 0.203758 0.194838 0.192396 0.96178
0.00985051 0.392289 0.347706 0.797352 0.306458 0.519916
0.0147175 0.146245 0.445435 0.0736574 -0.328774 -0.941532
0.00292707 0.362987 0.212512 0.934817 0.133653 -0.32902
-0.0235117 -0.152867 0.36029 -0.195082 0.628888 0.752624
0.0117801 0.122464 0.180009 0.999999 -0.000987317 -5.57582e-05
0.00152006 -0.221233 0.530385 0.0793073 -0.456819 0.886017
-0.0103212 0.0706218 0.231457 0 -0.913561 0.406702
-0.00645616 -0.485571 0.20411 -0.660781 -0.747199 0.07115
-0.00199118 -0.466462 0.218946 -0.236817 0.957036 -0.167334
-0.00331588 -0.14006 0.216299 -0.871032 -0.484301 -0.0821974
0.00178627 -0.303249 0.184906 0.464678 0.423998 -0.777367
-0.00126968 0.273706 0.219798 -0.992619 0.087278 0.0842036
0.0102331 0.135072 0.427062 -0.00909203 0.407519 0.913152
-0.0157483 -0.276938 0.176234 -0.60147 0.682509 -0.415229
0.0292175 0.294583 0.190716 0.0127937 -0.923727 0.382837
-0.00104125 0.332285 0.203342 -0.934979 -0.110216 0.337144
0.0450889 0.0846051 0.226666 -0.913593 0.348549 -0.209432
0.0001709 -0.409021 0.0700861 -0.458676 0.646098 -0.610061
0.0112722 -0.468321 0.129627 0.999999 -0.000932089 -0.000326728
-0.00201758 -0.460883 0.192991 -0.77949 0.626285 -0.0127555
-0.0357279 0.102087 0.247563 1 0 0
-0.00228558 0.297016 0.192318 0.000953326 -0.294089 0.955778
0.0100208 0.334697 0.358996 0.969488 -0.0549766 -0.238893
0.00761601 -0.208465 0.0389347 -0.529206 0.43996 -0.725517
-0.0691448 -0.204007 0.532582 0.0944014 0.97628 0.194848
-0.00959142 -0.146291 0.105594 -0.945848 -0.286757 0.152124
0.00884329 -0.471407 0.185032 0.909634 0.415033 0.0177355
0.0133931 0.215056 0.481655 0 0.948389 0.31711
-0.00126335 -0.132558 0.174917 -0.144843 -0.984991 0.0938813
0.0109245 -0.275303 0.203957 0 0.807095 0.590422
0.00643439 -0.254211 0.0300301 0.870999 -0.142274 0.470233
-0.00740529 -0.466313 0.251274 0.528635 -0.801816 0.278631
-0.00947246 -0.423111 0.0556591 -0.945503 -0.21547 -0.244124
-0.00663152 0.449571 0.263647 -0.909624 -0.371384 -0.186167
0.0108617 -0.475679 0.20001 0.945865 0.324062 -0.0179568
0.0194589 -0.287755 0.18296 -0.00397197 0.886427 -0.462851
-0.00322269 -0.124651 0.430924 -0.342364 -0.164601 -0.925037
0.00265006 -0.343339 0.229725 0.934875 0.230839 0.26967
0.00804081 -0.249732 0.420598 0.927821 -0.365156 -0.0762201
-0.0330362 0.0562629 0.199651 1 0 0
-0.00367912 0.279402 0.167788 -0.928952 -0.194222 -0.315161
-0.00963543 -0.389783 0.340565 -0.945714 0.165275 -0.279837
-0.00792568 -0.152119 0.0922165 0.529037 0.707109 -0.469166
0.0206837 0.137034 0.461756 0.11925 0.0436439 -0.991905
-0.00896794 -0.418072 0.0497129 -0.904582 -0.26932 -0.33045
0.0456392 0.103203 0.256244 -0.669173 0.637 -0.382673
-0.00691637 -0.467144 0.130812 0.529445 -0.794921 -0.29629
-0.0361303 0.277094 0.194212 -1 0 0
-0.00795872 0.46934 0.179357 -0.909602 -0.415186 0.0156324
-0.00897094 -0.382946 0.342569 -0.905533 0.201235 -0.373516
0.0104986 -0.260928 0.359524 0.905224 -0.0897295 -0.415353
0.0184978 -0.307057 0.167591 0.991097 -0.0204022 -0.131568
0.000124488 0.205142 0.306659 -0.992671 -0.10224 -0.064436
0.0757138 0.128028 0.297464 0 0.882647 -0.470037
-0.00278031 0.0995978 0.358561 -0.341999 -0.405361 -0.847773
-0.000468194 -0.301089 0.186809 -0.464631 -0.356869 -0.810409
0.00882316 0.470524 0.209804 0.731565 -0.675585 -0.0916381
0.018019 -0.257555 0.44777 0 -0.893994 0.448078
-0.00498226 0.129645 0.415997 0.114039 -0.0826501 -0.990032
-0.00624336 0.462108 0.154067 -0.909639 -0.404794 0.0932697
-0.000360219 0.261628 0.23243 -0.662814 -0.596773 -0.452261
-0.146489 -0.203531 0.521346 -0.0611779 -0.499072 -0.864398
-0.0055468 -0.198694 0.332878 0.717525 0.385089 0.5804
-0.0110395 0.00280865 0.408183 -0.984766 -0.0639214 -0.161711
0.0255447 -0.314509 0.186151 -0.000364049 -0.9991 -0.0424224
-0.0401956 0.311776 0.185829 1 0 0
0.0686843 0.111042 0.299949 1 0 0
0.0084301 0.0804774 0.37141 0.642491 -0.329764 -0.691709
0.0110441 -0.364885 0.0253701 0.975633 0.0793263 0.204566
-0.00225699 0.30811 0.35023 -0.871003 -0.0185497 -0.490928
-0.0162496 0.298511 0.192054 -0.000723929 0.223323 0.974744
0.00204396 -0.231727 0.204746 0.662624 -0.136322 0.736441
-0.00139934 0.320352 0.207457 -0.992628 -0.0646609 0.102511
0.00973958 0.135457 0.410905 -0.0785123 0.383287 0.920286
0.00722937 0.164913 0.30532 -0.529104 -0.632905 0.565226
