0.00364458 0.467096 0.15944 -0.712046 0.692771 -0.114276
0.0341194 -0.289252 0.240553 0.104835 0.983012 -0.150658
-0.00903756 0.171592 0.315851 -0.945391 -0.23441 0.22647
-0.00800823 -0.130507 0.159749 -0.7972 -0.594642 0.10427
0.0102825 0.459464 0.119597 0.85532 -0.47415 0.208828
0.0106978 -0.133187 0.118917 0.94538 0.299082 -0.129641
0.0094113 -0.212386 0.337507 0.909595 -0.207557 -0.35994
0.00522079 0.345251 0.0331322 0.871009 -0.134048 0.472626
-0.0399905 0.0558755 0.216813 -1 0 0
-0.00831314 -0.457019 0.093348 -0.796934 -0.520071 -0.307281
0.0497736 0.260108 0.182096 0.498607 -0.487788 -0.716557
-0.00951277 0.408884 0.33073 -0.993717 0.0677782 0.0890691
0.000491155 0.317316 0.252337 -0.23891 0.937253 -0.253929
-0.0912731 -0.201084 0.530053 0.120333 0.973403 0.194951
0.0096746 -0.466524 0.238103 0.854922 0.496894 -0.149014
-0.0065835 0.135556 0.139829 -0.909605 0.399709 0.113365
0.0104963 0.260627 0.357323 0.855438 0.109749 -0.506144
-0.0272146 -0.0142909 0.257499 -0.831357 -0.25043 -0.496114
0.00382397 -0.341243 0.345554 0.870996 0.11246 -0.478245
0.00628337 0.318493 0.363241 -0.717585 0.0699441 0.69295
0.0151508 0.187103 0.46314 0 0.0108454 -0.999941
-0.00894334 0.326629 0.361396 -0.945811 -0.0452994 -0.321542
0.0843206 -0.219309 0.536513 0 -0.223422 0.974722
0.00940063 -0.39607 0.332703 0.909577 0.237333 -0.341089
-0.0310959 -0.240962 0.453728 -0.705883 0.0593848 0.705835
-0.00399599 -0.23931 0.0124253 -0.41853 0.300295 -0.857121
0.00158172 0.261257 0.292288 0.238009 0.907761 0.345429
0.00749343 0.481802 0.230703 0.584644 0.792845 0.172014
-0.0281788 0.0636243 0.230336 -0.831516 0.186752 0.523168
-0.0133172 0.142863 0.461935 0 0.0432077 -0.999066
-0.00137972 -0.26659 0.129018 -0.992631 -0.0988874 -0.0700276
-0.00340845 0.0548602 0.308389 -0.70708 -0.685917 -0.171919
-0.00947505 0.255893 0.359867 -0.993914 0.0275606 -0.106657
-0.0239246 0.238778 0.184747 0.61213 0.630435 -0.477335
0.0406728 0.174937 0.473577 0.977492 -0.123168 -0.171284
-0.0015711 0.0555465 0.456419 -0.269984 -0.445406 -0.853653
-0.0021527 -0.14753 0.118146 -0.238686 -0.875095 0.420995
-0.0099322 -0.133705 0.13062 -0.975628 -0.207546 0.071236
-0.00757641 0.248126 0.025271 -0.909604 0.118454 0.398232
0.00665439 0.080835 0.268988 -0.0388684 -0.117245 0.992342
-0.00528505 0.435425 0.298177 0.717715 0.552924 0.423273
0.009371 -0.152012 0.27768 0.797254 -0.519787 -0.306932
0.0053718 0.139161 0.231693 0.871036 0.470841 -0.140019
-0.00063179 0.299185 0.198172 -0.662803 0.747731 0.0398879
-0.00298187 0.0632856 0.286316 0.00160764 0.912754 -0.408507
-0.0120366 0.0786942 0.257099 -0.131003 -0.265448 0.955184
0.00606043 0.273337 0.00318388 0.418567 -0.126662 -0.89931
-0.0272185 0.0206545 0.241113 -0.831348 -0.219048 -0.510763
-4.4685e-05 0.073844 0.242565 -0.100868 0.991812 0.0783267
-0.00469678 0.103809 0.331944 -0.96893 -0.236301 0.0730568
0.099802 -0.197675 0.527621 -0.952956 0.295227 -0.0686781
-0.0399905 0.0916755 0.214272 -1 0 0
-0.00190174 0.276643 0.210044 0 -0.585828 0.810435
0.00206492 0.297281 0.245213 0.465275 0.884023 0.0449717
-0.0330362 0.0874664 0.188996 1 0 0
0.00962728 -0.45537 0.10281 0.755306 -0.580656 -0.303893
0.00780584 0.130223 0.16926 0.90961 0.410755 0.0623678
-0.00103834 -0.313675 0.208897 -0.663234 -0.657804 -0.356952
-0.0066184 0.14883 0.27072 -0.909602 0.368998 -0.190957
-0.018045 0.079602 0.224296 0.980787 0.0617395 0.185056
-0.0271939 0.131233 0.481503 -0.773294 -0.28531 0.566229
-0.00867465 0.235348 0.350147 -0.905391 0.153785 -0.395748
-0.00101466 -0.204015 0.17871 -0.992644 0.0260865 0.118224
0.00473145 -0.2646 0.0194444 -0.717495 0.159476 -0.678062
-0.00726362 0.120528 0.22887 -0.797122 -0.589458 0.130903
0.0099603 0.403581 0.340482 0.797216 0.34641 0.494416
-0.0141095 0.121644 0.380343 -0.0938634 -0.221568 -0.970617
-0.000893165 0.278865 0.12572 -0.992633 -0.119314 0.0210823
0.00199243 -0.200762 0.245148 0.935005 0.184959 -0.302583
-0.00770972 0.17116 0.0736948 -0.79714 0.452342 0.399943
-0.00890519 0.121674 0.186701 -0.969484 0.245077 0.00612413
-0.0375063 0.0829706 0.264165 -1 0 0
-0.0357279 0.0452379 0.236875 1 0 0
-0.0399905 0.099359 0.249763 -1 0 0
0.00849286 0.418452 0.308462 0.909575 -0.295702 -0.291947
0.0087356 0.468123 0.223587 0.660404 -0.733875 -0.159041
-0.00960125 -0.475919 0.189807 -0.945584 0.325334 -0.00537245
0.000507968 -0.269396 0.0409981 0 0.982522 0.186146
-0.0177913 -0.144776 0.345682 0.980778 -0.121987 -0.152298
0.00666753 0.422012 0.0659292 -0.717625 0.489276 -0.495604
0.00719732 -0.213086 0.528358 0.258783 0.321247 0.910951
0.00183938 -0.186849 0.136994 0.934868 -0.136235 -0.327815
-0.00806416 0.394173 0.0467008 -0.909588 -0.23134 0.345153
-0.0357279 0.114294 0.232624 1 0 0
0.0264419 -0.171114 0.375917 0.555541 0.559172 0.615387
0.00904866 0.302118 0.360378 0.909588 -0.0157101 -0.415215
-0.0141456 0.132673 0.407994 -0.0600095 -0.204971 -0.976927
-0.0176918 -0.21741 0.522077 -0.00453726 -0.195735 -0.980646
0.00105143 -0.258396 0.238176 0.238925 -0.706729 0.66592
-0.00764619 0.193925 0.338263 -0.797047 -0.34406 0.496326
0.0147215 0.133495 0.387795 0.107014 0.404655 0.908186
0.0100708 0.458287 0.255196 0.969494 -0.225569 -0.0959174
-0.00575994 0.111006 0.350494 0 -0.156464 -0.987684
-0.0401956 0.296252 0.20551 1 0 0
-0.00281835 -0.141016 0.090277 -0.329943 0.796699 -0.506368
0.000982207 0.261683 0.140081 0 -0.836995 0.54721
0.000699955 -0.289228 0.198829 0 -0.480604 0.876938
0.0103889 0.0108399 0.412302 0.865798 0.133221 0.482334
-0.00452345 0.0556971 0.402365 -0.341598 0.364455 0.866304
-0.0040907 0.117294 0.402958 -0.0887655 -0.241406 -0.966356
0.00173361 -0.304269 0.139049 0.464435 0.8783 -0.113532
-0.0187511 -0.294796 0.202811 0.00760699 0.462787 0.886437
-0.00803256 -0.157441 0.286015 -0.797044 -0.49431 -0.346956
0.039841 0.189479 0.483921 0.686909 0.0137928 0.726612
-0.0330503 -0.300547 0.188954 0.91352 0.402101 -0.0616131
0.00634073 -0.119973 0.237184 0.50285 0.835672 0.220895
0.0208747 0.0981197 0.478462 0.680576 -0.266384 0.682537
-0.00467257 -0.192405 0.314162 -0.870973 -0.320798 -0.372148
0.00179443 0.100901 0.458846 0 0.0919828 -0.995761
-0.00675462 0.457093 0.132403 -0.90959 -0.390068 0.143152
0.00283475 0.219565 0.185733 0.934897 0.000660358 -0.354919
-0.00847616 -0.261333 0.362442 -0.755744 0.135791 0.640634
-0.00476913 0.284362 0.178542 -1 0 0
-0.000487662 -0.277785 0.165653 -0.464046 -0.589986 -0.66074
0.0016262 -0.474498 0.117755 0.0490276 -0.928907 -0.367053
0.045294 0.0883416 0.232114 -0.669173 0.636956 -0.382746
0.00246756 0.246481 0.340367 0.779593 0.208363 -0.590609
0.00633535 -0.409623 0.340841 0.503892 -0.496358 0.70691
-0.00570454 -0.179093 0.330798 -0.584013 0.5372 0.608559
0.0262049 0.149766 0.487613 0.326587 -0.127896 0.936474
0.00847769 0.340751 0.369335 0.661068 0.162813 0.732449
0.00195104 0.392615 0.0687835 0.826028 0.451025 0.338017
0.00424359 -0.447082 0.120381 0.871043 0.448584 0.200142
0.00204044 0.401608 0.194549 0.663381 -0.0151376 0.748128
0.00846139 0.15136 0.27242 0.660711 0.646642 -0.381202
-0.00495387 -0.232894 0.441822 -0.532295 0.806454 -0.257477
0.00310455 0.154156 0.441833 0.0811982 -0.248377 -0.965254
-0.0229726 0.086031 0.214417 0.194858 -0.310444 -0.930406
0.0445531 -0.307143 0.191111 1 0 0
-0.000908322 0.123187 0.251286 -0.145292 -0.933991 0.326422
-0.0348088 0.281273 0.183505 1 0 0
-0.00229985 -0.39734 0.0284514 -0.239263 -0.48828 -0.839247
0.0110271 0.126952 0.208706 0.905361 0.422493 -0.0426706
0.0117224 0.147485 0.0986853 0.993922 0.0951161 0.0554276
-0.000552319 -0.331958 0.374998 -0.145461 -0.177194 0.973367
-0.0180095 0.161528 0.198231 0.98078 -0.0382603 -0.191328
-0.00774394 -0.464993 0.141855 -0.90953 0.397834 0.120346
0.00136723 -0.410462 0.289546 0.661296 -0.516456 -0.544023
0.115612 -0.196902 0.529462 -0.142724 0.983732 -0.109097
0.00357145 0.3164 0.217624 0.992606 0.107135 -0.0570528
0.0111762 -0.127997 0.149715 0.993908 -0.107726 0.0232847
0.0201734 -0.246732 0.454379 0 -0.244584 0.969628
0.0111401 0.238566 0.351927 0.945843 0.117582 -0.302583
0.0110333 0.279937 0.0148428 0.905345 0.0426671 0.422528
-0.00917879 -0.182547 0.060875 -0.905324 -0.283148 0.316568
0.0267097 -0.228944 0.434958 0.55528 0.631537 0.541132
0.00488201 -0.245394 0.415662 0.610329 0.425596 -0.668106
-0.00331926 0.157595 0.456337 -0.119273 0.524335 0.843117
-0.0068704 0.269549 0.0193601 -0.731772 0.121474 0.670636
-0.00973246 -0.193641 0.0436336 -0.975314 0.133833 -0.175647
0.00160476 0.259459 0.190381 0.240887 -0.0481368 0.969359
0.00225702 0.161344 0.315153 0.144402 -0.738 0.659169
-0.000513296 0.294171 0.230229 -0.66327 -0.748227 -0.0151083
0.0094975 -0.472513 0.173334 0.796905 0.601009 0.0610702
-0.0130673 0.0829634 0.471977 -0.916338 -0.344985 0.203249
0.00489916 0.459034 0.209633 0.870991 -0.485735 -0.0737343
-0.000677561 0.345552 0.261256 -0.99262 -0.0932318 0.0775443
0.00337523 -0.430246 0.0947107 0.779597 0.514125 0.357637
0.00813921 -0.241329 0.466174 0.70714 -0.673551 0.215132
-0.00856656 -0.35818 0.363424 -0.855312 -0.171322 0.488968
-0.00625844 -0.129769 0.184526 -0.583729 -0.811839 0.0133208
0.0339595 -0.27952 0.303816 0.104699 0.982548 -0.153747
-0.00931283 0.12738 0.154513 -0.975639 0.216058 0.0380424
0.00338489 -0.165837 0.27732 0.779614 -0.514024 -0.357745
0.000205527 -0.128341 0.430921 0 -0.172951 -0.98493
-0.00255092 -0.154011 0.257004 -0.871015 -0.448657 -0.200099
0.00583812 0.21741 0.33325 0.871014 0.24736 -0.424439
-0.0135725 0.141248 0.443732 -0.0419402 -0.20794 -0.977242
0.0016391 0.225287 0.0800937 0.464778 0.728001 -0.50398
-0.000620437 -0.279006 0.240638 -0.46544 -0.799739 0.379187
-0.00616259 -0.219192 0.536154 -0.00554851 -0.555539 0.831472
0.00985399 0.388255 0.0422059 0.969499 -0.123427 0.211747
0.0100141 0.142575 0.438563 0.0237446 -0.403302 -0.914759
0.0239253 -0.306451 0.202359 0.00724292 -0.536274 0.844013
0.0532984 0.292724 0.180149 0.555449 -0.0259249 -0.831146
0.0025369 -0.373632 0.174872 0.992621 -0.0360524 0.115772
0.0080251 0.120305 0.460494 0 0.0756357 -0.997136
-0.000799622 -0.375631 0.1458 -0.822825 0.268082 -0.50109
-0.00188192 0.115544 0.155002 -0.239127 -0.956305 -0.168225
0.0106241 0.371909 0.349504 0.755439 0.264075 0.599648
0.00119043 0.165712 0.102654 0.779653 0.52017 0.34866
0.0117797 0.16322 0.0741649 0.999999 -0.000765798 -0.000625375
0.0150849 0.0675323 0.457728 0.895009 -0.126042 -0.427869
-0.00744679 -0.166346 0.0838226 -0.909584 -0.331136 0.251011
0.0025957 -0.314288 0.162742 0.823214 -0.521385 0.224668
0.00216749 0.408299 0.319418 -0.712227 0.467501 0.523617
0.007605 -0.224302 0.35891 0.660876 0.298534 0.688564
0.00824794 -0.248695 0.435404 0.885276 -0.0852792 0.45718
0.0291808 -0.104862 0.319055 0.83147 0.319618 0.454425
0.00177122 0.0934228 0.231572 0 0.809029 0.587768
-0.0330362 0.103832 0.220004 1 0 0
0.0286028 -0.0265899 0.264327 0.831433 -0.260658 -0.490689
0.0114313 0.327956 0.0147106 0.945822 -0.0562796 0.319772
0.00416918 0.148466 0.126742 0.871006 0.452109 0.192214
-0.0399905 0.0647335 0.255446 -1 0 0
0.00457915 -0.438112 0.276126 0.870977 0.409336 -0.271742
0.0100462 -0.170122 0.0732563 0.969492 -0.185657 0.160051
0.000701323 0.407362 0.114163 -0.240179 -0.531056 -0.812585
0.00967096 -0.075171 0.430012 0.984654 -0.0584808 -0.164428
-0.00467986 0.188264 0.03916 -0.503355 -0.523241 -0.687643
0.0116908 0.301047 0.0113194 0.993918 -0.00188958 0.11011
0.00243931 -0.365354 0.348065 -0.712151 -0.285941 0.641155
-0.000164104 -0.345887 0.166176 -0.239066 -0.488247 0.839322
0.0117804 0.447555 0.288184 0.999999 0.00081241 0.000563364
0.00732577 0.0632956 0.23914 0.195081 -0.95581 0.219931
-0.00876797 -0.221459 0.507608 -0.993713 -0.106653 0.0340511
-0.00726187 0.102255 0.481586 0 -0.20399 0.978973
0.00498366 -0.181132 0.077737 0.871026 -0.351192 0.34348
0.00122589 0.0285847 0.389118 0 -0.348043 -0.937478
0.00271997 0.248429 0.149333 0.822703 0.340989 -0.454848
-0.0108925 0.0840381 0.37373 -0.865946 -0.213609 -0.452227
0.00307593 0.247118 0.171894 0.823336 0.164591 -0.543164
-0.00458477 -0.310567 0.00273217 -0.50338 -0.0480811 -0.862726
0.0291124 0.0731431 0.234414 0.375406 -0.62017 0.68881
0.033179 -0.283928 0.274618 0.104413 0.983061 -0.150632
-0.00566785 -0.114339 0.198747 -0.583925 0.810236 0.0504838
0.0162236 -0.226483 0.440412 0 0.684069 -0.729417
-0.00556799 -0.293804 0.0229679 -0.871008 -0.0208755 0.490826
0.130099 -0.213686 0.531494 0.226144 -0.949574 0.217183
0.000333311 0.441746 0.312677 -0.0470012 0.748294 0.6617
0.00114994 -0.257621 0.216078 0.240918 -0.466199 0.851245
-0.00256977 0.124207 0.42506 0.122171 0.236081 0.964023
-0.00953619 0.342911 0.014892 -0.999999 0.000247254 -0.000957412
0.0455312 -0.209161 0.522873 -0.0350405 0.554514 -0.831436
0.00876624 -0.216222 0.498043 0.707333 0.673371 -0.215061
0.00235921 0.223401 0.0165922 0.144968 -0.398749 -0.905529
-0.00087219 -0.469587 0.214309 0.712223 -0.694473 0.102204
0.0117799 0.202981 0.0389614 0.999999 -0.000535198 -0.000831517
-0.00894633 0.45681 0.096137 -0.945499 0.280518 -0.165354
-0.0347112 0.129561 0.234217 0 0.986544 0.163498
-0.00514673 0.408351 0.065663 -0.871075 -0.322387 0.370534
0.0233455 0.0872682 0.224588 0 0.906254 -0.422733
-0.00869591 -0.427312 0.0702264 -0.969476 0.182115 0.164165
0.0027491 -0.250687 0.183008 0.934897 -0.0282419 -0.353793
0.0115496 0.346265 0.0181191 0.975648 -0.054854 0.212371
0.000104735 -0.170334 0.449338 0 -0.00636062 0.99998
0.0239425 -0.0880621 0.298029 -0.19523 -0.53038 -0.824974
-0.00802102 0.46953 0.19931 -0.909546 -0.414002 -0.0364584
0.00867322 -0.116253 0.174465 0.731806 0.678441 -0.0646443
-0.00674427 -0.228109 0.342324 -0.909623 -0.1845 -0.372218
-0.0219696 -0.0582807 0.291961 0.195022 0.513165 0.83584
-0.0015832 -0.369367 0.333828 -0.779595 0.255076 -0.571986
0.00908107 -0.353933 0.353223 0.797368 0.177077 -0.57693
0.0062625 0.30068 0.210054 1 0 0
-0.00368394 -0.278302 0.00331333 -0.418522 0.0919242 -0.903542
0.00614671 0.0593843 0.378531 0.642852 -0.299172 -0.70515
-0.0270429 0.295112 0.192346 0.00530139 -0.382565 0.923913
-0.0183284 -0.0375383 0.27675 0.8314 0.270829 0.485207
-0.00906387 -0.439543 0.296445 -0.96951 0.195266 -0.148062
0.00311841 0.11559 0.383286 0.41222 -0.873824 0.257887
0.0250462 0.190681 0.490025 0.0936252 0.0233345 0.995334
0.00403279 -0.158491 0.111882 0.871026 -0.425571 0.245361
0.00905299 -0.316339 0.00577154 0.797111 -0.0572388 -0.601114
0.0257269 0.231215 0.18362 0.194792 -0.111853 -0.974446
0.000685934 0.201378 0.310456 -0.464098 -0.704587 -0.536815
0.0219112 0.186177 0.190244 -0.555828 -0.146098 -0.818359
0.0062625 0.283145 0.191431 1 0 0
0.0203893 -0.0461378 0.274253 -0.555287 -0.4053 -0.726215
0.0290698 0.215111 0.472799 0.0857816 0.981864 -0.169069
-0.0201764 -0.136386 0.333961 0.555406 -0.519836 -0.649072
0.000213941 0.455104 0.199238 -0.779634 -0.623838 -0.0547537
-0.00359265 0.454194 0.235577 -0.870963 -0.472709 -0.134049
0.141722 -0.233259 0.523246 0.0522449 0.206077 -0.97714
0.0255549 -0.286256 0.190571 0.000365722 0.999094 0.0425512
-0.00735142 -0.2349 0.0320341 -0.909601 -0.169224 0.37946
0.00298888 -0.300076 0.180201 0.822973 0.562805 -0.0772412
-0.00673889 0.398713 0.031614 -0.731307 0.36638 -0.575288
-0.00828794 -0.453586 0.268817 -0.909623 0.372185 -0.184563
0.0093503 -0.271207 0.359108 0.909606 -0.0604186 -0.411055
0.0516793 0.102747 0.25837 0.978132 0.178269 -0.107138
-0.0330362 0.074945 0.210783 1 0 0
0.0104114 0.130333 0.222493 0.855348 0.509751 -0.0923781
0.00341802 0.1778 0.313231 -0.712351 -0.493083 0.499425
0.00717533 0.1412 0.416368 -0.0725945 0.373665 0.924719
-0.00476913 0.316863 0.189668 -1 0 0
-0.0100446 -0.376632 0.0285963 -0.999999 -0.000428052 -0.000889729
-4.55655e-05 -0.248133 0.167797 -0.237802 0.414977 0.878205
0.00434995 0.309746 0.162927 0.395216 0.538096 -0.744484
-0.00617615 0.30736 0.373716 -0.661628 0.0167029 0.749647
-0.011306 0.128895 0.486151 0 -0.128939 0.991652
-0.0284522 0.212077 0.192526 -0.980769 0.0262767 0.193396
0.00988982 0.11843 0.161827 0.796967 -0.598532 -0.0812674
-0.0181454 -0.295411 0.18152 -1 0 0
-0.0313423 0.215561 0.477611 -0.0858875 0.993591 0.0734898
0.00316455 -0.415706 0.312528 0.236482 0.675525 -0.698385
0.0115684 0.136013 0.114422 0.975287 -0.202644 -0.0880406
0.0450501 0.115828 0.28548 -0.913519 -0.348686 0.209524
-0.00887512 -0.164136 0.298838 -0.969483 -0.192029 -0.152407
-0.0202387 -0.110827 0.325985 0.555599 0.492308 0.670032
-0.00023834 -0.328838 0.186105 -0.238035 -0.204683 0.949444
-0.000370175 0.32725 0.236733 -0.662613 -0.61474 0.427831
-0.00393152 0.432349 0.055663 -0.41735 0.628162 -0.656682
-0.00696116 0.152533 0.488743 0 -0.0907882 0.99587
-0.0021134 -0.444489 0.0949029 0.712187 -0.576136 -0.401069
0.000399416 0.271261 0.15453 -0.239327 -0.812757 0.531176
0.00857581 0.200492 0.327383 0.66036 0.427803 -0.617179
-0.00338552 -0.149723 0.128025 -0.871022 -0.452981 0.190077
-0.00334293 0.469116 0.174023 -0.415684 -0.90491 0.0913515
0.0117804 0.289305 0.365779 0.999999 -6.14041e-05 0.00108653
-0.0341559 -0.237174 0.439492 -0.962961 0.151568 -0.223009
-0.0975115 -0.223295 0.525365 -0.704516 -0.0948196 -0.703325
0.0271361 -0.217329 0.407959 0.555482 -0.608425 -0.566797
0.00739627 0.444213 0.0921712 -0.529328 0.698647 -0.481356
-0.0190793 -0.308762 0.20126 0.00724293 -0.536274 0.844013
-0.00384315 -0.314657 0.0265142 -0.871012 0.0408092 0.489564
-0.00436204 0.213819 0.48402 0 0.837997 0.545675
0.00435597 0.144153 0.137123 0.871 0.46328 0.163491
-0.00332981 0.37048 0.0437484 -0.870999 -0.220244 0.43915
0.00114156 0.225827 0.0354023 -0.712293 -0.28284 -0.642371
0.0023452 0.293066 0.0184491 -0.7123 -0.0265159 -0.701375
-0.00428867 -0.398589 0.0451694 0.71741 -0.385152 -0.5805
-0.00106642 -0.238337 0.203231 -0.823022 -0.100433 0.55906
-0.00145556 -0.211956 0.0424187 0.712367 0.363942 -0.600066
-0.0350045 0.0459143 0.226177 -1 0 0
-0.00916141 -0.0840359 0.434325 -0.984476 0.00746125 0.175359
-0.00857976 0.108593 0.378537 0 -0.453897 0.891054
-0.00630361 -0.236823 0.477935 -0.706921 -0.673764 0.215187
0.00460478 0.183419 0.490083 0 -0.0147092 0.999892
-0.00671032 -0.337508 0.354351 -0.909599 0.0951281 -0.40445
0.139476 -0.193206 0.532435 -0.390988 0.91209 0.123367
-0.0154806 0.164552 0.46276 0 0.0271087 -0.999632
-0.0101429 -0.250443 0.413944 -0.13331 0.942121 -0.307631
-0.00995377 -0.303389 0.366376 -0.993908 0.00252444 -0.110185
-0.00897262 -0.41258 0.32403 -0.969473 0.152421 -0.192068
0.00265909 0.384669 0.336866 -0.712324 0.36108 0.601843
0.00470543 0.332502 0.00341341 0.330123 0.163636 -0.929646
0.0324253 -0.2777 0.352388 0.796614 -0.547998 0.255157
-0.00554501 0.421663 0.300906 -0.909571 -0.313462 -0.272803
-0.00199177 -0.31428 0.17466 -0.992647 -0.0970583 0.0723263
0.00992032 0.37629 0.0352212 0.969483 -0.109907 0.219141
-0.0041719 0.422278 0.0465557 -0.505037 0.571546 -0.64674
-0.0252927 -0.28011 0.316918 0.911869 0.39185 -0.122267
0.0117742 0.436214 0.071869 0.993681 0.0865798 -0.0714224
0.00706013 -0.0590623 0.434439 0.642085 0.121916 0.756877
-0.00991339 0.0704641 0.280413 -0.00772713 0.371205 -0.928519
0.00311712 0.210127 0.0551447 0.779644 0.355261 0.515699
0.00712006 0.140502 0.246111 0.871014 0.461152 -0.169331
-0.0330362 0.0699397 0.197173 1 0 0
0.0371163 0.186682 0.466987 0.486238 -0.0445493 -0.87269
0.00847281 -0.22921 0.503028 0.707141 -0.673564 0.215089
-0.00596757 0.06868 0.2508 -0.221261 0.330267 -0.917588
-0.0348088 0.306541 0.205222 1 0 0
0.000617468 -0.236989 0.180045 0 -0.101973 -0.994787
-0.0103347 0.0927043 0.458375 -0.184074 0.0619233 -0.98096
0.00858898 0.345221 0.352558 0.909616 -0.118457 -0.398205
0.00253591 0.128089 0.486046 0 -0.128939 0.991652
0.0106622 0.121387 0.180558 0.969485 0.245073 0.00612403
-0.000781617 0.356301 0.210065 -0.934815 0.133643 -0.329029
0.00679552 0.0692454 0.265596 0.0490862 0.095994 -0.994171
0.00561915 -0.131129 0.445068 0.642358 0.0764397 0.762583
-0.0420793 -0.29848 0.202106 -0.978149 0.205508 -0.0314896
0.0275599 -0.29786 0.175213 -0.00858682 0.0424207 -0.999063
-0.0601645 -0.208192 0.522799 0.0461137 0.553754 -0.831403
0.00856188 -0.156607 0.0732484 0.731861 0.528197 -0.430567
0.00170867 -0.207176 0.332279 -0.71224 0.388068 0.584908
0.0268148 -0.192476 0.395899 0.555853 0.58414 0.591445
-0.0330362 0.107647 0.201596 1 0 0
-0.00678101 -0.40101 0.327955 -0.660313 0.431384 -0.614731
0.00752304 0.254887 0.0271581 0.909604 0.0932141 0.404885
0.00191814 -0.406696 0.129347 0.992597 0.0482457 -0.111461
0.0284022 0.0745464 0.220263 0.831365 -0.175921 -0.527148
-0.0221181 -0.0930132 0.314318 0.195096 0.547458 0.813774
-0.00115885 0.261786 0.213992 -0.99265 0.0568554 0.106837
0.00584056 0.101574 0.322675 0.995088 -0.095689 0.0253504
0.00163854 -0.141984 0.194197 0.779652 -0.625647 -0.0266155
-0.00472503 -0.191382 0.0526436 0.71748 0.433018 -0.545635
0.00120423 0.479654 0.246109 0.0504424 0.944434 0.324808
-0.00724469 0.217361 0.0386786 -0.909598 0.190978 0.368998
-0.0330594 0.124655 0.211713 0 0.955676 -0.294419
0.0100698 0.250246 0.011605 0.797168 -0.153885 -0.583817
0.00212222 0.242173 0.0277543 -0.712315 -0.241934 -0.658843
-0.0330362 0.0542408 0.206138 1 0 0
-0.0375063 0.0933879 0.256273 -1 0 0
-0.0330362 0.116489 0.203606 1 0 0
0.0080831 -0.0211826 0.40986 0.642581 -0.236823 -0.7287
0.00184782 0.0581697 0.293287 0.258702 -0.936967 -0.234877
-0.00130165 -0.0475544 0.41363 0 -0.261556 -0.965188
-0.00704732 -0.143582 0.443316 -0.86434 0.00620711 0.50287
-0.00182162 0.285289 0.216214 0 -0.230956 0.972964
-0.105651 -0.206693 0.541689 -0.662328 0.232265 0.712302
-0.00232629 -0.0494935 0.435073 -0.341591 0.208578 0.916412
0.00307803 0.353355 0.232896 0.992639 0.0841009 -0.0871528
0.00474781 -0.246616 0.454408 0 -0.244584 0.969628
0.0259891 0.11036 0.477213 0.904353 -0.242946 0.350889
0.00345336 0.212107 0.466818 0 0.793553 -0.608501
0.00892952 -0.484724 0.180724 0.731977 -0.680019 -0.0422368
-0.109067 0.0437333 0.150897 0 0.890935 -0.454131
-0.000998223 -0.136143 0.281192 -0.145088 0.871116 0.469155
-0.000201281 -0.112535 0.428145 0 -0.172951 -0.98493
-0.00107444 -0.197162 0.322551 -0.145245 -0.594617 -0.790781
-0.0350045 0.0832565 0.230169 -1 0 0
-0.135011 -0.19235 0.531355 -0.407068 0.903433 0.13455
0.00792902 -0.215099 0.0348064 -0.529199 0.393563 -0.751702
-0.0276457 0.0937467 0.227712 -0.375518 0.906566 0.192677
0.00307656 -0.272109 0.1768 0.992627 0.0613995 0.104509
-0.00106671 -0.130667 0.211921 0.712392 0.697892 0.0737883
0.030243 -0.221577 0.526411 0.0303876 -0.830953 -0.555512
-0.00125426 0.426928 0.327416 -0.239625 0.646769 0.724065
-0.0361303 0.269688 0.19839 -1 0 0
-0.00553237 0.257383 0.0180716 0.529109 -0.190385 -0.826921
-0.149011 -0.20758 0.526103 -0.0822946 -0.915848 -0.393001
-0.010818 0.00629211 0.412575 -0.984606 0.0376238 0.17069
-0.0433335 0.179095 0.479145 -0.97052 -0.178571 0.161875
0.0199928 0.0813837 0.469968 0.937122 -0.267387 0.224292
-0.038632 0.313214 0.168949 -1 0 0
0.00559235 0.47168 0.185123 -0.717624 0.695931 -0.0263876
0.00798764 -0.426114 0.0653411 -0.529278 -0.593231 -0.606582
0.000248757 0.318552 0.0206369 0.712309 0.105384 -0.693909
-0.00901881 0.386283 0.341524 -0.969474 -0.126156 -0.210252
0.00151589 -0.483774 0.14677 0.049762 -0.974786 -0.217521
0.00343541 0.126593 0.371311 0 0.890924 0.454153
-0.0471499 0.0522773 0.175999 0.913547 -0.355737 0.19719
0.010945 -0.257972 0.365144 0.975317 0.0550451 0.213838
-0.000191788 0.202414 0.115472 -0.934899 -0.22865 0.271446
-0.0176842 -0.215177 0.412463 0.980743 0.142907 0.133116
-0.0300503 0.210185 0.465642 -0.0888111 0.616997 -0.781938
-0.0152308 0.0735791 0.244727 -0.159761 0.305511 -0.93869
-0.00110158 -0.143017 0.21436 -0.779637 -0.617399 -0.104811
0.00663617 0.226471 0.359844 0.503596 -0.344265 0.792384
0.0307234 -0.28426 0.329061 -0.309893 -0.936464 0.16432
-0.00256376 0.1137 0.206739 -0.330868 -0.938891 0.0949257
-0.00932266 -0.170237 0.316433 -0.904989 0.305733 0.295841
2.26593e-05 0.331548 0.311931 -0.822756 -0.54316 0.167481
-0.00500487 -0.125709 0.255382 -0.503152 0.803716 0.317616
-0.000242817 0.359637 0.0305683 0.712299 0.274626 -0.645919
0.0223915 -0.155875 0.362495 -0.195097 0.644347 0.739428
0.00623421 0.129963 0.412819 0.968952 0.236222 -0.0730106
-0.0125983 0.143771 0.428275 -0.448521 0.182858 -0.874867
0.00304424 0.295363 0.349418 0.779632 0.015721 -0.62604
0.099326 0.108291 0.297142 0 0.997567 -0.0697171
0.00349938 0.309169 0.183075 0.822788 0.327141 0.464756
0.00284669 -0.264238 0.156668 0.992594 0.0908725 0.0806242
-0.00116981 -0.132854 0.171954 -0.144524 -0.985042 0.0938342
-0.00944458 -0.271936 0.194389 0 0.97162 0.236547
-0.00298285 -0.145463 0.266721 0.717519 0.617075 0.323086
0.00301219 0.337369 0.0224134 -0.7123 0.14874 -0.685933
0.0117799 0.128503 0.140926 0.999999 -0.000957861 -0.000247363
0.0017748 0.4146 0.282349 0.665385 -0.450864 0.594966
0.000360242 0.166681 0.0860629 -0.0483804 0.797859 0.6009
-0.0112325 -0.257678 0.44241 0 -0.856656 -0.515888
-0.0264768 0.19902 0.197505 -0.555532 0.129065 0.821418
-0.00106328 -0.431663 0.299355 0.712136 -0.531673 0.458461
-0.00802757 -0.477421 0.176515 0.528867 -0.847935 -0.0361512
-0.00853782 -0.278618 0.361521 -0.969491 -0.0356629 -0.242521
-0.0060383 -0.312123 0.356643 -0.909613 0.0176615 -0.415082
0.00660209 -0.187213 0.0624983 0.503079 -0.576193 0.644138
0.00971666 -0.308993 0.0163251 0.969485 0.00498557 0.2451
0.0115122 0.146896 0.453985 0.0139256 0.396195 0.918061
0.0188314 0.0180264 0.245916 -0.980777 -0.0806254 -0.177694
0.00206489 -0.224131 0.272145 0.992647 0.0970652 -0.0723145
-0.01337 0.195112 0.463114 0 -0.0052918 -0.999986
0.0219883 -0.102547 0.308411 -0.555524 -0.478317 -0.680152
-0.0207863 0.0639748 0.222597 0.555581 -0.279507 -0.783075
0.00929653 -0.444272 0.304205 0.79747 -0.467629 0.381267
0.00261253 -0.115833 0.225649 0.144709 0.973497 0.177097
-0.00818673 0.299179 0.0148134 -0.855372 0.0114605 0.517888
0.00709989 0.160706 0.284991 0.871033 0.404533 -0.278667
-0.00254719 -0.461652 0.239384 -0.32608 0.90563 -0.271121
-0.00951498 0.186339 0.326243 -0.993717 -0.0707868 0.0866905
0.00903878 -0.471839 0.192549 0.909616 0.415365 -0.00846721
0.00690867 -0.47789 0.132722 0.584128 -0.775906 -0.238253
-0.0230152 -0.270018 0.382204 -0.470991 -0.802919 0.365362
0.107173 0.14555 0.293642 0 0.189046 -0.981968
-0.0091519 0.432556 0.0725766 -0.945712 -0.242384 0.216514
0.00931126 0.14019 0.280052 0.732127 -0.586834 0.345855
0.022004 -0.310994 0.179516 -0.00460214 -0.844025 -0.536284
1.16437e-05 -0.277673 0.376318 -0.0496992 0.133582 0.989791
0.0259134 0.0426114 0.241559 0.194829 0.367804 0.909265
-0.00533416 0.138115 0.423046 -0.0123707 0.127725 0.991732
0.00189675 0.286868 0.376098 0.0495157 -0.0562001 0.997191
0.00357929 -0.376412 0.0345828 -0.712117 -0.311702 -0.629072
0.011493 0.469929 0.250654 0.975322 0.205805 0.0799401
0.0112017 0.176075 0.320533 0.945301 -0.225483 0.235719
-0.00850264 0.0862895 0.229277 0 0.681907 0.731439
0.00926112 0.251815 0.366498 0.731793 -0.17058 0.659834
0.00269276 0.0686624 0.455207 0 0.124772 -0.992186
-0.000106556 -0.217923 0.482153 -0.111546 0.94665 -0.302343
-0.140695 -0.237636 0.526 0.277547 -0.796137 -0.537712
-0.00792606 0.466531 0.139709 -0.855707 -0.494799 0.151455
0.0384491 0.0765601 0.22659 0 -0.974357 0.22501
0.0316143 -0.251412 0.451633 0.275219 -0.502126 0.819832
0.00486069 0.116196 0.394471 -0.127409 -0.297526 -0.946174
0.0201212 -0.234101 0.453815 0 0.379906 0.925025
-0.00331563 0.132503 0.461053 0.018412 0.139794 0.990009
0.00334357 -0.328345 0.197657 0 -0.988187 0.153255
-0.00200211 0.137993 0.210836 -0.779613 0.617909 -0.101943
-0.0017223 0.409647 0.0354059 -0.237737 0.553407 -0.798262
0.0188487 0.133326 0.206938 -0.980824 0.0461319 0.189356
0.0320543 0.176392 0.488315 0.302586 -0.0424335 0.952177
0.00150911 -0.165702 0.265085 0.934921 0.185055 -0.302781
-0.0181454 -0.303747 0.170729 -1 0 0
-0.00849851 0.314139 0.362727 -0.96948 -0.0246218 -0.243933
0.00232697 0.336039 0.0864144 0.82248 0.538262 0.18385
-0.00870294 0.0835439 0.387481 -0.642388 0.338565 0.68754
-0.00897371 0.450437 0.277413 -0.75559 0.565977 0.32978
-0.00404508 -0.470633 0.152128 0.717368 -0.678216 -0.159395
-0.00811115 0.1405 0.106201 -0.755473 -0.585635 -0.293756
-0.00453486 0.466915 0.222199 -0.500743 -0.845915 -0.183533
0.00973781 -0.286305 0.372312 0.855163 0.049197 0.516019
-0.0379652 0.322229 0.188605 0 0.999198 -0.0400509
0.00348447 -0.460769 0.0914492 0.236578 -0.836641 -0.494026
0.00211681 -0.289338 0.290612 0.935067 -0.350515 0.0527998
0.025841 0.134067 0.463171 0.602645 -0.0503586 -0.796419
0.102707 -0.215751 0.53028 0.133337 -0.9717 0.194988
0.00175592 -0.175371 0.132039 0.992633 -0.0388403 -0.114769
-0.010994 0.0302947 0.4045 -0.984788 0.0520927 0.165768
-0.0179484 0.179194 0.490021 0 -0.0147092 0.999892
-0.000134961 -0.135483 0.155669 -0.0493198 -0.976269 0.210872
0.00722609 -0.132375 0.242169 -0.529146 0.812162 0.245759
-0.00558556 0.27783 0.00366717 -0.584328 -0.113182 -0.803586
-0.00834052 0.270543 0.364661 -0.75571 -0.0983481 0.647479
0.00126614 0.26688 0.0879838 0 -0.965097 0.261891
-0.0348088 0.286502 0.201265 1 0 0
-0.000750423 -0.333836 0.119545 -0.662635 -0.68621 0.300052
-0.00115168 -0.138399 0.133925 0.712293 0.662982 -0.230423
0.0198565 -0.269578 0.374571 -0.896112 -0.43517 -0.0872365
0.0103309 -0.452744 0.289704 0.904669 -0.359598 0.22861
-0.00953689 0.465703 0.254055 -0.999999 0.000951229 0.000369737
0.00382032 -0.323621 0.0297884 0.87101 0.0714687 0.48604
-0.00293103 -0.242645 0.436662 -0.766202 0.634878 0.0993235
-0.0357279 0.062187 0.24161 1 0 0
0.0668409 0.121762 0.300527 -1 0 0
-0.0094389 -0.35909 0.0175911 -0.945362 -0.105824 -0.308369
-0.0227838 -0.201122 0.390041 0.194833 -0.689231 -0.697855
-0.00151845 0.432123 0.102755 -0.779473 -0.537231 0.322187
0.000197264 -0.401697 0.28094 -0.238153 -0.66591 -0.706999
0.00491934 0.106803 0.3825 -0.0282429 -0.397853 -0.917014
-0.0180121 -0.00636208 0.25957 0.980762 0.0843387 0.176045
0.00779662 0.118918 0.147561 0.584171 -0.793195 -0.172004
0.0728139 -0.205149 0.524382 -0.0800102 0.827748 -0.555366
0.00859767 0.108028 0.482789 0 -0.20399 0.978973
0.00997077 -0.00626882 0.408032 0.866186 -0.15888 -0.473793
-0.0260248 -0.28177 0.339654 0.310927 -0.934803 0.17166
0.0167862 0.103315 0.369157 0.78952 -0.546663 0.278959
0.0107839 0.114703 0.350393 0.129252 0.155151 -0.979399
-0.038469 0.0970857 0.198426 1 0 0
-0.00213904 0.486674 0.212276 -0.32918 0.935672 0.127118
-0.00476913 0.286146 0.202138 -1 0 0
-0.0172548 -0.324728 0.195986 -0.921209 -0.384474 0.0596174
0.0229445 -0.259441 0.39359 0.791566 0.610113 0.0344326
0.0294722 0.205786 0.193717 0.980769 0.0262805 0.193396
0.00229209 -0.462652 0.134549 -0.712237 -0.657718 -0.245203
-0.00784505 0.354886 0.01293 -0.797018 0.173907 -0.578376
0.0103319 -0.179044 0.316445 0.969494 -0.171389 -0.175235
0.0214533 -0.125701 0.337243 -0.55563 0.506158 0.659606
-0.00771569 0.471158 0.161721 -0.797214 -0.59781 0.0841025
0.00236864 0.0486474 0.371247 0.258846 0.936926 0.234878
0.00214094 0.462932 0.232387 0.0469606 -0.967251 -0.249441
0.00620102 -0.387046 0.335528 0.502536 0.439437 -0.744549
-0.0330362 0.0639738 0.184479 1 0 0
-0.0316857 -0.291221 0.287197 -0.500409 -0.855801 0.131132
-0.000638697 -0.342187 0.0956864 -0.822677 0.511794 -0.247524
-0.0013915 0.320016 0.0310522 -0.779606 -0.0940302 0.619172
0.0322165 -0.251107 0.437559 0.665359 -0.444016 -0.600122
-0.0872287 -0.217499 0.528222 -0.113857 -0.974099 -0.195365
0.00829944 -0.123955 0.200745 -0.529092 0.847799 0.0360408
0.000281959 -0.31506 0.346397 -0.779579 0.0658515 -0.622833
-0.0149645 0.103705 0.460316 -0.448051 -0.0354426 -0.893305
0.000281241 0.183025 0.0805071 -0.779652 0.445639 0.439942
-0.0053062 0.0207856 0.414863 -0.341452 0.313548 0.886058
-0.00105905 0.459514 0.243964 -0.236649 -0.918653 -0.316343
0.000779923 -0.383337 0.263562 0 -0.685416 -0.728152
0.0288121 0.246379 0.187355 -0.75344 0.62122 -0.215438
-0.00399527 -0.281803 0.352248 -0.871023 -0.0408311 -0.489542
0.136218 -0.204055 0.538901 0.0715411 -0.156662 0.985058
0.00541963 -0.334191 0.0287869 0.871013 0.101842 0.480588
0.0106348 -0.121204 0.159663 0.945494 0.320752 -0.0562034
0.000869378 -0.190505 0.213143 0.238172 -0.180344 0.954332
-0.00543476 0.0406812 0.376849 -0.965942 -0.250993 -0.0629214
-0.00725368 0.122008 0.16508 0.529085 -0.838946 -0.127431
-0.00882164 0.443815 0.0928508 -0.969509 -0.201785 0.13905
0.120274 0.13276 0.298822 1 0 0
0.0724437 -0.218116 0.533681 0.0801115 -0.827754 0.555343
0.0122885 0.175437 0.463013 0 0.0108454 -0.999941
-0.000580211 0.44101 0.28208 0.712337 0.582967 0.390802
-0.0061938 0.136775 0.452855 0.0731643 0.20365 0.976306
-0.0255467 -0.120535 0.321371 -0.555611 -0.492343 -0.669996
0.00403096 0.0772931 0.235907 0.776235 -0.0569744 -0.627864
-0.00230832 0.182365 0.0675632 -0.329812 0.655986 0.678901
0.00155388 0.14475 0.148013 0.779573 0.602551 0.170872
-0.00281721 -0.196565 0.345842 -0.330199 0.537237 0.776109
-0.00709787 0.173286 0.304176 -0.73197 0.508162 -0.453862
-0.0357535 -0.210757 0.522143 0.0277543 0.554907 -0.831449
0.00893123 0.354979 0.0286876 0.909602 -0.138251 0.391806
-0.0411162 0.306353 0.186088 -1 0 0
0.00584005 0.133316 0.433372 0.901285 -0.416089 0.12065
0.00230136 -0.401414 0.0545991 0.145512 0.594478 0.790836
0.054917 -0.211168 0.537369 -0.0135581 0.194058 0.980896
0.0245542 0.213894 0.185484 0.195355 -0.132017 -0.971807
-0.0016472 -0.229338 0.451526 0 0.512996 0.858391
0.00859067 0.396191 0.0510024 0.909586 -0.231336 0.345162
-0.0433314 0.18789 0.470596 -0.859016 -0.147277 -0.490306
-0.00911378 0.435756 0.308581 -0.945361 0.244264 0.215935
-0.0059219 -0.219009 0.522914 -0.00563968 -0.555539 -0.831472
-0.000106974 -0.286792 0.214908 0 0.519764 0.85431
-0.00226915 -0.303147 0.203685 0.00857344 -0.0425536 0.999057
0.0178279 -0.325117 0.192048 0.921215 -0.384459 0.059615
-0.0330362 0.0706993 0.237451 1 0 0
0.0110715 -0.451624 0.0914085 0.975193 -0.186079 -0.119885
-0.043887 0.0866178 0.223194 0 0.906254 -0.422733
0.00331967 0.212461 0.354533 0.239548 -0.455564 0.857367
-0.00182021 -0.207988 0.448583 -0.338991 -0.0638594 0.93862
0.0202681 0.119047 0.214114 -0.831369 0.14271 0.537084
0.0164868 -0.2071 0.532679 -0.0228556 0.980562 0.194876
0.00424544 0.488044 0.197303 0.238867 0.969515 0.054622
-0.0180956 0.151385 0.204353 0.83148 0.120243 0.542386
-0.00848949 -0.420182 0.314716 -0.96949 0.164127 -0.182076
0.0869853 -0.221506 0.524052 0 -0.225615 -0.974217
-0.0319767 0.192191 0.489516 -0.287625 0.0219865 0.957491
-0.00981937 -0.299982 0.0131184 -0.975657 0.00360036 0.219275
-0.00294217 0.339286 0.357622 0.717481 0.156288 0.678819
0.00575562 -0.147723 0.251456 0.87102 -0.460326 -0.171536
-0.00194121 -0.314888 0.196887 -0.935007 0.136109 0.327468
0.0704821 0.146204 0.29765 0 0.997556 -0.0698703
0.0108146 0.166116 0.29924 0.905217 0.327823 -0.270397
0.000843144 0.301292 0.146274 0 0.999703 0.0243812
-0.00135255 0.125524 0.381967 -0.411726 0.874054 -0.257899
0.00957221 -0.116741 0.189697 0.796648 0.604361 -0.00997573
-0.0236577 -0.0952684 0.302909 -0.195222 -0.547435 -0.813758
0.016323 -0.30068 0.162296 0.601419 -0.12242 -0.789499
-0.034822 0.0466932 0.19522 0 -0.731905 0.681406
0.00624184 -0.354031 0.0327328 0.871029 0.161252 0.464011
0.00737803 0.118825 0.230027 0.583872 -0.792539 0.175997
0.0110126 0.310195 0.370031 0.905208 0.0260754 0.424168
0.0103836 0.181603 0.0581221 0.969495 0.163259 0.18283
0.00465173 0.0748921 0.254874 0.965926 0.251053 0.0629313
0.0171618 -0.313212 0.195617 0.0039706 -0.88651 0.462692
-0.000788548 0.0736577 0.273964 -0.258784 0.936947 0.234865
0.0199091 -0.180431 0.373223 -0.831548 -0.373583 -0.411052
-0.00894544 0.244529 0.357982 -0.755571 -0.178743 0.630209
0.0191202 -0.13939 0.344443 -0.980778 0.121976 0.152305
0.0102426 0.327351 0.369741 0.855562 0.0720965 0.512656
-0.00664763 0.448775 0.265313 -0.909624 -0.371384 -0.186167
0.00259201 0.194013 0.219309 0.935125 0.0850254 0.343966
0.00803426 -0.155964 0.0975689 0.660523 -0.633631 0.402767
-0.00617785 -0.155797 0.0886445 0.529037 0.707109 -0.469166
0.0080595 0.0987978 0.362332 0.642592 -0.329714 -0.691639
-0.0319314 0.151682 0.466497 -0.720814 -0.168735 -0.672276
-0.0534412 0.262262 0.191214 -0.191892 -0.119403 0.974125
0.00260034 0.374182 0.191034 0.82287 0.0332775 -0.567254
0.103613 -0.204853 0.5177 0.0671191 0.174292 -0.982404
-0.00121392 -0.254989 0.354626 0.712264 0.188364 0.676165
0.0266811 0.294711 0.190487 0.00315974 -0.974742 0.223313
0.00682003 0.0180509 0.395488 0.642483 -0.268333 -0.717783
0.0758188 0.106298 0.296289 0 -0.0698224 -0.997559
-0.00159354 -0.281409 0.229316 -0.93497 0.32758 -0.136095
-0.0361303 0.287881 0.189951 -1 0 0
0.0297789 -0.153622 0.353734 0.980813 -0.124994 -0.149608
-0.00334491 0.101923 0.373647 0 -0.707106 0.707108
-0.0325873 0.179613 0.488922 -0.302522 -0.0542026 0.9516
-0.0100439 -0.33255 0.365277 -0.999999 -0.00017693 0.000972479
-0.00866521 -0.133851 0.23951 -0.969485 -0.23464 -0.0710088
-0.00112177 0.0592593 0.331038 -0.258829 0.936935 0.234861
0.00964767 -0.233694 0.349009 0.969485 -0.0948511 -0.226057
-0.0102753 0.0628997 0.258951 -0.124378 0.27922 -0.952138
0.00241744 0.326241 0.167572 0.465249 -0.483297 -0.741598
-0.0203334 -0.158407 0.351824 0.555621 -0.53309 -0.638044
0.0285104 0.0251497 0.239521 0.831408 -0.219013 -0.51068
0.0066974 -0.187265 0.0412475 0.584426 0.491816 -0.645417
-0.0330362 0.0532489 0.24256 1 0 0
0.00919429 -0.203856 0.346252 0.797213 0.323797 0.509517
-0.0399905 0.0746152 0.25634 -1 0 0
-0.000364459 0.0650352 0.277597 0.348323 0.935712 -0.0558088
-0.0261551 -0.0217666 0.270582 -0.555642 0.390025 0.734263
-0.00492431 -0.216441 0.0225876 -0.503254 0.379617 -0.77629
-0.0350045 0.104627 0.239546 -1 0 0
0.00338774 0.413234 0.338764 0.239218 0.587865 0.77278
0.0292134 -0.164865 0.360397 0.831448 -0.365026 -0.418867
-0.0026634 0.04815 0.333406 -0.258845 -0.936933 -0.234853
-0.0100444 -0.33756 0.0151086 -0.999999 -0.00020883 -0.00096669
0.00132335 -0.330765 0.342507 0.8225 0.554885 0.124886
0.00550675 0.429469 0.303082 -0.717569 0.525384 0.457239
-0.0282104 -0.0326236 0.273742 -0.831499 0.260601 0.490608
0.0984942 -0.211954 0.536713 0.0718262 -0.551035 0.831385
-0.00453701 -0.130231 0.229015 0.717488 0.678064 0.159499
0.0201476 0.077425 0.226808 -0.831495 0.175836 0.52697
0.00306765 0.297397 0.188814 0.000151052 0.999322 0.0368265
0.0295937 0.125978 0.207373 0.980772 -0.0501173 -0.188614
0.0170903 0.212788 0.485539 0 0.669017 0.743247
0.0193312 0.0919971 0.233535 0 0.809029 0.587769
5.88758e-05 -0.398838 0.0658712 -0.779555 0.378347 0.499148
-0.000620408 0.155835 0.116932 -0.779621 0.559789 0.28076
-0.00113976 0.320029 0.347517 -0.77952 -0.1019 -0.618033
0.00990687 0.109147 0.459608 0 0.0919828 -0.995761
0.00509021 -0.399549 0.348393 0.418851 -0.492028 0.763199
-0.00898811 -0.361111 0.352533 -0.905227 0.14056 -0.401007
0.0104306 -0.13098 0.231055 0.905258 -0.410752 -0.108581
0.00341862 -0.212705 0.0546708 0.779644 -0.357726 0.513991
-0.00920541 0.13353 0.257858 -0.975321 -0.205403 0.0809857
-0.0023257 0.0108391 0.41932 -0.342512 0.261515 0.902383
0.00667478 0.450798 0.125921 0.871005 -0.449639 0.197928
-0.116892 -0.206969 0.53891 -0.0271547 -0.148675 0.988513
-0.00767171 -0.449911 0.0812307 -0.732932 -0.556899 -0.390736
-0.110813 -0.215183 0.529109 -0.553869 -0.824322 -0.117145
-0.0401956 0.296812 0.185336 1 0 0
0.114815 -0.208312 0.538772 0.0354558 -0.147552 0.988419
-0.000976159 0.194663 0.326533 0.712294 -0.42668 0.557298
-0.00154894 -0.323518 0.139631 -0.992619 -0.114872 0.0388846
0.00255488 0.291808 0.18543 0.465083 -0.741708 0.483287
-0.0255039 -0.293132 0.254137 0.913522 -0.402085 0.0616864
-0.00542936 0.22899 0.341513 -0.871004 0.192227 -0.452108
-0.0334275 0.144938 0.479079 -0.862695 -0.29278 0.412357
-0.0272381 0.203106 0.489769 -0.0936249 0.0228557 0.995345
-0.00854216 0.206002 0.0410106 -0.969479 0.126142 0.210236
-0.00238633 0.0659463 0.308028 0.25108 0.363282 -0.89721
0.000556522 -0.135181 0.0991528 -0.0488198 0.882382 -0.467994
0.0104607 -0.476015 0.203882 0.96946 0.244401 -0.0204141
-0.00291767 0.141861 0.399484 -0.0839339 0.321391 0.94322
-0.00552767 0.0469331 0.300754 0.00928659 -0.381675 0.92425
-0.00153397 0.233717 0.0424622 -0.779608 0.252385 0.573161
-0.0214941 -0.17805 0.382489 0.194855 0.674604 0.711998
0.00168438 0.229357 0.0904325 0.463747 -0.742281 0.483692
0.00677497 -0.477222 0.248478 0.584087 -0.767702 0.263583
0.0471187 0.267332 0.190095 -0.555783 0.043163 0.830206
0.00244703 0.438887 0.116398 0.779664 -0.556096 0.287893
-0.0105555 -0.0168656 0.413012 -0.984766 -0.0639214 -0.161711
0.00915086 -0.358038 0.364432 0.797025 -0.199692 0.569978
-0.0330362 0.0918653 0.206301 1 0 0
0.00987023 -0.467745 0.11487 0.854927 -0.474594 -0.209428
-0.00470024 0.306454 0.167586 -0.999189 0.00930262 -0.0391691
0.00406969 0.0689709 0.373471 0.341849 -0.36677 -0.865228
-0.00323256 -0.483301 0.231201 -0.330252 -0.922577 0.199464
-0.0361303 0.29446 0.221285 -1 0 0
0.0270207 -0.0385466 0.269143 0.555535 -0.405219 -0.72607
-0.038469 0.0630983 0.22034 1 0 0
-0.00769633 0.118555 0.215178 -0.797175 -0.597841 0.0842455
-0.00704111 0.0786159 0.237622 0.132866 0.311199 -0.941011
0.00839382 -0.338436 0.355158 0.909597 0.0951365 -0.404453
-0.00886205 0.126094 0.37223 -0.128779 0.883506 0.450371
-0.0190197 -0.314638 0.189589 -0.000364049 -0.9991 -0.0424224
0.000732661 0.378811 0.324052 -0.779572 -0.322216 -0.53707
-0.00611827 0.342586 0.0274239 -0.909597 -0.113376 0.399723
0.0018152 0.0851746 0.457211 0 0.108155 -0.994134
-0.0130594 0.0593236 0.30573 -0.0869104 -0.331407 0.939476
-0.0491466 0.296364 0.192164 0.000953326 -0.294089 0.955778
-0.00105649 -0.254509 0.024487 0.712313 0.203278 -0.67178
0.0073204 -0.0972126 0.429182 0.86579 -0.121361 -0.485468
-0.0077977 0.377535 0.0215554 -0.797127 0.262159 -0.543931
-0.00141952 -0.00196826 0.40001 0 -0.305135 -0.952309
-0.0979927 -0.21241 0.525555 -0.64226 0.60518 -0.470382
0.00975378 0.457536 0.284311 0.797352 0.50907 0.324156
0.00013286 -0.436163 0.289008 -0.0505187 0.798162 -0.600322
-0.101756 -0.197318 0.536931 0.0463184 0.914237 0.402524
0.0059478 0.146723 0.463241 0.968911 0.236372 -0.0730767
-0.0682385 -0.203703 0.528552 0.0879028 0.976799 -0.195285
-0.00881898 0.399287 0.332181 -0.969467 -0.139098 -0.201954
0.00615202 -0.467547 0.159282 0.504051 0.849722 0.154612
0.00141021 -0.0854724 0.441839 0 0.166602 0.986024
-0.000451062 -0.346181 0.142202 -0.464904 -0.660451 0.589634
-0.00670725 0.230145 0.359494 -0.731996 -0.246787 0.635042
0.0246494 0.0932547 0.212173 0.194861 -0.29105 -0.936653
0.0116851 0.457406 0.269956 0.993915 -0.0972697 -0.0516803
0.0500334 0.285922 0.19047 -0.19484 0.0305842 0.980358
0.0267953 -0.0420527 0.281973 0.555564 0.40521 0.726054
0.00113717 0.423842 0.0952707 0.779456 -0.492492 0.387169
0.00379602 -0.193521 0.440033 0.642868 -0.0736603 -0.762427
-0.0249431 0.106536 0.219195 -0.194934 0.271544 0.942478
0.00532537 0.262662 0.00469663 0.418479 -0.196844 -0.886638
-0.00904904 0.446983 0.294971 -0.945437 0.260312 0.195923
-0.0276078 -0.291441 0.229366 0.669081 0.734612 -0.112584
-0.00926823 -0.243137 0.362177 -0.905005 0.138075 0.402369
0.00758878 0.0669704 0.285391 0.0312868 -0.105979 0.993876
-0.0560816 0.0428068 0.154037 0 0.707062 0.707151
0.00272425 -0.295543 0.173475 0.823139 0.558891 0.10041
0.0187703 0.20594 0.192125 -0.98081 0.026253 0.193193
-0.0081202 -0.420815 0.0503372 -0.798007 -0.398963 -0.45168
-0.00153225 0.441566 0.259171 -0.779619 -0.559841 -0.280664
0.00600305 0.114343 0.364496 0.995085 -0.0957213 0.0253597
-0.00389029 0.137628 0.226481 -0.871033 0.478701 -0.110208
3.41062e-05 0.262698 0.356142 0.71234 -0.148709 0.685898
-0.00461987 0.142557 0.131472 -0.871001 0.463276 0.163502
5.61854e-05 -0.304629 0.190235 -0.239552 -0.488188 0.839218
0.0189254 0.11289 0.36371 1 0 0
-0.000685558 -0.211032 0.149695 -0.822993 0.247391 0.511352
0.00553024 0.410706 0.0708893 0.871084 -0.345098 0.349458
-0.00190318 -0.231849 0.502985 -0.330057 -0.899212 0.287192
0.00669754 0.201189 0.050466 0.503031 0.495956 0.707805
-0.00799643 0.387295 0.0385059 -0.855293 -0.260867 0.447686
-0.0475555 0.0664581 0.192847 0.669174 0.649952 -0.360234
0.00898257 0.126986 0.252714 0.73171 -0.64343 0.224942
-0.0379834 0.245833 0.182026 -0.189823 -0.314872 -0.929958
-0.000491463 -0.352448 0.211158 -0.46427 -0.37955 -0.800247
-0.00814008 -0.104855 0.432132 -0.865606 -0.102856 -0.490048
-0.038632 0.295834 0.167674 -1 0 0
7.44691e-05 -0.339283 0.183932 -0.239902 -0.204549 0.949003
-0.152381 -0.205993 0.536097 -0.28732 -0.623902 0.726769
-0.00476913 0.293518 0.191672 -1 0 0
-0.000955722 -0.306843 0.149029 -0.663482 -0.744601 0.0732148
0.018411 0.148552 0.462182 0 0.0432077 -0.999066
0.0290996 0.059099 0.232277 0.831427 0.197619 0.519304
0.00443147 -0.202708 0.0596498 0.871017 -0.305376 0.384805
0.00771682 0.285073 0.357087 0.90961 0.0364881 -0.413858
0.0062625 0.299391 0.187469 1 0 0
0.00323169 0.154676 0.103721 0.238928 0.838921 0.489004
-0.000427758 -0.236847 0.0442117 -0.7796 -0.255075 0.57198
-0.0178489 0.193372 0.194919 0.980784 0.0302753 0.192731
0.00770102 -0.426125 0.301699 0.909563 0.314719 -0.27138
0.00600171 -0.173543 0.441099 0.983858 -0.0510864 -0.171505
0.034148 0.141865 0.476207 0.968213 -0.218108 0.122441
0.0531114 -0.218878 0.524257 0.0579426 -0.82956 -0.555404
-0.146615 -0.190533 0.528008 -0.105432 0.978058 -0.179687
-0.0462964 0.0767192 0.224576 0 -0.981639 -0.190746
0.0119172 0.206641 0.463512 0 0.395236 -0.91858
0.00548184 -0.298234 0.363864 -0.717539 0.0141724 0.696374
-0.0115008 0.0515032 0.39425 -0.984803 0.0663712 0.160493
0.00838657 0.124304 0.399713 -0.0455878 0.443616 0.895057
0.00222962 0.258718 0.241542 0.462783 0.68985 0.556721
-0.0469907 0.275561 0.184418 0.980781 -0.0101229 -0.19485
-0.00599504 -0.0578772 0.418406 -0.642462 -0.205092 -0.738363
0.0228 -0.114705 0.329687 -0.194733 0.580772 0.790432
0.00926692 0.400146 0.326766 0.909606 -0.256726 -0.326663
-0.00347757 -0.121914 0.131989 -0.329609 0.893023 -0.306378
0.00770565 0.437295 0.0622088 0.583545 0.605645 -0.540989
0.00190259 0.351965 0.0405411 0.779588 -0.208389 0.590607
-0.00940868 -0.12037 0.165293 -0.945421 0.322923 -0.043589
-0.00175278 0.282012 0.0206118 -0.238637 0.0975861 0.966193
-0.0179593 -0.232072 0.428906 0.980787 -0.148119 -0.126957
-0.0122871 0.100663 0.369568 -0.37831 -0.824737 0.420346
0.00479893 0.134621 0.190566 0.871006 0.490921 -0.0185495
-0.0280972 0.155399 0.198848 -0.83148 -0.120236 -0.542388
-0.0245689 0.0026626 0.247552 -0.194855 -0.423742 -0.884576
0.00143169 -0.344014 0.226744 0.463894 -0.608316 -0.644014
-0.0410452 0.315041 0.202393 0 0.807326 0.590106
-0.0252827 -0.17325 0.364133 -0.195315 -0.659594 -0.725801
0.00296297 -0.304902 0.216265 0.934749 0.345595 0.0825156
0.000157667 -0.470075 0.179064 0.7126 -0.700936 -0.0298358
-0.0053671 0.0732957 0.265667 -0.219178 -0.401535 0.889231
-0.0176871 0.126861 0.208237 0.9808 0.0500804 0.188475
0.00501043 0.229343 0.341704 0.32974 0.409935 -0.850426
0.00280857 0.371695 0.247524 0.992657 0.0840099 -0.0870345
-0.0053371 0.426216 0.0838291 -0.871087 -0.386081 0.303562
0.0295063 -0.290721 0.282326 -0.669384 -0.734325 0.112658
-0.11454 0.0196468 0.154163 0 -0.998629 0.0523488
0.000719707 0.485146 0.151853 -0.0504196 0.98268 -0.178322
0.0229614 -0.203499 0.392641 -0.194842 -0.689194 -0.697888
-0.00114447 -0.453572 0.145132 -0.779747 0.599277 0.181278
-0.00945306 -0.382856 0.343852 -0.945852 0.153964 -0.28576
0.0109848 0.233524 0.027065 0.90535 0.155758 0.39507
0.00977379 0.270653 0.359992 0.969471 0.0368123 -0.242426
-0.00431066 0.182588 0.307593 -0.871013 0.345141 -0.349592
-0.0445787 -0.302063 0.17997 -0.919063 0.0168121 -0.393752
0.00344584 0.0277164 0.413085 0.3418 0.313557 0.88592
0.0287433 0.147313 0.206217 0.831459 0.12025 0.542417
-0.0350045 0.0648437 0.263777 -1 0 0
0.00647556 0.131936 0.179718 0.870982 0.489421 0.0431042
-0.00627287 0.413755 0.322028 0.529302 0.5651 0.632852
-0.00421859 -0.4218 0.300109 -0.871063 0.371971 -0.32076
-0.000987837 -0.241102 0.446632 -0.340762 -0.0637823 0.937983
0.011369 0.151178 0.0858906 0.945376 -0.267893 -0.185735
-0.0253306 0.167241 0.193632 -0.55526 -0.163074 -0.815532
0.0220455 -0.290051 0.19954 0.00460214 0.844025 0.536284
0.00959734 -0.273559 0.0187473 0.969483 -0.0410331 0.2417
0.0013027 0.482434 0.140154 0.0511332 0.965796 -0.254212
