0.0143059 0.140239 0.22635 0.965789 0.252267 -0.0601071
-0.00360117 0.438901 0.10873 -0.965399 -0.24263 0.0955796
0.0248768 -0.249545 0.347926 0 0.952806 -0.303581
-0.00340231 -0.389761 0.339291 -0.258195 -0.531853 0.806516
-0.0179411 0.151372 0.292003 -4.64741e-05 0.587735 0.809053
-0.03481 0.303373 0.1774 0.00695869 0.87437 -0.48521
-0.0240987 0.0788586 0.157484 -1 0 0
-0.00752885 0.369745 0.0220648 -0.965789 0.114497 -0.232685
0.00963432 -0.0947216 0.357386 0.572223 0.583721 0.576048
0.0186899 -0.22349 0.36811 0.939687 -0.323397 0.111367
-0.0206264 0.0547489 0.16422 -0.997876 0.065144 0.000586368
-0.00479501 0.398405 0.328584 -0.706391 0.368801 0.604151
0.00244302 -0.24084 0.216208 0.173531 0.514594 -0.839691
-0.00307044 -0.270812 0.345195 -0.704054 0.0803983 0.70558
0.00404298 -0.138311 0.265513 0.258243 0.838338 0.480105
0.0298836 -0.265684 0.283489 -0.17378 0.918965 -0.353984
-0.0236465 -0.302208 0.185483 0.0258513 -0.35839 0.933214
0.00444172 0.235589 0.0289687 0.256808 -0.354164 -0.899232
-0.00794837 0.0486575 0.199031 -0.939691 0.248097 0.235434
-0.00801551 0.068517 0.177836 -0.939693 0.248094 0.23543
-0.00920862 0.287649 0.182157 1 0 0
0.00534198 -0.0028867 0.227996 0.173587 -0.717151 -0.674954
0.00281841 0.183189 0.319865 -0.258379 -0.628654 0.733508
0.0283334 -0.22635 0.383791 -7.01176e-05 -0.32556 -0.945521
0.00605954 -0.149863 0.41197 1 -4.4781e-07 2.48242e-07
-0.00183148 -0.032545 0.260289 -0.499976 -0.628201 -0.596144
-0.00982365 -0.468836 0.204188 -0.965788 -0.257816 0.027998
-0.00155043 0.387852 0.0245822 -0.258699 0.426445 -0.866729
0.00799286 -0.161433 0.298495 0.706394 0.565305 0.425955
0.00809295 -0.360588 0.326343 0.965371 0.104021 -0.239245
-0.00726032 0.284265 0.181311 -1 0 0
0.00187138 0.148765 0.163215 -0.256666 0.955883 0.142863
-0.0185353 0.195395 0.254678 0.173474 0.543578 0.821236
0.0125082 -0.177099 0.307563 0.965799 0.185885 0.180772
0.010879 0.20946 0.31371 0.706447 0.389619 -0.590872
0.0431832 -0.271919 0.211744 0.499948 -0.809889 0.306808
-0.026184 -0.245835 0.282261 -0.173718 0.93524 -0.30846
0.00151837 0.367167 0.0457227 -0.256868 -0.385388 0.886281
0.00680467 -0.327738 0.0230455 0.704049 -0.0803662 -0.70559
0.0014314 -0.358615 0.354697 -0.258353 -0.314529 0.913414
0.00287443 0.267895 0.157023 0.939183 0.206672 -0.274265
0.00548555 0.178541 0.273486 0.256561 0.776948 -0.574916
-0.00760024 0.272992 0.0193026 -0.965803 0.044129 0.255494
0.00774123 0.0120221 0.391051 0.499852 0.352279 0.791232
0.0102085 0.303191 0.339422 0.965372 -0.0295256 -0.2592
0.010282 0.324865 0.337226 0.965356 -0.0295383 -0.25926
-0.00698217 0.136232 0.293542 0.47076 0.733079 0.490898
-0.00188903 0.310889 0.16509 1 -1.32898e-06 -2.72492e-06
0.00210012 -0.31554 0.0336812 0.256793 0.109391 0.960256
0.00452871 0.156752 0.0704296 0.258375 -0.77152 -0.581377
0.0135151 0.0214975 0.213511 0.000565345 -0.427339 0.904091
0.0124639 -0.362187 0.0326389 0.965816 0.106252 0.236451
-0.00276964 -0.146481 0.381239 -0.500028 -0.628187 -0.596115
0.0115435 0.292906 0.181544 0 -0.987673 0.156534
0.0284259 0.222601 0.177439 -0.934646 -0.100711 -0.34102
-0.0215056 0.0395002 0.197459 -0.997804 0.0659491 0.00610381
0.0130984 0.0273416 0.363906 1.98186e-05 0.913557 -0.40671
-0.00622081 -0.122174 0.197067 -0.706372 0.707732 0.0123603
0.0501381 -0.268494 0.239749 -0.890769 -0.410232 -0.195554
0.00984536 -0.1832 0.461702 0.939704 0.322377 -0.114147
0.0444474 -0.290114 0.178776 0 -0.72954 0.683938
0.00241548 -0.287854 0.146243 -0.177336 0.946037 0.271232
0.0116316 0.00552833 0.248997 0.766048 0.466257 0.442465
-0.00426893 0.459065 0.171515 -0.70648 -0.703593 0.0764385
0.00331959 0.0508962 0.32641 0.133548 0.885001 0.446024
0.00425761 0.24458 0.00909891 0.258234 -0.282482 -0.923861
0.00861914 -0.447844 0.235248 0.965339 0.242838 -0.0956592
-0.00579352 0.122848 0.186767 -0.706396 -0.707709 -0.0123506
0.0135421 -0.335624 0.347588 0.965792 0.0530229 -0.253839
-0.0148241 0.143677 0.144158 -0.997877 0.0651091 -0.0015296
-0.140292 -0.190338 0.538497 0.199901 0.776089 -0.598102
-0.0120288 0.186081 0.173127 0.939688 0.00299023 -0.34202
-0.00183718 0.438255 0.246585 -0.704043 -0.65126 -0.283168
0.0839657 -0.203588 0.547372 0.981629 0.190772 0.00333438
-0.0181908 0.224898 0.562758 -0.895257 -0.164035 -0.414255
0.0013486 0.0257111 0.363175 0 -0.893948 -0.448171
0.00228366 -0.35555 0.167177 -0.170136 -0.22168 0.960162
-0.00802039 0.0147727 0.234451 -0.939691 0.248095 0.235436
0.00650067 0.149985 0.232087 0.258312 0.904292 -0.339899
-0.00109371 0.285647 0.204215 0 0.377682 0.925935
-0.00294416 0.123451 0.425575 1.54233e-05 -0.406667 -0.913576
-0.00879706 -0.137486 0.162528 -0.965801 -0.257769 0.0280041
0.00953141 0.250661 0.0267245 0.965393 -0.0955778 -0.242656
0.00658135 0.267739 0.0193521 0.256842 -0.109429 -0.960238
-0.00254923 -0.169173 0.470679 -0.499976 0.352252 0.791166
0.00356633 -0.0453996 0.308645 0.173739 0.71434 0.677889
0.0403845 0.101137 0.162898 0.793364 0.00655815 -0.608712
-0.00520093 0.0539224 0.307047 -0.921197 0.358906 0.150275
0.00682254 -0.230767 0.521136 0.0247838 -0.371907 -0.927939
0.00246957 -0.0725545 0.402446 -0.17356 -0.400559 -0.899683
-0.0221287 0.0751341 0.155846 1 0 0
-0.00535542 -0.142832 0.164653 -0.965371 -0.259205 0.0295376
0.0182831 0.163494 0.172905 0.939701 -0.00298993 0.341985
0.00227661 0.142417 0.17242 -0.258415 0.965887 0.016842
-0.00023708 -0.327053 0.0211318 -0.256494 -0.109382 -0.960337
0.0115798 0.184051 0.0692296 0.706431 0.507406 0.493451
0.0020092 0.321311 0.215121 -0.763777 -0.53196 0.365601
0.00208322 -0.330049 0.198774 -0.766452 -0.340383 -0.544694
-0.0057762 0.0144877 0.374986 -0.991065 0.114475 0.068458
-0.00460759 0.0619285 0.224418 -0.791248 -0.6107 -0.0311732
0.0101073 0.341336 0.0289831 0.965342 -0.0385707 0.258122
0.00472572 -0.309315 0.0039771 0.258581 -0.0437737 -0.964997
0.0111952 0.0393734 0.214087 0.766069 0.466241 0.442445
-0.00798729 0.464959 0.177008 -0.965801 -0.259246 -0.0045306
0.0027191 -0.451397 0.118969 0.256555 -0.886379 -0.385372
-0.00357854 0.355346 0.327597 -0.965349 -0.0956455 -0.242804
-0.0091857 0.228679 0.187259 -0.997914 0.0645261 0.00172251
-0.00413676 0.30629 0.178142 1 0 0
0.0126061 0.0873804 0.31285 0.939697 0.254156 0.228853
-0.00274892 -0.0574255 0.397381 -0.499965 -0.352251 -0.791173
-0.0162622 0.121649 0.158842 -0.997876 0.065144 0.000586368
0.00202783 -0.249858 0.227707 -0.762288 -0.441426 0.473349
-0.0227511 0.0493925 0.199847 -0.789464 0.0638748 -0.610464
-0.00579898 0.0314479 0.344581 -0.991062 -0.117431 -0.0632978
0.0121889 0.0321437 0.34487 0.991065 0.117411 0.0632885
-0.000304219 0.0137504 0.245429 -0.171096 0.719563 0.67302
0.0112464 -0.192954 0.0618694 0.706396 -0.460629 0.537424
-0.0043515 0.198041 0.305067 -0.706453 0.460569 -0.537401
-0.00788351 -0.12898 0.140748 -0.706369 0.688576 -0.164031
-0.00185838 0.201521 0.0627711 -0.704059 0.422406 0.570853
-0.0226478 -0.224577 0.398786 -0.129168 -0.561833 0.817104
0.000360254 0.328781 0.17138 1 0 0
-0.00545642 -0.277093 0.00693068 -0.706371 0.0568226 -0.705558
0.00726553 -0.161588 0.442851 0.499977 -0.352245 -0.791168
0.0245434 0.268924 0.17835 -0.765013 -0.0463546 -0.642345
-0.0240987 0.057231 0.190466 -1 0 0
-0.00278947 0.181786 0.295338 -0.704083 -0.442057 0.555745
0.00226605 0.335307 0.193563 -0.175689 0.328606 -0.927982
-0.00141461 0.312449 0.209203 0.805155 0.17432 0.566867
-0.00260955 0.0529489 0.31775 -0.611443 0.717738 0.33315
-0.00885456 0.382623 0.328125 -0.965792 -0.135106 -0.221344
-0.00213804 0.283601 0.203404 0 0.37758 0.925977
-0.0909214 -0.216115 0.54397 -0.196788 -0.906607 0.373281
0.00605951 -0.112103 0.429043 1 0 0
0.000360254 0.319237 0.187295 1 0 0
-0.00822419 -0.429691 0.301165 -0.706445 -0.524296 0.475446
0.00438344 -0.26124 0.00768719 0.258644 0.19761 -0.945544
0.0291862 0.239193 0.57025 0.608448 0.445403 -0.656816
0.0115642 0.169666 0.266027 -0.707626 -0.582312 0.400221
0.00414299 -0.360506 0.337315 0.256758 -0.385403 0.886307
0.0019772 -0.293153 0.199602 -0.940172 -0.319119 0.119327
0.00242455 -0.305571 0.173481 0.173767 -0.737578 0.652521
0.00863498 -0.471721 0.230468 0.706293 -0.688659 0.164007
0.00937592 -0.019157 0.403334 0.500114 0.352216 0.791094
-0.00744001 -0.100123 0.338501 -0.742867 -0.49061 -0.455467
-0.0210368 0.0456487 0.142048 -1 0 0
0.00884759 0.199596 0.309937 0.704085 -0.442054 0.555745
0.00267678 0.240409 0.0420353 -0.25681 0.354208 0.899214
0.00964236 0.113096 0.39606 0.000110893 0.981642 0.190733
-0.00510739 -0.411789 0.296918 -0.706498 0.524294 -0.47537
-0.0148499 0.0645455 0.177857 0 0.325624 0.945499
0.0276188 -0.219692 0.370012 -4.91765e-05 -0.325476 -0.94555
0.0119535 0.0591674 0.278104 0.991064 -0.128509 -0.0357361
-0.00805909 0.0433629 0.204169 -0.939691 0.248097 0.235434
-0.00337865 -0.229303 0.520855 0.0012121 -0.11617 -0.993229
-0.00115522 0.472184 0.131095 -0.258151 0.93982 -0.223822
-0.00804262 0.297532 0.19818 0 -0.867681 0.497121
-0.00188903 0.285943 0.188066 1 0 0
-0.00899966 -0.180153 0.0571395 -0.965798 0.168744 -0.196873
0.00816098 0.177489 0.274884 0.704074 0.570838 -0.422402
-0.0190667 0.0753679 0.190406 1 0 0
-0.00807094 -0.0984788 0.421782 -0.939698 -0.139106 -0.312438
-0.013453 -0.238684 0.315197 0.766152 0.607647 -0.209231
-0.00915013 -0.0845616 0.332834 -1 0 0
-0.00429839 0.284531 0.164123 0 -0.997338 0.0729217
0.0145229 0.128549 0.199003 0.96579 -0.257809 0.0280094
-0.0240987 0.0267482 0.168585 -1 0 0
0.0209758 0.169408 0.564787 0.86906 -0.336101 -0.363002
-0.0210368 0.0133458 0.178935 -1 0 0
-0.0136777 -0.249071 0.354692 0 -0.951052 0.30903
-0.00882695 0.387081 0.0371042 -0.965793 -0.142749 0.216485
0.0163119 0.06172 0.152743 0 0.0174632 -0.999847
0.0126901 0.204868 0.312848 0.706447 0.389619 -0.590872
0.0126354 -0.160157 0.287294 0.965795 0.207094 0.156051
-0.0129038 0.257436 0.173135 0.766024 0.0104211 -0.642727
-0.0085878 0.238669 0.159399 -0.997914 0.0645261 0.00172251
-0.00989326 -0.463012 0.23229 -0.965809 -0.252196 0.0600904
-0.0430803 -0.267482 0.224859 0.374555 0.878092 -0.297762
0.145013 -0.203405 0.54825 -0.981648 -0.190675 -0.00319936
-0.00820057 0.166153 0.0731642 -0.965795 -0.207087 -0.15606
-0.00104025 -0.142281 0.0954094 -0.258354 0.854549 -0.450554
-0.00863643 0.149999 0.262078 -0.965797 -0.229373 0.120935
-0.0188251 0.236258 0.227693 0.173482 0.543557 0.821249
-0.047815 -0.0484826 0.165342 0 -0.71938 0.694616
0.014903 0.121899 0.174101 0.937215 -0.348739 -0.00304492
-0.0210368 0.090316 0.176211 -1 0 0
0.0105115 0.438573 0.259463 0.706464 -0.614149 -0.351753
0.00609417 -0.0984789 0.363662 0.160889 0.711553 0.683964
0.0150704 -0.14691 0.400445 0.939692 0.248096 0.23543
0.00904716 0.0561243 0.273014 0.791233 -0.600667 -0.114673
0.00111215 0.378347 0.317394 -0.258494 -0.50328 -0.824554
-0.0210368 0.0318047 0.147767 -1 0 0
0.00113428 -0.140174 0.429237 -1 0 0
-0.00317961 0.159048 0.26369 -0.965369 -0.209715 0.155183
-0.00700938 -0.0968895 0.355131 -0.766021 0.460783 0.448209
0.00897513 -0.36815 0.0411435 0.96536 0.0956271 0.242768
-0.000296115 0.241179 0.335707 -0.256686 -0.385384 0.886336
0.00774282 -0.199648 0.397364 0.499912 0.818847 -0.282094
0.0103455 0.313765 0.0239709 0.96538 -0.0385629 0.257981
-0.0168276 0.184286 0.261328 0.500211 0.477764 0.722171
-0.00150898 0.186715 0.061314 -0.704012 -0.422447 -0.570881
-0.0424099 -0.285877 0.185401 0 0.72506 -0.688685
-0.0190667 0.0140888 0.173146 1 0 0
0.00789451 0.461583 0.16232 0.704322 0.705321 -0.0803291
-0.00626881 0.273473 0.199104 -0.997914 0.0645261 0.00172251
-0.00120183 0.377903 0.343021 -0.258352 0.396006 0.881155
0.008945 -0.464739 0.250241 0.706358 -0.662592 0.249057
-0.00513979 0.290301 0.167404 -0.997565 0.069738 0.00121983
0.00644098 -0.0723878 0.336348 0.173755 0.714337 0.677887
0.0227901 0.179402 0.168459 0.173444 -0.00858654 0.984806
0.00352115 -0.254193 0.0330579 0.258345 -0.314482 0.913433
-0.00137767 0.289146 0.183555 -1 0 0
0.0253718 -0.224234 0.52145 -0.04445 0.402554 -0.914316
0.00702572 -0.322853 0.0320088 0.704177 0.0803618 0.705462
-0.0023968 -0.150337 0.218725 -0.70408 -0.70232 -0.104965
-0.00657974 0.0634802 0.178224 0 0.325624 0.945499
0.00433022 -0.138188 0.265145 0.258243 0.838338 0.480105
0.00210022 0.279658 0.175277 -0.767036 0.144335 -0.625158
0.0152612 0.270508 0.0147787 0.965781 -0.0441545 -0.255574
0.0130048 -0.0479861 0.282686 0.766036 -0.46627 -0.442473
-0.0100021 -0.156488 0.0954884 -0.965798 -0.2124 0.148729
0.00850085 -0.442797 0.252908 0.706329 0.626163 -0.33018
0.0121516 0.416266 0.070044 0.706464 -0.524342 0.475368
0.000170341 -0.080603 0.310172 -0.173769 -0.714342 -0.677879
-0.0067383 0.297431 0.210809 -0.924245 -0.00247049 -0.381791
0.0341298 0.0756764 0.166998 -1 0 0
-0.0254488 0.0671488 0.171193 0 0.298131 0.954525
0.00249691 0.0936301 0.387433 -0.173881 0.187898 -0.966675
0.0151019 -0.175074 0.46262 1 0 0
-0.00516887 -0.158439 0.396058 -0.766033 -0.466272 -0.442475
-0.00524402 -0.232814 0.0389411 -0.706385 -0.312516 0.635102
0.0341298 0.124221 0.167124 -1 0 0
0.0151019 -0.0709929 0.415051 1 0 0
0.00958247 -0.249388 0.0132697 0.706461 0.23047 -0.669176
-0.0227238 0.0586671 0.161414 0 -0.629162 -0.777274
0.000173369 -0.101562 0.441679 -0.17356 0.400561 0.899682
0.00605954 0.0383606 0.3446 1 0 0
0.00881619 -0.000147253 0.226874 0.499969 -0.630808 -0.59339
-0.00471518 0.0308322 0.216822 1.46663e-05 0.54465 -0.838664
-0.00452278 0.47531 0.205555 -0.706317 0.70065 0.10102
-0.00608665 -0.197829 0.438603 -0.93968 -0.322435 0.114176
0.0011343 0.0300243 0.355589 -1 0 0
-0.0210368 0.0892424 0.152444 -1 0 0
0.0078306 0.0693549 0.282246 -1 0 0
0.00630218 0.0259602 0.360915 2.64521e-06 0.913543 -0.406742
0.00605954 0.0533297 0.359751 1 0 0
-0.00356094 0.097458 0.289378 -0.766009 -0.477706 -0.430147
-0.00353371 -0.210938 0.0580091 -0.704044 -0.442082 0.555775
0.0103604 0.0537703 0.30982 0.921205 0.352908 0.163821
0.00727205 0.438201 0.256505 0.258296 -0.838303 -0.480137
0.00178072 0.444434 0.0736963 -0.25821 0.79138 -0.554117
-0.0106923 0.20508 0.130481 -0.998111 0.0601983 0.012255
0.0106618 0.0185611 0.236738 0.499932 0.628223 0.596158
-0.00517998 0.063351 0.181855 -0.921197 -0.388931 0.0113721
0.011326 -0.016764 0.273873 0.766045 0.46626 0.442467
0.00234606 -0.363526 0.274622 -0.171862 -0.816704 -0.55087
0.0074323 -0.44364 0.23855 0.704215 0.660581 -0.260217
0.0146259 -0.128716 0.444603 0.939687 0.139119 0.312465
-0.0131038 0.168005 0.190216 -0.997914 0.0645261 0.00172251
-0.000480639 0.0772859 0.301003 -0.173608 -0.73184 -0.658992
-0.0181247 0.203608 0.578846 0.405986 0.537285 0.739257
0.0180726 -0.241267 0.32169 0.939687 -0.323403 0.111346
-0.00763983 0.437116 0.091704 -0.965781 -0.212465 0.148749
-0.015342 0.221452 0.230493 0.939623 -0.188887 -0.285359
0.0340948 0.200778 0.569432 0.887102 -0.253558 -0.385693
0.0422366 -0.28548 0.22795 0.495436 0.855675 -0.149544
0.00979707 -0.3103 0.343886 0.706407 0.0567559 -0.705527
-0.0120741 0.22579 0.173804 0.939737 0.00706881 -0.341826
0.0306595 0.20414 0.176369 -0.994276 -0.106839 -0.000916675
0.00877907 -0.2371 0.377749 7.49449e-06 -0.945508 0.3256
0.0119684 0.440725 0.0752968 0.706401 0.579815 -0.40597
-0.000762494 -0.126939 0.236723 -0.258341 0.931365 0.256551
-0.0210368 0.012617 0.146731 -1 0 0
0.0270916 0.208266 0.245792 -0.50018 -0.477943 -0.722074
0.00818056 -0.389342 0.0574886 0.965357 0.15521 0.20975
-0.0102896 -0.148724 0.10723 -0.965797 0.229369 -0.120935
0.00216303 0.332921 0.0646504 -0.503298 -0.830633 -0.238201
0.0114645 0.346852 0.35192 0.706436 0.206922 0.676854
0.00154196 0.147271 0.186881 -0.256664 0.960286 -0.109423
-0.0145121 0.148512 0.150202 -0.997877 0.0651274 0.000426409
0.00971271 0.0474884 0.325326 0.791336 0.545967 0.275148
-0.00188903 0.298064 0.175127 1 0 0
-0.143809 -0.19549 0.535951 -0.968116 0.250466 0.00437023
-0.0353972 0.0593085 0.165724 -0.983104 0.132757 -0.126022
0.000196967 0.158089 0.267681 -0.256921 -0.776871 0.574859
-0.00418466 0.0224178 0.350955 -0.791238 -0.531228 -0.302886
-0.00726032 0.297783 0.193753 -1 0 0
0.000840177 0.302607 0.169268 -1 -3.53836e-07 2.47788e-07
0.0132278 0.454348 0.0993139 0.706364 0.626124 -0.33018
0.00301993 -0.36981 0.324305 0.258155 0.426504 -0.866862
0.0137062 0.0544766 0.154229 0 -0.629359 -0.777115
0.00833042 -0.261256 0.336381 0.965359 -0.0956299 -0.242768
0.0292143 -0.240088 0.299324 -0.499903 -0.818896 0.28197
0.000115165 -0.121401 0.214468 -0.258344 0.956177 0.137785
-0.0157392 0.163287 0.282489 0.965936 0.209412 -0.152034
-0.0857821 -0.210905 0.534792 0.968133 -0.2504 -0.00438215
0.0230899 0.225787 0.170548 0.173254 -0.053459 0.983425
-0.00275593 -0.174979 0.478445 -0.766076 0.60589 -0.214534
0.0126848 -0.0930914 0.329904 0.766046 -0.46626 -0.442465
-0.0189457 0.255253 0.173671 -0.76492 0.0595796 -0.641364
0.00880464 0.0863939 0.363908 0.765972 0.340677 -0.545184
0.0252651 0.222482 0.562634 0.729542 -0.337091 -0.595094
0.00193914 -0.351549 0.196889 -1 0 0
0.0301653 -0.211777 0.396576 0.379923 0.762362 0.523892
-0.0281971 -0.0302682 0.158838 1 0 0
-0.00268156 0.308702 0.207058 0.362856 -0.37299 -0.85394
0.00950885 -0.213267 0.0488141 0.706446 -0.389625 0.590869
0.00843672 0.175228 0.279832 0.258398 0.791325 -0.554107
0.00165454 -0.214599 0.344058 -0.25842 0.503333 0.824545
-0.0118615 0.190599 0.123199 -0.996971 0.0511217 0.0586029
0.00533253 0.479785 0.172288 0.258254 0.960416 -0.104429
-0.0202223 -0.251228 0.345452 0 -0.942725 0.333572
0.0181068 0.264228 0.177658 0.939691 0.00531528 -0.341984
0.00151213 -0.45993 0.228149 -0.256591 -0.899275 0.354211
0.137622 -0.197535 0.535061 -0.0280188 0.14743 -0.988676
-0.010224 0.191569 0.208581 0.791137 -0.0180507 -0.611372
0.0151019 0.059523 0.177502 1 0 0
-0.0254342 0.0678813 0.159768 0 0.331192 -0.943563
0.0250888 0.14422 0.18252 0.173807 -0.00545546 -0.984765
-0.00796116 -0.0340529 0.391675 -0.73829 -0.270859 -0.617708
0.021739 0.271681 0.178354 -0.72727 0.660788 -0.185573
-0.0143474 0.266653 0.174937 0 -0.962755 0.270375
-0.00537453 -0.354332 0.353395 -0.706382 -0.23047 0.66926
-0.0190667 0.0637445 0.197067 1 0 0
0.00359985 -0.189476 0.327027 0.258339 0.602698 0.754994
0.0114907 0.381625 0.0244042 0.706332 0.312538 -0.63515
-0.00586471 0.279748 0.177998 -0.997564 0.0697483 0.00121838
-0.00344725 0.314561 0.164449 -0.997563 0.0697672 0.0012144
0.00247243 0.123401 0.390124 -0.173717 0.90311 -0.392702
0.00699757 0.342421 0.32808 0.704205 -0.260207 -0.660596
0.00367556 -0.394499 0.319315 0.256696 -0.601637 0.756399
0.00621217 -0.18125 0.451367 0.173773 -0.400543 -0.899649
0.00168429 -0.162841 0.431558 -0.173519 0.714371 0.677913
-0.00346826 0.29921 0.191846 -1 0 0
0.00733355 -0.0155557 0.242109 0.500045 -0.628175 -0.596113
-0.0109517 0.200936 0.129712 -0.998111 0.0601983 0.012255
0.0130497 -0.184227 0.303389 0.965799 -0.185885 -0.180772
0.00388836 -0.140771 0.232745 0.256789 0.886313 0.385367
-0.00915013 -0.0743652 0.319778 -1 0 0
0.00217173 -0.287611 0.262006 -0.511335 -0.848793 0.134486
0.0341298 0.119537 0.168152 -1 0 0
0.0104735 -0.140143 0.157827 0.706396 -0.703676 0.0764475
0.00247401 0.011705 0.247828 -0.173616 0.714354 0.677905
0.00983096 0.0259009 0.364574 0.791187 0.52487 0.313902
-0.0190667 0.0302576 0.163459 1 0 0
-0.0190667 0.0937393 0.172036 1 0 0
0.0248375 0.0645738 0.15397 1 0 0
0.00340632 0.0462171 0.295439 0.133429 -0.914202 -0.382662
0.0151019 -0.166644 0.415342 1 0 0
0.00819332 -0.417952 0.295303 0.965363 -0.20974 0.155189
0.00281029 0.318813 0.197746 1 0 0
-0.0243854 -0.218528 0.370161 -0.500133 0.818774 -0.281914
-0.0212359 0.0453606 0.142116 -0.997877 0.0651091 -0.0015296
0.0136994 0.137434 0.115417 0.965803 -0.239367 -0.0996371
0.00196368 -0.393288 0.272239 -0.940543 -0.238077 -0.242278
-0.107639 -0.21381 0.539475 -0.246601 -0.950259 -0.190252
0.00196068 0.294597 0.198939 -0.94112 -0.332416 -0.0615877
0.0129474 -0.40634 0.31009 0.965796 0.168741 -0.196886
-0.0281971 0.0274314 0.158482 1 0 0
0.0187935 -0.224435 0.364491 0.939687 -0.323397 0.111367
-0.000453643 0.234254 0.0302011 -0.704031 -0.260271 -0.660756
-0.00917972 -0.140675 0.113986 -0.965798 0.242717 -0.0912293
-0.00804705 0.375653 0.0271229 -0.965789 0.114497 -0.232685
-0.00276894 0.353217 0.330425 -0.258403 -0.282449 -0.923824
0.00137686 0.352584 0.00875283 -0.258347 0.314607 -0.913389
0.00100217 -0.427851 0.0567732 -0.258379 -0.692604 -0.673453
0.00303423 -0.455087 0.127667 0.256555 -0.886379 -0.385372
0.0110055 -0.118405 0.380679 0.766047 0.466256 0.442467
-0.00429973 0.0328463 0.382887 -1 0 0
0.0101221 -0.24466 0.3352 0.706337 -0.206979 -0.67694
0.0089586 -0.240771 0.33081 0.965364 -0.0956224 -0.242754
-0.000910616 0.302066 0.339202 -0.258354 -0.043862 -0.965054
0.00237338 -0.327113 0.332885 0.256756 0.142855 -0.95586
-0.00413186 -0.450387 0.149594 -0.704083 0.70232 0.104948
0.0719007 -0.210508 0.534457 -0.635091 0.761715 0.128254
-0.0210368 0.0675673 0.152943 -1 0 0
-0.0104068 0.231027 0.0972998 -0.380683 0.123366 0.916439
0.0141574 0.319507 0.0176837 0.965812 -0.0208106 0.258405
0.0449763 -0.300568 0.181031 0 0.796973 0.604015
-0.00834635 0.128602 0.171745 -0.965793 -0.259275 -0.00452473
0.0127689 -0.0375314 0.408942 0.745458 0.261645 0.613053
0.0103939 -0.300298 0.36081 0.706409 0.0320971 0.707076
0.00276624 0.307724 0.239481 0.762491 0.639027 -0.10125
0.0368406 0.286345 0.191189 0.691504 -0.712789 0.117281
0.0370084 0.2868 0.192962 0.691504 -0.712789 0.117281
0.0151762 0.457678 0.123716 0.965788 -0.242742 0.0912631
-0.00883872 -0.169028 0.299957 -0.965791 0.185906 0.180792
-0.0271071 0.0664072 0.175802 -1 0 0
-0.00547539 0.406836 0.321524 -0.7064 0.44157 0.553186
-0.0345249 -0.0359003 0.167792 -0.793432 -0.0146956 0.608481
-0.00947006 -0.139359 0.227078 -0.965806 -0.249957 -0.0688477
-0.0105313 0.0950723 0.180618 -0.491161 -0.191958 0.849654
-0.0190667 0.0535338 0.119189 1 0 0
0.00203708 -0.280328 0.177232 -0.766004 -0.133649 -0.628789
0.0479364 0.161029 0.170545 0 -0.0174267 0.999848
0.00275128 0.30605 0.176924 0.766501 0.390969 0.509529
0.00686627 -0.313866 0.337148 0.704123 0.104959 -0.702278
-0.00655135 0.0141827 0.368987 -0.766077 -0.261428 -0.587181
0.0482424 0.304059 0.173446 0 0.655979 -0.754779
-0.0190667 0.0750897 0.150773 1 0 0
0.00230554 -0.205058 0.17781 -0.175472 -0.0343505 -0.983885
0.00717428 0.359886 0.0416192 0.703979 -0.283213 0.651309
-0.00533829 -0.477379 0.170207 -0.706451 -0.707654 -0.0123599
-0.137713 -0.199006 0.550946 -5.2235e-05 -0.0176231 0.999845
-0.0016928 -0.196113 0.407412 -0.49992 0.816398 -0.289092
-0.00963973 -0.244693 0.0214025 -0.965804 0.0843974 -0.245151
-0.013414 0.163035 0.196702 -0.997914 0.0645261 0.00172251
0.0193103 0.272016 0.194035 0 -0.962755 0.270375
-0.0039195 -0.409173 0.0419648 -0.258375 -0.602684 -0.754993
0.00145057 0.0855402 0.36808 0 0.514654 -0.857398
0.00206672 0.20634 0.271 -0.767204 -0.449567 -0.45748
0.00605952 -0.175307 0.446667 1 -3.23158e-07 3.71748e-07
-0.0143723 0.222365 0.561759 0.636583 0.354764 -0.684766
-0.0112583 0.206269 0.208758 -0.128977 0.0694278 -0.989214
0.00270665 -0.219975 0.14663 0.502107 -0.344825 -0.793085
-0.0277706 -0.268208 0.252765 0.923219 -0.125049 -0.363358
-0.00170333 0.136078 0.106074 -0.258338 -0.891867 -0.371261
-0.00858351 0.334171 0.345466 -0.965805 -0.0441327 -0.255487
0.00683817 0.183883 0.0820988 0.704083 0.55574 0.442064
0.00938395 0.146022 0.202918 0.704053 0.705582 -0.080393
-0.00053039 0.0730453 0.170137 0 0.981621 0.19084
0.0132452 -0.227318 0.0336169 0.965812 -0.114469 0.232604
0.00741725 0.204022 0.300832 0.704089 0.442058 -0.555737
0.00274246 -0.246541 0.340819 0.256581 0.35425 0.899263
0.00113273 0.450909 0.223545 -0.25805 -0.931424 -0.256629
-0.0025309 0.172899 0.0859493 -0.258292 0.771526 0.581407
0.025663 0.255953 0.17765 -0.938127 -0.0550034 -0.341895
-0.0109668 0.195648 0.212886 0.385714 -0.0830972 0.918869
0.00630565 -0.425781 0.270561 0.704193 0.570761 -0.422308
-0.015296 0.134371 0.181512 0.499702 0.00485297 0.866184
0.00680766 0.156957 0.560211 -0.902788 -0.165401 -0.397009
-0.00551233 0.0561057 0.352215 -1 0 0
-0.00270167 -0.281747 0.346809 -0.704005 0.0803978 0.70563
-0.0120092 0.203881 0.208753 -0.385693 0.0830745 -0.918879
-0.00903401 -0.257241 0.342567 -0.965791 -0.0758138 -0.247994
-0.00569109 0.265946 0.145472 0.369588 -0.585408 0.721597
0.00822063 -0.0356687 0.295932 0.500027 0.628184 0.596119
-0.0515666 -0.286138 0.224904 -0.500032 -0.812916 0.298555
-0.00402979 0.405765 0.299427 -0.965355 -0.155215 -0.209759
-0.00360091 0.226061 0.0419232 -0.965358 0.0956322 0.242773
-0.00490919 -0.180814 0.290112 -0.706429 -0.507407 -0.493453
0.00508871 0.120926 0.428575 0 -0.40668 -0.913571
-0.0075563 0.277246 0.150718 -0.626005 -0.203534 0.752789
0.0136501 -0.263644 0.349826 0.965799 0.0441407 0.255507
-0.000969717 -0.32055 0.0336079 -0.25679 0.109398 0.960256
-0.00952896 -0.464167 0.164263 -0.965802 0.256628 0.0369885
0.0141997 0.406047 0.317324 0.965806 0.161746 0.202624
-0.00327002 -0.0675526 0.424979 -0.500121 0.352215 0.79109
0.0154657 0.00532822 0.379723 1 0 0
-0.0202869 0.268178 0.197192 -0.1735 -0.543569 -0.821237
0.00977713 0.12376 0.279298 -1 0 0
-0.0215692 0.271451 0.203196 -0.765766 0.354962 0.536287
0.0035874 0.0750116 0.172492 8.62702e-06 -0.999962 -0.00870431
0.00198696 -0.230687 0.281086 -0.939841 0.28153 -0.193495
-0.0183446 -0.254702 0.274824 0.914066 0.238966 -0.327686
0.00605954 0.064041 0.370923 1 0 0
-0.00761504 0.393797 0.315873 -0.96579 -0.161799 -0.202661
0.00616339 -0.143541 0.236207 0.704105 0.651202 0.283146
0.00417259 0.346046 0.0216144 0.256494 0.385372 -0.886397
-0.00428916 -0.0661373 0.29785 -0.499922 -0.628222 -0.596167
0.00166275 0.166488 0.106649 -0.25696 0.886275 0.385341
-0.00740436 -0.40501 0.325213 -0.706316 -0.389711 0.590968
0.0137727 0.218132 0.0395875 0.965788 0.135127 0.221348
0.0117025 -0.163238 0.272785 0.706464 -0.614154 -0.351742
-0.0210368 0.0330103 0.194635 -1 0 0
-0.0078892 0.273173 0.104787 -0.792801 -0.609388 -0.0106256
-0.107645 -0.226547 0.541691 -0.298176 0.954368 0.0165395
0.00585818 0.128986 0.447805 0.173573 -0.919414 0.352916
-0.0323042 -0.269325 0.273993 -0.173411 -0.900888 0.397905
-0.00644581 0.278712 0.174934 0 -0.764042 0.645166
-0.000585744 -0.445062 0.124249 -0.258615 0.891831 0.371155
-0.00431776 -0.175873 0.493076 -1 0 0
-0.131355 -0.191066 0.537741 0.216899 0.847182 -0.485012
0.00114519 -0.201117 0.0509945 -0.256657 0.601667 -0.756389
0.0294631 0.203608 0.243968 -1 0 0
0.0383053 -0.266483 0.271162 -0.744098 0.513277 -0.427628
0.0278019 0.173553 0.260466 -0.499741 0.477903 0.722404
0.0215193 0.101083 0.17674 -0.886888 0.333492 -0.319706
0.0118573 0.475329 0.198877 0.706441 0.700528 0.101003
0.00932465 0.0589484 0.33555 1 0 0
-0.0271071 0.0556207 0.167202 -1 0 0
0.00396474 -0.142741 0.375186 0.173519 -0.714376 -0.677908
-0.0189063 0.0792741 0.191564 -0.997631 0.0675497 0.0130167
0.00118164 -0.308382 0.00330008 -0.258154 -0.0437788 -0.965111
0.0153444 -0.0865278 0.333813 1 0 0
0.00970996 0.400899 0.0565048 0.965388 0.16237 -0.204113
0.00530324 0.225474 0.56159 -0.705352 0.101151 -0.701603
0.00290921 -0.285484 0.201806 1 0 0
0.0108818 0.139477 0.168667 0.706374 0.707731 0.0123567
0.0144469 0.203132 0.316353 0.965793 0.142745 -0.216491
0.0020241 -0.212727 0.262326 -0.767378 -0.437296 0.468939
-0.00214507 -0.429862 0.0840741 -0.704107 -0.555725 -0.442045
0.00605954 0.0549223 0.367868 1 0 0
-0.00502841 -0.190316 0.465992 -0.765975 -0.606004 0.214575
-0.0190667 0.046407 0.17944 1 0 0
-0.00424739 0.102001 0.355911 -1.26992e-05 0.00870996 -0.999962
-0.134233 -0.195258 0.550494 0.085605 0.314643 0.945342
-0.000807604 -0.211601 0.0261432 -0.258301 0.426593 -0.866775
0.00148964 -0.133042 0.429565 -0.173773 -0.400569 -0.899638
-0.000436813 -0.421833 0.0941576 -0.256852 0.756373 0.601603
0.00933406 0.457909 0.179356 0.706452 -0.707653 -0.0123565
-0.00915013 -0.025034 0.267985 -1 0 0
0.00320974 -0.228366 0.0348895 0.256772 0.385388 -0.886309
0.013928 0.225625 0.562228 0.742067 -0.119181 -0.659646
-0.00505003 -0.208144 0.311402 -0.965365 -0.155191 -0.209726
0.012132 0.361954 0.329964 0.70637 -0.290166 -0.645636
0.0340995 -0.246477 0.290893 -0.761712 -0.638966 0.107321
-0.105479 -0.212347 0.545416 -0.215847 -0.902227 0.373359
0.0125923 0.130919 0.291534 0.00020978 0.833789 -0.552083
0.0241124 0.138515 0.167974 0.173435 0.0054549 0.98483
-0.0293644 -0.250554 0.305039 -0.921056 -0.252478 0.296498
0.011856 0.12269 0.176509 0.706454 -0.707651 -0.0123496
-0.104767 -0.225789 0.545206 -0.265598 0.950657 -0.160342
0.00911752 -0.167785 0.500353 0.766075 0.605891 -0.214534
0.000955321 -0.170229 0.504238 8.66137e-05 0.333948 0.942591
0.00320788 0.14885 0.226199 0.258386 0.939747 -0.223858
0.0240029 -0.228876 0.339489 0.173544 -0.931181 0.320601
0.0143517 0.245178 0.567077 -0.750809 0.419185 -0.510461
0.0258135 0.202915 0.249712 -0.17351 -0.543574 -0.821231
0.00291537 -0.463463 0.204224 0.256597 -0.960305 0.109418
-0.00996297 0.297595 0.186704 -1 0 0
0.0151019 -0.0417484 0.40247 1 0 0
0.00222625 -0.142874 0.460468 -0.173568 0.400565 0.899679
0.00736879 0.0794786 0.329147 0.500023 0.64356 0.579489
-0.00188903 0.299441 0.180628 1 0 0
0.000187178 0.271909 0.185454 0 -0.740921 -0.671592
-0.0170331 0.148524 0.206058 -0.787272 0.0964204 -0.609021
0.00980445 -0.390007 0.336468 0.706493 -0.389613 0.59082
-0.00707209 0.296381 0.211783 -0.990387 0.0462292 -0.13037
-0.00939265 -0.104382 0.350312 -1 -3.41989e-06 -3.21987e-06
-0.00898775 0.231362 0.201441 -0.997914 0.0645261 0.00172251
-0.00915013 -0.15488 0.407022 -1 0 0
0.00781271 -0.0437481 0.390381 0.503633 -0.351422 -0.789213
0.0145914 -0.0369429 0.276189 0.93969 -0.248098 -0.235435
-0.0211415 0.116881 0.173259 -0.887186 -0.326635 -0.325899
-0.00855994 0.343633 0.0167577 -0.965803 0.0530064 -0.253803
0.00535827 0.115496 0.420075 0.173717 -0.903134 0.392647
0.00215367 -0.143476 0.165737 0.258258 -0.960425 0.104342
-0.00217771 0.476588 0.150911 -0.258396 0.960379 -0.104425
-0.00496543 -0.133584 0.117155 -0.706367 0.66259 -0.249036
0.00769371 -0.203751 0.414552 7.07147e-05 0.325804 0.945437
-0.0225191 0.225605 0.227866 -0.939646 -0.188845 -0.285311
-0.00538741 0.139065 0.164961 -0.706375 0.700602 0.100954
-0.00346826 0.279157 0.195298 -1 0 0
0.0131809 0.194298 0.559376 0.628135 -0.478643 -0.613471
0.0103682 0.438498 0.102966 0.965357 0.209749 -0.155212
0.00858097 0.0725561 0.243599 0.610561 0.791835 0.0145871
0.00995023 -0.278635 0.00776217 0.706374 0.0567571 -0.705559
-0.00432504 0.0497696 0.320188 -0.791333 0.554556 0.257409
-0.00870336 0.295714 0.178195 -1 0 0
0.00558951 0.381554 0.315532 0.258494 -0.503252 -0.824572
-0.00513579 -0.196616 0.306517 -0.965367 0.155186 0.209721
-0.00813508 -0.211533 0.398116 0 0.649731 0.760165
-0.00111477 -0.0601716 0.397624 -0.17356 -0.400559 -0.899683
0.00428275 0.42531 0.0973203 0.256771 -0.776901 0.574885
0.0028668 -0.275167 0.136618 0.938404 -0.303674 -0.164864
0.00236947 -0.304852 0.191831 0 -0.358224 0.933636
0.016585 -0.226065 0.382514 -0.939709 -0.323343 0.111339
-0.00385055 0.3355 0.3368 -0.706435 -0.120461 -0.697452
0.0109524 0.222381 0.0406311 0.706421 0.368793 0.604121
-0.0221287 0.0534567 0.136447 1 0 0
-0.00151212 0.0762079 0.25807 1 0 0
0.016191 0.0979296 0.181602 -0.491159 0.191958 -0.849656
0.00410956 -0.464825 0.174795 0.25642 -0.955948 -0.142869
-0.00789889 0.138147 0.242814 -0.9658 -0.242709 0.0912279
0.0143751 0.129528 0.15193 0.965794 -0.256658 -0.0369897
0.0248375 0.0540076 0.168929 1 0 0
0.00615991 0.0228555 0.386211 0.173563 0.400561 0.899681
0.0125225 -0.186688 0.303104 0.965799 -0.185885 -0.180772
-0.086744 -0.204912 0.534965 0.160954 0.635561 -0.755087
-0.0307111 -0.227698 0.535597 0.0129075 0.114919 0.993291
-0.00260194 0.15744 0.100204 -0.704025 -0.651269 -0.283192
-0.00412943 -0.0345527 0.409743 -0.500117 0.352215 0.791093
0.00339221 -0.364587 0.326985 0.258342 0.426537 -0.866791
0.00890728 0.172891 0.0859708 0.258366 0.77151 0.581395
0.00824693 -0.452067 0.236554 0.965346 -0.242809 0.0956572
0.0523795 -0.292446 0.199989 0.000116098 0.325566 0.945519
0.032433 0.135016 0.17413 -1 0 0
0.0127362 -0.135315 0.168738 0.965802 -0.257764 0.0280036
0.0109863 -0.268244 0.342458 0.706399 -0.12049 -0.697483
0.00989505 -0.19262 0.0639315 0.706409 -0.460626 0.537412
-0.00341649 0.19895 0.307054 -0.965366 -0.162414 0.204183
-0.133793 -0.191853 0.545783 0.232719 0.88425 0.4049
-0.00951393 -0.0424361 0.401003 -1 0 0
0.00197857 0.275497 0.178918 -0.939451 -0.0209261 0.342045
0.00348206 -0.479954 0.190435 0.258263 -0.965928 -0.0168469
-0.00388198 -0.0342567 0.293091 -0.500031 0.628182 0.596118
0.0152117 0.15671 0.0899593 0.965798 -0.225007 -0.128863
-0.0210368 0.0485774 0.141303 -1 0 0
0.00749719 -0.226623 0.396904 0 -0.760356 0.649506
-0.00849911 0.199864 0.0464379 -0.965797 0.161773 0.202647
0.0112792 0.0651707 0.228788 0.991064 -0.133214 -0.00680105
0.00797994 0.164761 0.106366 0.703991 0.65131 0.283181
0.00879911 0.116045 0.378029 0.499865 0.794263 -0.345372
0.0849211 -0.202634 0.545294 -0.168524 0.898584 0.405149
0.0156085 0.241624 0.56453 0.879206 0.0661779 -0.471823
0.029967 -0.256231 0.301765 -0.499897 0.818903 -0.281959
-0.0251371 0.0485726 0.156788 1 0 0
0.00113428 -0.188667 0.447121 -1 3.58628e-07 -1.22601e-07
-0.00455458 -0.365569 0.0436294 -0.96536 0.0956284 0.242768
0.00849277 -0.149043 0.139356 0.965356 -0.242778 0.0956356
-0.00311561 0.308396 0.154 0 0.978848 -0.204587
0.0129186 0.0203721 0.210896 0.74054 -0.450602 -0.498556
0.0357677 -0.276581 0.253412 0.173792 0.943067 -0.283588
0.00610383 -0.337584 0.344031 0.7041 -0.104961 0.702301
-0.00888391 -0.133626 0.442577 0.135635 0.393566 0.909235
0.01488 0.0521701 0.183435 0.939711 -0.248054 -0.235397
-0.0170656 0.2139 0.578626 -0.709219 -0.389418 0.587675
0.00308036 0.288761 0.0160842 -0.256842 -0.109464 -0.960234
0.0113962 0.472455 0.219908 0.706323 0.682485 0.187941
0.1187 -0.202723 0.533279 -3.73498e-05 -0.0174008 0.999849
-0.041907 -0.30608 0.188791 0 -0.675492 0.737367
-0.000447823 -0.358334 0.0133077 -0.258591 -0.282523 -0.923749
-0.00870354 -0.172402 0.304149 -0.965791 0.185906 0.180792
-0.00580546 -0.150194 0.126035 -0.706428 -0.662523 0.249044
0.00230866 -0.335222 0.234361 -0.168735 0.817123 0.551215
0.0297603 -0.231611 0.38074 0.500109 -0.818806 0.281866
-0.00300156 0.114841 0.277662 1 0 0
0.00275971 -0.200686 0.139062 0.76541 0.256608 0.590169
-0.142861 -0.202696 0.548179 -0.1609 -0.635571 0.755089
0.036755 0.0799487 0.173391 0.382654 -0.00994397 0.923838
0.0369327 -0.252078 0.281411 -0.931104 -0.364362 -0.0169153
0.00881543 0.0727726 0.187709 0.611465 0.790933 -0.0231429
-0.0271071 0.0501225 0.176788 -1 0 0
-0.0174993 0.102446 0.139176 -0.997868 0.065156 -0.00373363
-0.00767831 0.459734 0.11524 -0.96578 0.242787 -0.0912337
-0.00872618 -0.327939 0.0114107 -0.965789 -0.0441269 -0.255547
0.00278132 0.382908 0.0547865 -0.25693 -0.60161 0.756341
-0.0151908 -0.231831 0.374191 7.3576e-05 -0.325568 -0.945519
-0.00555668 0.252979 0.214612 0.919064 -0.0676429 0.38826
-0.00341127 0.280853 0.212549 0.916706 -0.0873305 -0.389902
-0.018421 0.0886122 0.151419 -0.997877 0.0651274 0.000426409
-0.0182116 0.0893675 0.12421 -0.997724 0.0659372 -0.0141465
-0.0180839 -0.25567 0.332735 -0.670002 -0.737647 0.0835177
-0.00343674 -0.178291 0.474178 -0.499976 0.352252 0.791166
0.0107156 0.471715 0.225152 0.706323 0.682485 0.187941
-0.039771 -0.257209 0.252307 -0.490334 0.866627 -0.0923579
0.00544009 -0.420775 0.0506088 0.258381 -0.692545 -0.673514
-0.00345001 0.249855 0.353224 -0.70637 -0.230468 0.669272
0.00595847 0.061274 0.346065 0.499926 0.458948 -0.734467
-0.00935998 -0.27187 0.0207112 -0.965815 -0.0530095 0.253756
-0.008968 -0.015801 0.393447 -0.939693 0.139111 0.312451
-0.00192187 0.154144 0.232225 -0.704029 0.66076 -0.26027
-0.0255748 -0.248654 0.324708 8.16654e-05 0.325562 0.945521
-0.0142875 -0.22487 0.378856 0.939676 -0.323434 0.111357
0.00568233 0.216016 0.560632 0.730167 0.00332954 -0.683261
-0.0097775 0.221018 0.144622 -0.997868 0.065156 -0.00373363
-0.0293438 0.0590621 0.173434 -0.129096 0.104126 0.98615
0.000271302 -0.302913 0.168495 0 -0.325442 -0.945562
0.00851551 0.459096 0.0993724 0.258305 0.854557 -0.450567
0.00204834 0.277892 0.360738 -0.258422 -0.0774364 0.962923
-0.0215582 0.0390929 0.192637 -0.997826 0.0657093 0.0049881
-0.00838064 -0.235441 0.347225 -0.706394 0.290162 0.645611
0.0107672 -0.212029 0.40604 0.766033 -0.607796 0.20923
0.00199315 0.34753 0.0223273 -0.256495 0.385386 -0.88639
0.0141187 0.0990919 0.167582 -0.173105 0.0537974 0.983433
0.00278494 0.0535883 0.267767 -0.133358 -0.984089 -0.117405
0.00857846 0.0730802 0.198074 0.611521 0.791173 -0.00932126
0.000208461 -0.214701 0.0408665 -0.256767 0.385366 -0.88632
0.0111946 -0.0525068 0.31091 0.766054 0.466255 0.442457
0.0151806 -0.0485738 0.402408 0.949224 -0.111216 -0.294287
-0.0082369 -0.0733983 0.312274 -0.939682 -0.248112 -0.235452
0.00605954 -0.142513 0.420792 1 -3.23158e-07 3.71748e-07
0.00720671 0.18336 0.281227 0.704079 0.570835 -0.422398
0.0043722 -0.341799 0.0375433 0.256707 0.354217 0.89924
-0.0146958 0.145278 0.166026 -0.99784 0.0655637 0.00421176
-0.00183481 -0.333416 0.00710422 -0.257995 -0.16436 -0.952063
0.0117199 0.0942998 0.357667 0.92952 -0.339582 0.143796
-0.0107023 0.205068 0.193096 -0.997914 0.0645261 0.00172251
-0.00814801 0.244717 0.33814 -0.965788 0.0844285 -0.245206
0.00281029 0.276141 0.196082 1 0 0
0.0136797 0.125726 0.160158 0.965792 -0.256667 -0.0369883
0.0277208 0.238824 0.217214 -0.499734 0.478066 0.722301
0.00977713 0.106623 0.26989 -1 0 0
0.0129422 -0.458346 0.230397 0.965797 0.252238 -0.0601004
-0.00546295 0.317645 0.178785 -1 0 0
0.00211785 -0.281978 0.181351 -0.502509 0.0301664 0.864046
-0.00440749 -0.283602 0.345318 -0.704054 0.0803983 0.70558
-0.00391966 0.011051 0.216053 -0.532067 -0.616721 -0.580138
-0.00788548 -0.0273516 0.280682 -0.76604 0.466264 0.44247
0.00947502 0.0341908 0.3868 0.939703 -0.0652534 0.335709
-0.0285447 -0.24756 0.318297 -0.939688 -0.323395 0.111366
-5.2643e-06 -0.0972125 0.3624 -0.160781 0.710417 0.68517
-0.00319758 0.329658 0.340545 -0.965367 0.0295309 0.259217
0.00265852 0.295027 0.332108 0.488785 -0.872272 -0.0152057
-0.00195117 -0.00406048 0.397544 -0.500116 0.352215 0.791093
-0.00891959 -0.128085 0.151589 -0.965799 0.252236 -0.0600869
0.00849647 -0.395407 0.060523 0.965363 0.155196 0.209735
0.0248375 0.0534092 0.173196 1 0 0
-0.00529941 0.450648 0.272935 -0.706464 0.614146 0.351757
-0.0041791 -0.461519 0.10679 -0.258256 -0.891887 -0.371269
-0.0240987 0.0390258 0.180186 -1 0 0
0.011011 0.0230889 0.204578 0.766054 -0.46625 -0.44246
-0.00413797 0.0340294 0.344142 -0.766086 -0.340601 0.545071
-0.00773876 -0.379801 0.340246 -0.706371 -0.312536 0.635108
-0.00432625 0.0215823 0.374995 -0.791242 0.524818 0.313852
-0.00747383 0.450117 0.268359 -0.965801 0.224987 0.128875
-0.00263645 0.0587681 0.168285 -2.90454e-05 0.688332 -0.725395
-0.0054014 -0.180716 0.461033 -0.766129 0.605812 -0.214566
0.00901821 -0.163142 0.267225 0.706464 -0.614154 -0.351742
-0.0216345 0.173081 0.261154 -0.765931 -0.354726 -0.536208
-0.0324181 -0.30368 0.177049 -0.0137543 -0.857592 -0.514146
0.00124174 0.153806 0.559314 -0.944666 0.0419449 -0.32534
0.00469909 0.132858 0.420914 0.000106308 -0.358425 -0.933558
0.0341298 0.0612662 0.169176 -1 0 0
-0.0346016 0.0363702 0.169431 -0.923931 -0.00923658 0.382447
-0.0201969 0.174815 0.566973 -0.892519 -0.223699 -0.391623
0.000360254 0.278162 0.165039 1 0 0
-0.000218412 -0.302458 0.179408 -1 0 0
-0.00790946 -0.0714563 0.409265 -0.939691 -0.139111 -0.312455
0.00876306 -0.279448 0.0259608 0.965386 0.0385598 -0.25796
0.036568 0.213743 0.571089 0.881319 -0.0395901 0.470859
-0.00549388 0.103677 0.383913 -0.939719 -0.181205 0.289989
0.0423142 -0.298861 0.194883 0.998292 0.0442819 -0.0381053
0.00862174 0.262621 0.340578 0.70406 -0.104967 0.70234
0.0114103 0.128212 0.227346 0.706449 -0.688496 0.164023
0.00277638 0.176346 0.0886806 0.766501 -0.386521 0.512911
0.00571775 0.116959 0.423281 0.173717 -0.903134 0.392647
0.00461614 0.275186 0.0317076 0.257062 0.109363 0.960187
0.00881363 0.323157 0.333785 0.704204 -0.0803566 -0.705436
-0.00318898 0.253417 0.33336 -0.706425 0.230394 -0.66924
0.00592928 -0.160555 0.413746 0 -0.727619 -0.685981
0.00891342 -0.171666 0.448025 0.499969 -0.352257 -0.791167
0.0108056 -0.152466 0.251017 0.70639 -0.653475 -0.272
0.00605953 -0.16336 0.433702 1 -3.23158e-07 3.71748e-07
-0.0304483 0.0265765 0.172512 -0.382757 -0.0223057 0.92358
-0.0425865 0.291045 0.176759 0 -0.857183 -0.515011
-0.0237991 -0.250608 0.271591 0.488481 0.730966 -0.476524
0.00121827 -0.137078 0.216267 -0.256796 0.95585 0.142854
0.0103704 -0.44579 0.282868 0.706317 -0.579868 0.40604
0.0141394 -0.105255 0.42515 0.939696 -0.139107 -0.312444
-0.0210368 0.0571318 0.147807 -1 0 0
0.00215726 -0.289425 0.180822 -0.497457 -0.0302653 -0.866961
-0.0136985 0.20254 0.180428 0.765967 0.00772816 0.642833
0.00413887 -0.0152168 0.276028 0.173615 0.714361 0.677899
-0.0171556 -0.211662 0.384537 0.499902 0.818853 -0.282096
0.00496463 0.0556552 0.342331 0.173738 0.521867 -0.835147
-0.00789745 0.0103909 0.385005 -0.939693 0.139111 0.312451
0.0288355 -0.215866 0.378968 -0.500166 -0.818756 0.281908
0.0102994 0.159769 0.497531 0.766036 0.600106 -0.23035
0.00973038 0.0920323 0.181964 0.173485 -0.0539392 -0.983358
0.00852558 -0.426146 0.0859709 0.965356 -0.204214 -0.162431
-0.00188903 0.287432 0.1931 1 0 0
0.0051512 0.0965824 0.367944 0.173711 0.52188 -0.835144
0.00425478 0.318193 0.0312036 0.257064 -0.142829 0.955781
0.00150112 0.311316 0.0244544 -0.258167 -0.077472 0.962989
0.0187342 -0.232989 0.360362 0.939688 0.323396 -0.111366
-0.00720704 0.0578088 0.169 0 -0.65601 0.754753
-0.00401486 0.350114 0.0311269 -0.965364 -0.104032 0.239268
0.0281503 0.128724 0.168801 -0.491784 0.173798 0.853196
0.00696361 0.447594 0.218438 0.704062 -0.702334 -0.104994
-0.00569707 0.0214879 0.23269 -0.766033 0.469175 0.439395
-0.00727972 -0.253633 0.328753 0.707994 -0.200555 -0.677143
-0.00106539 0.458448 0.265205 -0.25837 0.838283 0.480133
-0.0116055 0.193034 0.152755 -0.997876 0.065144 0.000586368
-0.0075167 0.469837 0.217378 -0.965807 0.24996 0.0688288
0.00449751 0.0358819 0.318569 0.133241 -0.885066 -0.445987
-0.00863693 0.302719 0.0111854 -0.965801 0.0208013 -0.258448
0.015032 0.450535 0.258947 0.965806 0.224971 0.128866
-0.00471121 -0.137667 0.180196 -0.965353 0.259272 -0.0295381
-0.00545933 -0.181515 0.0771027 -0.965354 0.209763 -0.155215
0.0245745 -0.234662 0.322375 0.173424 -0.931196 0.320623
-0.00757567 0.385313 0.332339 -0.965801 0.135097 0.22131
0.0123449 -0.0610062 0.401762 0.707601 -0.230223 -0.668055
0.0138604 -0.115559 0.428898 0.939686 -0.13912 -0.312467
0.00719876 -0.186702 0.480099 -4.45564e-05 0.333787 0.942648
0.0011343 0.0829697 0.374889 -1 0 0
0.0365347 0.218039 0.571299 0.870892 0.00767254 0.491416
-0.0205871 0.0543471 0.185719 -0.997832 0.0656449 0.00466396
-0.00551233 0.0653329 0.35957 -1 0 0
0.00631117 -0.415387 0.0839937 0.704101 0.555737 0.442038
0.100392 -0.214739 0.539697 -0.187899 0.963557 0.190398
-0.0138701 0.15629 0.185141 -0.997914 0.0645261 0.00172251
-0.0230228 0.204482 0.179575 -0.762735 0.0889862 0.640559
-0.00274725 -0.325887 0.361903 -0.258224 -0.19756 0.945669
0.0134599 -0.212279 0.389242 0 -0.309032 -0.951052
-0.00954901 0.227961 0.125926 -0.997564 0.0697451 0.00121721
-0.021327 -0.261585 0.295253 0.1739 -0.935224 0.308408
-0.0210368 0.0839602 0.140368 -1 0 0
-0.00446973 -0.187226 0.291407 -0.704086 -0.555739 -0.44206
-0.0251371 0.0550167 0.163492 1 0 0
-0.00710386 0.262681 0.140418 -0.997564 0.0697506 0.00120736
0.0124813 -0.430253 0.298487 0.965781 -0.192127 0.174226
0.00299067 -0.44926 0.161625 0.257041 0.955785 0.142849
0.0286288 0.210521 0.242832 -0.76611 -0.354728 -0.535951
-0.0036635 -0.263888 0.338326 -0.258299 -0.164399 -0.951974
0.00264315 0.405139 0.0544081 -0.25697 0.601609 -0.756329
-0.00715571 -0.0372165 0.3921 -0.73829 -0.270859 -0.617708
0.00972786 0.205459 0.309696 0.706447 0.389619 -0.590872
0.00194801 0.298811 0.181866 -0.940485 -0.260334 -0.218435
-0.0102441 0.213541 0.157877 -0.997826 0.0657093 0.0049881
-0.00129197 -0.352328 0.340671 -0.256563 -0.385424 0.886355
-0.00150614 -0.387063 0.308596 -0.256753 0.601611 -0.756401
-0.0104704 0.119542 0.169349 0.491426 0.192054 -0.84948
0.01984 0.19024 0.560772 0.356547 -0.506626 -0.784986
0.0108556 0.149189 0.487775 0.93969 -0.319313 0.122568
-0.0032069 0.240349 0.350207 -0.706407 -0.230442 0.669243
0.0148712 -0.0253659 0.27316 0.939691 0.248095 0.235436
0.0063307 0.410441 0.0392938 0.25851 0.628663 -0.733455
-0.0101088 -0.288737 0.351635 -0.965796 -0.0117631 -0.259035
-0.0210368 0.053389 0.143223 -1 0 0
0.0154657 -0.0398119 0.402791 1 0 0
-0.00815537 -0.136402 0.118707 -0.706401 0.662554 -0.249037
0.00194725 0.402927 0.245246 -0.939661 -0.178741 0.291701
0.0227375 -0.231133 0.521959 0.069946 -0.593798 -0.801568
-0.0077576 0.392801 0.317126 -0.965791 -0.135106 -0.221346
-0.00915013 -0.0874176 0.334222 -1 0 0
0.00631349 -0.146434 0.175718 0.704124 -0.705513 0.0803764
0.0191761 0.242197 0.565923 0.886914 0.0153657 -0.461678
0.000454398 0.0459951 0.2966 -0.389105 -0.849755 -0.355686
-0.0240987 0.0409741 0.197748 -1 0 0
0.0125377 -0.0514367 0.398247 0.766086 -0.261424 -0.587171
0.0011343 0.0416409 0.353143 -1 0 0
0.00283739 -0.167945 0.48975 -0.173687 0.928314 -0.328734
-0.0170655 0.163316 0.566504 -0.891947 -0.22762 -0.390665
0.00878522 0.17381 0.56064 0.766036 -0.600102 0.230361
-0.0282361 0.0560258 0.17361 -0.130201 -0.0239289 0.991199
0.00333976 -0.271865 0.347074 0.256847 0.109391 0.960241
0.00290916 0.30445 0.220754 1 0 0
0.0110279 -0.258745 0.355548 0.706402 0.120492 0.69748
-0.00203493 -0.214919 0.343098 -0.25842 0.503333 0.824545
-0.00242847 0.187971 0.58159 0.405986 0.537285 0.739257
-0.00911664 0.229289 0.204409 -0.997914 0.0645261 0.00172251
-0.00413607 0.403535 0.32587 -0.7064 0.44157 0.553186
-0.0281971 0.0372476 0.161958 1 0 0
0.00340776 -0.378612 0.314764 0.256347 0.601679 -0.756485
0.0392407 -0.282887 0.209724 0.986683 0.0529747 0.153789
0.00584114 -0.433003 0.108614 0.704244 0.651067 0.283111
0.0221894 0.261102 0.203722 0.76614 0.354699 0.535927
-0.00066684 0.0330833 0.224495 -0.173619 0.714355 0.677904
0.0142673 0.304416 0.353866 0.965791 0.0117731 0.259054
-0.0654534 -0.218478 0.522403 0.0997952 0.617428 -0.780271
-0.00426863 -0.402851 0.0587997 -0.704097 -0.422392 -0.570817
0.000971408 -0.347022 0.358504 -0.258307 -0.197533 0.945652
0.0394555 0.138947 0.162094 0.793368 0.00655796 -0.608707
0.0275101 -0.224857 0.393154 -4.90688e-05 0.325475 0.94555
0.00701799 -0.31234 0.362908 0.25824 -0.0774572 0.962971
0.0040283 0.0302095 0.370348 3.36481e-05 0.913535 -0.406761
0.12335 -0.200517 0.55092 3.73621e-05 0.0174007 -0.999849
0.0107114 0.10832 0.380786 0.93972 0.181207 -0.289985
-0.00248694 -0.19427 0.431362 -0.499903 -0.628233 -0.596171
0.00268092 -0.19401 0.311615 0.256564 0.574915 0.776947
-0.00889133 -0.327927 0.355809 -0.965795 -0.0530232 0.253827
0.00634573 -0.182876 0.41809 0.173519 -0.714378 -0.677905
-0.0252298 0.0176589 0.169839 -0.945575 -0.322678 -0.0420337
-0.00392269 0.143402 0.217054 -0.965357 -0.259256 0.0295371
0.00287249 0.378743 0.12092 0.940035 0.207638 0.270593
0.00261596 0.453645 0.122324 -0.256447 0.899296 -0.354262
-0.0017566 -0.0241906 0.40663 -0.500121 0.352214 0.79109
-0.00144489 0.147164 0.22447 -0.258298 0.93977 -0.223864
0.0129879 0.236878 0.345443 0.706407 -0.230456 0.669237
-0.00433362 -0.029129 0.407199 -0.500117 0.352215 0.791093
0.0131557 -0.259488 0.0223237 0.965802 -0.0530194 0.253803
-0.0122641 -0.219838 0.377933 0.939732 0.323294 -0.111291
0.0145437 0.257496 0.347852 0.965803 -0.0530219 0.253797
-0.0210368 0.0578078 0.170717 -1 0 0
-0.0123232 0.180568 0.171838 -0.997914 0.0645261 0.00172251
0.00409643 -0.109259 0.372626 -0.000593238 -0.368835 0.929495
-0.00750671 -0.00199462 0.254609 -0.766033 0.469175 0.439395
0.0078306 0.0829833 0.276628 -1 0 0
0.0421938 -0.299652 0.185123 0.999292 0.0299805 0.0227219
-0.00511473 0.0280951 0.381794 -0.499849 0.352263 0.791241
-0.00816952 0.444998 0.272083 -0.965801 0.224987 0.128875
-0.00881036 -0.383001 0.043644 -0.965793 0.135103 0.221338
-0.0057584 -0.308263 0.34355 -0.706404 0.0567812 -0.705528
-0.00973498 -0.43741 0.0900708 -0.965809 0.207043 0.156031
-0.0197809 0.0662273 0.190622 -0.997804 0.0659491 0.00610381
