0.00287462 -0.222215 0.164995 0.93966 -0.0711259 -0.334635
0.0197499 0.202812 0.180193 0.76606 -0.00771816 -0.642723
0.00707938 0.401143 0.0678836 0.704023 -0.442104 0.555784
0.03833 0.061918 0.172088 0.603648 -0.136399 0.785497
-0.00553018 -0.384406 0.0487003 -0.706443 0.368732 0.604132
0.013759 0.389469 0.330745 0.965791 0.135116 0.22134
-0.00817522 0.302458 0.352808 -0.965809 0.0117701 0.258989
-0.0172849 0.151895 0.105832 -0.990394 0.046657 -0.130167
-0.00716494 -0.234403 0.522953 0.00699223 -0.780653 -0.624926
0.0109886 0.154586 0.488736 0.93969 0.319312 -0.122567
0.0600595 -0.220795 0.535508 -0.0197482 0.114464 0.993231
-0.0091114 -0.192924 0.0585591 -0.965802 -0.168734 0.196863
-0.015053 -0.252053 0.315186 0.76604 -0.60778 0.209252
-0.049125 -0.287243 0.225303 -0.173861 -0.942474 0.285508
-0.00577522 0.0671265 0.19417 -0.991065 0.133372 -0.00157145
0.0106685 0.238545 0.562885 0.748657 -0.0405292 -0.661717
0.00862341 -0.456026 0.150261 0.965389 -0.257947 -0.0385575
0.00774182 -0.36763 0.0179296 0.258585 -0.395945 -0.881114
-0.0334239 0.061127 0.161982 -0.733842 0.394373 -0.553123
-0.0201382 0.0622996 0.151247 -0.997878 0.0651129 -0.00012867
-0.00556152 0.0571529 0.27671 -0.921184 -0.374903 -0.104249
0.00491947 0.210314 0.310933 0.258288 0.531826 -0.806504
0.00285874 0.35596 0.16962 0.939613 -0.071154 -0.334761
0.00227729 0.364996 0.0127723 -0.258564 0.314529 -0.913354
0.00850649 0.180687 0.279782 0.704074 0.570838 -0.422402
0.0421087 0.290728 0.171616 0 0.0440909 -0.999027
0.00836641 -0.207028 0.315644 0.965368 0.155182 0.209722
0.00193909 0.399317 0.216639 -1 0 0
-0.00448341 0.108411 0.364899 -0.765524 0.574865 -0.288969
-0.0179493 0.228228 0.180797 -0.17376 0.0547632 0.983264
0.0438742 0.169971 0.164391 -0.185898 0.706764 -0.682588
-0.017382 0.132723 0.107482 -0.400054 -0.128134 -0.90749
0.0137757 -0.102224 0.422706 0.939696 -0.139107 -0.312444
-0.00967408 -0.128971 0.202299 -0.965802 0.25663 0.0369736
0.0024952 0.374001 0.292174 0.176724 -0.811148 0.557501
-0.00202512 0.404281 0.299913 -0.258314 -0.602693 -0.755007
0.132746 -0.207179 0.540637 0.20859 -0.966375 -0.150364
0.00203677 0.252035 0.297778 -0.767026 0.594894 0.240359
-0.000408307 0.463208 0.197426 -0.256921 0.955822 0.142817
0.0121668 0.0864045 0.265942 0 0.982553 0.185985
0.00200145 -0.304116 0.0820022 -0.766536 0.641007 -0.0391571
-0.00327974 0.478282 0.179158 -0.706451 0.707654 0.0123599
-0.0200312 -0.25814 0.269723 0.874046 0.181141 -0.450812
-0.0033139 -0.0942441 0.32655 -0.500001 -0.628193 -0.596132
-0.077723 -0.21489 0.529164 -0.497899 0.21954 -0.838987
0.00517655 0.366582 0.332252 0.25672 0.35421 0.899239
0.013868 0.450891 0.119509 0.965796 -0.24272 0.0912459
0.0019896 -0.244817 0.214607 -0.939712 -0.178677 0.291574
0.00770003 0.119852 0.166717 0.25835 -0.956175 -0.137785
0.00271718 0.211538 0.560407 -0.672502 0.0611032 -0.737569
0.0130202 -0.468948 0.214005 0.965791 -0.252261 0.0601058
-0.00880244 0.304814 0.0119725 -0.965801 0.0208013 -0.258448
-0.0281971 -0.0272035 0.170211 1 0 0
0.0144422 0.0139995 0.371907 0.939687 -0.139118 -0.312466
-0.0141222 0.168591 0.169724 0.765987 0.00560486 -0.642832
0.0456657 -0.283434 0.185902 0 -0.72954 0.683938
-0.00697273 0.154037 0.0829757 -0.706392 -0.565279 -0.425993
0.0146902 0.18755 0.0515861 0.965804 -0.161758 -0.202625
0.000887968 0.377791 0.327741 -0.25672 0.354201 0.899242
0.0125926 -0.384338 0.32444 0.965798 0.142739 -0.21647
-0.00644686 -0.112056 0.371577 -0.765966 0.466326 0.442534
-0.00939267 -0.0501125 0.297456 -1 -3.40699e-06 -3.23311e-06
-0.00759582 0.271263 0.00986328 -0.965781 -0.0441259 -0.255577
0.000690895 -0.204449 0.393428 -1.82929e-06 -0.325588 -0.945512
0.0298057 0.225248 0.577214 -0.50225 0.681511 0.532248
0.0187012 -0.218401 0.370006 -0.766026 0.607804 -0.209233
-0.0109772 0.204292 0.126298 -0.996971 0.0511217 0.0586029
0.0283459 0.143729 0.181707 -0.500015 -0.00485196 -0.866003
0.00115375 -0.124837 0.136327 -0.25842 0.939732 -0.223879
-0.000743079 -0.0899251 0.354099 -0.173617 0.714353 0.677907
0.0136973 0.0889998 0.304261 1 0 0
-0.00186264 -0.335975 0.332376 -0.704123 0.104951 -0.702279
0.00668419 -0.237022 0.371221 6.44669e-05 0.945531 -0.325532
0.116743 -0.203202 0.53327 -3.73498e-05 -0.0174008 0.999849
-0.00546294 0.290745 0.192655 -1 2.5721e-07 8.41342e-07
0.0145764 0.438594 0.281445 0.965802 0.207085 0.156021
0.00210708 -0.293877 0.145313 -0.76802 0.636309 0.0724968
-0.00514285 -0.456778 0.190706 -0.965371 0.259202 -0.0295373
-0.000522264 0.391315 0.0528877 -0.258406 -0.531797 0.806485
0.009514 0.307813 0.3601 0.70643 0.0321234 0.707054
0.00176454 0.141122 0.130871 -0.256786 -0.886303 -0.385393
-0.00823211 0.243193 0.196013 -0.997914 0.0645261 0.00172251
0.0123013 -0.205984 0.0500664 0.965799 -0.142739 0.216465
-0.0018828 -0.418122 0.088847 -0.704204 0.555657 0.441975
0.00274331 0.307278 0.113135 0.765685 -0.639082 -0.0728123
0.0144098 -0.0703101 0.309903 0.939685 -0.248109 -0.235446
0.00257388 -0.319714 0.175449 0.170144 -0.221651 0.960168
-0.0184322 0.276202 0.174385 0.757669 0.628331 -0.176457
0.00277407 -0.2882 0.0271623 0.258222 -0.077463 0.962975
0.0024665 -0.342642 0.16918 0.171823 0.221614 -0.959877
-0.00870759 0.36165 0.0234122 -0.965802 0.084408 -0.245158
-0.0240987 0.0428661 0.144027 -1 0 0
0.00262952 0.273176 0.31289 0.499213 -0.851966 -0.157927
-0.0137394 0.158112 0.129287 -0.997678 0.0662016 -0.0159819
0.00236534 0.373234 0.124304 -0.171839 -0.5997 -0.781557
-0.00136542 0.103985 0.391758 -0.500068 -0.794155 0.345326
-0.00878069 -0.319734 0.345883 -0.965796 0.0207925 -0.258469
-0.0112036 0.177445 0.579477 -0.302219 0.332373 0.893416
-0.00915013 -0.165782 0.415076 -1 0 0
0.0135945 -0.175169 0.0679467 0.965801 0.19208 -0.174169
0.00605954 0.0425605 0.366034 1 0 0
0.0106718 0.142072 0.453707 0.93969 0.319311 -0.122572
-0.00325372 -0.249875 0.027678 -0.704014 0.283203 -0.651276
0.00460746 0.163519 0.55935 -0.897312 -0.104473 -0.428855
0.00285686 -0.404424 0.131207 0.939569 0.144683 -0.310284
-0.00604109 0.0303965 0.34111 -0.921197 -0.342515 -0.184607
0.00215948 0.345123 0.250026 -0.493508 -0.716792 0.492604
-0.00115953 -0.219134 0.31357 -0.256771 -0.574882 -0.776903
0.00684377 0.281969 0.0178113 0.70402 -0.0804118 -0.705613
-0.00532677 0.00245869 0.22652 -0.760714 -0.470997 -0.446627
0.00252402 0.3176 0.192275 0.170528 0.514845 -0.840152
0.00632935 -0.465684 0.252064 0.25817 -0.904325 0.33992
0.0473922 -0.283481 0.235128 -0.172793 0.888716 -0.424649
-0.0102285 -0.216534 0.0360271 -0.965786 0.114511 -0.232689
-0.0100438 -0.134262 0.152478 -0.965801 -0.252226 0.0600852
0.00794359 -0.188047 0.296826 0.706433 -0.507404 -0.493451
-0.0088263 -0.00873399 0.257342 -0.939704 0.248074 0.235406
0.0066892 -0.414943 0.285846 0.703994 0.570904 -0.422447
0.0138829 -0.116046 0.441197 0.939691 0.139114 0.312456
-0.0129844 0.171827 0.143293 -0.997868 0.065156 -0.00373363
0.027478 0.185293 0.260727 -0.50018 -0.477774 -0.722185
0.00981723 0.114649 0.284933 0 -0.650459 0.759541
-0.0210368 0.0623781 0.209224 -1 0 0
-0.00915013 0.0361281 0.205258 -1 0 0
-0.0128364 0.181314 0.104652 -0.997564 0.0697451 0.00121721
0.00271841 0.244872 0.261464 0.507979 0.714097 0.481688
0.0129444 0.444041 0.0817319 0.706481 0.579768 -0.405899
0.0259771 0.294138 0.184351 0.00461967 -0.656331 0.754459
-0.00577262 0.122954 0.42443 -0.939678 -0.313698 0.136373
0.0331051 -0.233532 0.352993 -0.9397 0.323364 -0.111355
0.000939796 -0.170343 0.513306 -1.56222e-05 0.333839 0.94263
0.0122469 0.369379 0.035819 0.706338 -0.312469 0.635177
-0.0114173 0.0658374 0.177412 0 0.325624 0.945499
0.00280433 -0.307248 0.0398352 0.764201 -0.643775 0.0393879
-0.00585059 0.224131 0.324158 -0.706411 0.312525 -0.635068
0.00271503 -0.351361 0.121573 0.50399 -0.646908 0.57228
0.0143259 0.400343 0.312131 0.96579 -0.161788 -0.202668
0.0130662 0.159456 0.099058 0.706392 0.614219 0.351775
0.0202986 0.254349 0.172338 0.499575 -0.0212762 0.866009
0.00209838 0.256396 0.207375 -0.768499 0.339066 0.542626
-0.00941845 -0.147273 0.249251 -0.965797 -0.239388 -0.0996504
0.0114645 -0.0387665 0.295963 0.766054 0.466255 0.442457
-0.00783331 -0.0667291 0.321083 -0.939693 0.248093 0.235429
-0.00608688 0.298871 0.167577 1 2.56763e-07 -7.46216e-07
-0.00917468 -0.147742 0.450528 -0.135645 -0.39982 -0.906501
-0.00243268 -0.186848 0.324118 -0.258339 0.602701 0.754992
-0.014129 0.0701536 0.156633 0 0.656103 -0.754672
-0.0447243 -0.221935 0.522187 0.0808914 0.61983 -0.780556
0.00168026 0.0750484 0.216649 -0.133316 0.990682 0.0278622
-0.00672494 0.111836 0.389843 -1 0 0
-0.00433369 -0.363493 0.0389289 -0.706481 0.29014 0.645525
0.00221871 -0.397081 0.157562 -0.49833 -0.195037 0.844765
0.0059776 -0.463103 0.169465 0.704014 -0.702384 -0.104981
0.00250862 0.0430945 0.392492 -0.173512 -0.187911 0.966738
0.00893764 0.411077 0.0407575 0.258257 0.628652 -0.733553
0.000254708 -0.199314 0.523007 -0.500186 0.365982 0.784775
0.00534782 -0.28869 0.363522 0.258243 0.0438331 0.965085
0.0148192 0.207469 0.04153 0.965797 0.135101 0.221325
0.0341298 0.10644 0.160052 -1 0 0
0.0144202 0.196159 0.319356 0.965798 -0.142739 0.21647
-0.00653009 -0.056045 0.399608 -0.73829 -0.270859 -0.617708
-0.0217403 0.149417 0.283709 -0.76618 0.35457 0.535955
-0.00792855 0.251087 0.128875 -0.997564 0.0697466 0.00121579
-0.0102205 -0.175291 0.0687311 -0.965798 0.192085 -0.174174
0.0117225 -0.104503 0.340268 0.74356 -0.492469 -0.45232
-0.00712712 0.461837 0.116086 -0.706354 0.66262 -0.248997
0.00412104 0.111613 0.411692 0.173717 -0.903109 0.392703
0.00478858 -0.381717 0.34406 0.258222 -0.426506 0.866841
0.000497619 0.44555 0.225691 -0.25633 -0.886413 -0.385444
-0.00944419 -0.170292 0.298023 -0.965799 0.185892 0.180767
-0.00345121 0.0615667 0.362315 -0.76609 -0.340598 0.545068
0.0206518 0.136777 0.169387 0.500015 0.00479754 0.866004
-0.00603935 0.277727 0.150694 -0.997564 0.0697483 0.00121838
0.0374376 -0.263395 0.23597 0.487441 -0.725231 0.486253
-0.00245489 -0.386851 0.30964 -0.704261 0.441923 -0.555626
-0.00497166 0.0764136 0.271492 -1 0 0
0.0116453 0.458831 0.160337 0.706556 -0.703517 0.0764303
0.00701946 0.164717 0.276042 0.704071 -0.570847 0.422395
0.00283537 -0.370515 0.0989325 0.769691 0.478166 -0.423006
-0.00403224 0.069587 0.392255 -0.939704 -0.0652524 0.335705
0.0131999 -0.238894 0.02348 0.965783 0.0844227 -0.245225
-0.013025 0.149199 0.572825 -0.945364 0.179946 0.271858
0.0132057 0.247249 0.335055 0.706425 0.230402 -0.669237
0.00885956 -0.15474 0.121192 0.965374 -0.242719 0.0956059
0.00204774 0.172678 0.522271 -0.173715 0.919391 -0.352907
0.0109931 0.192352 0.559023 -0.52994 0.549775 -0.645687
0.0147343 0.135379 0.230551 0.9658 -0.252229 0.0600971
-0.00535874 -0.293189 0.0055368 -0.706536 0.0567442 -0.705399
0.00433018 0.135375 0.159853 0.256917 -0.955818 -0.142846
0.00410102 0.354561 0.337294 0.25672 0.35421 0.899239
-0.0167087 -0.250151 0.351367 0 -0.951052 0.30903
-0.030875 0.00572575 0.15819 -0.382754 0.0222964 -0.923581
-0.00117392 0.0950076 0.180478 0.737056 0.267584 0.620602
-0.0240987 0.0455016 0.172105 -1 0 0
0.0140336 0.140011 0.112467 0.965803 -0.239367 -0.0996371
0.00886876 0.470756 0.234546 0.258234 0.931412 0.256489
0.00478118 0.0554765 0.259434 0.133415 -0.987754 -0.0808869
-0.0240987 0.0715831 0.140545 -1 0 0
-0.0158161 0.128488 0.158126 -0.997876 0.065144 0.000586368
-0.0210368 0.0890411 0.184772 -1 0 0
0.0127604 -0.132908 0.230883 0.965796 0.249993 0.0688579
-0.0967455 -0.225175 0.547729 0.197437 -0.609905 0.767486
0.0067782 0.1507 0.146228 0.256664 0.955882 0.142874
0.0125297 -0.473022 0.175252 0.96579 -0.259286 -0.00452493
-0.00524465 0.288196 0.202057 -0.997564 0.0697494 0.00121853
-0.00776642 0.134986 0.193339 -0.965801 0.257768 -0.028005
0.0106315 0.281335 0.340134 0.706364 0.0567769 -0.705568
-0.0430989 -0.284252 0.187113 0 0.72506 -0.688685
0.00781685 -0.436099 0.264146 0.706329 0.626163 -0.33018
0.0137101 -0.0770088 0.411283 0.939696 -0.139106 -0.312444
0.0320538 0.19746 0.572827 0.740918 -0.550472 0.384734
-0.00284125 -0.139114 0.102448 -0.258354 0.854549 -0.450554
0.0104622 0.0491784 0.297051 0.791241 -0.564075 -0.236129
-0.00406411 0.0145923 0.362316 -0.791239 -0.524834 -0.313832
-0.00743076 0.419793 0.307388 -0.965807 0.185858 0.180757
-0.0330614 -0.256858 0.252842 0.173047 0.901025 -0.397754
0.00976146 0.334 0.0239649 0.965388 0.0385583 -0.25795
-0.00191361 0.445404 0.133608 -0.704079 -0.660704 0.260273
0.0071593 0.254545 0.355654 0.258368 -0.197544 0.945633
-0.000624901 0.156908 0.235734 -0.704087 0.660703 -0.260256
-0.0095827 -0.449034 0.256146 -0.965787 0.229414 -0.120932
0.00694634 0.430186 0.0929988 0.258212 -0.79133 0.554187
-0.012216 0.18348 0.1587 -0.997847 0.0654768 0.00366091
0.00224216 0.235293 0.164946 -0.498345 0.195042 -0.844755
0.0121725 -0.0337457 0.4072 0.765996 0.261468 0.58727
-0.0423687 -0.304551 0.190538 0 -0.757988 0.652268
-0.00366137 -0.216647 0.0533058 -0.704044 -0.442082 0.555775
0.00249899 -0.224195 0.207853 0.173821 -0.328719 0.928294
-0.0302622 -0.223205 0.39213 -0.939647 -0.323513 0.111366
-0.00970004 -0.205232 0.321557 -0.965795 -0.135099 -0.221334
0.0668808 -0.222504 0.521097 0.0197939 -0.114907 -0.993179
-0.00533117 -0.473238 0.143925 -0.706323 -0.682483 -0.187951
-0.000130087 -0.128977 0.360683 -0.162227 -0.724139 -0.670302
0.00213956 -0.254705 0.344207 0.256581 0.35425 0.899263
-0.0098821 -0.426522 0.0747307 -0.965806 0.185882 0.180741
0.0151019 -0.0315546 0.276284 1 0 0
0.00138902 0.124243 0.137442 -0.258341 -0.931365 -0.256551
0.0140197 0.452337 0.240858 0.965797 -0.239384 -0.0996538
0.00995753 0.143496 0.298646 0 0.115171 0.993346
-0.00812479 -0.0134162 0.388669 0.791876 0.249546 0.557369
-0.00870336 0.311327 0.179626 -1 0 0
0.00845897 -0.029444 0.384424 0.500025 -0.35265 -0.790957
0.00289459 0.318177 0.234236 0.93988 0.319873 -0.119614
0.00205333 -0.248147 0.158971 -0.765396 -0.256617 -0.590183
-0.00688533 0.266237 0.11575 -0.997564 0.0697487 0.0012122
0.012402 -0.348061 0.351396 0.965796 -0.0844237 0.245176
-0.00618621 0.176492 0.0755628 -0.70643 0.507425 0.493432
0.0148165 0.469042 0.199811 0.965793 0.256662 0.0369874
0.0135445 -0.275463 0.349916 0.965793 -0.0441448 -0.255531
0.00434194 0.288759 0.174667 1 0 0
-0.0210408 0.187384 0.251186 -0.500186 -0.477772 -0.722183
0.003355 -0.173256 0.0998396 0.256717 -0.776916 0.574889
-0.0205081 0.210231 0.562452 0.493039 0.549001 -0.674915
0.00274552 -0.189988 0.15795 0.765487 -0.133781 -0.62939
0.00448608 0.451903 0.183635 0.256918 -0.960223 0.109384
0.0208008 0.167771 0.181214 0.500052 0.00757099 -0.865962
-0.00970121 -0.446343 0.272017 -0.965799 -0.229374 0.120911
-0.0079838 0.0123664 0.385095 -0.766104 0.261417 0.587151
0.0104707 0.0475297 0.342021 0.939678 0.181267 -0.290083
0.00605952 -0.142686 0.426704 1 2.32079e-06 3.82478e-06
-0.0205849 0.247458 0.219804 -0.500191 0.477939 0.722069
0.0332189 -0.225475 0.520954 -0.0152419 0.149673 -0.988618
-0.0568475 -0.277938 0.215488 -0.928279 0.370062 0.0367764
-0.0236435 -0.233798 0.325376 -0.173418 0.931202 -0.320608
0.0151553 -0.0128728 0.252352 0.939688 -0.248101 -0.235441
0.014348 0.262393 0.0127286 0.965807 -0.0441098 -0.255484
0.014703 0.152468 0.269419 0.965796 -0.229373 0.120937
0.00818208 -0.244104 0.335768 0.965357 0.0956369 0.242775
-0.0460718 -0.279182 0.2447 -0.490461 -0.740005 0.46026
0.00179301 -0.285428 0.334558 0.256667 -0.109422 -0.960286
0.0125587 -0.326521 0.0220775 0.965807 0.0441326 0.255476
-0.00915013 -0.126506 0.373022 -1 0 0
0.0235866 0.0728966 0.160799 0 0.874614 -0.484819
0.0121259 0.0211148 0.208589 0.766054 -0.46625 -0.44246
0.013299 -0.417107 0.0657062 0.965803 0.185871 0.180767
-0.00567096 -0.143034 0.405564 -0.765966 0.46633 0.44253
0.0119201 0.223449 0.340783 0.706407 -0.31248 0.635094
-0.00482413 -0.37324 0.321935 -0.965371 0.104024 -0.239243
0.00398152 -0.389806 0.062151 0.256705 0.574877 0.77693
0.00849406 -0.148199 0.23815 0.96535 0.239314 0.104056
-0.000480143 -0.31133 0.335686 -0.256671 0.142859 -0.955882
-0.00618514 0.289082 0.342712 -0.706364 0.056794 -0.705566
-0.136171 -0.205319 0.540699 -0.250445 -0.956365 -0.150474
-0.00952431 -0.405075 0.0559529 -0.965785 0.161799 0.202682
0.0183849 0.16447 0.576101 0.901729 0.0262549 0.431504
-0.00275943 0.0295254 0.195759 -0.50004 -0.628173 -0.596119
0.00863372 -0.194352 0.0672258 0.965369 -0.162406 0.204173
-0.00703086 -0.328736 0.0253656 -0.706403 0.120487 0.697479
0.0109439 0.0692484 0.186511 0.921189 0.388949 -0.0113828
0.00773754 -0.22293 0.346119 0.25841 0.396 0.88114
0.0955215 -0.204443 0.548869 -0.0712247 0.366421 0.927719
0.0155696 0.0510051 0.173979 0 -0.656102 0.754672
0.0120794 0.121459 0.401734 0.939688 0.313662 -0.136391
0.00279812 0.337529 0.152699 0.766503 0.390967 0.509528
-0.00650524 -0.141422 0.214312 -0.706396 -0.700578 -0.100976
0.00121701 0.178164 0.295267 -0.256764 -0.776913 0.574873
0.00255153 -0.307954 0.225384 0.177703 0.967601 0.179362
0.0151019 -0.161751 0.414558 1 0 0
-0.00295023 0.174467 0.310254 -0.706441 -0.460584 0.537405
0.0107915 0.422961 0.0530856 0.706465 0.460583 -0.537374
-0.00370634 -0.0253658 0.40653 -0.518397 0.352707 0.779014
0.0394385 0.151287 0.162205 0.793368 0.00655796 -0.608707
-0.0081056 0.469387 0.156063 -0.965823 0.257684 -0.0280205
-0.00976203 0.22503 0.119292 -0.997564 0.0697506 0.00120736
-0.0190564 0.14117 0.1678 -0.17343 -0.00545491 -0.984831
0.00410404 -0.167645 0.401466 0.173683 -0.71435 -0.677893
-0.0137006 0.176716 0.20698 -0.384065 0.0892476 -0.918983
-0.0990284 -0.205906 0.533223 5.22016e-05 0.0176429 -0.999844
-0.00993828 0.250381 0.0916386 -0.79072 0.0427194 -0.610686
0.00270646 -0.276605 0.180383 0.502319 -0.0301674 -0.864156
-0.0181919 0.130607 0.207413 -0.921582 0.018594 0.387739
-0.00605522 0.311717 0.157288 -0.992886 0.00511259 0.118959
0.00890249 -0.199266 0.0363521 0.706368 0.389632 -0.590957
0.0114641 0.0907747 0.375065 1 0 0
-0.0180306 0.102521 0.112216 -0.14577 -0.154322 -0.977208
0.0102335 -0.173851 0.492856 1 0 0
0.00606233 -0.166583 0.26149 0.704117 -0.651189 -0.283146
-0.0163803 -0.300003 0.185985 0.0275122 -0.0174935 0.999468
-0.00513786 -0.147399 0.234608 -0.965351 0.239311 0.104056
-0.0210368 0.0176667 0.188716 -1 0 0
0.0421935 -0.301418 0.18875 0.998292 0.0442819 -0.0381053
-0.00785225 0.363637 0.333277 -0.965801 -0.106285 -0.236501
-0.00745642 -0.0630569 0.299266 -0.766054 -0.466254 -0.442457
0.0118492 -0.210147 0.406367 0.939688 -0.323406 0.11133
-0.00420218 -0.477219 0.206923 -0.258396 -0.960379 0.104425
0.00405336 0.166181 0.545587 0.173308 -0.919454 0.352943
-0.000876076 0.14727 0.195406 -0.704055 0.70558 -0.0803994
-0.00557137 0.0423651 0.328642 -0.991065 0.11911 0.0600264
0.00663723 0.475693 0.218867 0.258484 0.931329 0.256541
-0.010733 -0.239831 0.366212 0.753313 -0.214153 -0.621818
0.00989885 -0.469942 0.232494 0.706293 -0.688659 0.164007
-0.0117351 0.272216 0.188947 0.757669 0.628331 -0.176457
-0.00276768 -0.363524 0.351818 -0.258353 -0.314529 0.913414
0.00765593 0.427337 0.266008 0.704069 -0.555752 -0.442071
0.0311574 -0.245638 0.329193 -0.766063 0.60775 -0.209256
0.00342363 0.0607463 0.160705 0 0.016962 -0.999856
-0.0221287 0.0314435 0.173854 1 0 0
0.0199832 -0.30474 0.18145 0.0123405 -0.987585 0.156601
-0.00803262 0.244609 0.0180842 -0.965784 -0.0758139 -0.248018
0.0280993 0.23154 0.565026 0.895926 -0.204791 -0.394179
0.045164 -0.264917 0.254771 -0.956085 -0.0953758 -0.277139
0.0070042 -0.445624 0.134747 0.704105 0.651201 0.283149
0.00389491 -0.186134 0.476983 3.77611e-05 -0.913558 0.406708
0.0100093 -0.168453 0.303313 0.706429 0.50741 0.49345
0.0147514 0.356092 0.0243063 0.965811 -0.0843964 0.245124
0.00280363 -0.186301 0.453024 -0.173773 -0.400543 -0.899649
-0.00109725 0.146458 0.488122 -0.766034 -0.600109 0.230351
-0.000594354 0.272667 0.331438 -0.703996 0.104969 -0.702404
0.00409848 -0.426234 0.312327 0.258267 -0.715677 0.648925
-0.00581757 0.0662821 0.227654 -0.991063 0.133219 0.00680129
-0.00340679 0.235391 0.57914 -0.807096 0.193479 0.557818
-0.0423478 -0.23263 0.532252 -0.104599 -0.794582 0.598079
0.0493983 -0.275242 0.194969 0.173552 -0.941992 0.287282
0.0151 -0.000908496 0.386274 0.939691 0.139114 0.312456
0.00532586 0.0166675 0.242125 0.173774 0.714334 0.677886
0.00196741 0.232126 0.187985 -0.939995 0.0386229 0.338996
0.00807791 -0.166962 0.277437 0.96536 0.204199 0.162425
-0.0094125 0.102627 0.182208 -0.17344 -0.0751506 0.981973
0.0136973 0.0731181 0.322553 1 0 0
-0.00121228 -0.0129444 0.272858 -0.173774 0.71434 0.677879
0.0021037 0.125664 0.562946 0.969375 -0.125403 -0.211155
0.0106348 0.09022 0.167455 -0.173105 0.0537974 0.983433
0.0125063 -0.414896 0.300322 0.965797 0.192098 -0.174171
-0.0182871 0.219515 0.238661 0.173488 0.543577 0.821235
0.126701 -0.197605 0.550289 0.0652874 -0.319279 -0.945409
-0.00700542 0.264298 0.128444 -0.997564 0.0697415 0.00122096
-0.0011325 -0.0824749 0.432929 -0.173569 0.400561 0.89968
-0.00228122 0.0661338 0.334931 0.000104248 -0.669035 0.743231
-0.0035943 -0.171707 0.438175 -0.500031 0.628186 0.596114
-0.00821503 0.17813 0.272504 0 0.824117 -0.566419
0.0151019 -0.115217 0.364958 1 0 0
0.00256256 0.151051 0.107504 -0.256828 -0.886294 -0.385385
-0.0243834 0.16871 0.180135 -0.766005 -0.00562 0.64281
0.0102749 -0.157128 0.442767 0.499978 -0.352245 -0.791167
0.00355265 -0.24368 0.0429925 0.256625 -0.385382 0.886354
0.0087635 -0.140186 0.174849 0.965352 0.259274 -0.0295455
0.0853079 -0.217172 0.541633 0.504739 -0.856209 0.110205
-0.00772024 0.306437 0.19106 1 0 0
-0.00964794 0.22195 0.13831 -0.997678 0.0662016 -0.0159819
-0.0190667 0.0900052 0.163342 1 0 0
-0.00272119 0.159897 0.580043 -0.911867 0.195892 0.360728
-0.0106289 0.243888 0.212203 -0.918406 0.0815123 -0.387151
-0.000107528 -0.140105 0.268859 -0.258242 0.838312 0.480149
-0.00290503 -0.121025 0.161561 -0.258414 0.960382 -0.104345
0.0114204 -0.167786 0.0892486 0.706403 -0.579811 0.405973
0.0132723 -0.211917 0.33087 0.965797 0.135098 0.221324
-0.0112349 0.274675 0.203504 0 -0.962755 0.270375
-0.000176386 0.314882 0.0173449 -0.25678 0.14288 -0.95585
-0.0290547 -0.235386 0.33724 -0.939688 0.323401 -0.111351
0.00955361 0.451439 0.211319 0.965389 -0.257947 -0.0385579
0.00836719 -0.146557 0.090386 0.706414 0.579795 -0.405977
0.00904825 0.138901 0.261543 0.258375 -0.854548 0.450544
0.00605954 0.0808045 0.386485 1 0 0
0.00269315 -0.300831 0.198824 0.502173 -0.864635 -0.0150999
0.00158306 0.186366 0.0595759 -0.256811 -0.574882 -0.776891
-0.00235415 0.126105 0.228405 -0.258301 -0.939764 0.223884
0.0138801 0.24527 0.0266802 0.965802 0.0758002 0.247952
0.0267661 0.116302 0.172148 -0.887203 0.326642 0.325847
0.00430877 0.0507097 0.283773 0.133346 -0.932737 -0.334993
0.0123125 0.153746 0.0816044 0.706394 -0.565286 -0.425979
-0.00484761 -0.454063 0.204885 -0.965339 0.259322 -0.0295397
0.0224049 -0.243591 0.298294 0.50004 -0.818825 0.281932
-0.00349534 0.147978 0.559775 -0.913903 0.148978 -0.377608
0.00290921 -0.41601 0.152744 1 0 0
0.0151307 0.347564 0.3437 0.965792 0.0758236 0.247985
0.00238824 -0.284684 0.274716 -0.17206 0.972954 -0.154128
-0.00214102 0.382568 0.0401123 -0.704051 0.283154 -0.651257
0.00579076 -0.356208 0.32565 0.704222 0.283111 -0.65109
-0.014636 0.103905 0.170074 -0.737073 -0.267591 -0.620579
0.00113428 -0.128562 0.434004 -1 0 0
-0.00393945 0.0728915 0.170452 0 0.857211 0.514966
0.0105958 -0.430621 0.277399 0.706403 0.579776 -0.406023
-0.00758452 0.46336 0.182648 -0.965801 -0.259246 -0.0045306
0.00321523 0.0961255 0.308915 2.95357e-05 0.669121 -0.743153
0.0134322 -0.135724 0.135164 0.965799 0.252232 -0.0600862
0.00286939 -0.291648 0.232614 0.939158 0.339254 -0.0537529
-0.0238462 -0.265334 0.285306 0.173989 -0.93522 0.308369
-0.118077 -0.209301 0.547903 -0.160959 -0.635535 0.755108
-0.00792549 0.278741 0.112047 -0.826331 -0.488597 -0.280088
0.0282322 0.214018 0.17197 -0.762734 -0.100149 0.638911
-0.0156521 0.236946 0.574997 -0.495412 0.532583 0.686238
-0.00160013 0.0663309 0.290134 -0.389126 0.866883 0.3116
0.00317586 -0.442943 0.233208 0.257049 0.899147 -0.354205
-0.0156687 -0.241765 0.298756 0.499904 0.818885 -0.281998
0.00923588 0.0282934 0.362028 0.791187 0.531284 0.302921
-0.000420775 -0.211409 0.417189 -7.04816e-06 0.325592 0.94551
0.00236982 0.0281834 0.33205 -0.133617 -0.872378 -0.470216
0.0138481 0.173483 0.0607805 0.965795 -0.185905 -0.180775
0.0113088 0.223041 0.579464 -0.711104 0.193149 0.676036
0.0151019 -0.1333 0.384535 1 0 0
-0.020034 0.043059 0.127344 0.590789 -0.31456 -0.74298
0.0150277 0.170592 0.289236 0.965797 0.192092 -0.174177
0.00226529 -0.327214 0.220812 -0.176524 -0.815992 -0.550451
0.0131338 0.372711 0.0218448 0.706332 0.312538 -0.63515
0.00750553 -0.0714114 0.334197 0.500027 0.628184 0.596119
0.0117784 -0.0625826 0.295945 0.766056 -0.466249 -0.442458
0.00267384 -0.204665 0.438133 -0.173626 -0.928328 0.328727
-0.015127 0.137113 0.129202 -0.997724 0.0659372 -0.0141465
-0.00792322 0.0516256 0.196004 -0.939691 0.248097 0.235434
-0.00286666 0.120524 0.195331 -0.7064 -0.703675 0.0764225
-0.124386 -0.195262 0.547044 0.199983 0.755063 0.624409
-0.00244029 0.331959 0.0305532 -0.704003 -0.104958 0.702398
0.00380605 0.45134 0.279584 0.258349 0.838287 0.480136
-0.00983088 -0.242398 0.341132 -0.9658 -0.075814 -0.247956
-0.0474833 -0.274827 0.198454 0.173919 0.932095 -0.317729
0.0142579 -0.0859274 0.426659 0.939691 0.139114 0.312456
0.0145893 0.428732 0.0764239 0.96581 -0.192069 0.17413
0.00014396 -0.154931 0.137457 -0.25682 -0.899207 0.354219
-0.0109284 0.208579 0.106074 -0.997564 0.0697466 0.00121579
-0.0312073 0.0506717 0.159413 -0.382754 0.0222964 -0.923581
-0.00901649 0.0021006 0.243829 -0.939691 0.248095 0.235436
-0.0426134 -0.271415 0.25956 -0.728317 -0.477002 0.491958
0.010774 -0.256742 0.0278869 0.706436 -0.144763 0.692815
-0.000530272 0.370599 0.316908 -0.70404 -0.260267 -0.660749
-0.0262266 0.195895 0.569925 -0.90116 -0.165027 -0.400844
-0.00435384 -0.160306 0.107698 -0.706428 -0.626091 0.330107
0.00369702 0.163299 0.259734 0.258375 0.854554 -0.450534
0.00105469 0.147424 0.246215 -0.256905 -0.89919 0.354198
-0.00883424 0.465758 0.211703 -0.965793 0.256661 0.0370023
-0.00309936 0.119663 0.274769 0 0.531173 -0.847263
-0.0081295 0.0774266 0.313679 -1 0 0
0.00268301 0.0326184 0.217982 0.000100474 0.544684 -0.838642
0.00281027 0.285523 0.162389 1 -3.57379e-07 -1.16918e-06
0.0137744 -0.00523886 0.238953 0.760784 -0.471451 -0.446029
-0.00681054 0.453044 0.265718 -0.70639 0.614196 0.351819
-0.00182487 0.0906538 0.359395 -0.570406 -0.758726 0.314597
0.00850306 -0.457421 0.201941 0.706485 0.703596 -0.0763671
0.0145692 0.298211 0.34768 0.965786 -0.0117727 -0.259072
0.01134 0.0691987 0.240098 0.899647 0.436537 0.00847882
-0.0047267 -0.454895 0.150315 -0.706222 0.682566 0.188027
0.00334742 0.0199598 0.388013 0.173511 -0.187908 0.966739
0.0280851 -0.220556 0.364158 -0.173538 -0.931177 0.320616
0.00381458 0.21669 0.0478061 0.258584 0.503261 0.824538
0.004947 -0.394717 0.0496607 0.256672 -0.57489 -0.776931
-0.00196332 -0.348414 0.342097 -0.703941 -0.283231 0.651342
0.0100502 0.36297 0.348367 0.706372 0.290156 0.645638
-0.00995333 -0.466253 0.167653 -0.965802 0.256628 0.0369885
0.00250129 -0.273156 0.20494 0.173769 0.671607 -0.720241
-0.00915013 -0.17581 0.428401 -1 0 0
-0.00885584 -0.398552 0.314058 -0.96579 0.168755 -0.196902
-0.00179897 0.175337 0.561023 -0.766028 -0.600114 0.230357
0.0142424 0.447407 0.25469 0.965797 -0.225003 -0.128878
-0.00908429 -0.245287 0.327987 0 0.958866 -0.28386
0.00162113 -0.204683 0.301958 -0.256762 -0.574883 -0.776906
-0.0206438 -0.210902 0.383672 0.17365 0.931179 -0.320549
-0.00915013 -0.0959014 0.341695 -1 0 0
0.021763 -0.25452 0.269819 0.744163 -0.51319 0.427618
0.000877944 -0.0694223 0.401358 -0.17356 -0.400559 -0.899683
0.00217842 0.309154 0.096285 -0.491336 -0.865369 -0.0986222
0.00282849 -0.287863 0.0867872 0.7657 -0.639064 -0.072811
-0.0173931 0.104284 0.143317 -0.997877 0.0651091 -0.0015296
0.0135715 -0.296044 0.35168 0.965792 -0.0117637 -0.25905
0.00281567 -0.386584 0.190034 0.765595 0.0728229 0.639188
-0.000951368 0.315608 0.333185 -0.704205 -0.0803819 -0.705432
0.00218683 0.214287 0.207331 -0.497961 -0.267959 -0.824762
-0.00671416 0.267853 0.151625 -0.997914 0.0645261 0.00172251
-0.00107353 -0.23321 0.321187 -0.256812 -0.354198 -0.899217
-0.0248034 -0.257534 0.301944 -0.173642 -0.912618 0.370104
0.000533156 -0.165615 0.0624667 -0.258408 0.715634 -0.648917
0.0186804 -0.255882 0.293423 0.939688 0.323403 -0.111346
-0.00915015 -0.0621001 0.411241 -1 -4.0005e-07 1.78082e-07
-0.00308195 0.388212 0.336809 -0.706352 0.368808 0.604191
-0.0106411 0.205885 0.197977 -0.997914 0.0645261 0.00172251
0.000360254 0.272587 0.184444 1 0 0
-0.00602149 -0.254287 0.355755 -0.706407 0.20695 0.676876
-0.00157243 -0.122354 0.217912 -0.258344 0.956177 0.137785
0.0088749 -0.307778 0.0250691 0.965375 -0.0295357 -0.25919
-0.0240987 0.0238895 0.163001 -1 0 0
-0.135368 -0.192255 0.535256 0.160936 0.635693 -0.754979
-0.00932827 -0.190204 0.467843 1.02906e-06 -0.913512 0.406812
0.00866799 -0.36463 0.0409782 0.96536 0.0956271 0.242768
0.00236317 0.439988 0.237241 -0.25633 -0.886413 -0.385444
0.00272881 -0.221371 0.191452 0.497026 0.113272 -0.860311
0.00703494 -0.194764 0.410295 0.499912 0.818891 -0.281968
0.00993398 0.0717233 0.39281 0.939704 -0.0652524 0.335705
0.00782404 0.121784 0.431989 0.186236 -0.352047 0.917267
0.100847 -0.207446 0.533211 -0.0652645 0.319183 0.945443
-0.00674822 0.34376 0.0113348 -0.706429 0.144752 -0.692824
0.00292528 -0.274263 0.034696 0.256686 -0.142846 0.95588
-0.0379621 0.290762 0.17723 0 -0.857183 -0.515011
0.0147246 0.319213 0.347073 0.965805 -0.0441229 -0.255488
-0.00821178 0.2093 0.321153 -0.965793 0.14275 -0.216486
0.00972195 0.295651 0.0197679 0.965377 -0.0295353 -0.25918
-0.0210368 0.0488462 0.208189 -1 0 0
0.0443388 -0.229409 0.533927 0.0775503 -0.619828 0.780896
-0.00939267 -0.0317151 0.273606 -1 0 0
-0.0183304 0.119342 0.168652 -0.491768 -0.17379 -0.853207
-0.00998729 -0.328036 0.351617 -0.965797 -0.0530189 0.25382
0.00315751 0.0407162 0.306589 0.133348 -0.898951 -0.41726
0.0128106 -0.194461 0.32118 0.965796 0.16177 0.202652
-0.00815005 -0.302501 0.359604 -0.706404 -0.0567673 0.705529
0.00746217 0.0558114 0.360682 0.499919 -0.458946 0.734472
0.00744441 0.137751 0.468868 0.500113 -0.808444 0.310331
0.0249656 0.213804 0.233001 0.17406 0.543501 0.821164
0.018414 -0.232566 0.34408 0.939729 -0.323295 0.111309
0.140208 -0.222062 0.547244 0.550617 0.671526 -0.495856
0.00909869 0.465093 0.249765 0.258369 0.891866 0.371242
0.0122278 -0.167735 0.449623 0.766069 -0.26143 -0.58719
0.00636075 -0.166885 0.47065 0.173569 0.400565 0.899678
-0.012101 0.188692 0.120788 -0.996971 0.0511217 0.0586029
0.0147859 0.373897 0.334928 0.965801 0.106285 0.236498
0.0117472 0.0977503 0.276597 1 0 0
-0.00174335 -0.141875 0.375524 -0.500028 -0.628181 -0.596121
0.00204117 -0.363212 0.151006 -0.767181 -0.271073 0.581337
-0.0127563 0.19731 0.179367 0.76606 0.00771816 0.642723
0.0121711 0.251621 0.571796 0.113267 0.636133 0.76322
0.022397 -0.243479 0.359191 -0.753313 -0.214143 -0.621821
0.00955183 0.0600402 0.348491 0.765972 0.340646 -0.545203
0.0105845 0.0442873 0.328324 0.921201 0.347459 0.175104
0.00833891 0.177775 0.0873871 0.703988 0.555821 0.442113
-0.0221287 0.0564574 0.173575 1 0 0
0.00290916 0.336023 0.180693 1 0 0
-0.00736513 0.225405 0.339395 -0.965799 -0.114476 0.232652
0.0148588 0.129415 0.195387 0.96579 -0.257809 0.0280094
-0.00638746 -0.436289 0.296619 -0.706403 -0.524338 0.475462
-0.00303079 -0.179483 0.501597 -0.765949 -0.27166 -0.582686
-0.00102918 0.454531 0.151189 -0.257984 -0.939853 0.223876
-0.00244734 -0.203888 0.51221 -0.766164 -0.271612 -0.582425
0.00281029 0.287827 0.187265 1 0 0
0.00197476 0.305691 0.201727 -0.939954 -0.319683 0.119539
0.0126876 0.292952 0.179613 0 -0.981568 -0.191113
0.1133 -0.211262 0.546567 -0.165227 0.858663 -0.485177
-0.00722136 -0.170142 0.0870326 -0.706397 -0.579824 0.405965
0.00221056 -0.181146 0.17701 -0.49792 -0.030258 -0.866695
0.00235086 -0.30459 0.170609 -0.177626 -0.86072 0.477085
0.0162405 -0.249937 0.30814 0.939699 0.323368 -0.111345
-0.00646416 0.064968 0.263006 -0.991063 0.132461 0.0157548
0.0115317 -0.195743 0.448367 0.939677 -0.322443 0.114179
-0.0121937 0.149658 0.177984 0.939688 -0.00298195 0.34202
-0.00356378 0.289331 0.359624 -0.706443 -0.0567783 0.705489
0.000914896 0.255026 0.341601 -0.256755 -0.142859 0.95586
-0.0306003 0.303387 0.183911 0.00694638 0.856986 0.515293
0.00113428 -0.14447 0.437548 -1 0 0
-0.00838818 0.241195 0.180446 -0.997914 0.0645261 0.00172251
0.0119408 0.332606 0.354748 0.706449 0.120464 0.697437
0.00150161 -0.152447 0.420558 -0.173519 0.714371 0.677913
0.00426112 0.165593 0.502947 0.173714 0.919391 -0.352907
-0.000625068 0.310481 0.0016669 -0.258154 0.0774501 -0.962994
0.0110298 0.0839298 0.181423 -0.491159 0.191958 -0.849656
0.144709 -0.201846 0.548639 -0.981648 -0.190675 -0.00319936
0.0130237 -0.228546 0.535593 0.0133129 -0.149416 0.988685
0.00328275 -0.337209 0.345361 0.256551 -0.142847 0.955917
0.00928879 0.0782505 0.3729 0.766077 -0.340608 0.54508
-0.00400852 0.425301 0.277563 -0.965362 0.204188 0.16243
0.0222319 0.0632397 0.178307 0 0.325624 0.945499
-0.00420442 -0.226421 0.0474266 -0.704059 -0.283184 0.651236
0.0134304 0.440978 0.101259 0.706485 -0.626057 0.330048
0.017161 0.20616 0.560081 0.710665 -0.37374 -0.596048
-0.00402081 0.407662 0.0639049 -0.706458 -0.460574 0.53739
0.0281436 0.13021 0.181899 -0.499719 -0.00479767 -0.866174
-0.00475592 -0.434982 0.100951 -0.706359 0.614249 0.351788
0.0130208 -0.410034 0.315473 0.965805 -0.168735 0.196846
0.0132569 0.0594605 0.152704 0 0.0174632 -0.999847
0.0318934 0.192669 0.175031 -0.994276 -0.106839 -0.000916675
0.00269977 0.285879 0.248972 0.507647 0.847134 0.157031
0.00792995 -0.347519 0.0111932 0.706346 -0.20703 -0.676915
-0.00621582 -0.222114 0.530179 -0.00866605 0.988582 0.150437
-0.00101983 0.0404718 0.351431 -0.499942 -0.45895 0.734454
-0.0147929 0.142517 0.297109 -0.718574 -0.614484 -0.325668
0.0263499 0.1448 0.278731 -0.17351 0.543383 0.821358
0.0296975 0.210278 0.578554 -0.470903 0.55013 0.689643
0.00315699 0.150579 0.212127 -0.256597 0.960305 -0.109418
-0.00556788 0.0262831 0.358137 -0.991066 0.115865 0.0660635
0.0095367 0.193454 0.304002 0.965366 -0.162413 0.204184
-0.0351664 -0.0401206 0.166219 -0.923856 -0.00923716 0.38263
-0.00351245 -0.130447 0.122961 -0.25837 0.904283 -0.339877
-0.0178106 0.0950117 0.197782 -0.997914 0.0645261 0.00172251
-0.000237065 -0.189736 0.423111 -0.173892 0.928262 -0.328771
-0.0226775 0.161706 0.273738 -0.939647 0.188775 0.285354
0.00666828 -0.449723 0.0850072 0.258372 -0.838292 -0.480116
-0.028307 -0.242642 0.297463 -0.766137 0.607655 -0.209257
0.00772499 0.00751076 0.217814 0.499969 -0.630808 -0.59339
0.0114299 -0.256924 0.330947 -1 0 0
0.0107243 0.019479 0.356716 0.791234 -0.531224 -0.302902
-0.00595215 0.103838 0.379229 -0.939672 -0.313708 0.136396
0.00176584 0.0303286 0.382175 0 -0.184568 0.98282
-0.00346826 0.322216 0.181629 -1 0 0
0.00299692 0.211286 0.580879 -0.672587 0.0353178 0.739175
0.0233979 -0.213315 0.38918 -8.80142e-05 0.325557 0.945523
0.00467323 -0.0119465 0.375691 0.173569 -0.400562 -0.89968
0.0117027 -0.173671 0.508397 0.93971 -0.32237 0.114121
0.00350741 -0.197247 0.054451 0.256779 0.601647 -0.756363
-0.0168724 0.176159 0.562024 -0.615347 -0.548385 -0.566234
0.0124411 -0.469796 0.146948 0.965786 -0.250033 -0.0688572
0.00346494 0.162904 0.247989 0.25659 0.899269 -0.354228
-0.00696365 0.26329 0.178037 -0.997914 0.0645261 0.00172251
0.0105698 0.433822 0.29827 0.706318 0.507505 0.493512
-0.00761099 0.0255562 0.225062 -0.761008 0.473062 0.443935
-0.0217862 0.0718404 0.120782 -0.991024 0.0377322 -0.128251
0.00996125 0.385473 0.316866 0.965383 0.155153 0.209675
0.0342296 0.304258 0.179896 -0.00702611 0.987638 -0.156593
0.0106755 -0.115328 0.35005 0.499923 -0.628225 -0.596163
0.0123514 -0.455261 0.233055 0.965796 0.24272 -0.0912459
-0.00560954 -0.166416 0.501438 -0.939681 0.322428 -0.11419
0.00244978 0.298124 0.160575 0.175257 -0.982687 0.0600923
0.0114299 0.171599 0.264951 -1 0 0
-0.00310999 0.295782 0.210378 0.599179 -0.178638 -0.780431
-0.00324174 0.130371 0.432703 -1 0 0
-0.00320831 -0.448002 0.116301 -0.704277 -0.651047 -0.283077
0.0041125 0.431641 0.0825715 0.257035 0.776871 -0.574808
-0.00520671 0.363742 0.346318 -0.706372 0.29016 0.645636
0.013618 -0.452683 0.11051 0.965807 -0.239347 -0.0996456
0.00927613 0.0573877 0.325573 0.500023 -0.643559 -0.579491
-0.00295796 0.30243 0.336689 -0.704009 -0.0803785 -0.705628
-0.0257613 0.2243 0.569306 0.369695 0.750315 -0.548045
-0.0240987 0.0324924 0.147874 -1 0 0
-0.00956085 -0.226501 0.397046 0 -0.760356 0.649506
0.00786159 0.346329 0.327462 0.704205 -0.260207 -0.660596
0.000429114 0.454658 0.126479 -0.256671 0.899233 -0.354259
-0.000768438 0.136558 0.204618 -0.704003 -0.705632 0.0803978
0.00274465 -0.149421 0.149326 0.766004 -0.133649 -0.628789
-0.000441274 0.136599 0.578393 0.935048 -0.100711 0.339914
0.0101935 0.224039 0.0419518 0.965361 0.0956257 0.242765
0.0107673 -0.350314 0.336964 0.706373 0.230449 -0.669276
-0.0279539 -0.270413 0.255323 0.876247 -0.419133 -0.237736
0.00525232 0.118913 0.182299 0.258415 -0.965887 -0.0168455
-0.00946817 0.224792 0.169206 -0.997914 0.0645261 0.00172251
0.000847147 -0.118673 0.186338 -0.258347 0.965905 0.0168885
0.00484928 0.214393 0.324594 0.256632 -0.38539 0.886349
0.0112697 0.236898 0.0149576 0.706547 -0.206882 -0.676751
0.0519505 -0.286921 0.221661 -0.500006 0.80985 -0.306818
0.00586015 0.1597 0.527813 0.173225 -0.919452 0.352989
0.0181524 0.267719 0.177838 0.939691 0.00531528 -0.341984
0.000145085 0.0890166 0.29409 -0.49995 -0.643592 -0.579517
-0.00432761 0.366938 0.0363086 -0.706337 -0.312508 0.635159
-0.044868 -0.296164 0.179277 -1 0 0
-0.00823414 -0.221524 0.326583 -0.706393 -0.368772 -0.604166
0.0510151 -0.269676 0.238233 -0.890769 -0.410232 -0.195554
-0.000702358 0.224459 0.561993 -0.653172 0.0183871 -0.756986
0.00732989 0.259179 0.32976 0.70406 0.10496 -0.702341
0.00605954 0.0417684 0.378426 1 0 0
0.00853842 -0.302619 0.341827 0.965368 0.0385613 -0.258027
0.00687113 0.0575241 0.31266 0.389187 0.835526 0.387851
-0.00870336 0.290832 0.180983 -1 0 0
0.0078306 0.0727718 0.26862 -1 0 0
0.00729421 -0.463221 0.183939 0.703992 -0.705642 0.0804072
-0.0103784 0.210321 0.183963 -0.997914 0.0645261 0.00172251
0.0102021 0.409105 0.29827 0.96537 0.155184 0.20971
0.0119438 -0.026725 0.258686 0.766047 -0.466262 -0.442462
-0.00563185 0.24705 0.571877 -0.807096 0.193479 0.557818
-0.00640736 -0.265529 0.340936 -0.706397 -0.120485 -0.697486
0.00733664 -0.305772 0.363351 0.25824 -0.0774572 0.962971
0.0590051 -0.279618 0.204857 -0.925294 -0.375218 -0.055162
-0.00866987 -0.378688 0.339758 -0.706371 -0.312536 0.635108
0.0383463 -0.271547 0.223322 0.763183 -0.57828 0.288347
0.00167151 -0.173083 0.076627 -0.25657 0.776952 -0.574906
-0.00151421 0.424108 0.0927522 -0.70402 -0.570876 0.422441
-0.00982518 -0.46645 0.186469 -0.965799 0.259252 0.00453071
-0.00209888 0.256747 0.0230942 -0.704031 -0.260271 -0.660756
-0.00942114 0.224885 0.192985 -0.997914 0.0645261 0.00172251
-0.0190667 0.0545402 0.137133 1 0 0
-0.00242714 -0.338148 0.0352067 -0.704146 0.260235 0.660648
-0.00564883 -0.153576 0.461298 -0.766061 0.261439 0.587197
-0.0083336 0.425306 0.0657212 -0.965798 0.19208 -0.17418
-0.00546295 0.297423 0.190499 -1 -1.29455e-06 3.75981e-06
0.00274111 -0.438176 0.244992 0.257049 0.899147 -0.354205
-0.00311312 0.140423 0.149052 -0.965369 -0.258025 -0.0385626
0.00146386 -0.235446 0.0314832 -0.256767 0.385366 -0.88632
-0.00792238 0.398989 0.313192 -0.96579 -0.161799 -0.202661
0.0575746 0.1686 0.170388 0.0687075 0.241346 0.968004
-0.00479767 0.279295 0.134514 1 0 0
-0.00376236 0.323233 0.198773 -0.33401 0.812699 0.477448
-0.0281971 -0.0172361 0.15923 1 0 0
0.000890342 0.197174 0.311015 -0.256659 -0.601659 0.756395
-0.00255713 0.413594 0.319589 -0.258313 0.602678 0.755018
0.0305552 0.179582 0.180318 -0.766146 0.0056032 -0.642642
-0.00946746 -0.206855 0.0463428 -0.965802 -0.14273 0.21646
-0.00036958 -0.175801 0.315511 -0.258324 0.692566 0.673513
0.00890471 -0.0296929 0.289061 0.500027 0.628184 0.596119
0.0100115 -0.160333 0.0735734 0.706393 0.579807 -0.405996
0.0362039 -0.252293 0.269842 -0.747325 -0.664448 -0.00377887
-0.00423169 0.267508 0.213334 0.988552 -0.0679588 -0.134711
0.0130491 -0.243417 0.346474 0.965802 0.0758019 0.247953
0.0194736 -0.222595 0.52286 -0.0612453 0.621978 -0.780636
0.00272896 -0.0431852 0.305735 -0.173617 0.714361 0.677898
0.00226092 0.241709 0.215573 -0.173427 -0.521898 -0.835192
-0.0190667 0.0588802 0.195937 1 0 0
0.00434194 0.309716 0.174928 1 0 0
0.00271684 -0.334966 0.152831 0.498564 0.521661 -0.692317
-0.00404372 0.332207 0.337564 -0.706435 -0.120461 -0.697452
0.00286379 -0.267819 0.144329 0.94004 0.261259 0.219244
0.0149419 0.322884 0.012456 0.965785 0.0208063 -0.25851
0.0043346 -0.425002 0.291534 0.256713 -0.776924 0.574881
-0.0210368 0.0801351 0.133872 -1 0 0
0.00414195 -0.35863 0.0301234 0.256496 -0.354251 -0.899286
0.00805117 -0.412782 0.0779468 0.704202 0.555651 0.441986
0.00255276 0.325924 0.131144 0.177626 -0.86483 -0.469593
0.0131524 -0.134626 0.160726 0.965801 -0.257767 0.028005
0.00784208 0.164816 0.300403 0.258278 -0.715674 0.648924
-0.00477755 -0.178006 0.466462 -0.765975 0.606004 -0.214575
-0.00835628 -0.104811 0.360096 -0.930195 0.26312 0.25594
-0.00981511 -0.132399 0.18879 -0.965792 -0.259277 -0.00452764
-0.00691159 0.230331 0.0341351 -0.706362 0.290122 0.645664
-0.00666914 0.263451 0.0904735 0.131792 -0.0301344 -0.990819
0.00281556 0.353503 0.200805 0.767379 -0.214048 0.604411
0.000219922 0.317444 0.345175 -0.256848 0.109429 0.960237
-0.000710371 0.239709 0.32174 -0.704048 0.283181 -0.651249
0.0141525 0.19576 0.58085 -0.529823 0.526806 0.664653
0.00285891 -0.301258 0.259283 0.939198 0.343323 0.00598488
0.0115807 -0.0637712 0.322967 0.766031 0.466274 0.442476
-0.0399893 -0.286563 0.201765 0.928319 -0.369957 -0.0368103
0.0529309 0.293242 0.180386 1 0 0
0.00738832 0.101465 0.176423 0.88723 -0.32665 -0.325764
-0.000191307 0.154059 0.287635 -0.258275 -0.791364 0.554109
0.00120807 0.409695 0.0758135 -0.256668 -0.776923 0.574902
0.00154139 -0.315426 0.348961 -0.256551 -0.142857 0.955915
-0.00378344 -0.280389 0.031187 -0.704223 -0.104926 0.702183
0.00529881 -0.0878398 0.409601 0.173568 -0.400559 -0.899682
-0.00886145 -0.2861 0.0209351 -0.965803 -0.0208115 0.258439
0.00975396 -0.403977 0.0404166 0.706295 -0.441692 -0.553224
0.00860522 -0.179311 0.284796 0.965366 -0.204181 -0.162415
-0.00191733 -0.408485 0.291751 -0.704261 0.441923 -0.555626
-0.00915013 -0.113249 0.435484 -1 0 0
-0.0145848 0.14681 0.137117 -0.997843 0.0652967 -0.0067867
-0.00588784 0.279378 0.0208563 -0.706364 0.120476 0.697521
0.00397786 0.167804 0.104128 0.25696 0.88626 0.385377
0.00248204 -0.460987 0.225136 0.25659 -0.899276 0.35421
-0.00686594 -0.444054 0.285287 -0.706401 -0.5798 0.405992
0.00904624 -0.324268 0.00743502 0.706368 -0.120446 -0.697522
-0.0125692 0.176434 0.184196 -0.997914 0.0645261 0.00172251
0.00212834 -0.237368 0.272435 -0.497156 -0.715065 0.491445
0.0107724 0.149383 0.473524 0.939689 0.319311 -0.122572
-0.0383803 -0.284053 0.217117 0.928283 -0.370052 -0.0367664
0.000418907 -0.0869327 0.316727 -0.173707 -0.714356 -0.67788
-0.00380438 0.150863 0.123198 -0.965366 -0.239259 -0.104034
0.00815698 0.131334 0.412261 0.500068 0.794155 -0.345325
-0.00501401 -0.187413 0.294674 -0.965365 -0.204183 -0.162415
-0.0333666 -0.250926 0.287568 -0.918083 0.38539 0.0927268
0.00990558 -0.197313 0.307783 0.706428 -0.441573 -0.553148
0.00998814 0.386185 0.04787 0.706427 -0.389631 0.590887
0.00287847 -0.302974 0.101991 0.939394 0.342199 -0.0209357
-0.0039072 -0.21114 0.523633 -0.939685 0.144528 0.310005
-0.00090938 0.451392 0.195346 -0.703986 -0.702409 -0.105006
-0.00593874 0.414647 0.294353 -0.706487 -0.507418 -0.493359
0.00462642 0.401393 0.0322868 0.258701 0.531758 -0.806416
-0.00416542 0.0481141 0.167025 0 -0.987687 0.156443
0.0204087 0.169878 0.276454 4.75385e-05 -0.592448 -0.805609
-0.0545877 -0.217451 0.530249 0.161758 0.975317 0.150304
-0.00828242 0.180017 0.0585162 -0.965805 -0.185878 -0.180748
0.0124077 0.0320834 0.197518 0.765981 -0.466318 -0.442515
0.00255068 -0.248335 0.198298 0.171919 0.328811 -0.928616
0.0131677 0.218756 0.560764 -0.696127 0.254766 -0.671194
-0.00951393 -0.00170771 0.382496 -1 0 0
-0.000787629 -0.205777 0.0296399 -0.25831 0.531768 -0.806535
0.0845002 -0.203106 0.54109 -0.981625 -0.190789 -0.0033171
0.014842 0.0240002 0.221256 0.939689 0.248102 0.235438
0.00749251 0.176279 0.0727058 0.70404 -0.555777 -0.442086
0.0137034 -0.283108 0.0163087 0.965801 -0.0208006 0.258448
0.00301045 -0.109636 0.445808 0.173559 0.400562 0.899682
0.0165092 0.156406 0.56554 0.889736 -0.293716 -0.349428
-0.00443951 0.257657 0.00816091 -0.706396 -0.206926 -0.676895
-0.0124769 0.177608 0.131234 -0.997678 0.0662016 -0.0159819
-0.0175336 0.0998655 0.125321 -0.997724 0.0659372 -0.0141465
0.00229889 0.14534 0.170291 -0.175671 0.0600873 -0.982614
0.0555005 -0.230405 0.526686 0.146782 -0.977636 -0.150605
-0.0221287 0.040975 0.181005 1 0 0
0.00990069 0.207938 0.0545987 0.965364 0.155193 0.209732
0.00290787 0.262413 0.23492 0.94014 0.282531 0.190557
-0.0268758 -0.232277 0.376882 -0.499916 -0.818911 0.281902
-0.00870336 0.298048 0.19648 -1 0 0
-0.00653565 0.343159 0.0249005 -0.706381 -0.230427 0.669275
0.00780173 0.004163 0.369039 0.500025 -0.352237 -0.791141
-0.00346826 0.29626 0.179827 -1 0 0
-0.00213986 0.119755 0.385535 -0.499864 0.794263 -0.345373
0.00695193 -0.379025 0.0471557 0.258185 0.503313 0.824631
0.00433458 0.431588 0.105781 0.256771 -0.776901 0.574885
0.0100119 0.160773 0.0684644 0.706394 -0.565286 -0.425979
-0.00688467 0.0638709 0.323616 -0.939698 -0.254174 -0.228831
0.00959535 0.128368 0.128055 0.706478 -0.682322 -0.18795
0.0021093 0.0753072 0.20075 -0.133346 0.991043 0.00720094
0.00184091 0.0528203 0.204339 -0.173774 0.714341 0.677879
0.0111329 0.132972 0.443403 0.939689 -0.319308 0.122582
-0.0212173 0.0457194 0.161496 -0.997878 0.065115 0.000170985
-0.0240987 0.0759348 0.151806 -1 0 0
-0.0103018 -0.418612 0.0643548 -0.965783 0.185923 0.180818
-0.0152751 0.116971 0.207536 0.60859 -0.0751525 0.789918
0.00285506 -0.0240023 0.249789 -0.17359 -0.714361 -0.677905
-0.00645363 0.046659 0.312765 -0.991065 -0.120982 -0.056156
0.0131684 -0.445309 0.274257 0.965802 -0.21239 0.148719
0.00193398 -0.138069 0.223596 0.256669 0.955883 0.142859
0.00290921 -0.30072 0.21293 1 0 0
0.0142057 0.128204 0.156696 0.965792 -0.256667 -0.0369883
0.0160225 0.124143 0.177199 0.887191 -0.32664 -0.32588
-0.00104697 0.138067 0.423651 0 0.406353 0.913716
-0.00660718 0.116357 0.173759 0.886787 0.333462 -0.320019
0.0136269 0.0110952 0.385339 0.765998 0.261466 0.587268
0.0135117 -0.190829 0.0527591 0.965799 0.168744 -0.19687
-0.000461504 -0.136099 0.161045 -0.256598 0.960306 -0.109412
0.00215078 0.22759 0.175389 -0.498329 0.0529449 -0.86537
0.00293239 -0.143647 0.204985 0.258345 -0.956177 -0.137779
-0.00553742 0.284408 0.17919 -0.997564 0.0697494 0.00121853
-0.00727753 0.282016 0.211419 -0.614288 -0.00426246 -0.789071
0.00957899 0.439503 0.114515 0.965392 -0.242654 0.0955892
-0.0212501 0.216056 0.180078 -0.762735 0.0889862 0.640559
0.0043683 -0.456552 0.0956929 0.258444 -0.838265 -0.480124
0.0356037 -0.279532 0.238497 0.741946 0.669702 0.0318809
-0.0161673 0.120443 0.111148 -0.996971 0.0511217 0.0586029
0.00131276 -0.228487 0.0172007 -0.258547 0.426501 -0.866747
-0.00834386 0.141445 0.115899 -0.965804 -0.239368 -0.0996298
0.0257883 -0.293936 0.177587 -0.0204405 0.874536 -0.484529
0.00897286 -0.390116 0.31399 0.965374 0.162399 -0.204156
-0.0018787 -0.194745 0.072986 -0.704044 -0.442082 0.555775
-0.00826177 0.196115 0.0505614 -0.965797 0.161773 0.202647
-0.0210368 0.0537771 0.184189 -1 0 0
0.0022063 -0.174227 0.45236 0 0.330598 0.943772
0.00769941 -0.00544103 0.264516 0.499932 0.628223 0.596158
0.0295552 0.281832 0.183869 -0.72727 0.660788 -0.185573
0.00227456 0.455585 0.236292 -0.256561 0.886354 0.385426
-0.0157901 0.126336 0.19491 -0.997914 0.0645261 0.00172251
-0.00599108 0.475342 0.192482 -0.706451 0.707654 0.0123599
-0.0694005 -0.220004 0.537454 0.608358 -0.0149173 0.793522
-0.00312023 0.14459 0.0912116 -0.706393 -0.614223 -0.351765
0.0730373 -0.225661 0.531866 0.505093 -0.856083 0.109556
-0.000213665 0.109814 0.29124 -0.499841 0.643638 0.579559
