-0.0160779 0.281295 0.185217 -1 0 0
0.00921942 0.139209 0.213818 -1 0 0
-0.00224305 0.172309 0.0973716 0 -0.830045 -0.557696
-0.00860106 0.0796202 0.447578 -0.791882 -0.0335996 -0.609749
0.0100747 0.103722 0.452569 0.995381 0.00237174 0.095973
-4.23752e-05 0.0455565 0.172842 0 -0.342188 -0.939631
0.00101678 -0.157675 0.260419 0 -0.893404 -0.449253
0.0485128 0.281217 0.185889 -0.99997 0.00772075 -0.000392669
-0.116096 0.0374669 0.0741014 -1 0 0
-0.00912863 -0.334879 0.255119 0.643011 -0.595151 -0.482008
0.0117871 0.276478 0.203989 0.988497 -0.145321 -0.0418998
-0.0258212 0.208111 0.325761 -0.767149 0.517839 0.378583
0.00676019 0.149998 0.0763936 0.553849 -0.635021 -0.538516
0.00790595 0.435106 0.256759 0.543245 -0.763068 -0.350161
-0.00715481 -0.222667 0.262173 0.643183 -0.642225 0.416968
-0.00425788 0.301682 0.299344 -0.979223 -0.17516 0.102181
0.00775894 0.318123 0.245829 -0.777831 -0.606295 0.165485
-0.0123272 0.357841 0.0301604 -1 0 0
0.0353455 0.265712 0.234069 -0.741057 0.644913 0.186872
-0.0433472 0.0819948 0.236988 -1 2.21952e-06 -2.48184e-07
-0.00762069 -0.273026 0.360694 -0.552893 0.0398964 0.832297
0.00514559 0.157733 0.309314 0.18701 -0.685001 0.704131
-0.00673113 -0.119625 0.341598 -0.704226 -0.513595 -0.490189
0.0115505 -0.162388 0.296099 1 0 0
0.00684406 -0.12252 0.124097 0.552967 0.770838 -0.316286
0.00412613 0.258138 0.00940061 0.187025 -0.180234 -0.96568
0.019198 0.0802013 0.173927 0.534512 -0.0865163 -0.840721
-0.00832273 -0.14385 0.194579 5.27748e-05 0.996047 0.0888322
-0.00779483 -0.291551 0.331407 0 -0.0261327 0.999658
0.0122401 0.175367 0.0656128 1 0 0
0.0066253 -0.143757 0.193531 0 0.996051 0.0887795
0.0115505 -0.259084 0.347846 1 0 0
-0.00962085 0.400359 0.293345 1 0 0
0.0083407 0.422731 0.115793 9.09412e-05 0.85807 -0.513532
-0.00342379 0.0798195 0.301841 -0.236866 -0.93845 0.25141
0.0144175 -0.266452 0.155858 -0.642584 0.41735 0.642577
-0.0470941 0.258846 0.187843 0.620782 0.173466 0.764552
-0.00138666 -0.182111 0.457076 -0.0869793 -0.0521789 -0.994843
-0.00579324 -0.268381 0.292114 0.332156 -0.923208 0.193285
0.00837958 0.0653944 0.448208 0.792009 -0.0338054 -0.609572
0.00150196 -0.234104 0.31959 0 0.343763 0.939056
0.00514607 0.211666 0.140112 -0.64629 0.458352 -0.610101
-0.0456082 0.0233338 0.15175 -0.970481 -0.136731 -0.198674
-0.0130167 -0.400167 0.0539512 -1 0 0
-0.0123272 0.465597 0.177894 -1 0 0
0.0065651 0.365182 0.0500303 6.26842e-05 -0.504465 0.863432
0.0747909 0.0377223 0.300445 0 -0.998626 0.0523933
0.0114133 0.39971 0.0491707 0.866058 0.29658 -0.402473
-0.00746763 0.223317 0.0209564 -0.553788 -0.367904 -0.746971
-0.0347132 0.168261 0.525816 -0.782404 0.069004 0.618937
0.0332882 0.147927 0.517951 0.688205 -0.468117 0.554292
-0.0462214 0.0833796 0.191945 -0.970482 0.23409 0.0580137
-0.0110319 0.320458 0.215911 -0.987933 0.150074 -0.0382926
-0.0127484 -0.342256 0.13628 -0.974734 -0.216077 0.0566141
-0.0102305 -0.37528 0.0576327 0 -0.566437 -0.824105
0.00892558 0.29796 0.140799 -0.777494 -0.628179 0.0299109
-0.0422865 0.0349292 0.186482 1 0 0
0.0163121 -0.303764 0.162979 -0.642766 0.739957 -0.198279
-0.0748025 -0.227598 0.60904 0.978451 -0.0884845 -0.186558
0.0084954 0.122578 0.129409 0.553906 -0.79696 -0.24092
-0.010191 -0.186295 0.564888 0 0.11062 0.993863
-0.0102686 0.302472 0.348071 -0.882881 -0.0224838 -0.469057
0.00893952 0.0864767 0.447883 0.889641 -0.0261614 -0.45591
-0.0172763 -0.31139 0.161204 0.331815 0.633324 -0.699142
-0.0366037 0.297092 0.158093 -1 0 0
-0.00639013 -0.350102 0.27757 0.642548 -0.595515 -0.482176
-0.00962069 0.14068 0.151317 1 0 0
0.00390301 -0.418775 0.310905 0.18689 -0.685033 0.704132
0.0017224 -0.198676 0.520752 0.156863 -0.96231 0.222157
-0.00437663 -0.442649 0.226817 -0.18156 0.95212 -0.245975
-0.00697481 0.164335 0.109239 0 -0.830045 -0.557696
0.0024884 -0.228146 0.351168 0.186462 0.310111 0.932235
0.0110955 0.131215 0.163375 0.85985 0.504269 0.0798151
-0.0123272 0.361218 0.339117 -1 0 0
0.0100047 -0.130905 0.181041 0.859281 -0.511397 -0.0104419
-0.00395369 0.220388 0.354061 -0.186933 -0.347735 0.918769
0.0115505 -0.458404 0.170359 1 0 0
-0.00962085 0.414179 0.278991 1 0 0
0.00485429 -0.406692 0.08562 7.01827e-06 -0.753629 -0.6573
-0.00789014 -0.145258 0.123712 -0.541999 -0.777469 0.319028
0.00159261 -0.232612 0.0452864 0 0.392297 -0.919839
0.0418542 0.149072 0.497926 0.888516 -0.437906 0.137031
-0.0716503 -0.222144 0.586272 -0.07978 0.431495 -0.898581
-0.0097744 -0.201839 0.335667 -0.55276 0.466592 0.69047
-0.0225492 0.162695 0.39401 -0.929854 0.283246 0.234824
-0.0160464 -0.227 0.384537 0.216407 -0.630175 -0.745686
0.00992153 -0.208309 0.442781 0.996402 0.082465 -0.0195476
0.00921942 0.248508 0.0422838 -1 -8.1911e-06 2.42554e-06
0.02561 -0.243259 0.275437 -0.99284 -0.116004 0.0285036
0.0938516 -0.237046 0.591355 0.1266 0.158304 -0.979241
0.00409781 0.181244 0.29907 0.182057 0.685683 -0.704765
0.00603783 -0.194625 0.490882 0.89098 0.442406 -0.10214
-0.0623354 0.050643 0.122353 0 0.996552 -0.0829686
-0.00896034 0.0239274 0.195176 -0.892703 -0.326583 -0.310525
-0.000530023 0.23574 0.320099 0.645721 0.731006 0.220626
-0.00909392 -0.228367 0.577352 -1 0 0
0.00322106 -0.174529 0.421328 0.419017 0.655696 0.628082
-0.00693086 0.412994 0.100289 0 0.786899 -0.617082
-0.0130167 -0.136241 0.242919 -1 0 0
0.0359195 0.0387848 0.178786 0.721095 -0.664616 -0.195723
0.00388939 0.0876961 0.525143 0.0391685 -0.310126 -0.949888
-0.0122588 0.309821 0.198361 -0.310843 0.887063 -0.341315
-0.0722824 0.033771 0.0735145 -1 0 0
0.00792662 -0.0740861 0.455346 0.816632 -0.0319004 -0.576276
0.00930104 0.130956 0.461743 0 0.258311 0.966062
-0.000897605 0.142182 0.182437 0 -0.996051 -0.0887795
0.000653006 -0.349145 0.0471204 0.974718 0.120696 -0.188036
-0.0025711 -0.424996 0.170115 0.643016 0.040139 0.7648
-0.0293327 0.286758 0.104907 1 0 0
-0.00682507 0.113634 0.212892 -0.553907 -0.826962 0.0965456
-0.0130167 -0.436182 0.0858509 -1 0 0
0.000229349 0.127817 0.445625 0.000470947 -0.224916 -0.974378
-0.0103104 -0.423779 0.109901 1 0 0
0.0272566 0.112936 0.183532 0.877803 -0.0772849 0.472746
-0.00283746 0.218116 0.325938 -0.182036 0.470072 -0.863652
0.00370968 0.16989 0.274222 0 -0.786913 0.617064
-0.00841541 -0.213058 0.308499 0 0.566411 0.824123
0.011263 0.118697 0.159332 0.866019 -0.493861 -0.0781773
0.0572684 0.0536494 0.294497 0 0.052342 0.998629
0.00921942 0.442277 0.2057 -1 0 0
0.00921942 0.181843 0.0851762 -1 0 0
0.0104489 0.291362 0.364494 0.865986 0.0239787 0.499494
0.00424586 -0.468738 0.141365 0.186553 -0.940415 -0.284284
-0.0103104 -0.141086 0.162363 1 0 0
-0.126141 -0.214323 0.594618 0.132391 0.555463 -0.820934
-0.0193944 0.0411758 0.190602 -0.999987 -0.00515089 0.000294506
-0.104776 0.0567066 0.0606138 0 -0.998629 0.0523455
-0.0122964 -0.418054 0.3032 -0.865464 -0.349339 0.359073
-0.17505 -0.213587 0.608897 -1 0 0
0.00536265 -0.202978 0.234865 -0.642527 -0.482177 0.595537
0.136472 -0.231939 0.603058 -0.0670526 -0.994418 -0.0814636
0.00852987 -0.436662 0.141404 -1 0 0
-0.0376491 0.0526012 0.186912 0 0.61576 0.787934
-0.0130167 -0.30723 0.352068 -1 0 0
0.0122401 0.325645 0.353912 1 0 0
-0.0130167 -0.34049 0.339726 -1 0 0
-0.00154481 0.409427 0.117212 0.334054 0.480538 0.810858
-0.0108028 -0.278757 0.00522241 -0.865495 0.0443584 -0.49895
0.0120974 -0.329163 0.220607 -0.64287 0.642412 0.417164
-0.0103104 -0.426834 0.249221 1 0 0
-0.00214206 0.301636 0.0384001 0 0.0261238 -0.999659
0.0108896 0.261996 0.1724 0.988476 -0.00496692 -0.151298
-0.0130184 0.298761 0.194647 0.984049 0.132188 0.119049
0.0869622 -0.219615 0.592918 0.0964759 0.331123 -0.938643
4.19633e-05 0.0470652 0.444955 0.0869823 -0.0521397 -0.994844
0.0447006 0.0486693 0.282826 0 -0.998778 0.0494151
-0.00445073 0.0934066 0.286098 -0.393863 0.887821 -0.238005
-0.000880081 0.0565773 0.18431 -0.000356387 -0.258336 -0.966055
0.00846293 -0.228126 0.123143 -0.332381 -0.633258 -0.698932
-0.0272578 0.25501 0.213809 -0.0172381 -0.121718 -0.992415
0.00588378 -0.472014 0.177635 0.552842 -0.833113 -0.0169444
-0.00875265 -0.30288 0.0844392 0.331631 -0.937943 0.101407
-0.00199682 0.26277 0.062652 0.645237 -0.721488 0.251246
0.0521522 -0.23352 0.596807 -0.138257 -0.574895 0.806462
0.0313711 0.056973 0.200834 0 0.99997 -0.00770431
-0.012149 0.320303 0.193282 -0.987969 0.098891 -0.118905
0.00478755 -0.150451 0.472721 0.53723 0.043415 0.842318
-0.0115059 -0.39795 0.304432 -0.859202 0.356802 -0.366694
0.00141542 0.149249 0.199845 0.979781 -0.0962745 -0.175385
0.005337 0.268622 0.36695 0.187129 -0.0870046 0.978475
0.119761 -0.210868 0.606458 -0.0575151 0.942086 0.330404
-0.0902296 0.0227381 0.0587852 0 -0.998629 0.0523471
-0.00459251 0.00508557 0.464791 -0.389846 0.0476675 0.919645
-0.0113346 -0.12598 0.123055 -0.865523 0.463372 -0.190149
-0.113793 0.0598229 0.0770226 0 0.0523343 0.99863
-0.00678155 -0.472653 0.190554 -0.553118 -0.827478 0.0966439
0.00947543 -0.363511 0.34415 0.865557 -0.177324 0.468366
-0.0183759 -0.314957 0.195424 0.3315 0.386277 0.860754
-0.0121457 -0.259673 0.00999029 -0.865497 0.111887 -0.488258
0.00921953 0.202712 0.309427 -1 6.43733e-06 5.61574e-06
-0.010987 0.265939 0.347999 -0.882852 0.104895 -0.457788
-0.00924066 0.145658 0.532237 -0.145028 -0.284319 0.947697
0.00673694 0.470979 0.1686 0.553793 0.827037 -0.0965577
0.0177761 0.0504351 0.166295 0.999989 -0.00471576 0.000247106
-0.00695562 0.452807 0.268224 -0.55397 0.756707 0.347149
-0.043348 0.254417 0.0996059 -1 0 0
0.00146926 -0.160128 0.169738 -0.331673 -0.101398 -0.937929
0.0069793 -0.433005 0.255388 0.542122 0.726714 -0.42189
-0.0092528 0.244305 0.329276 0 -0.273905 0.961757
0.0192005 0.176329 0.535786 0.411591 0.779242 0.472625
0.0105917 -0.350419 0.154949 -0.331704 0.386281 -0.860674
-0.00365991 0.440374 0.291713 -0.187057 0.828781 0.527381
0.0648866 -0.214977 0.59488 -0.182156 0.977855 -0.103045
-0.0103104 -0.390423 0.0651876 1 0 0
-0.00364128 -0.360522 0.294102 0.643011 -0.595151 -0.482008
0.0122401 0.362814 0.337866 1 0 0
-0.0607873 0.0525312 0.144624 0 0.99492 -0.100666
0.00263622 0.0348108 0.202938 0.240978 0.701015 0.671198
-0.0449236 -0.223356 0.593559 0.280987 0.803834 0.524307
0.00189874 0.0677292 0.258083 0.23686 -0.938445 0.251432
0.00220604 -0.352115 0.318974 0 -0.392255 0.919856
0.0122401 0.196884 0.331224 1 0 0
-0.0888882 -0.223638 0.590106 -0.194268 -0.0879644 -0.976996
-0.00515078 -0.186948 0.517512 -0.707216 0.688879 -0.159034
-0.0103104 -0.147077 0.220038 1 0 0
-0.00328388 -0.250279 0.0309289 -0.18153 -0.219654 0.95854
-0.00727432 0.448206 0.21452 -0.54293 -0.829443 -0.131342
-0.0123272 0.123886 0.156986 -1 0 0
-0.00237409 0.200651 0.0609887 0 0.566424 0.824114
0.143101 -0.218937 0.591631 -0.0233953 0.0819439 -0.996362
-0.041383 0.0443548 0.238056 0 0.0376827 -0.99929
0.0175437 -0.312417 0.187385 -0.331673 0.101398 0.937929
-0.00156246 0.103975 0.322341 -0.0801024 0.96282 -0.257995
-0.00303614 0.196743 0.105325 -0.97924 -0.185567 0.0815776
-0.106251 -0.210418 0.608758 -0.18971 0.809859 0.555102
-0.0446912 0.0753047 0.148905 -0.922156 0.220181 -0.318039
0.0311767 -0.240419 0.325738 -0.116509 -0.98603 0.119038
-0.0130167 -0.24726 0.346288 -1 0 0
0.0020079 -0.409203 0.132108 -0.642922 -0.198207 0.739841
0.00419193 0.184616 0.211811 0.979788 -0.0373781 0.196514
-0.0118864 0.381231 0.337685 -0.865993 0.279982 0.414326
-0.0125165 -0.318864 0.00961133 -0.865503 -0.0918968 -0.492402
-0.00498962 0.251837 0.279867 0.77627 0.609301 0.161731
0.00852987 -0.139563 0.167877 -1 0 0
-0.0126584 -0.128939 0.182504 -0.859255 -0.511441 -0.0104427
0.0115505 -0.346547 0.0195004 1 0 0
-0.009383 -0.37359 0.0230854 -0.552873 -0.368201 -0.747502
-0.00959723 0.147889 0.247651 0 0.915626 -0.402031
0.081668 0.0707428 0.284189 -4.54055e-05 -0.998629 0.0523397
0.00598691 0.271823 0.0394258 0 -0.0993876 -0.995049
0.0177926 0.0554247 0.195472 0.999989 -0.00473496 0.000240229
0.0101189 0.28515 0.230294 -0.333581 0.919371 0.208519
0.00556065 -0.259326 0.327564 0 0.223239 0.974764
-0.0385229 -0.237801 0.322823 -0.7548 -0.652103 0.070974
0.00653996 0.413132 0.100465 0 0.786899 -0.617082
-0.0263034 -0.236237 0.313766 0.990076 -0.140449 -0.0049497
0.0122401 0.132732 0.236425 1 0 0
0.00502108 0.42164 0.0610826 0.186955 0.685026 -0.704122
0.00852987 -0.33657 0.0351585 -1 0 0
-0.00855412 -0.0350127 0.46332 -0.791873 0.0301063 0.609944
-0.00665487 0.155559 0.125751 0 -0.893382 -0.449299
0.0122401 0.382428 0.0489377 1 0 0
0.000775578 -0.315482 0.0342377 0 -0.0993774 -0.99505
-0.00662215 -0.182374 0.546336 -0.890953 0.442456 -0.102152
0.00228576 -0.318356 0.336627 0.181613 0.219636 -0.958529
0.0156314 0.157329 0.535116 0.14536 -0.296895 0.943782
0.0115505 -0.427912 0.275264 1 0 0
0.0115505 -0.258323 0.0189555 1 2.37981e-06 -1.03851e-05
-0.0246899 0.19462 0.336351 -0.697453 -0.621176 -0.357351
0.00058739 -0.181243 0.0847885 0.974707 0.216165 0.056728
-0.0140624 0.0796045 0.184948 0.523785 0.0861714 0.847481
0.10432 -0.231629 0.606815 0.00332399 -0.904369 0.426738
-0.0398206 0.00673634 0.203164 1 0 0
-0.00810088 0.307715 0.366017 -0.553806 0.0398357 0.831693
-0.00948679 0.284287 0.134815 0.459573 -0.882738 0.097812
-0.00473916 -0.242632 0.065055 -0.974732 -0.120622 -0.188008
-0.105966 0.0213885 0.0638176 0 0.998628 -0.052362
0.0287186 -0.258974 0.24584 -0.426 -0.828144 0.364283
-0.00435178 -0.208983 0.487398 -0.421057 -0.883807 0.20395
0.0115504 -0.135813 0.249758 1 -1.11758e-05 -5.0411e-07
-0.0495165 0.0476459 0.172933 -1 0 0
-0.0129337 -0.229604 0.193728 0.332754 0.193146 -0.923022
0.00798565 -0.384149 0.191144 0.974753 -0.141525 -0.172704
0.00684909 -0.435351 0.289714 0.552944 -0.656895 0.512584
0.0125636 0.280832 0.185507 -0.98405 -0.176919 -0.0185778
0.105251 -0.252363 0.593683 0.528199 0.78142 0.332249
-0.0398206 0.0699037 0.226988 1 0 0
-0.0398206 -0.00176831 0.181639 1 0 0
-0.00859303 -0.178747 0.470075 -0.905036 0.0201403 0.424858
0.00583368 -0.191647 0.543565 0.915384 0.0905177 0.392274
0.00267696 0.217743 0.050315 0 0.458671 0.888606
-0.0389749 0.0620582 0.118466 1 8.75823e-06 -1.03067e-06
-0.0347783 0.0341279 0.21266 -1 0 0
0.0407586 0.265504 0.222381 0.448294 -0.809232 -0.379704
-0.00517382 -0.129243 0.259596 -0.186582 0.892943 0.409682
-0.000717139 0.0234492 0.44624 -0.0801189 -0.0521697 -0.995419
0.0012227 0.172154 0.136225 -0.45911 0.363306 -0.810695
0.00852987 -0.437602 0.231185 -1 0 0
-0.00351322 0.37098 0.0240125 -0.187008 0.469647 -0.862821
-0.00080847 0.0738008 0.281219 -0.0804141 -0.962798 0.257981
-0.0267291 0.284628 0.199784 -1 0 0
-0.00774865 0.326119 0.125588 0.334049 -0.810861 -0.480536
-0.00726711 -0.118604 0.228321 -0.552904 0.797597 0.241115
-0.00497974 0.100515 0.511373 0.778599 0.205216 0.593017
-0.0115921 0.142801 0.422412 0.993208 0.0587971 -0.100406
0.0203588 -0.285279 0.168344 0.871949 0.199116 -0.447277
0.00018912 0.142358 0.23211 0 0.958809 -0.284052
0.0731995 0.0722228 0.298591 -0.889942 0.0237782 0.455454
0.00445604 0.269484 0.290306 -0.333581 0.919371 0.208519
0.00327049 0.0675945 0.188121 0.238921 0.937946 -0.251346
-0.00641964 -0.158886 0.402299 -0.705302 0.511471 0.490863
-0.00717839 0.383355 0.305647 0 0.566437 0.824105
0.0110613 0.444958 0.242405 0.859876 -0.488664 -0.147718
0.00472018 0.395149 0.177708 0.979764 0.0962804 0.175475
0.00164596 -0.394572 0.291205 0 -0.703371 0.710823
-0.0424721 0.00717943 0.159425 -1 0 0
0.00119672 -0.446956 0.276379 0.186492 -0.849665 0.493244
-0.0197396 0.131411 0.177277 0.790909 0.0789061 -0.606825
0.00921942 0.397689 0.298441 -1 0 0
0.00760166 0.340049 0.143317 -0.777083 0.34538 0.526169
-0.0180347 -0.296173 0.154211 -0.97471 -0.208213 -0.081168
0.0115505 -0.175829 0.0663857 1 0 0
0.00485902 -0.420186 0.104116 0 -0.830031 -0.557718
-0.00716744 -0.306009 0.331018 0 -0.151152 0.98851
-0.0103104 -0.322588 0.0311433 1 0 0
-0.0414838 0.0863378 0.155416 0 -0.758156 0.652073
-0.0424721 0.0873892 0.220899 -1 0 0
0.0122401 0.263614 0.350432 1 0 0
-0.00479504 0.183968 0.177023 -0.979242 -0.102175 0.175059
0.0211785 0.152632 0.407106 0.985783 -0.0812472 0.147077
-0.14879 -0.221379 0.614391 -0.0594436 -0.0819215 0.994865
5.14459e-05 0.324844 0.330336 0.645785 0.721024 -0.251169
-0.0102663 0.105108 0.360968 -0.995748 0.0888331 -0.0243833
-0.0123801 -0.208762 0.0287717 -0.865503 0.239465 -0.439956
-0.0921419 -0.251684 0.596756 0.16272 -0.42811 0.888957
0.0096018 -0.428871 0.0696323 0.865529 -0.381982 -0.323959
0.00238503 0.0128432 0.225972 0.240978 0.701015 0.671198
-0.00548857 0.0578263 0.216075 -0.542005 -0.81178 0.217356
-0.0741144 0.0400316 0.0651738 0 -0.587749 -0.809043
0.00731043 0.41961 0.2764 0 -0.830075 -0.557651
-0.0123305 -0.445659 0.126226 -0.859208 0.489733 0.148065
-0.00269699 -0.128161 0.373137 -0.257068 0.698027 0.668336
0.00250753 -0.206681 0.0225767 0.186602 0.469676 -0.862893
-0.0107123 0.137494 0.50143 -0.627692 0.158028 0.762253
0.00445863 0.121621 0.39152 0.388743 0.889924 -0.238567
0.00472962 -0.404621 0.208029 0.974718 -0.0811822 0.208167
0.000253126 -0.399814 0.0356683 0.186573 -0.550067 -0.814013
0.0939545 0.0388824 0.283367 0.889842 -0.0236201 -0.455656
-0.0037956 0.234444 0.285031 0.333964 0.810882 0.48056
0.00351467 0.443655 0.0877073 0.186984 0.849543 -0.493268
-0.0106082 0.115244 0.181285 -0.866008 -0.499926 -0.0101854
-0.0512587 0.0407812 0.158822 0.690922 -0.716729 -0.0944754
-0.00829031 0.266346 0.0401154 0 -0.223314 -0.974747
-0.00325215 -0.117539 0.134867 -0.186482 0.951232 -0.245727
0.00365852 -0.175484 0.154653 -0.642852 -0.274523 -0.715108
-0.0462723 0.284939 0.141381 0 0.731358 -0.681993
-0.00712074 0.0960529 0.302494 -0.671688 0.715528 -0.191977
-0.012021 -0.365162 0.173672 -0.974676 -0.141544 0.173123
-0.00473546 0.288954 0.3368 0 -0.0261851 0.999657
0.00127206 -0.451984 0.095463 0.186281 -0.893015 -0.409662
-0.0166247 -0.264615 0.208838 0.331133 0.699393 -0.633404
0.0883245 -0.220423 0.603152 0.977349 0.101214 0.185862
0.0011428 -0.224111 0.570535 0.194861 -0.534213 -0.822585
-0.00554678 -0.196596 0.536335 -0.691356 -0.162452 -0.704014
-0.0064433 0.364578 0.0571897 0 0.50445 -0.863441
-0.00557964 -0.317665 0.0691548 0.332225 0.923186 -0.19327
0.0700136 0.0735073 0.285851 0 -0.998629 0.0523444
-0.0123272 0.34092 0.0270465 -1 0 0
-0.00298349 0.395507 0.0691183 -0.181854 -0.685681 0.70482
-0.00379905 0.433201 0.122384 0 -0.915634 0.402013
0.0169363 -0.290751 0.180802 0.00422023 0.702579 -0.711594
0.00316652 0.192537 0.127838 -0.64629 0.458352 -0.610101
0.00318177 -0.142686 0.228643 0.181494 -0.941316 -0.284578
-0.0131499 -0.265596 0.132985 0.642838 0.59529 0.482067
-0.00244641 0.129274 0.268721 -0.187048 -0.84956 0.493215
0.00923721 0.133686 0.441805 -0.668156 0.671684 0.320014
-0.00461414 0.462475 0.126037 -0.187213 0.908778 -0.372925
0.00609309 -0.449357 0.199356 0.542153 0.834616 -0.097401
-0.00161466 0.10943 0.413944 -0.0793988 -0.962878 0.257995
-0.00353638 0.42491 0.254833 -2.38025e-05 0.893425 0.449213
-0.0024265 -0.460565 0.249246 -0.186476 -0.908919 0.372953
-0.00231053 -0.397617 0.329417 -0.186616 -0.582811 0.79089
-0.000259605 -0.423653 0.0562211 0.186604 -0.749284 -0.635415
0.0115076 -0.267373 0.237227 -0.643098 -0.739708 0.198134
-0.0122074 -0.236857 0.15033 0.643081 -0.481986 -0.595094
0.0122401 0.348219 0.343177 1 0 0
-0.0110109 -0.261774 0.111312 0.642464 -0.740186 -0.198407
-0.0123272 0.125576 0.226367 -1 0 0
0.00191835 0.144707 0.160475 0 -0.977053 -0.212995
0.0195608 0.129838 0.510657 -0.74608 0.406265 -0.527553
-0.0102467 0.130774 0.453736 -0.995611 0.0902565 -0.0247559
-0.0130167 -0.421559 0.0793523 -1 0 0
-0.00890988 -0.149731 0.138729 0 0.958791 -0.284114
0.0811644 0.0474341 0.292978 -1 -9.27299e-06 0.000109313
0.00851078 0.365516 0.317402 0 0.458714 0.888584
-0.00461082 -0.17558 0.19278 0.643017 -0.0401327 -0.7648
0.00061939 -0.448549 0.17352 0.181794 0.983133 0.0200327
-0.00527797 0.131233 0.42863 -0.535262 0.815865 -0.218766
0.00741666 0.446196 0.14987 0.542887 -0.813103 0.210088
-0.00844355 0.115458 0.445399 -0.791882 -0.0335996 -0.609749
0.0657675 0.0476853 0.294618 -1 0 0
-0.00962074 0.311554 0.0356113 1 8.15465e-06 7.28188e-07
-0.0321268 0.0824855 0.18859 1 0 0
0.136552 -0.219763 0.614658 -0.0670186 0.175148 0.982258
0.0122401 0.404135 0.312923 1 0 0
-0.0104178 0.314479 0.0116027 -0.866028 0.0442752 -0.498031
0.0325883 0.0529576 0.220613 -0.994361 0.00557245 0.1059
-0.0123272 0.144539 0.100174 -1 0 0
-0.0371281 0.168398 0.501407 0.449727 -0.202059 -0.87001
0.00983741 -0.215795 0.426341 0.965087 -0.255325 0.0584516
-0.00790651 0.304973 0.256151 0.33342 -0.91987 0.206568
0.00144906 0.349568 0.0498843 0 0.392312 -0.919832
0.0399644 0.212543 0.187505 0.487027 -0.0786342 0.86984
-0.0115978 0.180527 0.513958 -0.164888 0.98054 -0.106549
0.00921942 0.27507 0.340162 -1 0 0
-0.0597707 -0.21758 0.592449 0.963272 -0.1985 -0.180844
-0.0188028 -0.239169 0.588284 -0.0101743 -0.903649 0.428153
0.0019188 0.26513 0.305261 -0.460044 0.868963 0.182383
-0.0114889 0.0564211 0.164624 0 0.374492 -0.92723
-0.0114712 0.27586 0.218805 -0.987919 0.0828951 0.130935
0.00350617 -0.154301 0.125674 0 0.915635 -0.402011
0.00076034 0.128638 0.474524 0.130496 -0.966037 0.223033
-0.0961378 0.0368802 0.068321 -1 0 0
0.0111731 -0.230114 0.0193981 0.865498 0.177331 -0.468473
-0.00851745 -0.157261 0.098748 -0.542131 -0.726706 0.421891
0.00819357 -0.30699 0.330868 0 -0.151152 0.98851
0.0048178 -0.288644 0.339033 0.542067 -0.040279 -0.839369
-0.0123272 0.190245 0.321829 -1 0 0
-0.0112331 0.29406 0.16502 0.819508 -0.25754 0.511937
-0.0315257 0.152469 0.521828 -0.715683 -0.367398 0.593984
0.00836932 -0.225371 0.414463 0.607919 -0.773686 0.178451
0.00477061 -0.143626 0.364688 0.57129 -0.593269 -0.56715
0.0115505 -0.15578 0.276047 1 2.72974e-06 -3.56774e-06
-0.140356 -0.219726 0.591598 -0.00871522 0.0814472 -0.99664
0.0070038 0.39094 0.0369368 0.553891 0.493899 -0.670275
0.00480721 -0.18237 0.405253 0.57129 -0.593269 -0.56715
0.0425989 0.241435 0.180614 0.105421 0.0255059 -0.994101
0.0111071 0.129534 0.180021 0.859848 0.510444 0.0104061
0.00436676 0.440615 0.175577 0 0.999327 -0.036673
-0.0096207 0.25815 0.336973 1 -7.99958e-06 -1.74282e-06
0.136349 -0.209168 0.601531 -0.0672445 0.98228 -0.174942
-0.0911369 0.0607506 0.0619831 0 0.99863 -0.0523328
-0.00109233 0.293917 0.0317108 0 -0.026116 0.999659
-0.0100401 0.12977 0.114558 -0.86602 -0.454462 -0.208504
0.00673187 -0.149634 0.139058 0 0.958791 -0.284114
0.00852987 -0.412395 0.272784 -1 0 0
-0.00449369 0.387194 0.20806 0.458974 0.179894 -0.870046
-0.00072257 0.0927635 0.461208 -0.0788011 0.052137 0.995526
-0.0400083 0.0130988 0.137523 0 0.599668 0.800249
-0.00448183 0.316179 0.294327 -0.979239 0.198081 0.043077
-0.00775953 -0.146335 0.151476 0 0.986849 -0.161645
-0.0101744 0.113948 0.389487 -0.995611 0.0902565 -0.0247559
-0.0050179 -0.104245 0.346796 -0.569461 0.593408 0.568842
-0.130757 -0.271315 0.592585 0.105717 -0.943491 -0.314084
-0.0161832 -0.286428 0.223037 -0.974706 -0.172959 0.141539
0.00458316 0.252904 0.0978904 -0.645802 0.729796 -0.224362
-0.0130167 -0.149893 0.0855026 -1 0 0
0.0117412 0.327916 0.0164611 0.866016 0.11168 -0.487384
-0.0097352 -0.447855 0.168558 0.000105572 0.996049 0.0888029
-0.0422866 0.0532443 0.165912 1 -5.22756e-06 -4.87031e-06
0.027873 0.224882 0.288632 0.70715 -0.649878 -0.278563
-0.0123272 0.426198 0.295967 -1 0 0
-0.0430086 0.0736695 0.184151 0 0.42375 -0.905779
-0.11348 -0.229016 0.597476 -0.0385255 -0.827479 -0.560173
-0.00858052 0.221436 0.0557074 0 -0.458721 -0.888581
-0.0123272 0.158617 0.284931 -1 0 0
0.00349086 0.0996444 0.532681 0.195365 0.14513 0.969933
-0.0104488 0.139855 0.133169 -0.85984 0.488722 0.147736
0.0446763 0.282439 0.197847 -0.900874 -0.193801 -0.388417
-0.0431033 0.184336 0.101569 0 -0.0360393 -0.99935
0.00554433 -0.307479 0.00248087 0.552924 -0.0399067 -0.832276
0.0104976 -0.229235 0.331643 0.859283 -0.226034 -0.458849
0.000347448 -0.261251 0.0462571 -0.642501 0.715411 0.274553
0.00974969 -0.20387 0.458699 0.966062 0.25158 -0.0585743
0.0122401 0.119675 0.190213 1 0 0
-0.00585088 -0.190663 0.137462 0.332178 -0.386281 -0.860491
0.00921958 0.20717 0.0632109 -1 0 0
0.0109106 -0.319806 0.00954163 0.865479 -0.0919045 -0.492444
0.0115505 -0.201867 0.0447901 1 0 0
0.00585776 -0.125695 0.347012 0.544539 -0.606348 -0.579499
0.0109732 0.143903 0.254132 0.85983 0.472359 -0.193829
-0.00270432 0.19109 0.036526 -0.18694 -0.550038 -0.813948
-0.00991784 0.280487 0.167003 1 -4.88711e-05 6.0468e-05
0.00745598 -0.308801 0.023655 0.542084 0.0402567 0.839359
-0.155989 -0.221125 0.592568 -0.105015 -0.174151 -0.979103
0.0115505 -0.129561 0.142689 1 0 0
0.00564231 0.0356187 0.462585 0.53723 0.043415 0.842318
0.0118907 0.300637 0.351376 0.882895 -0.0225041 -0.469031
0.00426817 -0.0756709 0.317461 0.420424 0.655134 0.627729
0.0100475 0.0965805 0.336122 0.995116 -0.0954904 0.0250159
0.00852987 -0.372847 0.308749 -1 0 0
-0.0200274 -0.296363 0.194879 0.966425 -0.104495 0.234741
0.00680529 0.218938 0.15565 0.979767 -0.145787 0.137124
-0.0068686 0.398248 0.304721 -0.543106 -0.560499 -0.625201
-0.00398933 -0.19533 0.45855 -0.418868 -0.048088 -0.906773
-0.0973252 -0.227475 0.597692 0.997735 0.00702561 -0.0669007
-0.00748311 -0.335461 0.279822 -0.9747 0.120787 0.188071
-0.0260716 0.299613 0.176498 -0.443713 0.250576 -0.860425
0.00516626 0.0521937 0.195625 0.5423 -0.811601 0.217288
0.0345336 0.0481958 0.239144 -0.995387 0.0049777 0.0958095
0.00852987 -0.373502 0.0496651 -1 0 0
0.0122401 0.342144 0.0263907 1 0 0
0.0122401 0.457968 0.223674 1 0 0
0.0945676 0.0733181 0.284224 0 0.998629 -0.0523535
-0.00420706 -0.149439 0.246197 -0.18165 -0.893788 -0.410057
-0.0785561 -0.232985 0.59312 0.126004 0.973835 0.189127
0.0094105 -0.192467 0.307843 0.882311 -0.314168 -0.350465
0.00641092 0.329669 0.254888 -0.459928 -0.770115 0.442028
0.0115505 -0.454949 0.156614 1 0 0
0.0409129 0.0508162 0.296578 0 -0.304281 0.952582
-0.042254 0.0330109 0.138675 0 0.436773 0.899572
-0.0271813 -0.253172 0.242328 0.936079 0.323596 -0.137991
-0.0104798 0.272903 0.176417 -0.44421 -0.881199 -0.16176
-0.0272303 -0.235722 0.294874 0.918685 0.388875 -0.0692329
0.00223333 -0.266032 0.0272403 0.181529 -0.219654 0.95854
0.00610748 -0.184604 0.28531 0 0.753558 0.657381
0.00522947 -0.404751 0.281015 0 -0.786861 0.61713
-0.00788784 -0.217872 0.321522 -0.54207 -0.371313 -0.753848
0.00857009 -0.357207 0.23863 -0.642403 -0.417461 -0.642686
0.0115505 -0.457881 0.205009 1 0 0
-0.0288368 -0.26931 0.216256 0.97954 -0.167341 -0.111799
-0.00987331 -0.0315339 0.258178 -0.995386 -0.070635 -0.0649428
-0.039405 0.127551 0.112328 0 0.151438 0.988467
-0.133915 -0.227403 0.612229 0.0681672 -0.559679 0.825901
-0.0617265 0.040368 0.152616 -0.696049 -0.710966 0.100213
-0.0336753 -0.280833 0.192366 0.96986 0.187688 -0.155387
-0.00508165 0.224064 0.10966 -0.979228 0.0816293 -0.185606
0.0815819 0.0342997 0.288105 0 -0.998629 0.0523383
0.0122401 0.12456 0.14334 1 0 0
0.016562 -0.268099 0.19379 0.974726 0.0129036 0.22303
0.007198 -0.103797 0.456043 0.672717 -0.0401167 -0.738811
-0.0185695 -0.282831 0.159969 -0.97472 0.223059 -0.0128824
0.00298526 0.322318 0.366213 0.186964 0.180284 0.965682
-0.00968539 -0.106552 0.462074 -0.996128 -0.00729257 -0.0876172
-0.00312837 0.379791 0.315967 0 -0.56651 -0.824055
0.00859664 -0.401425 0.298421 0.542242 0.585949 -0.602194
0.00357986 0.399304 0.233449 0.979781 0.145759 -0.13705
0.0161396 0.169707 0.38413 -0.880887 0.422006 0.214358
-0.00862199 -0.25251 0.0915232 -0.97474 -0.120585 -0.187994
-0.00200692 0.0857078 0.254427 -0.235507 0.938751 -0.251562
-0.00200148 -0.176322 0.042236 -0.186575 0.582805 -0.790903
-0.00761172 0.0809494 0.527666 -0.123062 -0.246358 -0.961334
0.0818709 -0.24157 0.58902 0.129022 0.170865 -0.97681
-0.070616 -0.217261 0.600113 0.271714 0.91745 0.290614
0.12848 -0.264615 0.59582 -0.149065 -0.36146 0.920394
-0.012327 0.203162 0.327497 -1 1.73314e-05 -1.42259e-05
0.0155042 0.300708 0.192176 1 0 0
0.010437 -0.117064 0.182808 0.865457 0.500879 0.0102094
-0.0596004 0.0387639 0.0749097 1 0 0
-0.00547592 0.436687 0.0788297 -0.186935 0.774521 -0.604294
0.0122401 0.459518 0.200719 1 0 0
-0.0112658 -0.187909 0.324182 -0.865573 0.280405 0.414917
-0.00428677 -0.162782 0.270202 -0.181574 -0.829623 -0.527975
0.0135651 -0.336633 0.157856 0.97473 -0.0129135 -0.223012
0.0376347 0.184575 0.184069 0.95483 -0.199777 0.219977
-0.00613301 0.195865 0.340603 -0.55365 -0.398153 0.7314
0.00228816 0.121259 0.249621 0.187094 -0.908799 0.372934
-0.102155 0.0482813 0.0669674 1 0 0
0.00548276 0.174502 0.325498 0.553876 -0.580575 0.596786
0.0113439 0.387862 0.334156 0.865993 0.279987 0.414323
0.000185715 -0.0374958 0.4494 0.0869823 -0.0521397 -0.994844
0.00254485 0.144014 0.504145 -9.68529e-05 0.224975 0.974364
-0.011949 -0.414163 0.0557923 -0.865491 -0.33438 -0.372981
0.00921958 0.212196 0.321322 -1 0 0
-0.0061489 -0.282455 0.289458 0.642652 -0.76511 -0.0400661
0.00652403 -0.25467 0.26848 -0.64227 -0.740333 0.198485
0.006076 -0.211181 0.558363 1 0 0
-0.0147753 0.064034 0.524976 -0.454167 -0.342946 -0.822266
-0.00857846 0.191913 0.0763725 -6.66812e-05 -0.665281 -0.746593
-7.75982e-05 0.0616038 0.462894 -0.084579 0.0521447 0.995051
-0.00980608 -0.114787 0.167245 -0.55287 0.827649 -0.0966037
0.00211556 -0.375657 0.276822 -0.643158 0.642242 0.41698
-0.00797605 0.162793 0.311874 -0.553902 -0.580558 0.596779
-0.027371 -0.244064 0.264436 0.935681 0.337609 -0.102571
0.00539906 0.0507326 0.528978 0.153419 -0.985029 -0.0786092
-0.0100051 0.158465 0.0981482 -0.859815 0.430767 0.274149
-0.00730929 -0.465558 0.23002 -0.552746 -0.806862 0.208433
-0.0130167 -0.362315 0.332746 -1 0 0
0.00679317 0.166916 0.105398 0 -0.830045 -0.557696
0.00500954 0.085137 0.511249 -0.137603 -0.109404 -0.984427
-0.00938626 -0.0861444 0.463715 -0.965412 0.0111924 0.260488
0.0272255 -0.232163 0.370183 -0.56329 -0.8219 0.0847625
-0.0113555 0.170689 0.0786708 -0.859792 0.389468 0.330261
-0.0211778 0.10849 0.174657 0.110103 0.0476943 -0.992775
-0.00902591 0.441476 0.231104 0 -0.942691 -0.333666
0.0339751 0.243771 0.261474 0.944657 -0.326002 -0.0366821
0.000682469 -0.222018 0.313593 0 0.458694 0.888594
0.108387 -0.210735 0.59747 0.156938 0.892542 -0.422775
0.0047033 0.187072 0.197451 0.979781 -0.0962745 -0.175385
-0.0269181 0.28841 0.123166 0 -0.999942 -0.0107805
0.0195958 -0.236989 0.591632 -0.00999997 -0.75909 0.650908
0.010013 0.251247 0.194879 -0.777466 0.222569 0.588226
-0.00433832 -0.387571 0.297376 0 -0.60871 0.793393
0.0094722 -0.131926 0.462788 0.996128 -0.00725266 -0.0876192
0.0054893 -0.444834 0.216682 0 0.986845 -0.161668
-0.00241797 -0.190635 0.438493 -0.257068 0.698027 0.668336
0.00487958 -0.155443 0.0641595 0.552878 0.656955 -0.512578
0.00934888 -0.130453 0.109792 0.865503 0.46341 -0.190144
-0.0188211 -0.270676 0.183908 -0.97474 0.0812132 0.208053
0.0115505 -0.151634 0.0852375 1 0 0
-0.0114037 -0.277718 0.0212654 -0.859265 -0.0453027 0.509521
-0.0330555 0.283322 0.1396 1 0 0
-0.0194693 0.0549888 0.178464 -0.999986 -0.00518854 0.000255952
-0.0123272 0.327139 0.0245614 -1 0 0
-0.00402609 -0.244721 0.0404078 0 0.273892 -0.961761
-0.0151965 0.284177 0.198855 -0.93418 -0.145136 0.325951
0.0122401 0.46577 0.180356 1 0 0
0.0286401 0.17587 0.508432 0.292453 0.952637 -0.0833893
-0.026007 0.181323 0.182077 0.977484 0.195877 -0.0784692
0.0122401 0.135505 0.133162 1 0 0
-0.0389756 0.223346 0.101157 1 0 0
-0.00695106 -0.1646 0.0551005 -0.552887 0.581035 -0.597255
0.00160327 -0.0593811 0.301673 0.0867255 0.719621 0.68893
-0.0518561 0.286457 0.199727 0.805403 -0.231205 -0.545774
0.0306725 0.159255 0.177608 0.494177 -0.0622688 -0.867128
-0.00256009 -0.440548 0.132965 0 0.942643 0.333801
-0.0125755 -0.144133 0.273277 -0.865496 0.422585 0.268958
-0.00965796 -0.0487281 0.46115 -0.959027 0.0122734 0.28305
0.00715301 -0.311597 0.271531 -0.332753 0.923022 0.193148
-0.117224 -0.219145 0.613207 -0.0385468 0.174992 0.983815
0.0122401 0.414125 0.0756915 1 0 0
-0.00962069 0.187479 0.295618 1 0 0
-0.00308756 -0.167308 0.312946 -0.186507 0.655801 0.731533
0.0286503 -0.271866 0.217003 -0.722753 -0.644955 0.248318
-0.0214662 0.174678 0.365708 -0.236942 -0.82363 -0.51526
0.00944004 0.269286 0.0102894 0.553871 -0.152746 -0.818472
-0.0182545 0.295563 0.17669 0.548574 -0.829608 0.104003
-0.0420944 0.267742 0.222251 0.702873 -0.368863 -0.608202
-0.0110891 0.452187 0.11455 -0.86596 0.462676 -0.189854
-0.0012949 0.251613 0.3389 -0.18203 0.219586 -0.958461
0.00675747 0.129389 0.109919 0.553908 -0.75673 -0.347198
-0.0154058 -0.292991 0.18026 0.00102523 -0.578674 -0.815558
-0.00447773 0.182268 0.16334 -0.987939 -0.0572455 -0.14387
-0.00789329 0.181 0.0459788 -0.553915 -0.555761 -0.619926
0.0115505 -0.312055 0.353491 1 0 0
-0.0777987 0.0596197 0.0709818 0 -0.998629 0.052349
-0.0130167 -0.348324 0.0275627 -1 0 0
-0.00108541 0.236657 0.333966 -0.181903 0.348133 -0.919628
-0.00579471 -0.209414 0.406447 -0.607346 0.774043 -0.178852
0.0100072 -0.131254 0.196493 0.859258 -0.505254 -0.0799642
-0.00131606 -0.324878 0.0420299 0.332225 0.923186 -0.19327
-0.0264685 -0.22136 0.370282 0.563046 0.776013 -0.284224
-0.00748564 0.168957 0.0564108 -0.553822 -0.555784 -0.619989
-0.00822332 0.256803 0.249658 -0.98795 -0.15445 0.0100305
-0.00256206 0.178265 0.539565 -0.161664 0.467475 0.869098
-0.0130167 -0.205088 0.0419173 -1 0 0
0.00972227 0.124113 0.421985 0.959565 0.271758 -0.0733679
0.0342444 0.159724 0.524748 0.727716 -0.340789 0.595224
-0.00805566 0.274048 0.335865 0 -0.151162 0.988509
0.000976432 -0.0793924 0.295881 0.080925 -0.720014 -0.689225
-0.00328296 0.400912 0.197917 0.459431 -0.0978149 0.882811
0.0110125 0.364376 0.0267241 0.865988 0.177021 -0.467684
-0.0112104 0.0612995 0.185058 0.534758 0.088644 0.840343
-0.0867586 0.03033 0.0700348 1 0 0
-0.00792071 -0.378411 0.219581 0.642776 -0.198264 -0.739953
0.0333612 -0.238624 0.588422 0.0427872 -0.983237 0.177243
-0.00725898 -0.370882 0.343818 -0.55278 -0.398425 0.73191
-0.00785868 0.209429 0.0628244 -6.00208e-05 -0.566468 -0.824083
0.168608 -0.209903 0.603104 -0.0773763 0.993649 0.081703
0.00516299 -0.261768 0.359473 0.552751 0.152942 0.819192
-0.0082514 -0.173553 0.0919008 0 0.786863 -0.617128
-0.00995246 0.371948 0.346262 -0.866027 0.220941 0.448534
0.000193605 0.312028 0.0330113 0 -0.151196 0.988504
0.0122401 0.222692 0.0358412 1 0 0
-0.00424673 -0.0451305 0.261297 -0.396586 -0.663315 -0.634613
-0.00962085 0.341577 0.0402129 1 0 0
0.00793476 -0.223492 0.385345 -0.428372 -0.351333 -0.832504
0.014158 0.0636617 0.170448 0 0.788039 -0.615626
-0.0113998 0.110843 0.517123 -0.173116 -0.416371 -0.892562
0.00477057 0.223799 0.264796 0.979801 0.0852181 0.18091
-0.00177975 -0.00349078 0.24328 -0.251601 0.699066 0.669331
-0.00603931 -0.331201 0.333025 0 0.273818 -0.961781
0.0113912 0.310832 0.186055 -0.777363 -0.222601 -0.58835
-0.0356782 -0.244455 0.289237 -0.38432 -0.894902 0.226823
0.0122401 0.151281 0.0885426 1 0 0
-0.027971 0.226356 0.296685 -0.879462 0.313467 0.358168
-0.0321268 0.0511098 0.14565 1 0 0
-0.00973856 -0.0928098 0.323713 -0.995733 0.0652883 0.0652181
0.00974424 -0.0444952 0.271687 0.995391 -0.0706197 -0.0648853
0.00441501 -0.0270085 0.266569 0.395957 0.663127 0.635201
-0.0440487 -0.230662 0.580724 -0.2164 -0.16149 -0.962856
-0.0108442 0.184138 0.308416 -0.859778 0.356103 -0.366022
-0.0103104 -0.158739 0.252779 1 0 0
-0.00998239 0.0129937 0.455504 -0.995387 -0.00767049 -0.0956358
-0.00895431 -0.124894 0.361827 -0.893823 0.322785 0.311273
-0.0110651 -0.174993 0.292189 -0.859713 -0.373823 -0.348065
0.00964394 0.116004 0.447619 0.95867 -0.0174509 -0.283984
0.0115505 -0.281496 0.00901613 1 0 0
-0.0334773 0.298157 0.196614 0 0.950722 0.310046
-0.00159696 -0.459254 0.110788 -0.186262 -0.892989 -0.409728
-0.00297928 0.430574 0.304329 -0.187058 0.749226 0.63535
0.0101536 0.10881 0.373456 0.995611 0.0902549 -0.0247639
-0.0105502 0.411111 0.318046 -0.866006 0.333789 0.372314
-0.034992 0.248977 0.246415 -0.269924 -0.850258 -0.451888
0.00792018 0.235923 0.017101 0.553804 -0.262787 -0.790091
0.0359868 -0.245145 0.2675 0.990937 0.0885397 -0.101016
-0.00213114 0.414096 0.052953 -0.186906 0.685032 -0.704129
0.0115505 -0.443717 0.102972 1 0 0
-0.0206967 0.125773 0.507244 0.768616 0.431655 -0.472127
-8.47124e-05 -0.41588 0.0860462 0.18167 0.749987 0.636016
-0.0117024 -0.27784 0.256343 -0.974749 0.208007 0.0812265
-0.0424721 0.0285387 0.225512 -1 0 0
0.0022117 0.256376 0.0357461 0 0.223322 0.974745
-0.0628746 -0.233975 0.595718 -0.147003 -0.968747 0.199796
-0.0321268 0.0739796 0.152115 1 0 0
0.00117998 0.40521 0.254959 -0.33423 0.48224 -0.809775
-0.0112014 0.270171 0.189441 -0.312033 -0.519347 0.795559
0.00108718 -0.445898 0.151425 0.181372 0.971323 0.153742
0.00980599 -0.402884 0.0441096 0.865531 -0.334334 -0.37293
-0.0130167 -0.250998 0.0222224 -1 0 0
0.0516602 0.28576 0.172564 0.999964 -0.00850934 0.00045
0.0951055 0.0512219 0.297733 1 -1.49614e-05 7.84157e-07
-0.0398206 0.0522334 0.228157 1 0 0
0.0112253 -0.354112 0.0301713 0.859244 0.161454 0.485419
-0.00804002 0.354559 0.194816 0.645991 -0.0161001 -0.763175
-0.00596657 -0.329266 0.00515135 -0.186572 -0.180245 -0.965765
-0.00991467 0.450937 0.166764 -0.859889 -0.507037 0.0591955
-0.00874179 -0.247113 0.00884567 -0.552908 0.186115 -0.812191
0.00639889 -0.409861 0.0759128 0.54201 0.640979 0.54348
-0.00354884 0.441627 0.145303 0 -0.958819 0.284019
-0.0347783 0.0136049 0.192191 -1 0 0
-0.00216341 -0.00997208 0.223582 -0.240706 -0.701182 -0.671122
0.00560309 0.396978 0.0816827 0 0.703363 -0.710831
0.0242648 0.0499998 0.188942 -0.423819 0.0474291 0.904504
-0.0389752 0.0972288 0.11547 1 8.75823e-06 -1.03067e-06
0.0122401 0.435051 0.269752 1 0 0
-0.00529151 -0.21554 0.577657 -0.980802 0.106206 0.163548
-0.0130167 -0.232242 0.343959 -1 0 0
0.0106787 0.410394 0.0564236 0.866063 0.348613 -0.358335
0.0107889 -0.185604 0.557919 1 -2.0855e-05 4.8157e-06
-0.00710766 -0.187543 0.20463 0.332754 0.193146 -0.923022
0.0344965 -0.227483 0.580064 0.095431 0.334511 -0.937548
0.00784867 -0.0909189 0.456167 0.816632 -0.0319004 -0.576276
-0.0325995 0.0431497 0.221608 0 -0.962879 0.269933
0.000618922 0.409033 0.280068 0 0.753585 0.65735
0.0254919 0.13979 0.176079 -0.105519 0.051566 -0.993079
0.000838629 -0.152355 0.296964 0.186691 0.749271 0.635404
-0.00693655 0.352681 0.33107 0 -0.343745 -0.939063
0.00225103 -0.206411 0.414924 0.257352 0.94154 -0.217423
0.00288433 0.152128 0.535439 0.139445 -0.285889 0.948063
-0.00462301 0.24362 0.26998 0.458942 0.771888 0.439956
0.00346882 -0.407208 0.32173 0.186621 -0.582785 0.790907
-0.0312476 -0.230209 0.3845 -0.347802 -0.886843 0.304208
0.00375113 0.227605 0.0525225 0 -0.458721 -0.888581
0.0642475 -0.236166 0.600191 0.124938 -0.927445 0.352473
-0.00820585 -0.204258 0.432995 -0.90467 -0.308966 -0.29345
-0.00530795 0.200058 0.178268 0.646043 0.0161188 0.763131
0.00227538 0.282449 0.368765 0.187193 -0.0870179 0.978461
-0.0130167 -0.464914 0.198648 -1 0 0
0.00703534 -0.19008 0.529457 0.987691 -0.152409 0.0351852
0.015808 -0.297684 0.208947 -0.642662 0.765101 -0.0400731
-0.0120265 0.36517 0.0406523 -0.859791 -0.244123 0.448512
0.0122401 0.459294 0.144341 1 0 0
0.00700929 0.37621 0.310558 0 0.566437 0.824105
0.00808811 -0.0209417 0.463169 0.791835 0.0303232 0.609982
0.000181769 0.095876 0.363774 0.0793946 -0.962877 0.258002
0.0015157 -0.182746 0.0702002 0.181539 -0.685704 0.704878
0.0196946 -0.307181 0.175938 -0.966429 -0.234711 -0.104531
-0.0392401 0.154198 0.511816 -0.809042 -0.416743 0.41446
-0.00552194 0.146407 0.495256 -0.737377 0.658182 -0.151896
-0.0207373 0.165514 0.509968 0.391996 -0.256838 -0.883387
0.0123445 -0.258436 0.146157 -0.642957 -0.642359 -0.41711
0.00962229 0.371692 0.346638 0.553724 0.367957 0.746992
-0.00988201 0.145674 0.509538 -0.0369685 -0.0215876 -0.999083
0.00237887 0.153928 0.111955 0.18204 0.829532 0.527957
0.0095126 -0.240812 0.123381 -0.642684 -0.64252 -0.417284
0.007577 -0.372933 0.133809 -0.642524 0.482181 -0.595537
-0.00782496 0.331143 0.33829 0 -0.223261 -0.974759
0.0041393 0.333342 0.284587 -0.646727 -0.729089 0.223993
0.00901377 -0.00237335 0.453127 0.889641 -0.0261614 -0.45591
0.0512915 0.0649779 0.287853 1 0 0
-0.0130167 -0.13464 0.111923 -1 0 0
0.0456203 0.0564986 0.255119 0.9985 -0.00284553 -0.0546827
0.00625926 -0.196335 0.224098 0.974763 0.187948 -0.120468
0.00354689 0.381847 0.240361 -0.646022 -0.458456 0.610307
0.0243468 0.0386585 0.183299 0 -0.922166 0.386795
0.0041416 -0.467701 0.225114 0.186547 -0.95122 0.245724
0.0271867 -0.236924 0.33721 -0.754773 -0.650807 0.0822697
-0.0113146 -0.450879 0.152641 -0.859302 0.505184 0.079934
-0.00320802 -0.190663 0.269841 0.643212 0.416946 -0.642211
-0.0123272 0.40244 0.0583467 -1 0 0
-0.0118825 0.391685 0.330629 -0.866008 0.279973 0.414302
-0.0130167 -0.22161 0.0281094 -1 0 0
0.00852987 -0.337636 0.329591 -1 0 0
-0.037687 0.228865 0.185944 0.906576 0.221472 0.359264
0.012663 -0.241733 0.205086 0.974729 0.188014 -0.120643
0.0280629 -0.235306 0.284891 -0.60579 0.761472 -0.230605
-0.00381865 -0.196317 0.563594 0 -0.593627 0.80474
-0.0100611 -0.436712 0.241415 -4.77925e-05 0.915653 -0.401969
0.0411372 0.29274 0.186467 0.0616505 0.901795 -0.427743
0.0245591 0.121418 0.500175 0.935839 -0.336728 0.10402
0.00157034 -0.204637 0.540442 -1 0 0
0.0257146 -0.235526 0.303528 -0.990641 0.135418 -0.0170695
-0.000752681 -0.144742 0.204575 0 0.996051 0.0887795
-0.00857036 -0.219307 0.42607 -0.817823 -0.560793 0.129139
0.0108824 -0.131742 0.208985 0.859258 -0.505254 -0.0799642
-0.00277041 0.208619 0.34861 -0.186912 -0.469693 0.862817
-0.000342253 0.190636 0.306386 0 0.608697 -0.793403
-0.00354285 0.111041 0.170525 -0.186998 -0.970282 -0.15357
0.00341918 -0.455939 0.259291 0.186507 -0.908913 0.37295
-0.0422865 0.0601454 0.181043 1 -3.57662e-07 6.82301e-06
0.0115505 -0.12752 0.164741 1 0 0
-0.00381284 0.408418 0.29064 0 -0.753596 -0.657337
-0.0422866 0.0652267 0.155069 1 0 0
0.000916206 0.385641 0.0777007 -0.645653 -0.624835 -0.438992
-0.0130167 -0.445593 0.245841 -1 0 0
0.00140994 -0.427823 0.30267 0.186883 -0.774535 0.604294
0.0119948 0.232493 0.340408 0.882497 0.175758 -0.436243
-0.0347783 0.0295937 0.1557 -1 0 0
-0.00787852 0.242109 0.142228 0.645845 -0.435645 0.626975
-0.0233325 -0.229539 0.578582 -0.0577516 0.331924 -0.941537
-0.00945575 -0.158809 0.390209 -0.995386 -0.070635 -0.0649428
0.0480154 -0.23406 0.582947 0.232728 -0.636464 -0.735358
-0.0130167 -0.460836 0.182231 -1 0 0
-0.00160807 -0.289943 0.026231 0 -0.026106 0.999659
0.00155933 0.423692 0.104768 0 -0.858027 0.513605
-0.00858978 -0.417476 0.264177 0 -0.858046 0.513572
-0.0112099 0.289886 0.0247699 -0.859815 0.0244567 0.510019
-0.00727256 0.445329 0.0936506 -0.553738 0.720158 -0.418026
-0.0517685 0.0400519 0.171195 0 -0.999984 0.0055891
0.0122401 0.366231 0.0397307 1 0 0
-0.0387852 0.116807 0.232048 0.998848 -0.0476598 0.00555603
0.00136453 -0.32656 0.0299489 0 0.223327 0.974744
0.00852987 -0.433966 0.129314 -1 0 0
0.0105308 0.416383 0.313162 0.865992 0.333806 0.372333
-0.000814904 0.427439 0.266107 -0.181946 -0.829576 -0.527921
0.0180865 0.115621 0.51875 0.872631 -0.096216 0.478808
-0.0454396 0.296472 0.185254 -0.0143603 -0.265751 -0.963935
-0.0153461 0.0473798 0.19923 0 -0.0350448 0.999386
0.0116422 0.152999 0.293524 0.866003 -0.394244 0.307588
0.00954627 -0.178144 0.316965 0.865447 0.33444 0.37303
-0.0604415 0.28999 0.183767 -0.894647 -0.240046 -0.376809
-0.00934431 -0.23826 0.580529 -0.0481311 -0.827389 -0.559564
-0.0414584 0.0979678 0.147414 0 0.939316 0.343053
0.00941488 -0.112732 0.464467 0.965389 0.0110783 0.260578
-0.000441642 0.184049 0.0738543 -0.182008 0.656379 0.732148
-0.00556727 0.468686 0.227509 -0.553852 0.822374 0.130189
-0.0101819 0.0967677 0.327151 -0.995611 0.0902565 -0.0247559
0.0324721 -0.21844 0.387859 0.640303 0.728314 0.244072
-0.0351933 0.300156 0.170467 -1 0 0
0.0110054 -0.455585 0.18709 0.859225 0.511492 0.0103982
0.006165 0.135603 0.482962 0.991453 -0.127124 0.0293459
0.00361182 0.0803826 0.236278 0.393836 0.887841 -0.237974
-0.00069845 -0.215512 0.0466324 0 -0.504465 0.863432
0.000461198 0.0889362 0.265907 0.0801011 0.962822 -0.257987
0.0049721 -0.20497 0.570528 0.980812 0.10618 0.163507
-0.000688983 -0.111958 0.203076 0.186682 0.970339 0.153599
-0.120154 -0.210441 0.604852 0.0453026 0.99561 0.0819086
-0.0305243 0.296607 0.114956 0 0.813382 0.58173
0.094036 -0.240753 0.601895 -0.172848 -0.435902 0.88324
0.00247527 -0.159699 0.456157 0.257412 -0.0506893 -0.964971
-0.0259097 -0.225849 0.359028 0.9028 0.404134 -0.147066
0.0122401 0.277988 0.0182346 1 0 0
0.0143145 0.0571099 0.184652 0.524345 -0.1349 0.840752
-0.0129143 -0.264035 0.353131 -0.865469 0.0918925 0.492462
0.0102333 0.285707 0.218161 -0.458745 -0.883477 -0.0949818
0.00747926 0.223349 0.0210136 0.553788 -0.367935 -0.746956
0.0200186 0.108395 0.508535 0.979341 -0.126166 0.158032
0.00669406 0.0954132 0.353098 0.671717 -0.715629 0.191499
-0.00752942 -0.000676237 0.218117 -0.679351 -0.530675 -0.50682
0.00945717 -0.375681 0.0256577 0.865503 -0.221338 -0.449349
-0.160787 -0.22147 0.613335 -0.0686181 -0.0816004 0.9943
0.0115472 -0.181448 0.0482762 0.86548 0.297153 -0.403291
-0.0398206 0.0542667 0.13169 1 0 0
-0.0610384 0.0394796 0.126535 0 -0.99976 0.0219001
0.0128722 0.180761 0.518559 0.163882 0.982234 -0.09143
0.0390724 0.170993 0.505109 0.554063 0.832321 -0.0159935
-0.0338588 0.287952 0.161126 -0.999964 -0.00848534 0.000471
-0.0581684 0.043681 0.0931645 0.995973 -0.00468866 -0.0895333
0.0594475 0.0707355 0.284047 0 -0.99863 0.0523272
0.00143081 0.324226 0.0505531 0.979793 0.196491 -0.0373828
0.0115505 -0.454003 0.142207 1 0 0
0.0213475 0.202344 0.336698 -0.411631 0.77861 0.473631
-0.00645608 0.302776 0.00735563 -0.553863 0.0737263 -0.829337
0.0100953 0.135567 0.225026 0.859779 0.494432 -0.127741
-0.0574247 0.0491116 0.105552 0.694959 0.711631 -0.103017
0.0436634 0.0480376 0.270058 0 -0.998778 0.0494151
-0.0130167 -0.425388 0.287211 -1 0 0
-0.0279315 0.242726 0.268503 0.879717 0.465418 0.0973884
0.00218653 -0.463108 0.12139 0.186575 -0.94041 -0.284288
0.00422789 -0.349383 0.0105691 0.18657 -0.310063 -0.93223
0.0256979 0.104289 0.175893 0.671507 -0.022772 -0.740648
-0.114606 0.0328238 0.0633956 1 0 0
-0.00696512 0.0958945 0.354234 -0.676868 -0.711086 0.19028
-0.0228657 0.305504 0.196388 -0.213015 0.805763 -0.552603
0.0602226 0.0373318 0.292992 0 -0.99863 0.0523262
0.00996833 0.0627643 0.198093 0.995733 0.0889896 -0.024416
-0.030234 -0.22658 0.339238 0.353676 0.926555 -0.128102
0.0376438 -0.231428 0.320045 0.786569 0.608222 -0.10665
-0.00650542 0.250845 0.0436666 0 -0.223314 -0.974747
-0.00665864 -0.235325 0.0370791 0 -0.392298 0.919838
0.00532729 -0.120153 0.234531 0.552872 0.797617 0.241121
-0.0120479 0.282056 0.208716 0.776874 -0.48832 -0.397505
0.0248761 0.146552 0.526178 0.511443 -0.415739 0.752055
-0.00641955 -0.246368 0.0761644 -0.97474 -0.120585 -0.187994
0.000446959 -0.473361 0.1663 0.18649 -0.982254 -0.0199778
-0.00243654 0.471411 0.214273 -0.187221 0.970256 0.153468
-0.0097027 0.0447463 0.451869 -0.959046 -0.017262 -0.282724
-0.0103104 -0.179794 0.0804369 1 0 0
-0.0366003 0.196783 0.225383 -0.989361 0.145449 -0.00319059
-0.0503185 0.0465061 0.188947 -0.203007 0.0509422 0.977851
-0.00553324 -0.447337 0.201403 0 0.986845 -0.161668
-0.0130167 -0.20899 0.326035 -1 0 0
0.00852987 -0.164425 0.268195 -1 0 0
-0.0121348 -0.434143 0.261366 -0.859325 0.442307 -0.256759
-0.00843593 0.299809 0.336746 0 0.0994236 0.995045
-0.0216732 0.304381 0.166709 -0.0610525 0.759664 -0.647444
0.00631703 -0.197859 0.507188 0.890951 -0.44246 0.102151
-0.000566333 -0.194494 0.0285855 0.186608 0.582801 -0.790898
-0.010245 0.187985 0.0644643 -0.859795 0.340866 0.380215
-0.0351205 0.306301 0.182973 0 -0.151525 -0.988453
-0.0123271 0.23614 0.35088 -1 -7.67282e-06 -3.51974e-06
0.0105948 -0.204143 0.030658 0.865487 0.239474 -0.439981
0.00764 0.108486 0.350982 0.671642 0.715557 -0.192031
0.0231447 -0.2291 0.391644 0.0617197 -0.946067 0.318037
-0.0103104 -0.256778 0.33138 1 0 0
-0.0424721 0.0932997 0.196877 -1 0 0
0.0136267 0.0650123 0.525719 -0.612118 -0.0750491 -0.787197
-0.0077959 0.133082 0.179969 -0.542973 0.839576 0.0171158
0.0028974 -0.363736 0.313405 0 -0.504496 0.863414
0.00308263 -0.141064 0.386441 0.257083 0.697966 0.668395
-0.0424721 0.00325219 0.190729 -1 0 0
0.0180251 -0.281821 0.190659 0.132211 -0.922335 -0.363068
0.00817712 0.0443821 0.16367 1.67061e-06 -0.308803 -0.951126
-0.0123272 0.127976 0.2439 -1 0 0
-0.138387 -0.208991 0.60514 -0.00886909 0.996612 0.0817693
