0.0210427 0.230394 0.0989979 -0.998384 0.0347544 0.0449688
0.0206016 -0.422847 0.201498 0.998006 -0.0594306 0.0212812
0.0065426 -0.285878 0.2821 -0.997997 0.0149861 0.0614691
0.00623313 0.423796 0.233445 -0.998384 0.0545501 0.0159471
0.0183422 -0.179164 0.230634 0.999442 -0.0294152 -0.0158379
0.0222565 -0.284643 0.0928686 -0.997997 -0.0240094 0.0585346
0.01944 -0.410029 0.255201 -0.997997 0.045739 -0.0437136
0.0221719 -0.248497 0.204099 -0.997997 -0.0557049 -0.0299957
0.00578433 0.234229 0.0830788 -0.998384 -0.0347545 -0.0449689
0.0184815 -0.314702 0.325941 0.999442 -0.000990528 -0.0333959
0.0221826 0.281178 0.0946437 -0.998376 0.0134901 0.0553406
0.0219487 -0.405457 0.145513 0.998006 -0.0605874 -0.01772
-0.0639706 -0.310061 0.509946 0.357549 -0.313548 -0.879686
0.0248263 0.278366 0.221183 -0.998384 0.032027 -0.0469508
0.0178112 -0.333865 0.330857 0 -0.0296739 -0.99956
0.0183617 -0.167435 0.197142 0.999442 -0.0320715 -0.00937833
0.11372 -0.33868 0.434591 0.382978 0.583425 0.7162
0.0435878 0.269911 0.228076 -0.38679 -0.719529 -0.576777
0.0172944 -0.16933 0.230322 0 -0.880488 -0.474069
0.0160617 -0.264817 0.0206798 0 -0.379473 0.925203
-0.020226 0.112794 0.130708 -1 0 0
0.0184278 0.0662983 0.187253 0.825676 -0.277643 -0.491095
0.0185897 -0.478164 0.117445 0.999442 0.0320656 0.00937719
0.0128541 0.399697 0.327692 0 -0.611541 -0.791213
-0.0069478 0.190188 0.338566 0.74106 0.586186 0.327439
0.00787087 -0.231188 0.294419 -0.999441 -0.0204374 -0.0264427
0.0210618 0.222459 0.106794 -0.998376 0.043443 0.0368421
0.00765587 -0.316352 0.329206 -0.999442 -0.000991557 -0.0334004
-0.0225671 0.0937091 0.161344 0.000348595 0.530438 -0.847724
0.00342501 -0.314976 0.237736 -0.998006 0.00187337 0.0630992
-0.0241129 0.0400065 0.192879 -1 0 0
0.00543063 0.205227 0.245044 0.998376 0.0484653 -0.0299293
0.0186215 0.236006 0.0449816 -0.998376 0.0247053 0.0513249
0.0201826 0.193297 0.120541 -0.998376 0.0501535 0.0270048
0.00784956 0.181356 0.309988 -0.999548 0.0217379 -0.0207768
0.0232803 -0.323055 0.230672 0.998006 0.00187337 0.0630988
0.0248707 -0.361908 0.165659 0.997997 -0.063089 -0.00474471
0.0047451 0.336427 0.0851692 0.998376 -0.0216145 0.0527015
0.00851679 0.449327 0.0970054 0.998376 -0.0484628 0.0299323
0.00784659 -0.252474 0.0232282 -0.999441 -0.0126804 0.0309177
0.116455 -0.358112 0.472161 -0.964141 0.239436 -0.114464
0.0460748 0.163336 0.490486 -0.629564 0.23455 -0.740699
0.0195938 0.170122 0.218107 -0.998384 0.0535074 -0.0191607
0.00315719 -0.302082 0.50084 3.86922e-06 0.0349774 0.999388
0.0101532 0.446737 0.0867686 0 -0.850829 0.525442
0.00673596 -0.242336 0.0688441 -0.998006 0.0355715 -0.0521484
0.0221551 0.0861053 0.166228 -0.000342226 -0.579686 -0.81484
-0.00313979 0.107443 0.167599 0.896502 0.132653 -0.422714
0.0195611 -0.430735 0.224751 -0.997997 0.0538302 -0.033244
0.0185113 -0.18096 0.167042 -0.997997 -0.0630893 -0.00474144
0.0222456 -0.393813 0.127622 -0.997997 0.0557071 0.0299915
0.00290187 -0.273542 0.208153 -0.997997 0.0482521 0.0409223
0.00511414 0.209652 0.241651 0.998376 0.0484653 -0.0299293
0.0177664 -0.469749 0.129789 0.998006 -0.0605874 -0.01772
0.0210342 -0.220811 0.160575 -0.997997 -0.0626971 0.00847632
-0.0228883 0.119531 0.157116 0 0.438347 0.898806
0.0184366 0.128118 0.154889 0.999548 0.029986 0.00225718
0.0108879 -0.209192 0.0447459 0 -0.722925 0.690926
0.00768127 -0.385281 0.0412634 -0.997997 -0.0274394 -0.0570076
0.0041327 0.285806 0.274917 0.998376 0.0101859 -0.0560438
-0.0169026 0.300607 0.182219 -0.0398434 -0.889532 -0.455133
0.0126387 0.392685 0.343834 0 -0.433655 -0.901079
0.0376177 0.204332 0.177242 -0.988308 0.0929936 0.120829
0.0183712 0.296232 0.00911211 -0.999548 -0.000892743 -0.0300626
0.00793622 -0.20463 0.249674 -0.997997 0.0482521 0.0409223
-3.06386e-05 -0.338491 0.171053 0.998006 0.059427 -0.021289
0.0181107 0.289644 0.0209244 -0.998384 0.00168562 0.0568078
0.00766711 0.472185 0.116942 0.999548 0.0283162 -0.0101379
0.0300468 0.128769 0.173472 -0.988308 0.0929936 0.120829
0.0224002 0.22403 0.14545 -0.998376 0.0501535 0.0270048
0.114591 -0.25811 0.428579 0.735768 0.0236308 0.676821
0.0197205 -0.28988 0.282757 -0.997997 -0.0149861 -0.0614687
0.0199504 0.218227 0.0841513 -0.998384 0.0347544 0.0449688
0.0203962 0.180704 0.173317 0.998376 -0.056801 -0.00427282
0.01052 0.113715 0.322333 -0.555417 0.825893 -0.0970188
0.00774573 0.159487 0.291263 -0.999547 0.0255934 -0.015805
0.00608167 0.304292 0.310655 -0.998384 0.00168668 0.0568086
0.00823189 -0.377827 0.30287 -0.997996 -0.0240103 0.0585364
0.000945186 0.269072 0.169571 -0.998384 -0.054549 -0.0159526
0.0182521 -0.402123 0.0451603 0.998006 -0.0386024 -0.0499466
0.00787028 -0.0646953 0.267967 -0.949394 0.155358 0.272975
0.0134324 -0.267791 0.312417 0 0.433642 0.901085
-0.02621 0.287779 0.175672 0.381891 0.145022 -0.912758
0.00778455 0.4469 0.119274 -0.998384 0.0535076 -0.0191565
0.00833181 -0.469432 0.116276 0 -0.9598 -0.280686
0.00477377 0.358755 0.0955519 -0.998384 0.0320276 -0.0469499
0.00683978 0.0938146 0.226215 0.980669 0.194339 -0.0228272
0.0205734 -0.342996 0.0597416 -0.997997 0.0149844 0.0614668
0.00831799 -0.158829 0.195948 0 -0.959824 -0.280602
0.102836 -0.345055 0.48116 -0.734759 0.460075 -0.498457
0.00440183 0.30266 0.0861086 -0.998384 -0.00168562 -0.0568079
0.0202956 -0.245953 0.0823257 -0.997997 -0.0457372 0.0437122
0.00774742 0.427328 0.0545921 -0.999548 -0.0217444 0.0207813
0.0208438 -0.387954 0.245702 0.998005 -0.0355735 0.0521496
0.00350993 0.221151 0.181778 -0.998376 -0.0568012 -0.00427283
0.0481825 0.0889926 0.26874 -0.000295422 0.999392 -0.0348577
0.0201065 -0.43552 0.14455 -0.998006 0.0605877 0.0177178
0.0102802 0.256863 0.00644063 0 -0.236866 -0.971542
0.0120787 0.150798 0.265897 0 0.850839 -0.525427
0.00768938 -0.461426 0.160311 0.997997 0.0630894 0.00474474
0.0580092 -0.298012 0.18363 1 0 0
0.0211152 -0.382011 0.0868254 0.998006 -0.0386024 -0.0499466
0.0221634 0.252071 0.25987 -0.998384 0.032027 -0.0469508
0.0163422 0.412967 0.0367699 0 -0.563522 0.826101
0.0316349 0.202258 0.332302 0.386135 0.718996 0.577879
0.0169824 -0.213336 0.456864 0.555513 0.0340237 0.830812
0.0263622 0.320773 0.178871 -0.998384 -0.0535075 0.0191565
0.00725865 -0.249741 0.370334 -0.831242 -0.555879 -0.00598514
0.0210252 -0.312507 0.0648467 -0.997997 -0.0113135 0.0622471
0.00276012 -0.382226 0.152518 -0.998006 -0.0605878 -0.0177198
-0.0320356 -0.275449 0.209724 0.314691 -0.926875 0.204627
0.0252661 0.328187 0.211554 0.998384 0.0347552 0.0449684
0.00681474 0.206334 0.0817611 0.998384 0.0347536 0.0449698
0.0191862 -0.451703 0.163973 0.997997 -0.063089 -0.00474471
0.0190791 0.304548 0.329675 -0.998384 -0.00168668 -0.0568085
0.0239666 -0.282766 0.127622 -0.997997 -0.0457372 0.0437122
0.0175109 -0.241647 0.451583 -0.542078 -0.840328 0.00100422
0.0185804 -0.223392 0.296196 0.999442 -0.0204319 -0.0264348
0.0188178 0.453364 0.169298 -0.998376 -0.0564475 0.00763355
0.00811276 0.252234 0.028601 0.998376 0.0134904 0.0553407
0.00700938 -0.207464 0.345614 -0.975445 0.10928 0.191221
0.00111487 -0.239522 0.326297 -1.07879e-05 -0.0296551 -0.99956
0.00581769 0.425392 0.192937 0.998376 -0.0568012 -0.00427286
0.00565544 0.185414 0.204806 0.998376 0.0564479 -0.00763497
0.0201762 0.208871 0.268447 -0.998376 0.0411791 -0.0393563
0.00826285 0.174247 0.287914 0.998376 0.0411794 -0.0393562
0.0110799 -0.160624 0.126631 0 -0.99099 0.133937
0.00671113 -0.24516 0.392236 -0.98064 0.195807 0.00210647
-0.0108044 0.297333 0.192548 1 0 0
0.00529546 0.197614 0.141658 -0.998384 -0.054549 -0.0159526
0.0076885 0.389159 0.0234433 0.999548 0.0114145 -0.0278273
0.0183286 0.475753 0.200077 -0.999547 0.0299976 0.0022555
0.0179526 -0.251264 0.368498 0.831251 -0.555865 -0.00597985
0.00423694 -0.328187 0.0806235 -0.998006 -0.00187216 -0.0630972
0.00415239 -0.364496 0.237833 -0.998005 -0.0355737 0.0521499
0.00811291 0.398554 0.0516948 -0.998384 0.0320276 -0.0469499
0.0196447 -0.422037 0.236322 -0.997997 0.0538302 -0.033244
0.0223419 -0.241825 0.17063 -0.997997 -0.0630893 -0.00474144
0.0199978 0.333261 0.310098 -0.998376 -0.0134936 -0.0553406
0.0200182 -0.204579 0.161013 -0.997997 -0.0626971 0.00847632
0.0541834 0.0964507 0.275145 -0.998131 0.059553 0.0137441
0.00187133 -0.338546 0.12048 -0.997997 -0.0274394 -0.0570076
0.00665764 0.184247 0.115289 0.998376 0.0501537 0.0270049
0.0062699 -0.206283 0.188839 -0.998006 0.0605871 0.0177185
0.0201318 0.33042 0.308373 -0.998376 -0.0134936 -0.0553406
0.00256394 0.351025 0.138871 0.998376 -0.0411804 0.0393546
0.00593856 0.336649 0.303731 0.998376 -0.0134936 -0.0553407
0.112055 -0.32708 0.49732 -0.942571 -0.08175 -0.323847
0.0466802 -0.254912 0.299067 -0.796653 0.519995 -0.308138
0.00311454 -0.256832 0.146792 -0.998006 0.0594312 -0.0212784
0.00648059 0.00207914 0.443196 -0.980683 0.0080038 0.195442
0.00442887 0.294841 0.0858653 -0.998384 -0.00168562 -0.0568079
0.00764143 0.452214 0.141576 -0.998384 0.0535076 -0.0191565
0.0095129 -0.323703 0.00076999 0 0.0296502 0.99956
0.00511836 -0.413376 0.126674 -0.997997 -0.0557075 -0.0299916
0.0197191 0.0208808 0.442639 -0.980668 -0.00800673 -0.195513
0.00767666 0.400383 0.337566 0.999548 0.0183923 0.0237958
0.0239503 -0.375641 0.156297 -0.998006 0.0605877 0.0177178
0.00420933 0.0851959 0.161692 0.000342227 0.579687 0.814839
0.0126834 -0.156627 0.442496 -0.195402 -0.0401292 -0.979902
0.00714814 0.415088 0.0896112 0.998376 -0.0411804 0.0393546
0.0226328 0.219328 0.188168 -0.998376 0.0564477 -0.00763495
0.00755566 -0.459581 0.163908 0.997997 0.0630894 0.00474474
0.0265821 0.300369 0.169488 0.998384 -0.00168107 -0.0568085
0.0168301 -0.28164 0.325489 0 -0.236834 -0.97155
0.0243481 0.2797 0.23203 -0.998376 0.0216191 -0.0527004
0.0230289 -0.327808 0.096783 0.998006 -0.00187219 -0.0630969
0.00672487 0.426242 0.247122 0.998376 -0.050152 -0.0270068
0.00621285 0.262575 0.0603557 0.998376 0.0134904 0.0553407
0.00700166 -0.237603 0.0670053 -0.997997 0.0457374 -0.0437124
-0.0737939 0.0724853 0.0645426 0 -0.0349152 -0.99939
0.00861176 -0.170529 0.198487 -0.998006 0.0605871 0.0177185
0.00135221 -0.360188 0.175313 -0.998006 -0.0594311 0.021281
0.00463348 0.383572 0.246205 0.998376 -0.0434417 -0.0368436
0.0116531 -0.21785 0.0369128 0 -0.563518 0.826104
-0.00413034 0.089741 0.4843 -0.746679 -0.171679 0.642648
0.00666588 -0.257039 0.0601556 -0.998006 0.0355715 -0.0521484
0.0157867 0.34992 0.350275 0 -0.236863 -0.971543
0.0223303 -0.24286 0.181172 -0.998005 -0.0605829 -0.0177431
0.0176435 -0.249887 0.490467 0.323981 -0.932834 0.157661
0.00800774 -0.251554 0.434611 -0.831242 -0.555879 -0.00598514
-0.0469256 0.0909739 0.0799663 -0.000200473 -0.999391 0.0348987
0.0185538 0.22019 0.344872 0.999547 0.011415 -0.027833
0.0237969 0.366859 0.183356 -0.998376 -0.0568012 -0.00427285
0.00346788 -0.355473 0.230817 -0.997996 -0.0240103 0.0585364
0.00229438 -0.291823 0.12009 -0.998006 0.0355715 -0.0521484
0.00573896 0.181607 0.187579 0.998376 0.0564479 -0.00763497
0.021976 -0.405676 0.184513 -0.997997 0.0626966 -0.00847896
0.00791747 0.43434 0.275334 0.998376 -0.0434417 -0.0368436
0.0223153 -0.241013 0.165431 -0.997997 -0.0630893 -0.00474144
0.0191043 0.24325 0.0508869 -0.998376 0.0247053 0.0513249
0.0250717 0.271497 0.157632 -0.998376 0.043443 0.0368421
0.0162711 -0.140082 0.314122 0.5068 0.428913 0.747788
0.00762895 -0.259787 0.508531 0.822749 -0.0168848 -0.568155
0.014903 -0.240274 0.455317 0.189324 0.981914 -0.00118624
0.0304464 0.0878459 0.483449 -0.746678 0.171679 -0.64265
0.00607459 -0.433715 0.189877 -0.997997 -0.062697 0.00847903
0.00769457 -0.367757 0.00954321 -0.999442 0.00791387 0.032465
0.00702173 0.445471 0.20734 0.998376 -0.0568012 -0.00427286
0.0157136 -0.468159 0.111923 0 -0.9598 -0.280686
0.0237832 0.288788 0.245667 -0.998376 0.0101856 -0.0560438
0.0180627 0.329721 0.0218542 -0.998376 -0.0101871 0.0560431
0.0198008 0.111728 0.361603 -0.980677 0.194297 -0.0228228
0.0117437 0.214578 0.0343664 0 0.43363 0.901091
0.117493 0.0967838 0.270669 0 0.034877 0.999392
0.0212593 0.206386 0.232029 -0.998376 0.0484652 -0.0299292
0.0219379 -0.25259 0.113087 -0.997997 -0.0538283 0.0332435
0.0177026 0.288311 0.3539 -0.998376 0.0101856 -0.0560438
0.0235691 0.309127 0.116277 -0.998384 0.00168562 0.0568078
0.00490248 0.321257 0.288793 0.998376 -0.0134936 -0.0553407
0.101883 -0.277984 0.424374 -0.966972 -0.00889377 -0.254728
0.00784199 -0.168307 0.124866 -0.999441 -0.0314631 0.0112641
0.0130324 -0.166827 0.14912 0 0.990991 -0.133929
0.00442044 -0.332824 0.0778587 0.998006 0.00187326 0.063097
-0.00817845 -0.241026 0.326837 0.41068 -0.911379 0.0270374
0.00801839 0.201477 0.0587918 -0.998384 -0.0347545 -0.0449689
0.0216492 0.328874 0.281376 -0.998376 -0.0134936 -0.0553406
0.00854964 -0.450872 0.082142 -0.997997 -0.0557075 -0.0299916
0.0206235 0.0482015 0.48482 -0.5554 0.173733 -0.813233
0.0181491 0.411726 0.0620868 -0.998376 -0.0411803 0.0393546
0.0184835 0.421621 0.0492877 -0.999547 0.0217471 -0.0207839
0.00825999 0.113637 0.335256 -0.83168 0.551464 -0.0647803
0.00576186 0.259856 0.0696851 0.998376 0.0247054 0.051325
0.00787827 -0.24477 0.0453225 -0.998006 0.0355715 -0.0521484
0.00410909 -0.362168 0.0926743 -0.997997 -0.0274394 -0.0570076
0.00915139 0.211951 0.0243361 0 -0.433675 -0.901069
0.0186732 -0.457371 0.138533 0.998006 -0.0605874 -0.01772
0.00341209 0.22324 0.176867 -0.998376 -0.0568012 -0.00427283
0.0177475 -0.259115 0.304706 0.997996 0.027437 0.0570104
0.0200299 -0.303664 0.0504961 -0.997997 -0.0113135 0.0622471
0.0136861 -0.0485479 0.451374 0.195372 0.0401264 0.979908
0.00508932 0.203856 0.231008 0.998384 0.0534942 -0.0191872
0.000717988 -0.312187 0.193947 -0.997997 0.0149861 0.0614691
0.0204004 0.370769 0.286672 -0.998384 -0.034756 -0.0449677
0.00429192 -0.331725 0.0798589 -0.998006 -0.00187216 -0.0630972
0.00750512 0.362813 0.0437052 0.998376 -0.0216145 0.0527015
0.00524723 0.414712 0.201615 0.998376 -0.0568012 -0.00427286
0.0176614 0.108809 0.443218 -0.555233 -0.0340288 -0.830998
0.00597521 -0.346634 0.055675 -0.997997 -0.0149845 -0.0614672
-0.020226 0.131191 0.184514 -1 0 0
0.0176624 -0.422685 0.282543 -0.997997 0.045739 -0.0437136
-0.000617441 0.167427 0.380037 -0.741206 -0.583157 -0.332478
0.0100907 -0.0981813 0.277644 -0.509308 -0.424201 -0.748771
0.0241789 0.248212 0.197268 -0.998384 0.0535074 -0.0191607
0.00841771 0.429219 0.294928 0.998376 -0.0434417 -0.0368436
0.00767129 -0.461107 0.159869 0.997997 0.0630894 0.00474474
0.0189166 -0.416714 0.070439 -0.997997 0.0482502 0.040923
-0.0241129 0.127628 0.185213 -1 0 0
0.0201889 -0.43454 0.146661 0.997997 -0.063089 -0.00474471
0.0187017 -0.288721 0.0319177 -0.997997 -0.0113135 0.0622471
0.0228915 -0.393265 0.166311 0.997997 -0.063089 -0.00474471
-0.0617836 0.0669669 0.0683176 0 0.999396 -0.0347367
-0.020226 0.0903341 0.213488 -1 0 0
0.0210887 0.196006 0.155956 -0.998384 0.0545488 0.0159525
0.018211 -0.455995 0.261786 0 0.850824 -0.525451
0.0123959 -0.477376 0.219699 0 0.941455 -0.337139
0.0419061 -0.255887 0.306845 0.392638 -0.863477 0.316613
0.0017765 0.351228 0.202666 -0.998384 0.0545501 0.0159471
0.0392067 0.192331 0.171169 0.49796 -0.00866233 -0.867157
0.00710652 0.296347 0.0387616 -0.998384 -0.00168562 -0.0568079
0.0212666 -0.272726 0.249654 0.997996 0.027437 0.0570104
0.00791734 -0.320442 0.321504 -0.999441 -0.00099076 -0.0334037
0.00853663 -0.176979 0.115516 -0.998006 0.0594312 -0.0212784
-0.0345917 0.0903714 0.181051 1 0 0
0.00436786 0.206275 0.190673 0.998376 0.0564479 -0.00763497
0.0143033 -0.239166 0.459057 0.195372 0.0401264 0.979908
0.0054428 0.417854 0.166054 0.998376 -0.0564475 0.00763355
-0.000821613 0.0649888 0.481532 -0.746679 -0.171679 0.642648
0.0240566 -0.371577 0.148389 0.998006 -0.0605874 -0.01772
-0.00527515 0.147358 0.499607 0.639083 0.195858 -0.743783
0.00866248 0.32709 0.00181969 0 0.178787 -0.983888
-0.120817 0.0780481 0.0719803 -1 0 0
0.00654613 -0.225129 0.239944 -0.997997 0.0482521 0.0409223
0.0048208 0.250903 0.0923002 0.998376 0.0247054 0.051325
0.00641003 0.435064 0.166813 0.998376 -0.0564475 0.00763355
-0.0756382 -0.299356 0.425206 0.96696 0.00889538 0.254774
-0.000591621 0.312162 0.188041 0.998384 -0.054547 -0.015966
0.00134252 0.312627 0.140568 0.998376 -0.0101871 0.0560432
0.0130789 0.411027 0.318935 0 -0.611541 -0.791213
0.0210579 -0.421168 0.15165 0.997997 -0.063089 -0.00474471
0.002423 -0.351956 0.213292 -0.998005 -0.0355737 0.0521499
0.00429613 0.392527 0.219139 -0.998384 0.0545501 0.0159471
0.0186571 -0.370902 0.294706 -0.997997 0.0240102 -0.0585361
0.022948 0.381189 0.191224 -0.998376 -0.0568012 -0.00427285
0.00933456 0.24543 0.0197047 0 0.236849 0.971546
0.00250942 -0.265655 0.15053 -0.998006 0.0594312 -0.0212784
0.00828527 -0.390576 0.033238 -0.997997 -0.0274394 -0.0570076
0.00571074 0.235594 0.0836575 -0.998384 -0.0347545 -0.0449689
0.00661291 -0.247901 0.379091 0.980626 0.195879 0.00210903
0.0198009 -0.226494 0.0913929 -0.997997 -0.0457372 0.0437122
0.0165927 0.00750095 0.229201 0.546906 0.41681 0.72606
0.00457414 -0.246156 0.216472 -0.997997 0.0557052 0.0299958
0.00347249 0.365553 0.23599 0.998376 -0.0434417 -0.0368436
0.00937011 0.399502 0.0275852 0 0.563522 -0.826101
0.0138708 -0.213145 0.444873 0.195402 -0.0401292 -0.979902
0.0180355 -0.457624 0.10605 -0.997997 0.0557071 0.0299915
-0.0109079 0.0917613 0.479183 0.548778 0.135071 -0.824984
0.00569123 0.423478 0.188837 0.998376 -0.0568012 -0.00427286
0.0142833 0.120732 0.200364 0 -0.990981 0.134001
-0.0372745 -0.299228 0.185673 -0.296206 -0.647818 0.70185
0.00709387 -0.274085 0.287366 -0.997996 0.0274369 0.0570109
0.00712921 0.408877 0.283997 0.998376 -0.0434417 -0.0368436
0.0214569 -0.254239 0.231357 -0.997997 -0.0482519 -0.0409221
0.00296822 -0.259877 0.145148 -0.998006 0.0594312 -0.0212784
0.0185799 0.177496 0.0513426 -0.999548 -0.0183955 -0.0237995
0.103653 -0.318894 0.492972 0.3121 0.663805 -0.679674
0.00103876 0.292267 0.146461 0.998376 0.0134904 0.0553407
-0.04337 0.0842312 0.0793632 -0.995403 0.00491457 0.095644
0.0187291 0.307578 0.0312602 -0.998384 0.00168562 0.0568078
0.0228544 -0.323607 0.0938971 0.998006 -0.00187219 -0.0630969
0.0180943 0.252434 0.339319 -0.998376 0.0216191 -0.0527004
0.0225581 0.357133 0.11759 -0.998384 -0.0320276 0.0469499
0.00787789 0.440693 0.104337 0.998376 -0.0484628 0.0299323
0.0157341 -0.170432 0.331894 0.5068 0.428913 0.747788
0.0205495 0.305772 0.303797 -0.998384 -0.00168668 -0.0568085
0.00809308 -0.454859 0.104739 -0.997997 -0.0557075 -0.0299916
-0.0694783 0.105855 0.0710734 0 0.999393 -0.0348402
0.00714614 -0.274009 0.288244 -0.997996 0.0274369 0.0570109
0.0196834 0.239979 0.0637259 -0.998376 0.0247053 0.0513249
0.0302163 -0.245037 0.332938 0 -0.0297071 -0.999559
0.0183336 -0.440173 0.0640578 0.999442 0.0254782 0.0216082
0.00382168 -0.388461 0.207321 -0.997997 -0.0538305 0.0332442
0.00399822 -0.39951 0.141883 -0.998006 -0.0605878 -0.0177198
0.0448045 0.092776 0.278636 0.995334 -0.00154489 -0.0964726
0.0139394 -0.211233 0.355771 0.170983 0.489982 0.8548
0.00778002 -0.34286 0.0061836 -0.999442 0.000990419 0.033401
0.112585 -0.271465 0.418303 0.38573 -0.0321928 -0.92205
0.0178994 0.208196 0.0463685 -0.998384 0.0347544 0.0449688
0.0207499 -0.216754 0.157105 -0.997997 -0.0626971 0.00847632
0.0418455 -0.258651 0.283782 0.980486 0.00581147 0.196501
0.00648034 0.397867 0.279395 0.998376 -0.0434417 -0.0368436
0.0052909 -0.302321 0.265786 -0.997997 0.0149861 0.0614691
0.0186072 0.297034 0.366381 0.999548 -0.00089229 -0.0300622
-0.0704063 0.0728395 0.0726278 0 -0.034868 -0.999392
0.0233185 0.266633 0.121606 -0.998376 0.0247053 0.0513249
0.0741818 0.103319 0.270441 0 -0.034877 -0.999392
0.0071245 -0.351401 0.0381771 -0.997997 -0.0149845 -0.0614672
0.0182301 -0.189962 0.226542 -0.997997 -0.0557049 -0.0299957
0.00777657 -0.247475 0.0454232 -0.998006 0.0355715 -0.0521484
0.0147473 -0.0339483 0.240628 0.171221 -0.485771 -0.857152
0.0178819 -0.127265 0.295767 0.825676 -0.277643 -0.491095
0.106049 -0.363609 0.462578 -0.372238 -0.928048 0.0128639
0.024043 0.294725 0.242117 -0.998376 0.0101856 -0.0560438
0.00602815 -0.262907 0.26333 -0.997996 0.0274369 0.0570109
0.0189808 0.449435 0.210201 0.998384 0.054547 0.015966
0.0180541 -0.0900286 0.450963 0.831447 0.0227326 0.555139
0.00515134 -0.341439 0.0677852 -0.997997 -0.0149845 -0.0614672
0.00787207 -0.356174 0.304302 -0.997997 -0.0113135 0.0622495
-0.00550983 0.081145 0.16531 0.000510115 0.8478 0.530315
0.00785254 -0.234915 0.297993 -0.999441 -0.0204367 -0.026441
0.0185669 0.271632 0.00488405 0.999548 0.0071242 0.0292209
-0.0314086 0.0985544 0.177373 0.000511311 0.847659 0.530542
0.0185981 -0.371644 0.00901762 0.999442 0.0079123 0.0324574
0.019616 -0.318143 0.288483 0.998006 0.00187337 0.0630988
0.00598823 -0.306974 0.0535089 -0.997997 0.0113136 -0.0622475
0.0183971 0.145466 0.174636 0.998376 -0.056801 -0.00427282
0.0147633 -0.252159 0.437387 0.189711 -0.981839 0.00119272
0.0222637 -0.370731 0.230278 0.998005 -0.0355735 0.0521496
0.00883094 0.114645 0.427173 -0.555353 -0.825936 0.0970219
0.0282174 0.185975 0.352802 0.962213 -0.260503 -0.0792785
0.0190024 -0.314109 0.0326891 0.998006 -0.00187219 -0.0630969
-0.0334678 -0.275997 0.209444 0.314691 -0.926875 0.204627
0.0221675 -0.258862 0.111556 -0.997997 -0.0457372 0.0437122
0.00944072 -0.180221 0.324564 -0.509308 -0.424201 -0.748771
-0.020226 0.126689 0.179325 -1 0 0
-0.0207882 0.218074 0.176644 0.97666 0.130767 -0.170396
0.0230503 -0.356203 0.225133 0.998005 -0.0355735 0.0521496
0.0699929 0.108651 0.278353 0 -0.0349021 -0.999391
0.00669472 -0.214631 0.102829 -0.997997 0.0538286 -0.0332436
0.0486954 0.290312 0.180792 -0.0951882 -0.136293 -0.986085
0.00316131 -0.267697 0.123196 -0.997997 0.0457374 -0.0437124
0.0214979 0.401781 0.151631 -0.998384 -0.0535075 0.0191565
0.0251128 0.343234 0.178233 -0.998376 -0.0564475 0.00763355
-0.020226 0.0870609 0.133163 -1 0 0
0.0174845 -0.286783 0.317314 0 -0.236872 -0.971541
0.0180926 0.432242 0.0821213 -0.998376 -0.0411803 0.0393546
0.0184618 -0.165045 0.199638 0.999442 -0.0320715 -0.00937833
0.0458807 0.292671 0.180069 -0.841843 0.0738961 0.53464
0.0186129 -0.164386 0.213483 0.999442 -0.0320643 -0.00937391
0.007575 0.340523 0.332309 0.998376 -0.0134936 -0.0553407
0.0415543 0.250818 0.255579 0.842077 -0.479965 -0.24605
0.00758866 0.202316 0.0676839 -0.998384 -0.0347545 -0.0449689
-0.0581896 0.0803775 0.0642668 0 -0.0349152 -0.99939
0.0195778 -0.3065 0.288742 0.998006 0.00187337 0.0630988
0.018369 0.300329 0.358363 -0.999548 0.000891925 0.0300637
0.00664066 0.167587 0.162314 -0.998376 -0.0568012 -0.00427283
0.00127489 -0.341018 0.198781 0.998006 0.0355636 -0.052155
0.0400745 0.0872049 0.217555 -0.000295422 0.999392 -0.0348577
0.00306989 0.337481 0.249633 -0.998376 0.0247005 0.051328
0.0210817 -0.408524 0.116216 -0.997997 0.0557071 0.0299915
0.0202347 -0.253041 0.075457 0.998006 0.0355713 -0.0521482
0.0184007 0.200892 0.0312973 0 0.611523 0.791226
0.00375893 -0.265034 0.112338 -0.997997 0.0457374 -0.0437124
0.0119271 0.460735 0.0900646 0 0.850795 -0.525497
0.00335958 0.240909 0.233279 0.998376 0.0411794 -0.0393562
0.0604615 -0.320413 0.167303 -0.253929 0.541286 -0.801579
0.0119956 -0.240301 0.389403 -0.195611 0.980625 0.0105493
0.0145216 -0.345666 0.328762 0 0.178792 -0.983887
0.0202227 0.411729 0.248043 -0.998376 -0.0501519 -0.0270068
0.0218368 0.390354 0.228068 -0.998376 -0.0501519 -0.0270068
-0.000376303 0.0904702 0.165063 0.000115711 0.166008 -0.986124
0.00825966 0.46745 0.204413 0.998376 -0.0568012 -0.00427286
0.015369 -0.176251 0.456268 -0.195787 -0.0401261 -0.979825
0.0234729 -0.383151 0.17488 -0.997997 0.0626966 -0.00847896
0.00776678 0.149204 0.273281 0.999548 -0.0255893 0.0158037
0.0139669 0.446944 0.297357 0 -0.762646 -0.646816
0.00210767 -0.35466 0.205412 -0.998005 -0.0355737 0.0521499
0.018477 -0.478838 0.199926 0.999442 0.0331031 -0.00447697
0.0455433 -0.261504 0.264817 -0.982464 -0.0644319 -0.174964
0.0089327 -0.0470689 0.449837 -0.555523 0.0340209 0.830805
0.0201277 0.177113 0.203637 -0.998376 0.0564477 -0.00763495
0.00453231 -0.231438 0.16167 -0.997997 0.0626973 -0.00847634
0.0026225 -0.374192 0.136944 -0.997997 -0.0557075 -0.0299916
0.00324332 -0.3562 0.226095 0.998006 0.0355636 -0.052155
-0.00404163 -0.306099 0.5131 0.00446091 0.352567 -0.935776
0.0207351 0.420624 0.184047 -0.998376 -0.0568012 -0.00427285
0.00683473 -0.369203 0.282587 -0.997996 -0.0240103 0.0585364
0.019004 0.34372 0.0411683 -0.998376 -0.0101871 0.0560431
0.0137448 -0.325682 0.330614 0 -0.0296739 -0.99956
0.00360847 -0.350934 0.0960312 -0.997997 -0.0274394 -0.0570076
-0.0292104 0.297342 0.184685 -0.985146 0.161772 -0.0575954
0.0227355 0.383511 0.165153 -0.998376 -0.0564475 0.00763355
0.00711263 0.243447 0.315995 0.998376 0.0216192 -0.0527005
-0.0836592 -0.360728 0.442509 -0.000239419 -0.912951 -0.40807
0.0192905 0.163351 0.155078 -0.998384 0.0545488 0.0159525
0.0430883 0.0960452 0.260623 0.995403 -0.00493809 -0.0956429
0.00665117 -0.409623 0.0785584 -0.997997 -0.0482504 -0.0409232
0.00787228 -0.204432 0.0839926 -0.997997 0.0538286 -0.0332436
0.0971352 0.100092 0.278652 0 -0.0349021 -0.999391
0.00784709 -0.165871 0.138941 -0.999441 -0.0331177 0.00447575
0.0183844 0.18783 0.0515668 -0.999548 -0.0183955 -0.0237995
0.0229176 -0.392283 0.158718 0.997997 -0.063089 -0.00474471
-0.020226 0.03668 0.188543 1 0 0
-0.0108044 0.281449 0.1748 1 0 0
-0.0760306 -0.292155 0.423394 0.966955 -0.00889597 -0.254791
0.00846754 0.154748 0.103162 0.998376 0.0501537 0.0270049
-0.0240692 0.152893 0.483768 0.629564 0.23455 -0.740699
0.0236491 0.314934 0.118685 -0.998376 -0.0101871 0.0560431
-0.0241129 0.0766713 0.124015 1 0 0
0.00565371 -0.42897 0.156926 0.997997 0.0630894 0.00474474
-0.0158212 0.249764 0.262229 0.978793 -0.0740356 -0.191003
0.00413386 0.225819 0.235131 0.998376 0.0484653 -0.0299293
0.0185314 -0.345364 0.325919 0.999442 0.00597345 -0.0328718
0.002527 0.242885 0.206486 -0.998384 -0.0535076 0.0191607
0.00851024 -0.185557 0.234893 -0.997997 0.0557052 0.0299958
0.0202715 0.247337 0.295983 -0.998376 0.0216191 -0.0527004
0.00632482 0.220857 0.0814135 -0.998384 -0.0347545 -0.0449689
0.00767695 0.150977 0.21454 0.998376 0.0564479 -0.00763497
0.00638618 0.229934 0.293807 -0.998384 -0.0320271 0.0469509
0.0164272 0.0926627 0.24567 -0.555323 0.825956 -0.0970242
0.0192162 0.196876 0.280247 -0.998376 0.0411791 -0.0393563
0.021748 -0.406326 0.137179 0.998006 -0.0605874 -0.01772
0.0275736 0.0884803 0.177597 -0.000115552 -0.165746 0.986168
0.00271355 0.272966 0.122671 0.998376 0.0247054 0.051325
0.0197544 0.207093 0.277285 -0.998376 0.0411791 -0.0393563
0.0184918 0.467331 0.255769 -0.999547 0.0264875 0.0142611
0.0248176 -0.315749 0.12506 -0.997997 -0.0113135 0.0622471
0.0195868 0.103917 0.280138 -0.980676 -0.194304 0.0228231
0.00777486 0.279567 0.00632566 -0.999548 0.000892629 0.0300587
0.0233423 0.264427 0.243231 -0.998384 0.032027 -0.0469508
0.0185224 0.266426 0.359543 0.999547 0.00538056 -0.029597
0.0176067 0.0617826 0.196848 0.825576 0.278461 0.490799
0.0190246 -0.0241406 0.240551 -0.979758 0.097816 0.174659
0.0185748 0.343612 0.333246 -0.998376 -0.0134936 -0.0553406
0.00765948 -0.160652 0.135666 -0.999442 -0.0331167 0.00447589
0.00695832 -0.24733 0.0611819 -0.998006 0.0355715 -0.0521484
-0.0115354 0.297417 0.194927 0 0.882943 0.46948
0.00835606 0.447102 0.0690632 0 0.722954 -0.690896
0.0180542 -0.250163 0.411951 -0.822631 0.568575 -0.000686833
0.0191862 0.394406 0.0713135 -0.998384 -0.0320276 0.0469499
0.0195139 -0.271037 0.279522 0.997996 0.027437 0.0570104
0.0174611 -0.423841 0.284 0 0.72294 -0.69091
0.0191103 0.208534 0.0729899 -0.998384 0.0347544 0.0449688
0.00860603 -0.225374 0.0446249 -0.998006 0.0355715 -0.0521484
0.0704413 0.0743679 0.271452 0 0.034877 0.999392
0.018727 0.363586 0.323561 -0.998376 -0.0247005 -0.0513279
0.0199812 -0.240783 0.0805573 -0.997997 -0.0457372 0.0437122
0.00997315 -0.0422431 0.257943 -0.546884 0.416563 0.726218
0.00566943 0.256163 0.293872 0.998376 0.0216192 -0.0527005
0.0412499 0.214594 0.17212 0.49796 -0.00866233 -0.867157
0.0107658 -0.237068 0.023803 0 -0.563518 0.826104
0.00180547 -0.320792 0.212294 -0.998006 0.00187337 0.0630992
0.0118281 -0.188699 0.34275 -0.170972 0.490093 0.854738
0.0240732 -0.317155 0.217956 0.998006 0.00187337 0.0630988
-0.0337729 0.0843714 0.174652 -0.000506173 -0.814814 0.579723
-0.0222188 -0.271008 0.254965 0.978432 -0.0061066 -0.206477
-0.0809074 0.0674305 0.0728165 0 -0.034868 -0.999392
0.0195541 -0.244579 0.262619 0.998006 0.0386039 0.049947
0.00584242 -0.391886 0.251491 -0.998005 -0.0355737 0.0521499
0.00743007 0.370664 0.318474 -0.998376 0.0247005 0.051328
0.00335331 0.145651 0.503687 -0.146247 -0.251909 0.956637
0.021019 -0.371533 0.0776544 -0.997997 0.0274392 0.0570073
0.0289856 0.129235 0.496144 0.746728 -0.169373 0.643203
0.00383816 0.244195 0.248858 0.998376 0.0411794 -0.0393562
0.0211233 0.267 0.287912 -0.998376 0.0216191 -0.0527004
0.00683083 0.221589 0.29757 -0.998384 -0.0320271 0.0469509
0.0077968 0.432662 0.305013 0.999548 0.0229369 0.0194533
0.0221736 0.355692 0.258955 -0.998384 -0.034756 -0.0449677
0.0185211 -0.398652 0.0478535 0.998006 -0.0386024 -0.0499466
0.0198543 0.0129076 0.44215 0.980696 -0.00800105 -0.195375
-0.0108043 0.306738 0.177211 -1 -3.18676e-05 7.88325e-05
0.0186239 0.00271656 0.438959 -0.831447 0.0227326 0.555139
0.00777461 -0.43166 0.0482141 -0.999441 0.0204365 0.0264427
0.0106641 -0.253274 0.457124 -0.196129 -0.980145 0.0291256
0.0142128 -0.253929 0.444228 0.195254 -0.980696 -0.0105501
0.0233809 0.242473 0.219694 -0.998376 0.0484652 -0.0299292
0.00758797 -0.183642 0.172364 -0.997997 0.0630896 0.00474145
0.024152 -0.306891 0.214955 -0.997997 -0.0149861 -0.0614687
0.111472 0.0747285 0.279538 0 0.0349021 0.999391
0.0052105 -0.227696 0.129864 -0.998006 0.0594312 -0.0212784
0.0209536 0.403951 0.131169 -0.998376 -0.0484627 0.0299323
4.9943e-05 -0.304539 0.157284 0.998006 -0.0594183 0.0213038
0.00514561 0.256959 0.083067 0.998376 0.0247054 0.051325
0.0103625 -0.190012 0.456646 0.555242 -0.0340311 -0.830992
0.0105834 -0.405471 0.29687 0 -0.563554 0.826079
0.00228903 -0.26761 0.174291 -0.997997 0.0630896 0.00474145
0.0184033 0.193255 0.0691879 -0.998376 0.043443 0.0368421
0.00742362 -0.0181648 0.446874 -0.83144 0.0227361 0.55515
0.00790369 0.260043 0.352257 -0.999548 0.00537676 -0.0295873
0.0144693 0.0856319 0.492781 -0.163416 0.134753 -0.977311
0.021095 0.2736 0.0768691 -0.998376 0.0134901 0.0553406
0.00660891 0.191667 0.26239 0.998376 0.0484653 -0.0299293
0.0208992 0.218162 0.107455 -0.998376 0.043443 0.0368421
0.0199854 0.193814 0.112291 -0.998376 0.0501535 0.0270048
0.00456787 0.403426 0.173795 0.998376 -0.0564475 0.00763355
0.0202025 -0.316142 0.0517313 0.998006 -0.00187219 -0.0630969
0.0183509 0.242268 0.0199184 0.999548 0.0130442 0.0271026
0.0197096 0.120792 0.442684 -0.980692 0.194222 -0.0228335
0.0183354 -0.444105 0.239896 -0.997997 0.0538302 -0.033244
0.00693394 -0.262512 0.0517018 -0.997997 0.0240092 -0.058535
0.0255851 -0.313294 0.19325 -0.997997 -0.0149861 -0.0614687
0.115796 0.101561 0.270503 0 0.034877 0.999392
0.0176969 -0.375528 0.0187701 0 -0.43369 -0.901062
0.0258537 0.082139 0.48726 -0.746678 0.171679 -0.64265
0.0180843 -0.179132 0.127204 0.998006 0.0594309 -0.0212783
0.0147691 -0.240536 0.401588 0.195611 0.980625 0.0105493
0.0197105 0.203517 0.092512 -0.998376 0.043443 0.0368421
-0.00301539 0.0825594 0.483677 -0.746679 -0.171679 0.642648
0.00823374 -0.453066 0.0967277 -0.997997 -0.0557075 -0.0299916
0.0241972 0.274652 0.232027 0.998383 -0.0320508 0.0469386
-0.0589085 -0.314166 0.498599 0.359224 -0.309236 -0.880529
0.0185381 0.392649 0.343851 0 -0.433655 -0.901079
0.0225151 0.372573 0.132452 -0.998376 -0.0484627 0.0299323
0.00220449 -0.36631 0.136214 -0.997997 -0.0557075 -0.0299916
0.0214724 -0.323984 0.0720494 0.998006 -0.00187219 -0.0630969
0.0185711 0.316449 0.338251 -0.998384 -0.00168668 -0.0568085
0.0378103 -0.254157 0.316645 0.392638 -0.863477 0.316613
0.0188333 -0.427514 0.0811412 -0.997997 0.0482502 0.040923
0.000697283 0.108132 0.494068 0.163416 0.134753 -0.977311
0.00394406 0.360738 0.252262 -0.998384 0.034756 0.0449677
0.00767426 0.450722 0.231564 -0.998384 0.0545501 0.0159471
0.0247147 -0.296495 0.199627 0.998006 0.0386039 0.049947
0.0116451 0.105025 0.444903 0.195786 -0.040123 -0.979825
0.00715118 -0.361058 0.291323 -0.997996 -0.0240103 0.0585364
0.00716275 -0.24381 0.411238 -0.822648 0.568551 -0.000683143
0.0598688 -0.307797 0.502885 -0.0478936 -0.802287 -0.595014
0.00808361 0.444141 0.103058 0.998376 -0.0484628 0.0299323
0.0237628 -0.273051 0.134741 -0.997997 -0.0538283 0.0332435
0.0116668 -0.446124 0.260337 0 0.850824 -0.52545
0.0888724 -0.317031 0.497288 -0.579669 -0.130511 -0.804332
0.0218471 -0.391689 0.1124 -0.997997 0.0482502 0.040923
0.0234689 0.240527 0.212802 0.998384 -0.053494 0.0191872
0.00763224 -0.423827 0.0367782 -0.999442 0.0204355 0.0264402
0.00786502 0.465666 0.118247 -0.999548 -0.0283139 0.0101378
0.0180639 0.159263 0.262313 -0.998376 0.0484652 -0.0299292
0.00389816 0.328236 0.0978778 0.998376 -0.0101871 0.0560432
0.0178647 -0.23187 0.0445417 0.998006 0.0355713 -0.0521482
0.0108613 0.12288 0.39969 -0.195098 0.974087 -0.114418
0.0257264 0.298599 0.212833 -0.998376 0.0101856 -0.0560438
0.00843 -0.477246 0.158526 0 0.997184 0.0749968
0.0393522 0.240546 0.268515 0.388395 -0.764673 -0.514222
0.010621 -0.341794 0.010471 0 0.0296393 0.999561
0.0191984 -0.203455 0.111519 0.998006 0.0594309 -0.0212783
0.0205427 -0.429916 0.159597 0.997997 -0.063089 -0.00474471
0.00600382 0.361746 0.295024 -0.998376 0.0247005 0.051328
-0.0245018 0.284604 0.177955 -0.985389 -0.0233961 0.168705
0.0190999 0.16082 0.217574 -0.998376 0.0564477 -0.00763495
0.0145854 -0.422542 0.0352512 0 0.61153 0.791221
0.0185785 0.399253 0.0293541 0.999547 -0.0169518 0.0248506
0.00785445 -0.479957 0.172327 -0.999441 0.0331175 -0.00447711
0.00825539 0.465904 0.153513 0.998376 -0.0564475 0.00763355
-0.0766983 0.080617 0.0723564 0 -0.034868 -0.999392
-0.00255383 -0.306196 0.501599 0.00097768 0.416969 0.90892
0.00445189 -0.309506 0.0776806 -0.997997 0.0113136 -0.0622475
-0.02635 -0.296984 0.504233 0.016729 -0.711629 0.702356
0.00717291 -0.286456 0.0382446 -0.997997 0.0113136 -0.0622475
0.00792361 0.136065 0.139103 -0.999548 0.0288683 0.00844094
-0.0419417 0.0944289 0.164383 1 3.51435e-05 -5.61714e-05
0.0100831 0.189504 0.0529618 0 0.61155 0.791205
0.0185236 0.458344 0.167645 -0.998376 -0.0564475 0.00763355
0.00356976 0.250979 0.1193 -0.998384 -0.0347545 -0.0449689
0.019477 0.165395 0.202083 -0.998376 0.0564477 -0.00763495
0.0176614 -0.206202 0.0637781 -0.997997 -0.0457372 0.0437122
0.120817 0.0992757 0.272372 -1 0 0
0.00775995 -0.233508 0.031367 -0.999441 -0.0188308 0.0276066
0.0123531 -0.166501 0.222193 0 -0.959824 -0.280602
0.02135 0.408356 0.167656 -0.998376 -0.0564475 0.00763355
0.00415088 -0.385655 0.111273 -0.997997 -0.0482504 -0.0409232
0.0199826 0.385614 0.0822504 -0.998384 -0.0320276 0.0469499
0.0203252 0.193776 0.24277 -0.998376 0.0484652 -0.0299292
-0.0855477 -0.311491 0.431821 -0.385718 0.0321934 0.922055
0.00186406 0.310116 0.13082 0.998376 -0.0101871 0.0560432
-0.0537674 -0.311678 0.499822 0.359224 -0.309236 -0.880529
0.0068508 -0.338258 0.039579 0.998006 0.00187326 0.063097
0.0116418 0.116379 0.497246 -0.146247 -0.251909 0.956637
0.00722146 0.440387 0.130428 -0.998384 0.0535076 -0.0191565
0.0209152 0.204797 0.240934 -0.998376 0.0484652 -0.0299292
0.00797904 0.320836 0.000683233 0 0.178787 -0.983888
0.0240967 0.160781 0.381198 0.995489 -0.0354109 0.0880249
0.0250836 -0.246916 0.326516 -1.07879e-05 0.0296551 0.99956
0.00768657 0.437206 0.0620026 0.999547 0.0217471 -0.0207828
0.0189546 0.156414 0.203991 -0.998376 0.0564477 -0.00763495
0.0239639 0.274882 0.13019 -0.998376 0.0247053 0.0513249
0.0167613 -0.238154 0.328193 -0.0598987 -0.997761 0.029754
0.023026 0.36055 0.23498 -0.998376 -0.0434416 -0.0368435
0.051209 0.0898204 0.277641 0.995305 -0.00151649 -0.0967815
0.00789513 0.384216 0.337691 -0.999548 -0.0130423 -0.0271008
0.0672429 0.112732 0.272847 0 -0.999393 0.0348459
0.0190364 0.380709 0.309272 -0.998384 -0.034756 -0.0449677
0.0185275 -0.426369 0.0723332 -0.997997 0.0482502 0.040923
0.0178915 -0.439579 0.259634 -0.997997 0.045739 -0.0437136
0.0178448 0.144359 0.129545 -0.998384 0.0545488 0.0159525
0.00908782 -0.243176 0.0307249 0 0.563502 -0.826115
0.0189223 0.0868026 0.492198 -0.163416 0.134753 -0.977311
0.0171727 -0.484068 0.13369 0 0.959801 0.280682
0.0179032 0.237035 0.354398 0 0.379452 -0.925211
-0.0756457 -0.335562 0.428438 -0.9631 0.0592153 0.262549
0.0251332 -0.295842 0.140574 -0.997997 -0.0457372 0.0437122
0.0189474 0.0764721 0.183771 -0.979758 0.097816 0.174659
0.0218755 0.382757 0.127605 -0.998376 -0.0484627 0.0299323
0.0209145 0.203276 0.238493 -0.998376 0.0484652 -0.0299292
0.0183787 -0.358086 0.0277856 -0.997997 0.0149844 0.0614668
0.0189694 0.32361 0.0368972 -0.998376 -0.0101871 0.0560431
0.00288465 -0.372752 0.204629 -0.997997 -0.0538305 0.0332442
0.00788996 -0.24279 0.361742 -0.797991 -0.296651 -0.524603
0.0247616 0.256817 0.186971 -0.998376 0.0564477 -0.00763495
0.0223314 0.380427 0.228217 -0.998376 -0.0501519 -0.0270068
0.107609 0.0768846 0.279462 0 0.0349021 0.999391
0.115962 -0.319541 0.422516 0.735625 -0.0236362 -0.676977
0.00649877 0.32003 0.0500577 0.998376 -0.0101871 0.0560432
0.0180067 -0.31091 0.313722 0.998006 0.00187337 0.0630988
0.01714 0.151381 0.100895 0 0.880484 0.474076
-0.0127475 0.32732 0.191834 -1 0 0
0.00271125 0.279124 0.119751 0.998376 0.0247054 0.051325
0.0188489 -0.199259 0.223221 -0.997997 -0.0557049 -0.0299957
0.0190492 -0.27343 0.288809 0.997996 0.027437 0.0570104
0.00377611 0.387374 0.161913 -0.998384 0.0535076 -0.0191565
0.00816913 0.465271 0.212227 0.998376 -0.0568012 -0.00427286
0.00539684 0.270959 0.294739 0.998376 0.0101859 -0.0560438
0.0101806 -0.184219 0.339553 -0.506743 0.429177 0.747676
0.0170234 0.483827 0.152222 0 -0.990984 0.13398
0.00779392 0.107277 0.2871 -0.83168 0.551464 -0.0647803
0.00837278 -0.363801 0.0209324 -0.997997 -0.0149845 -0.0614672
0.0230822 0.319938 0.109496 -0.998376 -0.0101871 0.0560431
0.101995 -0.349473 0.436106 -0.964095 -0.171456 -0.202791
0.0185076 -0.358188 0.322864 0.999442 0.00597345 -0.0328718
-0.0106011 0.174751 0.175407 0.985409 0.121077 0.119621
0.00139464 0.319775 0.225569 -0.998376 0.0247005 0.051328
0.0183782 0.146757 0.207976 -0.998376 0.0564477 -0.00763495
0.0121943 0.124803 0.413788 -0.195098 0.974087 -0.114418
0.00566464 0.277288 0.300659 0.998376 0.0101859 -0.0560438
0.0200366 0.263995 0.307266 -0.998376 0.0216191 -0.0527004
0.0189942 0.108611 0.305455 0.831687 0.551453 -0.0647741
0.00746986 -0.440187 0.0982243 -0.997997 -0.0557075 -0.0299916
-0.0241129 0.140847 0.16496 -1 0 0
0.00347753 -0.394245 0.176056 -0.997997 -0.062697 0.00847903
0.0259333 -0.304869 0.18175 -0.998006 -0.0386058 -0.0499452
0.0202034 0.395991 0.0977384 -0.998376 -0.0411803 0.0393546
0.0135579 -0.236327 0.355084 0.171221 -0.485771 -0.857152
0.0180312 0.464799 0.217094 -0.998384 -0.05455 -0.015947
0.00157952 0.255478 0.1765 -0.998376 -0.0568012 -0.00427283
0.0194708 -0.250525 0.0625532 0.998006 0.0355713 -0.0521482
0.0158063 -0.240579 0.423572 0.542641 0.839964 -0.00101474
0.012087 0.256385 0.0065571 0 -0.236866 -0.971542
0.00227195 0.111419 0.494785 0.163416 0.134753 -0.977311
0.0190579 0.377427 0.0570015 -0.998384 -0.0320276 0.0469499
0.0204229 -0.354793 0.271209 -0.997997 0.0240102 -0.0585361
0.0556156 0.0820273 0.271184 0 -0.034877 -0.999392
0.0252967 0.292243 0.148127 -0.998376 0.0134901 0.0553406
0.0233445 0.232067 0.179414 0.998376 -0.056801 -0.00427282
0.00837878 0.147492 0.245009 -0.998384 -0.0535076 0.0191607
0.0183563 -0.401339 0.284175 0.998005 -0.0355735 0.0521496
0.0209433 0.238309 0.276427 -0.998384 0.032027 -0.0469508
0.00657535 -0.425408 0.230161 -0.997997 -0.0538305 0.0332442
0.0119914 -0.019841 0.232505 -0.191532 -0.483918 -0.853896
0.00832029 -0.307107 0.0160955 -0.997997 0.0113136 -0.0622475
0.00673342 0.294543 0.322398 -0.998384 0.00168668 0.0568086
0.0260732 0.302196 0.206827 -0.998384 -0.00168668 -0.0568085
0.017427 -0.158579 0.194705 0 -0.997184 -0.0749967
0.0138974 -0.432528 0.0429692 0 0.61153 0.791221
0.0981708 0.0946033 0.270745 0 0.034877 0.999392
0.00755054 -0.254338 0.285856 -0.997996 0.0274369 0.0570109
0.00664455 0.0180221 0.443365 0.98067 -0.00800691 -0.195506
0.0149615 0.120088 0.375211 0.195099 0.974086 -0.114427
0.0233051 -0.25699 0.169687 -0.997997 -0.0630893 -0.00474144
0.0318164 -0.323799 0.163494 0.0017356 -0.890785 -0.454421
0.0229803 0.337874 0.253204 -0.998376 -0.0247005 -0.0513279
0.0233269 0.356826 0.135995 -0.998376 -0.0411803 0.0393546
0.0236241 0.311462 0.11761 -0.998376 -0.0101871 0.0560431
0.00356625 0.266986 0.258468 0.998376 0.0216192 -0.0527005
0.00652355 -0.285535 0.281707 -0.997997 0.0149861 0.0614691
0.0178609 -0.468339 0.130289 0.998006 -0.0605874 -0.01772
0.0495756 0.0947073 0.260562 0.995374 -0.00496147 -0.095944
0.0154619 -0.199646 0.276536 0 -0.762618 -0.646849
0.00768106 0.194307 0.328447 0.999548 -0.0169445 0.024842
-0.020226 0.0778335 0.118378 -1 0 0
-0.00118455 -0.300952 0.513694 0.00289863 -0.417103 -0.908854
0.0201577 -0.216198 0.120924 0.998006 0.0594309 -0.0212783
0.014873 -0.196591 0.0719025 0 -0.8508 0.525489
0.0185439 0.425279 0.317305 -0.999547 0.0183948 0.0237992
0.0650904 -0.306083 0.501544 -0.123923 0.0615132 -0.990383
0.00782443 -0.165339 0.196228 -0.999441 -0.032079 -0.00938052
0.0179968 -0.062285 0.440682 -0.831447 0.0227326 0.555139
0.0261396 -0.316651 0.146092 -0.997997 -0.0113135 0.0622471
0.0198555 0.113765 0.37552 -0.980664 -0.19436 0.0228303
0.0203637 0.182241 0.15765 -0.998384 0.0545488 0.0159525
0.0146206 -0.466178 0.105634 0 0.880493 0.47406
0.00759506 -0.190179 0.208415 -0.998006 0.0605871 0.0177185
0.0254758 -0.292792 0.174738 0.998006 0.0605869 0.0177184
0.00362025 0.366342 0.239064 0.998376 -0.0434417 -0.0368436
0.00696546 -0.244592 0.472806 -0.979309 0.202371 -0.000241821
0.00257541 -0.27908 0.206721 -0.997997 0.0482521 0.0409223
0.00378307 -0.300839 0.513658 0.00289863 -0.417103 -0.908854
0.0161684 -0.251575 0.482984 0.542351 -0.840151 0.00101489
0.00656089 0.101001 0.275418 -0.980679 -0.19429 0.022822
0.015314 0.113752 0.321875 0.195099 0.974086 -0.114427
0.0176346 0.308994 0.011983 -0.998384 0.00168562 0.0568078
0.00576176 0.405642 0.249772 0.998376 -0.050152 -0.0270068
0.00438699 -0.370101 0.0924333 -0.998006 -0.0386026 -0.0499469
0.00664041 -0.247606 0.338978 0.980626 0.195879 0.00210903
0.00841841 -0.407522 0.0408019 -0.998006 -0.0386026 -0.0499469
0.0113103 -0.240784 0.421631 -0.195611 0.980625 0.0105493
0.0156218 -0.114365 0.286464 0.546014 -0.412942 -0.728936
0.00766911 0.141205 0.266506 0.999548 -0.0255893 0.0158037
0.00754357 0.239499 0.32254 0.998376 0.0216192 -0.0527005
0.00641955 -0.254492 0.264887 -0.998006 0.0386041 0.0499473
0.00778293 0.155998 0.0826086 -0.999548 0.0229377 0.0194543
0.0255588 -0.29752 0.149038 -0.997997 -0.0538283 0.0332435
-0.0280257 0.278217 0.176123 0.841657 0.0838959 0.533455
0.0084708 -0.252389 0.0296512 -0.997997 0.0240092 -0.058535
-0.0828772 0.0984058 0.063637 0 -0.0349152 -0.99939
0.0109186 -0.453476 0.248433 0 -0.850824 0.52545
0.0120837 -0.253075 0.363904 0.19562 0.980623 0.0105493
-0.020226 0.0882628 0.146542 -1 0 0
0.00263932 0.312658 0.117472 0.998376 -0.0101871 0.0560432
0.0201516 -0.297401 0.0535863 -0.997997 -0.0113135 0.0622471
0.00801533 0.268305 0.340902 0.998376 0.0101859 -0.0560438
0.00443615 -0.335624 0.0779795 -0.997997 -0.0149845 -0.0614672
0.0193411 0.396182 0.0760633 -0.998376 -0.0411803 0.0393546
0.0165585 0.331234 0.00257278 0 -0.178787 0.983888
0.00700843 0.1593 0.186543 -0.998376 -0.0568012 -0.00427283
0.0232778 -0.26468 0.197356 -0.997997 -0.0557049 -0.0299957
0.0151891 -0.252923 0.368866 -0.19562 0.980623 0.0105584
0.0295677 0.161965 0.504087 0.746728 -0.169373 0.643203
0.0174011 -0.270041 0.00863708 0 -0.379459 0.925208
0.00205815 -0.321722 0.114894 -0.998006 -0.00187216 -0.0630972
0.0178896 -0.465437 0.12198 0.998006 -0.0605874 -0.01772
0.0178899 -0.335737 0.315736 -0.997996 0.0113134 -0.0622492
0.0204213 -0.256447 0.0767056 0.998006 0.0355713 -0.0521482
0.0192749 0.163201 0.212298 -0.998376 0.0564477 -0.00763495
0.0104601 0.131969 0.155118 0 -0.997179 -0.0750621
0.020898 -0.42343 0.180116 -0.997997 0.0626966 -0.00847896
0.0146406 0.111416 0.411282 0.196233 -0.973862 0.114393
0.0180846 0.435738 0.0869403 -0.998376 -0.0484627 0.0299323
0.00668252 -0.442474 0.195488 -0.998006 -0.0594311 0.021281
0.0253094 -0.293093 0.148721 -0.997997 -0.0538283 0.0332435
-0.0127475 0.288663 0.188071 -1 0 0
0.0261244 -0.305547 0.153049 -0.997997 -0.0457372 0.0437122
0.0206793 -0.317291 0.0593064 0.998006 -0.00187219 -0.0630969
0.0040072 -0.253667 0.120303 -0.997997 0.0538286 -0.0332436
0.00522309 0.129239 0.426291 0.992699 0.0611088 -0.103989
0.0233211 0.353424 0.132289 -0.998376 -0.0411803 0.0393546
-0.0241129 0.0660143 0.167773 -1 0 0
-0.020226 0.107817 0.175944 -1 0 0
0.00800622 -0.178846 0.19282 -0.998006 0.0605871 0.0177185
-0.0433566 0.0831524 0.0922758 -8.18745e-05 -0.999389 0.0349466
0.00786311 -0.260524 0.310952 -0.999441 -0.0144921 -0.0301139
0.107689 -0.347825 0.491174 -0.383132 -0.61313 0.690856
0.00287988 -0.345567 0.106202 -0.997997 -0.0274394 -0.0570076
0.00734976 -0.374426 0.0418415 -0.997997 -0.0274394 -0.0570076
-0.0690352 0.0774469 0.0643692 0 -0.0349152 -0.99939
0.0567594 -0.284071 0.211563 0.392638 -0.863477 0.316613
0.0113897 0.163699 0.302646 0 -0.722978 0.690871
0.0225371 0.387397 0.167929 -0.998376 -0.0564475 0.00763355
0.00296509 0.233848 0.204078 -0.998384 -0.0535076 0.0191607
-0.00419936 0.0837678 0.173385 -0.000519767 -0.974579 0.224045
0.0240678 -0.373015 0.153939 0.998006 -0.0605874 -0.01772
0.0165606 -0.430192 0.277354 0 0.72294 -0.69091
0.0115833 -0.240321 0.37696 0.189323 -0.981914 0.00118624
0.0200217 0.316238 0.312762 -0.998384 -0.00168668 -0.0568085
0.00535047 -0.218465 0.164756 -0.997997 0.0630896 0.00474145
0.0176887 -0.176419 0.215421 0.998006 0.0605869 0.0177184
0.0207457 -0.406881 0.227812 -0.997997 0.0538302 -0.033244
0.0182147 0.396911 0.0523617 -0.998384 -0.0320276 0.0469499
0.00719746 -0.340383 0.296356 -0.997997 -0.0113135 0.0622495
0.0214804 -0.251885 0.228009 -0.997997 -0.0482519 -0.0409221
0.102588 -0.358516 0.471376 0.966234 0.232468 -0.111132
0.0190547 -0.24527 0.27313 0.998006 0.0386039 0.049947
0.00211848 0.347093 0.146058 0.998376 -0.0411804 0.0393546
0.0222024 0.224205 0.229421 -0.998376 0.0484652 -0.0299292
0.108828 -0.340978 0.437801 0.000146482 0.631533 0.775349
-0.0827941 -0.325608 0.489763 0.38585 -0.511794 0.767585
-0.0412018 0.0853045 0.153836 0 -0.99939 0.0349332
0.0177512 -0.451212 0.245925 -0.997997 0.0538302 -0.033244
0.0103705 -0.251857 0.408513 -0.542349 -0.840152 0.0010206
-0.0375105 0.086524 0.140085 -0.995163 0.021985 0.0957427
0.00476915 -0.293696 0.255212 -0.997997 0.0149861 0.0614691
0.007847 -0.165016 0.189012 -0.999441 -0.033327 -0.00250647
0.0150935 -0.348044 0.32833 0 0.178792 -0.983887
0.0151577 0.183633 0.513211 -0.0122382 0.254628 -0.966962
0.0178638 0.27362 0.0128324 0 0.236849 0.971546
0.018385 -0.343929 0.00882347 0.999442 0.0079123 0.0324574
0.0117613 0.297489 0.000580749 0 -0.0296369 -0.999561
0.0180696 0.136921 0.262302 0 0.941467 -0.337105
-0.0257305 -0.273746 0.238405 0.978432 -0.0061066 -0.206477
0.00928196 0.122338 0.402825 -0.555417 0.825893 -0.0970188
0.0179038 -0.304708 0.0162205 -0.997997 -0.0113135 0.0622471
0.00737961 -0.337123 0.0311812 -0.998006 -0.00187216 -0.0630972
0.00699085 0.378121 0.061617 -0.998384 0.0320276 -0.0469499
0.0142407 -0.199299 0.334235 0.171221 -0.485771 -0.857152
0.00825174 0.423444 0.297239 0.998376 -0.0434417 -0.0368436
0.111145 -0.349734 0.468986 0.000176871 -0.912384 0.409336
0.020553 0.386609 0.271041 0.998384 0.0347552 0.0449684
0.00331516 0.381722 0.177137 0.998376 -0.0564475 0.00763355
0.00777787 0.357933 0.353332 -0.999548 -0.00712338 -0.0292181
0.0194611 0.170497 0.226071 -0.998384 0.0535074 -0.0191607
0.0489501 0.140188 0.480684 -0.634453 0.236402 -0.735924
0.0141389 0.116624 0.344322 0.195099 0.974086 -0.114427
0.0223644 0.391642 0.176734 -0.998376 -0.0564475 0.00763355
0.00414715 -0.251948 0.213022 -0.997997 0.0557052 0.0299958
0.00419958 -0.406597 0.169709 -0.997997 -0.062697 0.00847903
0.0188426 0.186162 0.278515 -0.998376 0.0411791 -0.0393563
