-0.03094 0.306767 0.169747 1 0 0
0.0169678 0.163544 0.338942 0.000105037 -0.404957 -0.914336
0.0596743 -0.283145 0.180842 -0.545336 0.760136 -0.353272
0.0169396 -0.203469 0.384436 0.849877 0.493156 -0.185759
-0.0318138 0.197419 0.259072 0.583547 -0.540741 -0.605865
-0.0322394 0.174552 0.268335 0.581929 0.546392 0.602341
0.012438 -0.40309 0.280355 0.761247 0.436441 -0.479606
-0.0269558 0.068841 0.184827 1 0 0
0.0745014 -0.294735 0.194803 0.546573 -0.759334 0.353085
0.0175162 0.179526 0.358045 -0.00179594 0.404192 0.914672
-0.0119122 -0.0427991 0.273323 -0.994217 -0.0637063 -0.0864525
-0.000598198 0.0628071 0.189743 0 0.425269 0.905067
-0.00339724 0.239301 0.0157317 -0.252896 -0.294143 -0.921696
-0.00613622 0.212159 0.0340928 -0.666554 -0.402661 -0.627352
0.00290831 0.398623 0.0819421 0.385187 -0.621166 0.682483
-0.00493602 -0.172652 0.0750133 -0.205347 0.823634 -0.528639
0.0609884 -0.192731 0.53933 0 0.168363 0.985725
-0.0558424 -0.265096 0.273863 0.0870401 -0.926712 0.365553
0.00610505 0.186723 0.207228 0.385759 0.87898 -0.280329
-0.00551411 0.332259 0.0450893 -0.780387 -0.133282 0.610927
0.0106746 -0.457238 0.100136 0.581554 -0.722961 -0.372992
-0.0371546 0.0515829 0.168254 0 0.68812 -0.725597
0.0126518 0.403153 0.0402949 0.903307 0.288726 -0.317292
0.0290358 0.187008 0.256222 -0.359888 0.595508 0.718228
-0.00704134 -0.406786 0.312474 -0.581675 -0.54741 0.601662
-0.0606719 -0.304931 0.184009 0 -0.176169 -0.98436
0.126054 -0.190014 0.546889 0 -0.436051 -0.899922
0.100502 0.0945374 0.26783 0 0.0476927 0.998862
0.0753467 -0.304191 0.181713 0.0233959 0.537681 0.842824
-0.0148032 0.268658 0.195399 0.0699145 0.966618 0.246499
0.120563 -0.193792 0.55111 0 -0.953419 -0.301649
0.00117085 -0.300789 0.0492585 0.315913 0.0448842 0.947726
0.0117139 0.10173 0.392518 0.000827556 0.40518 0.914237
-0.0130768 -0.455934 0.107426 -0.859978 -0.453504 -0.234036
-0.0101613 0.0842415 0.329649 -0.924239 0.116145 0.36372
-0.000323256 0.155077 0.342697 0.000359544 -0.404974 -0.914328
0.0277092 -0.316871 0.161011 0.389937 0.497226 0.775058
-0.0268185 0.177109 0.179616 0.798686 0.121283 0.589399
-0.115537 0.0344975 0.129192 -0.744146 -0.667288 0.0311944
0.0296533 0.2429 0.168322 0.459068 -0.460995 0.759434
-0.0162832 -0.190759 0.432244 0.981045 -0.181338 0.0683174
0.00850412 0.387468 0.0667164 0.78089 -0.420447 0.461991
-0.0160888 -0.203115 0.382892 -0.984388 0.0591969 -0.165757
-0.0689858 -0.317465 0.173271 0.0148772 0.977247 0.211583
-0.0429063 0.304296 0.163668 0 -0.740813 -0.671711
-0.0114303 0.230951 0.0468614 -0.972208 0.12648 0.197014
-0.0062815 -0.202367 0.246824 -0.316738 -0.842896 -0.434975
-0.00979879 0.138789 0.322904 -0.518161 0.789796 -0.328225
0.00232431 0.218209 0.083297 0.384704 0.682714 0.621212
0.00957189 0.0247916 0.226634 0.988165 -0.0840403 -0.128323
-0.0122419 0.189433 0.273703 -0.995215 -0.0657698 0.072265
0.018343 0.103764 0.388859 -0.00411588 0.405148 0.914242
-0.114806 -0.188174 0.562499 0 -0.377937 0.925831
0.0166529 -0.350337 0.318039 0.957671 0.0613266 -0.281257
-0.00943012 -0.173373 0.356772 -0.806179 -0.337705 -0.48583
0.00889798 -0.196186 0.0510518 0.580871 0.547734 -0.602143
0.00706194 0.300883 0.164123 0.62214 0.579115 0.526846
-0.0118457 -0.240426 0.325143 -0.859809 0.155228 0.486449
0.004062 0.392118 0.0235792 0.253953 0.443573 -0.859506
-0.00170826 0.134761 0.353337 -0.103894 -0.886586 0.450745
0.0134767 0.447677 0.11436 0.972381 -0.222355 0.0709498
-0.0154601 -0.324118 0.330101 -0.992542 -0.0259553 0.119109
-0.00938861 -0.24408 0.0537338 -1 0 0
0.0100914 -0.305428 0.00803254 0.581028 -0.0383691 -0.812979
-0.0531461 0.0238229 0.130428 6.87052e-05 -0.0472499 -0.998883
-0.132583 -0.183939 0.562383 0 0.434595 0.900626
0.0042399 -0.151257 0.410378 0.386431 0.297607 0.872984
-0.00293101 -0.439759 0.28398 -0.205361 -0.823566 0.528739
-0.0104791 0.147352 0.151798 -0.9033 -0.419157 -0.0914106
-0.000107192 0.189287 0.130013 -0.385149 0.901671 0.196593
-0.0609453 -0.271121 0.204081 -0.086528 0.926721 -0.365651
0.0468955 -0.252706 0.289627 -0.875101 -0.472128 0.106274
-0.00669638 0.209251 0.0881605 -0.779755 0.46308 0.421354
0.00751766 0.00791866 0.340814 0.793794 -0.185031 -0.579357
0.00812037 -0.241199 0.0663773 0.316284 -0.435223 0.842939
-0.0115523 -0.0302694 0.270008 -0.915348 0.225535 0.333575
-0.0152504 -0.23526 0.445308 0.657793 -0.2664 -0.704514
0.0277891 -0.225948 0.456204 0.026445 -0.980892 0.192745
-0.00195752 -0.224106 0.443622 0 0.936094 -0.351751
-0.0984672 -0.033089 0.141704 0 -0.914711 -0.40411
-0.121756 -0.0142962 0.132224 2.32756e-06 -0.0471168 -0.998889
-0.0217177 -0.301941 0.189216 -0.339698 -0.508751 -0.791061
0.00481418 -0.165944 0.370979 0.403029 0.519902 0.753173
-0.00793305 -0.0503431 0.359238 -0.608503 -0.241403 -0.755942
-0.000867906 0.323689 0.295929 -0.384613 -0.0433591 -0.922059
0.00549282 -0.183006 0.153517 0.316019 -0.9477 0.0446891
0.000310427 0.0531295 0.197043 0.104502 -0.886158 0.451446
-0.0314926 -0.00457736 0.137271 0 -0.892549 0.45095
0.00970141 0.0232192 0.339451 0.924373 -0.116046 -0.363412
-0.00938861 -0.350872 0.308851 -1 0 0
0.00604653 0.187342 0.12984 0.384874 0.901788 0.196595
-0.0510852 -0.257319 0.289493 0.512498 -0.804137 0.30118
-0.0145174 0.274703 0.194222 0.997858 -0.0592328 0.0277773
-0.083788 -0.195661 0.538313 -0.720966 -0.548658 -0.4233
-0.00266342 -0.366414 0.335541 -0.206182 -0.208466 0.95605
-0.00260191 0.345427 0.336408 -0.253698 0.294137 0.921478
-0.0100458 -0.244554 0.0500061 -0.761157 -0.297461 0.57633
-0.0151435 -0.413475 0.0681774 -0.957632 0.212977 0.193858
-0.0679077 0.311414 0.178178 0 0.0480086 0.998847
-0.0100855 0.325526 0.0274635 -0.826403 -0.119946 0.550155
0.0111218 -0.406362 0.27487 1 0 0
0.0161367 -0.456928 0.235561 0.859861 -0.486347 0.155261
0.00666865 -0.140937 0.332114 0.591486 -0.455259 -0.665495
-0.0104653 0.0871359 0.327952 -0.924239 0.116145 0.36372
-0.168459 -0.179517 0.550249 0 0.909208 -0.416341
-0.037211 0.054958 0.197331 -1 0 0
-0.0140396 -0.193949 0.0843722 -0.957721 -0.242099 0.155433
0.00362937 0.466137 0.234508 0.254315 0.859399 0.443573
-0.00255227 0.118963 0.329603 -0.0985907 -0.98034 0.170921
-0.106761 -0.192278 0.548529 0 -0.668226 -0.743958
0.0453793 0.307401 0.179063 0 -0.210022 0.977697
0.00260592 -0.216636 0.341593 -0.107615 -0.923742 0.367586
-0.0081209 -0.394629 0.0776393 -0.707161 0.522967 0.475846
0.042395 -0.196299 0.523094 0 -0.163512 -0.986541
0.0173695 -0.451805 0.231351 0.99253 -0.116221 0.0371021
0.0728813 -0.18623 0.530447 -0.120755 0.959755 -0.253552
-0.00698271 0.475665 0.175577 -0.6669 0.744318 -0.0351544
0.0165838 -0.465725 0.149468 0.859969 -0.498615 -0.108797
0.00598327 -0.222155 0.0823797 0.315823 -0.638482 0.701853
0.00673213 -0.225691 0.457031 0 -0.910334 0.413874
0.0463666 -0.250746 0.293903 -0.875415 -0.470629 0.110256
0.0105407 0.0925749 0.257684 -0.886441 0.412563 -0.209798
-0.0147778 -0.259565 0.326068 -0.859809 0.155228 0.486449
-0.0113734 0.112435 0.38502 0.0011488 0.405073 0.914284
-0.0669364 -0.0313317 0.143291 0 0.0467612 0.998906
-0.00958954 0.115589 0.320762 -0.793479 0.185148 0.579752
0.0135035 0.414058 0.277224 0.972386 -0.172629 -0.157051
-0.0595453 0.29079 0.171576 0.117242 0.671324 0.731833
0.0153601 -0.218305 0.36669 0.512815 0.209381 0.832574
-0.03207 0.0218203 0.165704 0.000893419 -0.728874 0.684648
0.0198645 0.158675 0.184652 0.990737 0.0658874 0.118741
-0.0446204 0.0251135 0.132339 1 0 0
-0.00428608 0.277681 0.0471183 -0.384828 0.280703 0.879268
-0.0109948 0.203299 0.291972 -0.903315 -0.28874 0.317255
-0.0109822 0.108209 0.363465 -0.00011102 -0.405166 -0.914243
-0.020223 0.0942505 0.200165 0.767163 0.117057 -0.630681
0.0158802 -0.455311 0.168271 0.957666 0.287562 -0.0135682
-0.00938861 -0.42247 0.0974599 -1 0 0
-0.0169506 -0.200887 0.39249 -0.849608 0.493562 -0.185912
-0.00598511 -0.209581 0.420986 -0.267475 -0.901717 0.339653
-0.0329149 0.301599 0.175118 0 0.841669 -0.539994
0.00455307 -0.255293 0.290601 0.316096 -0.28826 -0.903875
-0.149693 -0.193603 0.549366 0 -0.844402 -0.53571
0.029771 0.314575 0.170046 0 -0.998901 0.0468682
0.0118622 -0.281295 0.313904 0.760957 -0.197254 -0.618091
-0.010279 0.143294 0.358948 -0.885456 -0.41424 0.210648
-0.0107741 -0.0821773 0.295965 -0.93257 -0.207275 -0.295552
-0.0377931 0.0117697 0.154413 -0.635856 -0.562556 0.528411
-0.0122352 -0.451904 0.179774 -0.760958 0.64808 -0.0305787
0.0153942 0.168101 0.283695 0.766848 -0.482962 -0.422719
-0.131368 -0.185846 0.546292 0 0.112778 -0.99362
-0.0123381 0.244367 0.0279934 -0.995216 -0.0297095 -0.0930687
-0.00576449 0.139845 0.361051 -0.312028 -0.846805 0.430766
0.0223491 -0.214015 0.44771 0 -0.754582 0.656206
0.0108751 0.122599 0.314489 -0.986315 0.146962 -0.0747333
-0.00552552 0.0998537 0.309448 -0.384831 -0.280759 -0.879249
-0.011117 0.45407 0.171909 -0.826595 -0.562172 0.0265245
-0.0595124 -0.189418 0.537999 0 0.669833 0.742512
0.0127212 0.467973 0.15331 0.903171 0.428804 -0.0202562
0.0137875 0.443439 0.238474 0.972345 -0.207531 -0.107125
-0.0311318 0.196714 0.24874 0.583354 0.493157 0.645364
0.060144 -0.283424 0.205176 0 0.858749 0.512396
0.0377987 0.252655 0.207641 -0.810479 0.515511 -0.278159
-0.00755801 0.227126 0.28453 -1 0 0
0.0124058 -0.44967 0.188167 0.760967 0.648067 -0.0306501
-0.0841127 0.0142187 0.130917 0 0.914459 0.404679
-0.0157051 -0.169515 0.234746 -0.957654 -0.25586 -0.132037
0.104569 0.135828 0.265883 5.32189e-05 0.0470341 0.998893
-0.056619 -0.0139432 0.141393 -1 0 0
0.0511452 0.0903192 0.256224 0.00649555 -0.0621998 -0.998043
-0.0122282 -0.212433 0.36357 0 0.871013 0.491259
0.00968023 -0.141491 0.19122 0.581953 0.794544 0.173293
0.0594594 0.299975 0.165769 0 0.888271 0.459319
-0.0076539 -0.020527 0.269893 -0.590341 0.455729 0.66619
-0.0102227 0.0153697 0.226914 -0.807012 -0.337003 -0.484934
-0.0103367 0.167927 0.141515 -0.826141 0.550526 0.120054
-0.12191 -0.185408 0.563291 0 0.163721 0.986507
0.070823 -0.275493 0.194796 0.298916 0.895896 -0.328662
-0.00641515 0.430129 0.216622 -0.780238 -0.555775 -0.286954
0.0276828 0.198101 0.246507 -0.364872 0.596546 0.714843
0.0712631 -0.19279 0.53934 0 0.168363 0.985725
-0.0304067 -0.307496 0.191097 -1 0 0
-0.0466125 -0.259191 0.270463 0.877637 -0.455518 0.149187
-0.0269558 0.0502804 0.177972 1 0 0
-0.0714318 -0.197772 0.523715 0 -0.438064 -0.898944
0.0157827 -0.386461 0.0346222 0.859821 -0.275828 -0.429683
-0.0117435 -0.0511644 0.277546 -0.994217 -0.0637063 -0.0864525
-0.00458822 -0.27312 0.296906 -0.315429 -0.288327 -0.904086
-0.108086 -0.178413 0.55626 0 0.998485 0.0550188
0.0173489 -0.184718 0.0890405 0.957715 -0.242133 0.155413
-0.0103362 -0.0159368 0.248859 -0.807012 -0.337003 -0.484934
0.0388672 0.100982 0.228525 1 0 0
-0.099981 -0.0211474 0.132103 0.905855 0.423125 -0.0197806
-0.00938861 -0.441344 0.129109 -1 0 0
0.0486875 -0.223118 0.326794 0.268768 0.942439 -0.19893
-0.0193335 -0.221095 0.46321 -0.0831497 -0.351064 -0.932652
0.00885034 0.195688 0.247284 1 0 0
0.00855877 -0.381252 0.326414 0.581024 -0.373246 0.723256
-0.0545884 -0.303411 0.185729 1 0 0
-0.00585813 0.475249 0.193372 -0.666911 0.72805 0.158663
-0.00755801 0.199708 0.0969943 -1 0 0
-0.119807 -0.179373 0.551918 0 0.909692 -0.415284
-0.0100776 0.0697146 0.215097 0.886278 0.412837 -0.209944
0.176676 -0.192323 0.548569 0 -0.668226 -0.743958
-0.000156799 -0.365301 0.287093 -0.316574 0.435151 -0.842867
0.0258237 0.120499 0.369982 0.980008 -0.169731 0.103808
-0.000331141 -0.201966 0.375184 0.0878185 -0.932158 0.351239
-0.019504 0.20309 0.208344 -0.997842 0.0592846 -0.0282111
0.0551101 -0.306881 0.18047 0 -0.305775 -0.952104
-0.0246984 0.0867477 0.230514 0.999924 0.00149841 0.0122801
-0.0252534 -0.219127 0.441645 1 0 0
-0.02411 0.0850787 0.195498 1 0 0
-0.00819343 0.0737348 0.336039 -0.793479 0.185148 0.579752
0.0407372 -0.200656 0.535047 0 -0.908683 0.417486
-0.00811987 0.0129026 0.246611 -0.590341 0.455729 0.66619
-0.0111323 -0.414084 0.271028 -0.761229 0.436407 -0.479666
-0.00938861 -0.181583 0.20534 -1 0 0
-0.0241509 0.0665788 0.179964 0 0.995325 -0.0965791
0.00885034 0.174288 0.158051 1 0 0
-0.0158304 -0.370338 0.31406 -0.992529 -0.0559629 0.108415
0.0170544 0.320456 0.167011 -1 0 0
-0.0250948 0.0819954 0.228081 0.0161302 0.119154 -0.992745
-0.0104994 0.164067 0.160608 -0.826372 0.562499 -0.0265434
-0.0713639 0.00440546 0.14161 0 0.0465094 0.998918
-0.00791843 0.110746 0.385982 -0.993563 -0.103523 0.0459954
-0.0104089 -0.0930171 0.31557 -0.915383 0.225364 0.333595
0.0111218 -0.211221 0.0809466 1 0 0
-0.0302455 0.153822 0.357009 -0.922103 -0.304166 0.239183
-0.137245 -0.179171 0.558837 0 0.844835 0.535027
-0.00132044 -0.214962 0.461539 0 0.436039 0.899928
0.00885034 0.306778 0.0387571 1 0 0
-0.010538 -0.218796 0.443809 0 -0.935728 0.352723
0.018204 0.0812093 0.197818 0.000695134 0.984343 -0.176265
-0.00308443 0.108354 0.305025 -0.102722 -0.88663 0.450928
-0.00729628 0.18907 0.222899 -0.77977 0.596466 -0.190228
0.00353816 -0.380946 0.328297 0.206245 -0.448861 0.869475
0.0127207 0.385187 0.29549 0.972361 -0.126133 -0.196478
0.00865466 0.123699 0.329903 -0.51817 0.762462 -0.387494
0.0128927 0.280826 0.0253605 0.972388 0.0709438 0.222324
-0.013602 -0.221245 0.309943 -0.859813 0.275824 0.429701
-0.0733548 -0.30764 0.164862 0.056773 0.0479692 0.997234
-0.153123 -0.179964 0.550624 0 0.909692 -0.415284
-0.0197751 0.304673 0.178765 0.944525 0.150426 -0.291966
-0.0026839 0.175714 0.33355 0.000554474 -0.404181 -0.914679
0.0663937 -0.294552 0.200371 -0.0876987 -0.928347 0.36122
0.0751136 0.313686 0.179624 0 -0.539998 -0.841667
0.00885034 0.426024 0.238014 1 0 0
-0.02411 0.0928733 0.213441 1 0 0
0.00885034 0.254131 0.297818 1 0 0
0.00885034 0.313763 0.0378402 1 0 0
0.00314321 -0.215819 0.366697 0 0.508939 0.860803
0.0101062 -0.0768845 0.298299 0.994213 0.0637457 0.0864695
0.010227 -0.442236 0.0741679 0.581524 -0.601613 -0.547625
0.0111218 -0.315267 0.0367304 1 0 0
-0.0321898 0.179258 0.264018 0.581929 0.546392 0.602341
0.0168392 -0.174402 0.108253 0.957659 -0.242272 0.155543
0.0107093 0.275339 0.309284 0.826063 0.120124 -0.550627
0.0168659 -0.320217 0.173064 0.389931 0.899916 0.195203
0.0119781 0.0716688 0.188713 0 -0.338186 0.941079
-0.00755801 0.233218 0.286917 -1 0 0
0.00885034 0.364355 0.0467367 1 0 0
-0.0304067 -0.304472 0.176704 -1 0 0
0.0565062 -0.288099 0.20136 1 0 0
0.0111218 -0.383946 0.0655546 1 0 0
-0.0726479 -0.189038 0.526979 -1 0 0
-0.00792451 0.0550795 0.217933 -0.590921 0.455477 0.665848
-0.0198747 0.19192 0.209093 0.99784 -0.0602086 0.0262674
-0.000578763 0.0758226 0.190969 0 -0.571627 0.820513
0.0304242 0.21231 0.237084 -0.772861 0.413808 0.48109
0.0606314 -0.276159 0.246243 -0.0876987 -0.928347 0.36122
0.0201783 -0.196692 0.428896 0.825077 -0.343311 -0.448759
-0.0167337 0.15443 0.297483 -0.120903 -0.665318 -0.736705
-0.0138516 0.249751 0.150708 0.997885 -0.0617242 0.0203755
-0.0991524 0.0132357 0.133138 0 0.914459 0.404679
0.051862 -0.271313 0.246582 -0.70789 -0.676468 0.203183
0.0265831 0.166664 0.180123 -0.388375 0.119432 0.913729
0.0837269 -0.181147 0.547079 -0.0801458 0.974176 -0.211086
-0.0108586 -0.095137 0.378592 -0.924165 -0.116183 -0.363895
0.072658 -0.311393 0.176145 1 0 0
-0.00300205 -0.258868 0.0129212 -0.205573 0.208494 -0.956175
0.059398 -0.211985 0.485204 0.849782 -0.477506 -0.223293
-0.0121943 -0.213614 0.460609 0 0.669704 0.742628
-0.014603 -0.300675 0.0153024 -0.859675 -0.0239782 -0.510278
-0.0512124 -0.246834 0.320319 0.0829882 -0.937236 0.338677
0.017435 -0.155316 0.186261 0.992519 0.121953 -0.0057547
-0.0185747 -0.19446 0.416965 -0.849254 0.49408 -0.186152
-0.0122646 0.0219721 0.230824 -0.988236 0.0837726 0.127951
-0.0598096 -0.193896 0.510725 0.556375 0.830709 -0.0192186
-0.0020313 -0.435026 0.176166 -0.316471 0.947549 -0.0446894
0.146384 -0.179429 0.557831 0 0.953633 0.300972
-0.0611877 0.310361 0.169489 -1 0 0
-0.013565 -0.391955 0.0564436 -0.761066 0.350477 0.545843
0.010511 0.125634 0.329933 -0.71714 0.621451 -0.31545
-0.0115211 0.162019 0.235654 -0.903299 -0.408708 0.13042
-0.00705479 -0.289578 0.341887 -0.581458 0.0381905 0.812679
-0.00938861 -0.331459 0.0423905 -1 0 0
-0.0118718 0.408508 0.0466266 -0.90332 0.288704 -0.317275
0.0260482 0.0782094 0.216185 -1 0 0
-0.0605851 0.290775 0.159084 0 -0.998919 0.0464736
-0.0710833 0.301808 0.16848 0 -0.976398 -0.215977
-0.0143927 -0.23111 0.44107 0 -0.352437 -0.935836
-0.0163246 -0.214296 0.37075 -0.974773 0.140441 -0.173476
0.0142876 0.186006 0.355174 0.00272113 0.40667 0.913571
0.0108241 0.305776 0.334818 0.903116 0.020228 0.42892
0.00949441 -0.0197423 0.255203 0.988165 -0.0840403 -0.128323
-0.00938861 -0.180498 0.12179 -1 0 0
-0.0755381 0.03302 0.139638 0 -0.914456 -0.404686
0.0344371 0.248137 0.216635 -0.76886 -0.335058 -0.544601
-0.0517628 0.288737 0.192287 -0.570155 -0.621565 -0.537197
0.0151764 0.293077 0.164691 0.621937 0.695982 0.358893
-0.0117851 -0.174179 0.225094 -0.761165 -0.576337 -0.297428
-0.0111898 -0.410728 0.274173 -0.761229 0.436407 -0.479666
-0.00186506 -0.214676 0.446951 0 -0.754582 0.656206
-0.0164146 -0.20476 0.380286 -0.655423 0.706784 -0.266227
-0.00990684 -0.25965 0.0423981 -0.761157 -0.297461 0.57633
-0.073873 -0.000600577 0.141731 0 -0.914387 -0.404841
0.00339511 -0.0915191 0.369906 0.381455 -0.281211 -0.880575
-0.00766949 -0.208042 0.418314 0.266492 0.901951 -0.339803
-0.0266737 0.0403447 0.198384 -1 0 0
-0.0149674 -0.241306 0.0425006 -0.957625 -0.132152 0.25591
-0.0372813 -0.315797 0.17175 0.837499 0.486479 0.248864
0.00599869 0.11434 0.274956 0.310109 0.847428 -0.430927
-0.00288388 -0.142401 0.408203 -0.130052 0.301623 0.944516
0.000605215 0.162931 0.257811 -0.253578 -0.814021 0.522559
0.0389714 0.188814 0.348804 0.782065 0.468871 0.410529
0.0170847 -0.181688 0.26659 0.992532 0.090225 0.0821009
0.00288962 0.118391 0.280888 0.101999 0.886734 -0.450888
0.0514792 -0.274144 0.229056 -0.978512 -0.205979 -0.0092906
-0.0628368 -0.263411 0.224069 -0.0870448 0.926692 -0.365603
-0.00617692 -0.301946 0.0470662 -0.31592 0.044702 0.947732
0.000145354 0.117955 0.324562 0.104317 -0.886503 0.450811
0.00435714 -0.189323 0.537913 0 0.669833 0.742512
0.0227762 -0.22425 0.443652 0.98038 0.0694797 0.184467
-0.0208321 0.0731736 0.19155 -0.732578 0.389097 -0.558509
0.0111218 -0.434017 0.225735 1 0 0
-0.0169024 0.202993 0.209073 0.997876 -0.0601852 0.0249358
-0.0269558 0.0600189 0.203568 1 0 0
0.0111218 -0.274938 0.303616 1 0 0
0.00125118 -0.201161 0.110846 0.316285 -0.798302 0.51252
0.00498597 0.156726 0.24606 0.25335 -0.814042 0.522638
-0.163919 -0.183549 0.546383 0 0.377214 -0.926126
0.00593269 0.106567 0.326911 0.607944 0.241549 0.756345
-0.00938861 -0.375218 0.296308 -1 0 0
-0.00938861 -0.408899 0.0861482 -1 0 0
0.0481292 0.254681 0.175083 -0.322888 0.235968 -0.916549
0.0111218 -0.179168 0.13037 1 0 0
-0.0266737 0.0648991 0.183882 -1 0 0
0.0136126 0.164297 0.28257 0.977588 -0.210499 -0.00334539
-0.0334879 0.181175 0.270522 0.912529 -0.233138 -0.336063
0.00144423 0.46565 0.104175 0.254535 0.921309 -0.29394
-0.00938861 -0.377726 0.291376 -1 0 0
-0.0710691 -0.313404 0.166674 0.0490031 0.538023 0.841504
-0.00755801 0.385472 0.283169 -1 0 0
0.013415 0.288085 0.0137641 0.995213 -0.00459893 -0.0976221
-0.0154226 0.230604 0.202685 -0.998008 0.0624995 -0.00857573
-0.0611877 0.294444 0.171828 -1 0 0
-0.00755801 0.221071 0.0622987 -1 0 0
-0.00860513 0.429773 0.0974859 -0.8262 -0.474118 0.30431
-0.145002 -0.178389 0.553794 0 0.982534 -0.186085
0.00885034 0.222833 0.272255 1 0 0
0.0326627 -0.319413 0.189611 -1 0 0
-0.0105126 0.0918828 0.385925 -0.756766 -0.475007 0.449081
0.00980489 -0.194176 0.38362 0.932181 0.207867 0.29636
-0.0669113 -0.031099 0.137199 0 -0.914711 -0.40411
0.00385244 0.314943 0.31038 0 -0.0470985 -0.99889
0.0334627 0.315014 0.167715 1 0 0
-0.0106271 0.330469 0.156054 -0.00775145 0.545071 -0.838354
0.0162371 -0.309009 0.0276822 0.957731 0.0135561 0.287346
-0.0242246 -0.223177 0.446652 0 0.870746 0.491733
0.00864769 -0.191418 0.434344 0.000661182 -0.352979 -0.935631
-0.00946858 -0.0237582 0.352741 -0.792763 -0.185418 -0.580644
-0.00395651 -0.218283 0.469455 0 0.352437 0.935836
0.00156742 0.0404194 0.349912 0.131096 0.301596 0.94438
-0.037211 0.0416346 0.162392 -1 0 0
-0.0520069 0.307018 0.177652 0 -0.460834 0.887487
0.00666511 0.214597 0.257558 0.384585 0.62131 -0.682692
0.0010745 -0.47127 0.224499 0.204739 -0.932428 0.297757
-0.0120086 0.286946 0.0129878 -0.903372 -0.0201809 -0.428382
0.00335688 0.173873 0.334366 0.00207087 -0.401268 -0.915958
-0.0122298 -0.222194 0.350371 0.987047 -0.149066 0.0593165
0.000799841 -0.186332 0.200776 -0.316567 -0.926773 -0.20218
-0.00164163 0.461658 0.243586 -0.254543 0.859374 0.443491
-0.00734198 0.0991315 0.246438 -0.519666 0.761562 -0.387261
-0.00227518 -0.42129 0.0472499 -0.206375 -0.723707 -0.658526
0.124135 -0.179945 0.549526 0 0.782133 -0.623111
0.00150239 0.00625646 0.253768 0.152117 0.560578 0.814011
0.00260436 -0.231546 0.274817 0.316768 -0.512471 -0.798142
0.0041661 0.344834 0.00567533 0.254562 0.20597 -0.944867
-0.00938861 -0.315291 0.040002 -1 0 0
0.0520569 -0.252517 0.303898 -0.295262 -0.905918 0.303535
-0.0467527 0.318602 0.170957 0 0.976784 0.214226
-0.00215612 0.473454 0.209435 -0.254693 0.944817 0.20604
0.00120896 -0.289449 0.34407 0.205451 0.0459895 0.977586
0.106121 0.102435 0.257191 0.000343126 -0.0470468 -0.998893
-0.0619609 -0.285242 0.223471 -0.124609 -0.920311 0.370811
-0.0121148 -0.468689 0.211399 -0.859877 -0.486338 0.155203
-0.0471169 -0.258116 0.255566 0.903251 0.386312 -0.186816
-0.0538743 -0.214104 0.493211 0.120805 -0.929003 0.3498
-0.00772565 -0.125676 0.32202 0.00344713 0.979607 -0.200894
0.00700111 -0.124579 0.327333 0.000236185 0.979454 -0.201668
0.00377972 0.0613042 0.209923 0 -0.569718 0.82184
-0.00982076 -0.151231 0.40618 -0.801909 0.257567 0.539075
-0.0106225 0.150253 0.205012 -0.903414 -0.408463 0.130386
0.0227351 0.131925 0.185513 0.389373 0.118381 0.913441
0.0136994 0.226663 0.039437 0.995222 -0.0527399 -0.0821689
-0.0902294 0.0366266 0.131488 0 -0.914456 -0.404686
-0.100065 0.0430868 0.139558 0 0.914549 0.404475
0.0135388 0.457372 0.14389 0.972349 -0.222476 0.0710136
0.0467316 -0.239052 0.337173 0.28828 -0.788894 0.542716
0.0891708 0.128231 0.257464 0 0.872254 -0.489053
-0.00755801 0.412833 0.260666 -1 0 0
0.0596652 -0.243148 0.274437 0.0875684 0.928323 -0.361313
-0.0126459 -0.452319 0.181186 -0.760958 0.64808 -0.0305787
-0.0443218 0.318408 0.167657 0 0.952733 -0.303809
0.0132143 0.420727 0.0720014 0.972384 -0.157106 0.17259
0.00764025 -0.155793 0.41016 0.615832 0.299844 0.72859
-0.00938861 -0.223246 0.283013 -1 0 0
0.0153324 -0.430866 0.0958911 0.760627 0.57689 0.297733
0.00422814 0.147829 0.221777 0.25453 -0.921305 0.29396
-0.00488542 0.207456 0.0357822 -0.666554 -0.402661 -0.627352
0.00451032 0.0420147 0.348412 0.382371 0.281099 0.880213
0.0119795 0.209034 0.298066 0.9033 -0.28879 0.317253
-0.00711988 0.0829605 0.316015 -0.608503 -0.241403 -0.755942
-0.012129 0.330863 0.176531 0.999849 0.0101062 0.0141132
0.00373279 0.26809 0.291228 0.385021 0.196774 -0.901687
0.014525 0.314006 0.186092 0.621746 -0.238222 -0.746111
0.10981 -0.17915 0.556947 0 -0.953633 -0.300972
-0.0297875 0.0543595 0.20034 0 -0.728805 0.684721
0.000830457 0.469334 0.229918 0.254315 0.859399 0.443573
-0.00992408 -0.189351 0.420805 0.728882 -0.636122 0.25314
-0.0152945 -0.453066 0.215826 -0.957615 0.274412 -0.087587
0.0244221 -0.212048 0.45218 0 -0.989549 0.1442
0.0168019 -0.23372 0.314515 0.992534 0.0658865 0.102643
0.0410909 0.18615 0.339125 0.922085 0.353793 -0.156811
0.0237332 0.159513 0.180793 0.13637 0.166387 0.976585
0.0283575 0.256176 0.209771 0.63897 -0.763036 -0.0974324
0.00879912 -0.140832 0.179972 0.581386 0.812723 -0.0383779
-0.0581861 0.32025 0.171752 0 0.998879 -0.0473334
0.0135294 0.176336 0.0859995 0.995219 -0.0867832 -0.0448066
-0.0604337 0.0359423 0.132152 -0.607293 -0.726515 -0.321514
0.0605441 -0.291449 0.205215 -0.299349 -0.895718 0.328756
0.0103473 -0.220204 0.375529 -0.72702 0.637975 -0.253828
-0.157048 -0.193392 0.55798 0 0.908826 -0.417176
0.0319198 -0.304949 0.157525 0.389978 -0.195792 0.899768
-0.0573266 -0.312054 0.168129 1 0 0
0.0879924 0.125797 0.256088 0 -0.0475049 -0.998871
0.0444407 0.247629 0.169546 -0.594576 0.789333 0.153078
0.00566574 0.211477 0.0886268 0.384657 0.682736 0.621218
0.0169465 -0.178423 0.0879394 0.99251 0.102783 -0.0660241
0.0713112 -0.286203 0.217829 0.33762 -0.863344 0.375034
-0.0294683 -0.315073 0.192322 0 0.457099 -0.889416
0.0713017 -0.200949 0.534411 0 -0.908683 0.417486
-0.0395485 0.319738 0.173356 0 -0.888642 -0.458602
-0.00910473 0.386998 0.316038 -0.666575 0.402692 0.627309
-0.0440316 0.272203 0.200841 -0.925665 -0.356946 0.125434
0.0438627 0.0979656 0.265711 -0.666592 -0.650245 0.364468
0.0030325 -0.19392 0.398802 -0.107615 -0.923742 0.367586
-0.0212515 -0.216442 0.442145 0.00210687 0.938217 -0.346041
-0.0338377 0.189296 0.258278 0.913518 0.239524 0.328805
-0.151406 -0.194237 0.555222 0 0.982203 -0.18782
0.0094646 0.0567729 0.207165 0.994096 0.0643417 0.0873671
-0.040315 -0.314155 0.178665 0 0.840833 -0.541295
-0.0126202 0.397527 0.295197 -0.995204 0.0528377 0.0823202
-0.0254874 0.100668 0.227744 0.997916 -0.0644438 0.00314701
-0.00124316 0.142778 0.348146 -0.000130263 -0.405226 -0.914216
0.0480661 0.136922 0.254685 0.922948 0.384439 -0.0193083
-0.00755801 0.259318 0.300875 -1 0 0
0.00855627 0.146088 0.299274 0.953093 -0.294536 0.0697353
-0.00554661 0.285859 0.337347 -0.666687 -0.158747 0.728236
0.060511 0.130455 0.261431 0 0.872254 -0.489053
-0.00755801 0.195567 0.10114 -1 0 0
0.015878 -0.328509 0.0297992 0.957731 0.0135561 0.287346
-0.00479129 0.221962 0.315368 -0.66623 -0.341997 0.662704
-0.0397748 0.0186421 0.142677 -1 0 0
-0.0115881 -0.0851433 0.300798 -0.994217 -0.0637063 -0.0864525
-0.018742 0.203667 0.155699 0.998005 -0.0616693 0.0135121
-0.00493824 0.110526 0.362439 -0.000502502 -0.405263 -0.9142
0.0128048 0.31085 0.0238362 0.972393 0.0109951 0.233092
0.0172831 -0.435636 0.262634 0.992527 -0.10269 0.065912
-0.00755801 0.213912 0.0755292 -1 0 0
0.00467471 -0.275032 0.00938512 0.205578 0.208439 -0.956186
0.00577903 -0.220923 0.319198 0.206217 0.528607 0.823437
-0.000467058 0.0545843 0.199888 -0.102313 -0.886361 0.451549
-0.00447108 0.0903992 0.333252 -0.381896 0.281157 0.880401
0.0591451 0.162746 0.258248 0 0.87244 -0.488721
-0.0136282 0.182002 0.356946 -0.0005431 0.405464 0.914111
-0.00704175 0.298075 0.0414346 -0.78041 0.0294432 0.624574
-0.02411 0.0759306 0.225963 1 0 0
-0.0103682 0.466408 0.208536 -0.903309 0.419154 0.0913454
0.00533415 -0.190607 0.408992 -0.317563 -0.881043 0.350595
-0.00755801 0.401694 0.265779 -1 0 0
0.00342369 0.225824 0.265949 0.384585 0.62131 -0.682692
-0.0643683 -0.296003 0.195955 -0.124609 -0.920311 0.370811
0.0198879 -0.212072 0.434806 0 0.935773 -0.352604
-0.0577181 -0.231757 0.303592 -0.0839098 0.934065 -0.347104
0.00303862 -0.0461228 0.264545 0.362521 -0.527131 -0.768578
-0.00844525 -0.285616 0.009587 -0.581051 0.173417 -0.795177
-0.0125544 0.299261 0.322282 -0.972245 -0.0110279 -0.233703
0.0724632 -0.195425 0.526657 1 0 0
0.0139976 0.263211 0.0259084 0.995214 -0.0297152 -0.0930867
-0.122611 0.00567436 0.132208 -1 0 0
-0.0304067 -0.301936 0.18878 1 0 0
0.012693 0.178511 0.23824 0.972374 0.196447 -0.126083
-0.0545564 0.016493 0.130773 -0.000609412 -0.046889 -0.9989
-0.0361396 0.0236173 0.141733 0 0.68812 -0.725597
0.066307 -0.268642 0.262759 0.337621 -0.863343 0.375034
-0.00638788 -0.340256 0.00864842 -0.581436 -0.247326 -0.775088
0.0036182 0.0161179 0.245965 0.403138 0.519804 0.753183
-0.0108672 0.395811 0.286767 -0.826235 -0.304325 -0.474048
-0.00296166 -0.477518 0.155252 -0.205854 -0.95614 -0.208376
0.0356667 -0.301614 0.160751 0.837522 0.250892 -0.485396
0.00997579 0.46992 0.133089 0.66681 0.709964 -0.226529
0.0044931 0.0512862 0.221153 0.626605 0.443511 0.640831
-0.0474891 0.301711 0.168919 0 -0.976398 -0.215977
0.0174245 -0.379092 0.040535 0.957621 0.155634 0.242363
0.00885034 0.41671 0.0955538 1 0 0
-0.00761809 -0.194765 0.435788 0.000402154 -0.370394 -0.928875
-0.0206729 -0.196496 0.523126 0 -0.163512 -0.986541
-0.00139199 -0.478044 0.182131 -0.205917 -0.977488 0.0459962
0.0133581 0.150777 0.180315 0.99522 -0.0975539 0.00459658
0.0260482 0.124471 0.269489 -1 0 0
-0.00953694 0.337127 0.311473 -0.826658 -0.17113 -0.536051
-0.007435 -0.187782 0.410887 -0.265712 0.902153 -0.339878
0.0156834 -0.236093 0.446225 -0.850024 -0.19048 -0.491097
-0.000130435 -0.476651 0.207097 -0.207012 -0.931973 0.297611
-0.0123219 0.0232034 0.229575 -0.988236 0.0837726 0.127951
0.0281271 -0.213502 0.44849 0.128283 0.608173 -0.78337
-0.0230024 -0.220015 0.440577 0 -0.935728 0.352723
-0.037211 0.0664724 0.200917 -1 0 0
0.0119596 0.450902 0.24733 0.903086 0.381642 0.196939
0.0206589 -0.212954 0.355428 0.291328 0.945745 0.143855
-0.000751112 -0.211923 0.454701 0 -0.990114 -0.140262
-0.0266737 0.0425088 0.207963 -1 0 0
0.014133 -0.418798 0.0829123 0.761054 0.479737 0.436634
-0.00942695 0.226191 0.288243 -0.826192 0.379179 -0.41669
-0.00938861 -0.233012 0.289708 -1 0 0
-0.00829832 0.444636 0.0763699 -0.666322 0.627434 -0.402917
0.0132928 -0.450351 0.19582 0.761221 0.647772 -0.0305641
0.0119725 0.182574 0.272753 0.903197 -0.361185 0.231907
0.0351165 0.299712 0.166277 0 0.888271 0.459319
-0.0148259 0.0557741 0.197175 -5.90649e-05 -0.996385 -0.0849474
0.0170991 -0.463063 0.152303 0.99252 -0.119276 -0.0260259
-0.0186598 0.180419 0.331465 0.000686486 -0.404632 -0.914479
-0.00432686 0.0850851 0.202049 0 -0.733691 -0.679483
0.101402 0.153067 0.254146 -0.993757 0.111449 -0.00521408
0.00465733 0.098414 0.246791 -0.312809 -0.84663 0.430544
-0.0115982 -0.196632 0.086208 -0.760859 -0.546064 0.350582
0.0545949 0.0889976 0.257826 0 -0.0471729 -0.998887
0.175261 -0.190214 0.562952 -1 0 0
-0.0494032 -0.0159551 0.130764 0.00124208 -0.0400331 -0.999198
-0.00755801 0.179877 0.209094 -1 0 0
0.0107408 -0.222842 0.381649 0.455519 -0.833035 0.313935
-0.0123672 0.19605 0.27113 -0.972146 0.157765 -0.173325
-0.0266737 0.0654622 0.179816 -1 0 0
-0.0558037 0.293026 0.157789 1 0 0
-0.13998 -0.190061 0.546912 0 0.436051 0.899922
0.00551557 -0.447091 0.272226 0.204747 -0.823675 0.528809
0.0167859 -0.187616 0.276717 0.992532 0.090225 0.0821009
0.0283881 0.134887 0.257978 -0.000224887 0.740271 -0.672308
0.0168768 -0.464586 0.150808 0.99252 -0.119276 -0.0260259
0.0131809 -0.18678 0.248648 0.761111 -0.576394 -0.297457
0.00924234 0.103483 0.283633 -0.717742 0.620672 -0.315614
4.91948e-05 -0.387849 0.325174 -0.205362 -0.448946 0.86964
-0.000358589 0.105004 0.253958 -0.102004 0.886711 -0.450931
0.0138877 0.36457 0.0273826 0.995228 0.0447665 -0.0867039
0.00740572 -0.434546 0.153935 0.316449 0.926805 0.202221
0.0138734 -0.459567 0.111022 0.859968 -0.453544 -0.233994
-0.057777 -0.309784 0.182265 0.0545376 -0.213059 0.975516
0.00885034 0.432749 0.108981 1 0 0
-0.00755801 0.365717 0.0475206 -1 0 0
0.169796 -0.193328 0.558122 0 -0.908826 0.417176
-0.0101732 -0.202852 0.267656 -0.761185 -0.479673 -0.436477
-0.0128567 -0.308948 0.337318 -0.859843 0.0240808 0.509991
0.00424034 0.145499 0.214462 0.25453 -0.921305 0.29396
-0.00514478 0.0393366 0.23054 -0.360833 0.527514 0.769109
0.0111218 -0.438386 0.225853 1 0 0
-0.00755801 0.309644 0.0361991 -1 0 0
0.0413152 0.260579 0.205684 -0.45928 -0.0777855 -0.884879
-0.00755801 0.218089 0.273598 -1 0 0
-0.176414 -0.194003 0.559785 0 -0.782056 0.623209
0.011267 -0.213675 0.398873 -0.456482 0.832605 -0.313677
-0.00325431 -0.177368 0.354241 -0.153709 -0.560461 -0.813792
0.00676856 -0.308562 0.314974 0 0.047058 0.998892
0.0366638 0.113904 0.260306 0.547386 -0.585946 0.597525
-0.00823141 -0.184717 0.428247 0.52843 -0.788812 0.313906
-0.00858696 0.167463 0.17303 -0.826569 0.562207 -0.026589
0.00335592 -0.357951 0.291438 0.316572 0.435181 -0.842852
-0.004491 -0.200464 0.434804 0.319048 0.880563 -0.350453
-0.0219459 0.13929 0.184459 -0.386071 0.127997 0.913546
0.0299053 0.188808 0.255275 -0.587866 0.509316 0.628498
0.0106878 0.00822607 0.349139 0.991284 0.0400743 0.125502
0.00597099 0.110991 0.303924 -0.518327 0.762297 -0.387608
-0.045184 -0.246293 0.316669 0.484708 -0.863 0.142443
0.0073558 -0.134032 0.346599 0.627566 0.443138 0.640149
-0.107183 -0.180148 0.56038 0 0.844835 0.535027
-0.0202885 0.127535 0.195465 -0.611914 -0.183348 -0.769379
0.00289781 -0.143864 0.134699 0.205809 0.932272 -0.297508
0.061092 0.287724 0.177593 -0.944269 0.137988 -0.298857
0.0119952 0.24681 0.0389092 0.826105 0.171308 0.536846
-0.0068162 -0.211625 0.369992 -0.000559142 0.352574 0.935784
0.0246753 0.127944 0.354742 0.205568 -0.447118 -0.870533
0.00721812 0.395536 0.0271082 0.666672 0.341886 -0.662315
0.166045 -0.193838 0.551257 0 0.953419 0.30165
-0.0184206 -0.213263 0.370608 0.000540115 -0.35279 -0.935702
-0.0209192 0.136595 0.219699 0.997599 -0.0607192 0.0332941
0.0111218 -0.199144 0.10001 1 0 0
0.0175161 -0.440463 0.0983453 0.992518 -0.108502 -0.0559897
0.00510914 -0.219363 0.460147 0 0.478382 -0.878152
-0.00554511 0.137273 0.323788 0.314276 -0.846198 0.430324
-0.00946782 0.24955 0.324581 -0.903286 -0.196716 0.381282
-0.0242963 0.0844492 0.164295 -0.997572 0.0644043 0.0265044
0.0110353 0.115306 0.295487 -0.986673 -0.145018 0.0737932
0.00659728 -0.182075 0.165438 0.316019 -0.9477 0.0446891
0.0730418 -0.280135 0.228461 0.546573 -0.759334 0.353085
0.00050409 -0.174323 0.0702958 -0.206073 0.823444 -0.528653
-0.0215951 -0.219226 0.46981 0 0.352437 0.935836
-0.0439301 0.272138 0.201405 -0.925665 -0.356946 0.125434
-0.00283858 -0.23072 0.0250894 -0.205684 0.448891 -0.869592
0.00885034 0.33321 0.0421571 1 0 0
-0.000273996 -0.229601 0.363154 0 -0.861284 0.508124
-0.0111584 0.117329 0.31554 -0.991468 0.0396584 0.124171
-0.02041 0.314631 0.17508 0.944473 -0.243118 -0.221054
-0.0219013 0.196278 0.334078 -0.548477 0.764365 -0.338997
-9.89703e-05 0.182822 0.162124 -0.385138 0.921835 -0.0434694
0.0118682 0.25915 0.0169363 0.9031 -0.130629 -0.409079
0.00652299 -0.375913 0.0194035 0.204692 -0.297655 -0.932471
0.0290672 0.20573 0.175199 -0.795719 0.143961 0.588308
0.0642139 0.300602 0.168666 0 -0.976395 -0.215991
-0.00926992 0.174102 0.36045 -0.000980867 0.405566 0.914065
0.0121048 -0.215213 0.393397 -0.655398 0.706789 -0.266276
-0.00755801 0.262918 0.293817 -1 0 0
-0.00938861 -0.178234 0.17616 -1 0 0
-0.0115958 0.413924 0.273583 -0.97219 -0.17323 -0.157598
-0.0559716 0.27566 0.163124 -0.133205 0.13973 0.981189
-0.0515072 -0.313643 0.178205 0 0.840916 -0.541166
-0.00938861 -0.196082 0.106993 -1 0 0
0.00417041 0.366313 0.329669 0.253475 0.294055 0.921565
0.0366815 -0.32187 0.18143 0.837417 -0.45957 0.295853
0.0104894 -0.261288 0.0151179 0.581443 0.173357 -0.794904
0.00534882 -0.211746 0.462514 0 -0.935763 0.352629
-0.0119894 0.454764 0.139209 -0.972165 -0.22321 0.0712227
-0.0113957 -0.166577 0.173515 -0.761249 -0.647739 0.0305625
-0.0153353 0.126411 0.3554 -0.00470018 -0.405753 -0.913971
0.0249039 0.234718 0.169048 0.61399 0.0645564 0.78667
-0.037211 0.0551336 0.196075 -1 0 0
0.0717213 -0.201313 0.51077 0.913363 -0.243984 -0.325945
0.0178747 0.294339 0.181589 -1 0 0
-0.0118327 0.38285 0.0424088 -0.97217 -0.107411 0.208202
0.0123478 0.42877 0.0892779 0.825828 -0.474516 0.3047
0.0280338 0.124122 0.270537 0 -0.625522 0.780206
-0.0229666 0.17649 0.188202 0.133033 -0.156799 -0.97863
-0.02411 0.069875 0.194186 -1 0 0
-0.00755801 0.228604 0.0595226 -1 0 0
0.0111218 -0.439551 0.154453 1 0 0
-0.046382 -0.256181 0.263755 0.990655 0.110376 -0.0801296
-0.0274186 0.242528 0.169741 -0.557963 -0.588208 0.585396
-0.0104551 0.232262 0.0275313 -0.903076 -0.232009 -0.361421
0.0118877 0.273863 0.0122838 0.903338 -0.130395 -0.408628
-0.0129114 -0.331319 0.335942 -0.859826 -0.108789 0.498863
-0.0581915 -0.285015 0.223928 0.0887536 -0.92657 0.365501
-0.0611877 0.299937 0.175651 -1 0 0
-0.0732987 -0.29923 0.172778 -0.0144644 0.953364 -0.301477
-0.0764552 0.0459606 0.128736 0.547279 0.836166 -0.0362378
-0.0150147 -0.361679 0.315297 -0.95766 0.132051 -0.255831
-0.0131891 -0.425264 0.260687 -0.760974 0.54597 -0.350479
-0.0146853 -0.191958 0.282882 -0.859738 0.377751 0.343737
-0.0233922 0.0718449 0.193983 -0.732678 0.38862 -0.55871
0.019574 -0.211684 0.458146 0 0.843122 0.537723
0.00884111 0.143082 0.178485 0.666873 -0.744347 0.0350302
-0.000541783 0.107825 0.259547 -0.102004 0.886711 -0.450931
0.0138476 -0.275238 0.0151567 0.860008 0.108729 -0.498563
0.0111218 -0.273284 0.0493896 1 0 0
0.00974024 -0.0437835 0.272842 0.988273 -0.0836549 -0.127744
-0.00729274 0.136294 0.351018 -0.000764717 -0.40536 -0.914157
-0.00692918 0.411519 0.250251 -0.780191 -0.462722 -0.420941
-0.0118613 0.113818 0.284927 -0.886668 0.412197 -0.209556
-0.00938861 -0.434281 0.216395 -1 0 0
0.00978194 0.137272 0.376768 -0.00607644 0.404657 0.914448
-0.00938861 -0.239067 0.292585 -1 0 0
-0.0116039 0.0884544 0.376186 -0.775762 -0.576912 0.255668
-0.0111308 -0.201136 0.431987 0.455938 0.832866 -0.313775
-0.020267 -0.229163 0.459282 0 -0.935814 0.352495
0.00885034 0.194191 0.236328 1 0 0
0.0130753 -0.201526 0.437418 0.00026875 0.350332 0.936625
-0.0380987 -0.236197 0.345342 -0.272699 -0.778167 0.565766
-0.0498921 0.276909 0.202882 -0.132096 -0.610938 -0.78058
-0.0423242 -0.206692 0.469091 0.343247 0.930904 -0.124897
0.0613681 -0.301112 0.181588 0 -0.716824 -0.697254
0.0711199 -0.311537 0.177458 1 0 0
0.0148125 0.105371 0.389314 0.974839 -0.203709 0.0905085
0.0326627 -0.312847 0.180658 -1 0 0
-0.00581162 -0.195738 0.393949 0.266281 -0.901973 0.33991
0.016 -0.170304 0.12753 0.957611 -0.274421 0.0876065
0.0454067 0.254801 0.165746 0.46949 -0.43911 0.766003
-0.0766791 0.0116647 0.136688 0 0.914459 0.404679
-0.000164525 0.282635 0.00212581 -0.254589 -0.0455034 -0.965978
0.0121976 -0.227104 0.368055 0.126832 0.107062 0.986129
0.112766 -0.19328 0.549978 0 -0.845526 -0.533934
-0.014185 -0.376994 0.0289724 -0.859906 -0.155293 -0.486256
0.0559663 -0.191772 0.539166 0 0.168363 0.985725
0.0142764 0.301086 0.156619 0.622101 0.422573 0.659107
-0.00840172 -0.397341 0.0338575 -0.581951 -0.439425 -0.68428
0.0124208 -0.40916 0.0753053 0.760799 0.480006 0.436781
0.0522379 -0.277483 0.223175 -0.978512 -0.205979 -0.0092906
-0.0123202 0.434604 0.0890107 -0.972189 -0.197078 0.126526
-0.154216 -0.181429 0.548578 0 -0.781227 0.624246
-0.0231168 0.107669 0.159701 -0.99803 0.0625946 -0.00431644
-0.0124195 0.187105 0.0745743 -0.995216 -0.0722653 -0.0657431
-0.0294565 0.148998 0.3511 -0.905599 -0.387777 0.171814
-0.0124406 0.176217 0.090752 -0.995215 -0.0868369 -0.0448042
-0.0510107 0.274034 0.170169 -0.914505 -0.208121 -0.346938
-0.0442494 -0.193405 0.539445 0 0.168363 0.985725
-0.0197384 -0.220615 0.438984 0 -0.935728 0.352723
0.0334627 0.305526 0.1679 1 0 0
-0.014368 0.2473 0.201187 0.997961 -0.062483 0.0130069
0.000128181 -0.215704 0.364302 1 0 0
0.0103644 0.359452 0.303631 0.825861 -0.171486 -0.537165
0.0255098 -0.211515 0.4409 1 0 0
-0.134126 -0.187454 0.545565 0 -0.166351 -0.986066
-0.0573266 -0.304222 0.180207 1 0 0
0.0142525 -0.424759 0.289471 0.859843 -0.343592 0.377644
-0.0153604 -0.154327 0.148304 -0.992526 0.121899 -0.00575211
-0.0214226 -0.201709 0.529738 0 -0.99864 -0.0521449
-0.0020606 0.124594 0.333256 0.103297 0.886588 -0.450879
0.0372629 0.0959877 0.242049 0.712405 -0.491376 0.501028
-0.00539513 -0.363668 0.289904 -0.316441 0.435201 -0.842891
0.0620102 -0.258525 0.235777 -0.125647 0.917686 -0.376915
-0.0128736 -0.198258 0.0565042 -0.86011 0.343321 -0.377281
0.0117993 0.358214 0.0159368 0.903151 0.0913688 -0.419488
0.00442177 -0.416313 0.241446 0.317157 0.798188 -0.512159
-0.0155488 -0.232481 0.309086 -0.992512 0.065981 0.102791
0.138378 -0.178885 0.55417 0 -0.98186 0.18961
-0.00929928 0.118614 0.28743 -0.716673 0.621631 -0.316155
0.0161068 -0.424679 0.0842907 0.957649 0.212937 0.193822
-0.0715645 -0.278512 0.224753 -0.90297 -0.386913 0.186934
0.013874 0.192987 0.0705701 0.995214 -0.0722828 -0.065759
-0.0111345 0.367359 0.0203925 -0.903185 0.196929 -0.381413
0.0169982 -0.456109 0.227804 0.99253 -0.116221 0.0371021
-0.00938861 -0.192895 0.239487 -1 0 0
0.0111218 -0.178324 0.127472 1 0 0
-0.02411 0.0434117 0.203398 1 0 0
0.00360679 0.0584824 0.194403 0 0.940248 0.340491
0.00920839 -0.37215 0.0631428 0.706974 0.382147 0.595106
0.0630899 -0.313309 0.188533 1 0 0
0.0111218 -0.433362 0.128293 1 0 0
0.0174762 -0.156324 0.17203 0.992519 0.121953 -0.0057547
-0.011452 0.154474 0.128755 -0.9033 -0.419157 -0.0914106
0.0170544 0.313115 0.174884 -1 0 0
-0.0882998 -0.18025 0.550856 0.169977 0.985232 0.0206523
0.0101448 -0.34841 0.0519373 0.706917 0.214958 0.673841
-0.0145528 -0.405747 0.0626061 -0.957632 0.212977 0.193858
0.0325165 -0.218759 0.465588 -0.558751 -0.162689 0.813222
-0.0052435 -0.222215 0.382595 0.266281 0.902011 -0.33981
-0.00755801 0.39842 0.274549 -1 0 0
-0.0151582 -0.196843 0.0643468 -0.992512 0.0822151 -0.0903366
-0.0266437 0.0868425 0.218588 0 -0.7719 -0.635744
0.0152818 -0.164151 0.171298 0.761145 -0.647861 0.0305683
-0.0115698 -0.212041 0.452229 0 -0.989549 0.1442
-0.122611 -0.0188763 0.13483 -1 0 0
0.00972042 0.47355 0.190362 0.667321 0.727647 0.158785
0.000965402 -0.201322 0.528035 0 -0.953376 -0.301785
-0.00665127 0.187532 0.0562775 -0.666858 -0.551203 -0.501474
-0.00938861 -0.196168 0.24815 -1 0 0
0.00442587 0.149508 0.226869 0.25453 -0.921305 0.29396
-0.00633209 0.422645 0.0484782 -0.666166 0.501938 -0.551617
-0.0185748 0.167782 0.186257 -0.921881 0.022773 -0.386804
-0.0477386 0.0129349 0.13094 -2.32744e-06 -0.0471168 -0.998889
-0.0396248 -0.241347 0.332956 0.256613 -0.950406 0.175721
-0.00422705 0.156027 0.368458 0.00169593 0.40487 0.914373
-0.00993558 0.0807414 0.243191 -0.718315 -0.620148 0.315341
-0.024762 0.166256 0.284341 0.718886 -0.16271 -0.675816
0.0345665 0.241382 0.218934 -0.985721 -0.0178265 -0.167442
-0.0113784 0.26021 0.309611 -0.972177 0.0499319 -0.228865
-0.0112334 0.0906862 0.382348 -0.776176 -0.576629 0.255051
0.0169879 -0.161241 0.122897 0.992543 0.116128 -0.0370432
-0.0266739 0.041947 0.211521 -0.999877 -0.00193007 -0.015546
0.0125431 0.17148 0.119527 0.972417 0.207255 0.107007
0.0211395 -0.196981 0.436438 -0.000262872 -0.352748 -0.935718
0.0130631 0.439128 0.100301 0.972373 -0.196425 0.12613
-0.0106799 0.224477 0.289167 -0.826192 0.379179 -0.41669
0.0124407 0.260341 0.324288 0.903156 -0.091463 0.419458
0.0137466 0.186592 0.266048 0.995218 -0.0821955 0.0527686
-0.00479322 -0.203316 0.433113 0.266492 0.901951 -0.339803
0.0124117 -0.198952 0.437181 0.000152477 -0.352416 -0.935843
0.0252838 0.119834 0.187704 -0.38641 0.191892 0.902144
0.0151449 -0.176924 0.112971 0.761006 -0.618016 0.197297
0.00617411 0.181171 0.169435 0.385112 0.921845 -0.0434699
0.105894 -0.188499 0.562367 0 -0.377937 0.925831
0.0660617 -0.276722 0.190122 -0.125647 0.917686 -0.376915
-0.00889944 0.360705 0.302966 -0.826232 -0.171198 -0.536685
-0.00107107 -0.215661 0.401589 0.0878187 0.932152 -0.351255
0.0368548 0.189356 0.350936 0.00709009 0.405195 0.914203
0.0351426 -0.22429 0.46129 -0.0743472 -0.914558 0.397563
0.0583943 -0.264168 0.276513 -0.0861627 -0.928409 0.36143
-0.037211 0.0381398 0.180214 -1 0 0
-0.0611877 0.308823 0.176112 -1 0 0
0.0527956 -0.253295 0.255687 -0.547825 0.758501 -0.352936
0.017632 -0.212456 0.352047 0.0519464 0.956184 -0.288121
-0.0269558 0.0594471 0.197379 1 0 0
-0.0119243 0.128436 0.331241 -0.885863 -0.413637 0.210124
-0.011535 -0.1326 0.337663 -0.988407 0.0831244 0.127049
-0.00252596 -0.187905 0.407982 -0.0885951 0.932286 -0.350706
0.0939535 0.0915513 0.257705 0 -0.0471729 -0.998887
0.0715431 -0.185572 0.539888 -0.657943 0.721593 0.215441
0.0486207 0.27044 0.165402 0.915359 -0.086093 0.393327
-0.0505124 -0.0064663 0.142121 -5.04718e-06 0.0470995 0.99889
-0.00772308 0.398184 0.0626735 -0.82674 -0.378599 0.41613
0.0704602 -0.295508 0.197074 0.126614 -0.91755 0.376924
0.00797442 0.381 0.0203671 0.66629 0.341981 -0.662651
0.01036 0.254985 0.302734 0.826078 0.258513 -0.500765
0.0260482 0.0709286 0.20904 -1 0 0
0.00596697 -0.269102 0.0109557 0.205578 0.208439 -0.956186
-0.00181714 -0.433146 0.0601354 -0.206375 -0.723707 -0.658526
0.00675896 0.188759 0.0533472 0.666817 -0.55123 -0.501499
-0.027698 0.168639 0.186538 0.921495 -0.145604 -0.360064
0.00885034 0.180989 0.225816 1 0 0
0.00996575 -0.201064 0.431765 -0.000894017 0.352717 0.93573
0.0175736 0.32022 0.156414 0 -0.672571 0.740032
0.0269068 0.210248 0.236063 -0.122011 0.643251 0.755871
0.0139725 0.351111 0.0242888 0.995229 0.020796 -0.0953236
-0.00204121 0.410101 0.0341894 -0.254176 0.650913 -0.715337
-0.0124555 0.302596 0.145501 -0.997779 0.061689 -0.0251109
-0.0383687 0.301732 0.170077 0 -0.998824 0.0484839
0.000332018 -0.477826 0.194465 -0.205917 -0.977488 0.0459962
0.00460567 -0.0606955 0.298449 0.403138 0.519804 0.753183
-0.00789867 -0.261776 0.0543804 -0.707154 -0.324381 0.62826
-0.0361899 -0.231073 0.320205 0.77749 0.208121 -0.59346
-0.0647554 0.0382745 0.140011 0 0.0471764 0.998887
0.0171725 -0.435 0.2567 0.957648 0.242322 -0.155536
-0.0158409 0.0975585 0.191267 -0.372828 0.0594936 0.925991
0.0260482 0.0963364 0.22347 -1 0 0
0.0167821 -0.279931 0.0288214 0.95772 -0.0612896 0.281098
-0.00627324 -0.256585 0.0143276 -0.581437 0.173285 -0.794924
-0.00514687 0.243042 0.325889 -0.66623 -0.341997 0.662704
0.00385481 -0.203003 0.438707 0 -0.352713 -0.935732
0.0255098 -0.191146 0.458705 1 0 0
0.00627029 -0.208172 0.440655 0 -0.352713 -0.935732
0.0505214 0.0936264 0.257606 0 -0.0530031 -0.998594
-0.00636413 0.147256 0.344355 -0.517374 0.762736 -0.388017
0.00392992 -0.218337 0.393842 -0.0878188 0.932182 -0.351176
-0.00372895 0.225481 0.317528 -0.253798 -0.443581 0.859548
-0.0091424 0.223552 0.0565534 -0.826393 0.30419 0.473859
0.0127157 0.449839 0.210435 0.972352 -0.228159 -0.0497549
0.0090633 0.409413 0.303068 0.666999 0.402483 0.626993
-0.00755801 0.407338 0.256942 -1 0 0
-0.107157 0.00936826 0.131111 0.000463463 -0.0469965 -0.998895
-0.00967102 0.436082 0.235728 -0.826028 -0.500815 -0.258576
0.0240087 -0.184777 0.456492 0 0.352627 0.935764
0.0561585 -0.264095 0.2758 -0.299203 -0.895837 0.328563
-0.0120482 -0.364596 0.330176 -0.859976 -0.108689 0.498627
-0.0108333 -0.109858 0.325787 -0.914025 0.227311 0.335987
-0.0105628 -0.318379 0.168243 -0.339644 0.693931 0.634903
0.0124428 0.206823 0.274079 0.972329 0.15721 -0.172804
-0.00938861 -0.356156 0.304344 -1 0 0
-0.000937547 -0.16323 0.262415 -0.205358 0.869699 0.448833
0.0501915 -0.225177 0.337535 0.716907 0.618087 0.32251
0.0164278 0.203246 0.340243 0.17739 0.983783 0.0265186
-0.00924206 -0.414983 0.302888 -0.581675 -0.54741 0.601662
-0.00668806 0.466476 0.116439 -0.665808 0.710817 -0.226801
-0.0120225 0.454014 0.136405 -0.972165 -0.22321 0.0712227
-0.0214598 0.132348 0.220937 0.997832 -0.0590265 0.0291197
-0.00191531 -0.183273 0.425063 -2.70003e-05 0.352722 0.935728
-0.0608282 -0.238704 0.286273 -0.299821 0.890099 -0.343266
0.00885034 0.206708 0.0826948 1 0 0
0.0226385 0.164986 0.189696 0.392022 -0.119393 -0.912175
0.0288474 -0.29585 0.164461 0.390092 -0.775147 0.496966
-0.00441102 0.295617 0.0439308 -0.385195 0.043473 0.921811
0.000372023 0.0706384 0.227511 -0.100997 0.886798 -0.450986
-0.0656386 -0.204473 0.522761 0.34886 -0.837127 0.421326
-0.0269558 0.0160533 0.156893 1 0 0
0.00701651 -0.476204 0.20365 0.206977 -0.977264 0.0459857
-0.0075437 -0.0407746 0.283841 -0.590341 0.455729 0.66619
-0.0559673 -0.199437 0.48928 -0.119286 0.929341 -0.349422
-0.058682 -0.300408 0.172992 0 0.998878 -0.047364
-0.013517 -0.156335 0.123314 -0.859615 0.486776 -0.155275
0.0152258 -0.446084 0.0898618 0.860143 -0.453256 -0.233908
0.00636995 -0.189258 0.132021 0.316435 -0.903676 0.288509
-0.0150784 -0.210339 0.299415 -0.992512 0.065981 0.102791
0.0475066 0.0944484 0.2661 -0.666592 -0.650245 0.364468
0.0367967 0.075851 0.193457 0.639645 0.569067 -0.516738
-0.00938861 -0.183696 0.215469 -1 0 0
0.176354 -0.179132 0.556891 0 -0.953633 -0.300972
0.00329867 0.0985041 0.285582 0.103176 -0.886616 0.450852
0.0105471 0.236253 0.318225 0.90317 -0.196829 0.3815
0.0663124 -0.301228 0.182749 0.0396555 -0.376702 -0.925485
-0.0120316 -0.202599 0.41119 0.890721 0.422338 -0.168068
0.0105176 0.473843 0.179539 0.66733 0.743937 -0.0350324
-0.0134715 0.260374 0.195793 -0.997619 0.0655498 0.0214452
0.00399569 -0.198152 0.38882 -0.317563 -0.881043 0.350595
-0.0315506 0.156338 0.354822 -0.944169 -0.285967 0.163609
-0.163748 -0.189697 0.562518 0 -0.379743 0.925092
-0.0237688 0.086856 0.161302 0.997676 -0.0610428 0.0302811
