0.00148036 -0.477057 0.178777 1 7.78752e-08 1.03327e-07
-0.0246578 0.10153 0.192159 0.991025 0.133071 -0.0127085
-0.0369508 -0.0114221 0.157831 -0.0253761 -0.968521 0.247636
0.00148037 -0.174922 0.0496569 1 -1.92839e-08 2.4682e-08
-0.00196342 -0.236058 0.385962 -0.626458 0.291988 0.722699
0.0369516 -0.276139 0.244826 -0.975602 -0.200474 0.0895077
0.00148035 -0.209561 0.265512 -1 2.82088e-08 -2.11387e-07
0.00148036 -0.447357 0.232275 1 5.5588e-09 4.52729e-08
0.00148037 -0.174869 0.0565898 1 -1.92839e-08 2.4682e-08
-0.0273128 0.140355 0.194337 -0.737953 -0.0962275 0.667957
0.00148035 -0.269396 0.29609 1 1.92008e-08 2.54794e-08
0.00148037 -0.276632 0.0608461 -1 1.47899e-08 -3.48435e-08
-0.00178408 -0.316821 0.391026 -0.626728 -0.108435 0.771656
0.00148036 -0.144257 0.121976 -1 0 0
0.0503373 0.0340401 0.0695945 1 0 0
0.00148036 -0.352125 0.272578 -1 -1.98465e-08 -2.6338e-08
-1.09298e-08 0.394154 0.315542 -1 3.39838e-08 -1.27772e-07
0.00148036 -0.145795 0.146831 1 0 0
0.00148037 -0.433351 0.0929852 1 7.78752e-08 1.03327e-07
0.00148036 -0.147349 0.125603 1 0 0
0.00148035 -0.333714 0.346427 1 5.5588e-09 4.52729e-08
-0.115554 -0.307089 0.491305 0.279203 -0.959244 0.0435545
0.0088985 0.202063 0.568395 -0.000229091 -0.00854697 0.999964
-0.00116773 0.431878 0.104191 -0.733891 -0.542483 0.408798
-1.07523e-08 0.295579 0.342741 -1 -8.56583e-09 -2.12018e-08
0.0259938 0.196149 0.567581 0.771529 0.145852 0.61925
-0.00594266 0.343902 0.0129429 -0.977324 0.0827359 -0.194915
0.00189288 0.132205 0.133458 0.975442 0.202746 0.0860633
-0.0030829 -0.453882 0.117746 -0.975444 0.202741 0.0860569
-5.92147e-09 0.452165 0.262431 1 0 0
0.0684763 -0.238638 0.523638 0 0.996574 -0.0827036
-5.92147e-09 0.408651 0.18816 1 0 0
-1.15823e-08 0.376196 0.359218 1 1.13562e-08 1.50699e-08
-0.00168365 -0.417994 0.0763216 -0.975438 0.173587 0.135602
0.112521 -0.294164 0.479024 -0.701677 0.712026 -0.0258608
-5.92147e-09 0.386382 0.209122 1 0 0
0.00148035 -0.378496 0.305393 -1 8.82259e-09 -6.27733e-08
-8.72927e-09 0.275825 0.266848 -1 3.39838e-08 -1.27772e-07
-5.92147e-09 0.356581 0.151789 1 0 0
-1.00625e-08 0.272194 0.32736 1 8.2408e-09 2.03969e-08
0.0048804 0.391732 0.0430123 0.975443 -0.135602 0.173561
-0.0112955 -0.214867 0.415045 -0.710748 -0.298921 -0.636776
0.00867293 -0.212056 0.522683 0.923887 0.0459733 0.379895
0.00148036 -0.448877 0.249868 -1 3.60677e-08 -8.49796e-08
-4.67298e-09 0.122283 0.157361 1 1.83138e-08 4.53285e-08
0.0351114 -0.241938 0.334469 0.921625 -0.343227 0.181117
-8.03571e-09 0.226773 0.248374 -1 3.39838e-08 -1.27772e-07
-1.11905e-08 0.379784 0.330522 1 1.13562e-08 1.50699e-08
0.00593156 -0.153775 0.404779 0.917946 0.284213 0.276762
-5.92147e-09 0.390055 0.204958 1 0 0
-0.0128995 0.298376 0.206977 -0.999657 0.0261886 -0.000503029
0.00666405 -0.190231 0.44257 0.608588 0.583148 0.538107
0.00148035 -0.292869 0.321535 1 1.39331e-08 3.44866e-08
0.0160042 0.0554115 0.194531 0.874647 -0.118499 0.470053
-0.031101 0.159836 0.231094 -0.0159754 -0.598406 0.801034
-0.0832115 0.0541873 0.303996 0.117846 -0.0778492 -0.989976
-0.0275815 0.234959 0.218005 0.999659 -0.0260868 0.000602953
-5.92147e-09 0.182845 0.204688 1 0 0
-0.00297428 0.115536 0.182409 -0.975442 0.218112 0.0306535
0.00148036 -0.440685 0.256792 1 -8.28611e-09 5.89587e-08
0.0231469 0.141523 0.181788 -0.368542 0.0767004 -0.926442
-5.92147e-09 0.442174 0.252301 1 0 0
-0.0269423 0.277849 0.140537 -0.999656 0.0262211 -0.000641303
0.00148036 -0.153523 0.237575 1 0 0
-5.92147e-09 0.216416 0.180749 -1 0 0
0.00329946 -0.341683 0.0361917 0.97544 0.0825164 0.204225
-0.0284531 0.205608 0.326973 -0.987649 -0.119372 0.10149
-5.92147e-09 0.350298 0.129297 1 0 0
-0.00432018 -0.479745 0.220948 -0.926938 -0.372418 0.0457348
0.00148036 -0.151933 0.105664 1 5.2822e-08 2.01331e-07
-0.026483 0.276787 0.212104 0.999658 -0.0261385 0.000551885
-0.0261819 0.30663 0.1799 0.999657 -0.0261687 0.000565236
0.00148037 -0.229335 0.0740768 -1 1.99285e-08 -2.55067e-08
0.00148036 -0.102908 0.239654 1 0 0
-5.92147e-09 0.43649 0.21846 -1 0 0
-0.0319342 0.107324 0.239415 -0.999659 0.0260988 -0.000533772
-0.0284979 0.29546 0.121185 1 0 0
-4.09271e-09 0.35226 0.116256 -1 -3.25462e-08 -1.27742e-07
0.00252865 -0.217855 0.414649 -0.544122 -0.324577 -0.77368
0.0122655 -0.219632 0.404788 -0.0593975 -0.981368 -0.182727
0.025799 -0.251654 0.517564 0 -0.569657 -0.821882
0.00148037 -0.32987 0.0448379 -1 -7.50983e-09 -6.11615e-08
-0.113616 -0.292075 0.520729 0.117157 -0.666318 0.736407
0.00148036 -0.45436 0.198217 1 0 0
0.00148036 -0.431587 0.242241 1 5.5588e-09 4.52729e-08
-0.00435693 -0.199255 0.0350495 -0.955491 -0.115274 0.271567
0.00148036 -0.330718 0.163447 1 0 0
-0.0274567 -0.235888 0.308194 0.381906 -0.894145 0.233777
0.00901928 0.0449722 0.199724 0 0.208071 0.978114
-0.00502435 0.141454 0.551193 -8.68879e-05 -0.00871137 0.999962
-0.00102563 -0.314781 0.370217 -0.975442 0.0306542 -0.218112
0.0065291 -0.200234 0.0368671 0.975443 -0.0860589 0.202746
-0.0380954 -0.258875 0.281905 -0.814408 -0.179735 0.551756
0.00148036 -0.4467 0.217161 1 1.92008e-08 2.54794e-08
-5.92147e-09 0.309392 0.185068 1 0 0
-0.000220482 -0.441209 0.278465 -0.95497 0.275081 -0.111191
-1.90031e-09 0.248184 0.0728223 -1 3.88878e-09 -2.76699e-08
-0.00284789 0.073542 0.56267 -0.585748 -0.673757 0.450501
0.00148036 -0.267391 0.198244 1 0 0
0.000725934 -0.466719 0.283018 -0.17059 -0.913608 0.369079
-0.00835242 0.0729472 0.274578 -0.991262 0.125861 -0.0394789
-5.92147e-09 0.367814 0.242924 -1 0 0
-0.0313914 0.0929458 0.204948 0.999656 -0.0262352 0.000590504
-0.112379 -0.295542 0.467985 0.963956 0.259359 -0.0593437
-0.00361487 -0.109165 0.160491 -0.975439 -0.218627 0.0268432
0.00601895 -0.121265 0.13139 0.975439 -0.204231 0.0825165
0.00148036 -0.369997 0.139042 -1 1.99285e-08 -2.55067e-08
-0.0425346 0.285106 0.165844 0 -0.989226 -0.146399
0.00148035 -0.349564 0.307008 1 5.5588e-09 4.52729e-08
-1.11302e-08 0.201923 0.355758 1 -1.9499e-08 4.59363e-08
0.00148036 -0.304819 0.190718 -1 0 0
0.00148035 -0.26481 0.263461 1 2.25183e-08 1.75936e-08
0.00729857 -0.417145 0.336295 0.955495 0.181617 -0.232475
-0.00746094 -0.238082 0.518023 -0.793369 -0.0731332 -0.604332
-0.00470924 0.319602 0.0162925 -0.975442 -0.0306542 0.218114
0.00148035 -0.313714 0.332704 1 1.39331e-08 3.44866e-08
-0.00156422 0.137673 0.123214 -0.874735 0.446075 0.189358
-0.00248632 0.161963 0.525971 0.428335 -0.185293 0.884418
0.00148036 -0.415922 0.219043 -1 -2.31948e-08 -1.81218e-08
0.00148035 -0.187337 0.360533 1 1.92008e-08 2.54794e-08
0.00148035 -0.273621 0.376253 -1 -5.83005e-09 -4.74833e-08
-1.03509e-08 0.145138 0.307207 1 -4.90177e-08 6.274e-08
-0.0162163 0.0330825 0.19125 0 -0.978185 0.207734
0.031366 0.153389 0.189626 0.985376 -0.137903 0.100082
-0.0105586 -0.130253 0.367739 0.996522 0.059743 0.0580879
-5.92147e-09 0.452485 0.267427 1 0 0
-5.92147e-09 0.389239 0.171808 1 0 0
-0.0281081 0.213299 0.111617 -0.0187795 -0.746592 -0.665017
0.0069695 -0.399558 0.356469 0.927082 -0.23079 0.295389
-0.0291741 0.305676 0.187473 -0.999658 0.0261497 -0.000651252
0.00148036 -0.33944 0.144213 -1 -5.43884e-08 -2.1347e-07
0.00148035 -0.172097 0.302915 -1 -2.31948e-08 -1.81218e-08
-0.00171927 -0.271054 0.373965 -0.975442 -0.0268411 -0.218615
-9.56384e-09 0.219218 0.317061 1 3.28773e-09 2.67766e-08
-0.00112464 -0.425016 0.308535 -0.975451 0.175876 -0.132525
-5.92147e-09 0.380134 0.168331 1 0 0
0.00104788 0.170945 0.537331 -1.97926e-05 0.00859923 -0.999963
-5.92147e-09 0.367629 0.224754 -1 0 0
0.00324769 0.420526 0.316722 0.975442 -0.173561 -0.135607
0.00148035 -0.360765 0.32578 -1 8.82259e-09 -6.27733e-08
0.00148036 -0.175552 0.102036 1 5.2822e-08 2.01331e-07
-5.92147e-09 0.436901 0.145088 1 0 0
0.0315424 0.24096 0.26778 -0.732346 0.637192 0.240116
-0.0218736 0.28478 0.180726 -0.0261333 -0.997772 -0.0613836
-0.0334507 0.0148204 0.228712 0.999658 -0.0261312 0.000609922
0.0305346 -0.25211 0.318402 0.38229 -0.878476 0.28659
0.00148036 -0.47035 0.242629 -1 2.84609e-07 -2.14436e-07
0.00148037 -0.291845 0.110536 -1 1.99285e-08 -2.55067e-08
0.00148036 -0.313061 0.194188 1 0 0
0.00148037 -0.239971 0.0428404 -1 1.47899e-08 -3.48435e-08
0.00148035 -0.18775 0.299578 -1 -2.31948e-08 -1.81218e-08
0.0320668 -0.255502 0.304483 -8.66561e-06 -0.300799 -0.953687
-5.92147e-09 0.376696 0.266166 1 0 0
0.00148036 -0.34152 0.252824 1 2.25183e-08 1.75936e-08
-2.49039e-09 0.226786 0.0911405 -1 3.88878e-09 -2.76699e-08
0.0140307 -0.217326 0.402263 -0.234032 -0.304 -0.923479
0.00148036 -0.200673 0.249511 -1 2.82088e-08 -2.11387e-07
-0.0388584 -0.254482 0.280875 -0.863861 0.256091 0.433775
-0.0043119 0.432511 0.0845359 -0.975439 -0.175916 0.132559
0.00148035 -0.239737 0.328443 -1 -1.98465e-08 -2.6338e-08
0.00148035 -0.420042 0.317157 1 -8.28751e-08 1.06075e-07
0.00786155 -0.0193834 0.468339 0.923863 0.0106851 0.382573
0.00148035 -0.338847 0.284397 -1 -1.44833e-08 -3.58466e-08
0.00148036 -0.16009 0.146377 -1 0 0
0.00444275 0.147361 0.0848259 0.975442 0.173568 0.135602
0.00148037 -0.298887 0.0248769 1 -6.19963e-09 4.41122e-08
-0.0350987 -0.00595509 0.192225 0.0260105 0.984584 -0.172967
-2.39156e-09 0.283458 0.113412 -1 1.19253e-08 -1.52636e-08
-5.92147e-09 0.455631 0.182447 -1 0 0
-0.0374617 0.21765 0.18343 -0.376851 -0.0759701 0.923153
-1.91888e-09 0.387972 0.0901403 -1 -3.25462e-08 -1.27742e-07
-0.00717362 -0.0236085 0.245893 1 0 0
-5.92147e-09 0.426637 0.268326 -1 0 0
0.00148036 -0.445663 0.215764 -1 -1.98465e-08 -2.6338e-08
-6.58133e-09 0.115227 0.24978 -1 -3.99125e-07 1.48495e-07
-0.0320304 0.157432 0.118957 -0.999391 0.0336681 -0.00920695
-0.0223686 0.152331 0.558387 -0.909781 -0.368712 0.190657
-0.0369167 -0.0141335 0.160235 -0.0184389 -0.757834 -0.652187
0.00148035 -0.312137 0.32885 -1 -5.83005e-09 -4.74833e-08
-0.0353195 -0.000756637 0.222474 -0.999658 0.0261617 -0.000597961
-0.00397025 -0.0664787 0.317955 -0.477145 0.628988 0.613764
-0.0224962 0.269708 0.198154 0.0228604 0.880982 0.472598
-5.92147e-09 0.326785 0.204826 -1 0 0
0.00873774 0.123658 0.452752 0.991448 -0.125361 0.0362839
-0.0263223 0.251351 0.110126 -0.999389 0.0337046 -0.00928025
-0.0373062 -0.264602 0.278278 -0.596762 -0.682122 0.422594
-8.47597e-09 0.158279 0.278768 1 -4.90059e-09 3.4871e-08
-5.92147e-09 0.31255 0.197294 -1 0 0
-5.92147e-09 0.3803 0.177751 1 0 0
-8.32043e-10 0.370661 0.0682277 1 -1.15396e-08 1.47702e-08
0.00148037 -0.26156 0.107815 -1 1.99285e-08 -2.55067e-08
-0.0293571 0.279554 0.133874 -0.999657 0.0261835 -0.000623096
-0.00467962 -0.306818 0.0108353 -0.999101 -0.00516633 -0.0420741
0.00148036 -0.365524 0.248321 -1 -1.98465e-08 -2.6338e-08
-0.0263788 0.299755 0.208363 0.999657 -0.0261956 0.000595277
-0.0265124 -0.252368 0.518059 0 -0.569657 -0.821882
-0.00533956 0.219438 0.0187658 -0.850191 -0.197222 -0.488138
-0.00397561 0.455023 0.268595 -0.975442 -0.20275 -0.0860565
-0.00437291 -0.157371 0.0661776 -0.95544 -0.181736 0.232607
-1.71338e-09 0.30857 0.079387 1 -1.15396e-08 1.47702e-08
0.00148035 -0.386319 0.347215 1 -3.2965e-08 7.76648e-08
-5.55548e-09 0.151111 0.178956 -1 -3.25462e-08 -1.27742e-07
0.00653309 -0.206223 0.459742 0.608892 -0.756538 0.238539
0.00148036 -0.427951 0.283772 1 -3.2965e-08 7.76648e-08
0.0036317 0.475078 0.136933 0.626265 0.722845 -0.29204
0.00148036 -0.360447 0.135167 -1 1.99285e-08 -2.55067e-08
0.00764171 -0.123251 0.287787 0.999101 0.039023 0.0165638
-0.0299962 0.27087 0.146572 -0.0196684 -0.952735 0.303165
-0.00845056 -0.219007 0.415816 -0.275722 -0.483823 -0.830598
0.00148035 -0.189476 0.295427 1 2.25183e-08 1.75936e-08
0.074069 -0.247281 0.532496 0 -0.178316 0.983973
0.00521072 -0.219999 0.0348207 0.975443 -0.0860589 0.202746
0.00148037 -0.172161 0.0789675 -1 -5.43884e-08 -2.1347e-07
-9.05831e-10 0.328542 0.0461606 1 -8.51773e-09 2.00662e-08
0.000695917 0.127434 0.454008 -0.746917 -0.519334 -0.415219
0.00466616 0.458526 0.125403 0.975439 -0.20423 0.0825163
0.00454896 0.467417 0.245852 0.975441 -0.218115 -0.0306548
0.00148036 -0.167759 0.152133 -1 0 0
0.00148036 -0.299925 0.128832 1 5.2822e-08 2.01331e-07
-0.0266424 0.183751 0.551259 -0.988866 0.148805 0.0013035
-5.92147e-09 0.229832 0.213439 1 0 0
-5.92147e-09 0.444484 0.109948 1 0 0
-5.92147e-09 0.377323 0.148365 1 0 0
-0.0302281 -0.256231 0.286631 0.871547 -0.1965 -0.449215
-1.13366e-08 0.257001 0.374676 1 -4.90059e-09 3.4871e-08
-0.0275095 0.216597 0.11196 -0.999393 0.0336089 -0.0092026
-9.94576e-09 0.298796 0.300256 -1 -1.17384e-08 -1.5577e-08
-0.0285738 0.292664 0.120947 0.999911 -0.0132791 0.0010458
0.00148037 -0.43289 0.0762124 1 7.78752e-08 1.03327e-07
0.000918729 0.0704929 0.550132 -1.68715e-05 -0.00891132 0.99996
-1.12893e-08 0.385388 0.332853 1 1.13562e-08 1.50699e-08
-9.53289e-09 0.262915 0.298423 -1 -8.56583e-09 -2.12018e-08
-0.0768115 0.052851 0.297283 -0.0392175 0.0785088 0.996142
-0.0307587 0.152069 0.232489 -0.999658 0.0261554 -0.000579968
0.00148036 -0.379592 0.270644 -1 -1.44833e-08 -3.58466e-08
0.0071763 -0.413367 0.0587074 0.89137 0.272769 0.362017
-8.70319e-09 0.144327 0.278475 1 -1.9499e-08 4.59363e-08
-5.92147e-09 0.31021 0.253241 -1 0 0
-4.02476e-09 0.306182 0.124958 1 3.1609e-08 1.20479e-07
-1.15256e-08 0.3558 0.36531 1 8.2408e-09 2.03969e-08
-0.0356307 0.0527765 0.124921 0.00273405 0.301125 0.953581
-1.11673e-08 0.268431 0.361784 -1 -3.44861e-09 -2.80834e-08
-5.92147e-09 0.368568 0.250022 1 0 0
0.00528961 0.341252 0.375957 0.891566 -0.169652 -0.419916
0.00304479 0.0492067 0.471292 0.38267 0.0257957 0.923525
0.0181552 0.0646126 0.192851 0.778347 -0.10425 0.619119
0.044549 0.0393287 0.0841444 0 0.891208 -0.453594
0.00207937 -0.211398 0.403329 -0.247298 -0.373752 -0.893954
-0.0340962 -0.0110029 0.17724 0.999662 -0.0259905 0.000611962
-0.00394326 0.0439619 0.209486 -0.331949 -0.903803 0.270092
0.00529964 -0.211083 0.420957 7.51355e-05 -0.300681 -0.953725
0.00148036 -0.214055 0.197103 -1 0 0
-5.92147e-09 0.317117 0.239491 1 0 0
-0.00611976 0.344158 0.0157366 -0.991749 -0.0500908 0.118008
0.00148037 -0.34512 0.0364304 1 7.06041e-09 5.75028e-08
0.0359325 -0.237362 0.335889 0.988669 -0.101608 0.110492
-6.87374e-09 0.139036 0.224823 1 8.2408e-09 2.03969e-08
-0.0352667 0.236179 0.185692 0.778654 0.130292 -0.613776
-5.92147e-09 0.452975 0.193622 -1 0 0
-8.82608e-09 0.383651 0.299933 1 -3.29857e-08 1.20472e-07
-0.0174657 0.195316 0.550064 -1.52972e-05 -0.00872011 0.999962
-0.000969054 0.123876 0.223633 -0.675236 0.732104 -0.0898865
0.00148035 -0.293088 0.374446 1 5.5588e-09 4.52729e-08
0.0687568 -0.252086 0.530549 0 -0.64675 0.762702
-0.0019062 0.115248 0.469839 -0.130688 0.0276832 0.991037
-0.0186351 0.304519 0.164196 -0.999657 0.0261861 -0.000556388
0.0633877 0.031688 0.0804426 0 -0.99692 0.0784265
0.00576956 0.29807 0.388025 0.92719 0.0456421 0.371801
0.00552591 0.478954 0.229765 0.927182 0.370964 0.0521403
-5.92147e-09 0.320931 0.256023 -1 0 0
-0.00209703 0.383947 0.340777 -0.975441 -0.132557 -0.175905
0.00618788 0.0738584 0.457047 0.793771 -0.0169827 -0.60798
-5.92147e-09 0.372612 0.194434 -1 0 0
-5.92147e-09 0.412224 0.136139 -1 0 0
-5.92147e-09 0.331023 0.235603 -1 0 0
0.0225825 -0.226221 0.396584 0.000455595 -0.300619 -0.953744
-0.0341645 0.0416213 0.145721 -0.999658 0.0261541 -0.000593782
-0.000197258 0.214138 0.346965 -0.407707 0.356781 -0.840525
-0.0871928 0.049646 0.270867 0.160993 0.983921 -0.0773337
-0.0299622 0.183814 0.560439 -0.985021 -0.0627983 0.160593
-0.000876872 -0.35897 0.0406059 -0.975448 0.082504 0.204194
0.00148035 -0.347911 0.336814 -1 8.82259e-09 -6.27733e-08
0.00650164 -0.439306 0.0902442 0.975442 0.173572 0.135591
-0.0642843 -0.254019 0.528289 0 -0.821961 0.569544
0.00148036 -0.146085 0.15175 1 0 0
-9.34594e-09 0.154736 0.290467 -1 2.13361e-08 -5.02642e-08
-0.00849211 0.0885073 0.327692 -0.991262 0.125861 -0.0394789
-0.00573613 0.110526 0.132247 -0.927159 -0.344883 -0.146394
0.00148035 -0.265789 0.328749 -1 -1.44833e-08 -3.58466e-08
-0.0310077 -0.234098 0.354725 -0.917739 -0.327853 0.224203
-2.10768e-09 0.225226 0.0704453 1 -3.70989e-09 2.63973e-08
-2.89859e-10 0.347387 0.0340187 -1 8.85044e-09 -2.08507e-08
0.000893955 -0.322506 0.391311 -0.171198 -0.137119 0.975648
-4.19813e-09 0.148649 0.142612 -1 -4.49389e-09 -3.65998e-08
0.00762255 -0.220057 0.0233422 0.999103 0.0165436 -0.0389737
0.0107113 -0.207928 0.427508 0.99145 0.124447 -0.0392381
-1.02243e-08 0.209798 0.336146 1 -4.90059e-09 3.4871e-08
-0.0318989 0.235915 0.26441 0.564869 -0.675446 -0.47402
-7.67257e-09 0.353694 0.282156 1 -3.29857e-08 1.20472e-07
0.00349381 0.465343 0.227035 0.975441 -0.218115 -0.0306548
0.00416621 -0.462739 0.221958 0.975443 0.218614 -0.0268309
-0.0332625 0.0211125 0.189046 0.999657 -0.0261884 0.000596483
-8.25279e-09 0.265869 0.260471 -1 3.39838e-08 -1.27772e-07
-0.00319984 -0.205042 0.410476 0.570481 -0.122223 -0.812166
-0.0330701 0.0287663 0.202542 0.999657 -0.0261716 0.000596439
-0.0269024 0.298199 0.200507 0.0112067 0.455082 0.890379
0.0233031 -0.211892 0.393025 0.505728 0.601877 0.618048
-7.215e-09 0.275541 0.254922 -1 3.39838e-08 -1.27772e-07
-0.0349603 0.0111508 0.142637 -0.999657 0.0261688 -0.000592041
-5.92147e-09 0.465506 0.21773 -1 0 0
0.00148035 -0.144828 0.281684 -1 2.82088e-08 -2.11387e-07
-2.9522e-09 0.243821 0.112673 1 -1.15396e-08 1.47702e-08
0.000571429 0.484231 0.17507 0.17025 0.978055 -0.120093
0.00566154 -0.270657 0.0193603 0.975442 -0.0306541 0.218113
-0.0133877 0.154038 0.567976 2.79983e-06 -0.008811 0.999961
-1.17959e-08 0.423969 0.337398 1 1.13562e-08 1.50699e-08
-4.20873e-09 0.2782 0.133827 1 3.1609e-08 1.20479e-07
-0.0345223 0.0285881 0.1737 -0.999657 0.0261685 -0.000589506
-5.11297e-09 0.265819 0.146267 -1 -3.25462e-08 -1.27742e-07
-3.80026e-09 0.121557 0.12128 1 -2.87137e-07 -7.80892e-08
5.76898e-05 0.178287 0.5374 -0.00426164 0.00750957 -0.999963
-0.00465823 -0.413806 0.340818 -0.991721 0.0790571 -0.101186
-8.76939e-11 0.334961 0.0195093 -1 3.88878e-09 -2.76699e-08
0.000156101 0.0934514 0.319567 0.187318 0.939594 -0.286487
0.00263401 0.073846 0.311288 0.331623 -0.90405 0.269668
-0.0139753 -0.216039 0.404778 0.974725 -0.048238 -0.218139
-0.0352999 0.231483 0.2756 -0.873759 -0.468464 -0.130716
0.00148036 -0.425715 0.24297 -1 -1.44833e-08 -3.58466e-08
-0.000371041 0.455483 0.162127 -0.480551 -0.870431 0.106869
-0.00085453 -0.116851 0.198195 -0.975439 -0.218627 0.0268432
0.00138783 -0.179852 0.0375979 -0.16986 0.60672 -0.776555
-5.92147e-09 0.215386 0.207464 -1 0 0
-4.8668e-09 0.153681 0.171875 1 -1.15396e-08 1.47702e-08
-0.00622355 0.0507162 0.457739 -0.793336 -0.0169986 -0.608547
-0.00215799 0.252613 0.0286321 -0.975442 0.0268422 0.218616
0.00148036 -0.484195 0.192015 1 0 0
0.00148036 -0.431723 0.270788 1 -8.28611e-09 5.89587e-08
0.0035091 -0.252713 0.390333 0.332776 0.114933 0.935976
-5.92147e-09 0.36448 0.169629 1 0 0
0.00409402 -0.10049 0.150748 0.486293 0.867282 -0.106492
0.00148035 -0.24861 0.300847 -1 -1.98465e-08 -2.6338e-08
-1.94769e-09 0.196661 0.0683208 1 4.22508e-09 3.44105e-08
0.00148035 -0.261871 0.343347 1 1.39331e-08 3.44866e-08
0.028735 -0.227498 0.352243 -0.000459772 -0.300624 -0.953743
-0.00177112 0.16802 0.52776 0.444854 -0.410253 0.796114
0.00148036 -0.443461 0.15343 -1 -7.50983e-09 -6.11615e-08
0.00148036 -0.188298 0.251847 -1 2.82088e-08 -2.11387e-07
0.00148037 -0.302226 0.0225847 -1 -7.50983e-09 -6.11615e-08
-0.0435592 0.0390456 0.245457 0.731917 -0.67473 0.0950649
0.00148037 -0.253525 0.0780376 1 -1.92839e-08 2.4682e-08
-1.04521e-09 0.226288 0.0384562 1 4.22508e-09 3.44105e-08
-2.25965e-09 0.265674 0.0938053 -1 8.85044e-09 -2.08507e-08
0.00148036 -0.289833 0.154196 1 0 0
0.0427927 0.298237 0.198805 0 0.746696 0.665165
-1.39537e-09 0.250793 0.0470544 1 -3.70989e-09 2.63973e-08
0.00148036 -0.269273 0.171165 1 0 0
0.00148037 -0.404815 0.0571443 1 7.78752e-08 1.03327e-07
-9.61715e-09 0.221713 0.312321 -1 -3.44861e-09 -2.80834e-08
-5.99678e-09 0.372026 0.273265 1 -3.29857e-08 1.20472e-07
-0.0299175 -0.241087 0.518322 0 0.646218 -0.763153
0.00148036 -0.339553 0.249825 1 2.25183e-08 1.75936e-08
-0.00145331 0.455378 0.153679 -0.831809 -0.514647 0.207925
-1.5367e-09 0.283891 0.066865 -1 8.85044e-09 -2.08507e-08
-5.92147e-09 0.32291 0.177326 -1 0 0
0.0337141 -0.256404 0.281749 -0.00333851 -0.293575 -0.95593
-0.00453452 -0.102107 0.174557 -0.97734 0.210099 -0.0257968
-0.0108066 0.276254 0.182169 0.999657 -0.0261766 0.000547379
-0.00362875 0.180569 0.0566298 -0.975442 0.132554 0.175907
0.00148036 -0.260875 0.233075 1 -2.74322e-08 2.00025e-07
0.00423859 -0.127931 0.261966 0.975443 -0.202741 -0.0860613
-0.00468746 -0.461159 0.118892 -0.999095 -0.0391562 -0.0166203
0.00148036 -0.414827 0.235014 -1 -1.98465e-08 -2.6338e-08
-5.92147e-09 0.257033 0.207526 1 0 0
-0.0296816 0.174021 0.227147 0.999657 -0.0261879 0.000580183
0.00148035 -0.464304 0.272998 1 -2.08664e-07 1.57235e-07
-0.115894 -0.266177 0.531079 -0.56571 0.105458 0.817833
-0.038755 0.261421 0.236276 -0.00906461 0.875723 0.482728
-0.0361657 0.206209 0.183616 -0.395706 -0.0386424 -0.917564
0.00258049 0.425178 0.0875473 0.975439 -0.175914 0.132565
0.00148036 -0.418893 0.254481 -1 -5.83005e-09 -4.74833e-08
-0.0285593 0.129125 0.181125 0.991014 0.133758 -0.000833129
0.00148036 -0.430461 0.253001 1 5.5588e-09 4.52729e-08
0.00148036 -0.23016 0.191464 -1 0 0
-0.00263229 -0.429444 0.0628958 -0.748421 -0.522579 -0.408384
-4.69567e-05 0.482752 0.230212 -0.169521 0.975934 0.137172
-5.92147e-09 0.453985 0.240178 1 0 0
-0.00768295 -0.0723001 0.320077 -0.766453 0.460865 0.447385
-0.0334932 0.068277 0.190405 -0.999658 0.0261604 -0.000593171
-5.92147e-09 0.336862 0.200502 1 0 0
0.00148037 -0.443977 0.109239 -1 6.4476e-07 2.45791e-07
-9.25143e-10 0.233456 0.0340868 1 4.22508e-09 3.44105e-08
-1.1268e-08 0.375587 0.338825 1 1.13562e-08 1.50699e-08
0.00148035 -0.123996 0.288355 1 -2.74322e-08 2.00025e-07
-7.9454e-09 0.189495 0.25321 -1 -8.56583e-09 -2.12018e-08
0.00148036 -0.469967 0.123905 1 0 0
-0.0522502 -0.249509 0.532051 0 -0.42659 0.904445
-5.92147e-09 0.285945 0.23325 1 0 0
-0.000572273 0.121815 0.47355 -0.130733 -0.951 0.280192
-0.00270604 0.431214 0.0946328 -0.975443 -0.175899 0.132553
-5.92147e-09 0.260128 0.191821 -1 0 0
-0.0038744 -0.197319 0.498162 -0.382721 -0.881098 0.277832
-0.000309553 -0.00827776 0.259725 -0.15553 0.70695 0.689951
-0.00771502 -0.0016204 0.226283 -0.805867 -0.424473 -0.412797
0.00160694 -0.0782693 0.475284 0.130688 0.0276802 0.991037
-5.92147e-09 0.365978 0.246647 1 0 0
-1.0426e-08 0.335412 0.303494 -1 -1.17384e-08 -1.5577e-08
0.00615503 0.104493 0.163345 0.999104 -0.0419067 -0.00589027
0.00996254 0.140588 0.441859 0.888557 0.317498 0.331151
0.00319784 -0.438199 0.112739 0.954708 0.273881 0.116283
-7.88554e-09 0.18771 0.251108 -1 -8.56583e-09 -2.12018e-08
-3.70568e-09 0.198106 0.134477 -1 8.85044e-09 -2.08507e-08
0.00564732 0.207131 0.0244447 0.927152 -0.14036 -0.347401
0.126436 -0.295752 0.450621 0.561399 -0.683667 -0.466295
-0.0269483 0.123487 0.190817 -0.950836 -0.131794 0.280252
0.0404378 0.225505 0.185195 0.797066 -0.103691 -0.594924
0.0380266 0.0440119 0.190455 -1 0 0
0.00311255 0.098857 0.165194 0.486047 -0.865427 -0.121627
-9.37639e-09 0.216395 0.304401 -1 -3.44861e-09 -2.80834e-08
-0.00607949 -0.216567 0.428091 -0.608898 -0.756534 0.238537
-5.92147e-09 0.31638 0.190993 1 0 0
0.0239883 0.09918 0.190706 0.989644 -0.14322 0.00963446
-5.92147e-09 0.394729 0.233438 1 0 0
-1.15693e-08 0.403701 0.325432 -1 -1.17384e-08 -1.5577e-08
0.00148036 -0.278767 0.194679 -1 0 0
0.00148037 -0.287176 0.0993493 1 -1.92839e-08 2.4682e-08
0.00148035 -0.377342 0.317569 -1 8.82259e-09 -6.27733e-08
-5.92147e-09 0.434448 0.11366 1 0 0
0.00148035 -0.242732 0.347549 1 1.39331e-08 3.44866e-08
-0.00977119 -0.20217 0.45489 -0.991446 -0.124481 0.0392466
-1.67457e-09 0.27729 0.0706755 -1 8.85044e-09 -2.08507e-08
-0.0037307 0.206668 0.551762 8.23376e-05 -0.00872774 0.999962
0.00264428 0.100519 0.245041 0.486216 -0.867326 0.106493
-0.0269198 0.279214 0.213868 0.99966 -0.0260595 0.000593734
0.00753678 -0.0575514 0.287325 -1 0 0
0.00148035 -0.395379 0.328279 1 -3.2965e-08 7.76648e-08
-1.03996e-09 0.34439 0.0724667 -1 1.19253e-08 -1.52636e-08
-5.92147e-09 0.450571 0.121777 -1 0 0
-5.92147e-09 0.447 0.248582 1 0 0
-5.92147e-09 0.365039 0.179587 -1 0 0
0.00148036 -0.42342 0.20422 -1 0 0
0.00148036 -0.162935 0.133412 -1 0 0
0.00148036 -0.288613 0.159302 -1 0 0
-0.0304822 0.221189 0.222148 -0.0247451 -0.918997 0.393488
0.0300465 -0.222302 0.357115 -0.606952 -0.777569 0.164304
-0.0165838 -0.224568 0.394849 -0.00289918 -0.300778 -0.95369
0.00148035 -0.220118 0.289034 1 2.25183e-08 1.75936e-08
-5.85258e-09 0.394846 0.119183 -1 -3.25462e-08 -1.27742e-07
-5.92147e-09 0.352284 0.191609 -1 0 0
0.00740944 -0.0476398 0.292329 0.711828 0.496356 0.496922
-5.92147e-09 0.204342 0.219159 1 0 0
-5.92147e-09 0.290497 0.245609 1 0 0
-5.92147e-09 0.200154 0.174092 -1 0 0
-1.16581e-08 0.372856 0.364919 1 8.2408e-09 2.03969e-08
0.122062 -0.257994 0.433295 -0.383081 0.00935743 -0.923667
-0.000332495 -0.437904 0.11152 -0.954718 0.234449 0.183161
0.00148037 -0.27242 0.041471 -1 6.49851e-09 -4.62389e-08
-0.0392351 -0.293643 0.209464 0.0130201 -0.990782 0.134836
-5.92147e-09 0.450592 0.267586 -1 0 0
0.00753678 -0.0656921 0.293169 1 0 0
-5.92147e-09 0.289385 0.192914 1 0 0
0.0109944 0.162854 0.540575 0.827242 -0.00489993 0.561824
-3.89218e-09 0.136592 0.138131 -1 -2.00005e-08 -4.95038e-08
-4.09905e-09 0.152082 0.136315 1 4.22508e-09 3.44105e-08
0.00148036 -0.209399 0.257532 -1 2.82088e-08 -2.11387e-07
0.0335001 0.220023 0.293274 0.871134 -0.471033 -0.138757
-5.92147e-09 0.393787 0.164338 1 0 0
0.00867802 -0.192886 0.459966 0.793313 0.580636 -0.183076
0.00148036 -0.286547 0.241017 -1 2.82088e-08 -2.11387e-07
-5.92147e-09 0.299081 0.191682 -1 0 0
0.00507543 -0.482529 0.223483 0.625345 -0.774534 0.0950773
-0.0445481 0.0583865 0.204714 0 0.999854 -0.017107
-1.05072e-08 0.203231 0.334155 -1 2.13361e-08 -5.02642e-08
-0.0180361 0.0605894 0.194105 0.0843308 -0.545363 0.833947
-2.49164e-09 0.338203 0.107304 -1 -3.25462e-08 -1.27742e-07
0.0510894 -0.241945 0.530834 0 0.569535 0.821967
-3.01938e-09 0.219075 0.110462 -1 8.85044e-09 -2.08507e-08
-0.0406414 0.0445942 0.208418 -1 0 0
0.00148037 -0.262348 0.0191665 1 -6.19963e-09 4.41122e-08
-0.0358449 -0.286491 0.21585 0.994656 -0.087437 0.0549035
-0.00331914 0.120888 0.143955 -0.975441 0.202751 0.0860654
-9.30874e-09 0.259458 0.289006 -1 -1.17384e-08 -1.5577e-08
0.00148036 -0.132559 0.213061 1 0 0
0.0413437 0.29523 0.200262 -1 0 0
-0.0261907 0.162611 0.194779 0.524275 0.0961676 0.846101
-0.00467438 0.458841 0.267521 -0.975442 -0.20275 -0.0860565
-0.0346672 -0.0177061 0.170544 -0.999657 0.0261692 -0.000555394
0.0159034 0.162893 0.568054 7.92519e-05 -0.00858186 0.999963
0.00298558 0.118589 0.160328 0.975441 0.218116 0.0306541
-9.61876e-09 0.220736 0.312499 -1 -3.44861e-09 -2.80834e-08
0.00148035 -0.412676 0.316516 -1 9.60682e-08 -1.22964e-07
-2.37727e-09 0.252427 0.0938234 -1 8.85044e-09 -2.08507e-08
-8.16899e-09 0.167607 0.271276 1 -4.90059e-09 3.4871e-08
0.00391044 -0.453623 0.141308 0.975444 0.202732 0.0860746
0.0147939 0.162198 0.389513 0.246661 -0.859612 -0.447465
-0.0418598 0.273316 0.212828 0 0.68215 0.731212
-0.0334897 0.168363 0.187416 -0.98355 -0.137114 -0.117594
0.00148037 -0.430013 0.106123 1 3.06015e-08 7.57453e-08
-5.92147e-09 0.230441 0.184833 1 0 0
-9.72818e-09 0.298143 0.295005 1 1.13562e-08 1.50699e-08
-0.0341897 -8.4648e-05 0.143268 -0.999657 0.0261898 -0.000624365
0.00148036 -0.367046 0.152094 1 5.2822e-08 2.01331e-07
0.00148037 -0.247348 0.0345777 1 -1.42337e-08 3.35329e-08
0.00594753 0.107016 0.159681 0.955453 0.292271 0.0410766
-1.14405e-08 0.248518 0.376463 1 -4.90059e-09 3.4871e-08
0.00469567 0.144037 0.306323 0.975442 0.175904 -0.132556
0.00148036 -0.397415 0.217724 -1 2.82088e-08 -2.11387e-07
0.00565859 -0.221579 0.514081 0.608665 -0.0953211 -0.787681
0.00148035 -0.287472 0.314752 1 1.92008e-08 2.54794e-08
-0.00540997 -0.138476 0.364167 -0.625146 -0.559757 -0.543934
0.00443819 0.152564 0.52618 0.608579 0.760813 -0.225379
-5.92147e-09 0.471155 0.175431 -1 0 0
-0.0266519 0.291759 0.20519 0.0153073 0.553051 -0.833007
0.000679449 -0.121296 0.0992211 -0.169859 0.787031 -0.593069
0.0291442 0.139126 0.19074 0.912237 -0.126421 0.389668
0.0172777 0.17579 0.365543 -0.315275 -0.802918 -0.505889
-0.0334193 0.0598449 0.127245 -0.018989 -0.721861 -0.691778
0.00148036 -0.14218 0.0973231 1 5.2822e-08 2.01331e-07
0.00148035 -0.231452 0.331618 -1 -1.98465e-08 -2.6338e-08
-7.7254e-10 0.213957 0.0438555 -1 -2.00005e-08 -4.95038e-08
0.00197083 -0.370086 0.376941 0.170705 -0.384968 0.907006
0.00567377 0.0998207 0.392571 0.606074 -0.762039 0.22797
0.00684861 -0.111345 0.267489 0.850134 0.484706 0.205745
-7.42275e-09 0.173201 0.232931 -1 -1.17384e-08 -1.5577e-08
0.00148035 -0.236357 0.338901 1 1.92008e-08 2.54794e-08
0.0334057 -0.239291 0.346875 0.790946 -0.554862 0.257939
-0.0340865 0.0147626 0.132554 -0.023128 -0.871564 0.489735
0.00148036 -0.132353 0.192298 1 0 0
-5.92147e-09 0.223287 0.165907 -1 0 0
0.00148036 -0.190033 0.188778 1 0 0
0.0049678 -0.416311 0.325643 0.97545 0.135586 -0.173534
0.00148036 -0.108381 0.220898 1 0 0
-6.46185e-09 0.192808 0.227023 -1 3.39838e-08 -1.27772e-07
-8.95199e-09 0.222671 0.287283 -1 -8.56583e-09 -2.12018e-08
-1.1584e-08 0.402738 0.33933 1 1.13562e-08 1.50699e-08
0.11699 -0.234245 0.438935 0.000226688 0.999947 0.0102899
-5.92147e-09 0.338787 0.228439 -1 0 0
-3.49934e-09 0.358119 0.110118 -1 -3.25462e-08 -1.27742e-07
-5.92147e-09 0.310506 0.237537 1 0 0
0.128839 -0.252458 0.434384 0.608878 0.00805159 -0.793223
-5.92147e-09 0.398526 0.167157 1 0 0
-0.00446733 -0.300113 0.389514 -0.977349 -0.0294545 0.209574
0.00148036 -0.11795 0.235538 1 0 0
-2.57132e-10 0.227466 0.0279862 -1 -2.00005e-08 -4.95038e-08
-0.00456043 -0.23771 0.0179757 -0.991743 -0.0501076 0.118046
-1.1664e-08 0.391161 0.340957 -1 -1.17384e-08 -1.5577e-08
0.00842262 -0.155881 0.46885 0.991441 -0.00364553 -0.130503
-0.0327975 0.149154 0.22986 -0.999657 0.0261677 -0.000588482
0.00148037 -0.283523 0.0549611 1 -1.42337e-08 3.35329e-08
-0.00181876 0.335146 0.362132 -0.975442 -0.0825058 -0.204221
-0.00505418 -0.172212 0.463172 -0.013933 0.981373 0.191608
0.119184 -0.265511 0.434772 -0.608845 0.00804278 -0.793249
0.00148036 -0.240391 0.213246 1 0 0
0.00737573 -0.297086 0.0116962 0.955519 0.0359441 0.29273
0.00148035 -0.212483 0.310566 -1 -1.98465e-08 -2.6338e-08
0.00148036 -0.309277 0.238827 1 -2.74322e-08 2.00025e-07
-0.0323638 0.248762 0.25232 0.953281 0.301811 0.0128749
0.00148036 -0.142186 0.190949 1 0 0
0.000171735 -0.0206844 0.272475 0.128582 0.709718 0.692652
-0.0452156 0.2565 0.191135 -0.782065 -0.104794 0.614322
-2.8546e-09 0.250412 0.117929 -1 1.19253e-08 -1.52636e-08
0.00148035 -0.184671 0.273412 1 -2.74322e-08 2.00025e-07
0.00753678 -0.0937558 0.319534 -1 0 0
0.00407871 -0.259064 0.0280684 0.975442 -0.0306543 0.218112
0.00148037 -0.234181 0.0231465 1 -1.42337e-08 3.35329e-08
-1.14554e-08 0.370003 0.34351 -1 -1.17384e-08 -1.5577e-08
-0.0277741 0.268423 0.156231 -0.999375 0.0349837 -0.00504709
-0.00872349 0.106762 0.391741 -0.991446 0.124536 -0.0390679
0.00148036 -0.248179 0.153509 1 0 0
-0.00469489 -0.129483 0.0995572 -0.999101 0.0338547 -0.0255112
-9.09879e-09 0.30386 0.280349 1 -3.29857e-08 1.20472e-07
-5.25182e-09 0.120293 0.175973 -1 3.88878e-09 -2.76699e-08
0.00149063 0.391415 0.332561 0.874124 -0.292308 -0.387897
-0.0379764 -0.253941 0.275015 0.00204416 -0.324934 -0.945734
0.00148035 -0.260178 0.285467 1 2.25183e-08 1.75936e-08
0.0295296 0.143639 0.191537 0.95077 -0.131784 0.28048
-3.91782e-09 0.372342 0.109771 -1 -3.25462e-08 -1.27742e-07
0.00148035 -0.292059 0.388806 1 5.5588e-09 4.52729e-08
0.00195407 0.121208 0.174515 0.975441 0.218116 0.0306541
0.00586708 0.122241 0.467506 0.608681 0.0221536 0.793105
0.0820536 0.0379633 0.0658355 1.22043e-05 0.996919 -0.0784414
-0.00368658 0.090836 0.313844 -0.422543 0.86711 -0.263776
-0.0295246 0.222719 0.111411 0.0301149 0.664765 -0.746446
-0.0304681 0.271677 0.144053 -0.999658 0.0261281 -0.000572961
-6.61386e-09 0.142948 0.215665 1 -3.29857e-08 1.20472e-07
0.00148036 -0.133902 0.126115 1 0 0
-5.92147e-09 0.422955 0.255103 1 0 0
0.00442731 0.11294 0.241668 0.975439 0.218628 -0.0268478
0.00148036 -0.226341 0.20944 -1 0 0
-0.048711 0.0553421 0.223966 1 0 0
-0.000348023 0.144188 0.111084 -0.482235 0.8064 0.342298
-5.92147e-09 0.360012 0.163617 -1 0 0
0.00148036 -0.154651 0.2028 1 0 0
-6.51963e-10 0.331122 0.0346042 1 -8.51773e-09 2.00662e-08
0.0286318 -0.240601 0.310381 -0.995007 0.0948416 -0.0310755
-0.0303029 -0.291936 0.206163 0.022679 -0.138493 0.990104
0.0161092 0.135546 0.559532 0.945395 -0.27358 0.177149
0.00148036 -0.308316 0.131621 1 5.2822e-08 2.01331e-07
-0.00743354 -0.038554 0.276774 0 0.139641 0.990202
0.00148036 -0.24519 0.117437 1 5.2822e-08 2.01331e-07
-2.63532e-09 0.261018 0.104655 1 -1.15396e-08 1.47702e-08
0.00148036 -0.264678 0.148818 1 0 0
0.0062621 0.0671566 0.281577 0.757491 -0.625535 0.186851
-5.92147e-09 0.414683 0.152565 1 0 0
0.00148035 -0.14918 0.301459 1 2.25183e-08 1.75936e-08
-0.0374303 -0.254609 0.27726 0.439814 -0.244635 -0.864128
-0.0272811 0.127537 0.190912 -0.133537 0.991019 -0.0070615
-0.0353455 0.288287 0.18944 0 0.999997 0.00258312
0.00370969 -0.253024 0.517548 0.343985 -0.535616 -0.771226
-0.00206711 -0.175689 0.494418 -0.130729 0.945533 -0.298123
-0.00350406 -0.475329 0.192263 -0.97543 0.218165 0.0306752
-2.04773e-09 0.410985 0.0852857 -1 -3.25462e-08 -1.27742e-07
-5.92147e-09 0.304743 0.161431 1 0 0
0.00148036 -0.331144 0.186011 -1 0 0
-0.00597851 0.195264 0.0305896 -0.977306 -0.127484 -0.169175
-5.75249e-09 0.11968 0.18823 1 3.1609e-08 1.20479e-07
-0.0020019 0.425667 0.0555079 -0.333088 0.580505 -0.743012
0.00148036 -0.197132 0.226052 1 0 0
0.00148035 -0.347487 0.314418 1 5.5588e-09 4.52729e-08
-0.00275269 -0.273457 0.00619164 -0.748803 0.0922434 -0.656342
-0.0105252 -0.157267 0.393437 -0.999565 -0.0205666 -0.0211373
0.0087584 -0.213595 0.403374 -0.0995594 -0.440669 -0.892132
-0.000165604 -0.214931 0.422171 -6.27763e-05 -0.300697 -0.95372
0.00148037 -0.269809 0.0493026 1 -1.42337e-08 3.35329e-08
0.00148036 -0.307067 0.218482 1 0 0
-0.0352822 -0.29454 0.202807 0.00464625 -0.990375 -0.138331
0.00148037 -0.270822 0.100366 -1 1.99285e-08 -2.55067e-08
-9.8691e-09 0.251029 0.317693 -1 -3.44861e-09 -2.80834e-08
0.00148036 -0.135069 0.17202 -1 0 0
0.00148035 -0.267946 0.363463 -1 -5.83005e-09 -4.74833e-08
-0.00498279 0.239747 0.018778 -0.975441 0.0825094 0.204221
0.00851829 0.0719875 0.275706 0.991262 0.125866 -0.0394688
0.00653184 -0.255372 0.0176164 0.975442 -0.0306541 0.218113
-0.0149758 0.161829 0.405371 -0.967903 0.105337 0.228182
-0.000421966 -0.387834 0.058917 -0.975439 0.132552 0.175921
-0.0351627 -0.001777 0.145609 -0.0175843 -0.652212 0.757832
-0.00835793 -0.237125 0.526483 -0.923947 0.0459559 0.379751
0.00148035 -0.248872 0.257718 -1 2.82088e-08 -2.11387e-07
-0.0379039 0.248474 0.257889 -0.768772 0.503412 0.394419
-5.92147e-09 0.354976 0.250299 1 0 0
0.00148036 -0.390029 0.15139 1 -1.92839e-08 2.4682e-08
0.0166994 0.190666 0.35048 -0.988877 0.117474 -0.091231
0.00572016 -0.470628 0.182516 0.975442 0.218112 0.0306678
0.00148036 -0.221811 0.225448 -1 0 0
-0.0105021 0.189704 0.568288 -3.7586e-05 -0.00876541 0.999962
0.00148036 -0.176818 0.108074 -1 -5.43884e-08 -2.1347e-07
-5.92147e-09 0.385941 0.134088 1 0 0
-0.0357646 0.189931 0.183808 -0.985455 -0.137548 -0.0997916
-6.22485e-09 0.0996445 0.204988 -1 2.13361e-08 -5.02642e-08
0.00148035 -0.325887 0.355319 -1 8.82259e-09 -6.27733e-08
0.00148035 -0.185702 0.297341 -1 -2.31948e-08 -1.81218e-08
-8.70264e-09 0.234578 0.274853 1 1.13562e-08 1.50699e-08
-3.34447e-09 0.333625 0.112112 1 3.1609e-08 1.20479e-07
-0.0100844 -0.027169 0.255255 -0.931003 -0.2545 -0.261654
-5.92147e-09 0.471141 0.182067 -1 0 0
-0.0359625 0.0436348 0.192231 0 -0.0521911 0.998637
0.00148036 -0.456652 0.253754 1 -8.28751e-08 1.06075e-07
0.00148035 -0.466219 0.259121 1 -2.08664e-07 1.57235e-07
0.00830862 -0.167652 0.464748 -0.0223823 0.938024 -0.345847
-2.43919e-09 0.287605 0.112148 1 -1.15396e-08 1.47702e-08
0.00148035 -0.203471 0.320393 -1 -1.98465e-08 -2.6338e-08
0.00426962 0.469526 0.221957 0.975442 -0.218114 -0.0306551
-0.0320256 0.0704504 0.122139 0.99939 -0.0336835 0.00922811
-0.0315626 0.0866307 0.214819 0.999658 -0.0261562 0.000596134
-0.0417518 0.0458804 0.176189 0.731986 0.0356443 -0.680386
-0.00330174 0.145027 0.0960207 -0.975442 0.173568 0.1356
-5.63265e-09 0.319829 0.134724 1 3.1609e-08 1.20479e-07
-0.00305483 -0.102582 0.459879 -0.382867 -0.0257915 -0.923443
0.00148036 -0.433715 0.20125 1 0 0
0.00148035 -0.223376 0.305574 -1 -2.31948e-08 -1.81218e-08
-0.0306305 0.118865 0.234467 0.999657 -0.0261937 0.000542973
-0.0012037 -0.117517 0.218132 -0.975439 -0.218125 -0.0306554
-0.048711 0.0443782 0.236644 1 0 0
-0.00305336 0.201638 0.0439436 -0.975443 0.132551 0.1759
-0.00664135 0.144491 0.508943 -0.923904 0.366867 -0.108671
0.00401128 -0.262559 0.369939 0.975442 -0.0268409 -0.218614
-0.00138267 0.109515 0.372759 -0.133723 0.947977 -0.288891
0.0059733 -0.142539 0.0746032 0.748645 0.529473 -0.398983
0.000438095 -0.203418 0.344449 -0.732738 -0.409545 -0.543477
-8.3521e-09 0.227868 0.256648 1 1.13562e-08 1.50699e-08
-5.92147e-09 0.13194 0.187278 -1 0 0
0.00279333 0.129361 0.129953 0.975442 0.202746 0.0860633
0.00148037 -0.238908 0.0525579 -1 1.47899e-08 -3.48435e-08
0.00387041 -0.188324 0.338031 0.975439 -0.132566 -0.175914
-9.36625e-09 0.265524 0.295568 1 1.13562e-08 1.50699e-08
0.00148036 -0.205484 0.244038 -1 2.82088e-08 -2.11387e-07
0.00818782 -0.188172 0.468945 0.793598 0.580255 -0.183048
0.00500799 -0.177788 0.463062 0.608855 -0.0221501 -0.792973
0.00521507 0.12411 0.115088 0.891695 0.416654 0.176861
-5.92147e-09 0.127806 0.197497 -1 0 0
0.00148035 -0.290312 0.271272 -1 -2.31948e-08 -1.81218e-08
0.00148035 -0.311629 0.273951 1 1.92008e-08 2.54794e-08
-5.92147e-09 0.45847 0.152535 -1 0 0
-3.4258e-09 0.188825 0.119612 -1 3.88878e-09 -2.76699e-08
0.00457306 -0.163392 0.0754756 0.975442 -0.175906 0.132553
-0.0259939 -0.238577 0.31294 0.989878 0.125412 -0.0664343
-4.25465e-09 0.111896 0.155791 1 4.65889e-08 6.18266e-08
-5.92147e-09 0.465104 0.126704 1 0 0
-0.00275342 0.0689892 0.470861 -0.382671 0.0257951 0.923524
0.00148036 -0.270213 0.148873 1 0 0
-0.12143 -0.299827 0.454337 -0.0533226 -0.886484 -0.459677
0.00688079 -0.247707 0.516048 0 -0.0826979 -0.996575
-5.92147e-09 0.274304 0.221495 -1 0 0
-0.00499015 -0.0410035 0.263534 -0.432072 -0.646773 -0.628489
-0.00156827 -0.464451 0.221178 -0.97542 0.218715 -0.0268434
-2.31651e-09 0.295187 0.109765 1 -1.15396e-08 1.47702e-08
0.00596557 -0.193148 0.446478 0.608699 0.756676 -0.238595
-0.0377382 -0.0118988 0.209194 0.0233699 0.900895 0.433408
0.00148037 -0.286849 0.01728 1 -6.19963e-09 4.41122e-08
-0.00682075 0.219311 0.554056 0 0.996762 0.0804032
-0.116803 -0.265855 0.437908 0.923739 0.00387579 -0.383002
-0.00615741 0.104348 0.229937 -0.999104 -0.0420083 0.00515888
0.00148036 -0.161313 0.161025 -1 0 0
-0.00796065 -0.06251 0.291491 0 0.709038 -0.70517
-5.92147e-09 0.452735 0.260839 1 0 0
-0.0086085 0.131337 0.467159 -0.991446 0.124536 -0.0390679
-1.06644e-08 0.331678 0.331859 1 1.13562e-08 1.50699e-08
-5.92147e-09 0.27121 0.199137 -1 0 0
-0.00301483 0.129486 0.127147 -0.975441 0.202751 0.0860654
0.00148035 -0.295427 0.280701 -1 -1.98465e-08 -2.6338e-08
-0.010555 -0.057401 0.292749 0.996522 0.059743 0.0580879
-5.92147e-09 0.254575 0.203478 -1 0 0
0.00146774 -0.129698 0.310156 -0.170375 0.776483 0.606669
0.00148036 -0.478435 0.188346 -1 -7.50983e-09 -6.11615e-08
0.00609052 0.253427 0.382981 0.977338 -0.0294614 0.209627
-1.17134e-08 0.374466 0.36698 1 8.2408e-09 2.03969e-08
0.00148035 -0.241064 0.289104 -1 -2.31948e-08 -1.81218e-08
-0.0023027 0.198905 0.343851 -0.975444 0.135597 -0.17356
0.00333583 -0.107466 0.131876 0.332598 0.8744 -0.353276
-0.00951113 -0.0682216 0.312199 -0.917176 0.285792 0.277691
0.00148036 -0.360365 0.210383 1 0 0
-0.0192491 0.286693 0.192101 0 0.496685 0.867931
0.00148036 -0.420638 0.13399 -1 -7.50983e-09 -6.11615e-08
0.00660971 -0.224714 0.527806 0.793231 0.0731605 0.60451
0.00148036 -0.248403 0.123401 1 5.2822e-08 2.01331e-07
-4.73965e-09 0.438508 0.0993466 -1 -3.25462e-08 -1.27742e-07
-0.0796801 0.0484663 0.27426 0.0392241 0.0778487 0.996193
-1.17222e-08 0.395139 0.354226 1 1.13562e-08 1.50699e-08
-0.0268244 0.19032 0.567887 -0.800451 0.0446922 0.597729
0.00148036 -0.209652 0.148637 -1 0 0
-5.5764e-09 0.180813 0.171552 -1 -3.25462e-08 -1.27742e-07
-6.44848e-09 0.0999826 0.209727 1 -4.90177e-08 6.274e-08
0.00148035 -0.208469 0.270502 -1 2.82088e-08 -2.11387e-07
-0.000173963 0.0268239 0.191515 -0.16969 -0.706161 -0.687417
-5.92147e-09 0.450413 0.198277 1 0 0
-0.00467905 -0.342045 0.0162767 -0.999099 -0.0158968 -0.039348
0.00148036 -0.238359 0.194663 -1 0 0
0.00148036 -0.120182 0.251217 -1 2.82088e-08 -2.11387e-07
-0.0281797 0.305264 0.176671 0.999658 -0.0261542 0.000529062
0.00148035 -0.455608 0.271537 1 -8.28751e-08 1.06075e-07
-0.00437412 0.275002 0.015995 -0.975442 0.0268426 0.218615
-3.62351e-09 0.152911 0.122393 1 4.22508e-09 3.44105e-08
0.0154062 0.165835 0.383019 -0.00911426 -0.869245 -0.494297
0.00148035 -0.175236 0.311501 1 2.25183e-08 1.75936e-08
-0.0295672 -0.249655 0.281794 -0.302022 -0.332777 -0.893332
0.00148035 -0.314327 0.29701 -1 -1.44833e-08 -3.58466e-08
-3.79413e-10 0.334507 0.0224588 1 -8.51773e-09 2.00662e-08
-0.00529111 -0.0420918 0.264861 -0.432072 -0.646773 -0.628489
-5.92147e-09 0.266627 0.168324 -1 0 0
-0.0311924 0.208532 0.224253 -0.0196727 -0.800588 -0.598892
0.00148036 -0.154998 0.259811 -1 2.82088e-08 -2.11387e-07
-0.0475852 0.0563399 0.210271 -0.731857 0.681358 -0.0116577
-0.00517323 0.308776 0.380849 -0.975445 -0.0268439 -0.2186
0.00148036 -0.137437 0.256402 1 -2.74322e-08 2.00025e-07
0.00148035 -0.332085 0.360209 -1 8.82259e-09 -6.27733e-08
-0.070247 -0.254629 0.521481 0 -0.904275 -0.426951
0.00148036 -0.193781 0.140513 1 0 0
-0.0160231 -0.208652 0.397798 0.923577 0.0998207 -0.37019
-5.92147e-09 0.429289 0.264286 -1 0 0
0.00148037 -0.274624 0.0152856 1 -6.19963e-09 4.41122e-08
-7.63829e-11 0.305488 0.0149583 -1 3.88878e-09 -2.76699e-08
0.00148035 -0.26626 0.276126 -1 -2.31948e-08 -1.81218e-08
-0.0478441 0.0550055 0.290639 0 0.838841 0.544376
0.00829669 -0.215841 0.426486 0.793288 -0.580667 0.183083
-0.00163586 -0.095741 0.208302 -0.486296 0.86529 0.121612
-5.92147e-09 0.17023 0.204571 -1 0 0
0.00148035 -0.33883 0.369317 1 -8.28611e-09 5.89587e-08
-0.00720581 -0.203664 0.469094 -0.608962 -0.756486 0.238526
0.00148036 -0.395402 0.245515 -1 -1.98465e-08 -2.6338e-08
0.00148037 -0.343512 0.0971912 1 -1.42337e-08 3.35329e-08
-0.0134247 0.128375 0.562627 -0.920854 -0.236921 0.30967
-0.0415645 -0.292585 0.206172 0 -0.392034 0.919951
-0.0030966 -0.0760067 0.298081 -0.516843 -0.613427 -0.597144
-5.92147e-09 0.27475 0.24225 -1 0 0
-0.0014117 -0.0592471 0.311693 -0.190722 0.702357 0.685799
0.00421382 0.266743 0.375922 0.975446 0.0306526 -0.218096
-0.00696873 0.135681 0.496596 -0.923979 -0.366694 0.108622
0.005798 -0.114806 0.14999 0.975443 -0.204216 0.0825042
0.0141028 0.102648 0.192944 -0.881907 0.14329 0.449119
0.00148036 -0.249866 0.165597 -1 0 0
0.00148035 -0.222005 0.358309 1 1.39331e-08 3.44866e-08
-3.52485e-09 0.292397 0.124426 1 3.1609e-08 1.20479e-07
0.00148037 -0.192673 0.0632335 -1 1.99285e-08 -2.55067e-08
-9.4024e-09 0.200763 0.305242 -1 5.21807e-09 -3.7127e-08
-9.49921e-09 0.275723 0.288976 -1 -1.17384e-08 -1.5577e-08
-1.89619e-09 0.361329 0.0967508 -1 -3.25462e-08 -1.27742e-07
0.0075468 0.0534092 0.19467 5.54747e-05 0.838617 0.544721
-0.00867513 0.0867911 0.326853 -0.991446 0.124536 -0.0390679
0.00397121 -0.428427 0.303167 0.975443 0.175903 -0.132546
0.00145966 0.443951 0.125369 0.874947 -0.448962 0.181387
0.00148036 -0.465756 0.206959 -1 -2.31948e-08 -1.81218e-08
-1.34335e-09 0.300399 0.0560186 1 -8.51773e-09 2.00662e-08
0.00321327 0.0606848 0.266453 0.331623 -0.90405 0.269668
0.0203519 -0.21165 0.38628 -0.96905 0.171308 -0.177751
-0.00028767 0.483918 0.172118 -0.17025 0.978056 -0.12009
-0.0328541 0.206647 0.183319 0.368541 0.0766965 -0.926442
0.00495497 0.462067 0.263102 0.975441 -0.202753 -0.0860577
0.00148036 -0.441742 0.268823 1 -3.2965e-08 7.76648e-08
-1.11628e-08 0.329263 0.348494 -1 -8.56583e-09 -2.12018e-08
0.00330833 0.153882 0.567975 0 -0.00875982 0.999962
-2.25853e-10 0.25052 0.0116696 1 4.22508e-09 3.44105e-08
0.00148036 -0.118985 0.263596 -1 2.82088e-08 -2.11387e-07
-0.0360472 0.0227537 0.130019 -0.999659 0.0261038 -0.00057193
-0.0286735 0.196016 0.191767 0.881812 0.143279 0.44931
-5.08548e-09 0.44341 0.0977593 1 3.1609e-08 1.20479e-07
-5.92147e-09 0.169789 0.213278 1 0 0
-5.92147e-09 0.265663 0.198244 1 0 0
0.053148 0.0388603 0.0772321 -0.000291123 0.996903 -0.0786346
0.00148036 -0.19024 0.157767 -1 0 0
-1.03603e-08 0.245283 0.33589 -1 -3.44861e-09 -2.80834e-08
-0.0130494 0.292263 0.190005 -0.999657 0.0261733 -0.000604142
-0.00133936 -0.183683 0.0608217 -0.975443 -0.135601 0.173561
-0.0341759 0.000376647 0.140479 0.999657 -0.0261927 0.000604376
0.00148036 -0.339133 0.142226 -1 -5.43884e-08 -2.1347e-07
0.00148036 -0.14801 0.222237 1 0 0
0.00148036 -0.227887 0.161924 -1 0 0
-0.00717362 -0.0752283 0.299569 1 0 0
-0.000361323 0.0113696 0.472945 -0.130688 0.0276832 0.991037
-5.92147e-09 0.278175 0.184754 -1 0 0
0.00148037 -0.429394 0.106445 -1 -8.98629e-08 -1.19246e-07
-0.00766583 -0.204757 0.464372 -0.793288 -0.580665 0.183088
0.00110629 -0.0741984 0.475236 0.131087 0.0276817 0.990984
-1.15425e-08 0.165489 0.342099 1 -4.90177e-08 6.274e-08
-9.58316e-09 0.363653 0.296891 -1 3.39838e-08 -1.27772e-07
0.0380266 0.0335154 0.140186 -1 0 0
-5.92147e-09 0.206897 0.203756 -1 0 0
0.0104117 0.107658 0.554522 0.984659 -0.162002 0.0648284
-0.00214909 0.177877 0.326559 -0.975444 0.135597 -0.17356
0.00148036 -0.394528 0.185786 -1 0 0
-5.92147e-09 0.363968 0.239579 1 0 0
0.00200308 0.436882 0.0677988 0.332768 0.753118 -0.56752
0.00148037 -0.434416 0.0945968 1 7.78752e-08 1.03327e-07
-0.0117592 0.277601 0.150235 0.0230769 0.881397 -0.471813
-0.00305909 0.142676 0.431058 0.744043 -0.519279 -0.420417
0.00148036 -0.291033 0.222765 -1 0 0
0.00725606 -0.193684 0.448073 0.608707 0.756678 -0.238565
0.00148036 -0.398371 0.133776 1 -1.42337e-08 3.35329e-08
0.00148035 -0.325082 0.286141 -1 -1.98465e-08 -2.6338e-08
-9.53432e-09 0.244152 0.312794 1 8.2408e-09 2.03969e-08
-0.0423084 0.276908 0.189165 0 0.385896 -0.922542
-0.00412111 0.171547 0.568129 0 -0.00875012 0.999962
0.00300498 -0.481602 0.159637 0.334262 -0.933296 -0.131257
-2.24276e-10 0.333189 0.0248467 -1 8.85044e-09 -2.08507e-08
-0.0336125 0.064371 0.219085 -0.999657 0.0261652 -0.000592914
0.00148036 -0.254491 0.172326 1 0 0
-5.92147e-09 0.368562 0.22383 1 0 0
0.00148036 -0.161847 0.222532 -1 0 0
0.0091623 0.021725 0.205189 0.805952 -0.424312 -0.412796
-0.0280252 -0.255079 0.524284 0 -0.996612 0.0822477
-0.0274879 -0.240599 0.294246 -0.897419 0.436926 -0.061119
-2.77567e-09 0.152775 0.109038 -1 -2.00005e-08 -4.95038e-08
-5.92147e-09 0.378823 0.153565 1 0 0
-0.0346298 0.0235067 0.130651 -0.999659 0.0261175 -0.000600668
-5.92147e-09 0.173889 0.217327 1 0 0
-0.00244207 -0.277602 0.377994 -0.975442 -0.0268415 -0.218613
0.00148037 -0.254502 0.0374041 -1 1.47899e-08 -3.48435e-08
-0.00593425 -0.0454015 0.269111 -0.0816751 -0.70483 -0.704658
-5.92147e-09 0.105577 0.152668 1 0 0
-0.00866057 -0.178938 0.48385 -0.484624 0.420044 -0.76727
-6.14259e-09 0.127243 0.207086 -1 3.39838e-08 -1.27772e-07
-1.12769e-08 0.273777 0.374339 1 3.28773e-09 2.67766e-08
0.00148037 -0.368702 0.103062 -1 6.49851e-09 -4.62389e-08
0.00148037 -0.307688 0.0814364 1 -1.42337e-08 3.35329e-08
0.00148037 -0.339798 0.0542391 -1 -7.50983e-09 -6.11615e-08
-0.0266936 0.214345 0.112743 0.999387 -0.033758 0.00923573
-0.00243794 -0.131262 0.113982 -0.975439 -0.204233 0.0825109
-1.28093e-09 0.22519 0.0454412 1 4.22508e-09 3.44105e-08
0.00148036 -0.434027 0.167808 -1 1.47899e-08 -3.48435e-08
0.00148036 -0.403886 0.197278 -1 0 0
0.00148035 -0.246296 0.27792 -1 -2.31948e-08 -1.81218e-08
-5.92147e-09 0.448247 0.134524 -1 0 0
-0.00321822 0.136522 0.514998 -0.382806 -0.885785 0.262382
0.00135485 -0.136934 0.130293 -0.408757 -0.846187 0.341885
-5.92147e-09 0.351116 0.136168 1 0 0
0.000838466 -0.293741 0.200791 -0.0058857 -0.787877 -0.615805
-5.92147e-09 0.424687 0.273075 -1 0 0
