-0.0334557 0.0684954 0.13672 -0.999658 0.0261387 -0.000599375
-5.92147e-09 0.446056 0.161577 1 0 0
-0.0282248 0.18069 0.551535 -0.000433638 -0.00882242 0.999961
-0.0108736 0.151018 0.414265 -0.495964 -0.78842 -0.363887
0.00135613 0.39179 0.0287501 0.333085 0.580505 -0.743013
0.00148036 -0.129446 0.214535 -1 0 0
0.000617118 -0.434874 0.33114 -0.171656 -0.786774 0.592892
-0.0345223 0.00645733 0.155056 0.0068554 0.285577 0.958331
-5.92147e-09 0.209641 0.188209 1 0 0
0.00148036 -0.392235 0.267643 -1 -1.44833e-08 -3.58466e-08
-7.73764e-09 0.171047 0.254244 1 8.2408e-09 2.03969e-08
-2.08798e-09 0.2952 0.102697 -1 1.19253e-08 -1.52636e-08
-0.0288023 0.301116 0.201387 0.999657 -0.0261944 0.000612233
0.00271696 0.181225 0.568214 0 -0.00876991 0.999962
-5.92147e-09 0.213596 0.166822 -1 0 0
-0.0242408 0.163539 0.193165 0.613209 0.106612 0.782693
-0.0411674 0.241756 0.193105 -0.374324 -0.0371077 0.926555
0.0348918 0.178006 0.188945 0.98046 -0.13745 0.140734
0.0568477 0.039265 0.107612 0.000156348 0.0791598 0.996862
-1.09788e-09 0.337792 0.071106 -1 1.19253e-08 -1.52636e-08
-0.00323923 -0.138909 0.0798468 -0.748649 0.529476 -0.398973
-1.05496e-08 0.392974 0.312254 -1 3.39838e-08 -1.27772e-07
-0.0102198 0.298058 0.155322 0.999657 -0.0261667 0.000587476
0.0042451 0.317403 0.00558361 0.748887 0.0922305 -0.656248
0.0191915 0.0376702 0.19772 0 -0.544767 0.838588
-0.00342933 0.112616 0.188706 -0.975442 0.218112 0.0306535
0.00279171 0.146701 0.295848 0.975444 0.175899 -0.132549
-0.012187 0.0783292 0.195685 0.398529 0.077294 0.913893
-2.57615e-09 0.184867 0.0880325 1 4.22508e-09 3.44105e-08
-0.0117673 0.283602 0.230372 -0.00071301 -0.0127926 0.999918
-0.04247 0.0381904 0.231 0.731917 -0.67473 0.0950649
0.00395558 0.103047 0.249457 0.626466 -0.722693 0.291987
0.00148035 -0.264298 0.287227 1 2.25183e-08 1.75936e-08
0.00148036 -0.484018 0.192148 -1 6.4476e-07 2.45791e-07
0.0262326 -0.246482 0.515947 0 -0.0826979 -0.996575
-5.92147e-09 0.366924 0.149166 1 0 0
-8.88751e-09 0.241067 0.28223 1 1.13562e-08 1.50699e-08
-0.0269561 0.232851 0.111305 0.999391 -0.0336711 0.00919543
-5.92147e-09 0.429733 0.252914 -1 0 0
-9.51837e-09 0.190149 0.31314 1 -4.90059e-09 3.4871e-08
0.0253866 0.107862 0.178768 0.989382 -0.144977 0.0102366
0.00148036 -0.168689 0.193221 1 0 0
0.00148035 -0.381028 0.317252 -1 8.82259e-09 -6.27733e-08
0.00763845 -0.33279 0.0139788 0.999102 -0.00516313 -0.042048
0.0115095 -0.293666 0.204061 0.0197944 -0.798439 0.60175
-0.00107672 -0.450567 0.132672 -0.97543 0.202789 0.0860988
0.00148036 -0.324295 0.23663 -1 2.82088e-08 -2.11387e-07
-0.0099991 0.109747 0.561105 -0.942178 -0.157108 0.296003
0.00148037 -0.196464 0.0959413 1 5.2822e-08 2.01331e-07
0.00148036 -0.154877 0.130506 1 0 0
0.00741876 -0.191467 0.0347909 0.977327 0.130355 -0.16685
-0.00452121 -0.157151 0.336243 -0.977294 0.127517 0.169224
-0.00873807 -0.193601 0.498475 -0.793414 -0.580511 0.183034
-0.0319189 0.0719374 0.167183 0.999657 -0.0261707 0.000595177
-0.0324961 0.148864 0.119061 -0.00815134 0.0578462 0.998292
0.00645754 -0.106458 0.257591 0.850284 0.484481 0.205657
-0.000393584 0.321208 0.362406 -0.481148 -0.106835 -0.870105
-0.00533061 0.47614 0.206021 -0.891508 -0.448596 -0.0630487
0.0061009 0.428337 0.324897 0.991751 -0.101003 -0.0789136
0.00507325 -0.473603 0.134727 0.627515 -0.716675 -0.304305
0.00753678 -0.094535 0.334317 -1 0 0
-1.35914e-09 0.251836 0.0458283 1 -3.70989e-09 2.63973e-08
-3.35185e-09 0.147902 0.117865 1 1.83138e-08 4.53285e-08
0.00602352 0.250315 0.380031 0.955452 0.0410769 -0.292273
0.00522958 -0.132782 0.385296 0.476384 0.629916 0.613403
0.00276995 -0.127179 0.460447 0.382866 -0.0257954 -0.923444
0.0121222 0.282705 0.188198 0 -0.864167 -0.503206
-0.00129027 0.262877 0.0300329 -0.785727 0.075387 0.613962
-0.00331426 -0.46445 0.257133 -0.975421 0.204308 -0.082532
0.00148036 -0.35186 0.12614 1 -1.92839e-08 2.4682e-08
-0.0125172 0.312657 0.192717 -0.999657 0.0261643 -0.000621066
0.00148036 -0.363752 0.280797 -1 -1.44833e-08 -3.58466e-08
0.00148035 -0.267948 0.347606 -1 -1.44833e-08 -3.58466e-08
-5.92147e-09 0.356929 0.247522 1 0 0
-0.0266039 0.275339 0.183821 0.999657 -0.0261706 0.000554575
-0.0137429 0.253217 0.201326 0.0246702 0.924954 -0.379278
-0.00806286 -0.215292 0.42924 -0.793288 -0.580665 0.183088
-0.0351501 0.0596399 0.245357 0.999657 -0.0261858 0.000580873
0.00148036 -0.252074 0.251485 1 -2.74322e-08 2.00025e-07
-0.0105946 -0.0899569 0.327314 -0.991688 -0.0922434 -0.089697
-5.92147e-09 0.412805 0.277582 -1 0 0
-0.00655534 0.138207 0.508637 -0.923882 -0.36692 0.10868
-0.00935986 -0.0395005 0.257991 0 -0.734437 -0.678677
0.00703637 -0.263588 0.00950799 0.927154 0.0521453 -0.371035
-0.0327748 0.0955938 0.184815 -0.999658 0.0261477 -0.000596691
0.00148036 -0.328144 0.162065 1 0 0
0.00148036 -0.268943 0.180857 1 0 0
-5.92147e-09 0.440922 0.141791 1 0 0
-0.000894576 -0.224654 0.382056 -0.485731 0.327452 0.810457
0.00148037 -0.280119 0.0868577 -1 1.99285e-08 -2.55067e-08
-0.111705 -0.275403 0.532156 0.169487 -0.019761 0.985334
0.00148036 -0.348396 0.208539 -1 0 0
-5.92147e-09 0.218444 0.22953 -1 0 0
-8.47755e-09 0.293886 0.272462 1 -3.29857e-08 1.20472e-07
-0.0420098 0.277752 0.210689 0 -0.827143 0.561992
-5.92147e-09 0.39705 0.200933 -1 0 0
0.00228417 0.112342 0.469844 0.383891 0.0257906 0.923018
-0.00375651 -0.120718 0.290113 -0.850127 0.484715 0.205756
-5.78885e-09 0.431605 0.109319 -1 -3.25462e-08 -1.27742e-07
-1.08876e-08 0.227055 0.348941 -1 5.21807e-09 -3.7127e-08
0.0217722 -0.230171 0.387023 -0.957339 -0.262591 -0.120616
-0.00666581 -0.109109 0.472992 -0.793327 0.0169987 0.608558
0.00148035 -0.30247 0.283794 -1 -1.98465e-08 -2.6338e-08
0.00574018 0.202129 0.361514 0.955578 0.115167 -0.271307
-1.03103e-08 0.326989 0.311892 1 1.13562e-08 1.50699e-08
0.00610977 0.376815 0.364264 0.991733 -0.0480699 -0.118976
-0.0660146 0.0479758 0.28139 6.53833e-05 -0.996924 0.078374
0.0168773 0.187839 0.362601 -0.735371 0.631118 0.246819
-8.7592e-10 0.299884 0.0342753 1 -3.70989e-09 2.63973e-08
0.0147731 0.220037 0.552986 0.266793 0.960609 0.0777879
0.00546661 -0.0223977 0.459074 0.608855 -0.0221501 -0.792973
0.00148035 -0.202179 0.336439 -1 -1.98465e-08 -2.6338e-08
0.00949477 -0.19476 0.460434 0.923891 0.364946 -0.115067
0.0435233 0.25594 0.192722 0.374323 -0.0371138 0.926555
0.117204 -0.270401 0.445305 -0.793481 -0.00616909 0.608564
0.00419961 0.0511118 0.233111 0.381492 -0.885682 0.264634
-6.93723e-09 0.128105 0.230155 1 3.28773e-09 2.67766e-08
0.00148036 -0.188853 0.162902 1 0 0
-0.00611026 0.106931 0.144289 -0.977304 -0.194999 -0.0827743
-8.73396e-09 0.220013 0.283308 1 8.2408e-09 2.03969e-08
-7.93246e-09 0.137806 0.258929 1 -1.9499e-08 4.59363e-08
0.00376771 -0.0967388 0.17981 0.486293 0.867282 -0.106492
0.00148036 -0.445891 0.229572 -1 -5.83005e-09 -4.74833e-08
0.00148036 -0.257288 0.125033 1 5.2822e-08 2.01331e-07
-0.00471135 -0.231026 0.514492 -0.608671 -0.0953173 -0.787677
-0.0226419 0.213231 0.550221 -5.76702e-06 -0.0086674 0.999962
0.00253876 0.0537016 0.19422 0 0.838705 0.544586
0.00148037 -0.38808 0.0373192 1 3.06015e-08 7.57453e-08
0.0237478 0.205405 0.566846 0.853029 0.306211 0.422584
-5.92147e-09 0.287549 0.214513 1 0 0
-5.92147e-09 0.439921 0.238905 -1 0 0
-0.00606668 0.460373 0.275697 -0.991754 -0.117972 -0.0500752
0.000780927 -0.459216 0.204905 -0.623581 0.775927 -0.0953055
-0.0350546 -0.0124252 0.214797 -0.999658 0.0261386 -0.000579254
0.00148037 -0.340072 0.0954697 -1 1.47899e-08 -3.48435e-08
0.00908664 0.100534 0.557909 0.977278 -0.134558 0.163775
0.111266 -0.300926 0.475606 -0.955612 -0.245796 -0.162451
0.0059309 0.179368 0.347013 0.955563 0.181491 -0.232292
-0.0273797 -0.231836 0.37134 -0.787728 -0.540868 0.294867
0.00148036 -0.126954 0.143166 1 0 0
0.0102867 0.182426 0.538928 0.145284 0.0624747 -0.987415
-0.0251118 0.208645 0.311829 0.312371 -0.803846 -0.506218
-0.0610219 0.0529806 0.303685 -1 0 0
-0.0121517 0.0867789 0.182918 0.870895 0.143776 -0.469969
0.0434984 0.285235 0.209961 0 0.999991 0.00413404
-4.94498e-09 0.180139 0.166781 -1 -3.25462e-08 -1.27742e-07
0.00148037 -0.252299 0.0418479 1 -1.42337e-08 3.35329e-08
0.00148035 -0.366556 0.336223 -1 8.82259e-09 -6.27733e-08
-0.0136424 0.268802 0.154222 -0.999657 0.0261696 -0.000603806
-5.92147e-09 0.410324 0.223693 1 0 0
-5.92147e-09 0.342357 0.242684 1 0 0
0.00148036 -0.198485 0.145822 1 0 0
0.120737 -0.279864 0.523311 0.920456 -0.139816 0.364983
-0.0333521 0.0739538 0.202996 -0.999657 0.0261762 -0.000593387
0.00148035 -0.233232 0.358755 1 1.39331e-08 3.44866e-08
-0.0439176 -0.242906 0.5315 0 0.569535 0.821967
0.00765769 -0.443045 0.308912 0.991721 0.102547 -0.0772832
0.0140917 -0.190735 0.491103 0.789338 0.0828076 0.608349
-0.0340494 0.0453267 0.178652 -0.999669 0.0256865 0.00114099
-2.25011e-09 0.212922 0.0751128 1 4.22508e-09 3.44105e-08
-0.0288042 -0.248469 0.32883 -0.608229 -0.747399 0.267304
-5.92147e-09 0.231494 0.200729 -1 0 0
0.00148037 -0.406818 0.0843558 -1 -3.34187e-08 -8.27215e-08
-0.0375572 0.242497 0.265688 -0.911423 0.285947 0.295876
-0.0325771 0.0480596 0.2229 0.999657 -0.0261817 0.000599831
-1.81782e-09 0.321333 0.0964299 1 -1.15396e-08 1.47702e-08
0.00502774 -0.166232 0.476208 0.608699 0.0221525 0.793092
0.0860156 -0.246228 0.515982 0.0111256 0.178486 -0.98388
0.00148035 -0.312977 0.315875 1 1.39331e-08 3.44866e-08
0.0307861 0.218565 0.308653 0.579449 0.674255 0.457843
0.00148035 -0.248361 0.307178 -1 -1.98465e-08 -2.6338e-08
-0.00380272 0.466563 0.228182 -0.975441 -0.218115 -0.0306554
0.00148036 -0.213657 0.221046 -1 0 0
0.00262758 0.327418 0.388075 0.486306 0.106497 0.867275
0.0254936 0.16356 0.563325 0.88623 -0.32496 0.330147
-4.5852e-09 0.305753 0.129723 1 3.1609e-08 1.20479e-07
0.00372584 0.13251 0.442765 -0.545962 -0.687906 -0.478237
-1.29829e-09 0.410052 0.0750767 1 3.1609e-08 1.20479e-07
0.00148035 -0.409093 0.327374 -1 9.60682e-08 -1.22964e-07
-8.3365e-10 0.327705 0.0422084 1 -8.51773e-09 2.00662e-08
0.00148036 -0.452219 0.163695 -1 -7.50983e-09 -6.11615e-08
-0.116826 -0.264204 0.437871 0.923739 0.00387579 -0.383002
0.00148035 -0.237142 0.273708 -1 -2.31948e-08 -1.81218e-08
-5.92147e-09 0.143115 0.188734 -1 0 0
-6.65577e-09 0.250633 0.245497 1 -3.29857e-08 1.20472e-07
-3.93085e-09 0.396111 0.100585 1 3.1609e-08 1.20479e-07
-0.00502179 0.148409 0.0663901 -0.850283 -0.41475 -0.324038
0.00753678 -0.0566811 0.277113 -1 0 0
0.00148036 -0.387677 0.143213 1 -1.92839e-08 2.4682e-08
-5.92147e-09 0.375772 0.219616 1 0 0
-0.0109716 0.138261 0.540711 -0.828583 0.0484444 0.557766
-0.00793119 -0.205821 0.404454 0.0523909 -0.942462 0.330183
-0.0170496 0.283395 0.20122 0.999657 -0.0261678 0.000582402
0.00148035 -0.146921 0.28627 1 -2.74322e-08 2.00025e-07
0.00141955 0.381515 0.053445 0.832572 -0.341026 0.436493
-4.9906e-09 0.362211 0.12075 -1 -3.25462e-08 -1.27742e-07
0.00148036 -0.159096 0.095859 1 5.2822e-08 2.01331e-07
-0.048711 0.0379896 0.197639 1 0 0
0.00148037 -0.317701 0.104663 -1 1.47899e-08 -3.48435e-08
0.00148037 -0.250186 0.0690344 -1 1.99285e-08 -2.55067e-08
-0.00212924 0.120913 0.410503 -0.128793 0.9486 -0.289086
-2.51143e-09 0.259724 0.0969636 1 -8.51773e-09 2.00662e-08
0.00167777 0.43219 0.0613816 0.333121 0.753024 -0.567438
0.0279413 -0.242271 0.329843 -0.993719 -0.110391 -0.0183132
-0.0104143 -0.131905 0.364511 -0.991444 -0.0959358 -0.0885117
-0.00327848 0.272139 0.390126 -0.626601 -0.108453 0.771757
0.00174667 0.156814 0.0919768 0.954559 0.234843 0.183484
-1.02025e-08 0.209351 0.335458 1 -4.90059e-09 3.4871e-08
0.00148036 -0.389796 0.240323 -1 -1.98465e-08 -2.6338e-08
-9.4002e-09 0.362763 0.298979 1 -3.29857e-08 1.20472e-07
0.00715448 -0.18367 0.530562 0 0.30069 0.953722
-5.92147e-09 0.382675 0.175105 1 0 0
0.0185182 0.167108 0.392786 0.976129 0.0741508 0.204143
0.0316217 0.031188 0.14636 -0.731795 -0.681425 0.0116589
-0.00146252 0.0613237 0.471404 -0.130688 0.0276832 0.991037
0.00425798 0.0972087 0.387305 0.381492 -0.885682 0.264634
-0.00406454 -0.107769 0.233379 -0.891549 -0.448516 -0.063035
0.00555115 0.162951 0.568055 2.17496e-05 -0.00876193 0.999962
0.00148035 -0.191619 0.308289 1 2.25183e-08 1.75936e-08
-0.0106583 -0.18399 0.424719 -0.991151 -0.0951695 -0.0925329
-0.00350188 0.0344183 0.471516 -0.382671 0.0257951 0.923524
0.00148036 -0.345799 0.178358 1 0 0
-9.50177e-09 0.256662 0.299481 -1 -8.56583e-09 -2.12018e-08
0.00148036 -0.287562 0.176847 -1 0 0
-0.0413437 0.289999 0.201194 1 0 0
-0.0811322 -0.254938 0.525983 0 -0.94108 0.338183
-3.53282e-09 0.208053 0.130408 -1 8.85044e-09 -2.08507e-08
0.00148037 -0.233461 0.109643 -1 -5.43884e-08 -2.1347e-07
0.00760916 -0.43933 0.0845078 0.991766 0.100915 0.0788382
-0.0326149 0.0670203 0.119337 -0.999394 0.0335953 -0.00915678
-5.41833e-09 0.27669 0.145887 -1 -3.25462e-08 -1.27742e-07
0.00148037 -0.340552 0.0403256 -1 -7.50983e-09 -6.11615e-08
0.00148036 -0.156792 0.236808 1 0 0
0.00148036 -0.380174 0.16863 -1 -5.43884e-08 -2.1347e-07
-1.13621e-08 0.342519 0.35254 -1 -8.56583e-09 -2.12018e-08
0.00592776 -0.25069 0.531494 0 -0.42659 0.904445
0.00148036 -0.420979 0.204995 1 0 0
-0.0406414 0.0550632 0.290472 -1 0 0
0.00101246 0.129497 0.493629 0.130628 -0.950602 0.281588
0.00617097 0.474347 0.149386 0.999102 0.0420489 -0.00516336
0.00148036 -0.387201 0.118022 1 -6.19963e-09 4.41122e-08
0.0298686 -0.250243 0.531705 0 -0.42659 0.904445
-4.4198e-09 0.133136 0.150573 -1 -4.49389e-09 -3.65998e-08
-0.013825 -0.291696 0.205819 0.022679 -0.138493 0.990104
-0.0248073 0.302304 0.10947 1 0 0
0.00148036 -0.31946 0.258383 -1 -2.31948e-08 -1.81218e-08
-0.0102983 0.0281018 0.202341 -0.999565 -0.0205666 -0.0211373
-4.11657e-09 0.16771 0.138464 1 -3.70989e-09 2.63973e-08
0.00148035 -0.298995 0.368255 1 5.5588e-09 4.52729e-08
0.00148036 -0.249041 0.155744 1 0 0
0.00148036 -0.294601 0.225784 1 -2.74322e-08 2.00025e-07
-5.92147e-09 0.454356 0.184976 -1 0 0
-0.00269385 0.457442 0.0956505 -0.486486 0.697756 -0.525801
0.00148037 -0.309716 0.0452247 1 -6.19963e-09 4.41122e-08
-0.0346431 0.0238698 0.168983 -0.999658 0.0261577 -0.000598435
-1.08209e-08 0.294143 0.346289 -1 -3.44861e-09 -2.80834e-08
-0.0122353 0.308077 0.220881 -0.0159202 -0.589389 0.807692
-5.92147e-09 0.183878 0.197119 1 0 0
-5.92147e-09 0.345373 0.17922 1 0 0
-5.92147e-09 0.168495 0.191637 1 0 0
0.00148036 -0.149102 0.183029 -1 0 0
0.0315434 0.0318511 0.180206 -0.731795 -0.681425 0.0116589
-0.00317008 0.202523 0.0230475 -0.48638 -0.327309 -0.810126
0.0308007 0.0314993 0.113001 -0.731886 -0.681328 0.0116514
0.00356581 0.254299 0.00606997 0.626331 -0.0950041 -0.773747
0.00148036 -0.309158 0.147578 -1 -5.43884e-08 -2.1347e-07
0.00080942 0.016635 0.234098 0.155487 0.707113 0.689794
0.0327738 -0.245485 0.273492 -0.857165 0.0391259 -0.513554
0.0775502 0.0371626 0.0838341 0 0.545 -0.838436
0.00592789 0.444666 0.30836 0.977326 0.166852 0.130363
0.00148035 -0.160033 0.311453 1 2.25183e-08 1.75936e-08
0.00148036 -0.435745 0.129927 -1 -3.34187e-08 -8.27215e-08
-0.00435846 -0.172386 0.0492544 -0.927152 0.230677 -0.295259
-0.0370536 -0.0148991 0.16469 0.999658 -0.0261457 0.000576858
0.0385348 0.254023 0.24623 0.309024 0.812551 0.494231
-0.00184389 -0.157994 0.412838 -0.128604 0.709917 0.692444
-8.62202e-09 0.309031 0.274841 -1 3.39838e-08 -1.27772e-07
-0.0313332 0.130213 0.23628 -0.999657 0.026199 -0.000597676
-0.0444399 0.0585998 0.217183 0 0.999854 -0.017107
-8.65236e-09 0.201617 0.285182 1 3.28773e-09 2.67766e-08
-5.92147e-09 0.238847 0.17028 -1 0 0
-8.73468e-09 0.415495 0.304039 -1 3.39838e-08 -1.27772e-07
-4.55335e-09 0.375741 0.11388 -1 -3.25462e-08 -1.27742e-07
0.00148037 -0.22245 0.0426427 1 -1.42337e-08 3.35329e-08
-0.0287066 0.30419 0.175762 0.999658 -0.0261488 0.000606677
-5.92147e-09 0.33181 0.135658 1 0 0
-0.0316986 0.191053 0.226404 -0.999657 0.0261846 -0.000612146
0.00148037 -0.287508 0.0302698 -1 6.49851e-09 -4.62389e-08
-0.00270982 0.116011 0.452462 -0.381684 -0.885719 0.264233
-1.91619e-09 0.26498 0.0695314 1 -8.51773e-09 2.00662e-08
-0.0101442 0.301616 0.18484 0.999657 -0.0261682 0.000609391
0.00148035 -0.286914 0.36128 1 5.5588e-09 4.52729e-08
-0.0382036 -0.285812 0.222165 0.606902 0.730444 -0.313245
0.0162801 0.120133 0.191326 -0.954059 0.152404 0.257963
-0.130907 -0.273401 0.446815 -0.802798 0.244036 0.544023
-0.0487722 0.265196 0.180066 0 0.262168 -0.965022
0.00765222 -0.0599266 0.463047 0.923973 -0.0106804 -0.382308
0.00148036 -0.374779 0.224671 -1 2.82088e-08 -2.11387e-07
-1.35618e-09 0.352599 0.0896019 1 -1.15396e-08 1.47702e-08
0.131926 -0.234642 0.438292 0.923957 0.0038759 -0.382478
-0.000772362 0.198206 0.551688 0.0006012 -0.00878233 0.999961
-0.0278153 0.245065 0.21653 0.99966 -0.0260537 0.000599764
0.0810592 -0.246586 0.53245 0 0.0822603 0.996611
0.00148037 -0.41143 0.0488066 1 7.78752e-08 1.03327e-07
0.035682 0.0470289 0.199963 0.731957 0.141821 0.666427
6.45634e-06 -0.3273 0.364511 -0.874377 0.0675348 -0.480524
0.00677163 -0.306043 0.390295 0.850086 -0.0732939 0.521519
0.00148037 -0.287605 0.0626068 -1 1.47899e-08 -3.48435e-08
-0.0280715 0.301918 0.129213 -0.999934 0.0114671 -1.47089e-05
0.00148037 -0.375129 0.0794581 1 7.06041e-09 5.75028e-08
0.00148036 -0.342358 0.13987 -1 1.99285e-08 -2.55067e-08
-0.00177973 -0.439777 0.0750035 -0.627393 -0.613637 -0.479404
-9.48991e-09 0.278844 0.286027 -1 -1.17384e-08 -1.5577e-08
-0.0122677 0.312055 0.16906 -0.0244713 -0.93137 0.363251
0.00453321 -0.310185 0.00573284 0.486298 -0.106482 -0.867281
-0.0223153 0.148255 0.183195 0.732517 0.125563 -0.669069
-4.17978e-09 0.228966 0.146504 1 3.1609e-08 1.20479e-07
0.00148037 -0.200568 0.0663 -1 1.99285e-08 -2.55067e-08
0.00180008 0.16459 0.312327 0.954468 0.238245 -0.179529
-5.92147e-09 0.266767 0.20304 -1 0 0
-6.01821e-09 0.323716 0.260215 1 -3.29857e-08 1.20472e-07
0.00182899 -0.104344 0.138561 0.170606 0.913595 -0.369104
0.00148035 -0.179191 0.331049 1 1.92008e-08 2.54794e-08
0.00347891 -0.12232 0.165881 0.975439 -0.218628 0.0268481
0.00148036 -0.375367 0.248129 -1 -1.98465e-08 -2.6338e-08
0.00455209 0.116868 0.112199 0.748965 -0.609933 -0.258906
0.00148035 -0.255402 0.332379 -1 -1.44833e-08 -3.58466e-08
-0.00175867 -0.136923 0.109523 -0.975439 -0.175916 0.132561
-5.92147e-09 0.345029 0.21943 -1 0 0
-5.92147e-09 0.425063 0.157494 1 0 0
-0.00315483 -0.346475 0.384394 -0.749074 -0.258857 0.609821
0.0022355 0.390198 0.336835 0.975441 -0.132557 -0.175905
-0.112147 -0.273741 0.514307 0.127324 0.498648 -0.857403
0.010341 -0.214041 0.413679 0.547013 0.18202 0.817096
0.00148036 -0.130603 0.239557 -1 0 0
0.132515 -0.268601 0.440183 0.991411 0.00132522 -0.130774
0.00148036 -0.315681 0.211959 1 0 0
-0.0043821 -0.157912 0.065717 -0.95544 -0.181736 0.232607
0.0367551 0.194675 0.191023 0.95077 -0.131784 0.28048
0.00148035 -0.207707 0.26273 -1 2.82088e-08 -2.11387e-07
-9.75021e-09 0.298051 0.296536 1 1.13562e-08 1.50699e-08
0.00148036 -0.342218 0.267826 -1 -1.98465e-08 -2.6338e-08
-0.0140879 -0.187203 0.486643 -0.917064 0.000901648 -0.398739
-4.46602e-10 0.359752 0.0467845 -1 8.85044e-09 -2.08507e-08
-1.02612e-08 0.259859 0.330569 -1 -3.44861e-09 -2.80834e-08
-1.35992e-09 0.224947 0.0556959 -1 -4.49389e-09 -3.65998e-08
0.00148036 -0.412644 0.251101 -1 -1.44833e-08 -3.58466e-08
-0.0358649 -0.263205 0.269459 0.957472 -0.173311 -0.230674
0.00148035 -0.264438 0.373892 1 5.5588e-09 4.52729e-08
-5.92147e-09 0.386145 0.267735 1 0 0
-1.32439e-09 0.190296 0.0645625 -1 -2.00005e-08 -4.95038e-08
0.00148036 -0.407984 0.186234 -1 0 0
0.00148037 -0.348636 0.0797909 -1 6.49851e-09 -4.62389e-08
0.00148036 -0.170809 0.145661 -1 0 0
-6.65724e-09 0.274453 0.250267 -1 3.39838e-08 -1.27772e-07
0.00546728 0.0172559 0.457967 0.608855 -0.0221501 -0.792973
0.00848349 0.0732904 0.278987 0.991262 0.125866 -0.0394688
0.00117167 0.130019 0.567767 0 -0.00878004 0.999961
0.00148037 -0.424207 0.100493 1 3.06015e-08 7.57453e-08
0.0405512 -0.264851 0.239764 0.592124 0.665054 -0.455074
0.00365045 -0.363861 0.0434765 0.97544 0.0825164 0.204225
-0.00457173 -0.205457 0.0288664 -0.977332 0.082724 -0.194884
0.00573313 -0.122826 0.34848 0.641546 -0.550046 -0.534666
0.00493971 -0.180041 0.406608 0.396822 -0.658288 -0.639679
-1.28104e-09 0.315423 0.067988 -1 8.85044e-09 -2.08507e-08
-5.92147e-09 0.327434 0.196443 1 0 0
-0.010677 -0.201866 0.445865 -0.991451 0.124443 -0.0392372
0.00101161 0.163718 0.542804 0.00426409 -0.00872878 0.999953
0.00148035 -0.351579 0.354908 1 -8.28611e-09 5.89587e-08
-0.00981494 -0.202144 0.419813 -0.914936 0.153194 -0.373396
0.00148036 -0.441504 0.248301 1 -8.28611e-09 5.89587e-08
-0.00822693 0.090354 0.556762 -0.994508 -0.0832119 0.0634751
-0.00499398 0.371274 0.0311575 -0.975442 -0.0860593 0.202747
0.00148036 -0.138936 0.153973 -1 0 0
0.00148035 -0.465108 0.271113 1 -2.08664e-07 1.57235e-07
0.00148037 -0.162323 0.0793492 -1 -5.43884e-08 -2.1347e-07
-7.86353e-09 0.192699 0.246534 -1 -1.17384e-08 -1.5577e-08
0.00148037 -0.299051 0.100574 -1 1.99285e-08 -2.55067e-08
0.00187441 -0.14716 0.401751 0.128582 0.709718 0.692652
-1.02062e-08 0.13844 0.311882 1 2.92648e-07 -7.6229e-08
-0.00698633 -0.0204642 0.26757 -0.6029 0.572384 0.555777
-5.92147e-09 0.389065 0.143766 1 0 0
0.00638 -0.141995 0.36895 0.625383 -0.559408 -0.544021
-0.00186268 0.133003 0.131921 -0.975441 0.202751 0.0860654
-8.33726e-09 0.156538 0.274546 1 -4.90059e-09 3.4871e-08
-7.23316e-10 0.360459 0.0642764 -1 1.19253e-08 -1.52636e-08
0.00148036 -0.273726 0.127252 -1 -5.43884e-08 -2.1347e-07
-0.117328 -0.288612 0.466452 0.54156 0.773175 0.33002
0.00753678 -0.0834558 0.313965 -1 0 0
-0.00233963 0.326577 0.02787 -0.975442 -0.0306537 0.218113
0.00148035 -0.211442 0.310212 -1 -2.31948e-08 -1.81218e-08
-2.01168e-09 0.288405 0.0842335 1 -8.51773e-09 2.00662e-08
0.00148037 -0.22473 0.0866353 -1 1.99285e-08 -2.55067e-08
0.0503373 0.0310736 0.065718 1 0 0
0.00148036 -0.36542 0.196617 1 0 0
-0.0328239 0.293058 0.15745 0 -0.0784068 -0.996921
-0.00450733 -0.381349 0.363279 -0.955652 0.115061 -0.271089
0.00372736 0.451886 0.120068 0.975439 -0.20423 0.0825163
-1.05208e-08 0.246183 0.349489 1 3.28773e-09 2.67766e-08
-0.00330774 0.289792 0.374856 -0.975445 -0.0268439 -0.2186
-0.000929097 0.126099 0.551059 -0.000195371 -0.00863282 0.999963
-1.06641e-08 0.323366 0.33618 1 8.2408e-09 2.03969e-08
-4.2248e-10 0.400549 0.0638491 1 -1.15396e-08 1.47702e-08
-0.0358079 0.0345731 0.247895 0.99966 -0.0260689 0.000577368
0.00148036 -0.241286 0.236483 -1 2.82088e-08 -2.11387e-07
0.00148036 -0.227184 0.16203 1 0 0
0.00439765 -0.440258 0.106598 0.975442 0.173572 0.135591
0.00148035 -0.28381 0.297999 -1 -1.98465e-08 -2.6338e-08
-0.0107107 0.279873 0.18032 0.999657 -0.0261663 0.000633769
0.00148035 -0.353655 0.296496 -1 -1.44833e-08 -3.58466e-08
-5.92147e-09 0.413197 0.250927 -1 0 0
-0.0275066 0.296808 0.183885 -0.999657 0.0261784 -0.000579791
-0.00464434 0.297748 0.0135113 -0.975442 -0.0306537 0.218113
-0.0021332 -0.46736 0.179182 -0.975442 0.218111 0.0306485
0.0407515 0.297542 0.191007 -1 0 0
-0.0340734 0.0447512 0.130237 -0.999656 0.0262012 -0.000598115
-0.00456586 -0.0808627 0.304261 -0.432072 -0.646773 -0.628489
0.00148035 -0.289815 0.338657 -1 -1.44833e-08 -3.58466e-08
-0.0352678 0.180457 0.188718 -0.98046 -0.13745 0.140735
0.00654196 -0.154461 0.324399 0.975443 -0.173559 -0.1356
-0.0297139 0.209316 0.111373 0.999391 -0.0336533 0.00919394
0.00525102 -0.479351 0.24789 0.625276 -0.723567 0.29237
-0.00468089 -0.114638 0.267503 -0.999103 0.0389846 0.0165475
-7.31267e-09 0.170028 0.231261 1 1.13562e-08 1.50699e-08
-3.83712e-09 0.204183 0.146182 -1 1.19253e-08 -1.52636e-08
0.00148036 -0.389747 0.296377 1 5.5588e-09 4.52729e-08
-0.015355 0.168985 0.568107 -0.000115929 -0.00859515 0.999963
0.00850962 0.07329 0.187408 -0.982603 0.156495 -0.100002
-0.00259037 0.180184 0.330842 -0.975444 0.135597 -0.17356
0.124196 -0.302305 0.493954 0.831684 -0.491422 0.25847
-0.0418698 0.0340113 0.18242 0.731867 -0.571471 -0.371202
0.00731832 -0.0420391 0.470267 0.79342 0.0169953 0.608438
-0.00876347 -0.0110066 0.255085 -0.766453 0.460865 0.447385
0.00300447 0.225087 0.0341506 0.975441 0.0825113 0.204221
-5.92147e-09 0.423341 0.199923 1 0 0
0.00148036 -0.211101 0.12287 -1 -5.43884e-08 -2.1347e-07
-0.00438839 0.11737 0.25288 -0.975439 0.204233 -0.0825109
0.00148035 -0.390314 0.332213 -1 3.60677e-08 -8.49796e-08
-3.15834e-10 0.180972 0.0400321 1 4.65889e-08 6.18266e-08
0.00148036 -0.181706 0.217245 1 0 0
-0.0052066 0.216038 0.366219 -0.891551 0.176972 -0.416915
-5.92147e-09 0.424908 0.180608 -1 0 0
-0.0352664 0.000127535 0.171896 -0.999658 0.0261615 -0.000590775
-5.92147e-09 0.455264 0.241112 -1 0 0
0.000904647 -0.349722 0.0124694 -0.171293 -0.369054 -0.913487
-8.4691e-09 0.233993 0.259796 1 1.13562e-08 1.50699e-08
-0.00727116 0.0670263 0.276855 -0.75784 -0.625015 0.187174
-2.94621e-09 0.255506 0.121397 1 -1.15396e-08 1.47702e-08
0.00458242 -0.211983 0.356707 0.975439 -0.0825167 -0.204231
-0.00589308 -0.0727983 0.472934 -0.608703 0.0221532 0.793088
-9.3795e-09 0.216609 0.304486 -1 -3.44861e-09 -2.80834e-08
-0.110587 -0.295632 0.485408 0.844983 0.508769 -0.164796
0.000615442 -0.186703 0.442502 0.128582 0.709718 0.692652
-0.00149935 0.443494 0.269213 -0.874241 -0.446898 -0.189698
-0.0326065 0.0817373 0.243541 -0.999657 0.0261874 -0.000554747
-0.0105292 -0.145205 0.381888 -0.999565 -0.0205666 -0.0211373
-0.0402456 -0.249554 0.516467 0 -0.337766 -0.94123
-0.0122238 0.17236 0.393855 0.29207 0.847349 0.443502
0.00852494 -0.108764 0.356147 0.788786 0.440845 0.428337
0.00148036 -0.443393 0.205697 1 -2.74322e-08 2.00025e-07
0.0043847 0.131236 0.287048 0.975444 0.175899 -0.132549
0.00148037 -0.319954 0.0292076 -1 -7.50983e-09 -6.11615e-08
0.00392863 0.0596462 0.455709 0.382866 -0.0257954 -0.923444
0.00764884 -0.412102 0.342887 0.999108 -0.0260019 0.03328
-5.92147e-09 0.128752 0.204997 -1 0 0
-0.0280415 0.267341 0.200009 -0.0265365 -0.987687 0.154177
0.00469927 -0.0469503 0.297566 0.476384 0.629916 0.613403
-0.0197426 -0.215675 0.376408 0.961723 0.154077 -0.226605
0.00148036 -0.258714 0.199513 -1 0 0
0.00148037 -0.405441 0.066389 1 3.06015e-08 7.57453e-08
-0.0319193 0.0732779 0.226891 0.999657 -0.0261671 0.00059453
-0.0174398 0.0605697 0.192022 0.99101 0.133213 -0.0123663
0.00148037 -0.268753 0.105045 -1 1.99285e-08 -2.55067e-08
-0.0376296 0.222078 0.193731 -0.179709 -0.00734257 0.983692
-0.026964 0.276455 0.166755 0.999656 -0.0262114 0.000562581
0.0106586 -0.0676631 0.294884 1 0 0
-0.00994235 -0.0434971 0.284493 -0.999558 0.0192028 0.0227046
0.00148036 -0.162379 0.261822 -1 2.82088e-08 -2.11387e-07
0.0146183 0.0423007 0.177183 0 -0.20803 -0.978122
-0.0257829 -0.233858 0.323592 -0.982597 -0.155671 0.101335
-5.92147e-09 0.307133 0.199892 1 0 0
0.00148037 -0.355832 0.106589 1 -1.42337e-08 3.35329e-08
0.00148035 -0.342299 0.335019 1 5.5588e-09 4.52729e-08
0.00148036 -0.292604 0.124434 1 5.2822e-08 2.01331e-07
0.00237751 -0.16136 0.461239 0.382866 -0.0257954 -0.923444
-0.0305609 0.127977 0.119226 -0.999392 0.0336266 -0.00916758
0.00148037 -0.349428 0.0597273 1 7.06041e-09 5.75028e-08
0.00148036 -0.342669 0.226807 -1 2.82088e-08 -2.11387e-07
-3.31655e-09 0.416349 0.0938517 -1 -3.25462e-08 -1.27742e-07
-6.25996e-09 0.294014 0.25409 1 -3.29857e-08 1.20472e-07
-0.00897997 -0.194274 0.516913 -0.991445 -0.0156801 -0.129576
-8.86973e-09 0.16643 0.291206 1 -4.90059e-09 3.4871e-08
-0.00694515 0.14587 0.439128 -0.293319 0.803233 0.51844
0.00148035 -0.27034 0.267321 -1 -2.31948e-08 -1.81218e-08
0.00148036 -0.210325 0.240563 -1 2.82088e-08 -2.11387e-07
-5.92147e-09 0.248545 0.197504 -1 0 0
0.00560194 -0.443665 0.294946 0.975443 0.175903 -0.132546
0.00148036 -0.415433 0.270865 -1 8.82259e-09 -6.27733e-08
0.00263494 0.0912343 0.313906 0.382821 0.883781 -0.269034
-1.41567e-09 0.271789 0.0507741 1 -3.70989e-09 2.63973e-08
-0.00283194 0.166178 0.0723278 -0.975441 0.17357 0.135603
-5.92147e-09 0.376496 0.254616 -1 0 0
-0.0332827 0.00564864 0.137071 -0.0260966 -0.994646 -0.09999
0.00148036 -0.301973 0.193322 -1 0 0
0.0375261 -0.285163 0.200426 0 -0.372849 -0.927892
-5.2514e-09 0.124626 0.176164 1 -8.51773e-09 2.00662e-08
0.028355 0.128161 0.184276 0.98965 -0.143472 -0.00291701
-0.020133 0.0354007 0.184891 -1 0 0
-8.1229e-05 -0.211636 0.510805 -0.130539 -0.119107 -0.984263
0.0231654 -0.221735 0.371104 -0.983932 0.0495117 -0.171542
0.00229511 0.46042 0.2941 0.486143 0.804413 0.341445
0.00148036 -0.43637 0.153332 1 -6.19963e-09 4.41122e-08
0.000534858 0.0311061 0.219325 0.155487 0.707113 0.689794
0.00148037 -0.267647 0.0264581 1 -6.19963e-09 4.41122e-08
0.00148036 -0.325971 0.136647 1 5.2822e-08 2.01331e-07
-5.92147e-09 0.347896 0.145431 -1 0 0
0.00148037 -0.197387 0.0521002 -1 1.99285e-08 -2.55067e-08
-0.00128008 0.459112 0.209793 -0.785458 -0.612893 -0.0861254
0.0108592 0.1634 0.405946 -0.495166 0.783738 0.374921
-5.92147e-09 0.268059 0.236455 1 0 0
-0.0327708 0.0951439 0.158202 -0.999657 0.0261725 -0.000593198
-0.0263333 0.160617 0.553726 -0.939108 -0.34158 0.0373974
-7.35423e-09 0.107943 0.230383 1 -4.90177e-08 6.274e-08
-1.03767e-08 0.344796 0.302882 1 1.13562e-08 1.50699e-08
-6.52302e-09 0.361171 0.274661 1 -3.29857e-08 1.20472e-07
0.00148036 -0.176219 0.0942844 1 5.2822e-08 2.01331e-07
-1.14011e-08 0.258956 0.367255 -1 5.21807e-09 -3.7127e-08
9.23472e-05 0.149415 0.551263 -0.000374037 -0.00863667 0.999963
0.0349197 0.057539 0.186142 0.731931 0.674715 -0.0950637
-0.00483497 -0.132177 0.475405 -0.608703 0.0221532 0.793088
0.00464443 -0.224221 0.410348 0.0639511 -0.93766 0.34162
-0.00734843 0.0615449 0.18416 0.947656 0.152765 -0.280376
-1.03595e-08 0.277359 0.331573 -1 -8.56583e-09 -2.12018e-08
-7.6341e-09 0.151098 0.25038 -1 -3.44861e-09 -2.80834e-08
-0.048711 0.0450667 0.252132 1 0 0
-0.0124302 -0.221831 0.406486 -0.359299 0.294625 0.885495
-5.92147e-09 0.209041 0.212045 -1 0 0
-0.00488476 0.255632 0.386235 -0.850217 -0.0732557 0.52131
-0.0292581 0.264995 0.217281 0.999658 -0.0261281 0.000606665
0.0483136 0.0394838 0.0844492 0 0.891208 -0.453594
-0.0193301 0.253099 0.187076 -0.00652424 -0.263947 -0.964515
-5.92147e-09 0.466764 0.16453 1 0 0
-0.0262027 0.255105 0.110875 0.999384 -0.0338724 0.00920979
0.00148035 -0.236211 0.295564 1 2.25183e-08 1.75936e-08
-5.92147e-09 0.459389 0.136279 1 0 0
0.00148036 -0.371819 0.120496 -1 1.47899e-08 -3.48435e-08
-1.18106e-08 0.394721 0.360407 1 1.13562e-08 1.50699e-08
0.00148036 -0.310775 0.169807 -1 0 0
0.00148037 -0.337711 0.113427 -1 1.47899e-08 -3.48435e-08
0.113352 -0.296295 0.460787 -0.943052 -0.218756 -0.250596
-9.29406e-09 0.236011 0.304304 1 8.2408e-09 2.03969e-08
-1.64095e-11 0.361165 0.0156843 1 -8.51773e-09 2.00662e-08
0.0180382 0.194721 0.34793 -0.870237 0.474142 0.133701
0.00328116 0.279662 0.0202994 0.975442 0.026842 0.218615
-5.92147e-09 0.343302 0.262725 1 0 0
-1.1204e-08 0.372905 0.336596 1 1.13562e-08 1.50699e-08
-0.00904755 -0.0209741 0.238649 0 -0.254424 -0.967093
-0.00165055 -0.426226 0.310801 -0.975451 0.175876 -0.132525
0.00148036 -0.174162 0.126834 -1 0 0
-5.92147e-09 0.311835 0.183685 1 0 0
0.00330641 -0.125365 0.094324 0.332952 0.753067 -0.567479
-1.16514e-08 0.310166 0.373895 -1 -3.44861e-09 -2.80834e-08
-0.0286274 0.197691 0.55997 -0.967046 0.188212 0.17146
0.00206378 0.0326992 0.188536 0 -0.998629 -0.0523518
0.00327041 -0.181752 0.47765 0.382597 0.0257954 0.923555
-1.14455e-08 0.405206 0.328279 1 1.13562e-08 1.50699e-08
-0.0334366 0.0703487 0.186316 -0.999658 0.0261574 -0.000593274
0.00150732 -0.138068 0.127603 0.408436 -0.84632 0.341939
0.00148036 -0.169592 0.173669 -1 0 0
0.00148037 -0.363832 0.0564345 1 7.06041e-09 5.75028e-08
-0.0326365 0.0453654 0.204082 0.999657 -0.0261859 0.000588841
0.00148036 -0.187432 0.200916 1 0 0
0.00148035 -0.373695 0.29925 -1 -5.83005e-09 -4.74833e-08
0.00148036 -0.403382 0.20701 1 0 0
0.00148036 -0.397917 0.131796 1 -1.42337e-08 3.35329e-08
-0.00144136 0.144094 0.492677 -0.130426 0.950629 -0.28159
0.00148037 -0.251245 0.0222609 -1 6.49851e-09 -4.62389e-08
-5.92147e-09 0.415108 0.114901 -1 0 0
0.00490262 0.462387 0.261754 0.975441 -0.202753 -0.0860577
-0.00441064 -0.272875 0.388553 -0.977357 0.0257907 0.210019
0.00148036 -0.188927 0.25831 -1 2.82088e-08 -2.11387e-07
-0.00350836 0.275504 0.373998 -0.975446 0.0306511 -0.218095
-0.0883429 0.0516443 0.267803 0.266224 -0.960939 0.0756381
0.00612088 0.199444 0.568373 0.000201172 -0.00878633 0.999961
-0.00659448 0.103158 0.361878 -0.783045 0.594972 -0.181243
0.00148035 -0.267484 0.307843 1 1.92008e-08 2.54794e-08
0.00616312 0.477734 0.218607 0.999103 0.0419428 0.00589449
-0.0019362 -0.460891 0.147252 -0.97543 0.202789 0.0860988
0.00148036 -0.394368 0.221851 1 -2.74322e-08 2.00025e-07
-1.972e-09 0.133388 0.101189 1 -2.87137e-07 -7.80892e-08
0.037822 -0.25297 0.25515 0.382211 0.866858 -0.320112
-5.92147e-09 0.371672 0.163642 1 0 0
-5.92147e-09 0.239366 0.230189 -1 0 0
0.00774767 -0.142732 0.468489 -0.999176 -0.0102219 0.0392722
0.00148036 -0.159274 0.21826 1 0 0
-0.000242253 -0.484482 0.216062 -0.332749 -0.93598 0.114981
0.00560446 -0.129999 0.282319 0.975443 -0.202741 -0.0860613
0.00694596 0.125676 0.459359 -0.139715 -0.493234 0.858603
-0.0030485 -0.106902 0.201301 -0.975439 -0.218125 -0.0306554
-5.92147e-09 0.0971797 0.181687 1 0 0
0.007221 -0.2388 0.378719 0.955456 -0.110558 -0.273643
-7.20313e-13 0.333157 0.0161125 -1 3.88878e-09 -2.76699e-08
-0.0132562 0.283829 0.1664 -0.999657 0.0261723 -0.000594723
-0.00302377 0.115885 0.214656 -0.975439 0.218629 -0.0268428
-0.00573307 0.434578 0.314483 -0.955506 -0.232443 -0.181601
-0.0112646 -0.179822 0.521697 -0.991447 -0.124472 0.0392468
-0.00387953 0.21355 0.550224 -7.79897e-06 -0.00864849 0.999963
0.118803 -0.262395 0.525071 0.933197 0.315195 0.172613
0.00148036 -0.279823 0.195709 -1 0 0
-0.0353228 -0.00142913 0.198409 -0.999657 0.0261804 -0.000591531
0.00617753 0.141552 0.0817215 0.991756 0.100975 0.0788908
-0.109413 -0.289761 0.521257 0.595888 -0.572758 0.562909
-0.0248301 -0.242726 0.344696 0.979043 -0.199535 -0.0407471
-0.113564 -0.257565 0.530435 -0.517461 0.248104 0.81895
0.00635697 0.14006 0.516579 0.923979 -0.366696 0.108614
-0.0315599 0.170548 0.115827 0.99939 -0.0336903 0.00919434
0.00544835 0.0847893 0.550258 0 -0.00870092 0.999962
-0.00531833 0.395167 0.043663 -0.891507 -0.2789 0.356972
-0.00394016 0.194096 0.349297 -0.975444 0.135597 -0.17356
-0.00110726 -0.236858 0.0331623 -0.975442 -0.0860591 0.202746
0.00148036 -0.173565 0.244874 -1 2.82088e-08 -2.11387e-07
-0.00122783 -0.211236 0.376436 -0.485459 0.327502 0.8106
0.00148036 -0.252686 0.225628 1 0 0
-0.00467669 -0.447807 0.30351 -0.999098 -0.0339242 0.0255597
-0.0796461 -0.243146 0.516878 0 0.426773 -0.904359
0.0182704 0.0596072 0.18934 0.985376 -0.137903 0.100082
0.0074172 -0.165698 0.0593283 0.955448 -0.181718 0.232591
-0.00339514 -0.0997955 0.22532 -0.850248 0.521261 0.0732547
-0.00250466 -0.310616 0.377417 -0.975442 0.0306551 -0.218113
0.00284089 0.242459 0.027913 0.975441 0.0825113 0.204221
0.00287497 0.30209 0.00235818 0.48632 0.121609 -0.865277
0.00687651 -0.192527 0.507842 0.609007 -0.756445 0.238541
0.00614057 0.164178 0.338172 0.999104 -0.0260603 0.0333569
-5.92147e-09 0.426199 0.127225 -1 0 0
0.124274 -0.283643 0.437847 0.110991 -0.499526 -0.859159
0.00148035 -0.369358 0.350687 -1 3.60677e-08 -8.49796e-08
-0.0320095 0.0852624 0.120324 -0.999388 0.0337292 -0.00921884
0.0407515 0.27621 0.190798 -1 0 0
0.00148036 -0.239971 0.125371 1 5.2822e-08 2.01331e-07
0.0048564 0.339891 0.374725 0.975443 -0.0825038 -0.204216
-1.08642e-08 0.33787 0.329774 -1 -1.17384e-08 -1.5577e-08
0.00148036 -0.250171 0.179431 1 0 0
0.00148036 -0.229406 0.214813 -1 0 0
0.00148036 -0.402062 0.169398 -1 -5.43884e-08 -2.1347e-07
-0.00829849 -0.0125915 0.466476 -0.991445 0.003645 0.130477
-0.0459196 0.0346892 0.213564 -0.7319 -0.674748 0.0950674
0.00148036 -0.19907 0.210909 1 0 0
0.00148035 -0.361067 0.32099 -1 8.82259e-09 -6.27733e-08
-0.048711 0.0525769 0.233482 1 0 0
-0.00132893 -0.462792 0.225998 -0.97542 0.218715 -0.0268434
0.00148035 -0.249551 0.365013 -1 -1.44833e-08 -3.58466e-08
0.00251608 -0.247153 0.515471 0.382678 -0.11099 -0.917191
0.00747979 0.0219258 0.201657 0.625383 -0.559408 -0.544021
-2.8206e-09 0.204913 0.0945976 1 -3.70989e-09 2.63973e-08
0.0294116 0.162809 0.194692 0.374323 -0.0371138 0.926555
-8.14593e-09 0.194957 0.264601 1 8.2408e-09 2.03969e-08
-0.121237 -0.286039 0.508065 -0.768472 0.554637 -0.319106
-2.68395e-09 0.245397 0.105548 -1 8.85044e-09 -2.08507e-08
0.00148037 -0.271034 0.0622637 -1 1.47899e-08 -3.48435e-08
-0.0179322 0.262689 0.174842 0.000630632 0.0421267 0.999112
0.00534005 -0.0778352 0.328757 0.917946 0.284213 0.276762
-0.0122449 0.248763 0.172357 -0.0183721 -0.676065 0.736613
0.00148036 -0.377938 0.275487 -1 -1.44833e-08 -3.58466e-08
0.00148035 -0.30403 0.251699 -1 -2.31948e-08 -1.81218e-08
-0.0110408 0.325078 0.18063 0.0121136 0.472062 0.881482
0.00148036 -0.466037 0.240295 1 -8.28751e-08 1.06075e-07
0.00148035 -0.219323 0.349107 1 1.92008e-08 2.54794e-08
0.00148036 -0.266837 0.164574 -1 0 0
-0.00252698 0.174667 0.551483 -0.000847826 -0.00862763 0.999962
0.00148036 -0.404629 0.286758 -1 8.82259e-09 -6.27733e-08
0.0050011 -0.482009 0.170027 0.626451 -0.771883 -0.108427
-2.44586e-09 0.228795 0.0898135 -1 3.88878e-09 -2.76699e-08
0.00619958 -0.177099 0.464072 0.793336 -0.0169984 -0.608547
-4.32586e-10 0.343588 0.039251 -1 8.85044e-09 -2.08507e-08
-0.0424047 -0.255625 0.26239 -0.738165 0.650307 0.17948
-9.95172e-09 0.313754 0.298075 1 1.13562e-08 1.50699e-08
-3.43488e-09 0.225141 0.130759 1 -1.15396e-08 1.47702e-08
0.00503496 0.358298 0.368141 0.975442 -0.0825078 -0.20422
0.00348709 0.113027 0.567619 0 -0.00857182 0.999963
0.00148036 -0.43039 0.258863 1 -8.28611e-09 5.89587e-08
-1.44747e-09 0.337611 0.093869 -1 1.19253e-08 -1.52636e-08
0.00148037 -0.394059 0.0900208 1 7.06041e-09 5.75028e-08
-5.92147e-09 0.194408 0.179681 1 0 0
-0.0055444 0.419698 0.331835 -0.891686 -0.272419 -0.361503
-0.0338805 0.0408934 0.162727 0.0257563 0.994714 0.0993992
-4.48553e-09 0.166532 0.156102 1 -1.15396e-08 1.47702e-08
-0.010521 0.0167395 0.215912 0.996522 0.059743 0.0580879
0.00106925 0.481666 0.236676 0.169521 0.975935 0.137159
0.0254879 -0.216413 0.394599 0.553611 0.318821 0.76933
-5.92147e-09 0.193381 0.210727 1 0 0
0.00148036 -0.209445 0.104773 -1 -5.43884e-08 -2.1347e-07
0.00385371 0.228982 0.365272 0.975445 0.0860565 -0.202734
-0.00890081 -0.0742255 0.319909 -0.789008 0.44064 0.428138
0.12497 -0.304172 0.467992 0.519754 -0.835298 -0.179256
-0.00143948 -0.116563 0.179289 -0.975442 -0.218612 0.0268462
0.00148036 -0.445724 0.177763 -1 1.99285e-08 -2.55067e-08
-0.00666518 0.132537 0.453138 -0.98853 -0.107154 0.106422
0.00148036 -0.272973 0.244015 1 -2.74322e-08 2.00025e-07
-9.16031e-09 0.262911 0.283872 1 1.13562e-08 1.50699e-08
-0.000217666 -0.200675 0.485554 -0.130103 -0.94561 0.298154
-0.00616086 0.467544 0.260668 -0.991744 -0.118036 -0.0501044
-4.31322e-09 0.28939 0.134 -1 -3.25462e-08 -1.27742e-07
-0.00349715 0.467038 0.179279 -0.975443 -0.218611 0.0268413
0.00523408 -0.188151 0.345462 0.975439 -0.132566 -0.175914
0.00673588 -0.214164 0.434038 0.608893 -0.756538 0.238539
0.00867912 0.0895163 0.335645 0.991262 0.125866 -0.0394688
0.00148035 -0.296686 0.268311 -1 -2.31948e-08 -1.81218e-08
0.00529085 -0.116292 0.245262 0.975441 -0.218116 -0.0306541
-0.0367426 -0.00164885 0.225174 -0.999658 0.0261389 -0.000634997
0.00148036 -0.207955 0.172593 1 0 0
0.0359034 0.0304055 0.129391 0.731885 -0.681328 0.0116573
-1.11236e-08 0.35692 0.343307 1 1.13562e-08 1.50699e-08
-8.1865e-09 0.175451 0.270997 1 3.28773e-09 2.67766e-08
0.00148036 -0.371977 0.265123 1 1.92008e-08 2.54794e-08
-0.00410262 -0.236945 0.531157 -0.382339 0.111015 0.917329
0.00148036 -0.19334 0.183301 1 0 0
0.125905 -0.280722 0.455935 0.413261 0.561423 0.716952
-0.0311133 -0.250024 0.312883 -0.000373121 -0.300486 -0.953786
0.00148037 -0.212652 0.0744684 -1 1.99285e-08 -2.55067e-08
-0.00229865 -0.112268 0.215624 -0.975439 -0.218125 -0.0306554
-0.0027384 0.107764 0.263429 -0.486096 -0.810269 0.327376
-0.00432195 -0.447402 0.0901953 -0.927135 -0.295287 -0.230708
-0.0101948 0.300177 0.206627 0.999657 -0.0261888 0.000501736
0.00248117 -0.166164 0.524807 0.130624 0.945546 -0.298127
0.0615523 0.0319398 0.0836442 0 -0.99692 0.0784265
-0.0995654 -0.260193 0.520837 0.682966 -0.594874 -0.423889
-5.92147e-09 0.146133 0.207752 -1 0 0
0.00611968 -0.473793 0.202909 0.975443 0.218614 -0.0268309
0.00301051 0.486165 0.198396 0.486336 0.867258 -0.106494
0.00989743 -0.043039 0.26708 0 0.414713 0.909952
0.037625 0.23233 0.183694 -0.114975 0.0401465 -0.992557
-9.69265e-10 0.341721 0.0549162 1 -8.51773e-09 2.00662e-08
0.03321 -0.250886 0.317147 0.608741 -0.75195 0.252994
0.00633799 -0.106497 0.46228 0.793237 -0.0170008 -0.608676
0.00148036 -0.335762 0.191925 -1 0 0
-1.6869e-09 0.279955 0.0644611 1 -8.51773e-09 2.00662e-08
-0.000981359 -0.383723 0.345338 -0.975445 0.135598 -0.17355
0.00148035 -0.168883 0.277533 1 -2.74322e-08 2.00025e-07
0.0165634 0.175525 0.55149 -2.8478e-05 -0.00870874 0.999962
-6.15259e-09 0.200538 0.226658 -1 3.39838e-08 -1.27772e-07
-2.01335e-10 0.312014 0.0203913 -1 3.88878e-09 -2.76699e-08
-4.17825e-09 0.189587 0.157127 -1 1.19253e-08 -1.52636e-08
0.00148036 -0.144447 0.167357 1 0 0
0.00148036 -0.30929 0.228943 -1 2.82088e-08 -2.11387e-07
0.00148036 -0.216813 0.148398 1 0 0
0.00148037 -0.276818 0.0182917 -1 6.49851e-09 -4.62389e-08
-5.92147e-09 0.423062 0.234585 1 0 0
-5.92147e-09 0.391406 0.161054 1 0 0
-1.10202e-08 0.310496 0.34935 -1 -8.56583e-09 -2.12018e-08
-0.040599 -0.278398 0.23534 0.793393 0.578335 -0.189885
-5.92147e-09 0.377426 0.131762 -1 0 0
0.0245568 0.207206 0.550168 0.00019197 -0.00862857 0.999963
-5.0944e-10 0.383425 0.0682071 -1 1.19253e-08 -1.52636e-08
-2.19622e-09 0.275254 0.0948295 -1 8.85044e-09 -2.08507e-08
0.00148036 -0.391531 0.157675 -1 1.99285e-08 -2.55067e-08
0.00148037 -0.304804 0.0611253 -1 6.49851e-09 -4.62389e-08
-0.00413312 0.480625 0.160344 -0.748927 0.657712 -0.0807607
-1.1438e-08 0.376288 0.349578 1 1.13562e-08 1.50699e-08
-0.00235229 0.245153 0.364562 -0.975445 0.0306531 -0.218099
0.00379614 0.12691 0.26949 0.975443 0.204216 -0.0825038
-1.75525e-09 0.243194 0.0668783 -1 3.88878e-09 -2.76699e-08
0.00148036 -0.126474 0.266441 1 -2.74322e-08 2.00025e-07
0.00148036 -0.132523 0.183943 1 0 0
-2.67577e-09 0.166121 0.101628 -1 -2.00005e-08 -4.95038e-08
0.0156997 0.144566 0.567265 0.777666 -0.437036 0.451924
-0.000429892 -0.379144 0.0247564 -0.332867 -0.353236 -0.874313
0.00148036 -0.369789 0.136353 -1 1.99285e-08 -2.55067e-08
0.00460595 0.447746 0.102592 0.975439 -0.175914 0.132565
-5.92147e-09 0.402962 0.186431 -1 0 0
-0.0428338 0.26642 0.225375 -0.768772 0.503412 0.394419
0.110956 -0.278915 0.510882 -0.392957 0.581231 -0.71257
-0.00497263 0.15078 0.317309 -0.975443 0.175899 -0.132552
-0.0270059 0.285185 0.21242 0.0218892 0.840776 0.54094
0.00148035 -0.159143 0.297153 -1 -2.31948e-08 -1.81218e-08
-0.0333581 -0.26234 0.284943 -0.571809 -0.607963 0.550831
-0.0238643 0.185413 0.568251 2.00834e-05 -0.00871774 0.999962
-0.0203881 0.101696 0.180857 -0.376988 -0.0759886 0.923096
0.0312548 -0.250342 0.286362 -0.753136 -0.183056 -0.631884
0.00148036 -0.364351 0.181515 -1 0 0
-8.55679e-09 0.278022 0.268776 1 -3.29857e-08 1.20472e-07
-1.82306e-09 0.398992 0.0865825 -1 -3.25462e-08 -1.27742e-07
-5.92147e-09 0.328376 0.236392 -1 0 0
-0.00482605 0.193612 0.040161 -0.975443 0.132551 0.1759
-5.92147e-09 0.434622 0.223455 1 0 0
0.106594 -0.249333 0.517832 0.421898 0.487984 -0.764116
-0.0306067 0.149679 0.232854 -0.00370523 -0.142292 -0.989818
0.00148036 -0.172085 0.110032 1 5.2822e-08 2.01331e-07
0.00121835 0.166299 0.526766 -0.152388 -0.352548 0.923302
0.0679957 -0.238833 0.522196 0 0.941376 -0.33736
-5.92147e-09 0.22575 0.186156 1 0 0
-0.00131729 0.0737895 0.311975 -0.11131 -0.952279 0.284208
0.00148035 -0.397061 0.316659 1 -8.28611e-09 5.89587e-08
-0.00398159 0.327914 0.373182 -0.975443 -0.0268414 -0.218613
0.00148036 -0.429373 0.115155 1 3.06015e-08 7.57453e-08
0.00520328 0.416376 0.0605205 0.891454 -0.278964 0.357055
0.00544851 0.102925 0.154745 0.850218 -0.521308 -0.073265
-0.00816379 0.123768 0.438443 -0.923835 0.366062 -0.111929
-5.92147e-09 0.397627 0.220482 -1 0 0
0.103992 -0.269661 0.522419 -0.96657 -0.190527 -0.171586
0.00568953 -0.141526 0.0962766 0.975442 -0.175906 0.132553
0.00730629 -0.168959 0.340711 0.955535 -0.177461 -0.235499
0.00897057 0.145429 0.539433 -0.938915 0.00300274 -0.344136
0.0292038 -0.227388 0.334758 -0.382144 -0.889848 0.249272
0.00148035 -0.199223 0.322513 -1 -1.98465e-08 -2.6338e-08
-1.0964e-08 0.368048 0.313438 -1 -1.17384e-08 -1.5577e-08
-1.13261e-09 0.306343 0.0480392 1 -8.51773e-09 2.00662e-08
0.116305 -0.236452 0.439607 -0.991469 0.00132153 -0.130333
0.00148036 -0.344123 0.161187 1 0 0
-0.00510863 0.131018 0.304439 -0.850305 -0.420314 0.316728
-0.0655758 -0.254124 0.52041 0 -0.904275 -0.426951
-7.02541e-09 0.227814 0.242318 1 -3.29857e-08 1.20472e-07
-0.0136034 0.271362 0.201497 -0.999658 0.0261617 -0.000591707
0.00445233 -0.424174 0.085615 0.975438 0.173591 0.135597
0.00432094 0.451315 0.281247 0.975442 -0.202748 -0.0860573
-0.0225403 -0.232519 0.356558 0.990397 -0.0942892 -0.101113
-5.92147e-09 0.424567 0.14185 -1 0 0
0.00148037 -0.291732 0.0773346 1 -1.42337e-08 3.35329e-08
-0.0407515 0.278599 0.185601 -1 0 0
0.00148035 -0.276499 0.332507 1 1.39331e-08 3.44866e-08
-1.04398e-08 0.193861 0.328836 -1 2.13361e-08 -5.02642e-08
-0.02468 0.218417 0.29934 0.90964 -0.280416 -0.306466
6.10842e-05 -0.103202 0.32551 0.169158 -0.707329 -0.686346
0.0136398 0.190225 0.551619 0.000309274 -0.00881383 0.999961
-0.0435306 0.300936 0.191435 0 0.999994 0.00352814
0.00148037 -0.325114 0.0906129 -1 1.47899e-08 -3.48435e-08
0.00148036 -0.151572 0.113353 -1 0 0
0.000115403 0.426445 0.295496 0.408026 -0.719427 -0.562086
0.00471668 0.125382 0.429365 0.60875 0.758969 -0.231061
0.00993305 -0.203297 0.440486 0.991445 0.124481 -0.0392493
-0.0080006 0.284329 0.192251 0 -0.262574 0.964912
0.00148036 -0.358391 0.218852 1 -2.74322e-08 2.00025e-07
-0.0323284 0.0562823 0.166626 0.999657 -0.0261751 0.000593341
0.0138728 0.126249 0.557984 0.954074 -0.244176 0.173556
0.00148035 -0.217645 0.326729 1 1.92008e-08 2.54794e-08
-0.00589882 0.472672 0.139791 -0.977336 0.196278 -0.0793036
0.00148035 -0.282552 0.282485 -1 -1.98465e-08 -2.6338e-08
0.00331746 0.131174 0.119741 0.975442 0.202746 0.0860633
-6.436e-09 0.399007 0.284298 1 -3.29857e-08 1.20472e-07
-0.0132429 0.28395 0.149404 -0.999658 0.0261533 -0.000599365
-5.92147e-09 0.393127 0.253792 -1 0 0
-0.00581044 0.0568534 0.24849 -0.547119 -0.801911 0.239997
-5.92147e-09 0.317302 0.146018 -1 0 0
-8.57673e-09 0.14053 0.27411 1 -1.9499e-08 4.59363e-08
-5.92147e-09 0.283643 0.159669 1 0 0
0.00148037 -0.267671 0.0779208 -1 1.99285e-08 -2.55067e-08
0.00858152 0.111793 0.404195 0.991446 0.124533 -0.0390779
-0.00827444 0.059908 0.231051 -0.991262 0.125861 -0.0394789
-4.24391e-09 0.153478 0.144211 -1 3.88878e-09 -2.76699e-08
0.00148036 -0.225002 0.237729 -1 2.82088e-08 -2.11387e-07
0.0437123 0.27 0.20881 1 0 0
-0.00145315 -0.117506 0.22599 -0.975439 -0.218125 -0.0306554
0.00148037 -0.357534 0.0933989 -1 6.49851e-09 -4.62389e-08
0.00148036 -0.29101 0.162231 1 0 0
0.00783056 -0.151561 0.380709 0.806549 -0.423736 -0.412223
-2.69976e-09 0.31751 0.114205 -1 -3.25462e-08 -1.27742e-07
0.0214579 0.0869607 0.184404 0.88525 -0.119433 -0.44952
0.118204 -0.293678 0.517447 0.410341 -0.692828 0.592966
0.0413844 -0.247901 0.516065 0 -0.0826979 -0.996575
0.00148035 -0.174956 0.308439 1 2.25183e-08 1.75936e-08
-5.92147e-09 0.444103 0.193459 1 0 0
0.00148035 -0.313236 0.27039 1 2.25183e-08 1.75936e-08
0.124521 -0.29383 0.481394 0.69844 0.694581 0.172449
0.028317 0.226293 0.295855 -0.539752 0.768958 0.342595
0.00516932 -0.302393 0.0206757 0.975442 0.0268419 0.218615
-3.59203e-09 0.17072 0.123341 -1 -4.49389e-09 -3.65998e-08
-9.69761e-09 0.243669 0.319055 1 3.28773e-09 2.67766e-08
-0.0303281 -0.227247 0.356489 0.917677 -0.397309 0.00375973
0.0144656 -0.239 0.521729 0 0.941376 -0.33736
-5.92147e-09 0.359802 0.183601 -1 0 0
0.0380266 0.0349846 0.159443 -1 0 0
-1.05823e-08 0.346791 0.315026 1 1.13562e-08 1.50699e-08
-6.05955e-09 0.102329 0.199942 1 -3.29857e-08 1.20472e-07
-0.0209395 0.118325 0.195967 0.197425 0.0492802 0.979079
0.00605067 0.0795261 0.32373 0.606074 -0.762039 0.22797
-5.92147e-09 0.38607 0.190715 -1 0 0
-0.0018831 -0.27461 0.00528193 -0.62633 0.108495 -0.771971
0.00148036 -0.451441 0.191603 1 0 0
