0.0143969 0.288129 0.189372 -0.762293 0.610221 0.215728
-0.0131898 0.130059 0.202279 -0.999344 -0.0362283 0
-0.00137037 -0.299755 0.359505 -0.307743 0.0865845 0.947522
-0.00778734 -0.265682 0.445278 0.800145 0.599806 0
-0.00451948 0.0682058 0.447182 -0.808996 0.584282 -0.0643491
0.0153704 0.287006 0.189214 -0.968792 0.247418 0.0150239
-0.0110888 0.0721057 0.200173 -0.999344 -0.0362283 0
0.0273229 -0.259653 0.378451 -0.989923 0.140943 -0.0136592
-0.00224345 0.16765 0.151359 0.762248 0.233334 -0.603765
-0.0277299 0.223713 0.174689 -0.325501 0.0558931 -0.943888
0.09138 -0.326937 0.497326 0 -0.17704 0.984204
-0.0182501 -0.00319783 0.113299 1 0 0
-0.0125055 0.00217745 0.126555 0 -0.709789 -0.704414
0.00522974 0.214358 0.318596 0.808061 0.335902 -0.48395
0.027162 -0.265357 0.30882 -0.989529 0.134722 -0.0517827
0.000199984 -0.150289 0.423085 -0.308931 0 -0.951085
0.00553158 -0.433944 0.184699 0.968727 -0.111772 0.221527
0.091891 -0.369948 0.428042 0 -0.879834 -0.475282
0.000150187 -0.0193708 0.207875 0.309041 0.643743 0.700063
-0.0974651 -0.312598 0.399676 -0.934051 -0.0399367 -0.3549
0.0294411 0.280273 0.178669 0.810692 -0.0362102 -0.584352
-0.0271303 -0.0145586 0.10355 0 0 1
-0.0357907 -0.274788 0.324923 -0.855838 -0.515277 0.0450562
-0.00477126 0.0443517 0.268033 0.808986 0.584295 -0.0643505
-0.00130889 0.0460943 0.207099 0.308952 0.94536 -0.104125
-0.0302369 -0.275313 0.295336 0.990008 -0.139911 0.0175519
0.0282054 -0.286988 0.245631 0.989915 0.138738 -0.0286361
0.0096089 0.347981 0.237244 -0.288916 -0.87155 0.396141
-0.0708131 -0.286825 0.487183 0 0 -1
-0.00397895 0.0532183 0.304304 0.808805 -0.584542 0.0643858
0.0271545 -0.266343 0.306401 -0.989529 0.134722 -0.0517827
0.00401169 0.438473 0.287874 0.307986 -0.675496 -0.669963
0.00466996 -0.189195 0.22464 0.968689 0.180862 -0.170088
0.0295067 0.269921 0.222442 0.879198 -0.36811 -0.3025
-0.00366198 -0.166014 0.0927183 -0.807865 -0.481418 0.339985
0.00281979 -0.25729 0.00912816 -0.307947 -0.24271 0.919924
-0.0143465 -0.296551 0.169404 -0.976798 -0.154727 -0.148071
0.0277573 0.274177 0.206373 0.956312 0.109532 0.271055
-0.0123966 0.159247 0.166429 -0.132845 0.0906635 -0.986981
0.00741632 -0.244805 0.0218977 1 0 0
-0.00333257 0.143335 0.201802 -0.808059 0.586645 -0.0537465
-0.00437678 0.201889 0.311405 -0.807827 0.336132 -0.484181
-0.00568609 -0.438982 0.0638481 -1 0 0
0.00393897 0.0637759 0.383203 -0.30938 -0.945221 0.104121
-0.0886328 -0.312936 0.499248 -0.0106322 -0.0385407 0.9992
-0.00938658 0.11396 0.34137 -0.514834 0.517031 0.683831
-0.00852319 -0.228962 0.163206 0.790763 -0.135748 -0.59688
0.00114257 -0.146934 0.18244 0.976778 0.0841548 -0.197036
0.00725121 0.427182 0.304223 0.80789 -0.418404 -0.415033
-0.00468439 0.145605 0.222875 -0.807859 0.568678 -0.15482
0.00653223 0.200889 0.0415093 0.808036 -0.339804 -0.48126
-0.00346676 -0.468141 0.237138 -0.808088 0.56836 -0.154792
0.000284147 0.455388 0.261478 -0.308007 -0.863894 -0.398521
-0.0322861 -0.302395 0.186024 0.856307 0.464729 -0.225312
0.00466585 0.302491 0.0131365 0.308065 0.0867974 0.947398
-0.0056315 0.425825 0.0490338 -0.808044 0.414941 -0.418197
-0.00364383 -0.478296 0.181454 -0.807833 0.586958 -0.05372
6.5561e-05 -0.0313367 0.413825 0.309079 0 -0.951037
-0.0394238 0.298395 0.181553 0.876849 0.376755 0.29865
-0.0972324 -0.325579 0.49249 -0.935278 -0.0832106 0.343994
-0.00522359 0.0532866 0.343474 0.808986 0.584295 -0.0643505
-0.00473884 0.0893237 0.374138 -0.401635 -0.624406 -0.66993
-0.0200423 0.289328 0.202396 0 -0.0106026 0.999944
0.0252352 0.239869 0.175338 0.810692 -0.0362102 -0.584352
-0.00220195 -0.223461 0.0753512 0.976896 -0.20357 -0.0650596
0.0874867 -0.383945 0.462986 -1 0 0
0.0933418 -0.385444 0.473947 -1 0 0
0.00741632 0.199266 0.0485202 1 0 0
-0.0104857 0.113874 0.354471 -0.302081 -0.639506 -0.706951
0.00520601 -0.255954 0.396778 -0.300375 -0.953821 0
0.00520749 0.0439392 0.145293 -0.0950481 0.585102 -0.805371
-0.0131543 -0.005375 0.13968 1 0 0
0.0059675 0.236532 0.0283107 0.808075 0.251142 0.532862
0.0779314 -0.293314 0.499211 -0.413608 -0.335814 0.846261
-0.00297798 -0.0812163 0.4208 0.808998 0 -0.587811
0.0576142 -0.289812 0.489648 -0.0628028 -0.930924 -0.359773
-0.00325645 0.0365049 0.215828 0.808986 0.584295 -0.0643505
-0.0903396 -0.389809 0.476306 0 -0.999937 0.0112632
-0.0130187 0.168777 0.167388 -0.132845 0.0906635 -0.986981
-0.00568609 -0.437322 0.0610791 -1 0 0
-0.0851703 -0.367858 0.428298 0.577095 -0.675958 -0.458304
-0.0366951 -0.285874 0.238287 -0.989912 0.130228 -0.0558179
-0.00568609 0.411835 0.321963 -1 0 0
-0.0304314 -0.287362 0.239667 0.990011 -0.135379 0.03939
-0.00347934 -0.155874 0.247766 -0.808088 -0.534888 -0.246757
0.00675768 -0.32815 0.00560277 0.808041 -0.0536442 -0.586678
-0.0924397 -0.39266 0.441706 0 -0.99723 0.0743798
0.0926465 -0.389906 0.467761 0 -0.999937 0.0112632
-0.00327029 0.0691432 0.439989 -0.808996 0.584282 -0.0643491
-0.0117473 0.0895918 0.156646 -0.788608 -0.173293 0.589972
-0.0124807 0.0355725 0.14229 -0.095068 -0.585095 -0.805373
-0.0228476 0.0707988 0.476442 0.974401 0.223968 -0.0195254
-0.0103457 0.240491 0.171631 0.289018 0.266401 -0.91951
-0.089496 -0.389825 0.474952 0 -0.999937 0.0112632
-0.0131543 0.0152542 0.113919 1 0 0
-0.0105055 0.0102129 0.111618 0 0.456979 0.889478
0.025049 0.21323 0.253722 -0.400232 0.628296 0.667127
-0.0102695 -0.284371 0.124495 0.345597 0.888498 0.301884
0.00517278 0.103638 0.161484 -0.309429 -0.081469 0.947426
-0.0136104 -0.337905 0.176901 -0.976825 -0.0509025 0.207901
0.00969269 0.0213739 0.489961 -0.322205 0.105545 -0.940768
-0.0170303 0.0860671 0.201075 -0.999669 -0.0257434 0
-0.00103918 -0.239834 0.413485 0.808899 0 0.587948
-0.0949766 -0.313508 0.405078 -0.525662 0.0952452 0.845345
-0.00464308 -0.256934 0.384433 0.800144 -0.599808 5.73029e-07
-0.0624688 -0.290553 0.495381 0.0721214 -0.928645 0.36389
0.00123649 -0.259489 0.386791 0 0 -1
0.00277533 0.186225 0.0505005 -0.307914 0.675308 0.670185
0.00246463 0.304675 0.174485 0.00259485 -0.808988 -0.587819
0.0899772 -0.375611 0.467365 0 0.018672 -0.999826
-0.00638211 0.103767 0.160362 -0.322087 0.0559395 -0.945056
-0.000393889 0.246334 0.0262868 -0.307823 0.405654 0.860633
0.00214183 0.397464 0.0387665 0.308074 -0.54245 0.781561
-0.00135781 0.465599 0.240612 -0.308022 -0.86389 -0.398517
0.00603072 -0.0840937 0.253533 -0.30904 0.643742 0.700065
0.0051142 -0.481325 0.132684 0.807894 -0.569832 -0.150327
0.00612921 -0.477658 0.199778 0.808056 0.586648 -0.0537465
-0.00364368 -0.430186 0.0635343 -0.808027 0.418295 0.414875
0.0138793 0.149645 0.158288 -0.322335 -0.057757 0.944862
0.0106956 0.301518 0.239283 -0.346417 0.918162 0.192286
0.0297088 0.313608 0.173094 -0.00259513 0.808988 -0.587819
0.0121285 0.304048 0.231068 -0.976929 0.208175 -0.0476705
-0.000524874 0.210475 0.314327 -0.307819 0.542511 -0.78162
-0.0167094 0.18197 0.167666 -0.990497 -0.136848 -0.0137005
0.00545998 -0.313898 0.358596 0.808109 -0.0490392 0.586988
0.0123772 -0.354261 0.157677 0.288187 -0.684532 0.6696
0.0373826 0.290497 0.197346 0.990056 -0.139883 -0.0149161
0.00709045 0.149378 0.121232 0.808087 0.534893 0.24675
-0.0355216 -0.256306 0.359157 -0.855848 0.516313 -0.030721
0.0151394 0.291572 0.180932 0.968748 -0.247654 -0.0139236
0.0266006 0.256542 0.230276 0.879198 -0.36811 -0.3025
-0.00983786 -0.00470424 0.135489 -1 0 0
0.00105104 -0.234563 0.0481653 -0.968821 0.136618 0.206693
-0.00214718 -0.173969 0.0633367 -0.307681 0.670227 -0.675372
-0.0131543 0.023307 0.147595 1 0 0
0.0075009 -0.226612 0.208627 -0.9688 -0.179864 0.170515
-0.0286575 -0.274181 0.387301 -0.026568 0.00726705 -0.999621
-0.0374607 -0.262612 0.34855 -0.990009 0.140336 -0.013737
0.00893582 0.0965795 0.499576 -0.057291 0.233915 -0.970568
0.000189951 0.0923512 0.157514 0.0231822 -0.103465 0.994363
-0.00844268 0.0760909 0.372845 0.81884 0.436169 0.373173
0.00561213 -0.368317 0.348721 0.807895 -0.150327 0.569832
-0.00901689 -0.361649 0.132733 -0.96866 -0.242359 0.054412
-0.0307164 -0.256618 0.379348 0.855849 0.516313 -0.030721
-0.0160956 0.0497738 0.200073 -0.999669 -0.0257434 0
-0.00446967 0.090266 0.158911 -0.322087 0.0559395 -0.945056
-0.0326388 -0.270039 0.269024 0 0.960292 -0.278998
-0.00540283 -0.418049 0.167159 0.976894 0.0454381 0.208841
0.00651478 0.0635395 0.150276 0.303502 0.0618571 -0.950821
0.0201885 0.219764 0.169321 0.792346 -0.163815 0.587668
0.0376459 0.306593 0.172085 0.000991431 -0.309095 -0.951031
-0.0159798 0.297517 0.16973 -0.976803 0.0947347 0.192047
0.0341958 -0.270973 0.28466 0.989841 0.14158 -0.0130085
0.00957756 -0.290433 0.492052 0 -0.931036 -0.364926
0.00123814 -0.437954 0.287694 0.968771 0.0566568 0.241397
-0.0211082 0.0634769 0.47926 0.974401 0.223968 -0.0195254
-0.0055625 0.311842 0.181233 -0.000991526 0.309091 0.951032
-0.00121279 -0.465204 0.153846 -0.342642 0.201303 -0.917646
0.0308427 -0.316253 0.183978 0.00736428 -0.808969 0.587805
0.062609 -0.27747 0.489669 0.0737929 0.928581 -0.363718
0.00314945 -0.149706 0.133146 0.30795 -0.917967 0.250006
0.00240122 0.321269 0.00152723 -0.30788 -0.0793114 0.948114
-0.00455653 0.0831379 0.496511 0.0626975 0.234095 -0.97019
0.00597434 0.0443258 0.212683 0.309516 0.945177 -0.104117
-0.000914203 0.451427 0.29053 -0.307649 0.781478 0.542812
-0.00389336 -0.0131544 0.198123 -0.808982 0.397891 0.432701
0.0161539 0.318891 0.166733 -0.791218 0.594826 0.141971
0.0149842 -0.32583 0.158449 -0.762315 0.647178 0.00599506
0.0843269 -0.335021 0.483559 -0.537467 0.323108 -0.778929
-0.00453696 0.275721 0.346542 -0.807978 0.15017 -0.569755
0.0063265 0.0548014 0.339158 1 0 0
0.00156621 -0.239661 0.394613 -0.30904 0.643742 0.700065
-0.0174831 -0.269619 0.380272 0.0154809 0.0246815 0.999575
0.029948 0.232608 0.24676 -0.990061 0.139847 0.0148713
-0.00338882 0.187473 0.31027 -0.807897 -0.415108 0.418316
0.0322687 0.256162 0.176683 -0.287925 0.138558 -0.947576
-0.0168517 0.17266 0.12882 0 -0.185289 0.982684
-0.017624 0.109055 0.117105 -0.999671 -0.025644 0
-0.00642331 0.347332 0.276834 -0.762525 0.639416 -0.0985034
0.0873847 -0.357653 0.481848 -0.567985 -0.610337 0.552161
0.00728096 -0.333576 0.0895898 0.341934 0.930065 -0.134391
-0.00247078 0.426943 0.109469 -0.761937 0.416561 0.495913
-0.00481475 -0.151167 0.257761 -0.808084 0.534852 0.246848
0.00641942 -0.308978 0.0106262 0.808046 -0.0489403 0.587083
-0.0149799 0.131213 0.323909 -0.594027 0.477092 0.6477
0.0173496 0.0448738 0.488416 -0.339821 0.000938955 -0.94049
0.013605 0.27279 0.17757 -0.342495 -0.349736 -0.871999
-0.00162503 -0.0176122 0.206463 -0.809007 0.397868 0.432676
-0.0112199 0.0728338 0.493129 0.181409 0.241866 -0.953201
0.00279585 -0.255752 0.454476 -0.308919 -0.950844 0.0215693
-0.00466961 0.383498 0.0202247 -0.808024 0.246887 -0.534924
0.00741632 -0.206989 0.32161 1 0 0
-0.0131543 0.0780481 0.160921 -1 0 0
-0.00897189 0.388107 0.196551 -0.968697 0.0690974 0.238436
-0.0372803 -0.26894 0.344526 -0.990012 -0.140813 0.00691833
0.00675157 0.393577 0.335453 0.808059 0.251066 0.532922
-0.00563988 0.18018 0.298685 -0.808086 -0.414894 0.418163
-0.0503511 -0.277762 0.497818 0 0.515974 0.856605
-0.00198525 -0.220051 0.321746 -0.307703 -0.548957 -0.777152
-0.000385283 0.306062 0.337004 0.288782 0.953815 -0.082713
-0.0251385 0.0055952 0.125153 -1 0 0
0.0103679 0.0785877 0.380123 -0.987021 0.156526 0.0359055
0.0326542 -0.297683 0.223325 0.855727 -0.491531 0.161642
0.00741632 -0.233358 0.0239475 1 0 0
-0.00930949 -0.263651 0.428983 0.800145 0.599806 0
0.00741632 0.461441 0.264974 1 0 0
0.0158099 0.136835 0.333214 -0.514087 -0.515037 -0.685894
0.0065904 0.00915377 0.487139 -0.156339 0.368106 -0.916546
-0.0121557 -0.267852 0.197484 0.343553 -0.142905 0.928197
0.00300058 0.0533666 0.285918 -0.30938 -0.945221 0.104121
0.00741632 0.171063 0.0738328 1 0 0
-0.0137188 0.136458 0.205631 0 -0.000408222 -1
-0.0251385 0.0251765 0.144728 -1 0 0
-0.00332237 -0.175792 0.158004 0.790763 -0.135748 -0.59688
-0.00886096 0.0380026 0.14264 -0.0950481 0.585102 -0.805371
-0.00247545 0.155869 0.0886314 -0.30801 -0.781405 -0.542712
0.0235352 0.19598 0.164336 0.238069 0.0730099 -0.9685
0.0038068 0.17224 0.295908 0.307826 -0.777272 0.548718
0.00713521 0.202708 0.180306 -0.762196 0.118285 -0.636448
-0.0101271 -0.330375 0.112233 -0.968665 0.172068 -0.179108
0.00152984 0.054673 0.14827 -0.322335 -0.057757 0.944862
0.0432938 -0.276497 0.490174 0 0.93112 -0.364713
0.00610279 -0.159156 0.0871473 0.807869 0.481475 -0.339896
-0.0840449 -0.35541 0.480388 0.555651 -0.512456 0.654707
-0.00467035 -0.198967 0.160131 0.762101 -0.0127286 0.647333
0.011419 -0.267646 0.154635 -0.762448 -0.499522 -0.411279
-0.0131543 0.0281048 0.143564 1 0 0
0.00719924 -0.333635 0.349701 0.80786 0.0490038 -0.587334
0.0027051 0.172538 0.0642601 0.308117 -0.675282 -0.670118
-0.00250334 -0.458107 0.205279 -0.968703 -0.146474 -0.200401
0.0232377 0.0596207 0.184072 0 0.707108 -0.707105
-0.0225091 0.0291914 0.153643 0 0.707109 -0.707105
0.00968597 -0.257782 0.398511 1 0 0
0.0204721 0.223553 0.253419 -0.818235 0.430619 0.380866
0.0054897 0.408373 0.044285 0.808039 -0.335935 0.483962
-0.0030381 -0.0531313 0.416236 -0.809018 0 -0.587784
-0.0430554 -0.278272 0.498126 0 0.515974 0.856605
-0.0911154 -0.332945 0.48207 0 0.434646 -0.900601
-0.0124262 0.0480051 0.205667 0 0.000408223 1
0.00180695 -0.375964 0.34768 0.30809 -0.398751 0.863758
-0.091545 -0.294831 0.49108 -0.823083 0.449101 -0.347624
-0.02378 0.0925417 0.495159 0.295883 0.257056 -0.919987
-0.00568609 -0.461987 0.102819 -1 0 0
0.00346926 -0.266332 0.492023 0.308887 -0.0253858 0.95076
-0.0940224 -0.386276 0.477721 -1 0 0
-0.0140882 0.106091 0.205643 0 0.000408223 1
0.0047558 0.237025 0.343579 0.308286 -0.398699 0.863712
-0.00225876 -0.221005 0.0739315 0.762002 0.40644 0.504142
0.0013527 -0.467341 0.0935783 -0.30799 0.863782 0.398777
-0.0222832 0.207954 0.171949 -0.322087 0.0559395 -0.945056
0.0114143 -0.250285 0.18927 -0.791028 -0.0364881 0.61069
-0.0816299 -0.295271 0.487197 0.470077 -0.257618 -0.844193
-0.00555337 -0.23836 0.0910763 -0.978272 0.198848 0.0586728
0.0901224 -0.317464 0.39421 0 -0.127695 -0.991814
0.00393684 0.0940703 0.363195 0.956312 0.109532 0.271055
0.00405957 -0.382362 0.298355 0.762151 -0.61077 -0.214677
-0.00568609 -0.467634 0.107038 -1 0 0
0.0895727 -0.293519 0.497222 0.415123 0.334524 0.84603
-0.00568609 0.246886 0.342279 -1 0 0
0.000988075 -0.150702 0.328271 -0.309039 -0.643743 -0.700064
0.00506462 -0.440672 0.285596 0.808092 0.481137 -0.339845
-0.00568609 -0.165287 0.275425 -1 0 0
-0.00437775 0.226689 0.328329 -0.807865 0.246927 -0.535146
-0.0015255 -0.136088 0.414154 0.808998 5.15063e-07 0.587811
0.00541545 -0.352873 0.00809914 0.80785 -0.15473 -0.568715
0.0187705 0.0491847 0.48554 -0.983876 0.177472 -0.0221933
-0.0126735 0.0227595 0.105635 0 0.159778 0.987153
0.0297415 -0.273726 0.380493 -0.0294574 -0.00805752 0.999534
0.0067067 -0.145889 0.225599 0.807889 -0.569864 -0.150235
0.0032205 0.0512801 0.26763 -0.30938 -0.945221 0.104121
-0.004367 0.1678 0.0746977 -0.807828 -0.48411 -0.336231
-0.00424347 0.469703 0.125621 -0.808089 -0.568358 0.154796
-0.00568609 -0.463722 0.262306 -1 0 0
-0.0849829 -0.358322 0.478905 0.555742 -0.51239 0.654681
-0.00131691 0.147914 0.139811 -0.307915 0.920001 0.242459
0.00191287 -0.170938 0.414426 -0.309076 -5.55012e-08 0.951037
0.0443375 0.0721688 0.204893 0 0 1
0.0393251 -0.264281 0.383829 -0.955893 -0.261444 0.133853
0.00741632 -0.47106 0.240494 1 0 0
-0.00568609 0.286428 0.353115 -1 0 0
-0.0345539 -0.278572 0.307131 0 -0.986048 0.166462
-0.00722652 0.276876 0.0793723 0.976909 0.213261 0.0129871
-0.00771306 -0.271857 0.48021 0.951624 -0.0156025 0.30687
-0.0319948 0.258329 0.214671 -0.594027 0.477092 0.6477
-0.0112202 0.0332156 0.143854 -0.095068 -0.585095 -0.805373
-0.00334904 -0.256023 0.455502 0.308908 -0.950847 0.0215701
0.0147377 -0.291492 0.164312 -0.762382 0.106446 0.638313
0.00236894 0.47367 0.211716 0.308115 -0.919947 -0.242412
0.00103669 0.0617354 0.461422 0.309042 -0.945334 0.104102
-0.0131543 0.0592207 0.121041 1 0 0
0.00285846 -0.224177 0.324321 0.307694 -0.548959 -0.777154
-0.0371744 0.133456 0.510045 0.181791 0.609177 -0.771917
0.00741632 0.208087 0.321777 1 0 0
-0.027581 0.259837 0.175154 -0.990353 -0.138565 0
-0.00568609 -0.330475 0.00916856 -1 0 0
-0.0496408 -0.0121115 0.110439 0 0 -1
0.00804257 0.0652351 0.382095 -0.302206 0.644045 0.702765
0.00347867 -0.25541 0.399513 -0.300375 -0.953821 0
-0.0222873 -0.277571 0.48905 0 0.515974 -0.856605
-0.000557323 -0.146936 0.154819 -0.976783 0.115204 0.180618
0.0300878 -0.266304 0.282427 0 0.981607 -0.190914
-0.00404469 0.463872 0.1123 -0.808067 -0.532875 0.25114
0.0838095 -0.33023 0.406667 -0.937113 0.127111 0.325058
-0.00495618 0.438265 0.0688632 -0.807884 -0.415039 0.418408
-0.00530626 -0.272201 0.490449 0.61225 -0.00313583 -0.790658
-0.00494366 -0.403046 0.0386844 -0.807836 0.34 0.481458
0.00741632 -0.38091 0.0227821 1 0 0
-0.0297059 0.227162 0.168376 -0.809297 -0.04998 -0.58527
0.0195602 -0.253975 0.380551 -0.105054 -0.994185 -0.0236803
0.000312685 -0.283656 0.0159446 -0.307893 -0.0790381 0.948132
0.0029188 0.483456 0.223921 0.308108 0.91988 0.242673
0.00950126 -0.374787 0.151582 0.79143 -0.244142 0.560387
-0.0204026 0.280453 0.205572 0 -0.000408222 -1
0.00519147 0.445926 0.0647873 0.80783 0.415183 -0.418371
0.00741632 -0.474906 0.134455 1 0 0
0.0933418 -0.369374 0.468733 -1 0 0
-0.00476576 -0.323963 0.0116521 -0.807848 0.0537255 0.586937
0.00968597 -0.257937 0.392532 1 0 0
0.026978 0.0790324 0.204893 0 0 1
0.0103387 0.309383 0.17115 0.000991431 -0.309095 -0.951031
-0.000663295 -0.294627 0.346479 -0.307945 -0.0868304 -0.947434
-0.0131543 0.0363508 0.11934 1 0 0
-0.00645168 0.0841774 0.496639 0.0627393 0.234085 -0.97019
-0.0164472 -0.304602 0.193648 0.968845 -0.168448 -0.181564
-0.00651941 -0.257979 0.488552 -0.611927 0.79091 0.00246548
-0.00215459 0.238297 0.344478 -0.308295 -0.398698 0.863709
0.0063265 0.046872 0.243085 1 0 0
-0.0101893 0.371389 0.205962 0.968788 -0.208188 0.134561
-0.00115221 -0.303702 0.347469 -0.307945 -0.0868304 -0.947434
0.00186492 -0.133787 0.217485 0.308104 0.919883 0.242666
-0.0121553 0.101525 0.201445 -0.999344 -0.0362283 0
-0.0122763 0.104778 0.116044 0.999349 0.0360885 0
0.0168578 0.104664 0.500532 -0.148006 0.413378 -0.89845
0.0929974 -0.390645 0.45143 1 0 0
0.00116008 -0.391044 0.0423052 -0.28847 -0.778979 0.556755
0.0961694 -0.346648 0.416329 0.551223 0.472131 0.687929
-0.00218559 0.465859 0.268727 -0.308016 0.86378 0.398761
0.00494158 -0.224378 0.394274 -0.309039 -0.643743 -0.700064
0.0143347 0.13276 0.337379 -0.514087 -0.515037 -0.685894
0.0136065 0.293262 0.142656 -0.343366 -0.929712 0.133174
0.0139491 0.121735 0.162593 0.285784 -0.138401 0.948247
0.0128979 -0.326054 0.146653 0.761629 -0.647975 -0.00704775
-0.0168241 0.156521 0.318601 -0.302081 -0.639506 -0.706951
0.0210865 0.0490365 0.163746 0 -0.707108 0.707105
0.00741632 0.465591 0.25711 1 0 0
-0.00568609 -0.201318 0.317921 -1 0 0
-0.00318875 -0.0366037 0.209987 -0.809022 -0.397853 -0.432663
0.0278299 -0.309388 0.183127 0.990012 0.126677 -0.0618878
0.00286268 -0.255442 0.469098 -0.308919 -0.950844 0.0215693
-0.00468844 -0.479596 0.228004 -0.808086 -0.568391 0.154685
-0.00314157 -0.453033 0.267715 -0.30797 0.777094 -0.548889
-0.00399849 -0.147799 0.108013 -0.807858 0.533197 -0.251131
0.0046387 0.449176 0.29264 0.308189 0.781379 0.542648
-0.000910124 -0.422123 0.303762 -0.308 0.669943 -0.675509
0.00222453 -0.22973 0.326998 0.307914 -0.40562 -0.860617
-0.0131543 0.0422612 0.139419 1 0 0
-0.00385073 -0.153528 0.266029 -0.807868 0.5351 0.247017
0.00741632 0.352819 0.0140428 1 0 0
-0.0135682 0.00117494 0.181466 0 -0.704415 0.709788
0.00887074 0.315527 0.26174 0.761777 -0.6063 0.228244
-0.00568609 0.363688 0.0167707 -1 0 0
-0.0251385 -0.0108247 0.107975 -1 0 0
0.00323156 -0.00030148 0.414854 0.309079 0 -0.951037
-0.00568609 0.145366 0.230153 -1 0 0
-0.00134342 -0.266318 0.492485 0 0.00213091 -0.999998
-0.0295337 -0.266447 0.332244 0.990009 0.13893 -0.0240865
-0.00232772 -0.00421596 0.178595 -0.809022 -0.397853 -0.432663
-0.0146324 -0.335588 0.17037 0.288932 0.795145 -0.533163
0.00269227 -0.416949 0.272553 -0.790881 0.420597 0.444528
0.0378385 -0.263267 0.387511 0 0 -1
-0.00967488 0.299404 0.24013 -0.976763 0.196221 0.0862068
0.00638334 0.224021 0.249054 0.791082 -0.421325 -0.443481
-0.00407436 -0.187063 0.296406 -0.808032 -0.41828 -0.414881
-0.00849309 0.0757535 0.37335 0.81884 0.436169 0.373173
0.00227147 0.253699 0.00984809 0.308101 -0.249776 -0.917979
0.0163817 0.174311 0.167239 0.098967 0.0781405 -0.992018
-0.0105597 0.103483 0.348389 -0.594027 0.477092 0.6477
0.00105352 0.228147 0.0365633 -0.341478 0.798272 -0.496139
0.0280084 -0.284289 0.239373 -0.989965 0.131593 -0.0514987
0.00943855 -0.330511 0.114429 0.976806 0.179284 -0.117078
-0.00208927 0.049232 0.346027 -0.809034 -0.584231 0.064324
-0.0936087 -0.347202 0.474016 -0.555734 0.512349 -0.65472
0.00457217 0.426174 0.316608 -0.307796 -0.675345 -0.670202
-0.0105338 0.0855679 0.154037 -0.784429 -0.0438089 -0.618669
-0.0165904 0.130733 0.158518 -0.784429 -0.0438089 -0.618669
6.4334e-05 0.202941 0.0493772 0.762047 0.567021 -0.312685
0.00235501 -0.167895 0.268435 0.3082 -0.781553 -0.542391
-0.0366793 -0.280541 0.25204 -0.990008 0.133622 -0.0450558
0.000740258 0.470401 0.261148 -0.308016 0.86378 0.398761
-0.0018775 0.0441451 0.302488 -0.809034 -0.584231 0.064324
-0.0157821 0.00406138 0.119603 -1 0 0
0.00733479 -0.175125 0.0674594 0.808085 0.481204 -0.339767
0.0933418 -0.381154 0.467508 -1 0 0
-0.00568609 0.457315 0.0896214 -1 0 0
0.0063265 0.0527692 0.336199 -1 0 0
-0.00390841 0.0408492 0.247078 0.808986 0.584295 -0.0643505
0.00578539 -0.360513 0.0107033 0.80785 -0.15473 -0.568715
0.00741632 -0.397726 0.030635 1 0 0
0.0284818 -0.294195 0.205835 -0.856156 0.46821 -0.218577
-0.0134651 -0.00758672 0.156092 0 -0.987087 0.160187
0.00123798 0.334264 0.0218494 0.289518 0.954403 0.072755
-0.0205666 0.159619 0.313903 0.956129 -0.100626 -0.27512
0.000133086 -0.466339 0.238187 -0.308018 0.917946 -0.250001
0.0127658 0.133723 0.164616 0.810692 -0.0362102 -0.584352
-0.00568609 0.141833 0.142692 -1 0 0
-0.00568609 0.400071 0.327051 -1 0 0
-0.00563763 0.339801 0.00732104 -0.808039 0.150249 -0.569648
0.00582288 -0.32883 0.348209 0.80786 0.0490038 -0.587334
0.00965102 -0.238787 0.202036 0.287062 0.414273 -0.863698
-0.0373646 -0.26085 0.359629 -0.989923 0.140943 -0.0136588
0.00094224 -0.00785941 0.422844 -0.308931 0 -0.951085
-0.0374387 0.271854 0.209207 0.876849 0.376755 0.29865
-0.00568609 0.205855 0.0437934 -1 0 0
-0.00568609 -0.280921 0.0101127 -1 0 0
-0.0131543 0.0485006 0.116398 1 0 0
0.000190974 0.188426 0.0477144 -0.307923 -0.675306 -0.670183
0.0269038 -0.266021 0.341116 0.989959 0.137867 -0.0311942
0.0071094 0.189054 0.307993 0.808085 -0.414895 0.418164
-0.00983786 0.00569283 0.114764 1 0 0
-0.00217077 0.0846678 0.497034 0.0626975 0.234095 -0.97019
-0.0200024 0.263576 0.205579 0 -0.000408222 -1
0.016178 0.308746 0.164784 0.968688 -0.0292149 -0.246555
0.000767657 -0.00010252 0.189884 0.309041 0.643743 0.700063
-0.00495821 -0.142637 0.123923 -0.808064 0.568423 -0.154689
0.00376018 0.0900346 0.155191 -0.820586 0.164435 -0.547357
-0.00538096 -0.270193 0.0773953 0.288753 -0.924591 -0.248501
-0.00568609 -0.168732 0.279496 -1 0 0
0.0146583 0.326745 0.172689 0.96869 0.228126 0.0979724
-0.0105327 -0.24691 0.200475 0.976869 -0.117897 0.178399
-0.0210149 0.27768 0.148622 0 0.185289 -0.982684
0.0016924 -0.0339505 0.205509 0.309037 -0.643742 -0.700066
0.006999 -0.278184 0.379902 0 0 1
-0.0188397 0.192352 0.285098 -0.986587 -0.160706 -0.0286449
-0.000577132 0.351986 0.354803 -0.307721 0.249801 0.9181
0.0271765 -0.273916 0.30571 -0.989718 -0.142993 -0.00338427
-0.0343325 -0.276447 0.324459 0 -0.99581 0.0914462
0.00266815 -0.215523 0.318133 0.307694 -0.548959 -0.777154
-0.00133889 0.0384817 0.423056 0.808998 0 -0.587811
0.00741632 0.333779 0.00893104 1 0 0
0.00714639 0.332968 0.0113904 0.80785 -0.0489969 0.587347
-0.00509086 -0.205912 0.322627 -0.808024 0.339818 0.48127
-0.018454 0.199675 0.133914 0 0.185289 -0.982684
-0.0139307 0.102373 0.205645 0 0.000408223 1
0.0170344 -0.310396 0.170552 -0.976894 -0.14542 -0.156626
0.000670234 0.278956 0.0198098 -0.791129 -0.594944 0.141975
-0.0113213 -0.00753239 0.156427 0 -0.987087 0.160187
0.0201842 0.0371213 0.152661 0 -0.707121 -0.707092
-0.0106083 -0.264128 0.380109 0.0170887 -0.0147069 0.999746
0.00587582 -0.0963329 0.26472 -0.30904 0.643742 0.700065
-0.0148544 0.136524 0.335849 -0.302081 -0.639506 -0.706951
-0.0182501 -0.00381744 0.111448 1 0 0
-0.00201785 0.40188 0.0639294 -0.339024 0.694743 0.634346
-0.00568609 -0.31575 0.352096 -1 0 0
0.0271772 -0.2732 0.288248 -0.989804 0.13272 -0.0517043
-0.00568609 0.199486 0.0478246 -1 0 0
0.00376726 -0.110228 0.276566 -0.30904 0.643742 0.700065
-0.00342068 -0.169316 0.272506 -0.807994 -0.484023 -0.335959
-0.000106857 -0.190769 0.348917 0.309037 -0.643742 -0.700066
0.00741632 -0.189448 0.0587471 1 0 0
0.00498662 -0.461329 0.0862662 0.807893 -0.48405 -0.336161
0.0266831 0.207237 0.267787 -0.987021 0.156526 0.0359055
-0.00363021 -0.105942 0.274572 0.809025 0.39785 0.432659
-0.00501909 0.305967 0.172674 0.00259485 -0.808988 -0.587819
-0.00129841 -0.488048 0.164692 -0.30793 -0.948098 -0.0793009
0.00485822 -0.136534 0.418715 -1 -1.79571e-07 0
-0.00789186 0.301247 0.0899993 0.342301 -0.938727 -0.0402667
-0.00603284 -0.202849 0.159501 -0.761432 0.0137899 -0.648098
-0.00281427 0.0585813 0.421824 -0.809034 -0.584231 0.064324
-0.0131543 0.0506804 0.180139 1 0 0
0.00716239 0.233969 0.33328 0.807864 0.246927 -0.535148
-0.0326338 -0.303489 0.212041 0.85622 -0.474876 0.20342
-0.00160543 0.213936 0.317154 -0.307819 0.542511 -0.78162
0.00315025 -0.091262 0.422127 -0.308928 -5.535e-08 -0.951086
-0.00438198 0.469889 0.125577 -0.808089 -0.568358 0.154796
0.00523365 0.410802 0.134892 -0.968791 -0.0281658 0.246274
-0.00656 -0.34043 0.273512 -0.791002 -0.584864 -0.179583
0.0268146 -0.266172 0.380467 -0.0294574 -0.00805752 0.999534
0.0042289 -0.415958 0.0978748 0.968738 -0.227986 0.0978177
0.00149714 0.0472981 0.226361 -0.30938 -0.945221 0.104121
0.0339209 -0.261512 0.328834 0.856249 0.5086 -0.0903562
0.00632652 -0.0239046 0.198666 1 -2.96562e-05 -3.25252e-05
-0.0195438 0.183674 0.202613 -0.999669 -0.0257434 0
-0.00438688 0.202631 0.237799 -0.288486 0.385873 0.876287
0.023165 0.235701 0.245653 0.879198 -0.36811 -0.3025
0.00396629 0.0251445 0.148585 0.095076 -0.946755 -0.307596
-0.00169585 0.0431603 0.422565 0.808998 0 -0.587811
-0.00535251 -0.153765 0.111803 -0.807888 -0.533113 0.251211
0.00699983 0.468566 0.242423 0.808086 -0.534894 -0.246751
-0.000980367 -0.272804 0.404553 -0.300305 0.953843 0
-0.00116849 0.307648 0.0143159 -0.761795 -0.635422 -0.126124
-0.0350732 -0.267523 0.281004 -0.856259 0.505265 -0.107373
-0.0342118 -0.317474 0.180831 0 -1 0
-0.0102549 -0.320007 0.246236 -0.342732 0.939237 -0.0192199
0.0151612 0.0894069 0.496844 -0.176091 0.241342 -0.95433
0.0331518 -0.264502 0.304125 0.856309 0.509573 -0.0840837
0.00661336 0.145114 0.222111 0.807858 0.56868 -0.15482
0.00737521 0.396777 0.181611 -0.976931 -0.0830962 0.196728
0.00592335 -0.470715 0.254283 0.807893 -0.533153 0.251112
-0.000339641 0.0488058 0.348077 -0.308291 0.945578 -0.104109
0.00188975 -0.412222 0.0333279 -0.307881 0.548685 0.777273
-0.0228639 0.313295 0.204954 -0.999636 -0.025656 0.00833704
0.00630039 0.0160867 0.489973 -0.156339 0.368106 -0.916546
-0.00568609 -0.202856 0.314451 -1 0 0
0.0165071 0.295816 0.186386 -0.762196 0.118285 -0.636448
-0.00651073 0.241164 0.102667 0.762047 0.567021 -0.312685
0.00234334 0.417796 0.27229 -0.34259 -0.58029 0.738847
0.0938589 -0.346463 0.418204 0.567678 0.607035 0.556102
0.00268089 -0.152043 0.236466 0.307803 -0.920032 -0.242483
-0.0969941 -0.369096 0.455521 -0.951005 -0.287291 0.114248
-0.00482264 -0.257173 0.437116 -0.800146 0.599805 0
-0.00997563 0.334717 0.118341 -0.757224 0.643093 0.114203
-0.00427622 -0.282174 0.00529724 -0.807852 0.0491149 -0.587335
-0.00964323 0.337253 0.238924 0.342293 0.895887 -0.283234
0.0012639 0.471425 0.10228 -0.307711 -0.860803 0.405379
0.00436621 -0.188487 0.224406 0.287062 0.414273 -0.863698
0.00375425 -0.434135 0.292357 0.30779 0.670012 -0.675536
0.0124275 -0.343896 0.21781 -0.342382 0.580318 0.738922
0.00741632 -0.427456 0.0519897 1 0 0
-0.00972704 0.33502 0.119653 -0.975273 -0.162181 -0.150131
0.0203598 0.158681 0.303631 -0.990058 0.13987 0.0149
-0.012778 0.126359 0.510921 0.0527621 0.40727 -0.911783
-0.000476351 -0.474574 0.154589 -0.307745 0.94818 0.0790421
0.0045011 -0.151401 0.236342 0.307803 -0.920032 -0.242483
0.0023759 0.403496 0.0273411 0.308064 0.542674 -0.78141
0.0929974 -0.387543 0.45425 1 0 0
-0.00408864 -0.230435 0.397558 0.809027 -0.397848 -0.432657
-0.00442639 -0.235356 0.341003 -0.807894 0.251111 0.533152
-0.0336016 -0.254281 0.382191 0 0 1
0.0339403 -0.260695 0.387511 0 0 -1
-0.000601775 0.0305551 0.144533 0.0950326 0.585048 0.805411
-0.00432834 0.485144 0.15676 -0.808056 0.586659 -0.0536425
0.0359179 -0.285407 0.49957 0 0 1
-0.00568609 -0.382641 0.336767 -1 0 0
0.00301683 -0.142742 0.246311 0.308004 0.863789 0.398749
0.00514669 0.344867 0.0163315 0.808049 -0.150149 0.56966
-0.0100907 0.31008 0.171238 -0.000991431 0.309095 -0.951031
-0.00492051 -0.286761 0.476379 0.608308 -0.00476705 0.793686
-0.00568609 -0.347005 0.349107 -1 0 0
-0.0131543 0.0296399 0.183613 1 0 0
-0.00568609 0.293976 0.353425 -1 0 0
0.00481388 0.208773 0.0331871 0.308091 -0.548671 -0.7772
-0.0299022 -0.258839 0.373035 0.992828 0.118886 -0.0126191
0.00387839 0.0610992 0.44721 0.309042 -0.945334 0.104102
-0.0361161 -0.268032 0.380562 -0.0178573 -0.00488437 -0.999829
-0.00235138 0.428217 0.108582 -0.761937 0.416561 0.495913
0.0103852 -0.252612 0.140643 0.976793 -0.0621303 -0.204974
-0.00580011 -0.202073 0.16063 -0.342907 0.124708 0.931054
0.0694994 -0.290794 0.498117 -0.233523 -0.471327 0.850481
0.00128437 -0.241442 0.41158 -0.309039 -0.643743 -0.700064
-0.0206589 0.226975 0.202354 -0.999669 -0.0257434 0
0.0159896 0.126637 0.157975 -0.991743 0.128238 0
-0.00375019 0.2595 0.351025 -0.807816 -0.150372 0.569931
0.00741632 0.226301 0.0304732 1 0 0
0.00632656 -0.220893 0.390159 -1 -1.38526e-07 1.27371e-07
-0.0916393 -0.306046 0.487113 0.00846008 0.030667 -0.999494
0.0151846 0.316584 0.19656 -0.791205 -0.420371 0.444165
0.00485821 -0.0692703 0.419834 -1 -1.79571e-07 0
0.0279297 -0.288278 0.235199 0.989979 0.133655 -0.0455916
-0.000158388 0.158962 0.109922 -0.308017 0.863893 0.398516
-0.00200346 -0.0219404 0.209735 -0.809007 0.397868 0.432676
-0.0129994 0.346635 0.191999 0.762049 0.000846581 -0.647519
0.00727261 -0.17173 0.0721197 0.808085 0.481204 -0.339767
0.00522494 0.423308 0.304184 0.808033 -0.41829 -0.41487
0.0157825 -0.324845 0.166102 -0.968774 0.0281425 0.246345
0.0121892 0.156942 0.310936 -0.818235 0.430619 0.380866
0.0269464 -0.264982 0.350972 -0.990009 0.140337 -0.0137374
-0.00507382 -0.17185 0.070836 -0.808086 0.481203 -0.339766
-0.0131543 0.0697129 0.179708 1 0 0
-0.0137727 0.146216 0.124941 0.999349 0.0360885 0
-0.0320564 -0.270268 0.270709 0.855832 0.49608 -0.146476
-0.00286871 0.451891 0.0918968 -0.307959 -0.777089 0.548903
-0.00170083 0.0546035 0.399699 -0.809034 -0.584231 0.064324
-0.00877149 0.0681715 0.382822 0.81884 0.436169 0.373173
0.00935762 -0.331685 0.107959 0.341934 0.930065 -0.134391
-0.0160534 0.147423 0.166144 -0.325501 0.0558931 -0.943888
-0.000555075 0.200754 0.0467685 -0.97676 0.0989169 -0.190146
-0.00139681 -0.193563 0.368686 -0.809007 0.397868 0.432676
-0.00165528 0.359703 0.339808 -0.308219 -0.249983 -0.917883
0.00884573 -0.2571 0.423692 -0.300375 -0.953821 0
0.00741632 0.256711 0.0164208 1 0 0
-0.00598031 -0.309762 0.176447 -0.011927 0.309069 -0.950965
-0.00325259 0.00654525 0.416531 -0.809018 0 -0.587784
-0.0199603 0.145303 0.32202 -0.932262 0.151676 0.328454
0.0928383 -0.380685 0.46727 0 0.018672 -0.999826
-0.0371994 0.1185 0.488348 0.943898 0.325501 0.0557231
0.032878 -0.296184 0.226701 0.855727 -0.491531 0.161642
-0.00983786 -0.00239884 0.131183 -1 0 0
0.0289592 0.244874 0.169254 -0.322335 -0.057757 0.944862
-0.0131543 0.0672135 0.170512 1 0 0
-0.0127417 0.149416 0.314748 0.989002 0.147425 0.0118445
-0.0151946 0.185591 0.131963 0.999349 0.0360885 0
-0.034681 0.293836 0.174372 -0.287555 -0.140256 0.947439
-0.00800057 0.355827 0.110452 0.762372 0.406099 0.503857
0.0069851 -0.419087 0.185516 -0.976899 0.0830825 0.19689
-0.035067 -0.316753 0.178764 -0.00737222 -0.80897 -0.587803
0.00573335 -0.466185 0.264512 0.808057 -0.532932 0.251051
-0.00467426 -0.250006 0.0215395 -0.808107 -0.246743 0.534866
0.000602151 -0.272306 0.433464 -0.300305 0.953843 0
-0.00562457 0.329719 0.00640825 -0.808044 0.0490476 -0.587076
0.037618 0.29387 0.180564 -0.991873 0.126131 0.0167063
-0.00442663 0.190868 0.311634 -0.808086 -0.414894 0.418163
0.033326 -0.278654 0.244482 0.856308 0.495296 -0.146348
-0.00921813 0.351227 0.237663 0.341028 -0.706611 0.620001
-0.0131543 0.0687389 0.152193 1 0 0
0.00741632 0.139935 0.139796 1 0 0
0.00370484 -0.212535 0.102778 -0.976903 0.0629015 0.204217
-0.0236201 0.0741636 0.477062 0.973188 0.229941 -0.00563892
-0.0355761 -0.274145 0.387485 -0.026568 0.00726705 -0.999621
0.00594139 0.0341847 0.196677 0.309042 -0.945334 0.104102
-0.0273376 0.100448 0.496224 0.295883 0.257056 -0.919987
0.0138881 0.140962 0.51968 -0.0351548 0.595029 -0.802935
-0.0237953 0.074427 0.487788 0.962952 0.269462 0.0106676
0.000960708 -0.194365 0.352695 -0.30904 0.643742 0.700065
0.0038733 0.37425 0.347714 -0.307813 -0.405386 -0.860763
0.0837115 -0.292556 0.487183 0 0 -1
0.0275087 0.213801 0.261223 -0.990061 0.139847 0.0148713
-0.0403359 0.310846 0.18901 -0.401635 -0.624406 -0.66993
-0.0291909 0.254363 0.234974 -0.401635 -0.624406 -0.66993
-0.022749 0.220473 0.261977 -0.986587 -0.160706 -0.0286449
0.0929974 -0.388986 0.4437 1 0 0
-0.0158115 0.0584798 0.489886 0.322359 0.135759 -0.936832
0.0177485 0.309061 0.171262 0.000991431 -0.309095 -0.951031
-0.0348336 0.112063 0.485872 0.943898 0.325501 0.0557231
-0.00733841 -0.26053 0.430445 -0.800146 0.599805 0
0.00348578 0.0803734 0.1527 -0.820586 0.164435 -0.547357
0.00591574 0.331934 0.347893 0.807984 -0.0537562 -0.586747
-0.0183707 0.186506 0.169346 -0.322087 0.0559395 -0.945056
0.0019515 0.148072 0.258513 -0.307626 0.86083 -0.405387
0.00543129 -0.267436 0.0179019 0.808048 -0.150149 0.569661
-0.0319604 0.26126 0.230205 -0.401635 -0.624406 -0.66993
0.00510386 -0.477934 0.119896 0.808084 -0.534856 -0.24684
-0.0937037 -0.363791 0.474038 -0.572428 -0.64414 0.507356
-0.00712318 0.0802272 0.368579 -0.514834 0.517031 0.683831
0.00968597 -0.261445 0.415158 1 0 0
0.0309338 0.279458 0.172042 -0.322335 -0.057757 0.944862
-0.033511 -0.279631 0.237628 0 0.934722 -0.35538
-0.00458874 -0.479362 0.184018 -0.807833 0.586958 -0.05372
0.00632657 -0.0844669 0.2568 1 0 0
0.00425006 -0.187225 0.347582 -0.30904 0.643742 0.700065
0.0874867 -0.386585 0.460861 1 0 0
-0.0013422 -0.181422 0.357548 -0.308111 -0.643948 -0.700285
0.0279342 -0.278639 0.276776 -0.990008 -0.138124 0.0283797
-0.0265328 -0.282108 0.487183 0 0 -1
-0.00568609 -0.185623 0.0604276 -1 0 0
-0.0183123 0.129901 0.332127 0.876849 0.376755 0.29865
0.00643872 0.0528123 0.39279 -0.302206 0.644045 0.702765
-0.022694 0.190928 0.171011 -0.325501 0.0558931 -0.943888
-0.054254 -0.00248279 0.11032 0 1 0
0.00632653 -0.0769895 0.247376 1 -2.96562e-05 -3.25252e-05
0.0104425 0.179481 0.167054 0.098967 0.0781405 -0.992018
-0.0152638 0.318124 0.181442 -0.976782 -0.0233992 -0.212955
-0.0783159 -0.290944 0.49957 0 0 1
0.0336379 -0.259021 0.340193 0.855125 0.510494 -0.0903166
0.0460934 0.135595 0.509987 -0.178655 0.608693 -0.77303
-0.00189189 0.457687 0.205151 -0.968697 0.0690974 0.238436
-0.00568609 -0.166325 0.08523 -1 0 0
-0.000307213 -0.247158 0.400681 -0.30904 0.643742 0.700065
0.00968597 -0.261685 0.440755 1 0 0
-0.042968 -0.0208341 0.10932 0 1 0
0.00124212 -0.290855 0.359297 -0.307736 -0.0865292 -0.947529
-0.004822 0.0680562 0.482628 -0.809034 -0.584231 0.064324
-0.0309646 -0.29913 0.212831 0.990012 -0.131604 0.050554
0.00552421 0.249045 0.0230861 0.807821 0.251235 0.533203
-8.00298e-05 0.0725728 0.451145 0.308952 0.94536 -0.104125
-0.042839 0.306979 0.182601 0.956129 -0.100626 -0.27512
0.0147026 0.199516 0.169057 0.098967 0.0781405 -0.992018
0.0118477 0.164623 0.166023 0.098967 0.0781405 -0.992018
0.00625345 -0.0576198 0.229288 -0.30904 0.643742 0.700065
0.00741632 0.285271 0.354003 1 0 0
-0.0141503 0.297144 0.204606 0.761833 0.638087 -0.111604
-0.00253643 0.290298 0.346609 -0.307959 0.0790363 -0.948111
0.0129935 -0.327813 0.14401 0.341934 0.930065 -0.134391
0.0332542 -0.265501 0.299113 0.855839 0.510351 -0.08415
0.0276183 -0.261003 0.333871 -0.85601 0.514599 -0.0493469
-0.00326687 -0.26168 0.0542716 -0.287258 0.925327 0.247492
-0.00568609 -0.388468 0.0269438 -1 0 0
0.00418934 -0.245558 0.414082 -0.309039 -0.643743 -0.700064
-0.00295423 -0.398122 0.336424 -0.308014 -0.398772 0.863775
0.00195251 -0.271881 0.409711 -0.300305 0.953843 0
0.00135648 -0.474535 0.182476 0.968727 -0.111772 0.221527
-0.00484751 0.150332 0.120842 -0.808088 0.534892 0.246749
-0.0117487 0.135004 0.15775 0.25249 0.137191 -0.957824
0.00409614 -0.457198 0.0796781 0.308165 -0.781385 -0.542652
0.0066947 0.404762 0.208493 -0.288459 -0.413029 0.863828
-0.00335965 -0.174281 0.157053 0.968776 -0.0729781 0.236956
-0.0131543 0.0515376 0.135654 1 0 0
-0.01747 0.248479 0.145031 -0.999352 -0.0342248 -0.0111177
0.028098 -0.27719 0.257947 -0.98992 0.13424 -0.0451363
0.00394685 -0.182528 0.227611 0.968689 0.180862 -0.170088
0.00412018 0.195718 0.0580409 0.307756 0.675543 0.670021
0.0147838 0.0278154 0.16516 0.0950127 -0.585136 0.80535
0.0134136 0.332557 0.209652 -0.968714 0.0579642 -0.241317
-0.00018678 0.391072 0.340491 -0.308008 0.405359 0.860706
0.00944414 0.264227 0.235108 -0.342347 -0.82848 -0.443192
0.0023728 -0.19698 0.303503 0.307635 -0.675555 -0.670065
-0.00432263 0.433094 0.0537167 -0.808044 0.414941 -0.418197
-0.0105602 -0.375716 0.178517 0.289035 0.266407 -0.919503
0.00406012 -0.255782 0.481425 0.611921 0.790915 0.00246491
-0.00104398 0.0443072 0.309303 -0.308291 0.945578 -0.104109
0.002127 -0.469308 0.133111 0.30796 0.919989 0.242448
-0.0110059 -0.358042 0.225884 0.97689 -0.0954653 -0.191241
0.00261619 -0.425191 0.277204 0.790412 -0.421791 -0.444231
0.0251467 0.048811 0.171159 1 0 0
-0.0260584 0.0827538 0.481739 0.962952 0.269462 0.0106676
0.00266076 0.0660383 0.39995 0.308952 0.94536 -0.104125
0.0123747 -0.29407 0.134915 -0.762402 0.491819 0.420544
0.0119361 -0.36478 0.193682 0.34232 0.348555 0.87254
-0.00258498 -0.429539 0.251798 -0.790636 -0.332771 -0.513964
-0.00568609 0.449968 0.28371 -1 0 0
0.0274378 -0.275651 0.302621 -0.989718 -0.142993 -0.00338427
-0.00417459 -0.246467 0.014689 -0.808077 0.246847 -0.534863
0.00543889 0.4881 0.179777 0.807918 0.586849 -0.053628
-0.000466457 0.446557 0.0963953 0.2884 -0.548574 -0.784787
-0.00597403 0.405029 0.230052 0.791366 0.279181 -0.543872
0.00727748 0.400019 0.0298737 0.808036 0.336016 -0.483913
0.0047717 0.32655 0.303663 0.978305 0.200852 0.0507659
-0.0826424 -0.309633 0.494762 0.935278 -0.0584224 0.34906
0.0889045 -0.392669 0.435068 0 -1 0
-0.00725938 0.244177 0.243427 0.288088 0.78396 0.54992
-0.00228814 0.0623703 0.462855 -0.809034 -0.584231 0.064324
0.00057177 -0.154991 0.316317 0.309037 -0.643742 -0.700066
0.00547022 0.132949 0.161063 0.807865 -0.587317 -0.0491238
0.000972378 -0.39095 0.0352851 0.307768 0.405668 0.860646
-0.0151848 0.0334887 0.479995 0.975388 0.218631 -0.0286066
-0.0171962 -0.306205 0.171877 0.968789 -0.208187 0.134562
0.00644341 0.0703077 0.157349 0.285784 -0.138401 0.948247
-0.00568609 0.179265 0.292326 -1 0 0
-0.0175134 0.249892 0.205222 0.999279 0.0361041 -0.0117322
0.00632773 -0.132839 0.184568 0.808109 0.586988 0.0490392
-0.000403235 -0.414639 0.302584 0.968832 0.240299 0.0601758
0.0124015 0.281486 0.20755 -0.968802 -0.0577358 -0.241019
-0.00568609 0.465416 0.253604 -1 0 0
0.00541025 0.200997 0.0514779 0.808039 0.33988 0.481201
0.00605701 -0.484072 0.21344 0.807863 -0.5687 0.154716
0.0320943 -0.259648 0.322032 0.855125 0.510494 -0.0903166
0.00542505 0.430229 0.297596 0.808033 -0.41829 -0.41487
-0.0211067 0.325095 0.203828 0 -0.457084 -0.889423
0.031968 -0.301595 0.186833 0.856304 0.459142 -0.236497
0.00568337 0.439281 0.288973 0.808033 -0.41829 -0.41487
0.0300464 0.235277 0.173407 -0.991873 0.126131 0.0167063
0.00373295 0.135886 0.223061 0.307794 -0.918087 0.249759
0.00726082 0.354841 0.34498 0.8078 -0.154846 -0.568755
0.0122816 -0.312536 0.226279 0.757679 0.611141 0.228977
0.00247685 0.487202 0.208649 -0.30794 -0.948096 -0.0792955
-0.00635197 -0.405031 0.239854 -0.762023 0.208345 0.613118
-0.0345446 0.251031 0.173028 -0.809297 -0.04998 -0.58527
-0.000214991 0.442943 0.0807177 -0.307818 -0.777114 0.548946
-0.014112 0.311306 0.15454 -0.786703 0.491871 0.373043
-0.006002 0.0506713 0.306609 -0.808996 0.584282 -0.0643491
0.000749661 0.308438 0.00735469 0.97686 -0.197949 0.0809968
-0.0182501 0.0245561 0.141916 -1 0 0
0.00537326 0.176295 0.298686 0.807895 -0.415109 0.418317
-0.0109706 -0.354367 0.149575 -0.762431 0.220883 -0.608203
0.0313494 0.292464 0.180561 0.810692 -0.0362102 -0.584352
0.00307755 0.0247717 0.414804 0.309079 0 -0.951037
-0.0908608 -0.320308 0.498837 0 -0.234882 0.972024
0.0036513 -0.444347 0.228286 0.976821 -0.0117823 0.213735
0.000931224 -0.452691 0.265989 0.307698 0.777142 -0.548973
-0.00568609 -0.214128 0.0384507 -1 0 0
0.0131478 0.122363 0.346076 -0.514087 -0.515037 -0.685894
-0.00421891 -0.266255 0.300949 -0.762005 0.640002 -0.0987213
0.0400688 0.308717 0.181642 0.000991418 -0.309091 0.951032
-0.00416929 -0.256302 0.387569 0.800144 -0.599808 5.73029e-07
-0.00568609 -0.381471 0.0231797 -1 0 0
-0.00504048 -0.413549 0.315334 -0.807828 0.336131 -0.484179
0.00197379 0.362999 0.338436 0.30821 -0.249984 -0.917886
0.00216299 0.32677 0.0148381 0.307929 -0.0790076 0.948123
0.00284552 -0.374113 0.348164 0.30809 -0.398751 0.863758
-0.00131729 0.411368 0.312818 -0.308141 -0.548859 -0.777048
-0.00568609 0.282073 0.0100213 -1 0 0
0.0291811 0.286541 0.17792 0.810692 -0.0362102 -0.584352
-0.00162928 -0.227668 0.382763 0.809025 0.39785 0.432659
0.00968597 -0.263125 0.389099 -1 0 0
-0.020557 0.313724 0.190812 1 0 0
0.0921023 -0.391816 0.453024 0 -0.99723 0.0743798
0.00476762 -0.389163 0.340531 0.30809 -0.398751 0.863758
-0.00272017 -0.357123 0.31073 0.341912 0.86846 0.35899
0.00108195 -0.156465 0.126457 0.791396 0.244154 0.560429
-0.0433556 -0.290321 0.491767 0 -0.931036 -0.364926
0.0874867 -0.389293 0.430964 1 0 0
-0.00380222 -0.470736 0.105705 -0.807797 -0.535184 -0.247065
0.0215046 0.0624436 0.48899 -0.316932 0.134811 -0.938818
0.0137326 -0.323817 0.144521 -0.791449 0.546681 -0.273402
-0.0136471 0.327689 0.145613 0.762677 -0.636832 -0.112996
0.00681696 0.406092 0.136791 0.790815 0.244312 0.56118
-0.0131543 0.0139594 0.143494 1 0 0
0.0257812 0.0856002 0.200339 -1 0 0
0.0323791 -0.28392 0.226455 0.855617 0.480026 -0.193636
0.00282703 0.440609 0.0580234 -0.30793 -0.670173 0.675313
0.00384576 -0.476882 0.175894 0.307929 0.948123 0.0790077
0.0070345 0.468599 0.118282 0.807886 -0.533118 0.251207
-0.00128498 0.073468 0.455697 0.308952 0.94536 -0.104125
0.00589032 0.471489 0.228479 0.807888 -0.569865 -0.150236
0.0273037 -0.262864 0.338625 -0.989966 0.141305 -0.000492938
0.00415211 -0.488476 0.187807 0.308126 -0.947398 0.0865733
0.0104946 0.30023 0.247865 -0.975406 0.215639 -0.0456494
-0.0328613 0.23935 0.171698 -0.809297 -0.04998 -0.58527
0.00226541 -0.487467 0.205568 0.308126 -0.947398 0.0865733
-0.00598421 0.0510446 0.153027 -0.788608 -0.173293 0.589972
0.0107883 -0.268557 0.229273 -0.289035 0.541433 -0.789499
0.000513791 0.0629674 0.388251 0.934304 0.15677 0.320156
0.0027195 0.467388 0.125356 0.307953 -0.917964 0.250014
0.00609259 0.413282 0.0466865 0.807847 -0.336125 0.484153
-0.0116828 0.141957 0.319178 -0.988995 -0.147471 -0.011902
-0.004891 -0.460595 0.0891391 -0.807993 -0.483951 -0.336064
-0.00568609 -0.175367 0.290134 -1 0 0
0.0023598 -0.134953 0.221277 0.308104 0.919883 0.242666
0.00569778 0.192287 0.0596087 0.808083 0.41824 0.414821
0.00263358 0.1511 0.0963633 -0.307805 0.86384 0.398794
0.00542736 -0.3663 0.0791797 -0.342517 0.798014 -0.495839
0.00313564 0.0685446 0.414823 0.309079 0 -0.951037
0.0152811 0.175318 0.16354 -0.820586 0.164435 -0.547357
-0.0218365 0.305546 0.17318 0.00259485 -0.808988 -0.587819
-0.00455216 -0.286057 0.487504 0 -0.515974 -0.856605
-0.0143544 -0.0119304 0.142814 0 -0.988208 -0.153117
0.0351905 -0.312684 0.177515 1 0 0
0.0165111 -0.268133 0.380148 -0.0294575 -0.0080574 0.999534
0.0269675 -0.271493 0.380429 -0.0294574 -0.00805752 0.999534
0.00859802 -0.289338 0.480972 -0.951624 -0.0156025 0.30687
0.0108837 0.084925 0.366338 0.990056 -0.139883 -0.0149161
-0.00237702 -0.290736 0.0144809 -0.307893 -0.0790381 0.948132
-0.096357 -0.370873 0.456356 -0.951005 -0.287291 0.114248
0.00382616 -0.268196 0.386791 0 0 -1
-0.000137267 0.33733 0.0158142 -0.307892 -0.0790156 0.948134
-6.93174e-05 0.0756603 0.155783 0.0231822 -0.103465 0.994363
-0.000816481 -0.416977 0.305999 -0.790596 0.439585 0.42629
0.00553262 0.146626 0.138998 0.808056 0.569652 0.150137
-0.020557 0.329854 0.184903 -1 0 0
-0.00420549 0.149824 0.23587 -0.80809 0.568358 -0.154791
0.0150473 0.311995 0.148964 -0.976893 -0.212077 -0.0265096
-0.0299803 0.246427 0.225286 -0.594027 0.477092 0.6477
0.00323787 -0.359465 0.00861792 0.307957 -0.249768 -0.91803
0.0041993 0.166731 0.267834 0.307821 0.777121 -0.548935
0.0305232 -0.309449 0.176091 -0.011927 0.309069 -0.950965
-5.01755e-05 0.467608 0.127319 -0.307962 -0.917961 0.250014
-0.00568609 0.245139 0.34101 -1 0 0
-0.00775227 0.13084 0.163194 -0.132845 0.0906635 -0.986981
0.0269478 0.258162 0.215701 0.956312 0.109532 0.271055
-0.00384983 0.030303 0.417353 -0.809018 0 -0.587784
0.0060358 0.372544 0.0234611 0.808055 -0.246773 0.53493
-0.0183985 0.166977 0.29443 -0.594027 0.477092 0.6477
-0.00148643 0.0409165 0.422853 0.808998 0 -0.587811
-0.0361935 0.260724 0.222645 -0.932262 0.151676 0.328454
0.00476027 -0.287389 0.0562515 0.976776 -0.179437 -0.117093
0.0917495 -0.343916 0.491259 0 -0.382858 0.923807
-0.00183155 -0.347383 0.00543957 -0.307865 -0.249775 -0.918059
0.000453949 0.318631 0.0144479 -0.307938 -0.0790074 0.94812
0.0327358 0.117137 0.502848 -0.244351 0.425874 -0.871162
-7.66632e-05 0.48893 0.169898 -0.308134 0.947401 -0.0865203
-0.0362981 -0.290674 0.22005 -0.990007 0.129567 -0.0556659
-0.00209497 -0.453956 0.265821 -0.307707 0.77714 -0.548971
0.0912791 -0.308499 0.499488 0.00444236 -0.00907426 0.999949
-0.00504288 -0.262229 0.343796 -0.807879 -0.154817 -0.568651
-0.00862345 0.375077 0.209503 0.762267 -0.425749 0.487531
0.00512845 -0.465951 0.119112 0.80812 0.534853 0.246728
0.0120774 0.121004 0.347899 -0.514087 -0.515037 -0.685894
-0.00401289 -0.146337 0.222115 -0.808058 -0.569651 -0.150137
0.00473828 0.405838 0.0980276 0.761892 0.500709 0.410866
-0.0213616 0.254757 0.145409 -0.999671 -0.025644 0
-0.0887485 -0.357265 0.435063 0 0.952264 0.305274
0.00421105 0.332482 0.0441575 0.976794 -0.179343 -0.117084
-0.00174805 0.0441409 0.193876 -0.808756 0.584609 -0.064395
-0.0361531 0.273264 0.203653 0.876849 0.376755 0.29865
-0.000125867 -0.385436 0.34329 -0.308014 -0.398772 0.863775
-0.0145524 0.149002 0.310986 -0.514834 0.517031 0.683831
0.00700167 -0.324403 0.275803 -0.968784 -0.199252 -0.147502
-0.089765 -0.323445 0.498079 0 -0.234882 0.972024
-0.0131543 0.0527349 0.113286 1 0 0
0.0939766 -0.359657 0.415238 0.567677 -0.606954 -0.556192
0.00632654 -0.128277 0.304243 -1 -1.38526e-07 1.27371e-07
-0.0366097 0.265285 0.174667 -0.809297 -0.04998 -0.58527
0.00214694 0.166279 0.266043 0.307821 0.777121 -0.548935
-0.00470836 0.262711 0.343355 -0.807812 0.150267 -0.569965
0.00785322 0.314803 0.175887 -0.00321933 0.999995 0
-0.00377012 -0.264201 0.381282 0 0 -1
0.0060018 -0.478166 0.169182 0.808031 0.587104 0.0489421
-0.0975015 -0.362205 0.430417 0.948461 -0.262243 -0.177906
0.00525794 0.181322 0.303897 0.807895 -0.415109 0.418317
-0.0229246 0.31528 0.203783 -0.999636 -0.025656 0.00833704
-0.00280243 -0.475623 0.158115 -0.307745 0.94818 0.0790421
0.0234979 0.069102 0.481864 -0.971886 0.2349 -0.016134
-0.0423114 0.305747 0.179095 -0.809297 -0.04998 -0.58527
-0.00239019 0.231179 0.341108 -0.308295 -0.398698 0.863709
