-0.0126967 -0.00760127 0.13148 0 0.892531 0.450986
0.00379225 -0.292397 0.308198 -0.761978 0.606496 -0.227049
-0.0362672 -0.275494 0.310554 -0.856244 -0.509748 0.0836866
-0.00111832 -0.469024 0.154309 -0.762146 -0.234477 0.603452
-0.0157821 -0.00289879 0.176341 -1 0 0
0.0145417 0.278272 0.164087 -0.762282 0.499646 -0.411436
0.0325351 -0.274183 0.351845 0.856295 -0.516443 0.00666919
0.00564584 0.472683 0.222632 0.808058 -0.569651 -0.150137
0.00217957 0.0409501 0.170761 -0.30938 -0.945221 0.104121
0.0143003 0.301676 0.206274 -0.288192 0.922509 -0.256755
-0.0292781 0.213973 0.169747 -0.788608 -0.173293 0.589972
0.0063265 0.0544557 0.376704 -1 0 0
0.0156689 -0.333286 0.178566 -0.968763 0.179923 0.170663
-0.00762244 -0.220486 0.162425 -0.342907 0.124708 0.931054
-0.00476108 -0.203059 0.242452 -0.762071 0.426773 -0.486942
0.00359973 0.291048 0.358449 0.308131 -0.0792649 0.948036
0.00605055 -0.172054 0.0687543 0.808085 0.481204 -0.339767
0.0308858 -0.284591 0.49957 0 0 1
0.0327451 -0.289859 0.213357 0.856261 0.478987 -0.193363
-0.00462796 0.454436 0.0795096 -0.808018 0.481275 -0.339826
-0.00568609 0.447974 0.283056 -1 0 0
0.0129776 -0.326843 0.149573 0.976806 0.179284 -0.117078
0.0105799 0.364403 0.136234 -0.791085 0.364539 0.491218
0.023365 0.183353 0.16874 -0.991873 0.126131 0.0167063
-0.00556725 0.460522 0.260827 -0.80779 -0.535231 -0.246986
0.00623569 -0.32279 0.011903 0.807847 0.0537257 0.586939
-0.0915266 -0.332991 0.411915 0 0.50239 0.864641
0.0339336 0.26541 0.172657 -0.991743 0.128238 0
-0.000127845 0.415162 0.305649 -0.790657 0.496093 -0.358822
-0.0279659 0.111327 0.500969 0.248676 0.426588 -0.869588
0.00181682 0.452801 0.229679 0.790621 -0.173687 0.587155
-0.0319159 -0.273416 0.369439 0.856296 -0.516443 0.00666646
-0.00234584 -0.147514 0.140054 -0.307959 -0.917964 0.250005
0.0447215 0.13763 0.511907 -0.178655 0.608693 -0.77303
0.0049695 0.158123 0.109219 0.808087 0.534893 0.24675
0.000325585 -0.173717 0.276284 -0.308209 -0.78155 -0.54239
0.00658649 -0.395311 0.335115 0.807869 -0.247025 0.535095
-0.000779496 -0.14696 0.216964 -0.307969 -0.919986 -0.242446
-0.000619554 -0.341907 0.357537 -0.308112 -0.242673 0.919879
-0.000249893 -0.208538 0.0608547 0.762002 0.40644 0.504143
0.0846245 -0.337539 0.401073 -0.535395 -0.307213 -0.786748
0.0228419 0.226189 0.256288 0.879198 -0.36811 -0.3025
0.0063265 0.0600266 0.405789 1 0 0
0.0165812 0.127232 0.338865 -0.987021 0.156526 0.0359055
0.0049524 -0.486018 0.211414 0.807918 -0.586849 0.0536263
-0.00647658 -0.254391 0.258873 0.96883 0.100994 -0.226204
0.00311458 0.44387 0.0813732 0.30795 -0.777091 0.548904
-0.0940224 -0.375997 0.481995 -1 0 0
-0.00246848 0.358313 0.0398504 -0.790307 -0.559246 -0.250318
0.0971987 -0.361107 0.430055 -0.949953 -0.274831 -0.148516
-0.00632786 -0.404645 0.123258 -0.968701 0.0166112 -0.247673
-0.00377476 0.191186 0.106169 -0.790944 -0.343306 0.506506
0.0146172 0.320209 0.15304 0.343071 -0.929636 -0.134461
-0.00417114 -0.350607 0.29442 -0.968685 0.168203 0.182639
0.000918901 -0.247113 0.422852 -0.308928 -5.535e-08 -0.951086
0.00632656 -0.201558 0.368408 -1 -1.38526e-07 1.27371e-07
0.0339271 -0.272457 0.309893 0.989893 -0.137105 0.0362414
0.00348326 -0.249056 0.0683982 -0.790703 -0.547456 -0.27401
-0.0131543 0.055083 0.158215 -1 0 0
-0.0308779 0.258649 0.23199 -0.401635 -0.624406 -0.66993
-0.0131543 0.00465481 0.145509 1 0 0
-0.0262813 0.207257 0.276619 0.956129 -0.100626 -0.27512
0.00948314 0.325379 0.105592 0.289518 0.954403 0.072755
0.00271709 0.392405 0.0351007 0.307866 -0.398547 0.863932
-0.0103453 0.244958 0.178839 -0.342317 0.1821 0.921769
-0.00568609 -0.40538 0.325298 -1 0 0
-0.00568609 0.261652 0.0129654 -1 0 0
-0.0318643 0.29045 0.175771 -0.990353 -0.138565 0
0.00749399 0.0122998 0.488247 -0.2577 0.381246 -0.88783
0.00515575 -0.228624 0.257469 -0.976907 -0.190178 0.0973882
0.00850018 0.11182 0.154659 0.777837 -0.164842 0.606463
0.00753597 0.286556 0.0894723 0.976766 0.179491 -0.117096
-0.00708367 -0.212919 0.204284 -0.790966 0.149363 -0.593349
-0.00568609 0.155834 0.263287 -1 0 0
0.00717147 0.411464 0.180302 0.976803 0.0841649 -0.196906
0.0972978 -0.339026 0.485177 -0.937737 -0.133046 0.320857
-0.00582434 0.404343 0.12402 0.342086 0.487578 0.803271
0.00418991 0.0655539 0.486737 0.309042 -0.945334 0.104102
-0.00366947 -0.240338 0.0275179 -0.808107 -0.246743 0.534866
-0.00245878 -0.467611 0.23671 -0.308018 0.917946 -0.250001
0.00612699 -0.278479 0.379905 -0.0630407 0.995756 0.0670543
-0.00932098 -0.39162 0.173482 -0.976779 -0.0464748 -0.209149
0.0163973 -0.289881 0.496108 0 -0.93107 0.36484
0.00661669 0.466267 0.114675 0.807886 -0.533118 0.251207
-0.017117 -0.301773 0.187448 0.968845 -0.168448 -0.181564
0.0100345 0.237246 0.143847 -0.968773 0.0281429 0.246348
0.00475593 -0.420448 0.0546852 0.307907 0.675508 0.669986
0.00485822 -0.150933 0.416138 1 1.79571e-07 0
-0.014562 0.0782562 0.493869 0.181434 0.241862 -0.953197
0.0038771 0.201632 0.308596 0.307989 0.669946 -0.675511
-5.26211e-05 -0.467223 0.125625 -0.761842 -0.10668 0.638918
0.00530578 -0.142244 0.167524 0.808058 -0.586647 0.0537466
7.00378e-06 0.134401 0.141082 -0.307822 -0.919959 -0.242738
-0.0310215 0.234785 0.237128 0.876849 0.376755 0.29865
0.0131517 0.100396 0.361577 -0.987021 0.156526 0.0359055
0.00976805 -0.374346 0.151398 0.79143 -0.244142 0.560387
-0.00969953 0.0242726 0.158945 -0.0950461 -0.946755 0.307607
0.00721295 -0.48467 0.169443 0.808109 -0.586988 -0.0490392
0.00575766 0.14176 0.195059 0.808058 0.586647 -0.0537466
-0.00399308 -0.482404 0.221314 -0.807864 -0.568699 0.154715
-0.00600193 -0.0314045 0.210962 0.809027 -0.397848 -0.432657
0.00233801 -0.255051 0.443037 0.300375 0.953821 0
-0.00802922 -0.317359 0.265334 -0.761689 -0.63805 0.112789
0.00102062 0.278558 0.020093 -0.791129 -0.594944 0.141975
-0.00568609 -0.16946 0.0817433 -1 0 0
-0.00439556 -0.397681 0.278237 -0.968638 -0.241239 -0.0595312
0.0259657 -0.276717 0.386664 0.106359 -0.994077 -0.0223253
-0.0039859 0.38293 0.0817545 0.975363 -0.208995 -0.0706272
-0.0073676 0.302154 0.267553 0.288782 0.953815 -0.082713
0.00607092 0.24487 0.0242249 0.807821 0.251235 0.533203
-0.0134183 -0.290433 0.492051 0 -0.931036 -0.364926
-0.000460952 -0.437011 0.288792 -0.307799 0.67001 -0.675534
-0.013932 -0.330874 0.159781 -0.34244 -0.452993 0.823123
-0.0136488 0.283863 0.162701 0.762047 0.567021 -0.312685
0.00264609 0.0630306 0.372599 0.308952 0.94536 -0.104125
0.00177954 0.195142 0.27093 -0.968802 -0.0577358 -0.241019
0.0871334 -0.361354 0.482194 0 -0.0060805 -0.999982
0.0304637 -0.282987 0.279084 0 -0.987792 0.155779
0.00777048 0.122398 0.509522 -0.0481617 0.40713 -0.9121
0.0102931 0.280007 0.113738 -0.289541 -0.778648 0.556663
-0.00533722 -0.291688 0.0111767 -0.807852 -0.0490098 0.587344
0.00239995 0.134195 0.162684 0.098967 0.0781405 -0.992018
-0.00994843 0.300214 0.238253 -0.76222 -0.637414 0.112803
-0.0139562 -0.278687 0.191249 -0.976806 -0.0277811 0.212318
0.0121488 -0.362658 0.191105 -0.288964 0.413007 0.86367
0.00909827 -0.24987 0.139364 0.790836 -0.36382 -0.492152
0.00387879 0.180441 0.287063 0.307959 0.777096 -0.548892
-0.00291892 0.00574851 0.182562 -0.808982 0.397891 0.432701
0.0685151 -0.283502 0.49957 0 0 1
0.0365344 0.0777528 0.204893 0 0 1
-0.0921442 -0.359967 0.445423 0 0.999515 -0.0311279
0.0419852 0.125999 0.492202 -0.929626 0.367976 -0.0197444
-0.00481934 -0.242024 0.0940631 0.975374 -0.208957 -0.0705903
-0.00568609 0.341499 0.0118945 -1 0 0
-0.0418613 -0.276019 0.495358 0 0.931154 0.364626
-0.0230755 0.336927 0.179512 -1 0 0
0.0837779 -0.32447 0.488056 -0.934581 0.063142 -0.350102
0.00626618 0.22604 0.112455 0.761794 -0.500784 0.410957
0.0063265 0.0692633 0.456593 1 0 0
0.00255745 -0.236233 0.330182 0.307914 -0.40562 -0.860617
-0.00495645 0.382958 0.273023 -0.968719 -0.100261 0.227004
-0.00546094 0.210533 0.0417533 -0.807889 0.339969 0.48139
-0.00481522 -0.0669051 0.245826 0.809027 -0.397848 -0.432657
-0.0831312 -0.330434 0.488256 0.935354 0.0831629 -0.343796
0.0037001 -0.336269 0.0496792 -0.289746 0.954235 -0.0740505
0.00465411 0.331168 0.0606653 -0.976925 0.179336 0.115997
-0.00474121 -0.257065 0.398603 0.800144 -0.599808 5.73029e-07
0.00952113 0.239758 0.193519 0.968698 -0.180847 -0.170057
-0.0820361 -0.305163 0.495302 0.821505 -0.452354 0.34714
0.0279361 -0.259963 0.339203 -0.85601 0.514599 -0.0493469
-0.00711581 -0.317104 0.0919641 -0.79099 0.61103 -0.0312785
5.43527e-05 0.412651 0.0494908 -0.307769 -0.542547 0.781615
-0.00610169 -0.316746 0.294019 -0.968686 -0.222864 0.109454
0.0858028 -0.300454 0.49957 0 0 1
0.00510653 -0.333697 0.346817 0.808033 0.0489419 -0.5871
-0.00843227 -0.278765 0.11094 0.790581 0.559381 0.249147
-0.0660671 -0.283491 0.487183 0 0 -1
-0.00710657 0.237425 0.251391 0.976889 -0.095468 -0.191243
-0.000195086 -0.230482 0.413741 -0.309076 -5.55012e-08 0.951037
-0.0395917 -0.00248279 0.106407 0 -1 0
-0.0131543 0.0697464 0.150258 1 0 0
-0.00923242 -0.233857 0.201981 0.976869 -0.117897 0.178399
0.00968597 -0.264717 0.43653 1 0 0
-0.0119046 -0.264319 0.166719 -0.342907 0.124708 0.931054
0.0834895 -0.354508 0.413935 -0.946074 -0.23885 -0.218849
-0.0131543 0.0141717 0.128805 1 0 0
0.0018428 -0.382188 0.0308439 0.307768 0.405668 0.860646
0.00267466 0.481747 0.130361 0.307844 0.918069 -0.249762
0.00234984 -0.36512 0.351413 -0.307864 0.242727 -0.919948
0.00325767 -0.170846 0.332082 -0.30904 0.643742 0.700065
-0.00847731 -0.263541 0.468578 0.999919 0 0.0127471
0.0126497 0.145608 0.312369 0.934304 0.15677 0.320156
0.00533671 0.371479 0.0240258 0.808055 -0.246773 0.53493
-0.00431738 -0.452454 0.0760368 -0.807894 -0.484049 -0.33616
0.0331341 -0.309111 0.181092 0.989901 0.118784 -0.07737
0.0253717 0.30637 0.180786 0.00259453 -0.808887 0.587958
-0.005167 0.221129 0.332978 -0.808057 -0.336003 0.483886
0.0251467 0.0503321 0.169631 -1 0 0
-0.00914286 0.350437 0.114016 0.288422 0.663276 0.690563
0.00872177 0.346938 0.0964462 0.968657 -0.136216 -0.207725
-0.00488445 -0.204908 0.123972 -0.791049 -0.26691 -0.550454
0.00623925 -0.210035 0.0347011 0.808035 0.336024 -0.483908
-0.00568609 -0.214421 0.323495 -1 0 0
-0.00233772 -0.183082 0.357289 -0.808982 0.397891 0.432701
0.00392085 0.40455 0.31798 0.308132 -0.54886 -0.77705
-0.00991708 -0.277124 0.236017 -0.342606 0.707166 -0.618496
0.00252089 0.154754 0.0892808 0.308001 -0.781407 -0.542714
0.0274129 -0.281402 0.487183 0 0 -1
-0.0172238 0.241783 0.142054 0.999349 0.0360885 0
-0.00579707 0.210324 0.115982 -0.790944 -0.343306 0.506506
0.0204285 0.206913 0.25965 0.934304 0.15677 0.320156
0.00395304 0.410659 0.266389 -0.968714 0.0579642 -0.241317
0.00870765 0.379173 0.12286 -0.968774 -0.22741 -0.0987973
0.00554814 0.0525269 0.157211 -0.309429 -0.081469 0.947426
0.00987881 0.350178 0.238495 -0.762556 -0.609951 0.215562
-0.0131543 0.0640928 0.128594 1 0 0
0.0188218 0.0665234 0.190975 0 -0.707108 0.707105
0.00697064 0.160051 0.26225 0.808062 0.532878 -0.251152
-0.0310657 0.281664 0.198754 -0.988995 -0.147471 -0.011902
-0.0126026 0.0990178 0.120237 0 0.175401 -0.984497
0.00348364 -0.332526 0.309892 -0.96878 -0.199243 -0.147539
-0.00219612 0.0448451 0.205896 -0.808756 0.584609 -0.064395
0.0213163 0.182472 0.280362 -0.302206 0.644045 0.702765
0.0854148 -0.361671 0.449129 -0.59443 0.797523 -0.103004
-0.00544404 -0.451799 0.274856 -0.807862 0.481427 -0.33998
-0.00568609 0.369241 0.345271 -1 0 0
-0.091032 -0.345453 0.474408 0 0.61622 -0.787574
-0.023804 -0.308253 0.17804 -0.00736975 0.809113 -0.587606
0.028843 0.252876 0.236285 -0.594119 -0.475564 -0.648738
0.00474976 0.0235392 0.153768 0.0950687 -0.94675 -0.307614
-0.0238365 0.174819 0.297388 -0.932262 0.151676 0.328454
-0.00677809 -0.343735 0.0825282 -0.790615 -0.588947 0.167536
-0.0131543 0.0295205 0.189584 1 0 0
-0.00872837 -0.262427 0.381282 0 0 -1
-0.0131543 0.0644137 0.187302 1 0 0
-0.00532548 -0.147328 0.113282 -0.808062 0.532923 -0.251055
-0.00653445 0.0790439 0.165627 -0.800647 0.0615371 -0.595968
0.0112866 -0.346739 0.224849 -0.341846 -0.828667 -0.443229
0.00459728 0.138795 0.232689 0.307794 -0.918087 0.249759
0.00314116 0.282516 0.0434795 0.76217 -0.647338 -0.00717164
-0.0135274 -0.313326 0.150086 -0.342675 -0.876036 0.339314
-0.00319385 0.0499379 0.264662 -0.808756 0.584609 -0.064395
-0.00843677 -0.261995 0.416804 -0.800146 0.599805 0
0.0874867 -0.389658 0.45702 -1 0 0
0.0020655 -0.47551 0.194846 0.307727 0.947504 -0.0868359
0.00514527 0.345402 0.00564594 0.807832 0.150368 -0.56991
-0.00501831 0.0525129 0.33903 0.808986 0.584295 -0.0643505
0.0901439 -0.319053 0.406805 0 0.128315 0.991733
0.0337438 -0.286767 0.252891 0.855803 -0.502382 0.123339
-0.00539434 -0.205206 0.371917 0.809027 -0.397848 -0.432657
0.00502833 0.175415 0.0800775 0.807997 0.484013 0.335965
-0.00487107 0.480476 0.223617 -0.808052 0.569632 0.150236
0.00741632 0.459106 0.0894954 1 0 0
-0.0122589 0.0594177 0.491097 0.197755 0.119205 -0.972976
-0.00370653 0.486782 0.165312 -0.80792 0.586848 -0.0536279
-0.00568609 0.186634 0.302625 -1 0 0
0.0285922 0.0886556 0.49299 -0.29072 0.256205 -0.921868
0.0261214 0.2685 0.214439 0.956312 0.109532 0.271055
0.00675459 -0.270316 0.352246 0.808085 0.154686 0.568393
0.029849 0.280227 0.196549 0.956312 0.109532 0.271055
-0.00295413 -0.264267 0.0591694 0.968844 -0.246337 0.0256565
0.00391981 -0.439467 0.183667 -0.288815 0.0926989 -0.952887
0.00352969 -0.213103 0.268065 -0.762391 0.318336 -0.563403
-0.00371811 -0.273709 0.0162243 -0.808049 -0.150148 0.569659
-0.00434737 0.279067 0.347155 -0.807978 0.15017 -0.569755
-0.00321016 0.420148 0.114355 0.968765 -0.205378 -0.138978
0.00580153 -0.113589 0.280555 -0.30904 0.643742 0.700065
-0.00337118 0.0820764 0.370472 -0.988995 -0.147471 -0.011902
-0.013411 0.1362 0.124744 0.999349 0.0360885 0
-0.00242701 0.0459551 0.312016 -0.809034 -0.584231 0.064324
0.00203533 0.19344 0.0612961 0.308124 0.675498 0.669897
0.00794576 -0.349209 0.105314 0.790689 -0.548003 0.272953
-0.00568609 0.289653 0.0106446 -1 0 0
0.000562694 -0.129635 0.292997 0.309037 -0.643742 -0.700066
-0.00810616 0.388958 0.21838 -0.976799 -0.0278 0.212345
-0.017236 0.0463384 0.484785 0.984119 0.172912 -0.0401376
-0.00724482 0.278553 0.0813534 0.762212 -0.561005 0.322965
0.00534476 0.463523 0.247933 0.808086 -0.534894 -0.246751
0.0143975 -0.283182 0.171475 -0.288985 -0.68349 -0.670321
-0.000286929 0.365809 0.00973258 -0.307957 0.24273 -0.919915
0.00655873 -0.458696 0.262278 0.808063 0.532876 -0.251151
-0.00151924 -0.192369 0.299257 -0.307644 -0.675553 -0.670062
-0.000908333 0.297349 0.346668 -0.308152 0.0790017 -0.948051
-0.00262136 0.165075 0.0754595 -0.30801 -0.781405 -0.542712
8.53769e-05 0.147476 0.217888 -0.307712 0.918029 -0.250071
-0.0158316 0.0505462 0.105795 0 -0.185289 0.982684
-0.00551992 -0.136389 0.150708 -0.808056 0.586659 -0.0536404
-0.00892665 0.38687 0.157239 0.790757 -0.135745 -0.596889
-0.00781759 -0.385447 0.22921 -0.289142 0.385725 0.876135
0.0036957 -0.475437 0.112924 0.30809 -0.863758 -0.39875
0.00177416 0.147504 0.176042 0.968698 -0.111779 0.221651
0.00741632 0.258719 0.0168133 1 0 0
0.00859921 0.31397 0.25397 -0.976921 -0.208217 -0.0476584
0.0853704 -0.30025 0.487183 0 0 -1
0.0274683 -0.269222 0.373626 -0.990007 -0.140978 -0.00352328
-0.000771561 -0.1558 0.156284 -0.342907 0.124708 0.931054
0.0104981 -0.273034 0.238978 -0.342292 0.828501 -0.443196
0.00477286 0.28709 0.302951 0.968727 0.198754 0.148543
-0.00225695 -0.158566 0.251916 -0.308012 -0.863887 -0.398532
-0.00507546 -0.46136 0.0906831 -0.807993 -0.483951 -0.336064
-0.0216855 0.304937 0.202562 0 -0.0106026 0.999944
-0.0340357 0.302647 0.185553 -0.988995 -0.147471 -0.011902
-0.0100775 -0.317899 0.109884 -0.976839 0.197589 -0.0821182
-0.00568609 0.440279 0.293738 -1 0 0
-1.03425e-05 0.02675 0.166132 0.0949119 -0.585444 0.805138
0.0150668 0.288763 0.186367 0.341757 0.0291777 -0.939335
0.00918591 0.297102 0.260776 0.968727 0.198754 0.148543
0.000813529 0.335363 0.336293 0.337572 0.92138 -0.192624
-0.0329997 0.253948 0.218848 0.81884 0.436169 0.373173
-0.00437883 0.152549 0.11757 -0.808088 0.534892 0.246749
-0.00376364 -0.370643 0.337672 -0.808089 0.246749 -0.53489
-0.0369197 -0.282117 0.255829 0.989915 0.138738 -0.0286333
0.0104371 0.310611 0.18165 -0.000991427 0.309094 0.951031
-0.0039272 -0.268078 0.295961 0.976886 0.158182 -0.14378
-0.00461681 -0.372381 0.0150238 -0.807886 -0.251116 -0.533162
0.00719591 -0.190473 0.309431 0.808086 0.418163 0.414894
0.00510354 0.209671 0.0969521 0.790855 0.363804 -0.492134
0.00741632 0.449203 0.285466 1 0 0
-0.00137978 0.0332805 0.413954 0.808899 0 0.587948
-0.0961906 -0.324238 0.397932 -0.533556 -0.268943 -0.801865
-0.0218537 0.165439 0.162789 -0.809297 -0.04998 -0.58527
-0.00238276 -0.220873 0.0387991 -0.307906 -0.542506 0.781589
0.016378 0.168773 0.29039 -0.400232 0.628296 0.667127
-0.0146657 -0.310766 0.208768 -0.761833 0.553921 0.335831
-0.0206614 0.227259 0.204281 -0.999636 -0.025656 0.00833704
0.00180334 0.320674 0.359704 -0.307943 -0.0865526 -0.94746
0.00741632 -0.252792 0.343019 1 0 0
0.00877123 -0.263372 0.256247 0.96869 0.247875 -0.0140372
-0.00415154 -0.387151 0.330642 -0.807793 0.246984 -0.535229
-0.017348 0.122427 0.338726 0.876849 0.376755 0.29865
0.00958545 0.248584 0.23219 0.968693 0.0568616 0.241663
-0.019273 0.172996 0.133095 -0.999673 -0.0243196 -0.00790004
0.0063973 0.325003 0.0117562 0.80785 -0.0489969 0.587347
0.0108887 0.346937 0.218729 0.287789 -0.540662 0.790482
-0.00467895 0.0454944 0.242973 0.808805 -0.584542 0.0643858
-0.0184927 0.205586 0.139223 0 0.175401 -0.984497
-0.000495593 0.148483 0.101716 -0.307814 -0.863837 -0.398793
-0.00776259 0.355347 0.243407 -0.976801 0.205587 -0.0599543
-0.00439455 0.0543125 0.363186 0.807509 0.586305 -0.0646169
-0.0899331 -0.373714 0.457458 0 -0.929284 0.369365
0.00741632 0.145333 0.128872 1 0 0
0.0304026 -0.280082 0.297506 0 -0.987792 0.155779
-0.0054231 0.270458 0.0632061 -0.96867 0.172049 -0.1791
-0.00521637 0.196764 0.191722 0.289016 0.247088 0.924888
-0.00312575 0.430003 0.0641178 -0.307784 -0.670011 0.67554
0.00632653 -0.0901271 0.270094 -1 -1.12565e-07 1.55559e-07
0.00697226 -0.136391 0.212416 0.808054 0.569631 0.150231
-0.0037371 -0.150974 0.100431 -0.807858 0.533197 -0.251131
-0.00568609 -0.423419 0.310178 -1 0 0
-0.00501275 -0.193731 0.158497 -0.761432 0.0137899 -0.648098
-0.000624428 0.154513 0.148757 0.97693 0.0454891 0.20866
0.00297783 -0.0252799 0.198104 0.309037 -0.643742 -0.700066
0.009164 -0.240894 0.201403 -0.790804 0.174724 -0.586601
0.00689176 0.206556 0.180839 0.341757 0.0291777 -0.939335
-0.0342738 -0.283218 0.279855 0 -0.970115 0.242646
-0.013069 0.105226 0.360087 -0.932262 0.151676 0.328454
-0.00867508 0.384722 0.195218 0.288773 0.0841764 -0.95369
0.0144022 -0.300145 0.204381 0.287789 -0.540656 0.790486
0.00161315 0.429098 0.296224 0.307986 -0.675496 -0.669963
0.00635524 -0.413241 0.186524 -0.791037 0.0364892 0.610679
-0.00364525 -0.00447965 0.19061 -0.808982 0.397891 0.432701
0.001027 0.399105 0.0238008 -0.30787 -0.398802 0.863813
0.00604412 -0.308899 0.185073 0.00736179 0.809114 0.587606
-0.0146646 0.319012 0.163609 -0.968645 0.0740478 -0.237158
-0.0186758 0.189459 0.205609 0 0.000408223 1
-0.00477684 0.0721454 0.486189 -0.808996 0.584282 -0.0643491
-0.000870425 0.308927 0.0132175 -0.307736 0.0868587 0.947499
-0.00401898 -0.267961 0.491429 0.61225 -0.00313583 -0.790658
-0.00924498 -0.3686 0.240149 0.97689 -0.0954653 -0.191241
-0.0345284 -0.2896 0.211479 -0.855875 0.482615 -0.185908
-0.0377806 -0.265466 0.355132 0.989924 0.14156 0.00340309
-0.00364578 0.23822 0.332544 -0.808013 0.246809 -0.534977
-0.0965714 -0.360876 0.460588 -0.950974 0.287312 -0.114461
-0.0131543 0.0569338 0.121244 1 0 0
-0.087134 -0.361833 0.478919 -1 0 0
-0.00529478 -0.355764 0.0166805 -0.807843 0.154833 0.568697
-0.0347542 -0.277022 0.245843 -0.855845 0.496059 -0.146473
-0.00339312 -0.477466 0.175293 -0.808032 0.587102 0.048942
-0.034244 -0.298488 0.19254 0 0.901798 -0.432159
0.0144889 -0.312024 0.161238 0.968656 0.13622 -0.207726
0.00670663 0.484896 0.197269 0.808109 0.586988 0.0490375
-0.0455492 0.135267 0.506824 0.86372 0.496839 -0.0844929
0.00768538 -0.33165 0.0965641 -0.968818 0.237527 0.0705163
-0.00403749 0.473621 0.112461 -0.807894 0.533154 -0.251105
0.0111022 -0.291632 0.132999 -0.968821 0.136618 0.206693
-0.0190853 0.120746 0.507339 0.15247 0.413807 -0.897506
-0.0345025 -0.273787 0.387459 -0.026568 0.00726705 -0.999621
0.00505998 -0.229979 0.387253 -0.30904 0.643742 0.700065
0.00722609 0.108914 0.503532 -0.0481492 0.407134 -0.912099
-0.0131543 0.0199156 0.174996 1 0 0
-0.00448177 -0.296401 0.349249 -0.807836 -0.0537185 -0.586954
-0.00784718 -0.385449 0.132307 -0.287829 0.404283 -0.868164
-0.00362097 -0.221271 0.33559 -0.80806 0.251049 0.532929
-0.00550634 -0.15788 0.328189 0.809027 -0.397848 -0.432657
-0.0238284 0.228279 0.255357 -0.986587 -0.160706 -0.0286449
0.00731371 -0.296907 0.00586457 0.808044 0.0490482 -0.587077
0.0063265 0.0485227 0.288043 -1 0 0
0.00309819 0.452798 0.177763 0.976803 0.0841649 -0.196906
-0.0145564 0.311491 0.193482 -0.968735 0.168007 0.182557
-0.0087292 0.2313 0.182164 0.791112 -0.0637124 -0.608345
-0.0203184 0.204075 0.26708 -0.988995 -0.147471 -0.011902
-0.00170401 0.355632 0.340933 -0.308219 -0.249983 -0.917883
-0.087134 -0.377643 0.469453 -1 0 0
-0.00256391 0.386374 0.329135 -0.308117 -0.405591 -0.860558
0.000874095 -0.182884 0.3421 -0.30904 0.643742 0.700065
0.00741632 -0.411416 0.039977 1 0 0
0.0101689 -0.308023 0.2504 -0.346435 -0.918159 0.192268
-0.00336947 -0.447225 0.159936 -0.762146 -0.234477 0.603452
0.029548 -0.268693 0.274332 -0.855845 0.496059 -0.146473
-0.00568609 -0.145788 0.243196 -1 0 0
-0.00479914 0.302127 0.290842 0.790942 -0.610388 -0.0428653
-0.00279899 0.061706 0.450396 -0.809034 -0.584231 0.064324
0.00741632 0.398398 0.33061 1 0 0
-0.0144336 0.16051 0.311983 -0.986587 -0.160706 -0.0286449
-0.0134736 -0.340016 0.177151 0.790638 -0.0639034 -0.608941
0.00693863 0.214029 0.327979 0.808056 -0.336004 0.483887
-0.0148153 -0.296189 0.198769 0.791271 0.563582 -0.237203
0.000806776 0.0301796 0.491967 -0.0634272 0.080799 -0.99471
0.00595958 -0.157208 0.271455 0.808054 0.48388 0.336018
-0.00531472 -0.385747 0.264156 0.288088 0.78396 0.54992
-0.00743419 0.115683 0.159216 -0.990497 -0.136848 -0.0137005
0.0154454 -0.265859 0.387026 0.0294575 -0.0080574 -0.999534
0.0295596 -0.255262 0.368168 -0.855849 0.516313 -0.0307186
-0.00343308 0.223101 0.27031 0.968897 0.240079 0.0600038
0.00485821 -0.0786098 0.421012 -1 -1.79571e-07 0
0.0199729 0.197748 0.163308 -0.322335 -0.057757 0.944862
0.00964572 -0.389562 0.203704 -0.968763 0.179923 0.170663
0.00101772 0.425014 0.319061 -0.307826 -0.548697 -0.777287
0.00576961 -0.261125 0.0878393 -0.968821 0.136618 0.206693
-0.0061989 -0.220056 0.232336 -0.341481 -0.503354 0.793742
-0.0220774 0.304342 0.17735 0.00320751 -0.999995 0
-0.00156564 0.17433 0.29836 -0.307649 -0.670237 0.675378
-0.00151051 0.0638478 0.150257 0.25249 0.137191 -0.957824
-0.00568609 0.399342 0.0342875 -1 0 0
-0.00568609 -0.323626 0.351159 -1 0 0
0.0215306 0.252766 0.173708 0.0231822 -0.103465 0.994363
0.00741632 -0.202691 0.0463296 1 0 0
0.0155196 0.319861 0.169349 0.342746 -0.348453 0.872414
-0.0377647 0.278022 0.210827 0.956129 -0.100626 -0.27512
0.00415253 0.24831 0.068428 0.968712 0.136018 -0.207596
0.00666297 -0.474863 0.141241 0.807909 0.569837 0.150229
-0.0315087 -0.275117 0.323965 0.85585 -0.515258 0.0450567
-0.00688453 0.3084 0.181588 0.000991418 -0.309091 0.951032
-0.0241771 0.200788 0.171842 0.78953 0.178018 -0.587326
-0.0173028 0.176654 0.168688 -0.132845 0.0906635 -0.986981
0.000732329 0.232601 0.0331625 -0.307823 0.405654 0.860633
0.063791 -0.277014 0.491079 -0.074888 -0.929849 0.360239
-0.0131543 0.0299625 0.134608 1 0 0
-0.0131543 0.0383958 0.155182 1 0 0
-0.0032584 0.432823 0.201527 0.968744 -0.0679823 -0.238564
-0.00160875 0.0326372 0.201345 -0.809034 -0.584231 0.064324
0.00705371 0.374738 0.239854 -0.976909 -0.190175 0.0973821
-0.00983786 0.00122071 0.120956 1 0 0
0.00621233 -0.150918 0.240306 0.808086 -0.53489 -0.246758
-0.00380236 0.033825 0.184632 0.808986 0.584295 -0.0643505
0.00741632 -0.144131 0.229234 1 0 0
0.00242155 0.0682371 0.390244 -0.818235 0.430619 0.380866
-0.0186286 0.280258 0.151356 -0.999352 -0.0342248 -0.0111177
-0.00726733 -0.259701 0.452918 0.808894 -0.587744 0.0157211
-0.00568609 0.138764 0.196616 -1 0 0
-0.0210179 0.285491 0.202355 0 -0.0106026 0.999944
0.00651252 0.248328 0.270231 0.976781 0.128546 0.171391
0.00787969 0.08664 0.362409 -0.302206 0.644045 0.702765
-0.00776737 -0.277341 0.4801 0.951624 -0.0156025 0.30687
0.00133997 0.191852 0.31664 0.307833 -0.670175 0.675355
0.00588603 -0.448433 0.29119 0.80809 -0.481196 0.339767
-0.00444769 0.483518 0.146231 -0.807864 0.568699 -0.154715
0.000428437 0.474505 0.157972 -0.307735 -0.947498 0.0868715
-0.0282495 0.227834 0.174565 0.78953 0.178018 -0.587326
-0.00628967 -0.286879 0.47797 -0.808722 -0.0288071 -0.587485
-0.00131912 0.464724 0.205438 -0.968697 0.0690974 0.238436
0.00628376 -0.215207 0.212939 0.976789 0.0117109 0.213885
-0.00191306 -0.130956 0.190264 -0.30793 0.948098 0.0793
0.0275385 0.213149 0.265525 -0.987021 0.156526 0.0359055
0.0851769 -0.344907 0.477045 -0.551589 0.474319 -0.686128
-0.00438264 -0.197362 0.206304 0.968808 -0.0680197 -0.238295
-0.00615828 0.367239 0.255269 0.968742 0.101275 -0.226457
0.00782645 0.0603534 0.389751 -0.987021 0.156526 0.0359055
-0.00851941 -0.332191 0.254776 0.976924 0.213418 -0.00855039
-0.00527954 -0.185501 0.0639583 -0.807884 -0.415046 0.418402
0.0916461 -0.373634 0.438348 0 -0.978069 -0.208283
0.0163936 0.0473813 0.488764 -0.339679 0.000862956 -0.940541
0.00238746 -0.0529983 0.422375 -0.308931 0 -0.951085
0.00630091 0.0835006 0.160121 -0.309429 -0.081469 0.947426
0.00485823 -0.205848 0.419577 -1 -1.79571e-07 0
-0.00451954 0.049105 0.149131 0.741726 0.0332526 0.669878
-0.00568609 -0.159524 0.270962 -1 0 0
0.000108505 0.446512 0.258233 0.762267 -0.425749 0.487531
-0.00441343 0.310728 0.357909 -0.80784 0.0536171 0.586958
-0.0146889 0.306861 0.148329 0.976909 0.213261 0.0129871
0.00408583 -0.21488 0.372938 -0.30904 0.643742 0.700065
0.00675611 0.289282 0.0117289 0.807849 0.0537259 0.586935
0.0263234 0.229577 0.16742 -0.322335 -0.057757 0.944862
-0.0135982 -0.330967 0.203317 -0.289142 0.385725 0.876135
-0.0865825 -0.353925 0.428119 0.576931 0.675834 0.458693
0.0151206 0.293542 0.152878 -0.976895 -0.179491 0.116012
0.014987 0.20499 0.169516 0.098967 0.0781405 -0.992018
-0.0161096 -0.324228 0.178392 0.288883 0.951842 0.102679
-0.0784069 -0.294334 0.488332 0.297506 -0.439289 -0.847653
0.00512928 -0.0734052 0.243307 -0.30904 0.643742 0.700065
-0.00361174 0.088495 0.154431 -0.990497 -0.136848 -0.0137005
-0.0311894 0.0995934 0.494728 0.961255 0.273573 0.0338548
0.096869 -0.329859 0.400276 0.937113 -0.127025 -0.325091
-0.011058 0.334061 0.231925 0.790835 0.564148 -0.237312
-0.00492986 -0.280738 0.348431 -0.808065 -0.0537454 -0.586637
0.00778993 0.218026 0.137677 0.762223 0.105324 -0.638689
0.000501433 0.210195 0.0307629 -0.308099 -0.548647 -0.777214
0.00632654 -0.14125 0.316467 -1 -1.38526e-07 1.27371e-07
0.00741632 -0.395997 0.0303746 1 0 0
-0.0306471 0.220277 0.257066 -0.932262 0.151676 0.328454
-0.0352666 -0.254792 0.382191 0 0 1
0.0152333 0.326189 0.189558 -0.762556 -0.609951 0.215562
0.00351256 0.208332 0.261904 -0.791209 0.420368 0.444161
0.00454796 -0.472374 0.219664 0.308009 0.917949 -0.250001
0.00651997 0.160801 0.164489 0.0231822 -0.103465 0.994363
-0.0346394 0.26008 0.172386 -0.809297 -0.04998 -0.58527
-0.00147774 -0.0823113 0.248818 0.809025 0.39785 0.432659
-0.00120265 -0.431055 0.0662166 -0.308027 0.675493 0.669947
0.00462755 0.0945384 0.499338 -0.057291 0.233915 -0.970568
0.0328224 -0.274223 0.338085 0.856156 -0.516146 0.0242741
-0.011904 -0.319337 0.235103 -0.790835 0.610443 0.0440398
0.0181062 0.0752762 0.492579 -0.290722 0.256204 -0.921868
-0.0209769 0.261796 0.205579 0 0.000408223 1
0.0063265 0.0643496 0.431982 1 0 0
0.00791735 0.237081 0.122849 0.761794 -0.500784 0.410957
-0.00235685 0.184297 0.0695715 -0.308133 0.675496 0.669895
0.00397675 0.0027897 0.415097 -0.309076 -5.55012e-08 0.951037
-0.00568609 -0.179616 0.297186 -1 0 0
-0.00983786 -0.00767318 0.14821 -1 0 0
0.000721917 -0.144085 0.181812 0.341826 -0.0291635 -0.939311
0.000918663 0.335098 0.0231298 -0.976925 0.179336 0.115997
0.005097 0.0587728 0.341225 -0.30938 -0.945221 0.104121
-0.00567902 0.164807 0.27144 -0.807861 0.481422 -0.339991
-0.00323646 0.22165 0.0752607 0.762047 0.567021 -0.312685
-0.0189208 0.159482 0.204308 -0.999669 -0.0257434 0
-0.000126122 -0.36623 0.0305239 0.968794 -0.172414 0.178077
-0.00478481 -0.0904007 0.26244 -0.808987 -0.397886 -0.432697
-0.00486178 -0.484987 0.163005 -0.80811 -0.586986 -0.049039
-0.0103146 0.33706 0.115276 0.758426 -0.641556 -0.114872
0.00741632 0.384819 0.0247189 1 0 0
-0.0362724 -0.278261 0.293656 -0.855845 -0.510386 0.0838822
0.000405476 -0.262437 0.386791 0 0 -1
-0.0109787 0.0690681 0.201172 -0.999344 -0.0362283 0
-0.0071545 0.346286 0.0846116 0.758426 -0.641556 -0.114872
0.00378971 -0.286292 0.0464746 0.976776 -0.179437 -0.117093
-0.0833311 -0.344766 0.413916 0.940281 0.171015 0.294322
-0.0131543 0.0162786 0.15446 1 0 0
-0.009953 -0.246878 0.165082 -0.289064 -0.0628163 -0.955247
0.0257915 0.220001 0.24779 -0.400232 0.628296 0.667127
-0.0230755 0.329551 0.162911 -1 0 0
-0.00517199 0.152755 0.246548 -0.807888 0.533112 -0.251215
-0.0347528 -0.269298 0.271996 -0.855845 0.496059 -0.146473
0.00746078 -0.378173 0.244349 -0.790881 0.420597 0.444528
0.00697656 -0.323916 0.276016 0.976798 -0.208554 0.0486885
0.00150521 0.16179 0.226842 -0.342495 -0.349736 -0.871999
0.006556 0.364434 0.269988 0.790902 -0.510124 0.338006
-0.0109882 0.361889 0.198848 0.287798 -0.564942 0.773313
-0.019261 0.195488 0.282012 -0.986587 -0.160706 -0.0286449
0.0284113 -0.261569 0.314206 -0.85601 0.514599 -0.0493469
-0.00589205 0.0632906 0.419809 -0.808996 0.584282 -0.0643491
0.000298314 -0.311078 0.0176439 0.976917 -0.197659 0.0810246
-0.00594942 0.0640704 0.163295 -0.800647 0.0615371 -0.595968
-0.00818138 0.244623 0.10903 0.968834 0.2415 -0.0551241
0.00741632 -0.150072 0.113043 1 0 0
-0.0918917 -0.392669 0.439099 0 -1 0
0.00695353 0.0743884 0.373239 -0.302206 0.644045 0.702765
0.00711551 -0.169713 0.0833862 0.807864 -0.48142 0.339986
0.00871251 0.115506 0.338599 0.934304 0.15677 0.320156
-0.0143609 0.333403 0.19038 0.762049 0.000846581 -0.647519
-0.000877483 -0.183869 0.413519 0.309079 0 -0.951037
-0.0111151 0.265383 0.139264 0.28787 0.795346 -0.533438
-0.00799905 0.028172 0.147138 -0.095068 -0.585095 -0.805373
0.00570946 -0.396137 0.116301 -0.968851 0.227188 -0.0985557
0.0145033 -0.336925 0.162451 -0.968774 0.0281425 0.246345
0.00741632 0.33696 0.351445 1 0 0
-0.0353282 -0.257631 0.340027 -0.855876 0.512578 -0.0688522
-0.00568609 -0.335229 0.00985164 -1 0 0
0.0126246 -0.265053 0.190489 -0.761751 -0.329004 0.558114
0.00337478 -0.204564 0.325487 0.308127 0.548682 0.777178
-0.0298359 -0.270949 0.299711 0.990013 0.136684 -0.0345174
-0.0710093 -0.289371 0.498401 0.297828 -0.441186 0.846554
0.00396705 -0.416773 0.0957596 0.790808 0.36385 -0.492175
0.00856413 0.260737 0.242426 0.790954 0.510061 0.337979
-0.0518164 -0.281066 0.487183 0 0 -1
0.0383017 0.299191 0.180639 -0.991743 0.128238 0
0.00350944 -0.252137 0.414945 -0.309076 -5.55012e-08 0.951037
-0.000152169 -0.135893 0.135705 -0.307804 0.918077 -0.249782
0.018493 0.143911 0.325641 -0.594119 -0.475564 -0.648738
-0.0281405 0.214754 0.267415 0.956129 -0.100626 -0.27512
-0.003837 -0.412993 0.313712 -0.807828 0.336131 -0.484179
-0.0140517 0.328826 0.17672 -0.790536 -0.278802 0.545273
-0.00568609 -0.481309 0.204915 -1 0 0
0.0196771 0.191097 0.28957 -0.514087 -0.515037 -0.685894
0.00912878 0.270803 0.102818 0.34135 -0.799003 0.49505
-0.00269885 -0.250797 0.0235995 -0.307891 -0.39853 0.863931
0.0954997 -0.357024 0.413919 0.567737 -0.606939 -0.556147
-0.0064843 0.346317 0.271634 0.288249 -0.929726 0.229177
0.00503673 0.418009 0.212707 -0.790936 0.174641 -0.586448
0.0259937 -0.260696 0.380487 -0.0294574 -0.00805752 0.999534
-0.0137975 0.282129 0.182102 -0.790827 0.0753687 -0.607381
0.00741632 -0.407459 0.323308 1 0 0
0.000837944 0.0467334 0.325767 -0.308291 0.945578 -0.104109
0.0217299 0.171031 0.162499 -0.991743 0.128238 0
-0.0224294 0.00246989 0.126921 0 0.707109 -0.707105
-0.030969 0.314595 0.178318 -0.00260409 0.808887 0.587958
0.0063322 -0.444053 0.0772684 0.807823 0.484185 0.336136
0.00327839 -0.271463 0.418788 -0.300305 0.953843 0
0.00860218 -0.273975 0.10762 -0.28813 0.779085 0.556783
-0.0931142 -0.387784 0.482355 0 0.0060805 0.999982
-0.0123921 0.350398 0.159492 0.288004 0.0642803 0.955469
0.0306105 -0.258217 0.329721 0 0.991422 -0.130697
-0.00331861 0.354219 0.0571258 0.791017 0.55882 0.249024
-0.0184649 0.141886 0.160114 -0.809297 -0.04998 -0.58527
0.00741632 0.313715 0.0052467 1 0 0
0.000190263 -0.151926 0.126977 -0.307959 -0.917964 0.250005
-0.0050913 -0.227621 0.393095 0.809027 -0.397848 -0.432657
-0.0970187 -0.338665 0.488546 -0.938728 -0.149787 0.310409
0.00526047 0.410978 0.134395 -0.790914 -0.243186 -0.56153
0.000677053 -0.426625 0.298574 -0.308 0.669943 -0.675509
0.0317813 0.1103 0.499774 -0.24431 0.425882 -0.87117
0.0334573 0.26083 0.215017 -0.990058 0.13987 0.0149
0.00966592 -0.251195 0.153348 0.976752 0.146504 0.156501
0.00357241 0.375681 0.333916 0.308001 -0.405622 -0.860585
0.0109533 -0.328173 0.12975 -0.968818 0.237527 0.0705163
0.00669678 0.399764 0.205708 -0.9688 -0.179863 0.170515
-0.0157821 0.00454099 0.185758 -1 0 0
0.0308379 0.290286 0.188995 0.956312 0.109532 0.271055
-0.00126734 -0.0316664 0.413799 0.808899 0 0.587948
0.00622674 -0.381968 0.333554 0.807792 0.246985 -0.53523
-0.00568609 -0.137838 0.164428 -1 0 0
0.00140127 0.234014 0.0175645 -0.307912 0.405374 0.860733
-0.00355964 -0.104792 0.283012 -0.808982 0.397891 0.432701
0.00741632 -0.464806 0.106009 1 0 0
0.00435197 -0.127547 0.305494 0.309041 0.643743 0.700063
0.00366229 0.131116 0.192326 0.308142 -0.947393 0.0865751
0.0257605 0.242987 0.24433 0.879198 -0.36811 -0.3025
0.0294713 -0.300129 0.217219 -0.855982 -0.487991 0.170763
-0.00103128 -0.286688 0.487884 0 -0.515974 -0.856605
0.0109335 0.250551 0.183628 -0.791038 0.0364857 0.610679
0.00732691 -0.302896 0.355881 0.808052 0.0536406 0.586664
-0.0263244 -0.00392211 0.10355 0 0 1
-0.00739967 -0.273203 0.0909439 -0.968755 0.246578 -0.0267199
-0.00530231 -0.262926 0.0113466 -0.808041 0.150247 -0.569645
0.00545432 -0.427686 0.220964 0.976821 -0.0117823 0.213735
0.023117 -0.314988 0.176137 -0.011927 -0.309069 -0.950965
0.00645683 -0.257216 0.0120361 0.807886 0.150336 -0.569841
-0.020557 0.291857 0.17371 1 0 0
0.00641132 0.424896 0.0462747 0.808043 0.414942 -0.418198
-0.00192588 0.0551215 0.295796 -0.808756 0.584609 -0.064395
0.0341297 -0.290857 0.226588 0.98983 -0.13783 0.035194
0.00741632 0.476217 0.234696 1 0 0
-0.00224098 0.05507 0.397142 -0.809034 -0.584231 0.064324
-0.012259 -0.290239 0.144043 0.345597 0.888498 0.301884
0.00736618 0.197525 0.0452842 0.808036 -0.339804 -0.48126
-0.0841598 -0.319732 0.397186 0.525503 -0.0949306 -0.845479
0.0864981 -0.313565 0.498808 -0.528338 -0.0841427 0.844854
0.00232028 0.24552 0.34837 0.308286 -0.398699 0.863712
-0.0136631 0.0319732 0.104144 0 -0.159778 -0.987153
-0.000439597 -0.169924 0.264755 0.342306 0.504227 -0.792831
0.0055649 0.0550163 0.491954 -0.0624349 0.11052 -0.991911
0.0160125 -0.302029 0.188486 0.976798 -0.208554 0.0486885
-0.00502974 -0.135891 0.21166 -0.808055 0.56963 0.15023
0.015449 0.159536 0.298532 -0.400232 0.628296 0.667127
0.00730376 0.397868 0.181249 0.968632 0.111791 0.221935
0.0334685 -0.283967 0.266203 0.855803 -0.502382 0.123339
-0.0236385 0.22816 0.244531 -0.988995 -0.147471 -0.011902
0.014468 -0.322932 0.204313 0.343163 -0.581249 -0.737827
-0.034477 -0.311398 0.193749 -0.856236 -0.474852 0.20341
0.00741632 -0.335818 0.0097634 1 0 0
0.0179024 0.0431952 0.476126 -0.983876 0.177472 -0.0221933
-0.00304444 0.128694 0.512527 0.0527621 0.40727 -0.911783
-0.00475869 0.056544 0.378883 -0.807553 -0.586245 0.0646087
-0.0376556 0.288164 0.189268 -0.876638 -0.377002 -0.298958
-0.00332875 0.0384718 0.232773 -0.807553 -0.586245 0.0646087
0.00632652 -0.0596399 0.24037 -1 -1.38526e-07 1.27371e-07
-0.00303413 -0.0436576 0.416231 -0.809018 0 -0.587784
0.00747976 -0.25667 0.40335 -0.300375 -0.953821 0
0.0136378 0.346789 0.182187 -0.976945 -0.0108307 -0.213218
-0.0031192 0.353432 0.298227 -0.790694 -0.563865 0.238454
-0.0355309 0.124194 0.505118 0.248628 0.426598 -0.869597
0.0290953 0.274331 0.178557 0.810692 -0.0362102 -0.584352
0.0131588 -0.287722 0.209083 0.762231 0.610688 -0.214624
0.0237241 0.310322 0.171281 -0.000991431 0.309095 -0.951031
0.00460008 0.359134 0.35209 0.307996 0.249778 0.918014
0.00557917 -0.464643 0.24651 0.808063 0.532876 -0.251151
-0.0131543 0.0828885 0.156105 -1 0 0
-0.00568609 -0.229053 0.0258197 -1 0 0
-0.0101008 0.0353232 0.168604 -0.095089 0 0.995469
-0.0246699 0.0139072 0.128617 0 0.70711 -0.707104
-0.00244735 0.0459444 0.219031 -0.808756 0.584609 -0.064395
-0.00541417 -0.215184 0.132233 0.790933 0.268081 0.550052
0.00741632 -0.182696 0.0611239 1 0 0
0.00993409 0.371519 0.193564 0.761952 0.329966 -0.557272
-0.00398018 0.30614 0.043372 -0.976807 0.197756 -0.0821011
0.0170287 0.193707 0.276743 0.956312 0.109532 0.271055
-0.0154062 0.137008 0.31925 -0.594027 0.477092 0.6477
0.0104413 0.0382153 0.144101 0.0950619 0 -0.995471
-0.00189019 -0.0181944 0.414656 0.808998 5.15063e-07 0.587811
0.00252332 -0.204508 0.0945454 0.968601 0.228382 0.0982503
0.0345356 0.309996 0.188291 0.879198 -0.36811 -0.3025
-0.00375006 0.419814 0.238577 0.34234 0.504218 -0.792822
-0.00184021 0.451829 0.0923853 -0.307818 -0.777114 0.548946
0.0121529 0.0476 0.163023 -0.0761266 -0.636885 -0.767191
0.00346047 -0.177638 0.230164 -0.976943 -0.0108269 -0.213226
0.00947984 0.1417 0.52042 -0.0351548 0.595029 -0.802935
0.00664912 -0.238743 0.249356 -0.762391 0.318336 -0.563403
0.00485823 -0.219005 0.420054 -1 -1.79571e-07 0
-0.00568609 0.143606 0.128837 -1 0 0
0.00766754 -0.35792 0.0935764 0.976811 -0.212576 0.0255406
-0.001864 0.467602 0.125064 -0.307962 -0.917961 0.250014
-0.00146532 0.0107811 0.422882 0.808998 0 -0.587811
-0.0118614 -0.284822 0.225817 0.342755 -0.706266 0.619441
-0.0032947 -0.149494 0.313993 0.809025 0.39785 0.432659
-0.00976261 0.12807 0.33168 -0.988995 -0.147471 -0.011902
0.00340495 0.485496 0.215573 0.308108 0.91988 0.242673
0.0198447 0.154201 0.311009 -0.987021 0.156526 0.0359055
-0.00392385 -0.416228 0.118186 0.968819 -0.0175606 0.247147
-0.00974834 0.256828 0.223838 -0.342087 0.732081 0.589096
0.00897962 0.172692 0.166373 0.098967 0.0781405 -0.992018
-0.0974747 -0.365679 0.434924 -0.95174 -0.292317 -0.0934965
0.000952741 0.469854 0.262362 -0.308007 -0.863782 -0.398762
0.0913957 -0.392669 0.432034 0 -1 0
-0.0295016 -0.26634 0.379466 0.993142 -0.116843 -0.00414951
-0.00568609 -0.397273 0.0288035 -1 0 0
-0.0150765 -0.33472 0.188683 0.968798 0.1496 -0.197611
-0.0320931 -0.255947 0.352286 0.855849 0.516313 -0.030721
0.00555198 -0.0888652 0.25771 -0.30904 0.643742 0.700065
0.00741632 0.480895 0.16744 1 0 0
0.00596696 -0.295246 0.295952 -0.786445 -0.613449 0.0720063
-0.0038343 -0.227902 0.287549 -0.968691 -0.100351 0.227086
0.00632653 -0.0281983 0.210552 1 5.08736e-05 5.74124e-05
0.0590161 -0.290735 0.494988 -0.0611759 -0.931102 0.359591
0.0068556 0.286054 0.0749297 -0.343366 -0.929712 0.133174
-0.0365534 0.116626 0.488352 0.943898 0.325501 0.0557231
-0.0153631 0.314319 0.174272 -0.00260486 0.809127 -0.587628
-0.0278517 0.251939 0.17645 -0.322087 0.0559395 -0.945056
-0.00436253 0.117441 0.507424 0.0527285 0.407281 -0.91178
0.032586 0.133999 0.511852 -0.178647 0.608698 -0.773028
0.0058732 -0.270646 0.392708 -0.300305 0.953843 0
0.0148854 0.306973 0.153871 -0.341478 0.798272 -0.496139
0.00185242 -0.191873 0.365748 -0.309039 -0.643743 -0.700064
-0.00917124 0.300222 0.103032 0.342301 -0.938727 -0.0402667
-0.000210383 -0.178933 0.423218 -0.308931 0 -0.951085
-0.0131543 0.0510657 0.186903 1 0 0
0.00963017 -0.244789 0.18942 -0.976868 -0.0830672 0.19705
0.00790954 0.294202 0.272979 0.968727 0.198754 0.148543
-0.0131543 0.0154145 0.138968 1 0 0
0.0342032 -0.289911 0.49072 0 -0.931036 -0.364926
0.0060486 -0.203987 0.140147 0.791396 0.244154 0.560429
0.0133798 0.270858 0.154008 -0.790705 0.243242 -0.561799
-0.0219673 0.187287 0.292968 -0.302081 -0.639506 -0.706951
-0.00615146 0.0472516 0.160608 0.131958 0.879793 0.456674
0.00368794 0.146596 0.163789 0.098967 0.0781405 -0.992018
0.00679906 0.139208 0.182842 0.807832 0.586959 -0.0537201
-0.00102548 -0.422208 0.0407208 -0.3081 -0.548645 -0.777215
-0.0208213 0.252417 0.147567 0 0.175401 -0.984497
-0.0899712 -0.309754 0.393832 0 -0.111537 -0.99376
-0.00428213 -0.472863 0.137154 -0.808059 0.569648 0.150141
0.00239549 0.330627 0.317509 -0.76192 0.606566 -0.227057
-0.0610278 -0.278993 0.498352 -0.0503874 0.515318 0.855516
0.096984 -0.354899 0.478226 0.946154 -0.23998 0.217262
-0.00570904 -0.0491097 0.227791 0.809027 -0.397848 -0.432657
-0.00324633 -0.244325 0.411905 0.809027 -0.397848 -0.432657
0.00472507 0.0315245 0.17612 -0.308291 0.945578 -0.104109
0.00632651 -0.00213851 0.188405 -1 -1.38526e-07 1.27371e-07
-0.0450543 -0.0186142 0.110439 0 0 -1
-0.0180225 0.12781 0.200684 0 -0.0106026 0.999944
-0.00426449 -0.136218 0.41903 0.808998 0 -0.587811
0.00741632 -0.174111 0.286006 1 0 0
0.00143668 0.0677956 0.412272 0.308952 0.94536 -0.104125
0.0064102 -0.244543 0.33721 0.807888 -0.251207 -0.533115
-0.00251166 0.0658774 0.4008 0.808805 -0.584542 0.0643858
0.0136735 0.321147 0.200707 0.968682 -0.0568893 0.241698
0.00767871 -0.259777 0.453096 -0.808888 -0.587753 0.0157219
-0.0237158 0.0897975 0.494412 0.295883 0.257056 -0.919987
-0.0102245 -0.361735 0.131978 -0.976787 0.0988032 -0.190067
-0.0827361 -0.319247 0.493357 0.935278 -0.0832106 0.343994
-0.0297015 -0.268234 0.334657 0.989919 -0.141459 0.00709397
-0.0033829 -0.305548 0.359172 -0.80792 0.0536261 0.586848
-0.00212261 0.0151298 0.160422 -0.809022 -0.397853 -0.432663
0.0866919 -0.389874 0.470602 0 -0.999937 0.0112632
0.0280453 -0.300219 0.205339 -0.989964 -0.126962 0.0620589
-0.00524162 0.0113938 0.173029 -0.808982 0.397891 0.432701
0.00471477 0.00628454 0.473855 -0.588711 0.739093 0.327354
-0.00663268 -0.252624 0.385628 -0.0879848 0.995263 -0.0413597
0.0888012 -0.349924 0.487527 0 -0.568671 0.822565
0.00741632 -0.156411 0.0982347 1 0 0
0.0328629 -0.277589 0.245375 0.856308 0.495296 -0.146348
-9.548e-05 0.267485 0.341418 -0.308178 0.242398 -0.919929
-0.0153537 0.0991505 0.49902 0.181434 0.241862 -0.953197
0.000809541 -0.325236 0.359696 -0.307943 -0.079298 0.948095
0.00486027 -0.481035 0.230637 0.307788 -0.918087 0.249767
-0.0293435 -0.315698 0.185496 0.00736428 -0.808969 0.587805
0.0119063 -0.312469 0.175459 -0.011927 -0.309069 -0.950965
0.00660291 0.141773 0.15181 0.807858 0.587336 0.0490037
-0.00514242 0.128715 0.162648 -0.132845 0.0906635 -0.986981
-0.00669742 0.303987 0.0748182 -0.342143 0.93884 0.0389589
0.00833325 0.0371999 0.491208 -0.205678 -0.016512 -0.97848
-0.000150332 0.148343 0.203017 0.968817 0.145412 0.200621
0.000813795 0.140828 0.243915 -0.30801 -0.860717 0.405334
-0.0112537 0.0227873 0.203376 0 -0.153099 0.988211
-0.0305212 -0.276722 0.262303 0.98992 0.134241 -0.0451364
0.00558592 -0.27078 0.464264 0.608913 -0.793228 0.00376149
0.00741632 0.445854 0.0702304 1 0 0
-0.00717131 -0.396201 0.234478 0.791171 0.331509 0.513955
-0.00193285 -0.00471824 0.178319 0.809025 0.39785 0.432659
0.013338 0.137831 0.334319 -0.514087 -0.515037 -0.685894
0.00741632 -0.142548 0.142314 1 0 0
-0.00136078 -0.233451 0.423026 0.808998 0 -0.587811
0.0822141 -0.284253 0.495617 0.414796 0.83703 0.356827
-0.0125817 -0.0110903 0.170688 0 -0.889475 0.456984
-0.0131543 0.014926 0.187138 1 0 0
-0.00220798 -0.260238 0.324769 0.96876 -0.24609 -0.0307061
0.0272117 -0.26822 0.300421 -0.989529 0.134722 -0.0517827
-0.0131543 0.024804 0.121151 1 0 0
0.0115571 -0.262436 0.149787 -0.79119 0.364435 0.491126
0.00741632 -0.134475 0.180009 1 0 0
0.0257812 0.0722766 0.198754 -1 0 0
0.00491617 0.303409 0.359053 0.807864 -0.0491055 0.58732
0.00632654 -0.115049 0.292338 -1 -1.38526e-07 1.27371e-07
-0.0108298 0.267167 0.212167 -0.762501 -0.560543 -0.323083
-0.00735411 -0.317084 0.282205 0.976894 -0.196035 -0.0851379
-0.0039002 0.209968 0.316218 -0.808062 0.335901 -0.483949
-0.00264485 -0.238515 0.0166713 -0.308178 0.398724 -0.863739
-0.0135137 0.148669 0.322903 0.0103186 0.151135 -0.988459
-0.00568609 -0.317124 0.00613572 -1 0 0
-0.00943971 -0.379305 0.176259 0.762451 0.233289 -0.603527
0.0249277 -0.313239 0.185829 0.0119279 -0.308805 0.951051
0.00447966 -0.259739 0.491312 -0.612244 -0.00313515 -0.790663
0.00101684 -0.391467 0.0417224 -0.342517 0.798014 -0.495839
5.01244e-05 0.249312 0.329183 0.762145 -0.554193 -0.334672
0.0056996 0.102715 0.161576 -0.309429 -0.081469 0.947426
0.0120881 0.288223 0.126165 -0.289541 -0.778648 0.556663
0.00361071 -0.201661 0.308715 0.307834 -0.548915 -0.77713
0.000543287 -0.35398 0.354741 -0.307873 -0.242726 0.919945
0.00741632 -0.479513 0.157335 1 0 0
0.0199169 0.110056 0.502509 -0.148006 0.413378 -0.89845
-0.00707775 0.221096 0.120494 -0.968708 0.016597 -0.247647
0.0968259 -0.364677 0.448034 -0.952625 -0.301645 0.0389445
0.00398533 0.401635 0.2589 -0.761921 0.318708 -0.563828
0.00741632 0.226798 0.333027 1 0 0
0.00741632 0.182146 0.0634782 1 0 0
-0.00420436 0.302627 0.302526 -0.288612 -0.953752 0.0840257
0.00927124 0.149461 0.323233 0.0210893 0.308891 0.950864
0.0063265 0.0465912 0.278007 -1 0 0
-0.00343369 -0.34296 0.34527 -0.808059 0.150141 -0.569648
-0.0421638 0.308338 0.184451 0.956129 -0.100626 -0.27512
-0.00730016 0.394839 0.130621 -0.79055 -0.26731 -0.550977
-0.00268291 -0.261221 0.0479119 -0.790887 -0.558512 -0.250123
0.00626874 0.459341 0.101097 0.808066 -0.532877 0.251141
-0.0105662 0.0766876 0.376807 0.81884 0.436169 0.373173
0.0149439 0.299028 0.191866 0.968692 -0.1989 0.148575
0.0291304 0.234384 0.249577 -0.594119 -0.475564 -0.648738
-0.00807764 -0.372065 0.116853 -0.341736 0.744382 -0.573683
0.0023212 -0.289195 0.321688 -0.761978 0.606496 -0.227049
-0.0209845 -0.266395 0.380283 -0.0178573 -0.00488437 -0.999829
0.0290849 0.270915 0.203048 0.934304 0.15677 0.320156
-0.00528588 -0.471741 0.248589 -0.808059 -0.532931 0.25105
0.0200836 0.0545671 0.47648 -0.973917 0.226806 -0.0066488
0.00160695 -0.131391 0.15843 -0.307736 -0.947529 0.0865292
-0.00839036 0.142559 0.164356 -0.132845 0.0906635 -0.986981
-0.0148423 -0.289849 0.184339 0.790956 0.279523 -0.544294
-0.00983266 -0.327422 0.24304 -0.968685 0.168203 0.182639
-0.025785 -0.277898 0.497901 0 0.515974 0.856605
-0.00498566 0.260777 0.349611 -0.808054 -0.150235 0.569629
-0.0864687 -0.32287 0.407401 0.533604 0.269275 0.801722
0.00805343 -0.256851 0.426071 -0.300375 -0.953821 0
0.00383913 0.444297 0.298683 0.307826 0.675341 0.670193
0.00741632 -0.349997 0.0118097 1 0 0
-0.00212514 -0.465307 0.269817 -0.308007 -0.860718 0.405334
-0.00329551 -0.194429 0.249836 -0.341481 -0.503354 0.793742
-0.00076579 0.437497 0.0726989 -0.307959 -0.777089 0.548903
0.0159267 -0.29347 0.181306 -0.288985 -0.68349 -0.670321
0.0163102 -0.323359 0.187772 0.791073 0.607828 -0.0689062
0.0933418 -0.381931 0.471772 -1 0 0
-0.00952679 0.0955341 0.355191 -0.594027 0.477092 0.6477
0.00555486 -0.255579 0.0775404 0.289014 -0.778035 -0.557792
0.00454538 0.415114 0.324653 0.308006 0.548685 0.777224
-0.0929891 -0.386202 0.461981 1 0 0
-0.000148203 0.0506673 0.252061 0.308952 0.94536 -0.104125
0.00379918 0.447495 0.274806 0.307809 -0.781607 -0.542535
0.00371473 -0.321648 0.347167 0.307944 0.0790368 -0.948116
0.032985 0.25625 0.226622 -0.990061 0.139847 0.0148713
0.0245848 0.241153 0.230911 0.956312 0.109532 0.271055
-0.0972569 -0.368653 0.450379 -0.95281 -0.303419 0.00953998
0.0864534 -0.372426 0.479941 -1 0 0
0.0063265 0.0531592 0.313729 1 0 0
0.00421866 0.151655 0.2364 0.308006 0.91795 -0.250001
0.00453499 -0.443247 0.281379 0.307961 0.777096 -0.548891
-0.00544028 -0.348444 0.0722894 -0.790615 -0.588947 0.167536
-0.000349895 0.435781 0.284792 -0.976909 -0.190175 0.0973821
0.00556159 -0.465683 0.0948555 0.807796 -0.535185 -0.247066
-0.0131543 0.0426511 0.194735 1 0 0
-0.00328086 -0.433506 0.253002 -0.976809 -0.169975 -0.130201
0.00535703 -0.289033 0.013751 0.808046 -0.0489403 0.587083
