-0.0278965 0.0717159 0.194284 0.00317632 0.105544 -0.99441
-0.0668886 0.285807 0.185317 -0.999997 -0.00218815 0.00148716
-0.00492097 0.392384 0.0225958 0 0.423194 -0.906039
-0.00114019 -0.294612 0.00696561 0 -0.095889 -0.995392
-0.00819964 -0.349876 0.279545 0 -0.875457 -0.483297
0.00525662 0.360747 0.0909085 0.992916 0.065165 -0.0993532
-0.0917802 -0.122712 0.570404 1 0 0
-0.0108639 0.441471 0.27055 0 0.766061 0.642768
-0.0387857 -0.117353 0.53486 0.361946 0.849002 0.384956
0.0628204 -0.11543 0.547703 0.320633 0.772622 -0.54795
0.0117255 0.021029 0.264858 0.866182 -0.393821 -0.307626
-0.00486577 -0.12418 0.484207 -0.455332 -0.789713 0.411128
0.0119792 0.445859 0.112775 0.920127 -0.355023 0.165305
-0.107924 -0.115297 0.566748 0 0.627418 0.778682
0.00347584 -0.362218 0.0150368 0 -0.35087 -0.936424
0.0101361 -0.472048 0.176406 1 0 0
-0.0085214 0.210353 0.0309336 -0.274381 -0.551007 -0.788103
-0.0139138 0.333125 0.140242 0 -0.761545 -0.648112
-0.0567339 0.0431388 0.21854 -1 0 0
-0.0337081 0.313967 0.158107 -1 0 0
0.00731812 0.233236 0.200248 0.992916 -0.111053 0.0422468
0.00437948 0.22694 0.229484 0 0.576451 0.817132
0.0123259 -0.299834 0.0217933 0.920283 0.00366338 0.391237
0.0524966 0.300897 0.182778 0 0.506751 0.862093
-0.0171826 0.167819 0.250985 -0.983862 0.162219 -0.0755042
-0.0166651 0.445703 0.247244 -0.983847 -0.16229 -0.0755436
-0.00584879 -0.384214 0.312801 0 0.493023 -0.870016
-0.00923021 0.37512 0.223321 0 -0.599017 0.800736
-0.00136021 -0.423349 0.243454 0 -0.424187 -0.905575
0.0140205 0.315134 0.158438 0 -0.83676 -0.54757
0.00827153 0.241252 0.144492 0.992916 -0.109918 -0.0451159
0.0145028 0.385671 0.0320818 0.983863 -0.0757361 0.162103
0.0111784 0.157267 0.185256 1 0 0
-0.00801531 -0.233525 0.0998945 0.992912 -0.069926 0.0961035
-0.00477328 0.0385156 0.267568 0.453881 0.77169 -0.445518
-0.0102545 0.341782 0.103145 -0.992908 0.0520696 -0.106876
-0.0100873 0.165445 0.0771644 -0.274899 -0.787207 -0.552029
0.0142461 -0.251047 0.164153 -1 0 0
-0.0159726 -0.326849 0.159327 0.992912 0.0913853 0.0759907
-0.0159483 -0.280718 0.337555 -1 0 0
-0.0885612 -0.280298 0.207816 -0.984381 0.151775 -0.0892139
0.00561466 -0.00660548 0.329297 0.342162 0.740398 0.578563
-0.00690608 -0.0934635 0.471729 -0.341378 0.433997 0.833731
-0.010473 0.0774899 0.19609 0.00926124 0.406112 -0.913776
-0.0422926 0.297836 0.15115 -0.705091 -0.708143 0.0371522
-0.0135893 0.0387358 0.388727 -0.98427 -0.0529141 -0.168563
0.0140043 -0.418193 0.30756 0.983824 0.136294 -0.116255
-0.00581825 -0.122776 0.230519 0 0.909978 0.414656
-0.00522236 -0.446276 0.224472 0 0.983117 -0.18298
-0.0121891 0.0689062 0.240742 0 0.500152 -0.865938
0.00300697 0.0248201 0.247454 0.341819 -0.740608 -0.578498
0.00982739 0.181859 0.101558 0.418875 0.85327 0.310603
0.00189148 -0.217027 0.101812 0 0.72778 0.685811
0.0111784 0.158418 0.214668 1 0 0
-0.0130685 -0.0870459 0.423705 -0.86649 0.393394 0.307305
0.00348739 0.235361 0.256787 0.992916 -0.0772182 0.090304
-0.00678809 0.213919 0.19515 0 0.235138 0.971962
0.0115986 0.28334 0.201283 0 0.761559 0.648096
0.00536726 0.080677 0.322231 0.891563 0.392222 -0.226446
-0.0109065 0.268949 0.00568362 -0.274593 -0.248247 -0.928963
-0.0074221 -0.388214 0.108043 0 0.638758 -0.769408
-0.0129891 -0.258491 0.133117 0.992912 -0.069926 0.0961035
-0.0132948 0.419432 0.068204 -1 0 0
-0.00862608 0.232424 0.152143 0 -0.262207 0.965012
8.37389e-05 0.352019 0.332593 0 0.173621 0.984812
0.00974135 -0.103118 0.447393 0.865919 0.394188 0.307897
0.0667707 -0.264423 0.222483 -0.340031 0.82717 -0.447402
-0.0159483 -0.386179 0.0502515 -1 0 0
-0.00900572 -0.255661 0.080294 -0.992913 0.0442436 -0.110305
0.0421258 0.0658057 0.194946 -0.00318806 -0.208282 -0.978064
-0.00784134 -0.125893 0.138369 0 0.963626 -0.267253
-0.00122594 -0.242596 0.0407075 0 -0.333275 0.94283
-0.000749963 -0.169151 0.245863 0.992913 0.107486 0.0507057
-0.0289194 0.0990123 0.211637 -0.974418 -0.207148 0.0871754
0.0095082 0.17756 0.229545 0.418883 0.853269 -0.310595
-0.0159483 -0.422593 0.0815937 -1 0 0
-0.085189 -0.240166 0.268593 -0.640436 0.676586 -0.363418
-0.000966597 -0.147975 0.453071 0.156392 -0.876082 0.456095
-0.0279539 0.0939975 0.26536 0 0.787552 -0.616248
-0.00602281 -0.18556 0.133091 0.992912 -0.107606 0.0504597
-0.0253152 0.280857 0.18886 -1 0 0
0.00492579 0.166567 0.439031 0.0888408 0.110192 0.989932
-0.02207 0.316251 0.172221 -1 0 0
-0.00287 0.265936 0.291077 0 -0.946651 -0.32226
-0.00680072 0.240292 0.234009 0.992913 0.0875625 -0.0803577
-0.00470025 0.369464 0.0473549 -0.41867 -0.454071 0.78647
0.0130094 0.290993 0.337701 0.94167 -0.0295295 0.335241
-0.00639638 0.116174 0.38577 -0.950669 0.268641 -0.155112
-0.00899503 0.281478 0.0884773 -0.992908 -0.0350377 -0.113604
-0.0132174 0.346122 0.201628 0 -0.599017 0.800736
0.013092 -0.372854 0.333763 0.98382 0.0883199 -0.15588
0.0161167 -0.299672 0.153085 0 -0.949421 0.314006
0.01277 -0.127538 0.234177 0.941495 0.317628 0.112689
0.0135437 0.328586 0.0186337 0.983849 -0.0157143 0.178311
0.0125771 0.114909 0.443824 0.275952 -0.00551179 0.961156
0.0778864 -0.29457 0.201299 0.864626 -0.443864 0.235384
-0.0278998 -0.106666 0.494815 0.00606623 0.477652 0.878528
-0.0491285 0.111845 0.188177 -1 0 0
-0.00351078 -0.184864 0.32924 0 0.650026 0.759912
-0.00569312 -0.150144 0.288658 0 0.713275 0.700885
-0.014552 -0.429128 0.110636 -0.419179 0.826192 0.376424
0.00264303 -0.346966 0.0445038 0.418994 0.390909 0.819533
-0.0164038 -0.473771 0.215418 -0.650216 -0.746932 0.13897
-0.0125199 -0.231559 0.206094 0.992913 -0.112896 -0.037137
0.00656108 -0.125226 0.442083 0.641785 -0.604371 -0.472067
-0.0147198 0.253409 0.0306083 -0.920149 0.165729 0.354767
-0.0194985 -0.338254 0.0151191 -0.941796 -0.0611022 -0.330584
0.0105968 -0.120407 0.511876 0 -0.566461 -0.824088
-0.00396477 -0.332425 0.320448 0.992912 0.0299397 -0.115019
0.0101361 -0.136979 0.154842 1 0 0
-0.0126843 -0.14915 0.429941 -0.00597711 -0.477579 -0.878569
-0.00898591 0.242746 0.206261 0.992912 0.104974 -0.055732
0.00959211 0.475905 0.19506 0.650402 0.756748 0.0656525
0.00318194 0.205009 0.158108 0 -0.139193 0.990265
-0.0720299 -0.294227 0.194721 0.00336979 -0.121211 0.992621
-0.00828013 -0.309497 0.0820052 0.992913 0.0147345 0.117931
0.00855957 0.453004 0.169599 0.6693 -0.740206 0.0642844
-0.00865677 -0.376387 0.268787 -0.992912 -0.0815352 0.0864707
-0.0127277 0.147715 0.124578 0 -0.939666 -0.342095
-0.0383253 0.185827 0.195997 0.958655 0.279603 0.0529346
0.0117808 0.455505 0.145127 0.920159 -0.378133 0.101606
-0.0146662 -0.234535 0.0150692 -0.650541 0.253085 -0.716062
0.0170498 -0.275797 0.139821 1 0 0
0.012482 -0.297592 0.166757 0 -0.999998 -0.00172755
0.0651307 -0.214582 0.317325 0.00062312 0.853465 -0.521149
-0.00744163 0.387443 0.204018 0.992912 -0.109901 -0.0452572
-0.0718351 -0.209142 0.333745 0.00595505 0.477565 0.878576
0.0111784 0.396302 0.0437737 1 0 0
-0.0172173 0.306964 0.332509 -0.983849 0.0157458 -0.178307
-0.0103187 -0.371017 0.049904 0 0.507099 0.861888
-0.0293387 0.303686 0.114845 0 0.83838 0.545087
0.0041638 0.240767 0.0894194 0.992916 -0.0744801 -0.0925782
0.131837 -0.115043 0.555832 0 0.648955 -0.760827
-0.0159254 -0.184007 0.0814483 -0.418947 -0.739239 0.527266
-0.0191951 0.107088 0.287781 0.973549 0.140401 -0.180249
0.00666783 0.239778 0.120297 0.992916 -0.0951562 -0.0711569
-0.0496199 0.204726 0.181348 0 -0.23381 -0.972282
0.00285027 -0.353098 0.263441 -0.992912 0.0700948 -0.0959825
-0.00982457 -0.210423 0.239072 0 0.537279 -0.843405
0.00322396 -0.239211 0.266106 0 -0.810015 0.586409
-0.0357054 0.159464 0.26124 0 0.468463 0.883483
0.00335251 -0.3652 0.0464817 0 0.507099 0.861888
-0.0149268 0.437076 0.0932177 -0.920178 -0.320568 0.224739
0.00971678 -0.453976 0.183437 0.920396 0.390976 -0.00311029
-0.0049046 -0.244677 0.330287 0 -0.350871 -0.936424
0.0166661 -0.280541 0.174209 0 0.749123 -0.662431
-0.0491285 0.0834534 0.206548 -1 0 0
-0.0159483 -0.468166 0.154044 -1 0 0
-0.000211961 0.0618624 0.285302 -0.155264 -0.855523 0.493938
-0.0132948 0.172463 0.0890325 -1 0 0
-0.0118979 0.289812 0.226068 0 0.946638 0.322299
0.0130399 0.0892209 0.229203 -1 0 0
-0.0879859 -0.230793 0.298821 -0.984173 0.158474 -0.0793093
0.00942306 -0.256143 0.360816 0.650196 0.137988 0.747131
-0.0567312 0.0730009 0.191637 -1 0.000194976 0.000204528
-0.0600061 -0.116326 0.552183 0.50855 0.613872 0.60377
-0.0520605 0.0386218 0.16916 -0.428606 0.654258 0.623092
0.0369 -0.127342 0.488869 0.340147 -0.771257 0.538017
-0.00104248 0.235488 0.29006 0 0.500008 -0.866021
0.00905955 0.29401 0.235248 0.992916 -0.0239787 0.116372
0.00396352 -0.478991 0.185656 0 -0.999967 0.00815338
-0.0104139 -0.197733 0.166076 -0.992913 0.11681 -0.0218891
0.00507516 -0.0458135 0.446586 0.643376 0.353421 0.679088
0.0170498 -0.347204 0.198884 1 0 0
-0.0173736 0.419944 0.287047 -0.983866 -0.126594 -0.126417
0.0141255 0.269754 0.0187234 0.983874 0.0462 0.172794
-0.0168183 -0.410114 0.297322 -0.920067 0.298061 -0.254238
0.000323474 -0.169983 0.262912 0 -0.90995 -0.414719
-0.00814274 0.216497 0.146891 -0.992908 -0.114719 -0.0311822
0.0101361 -0.289381 0.361659 1 0 0
-0.0132948 0.450214 0.143912 -1 0 0
0.00256953 0.420244 0.143534 0 -0.23516 -0.971957
0.00536982 0.404381 0.279391 0 -0.70764 -0.706573
-0.0159483 -0.288961 0.360379 -1 0 0
0.0121842 0.0370428 0.245888 0.984832 -0.136719 -0.106839
2.62518e-05 0.184902 0.217346 0 -0.355119 -0.934821
-0.0269711 0.135406 0.273997 0 0.468463 0.883483
0.0101361 -0.400997 0.299445 1 0 0
-0.00435389 -0.401755 0.0975956 0.992912 0.0913853 0.0759907
-0.0196243 -0.210384 0.0409208 -0.983892 -0.0881416 0.155524
-0.0165657 -0.129495 0.5221 0 -0.996908 -0.0785727
-0.00694354 -0.322215 0.36564 0 -0.165741 0.986169
-0.00604338 0.267883 0.338107 0 -0.258276 0.966071
-0.00267285 0.416676 0.254408 0 -0.599017 0.800736
0.00215754 0.00776132 0.392687 0.341375 -0.434045 -0.833708
-0.0208352 0.158858 0.407778 -0.0163525 -0.294182 -0.955609
-0.0132783 -0.125874 0.4486 -0.89095 0.402772 -0.20972
0.0101361 -0.389785 0.328145 1 0 0
-0.00262632 0.180959 0.170222 0.992912 0.118835 0.00195293
0.00797377 0.365561 0.187547 -0.992912 -0.11473 -0.0310342
0.0165275 -0.327989 0.227279 0.000775545 -0.0943468 0.995539
0.0111784 0.249772 0.018652 1 0 0
-0.00153767 0.169209 0.151605 -0.992912 0.117719 0.0163533
0.00983149 0.449462 0.188989 0.418774 -0.908091 -7.26393e-05
-0.0132914 0.167531 0.218651 -0.920124 0.378199 -0.101672
0.000900576 -0.407004 0.284959 0.41876 0.739276 -0.527362
0.00378374 0.287579 0.264816 -0.992912 0.023932 -0.116416
-0.0164183 0.192665 0.0660431 -0.983855 0.126633 0.126464
-0.0231589 0.0874923 0.292315 0 -0.614508 0.788911
-0.0451795 0.211752 0.232438 0.976681 0.184053 -0.110537
0.00627129 0.21682 0.311273 0 -0.500051 0.865996
0.0075728 0.183009 0.433087 0.121651 0.433138 0.893081
0.00630781 0.189104 0.0884201 0 0.818716 0.574199
-0.0127425 -0.0634608 0.449302 -0.866024 0.230856 0.443518
-0.0153455 0.208841 0.288245 -0.920138 0.277095 -0.276702
-0.0144792 0.169337 0.267083 -0.649732 -0.622348 0.4365
0.00728597 0.333152 0.0961174 0.992917 0.0382824 -0.112477
0.00364834 -0.192423 0.177921 0.992912 0.11862 -0.007379
-0.0159483 -0.313611 0.0328209 -1 0 0
0.0122233 0.178778 0.401764 0 -0.277462 -0.960737
-0.0497903 0.0620043 0.189505 0 0.727412 -0.686201
0.00723662 -0.23042 0.217448 0 -0.427371 0.904076
-0.0121073 0.310204 0.0278848 -0.418853 -0.157633 0.894267
0.0116214 0.458026 0.246535 0.650824 0.688295 0.320434
0.00720548 -0.116904 0.159725 0.274058 0.945481 -0.175949
0.0655584 -0.195353 0.363814 0.973261 0.222913 0.0554298
-0.0159483 -0.340099 0.343133 -1 0 0
0.0101361 -0.271688 0.0327644 1 0 0
-0.0159483 -0.315817 0.341958 -1 0 0
0.0544368 0.249384 0.211566 0.987378 -0.135792 0.0815138
-0.0431371 0.171125 0.130051 -0.964983 0.0126562 -0.262008
0.0145467 0.467756 0.201431 0.941725 0.324868 0.0872647
0.00781482 -0.41682 0.0545931 0 -0.713269 -0.700891
0.0557319 -0.17613 0.405499 0.634208 -0.598 0.490078
0.0702424 0.0489205 0.136905 0 -0.996911 0.0785353
-0.00558752 0.326282 0.283178 0 -0.98481 0.173635
-0.000392766 0.329074 0.00190445 0 0.0877643 -0.996141
0.0258386 0.0769958 0.279011 1 0 0
-0.00997649 -0.201317 0.340423 0 0.506913 0.861997
0.00634237 -0.220985 0.0192084 0.276053 0.473966 -0.836153
-0.0155642 -0.444996 0.288665 -0.650547 -0.65414 0.385861
-0.0139139 0.301779 0.169909 0.00658171 -0.939872 -0.341462
0.0374555 -0.130673 0.454816 -0.337713 0.772241 -0.538139
-0.0567326 0.114361 0.205487 -1 0.000333117 0.000166938
0.0101361 -0.433317 0.0716687 1 0 0
-0.067017 0.0604796 0.20209 -0.0181701 -0.913299 -0.406885
-0.012514 -0.275662 0.265693 -0.992912 0.0292379 0.115197
0.0136683 0.355178 0.0136432 0.941651 0.0868929 -0.325182
-0.0283283 0.042844 0.246413 -1 0 0
-0.0185584 0.0149016 0.255636 0 -0.282293 0.959328
0.0300872 0.165099 0.422428 0.925258 -0.0677573 0.373237
-0.0132948 0.427443 0.272639 -1 0 0
-0.00781807 -0.281762 0.0750691 0 0.991897 0.127044
-0.0389308 0.192365 0.125797 0.711544 0.117127 0.69281
-0.0319798 0.331111 0.179197 -0.7354 0.617751 0.278515
-0.0453325 0.0318708 0.20878 1 0 0
-0.00185507 0.179206 0.136635 0.992912 0.114688 0.0311739
-0.0926014 0.086233 0.253737 0 0.994796 -0.101886
0.0141587 0.43041 0.270976 0.983866 -0.146496 -0.102698
-0.0567339 0.0719424 0.255889 -1 0 0
0.00220693 0.419365 0.172408 0 0.0139526 -0.999903
-0.0158866 -0.150758 0.0847588 0 0.814098 -0.580727
0.0101361 -0.452105 0.231248 1 0 0
-0.0479782 0.109851 0.23455 0 -0.737336 -0.675527
-0.0160867 0.264367 0.0237399 -0.983854 0.0461938 0.17291
-0.0343874 -0.137166 0.465923 0.854635 -0.50816 0.106642
0.00299829 -0.390414 0.229971 0 0.424201 0.905568
-0.0200476 -0.461695 0.238428 -0.94183 -0.314884 0.117492
-0.016504 -0.276496 0.15633 0.992912 -0.0700092 0.0960445
0.0612546 -0.30987 0.173262 -0.00326637 0.154877 -0.987928
-0.0123454 0.345071 0.217357 -0.992908 0.0745561 0.0926004
-0.0145841 -0.0652253 0.390102 -0.984816 0.136811 0.106864
-0.0668675 -0.233024 0.296263 0.98522 0.147528 -0.0870403
0.0109895 0.274555 0.183725 -0.992912 0.111085 -0.0422588
0.0037293 -0.310509 0.285632 0 -0.991896 -0.127052
-0.0131448 -0.357185 0.203814 0.992912 0.113153 -0.0363638
0.00664359 0.255795 0.106097 0 0.779355 -0.626582
-0.0142999 -0.00539951 0.299699 -0.866207 -0.39379 -0.307594
0.0142461 -0.312561 0.233795 -1 0 0
-0.0412408 -0.117251 0.478224 -0.635959 0.717685 -0.283696
-0.0125079 0.294778 0.0258207 -0.669055 0.0652482 0.740343
0.00692354 -0.353675 0.147812 0 0.5373 -0.843391
-0.0342907 0.310578 0.095612 -1 0 0
-0.00386334 0.223817 0.0910505 0.992912 0.0856819 0.0823637
0.0374438 -0.151659 0.448188 -0.644037 -0.702682 0.302414
0.000595256 0.207696 0.241684 -0.992912 0.0970432 -0.0686186
-0.131091 -0.120772 0.556061 0 -0.0958612 -0.995395
-0.00678303 -0.398438 0.0777827 -0.419231 0.647577 0.636309
0.0123813 0.333379 0.19785 0 -0.694675 0.719323
-0.0463668 0.127377 0.141895 -0.589859 0.238674 0.771428
0.0613578 -0.252672 0.279533 -0.86706 -0.435154 0.242584
-0.0325433 0.160109 0.192077 0 -0.23381 -0.972282
-0.0239498 0.306111 0.187921 1 0 0
-0.00506583 -0.259239 0.0423543 0 -0.250326 0.968162
0.0130428 -0.432077 0.283143 0.983808 0.136377 -0.116292
-0.00170019 -0.0382686 0.416131 0 -0.461741 -0.887015
-0.0385466 0.224784 0.117737 -0.589859 0.238674 0.771428
0.0216816 0.112895 0.28579 0 0.473375 0.880861
-0.0681641 -0.188209 0.35963 -0.339807 0.838707 -0.425561
-0.0159483 -0.16136 0.107631 -1 0 0
-0.000531341 -0.422697 0.143029 0 0.310686 -0.950512
-0.0152949 0.224572 0.0441155 -0.920133 0.224388 0.320945
-0.00786254 -0.199256 0.140085 0.992912 -0.107606 0.0504597
-0.0139703 -0.116539 0.470578 -0.984697 -0.0804654 -0.154588
0.0133022 0.382748 0.319737 0.941714 0.142371 0.304805
-0.00329476 0.427446 0.220234 0 0.381062 -0.924549
0.00343816 0.437516 0.0680796 0 0.765999 -0.642841
-0.00788912 -0.262033 0.330744 -0.418913 -0.0870109 -0.903848
0.0605351 -0.274671 0.212775 -0.864872 0.443481 -0.235204
0.0020684 -0.459529 0.26785 0 -0.861312 0.508076
-0.016356 0.304976 0.197236 -0.992908 -0.00887468 0.118551
0.00630479 0.239155 0.0149764 0.274514 -0.407008 -0.871198
0.00159553 0.406343 0.227426 -0.992912 -0.103361 -0.0586716
-0.0278413 0.29586 0.168593 1 0 0
0.0132319 0.179801 0.064284 0.941731 -0.238006 -0.237689
-0.0667961 0.264526 0.185971 -0.999994 -0.00333478 0.000589704
-0.115871 -0.125856 0.561352 0 -0.999873 -0.0159605
0.0280054 0.12382 0.200718 0 -0.236523 -0.971626
0.0134187 -0.145708 0.0985866 0.941482 0.290314 -0.171256
0.0462742 -0.185362 0.383467 -0.973317 -0.222622 -0.0556133
-0.0396705 0.304434 0.168598 -1 0 0
-0.0100579 0.351474 0.307223 -0.418591 -0.157738 -0.894371
-0.00427815 0.24497 0.268673 0 0.836759 0.547572
-0.00203197 0.0638838 0.362954 0 -0.461818 -0.886974
0.0234175 0.0674495 0.194657 -0.00318806 -0.208282 -0.978064
0.0211207 0.138006 0.257215 -0.0221459 -0.462737 -0.886219
0.00650306 -0.161711 0.439309 -0.00260169 -0.878591 0.477568
-0.0453325 0.0367519 0.22393 1 0 0
0.0609913 -0.246655 0.26394 -0.86481 0.443633 -0.235146
0.0144822 0.0598812 0.255657 0 -0.499401 0.866371
-0.0155893 -0.464881 0.119869 -0.650859 -0.715461 -0.253965
-0.0558101 0.311034 0.170188 -0.00682957 0.939603 -0.342198
-0.00309196 -0.190315 0.0433375 0 0.566419 -0.824117
0.0111784 0.412772 0.0505552 1 0 0
0.022851 -0.144006 0.436936 0.00606415 0.47746 0.878633
0.0137097 0.406119 0.292084 0.983849 -0.102559 -0.146706
-0.0159483 -0.403016 0.311286 -1 0 0
0.0137617 -0.350334 0.34704 0.983797 0.0597287 -0.169043
-0.00947364 -0.233017 0.254126 0.992912 -0.0812104 -0.0867749
0.034713 -0.149831 0.429989 -0.00599457 -0.477503 -0.878609
-0.0216522 0.128783 0.416902 -0.000136462 -0.294054 -0.955789
-0.0453325 0.121385 0.218084 1 0 0
-0.0603524 0.29812 0.18135 0 -0.169458 -0.985537
0.00447447 -0.0316374 0.439467 0.342085 0.433804 0.833542
0.00380047 0.435471 0.116318 0.418736 -0.85333 0.310625
-0.00377854 0.391493 0.289478 0 -0.573197 -0.819417
-0.0042951 0.0897113 0.341561 -0.00058948 -0.500099 -0.865968
0.0223047 0.142875 0.209803 -0.978259 0.191149 -0.0804424
0.00143271 0.201877 0.0726216 0 0.707551 0.706662
-0.0493171 0.063761 0.21626 -0.0144344 -0.669052 0.743076
-0.0012093 -0.114607 0.171627 0 0.999967 -0.0081544
-0.00481549 0.336027 0.0358519 -0.418853 -0.157633 0.894267
0.0442532 -0.128862 0.470502 0.973261 0.222913 0.0554298
0.0698612 -0.255563 0.238195 0.00244182 0.878654 -0.477454
0.0116277 0.180243 0.250652 0.920024 0.32086 -0.224955
-0.040513 -0.148509 0.429783 -0.0060196 -0.477565 -0.878576
0.0232566 -0.113245 0.488 -0.006038 -0.477682 -0.878512
0.0111784 0.180207 0.263534 1 0 0
0.00896324 -0.0874375 0.447657 0.866329 -0.230656 -0.443026
-0.0161083 0.447015 0.260752 -0.941719 0.275413 0.193168
-0.00615791 0.129792 0.261671 0 -0.458829 -0.888525
0.0313392 -0.301967 0.187755 0.000150487 -0.963799 0.266628
-0.0865667 -0.257401 0.264801 -0.867293 -0.434828 0.242338
0.00179016 -0.104543 0.500972 0 -0.568821 -0.822461
0.0530127 0.249477 0.170129 0 -0.236523 -0.971626
-0.00143179 0.00847797 0.267387 0 -0.78795 -0.615739
-0.00345123 0.173448 0.208471 0 0.939679 -0.342057
-0.0124231 0.0494586 0.224271 -0.852833 -0.409023 -0.324616
0.00646687 0.474709 0.135798 0.274215 0.928763 -0.24941
0.00063597 -0.105858 0.458862 0 0.787967 0.615718
-0.0124343 0.152443 0.240582 -0.650636 -0.688455 0.320472
-0.00135284 0.191831 0.297898 0 -0.707558 0.706656
0.00944102 0.310882 0.224788 0 0.998808 -0.0488161
-0.003596 0.298046 0.289703 0.992912 0.00884539 -0.11852
-0.0287971 0.281891 0.136954 1 0 0
0.0111784 0.240082 0.301049 1 0 0
0.0746072 -0.258069 0.275522 0.340089 -0.827195 0.447312
0.0105752 -0.114404 0.459497 0.865919 0.394188 0.307897
-0.00900409 0.290533 0.00165562 -0.274066 -0.0844038 -0.958
-0.0170987 0.464027 0.139303 -0.983836 -0.172936 0.0464685
0.0329962 -0.117264 0.528384 0.112622 0.956808 -0.268021
-0.0159483 -0.139716 0.128597 -1 0 0
-0.0130897 -0.117266 0.21273 -0.274919 0.948379 0.158103
0.0111784 0.445821 0.26323 1 0 0
-0.00862424 0.404496 0.0687795 -0.418821 -0.695626 0.58369
-0.0156078 -0.272086 0.228334 0 0.877166 -0.480187
0.0204542 0.298982 0.157371 1 0 0
0.0178281 0.273783 0.130468 -1 0 0
0.0478251 0.274557 0.178158 -0.999999 -0.00164622 -0.000347068
-0.0880619 -0.239167 0.283048 -0.984392 0.157342 -0.0788425
-0.0715188 -0.310223 0.192766 0.00294389 -0.121489 0.992588
-0.0149995 0.403567 0.308759 -0.649939 0.435515 0.622821
0.0232 0.0545093 0.268758 0 0.385974 0.92251
-0.0117072 -0.444024 0.0776913 -0.273362 -0.74183 -0.612341
0.0111782 0.268982 0.315044 0.920074 0.101157 -0.378458
-0.0188234 -0.282796 0.201318 0 -0.730144 0.683293
-0.0735017 -0.237439 0.309843 0.33902 -0.827483 0.447591
-0.0166734 0.243277 0.0208343 -0.941715 -0.142411 -0.304783
-0.0159483 -0.452336 0.17493 -1 0 0
0.00282585 -0.431092 0.121523 0.419188 0.826135 0.376541
0.0101361 -0.145508 0.272421 1 0 0
-0.0203393 -0.245431 0.349957 -0.941814 0.117917 0.314774
0.00119103 0.0390744 0.37599 0.340911 -0.43405 -0.833895
0.0612386 -0.204439 0.334035 -0.337713 0.772241 -0.538139
0.00290972 0.0172838 0.300325 0.342801 0.740216 0.578418
0.019729 0.336347 0.154234 0 -0.679525 -0.733653
0.0544472 -0.301545 0.184353 -0.000293745 -0.910152 -0.414275
-0.00203363 -0.122705 0.465163 0.000212634 -0.887042 0.46169
-0.0107075 0.347159 0.126297 0 0.761547 0.64811
-0.00604484 -0.172705 0.126189 -0.992912 0.107607 -0.0504602
0.0967206 -0.114662 0.571069 0 0.390895 0.920435
-0.0043224 -0.207295 0.0590264 0 -0.635551 0.772059
0.0228274 0.0619427 0.228357 0 -0.229878 -0.973219
-0.0453325 0.0961392 0.253837 1 0 0
0.00472558 -0.120797 0.48126 0.987813 -0.138055 0.0718696
-0.0132948 0.383462 0.300978 -1 0 0
0.00540123 0.466947 0.109066 0 0.906545 -0.42211
0.0694442 -0.217226 0.337463 0.852046 -0.355101 0.384605
-0.0022764 0.299878 0.0286023 -0.992908 -0.00590094 -0.118739
-0.0491285 0.0365188 0.197111 -1 0 0
0.016858 -0.255046 0.212647 0 -0.380218 -0.924897
0.0644168 0.08202 0.13791 -1 0 0
0.0101361 -0.13187 0.208335 1 0 0
0.00378702 0.451993 0.179847 0 -0.996238 -0.0866541
-0.00897847 0.211463 0.313027 -0.274421 -0.550992 0.7881
-0.0283283 0.086181 0.277447 -1 0 0
0.00945428 -0.219856 0.32159 0.668387 -0.377041 -0.64117
-0.00474645 0.471047 0.221869 0 0.965792 0.259318
-0.00720273 -0.143674 0.164807 0 -0.983115 0.182986
-0.0885668 -0.27552 0.221381 -0.985241 -0.147434 0.0869699
-0.0145115 -0.445735 0.140052 -0.669692 0.699917 0.248249
0.0127845 0.0815549 0.212194 0.0181803 0.913777 0.405809
0.00305837 0.40885 0.117128 0.992917 0.104792 -0.0559934
-0.0159483 -0.200445 0.0513418 -1 0 0
-0.0253152 0.305796 0.159164 -1 0 0
-0.0272405 0.328601 0.163875 -1 0 0
0.00776562 -0.0559051 0.354995 0.641786 -0.604311 -0.472143
-0.0139626 -0.0415555 0.431496 -0.984722 -0.0804125 -0.154455
0.0038475 0.233622 0.0535147 0.419004 0.45396 0.786356
0.0142461 -0.344164 0.168958 -1 0 0
0.0169175 -0.306704 0.210288 0 -0.969872 0.243613
0.0258424 0.100813 0.222622 1 -0.000410474 -9.62303e-05
0.0111784 0.338335 0.313056 1 0 0
-0.0272405 0.31488 0.196892 -1 0 0
0.0446823 0.20855 0.234385 0 0.473375 0.880861
-0.0133086 0.379097 0.0424841 -0.92012 -0.165795 0.354811
0.0147643 0.131243 0.44224 0.200103 0.147705 0.968577
0.00235337 -0.16124 0.307241 0 0.771131 0.636676
-0.0748962 -0.218275 0.338729 0.00588337 0.477512 0.878605
-0.0253152 0.291631 0.145261 -1 0 0
0.0111784 0.154528 0.199666 1 0 0
-0.0235389 -0.143155 0.436794 0.00607535 0.477488 0.878618
0.0111806 -0.130081 0.497233 -0.006096 -0.479599 -0.877466
0.00902462 0.313039 0.109882 0 0.997055 0.076693
-0.0171031 -0.441343 0.254382 -0.92019 0.337177 -0.198904
-0.0567322 0.08225 0.217394 -1 -0.000251205 -4.90855e-05
0.0111784 0.313891 0.0139102 1 0 0
-0.0548272 0.0310693 0.233771 0 -0.79867 0.601769
0.0101361 -0.165196 0.0799712 1 0 0
-0.013021 0.377105 0.325794 -0.65009 0.321622 0.688435
0.000342052 -0.340127 0.294256 -0.992912 0.0439857 -0.110408
-0.0126781 0.296407 0.340761 -0.650117 -0.0667234 0.756899
-0.0137758 -0.0358677 0.33721 -0.86587 -0.394193 -0.308027
-0.0597693 0.258583 0.208683 0 0.468463 0.883483
-0.0275396 0.104671 0.274588 0 -0.460316 -0.887755
-0.00637816 -0.397764 0.249507 0.992912 0.100541 -0.0633785
-0.0700763 -0.211812 0.320526 0.342212 0.767701 -0.54178
-0.027631 0.146395 0.208666 0.968907 0.228053 -0.0959729
-0.0138825 -0.229897 0.047791 -0.418575 -0.51448 0.748402
0.00904956 0.452391 0.0820949 0.274188 0.787341 -0.552191
-0.0123149 -0.328516 0.106336 -0.992912 -0.0433523 -0.110661
-0.0188615 -0.13291 0.180841 -0.920111 -0.391645 0.00316817
0.0142461 -0.276305 0.23095 -1 0 0
-0.00736965 0.137251 0.155015 0 -0.996247 -0.0865517
0.00375116 -0.461828 0.252695 0 -0.96364 0.267205
-0.0159483 -0.432901 0.278081 -1 0 0
0.0101361 -0.207159 0.054085 1 0 0
-0.132635 0.0678785 0.27967 0 0.0782879 0.996931
-0.0153948 0.212963 0.0519458 -0.920133 0.224388 0.320945
-0.060283 -0.203409 0.347628 0.965471 0.0507057 -0.255529
0.0111784 0.369627 0.312383 1 0 0
0.00576137 -0.141557 0.43914 -0.000199587 -0.461067 -0.887365
0.0111784 0.283631 0.017238 1 0 0
0.00285878 -0.138476 0.264973 0 0.909978 0.414656
-0.00748282 -0.0660395 0.432208 -0.341205 -0.434152 -0.833722
-0.0155296 0.0513953 0.266911 1 0 0
0.0157677 0.0122049 0.254843 0 -0.282293 0.959328
0.00831458 -0.457355 0.110406 0 -0.909948 -0.414723
-0.00818416 -0.269171 0.296862 0 -0.969017 0.246996
0.0128691 -0.0404485 0.353772 0.984775 0.136982 0.107023
0.0282234 0.109865 0.2112 0.982981 -0.169324 0.0712576
-0.0992947 0.0853896 0.270889 1 0 0
0.0942507 -0.124837 0.55023 0 -0.39102 -0.920382
-0.0203957 0.119997 0.28224 0 0.46685 0.884336
0.00820233 -0.168717 0.104404 0.419239 -0.739129 0.527188
0.045076 0.24215 0.182493 -0.970789 0.235746 0.0446431
-0.0119778 0.265647 0.30851 -0.41893 0.157672 -0.894224
-0.0479608 -0.135716 0.446952 -0.339807 0.838707 -0.425561
0.100218 -0.124271 0.570418 -0.988871 -0.0650231 0.133817
-0.0480565 0.0687374 0.230839 0.00213483 -0.986771 -0.162108
0.000380413 -0.155666 0.248654 0 -0.942395 -0.334502
0.0155936 -0.28666 0.127856 0 0.0260366 -0.999661
-0.0152005 -0.435116 0.123055 -0.419179 0.826192 0.376424
0.00725686 -0.238103 0.196159 -0.992912 -0.116646 -0.0227884
-0.0253243 0.0593067 0.242177 0 -0.498655 -0.866801
-0.0165274 0.097805 0.437421 -0.833093 -0.228055 0.503931
-0.0240519 0.0731819 0.225307 0 -0.629508 -0.776994
0.0133631 0.296339 0.324867 0.920075 0.0344597 -0.390224
-0.044261 -0.152689 0.422242 0.634931 0.587574 -0.501617
-0.0361399 -0.302014 0.185926 -7.48748e-05 -0.99707 -0.0764971
-0.00186918 -0.184058 0.277532 0 0.638763 -0.769404
-0.0150697 -0.338018 0.210173 0 -0.534352 -0.845262
-0.0203553 -0.306553 0.170281 -0.992912 -0.0695784 -0.0963548
-0.00130563 0.137089 0.41436 0.00110239 -0.29403 -0.955796
-0.00153573 -0.142463 0.194417 0 -0.999969 0.00793227
0.00503641 0.27953 0.0293574 0 0.25833 0.966057
-0.00480055 0.473673 0.161088 0 1 0
0.00575461 -0.196646 0.297231 0.418648 -0.647777 -0.63649
0.0242009 0.139031 0.271774 0.034052 0.466266 0.883989
-0.00219468 -0.00632342 0.286329 0 -0.78802 -0.61565
0.0718844 -0.228358 0.288362 0.344956 0.823692 -0.450042
0.0016813 -0.288069 0.339255 0 -0.00926581 -0.999957
-0.0346883 0.170748 0.415697 -0.96399 -0.10516 0.244263
-0.0159483 -0.409129 0.0813975 -1 0 0
0.00896137 0.259602 0.204419 0 -0.576436 -0.817142
0.0101361 -0.269921 0.346178 1 0 0
0.00114925 0.403742 0.0848706 0 0.674299 0.738459
-0.0140127 -0.451665 0.199929 -0.669269 0.742996 -0.00589337
0.00676243 0.0904644 0.370965 0.99058 0.121482 -0.0631922
0.0111784 0.17683 0.0889141 1 0 0
0.000389725 0.189783 0.0474979 0 -0.707631 -0.706582
-0.0147683 -0.122641 0.480435 -0.891098 -0.402531 0.209555
0.00435415 0.0532908 0.248571 0 -1 0
-0.0132948 0.381951 0.0253216 -1 0 0
-0.0793414 -0.282365 0.228759 -0.00362562 -0.878588 0.477566
-0.019602 -0.310993 0.0108235 -0.94192 -0.00319607 -0.335822
0.0109855 0.416007 0.070927 0.920096 -0.277108 0.276831
0.126073 -0.120583 0.56689 0 -0.190939 0.981602
-0.0242407 0.081538 0.213716 0.0144124 0.74309 0.669036
-0.0145699 0.283198 0.337972 -0.650117 -0.0667234 0.756899
0.012056 -0.149293 0.0850173 0.941511 0.290238 -0.17123
-0.00279754 -0.325457 0.336666 0 0.165649 -0.986185
-0.0170838 0.432285 0.0718277 -0.983852 -0.146545 0.102757
0.0101361 -0.405668 0.3204 1 0 0
-0.0104146 -0.389791 0.336109 0 -0.566418 0.824118
0.00560468 0.00624068 0.418992 0.64337 0.353522 0.679041
0.0784325 -0.215036 0.320955 0.867872 0.43398 -0.241786
-0.0170924 0.466552 0.1841 -0.983837 -0.178396 -0.015507
-0.00392887 0.401668 0.0341352 0 0.499986 -0.866034
0.0132982 0.0963706 0.28379 0 0.581956 0.81322
-0.0334347 0.155269 0.2484 0.973549 0.140401 -0.180249
0.0437694 0.190474 0.200966 0.977103 -0.209092 -0.0393806
-0.0871415 -0.26367 0.251497 -0.867293 -0.434828 0.242338
0.0324157 0.118053 0.26779 0.98572 -0.103479 0.132847
-0.0384827 0.247119 0.209132 -0.583985 -0.17171 -0.793396
-0.0129391 0.304081 0.225786 -0.992908 -0.0088479 0.118554
-0.00892368 0.450516 0.196827 0 -0.996238 -0.0866541
0.018093 0.359048 0.155238 0 0.974289 -0.2253
0.0472305 0.0714538 0.211018 -1 0 0
0.0793018 -0.291732 0.188187 0.963999 0.225485 -0.140932
0.00505862 0.0596495 0.200734 -0.0181701 -0.913299 -0.406885
0.0130613 -0.314249 0.0188618 0.983793 0.0325528 0.176331
-0.0194132 -0.225966 0.345436 -0.941814 0.117917 0.314774
-0.0139648 0.187085 0.0540256 -0.649881 -0.537835 -0.537017
0.00368458 -0.395615 0.151985 0.992912 -0.113 -0.0368329
0.0132148 -0.461535 0.127338 0.941425 -0.317827 -0.112713
0.0413716 0.23386 0.20863 -0.968443 0.218454 -0.119981
-0.0567298 0.0704291 0.207437 -1 0.000173377 -2.78111e-05
-0.00186719 0.18326 0.246592 0 0.818775 -0.574114
-0.083758 -0.278064 0.19551 -0.640151 0.67684 -0.363449
-0.0197294 -0.307206 0.35384 -0.983906 -0.00166983 -0.178677
-0.0567329 0.0624246 0.156044 -1 -0.000302281 -5.97432e-05
0.0101361 -0.331687 0.0333579 1 0 0
-0.00686534 0.455852 0.0933893 0 0.939711 -0.34197
0.00773227 0.431727 0.282163 0 0.766061 0.642768
0.00716958 0.437132 0.227014 0.418799 -0.853333 -0.310533
-0.0136152 0.287384 0.200839 0 -0.83677 -0.547554
0.0111784 0.192541 0.268559 1 0 0
0.000910386 0.430711 0.247933 0 -0.818705 -0.574215
-0.018256 -0.454002 0.101617 -0.650188 -0.661612 -0.373529
0.0031653 0.0983447 0.348112 0.453176 0.771989 -0.445718
0.0548327 0.252337 0.196859 0 -0.465035 -0.885293
-0.0525812 -0.178444 0.403207 0.33974 -0.838723 0.425583
-0.00452756 -0.004425 0.398928 -0.341376 -0.434003 -0.833729
0.0101361 -0.147389 0.116086 1 0 0
0.00779949 0.162431 0.16915 0 0.996256 0.0864573
-0.0567339 0.114749 0.238981 -1 0 0
0.004204 0.113523 0.393381 0.865825 -0.433315 0.25017
0.0125754 0.451369 0.220805 0.920142 -0.378173 -0.101604
-0.0159483 -0.179713 0.318425 -1 0 0
0.00495327 -0.221685 0.160764 -0.992912 -0.11315 0.0363619
0.00519253 -0.281412 0.00311789 0.274836 0.15947 -0.948174
0.0292639 -0.130951 0.478635 -0.861823 -0.490314 0.129823
0.0111784 0.159513 0.12163 1 0 0
0.00649304 0.0830077 0.335227 0.987736 -0.135218 0.0780641
0.01474 -0.312331 0.142849 0 0.317512 0.948254
-0.00388291 0.13718 0.187544 0 -0.996261 0.0863977
-0.00809253 0.0853096 0.443609 -0.359026 -0.127269 0.92461
0.0168831 -0.332487 0.213631 0 0.662498 -0.749064
0.0111784 0.146356 0.128608 1 0 0
0.0045653 -0.0241516 0.352374 0.342161 0.740511 0.578419
0.0123235 -0.255997 0.343703 0.920299 -0.0710427 -0.384711
0.053366 -0.18038 0.3735 -0.337713 0.772241 -0.538139
0.0142461 -0.306229 0.185033 -1 0 0
-0.0143969 -0.450816 0.0894422 -0.274656 -0.837227 -0.47288
0.00689777 -0.284314 0.0307377 0.669344 -0.122953 0.732708
-0.0469126 0.211149 0.219377 0 -0.460316 -0.887755
0.0106385 -0.105509 0.42376 0.865918 -0.39414 -0.307961
-0.133502 0.096926 0.267333 0 0.996912 -0.0785196
0.00650307 0.114898 0.269363 0 -0.458829 -0.888525
-0.0776743 -0.22436 0.291221 0.00244813 0.878561 -0.477624
0.0130399 0.0769856 0.23405 -1 0 0
-0.0554597 0.247519 0.201296 0.973549 0.140401 -0.180249
-0.0169558 0.170845 0.404021 -0.0163525 -0.294182 -0.955609
0.00169119 0.0678497 0.296904 -0.453801 -0.771719 0.445549
-0.0125396 -0.133824 0.109772 0 0.963626 -0.267253
-0.0109748 -0.133752 0.435077 -0.000424318 -0.461824 -0.886972
0.00469056 -0.376432 0.160002 0 -0.310654 0.950523
-0.0453325 0.0783663 0.2566 1 0 0
-0.0475381 0.177541 0.250065 -0.980864 -0.166909 0.10024
0.0318009 0.206308 0.235229 -0.968594 0.213186 -0.127972
-0.0567314 0.0861212 0.244315 -1 -8.83966e-05 -0.000147963
-0.0155296 0.0847822 0.221262 1 0 0
-0.00919183 -0.297008 0.181319 -0.00064748 -0.098303 -0.995156
-0.0661848 -0.178758 0.39032 -0.965471 -0.050707 0.25553
-0.0164191 0.458422 0.237253 -0.941748 0.304908 0.141923
-0.0388645 0.170932 0.240231 0 -0.460316 -0.887755
-0.0344773 0.301897 0.185417 1 0 0
-0.0155296 0.0766177 0.233536 1 0 0
-0.0187997 -0.120323 0.167484 -0.941896 0.330232 -0.0614741
-0.00298636 -0.381224 0.0291667 0 -0.430494 -0.902593
0.00507943 -0.176651 0.321974 0.275429 0.624884 0.730519
0.00269969 -0.43823 0.230886 0.418483 0.875202 -0.242682
-0.0142532 -0.298228 0.0333498 -0.419049 0.0870397 0.903782
0.0526415 0.0620532 0.178628 0 -0.994802 0.101829
0.0709549 -0.241642 0.308063 -0.00193733 -0.878649 0.477464
0.0101361 -0.245223 0.331664 1 0 0
0.0146005 0.199248 0.289897 0.983852 0.126644 -0.126474
0.00664929 -0.118093 0.52399 0 0.910751 0.412955
0.00896911 0.304127 0.314878 0.418408 0.157714 -0.894461
-0.0141603 -0.156383 0.299834 -0.274252 0.741603 0.612218
0.00085825 -0.207401 0.344001 0 0.506913 0.861997
-0.0170026 0.062867 0.274991 0 -0.559823 0.828612
-0.0151175 -0.181793 0.0457242 -0.650358 0.482766 -0.586491
-0.0430492 0.143288 0.138233 0.587521 0.151558 0.794889
-0.0194918 -0.459366 0.225737 -0.983911 0.175647 -0.0326797
0.0277829 0.162265 0.25938 0.034052 0.466266 0.883989
0.0620101 -0.188801 0.380174 0.852418 -0.354521 0.384314
-0.00661877 -0.114383 0.199104 0 0.999967 -0.0081544
0.00297964 -0.237866 0.353288 0 0.430468 0.902606
-0.0173942 0.215646 0.304208 -0.983839 0.102596 -0.146749
0.00936879 0.262336 0.153664 -0.992912 0.10977 0.0455633
0.0101361 -0.397248 0.0524501 1 0 0
-0.0264084 0.282774 0.153312 0 0.128865 -0.991662
0.00188623 0.381467 0.0224725 0 0.499986 -0.866034
0.0130399 0.0824264 0.281007 -1 0 0
0.0805167 0.0552879 0.13251 0 0.99691 -0.0785486
-0.00861268 0.157808 0.439931 -0.0510211 0.111494 0.992455
0.00954353 -0.360941 0.325104 0.418817 0.514348 -0.748357
-0.0127443 0.372681 0.0152222 -0.650145 0.321588 -0.688399
-0.00641808 -0.421497 0.059353 0 -0.713269 -0.700891
0.0130399 0.0937913 0.27023 -1 0 0
0.0101361 -0.138096 0.186743 1 0 0
-0.00132983 0.25756 0.302804 0 0.500008 -0.866021
0.0101361 -0.120561 0.17182 1 0 0
0.056056 -0.196667 0.348445 -0.339028 0.771701 -0.538087
0.00805178 0.0363801 0.400981 0.643186 0.353658 0.679145
0.0381098 0.183649 0.232958 -0.0221459 -0.462737 -0.886219
0.0422048 0.304885 0.176381 0.00388127 -0.499512 0.866298
-0.00919105 -0.147136 0.442044 -0.000205953 -0.4605 -0.88766
0.00822125 0.15987 0.0911901 0 -0.939666 -0.342095
0.000618738 -0.248971 0.00872197 0 0.332967 -0.942938
0.007874 0.309437 0.00324361 0 0.173622 -0.984812
-0.0233092 0.0170156 0.238969 0 -0.229878 -0.973219
0.0111784 0.306062 0.0255362 1 0 0
0.0158652 -0.340451 0.146399 0 -0.622413 -0.782689
0.0121974 -0.308326 0.162148 0 0.877147 -0.480222
-0.000954362 0.176368 0.0693149 0 -0.766066 -0.642762
-0.01438 0.021337 0.265796 -0.984835 -0.136724 -0.1068
0.0152656 0.315322 0.172524 1 0 0
-0.0122529 0.472269 0.20484 0 0.939702 0.341994
-0.00230614 0.421318 0.294568 0 0.766061 0.642768
-0.0170442 -0.383779 0.319242 -0.920062 0.193146 -0.340854
0.00350421 -0.0806466 0.465377 0.341378 0.433972 0.833744
0.0070324 -0.145737 0.166238 0.418582 -0.875136 0.242746
-0.0529335 0.0846376 0.154328 1 0 0
0.0148127 0.146776 0.157842 0.983851 0.17832 0.0155002
0.00818374 0.337493 0.335154 0 0.173621 0.984812
0.0121998 0.286983 0.185894 -0.992912 0.0971766 -0.0684245
0.071217 -0.312303 0.185935 0.92195 -0.343092 0.179712
0.0101361 -0.410617 0.0825645 1 0 0
-0.00274888 -0.444052 0.156243 0.992912 0.11665 0.0227893
-0.00731393 -0.0479334 0.382501 -0.342247 0.740385 0.578531
0.00828333 -0.0157237 0.337588 0.642204 0.603999 0.471975
0.00277975 0.255971 0.334922 0 -0.258276 0.966071
0.0142461 -0.254909 0.17951 -1 0 0
-0.00715434 0.0819697 0.32286 -0.70805 0.611556 -0.353077
0.0099537 0.350036 0.161858 -0.992912 -0.11548 0.028098
-0.00649205 -0.348476 0.360128 0 -0.333081 0.942898
-0.000762854 -0.476278 0.2165 0 -0.983146 0.182824
0.0101361 -0.460211 0.207787 1 0 0
-0.00675889 -0.283783 0.36725 0 0.00944046 0.999955
-0.014678 -0.0343096 0.349669 -0.984798 0.136881 0.106944
-0.0297188 0.138983 0.42157 -0.963836 -0.102613 0.245948
-0.0157443 -0.42574 0.0954058 -0.669006 0.573172 0.473186
0.0111784 0.358492 0.327276 1 0 0
-0.0314369 0.287661 0.165221 -1 0 0
-0.0567175 -0.179508 0.375057 0.636007 0.586674 -0.501306
-0.0104994 -0.131713 0.460824 -0.000472941 -0.615704 0.787977
0.0363828 0.204984 0.186183 -0.978259 0.191149 -0.0804424
-0.00821843 -0.136034 0.259614 0 0.909978 0.414656
0.0178281 0.288034 0.133615 -1 0 0
0.0786443 -0.114123 0.558242 0 0.963532 -0.267594
0.0107804 -0.109626 0.486118 -0.006038 -0.477682 -0.878512
-0.0490966 0.0981081 0.173357 1 0 0
-0.026524 0.176101 0.431318 -0.786749 0.000755054 0.617273
-0.0132948 0.326411 0.33481 -1 0 0
-6.3778e-05 0.166881 0.137221 0 0.965724 0.25957
-0.02525 0.084978 0.25601 0 0.385974 0.92251
-0.0566566 0.0992076 0.252958 0 0.325421 0.945569
-0.00866463 -0.0481246 0.343247 -0.642074 -0.604121 -0.471995
0.00465109 0.167839 0.184902 0.418779 0.908088 0
-0.0159483 -0.415746 0.308368 -1 0 0
-0.0195104 -0.208805 0.327615 -0.9839 -0.0905808 -0.154068
-0.00241301 -0.150875 0.175315 0 -0.0610854 -0.998133
-0.0159483 -0.219368 0.321253 -1 0 0
-0.0090985 0.242671 0.296724 -0.418801 0.454046 -0.786414
-0.0155296 0.0961405 0.231445 1 0 0
0.012659 -0.0736381 0.391927 0.984756 -0.137079 -0.107077
0.068302 -0.298681 0.176729 -0.145095 -0.0602703 -0.98758
-0.000705509 -0.392101 0.0297791 0 -0.507023 -0.861933
0.013345 0.162986 0.225124 0.920112 0.355107 -0.165208
-0.00613003 -0.123097 0.528839 0 0.38723 0.921983
0.0103631 -0.301544 0.229477 0 0.991897 0.127044
0.00752216 0.125837 0.263714 0 -0.458829 -0.888525
0.00523344 0.0546669 0.293735 0.891032 -0.393127 0.226965
-0.015484 -0.352395 0.0154168 0 -0.430494 -0.902593
0.0138731 0.218335 0.0435007 0.983854 0.102552 0.146681
0.00951276 -0.338239 0.181558 0 0.064527 -0.997916
-0.00459045 0.44531 0.127087 0 -0.965774 0.259386
-0.00385495 0.415535 0.217111 0 -0.381082 0.924541
-0.0117386 0.271188 0.136706 0.992912 0.0853619 0.0827034
0.0111784 0.38936 0.309027 1 0 0
0.00651909 0.386523 0.0551092 0.418621 -0.454082 0.78649
-0.00790843 0.0559503 0.242008 0 -0.766226 -0.642572
0.0110447 -0.047527 0.432716 0.984722 -0.0804179 -0.154452
0.00945836 -0.256953 0.0387389 0.419058 -0.227371 0.879029
-0.013901 0.336326 0.1943 0 -0.599017 0.800736
0.0101361 -0.454599 0.151014 1 0 0
0.0652587 -0.322445 0.182538 -0.00255669 -0.90886 0.417093
-0.00346813 -0.156256 0.433741 -0.00599457 -0.477503 -0.878609
0.00276462 -0.148376 0.141655 0 -0.93692 0.349543
-0.056733 0.0776727 0.178372 -1 0.000194976 0.000204528
0.0178281 0.345448 0.193003 -1 0 0
-0.00794305 -0.412213 0.0910373 -0.419231 0.647577 0.636309
-0.0159483 -0.398365 0.0493317 -1 0 0
0.0130399 0.0643254 0.245889 -1 0 0
-0.0397688 0.148702 0.208441 -0.974418 -0.207148 0.0871754
-0.0567339 0.0957187 0.161718 -1 0 0
0.01078 0.0130775 0.242129 0.00218023 0.498603 -0.866828
-0.0196777 -0.284901 0.0166743 -0.983906 0.00167305 0.178677
-0.0111957 0.264011 0.0354888 -0.418997 0.157704 0.894188
-0.0132948 0.46171 0.121327 -1 0 0
-0.0453325 0.103739 0.200379 1 0 0
0.013235 -0.122456 0.201258 0.941593 0.332175 0.0553364
-0.0529335 0.0891483 0.198126 1 0 0
-0.0149841 -0.268021 0.00662051 -0.650526 0.125866 -0.748982
-0.0678325 -0.195977 0.37253 -0.636004 -0.586664 0.501322
-0.0161665 -0.404349 0.329405 -0.650274 -0.482847 0.586517
0.0023825 0.091913 0.359411 0.588444 -0.700218 0.404264
0.000941174 0.425131 0.0874487 0 -0.818715 0.5742
0.0101361 -0.191624 0.0516939 1 0 0
0.00925186 0.353746 0.0331211 0.669385 -0.191758 0.717742
0.0131984 -0.321208 0.358133 0.941598 -0.0558386 0.332078
-0.0567297 0.0917525 0.22977 -1 -8.83966e-05 -0.000147963
-0.000428338 -0.315178 0.0386038 0 0.0958321 0.995397
0.00940528 0.247492 0.179229 0 0.111418 0.993774
0.0329098 0.187562 0.18702 -0.978259 0.191149 -0.0804424
0.00484843 0.149241 0.237006 0 -0.906673 0.421835
-0.00202691 0.361795 0.0124744 0 0.173622 -0.984812
-0.00043447 0.427262 0.0496296 0 0.707631 -0.706582
0.0457708 -0.14376 0.434204 0.343948 0.829942 -0.4392
-0.0169722 -0.356652 0.0373209 -0.920109 0.137389 0.366774
-0.00165712 0.0446913 0.221651 0 -0.767038 -0.641602
-0.0101965 -0.10993 0.496467 0.00606623 0.477652 0.878528
-0.0459571 0.182752 0.186632 0 -0.23381 -0.972282
0.00650796 0.422783 0.259236 0 -0.818705 -0.574215
-0.00178833 0.142046 0.203199 0 -0.939666 0.342092
0.00499954 -0.156326 0.0691713 0.274124 0.731758 -0.624008
0.025199 0.0818741 0.210919 0.0181803 0.913777 0.405809
0.0347123 0.0588063 0.201302 -0.0181695 -0.913309 -0.406863
-0.0183705 -0.245946 0.0144202 -0.941842 0.111913 -0.316874
-0.00569261 -0.134621 0.424778 0.00256843 0.87883 -0.477127
-0.0529198 0.0505398 0.191227 -1 0 0
0.00384763 0.377626 0.108068 -0.992912 -0.0875676 0.0803602
-0.0203778 -0.432201 0.291749 -0.941765 -0.255873 0.21819
-0.00646203 0.0987765 0.445825 -0.243227 -0.0868625 0.966072
-0.0118009 -0.0773878 0.414748 -0.642214 0.604074 0.471864
0.0245857 -0.292317 0.189966 0.000481066 0.713116 0.701046
0.0178281 0.318624 0.221152 -1 0 0
0.0133358 -0.285976 0.164066 0.992912 0.0573992 -0.104072
-0.0283283 0.0856891 0.242225 -1 0 0
-0.0132423 0.137859 0.414113 -0.0163525 -0.294182 -0.955609
-0.0088688 -0.37679 0.0207728 0 -0.507023 -0.861933
-0.0053911 -0.279859 0.331788 0 -0.0958241 -0.995398
-0.00417155 -0.184345 0.0792822 0 -0.760893 0.648877
0.00679566 -0.196548 0.333583 0 0.430468 0.902606
0.00784993 0.272936 0.0089782 0 -0.173546 -0.984826
-0.0743089 -0.198687 0.355299 -0.9674 0.239925 0.0810694
-0.0132948 0.33813 0.0169302 -1 0 0
-0.0161251 -0.24841 0.163099 -0.992912 0.107632 -0.0504031
-0.128723 0.0922991 0.277749 0 0.0780895 0.996946
-0.0567323 0.0590495 0.251156 -1 0.000123688 -0.000404428
-0.0173755 0.415016 0.0503105 -0.941609 0.238251 -0.237927
0.0604572 0.0726304 0.144092 0 0.994788 -0.10197
-0.0813309 -0.22105 0.324371 -0.850947 -0.338212 0.401873
-0.0159483 -0.449909 0.263474 -1 0 0
-0.0111151 0.240572 0.328329 -0.274559 -0.406988 0.871194
-0.0174113 0.404971 0.0430031 -0.983866 -0.102518 0.146619
-0.0466541 0.176596 0.199379 -0.965919 -0.254366 -0.0479441
0.00346433 -0.432784 0.250855 0.41876 0.739276 -0.527362
-0.00199203 -0.0973338 0.510044 -0.157037 0.876003 -0.456025
-0.139428 -0.118552 0.568155 0 0.359138 0.933284
0.0130399 0.0951119 0.208691 -1 0 0
0.109139 0.0641634 0.140802 1 0 0
0.0158872 0.0393584 0.233692 0 -0.229878 -0.973219
-0.0108197 -0.0887827 0.447103 -0.642911 -0.353709 -0.679379
-0.0132948 0.400496 0.297427 -1 0 0
0.000482626 -0.0850078 0.387039 0 -0.788056 -0.615603
-0.0158493 -0.151245 0.232256 -0.418726 -0.82635 -0.376582
0.0463223 0.220542 0.227941 0 0.473375 0.880861
0.0421336 0.222684 0.212475 -0.0221459 -0.462737 -0.886219
0.000195973 0.417698 0.0772858 0 -0.707642 0.706571
-0.0676383 -0.277369 0.21983 0.984413 -0.157302 0.0786555
0.0397293 0.233384 0.220326 -0.968594 0.213186 -0.127972
-0.00178318 0.450477 0.0777733 0 0.81875 -0.57415
-0.0858998 0.0820175 0.212578 0 0.994796 -0.101886
-0.00943139 0.00315703 0.314879 -0.642218 0.604027 0.47192
-0.0463401 0.0522181 0.243331 0 0.496376 -0.868107
-0.0442994 0.206187 0.196649 0.958655 0.279603 0.0529346
-0.00476219 0.24161 0.0136831 0 -0.423269 -0.906004
-0.0052488 -0.192816 0.299144 0 -0.64989 -0.760028
0.00549391 0.0270166 0.408279 0.643186 0.353658 0.679145
-0.00521553 -0.0390975 0.372435 -0.342247 0.740385 0.578531
-0.00324932 -0.109169 0.48188 0.156391 -0.876086 0.456088
-0.0137275 -0.076738 0.452255 -0.984722 0.0803991 0.154462
-0.0333642 0.11824 0.207644 -0.974418 -0.207148 0.0871754
-0.0115848 -0.383466 0.212846 -0.992912 -0.113079 0.0365916
-0.0155682 0.473675 0.156318 -0.94176 0.335023 -0.0291252
0.00814631 0.0787936 0.370219 0.99058 0.121433 -0.0632901
0.0139409 0.145141 0.142891 0.94175 -0.324796 -0.087261
0.0966459 0.0557745 0.138686 0 0.99691 -0.0785486
0.0108353 0.221654 0.0566988 0.419104 0.453919 0.786327
-0.0314369 0.313256 0.186105 -1 0 0
0.0527012 0.278107 0.167346 0 -0.051723 -0.998662
0.0140506 -0.441019 0.0902204 0.94144 -0.293565 -0.16586
0.0130168 -0.138945 0.238095 0.983802 -0.168924 -0.0599818
-0.0402427 -0.113401 0.489237 -0.984432 0.156819 -0.0793797
0.00893835 0.346504 0.137055 -0.992912 -0.0875676 0.0803602
-0.000789644 0.445973 0.165556 0 -1 0
0.0139034 0.259007 0.320485 0.983847 0.0461998 -0.172945
-0.0166914 0.347522 0.323856 -0.983838 -0.0462189 -0.172992
-0.0165444 0.151298 0.183052 -0.983856 0.178291 -0.0155026
-0.017538 -0.30109 0.144032 -0.992912 -0.0147829 -0.117925
-0.0123732 -0.478551 0.183176 -0.27389 -0.961729 0.00788851
0.00576165 0.446047 0.200615 0.418543 -0.853463 -0.310521
-0.0189129 -0.277627 0.168225 0 -0.636109 -0.771599
0.010949 0.355223 0.173165 0 -0.0139221 0.999903
-0.00354956 0.205437 0.3047 0 -0.500051 0.865996
0.00477138 -0.131334 0.462602 -0.891841 0.401248 -0.208854
0.124311 -0.123876 0.555796 0 -0.725911 -0.687789
0.00465352 0.226236 0.110298 0.992916 -0.0951562 -0.0711569
-0.00854712 0.054005 0.288493 -0.987738 -0.135204 0.0780623
-0.00692397 0.361117 0.330989 0 0.173621 0.984812
-0.000909181 -0.121527 0.216392 0 0.996916 0.0784752
0.024844 0.150742 0.197616 -0.978259 0.191149 -0.0804424
-0.0128377 0.317262 0.128013 0 0.97957 0.201102
-0.0559989 0.248839 0.183237 0.958655 0.279603 0.0529346
0.0101361 -0.182147 0.296777 1 0 0
-0.0283212 0.0686655 0.235864 0 0.936357 0.351049
-0.0619219 0.248544 0.214006 0 0.468463 0.883483
-0.0035125 -0.176681 0.0992589 0 -0.814088 0.580741
-0.00871246 -0.477026 0.158255 0 -0.986391 -0.164414
0.0236872 0.0559707 0.251331 0 -0.939851 0.341586
-0.000655817 -0.228926 0.062042 0.992912 0.0572602 -0.104147
-0.0261988 0.125549 0.200388 0 -0.23381 -0.972282
-0.0310088 0.111263 0.217393 -0.974418 -0.207148 0.0871754
0.0243032 -0.1147 0.506093 -0.642989 -0.703377 0.303027
-0.0045266 -0.435576 0.303183 0 -0.760907 0.648861
-0.0132394 -0.141478 0.0910481 -0.274629 0.828187 -0.488553
-0.0790737 -0.298388 0.183742 0.0202774 -0.344454 -0.938584
-0.00289706 -0.440892 0.174949 -0.992912 0.118602 0.0076948
-0.0159857 0.119381 0.267048 0 -0.458829 -0.888525
-0.0543814 0.0592579 0.206973 -0.0201083 -0.994354 -0.104191
-0.0152492 -0.258189 0.361622 -0.650158 0.137988 0.747164
0.0111784 0.15945 0.137192 1 0 0
0.00194116 0.0767024 0.223213 0.342208 0.759439 0.553305
0.0147863 0.147757 0.266447 -0.968443 0.218454 -0.119981
0.00268657 -0.302411 0.030965 0 0.00928024 0.999957
0.00218465 -0.398211 0.330322 0 -0.566418 0.824118
-0.0119452 -0.228435 0.35378 -0.274642 0.337341 0.900429
0.0293278 0.151519 0.265034 0 0.473375 0.880861
-0.00140401 0.194418 0.0808433 0 0.818716 0.574199
-0.00304676 -0.120028 0.511616 0 -0.566461 -0.824088
0.00101872 0.227113 0.0261276 0 -0.500044 -0.866
-0.0126574 0.00567866 0.401281 -0.866355 -0.230633 -0.442986
-0.0529335 0.0676605 0.241118 1 0 0
-0.079134 -0.227386 0.307803 -0.00549408 -0.477786 -0.878459
0.0204542 0.284045 0.173254 1 0 0
-0.00759037 0.329528 0.314989 0 -0.0877112 -0.996146
-0.012292 -0.118509 0.149172 -0.274066 0.945501 -0.17583
-0.0453325 0.0556131 0.162403 1 0 0
0.0146254 -0.269834 0.221256 0 -0.62258 -0.782556
-0.0213114 -0.156576 0.434036 -0.00599457 -0.477503 -0.878609
-0.0111348 0.315479 0.0043088 0 0.173622 -0.984812
-0.00576154 -0.432534 0.258439 0 0.861264 -0.508158
-0.0123103 0.395194 0.317421 -0.650128 0.435455 0.622666
0.00401452 0.0714674 0.243413 0 0.7667 -0.642006
-0.0155296 0.0645258 0.231106 1 0 0
-0.0363798 0.298887 0.166048 1 0 0
0.0148643 0.374496 0.0245759 0.941689 0.14243 -0.304853
-0.00187962 0.204637 0.264442 0 -0.674298 -0.73846
-0.0844893 0.0699795 0.230713 0.503004 -0.852038 0.144978
-0.0111329 0.165826 0.194066 -0.418781 0.908087 0
-0.0703272 -0.122022 0.561837 0.580786 -0.204923 0.787842
0.0478961 -0.152943 0.443933 0.634208 -0.598 0.490078
