-0.0379959 0.0716386 0.16354 0.999794 -0.020127 0.00245162
0.00699137 0.420457 0.266903 0.399151 -0.774034 -0.491477
0.00550269 -0.3048 0.16803 -0.0683718 -0.713541 0.69727
0.00864407 -0.270119 0.251729 -0.980396 -0.185785 0.0656329
0.0459115 0.0875353 0.083781 -0.0132752 -0.539861 0.84165
-0.146079 -0.148911 0.536105 0.0438125 -0.158209 -0.986433
-0.0110375 0.365822 0.322755 0.996717 -0.0475402 -0.0655374
-0.0234814 -0.260803 0.313176 0.172424 0.332025 0.927378
-0.144317 -0.16314 0.549919 -0.228377 0.0850773 0.969848
-0.0371034 -0.26178 0.241249 -0.968051 0.238043 -0.0788234
-0.0120557 0.306749 0.172226 -0.999793 0.0201789 -0.00252695
-0.0175435 -0.207264 0.365698 0.406485 -0.332775 0.8509
-0.0102962 -0.290067 0.323819 -0.975462 0.196571 0.0991666
-0.0527908 0.177144 0.472949 0.85119 0.266769 -0.452006
-0.00625724 0.402611 0.318385 0.777765 -0.388639 -0.494005
-0.0112011 0.0582176 0.195535 -0.00568239 -0.248487 -0.968618
0.111357 -0.206372 0.553085 0.0130573 -0.155527 -0.987745
-0.0395179 0.29654 0.181383 -0.772916 -0.206883 0.599833
-0.00455101 0.236932 0.307079 -0.135097 0.398845 -0.907013
-0.0865582 0.0515563 0.273842 -0.703144 0.11198 -0.702175
0.0187047 -0.165778 0.218708 -0.990475 0.111324 -0.0810368
-0.0135167 0.0279606 0.222254 -0.852384 -0.480397 -0.206543
-0.0604769 -0.297923 0.169729 -0.184506 -0.854466 0.48564
-0.0161963 -0.00867395 0.296788 -0.978775 -0.161164 -0.126591
-0.0129302 0.135499 0.174267 0.924695 0.37995 0.0240204
0.00476142 0.297323 0.32449 0.627315 0.0630658 -0.776208
0.00343368 0.159501 0.272124 -0.772656 0.542261 -0.330086
-0.0102745 -0.0382259 0.326043 -0.228825 -0.732484 -0.641175
-0.0191915 -0.137563 0.432523 -0.841927 -0.0335274 -0.538549
-0.00900202 0.206418 0.0689769 -0.816399 0.376635 0.437765
-0.00661145 0.142766 0.112779 0.385138 0.846676 0.367162
0.0276333 0.0878464 0.0846324 0.999794 -0.0201229 0.00264259
0.0064094 -0.165679 0.153124 0.497108 0.862991 -0.0901675
0.0224898 0.304517 0.185727 -0.0029142 -0.247338 -0.968925
0.00471615 0.180048 0.0944692 -0.579128 -0.678947 -0.451266
-0.0080255 -0.20335 0.307169 0.309806 -0.619456 -0.721314
-0.0354624 0.0516476 0.135385 0.999792 -0.0202245 0.00253949
-0.0132989 0.144543 0.21355 0.987789 -0.152837 0.0302404
-0.0103415 0.213539 0.310062 0.769298 -0.359173 0.52837
0.0239724 -0.152553 0.133835 -0.974616 -0.222138 0.027906
-0.0445709 -0.363381 0.319836 0.850605 -0.316002 0.420254
-0.000138141 0.16953 0.231625 0.212184 0.9086 -0.359755
-0.0221248 -0.298091 0.138891 -0.975474 -0.216461 -0.0399389
-0.0351539 -0.418327 0.267116 0.747513 0.483027 -0.455971
-0.0069363 0.358793 0.327673 0.782526 0.216005 0.583948
0.00413953 0.170102 0.463362 0.999797 -0.0199974 0.00266818
-0.0370741 0.0609809 0.13772 -0.00868212 -0.296909 0.954866
0.000263332 0.448433 0.16712 -0.155228 -0.985828 0.0636168
0.00852822 0.351055 0.134964 0.926154 0.210479 0.312948
0.0137427 0.188994 0.333077 0.839805 -0.441142 0.316419
0.0126475 0.0996647 0.468084 -0.968485 0.193256 -0.157129
-0.00243848 0.170579 0.46059 -0.0173636 -0.78373 0.620859
-0.00946629 0.26017 0.0242849 0.917909 -0.133208 -0.373762
-0.0156957 -0.220951 0.348476 0.740266 -0.29761 -0.602856
-0.142927 0.0318045 0.270261 0.00899414 0.329589 -0.944082
0.000486301 -0.255171 0.0378295 0.222998 0.359304 -0.906186
0.0338943 0.25263 0.271115 0.98961 -0.143441 -0.00983965
-0.00718901 0.439933 0.0861196 0.993033 0.0954243 -0.069134
0.00116802 -0.16262 0.222481 0.699343 0.652996 0.290716
-0.00620908 0.462654 0.148494 0.923962 0.37409 -0.0796886
-0.0103675 -0.0237632 0.338384 -0.203217 0.741106 0.639894
-0.0179245 -0.257062 0.175473 -0.259051 0.408217 -0.875358
-0.0158492 0.0778948 0.176866 -0.0345585 -0.962476 -0.269158
-0.0272154 0.0784675 0.175809 -0.0366256 -0.967944 0.24848
0.0100054 -0.256707 0.0353083 -0.561962 0.405231 -0.721101
-0.051566 -0.476019 0.17514 0.527754 0.84937 -0.00683906
-0.0430642 -0.417436 0.264695 -0.0698612 -0.742692 0.665979
0.00390969 0.0684774 0.159793 -0.0288805 -0.714112 0.699435
-0.0134204 0.174346 0.337024 -0.847625 -0.274528 -0.454056
-0.0225329 0.151372 0.479086 -0.00271593 -0.0106132 0.99994
-0.011646 -0.340271 0.177279 -0.853497 0.339672 -0.395179
-0.0124955 -0.0469835 0.3361 -0.227929 -0.690846 -0.686134
-0.0415495 -0.474226 0.200454 -0.431671 0.8804 -0.19636
0.0104819 0.27158 0.142655 -0.393455 -0.439527 0.807471
-0.00647668 0.35924 0.0397812 -0.999792 0.0202374 -0.00259045
-0.0273762 -0.38149 0.0190818 0.59982 0.260548 0.756525
-0.0307733 0.209556 0.312936 0.921501 -0.21489 -0.323508
0.0983705 -0.205659 0.557149 -0.504316 0.713763 -0.486011
0.00253313 -0.16583 0.133289 0.79468 0.582221 -0.171763
0.00589541 -0.194741 0.0836655 0.396168 0.722324 -0.566833
-0.0131625 0.151921 0.114338 0.988157 -0.144629 -0.0512661
0.00832064 0.390713 0.298608 0.944286 -0.220961 -0.243928
-0.0249677 -0.283957 0.314419 -0.29977 -0.150551 -0.942057
0.0152322 0.190794 0.324158 0.464701 -0.704783 -0.536035
-0.0102286 0.195636 0.0750992 0.534775 -0.622761 -0.571126
0.00209255 0.161188 0.080269 -0.57399 0.690024 0.44091
-0.00647442 0.142992 0.112114 0.385138 0.846676 0.367162
-0.00452876 0.471283 0.214118 0.767303 -0.625431 -0.141713
-0.00219503 -0.173709 0.247687 0.686943 0.595264 0.416857
0.105729 -0.20063 0.562342 -0.349376 0.434273 0.830267
0.00978693 -0.250982 0.306585 0.627514 -0.737056 0.250947
-0.00593565 -0.192152 0.258944 -0.647371 -0.59125 -0.480971
-0.0301252 0.192373 0.209215 -0.999795 0.0201012 -0.00254821
-0.00637934 -0.197336 0.453399 -0.177812 0.928539 -0.32588
-0.144038 0.0299174 0.269592 0.00899414 0.329589 -0.944082
-0.00283816 0.425662 0.258574 -0.339079 -0.789283 -0.511915
0.0161656 -0.183323 0.0873607 -0.196721 0.840231 -0.505285
-0.00903244 0.0605958 0.40978 -0.215211 0.318591 0.923138
-0.00152992 0.31347 0.00469022 0.130546 -0.0548862 0.989922
-0.00280427 0.28269 0.324643 0.111445 -0.14557 0.983051
-0.039322 -0.441751 0.0978046 0.235715 -0.875971 -0.420848
-0.000410354 -0.173598 0.232593 0.314191 0.856473 0.409558
-0.028971 -0.330882 0.323232 -0.215402 -0.109335 0.970385
0.00752295 0.321431 0.327451 -0.568532 0.110819 0.815163
-0.000881263 -0.190078 0.252405 -0.155388 -0.824863 -0.543558
0.00362598 0.411421 0.0816641 0.0411873 -0.771648 0.634715
0.0390343 0.306166 0.186993 0.79338 0.545447 0.270252
-0.0134809 -0.162592 0.422639 -0.222572 0.219907 0.949791
0.00709828 0.279144 0.346841 -0.775932 0.103424 -0.622281
0.00582063 -0.228123 0.320949 -0.624366 0.708615 -0.328681
0.00277728 0.0707621 0.20459 -0.693087 0.681032 -0.236276
0.0124022 0.204818 0.479748 -0.00275229 -0.0105968 0.99994
-0.0391761 -0.423087 0.257421 0.357972 0.710384 -0.605979
-0.151078 -0.0987051 0.529042 0.0381828 -0.12116 -0.991898
-0.00471632 0.394999 0.0494846 0.60014 0.42919 -0.675002
-0.00248627 0.465234 0.117079 0.578632 -0.757596 0.302049
-0.0427979 -0.45421 0.157113 -0.0663074 -0.99325 -0.0951727
-0.0296441 0.208753 0.207656 -4.82465e-05 0.108342 0.994114
-0.0239207 -0.23223 0.320084 0.964776 -0.26264 0.0151064
0.00957351 0.390385 0.044874 -0.76991 0.358789 -0.52774
-0.0046514 -0.176877 0.470757 -0.826344 -0.531242 0.186913
-0.00824267 0.143321 0.374305 -0.212731 0.467638 0.857939
-0.0192471 0.108931 0.476492 0.450629 0.0790007 -0.889209
-0.0175493 -0.305062 0.170454 -0.119079 -0.961928 0.245997
-0.00772337 0.280783 0.28096 -0.930379 -0.358931 -0.0745807
-0.00274758 -0.295835 0.179468 0.986967 -0.143938 0.0719528
0.00141044 0.404458 0.0599093 0.137208 0.612001 -0.778864
0.009307 0.29891 0.14792 0.930156 0.355364 0.0923416
0.0398201 0.296795 0.177573 -0.999793 0.0201644 -0.00252059
-0.0413503 -0.439109 0.0906608 0.487743 -0.773034 -0.405617
0.00597248 0.445001 0.245748 -0.361327 0.859141 0.362381
-0.0266485 -0.300812 0.169359 -0.982136 0.178869 -0.058438
-0.00743063 0.152966 0.220497 0.341641 -0.899511 0.272326
-0.0124638 -0.170724 0.487644 0.0884661 -0.989696 -0.112585
-0.00628769 -0.234151 0.0357888 0.908881 -0.29674 0.293054
-0.0211452 -0.424174 0.0606199 -0.936817 -0.122298 -0.327744
0.0715388 0.105012 0.0946672 0.00497813 0.117641 -0.993044
0.0503106 0.0988801 0.0938344 0.00497813 0.117641 -0.993044
0.0187821 0.235094 0.174216 -0.808676 0.0783618 -0.583011
0.0161002 0.19391 0.322158 -0.281863 -0.342698 -0.896165
0.000482454 -0.0800952 0.381088 0.977977 0.0997322 0.183344
-0.155556 -0.139706 0.542727 -0.93739 -0.0729615 0.340554
0.00492334 -0.210635 0.28308 -0.707738 0.560401 0.430183
-0.0109143 0.155653 0.169719 -0.999792 0.0202387 -0.00249885
-0.00185605 -0.310561 0.153793 -0.0899736 -0.176759 0.980133
0.0212714 -0.193389 0.080873 -0.855693 0.444442 -0.265067
-0.0034617 0.255719 0.32694 0.112706 -0.313596 0.942844
0.00812453 0.076182 0.173006 0.855391 -0.410641 -0.315722
0.000726649 -0.181242 0.238115 -0.281556 -0.868341 -0.408303
0.032214 0.266812 0.243999 0.88405 0.380382 0.271597
-0.028013 -0.215006 0.519468 -0.00646894 0.277013 0.960845
0.0105669 0.435992 0.284631 -0.922589 -0.295409 -0.24812
-0.0328664 0.0405156 0.180111 0.0366161 0.967939 -0.248504
-0.00759266 0.42073 0.0620461 0.993029 0.0703523 -0.0945715
0.0436035 0.2019 0.457782 -0.676683 -0.23058 0.699237
-0.00315011 -0.196216 0.431291 -0.997222 -0.0691418 0.0277223
-0.00705341 -0.324033 0.18747 0.174508 0.756383 -0.630422
-0.0544796 0.0522093 0.159645 0.999712 -0.0227989 -0.00745154
0.040346 0.297439 0.176232 0.899735 -0.422216 -0.110507
0.00913756 0.428182 0.0949972 -0.175316 0.850048 -0.496672
-0.0809973 -0.200349 0.524681 0.532622 0.450838 0.716281
0.000729503 -0.188204 0.0842627 0.874039 0.356934 -0.329626
-0.00132979 0.199348 0.0790836 0.0716548 0.743368 0.665034
0.00778609 0.149403 0.190654 -0.944582 -0.325882 0.0395702
-0.0559584 -0.207181 0.517866 0.212627 0.509991 0.833486
-0.0322127 0.27822 0.174242 0.770935 0.216842 -0.598864
-0.104779 0.0346708 0.266971 -0.0156037 -0.841294 -0.540353
0.010141 -0.250635 0.0143807 -0.673094 -0.205332 0.710481
-0.0193749 -0.0534983 0.430612 -0.975873 0.0571674 0.210721
0.0106026 0.380434 0.324667 -0.989645 0.0811374 0.118401
0.0223595 0.273335 0.175785 -0.879311 0.370479 -0.29926
-0.0498938 -0.477042 0.1683 0.523423 0.848449 0.0784981
-0.149771 -0.125001 0.544093 -0.0400319 0.133459 0.990246
-0.0235725 -0.34831 0.326124 -0.938144 0.077184 0.337533
0.047188 -0.235894 0.533592 -0.0367922 -0.995138 0.0913633
0.0012385 0.148674 0.433673 -0.693105 0.681015 -0.23627
-0.00878993 0.27557 0.335183 0.78346 -0.102646 0.612906
-0.0189777 -0.105869 0.390274 -0.999803 0.019472 -0.00380563
0.0308109 0.241983 0.295928 0.973405 0.103456 0.204401
-0.00745261 -0.300795 0.0270178 0.180991 0.0283701 -0.983075
-0.0474986 -0.465493 0.235046 0.0613601 0.925881 -0.3728
0.0367668 0.295999 0.180552 0.0206712 0.96833 -0.248816
-0.00886699 -0.354292 0.0307191 0.931471 -0.0495881 0.36042
0.00535406 0.315771 0.296662 -0.364133 0.931288 -0.0105103
-0.027076 -0.360523 0.308455 0.703275 0.199305 -0.682408
-0.0271084 -0.447534 0.091218 -0.990722 0.0559466 -0.123854
-0.00214135 -0.338037 0.0164793 -0.883722 0.253122 0.393656
-0.0132377 0.145567 0.233843 0.926263 0.359494 -0.113137
-0.0170879 -0.003449 0.423841 -0.842901 0.146958 0.517611
0.00486026 0.154414 0.436436 -0.960597 0.263617 -0.0880878
0.00106705 -0.234181 0.0477483 0.349745 0.482282 -0.803171
0.0135924 -0.233347 0.330759 0.879426 0.475866 0.0127181
-0.0079533 0.313483 0.251116 -0.91612 0.392216 -0.0830106
-0.00665635 -0.0653519 0.418849 0.000227512 -0.173212 -0.984885
-0.142255 -0.121086 0.541953 -0.911486 -0.0582952 -0.407179
0.000231172 -0.293549 0.0237085 -0.111353 0.119277 -0.986597
-0.0471915 -0.40151 0.282345 0.413463 -0.653312 0.634218
-0.0300169 -0.40792 0.0329395 0.422456 0.486082 0.76502
-0.0120502 0.0658737 0.174895 -0.0305369 -0.998397 -0.0476525
0.00410334 0.0686922 0.188151 -0.960611 0.263571 -0.0880703
0.0124904 0.0610636 0.169356 -0.0194222 -0.539688 0.841641
-0.0133946 0.218801 0.312778 0.930412 0.188822 -0.314135
-0.0171236 -0.0321736 0.329842 -0.978736 -0.144673 -0.145414
0.0159903 -0.157751 0.164969 -0.192922 0.98006 -0.0475791
0.00332499 0.329122 0.0356914 0.212277 -0.0993549 0.972146
-0.000707428 -0.228376 0.0461676 0.285057 0.495026 -0.820787
-0.0147093 0.173171 0.346429 -0.999803 0.0195337 -0.00355521
0.0396416 0.160181 0.471591 -0.781206 0.430672 -0.451928
-0.034571 -0.465134 0.181087 -0.798627 0.598262 -0.0654018
0.00986949 0.446863 0.221327 -0.561884 0.788596 0.249805
-0.0144408 0.167639 0.474392 0.00122453 -0.0760633 -0.997102
0.0942921 0.082625 0.0879969 -0.999222 0.00656389 0.0388816
0.00807023 0.186148 0.0704656 -0.889295 0.343241 0.302226
0.0384051 0.294779 0.198794 0.985403 -0.168077 0.0270287
-0.0436892 -0.351324 0.314671 0.793529 -0.305512 0.526284
-0.00167458 0.181815 0.27584 -0.140196 -0.789465 0.59757
-0.011318 -0.173528 0.470759 0.0712111 -0.94279 0.325694
-0.0256687 -0.292132 0.228202 0.553196 0.706629 -0.441191
-0.0128837 0.158478 0.437424 0.97081 0.224731 -0.0838054
-0.0117279 -0.237955 0.328642 -0.154174 -0.420612 -0.894045
0.0133966 0.44249 0.254038 -0.966855 -0.219534 -0.13037
-0.00231712 0.00153688 0.405118 0.214783 -0.241054 -0.946447
-0.0278943 0.266274 0.154828 0.00493789 0.129975 -0.991505
0.0247441 0.310501 0.178699 -0.020676 -0.968411 0.248502
0.006658 0.166889 0.089053 -0.992645 -0.0938311 -0.0764942
-0.0983656 0.0316724 0.263011 -0.00369757 -0.047053 0.998886
0.0368947 0.177143 0.479192 -0.145988 0.0625029 -0.98731
-0.028128 0.196845 0.146511 0.999792 -0.020212 0.00256423
0.00491093 -0.302854 0.0159161 -0.928855 0.144688 0.341019
0.0064496 0.238624 0.335457 -0.913979 0.174451 -0.366346
0.00433152 0.426937 0.262719 -0.117781 0.836151 0.535704
-0.0250777 0.110059 0.171017 -0.390232 -0.00398928 -0.920708
-0.0149784 -0.160423 0.431209 -0.215379 -0.0702625 -0.974
0.00695287 -0.318255 0.171457 0.0955181 0.958862 0.267319
-0.0417626 -0.342469 0.330535 0.986186 -0.146826 -0.0766712
0.0131816 0.306848 0.187607 -0.998908 0.0327616 0.0333025
0.0240274 0.0834527 0.081239 -0.00835905 -0.304167 0.952582
-0.0262769 -0.383677 0.304697 -0.991211 0.10469 0.0808801
-0.0282352 0.14915 0.178755 -0.985158 -0.0408689 0.166715
-0.00593301 0.248923 0.316991 0.186502 -0.396626 0.898835
-0.0351615 0.0666867 0.13644 0.999793 -0.020178 0.00250915
-0.00695682 -0.280026 0.0200283 0.459817 0.132994 -0.877998
-0.00937387 -0.223049 0.509478 0.006236 -0.278495 -0.960417
-0.0317932 -0.391089 0.0276092 0.916462 0.0481152 0.397217
0.00180828 0.287357 0.0320576 -0.0868917 -0.117098 -0.989312
-0.0144686 0.18424 0.339524 -0.999803 0.0194974 -0.00359381
0.00740372 0.183562 0.272981 -0.873652 -0.383632 0.299263
-0.00183519 -0.223956 0.289597 0.558541 -0.603655 -0.568888
-0.0136766 0.0345959 0.24232 -0.83494 0.504687 0.219468
-0.0374657 -0.312587 0.327237 0.929172 -0.144692 -0.340152
0.0685889 0.0887326 0.0823637 -0.00875199 -0.309768 0.950772
-0.0518778 -0.295177 0.196786 0.118444 -0.852174 0.509677
0.00626343 -0.19821 0.293023 -0.929433 -0.102906 -0.354351
0.0161456 -0.224697 0.0399114 -0.842434 0.376402 -0.385522
-0.014045 0.151978 0.228827 0.907081 0.401895 -0.125237
0.0320349 0.0719277 0.108957 0.803707 0.169972 -0.570231
0.00617103 -0.207389 0.289893 -0.934373 -0.0920454 -0.344201
-0.00378529 -0.217873 0.0509766 0.974009 0.0455978 -0.221871
-0.0127508 0.165543 0.117006 0.761894 -0.598473 -0.247686
-0.0760702 0.0333209 0.263223 -0.999791 0.0202805 -0.00254305
-0.0336044 -0.398669 0.0327195 0.918804 0.0456016 0.39207
0.0043934 0.170475 0.0706906 -0.774934 0.503886 0.381545
-0.0032541 -0.177138 0.46874 -0.00463914 -0.331957 -0.943283
-0.0221768 -0.334285 0.317509 0.95426 -0.141893 -0.263163
-0.0162099 -0.13633 0.413504 -0.539854 0.308477 0.783199
0.00726912 0.358736 0.314916 0.608712 -0.299322 -0.734763
0.0125718 -0.169214 0.145998 -0.133168 -0.968025 0.212587
0.00583681 0.30536 0.0290247 -0.186668 -0.0536336 -0.980958
-0.0025059 0.000998481 0.305978 0.233047 0.798971 0.554378
-0.00751623 -0.18879 0.47296 -0.560051 0.783481 -0.26926
-0.00278124 0.165634 0.231782 -0.0748154 -0.927871 0.36532
0.00488658 0.327078 0.350097 -0.591956 -0.0843901 -0.80154
-0.0186615 -0.0380316 0.429417 -0.975753 0.0619046 0.209938
0.0445684 0.299536 0.180886 0.0162668 0.714281 -0.69967
-0.0142796 0.152587 0.229007 0.929022 0.353339 -0.109863
-0.0260625 -0.34189 0.313851 -0.418488 -0.147028 0.896242
-0.0884732 0.0128063 0.256964 -0.710425 -0.0837245 0.698775
0.00763009 0.35621 0.0798904 -0.397112 -0.866804 -0.301584
-0.00141838 0.438245 0.116966 0.24026 0.864226 -0.442028
0.00351747 0.229114 0.04972 -0.191783 -0.493659 -0.848245
-0.000906821 -0.165722 0.448945 0.845368 0.023866 0.53365
-0.0498714 -0.419886 0.263364 0.401579 -0.748471 0.527755
-0.0502735 -0.453625 0.170406 -0.982172 0.178717 -0.0582911
0.00151215 0.106952 0.312612 -0.693105 0.681015 -0.23627
0.00278611 -0.221319 0.026581 0.4578 -0.534819 0.710203
-0.0186558 0.0577078 0.195385 0.0133986 0.268963 -0.963057
0.00496961 0.466405 0.241038 -0.138561 -0.909718 -0.391427
-0.0254592 -0.314614 0.169979 0.095521 0.958839 0.267403
-0.0178132 0.00889674 0.410509 -0.976448 -0.0385917 -0.212275
0.00477515 0.258332 0.320562 -0.459214 -0.265247 0.847801
-0.085352 -0.202012 0.527857 0.492306 0.174502 0.85275
-0.0285144 0.258056 0.179033 0.981102 0.10601 0.161869
-0.033668 -0.456631 0.166802 -0.782781 -0.616674 -0.0834638
-0.0369673 0.100761 0.218363 -0.999794 0.0201052 -0.00273199
0.0173903 -0.194663 0.082238 0.875523 -0.410246 0.255261
-0.0102837 -0.270089 0.314114 -0.551856 0.340673 0.761181
-0.00371017 0.41514 0.227512 -0.926742 -0.117886 0.356724
-0.000946441 -0.287631 0.187823 0.893598 -0.103086 0.436872
0.110173 -0.197424 0.562534 -0.348926 0.434057 0.830569
-0.00273392 -0.237028 0.357818 0.141425 -0.868993 0.474183
-0.0592885 -0.303063 0.167743 -0.0450904 -0.269088 0.96206
-0.0349373 0.0791033 0.147031 0.999793 -0.0201873 0.00249337
0.127776 -0.164013 0.546655 0.534502 -0.13035 0.835055
0.0124444 -0.172644 0.106928 0.0585716 0.890595 -0.451011
-0.0101292 -0.168399 0.431224 0.00117207 -0.0764423 -0.997073
-0.00751917 0.074787 0.40499 -0.213532 0.346508 0.91342
-0.0304171 -0.338768 0.313355 -0.0977769 -0.219653 0.970666
0.0878192 0.0822958 0.0875863 0.0193001 0.888446 -0.458575
0.00457193 -0.158027 0.116695 0.998663 -0.0511726 0.00725906
-0.0268589 -0.277109 0.317128 -0.982167 0.178793 -0.0581521
-0.0136418 0.168695 0.354741 -0.841259 0.288024 0.457522
-0.145639 -0.101081 0.528077 -0.632382 0.0793106 0.770586
-0.000417665 -0.210619 0.278871 -0.257786 0.683572 0.682844
0.00389802 -0.15124 0.163684 0.971115 0.234813 0.0424001
-0.00607063 0.148957 0.34635 -0.222882 -0.459389 -0.859817
-0.0133091 0.0867989 0.217551 0.693103 -0.681017 0.236271
0.0109046 0.333542 0.334269 -0.923062 -0.0613674 -0.379725
-0.0068757 0.209162 0.0871466 -0.917176 0.270106 -0.292968
0.00608428 0.234655 0.12142 0.927347 0.117183 -0.355382
-0.00631132 0.466265 0.135343 0.907448 -0.403121 0.118456
-0.105822 -0.198213 0.538461 0.398262 -0.264584 0.878284
-0.144451 -0.0883232 0.527701 -0.81234 0.0718635 0.578739
0.0057595 0.227918 0.150383 -0.392266 -0.445951 0.804522
0.0357344 0.27159 0.236557 -0.446071 -0.766641 -0.461825
0.0152158 0.179175 0.182085 -0.333989 0.0118834 0.942502
-0.00549009 0.155257 0.368405 0.0061918 0.475435 0.879729
-0.00033566 0.177043 0.355426 0.219628 0.492484 0.842154
-0.0118907 -0.00962926 0.320581 -0.523763 0.679371 0.513933
0.0911584 0.103666 0.0946062 0.00498034 0.11763 -0.993045
-0.118975 0.0480617 0.22775 0.00262967 0.321284 -0.946979
0.0466437 0.202434 0.466421 -0.948298 -0.317324 -0.00597902
-0.00697447 -0.241264 0.31112 -0.551777 0.470658 0.688494
0.00455693 0.0277845 0.406272 0.975356 -0.0833961 -0.204269
-0.00198061 0.292813 0.034528 -0.162251 0.0610902 0.984857
0.0237157 -0.311779 0.179933 0.847585 -0.483606 0.218461
-0.0300045 -0.308683 0.316559 -0.275585 -0.00689639 -0.961252
-0.0124509 0.174672 0.077906 0.988567 -0.126881 -0.0814707
-0.0277402 0.0553288 0.169114 0.0111143 0.458487 0.888632
-0.109973 0.0458607 0.266662 -0.0123845 -0.508541 0.860949
-0.0504312 -0.436034 0.242222 -0.0259016 -0.863953 0.502907
0.0148954 -0.163174 0.0856058 -0.0718117 -0.84768 0.525624
-0.00672695 0.0523058 0.206917 0.017916 0.93663 0.349861
-0.0436834 -0.427033 0.0807611 0.879225 -0.446058 -0.167319
-0.0549268 0.0532055 0.180193 0.0288489 0.888203 -0.458544
-0.0383915 0.0542749 0.181339 0.999792 -0.0202232 0.00255306
0.00024193 0.18804 0.34828 0.223294 0.525298 0.821098
-0.137294 -0.153271 0.542586 0.937223 0.346793 -0.0367105
0.00182386 0.08387 0.205305 -0.720939 -0.652599 0.233155
-0.0301864 0.271835 0.175924 0.979889 0.11122 -0.16567
-0.149679 0.0443402 0.265193 -0.0123845 -0.508541 0.860949
-0.00421394 0.109048 0.391178 0.00564272 0.411412 0.911432
0.0306889 0.0968936 0.0935007 0.00497813 0.117641 -0.993044
-0.0380773 -0.226349 0.516486 0.273642 0.907609 -0.31838
-0.0281042 -0.222983 0.312154 -0.111701 0.912852 -0.392714
-0.00707447 -0.203775 0.43543 -0.17781 0.92854 -0.32588
0.000389838 -0.164684 0.22857 0.691998 0.628918 0.354401
-0.00143258 -0.305126 0.165131 -0.975995 0.197897 -0.0909433
0.0108824 0.197193 0.330643 -0.835153 0.424109 -0.350217
0.00731314 0.13984 0.479044 -0.00270004 -0.0106067 0.99994
-0.0154873 0.0557762 0.392646 -0.843868 -0.157026 -0.513059
-0.063051 0.0673898 0.175812 -0.0305352 -0.998395 -0.0476909
-0.00354479 -0.206504 0.391445 -0.826344 -0.531242 0.186913
0.00376196 0.0474553 0.396006 0.841926 -0.189395 -0.505263
0.0239176 0.236937 0.300133 -0.990496 0.136345 0.0181106
-0.000794109 0.156158 0.184438 -0.225439 -0.973826 0.028998
-0.00478937 -0.317876 0.184157 -0.986801 0.159853 -0.0258949
0.0015646 0.102686 0.257168 -0.720939 -0.652599 0.233155
-0.00747272 0.149622 0.205911 0.336122 -0.921894 0.1927
-0.00983814 0.196047 0.278251 -0.814034 0.454413 -0.361742
-0.00382338 0.376756 0.0479672 0.191818 0.525944 -0.828606
-0.0138911 -0.200203 0.390125 0.17795 -0.928511 0.325884
-0.127892 0.0432508 0.226971 -0.178349 0.320762 -0.930217
-0.0376351 0.093989 0.19966 0.999793 -0.0201969 0.00247597
0.0187575 -0.182718 0.0862229 -0.419266 0.78166 -0.461763
-0.0117406 0.0539579 0.198015 -0.514522 0.805464 0.2941
0.00293445 0.219039 0.0557152 -0.191783 -0.493659 -0.848245
0.00969157 0.460109 0.155023 -0.575896 0.811511 -0.0989638
-0.0383261 0.0609382 0.208936 0.999793 -0.0201886 0.00248836
-0.010059 0.112388 0.281774 0.693052 -0.681063 0.236287
0.0141642 0.205757 0.479763 -0.00275229 -0.0105968 0.99994
-0.0140834 0.0566112 0.156716 0.00566432 0.248488 0.968618
-0.00590142 0.0233142 0.39844 -0.00333161 -0.294347 -0.955693
-0.000332087 0.0202643 0.272981 0.54308 0.730637 0.413804
0.00366442 0.145299 0.165545 -0.795805 -0.604531 -0.0351614
-0.0401495 -0.449825 0.150354 0.249698 0.962429 0.106679
0.0344287 0.0810113 0.11567 -0.676231 -0.215822 0.704367
-0.0379811 0.070447 0.147887 0.999793 -0.0202042 0.00251108
-0.0225698 -0.217413 0.384046 0.615604 0.742428 -0.26426
-0.0960561 0.0394012 0.273312 0.00530118 0.138456 -0.990354
-0.00516322 0.411846 0.29423 0.602849 0.5243 0.6014
-0.00661564 -0.259548 0.327242 -0.972141 0.136686 -0.190419
-0.0991713 0.0505934 0.235369 -0.523725 -0.260207 0.811175
0.00126537 0.150356 0.212111 -0.37953 -0.905388 0.190339
-0.0112519 -0.335402 0.0206454 -0.113201 -0.182247 -0.976715
0.00184531 -0.19411 0.43783 -0.934681 0.336731 -0.113944
0.0356063 0.295194 0.178198 0.920235 -0.389126 0.0418134
-0.0234793 -0.43603 0.069555 -0.958866 0.282638 0.0263206
-0.0397803 0.235911 0.292309 -0.998872 -0.0185005 0.0437236
-0.0274883 -0.293808 0.186079 -0.0969531 -0.750562 -0.653648
0.0078943 -0.181211 0.239275 -0.203762 0.880162 0.428713
-0.0291979 -0.24239 0.312947 0.108361 -0.95403 0.279437
-0.0262496 0.293705 0.190132 0.0205154 0.978885 -0.20338
-0.0130328 -0.0417821 0.356262 -0.52994 0.57005 0.62786
-0.012944 0.135503 0.181656 0.924797 0.380311 -0.0106572
-0.00165492 0.217264 0.0630984 -0.0270603 0.633313 0.773423
-0.00609732 0.326159 0.031444 0.460899 0.11767 -0.879617
-0.0193552 -0.0763313 0.427517 -0.975979 -0.0132216 -0.217461
-0.0116869 -0.188499 0.47278 -0.00455006 -0.331925 -0.943295
-0.00528615 0.104567 0.254618 0.239869 -0.916126 0.321211
-0.000584416 0.0616751 0.169447 -0.0194222 -0.539688 0.841641
-0.0370609 0.0931629 0.145882 0.946369 -0.249803 0.204902
-0.0292024 -0.454023 0.0893218 -0.845101 0.516351 0.138513
-0.0377756 0.0853844 0.186258 0.999793 -0.0201874 0.0025161
-0.0066462 0.0732551 0.405573 0.00329999 0.350577 0.936528
-0.0140048 -0.245257 0.331724 -0.138378 -0.346555 -0.927767
3.25493e-05 -0.13037 0.403331 0.999799 -0.0196693 0.00385457
0.00678678 0.172437 0.351932 0.84607 0.257628 0.466684
-0.00246386 0.171706 0.0644363 -0.109537 0.72675 0.678112
-0.0151082 0.0623143 0.405357 -0.841302 0.190041 0.506059
-0.00311077 0.407472 0.257361 -0.369819 0.495378 -0.786025
-0.0143762 -0.375041 0.0314401 -0.599247 -0.260894 -0.75686
-0.0212699 -0.283722 0.341983 -0.097359 -0.0985503 -0.990358
0.143574 -0.145523 0.542456 -0.139191 0.209795 0.967787
0.0882432 -0.21224 0.557841 -0.505405 0.822515 0.260835
-0.0187801 -0.420227 0.0618944 -0.869397 0.446028 0.21262
-0.0168347 0.049458 0.406473 -0.975239 0.0892772 0.202333
-0.00311346 0.165775 0.431433 -0.278025 -0.905685 0.320057
-0.0145244 0.10264 0.278381 0.970806 0.224748 -0.0838148
-0.00179289 0.159436 0.276727 -0.103659 0.845402 -0.523975
-0.0126131 0.182448 0.28666 0.910523 -0.314308 0.268622
0.00351572 0.109411 0.282024 -0.720811 -0.652724 0.233202
0.0122921 -0.182633 0.160799 0.434853 -0.044466 -0.899403
-0.0399025 0.219789 0.462606 0.458573 -0.818726 0.345542
0.00116467 0.0564812 0.189299 0.551519 0.788697 0.27163
-0.013053 -0.189368 0.420539 0.177762 -0.928547 0.325884
-0.0154879 0.0393466 0.219635 -0.972688 0.2181 0.0794425
0.105052 -0.19991 0.555666 -0.685697 0.551219 -0.475371
-0.0122944 0.293487 0.182883 -0.999785 -0.0129574 0.0161738
-0.00481518 0.41855 0.287301 0.61061 0.572469 0.547207
0.0276635 0.140403 0.46693 -0.82614 0.542338 -0.15285
-0.0099917 0.36212 0.319485 0.862945 0.172425 0.474968
0.00871151 -0.173524 0.123881 0.30181 0.884148 -0.356642
0.026992 0.246271 0.277042 -0.924792 -0.233295 -0.300556
-0.0407213 -0.41629 0.156003 -0.32185 0.0538121 -0.94526
-0.0289292 -0.402009 0.291934 -0.971907 -0.0513851 0.229687
0.00064673 -0.205626 0.286054 -0.278238 0.683137 0.67521
-0.0546946 -0.467074 0.163782 0.996925 -0.0418696 0.066236
-0.0390621 -0.307198 0.164989 0.0268956 0.242663 0.969738
-0.00333573 -0.203968 0.405247 -0.997297 -0.0681948 0.0273525
-0.0301441 -0.298314 0.319917 0.11214 0.0369284 0.993006
0.143889 -0.158201 0.549948 0.707118 -0.348112 -0.615469
-0.000385404 -0.234592 0.310549 -0.887789 -0.0457078 -0.457976
0.0125655 -0.253393 0.0347071 -0.786159 0.346713 -0.51161
-0.0151611 -0.279476 0.0938979 0.489649 0.700992 0.518512
-0.0175414 -0.365343 0.0383959 0.0946562 0.351143 0.931525
0.00985276 0.387192 0.0422962 -0.76991 0.358789 -0.52774
0.00481858 0.458751 0.19506 -0.114792 0.9836 0.139115
-0.0186702 -0.392998 0.0477795 -0.229797 -0.458309 -0.858572
0.00995643 -0.166761 0.164445 -0.207933 -0.976758 0.0520408
0.00502855 -0.156367 0.134154 0.876877 0.47382 -0.0811261
0.048493 0.193144 0.462983 -0.925523 -0.0654297 0.372996
0.0198149 -0.144449 0.190775 -0.868587 -0.476282 -0.136791
-0.000369373 -0.215554 0.390785 -0.584114 0.766534 -0.266903
0.0649226 0.0688732 0.121596 -0.0861995 0.30959 -0.946955
0.00831384 -0.168228 0.146324 -0.320083 -0.926088 0.19977
0.0727971 0.0684829 0.0776729 -0.0049805 -0.117641 0.993044
0.0310415 0.200671 0.479755 -0.00275229 -0.0105968 0.99994
0.00861035 0.177465 0.0839455 -0.958015 0.233869 0.165869
-0.0150431 0.0880262 0.394953 -0.842028 0.220414 0.492349
0.0115984 -0.318338 0.17382 0.0945341 0.96477 -0.245523
0.00787761 0.267559 0.0221525 -0.916542 -0.0646423 -0.39468
0.00202088 0.386407 0.0468005 -0.108921 0.543395 -0.832381
-0.0209595 -0.240682 0.326081 0.758973 -0.372992 -0.533701
-0.0205081 -0.302616 0.115629 -0.20611 0.960363 -0.187675
-0.0231845 -0.193519 0.503567 0.949625 -0.0855329 0.301491
-0.0037783 0.390301 0.099013 -0.368067 0.722044 0.585815
-0.0361696 0.0809639 0.133665 -0.00437159 -0.129917 0.991515
-0.0134587 0.299521 0.197686 0.00925774 0.351239 -0.93624
-0.0236443 -0.38231 0.046718 0.0812545 -0.541291 -0.8369
-0.0100774 0.153113 0.399211 0.693052 -0.681063 0.236287
0.0182653 -0.170113 0.110834 -0.4229 0.843123 -0.332114
-0.0154294 -0.312175 0.014676 0.793955 -0.162101 -0.585969
-0.037694 -0.313279 0.322965 0.896757 -0.184184 0.402371
-0.152242 -0.0661519 0.542102 -0.106472 0.0963735 -0.989634
-0.0265992 -0.214033 0.50253 -0.00384608 -0.192994 0.981192
0.00399089 -0.163799 0.149569 -0.917769 -0.391066 0.069052
-0.023927 -0.320438 0.319622 -0.206152 -0.0626188 0.976514
-0.138368 0.0344616 0.26352 -0.0132839 -0.540331 0.841348
-0.00481618 0.208078 0.0703755 -0.141211 0.628909 0.764547
-0.0119076 0.31391 0.181738 -0.998332 0.0575551 0.00455904
-0.00674444 0.392063 0.148822 0.384443 0.115765 0.915861
0.00975761 0.371112 0.332791 -0.920425 -0.129275 -0.368924
0.0107095 0.198955 0.479681 -0.00275229 -0.0105968 0.99994
-0.00505906 0.220207 0.0603534 -0.141211 0.628909 0.764547
-0.00860156 -0.197979 0.509156 -0.949696 0.0853038 -0.30133
-0.00364647 0.359115 0.0412241 0.355089 0.362601 -0.861645
-0.0118935 0.168398 0.473774 -0.999796 0.0200253 -0.00267122
0.00957562 0.452457 0.186963 -0.548644 0.834912 0.0437251
-0.0198096 -0.0689621 0.430834 -0.999793 0.0199657 -0.00381673
-0.0279614 -0.298597 0.166635 0.982118 -0.17899 0.0583743
-0.0030623 0.227216 0.051561 0.0881322 -0.505932 -0.858059
-0.0176236 -0.197659 0.409716 0.899322 -0.414289 0.139943
-0.0375117 0.096784 0.172928 0.999793 -0.0201973 0.0024954
0.00601887 0.456233 0.0951465 -0.395553 -0.818698 0.416259
-0.000457693 0.173588 0.455848 -0.277987 -0.905695 0.320062
0.109707 -0.201613 0.55271 -0.136277 -0.0217922 -0.990431
0.00564056 -0.168287 0.229795 0.259569 0.878717 0.4006
-0.00200073 0.176475 0.11009 0.0773877 0.911342 0.40431
-0.0121222 -0.380812 0.0303825 -0.911078 -0.0173763 -0.411869
-0.00991452 0.292337 0.249278 -0.917115 0.349383 0.191915
0.00279674 0.0478509 0.394249 0.842495 -0.189302 -0.504348
0.00747776 0.305458 0.00741593 -0.784535 -0.0173489 0.619841
-0.00180888 0.386101 0.301295 0.233249 0.509497 0.828256
-0.0441223 -0.428732 0.249031 -0.056112 -0.849605 0.524426
-0.0387547 -0.441831 0.109133 -0.0456969 -0.917147 -0.395921
-0.00958393 0.278493 0.326622 0.663063 -0.119182 0.739015
-0.0457942 -0.453645 0.190417 -0.0763296 -0.995304 0.0595264
-0.00725305 -0.170184 0.405 0.219087 -0.219881 -0.950607
-0.0157232 -0.224791 0.363098 -0.316597 0.196931 0.927892
0.00239194 0.423757 0.0795356 -0.106192 0.742795 -0.661043
0.00590007 0.39461 0.297343 -0.193829 0.624921 0.756243
-0.0413597 -0.425384 0.253677 0.231353 0.746367 -0.624029
-0.0135516 -0.23514 0.183658 0.85131 -0.35489 0.386425
-0.0387856 0.150523 0.454776 0.767077 0.488253 0.416175
-0.0558112 -0.444794 0.257535 0.973564 0.167278 -0.155538
-0.0267365 0.272438 0.200638 0.999792 -0.0202075 0.00259555
0.00881091 0.421458 0.270117 -0.553687 0.659795 0.508036
-0.0376604 0.0899062 0.176763 0.999793 -0.0202045 0.00254022
-0.156803 -0.068443 0.51999 0.333458 0.364181 0.869585
-0.00921973 0.163289 0.129932 0.435135 -0.857533 -0.274398
-0.0191839 -0.194332 0.433218 0.997228 0.0690617 -0.0276939
-0.00339346 -0.308471 0.154028 -0.0916371 -0.176714 0.979987
-0.00837373 -0.239218 0.297973 0.172777 -0.530768 -0.829719
0.00837842 0.421358 0.269879 -0.439768 0.710216 0.549725
-0.0274137 0.232848 0.15179 0.999793 -0.0201825 0.00253141
-0.0306016 -0.320421 0.180354 -0.988095 0.149941 -0.0344501
-0.0297285 0.264674 0.17483 0.938105 0.110048 -0.328403
-0.00687367 0.14216 0.417979 0.277888 0.905722 -0.320071
0.00676267 -0.162717 0.0917347 0.643079 -0.692325 0.327315
-0.0556297 -0.446383 0.246451 0.946655 -0.299071 0.120005
0.0172533 0.0700563 0.129234 0.999795 -0.0200889 0.00237508
0.0210753 -0.143717 0.155927 -0.726714 -0.684486 0.0580132
0.00330749 0.255248 0.0296742 -0.374089 -0.262777 -0.889385
-0.0584461 -0.30824 0.168527 -0.982145 0.178843 -0.0583646
0.0088929 0.162139 0.473322 0.0111565 0.432445 -0.901591
-0.0131311 0.0621802 0.407476 -0.535759 0.282159 0.795832
-0.00160445 0.259923 0.347628 -0.110344 0.22751 -0.967504
-0.0218122 -0.332632 0.0152927 0.859875 -0.103496 0.499903
0.00181612 0.313998 0.00472716 -0.118993 -0.0499885 0.991636
-0.0233536 -0.196871 0.434719 0.947906 0.299013 -0.109839
0.00357169 0.395245 0.296288 -0.122349 0.632078 0.765185
-0.0101739 0.331129 0.0281177 0.863248 0.0540023 -0.501884
0.00449472 -0.151975 0.135371 0.99858 -0.0438203 0.0303067
-0.015132 0.0897356 0.394036 -0.842028 0.220414 0.492349
-0.00210888 -0.193779 0.259808 0.206495 0.754543 0.622917
0.00474748 0.47694 0.197591 -0.135057 -0.981025 -0.139099
-0.00775831 0.0528194 0.205202 -0.20651 0.917323 0.340399
0.0249374 -0.308715 0.178866 0.968845 -0.241253 0.0560002
-0.0301006 -0.242404 0.313251 0.107963 -0.954101 0.279349
0.0138273 0.180137 0.176871 -0.997637 0.0489622 -0.0482035
-0.0149671 0.149158 0.173686 0.984755 -0.173853 -0.00570739
-0.0122478 -0.194589 0.286928 0.985342 -0.0788208 0.15129
-0.0369821 -0.388367 0.29168 -0.24869 -0.511842 0.822296
0.0167944 -0.215815 0.0597374 -0.66277 0.518395 -0.540373
-0.00907416 0.299893 0.0173038 0.91744 -0.0308628 -0.396676
0.00775479 0.438852 0.117542 -0.31307 0.88206 -0.352075
0.00304775 0.439933 0.118318 -0.0307664 0.930162 -0.365858
-0.00521848 0.428894 0.0990617 -0.999791 0.0202777 -0.00254109
0.0134411 -0.167439 0.135627 0.051901 0.975083 -0.215683
-0.0338402 -0.45229 0.225006 -0.965953 0.244418 -0.0848202
-0.00197753 0.383028 0.0523707 0.183167 0.526948 -0.829925
0.011027 0.317421 0.19297 -0.930226 -0.362981 -0.0540758
0.00229414 -0.0129706 0.314871 0.978639 0.153775 0.136454
-0.0475513 -0.378579 0.317132 0.991508 -0.113607 -0.0632836
-0.00497737 0.0371184 0.191645 -0.0181791 -0.936899 -0.349127
-0.037441 -0.463906 0.191678 -0.875576 -0.482232 0.0286221
-0.00928157 -0.182272 0.445485 -0.436586 -0.849773 0.295429
0.0200788 0.0915916 0.0813763 -0.00826008 -0.30426 0.952553
-0.0217181 -0.350855 0.317041 -0.90481 0.00398356 0.425796
0.00192018 0.313066 0.00469264 -0.118993 -0.0499885 0.991636
0.00957616 0.447635 0.136137 0.900995 0.422977 -0.0964295
0.00436302 0.0888743 0.245718 -0.960611 0.263571 -0.0880703
-0.0353456 0.0657792 0.202611 0.999793 -0.0201944 0.00248957
0.00171034 -0.188065 0.450059 -0.947902 -0.299028 0.109839
-0.0411182 -0.450478 0.134437 -0.0766817 -0.964781 -0.251629
0.00374513 0.202707 0.31821 -0.577391 0.510101 -0.637509
0.0196012 -0.141968 0.171102 -0.72375 -0.689996 -0.00956555
0.00605513 -0.142484 0.163583 0.647858 -0.759148 0.0630472
-0.00161123 0.415341 0.312214 0.357472 -0.626571 -0.692548
-0.00094837 0.315412 0.0345542 -0.0311646 -0.0969705 0.994799
0.0315336 0.282436 0.233643 -0.953696 0.296048 0.0531007
-0.0234732 -0.416953 0.0603658 -0.650126 -0.419988 -0.633203
-0.0406794 -0.336367 0.332781 0.986186 -0.146826 -0.0766712
-0.115748 0.025942 0.268474 0.00902415 0.329485 -0.944117
-0.0107414 0.190883 0.0650597 0.77103 -0.473553 -0.425746
0.014353 -0.160437 0.245741 -0.848417 -0.403279 -0.342862
0.00579557 0.137903 0.197962 -0.987817 0.154482 -0.0187958
-0.0141878 0.300755 0.164338 0.998906 -0.032653 -0.0334646
-0.0368773 -0.435789 0.278491 -0.829696 0.457053 -0.320479
-0.0167525 -0.174239 0.465664 0.177762 -0.928547 0.325884
-0.0093271 0.113965 0.478723 -0.00268802 -0.010609 0.99994
-0.00250534 0.145582 0.252312 -0.100896 0.888517 -0.447612
-0.024782 -0.398972 0.025764 0.154663 0.500308 0.851922
0.00432129 0.046022 0.408476 0.976634 0.0443434 0.210283
-0.0378037 -0.455948 0.1603 -0.350864 -0.929876 -0.110566
0.0110113 0.416517 0.279008 -0.762873 0.481163 0.431865
0.00708132 0.432943 0.293666 -0.603816 -0.575488 -0.551562
0.0141285 0.458193 0.178779 -0.984719 0.173995 -0.00733652
-0.0822918 0.0561159 0.182416 0.99979 -0.0203241 0.00252806
8.33944e-05 0.0429472 0.226291 0.555739 0.767178 0.320301
-0.0323233 -0.400668 0.0310722 0.791982 0.190221 0.580155
-0.00319901 0.108182 0.391563 0.00464645 0.411268 0.911503
-0.0447959 -0.444646 0.123904 0.283705 -0.923538 -0.258048
-0.00635043 0.129787 0.327341 0.239869 -0.916126 0.321211
-0.0089868 0.289539 0.00980396 0.917289 0.0287194 0.397186
0.00796106 -0.183846 0.100864 0.384988 0.775681 -0.500103
-0.00139307 0.109202 0.324108 -0.239764 0.91615 -0.321219
-0.0039798 -0.0244675 0.338891 0.229654 0.732397 0.640978
-0.0516571 -0.295679 0.17247 -0.305361 -0.910315 -0.279429
0.00128592 0.134705 0.345928 -0.720939 -0.652599 0.233155
-0.00194701 -0.239386 0.0391923 0.267159 0.35973 -0.893991
0.027842 0.281048 0.182239 0.377632 -0.131433 0.91658
-0.0460407 -0.423381 0.256905 0.0500566 -0.803503 0.593193
0.157517 -0.123568 0.537421 -0.268087 0.487573 0.830904
-0.0175316 -0.185514 0.474244 0.8264 0.531094 -0.187086
-0.158226 -0.0659567 0.540664 0.389645 0.128264 -0.91199
0.0145862 0.10875 0.467406 -0.949048 0.273459 -0.156616
-0.056163 -0.451301 0.238436 0.947576 -0.296463 0.119205
-0.0614341 0.0520403 0.177235 0.0305372 0.998401 0.0475657
-0.0753869 0.0586717 0.196718 -0.999791 0.0202805 -0.00254305
-0.0359944 0.0323799 0.192389 0.999793 -0.0202158 0.00249754
-0.0378237 0.0846463 0.199645 0.999793 -0.0201972 0.00250153
-0.0367246 0.212999 0.320364 -0.971757 0.125926 0.199579
-0.0226083 -0.357985 0.315308 -0.95571 0.0581329 0.288511
0.0018406 0.132538 0.356507 0.534482 -0.410785 -0.738637
-0.0299821 0.199236 0.207307 -0.999792 0.02024 -0.00256336
0.00242516 0.150317 0.257475 -0.57627 0.731316 -0.364814
-0.0274622 0.11956 0.173891 -0.948498 -0.007527 -0.316694
-0.0264167 0.0654467 0.17943 -0.0240483 -0.841336 -0.539977
0.00329004 0.145146 0.17615 -0.602674 -0.796732 -0.0447355
-0.0151491 -0.355052 0.025508 -0.113518 -0.267747 -0.956779
0.00804828 -0.28812 0.0218485 -0.956553 0.197978 -0.214036
-0.0141734 0.298391 0.188648 0.998711 -0.0335593 0.0380896
-0.0204335 -0.266785 0.338575 0.137957 -0.2251 -0.964519
-0.0351485 -0.432288 0.273722 -0.997372 0.0678873 0.0253139
-0.0492272 -0.475327 0.149706 0.517043 0.841745 0.155344
0.0119152 0.471906 0.189266 -0.925297 -0.378488 -0.0239383
0.0115093 0.0465956 0.162753 -0.999794 0.0201617 -0.00246195
0.0072905 0.444347 0.140181 0.399322 -0.894554 0.200784
-0.000137733 -0.0586046 0.367635 0.850253 0.309776 0.425569
-0.0175662 -0.0415263 0.344484 -0.999808 0.0192651 -0.00345043
-0.0239399 -0.266737 0.337107 0.592268 -0.273418 -0.757932
-0.00686356 0.149727 0.384596 0.239869 -0.916126 0.321211
0.00563729 -0.191065 0.256362 -0.205985 0.83956 0.502701
-0.0123209 0.145371 0.150275 0.9079 -0.415594 -0.0547623
-0.0115334 -0.194462 0.41021 0.0732895 -0.942623 0.325715
-0.0308448 -0.324576 0.147905 0.206263 -0.958898 0.194862
0.00465143 0.260996 0.0110872 -0.585613 0.179715 0.790418
0.00294319 -0.205964 0.0691949 0.485453 0.570025 -0.662878
0.00465032 0.157164 0.243402 -0.793048 -0.56442 0.229139
-0.025422 -0.225818 0.516645 -0.18603 -0.879342 0.438349
-0.0517483 -0.431528 0.247125 0.508715 -0.744788 0.431856
-0.00693582 -0.187544 0.475378 -0.560051 0.783481 -0.26926
-0.00505147 -0.067176 0.378161 0.222502 0.590308 0.775906
-0.0183577 -0.310893 0.16534 0.0268856 0.242409 0.969802
0.000685938 0.0938986 0.229856 -0.720939 -0.652599 0.233155
-0.11846 -0.180155 0.542796 0.657281 0.642164 0.394472
-0.00616957 0.221908 0.477711 0.0170505 -0.440464 -0.897608
0.00204137 -0.190898 0.0586571 0.949528 -0.276522 0.148095
-0.0103532 -0.364892 0.0117257 -0.575685 0.340883 0.743227
0.0815973 -0.221025 0.546534 0.35843 0.264532 -0.895293
-0.00668159 -0.200301 0.391284 -0.216405 -0.920617 0.325012
0.0275465 0.0835324 0.0846362 0.999794 -0.0201229 0.00264263
-0.0259947 -0.258795 0.330001 0.9017 -0.28032 -0.329178
-0.044842 -0.412417 0.305893 0.274979 0.577219 -0.768898
0.0087044 -0.232523 0.127666 -0.944206 -0.121609 -0.306082
-0.00387151 -0.191373 0.410883 0.546061 -0.143854 -0.825302
0.123988 -0.174089 0.562095 0.439741 -0.119317 -0.890163
-0.0134286 0.189565 0.330882 0.738553 0.437545 -0.512926
-0.0371166 0.0826971 0.132204 -0.999794 0.0201668 -0.00236059
-0.076087 0.0311468 0.252458 -0.99979 0.0203304 -0.00252083
-0.00757169 -0.264898 0.0296934 -0.982144 0.178798 -0.05851
0.028215 0.238943 0.282647 -0.29608 -0.76276 -0.57492
0.0085923 0.440355 0.126227 0.607518 -0.739965 0.288746
-0.0431746 -0.457181 0.201145 -0.302902 -0.93274 0.195567
0.0135516 0.450029 0.134196 -0.854759 0.497549 -0.147759
-0.0113559 0.0952054 0.236052 0.693103 -0.681017 0.236271
-0.00967457 -0.264219 0.311175 0.596875 -0.398283 -0.696499
0.00774007 0.347753 0.331701 -0.77541 0.199255 0.599198
0.00807185 -0.214896 0.159468 0.32394 -0.0537194 0.944551
-0.0253826 0.117705 0.456533 0.89474 0.209818 0.394228
0.0274545 -0.320273 0.172753 0.184526 0.854445 -0.485669
0.02852 0.26221 0.268424 -0.956176 0.276898 0.0951561
0.0487677 0.0635972 0.0796757 0.0182498 0.948288 0.316887
-0.0977727 0.0151261 0.263348 0.0123536 0.508543 -0.860948
-0.00557332 -0.202569 0.385596 -0.216405 -0.920617 0.325012
0.0823051 0.0777362 0.118445 -0.527818 0.271594 -0.804764
-0.00378059 0.161622 0.221008 0.0628769 -0.974435 0.215691
-5.42314e-05 0.0964377 0.286702 -0.239764 0.91615 -0.321219
-0.105114 0.0238999 0.267863 0.00902415 0.329485 -0.944117
0.00710311 0.147127 0.146483 -0.890784 0.443983 0.0968637
0.0243933 0.0811135 0.116984 -0.999796 0.0200439 -0.00238407
-0.0387508 -0.451341 0.19568 -0.502233 -0.847721 0.170678
-0.00647159 0.0473265 0.219713 0.0177528 0.925154 0.379176
-0.00748561 0.404491 0.0511806 0.922667 0.22772 -0.311176
-0.0543725 0.0606609 0.19176 0.999768 -0.0177651 0.0121619
-0.0121751 0.123642 0.382217 -0.536539 0.382395 0.752263
-0.00946408 -0.0171543 0.33102 -0.204313 0.740823 0.639873
-0.126963 0.0505086 0.269163 -0.0123512 -0.508416 0.861023
-0.0531027 -0.464914 0.143759 0.950256 -0.309084 0.0384742
-0.033644 -0.390859 0.284687 0.252364 -0.866805 -0.430071
0.00901865 0.391312 0.14522 0.389484 0.46868 0.792869
-0.0128879 0.186584 0.29467 0.988907 -0.110346 0.0994312
0.144884 -0.153833 0.545888 -0.576491 0.355539 0.735697
-0.0102389 -0.283249 0.0234261 0.235746 0.0563114 -0.970182
-0.014268 0.140972 0.370211 -0.841476 0.270977 0.467429
-0.0144245 -0.305051 0.165819 -0.0683741 -0.713661 0.697147
0.00531942 0.274085 0.0329819 -0.469313 -0.173644 -0.86579
-0.134752 0.052933 0.232832 0.0277247 0.945766 0.323664
-0.0317241 -0.217157 0.525116 0.175957 0.158527 -0.97155
-0.0540649 0.0743239 0.183538 0.999541 -0.0204151 0.02239
0.021125 0.199378 0.327941 0.830449 -0.367055 0.419075
-0.0117284 -0.276879 0.285506 0.549458 0.829143 -0.103045
-0.00204078 -0.326216 0.0251272 -0.629091 0.025428 -0.776916
-0.0424676 -0.453506 0.149633 -0.0908391 -0.990953 -0.0987994
-0.0451357 -0.428386 0.1845 0.941279 -0.0992962 -0.322699
-0.00735975 0.270285 0.324076 0.1561 -0.251504 0.955185
-0.0385748 0.0190251 0.201036 -0.999791 0.0202772 -0.00258469
0.0351517 0.264178 0.251875 0.957381 -0.268179 -0.107242
-0.00230487 0.160112 0.166542 0.0743411 0.992902 0.0928405
-0.0234349 -0.390642 0.185244 0.371132 0.214337 0.903505
0.00756369 -0.191009 0.275007 -0.705264 0.622188 0.33983
0.0390546 0.202442 0.478451 -0.428057 -0.136084 -0.893448
0.0245314 0.0849583 0.0913356 -0.999795 0.0200855 -0.00236558
0.0122877 -0.258499 0.0248994 -0.931311 0.0287912 0.363084
0.011448 0.424115 0.292689 -0.992242 -0.0797058 -0.0954127
0.0151328 -0.188672 0.0952337 0.230709 -0.846169 0.480386
-0.00186327 -0.151825 0.403726 0.840481 -0.172095 -0.513784
-0.0252533 -0.214813 0.525492 0.114503 -0.18093 -0.976808
0.00825013 0.411151 0.278929 0.6203 -0.591612 -0.514998
-0.0525067 0.305665 0.177979 0.999792 -0.0202282 0.00247386
-0.0399928 -0.457768 0.208719 -0.727913 -0.673581 0.128186
-0.00969324 0.0968647 0.395713 -0.212845 0.376446 0.901657
0.00369866 0.448178 0.192031 0.0339502 -0.995128 -0.0925608
0.00525159 0.185508 0.338818 -0.993079 0.110285 0.0403842
-0.0171859 0.0769618 0.170697 -0.377685 -0.162741 -0.91152
0.00902811 0.187586 0.0751078 -0.989779 -0.0927958 -0.108293
-0.0232442 -0.421814 0.0767415 -0.635092 -0.545458 -0.54693
-0.012063 0.152744 0.431556 0.970831 0.22465 -0.0837801
-0.00898265 0.420961 0.0723678 0.959362 -0.217464 0.179815
0.00883371 0.328247 0.0305747 -0.659171 0.119642 -0.742414
-0.0151717 -0.239087 0.264312 -0.972966 -0.132015 0.189496
-0.0151297 -0.0665567 0.375791 -0.529913 0.525071 0.665953
-0.0356912 0.042578 0.153551 0.999793 -0.0201883 0.0024935
-0.0204656 -0.219578 0.339523 0.941846 -0.105006 -0.319219
-0.0275642 -0.389989 0.0410496 0.307297 -0.551898 -0.775228
0.00567813 0.0718744 0.462343 -0.888055 0.45973 0.00264874
-0.00647634 0.470778 0.163311 0.910937 -0.409528 0.0497982
0.00903059 -0.257668 0.291389 0.149957 -0.925699 0.347267
-0.00860734 0.281486 0.28 0.366529 -0.862288 -0.34945
0.0220033 0.221381 0.47475 -0.265069 -0.845393 -0.463734
-0.0381184 -0.450378 0.257057 -0.824326 0.49988 -0.265719
-0.000219644 -0.156585 0.17184 0.9984 -0.019066 0.053227
-0.0284776 0.179376 0.145061 0.999792 -0.0202251 0.00259767
0.0114474 0.313423 0.176716 0.99984 0.0175326 -0.00362194
-0.0124258 0.170505 0.466667 0.960658 -0.263418 0.0880199
-0.0368936 0.0387727 0.220036 0.948252 -0.147548 0.281156
0.0106429 0.460044 0.14822 -0.774179 0.620026 -0.127338
-0.0523634 -0.21951 0.516922 -0.122488 -0.593402 0.795532
-0.0134517 -0.0800831 0.386796 -0.531034 0.475534 0.701334
0.00342746 0.067149 0.387851 0.84221 -0.204686 -0.498784
-0.0151715 0.035206 0.213648 -0.979502 -0.182285 -0.0857164
-0.0137562 0.142148 0.393221 0.970806 0.224748 -0.0838148
0.000257316 0.168707 0.334942 0.214723 -0.534015 -0.817754
-0.025807 0.202871 0.178562 0.984926 0.0622109 0.161404
-0.00879408 0.158742 0.183706 -0.54792 0.834757 -0.0544499
0.00468753 -0.163947 0.175795 0.487984 0.869821 0.0726882
-0.0865092 0.0314388 0.252741 0.997034 -0.00210001 -0.0769364
-0.0042626 -0.225309 0.320086 -0.612318 -0.31826 -0.723724
-0.0144725 -0.190431 0.423591 0.559715 -0.783819 0.268972
0.00410148 0.0685198 0.187655 -0.960611 0.263571 -0.0880703
0.010609 -0.181802 0.272899 -0.987242 0.0696444 -0.143191
-0.0826557 0.0443148 0.231435 0.99979 -0.0203241 0.00252806
-0.00596873 0.365521 0.324163 0.598666 0.285943 0.748221
0.043512 0.099894 0.0866969 -0.0121776 -0.490408 0.871408
3.28351e-05 0.180259 0.0556635 -0.355868 0.687494 0.633016
0.00519428 0.307556 0.351117 -0.5848 -0.014081 -0.811055
0.0264339 0.212783 0.308548 0.442347 -0.595181 -0.670887
-0.0057894 0.400856 0.052394 0.786932 0.371768 -0.492471
0.013234 -0.226178 0.0427061 -0.464858 0.536055 -0.704664
-0.000975202 0.162554 0.0762809 -0.108352 0.782837 0.61272
-0.00434017 -0.0066611 0.283762 0.202965 -0.835791 -0.510156
0.00462984 0.182699 0.299327 -0.769501 0.444417 -0.458653
-0.0349182 -0.45279 0.118999 -0.500492 -0.806691 -0.314257
0.0464459 0.303011 0.183019 -0.150683 0.248522 0.956834
-0.0100876 0.0920529 0.223245 0.693052 -0.681063 0.236287
-0.00733776 0.435947 0.0797176 0.992904 0.0886911 -0.0792229
-0.0089514 0.25215 0.316503 -0.814238 0.245074 -0.526266
-0.00432073 0.448523 0.138697 0.186836 0.958927 -0.213429
-0.0371997 -0.452212 0.20684 0.775384 -0.613377 0.15016
-0.0234974 0.158516 0.175871 0.997395 0.0496046 -0.0523787
0.0036638 -0.146003 0.21492 0.662048 -0.742765 -0.0999631
-0.0013614 -0.162623 0.449526 0.845368 0.023866 0.53365
-0.0520908 -0.463251 0.132455 0.994936 -0.0446532 0.090043
-0.00340359 -0.277833 0.221056 0.526825 0.539526 -0.656785
0.00269218 -0.228987 0.358462 0.721429 -0.0849432 0.687258
-0.0268734 -0.288412 0.174051 0.9882 -0.141346 0.0590041
0.00306807 -0.168402 0.231745 0.490545 0.779678 0.389189
0.0162211 -0.187243 0.0815914 -0.4231 0.74289 -0.518749
0.0707345 0.0645042 0.0816477 0.0121721 0.490472 -0.871372
-0.036444 -0.425518 0.0876805 -0.190377 0.846677 0.496885
-0.0883354 0.0364028 0.242541 0.93941 0.0859892 -0.331835
0.00035454 0.151078 0.479144 -0.00270061 -0.0106384 0.99994
-0.00590638 0.451547 0.240363 0.791751 0.559377 0.245414
-0.0386181 0.0107179 0.184042 -0.0204137 -0.979163 0.202047
0.00922797 0.300652 0.144587 0.915737 -0.360595 -0.177194
0.00458517 0.16124 0.106939 -0.791288 -0.534127 -0.297609
-0.00651508 0.168935 0.126463 -0.309944 0.871022 0.381123
0.0232912 -0.160834 0.156674 -0.940146 0.332133 -0.076246
-0.153038 -0.107786 0.5303 -0.165486 -0.132966 -0.977208
-0.150758 0.049802 0.268403 -0.0123845 -0.508541 0.860949
