0.0401558 0.147392 0.177187 0 0.0763209 0.997083
-0.000723065 0.300538 0.252601 0.999621 -0.0045136 -0.0271536
-0.00127396 0.393574 0.220427 0.0212984 -0.391947 0.919741
0.00321042 -0.343336 0.339308 0.552536 -0.149999 0.819881
0.00298962 0.0313294 0.203566 0.390706 0.464472 0.794742
0.0404015 0.191169 0.195834 0.662477 -0.17152 -0.729181
0.0363587 0.124816 0.167571 -0.989906 0.0225559 0.139916
-0.00651313 0.0951762 0.276789 -0.290266 -0.924339 0.247675
-0.0231923 -0.245013 0.310049 -0.565998 0.799872 -0.199626
-0.00724735 -0.252096 0.304652 -0.934162 -0.159291 -0.319324
-0.00847322 0.352374 0.326829 -0.995307 -0.0274537 -0.0927947
-0.0614101 0.0807688 0.117173 0 0.0880288 0.996118
-0.0100901 0.468529 0.170069 -0.895528 -0.443551 0.0359589
-0.000799431 -0.242693 0.253021 0.0132052 -0.714162 0.699856
-0.00296304 -0.388895 0.125125 -0.999676 0.00158647 -0.0253887
-0.00432136 -0.378839 0.147094 -0.999636 0.00580397 0.0263332
0.00734183 -0.154402 0.454643 0.861846 -0.18442 -0.472452
-0.00348123 -0.315683 0.142605 0.999692 -0.00457104 -0.0244046
0.0040025 -0.371366 0.316073 0.655672 0.278308 -0.701882
-0.0123154 0.103197 0.252259 -0.822014 0.550065 -0.147384
0.039747 -0.274152 0.249686 0.252094 -0.869874 0.423991
0.000856583 -0.213344 0.353172 0.401379 -0.647659 -0.647637
-0.00184156 0.149996 0.507231 -0.000897311 -0.28995 -0.957041
0.000207368 -0.227542 0.0534629 -0.703488 0.392129 -0.59274
0.00743407 -0.467472 0.129162 0.997717 -0.0642654 -0.020748
-0.0383423 -0.294946 0.197436 0.996608 0.0614769 0.0547133
0.00818251 -0.0854725 0.27065 0.985897 0.0947074 0.137974
-0.0565814 0.041175 0.163581 1 0 0
-0.00522708 0.245354 0.215689 -0.999637 0.00161637 -0.0269126
-0.0420722 0.315395 0.198093 1 0 0
0.00800599 0.0341928 0.18822 0.985433 -0.085813 -0.146827
-0.010584 -0.156515 0.146708 -0.98015 0.196145 -0.0288728
0.0687677 -0.245456 0.547458 0.08877 -0.8998 -0.427177
-0.0077331 0.406442 0.0639928 -0.934151 -0.245762 0.258772
-0.00988181 -0.186547 0.0744721 -0.895611 0.34875 -0.276142
-0.00456511 0.232611 0.190037 -0.999649 0.00180994 -0.0264187
0.00796229 0.351314 0.338093 0.980164 -0.0542291 -0.190625
-0.00314654 0.227681 0.163708 0.999649 0.000887174 0.0264637
-0.000509672 0.333563 0.254622 0.999621 -0.00505107 -0.0270573
0.00218926 -0.190561 0.251207 0.960597 -0.231715 -0.1535
-0.0631045 0.018337 0.202 0 -0.0151841 0.999885
-0.00196822 -0.272428 0.219177 -0.999686 0.00359972 0.0247814
0.00318709 -0.206665 0.440393 0.461482 0.845748 -0.26785
0.0394899 0.0825808 0.182148 0 0.0763209 0.997083
0.00736509 0.108073 0.262341 0.573257 0.791459 -0.212058
-0.00264114 0.30411 0.355895 -0.0667737 0.0154241 0.997649
-0.00285914 -0.352694 0.172996 0.999663 -0.00317019 -0.025756
0.0204205 0.147314 0.188152 -0.210446 0.269569 -0.939705
0.00468593 0.122369 0.308456 0.573257 0.791459 -0.212058
-0.0552495 0.297493 0.189074 0 -0.941256 0.337693
0.0208842 -0.264606 0.296109 0.566162 -0.774557 0.281996
-0.0113418 -0.265096 0.310532 0 0.977653 -0.210226
-0.038149 -0.301539 0.184059 -0.70747 0.633136 -0.314046
-0.00107366 -0.318199 0.263361 -0.999692 0.00457497 0.0244048
-0.0309809 0.233344 0.269116 0.9714 -0.184058 -0.150016
-0.00305506 0.101962 0.305327 0 -0.965928 0.258812
0.0693137 0.130852 0.175334 0.0193069 0.0180574 -0.999651
0.00598631 -0.450954 0.103726 0.827722 0.490228 0.273045
-0.0032501 0.220509 0.503115 -7.45392e-05 0.170687 -0.985325
-0.0519308 0.0804945 0.148796 0 0.997524 -0.0703265
-0.0065795 -0.417219 0.27378 -0.89839 0.329011 -0.290941
-0.00817453 -0.461413 0.158703 -0.995301 0.0957761 0.0142729
-0.00849243 0.458275 0.127352 -0.747143 -0.626009 0.223358
-0.00749981 0.331979 0.019353 -0.655646 -0.135923 0.742734
-0.0072204 -0.33686 0.31706 -0.934032 0.052902 -0.35325
-0.00297936 -0.244444 0.175533 -0.999664 0.00317116 0.0257382
0.00649734 -0.212134 0.0585791 0.895554 -0.288173 0.339026
-0.00384489 -0.257439 0.189104 0.999663 -0.00180192 0.025887
0.0199514 0.184007 0.495667 0 -0.00912269 -0.999958
0.0102431 0.104913 0.192888 -0.90972 0.242648 0.336943
0.00693529 -0.230292 0.410769 0.886602 -0.44462 0.127477
-0.00458727 0.19716 0.196496 0.0252156 -0.189573 -0.981543
0.0197159 0.13902 0.199829 -0.794099 0.0263265 0.607218
-0.0312606 0.177462 0.515805 -0.608693 -0.186095 0.771273
-0.013618 0.150887 0.517347 -0.0240521 0.0923996 0.995431
-0.0102859 -0.473924 0.200445 -0.946084 -0.320472 0.0471483
1.29126e-05 -0.255669 0.332509 0.194311 0.32948 0.923952
-0.0103666 0.313088 0.013452 -0.895536 -0.0224028 0.444426
-0.00465531 0.450957 0.203184 -0.159643 -0.976389 -0.145529
0.00793112 -0.000405315 0.41507 0.984685 0.0458005 0.16822
0.0083576 -0.0670072 0.42855 0.984676 -0.0458134 -0.168267
-0.00116347 0.260557 0.270744 -0.0141509 -0.919975 -0.391721
0.00936933 0.160533 0.501337 -0.189862 -0.495018 -0.847885
0.00298611 0.193536 0.0666004 0.999435 0.0243774 0.0231235
-0.00262552 -0.10513 0.452477 0 0.317126 0.948383
-0.00162088 0.168721 0.35408 0.0358782 0.842578 0.537378
-0.003661 -0.307883 0.157514 -0.999627 0.00398716 0.0270358
-0.00196538 0.34841 0.19729 0.999637 -0.0058223 -0.0262942
0.00805937 0.420215 0.299101 0.997711 -0.0453482 -0.0501604
0.00272888 0.374437 0.039763 0.983301 -0.0868764 0.159909
0.00349296 -0.141462 0.463634 0.635387 0.280794 0.719332
-0.0081398 -0.438238 0.0658178 -0.747735 -0.505914 -0.43005
-0.00302038 -0.234996 0.143363 0.999663 -0.00582791 -0.0252825
0.00267322 -0.439638 0.0921768 1 0 0
0.00200504 0.386532 0.0495763 0.934138 -0.196927 0.297669
-0.0585952 0.303663 0.170779 0 -1 0
0.00571584 0.144452 0.204925 0.747571 0.657109 -0.096669
-0.00320541 -0.459834 0.258934 -0.193716 -0.841989 0.503517
-0.0440766 0.332998 0.187672 0 0.402988 0.915205
-0.00714961 0.438825 0.0897434 -0.552275 -0.685957 0.473767
-0.00323916 0.245021 0.166625 0.999649 0.000887174 0.0264637
-0.00719057 -0.215544 0.413476 -0.538039 0.803585 -0.254489
0.00682083 0.269122 0.337886 0.828063 0.136798 -0.54369
0.000212029 0.332061 0.0402533 0.999657 -0.000464783 0.026177
-0.00165996 0.362822 0.205708 0.999636 -0.00580429 -0.0263322
-0.00132811 0.0469696 0.410674 0 0.204321 0.978904
0.0928685 -0.227613 0.543947 -0.00454616 0.874169 -0.485601
-0.0115402 0.116511 0.383439 -0.984769 -0.0343159 -0.17045
-0.0071222 -0.279396 0.0358908 -0.934139 -0.0832336 0.347069
-0.00454086 0.276175 0.108798 0.999692 -0.00404748 -0.0244982
-0.0113851 0.10771 0.516341 -0.255952 -0.21993 0.941339
-0.0447754 0.292653 0.202075 -1 0 0
-0.0336711 0.2088 0.184914 0.996522 0.00340905 -0.0832653
0.00130358 0.0553543 0.167005 -3.73212e-05 -0.258787 -0.965934
-0.000131059 -0.170113 0.454884 0 -0.363646 -0.931537
0.0360417 0.220491 0.200119 0.38787 0.0706062 0.919006
-0.0568012 0.0672065 0.140394 0 -0.518081 -0.855331
-0.00967371 0.400027 0.0333471 -0.827787 0.304616 -0.471144
0.00384696 -0.186221 0.0934507 0.552374 -0.715407 0.427873
0.00776138 -0.186057 0.336144 0.877259 -0.286448 -0.385181
0.0023693 0.445564 0.285013 0.437129 0.721811 0.53657
-0.0651455 0.204063 0.107003 0.998997 -0.0437371 0.00954743
-0.0106447 -0.228842 0.413911 -0.8865 -0.441135 0.139704
0.00421492 -0.283866 0.338376 0.655726 0.158456 0.738183
0.00656867 0.332355 0.00666267 0.827767 0.100987 -0.551909
0.0115111 0.204671 0.515989 -0.00669652 -0.0411876 0.999129
-0.00319485 -0.254816 0.137228 -0.999676 -0.000703583 -0.0254358
-0.0079445 0.464062 0.201398 0.813821 0.574765 0.0856749
0.00666262 0.151647 0.0958418 0.827692 -0.49027 -0.27306
0.00302019 0.188582 0.285425 0.999434 0.0251917 -0.0222756
-0.0644353 0.00745649 0.209994 0 -0.861823 0.507209
0.00285409 0.197735 0.297288 0.437095 0.582587 -0.68523
-0.071577 0.0692898 0.172403 -0.0272537 0.987317 -0.156406
-0.00951541 -0.15607 0.32647 -0.785917 0.36899 0.496166
-0.0529783 0.0789773 0.17542 0 0.173917 0.98476
-0.106484 -0.0178371 0.174711 -0.044119 0.240907 0.969545
-0.0754172 0.0365929 0.165933 3.65229e-07 0.0349554 -0.999389
-0.0674817 0.311551 0.150735 0.972713 0.111836 -0.203281
0.00298987 0.43166 0.0794607 0.999198 0.0321833 -0.0238248
0.0996304 -0.259749 0.558545 0.146387 0.0558043 0.987652
0.00267322 -0.42819 0.2736 1 0 0
0.00210935 0.286812 0.0177476 -0.884407 -0.0529493 -0.463703
0.00685632 -0.205136 0.45865 0.843357 0.51655 -0.148073
-0.00195341 0.30092 0.207244 0.999621 -0.0045136 -0.0271536
-0.00486929 0.375666 0.108435 -0.999636 0.00355449 0.0267323
0.0022902 -0.288727 0.0315546 0.960573 -0.0411658 0.274962
-0.0647278 0.0923863 0.217601 -1 0 0
-0.0517582 0.0279405 0.180039 0 1 0
0.00256781 0.45078 0.225591 0.960577 -0.263628 -0.0882751
-0.0115324 -0.191123 0.348736 -0.945801 0.229627 0.229635
-0.00459326 -0.385326 0.18838 -0.999649 0.00180976 -0.0264207
0.00298213 0.395708 0.305198 0.995318 -0.0574653 -0.0777172
0.00265019 -0.169016 0.205103 0.999438 -0.0325941 -0.00784089
-0.00258279 -0.00553914 0.203588 -0.239437 -0.508379 -0.827176
-0.0597019 0.0519886 0.179468 -1 0 0
0.0256892 -0.236824 0.551732 -0.0524419 -0.514149 0.856096
-0.00245915 0.337413 0.180856 0.999649 -0.00592063 -0.0258046
0.00125391 0.379023 0.308797 0.89828 -0.229516 -0.374721
0.00655546 -0.0353112 0.41493 0.865031 -0.131808 -0.484096
-0.00301695 0.02831 0.183912 -0.237688 -0.490105 -0.838631
0.00168338 -0.180268 0.123294 0.934108 -0.332177 0.130767
-0.0796349 -0.0224142 0.173068 -0.0524956 0.0176042 -0.998466
-0.0111146 -0.134023 0.297306 -0.944751 -0.195604 -0.26303
0.00214254 -0.348322 0.0114481 0.436989 -0.188775 -0.879434
-0.0106183 -0.401134 0.0409376 -0.99771 -0.0384404 -0.0556544
-0.00197653 -0.229951 0.540338 0 0.682215 -0.731151
-0.00234508 -0.0354145 0.22197 0.0799866 -0.521933 -0.849228
0.0048529 0.390833 0.0252063 0.655574 0.367436 -0.659707
-0.0597019 0.043991 0.214205 -1 0 0
-0.00355816 -0.476229 0.130998 -0.194269 -0.951328 -0.239237
0.0146203 0.192087 0.340705 0.960886 -0.147003 0.234709
-0.00872629 0.140735 0.381105 0 0.984826 -0.173543
-0.00363084 0.318847 0.158204 -0.999686 -0.000329087 -0.0250447
-0.116696 -0.0306011 0.172473 -1 0 0
0.00483524 0.159635 0.277312 0.65611 -0.620981 0.428838
0.00596809 0.134341 0.509413 -0.247234 0.0207859 -0.968733
-0.00487136 -0.18688 0.482204 -0.336386 0.342468 0.877246
0.00732155 -0.169858 0.24557 0.980196 0.178936 0.0848391
0.00609296 0.143339 0.390521 0.573216 0.791486 -0.212069
-0.00237837 -0.303763 0.18421 0.999627 -0.0055022 -0.026767
-0.00764287 0.144246 0.1965 -0.655837 0.746855 -0.109939
0.00385739 0.160221 0.248691 0.552702 0.741803 -0.379801
-0.00777743 0.0909436 0.184417 0.939705 0.334834 0.0695676
-0.000896885 0.157247 0.372216 0.0377466 0.848828 0.527319
0.044249 0.0618169 0.165749 1 0 0
-0.0492293 0.314098 0.159039 -1 0 0
-0.00348319 -0.395706 0.0283224 -0.193552 -0.447173 -0.873255
0.00759142 0.447531 0.0834907 0.946086 0.26652 -0.184088
-0.0100792 0.146225 0.431064 -0.97836 -0.199859 0.0535546
-0.050112 0.307853 0.18013 1 0 0
-0.00239573 0.16908 0.240387 0 0.895088 -0.44589
-0.0071732 -0.290042 0.316649 -0.934058 -0.071114 -0.349969
-0.00194623 -0.341176 0.232205 -0.999686 0.00510086 0.0245213
0.027613 0.174117 0.499162 0.893065 -0.316919 -0.319369
-0.00518561 -0.313791 0.102299 -0.999621 0.00451455 0.0271539
0.00216704 -0.106236 0.29349 0.395996 0.519664 0.757058
-0.0890334 -0.267873 0.554381 -0.0835975 -0.606839 -0.790416
-0.0983263 -0.0174228 0.163387 0 0.275053 -0.961429
-0.00108206 -0.317449 0.234502 0.999621 -0.0045102 -0.0271539
0.00930367 0.0940823 0.222045 0.821795 0.543933 -0.169674
-0.00384736 0.0993061 0.379377 -0.34228 -0.185262 -0.921153
-0.00505791 0.261174 0.237035 0.999686 0.000324804 0.0250422
0.00396849 -0.199076 0.538015 0.862424 0.152844 0.48256
0.0787608 0.145772 0.170877 0 0.87465 -0.484755
-0.00831426 -0.220315 0.451322 -0.675352 -0.708943 0.203222
-0.00141755 -0.370034 0.0458539 0 0.366905 0.930258
-0.0110822 0.356685 0.0182502 -0.997714 -0.0207537 0.0643133
-0.0470799 0.297657 0.175479 -1 0 0
-0.00973669 0.452669 0.267887 -0.827628 0.471332 0.304758
-0.0629248 0.0626053 0.231029 0 -0.102351 -0.994748
-0.00347676 -0.280113 0.160778 -0.99965 0.00326197 0.026273
0.00267322 -0.337622 0.0255663 1 0 0
-0.00231481 0.144552 0.451096 0 -0.965936 0.258782
-0.00271229 0.0778902 0.218992 0 -0.954631 0.29779
-0.00471157 0.433474 0.103845 -0.159259 -0.841535 0.516194
0.00790912 -0.123989 0.451922 0.863638 0.159864 0.478094
-0.0470799 0.290353 0.190191 -1 0 0
0.00631962 -0.181268 0.0801845 0.895512 0.366203 -0.252891
-0.0425453 0.287864 0.183221 -1 0 0
-0.0138934 0.0628937 0.1732 -0.976626 0.184305 -0.110606
-0.00277122 -0.32613 0.195442 -0.999686 0.00510086 0.0245213
-0.0739115 -0.265004 0.551071 0.490971 -0.111702 -0.863985
-0.00225097 -0.372777 0.198798 0.999649 -0.00326386 -0.026278
0.00153778 0.177466 0.339852 0.0330718 0.858994 0.510916
0.00630428 0.131407 0.159633 0.828023 -0.556944 -0.0647398
-0.0636178 0.137279 0.11254 -0.999448 0.0270881 -0.0192485
0.00701823 -0.379311 0.323493 0.946015 -0.138853 0.292876
-0.00414967 -0.0840368 0.445182 -0.338587 0.298399 0.892366
-0.0029832 -0.322207 0.129296 -0.999692 0.000698863 -0.0248193
-0.000397505 -0.349801 0.0386802 0.430215 0.256036 0.865656
0.00470086 0.0740225 0.386725 0.642618 -0.156558 -0.750022
0.063331 -0.237616 0.560592 0.118847 -0.255863 0.95938
-0.00084385 0.122152 0.374907 0 -0.0306382 -0.999531
0.0056955 0.282524 0.35135 0.7474 -0.0767102 0.659931
0.134989 -0.262866 0.55404 -0.082923 -0.442091 -0.893129
0.0243188 -0.256556 0.286934 0.899833 0.421725 -0.111571
-0.00161624 0.311436 0.181317 0 0.981635 0.190768
-0.00203036 -0.189058 0.111617 0 -0.895143 0.445779
-0.115708 -0.259148 0.55512 0.00580665 0.601076 -0.799171
-0.00927869 0.376429 0.324125 -0.827865 -0.255648 -0.499284
-0.030953 -0.268761 0.26668 0.950387 -0.0858028 -0.299004
-0.0113624 0.0988091 0.23135 -0.821795 0.543929 -0.169686
-0.0154864 0.0795074 0.176102 -0.566726 0.019458 -0.823676
-0.00192285 0.445203 0.181186 -0.0253356 0.0755193 -0.996822
0.0318399 0.208873 0.505221 0.973838 0.22466 -0.0341665
-0.00913507 -0.340932 0.0133202 -0.827746 -0.0816734 -0.555127
0.0208895 0.0701187 0.172069 0 0.987686 -0.156452
0.00265303 0.441064 0.249519 0.983305 -0.159947 -0.0867626
0.0112522 -0.233607 0.348101 0.566255 0.824048 0.0173344
0.00753664 0.366268 0.0178973 0.946116 0.119374 -0.301022
0.023023 -0.248368 0.317333 0.96101 0.272306 0.0480601
0.00221599 -0.251656 0.0437417 0.9606 -0.110936 0.254833
-0.0087584 0.116419 0.288427 -0.573259 0.791454 -0.212074
-0.00573262 0.16383 0.472343 -0.290375 0.924297 -0.247703
-0.0619803 0.0974967 0.208718 1 0 0
-0.000501098 -0.16313 0.336126 0.0817665 0.594745 0.799745
0.00267322 -0.456085 0.124092 1 0 0
0.00536061 0.159899 0.466703 0.821985 0.5501 -0.147414
0.14598 -0.240878 0.547037 0.0361419 -0.955627 0.292354
-0.00737256 0.176997 0.275875 0.884243 -0.375339 0.277912
-0.00941974 0.0450551 0.178058 -0.779121 -0.316306 -0.541221
-0.00572452 0.0526312 0.389657 -0.34199 -0.192017 -0.919876
7.51706e-05 -0.470515 0.236888 0.193524 -0.900616 0.389151
-0.00836179 -0.319609 0.340141 -0.747714 -0.0333465 0.663183
0.00256231 -0.0754644 0.250265 0.396325 -0.51958 -0.756943
0.0083 0.0410891 0.402973 0.984795 0.0355003 0.170056
-0.00921242 -0.213969 0.292376 -0.82756 -0.376453 -0.416445
-0.00107058 -0.272641 0.30927 0.156332 -0.280048 -0.947171
-0.00729242 -0.4474 0.101566 -0.656107 0.659308 0.3672
-0.061247 0.0419425 0.121284 1 0 0
-0.000106373 0.154045 0.51714 0 0.097976 0.995189
-0.0213316 -0.234708 0.538718 0 -0.0869492 -0.996213
-0.0889605 -0.242184 0.553168 -0.129786 -0.865124 0.484474
-0.0647278 0.104796 0.191706 -1 0 0
-0.00482119 0.0895417 0.211056 0.966079 -0.0966355 -0.239484
0.00397566 0.136851 0.361433 0.290166 0.924367 -0.247689
0.0325638 -0.322993 0.174347 -0.997807 0.00112705 0.066187
0.0104603 0.310254 0.181781 0.166652 0.967815 0.188575
0.00195629 0.418562 0.0647437 -0.884367 0.321475 -0.338452
-0.00497371 -0.403454 0.232039 0.999676 0.000699481 0.0254288
-0.111267 -0.241615 0.544893 -0.0263647 -0.945748 -0.323828
-0.0647278 0.0456179 0.177756 -1 0 0
0.00743631 -0.155842 0.154021 0.997708 0.0669405 -0.00984114
0.00808886 0.197036 0.048836 0.997716 0.0419253 0.0529608
-0.104551 -0.0428863 0.17448 -0.998668 0.0363597 -0.036602
0.0319978 -0.30921 0.199699 -0.998132 -0.0346626 0.0503072
0.00932115 0.0696631 0.193313 0.811265 -0.501327 0.300867
-0.00994777 0.428207 0.29874 -0.895563 0.319465 0.309694
0.0216216 0.236957 0.288652 -0.128818 -0.285633 0.949642
-0.00328087 0.294355 0.166756 0.999626 0.000287435 0.0273285
0.00385393 0.239221 0.0141141 0.552462 -0.330606 -0.76517
-0.0873355 -0.0282461 0.163314 0.0294016 0.0174413 -0.999416
-0.0037505 0.222873 0.177599 -0.999649 0.00592071 0.0258098
-0.0420722 0.304823 0.160666 1 0 0
0.0331238 -0.266812 0.26348 0.836259 0.421582 0.350628
-0.0020031 0.14519 0.399699 0 0.965936 -0.258783
0.00314651 -0.0687575 0.439383 0.340636 0.246992 0.907172
0.00798432 0.137067 0.14839 0.980165 -0.194946 -0.0356751
-0.00153363 0.374851 0.0737556 -0.999687 -0.000315825 -0.025036
-0.0245026 0.307108 0.18315 -0.00469672 0.856664 0.515854
-0.00159316 -0.334984 0.218412 0.999626 -0.00398651 -0.0270353
-0.0524537 0.0551457 0.15411 0.000100208 -0.939777 0.341789
-0.0317922 0.269695 0.221782 0.998034 -0.0207587 -0.0591287
0.0313322 0.258843 0.196751 -0.990172 -0.0404804 0.133867
0.00561948 0.333795 0.0186303 0.747497 -0.119543 0.65342
0.00302224 0.305633 0.0196378 1 0 0
-0.059851 0.109607 0.228417 0.998633 -0.0415185 -0.0317477
-0.0288073 0.211383 0.514608 -0.511948 0.355456 0.782023
-0.00183184 -0.291213 0.20204 0.999627 -0.0055022 -0.026767
0.00375062 -0.181661 0.275509 0.552872 0.668629 0.497261
-0.00377918 -0.34755 0.16078 -0.999636 0.00580397 0.0263332
0.0336069 0.198429 0.202155 0.0844569 0.0521102 0.995064
-0.00801678 -0.466234 0.191258 -0.747643 0.661935 -0.0535942
-0.133962 -0.226679 0.547734 -0.0215449 0.946176 0.322935
-0.00215213 -0.348146 0.122958 0.999626 0.000287677 0.0273288
0.00118172 0.145147 0.182501 0.317052 0.948297 -0.0145522
-0.053497 0.0364515 0.19873 0 0.695266 -0.718752
-0.00111449 -0.192171 0.0597605 0.0658468 0.740183 -0.669174
0.00742689 -0.430741 0.0654189 0.997715 -0.0485036 -0.0470295
-0.00170531 0.223767 0.0425235 0 -0.522332 -0.852742
-0.0141591 0.154544 0.503486 0.504471 -0.266587 -0.821243
1.91561e-05 0.00944071 0.398374 0 -0.262703 -0.964877
0.00261259 -0.460788 0.153749 0.995301 0.0957673 0.0142716
0.00734319 0.300632 0.350197 0.895524 -0.0223978 0.444449
-0.000198652 -0.0467991 0.253508 0.0813423 0.564057 0.821719
-0.00854002 0.324783 0.335144 -1 6.67549e-07 -1.06008e-07
-0.062543 0.0826179 0.223436 0 -0.343935 0.938994
-0.00118839 -0.237487 0.0256699 0.0661206 0.427492 -0.901598
-0.050112 0.310761 0.190797 1 0 0
0.00727779 -0.311043 0.0179203 0.980187 -0.00996866 0.197821
-0.00885835 -0.112031 0.277565 -0.784067 -0.351257 -0.51172
-0.0183458 -0.24424 0.322242 0.992677 -0.0144003 -0.11994
-0.0185012 0.138615 0.51734 -0.499877 -0.0530972 0.864467
0.0311767 0.256992 0.264844 0.0999451 0.818457 0.565808
-0.0110334 0.41871 0.0557072 -0.997715 -0.0470257 0.0485025
0.00525818 0.11254 0.338124 0.573051 -0.791597 0.212099
-0.00873001 0.254264 0.332272 -0.747994 0.203855 -0.631624
0.00685528 -0.250356 0.324388 0.946025 0.128546 0.297512
0.0290862 -0.312171 0.18268 0.0435117 0.628617 0.776497
0.00134239 -0.323721 0.325493 0.31705 0.0476819 -0.94721
0.00689774 -0.441333 0.276061 0.946121 -0.25389 0.200987
-0.0104898 0.323256 0.00731964 -0.946112 0.0373938 -0.321673
-0.0619392 0.290864 0.144154 -0.921154 0.374828 0.104777
-0.00134906 -0.293665 0.341983 0.0670667 0.145066 0.987146
0.00495824 -0.195933 0.508711 0.984808 0.167728 -0.0449514
-0.0690135 0.309528 0.175378 0.999997 0.00106416 0.00227245
-0.0110061 0.181861 0.323283 0.892295 0.299229 -0.338042
0.0340002 0.284576 0.210426 0.847562 -0.469059 -0.248238
-0.0265997 0.131968 0.197694 -0.481543 -0.247699 0.840691
0.00379201 -0.445462 0.25173 0.551955 0.715677 -0.427963
-0.00366399 -0.329232 0.161185 -0.999627 0.00549722 0.0267712
-0.00736923 0.164472 0.493421 0.676522 -0.526647 -0.514743
0.00098352 -0.213063 0.2865 0.317387 -0.635843 -0.70354
-0.0109593 0.46719 0.214988 -0.980166 -0.192193 -0.0483263
0.00518462 -0.418782 0.30295 0.747689 -0.430113 0.505929
-0.0118581 -0.086511 0.26677 -0.944109 -0.186548 -0.27177
-0.0203045 0.108736 0.194333 -0.515021 -0.260009 0.816792
0.00349721 0.456026 0.268613 0.552773 0.728009 0.405519
-0.0054055 -0.344049 0.0995319 -0.999621 0.00505112 0.0270577
0.00511295 0.0923805 0.398568 0.642631 0.151309 0.751087
-0.00103461 -0.206933 0.0844605 0.159383 -0.739533 0.653979
-0.0512932 0.0934048 0.170672 1 0 0
-0.0420722 0.323807 0.172655 1 0 0
0.00384808 0.218962 0.313947 0.552003 0.452659 -0.70028
0.00811777 0.230768 0.329406 0.997718 0.0289243 -0.0610141
-0.0335296 0.047758 0.166652 0 -0.857111 -0.515133
-0.00253059 0.311325 0.139734 0.999621 -0.000747985 0.0275161
-0.0109919 -0.0114751 0.223741 -0.942976 0.174283 0.283586
0.0415152 0.21036 0.196551 0.917621 0.05654 0.393415
-0.00557213 -0.204858 0.466587 -0.3419 -0.162913 -0.925507
-0.002017 0.272707 0.209007 0.999636 -0.003549 -0.0267264
-0.0338904 0.180699 0.193198 0.995633 -0.00853975 0.0929593
-0.00816241 -0.240767 0.355424 0.848412 -0.160997 -0.504258
0.00524272 -0.454952 0.235884 0.747487 0.609812 -0.263424
-0.069486 -0.0109618 0.167501 0.997895 -0.0233987 0.0604896
-0.00531566 -0.118998 0.302665 -0.243062 0.578835 0.778377
0.007878 0.222202 0.0285838 0.980177 -0.090291 -0.176352
0.00576401 -0.227493 0.302169 0.827658 -0.318963 -0.461784
0.00423904 0.146678 0.412902 0.573001 0.791621 -0.212147
0.00186485 -0.320089 0.173927 0.117189 -0.851151 -0.511672
-0.00685815 0.175365 0.0990916 -0.898432 0.366077 0.242504
-0.034846 -0.237339 0.539719 -0.0524302 -0.484139 -0.873419
-0.00367667 0.153232 0.350515 -0.183418 -0.785852 -0.590589
0.00736725 0.224199 0.515082 0.0696301 0.301781 0.950831
0.0274346 0.170218 0.191618 0.213097 -0.00425003 -0.977022
0.00394722 0.101067 0.502843 -0.591093 0.0652965 -0.803956
-0.0619803 0.062529 0.157026 1 0 0
-0.00733333 -0.23304 0.0466851 0.88433 0.257578 -0.389377
0.00131356 0.00850351 0.217751 0.392543 0.48155 0.783594
-0.0575377 0.0225494 0.200296 0 0.747685 -0.664053
-0.00527199 -0.398776 0.0521143 0.450084 -0.530862 -0.71806
-0.00801616 0.256286 0.0315386 -0.960573 0.0788478 0.266612
-0.00776361 0.146229 0.210464 0.884427 -0.457273 0.0932241
-0.00210743 -0.480793 0.152374 -0.066524 -0.991087 -0.115413
-0.00254804 -0.241366 0.389889 -0.0432058 -0.964852 0.259218
-0.00196126 0.315545 0.119166 0.999621 -0.000747985 0.0275161
-0.0229481 0.148557 0.187927 0.863552 0.230311 -0.448592
0.00153526 -0.374681 0.305321 0.934109 0.142494 -0.327315
0.00999278 0.091982 0.241776 0.978333 -0.199983 0.0535871
0.0138799 0.077831 0.184077 0.918319 -0.220658 0.328633
-0.0142412 0.19223 0.337925 0.945508 0.172242 -0.276312
-0.00361171 -0.258304 0.152936 -0.99965 0.00326197 0.026273
-0.000319581 -0.120903 0.436654 0 -0.317127 -0.948383
-0.00748539 -0.476168 0.211446 -0.655502 -0.738381 0.158463
-0.0025341 -0.352062 0.21071 -0.999676 0.00553994 0.024829
-0.0113831 0.00753133 0.210852 -0.942394 0.16878 0.288803
0.00626809 0.45756 0.233548 0.827916 -0.521357 -0.206742
-0.00176414 0.261027 0.220016 0.999636 -0.003549 -0.0267264
0.0355935 0.0708559 0.171221 -0.997895 0.0212738 0.0612635
0.00915848 0.119346 0.349102 0.822088 -0.549961 0.147355
-0.0101683 -0.446203 0.269169 -0.946121 -0.266461 0.183992
0.00169086 -0.253361 0.313024 0.317704 -0.376093 -0.870413
-0.00445873 0.323845 0.213632 0.999686 -0.00120467 0.0250188
-0.00554224 -0.181193 0.348845 -0.243282 0.578809 0.778328
-0.0102667 0.145177 0.136356 -0.895525 0.431578 0.108514
-0.0565814 0.0578143 0.193305 1 0 0
-0.00689807 -0.285625 0.0113476 -0.5524 0.150048 -0.819963
0.0022118 0.426787 0.269455 0.934159 -0.279234 -0.222207
0.081733 -0.242674 0.55372 0.29182 -0.83406 0.468173
-0.0647278 0.0507344 0.127772 -1 0 0
0.00661012 0.0265097 0.398709 0.865898 -0.102212 -0.489667
-0.00773523 0.443776 0.240492 -0.93406 -0.327544 -0.142292
0.00292026 -0.0384342 0.246555 0.395899 0.519691 0.75709
-0.0619803 0.0987418 0.176185 1 0 0
-0.0114398 0.132805 0.404825 -0.821983 -0.550108 0.147392
-0.00726119 -0.163093 0.162373 0.884566 0.463441 -0.0525787
0.00453671 0.13943 0.117089 0.65558 -0.701953 -0.278345
-0.00802618 -0.354488 0.316173 -0.98333 0.0424252 -0.176813
-0.0218802 0.183755 0.516053 0.0483449 0.0214214 0.998601
-0.0200032 0.055896 0.162017 0 0.0175573 -0.999846
0.00425147 -0.259661 0.342168 0.8908 0.151902 0.428253
-0.0044779 0.106184 0.243743 -0.290163 0.924368 -0.247689
-0.00187613 0.321439 0.0877157 -0.999692 0.000162639 -0.0248294
0.00134265 0.126857 0.321051 0.290168 0.924371 -0.24767
-0.0721661 -0.241185 0.547749 -0.0125563 -0.974409 -0.224433
-0.00361472 0.167966 0.117951 0 0.917159 0.398521
-0.00510667 0.180603 0.0801233 0.450745 -0.698513 -0.555795
0.0688219 0.145112 0.166179 0.0292622 0.0174161 -0.99942
-0.00399326 -0.311697 0.191577 0.999692 -0.00069993 0.0248198
-0.00862952 -0.163934 0.242486 -0.747377 0.600321 0.28468
-0.00336577 -0.361315 0.142706 -0.999676 0.00158647 -0.0253887
-0.00277899 0.141654 0.440278 0 -0.965936 0.258782
0.0632077 0.158002 0.177068 0 0.96152 0.274733
0.00218643 0.151778 0.165866 0.934103 0.356343 0.0217121
-0.00947563 0.336824 0.348694 -0.827665 0.117755 0.54873
0.024349 0.222478 0.508415 0.729302 0.582623 0.358705
-0.00178335 0.192393 0.0794766 0 0.725556 0.688163
0.0715786 -0.266411 0.552846 -0.329748 -0.449586 -0.830144
-0.0597019 0.0675575 0.192363 -1 0 0
0.00317127 -0.22852 0.31811 0.551727 0.428181 0.715723
0.00360123 0.208006 0.500287 0 0.298475 -0.954417
-0.0341977 0.183792 0.505171 -0.970687 -0.222194 -0.0916284
0.000908584 0.462371 0.162727 -0.850025 0.523384 -0.0593807
0.0588935 0.146857 0.1775 -0.00850932 0.954149 0.29921
-0.00504896 0.14928 0.0922524 -0.3167 -0.828686 -0.461499
0.0118543 0.193545 0.515718 -0.0183156 -0.00113098 0.999832
-0.00699395 0.188634 0.0666164 -0.552469 0.598418 0.580236
-0.00824601 -0.198564 0.0787893 -1 0 0
-0.00828584 0.213025 0.303473 -0.983316 0.100371 -0.15171
-0.0115334 -0.036678 0.424108 -0.984692 0.0457903 0.168182
3.4664e-05 0.227762 0.0174993 0.1934 -0.447194 -0.873278
-0.00547854 0.339208 0.239071 -0.0147506 -0.834584 0.550684
-0.00854004 0.146611 0.167224 -1 0 0
-0.00661905 -0.175099 0.204606 -0.898363 -0.427074 -0.10272
-0.0116246 -0.0620952 0.430494 -0.984692 0.0457903 0.168182
-0.0087952 0.407504 0.318972 -0.747646 0.377408 0.546432
-0.00958698 0.146979 0.251135 -0.827594 -0.515275 0.222664
-0.0420722 0.292323 0.167931 1 0 0
0.00380855 -0.202514 0.298264 0.552172 0.559137 0.618444
0.00496702 -0.00838546 0.405839 0.641189 -0.201601 -0.740428
-0.00821406 -0.253403 0.035794 -0.999196 0.016005 -0.0367696
-0.0110866 0.193628 0.305258 -0.997714 -0.0437682 0.0514827
-0.0106203 0.160229 0.355543 -0.987302 0.139521 0.0759553
0.00331883 -0.125662 0.306763 0.39811 0.547415 0.736101
0.0205626 -0.244956 0.333513 0.968269 0.115481 0.221629
0.106644 -0.24205 0.546251 0.0348675 -0.991854 -0.122518
0.000991522 0.151583 0.222796 0.194357 0.943465 -0.268513
-0.0334737 0.243822 0.191283 0.99512 -0.0126161 0.0978586
-0.0106329 -0.390432 0.03487 -0.99771 -0.0308265 -0.0602036
0.0023981 -0.170233 0.220468 0.43666 -0.856146 -0.2763
0.00352618 0.0872506 0.187203 -0.937085 0.329729 0.114674
0.0314085 -0.227651 0.545716 -2.8692e-05 0.999845 0.0176066
0.00185704 0.162775 0.49253 0 0.258949 0.965891
0.00775586 0.436176 0.287014 0.946105 0.24674 0.209775
-0.00824605 -0.455556 0.125338 -1 0 0
-0.0618642 0.307573 0.15837 0 0.287152 -0.957885
0.00134608 -0.187371 0.240719 0.898292 -0.386249 -0.209485
-0.00823867 -0.169885 0.130011 -0.999193 0.0385218 -0.0114181
-0.0551724 0.289214 0.170137 0 -0.715509 -0.698603
-0.0191424 0.219888 0.503085 -0.0149046 0.181879 -0.983208
0.00486774 0.0794013 0.401405 0.642557 0.156584 0.750068
0.0104952 0.115424 0.320086 0.978332 -0.199988 0.0535879
-0.0133815 0.0998705 0.268978 -0.978337 -0.199962 0.0535819
0.00724494 0.383565 0.331117 0.895491 0.202862 0.396161
0.0073834 -0.197473 0.0652855 0.980167 0.147009 -0.132894
-0.0874432 -0.0183746 0.163483 0.0291745 0.0178398 -0.999415
-0.00556821 0.353236 0.259379 0.999686 -0.00120467 0.0250188
-0.0156411 0.0935744 0.210835 0 0.927266 -0.374403
-0.0119675 0.029272 0.403846 -0.984793 -0.0355021 -0.170064
0.000943165 0.409424 0.0705804 0.836058 -0.37781 0.397828
-0.0116676 0.0937465 0.392612 -0.984799 0.0342819 0.170281
0.00381235 0.177218 0.327327 -0.713725 0.435649 -0.548458
0.00159733 -0.262104 0.0412003 0.93413 -0.14247 0.327267
-0.0132425 0.0989879 0.242066 -0.978336 0.199968 -0.0535794
-0.00415209 0.436612 0.266948 -0.317375 -0.796357 -0.514867
0.0142404 -0.262192 0.336149 -0.968867 -0.0946337 -0.228783
-0.0310148 0.240091 0.260591 0.972845 -0.181853 -0.143187
0.00437951 0.128801 0.189388 0.655827 -0.752454 0.0608645
-0.00829923 0.462607 0.253146 -0.747257 0.600449 0.284722
-0.0620884 -0.245652 0.548734 0.0568574 -0.991366 -0.118157
-0.0107427 0.116154 0.345616 -0.573053 -0.791596 0.212099
0.00265309 -0.446977 0.242276 0.999437 0.0300383 -0.0149586
0.0083582 -0.00410178 0.215646 0.985606 0.0885196 0.144035
-0.00519226 -0.398783 0.300185 -0.437099 0.488323 -0.755305
-0.00719004 -0.0949468 0.447516 -0.638651 0.244031 0.729776
-0.0106492 -0.0776633 0.43773 -0.863534 0.15992 0.478261
0.00171072 0.162773 0.36244 0.331534 0.798152 0.503029
0.0187276 -0.262235 0.306402 0.43599 -0.847815 0.301865
-0.0308895 0.249589 0.252362 0.999715 -0.0141703 -0.0192157
-0.00517092 0.26629 0.0847207 0.999692 -0.00404748 -0.0244982
0.00219352 -0.370385 0.0176662 0.436812 -0.302232 -0.847261
-0.00711527 0.180586 0.334265 0.327745 0.877403 0.350352
0.00550127 -0.399093 0.0472257 0.747513 0.377512 0.546543
-0.00948971 -0.207903 0.444694 -0.793871 0.584544 -0.167561
0.00943128 0.186687 0.323955 -0.884714 0.416369 -0.209568
0.00436456 0.0597388 0.18872 0.324172 -0.148325 0.934298
0.00539479 0.210059 0.0304673 0.74765 -0.340873 -0.569935
-0.000664495 -0.21016 0.306982 0.065536 0.619381 0.78235
-0.00556372 -0.250434 0.0493575 -0.683199 -0.348566 0.64167
-0.00201308 -0.302147 0.118283 0.999621 -0.000740769 0.0275181
0.0664744 -0.232932 0.538441 0.0510953 0.227189 -0.972509
-0.0114149 -0.139553 0.450105 -0.984208 -0.0643679 -0.1649
0.0361237 -0.300737 0.208053 0.919288 -0.35553 0.168842
0.00884969 0.105597 0.180038 -0.954846 0.294801 -0.0368962
0.000850722 -0.181627 0.225759 0.836358 -0.519814 -0.174066
-0.000421267 -0.0193421 0.406211 0 -0.262703 -0.964877
-0.0107176 0.0335321 0.197746 -0.779024 0.31636 0.54133
-0.00413164 0.27398 0.151658 -0.999626 0.0055 0.0267696
0.00714458 0.113773 0.391606 0.86583 0.0987678 0.490494
-0.0119195 -0.0146974 0.414909 -0.984675 -0.0458137 -0.168275
0.00258522 -0.166634 0.137476 0.98333 0.174324 -0.0516952
0.000358143 -0.221606 0.534681 0.337117 -0.284272 -0.89752
-0.00796454 0.422831 0.0799437 -0.960601 -0.208215 0.184101
0.00808275 0.462617 0.12199 0.997715 -0.0636368 0.0227074
0.00299502 0.257525 0.0278022 0.999435 0.00953006 0.0322225
-0.00822952 -0.163047 0.183351 -0.999195 0.0400467 0.00243594
-0.00847323 0.296531 0.334194 -0.995301 0.00594777 -0.0966505
-0.00349587 -0.242636 0.540717 -0.336996 -0.284271 -0.897565
-0.0777938 -0.0325545 0.170653 1 0 0
-0.00631776 0.299307 0.186462 0 -0.655958 0.754798
-0.0373662 0.228056 0.182697 -0.39623 -0.0247647 -0.917817
-0.00241424 0.214582 0.331582 -0.0659877 -0.485522 0.87173
-0.00819273 0.167534 0.264042 -0.6565 0.647432 -0.387091
-0.00147158 0.426993 0.307056 0.0665649 0.669146 0.740144
-0.00103703 0.274282 0.245148 0.999626 -0.00398869 -0.0270359
-0.0100118 0.274751 0.348241 -0.895542 -0.0800942 0.437709
-0.00200434 -0.330342 0.0896396 -0.999692 0.000698863 -0.0248193
0.122872 -0.261097 0.554199 -0.0186672 -0.436742 -0.899393
-0.00801523 0.473554 0.224548 -0.655686 0.732235 0.18414
0.00149366 -0.0726004 0.270753 0.395899 0.519691 0.75709
-0.0643251 0.104936 0.112189 -0.999676 0.0190698 -0.0168695
-0.00697436 -0.447038 0.229193 -0.898437 0.408587 -0.160832
-0.00310395 0.333071 0.136985 -0.999686 -0.000329087 -0.0250447
-0.00557017 -0.302449 0.315616 -0.683169 -0.0828439 -0.725546
0.00809945 -0.0659075 0.251492 0.985895 -0.0947153 -0.137982
-0.00374528 -0.23573 0.40928 -0.21602 -0.938588 0.269049
0.00441153 0.458833 0.132674 0.655915 -0.726011 0.206601
-0.00203396 0.128084 0.154157 -0.065995 -0.991141 -0.11526
4.4277e-05 0.159014 0.342561 0.0894675 -0.806501 -0.584424
0.00571707 -0.366817 0.330964 0.827809 -0.17232 0.533889
-0.0264794 -0.253156 0.315816 -0.964114 -0.214855 0.155953
-0.00953907 -0.201097 0.49984 -0.9848 -0.167783 0.0449186
-0.00852599 0.136077 0.361165 -0.573053 0.791596 -0.212098
0.0164511 0.056244 0.176847 1 0 0
-0.00209418 0.216211 0.21328 0.999649 -0.00326613 -0.0262835
-0.0425453 0.316724 0.165364 -1 0 0
0.00569184 -0.1501 0.166058 0.827632 0.559438 -0.0453356
-0.00893437 -0.340419 0.326773 -0.827554 0.101087 -0.55221
0.000431079 -0.221121 0.272245 0.999657 -0.00454756 -0.0257762
-0.0433803 0.18282 0.189341 -0.967322 0.0576793 -0.246903
-0.00134314 0.322078 0.2343 0.00499397 -0.92767 0.373367
-0.00535486 -0.307662 0.220153 -0.999621 0.000210115 -0.0275252
0.000790742 -0.134269 0.314531 0.0817665 0.594745 0.799745
-0.0113188 -0.0742699 0.427868 -0.865033 -0.131802 -0.484093
-0.00116285 0.299936 0.264684 -0.999692 0.00457391 0.0244046
0.00296839 -0.199563 0.518448 0.642815 -0.739927 0.198233
0.0868603 -0.234433 0.557566 0.120621 -0.00519357 0.992685
-0.0249578 -0.228905 0.549532 0 0.656113 0.754662
0.00726497 -0.23036 0.0377953 0.980198 0.107516 -0.166292
-0.00245667 -0.262245 0.19825 -0.999676 0.00328547 0.0252279
0.000101601 0.388056 0.26655 0.999626 -0.00548967 -0.0267789
-0.0323106 0.29566 0.180492 -0.907245 0.161934 0.388181
-0.00853863 0.274417 0.0187613 -0.747452 0.139435 0.649517
0.119758 -0.229142 0.552425 0.0429076 0.57708 0.81556
0.0300557 0.264069 0.235707 -0.985649 -0.132648 -0.104405
0.00212714 -0.149509 0.203681 0.437521 0.884513 0.161901
0.00392533 -0.415693 0.0620252 0.552335 0.559014 0.618409
0.00631818 0.00333558 0.403983 0.865031 -0.131808 -0.484096
-0.000133733 -0.46081 0.203469 -0.70279 -0.697039 0.142207
-0.0106318 -0.422155 0.292936 -0.997709 -0.0470939 0.0485684
0.00634665 -0.400377 0.314126 0.895745 -0.241384 0.373328
-0.00851032 0.204792 0.0561092 -0.999437 0.022249 0.0251253
-0.00272941 0.321987 0.196875 -0.999686 0.00359631 0.0247851
-0.0794092 -0.0421471 0.173502 0.131116 -0.713142 0.688648
-0.000596335 0.280183 0.335196 0.0658993 0.179626 -0.981525
-0.00594773 -0.230689 0.288918 -0.682169 -0.43466 -0.587977
-0.000178436 0.122189 0.509237 -0.000254125 0.153769 -0.988107
0.00264475 -0.293608 0.325619 0.999193 0.00455626 0.0399146
-0.00333131 -0.380535 0.299126 0 0.477293 -0.878744
-0.00563867 0.379546 0.0489056 -0.683336 -0.348546 0.641535
-0.0764333 0.0142391 0.167455 -0.999736 -0.0196813 -0.0118266
-2.06677e-05 -0.412038 0.0730633 0.683686 0.483767 0.546391
0.000989591 -0.361636 0.318027 0.317133 0.291278 -0.902543
-0.0103362 -0.191881 0.468404 -0.866001 -0.0867876 -0.492453
-0.0483634 -0.243666 0.555478 0.16781 -0.858597 0.484408
-0.023725 0.19553 0.29408 -0.288252 -0.798552 -0.528418
-0.00279895 0.291096 0.124401 -0.999692 0.000704893 -0.0248202
0.139071 -0.227014 0.548371 0.0215939 0.945882 0.323792
0.021863 0.111918 0.190997 0.824247 -0.302221 0.478831
0.00433222 0.208603 0.325635 0.552456 -0.452553 0.699992
-0.00578309 -0.275749 0.239969 -0.0150771 -0.834582 0.550677
0.000497617 -0.325944 0.342599 0.194251 -0.049307 0.979712
0.00236302 0.317799 0.330734 0.960565 -0.0315368 -0.27626
-0.0105848 0.0600515 0.16209 0 0.0175573 -0.999846
0.00484038 0.262329 0.348446 0.655997 -0.184032 0.731984
-0.00893229 -0.40869 0.296674 -0.827803 0.334771 -0.45019
0.00454184 -0.420843 0.284262 0.65597 0.525424 -0.541879
-0.00344437 0.295412 0.0190706 -0.193912 0.0792097 0.977816
0.0449818 0.139009 0.172562 -1 0 0
0.00689267 -0.470257 0.173656 0.946115 0.323793 -0.0050224
-0.0114736 -0.108659 0.43999 -0.984469 -0.055678 -0.166499
-0.00724621 0.0428916 0.392441 -0.642619 -0.156561 -0.75002
-0.0564969 0.325798 0.175814 -0.999857 0.00361942 -0.0165313
-0.00704609 -0.0143572 0.424318 -0.641357 0.201557 0.740295
0.0306676 0.186218 0.192901 -0.694365 0.286453 -0.660153
-0.005286 0.464165 0.17993 -0.436747 -0.899476 0.0139432
-0.00813505 -0.213398 0.541287 -0.862422 0.152829 0.482567
-0.137437 -0.241015 0.543789 -0.000527165 -0.946444 -0.322868
-0.00538367 0.451735 0.155376 -0.430174 -0.896988 0.101799
-0.00352554 -0.054962 0.25906 -0.241625 0.549164 0.800023
0.00804638 -0.199521 0.357588 0.986357 0.116406 0.116402
0.0301245 0.275841 0.219805 -0.927593 -0.288189 -0.237734
0.00267322 -0.408888 0.290593 1 0 0
-0.00732769 -0.457873 0.225507 -0.655968 0.710922 -0.253565
0.0102199 0.0983439 0.261372 0.978332 -0.199988 0.0535889
-0.0387075 -0.310562 0.179369 -0.864877 -0.329329 -0.378855
0.0302591 0.173596 0.202453 0.477637 -0.0744628 0.875396
0.00267322 -0.222236 0.293355 1 0 0
-0.00109089 0.45637 0.218438 0 0.972248 0.233951
-0.102836 -0.22684 0.545486 0.0167801 0.955418 -0.294778
-1.02075e-05 0.111816 0.517506 0 -0.130039 0.991509
-0.0110236 0.199178 0.0480319 -0.997714 0.041949 0.0529872
0.00458742 -0.223393 0.388512 0.677209 0.520413 0.520152
-0.110748 -0.0323691 0.16342 -0.0583495 0.0174523 -0.998144
0.00267322 -0.432323 0.081685 1 0 0
0.00667384 0.104792 0.305379 0.573053 -0.791596 0.212098
0.000866533 0.183183 0.0888615 0.836009 0.429313 0.341728
0.0435471 0.104258 0.17754 0.999699 0.0210224 0.0126352
0.066206 -0.228136 0.558528 0.136702 0.606743 0.783055
-0.00561155 -0.157012 0.470261 -0.335924 0.3425 0.87741
-0.0597019 0.0527187 0.167051 -1 0 0
-0.00565184 -0.354838 0.0702637 -0.00546261 0.927668 -0.373366
-0.00488168 0.29225 0.229826 0.999692 -0.000164705 0.0248296
0.00115858 0.401186 0.293101 0.836443 -0.363341 -0.410301
-0.0004666 0.109697 0.506901 -0.0688319 0.15846 -0.984963
-0.00138728 0.0896916 0.381187 0 -0.197171 -0.980369
-0.0137444 0.132835 0.377549 -0.978333 0.199982 -0.0535861
-0.00803404 -0.441188 0.090099 -0.747387 0.55792 0.360748
-0.00211222 -0.194185 0.262619 0 0.782452 0.62271
-0.00164057 0.316297 0.107536 0.999621 -0.000747985 0.0275161
-0.0833898 -0.225167 0.548668 -0.0863085 0.990299 0.108902
-0.0745602 -0.228481 0.544889 -0.0246496 0.920224 -0.390616
-0.00524743 -0.2461 0.366453 -0.123127 -0.972544 0.197477
-0.00199905 0.130409 0.518734 0 0.00904818 0.999959
-0.00925918 0.156774 0.246904 -0.827691 0.515141 -0.222615
0.00412699 0.158026 0.0800263 0.552332 -0.70003 -0.452645
-0.0647524 0.303161 0.177379 0.00125343 -0.325661 -0.945486
0.0012123 0.329964 0.0293839 0.89834 -0.0650467 0.434458
-0.0470799 0.285996 0.196826 -1 0 0
-0.0124082 0.124243 0.331325 -0.822005 0.550075 -0.147396
-0.00394551 0.350971 0.0274963 0 0.316896 -0.94846
0.00149499 0.20691 0.0509564 -0.885616 -0.276072 -0.373455
-0.00836183 0.0622849 0.389348 -0.642619 -0.156561 -0.75002
0.00224981 0.214771 0.0434693 -0.884404 -0.243768 -0.398004
-0.0770609 0.0496512 0.183424 -1 0 0
-0.0110229 0.299037 0.345162 -0.997715 0.00340055 -0.0674723
-0.0111027 0.453463 0.256463 -0.997713 -0.0590451 -0.0328872
-0.0646486 0.191707 0.109671 0 0.0988296 0.995104
0.00102751 -0.45927 0.216555 -0.885593 -0.445303 0.132022
0.00134021 -0.472644 0.120304 0.316921 -0.902624 -0.291257
-0.0116711 0.011172 0.406412 -0.984683 -0.0458027 -0.168228
0.00165903 0.443225 0.117216 0.898455 -0.408566 0.160789
0.00126978 0.157395 0.21246 0.898269 0.430586 -0.087801
0.021463 0.181765 0.516303 -0.0902699 0.0230513 0.995651
-0.00385397 0.325293 0.127785 0.999686 -0.00510085 -0.0245216
-0.00816579 0.266489 0.327618 -0.983299 0.0424533 -0.176979
-0.0282353 0.223815 0.28744 -0.972632 -0.231486 -0.0200535
-0.0103235 0.366891 0.0256123 -0.895519 -0.164057 0.41368
-0.00400634 -0.358809 0.154638 -0.999636 0.00580397 0.0263332
-0.00755214 -0.44632 0.115462 -0.960627 0.25483 0.110709
0.0711917 -0.266279 0.562803 0.0525177 0.0278807 0.998231
0.000285444 0.291055 0.32676 0.683161 0.0449578 -0.728883
0.000953582 0.411191 0.283401 0.835874 -0.398275 -0.377745
-0.0113436 -0.23274 0.393851 -0.953802 -0.289414 0.0806368
0.0233878 0.221795 0.283448 0.157475 -0.314026 0.936263
-0.00153707 -0.42142 0.266309 0 0.749119 -0.662435
-0.0114464 0.0194319 0.203691 -0.942394 0.16878 0.288803
-0.00344292 0.260898 0.14869 -0.999676 0.00158935 -0.0253927
-0.00250734 0.130418 0.214954 -0.0655716 -0.975639 0.209353
-0.00176522 0.0780424 0.187186 0.626891 0.62748 0.461819
0.0424388 0.0643422 0.185796 0 0.629478 0.777018
0.00741959 -0.312438 0.333195 0.997717 -0.00103875 -0.0675335
-0.00916073 0.0942581 0.502298 -0.317831 -0.0862645 -0.944215
-0.0040819 0.422137 0.205248 0.999664 -0.0017985 0.0258682
-0.00274805 0.120334 0.395641 0 0.197536 0.980296
-0.048746 0.059954 0.162125 -0.00946342 0.358242 -0.933581
-0.0118609 -0.140474 0.306802 -1 0 0
-0.0110218 0.455225 0.100285 -0.997712 0.0601751 -0.0308201
-0.00544004 -0.23143 0.551494 0 0.292154 0.956371
-0.00299852 -0.455032 0.170478 0 0.998146 0.0608612
-0.00768943 -0.240021 0.299615 -0.960551 -0.145258 -0.237155
0.00711726 0.197824 0.313859 0.895607 -0.265421 0.356987
-0.00559201 -0.233401 0.233686 -0.021268 -0.560248 0.828052
-0.00712617 -0.370947 0.315822 0.88412 -0.186472 0.42844
-0.0398099 0.162241 0.190827 -0.904696 -0.241496 0.351005
0.0216083 0.204677 0.281246 0.388959 -0.75442 -0.528736
0.0340365 -0.26641 0.251845 -0.797191 0.146298 -0.585733
-0.0110518 0.152039 0.108074 -0.997718 0.0610095 0.0289256
-0.0167903 0.204205 0.499075 -0.000355774 0.315513 -0.948921
0.152166 -0.236689 0.540609 0.995486 0.0155921 -0.0936184
-0.0570162 0.315414 0.194163 0 -0.430955 -0.902374
0.00714853 -0.469813 0.218694 0.946006 -0.311771 0.0887176
-0.0403641 -0.279655 0.237949 0.999944 0.00291775 0.0101861
0.00781454 0.411871 0.0452092 0.980174 0.128333 -0.150962
0.0176825 0.141691 0.516223 0.813094 -0.16783 0.557415
-0.000890528 -0.454661 0.186921 0.158733 0.981015 -0.111415
0.037208 -0.289036 0.215828 0.903446 0.312371 -0.293615
-0.0595783 0.277322 0.200889 -0.997565 0.0649715 -0.0253519
0.00100606 -0.219352 0.462306 0.299974 -0.917015 0.262869
-0.0110406 0.143633 0.231446 -0.997716 -0.0636266 0.0226931
0.0515119 -0.239401 0.542588 0.0356353 -0.797843 -0.601812
-0.0636316 0.303044 0.113382 -1 0 0
-0.0427208 -0.274024 0.257178 -0.794614 -0.133899 0.592165
0.00273219 0.270981 0.329164 0.98326 0.042486 -0.177184
-0.00223642 0.331268 0.190779 0.999636 -0.00580429 -0.0263322
-0.00500321 -0.146916 0.175018 -0.317623 0.948104 -0.0146243
0.00808453 0.240456 0.333222 0.997711 0.0249228 -0.0628627
-0.00531009 -0.252498 0.217812 -0.999636 -0.000670506 -0.0269602
-0.00232327 -0.251509 0.202138 -0.999677 0.00329096 0.0252163
0.00802454 -0.169998 0.325003 0.98608 -0.0992201 -0.133422
0.00739539 -0.154265 0.184536 0.980184 0.197839 0.00998834
-0.00364252 0.327797 0.151667 -0.0218912 -0.682878 -0.730205
0.0915845 -0.267605 0.556544 0.448258 -0.861335 0.239098
-0.00258907 0.290011 0.185287 0.999649 -0.00326613 -0.0262835
-0.0254354 0.197186 0.496952 0 0.262947 -0.96481
-0.0070379 0.449302 0.135026 -0.898387 -0.421075 0.124885
0.00280401 0.306172 0.333137 0.983297 -0.00483476 -0.181942
0.00252209 0.0862601 0.244364 0.290313 -0.924325 0.247671
-0.0429242 -0.291665 0.207825 -0.867906 0.388539 -0.309477
-0.00899883 0.125639 0.385729 -0.573053 -0.791594 0.212108
-0.0573602 -0.231265 0.553101 0.0575655 0.291669 0.954785
0.00599538 0.104166 0.24406 0.573051 0.791594 -0.212112
0.00310354 -0.455987 0.0872207 0.552412 -0.699949 -0.452673
-0.0555033 0.318989 0.168934 -1 0 0
-0.01155 0.0949815 0.219989 -0.821795 0.543929 -0.169686
-0.0421159 -0.303908 0.197441 -0.975959 -0.217054 -0.0198135
0.00128345 0.145757 0.257652 0.317441 -0.844066 0.432185
-0.0101853 -0.191261 0.271546 -0.946169 -0.259741 -0.193131
-0.0597019 0.0219965 0.172107 -1 0 0
-0.0512932 0.0494552 0.179707 1 0 0
-0.00269488 -0.0164396 0.21032 -0.239437 -0.508379 -0.827176
0.0078022 0.171356 0.28518 0.980171 -0.155358 0.123001
-0.0340054 0.191118 0.195022 0.99517 0.00708179 0.0979105
0.00804933 -0.0898836 0.439743 0.984487 0.0556409 0.166401
-0.00352125 -0.275568 0.15063 -0.999676 -0.000703583 -0.0254358
-0.0315276 -0.256609 0.279324 -0.736388 0.675296 -0.0413241
-0.00110643 -0.199755 0.527426 0 -0.301947 -0.953325
-0.00108174 0.371674 0.322096 0.0661417 -0.395751 -0.915973
-0.00557309 0.305715 0.0926656 -0.999621 0.00451566 0.0271538
0.00140225 -0.176935 0.113416 0.316661 -0.87072 0.376262
-0.00280162 -0.395786 0.118339 -0.999676 0.0015885 -0.0253918
-0.000955758 -0.333248 0.0794062 0.999621 -0.000215525 0.0275265
-0.0652212 -0.225794 0.556226 -0.0897167 0.867287 0.489656
-0.009188 -0.412988 0.0442123 -0.827687 -0.348335 -0.439996
0.0303786 0.298902 0.172385 0.37665 -0.324567 -0.867635
-0.00893164 -0.209559 0.373669 -0.789025 0.434419 0.434419
-0.00850186 0.383414 0.313226 -0.999434 -0.0175601 -0.0286796
-0.0248883 -0.319727 0.179678 -0.0668961 -0.872736 0.483587
-0.00936112 -0.265335 0.321688 -0.827996 -0.188433 -0.528124
-0.0397665 0.0697786 0.179184 -0.027256 0.98125 0.190805
0.00234961 0.34444 0.334338 -0.813928 0.16483 0.557093
-0.00819116 -0.479546 0.174219 -0.747315 -0.664391 0.0103028
-0.0470799 0.309896 0.172633 -1 0 0
-0.0519251 -0.236038 0.537439 0.0184828 -0.162333 -0.986563
0.0026687 -0.303212 0.323747 0.999435 -0.00381331 -0.0333992
0.0365549 0.115913 0.171236 -0.997893 0.0212733 0.0612929
-0.00160302 -0.271459 0.0326731 0 0.316898 -0.94846
-0.00675086 0.21509 0.0563383 -0.898341 0.261151 0.353248
-0.0243278 -0.261051 0.28665 0.949046 -0.0868482 -0.302934
0.0120013 -0.242775 0.355673 0.84376 -0.257791 0.470758
-0.00690404 0.0282613 0.205054 -0.534273 0.426535 0.729808
0.00106324 0.35374 0.309303 0.999657 -0.00455749 -0.0257824
-0.00143765 0.341182 0.00384878 0.0661484 0.179591 -0.981515
-0.0470799 0.296893 0.1546 -1 0 0
-0.0619803 0.0875108 0.135154 1 0 0
0.00142471 -0.173262 0.150861 0.898281 -0.43056 0.087797
-0.0382471 0.226357 0.192621 -0.43941 0.0753149 0.895124
-0.002915 -0.367962 0.172708 0.999663 -0.00317019 -0.025756
0.0373315 0.254803 0.257852 0.996816 0.0778089 0.0174093
-0.0629943 0.00514826 0.157383 0 0.951602 0.307334
-0.00576859 0.481349 0.18211 -0.436744 0.898446 0.0452794
-0.0228498 0.134642 0.393681 0.0675311 -0.528192 -0.846435
0.0815306 -0.227197 0.54255 0.0641128 0.75313 -0.65474
-0.00244695 0.0704816 0.173685 0 0.987686 -0.156452
0.000447725 -0.201717 0.273598 -0.849805 0.382413 0.362757
-0.00811793 0.409649 0.054957 0.813653 0.361721 -0.455112
-0.003364 0.416767 0.290725 -0.194484 -0.704265 -0.682779
0.0042824 -0.17647 0.267522 0.65651 0.633388 0.409651
-0.0193489 0.126451 0.193386 0.969378 0.219351 0.110413
0.00338497 -0.199296 0.0547184 0.552185 0.580328 -0.598591
-0.00149217 -0.27889 0.212192 0.999627 -0.0055022 -0.026767
0.00266937 -0.305298 0.0239634 0.999193 0.00246907 -0.0400909
-0.010465 -0.165102 0.468945 -0.861617 0.184561 0.472814
0.00763125 0.149003 0.250369 0.946 -0.297581 0.128569
-0.0108542 0.0541732 0.186217 -0.535654 -0.116206 0.836404
-0.00915316 -0.0472442 0.233546 -0.784067 -0.351257 -0.51172
0.00435851 -0.245109 0.0244862 0.655743 0.323477 -0.682176
-0.00681504 0.463288 0.189773 0.885629 0.463535 0.0282386
-0.00715397 -0.178735 0.0791185 -0.656031 0.621037 -0.428878
0.00654818 -0.127995 0.443428 0.863751 -0.159793 -0.477913
-0.00474526 0.16737 0.516155 0 0.0395779 0.999216
-0.0314593 -0.259413 0.265152 0.620943 0.626533 -0.471047
0.000768612 -0.16471 0.185842 -0.84997 0.525856 0.0320341
-0.0332508 0.169892 0.181991 -0.0958084 -0.140685 -0.985408
0.00140804 0.186686 0.272967 0.898306 0.353141 -0.261415
0.000838048 0.325969 0.335767 0.193955 -0.142739 -0.970571
0.0151629 0.19222 0.305869 -0.944782 0.308584 -0.110284
-0.00631654 -0.315705 0.317063 -0.836325 -0.014565 -0.548041
0.0273851 0.25201 0.280337 0.0899201 0.963699 0.251392
0.0011068 0.365126 0.0402439 0.836253 -0.218865 0.502772
-0.000749916 -0.284508 0.312456 0.157843 -0.196595 -0.967696
-0.0555034 0.289952 0.186812 -1 0 0
-0.00449404 0.295084 0.214238 0.999692 -0.000164705 0.0248296
-0.00727047 -0.336726 0.032758 -0.934109 0.0405023 0.354683
-0.00556206 -0.447913 0.245602 -0.437268 0.800523 -0.409829
0.00569669 -0.0890529 0.262272 0.670986 -0.419618 -0.611309
-0.00511383 0.152941 0.127593 -0.317759 0.902357 0.291172
