0.00494078 -0.107014 0.419847 0.551717 0.19161 0.811723
0.000193501 -0.0576128 0.391977 -0.0500153 -0.229455 -0.972033
-0.0106433 0.388753 0.0979354 0 -0.70641 -0.707803
0.0154462 0.222985 0.311204 0.990229 0.0774981 -0.11593
0.0152534 0.20829 0.037759 0.970791 -0.106067 -0.215209
0.104048 -0.230506 0.596829 0 -0.991483 -0.130236
0.015069 0.36294 0.325945 0.970795 0.106058 0.215193
-0.00595926 -0.00740691 0.251307 -0.77657 -0.372282 -0.508276
-8.19797e-05 -0.0359458 0.289389 -0.120969 0.590407 0.797989
0.0125471 -0.281606 0.0674871 0 -0.995986 -0.0895062
-0.0718873 -0.216742 0.57441 0.740646 -0.608519 0.284866
-0.0100614 -0.34263 0.039817 0 0.38271 0.923868
0.0158784 0.426949 0.266844 0.99023 -0.115927 -0.0774893
0.0410856 0.269828 0.172637 0.13026 -0.168218 -0.977105
0.0039957 0.0868757 0.346914 0.31262 -0.88767 0.338099
0.0143495 0.167106 0.401018 0.000445511 0.382705 0.92387
0.0390184 -0.249113 0.346322 -0.703615 -0.71058 0.000838832
-0.00798136 0.0258708 0.231723 -0.992703 -0.0688084 -0.0990213
0.0110169 0.308356 0.184847 0 0.65974 0.751494
0.036555 0.311449 0.186567 -1 0 0
0.0114886 -0.203167 0.486397 0.997906 0.0623985 -0.0170152
-0.0109767 0.224414 0.299948 -1 0 0
0.0128613 0.276088 0.184252 0 -0.706411 -0.707802
0.0515818 0.0751334 0.311981 -0.0402089 0.999191 0
-0.00998285 -0.161689 0.0814612 -0.810845 0.464321 -0.356282
0.0220315 0.0563432 0.23494 -1 0 0
0.000571373 -0.312242 0.324797 1.6514e-07 -0.130515 0.991446
-0.0437305 -0.250434 0.311122 0.995768 0.041357 -0.0820702
-0.0529867 -0.215324 0.52908 0.569527 -0.792247 0.219051
0.00996783 0.183484 0.0894469 0 -0.831334 -0.555773
0.016139 -0.205513 0.0537484 0.990241 -0.0848374 0.110569
0.0115269 -0.161166 0.138558 0 0.923861 -0.382728
-0.0343714 0.0733521 0.191562 -1 0 0
0.0125702 -0.317539 0.192969 0 -0.066166 -0.997809
-0.038817 0.0426875 0.129672 0 -1 0
0.0158244 0.262704 0.329546 0.990224 0.0448679 -0.132073
-0.000548692 0.328723 0.0344914 0 0.321657 -0.946856
-0.00552123 0.419669 0.250972 0 0.831306 0.555815
-0.0114662 0.308285 0.140062 0 -0.985795 -0.167953
-0.0628878 0.0561067 0.106649 0 1 0
0.0538966 -0.279075 0.217452 0.661105 -0.72352 0.198642
-0.00817032 0.127619 0.193946 -0.537064 -0.827377 0.164344
0.0143514 -0.284795 0.177558 0 0.923696 -0.383126
0.0159744 0.141225 0.145436 0.990241 0.139068 0.00914323
-0.0132956 0.277938 0.3271 -0.866396 0.0327741 -0.498281
-0.0232418 -0.288913 0.177578 -1 0 0
-0.0103113 -0.353915 0.104341 0 -0.752341 0.658774
-0.00704257 -0.138854 0.246849 -0.536099 0.779902 0.323032
0.0130269 0.269282 0.0101487 0.810966 -0.114023 -0.573875
-0.00119143 0.338759 0.344291 -0.187268 0.19143 0.963476
0.00559846 -0.177944 0.422636 0.666068 -0.171361 -0.72594
-0.00612886 0.333136 0.00512648 -0.536784 0.271353 -0.798893
-0.0101718 -0.239087 0.221566 0 -0.658769 0.752346
0.0488379 -0.273902 0.246814 0.193137 -0.954359 0.227808
0.00556399 0.105929 0.344118 0.416829 0.849454 -0.323545
-0.0256753 0.149316 0.160799 -0.997463 0.0709577 -0.00568528
0.0122345 0.257281 0.263809 0 -0.872028 -0.489456
-0.0115895 -0.431641 0.28278 -0.811044 -0.464112 0.3561
0.00888041 -0.0958719 0.323046 0.986979 -0.0984114 -0.127231
-0.00515313 -0.415135 0.0546187 -0.536123 -0.513863 -0.669714
-0.030721 0.201107 0.267432 0.323132 0.60153 0.730581
0.0616429 -0.225941 0.584347 0 -0.53014 0.84791
-0.00680446 -0.392388 0.0746071 0 -0.608804 -0.793321
0.0154803 -0.145524 0.124224 0.97084 0.221482 -0.0917386
0.0127568 -0.323801 0.267944 0 -0.978298 -0.207203
0.0161645 -0.413939 0.291411 0.990229 0.110641 -0.0848871
0.00653775 0.433182 0.0668247 0.536079 0.634815 -0.556443
0.0261989 0.054535 0.310312 1 0 0
0.0401568 0.189756 0.191955 0.988036 -0.0984985 -0.118671
-0.0140961 0.0670989 0.360203 -0.611425 -0.737644 -0.286427
-0.088677 -0.218333 0.588256 0.046243 -0.381984 0.923011
0.0119426 0.166083 0.148392 0 -0.143017 0.98972
-0.0106057 -0.197365 0.0469746 -0.811012 0.356165 -0.464119
0.00981374 0.378021 0.0230458 0.5358 0.469211 -0.701968
0.0157103 0.155476 0.0986847 0.970818 -0.199369 -0.133285
-0.0109436 0.369944 0.194786 0 -0.122531 0.992465
-0.00613303 -0.214303 0.576913 0 0.89096 -0.454081
0.0146308 -0.464882 0.182243 0.810918 -0.580163 -0.0763059
0.011787 0.367437 0.0697186 0 -0.793685 -0.608329
-0.0169775 0.161506 0.380739 -0.000102452 -0.382679 -0.923881
0.0488613 -0.305149 0.193357 0 -0.705147 0.709061
0.0140041 -0.454016 0.12435 0.811155 -0.540316 -0.223801
0.00376552 -0.289091 0.331386 0 -0.130526 -0.991445
0.01263 -0.326628 0.327802 -1 0 0
-0.0139555 0.148448 0.135777 -0.99009 0.13297 0.0451749
-0.00687783 -0.157969 0.429408 -0.833195 0.127041 0.538188
-0.0133218 0.257757 0.0149913 -0.97055 -0.0469467 -0.236281
-0.00721716 0.413939 0.301972 -0.536778 0.556151 0.63448
0.00914139 0.287944 0.0178518 0 -0.997894 0.0648737
0.00821938 0.00862501 0.388241 0.898985 0.100621 0.426264
-0.0129713 -0.223761 0.480757 -0.00119706 -0.263127 -0.96476
0.00493822 -0.177467 0.262823 0 0.87528 0.483616
0.0149918 0.193877 0.302875 0.970801 -0.133323 0.199425
-0.0265686 0.161178 0.285079 0.531978 -0.496523 -0.685904
-0.0143309 -0.397552 0.305916 -0.990231 0.0848903 -0.11062
-0.0105004 -0.313063 0.217247 0 -0.978298 -0.207203
-0.0093757 0.0578333 0.253188 -0.938947 -0.32153 0.122464
0.0271813 -0.224853 0.50208 0.693677 0.382465 -0.610355
-0.0117419 -0.457908 0.232486 -0.811218 -0.540227 0.223785
-0.0110191 -0.210566 0.20983 0 -0.186953 0.982369
-0.0215911 0.205443 0.160348 0.0128757 0.423376 0.905863
-0.0109549 0.135662 0.221274 -0.811031 -0.573783 0.114025
-0.13049 -0.225431 0.588723 0 0.607864 0.794041
-0.0137204 -0.145812 0.154786 -0.990222 -0.138308 0.0181941
-0.00812472 -0.267344 0.350732 -0.536069 0.110172 0.836954
0.00865983 -0.0690679 0.404126 0.997232 -0.0170822 -0.0723651
0.032043 0.148748 0.386023 -0.000764892 -0.382658 -0.92389
-0.0140441 0.157524 0.107118 -0.99009 0.13297 0.0451749
0.012418 0.305654 0.319974 -1 0 0
0.00954349 -0.438523 0.154846 0 -0.991447 -0.130507
0.0120411 -0.234516 0.317285 0 -0.382645 -0.923895
0.00460957 -0.254263 0.013249 0.187423 0.128216 -0.973875
0.00667641 -0.218412 0.433286 0.833195 -0.127042 -0.538189
-0.0328118 0.0558222 0.213868 1 0 0
0.0155391 -0.176182 0.0736025 0.970766 0.190432 -0.146113
-0.0638549 -0.277321 0.210797 -0.961748 -0.242867 0.126715
0.0163146 -0.452061 0.226973 0.990242 0.12875 -0.0533392
0.0366019 -0.214273 0.582011 0 0.890844 0.45431
-0.0105044 0.335927 0.226085 0 -0.707817 0.706396
-0.0142569 -0.376046 0.0411662 -0.9708 -0.0917936 -0.221631
0.00713023 -0.206906 0.457375 0.671383 0.721141 -0.170882
-0.0124557 -0.457842 0.134734 -0.811219 -0.540229 -0.223779
-0.0345111 0.063506 0.170677 -0.0611323 -0.996477 -0.057408
-0.00760727 -0.16181 0.366915 -0.775028 -0.373427 -0.509788
-0.0103921 -0.345403 0.153055 0 -0.658768 0.752346
0.0685179 0.0268053 0.30833 0.300757 -0.953701 0
0.00954089 -0.358752 0.318297 0 0.382699 -0.923873
-0.011391 -0.279185 0.121354 0 -0.972736 -0.231917
-0.0367153 0.134996 0.311759 -0.985731 -0.146014 -0.0837562
-0.0411777 0.29551 0.18855 -1 0 0
-0.0536674 -0.299544 0.194662 1 0 0
0.0537846 -0.267986 0.196743 0.124159 0.968686 -0.215018
-0.0013868 -0.290727 0.033191 0 -0.130526 0.991445
-0.0109767 0.267002 0.0351612 -1 0 0
-0.0343714 0.03141 0.236838 -1 0 0
0.0123027 0.156496 0.268919 0.810843 -0.524977 0.258714
-0.0439575 0.265314 0.202648 -0.535167 -0.548966 -0.642053
0.0346522 0.272102 0.208848 -0.73197 0.454474 0.507616
0.0119404 0.226516 0.157125 0 -0.143017 0.98972
-0.0104578 0.334257 0.113009 0 -0.793685 -0.608329
0.00645387 -0.158825 0.285452 0.18787 0.779239 0.597906
0.00738363 -0.230968 0.0552544 0 0.382706 -0.92387
0.0156223 0.305876 0.332176 0.990224 0.00915215 -0.139187
-0.0199172 0.26406 0.153517 -0.997428 0.0690501 -0.0192429
-0.0123781 -0.445486 0.222289 -0.866257 0.461574 -0.191178
-0.0107646 -0.154767 0.223406 -1 0 0
0.000721225 -0.308258 0.35658 -0.187299 -0.128209 0.9739
-0.00418913 -0.391844 0.328484 -0.186869 -0.598011 0.779399
0.015868 -0.241599 0.0364632 0.990234 -0.05335 0.128802
0.0124437 0.149446 0.190501 0.866329 0.489904 -0.097308
0.0130484 -0.363946 0.196046 0 -0.066166 -0.997809
-0.0292628 0.126803 0.404185 -0.82606 -0.520771 0.21546
0.0154182 0.376583 0.30903 0.99023 -0.0616459 -0.125075
-0.00704142 -0.128321 0.353525 -0.760134 0.388406 0.5209
-0.0093 0.175892 0.293966 -0.536813 -0.634476 0.556122
0.00855939 0.303627 0.0322062 -1.67989e-05 0.0656135 -0.997845
-0.00333679 -0.210057 0.333435 -0.187283 0.597943 0.779352
0.000905806 -0.366865 0.342243 -0.18737 -0.375922 0.90751
-0.0210315 0.238042 0.213172 -0.0453502 -0.808379 -0.586913
0.00965942 0.43641 0.136594 0 0.980851 -0.194758
0.0158647 -0.144011 0.211499 0.990222 -0.138308 -0.0181937
-0.0221622 0.297087 0.179751 -0.0065213 0.240796 -0.970554
-0.0127163 -0.324923 0.345949 -0.810917 -0.0763792 0.580155
-0.0348358 0.136375 0.204225 -0.933326 -0.0255391 0.358121
0.0157452 0.330542 0.0160907 0.9708 0.0771562 -0.227145
-0.00889468 -0.185679 0.391726 -0.986972 0.0984363 0.127264
-0.010492 -0.324209 0.0949206 0 -0.978298 0.207202
-0.03729 0.180032 0.188225 -0.765707 -0.167222 -0.621071
0.00515179 0.182457 0.380459 0.0660286 0.921692 -0.382261
0.00885403 0.172725 0.257307 0 0.896944 -0.442145
-0.0059199 -0.181205 0.0994174 0 0.793328 -0.608794
0.000374689 0.362089 0.0458317 0 0.555728 -0.831364
-0.0107646 -0.430935 0.249309 -1 0 0
0.01803 0.100911 0.426859 0.81643 0.0978333 0.569096
-0.0104396 0.378474 0.154191 0 -0.113289 -0.993562
0.00519393 -0.380176 0.304898 0 -0.720282 0.693681
-0.0122579 0.0508525 0.228793 0 0.0428342 0.999082
0.028099 0.123697 0.409568 0.933591 -0.28457 0.217779
-0.00769247 0.441934 0.170052 0 0.997848 0.0655699
-0.010719 -0.406887 0.0992196 0 -0.658768 0.752346
-0.0410674 -0.228463 0.520844 -0.35514 0.924784 -0.136565
0.00045525 0.0898285 0.298738 -0.0706658 0.932174 -0.355047
0.00728832 -0.387824 0.0711049 -4.26713e-05 -0.608804 -0.793321
-0.0399679 -0.228329 0.498781 0.348394 0.924474 0.154819
-0.00152385 0.420545 0.0889358 0 -0.751942 0.659229
-0.00842485 0.400043 0.0378065 -0.536291 0.469076 -0.701683
-0.0182826 0.313155 0.196637 -0.999958 -0.00343186 -0.0084354
-0.0103898 -0.286704 0.151211 0 -0.838281 -0.545238
0.012418 0.203612 0.061415 -1 0 0
0.128804 -0.226434 0.591565 0 0.607931 0.79399
0.00528606 0.390893 0.0650859 0 0.555734 -0.83136
-0.0136811 -0.218574 0.0490311 -0.990234 -0.0848721 0.110603
0.048957 -0.235947 0.350809 0.767699 0.634012 0.0930983
-0.0141953 -0.143311 0.135709 -0.97084 0.221482 -0.0917386
0.0124586 0.274535 0.233069 0 -0.872028 -0.489456
-0.00368814 -0.44548 0.0902522 -0.186816 -0.779392 -0.598037
-0.063999 0.075831 0.116157 0.0337429 0.999431 0
-0.0287372 0.121862 0.164355 0.0667455 0.784939 -0.615968
0.00976112 -0.446904 0.190736 0 0.991445 -0.130526
0.00579382 0.459455 0.110738 0.187333 0.881083 -0.43428
0.000544522 -0.228011 0.502932 0 0.263212 0.964738
-0.0112038 -0.215233 0.155851 0 -0.186953 -0.982369
0.00156289 0.242975 0.340145 0.187186 -0.31593 0.930134
-0.00319654 -0.290997 0.00849985 -0.187381 0.128211 -0.973884
-0.0519244 0.0445154 0.114868 0 -1 0
0.0444812 0.293592 0.175483 0 0.999879 -0.0155578
0.0162577 -0.351325 0.33248 0.990244 0.0533227 -0.12874
-0.0154148 0.0830199 0.433208 -0.840652 0.0159666 0.541341
-0.00364573 -0.0164495 0.273797 -0.355037 0.556707 0.751017
-0.0494538 -0.213567 0.57956 0 0.98767 0.156553
0.00431512 -0.19581 0.322716 0.187276 0.597974 0.779329
0.0128485 -0.247615 0.273679 0 -0.838281 0.545238
-0.00664706 0.165884 0.0637811 -0.536294 -0.70168 -0.469078
0.0683295 -0.221175 0.566306 -0.925786 -0.131921 0.354283
0.0120802 0.356897 0.140919 0 -0.598716 -0.800961
-0.0191982 0.159366 0.404223 0.000163439 0.382696 0.923874
0.00294157 0.354353 0.308757 0 0.303346 0.952881
0.0168411 0.0889678 0.205485 -0.877476 0.222105 -0.425095
-0.00510049 -0.212945 0.42685 -0.529947 0.825903 -0.192459
-0.0343714 0.0223714 0.222224 -1 0 0
0.0245616 0.135243 0.307401 -0.728838 -0.389973 -0.562775
-0.0231897 0.036742 0.219695 0 -0.954059 0.299618
-0.104664 -0.228979 0.600811 0 -0.793761 0.608229
-0.00099406 0.161023 0.233568 0 0.896944 -0.442145
0.0016876 0.0612896 0.381509 0.0498652 0.229454 0.972041
-0.00276557 -0.129563 0.426095 -0.455357 0.20454 0.866495
0.00160905 0.440224 0.196073 0 0.997848 0.0655715
-0.0056316 -0.202928 0.470984 -0.530184 0.825238 -0.194647
0.00791786 -0.2031 0.431817 0.946146 -0.0743758 -0.315081
0.0140733 0.141401 0.120485 0.810741 -0.554311 -0.188252
0.00897986 -0.311148 0.0111457 0.536163 -0.110179 -0.836893
0.00372948 -0.211697 0.303917 0 -0.608801 -0.793323
-0.0067906 -0.0679403 0.408291 -0.833195 0.127041 0.538188
0.0439886 -0.259535 0.252702 -0.805248 0.567937 -0.170363
0.00125581 -0.0472257 0.277751 0.119681 -0.590503 -0.798112
0.0129072 -0.25547 0.157571 0 -0.658768 -0.752346
-0.0216974 0.0996122 0.332978 0.520028 -0.430637 -0.737647
-0.00385878 -0.0404982 0.388807 -0.550418 -0.191805 -0.812558
-0.0111063 -0.280951 0.0601945 0 -0.995986 -0.0895062
-0.0109767 0.201139 0.285979 -1 0 0
0.00710159 0.0472664 0.238697 0.542975 -0.784754 0.298897
-0.0112839 0.304109 0.162521 0 0.321292 -0.94698
0.00823824 0.392271 0.290736 0 -0.659163 -0.752
0.0158774 -0.437086 0.255006 0.99023 0.128832 -0.0533604
-0.0528854 -0.278349 0.17193 0.883426 0.456053 -0.107585
0.0995755 -0.212355 0.594826 0 0.924732 -0.380618
-0.00522819 0.325748 0.31561 0 0.194865 0.98083
-0.0113658 -0.188221 0.199513 0 -0.048274 0.998834
-0.0100815 0.103438 0.362021 -0.997053 -0.0716867 0.0273043
-0.0103826 -0.281111 0.302809 0 -0.995986 0.0895066
-0.0449131 0.243416 0.18158 -0.9824 -0.111148 -0.150123
0.0213212 0.127561 0.394799 -0.00137931 -0.382758 -0.923848
-0.0136931 -0.414481 0.283636 -0.990229 0.110641 -0.0848871
-0.0343714 0.0705638 0.236077 -1 0 0
0.00313319 -0.220866 0.396394 -0.00434227 -0.229816 -0.973225
-0.0107646 -0.445772 0.183812 -1 0 0
-0.00204278 -0.230237 0.436115 -0.216172 -0.950056 0.225086
0.0120988 0.192043 0.105486 0 -0.608329 0.793685
-0.0299585 0.0968804 0.247182 0.0366121 0.754128 0.655706
0.0597109 -0.300408 0.175445 0 -0.492589 -0.870262
-0.00335101 0.299419 0.00160869 -0.18714 0.064463 -0.980216
0.00104636 0.0297504 0.220767 0.119681 -0.590503 -0.798112
0.0160721 0.238931 0.323327 0.990228 0.0448533 -0.132044
0.011826 -0.14986 0.166098 0 -0.991445 0.130526
-0.0109767 0.173189 0.255505 -1 0 0
0.0140698 0.227939 0.024682 0.810962 -0.25866 -0.52482
0.0455216 -0.229072 0.525127 -0.12295 0.991297 0.04705
-0.0105568 0.351316 0.150499 0 -0.250595 -0.968092
0.01263 -0.29887 0.181807 1 0 0
0.0158728 -0.304749 0.339225 0.990234 0.0181978 -0.13822
0.012418 0.197578 0.280205 -1 0 0
-0.0108689 0.25422 0.269263 0 -0.872028 -0.489457
-0.0061262 -0.190533 0.27753 0 0.793338 0.608782
-0.0284631 0.143275 0.234998 0.0166617 0.00966985 -0.999814
-0.0131974 0.280586 0.0230285 -0.866348 0.097332 0.489864
-0.00828375 0.127975 0.159515 -0.537033 -0.841747 -0.0552929
0.00956371 0.469982 0.169556 0.536545 0.842054 0.0553541
-0.0023963 0.0514397 0.36658 -0.311958 -0.218272 -0.924683
0.0226177 0.135735 0.202113 -0.988545 0.0979556 0.114817
-0.00192064 0.169573 0.099818 0 0.831326 0.555785
0.059927 -0.225332 0.547491 -0.742104 0.607149 0.283993
-0.0234609 0.188818 0.227447 0.997428 -0.0713267 0.00705678
0.00928492 0.247655 0.0107304 0.5362 -0.164488 -0.827909
0.0155287 -0.155298 0.240505 0.99023 -0.128832 -0.0533604
0.0111036 0.452167 0.250688 0.536362 0.799118 0.271523
0.00209311 -0.225982 0.371093 0.245621 0.943204 -0.223689
-0.0133221 0.106895 0.40336 -0.000185688 -0.382691 -0.923876
0.00686993 -0.33003 0.0423368 0 -0.13053 -0.991444
-0.0105284 -0.435747 0.200807 0 -0.066166 -0.997809
-0.00291607 0.441348 0.13171 0 -0.98081 0.194968
0.0343004 0.111443 0.334725 0.728195 0.390611 0.563165
-0.029777 0.239865 0.231088 0.985264 0.148011 0.0857186
0.0150956 -0.402715 0.0554385 0.970806 -0.14603 -0.190294
0.0126022 0.324932 0.308017 0 -0.988034 0.154236
0.0089667 -0.343481 0.0464468 0 -0.382649 -0.923894
0.00861517 0.446526 0.157758 0 -0.98081 0.194968
0.00499685 -0.147056 0.429261 0.551717 0.19161 0.811723
0.00591902 -0.285696 0.189408 0 0.923695 0.383128
-0.148004 -0.212905 0.5905 0 0.800886 -0.598817
0.00388769 -0.14507 0.0978044 0.187797 0.907432 -0.375897
-0.0308224 -0.23332 0.367626 0.673906 0.325097 -0.663448
0.0334272 0.235149 0.227108 -0.534631 -0.498614 -0.682315
-0.0329722 0.171192 0.387355 -0.790793 0.5654 -0.234456
-0.0355849 0.0381855 0.257667 -0.999505 0.0185393 -0.0254335
0.01263 -0.304563 0.038062 -1 0 0
0.00653665 0.0662626 0.289598 0.542932 -0.78478 0.298907
-0.0829723 -0.225451 0.601458 -0.196884 0.608022 -0.76912
-0.0399532 -0.237718 0.349877 0.928102 0.194129 -0.317711
-0.0111782 -0.232941 0.0276402 -0.811016 0.223861 -0.5405
-0.0248904 0.17776 0.198332 0.905257 0.144236 0.399632
-0.00664328 -0.350385 0.315486 0 -0.382667 0.923886
0.0220315 0.0492521 0.29206 -1 0 0
0.0122837 -0.258199 0.196131 0 -0.048274 0.998834
-0.00994183 -0.17411 0.256129 0 0.793313 0.608814
0.0381563 0.257662 0.187806 -0.085478 0.165952 0.982422
0.0160407 -0.446857 0.242684 0.970812 -0.221578 0.0917967
-0.0109798 -0.325922 0.27796 0 -0.978298 -0.207203
-0.0105929 -0.368086 0.304406 0 -0.838281 -0.545239
0.00504191 0.015144 0.232958 0.570392 -0.489874 -0.659301
-0.0440276 -0.297491 0.186938 -0.0213402 0.129996 0.991285
-0.000876767 -0.222963 0.467968 -0.21592 -0.95019 0.224759
0.00119694 0.431742 0.288582 0.187029 0.816649 0.545989
-0.063967 -0.293264 0.179776 0 0.925021 -0.379915
-0.0137371 0.194838 0.0485962 -0.970545 -0.158808 -0.18117
-0.009088 -0.251306 0.317963 0 0.382723 0.923863
0.00873033 -0.0788455 0.308713 0.986959 -0.098485 -0.127329
0.011307 0.154975 0.218109 0 0.980839 -0.194821
-0.0517381 -0.262447 0.297347 0.0813682 -0.971678 0.22186
0.0120466 0.267862 0.0954613 0 -0.962699 0.270574
0.00763115 0.0790598 0.321208 0.542975 -0.784754 0.298897
0.0291659 -0.223533 0.486341 -0.318605 0.382759 0.867172
-0.00747052 0.464382 0.131801 -0.536766 0.827556 -0.164422
0.0168186 -0.226363 0.376611 -0.136939 0.922153 -0.361776
0.0115356 0.437247 0.217298 0 0.984259 0.176731
-0.0172153 0.286443 0.158443 -1 0 0
-0.00498648 -0.214472 0.0660562 0 0.608782 -0.793337
0.0583603 -0.273343 0.183197 0.722936 0.680592 -0.118989
-0.0290361 0.235921 0.185862 0.981942 0.111576 0.152776
-0.024924 0.0775406 0.212536 -0.856452 -0.319256 0.405666
-0.00831972 -0.00100791 0.385859 -0.982574 -0.0427028 -0.180903
-0.0112719 0.384949 0.11995 0 -0.598716 -0.800961
0.01263 -0.168305 0.112788 -1 0 0
0.015765 0.428598 0.0855784 0.99022 -0.104911 0.0919643
-0.019384 0.134893 0.39176 0.000401527 -0.382659 -0.92389
0.00102037 0.101262 0.428291 0.000338009 0.382679 0.923881
-0.0136885 -0.176324 0.0735154 -0.970766 0.190432 -0.146113
0.00863267 0.100707 0.364364 0.982574 0.0427019 0.180899
0.00573402 0.0669493 0.209167 -0.777414 0.430384 -0.45869
-0.00883094 -0.149246 0.36404 -0.986972 0.0984363 0.127264
0.0554566 -0.28359 0.195821 0.659918 -0.724549 0.198839
-0.0107793 0.289811 0.343697 -0.81093 -0.0383917 0.583882
0.149431 -0.21219 0.593445 0 0.924393 -0.381443
-0.0385034 0.0433162 0.102074 0 0 -1
0.0140016 0.382588 0.0492539 0.866482 -0.277438 0.415015
-0.128607 -0.22113 0.604764 0 0.130689 0.991423
0.00415708 0.272019 0.316867 0 -0.0656243 0.997844
0.0239763 0.0975123 0.33455 -0.310871 -0.521442 -0.794643
0.0145104 -0.381456 0.0548 0.866347 0.304023 0.396247
-0.0109767 0.180934 0.0843723 -1 0 0
-0.0191161 0.0884074 0.414337 -0.874299 -0.273997 -0.400658
-0.0196107 0.0659267 0.211473 -0.855353 -0.509974 -0.0910975
-0.0139705 -0.142466 0.198185 -0.990254 -0.138079 -0.0181958
-0.0343714 0.0235874 0.193682 -1 0 0
0.0749997 -0.217939 0.583921 -0.754002 -0.381545 0.5347
0.0123818 -0.223934 0.334415 0.811067 0.223831 0.540435
-0.0284258 0.221231 0.242406 0.985139 -0.0490636 -0.164601
-0.00352848 0.285621 0.169056 0 -0.946757 -0.32195
-0.0686543 0.0439587 0.116166 0 0 1
0.0487666 0.0540949 0.314892 0 0 1
0.0683272 0.072267 0.300856 0 0 -1
0.0634813 0.0345336 0.314892 0 0 1
-0.0108965 0.392622 0.316553 -0.811061 0.385586 0.439891
-0.059481 -0.274032 0.240773 -0.740349 -0.640553 0.203902
0.00776415 0.144365 0.410437 0.000603501 0.382694 0.923875
-0.00991032 0.0828316 0.359892 0.468505 0.724819 0.505113
0.0157463 -0.392387 0.31396 0.970797 -0.146053 0.19032
0.0213666 -0.213779 0.578087 0 0.987655 -0.156643
-0.0108306 -0.276187 0.169532 0 -0.0482814 -0.998834
0.000264123 0.471003 0.151913 -0.18714 0.963495 -0.191456
0.0509141 -0.250867 0.272198 0.121969 0.968922 -0.215207
0.0716224 0.053135 0.314892 0 0 1
-0.0323023 0.213773 0.181037 0.415071 -0.107602 -0.903404
-0.0146356 0.435392 0.0931888 -0.99008 -0.126025 0.0621206
0.00250519 -0.190769 0.384351 0.35343 -0.557075 -0.751502
-0.00527504 -0.240981 0.388358 0.0507821 -0.985065 0.164525
-0.014162 0.42005 0.283409 -0.970546 0.158802 0.181168
0.0110546 0.42334 0.245482 0 0.831306 0.555815
-0.00537339 -0.405836 0.317132 -0.536191 -0.51383 0.669685
-1.99331e-05 -0.148513 0.17633 0 -0.991445 0.130526
-0.063536 -0.215527 0.555773 0.569527 -0.792247 0.219051
-0.00461266 0.137486 0.240588 -0.187137 -0.881118 0.434294
0.0139647 -0.443869 0.0997076 0.811155 -0.540316 -0.223801
0.012844 -0.300671 0.164034 0 -0.838281 0.545238
-0.0140194 0.332561 0.0232303 -0.990081 -0.045192 0.13303
-0.0142855 0.232913 0.318668 -0.990084 0.045181 -0.133009
-0.0142261 -0.40651 0.0666886 -0.990229 0.0848991 0.110629
-0.0145304 0.450243 0.225693 -0.970569 0.228031 0.0774491
0.00232778 -0.205788 0.502706 -0.923463 0.37007 -0.10131
0.011372 0.127893 0.189443 0.810804 -0.574101 0.114035
0.0147591 -0.362547 0.03012 0.811013 -0.223862 -0.540503
-0.00378191 0.105437 0.391332 0.570186 0.767688 -0.292476
0.00505477 -0.249009 0.349747 0.187526 0.375884 0.907494
-0.0108216 0.467179 0.175483 -0.810809 0.584053 0.0383656
0.00178182 0.0647943 0.421199 0.0463091 -0.683401 -0.728573
-0.00112403 -0.317565 0.0348467 0 0.130526 0.991445
0.0134899 0.393241 0.0379719 0.810966 0.325182 -0.486405
-0.0143982 0.241793 0.0273028 -0.990086 0.0620901 0.125995
-0.0140826 0.176595 0.272218 -0.990079 0.105662 -0.0926254
-0.00258982 0.372366 0.298173 0 0.442109 0.896961
0.00125274 -0.124087 0.195798 0.1882 0.973732 0.128165
0.0125005 -0.283673 0.274305 0 -0.995986 0.0895066
-0.0107877 0.320678 0.342709 -0.810925 0.114025 0.573933
-0.0227675 0.15791 0.19419 0.93433 0.0261013 -0.355452
0.00385417 0.161138 0.38089 -6.82994e-05 -0.3827 -0.923873
0.0506812 0.0340051 0.300856 0 0 -1
0.0262524 0.0511608 0.206445 0 0.217349 -0.976094
0.000641453 -0.0873958 0.41666 0.0501711 0.229453 0.972026
0.00832123 -0.129724 0.222562 0.535878 0.837072 0.110206
-0.0311764 0.0949481 0.20582 -0.963067 -0.234537 -0.132269
-0.014217 -0.443897 0.249389 -0.970812 -0.221578 0.0917967
0.00604574 -0.411288 0.269575 0 -0.793338 0.608782
-0.00639501 -0.439013 0.158567 0 -0.991447 -0.130507
-0.00257964 -0.256871 0.0382493 0 -0.382656 0.923891
-0.000775739 0.150219 0.157337 0 0.997846 0.0655944
-0.0297091 -0.21407 0.496624 -0.168012 -0.923489 -0.344878
0.0336318 -0.245735 0.362267 -0.587296 -0.765734 -0.262173
-0.056683 -0.249003 0.316348 -0.995779 -0.0413668 0.0819348
-0.00193347 -0.0977632 0.334847 -0.119717 0.590501 0.798108
0.00465143 -0.192257 0.403306 0.582414 0.481536 0.654918
0.00128528 -0.337396 0.320866 0 -0.382667 0.923886
-0.0470399 0.296057 0.168137 0 -0.0542219 -0.998529
-0.0119431 0.301988 0.188663 0 0.194595 0.980884
-0.00359492 0.206412 0.322265 -0.187013 -0.545969 0.816667
-0.0139478 -0.157425 0.264925 -0.970811 0.190275 0.14602
-0.0395212 -0.232978 0.38353 -0.301694 -0.287216 -0.909113
0.0170969 0.310928 0.171845 1 0 0
-0.00550238 -0.16729 0.295673 -0.536166 0.66969 0.513849
-0.00866317 0.260343 0.31805 0 -0.459337 0.888262
0.00873503 -0.131243 0.350502 0.992704 0.0688069 0.0990194
-0.0543691 -0.24637 0.295273 -0.393645 0.900941 -0.182615
-0.0209729 0.132288 0.31565 0.985142 0.148477 0.0863126
-0.000102276 -0.134595 0.122133 -0.187803 0.907431 -0.375897
0.0475492 -0.256799 0.318411 0.46099 -0.859785 0.219679
-0.0046314 0.209117 0.0553749 0 0.659222 0.751948
-0.0232418 -0.307413 0.177613 -1 0 0
0.0273724 0.188306 0.272978 -0.891401 0.319495 0.321445
-0.0100246 0.0891274 0.326524 -0.997053 -0.0716867 0.0273043
0.012418 0.220935 0.0512003 -1 0 0
0.00753582 -0.33059 0.0127801 0.53615 -0.110182 -0.836901
0.0351269 0.213445 0.242798 -0.107382 -0.610797 -0.784472
0.0120264 0.431197 0.184775 0 -0.0169294 -0.999857
0.00194795 -0.11662 0.406187 0.210941 -0.224575 -0.951352
0.0244558 0.0428623 0.244303 0 -1 0
-0.0142264 -0.254815 0.0292688 -0.990234 -0.05335 0.128802
0.00412195 0.411925 0.262555 0 0.831314 0.555803
0.0129678 0.0870808 0.355428 -0.470302 0.72282 0.506308
-0.0652503 0.0252014 0.114949 0.0418299 -0.999125 0
0.00125015 -0.156919 0.207915 0 0.991448 0.130501
0.000836657 0.144972 0.258019 0.186839 -0.88114 0.434377
-0.0343402 0.283307 0.173288 0.812007 -0.0211753 -0.583263
0.00634479 0.0331568 0.236062 0.582499 0.4815 0.654868
-0.0325213 0.176025 0.287938 -0.204149 0.594519 0.777734
0.00940746 0.155155 0.0813431 0.536337 -0.701703 -0.468994
0.00198402 -0.116051 0.328782 0.119681 -0.590503 -0.798112
-0.0343714 0.0389912 0.206051 -1 0 0
0.0162096 -0.455607 0.20062 0.990234 0.138221 -0.0181945
0.00351908 0.291836 0.321505 0 -0.213783 0.976881
-0.0577401 -0.257223 0.248995 -0.393645 0.900941 -0.182615
0.00332941 -0.440339 0.281935 0.186951 -0.779379 0.598012
0.00325542 0.0305273 0.371882 0.455703 -0.204503 -0.866322
-0.0139525 0.374582 0.0404386 -0.990086 -0.0780619 0.116772
-0.00965154 0.0686231 0.279402 -0.938959 -0.321497 0.122452
-0.00762052 0.444774 0.148943 0 -0.98081 0.194968
-0.0400735 0.0553764 0.196673 -1 0 0
0.00972314 0.224374 0.297933 0 -0.555925 0.831232
0.0423983 0.228921 0.189173 0.920828 -0.0110067 0.389814
-0.00619104 -0.1601 0.141131 0 0.923861 -0.382728
-0.000935612 -0.220556 0.417013 -0.00355267 -0.803446 0.595367
-0.0138175 0.151811 0.226024 -0.866318 0.448033 -0.220817
0.0114107 0.132976 0.13381 0.811158 -0.553734 -0.188154
0.011828 0.272957 0.167503 0 -0.608329 0.793685
0.0114634 0.441326 0.266532 0.810759 0.486653 0.32533
-0.0105979 -0.337648 0.257609 0 -0.838281 -0.545239
-0.0061192 -0.366543 0.0245105 -0.536067 -0.323051 -0.779917
-0.00327981 -0.209609 0.0316874 -0.187296 0.597945 -0.779347
-0.00811315 0.0141434 0.243228 -0.986957 0.0984909 0.127337
0.0160609 -0.190666 0.0658394 0.990241 -0.0848374 0.110569
0.0133566 0.348204 0.335647 0.81093 0.114024 0.573926
-0.00339063 -0.227929 0.582501 0 -0.890604 0.454779
0.0366888 0.167527 0.391161 0.944416 0.326706 -0.0366179
-0.0203359 0.268924 0.208335 -0.997371 0.0724427 -0.00185095
-0.00319755 -0.429217 0.068904 -0.186816 -0.779392 -0.598037
-0.013569 0.146009 0.152866 -0.866253 0.498528 0.0327764
-0.0124527 0.120904 0.420154 -0.000429443 0.382664 0.923888
-0.013676 -0.158978 0.0960368 -0.970808 0.190282 -0.146027
0.0264699 0.182005 0.195343 -0.920759 0.133176 0.366699
0.0159222 0.448732 0.12264 0.990224 -0.125111 0.06167
0.00134939 -0.204729 0.394297 0.120916 -0.59041 -0.797995
-0.011206 0.271703 0.305269 0 -0.989723 -0.142997
0.0521731 -0.24871 0.286505 0.722344 0.681193 -0.119146
-0.0121326 -0.18851 0.308354 -0.810979 0.356199 0.46415
-0.00848125 -0.0729252 0.305386 -0.992703 -0.0688084 -0.0990213
0.00393889 -0.186087 0.0835302 0 -0.79332 0.608804
0.015971 -0.140083 0.177339 0.990254 -0.138079 0.0181963
0.0121107 0.170033 0.238726 0 -0.896924 0.442184
-0.0144777 0.188547 0.0610037 -0.990087 0.0925855 0.105618
-0.00337388 -0.408161 0.0816182 0 0.793407 0.608692
0.0123859 0.409474 0.275657 0 -0.659163 -0.752
0.00454628 0.434125 0.234686 0 0.984259 0.176731
0.0170969 0.294367 0.18187 1 0 0
-0.0333296 0.0551049 0.25862 -1 0 0
0.000953124 0.249949 0.0395211 0 -0.442086 -0.896973
-0.0101634 -0.325574 0.194374 0 -0.658769 -0.752346
-0.00641013 0.149163 0.188846 0 0.980839 -0.194821
-0.00988242 -0.392374 0.290196 0 -0.608778 0.793341
-0.0543584 -0.270639 0.195949 0.741408 0.653123 -0.154095
-0.0136482 -0.296268 0.0183362 -0.970804 0.0313092 -0.23782
0.0130275 -0.314189 0.075873 0 -0.997809 0.0661567
0.004681 -0.423016 0.254077 0 -0.923917 0.382592
-0.0107646 -0.193159 0.289233 -1 0 0
0.00218978 0.421216 0.0518475 0.187228 0.738724 -0.647481
0.01263 -0.43721 0.132359 -1 0 0
0.0156725 0.390756 0.302187 0.990238 -0.0918758 -0.104818
-0.0364676 0.0439231 0.142923 1 0 0
-0.014326 -0.21535 0.319061 -0.990234 -0.0848729 -0.110603
-0.0164477 0.0991037 0.205979 0.972776 0.195626 -0.124248
-0.0068101 0.348335 0.0107468 -0.536437 0.271475 -0.799085
-0.0811341 0.0532279 0.102129 0 0 -1
-0.00794757 0.40299 0.0689118 0 -0.751942 0.659229
-0.014469 0.433574 0.25728 -0.990086 -0.116774 -0.0780555
0.0146092 -0.273247 0.332764 0.866415 -0.0651687 -0.495053
0.145155 -0.221809 0.605513 0 0.130252 -0.991481
-0.0143547 -0.453792 0.149817 -0.990234 0.138221 0.0181949
-0.0101623 -0.354609 0.169366 0 -0.0661735 0.997808
-0.0348363 0.112609 0.3303 -0.985724 0.0471718 0.161629
0.0386862 0.154376 0.297406 0.98593 0.0526577 0.15865
-0.0133341 -0.339923 0.0223829 -0.9708 -0.0313151 -0.237839
-0.0151031 0.0714221 0.422587 -0.900556 -0.401566 0.166563
-0.00783245 -0.348789 0.346458 -0.53601 -0.323063 0.779951
0.0131562 -0.425932 0.103282 0.866461 0.396097 0.303896
0.0125467 0.365744 0.1209 0 -0.70641 -0.707803
0.012418 0.320675 0.0315457 -1 0 0
-0.0429333 0.215699 0.250754 -0.890774 0.234218 0.389439
0.0129967 -0.386145 0.117382 0 -0.658768 0.752346
-0.0138896 -0.140919 0.226542 -0.97084 0.221482 0.0917399
-0.0242156 -0.229141 0.491892 0.00658467 0.99133 0.131232
-0.01077 -0.384044 0.0608858 -0.866347 0.304023 0.396247
0.00131709 0.294028 0.188494 0 -0.321545 0.946894
-0.0474831 0.0561067 0.105508 0 1 0
-0.00179727 0.356936 0.339838 -0.186993 0.434315 0.881138
-0.0445251 0.281806 0.189227 -0.322118 -0.601642 -0.730936
-0.0105318 -0.31791 0.137529 0 -0.838281 0.545238
0.050968 -0.248569 0.336489 0.906554 -0.394394 0.150379
-0.00561165 0.347668 0.034803 0 -0.321638 0.946863
0.00595986 -0.465257 0.230675 0.187093 -0.907572 0.375912
0.0124308 0.191721 0.0446738 0.811046 -0.385607 -0.439898
0.013153 0.329507 0.339649 0.810894 0.114041 0.573973
0.0145621 0.449722 0.196708 0.866524 -0.498056 -0.0328163
0.0137809 -0.217748 0.499634 0.0463971 -0.382884 -0.922631
0.00803364 -0.166435 0.254108 0 -0.923902 -0.382629
0.0120555 -0.318578 0.121509 0 -0.978298 0.207202
-0.0180395 -0.286114 0.189956 0 0.793041 0.609169
-0.0187663 0.120177 0.397856 0.000401527 -0.382659 -0.92389
-0.0740796 -0.213729 0.591474 -0.0776004 -0.991789 -0.101651
0.01597 -0.169339 0.279408 0.970768 0.190428 0.146107
0.000489371 0.115998 0.403403 -0.000573443 -0.355892 -0.934527
0.0285138 0.208961 0.18795 -0.988533 0.0568262 -0.139902
0.00324391 0.465909 0.221349 0.186559 0.930214 0.316067
-0.0263936 0.167301 0.161062 0.997408 -0.0692171 0.0196547
-0.0325829 0.00627773 0.224932 0.0254373 0.578981 -0.814944
-0.0124083 -0.44944 0.171483 -0.866307 0.495235 0.065221
-0.00473708 -0.351561 0.0497932 0 -0.382649 -0.923894
0.116367 -0.226281 0.60542 0 -0.608348 0.793671
0.00647047 -0.158562 0.22009 0 0.970626 0.240592
-0.0258104 0.0600512 0.224348 0 0.736923 0.675977
-0.0132308 -0.201377 0.0634014 -0.86642 -0.303972 0.396128
-0.0240023 0.145492 0.193218 0.63558 -0.0665556 -0.769161
0.00855066 0.0464106 0.375362 0.997232 -0.0170822 -0.0723651
0.007815 -0.239606 0.0200718 0.535952 0.323072 -0.779987
-0.0110979 0.219358 0.224619 0 -0.598711 -0.800965
-0.0409184 0.188056 0.271187 -0.985724 0.0471718 0.161629
0.0101205 -0.448655 0.264651 0.536118 -0.779891 0.323027
-0.00084209 -0.274906 0.0101652 -0.187381 0.128211 -0.973884
0.00514635 0.319513 0.00299869 0.187356 0.0644624 -0.980175
-0.0100615 -0.249218 0.345569 -0.810878 0.223971 0.54066
-0.0121102 0.411116 0.0509305 -0.81107 0.439865 -0.385596
-0.0112875 0.227551 0.132702 0 -0.608329 0.793685
-0.0581513 -0.266558 0.269084 -0.739764 -0.641198 0.203998
-0.0364676 0.0566154 0.187984 1 0 0
-0.0107646 -0.284282 0.0357626 -1 0 0
0.0129598 -0.340178 0.261497 0 -0.838281 -0.545239
-0.00927256 -0.229649 0.39314 -0.999873 -0.013973 0.00764921
-0.00624487 -0.057736 0.288606 -0.77657 -0.372282 -0.508276
0.00275595 0.14445 0.0926976 0.18739 -0.816617 -0.545914
0.0120352 0.194014 0.0763286 5.06645e-05 -0.659197 -0.75197
0.00312935 -0.299619 0.0188649 0 -0.991344 0.131292
-0.00324941 -0.0247007 0.261887 -0.359504 -0.55367 -0.751137
-6.74813e-05 -0.164263 0.417166 -0.0500153 -0.229455 -0.972033
0.0068989 0.379607 0.327655 0.535853 0.373281 0.757313
-0.0758312 0.0730637 0.10495 0.169011 -0.985614 0
0.0129575 0.329658 0.230051 0 -0.800967 0.598708
0.00854118 0.0751371 0.368451 0.997232 -0.0170822 -0.0723651
0.042372 0.032927 0.314276 0.126223 -0.992002 0
0.0117449 0.266296 0.342811 0.810954 -0.0383935 0.583849
-0.00842923 -0.128112 0.164069 -0.535733 0.837163 -0.110221
-0.041066 0.198148 0.258523 -0.89042 -0.324004 -0.319646
-0.0130674 -0.361207 0.334967 -0.811016 -0.22387 0.540496
-0.0109767 0.153775 0.171874 -1 0 0
-0.0439666 -0.252354 0.324595 0.823064 -0.563336 0.0722393
0.000522439 0.118765 0.350324 -0.0500153 -0.229455 -0.972033
-0.0109881 -0.314283 0.0744532 0 -0.997809 0.0661567
-0.00680833 -0.298765 0.332421 0 0.130526 -0.991445
0.0123186 0.342126 0.0329204 0 -0.321638 0.946863
-0.00303044 -0.0117531 0.398146 -0.455357 0.20454 0.866495
0.0315206 0.0426028 0.302764 1 0 0
-0.00840691 0.453033 0.102887 -0.53675 0.756801 -0.37303
0.0089622 0.468366 0.199988 0.536278 0.842226 0.0553247
-0.00125485 -0.14516 0.26759 -0.187891 0.907417 0.375887
-0.0144521 0.316315 0.155732 0.999961 -0.00173601 -0.00859861
-0.0135505 -0.274684 0.334365 -0.866415 -0.0651687 -0.495053
0.00868589 -0.00608189 0.261086 0.91778 0.233423 0.321238
0.00048632 0.0909949 0.359201 0.0686605 -0.932304 0.355099
0.00423276 -0.44222 0.222863 0 0.923839 -0.382782
-0.0143441 0.147451 0.118751 -0.97057 -0.228018 -0.0774769
0.0159145 -0.45242 0.156031 0.990242 0.138162 0.0181955
0.00134653 0.280002 0.0329838 0 -0.194878 -0.980828
-0.0255281 0.185425 0.160842 -0.997343 0.0700752 -0.0199127
0.0261558 0.156728 0.405316 -0.000227026 0.382669 0.923885
0.00677226 0.059707 0.224428 0.632991 0.723458 -0.275555
0.0113635 0.203444 0.316171 0.811015 -0.325138 0.486354
0.0204283 -0.299233 0.19587 1 0 0
0.0258815 0.0568241 0.278273 0 1 0
-0.0107646 -0.222986 0.306622 -1 0 0
0.00155256 -0.173339 0.371103 0.119681 -0.590503 -0.798112
-0.0364676 0.0532938 0.115492 1 0 0
-0.00339218 -0.32518 0.328943 0 0.130526 -0.991445
-0.0417207 -0.227246 0.575709 0 -0.726527 -0.687138
-0.00493148 0.0715007 0.377373 -0.665092 0.171561 0.726788
-0.00559042 -0.310194 0.188972 0 -0.923793 0.382892
0.00194495 0.106907 0.370697 0.310892 0.218355 0.925023
0.00730522 0.175805 0.297177 0.536121 -0.634787 0.556435
0.0397514 0.297707 0.195886 0 0.508922 0.860813
-0.00967465 -0.303956 0.0389038 0 -0.130533 -0.991444
0.0546852 0.0638928 0.301013 0.0259508 -0.999663 0
0.0215394 0.11613 0.327448 -0.985287 0.144679 0.090979
-0.0144815 0.405404 0.291666 -0.990091 -0.092566 -0.1056
-0.000473234 -0.472134 0.190336 -0.187132 -0.973932 0.128213
-0.00701772 -0.432812 0.119222 0 0.923839 0.382782
-0.00871665 -0.130047 0.150771 -0.535733 0.837163 -0.110221
0.000492464 0.341431 0.31764 0 0.046367 0.998924
0.00553203 -0.359144 0.0466581 0 0.38271 0.923868
0.112825 -0.220083 0.589743 0 -0.130684 0.991424
-0.0120995 0.316294 0.00921326 -0.810934 0.038403 -0.583875
-0.000873796 0.309827 0.032614 1.68043e-05 0.0656343 -0.997844
0.0154819 0.366833 0.0347023 0.990229 -0.0448504 0.132038
0.0124507 0.30483 0.146639 0 -0.999703 -0.0243851
0.0147008 0.167329 0.0737239 0.81107 -0.486288 -0.325099
-0.027255 -0.244122 0.378479 0.0414914 -0.987086 0.154727
0.0929053 -0.218272 0.606397 0 0.382424 0.923987
-0.0129962 -0.451185 0.120622 -0.811158 -0.540312 -0.223799
-0.0115742 -0.446645 0.104507 -0.811158 -0.540312 -0.223799
-0.00112419 -0.168386 0.106595 0 -0.79332 0.608804
0.0116257 0.170051 0.0991031 0 0.831326 0.555785
-0.0597837 -0.285406 0.198318 -0.246221 -0.943321 0.222533
-0.0112111 0.388523 0.185497 0 -0.0169294 -0.999857
-0.0105831 0.321314 0.129895 0 -0.793685 -0.608329
0.0116091 -0.390594 0.294081 0 -0.720282 0.693681
0.0161305 -0.261887 0.0253807 0.970807 0.031306 -0.237809
0.0338484 0.28261 0.19546 -0.985437 -0.0541846 -0.161177
0.0259223 0.173938 0.280455 -0.985309 -0.054683 -0.161788
-0.0318291 0.265364 0.208887 0.98526 -0.0485862 -0.164017
0.0110194 -0.285579 0.0397177 3.78501e-05 0.130536 -0.991444
0.0114981 0.351108 0.315114 0 -0.442093 -0.896969
-0.0196243 0.124275 0.205706 0.905364 0.144205 0.3994
0.0895356 -0.228426 0.594169 0 0.92405 0.38227
-0.0536674 -0.287754 0.187525 1 0 0
0.000678587 0.101673 0.329792 -0.0706658 0.932174 -0.355047
-0.0126556 0.366077 0.310983 -0.866359 -0.220791 -0.447967
-0.0497515 0.0304028 0.114604 -0.308178 0.951329 0
0.0044299 -0.16893 0.0655345 0.187703 0.779255 -0.597937
0.0530197 -0.267812 0.261299 0.806141 -0.566728 0.170168
-0.00704723 -0.220061 0.402362 -0.731635 0.664192 -0.153487
0.0362632 0.220457 0.180492 -0.130218 -0.147297 -0.980483
0.0100554 -0.187376 0.273416 0 0.793338 0.608782
-0.0216742 0.220277 0.156116 0.0580023 0.663222 -0.746171
-0.00352502 -0.467613 0.220224 -0.187058 -0.973947 0.128205
0.0524389 -0.217542 0.574039 0 0.320228 -0.94734
-0.012547 0.209166 0.298021 -0.866334 0.277577 -0.415231
-0.0107646 -0.436418 0.234404 -1 0 0
0.00643739 0.180809 0.395342 0.000129815 0.382674 0.923883
-0.0888497 0.0300553 0.102129 0 0 -1
0.0149868 0.178036 0.270697 0.866445 0.37544 -0.329118
0.00904478 0.0817449 0.287902 0.812371 0.544958 -0.207545
-0.0107646 -0.382834 0.30271 -1 0 0
-0.0379036 0.0461743 0.223467 0 -0.319359 0.947634
0.0347343 0.135949 0.392038 0.539164 -0.427683 -0.725527
0.0416365 -0.21351 0.524658 0.11987 -0.991729 -0.0458716
0.0030654 -0.15248 0.0865448 0.187731 0.779253 -0.597931
-0.0186683 0.254179 0.213244 -0.997481 0.0694396 -0.0144879
0.0100507 -0.26415 0.350273 0.536087 0.110171 0.836943
0.0113922 0.0629558 0.253401 0.997045 0.0717859 -0.0273423
0.00582231 0.125795 0.159036 0.187529 -0.980144 -0.06443
0.01263 -0.407306 0.0887034 -1 0 0
0.0170969 0.286445 0.173326 1 0 0
-0.0116893 -0.416618 0.301906 -0.811012 -0.356127 0.464148
-0.00799307 -0.0349572 0.275475 -0.918816 -0.231992 -0.319308
0.015602 0.210068 0.3039 0.990229 0.0774981 -0.11593
-0.0301278 0.0814396 0.167895 0.997502 -0.0703843 0.00593082
0.0139858 0.158426 0.115501 0.86625 0.473058 0.160711
0.00305508 -0.231734 0.384269 0.611538 -0.123687 -0.781488
-0.0343714 0.0702828 0.209734 -1 0 0
0.0662893 0.0719524 0.314892 0 0 1
-0.00723855 0.0821169 0.287917 -0.739758 0.628806 -0.239502
-0.0103342 0.352303 0.260346 0 -0.800967 0.598708
0.00362497 -0.152401 0.146793 0 -0.991445 0.130526
0.0154792 0.262761 0.0241371 0.990231 0.0271728 0.136767
0.00587839 0.152267 0.204475 0 0.980839 -0.194821
-0.111657 -0.22706 0.588086 0 -0.608596 -0.79348
0.01263 -0.43803 0.218647 -1 0 0
0.00107899 -0.421166 0.10809 0 -0.793328 -0.608795
0.00753117 -0.215431 0.478485 6.07891e-07 -0.263139 -0.964758
-0.0141271 -0.151536 0.249665 -0.970811 0.221594 0.091769
0.0238089 0.108575 0.409242 0.964917 -0.242516 0.100602
0.00349576 -0.471902 0.174388 0.187126 -0.973934 -0.128207
0.01263 -0.164647 0.124706 -1 0 0
-0.000594533 0.040643 0.226733 -0.177748 -0.919629 0.350269
-0.00746357 0.300289 0.318726 0 -0.0656243 0.997844
-0.0145688 0.453812 0.143273 -0.990081 -0.137807 0.0273681
0.0458987 -0.278487 0.18669 -0.971495 0.21572 -0.0982954
0.0210291 0.140666 0.411969 -0.0017161 0.382609 0.923909
0.0168136 0.1531 0.384221 0.000190006 -0.382679 -0.923881
-0.0436904 0.263967 0.217165 -0.53477 0.495405 0.68454
0.00583601 0.431651 0.122327 0 0.89693 -0.442173
0.00151298 -0.233129 0.31671 0 -0.382645 -0.923895
-0.0562665 -0.279912 0.222518 0.080967 -0.971702 0.2219
-0.0599954 -0.223595 0.539914 0.862679 0.381693 0.331805
-8.59073e-05 -0.210886 0.445849 0.0512135 0.229442 0.971974
0.0102254 -0.228254 0.411693 0.975355 -0.21567 0.0465656
-0.00841961 -0.173276 0.428284 -0.997426 0.0164743 0.0697897
0.0259533 0.0428623 0.22958 0 -1 0
0.036555 0.284573 0.169604 -1 0 0
0.00909563 -0.410888 0.311769 0.53621 -0.513823 0.669675
0.000409172 0.449988 0.261347 -0.18683 0.816681 0.54601
-0.0146064 0.396383 0.0494701 -0.99008 -0.0780912 0.116804
-0.0976532 -0.216563 0.603422 0 0.609535 0.792759
0.012418 0.367931 0.049434 -1 0 0
-0.00933138 -0.235229 0.375954 -0.999909 -0.0114423 0.00715226
0.012331 0.324008 0.12638 0 -0.793685 -0.608329
0.0116847 0.450378 0.10073 0.81105 0.5247 -0.258626
-0.0364676 0.0444351 0.174273 1 0 0
0.00935378 0.282878 0.00377649 0.536109 -0.164514 -0.827963
0.0100194 -0.142646 0.110633 0.535894 0.780013 -0.323106
0.0153611 -0.458721 0.212976 0.970784 -0.237904 0.0313161
-0.0686712 0.0641716 0.1144 -1 0 0
0.00776123 -0.212716 0.406502 0.904988 -0.25547 -0.340195
-0.0121539 0.434783 0.24238 -0.866249 -0.473083 -0.160639
-0.125147 -0.213745 0.593981 0 -0.991774 0.127998
0.01263 -0.416277 0.266114 -1 0 0
-0.00899922 -0.29244 0.169577 0 0.383043 -0.92373
0.0159722 -0.15831 0.108785 0.99023 -0.128832 0.0533592
-0.00615461 -0.329076 0.0363621 0 0.130526 0.991445
-0.038496 0.0570613 0.131258 0 1 0
-0.0228384 -0.21361 0.579149 0 0.987655 -0.156643
-0.00636284 0.413579 0.0809894 0 -0.751942 0.659229
-0.0137504 0.322334 0.327106 -0.866376 -0.0973245 -0.489817
0.0152254 0.434308 0.248272 0.866284 -0.415304 -0.277625
0.0120867 0.288958 0.196162 0 -1 -0.000990998
3.07017e-05 0.0719464 0.361318 -0.78458 0.372001 -0.496033
0.00352161 -0.193815 0.290195 0 -0.608801 -0.793323
-0.00799173 0.410988 0.265669 0 0.739074 0.673624
0.0120368 0.22689 0.233354 0 -0.706411 -0.707802
-0.0328118 0.085156 0.235208 1 0 0
-0.0214529 0.111265 0.198695 0.63393 -0.0825315 -0.768974
-0.0105251 0.396475 0.198061 0 -0.122531 0.992465
-0.00366749 0.180518 0.0938834 0 -0.831334 -0.555773
-0.0121509 0.0752267 0.351339 0.2836 -0.46374 -0.839355
0.0128415 -0.326473 0.0842337 0 -0.978298 0.207202
-0.00360297 0.311819 0.17222 0 0.980937 -0.194325
0.0037402 -0.239361 0.0455014 0 -0.382656 0.923891
0.0402198 0.25848 0.207233 0.107732 -0.620557 -0.776725
0.00274221 0.0157709 0.375111 0.210941 -0.224575 -0.951352
0.00334879 0.15981 0.137911 0 -0.946865 -0.321631
-0.00381831 0.236219 0.305248 0 -0.321605 0.946874
-0.000781004 0.234495 0.012861 -0.187314 -0.434289 -0.881082
0.00853398 -0.0963397 0.40883 0.99723 -0.0170895 -0.0723955
0.00207408 -0.244487 0.321414 0 -0.382645 -0.923895
-0.0143372 -0.454195 0.210959 -0.990234 0.138221 -0.0181945
-0.0119886 -0.314511 0.33249 -0.866394 0.0651735 -0.495089
0.0147165 -0.427682 0.285067 0.811041 -0.464116 0.356103
-0.0232418 -0.304213 0.193741 -1 0 0
0.0155366 -0.336122 0.0321056 0.990234 0.0181973 0.138223
-0.0130293 -0.20693 0.483861 -1 0 0
-0.0135927 0.18908 0.29943 -0.970554 -0.181141 0.158784
-0.0113778 -0.288179 0.205714 0 -0.972735 0.231918
0.0299609 0.162132 0.380478 0.000710588 -0.382729 -0.92386
0.0103337 0.444656 0.0865931 0.536302 0.75706 -0.373149
-0.0239987 0.0832262 0.356416 -0.814811 -0.00948086 0.57965
-0.0151194 0.18003 0.38067 -0.320646 0.875246 -0.362118
-0.0351076 0.0244109 0.251582 -0.999665 0.00175572 -0.0258086
-0.0109767 0.420763 0.0974032 -1 0 0
0.0086324 -0.217103 0.0640361 0 0.608761 -0.793354
-0.00835967 -0.115822 0.341307 -0.904655 0.255893 0.340762
-0.00134048 0.199454 0.0308167 -0.187218 -0.647476 -0.738732
0.040024 -0.230442 0.361055 0.0826143 0.990009 -0.114267
0.0271095 0.0839898 0.21265 0.738677 -0.182706 0.648826
0.0309902 0.171068 0.201791 -0.12966 0.168186 0.977191
-0.0104355 -0.276296 0.255556 0 -0.972735 0.231918
0.0158058 0.448725 0.221592 0.990221 -0.132097 -0.0448656
-0.0343714 0.0261978 0.208664 -1 0 0
0.014322 -0.219697 0.313756 0.866354 -0.304054 -0.396209
0.0106469 0.0923523 0.322971 0.938946 0.321531 -0.122467
0.012699 0.361316 0.185958 0 -0.0169294 -0.999857
-0.00692172 0.438824 0.208514 0 0.984259 0.176731
0.0138835 0.284847 0.326071 0.866382 0.0327652 -0.498306
0.016004 -0.338523 0.33931 0.970809 -0.0313071 0.2378
0.0561483 -0.266038 0.211541 0.722936 0.680592 -0.118989
-0.0297695 0.0994831 0.345596 -0.705984 0.272973 0.653508
0.012418 0.150397 0.160131 -1 0 0
-0.148426 -0.225134 0.588566 0 0.382112 0.924116
-0.00180904 0.127516 0.206903 -0.187143 -0.963496 0.191452
-0.00645878 -0.304666 0.00987223 -0.536144 -0.110181 -0.836905
-0.0100277 0.109102 0.378853 -0.997053 -0.0716867 0.0273043
0.0555834 -0.260878 0.23762 0.722936 0.680592 -0.118989
-0.00781317 0.0619727 0.236803 -0.739711 0.628855 -0.23952
-0.00280047 -0.430261 0.294652 -0.186746 -0.779393 0.598058
0.00100169 -0.14425 0.349498 0.120916 -0.59041 -0.797995
-0.00241828 0.0830135 0.33705 -0.177748 -0.919629 0.350269
0.14095 -0.223356 0.588507 0 -0.130319 -0.991472
0.00857231 -0.0386568 0.395741 0.99723 -0.0170895 -0.0723955
-0.0677463 0.041965 0.102129 0 0 -1
-0.00830023 -0.115647 0.416173 -0.946083 0.0744192 0.315261
0.00282257 0.199566 0.288327 0 0.555695 -0.831386
-0.0382527 0.15501 0.294962 -0.985731 -0.146014 -0.0837562
0.0460457 -0.301078 0.179678 -0.0174667 0.826851 0.56215
0.00382052 -0.464848 0.132066 0.187093 -0.907575 -0.375904
-0.00057396 -0.37955 0.0574496 0 0.608726 0.79338
-0.0109767 0.168525 0.237736 -1 0 0
0.0476552 0.306395 0.174539 0 0.895554 0.444954
0.00967328 -0.187971 0.0510728 0.536143 0.513903 -0.669667
-0.0223945 -0.22797 0.58242 0 -0.890604 0.454779
0.00950902 0.139419 0.239924 0.536309 -0.757055 0.37315
0.0122714 -0.369713 0.307481 0 -0.382667 0.923886
0.012014 -0.249822 0.0474441 0 0.382706 -0.92387
0.00519492 -0.0556821 0.407557 0.551708 0.191612 0.811729
-0.0305927 0.167255 0.400955 -0.00286059 0.382684 0.923875
-0.00954889 0.287243 0.00707607 0 -0.99791 0.0646185
-0.0115093 0.245603 0.154462 0 -0.489425 0.872046
0.0160843 0.415566 0.28473 0.970791 0.158154 0.180423
0.00923075 0.414538 0.0908823 0 0.751985 -0.65918
-0.0559643 -0.30983 0.184555 0 -1 0
0.00319075 0.407725 0.0395779 0.187263 0.545887 -0.816664
-0.0137029 -0.385163 0.320412 -0.970797 -0.146053 0.19032
0.0222652 0.100419 0.201133 -0.592814 0.00153627 -0.805338
-0.0138986 0.452462 0.178271 -0.990076 -0.140229 -0.00921948
0.00744969 -0.160965 0.429897 0.898985 0.100621 0.426264
-0.0108665 0.373647 0.128398 0 -0.598716 -0.800961
-0.0105441 0.148141 0.0956573 -0.810765 -0.486677 -0.325278
0.00492277 -0.217711 0.585002 0 0.320228 0.94734
0.000143706 -0.0774838 0.39667 -0.0500153 -0.229455 -0.972033
0.00169985 0.0546418 0.212456 -0.538936 -0.831059 0.137438
-0.0136424 0.29245 0.328657 -0.866396 0.0327741 -0.498281
0.0109159 -0.316627 0.351685 0.536239 -0.110158 0.836847
-0.000436901 0.168489 0.248714 0 0.896944 -0.442145
0.0156292 -0.218447 0.0395125 0.970801 0.0918048 -0.221625
-0.0010972 -0.437326 0.145751 0 -0.991447 -0.130507
-0.0137653 -0.4057 0.2946 -0.990231 0.0848903 -0.11062
0.00597234 0.216683 0.0224393 0.187403 -0.434282 -0.881067
-0.00202664 0.442204 0.0761611 -0.186784 0.738767 -0.647561
-0.0477773 0.306542 0.17464 0 0.837629 -0.546239
0.0155246 0.460539 0.161065 0.970834 0.235156 -0.0467323
-0.0272592 0.147979 0.206628 0.0929619 0.165224 0.981865
-0.00842375 0.169649 0.399965 0.000167081 0.38269 0.923877
0.0120975 0.236419 0.311439 0 0.321711 -0.946838
-0.0290079 0.136254 0.163581 -0.0534502 -0.677077 0.733969
-0.102478 -0.219355 0.586354 0 0.130689 -0.991423
-0.00283604 0.161692 0.114337 0 0.946851 0.321672
0.0275118 0.171407 0.399236 -0.000227026 0.382669 0.923885
-0.0029802 0.386104 0.288432 2.95266e-05 0.659203 0.751965
0.00589943 -0.403202 0.0449863 0.18739 -0.597958 -0.779315
-0.0103274 0.219756 0.3264 -0.810981 -0.32517 0.486389
0.03675 0.18863 0.26272 0.322842 -0.600666 -0.731419
0.00955379 -0.354236 0.344301 0.536028 -0.323059 0.77994
-0.0247709 0.146686 0.386877 -0.000445206 -0.382688 -0.923877
0.0113634 0.0818618 0.301989 0.997044 0.0718055 -0.0273495
0.0304802 0.146578 0.205796 0.130223 0.147824 0.980403
0.0138161 -0.144976 0.249044 0.810814 0.540751 0.223984
-0.01056 0.161566 0.132741 0 -0.946865 -0.321631
0.0112292 0.0509397 0.218707 0.938918 0.321603 -0.122493
0.0118475 -0.127187 0.180349 0.810914 0.580159 -0.0763838
-0.0790688 0.026249 0.11446 -0.228514 -0.973541 0
0.0145661 0.0580325 0.203547 0 0.676863 -0.736109
-0.0137229 -0.30525 0.345387 -0.970807 -0.0313082 0.237808
-1.41989e-05 0.211417 0.289272 0 -0.555821 0.831302
