-0.0129927 -0.218999 0.360228 -0.965646 0.0510135 0.254804
-0.00951607 0.300685 0.330497 -0.256543 -0.00854064 0.966495
0.0224699 0.136632 0.265984 -0.0052419 0.994507 -0.104534
-0.0124385 -0.327042 0.0352913 -0.143523 0.422076 0.895127
-0.0488129 -0.238577 0.232496 -0.886977 -0.373622 0.271436
0.00165877 0.239925 0.543241 -0.0888754 0.253228 -0.963316
0.00220072 -0.120541 0.294416 0.253649 0.752321 0.60801
0.00207439 -0.356027 0.079639 0.632579 -0.688175 0.35533
0.00912788 -0.149226 0.320739 0.702878 0.441768 0.557498
-0.00339408 0.052302 0.235313 -0.0030268 0.666461 0.745534
-0.0117935 0.350486 0.274822 0.633422 -0.756223 0.164024
-0.0318513 0.21326 0.212644 0.586851 -0.139307 -0.797621
0.00112282 0.21145 0.525026 0.260277 0.922266 -0.285799
-0.00856101 0.458674 0.148262 0.252257 0.945016 -0.208112
-0.11867 -0.183301 0.590051 -0.868232 0.475971 0.140086
0.0112402 -0.248623 0.0225944 0.999379 -0.00321368 0.0350927
0.00819216 -0.113571 0.526969 0.99999 0.00442604 0.00076333
-0.0125161 0.218392 0.167836 0.627827 0.240682 -0.740206
-0.0025313 0.0775131 0.478564 -0.305349 0.271374 0.912753
0.00798649 -0.370859 0.203819 -0.629956 0.0345223 -0.775863
-0.0414234 -0.200381 0.319598 0.0120155 -0.959403 0.281783
-0.0129906 -0.0148756 0.284285 -0.999972 -0.00748075 0.000886843
0.00108999 -0.189498 0.299951 0.347751 -0.758937 0.55053
-0.00148416 0.314811 0.0336872 0.704446 0.00897517 -0.709701
0.0263466 0.201148 0.181886 0.926665 -0.240584 -0.288811
-0.00782383 -0.319739 0.0817479 -0.625097 -0.762951 0.164799
0.00262291 -0.0879658 0.179835 0.252261 0.967633 0.00709545
-0.0168038 -0.188644 0.594413 -0.000931459 0.279546 0.960132
-0.0342477 0.280989 0.197734 0.999662 0.0259865 -0.000875564
-0.0162005 0.23811 0.0691981 -0.706832 0.434432 0.558262
-0.0425762 0.249467 0.310122 -0.428655 0.783757 0.449421
-0.00211556 -0.265671 0.375519 -0.256719 -0.00857605 0.966448
-0.00623859 -0.134539 0.558286 -0.965848 -0.242614 0.0909728
0.00529588 -0.452809 0.244946 0.261921 -0.942452 0.207801
-0.0419543 0.307721 0.173673 -0.023562 0.406535 -0.913332
-0.00138707 0.170416 0.138532 0.708433 -0.686608 -0.163377
0.0123309 0.146377 0.184744 -0.575823 0.214118 0.789038
0.0322917 0.107443 0.27978 0.00522387 -0.994508 0.104527
-0.00708821 0.443334 0.253147 0.252982 0.868797 0.425665
0.0260333 -0.184633 0.375994 0.216621 -0.926636 0.307281
-0.0443551 0.0384476 0.117349 0.0052348 -0.994508 0.104527
0.00646269 -0.202928 0.0395529 0.706835 -0.308866 0.636386
-0.0383653 0.0748519 0.169463 -0.999986 -0.00520183 0.00054603
-0.012051 -0.287665 0.181266 0.0057704 -0.814063 -0.580748
-0.00258191 -0.0616438 0.336824 -0.211153 0.648931 0.73096
0.0297814 0.273535 0.556425 0.309276 0.368141 -0.876824
0.0115531 -0.216773 0.154452 0.626575 0.550833 0.55135
0.0418652 -0.290098 0.188289 0.00200822 -0.991811 -0.1277
0.00419503 0.252911 0.573508 0.0667887 0.124842 0.989926
0.00744566 0.12527 0.310467 0.949715 -0.291378 0.114631
0.00492946 -0.132358 0.114986 0.146689 -0.894299 0.422742
-0.00503887 -0.144161 0.205526 0.985483 -0.0952799 -0.140514
0.0109044 -0.45609 0.18365 0.708671 -0.705516 -0.00566607
-0.0131287 -0.263981 0.00846224 -0.965658 -0.00307891 -0.259798
-0.0262542 0.126401 0.208925 0.885344 0.446296 0.130327
0.0010069 0.427367 0.105709 0.999478 -0.0235959 0.0220694
-0.00566071 0.147405 0.380172 -0.573197 -0.763258 0.29813
0.000803807 -0.413182 0.109609 0.137433 0.889352 0.43608
-0.0112638 -0.168766 0.0380538 -0.707486 0.442726 -0.550869
-0.00619981 -0.25183 0.0592276 0.984582 0.10722 0.138211
-0.0134497 -0.320689 0.0165814 -0.965351 -0.0610598 -0.253712
-0.022677 0.157477 0.1895 -0.911445 -0.303749 -0.277495
-0.0189018 0.215893 0.385159 0.705069 0.693365 0.148736
0.000705089 0.314842 0.244786 0.984393 0.13968 0.107055
0.0494851 -0.239558 0.245414 0.017136 0.766889 -0.641551
0.000612169 0.361607 0.151325 -0.347676 0.550939 0.758675
0.00659288 0.198659 0.565766 0.147716 -0.0336918 0.988456
-0.0118493 0.185978 0.449442 -0.858329 0.364661 0.360961
-0.0180467 0.37631 0.186221 -0.631317 0.234117 -0.739343
-0.0198917 -0.183099 0.390226 -0.673777 -0.659535 0.333224
-0.00976495 0.269036 0.0744627 0.98549 -0.0659097 0.156412
-0.0213741 0.296908 0.155828 0.624992 0.763029 -0.16484
-0.0100641 -0.361833 0.32337 -0.145486 0.622219 -0.769205
-0.0076417 0.331587 0.329959 0.25668 0.209344 0.943552
-0.0126798 0.0239691 0.246989 -0.890442 -0.30438 -0.338329
-0.0015222 -0.350965 0.359378 -0.254727 -0.427101 0.867582
-0.0186352 0.373204 0.0665658 -0.994714 -0.0491606 0.0901533
-0.00438174 0.426056 0.27678 0.253707 0.752326 0.607979
-0.0129735 -0.125737 0.0835132 -0.708054 0.554159 -0.437683
0.00824031 -0.231048 0.348555 0.705261 -0.148999 -0.693113
0.0328801 0.310833 0.191129 0.0235657 -0.406532 0.913333
-0.00715463 0.262228 0.296775 -0.625719 -0.656936 -0.420608
0.115112 -0.210225 0.645208 -0.00301277 0.67321 0.739446
-0.018037 0.214498 0.272848 -0.999478 0.0235872 -0.0220591
0.0431782 0.275871 0.176316 0.976026 -0.216797 0.019277
0.0371435 0.270018 0.276253 0.673521 0.617863 0.405727
-0.00140197 0.372715 0.211649 -0.630724 0.200667 -0.749613
0.00400793 0.0703387 0.184515 -0.581415 0.757262 -0.297506
-0.0126173 -0.438167 0.169428 -0.995513 0.0946197 0.00129003
-0.0142572 -0.111521 0.192787 -0.994474 -0.104982 -0.00020081
-0.0181794 -0.257204 0.156001 -0.347708 0.726902 0.59221
-0.0124855 -0.190804 0.325667 -0.140133 -0.423549 -0.894968
0.0120581 -0.340503 0.0270417 0.965052 0.116227 0.234873
-0.116352 -0.235592 0.667331 -0.00300078 0.673209 0.739446
0.0485301 0.30968 0.16689 -0.30285 0.1657 0.938523
-0.00292225 -0.109325 0.276812 -0.261547 0.866129 0.425926
0.00700981 -0.310664 0.278902 0.625698 0.656951 0.420615
-0.0107241 -0.256891 0.102615 -0.633024 0.774125 0.00329601
-0.0120768 -0.125149 0.384539 -0.999972 -0.00748075 0.000886843
-0.0420351 0.0678749 0.105203 -0.00524021 0.994508 -0.104527
-0.000627608 -0.140756 0.249877 -0.984169 -0.165569 0.0632319
0.011175 -0.293412 0.348849 0.994937 0.00592636 -0.100326
0.00917882 -0.397167 0.301062 0.701677 0.561571 -0.438505
-0.0076042 -0.141201 0.542848 -0.965928 -0.246144 0.0799774
-0.00142349 0.173179 0.232243 0.708292 -0.637763 0.302623
-0.0290866 0.0489934 0.225726 -0.455146 -0.646905 0.611846
-0.0177118 0.197414 0.120367 -0.995436 0.0844094 0.0445172
0.0327584 -0.213746 0.305771 0.894992 0.446022 0.00735195
-0.073133 0.290726 0.177764 -0.775966 -0.169853 0.607476
0.0113744 -0.271254 0.200019 -0.00577035 0.814061 0.580751
0.00727961 -0.333514 0.113974 0.632579 -0.688175 0.35533
-0.0160265 0.451275 0.231513 -0.708085 0.633016 0.312901
-0.00338659 0.189241 0.455684 -0.260277 0.922264 -0.285806
0.00733744 -0.416392 0.272561 0.701374 0.645015 -0.303364
-0.00724075 -0.442372 0.267312 -0.701346 -0.645049 0.303357
0.00115075 0.385067 0.291393 0.995271 -0.0564657 -0.0790453
-0.0105768 -0.452451 0.227854 -0.701144 -0.696391 0.153092
0.0131104 -0.00450197 0.27654 0.889059 0.308759 0.337996
0.0164463 -0.270833 0.15501 0.985671 -0.12947 -0.108125
0.00148455 0.250246 0.293262 0.994714 0.049159 -0.0901487
0.0397552 0.296153 0.219018 0.470924 -0.827997 -0.304386
0.00077271 -0.121857 0.141462 0.146891 -0.965957 0.212954
-0.0185047 0.339333 0.0464908 -0.965053 -0.0648535 0.253904
-0.0137192 -0.256398 0.0236789 -0.994935 -0.00592871 0.100344
0.01023 -0.115924 0.219226 0.995486 -0.0919552 -0.0234818
0.0121129 -0.355479 0.338445 0.999213 0.0213387 -0.0334249
-0.00689351 -0.0450177 0.505539 -0.949808 -0.0935697 -0.298513
-0.00137483 -0.187741 0.420234 0.00517021 -0.951435 0.307805
0.00620837 -0.268208 0.295498 -0.339545 -0.935283 0.0997783
-0.00590981 -0.153324 0.397958 -0.202195 -0.653321 -0.729581
0.00433931 -0.385967 0.0683003 0.254586 0.598166 0.759858
0.000513927 -0.0810744 0.331901 0.00300896 -0.664573 -0.747217
-0.00761248 -0.426345 0.0807135 -0.702277 -0.554886 -0.445991
-0.00752744 0.0873283 0.220764 -0.946501 -0.301259 0.115671
0.00299543 0.275731 0.190198 0.985672 -0.128085 -0.109753
-0.0622315 0.278803 0.234598 -0.962104 0.0866743 0.258541
0.00164208 -0.42526 0.134008 0.136929 0.964128 0.227394
-0.0437303 -0.219321 0.302817 -0.231274 0.945001 -0.23127
0.0179996 0.207467 0.389556 0.71706 -0.671219 -0.187856
-0.00282029 0.316502 0.176893 -0.0467293 0.99344 -0.104373
-0.0181429 -0.286112 0.216197 0.340322 0.73057 0.591987
-0.0346228 -0.267844 0.186112 0.00201013 0.943551 -0.331222
0.00566362 0.0504769 0.216019 -0.426711 0.599504 0.677136
-0.0120985 -0.200776 0.166564 -0.343608 -0.339485 -0.875605
0.00524357 0.157141 0.442196 0.581046 -0.230209 -0.780634
0.0274526 0.237929 0.340742 0.86029 0.386686 0.332228
-0.0188621 0.229089 0.561611 -0.524427 -0.325191 0.78691
-0.000505177 -0.0873218 0.203241 0.252284 0.967627 0.00709163
-0.00447071 0.0119125 0.496996 -0.579475 0.232664 0.781074
0.000726954 0.443772 0.178717 0.995513 -0.0946167 -0.00128993
-0.0100821 0.221385 0.0904908 -0.145453 0.768544 0.623043
-0.0244537 0.0979439 0.205128 0.999986 0.00520666 -0.000548581
0.0122779 -0.416475 0.0926405 0.99918 0.0336669 0.0225035
-0.0186645 0.294176 0.0452142 -0.999337 0.0026804 0.0363141
0.00118715 0.395209 0.0696182 0.966465 -0.158812 0.201804
-0.00669361 0.182164 0.464885 -0.966366 -0.245645 0.0761218
0.000837522 0.178246 0.169875 0.70118 0.712967 0.00492862
0.00598296 -0.120773 0.582033 0.965867 0.249685 -0.0689855
0.00165532 0.305282 0.314653 0.999294 0.00547735 -0.0371652
-0.0470488 -0.219364 0.263654 -0.435535 -0.833868 0.339077
0.0111801 -0.282967 0.01633 0.965657 0.0030796 0.259802
-0.0116821 -0.18888 0.195851 -0.630759 0.234141 -0.739811
-0.0135205 -0.245948 0.249029 -0.339701 -0.878753 0.335255
0.000246575 -0.352931 0.0492094 0.140126 0.423551 0.894969
0.0590403 -0.19366 0.590406 0.00501797 -0.923027 0.384703
0.00872025 -0.225384 0.0120538 0.703654 0.166674 -0.690717
-0.012762 -0.0392385 0.307656 -0.891879 0.299456 0.338938
0.015552 0.200652 0.5443 0.423291 -0.164861 -0.890868
-0.115632 -0.187545 0.613954 -0.00488047 0.960284 0.278983
0.00784263 -0.156457 0.478914 0.965853 0.249733 -0.069
-0.0147779 -0.155666 0.316332 -0.964781 -0.165814 -0.204216
-0.00744215 -0.393126 0.0448226 -0.702866 -0.44178 -0.557503
0.00753239 0.0434604 0.480769 0.99999 0.00442604 0.00076333
-0.00405963 0.154195 0.399505 -0.297552 -0.888017 0.350556
-0.0126124 -0.131202 0.275918 -0.701752 -0.640408 -0.312124
-0.0310245 0.24704 0.202652 -0.310779 0.173381 0.934535
-0.0453289 0.232591 0.181681 -0.911445 -0.303749 -0.277495
-0.0136837 -0.159178 0.0627636 -0.964538 -0.168866 0.202856
0.0107282 -0.183973 0.323335 0.99527 -0.0564701 -0.0790534
0.00196629 -0.327024 0.312984 0.985904 -0.156103 0.0601999
0.00461365 -0.202137 0.283444 -0.349041 0.758438 -0.550402
0.030804 -0.277992 0.177166 0.00833481 0.188174 -0.9821
-0.0224312 0.302391 0.201479 -0.339804 -0.730668 -0.592163
0.038953 -0.267297 0.19078 -0.00200855 0.991792 0.127845
-0.0229241 0.246973 0.551971 -0.572221 0.0260581 -0.819686
-0.0123852 -0.317028 0.250824 -0.631388 0.519099 0.576095
-0.0478519 0.260254 0.286278 -0.428655 0.783757 0.449421
0.0461093 -0.223179 0.247148 0.445227 -0.836363 0.319796
-0.0103792 -0.099189 0.353447 -0.659517 -0.503482 -0.558161
-0.0145028 -0.104336 0.160974 -0.964143 -0.259285 0.0565678
-0.000425 0.334173 0.121859 0.632437 -0.650085 -0.421204
0.0104778 0.113472 0.257937 -0.00503343 0.91981 -0.392332
0.00805707 -0.170651 0.45022 0.965927 -0.246147 0.0799781
0.00124939 0.448716 0.209578 0.96678 -0.248381 -0.060367
-0.0130045 -0.396823 0.303842 -0.999478 0.0235925 -0.0220658
-0.0090596 0.196166 0.546634 -0.739964 -0.203358 -0.641171
-0.0251944 0.0860208 0.159092 0.99055 0.00154903 0.137142
-0.0184397 0.352419 0.311926 -0.965344 -0.0610634 -0.253735
-0.0170015 0.267344 0.139494 -0.631754 0.38776 -0.671215
-0.0243044 0.0680014 0.193096 -0.999986 -0.00520652 0.000548302
0.0323308 -0.173674 0.418499 -0.684471 -0.721104 0.107275
0.00343045 0.0956676 0.458975 0.581046 -0.230209 -0.780634
0.00937545 -0.0960204 0.155994 0.964149 0.259263 -0.0565609
0.0103145 0.0633365 0.207606 0.664033 -0.496637 -0.558938
-0.0522346 -0.282505 0.176981 0.00833447 -0.388254 -0.921515
0.0259846 0.253407 0.569434 0.299601 0.051606 0.952668
9.66504e-05 0.126048 0.287201 -0.00504136 0.929999 -0.367526
0.0190299 0.0791253 0.199385 0.999986 0.00520225 -0.00054498
0.00690698 -0.115473 0.0944835 0.701408 0.644987 -0.303346
-0.0326952 -0.182168 0.382994 0.230178 -0.946061 0.228005
0.00939251 -0.308558 0.0313396 0.141246 0.213785 0.966616
-0.0173036 0.168637 0.167127 -0.964153 -0.265344 -0.00141377
0.0141566 -0.243856 0.210022 -0.984181 -0.165535 0.0631376
-0.0171305 0.192657 0.243708 -0.966785 0.230382 -0.11068
0.00167839 0.239199 0.0633847 0.964768 0.16584 0.204256
0.117327 -0.179635 0.590776 -0.00479441 0.960286 0.278977
0.00430272 -0.176241 0.592859 0.248074 0.036476 0.968054
-0.0110074 -0.20855 0.246865 0.347185 -0.587954 0.730597
-0.0195288 0.435477 0.112609 -0.966785 0.230384 -0.110679
-0.00147678 0.360244 0.239383 -0.625194 -0.694594 0.355909
-0.0304263 0.109395 0.232679 -0.88854 0.215103 0.405249
-0.00294381 -0.147635 0.0494933 -0.260856 0.606779 -0.750849
0.0187217 0.184565 0.190504 0.302529 0.0330815 0.952566
-0.0481392 -0.252367 0.215716 -0.886977 -0.373622 0.271436
-0.0339627 0.278531 0.157651 -0.807776 -0.00444333 -0.589472
-0.00165937 0.221748 0.559009 -0.260277 0.922264 -0.285806
0.00176641 -0.169009 0.410306 0.208257 -0.651176 -0.729794
-0.00444774 0.240673 0.0493966 0.259015 -0.411413 -0.873871
0.065722 0.106679 0.269113 8.06092e-07 -0.104515 -0.994523
-0.0110369 -0.405473 0.0948342 -0.145494 0.768525 0.623057
-0.00514634 0.417529 0.253271 0.145472 -0.768544 -0.62304
-0.0104853 -0.363094 0.17836 -0.345616 0.146545 -0.926862
0.00170152 -0.192491 0.0200255 0.254569 0.427113 -0.867623
0.00918658 -0.311239 0.366938 0.706088 -0.159325 0.689967
-0.00629505 -0.228729 0.0349394 -0.140105 -0.228215 0.963477
-0.00404372 0.229592 0.28146 0.253698 0.609463 -0.751127
-0.0655146 -0.223518 0.249475 0.454992 -0.875244 0.164102
-0.0136384 -0.292177 0.0219506 -0.999337 0.00267571 0.0363021
-0.0131593 -0.442051 0.141303 -0.96679 0.24834 0.0603631
-0.0132387 -0.448893 0.195849 -0.966852 0.255324 0.00247187
0.00145223 0.143283 0.33168 0.298607 0.888704 -0.347906
0.00594519 -0.281477 0.086094 -0.6249 -0.754996 0.198701
-0.0135777 -0.240332 0.348247 -0.994935 -0.0266622 -0.0969211
-0.0214816 0.284487 0.184075 -0.345047 0.336202 0.876305
0.0105493 -0.109324 0.194281 0.999506 -0.0314071 -0.000819894
0.000838432 0.190716 0.508172 0.260503 -0.922206 0.285787
-0.00880519 -0.16309 0.336126 -0.706796 0.434453 0.558292
-0.0152573 0.129177 0.194752 0.565974 0.252435 0.784825
0.0118981 -0.431987 0.224966 0.994473 0.102657 -0.0220233
-0.00292558 -0.460861 0.162814 -0.252453 -0.941817 -0.221919
-0.0193617 0.381023 0.302699 -0.965956 0.106163 0.235922
0.032415 0.136144 0.279704 -3.41654e-06 0.104543 0.99452
0.0105616 -0.146241 0.288374 0.995363 -0.0723765 -0.0633516
0.00152625 0.341825 0.045034 0.96595 -0.0548014 0.252857
0.0103373 0.0316196 0.235815 0.664033 -0.496637 -0.558938
-0.00498234 0.461287 0.179962 0.252289 0.967626 0.00709386
-0.005928 0.324392 0.0507358 0.257865 -0.00589671 0.966163
0.0108274 -0.109831 0.243737 0.966788 -0.24835 -0.0603609
-0.00626468 -0.38483 0.225917 -0.346047 0.335922 0.876018
-0.0494055 -0.18782 0.581932 -0.00382101 0.654212 -0.756301
-0.0103353 0.165209 0.208667 -0.252292 -0.945005 0.208119
-0.0122168 -0.361343 0.0286986 -0.965051 -0.116233 -0.234875
0.00161097 0.183348 0.11728 0.966664 -0.228659 -0.11522
-0.0125352 0.00389041 0.264672 -0.890442 -0.30438 -0.338329
0.00790035 -0.328956 0.0116956 0.705274 -0.148991 -0.693102
-0.00925252 -0.187477 0.0528335 -0.138181 -0.623693 0.769359
-0.00144395 0.228732 0.192958 -0.629226 0.0343951 -0.776461
0.0125095 -0.433652 0.256264 0.964212 0.240441 -0.111729
-0.0162009 0.435838 0.147151 -0.136696 -0.967412 0.213138
-0.00953494 -0.28561 0.353183 -0.705284 0.00164605 -0.708923
0.0422703 -0.200421 0.320449 -0.221177 -0.9439 0.24522
-0.0649264 0.308407 0.190793 -0.023189 0.587454 0.808925
-0.0164092 0.267992 0.569102 -0.218466 0.0566154 0.974201
0.0101526 -0.272404 0.267054 0.632933 -0.748456 0.198012
-0.0186832 0.39645 0.0648277 -0.96646 0.158824 -0.201815
-0.0112616 -0.0911769 0.185735 -0.708564 0.705623 0.00569555
-0.000227978 0.25479 0.149837 -0.346928 0.378699 -0.858037
-0.00858168 -0.155206 0.485488 -0.965914 0.246195 -0.0799938
0.00354619 -0.0208282 0.300436 0.20511 0.65111 0.730743
-0.0924287 -0.189357 0.581266 -0.00260216 0.403939 -0.914782
0.00103443 0.34738 0.304888 0.995052 -0.0163014 -0.0980123
-0.0399903 0.175272 0.186629 -0.957891 -0.285642 0.0292301
0.0128398 0.266651 0.549418 0.0626535 0.184062 -0.980916
-0.0168645 0.302838 0.314421 -0.705315 0.00161577 -0.708892
0.00493777 0.180282 0.43157 0.797677 0.562093 -0.218548
-0.0287143 -0.200826 0.341991 -0.980803 0.0508885 0.188243
0.00102289 0.437546 0.23574 0.999478 -0.0276709 -0.0166817
-0.00158521 0.285515 0.2512 0.349548 -0.855 -0.383134
-0.0193801 0.447872 0.16852 -0.999124 -0.0418408 0.000275334
0.007346 -0.123281 0.371096 0.208257 -0.651176 -0.729794
0.00605046 -0.287553 0.181289 0.0057704 -0.814063 -0.580748
-0.0526951 -0.208276 0.295228 0.454992 -0.875244 0.164102
-0.0683994 0.061153 0.116338 -2.62849e-06 0.104545 0.99452
-0.011082 0.232849 0.11275 -0.340485 -0.591505 0.730884
-0.0134135 -0.433351 0.115553 -0.96666 0.228671 0.115233
0.0284818 0.224729 0.18601 0.302529 0.0330815 0.952566
-0.0460007 0.307032 0.191473 0.0235657 -0.406532 0.913333
0.0370168 -0.190752 0.391798 -0.681863 0.664772 -0.30519
-0.00375366 0.104499 0.233987 -0.580981 0.756565 -0.300117
0.0103436 -0.111126 0.259266 0.964351 0.238728 0.114177
-0.0343439 -0.288291 0.197122 -0.005772 -0.67546 0.737374
0.00182376 0.259798 0.312805 0.966236 -0.109664 0.233158
-0.0249348 0.0549023 0.17131 0.99002 0.0999493 0.0993555
-0.00713746 -0.144385 0.516766 -0.965867 0.249685 -0.0689842
-0.0134814 -0.375678 0.329952 -0.966472 0.158805 -0.201776
0.0430262 -0.196049 0.365637 -0.895497 0.371326 -0.245361
-0.0136093 -0.119734 0.120145 -0.964216 -0.240426 0.111726
-0.0131156 -0.374198 0.0567294 -0.995274 0.0564462 0.0790207
-0.012978 -0.418888 0.284076 -0.966662 0.199708 -0.160252
-0.00588801 -0.0953318 0.519294 -0.801672 -0.176991 -0.57096
0.01157 -0.26258 0.35692 0.999294 0.00547742 -0.0371754
-0.00493407 0.40699 0.0902669 0.261719 -0.758602 0.596679
-0.00655206 0.358901 0.0727817 -0.984171 -0.166275 0.0613226
-0.00232058 0.11672 0.466968 -0.00110566 0.288737 0.957408
-0.00785046 -0.336128 0.272005 0.340322 0.73057 0.591987
-0.00122021 0.277275 0.568731 -0.0666473 0.295506 0.953013
-0.0095964 -0.157104 0.417146 -0.665629 0.493396 0.55991
0.00970833 -0.210106 0.334836 0.143571 -0.422081 -0.895117
0.057922 -0.252249 0.224981 -0.920277 0.334565 -0.20287
0.00910463 -0.0680044 0.323085 -0.426711 0.599504 0.677136
-0.0320022 0.217451 0.362368 -0.883033 -0.469247 -0.00778052
-0.00918913 0.217219 0.0645655 -0.25464 -0.598157 -0.759846
0.0368328 -0.211252 0.291256 0.445227 -0.836363 0.319796
0.00834499 -0.240316 0.0998646 -0.984154 -0.166398 0.0612593
-0.00440038 -0.292956 0.37467 -0.256711 -0.00857468 0.96645
0.00321054 0.344136 0.171459 0.984394 0.138348 0.108756
0.0358528 0.295074 0.17544 -0.788996 0.238635 0.566161
0.00563004 -0.213598 0.36449 0.703617 0.306652 0.641005
-0.0185346 -0.307311 0.192079 0.627537 0.389375 0.674228
-0.0193528 -0.176062 0.425619 -0.0831229 0.247776 0.965245
0.00913192 -0.431858 0.284002 0.708361 -0.637702 0.302591
-0.0127433 -0.430664 0.243803 -0.995485 0.0850767 -0.0420936
-0.0144669 -0.111118 0.216222 -0.999134 -0.0408493 -0.00786864
0.00709522 -0.0609501 0.516411 0.804661 0.173648 0.567773
-0.00789363 0.0790617 0.182562 -0.950025 0.289487 -0.116834
-0.00313239 -0.193802 0.583876 0.00457931 -0.920833 -0.389931
0.00819321 -0.242396 0.368528 0.704437 0.156344 0.692333
0.00221505 -0.0194378 0.277088 0.00300896 -0.664573 -0.747217
-0.0156097 0.433636 0.265182 -0.707436 0.547629 0.446807
0.00511067 0.301035 0.183552 0.046721 -0.99344 0.104373
-0.010954 0.38642 0.0873465 -0.347596 0.726921 0.592252
-0.00729767 -0.169081 0.312454 -0.254588 -0.598175 -0.75985
-0.0260004 -0.19776 0.370285 -0.685329 0.724711 -0.071543
0.0241746 0.247665 0.325841 0.184228 -0.901743 -0.391049
-0.00228123 0.126782 0.190335 0.927564 -0.173066 0.33117
-0.0102397 -0.182502 0.347806 -0.70605 0.29934 0.641786
-0.0659733 -0.246025 0.230999 0.917116 0.351351 -0.188284
-0.00958387 -0.311655 0.106329 0.985487 -0.0659417 0.156422
-0.00769398 0.43307 0.0919955 0.253065 0.7613 -0.596976
0.0411245 -0.227692 0.269826 0.447189 0.874153 -0.189417
0.00129364 0.153848 0.35853 0.298607 0.888704 -0.347906
0.0120493 -0.334155 0.354993 0.965954 -0.0547959 0.252846
-0.00681593 -0.184718 0.264659 -0.626584 -0.394525 0.672118
0.00067036 -0.409934 0.125139 -0.346932 0.378706 -0.858033
-0.0579458 0.274277 0.174031 -0.957166 -0.287741 0.0322106
-0.0185985 0.266131 0.049103 -0.965957 0.106166 0.235916
-0.00257496 0.387365 0.168835 0.984401 0.138346 0.1087
-0.11297 -0.221726 0.654721 -0.00301613 0.673209 0.739446
0.110627 -0.197677 0.626235 -0.824951 -0.380216 -0.4182
-0.0179484 0.183409 0.143567 -0.999496 0.0304459 0.00896548
0.0444883 0.126091 0.267073 3.21698e-06 -0.10451 -0.994524
0.00655887 -0.370383 0.321155 0.70223 0.450064 -0.551648
-0.00137279 -0.145268 0.0972318 -0.346826 0.551233 0.758851
0.0505487 0.116311 0.281789 -1.51218e-06 0.104546 0.99452
-0.00183692 0.402908 0.277895 0.706799 -0.434448 -0.558292
-0.0144707 -0.115331 0.142992 -0.999125 -0.0409653 0.00842824
-0.0508593 0.277345 0.247686 0.46138 0.845035 0.270267
0.0118631 -0.43582 0.168249 0.994502 0.102296 0.022384
-0.00925457 0.193759 0.162672 -0.345502 0.146567 -0.926902
-0.0144656 -0.185885 0.035401 -0.966225 0.109685 -0.233192
-0.0199706 0.288328 0.21742 -0.339804 -0.730668 -0.592163
-0.000372703 0.211895 0.287962 0.707431 -0.442752 0.550919
-0.00582974 -0.165491 0.436644 -0.707087 0.675997 -0.207501
0.0108858 -0.109773 0.125101 0.96421 0.240443 -0.11174
-0.0654178 0.0379885 0.105084 2.40425e-06 -0.104513 -0.994523
-0.0246178 0.313058 0.168001 -0.627274 -0.525162 -0.575093
-0.0122191 -0.208904 0.334192 -0.140133 -0.423549 -0.894968
-0.0124631 -0.433447 0.220807 -0.995512 0.0922861 -0.0209352
0.00538229 -0.125971 0.393606 0.20511 0.65111 0.730743
-0.0193048 -0.291394 0.164437 0.98413 0.17636 -0.0196157
-0.0137814 -0.138776 0.070453 -0.966658 0.199722 -0.160262
-0.0109662 -0.293487 0.278226 0.985478 -0.0970951 -0.139301
-0.033835 0.233364 0.320723 -0.428576 0.78478 0.447709
-0.00869849 0.127379 0.310649 -0.999992 -0.00373851 0.00147259
-0.0333788 -0.190898 0.581163 0.000946816 -0.282407 -0.959294
-0.0142176 0.2441 0.569969 -0.280708 -0.240061 0.929287
0.00861586 -0.13954 0.530637 0.965913 0.246197 -0.0799938
-0.00749105 0.141904 0.454635 -0.950082 0.0861196 0.299881
7.1852e-06 -0.452934 0.126337 0.262043 -0.939128 -0.222199
0.01805 0.185443 0.551558 0.953086 -0.149072 -0.263446
0.0291039 -0.195114 0.344284 0.682876 -0.665762 0.300734
-0.0191437 0.265252 0.192566 0.627261 0.389434 0.674452
0.00689344 0.220822 0.53844 0.127071 0.253194 -0.959034
-0.0064837 -0.364164 0.110101 -0.340952 -0.591456 0.730706
0.00995038 -0.172281 0.337668 0.964775 0.165823 0.204233
-0.00214131 -0.300966 0.338018 -0.34852 0.925934 0.145535
-0.00658043 0.283649 0.304662 0.140082 0.228221 -0.963479
0.000445932 0.203384 0.102385 0.702207 0.554946 0.446028
0.0119462 -0.373967 0.0525761 0.999213 0.027822 0.0282576
-0.0143786 -0.135468 0.297037 -0.966466 0.1973 0.164367
0.00876602 -0.189727 0.175086 -0.343383 -0.0983456 -0.934032
-0.00893577 0.0621917 0.207245 -0.421168 -0.603923 -0.676679
0.00374934 -0.13653 0.268824 0.14625 -0.887867 -0.436237
0.00923234 0.0171633 0.247762 -0.426711 0.599504 0.677136
-0.000530646 -0.215833 0.0513169 0.984172 0.166269 -0.0613264
-0.0128964 -0.391378 0.0723314 -0.995365 0.0723595 0.0633403
-0.012471 0.200282 0.401871 0.859895 -0.36329 -0.358611
-0.00583779 0.270881 0.278311 0.985888 -0.156237 0.0601288
-0.0152783 -0.234717 0.227836 0.347914 -0.587861 0.730325
-0.00902874 -0.287572 0.00310046 -0.705257 0.00162906 -0.708949
-0.00420927 -0.134192 0.40076 -0.211153 0.648931 0.73096
-0.0119173 0.435749 0.211639 -0.136934 -0.964125 -0.227401
-0.0201133 -0.253665 0.182536 -0.630759 0.234141 -0.739811
0.00342811 -0.0785399 0.351892 0.20511 0.65111 0.730743
0.00716234 -0.195281 0.137462 -0.346826 0.551233 0.758851
-0.0353064 0.0514831 0.103666 2.6422e-06 -0.104513 -0.994524
0.00596267 -0.247622 0.00387853 0.703654 0.166674 -0.690717
-0.00108674 0.287054 0.0550513 0.141211 0.213776 0.966623
-0.00545892 0.390626 0.308741 0.255672 0.414093 0.87359
-0.0179323 0.266215 0.316578 -0.965057 -0.0648485 0.253887
0.0188323 0.100223 0.251649 0.00499272 -0.919808 0.392338
3.71595e-05 0.260336 0.0572349 0.703654 0.306631 0.640974
-0.00417283 -0.139932 0.59022 -0.496938 0.0378791 0.866959
-0.0116265 0.0395033 0.230241 -0.890442 -0.30438 -0.338329
0.0159706 -0.279899 0.219134 -0.339553 -0.93528 0.0997766
0.00934735 -0.166681 0.0416491 0.702243 0.45006 -0.551634
-0.0528204 -0.209346 0.321587 0.886276 0.361263 -0.289836
-0.0256335 -0.17551 0.407131 0.0022586 -0.249334 -0.968415
-0.0107272 0.3006 0.0309055 -0.25787 0.00588757 -0.966162
-0.0051701 -0.273509 0.188716 -0.998109 0.0507486 0.034691
-0.0137264 -0.268685 0.357958 -0.999337 -0.00492945 -0.0360676
-0.0158885 0.210629 0.552926 -0.942646 -0.246157 -0.225446
-0.0175917 0.252174 0.311458 -0.964783 -0.119727 0.234218
0.00230326 0.179878 0.209621 0.999125 0.0409649 -0.00842906
0.0121085 -0.43205 0.118753 0.964346 0.238743 0.114184
0.0413676 -0.250798 0.224253 0.926367 0.284403 -0.2469
0.00664486 -0.109077 0.173262 0.70859 -0.705598 -0.00568708
-0.0129939 0.163299 0.182225 -0.25218 -0.967654 -0.00709487
0.00319321 0.109736 0.286388 -0.581415 0.757262 -0.297506
-0.00409319 -0.461466 0.203985 -0.251947 -0.967715 -0.00710187
-0.000440452 0.444547 0.157669 0.708602 -0.68898 0.152281
-0.0290576 0.0657059 0.147753 0.999986 0.00521177 -0.000549051
-0.00326841 -0.307926 0.0292104 -0.257878 0.206631 0.943823
0.0111216 -0.274744 0.366546 0.965657 0.00307787 0.259802
-0.0600687 -0.252475 0.210572 0.448903 -0.634545 0.629157
-0.00219891 0.0848911 0.19958 0.565974 0.252435 0.784825
0.000599909 0.430857 0.127723 0.995487 -0.0850568 0.0420818
-0.0182111 0.371846 0.161804 0.342476 0.339778 0.875934
-0.0125278 -0.0523247 0.315227 -0.890442 -0.30438 -0.338329
-0.010994 -0.341682 0.0177748 -0.703616 -0.306664 -0.641001
-0.0330624 0.224256 0.159006 -0.812151 -0.0265251 0.582844
-0.00685285 0.206409 0.132064 -0.627413 -0.207374 0.750566
0.0113952 -0.407254 0.0665441 0.966471 -0.197286 -0.164355
-0.00180184 0.207838 0.0746004 0.70689 -0.434395 -0.558218
0.00693754 -0.411555 0.313612 0.70801 -0.554194 0.43771
0.000811876 0.170752 0.450676 -0.00110566 0.288737 0.957408
0.119305 -0.221479 0.65547 -0.00301504 0.673209 0.739446
0.0302131 0.264961 0.173014 0.789354 -0.115901 0.602899
-0.0199989 -0.189932 0.410856 0.00216332 -0.248933 -0.968518
-0.0110741 0.194545 0.272736 -0.253064 -0.761299 0.596978
0.0124978 0.232326 0.570207 0.133461 -0.184945 0.973644
-0.010946 -0.240911 0.00779941 -0.706089 0.159341 -0.689963
0.0176978 -0.266843 0.177245 -0.985664 0.129526 0.108115
-0.0357339 0.326075 0.182185 -0.991165 0.132569 0.0041714
-0.011058 0.185285 0.100087 -0.252966 -0.868808 -0.425654
-0.00219208 0.165842 0.430593 -0.297552 -0.888017 0.350556
-0.0250642 0.0708099 0.232879 0.990185 0.044271 -0.132569
0.0078701 -0.0370255 0.505038 0.99999 0.00442604 0.00076333
-0.00268539 -0.166882 0.581894 -0.496424 -0.0328615 -0.867458
0.0119203 -0.354528 0.0375443 0.999252 0.0208473 0.0325653
0.0213751 0.316013 0.17573 -0.0235675 0.406574 -0.913314
-0.0155873 -0.302344 0.234083 -0.631388 0.519099 0.576095
-0.00419913 0.190285 0.141962 0.136959 0.964118 0.227416
0.000866598 0.35873 0.0595941 0.99527 -0.0387999 0.0890624
-0.013382 -0.344707 0.344231 -0.999417 0.0109364 -0.0323377
0.0166853 -0.18971 0.413844 0.00517021 -0.951435 0.307805
-0.0163495 0.183941 0.176328 -0.146986 0.98911 0.00747109
0.0116818 -0.317973 0.347047 0.99482 0.0281205 -0.0976891
0.00731677 0.193566 0.487005 0.966345 0.24572 -0.076145
-0.0160768 0.110831 0.186947 0.000326523 -0.105806 -0.994387
0.00619124 0.00206147 0.489106 0.802867 -0.168628 -0.571813
0.00212606 0.17006 0.188854 0.966853 -0.25532 -0.00247293
0.00189646 0.19205 0.23021 0.994499 0.0954338 -0.0431754
0.0126552 -0.221652 0.218113 0.984149 0.165628 -0.063389
-0.00207804 0.351359 0.323087 0.704495 0.156326 0.692278
0.00646343 0.313407 0.163421 -0.340018 -0.85887 -0.383053
-0.108501 -0.203241 0.630234 0.828214 -0.371803 -0.419313
0.00385167 -0.269129 0.0250384 0.257841 -0.0058875 0.96617
0.0119374 -0.435834 0.208808 0.994477 0.102616 -0.0220197
0.0121733 -0.21188 0.176042 -0.984391 -0.13835 -0.108786
-0.00533015 0.24703 0.0957921 0.33997 0.762239 -0.550828
-0.0181178 0.239865 0.292793 -0.999451 0.017842 -0.0279157
0.0427775 0.28205 0.248577 0.673521 0.617863 0.405727
-0.0128199 -0.403132 0.074108 -0.966471 0.197282 0.16436
0.0338404 0.278716 0.257299 0.470924 -0.827997 -0.304386
0.0112972 -0.45244 0.222084 0.966834 -0.2493 0.0555098
-0.00173177 -0.158086 0.0792427 0.146201 -0.777766 0.611315
0.0522401 -0.217372 0.29974 -0.895497 0.371326 -0.245361
-0.0273907 0.130125 0.225648 -0.587331 0.140125 0.797124
0.00886651 -0.0946924 0.346563 -0.426711 0.599504 0.677136
-0.00645182 0.0548217 0.47354 -0.801672 -0.176991 -0.57096
-0.0128047 0.323828 0.31115 -0.257816 0.00587659 -0.966176
-0.0153815 0.240595 0.204895 0.346161 -0.335891 -0.875985
-0.0539322 0.283504 0.219658 0.961794 -0.0854128 -0.260109
0.0231064 0.211854 0.556874 0.929203 -0.230182 0.289133
-0.0610875 0.0581774 0.102963 2.6422e-06 -0.104513 -0.994524
0.00450899 -0.161153 0.30156 0.145528 -0.768533 -0.62304
-0.0140973 -0.202422 0.0386021 -0.999213 -0.0213415 0.0334241
0.0171439 -0.299181 0.197322 0.341047 0.555096 0.758654
-0.0341437 0.0544524 0.120138 -0.00500299 0.919809 -0.392335
0.00102078 0.373333 0.0642328 0.995271 -0.0387923 0.0890509
0.00172948 0.215563 0.266728 0.99455 0.0836792 -0.0621941
-0.0192283 0.431058 0.244821 -0.999153 -0.0380756 -0.0155854
0.0109563 0.12495 0.274039 -0.999986 -0.00520677 0.000547286
0.00608171 -0.267554 0.00267886 0.704449 0.00896915 -0.709698
-0.0668831 0.290426 0.191735 -0.174213 -0.913818 -0.36686
-0.00614374 0.367583 0.298214 0.258892 -0.4114 -0.873914
-0.00790803 0.184242 0.561205 -0.707983 -0.0623911 0.703468
-0.0119077 0.207351 0.253746 -0.146193 0.777781 -0.611298
-0.0138082 0.356231 0.0380557 -0.258951 0.220733 -0.94033
0.0218607 0.217504 0.377296 0.980359 -0.17546 0.0900576
0.0028827 -0.436589 0.0937621 0.261462 -0.866155 -0.425927
0.0518754 -0.27883 0.201118 1 0 0
-0.0158883 0.459769 0.167765 -0.708593 0.705595 0.00569504
-0.00281064 -0.249881 0.038145 0.33918 0.929452 0.145175
-0.0535656 0.220679 0.182601 -0.910701 -0.241927 0.334805
0.0129339 -0.33548 0.201376 -0.629984 0.0345274 -0.77584
-0.062222 0.314004 0.179713 -0.046721 0.99343 -0.104468
-0.0111651 -0.112678 0.101258 -0.708419 0.63765 -0.302565
-0.0181054 0.204147 0.100296 -0.999452 0.0232438 0.0235852
-0.027154 0.138785 0.185533 -0.563102 -0.254511 -0.786219
-0.0130928 -0.381836 0.317517 -0.999451 0.0178377 -0.0279067
-0.00823457 -0.252649 0.0803512 0.633008 -0.774138 -0.00330453
-0.0401109 0.244466 0.295257 -0.134748 0.892492 0.430466
-0.00491047 -0.40139 0.290081 -0.2616 0.758637 -0.596688
0.00362765 0.0825611 0.208291 0.20511 0.65111 0.730743
-0.00752366 0.339518 0.0330755 0.255618 0.223414 -0.940609
0.00219213 0.277247 0.140023 -0.984804 -0.0330645 0.170491
-0.0013458 -0.43297 0.15432 -0.262046 0.939122 0.222222
-0.0491303 -0.230904 0.251802 -0.889934 0.452568 0.0565724
0.0109287 -0.123281 0.279737 0.964347 0.23874 0.114186
-0.0192767 0.421499 0.10044 -0.999153 -0.0340017 0.0231608
-0.00722183 -0.407203 0.319599 -0.702243 -0.450055 0.551638
-0.00149266 -0.106655 0.377099 -0.211153 0.648931 0.73096
-0.0332461 0.293312 0.175716 0.989885 0.122593 0.0714038
0.00710686 -0.0965259 0.232639 0.701348 0.694021 0.162622
-0.0467717 -0.197155 0.339389 0.685626 -0.724881 0.066813
0.0518754 -0.276826 0.181717 1 0 0
-0.019462 0.341292 0.137305 -0.985937 0.166308 -0.0164186
0.0428638 -0.184553 0.587681 -0.00521388 0.999934 -0.0102122
-0.0360398 -0.189397 0.395392 0.672736 0.658433 -0.337478
0.010769 -0.293571 0.368079 0.965657 0.00307787 0.259802
-0.0142468 0.457318 0.21382 -0.262126 0.939104 0.222201
-0.00755592 0.169354 0.407656 -0.803778 0.553688 -0.217646
0.0477481 0.289869 0.227386 0.969764 0.108125 0.218786
0.000656955 -0.125374 0.245081 0.146191 -0.887866 -0.436259
0.0229744 0.302258 0.187194 0.046721 -0.99344 0.104373
0.0102308 -0.180987 0.0339767 0.964776 0.119738 -0.234243
0.0190086 0.0847975 0.214269 0.999986 0.00521138 -0.000550103
0.00249332 0.0352021 0.491151 0.30353 0.27454 0.912413
-0.0157001 0.178785 0.19346 -0.708593 0.705595 0.00570027
0.000889508 -0.382083 0.309279 0.253755 0.609448 -0.75112
0.00367091 -0.128808 0.547917 0.258825 0.922152 -0.287481
0.00339872 -0.136569 0.381826 0.208257 -0.651176 -0.729794
-0.0145982 0.175035 0.125551 -0.701725 -0.640419 -0.312162
0.000650698 -0.373302 0.348335 0.25995 -0.42444 0.867339
0.0327141 0.246595 0.553914 0.904844 -0.225609 -0.361051
0.00612517 0.159033 0.381253 0.797677 0.562093 -0.218548
2.5399e-05 -0.421472 0.255512 0.252491 0.875075 -0.412907
-0.0382981 0.080476 0.197852 -0.0015432 0.392352 0.919814
0.0106449 -0.109863 0.152651 0.999506 -0.0305491 0.00733351
-0.0172118 0.21458 0.287687 -0.964545 -0.168854 0.202834
-0.00320135 0.442752 0.110363 0.701431 0.644965 -0.303339
-0.0137634 -0.155283 0.2965 -0.994623 -0.0827468 -0.0622684
-0.0100676 -0.24226 0.368968 -0.705298 0.148991 0.693077
-0.0121667 -0.114326 0.175558 -0.136656 -0.990592 -0.00731588
0.00864121 -0.172895 0.428287 0.965918 0.24618 -0.0799891
-0.00307859 -0.333373 0.366369 -0.255741 -0.2234 0.940579
-0.00922276 -0.115942 0.367192 -0.659517 -0.503482 -0.558161
-0.00585961 -0.138634 0.316682 -0.260902 0.749621 0.608275
0.02766 -0.179169 0.391325 0.216621 -0.926636 0.307281
-0.00195081 0.414111 0.0740779 0.702291 0.450022 -0.551604
-0.00601665 0.190416 0.427401 0.961794 -0.0854128 -0.260109
-0.000222611 -0.273899 0.346824 0.141216 0.0081509 -0.989945
-0.0243867 0.0826507 0.182024 0.999986 0.00520914 -0.000546427
-0.0268155 0.053674 0.213281 0.454493 0.783257 -0.424199
0.0109047 0.199402 0.401601 0.18531 -0.902458 -0.388882
-0.0150171 -0.273094 0.20102 -0.00833434 0.388254 0.921515
0.000828829 0.233905 0.303991 0.706775 -0.308911 0.63643
-0.00171776 -0.119018 0.232424 0.262056 -0.939119 -0.222221
-0.0312177 0.103055 0.162244 -0.99002 -0.0771165 0.117952
-0.00483526 -0.09278 0.143858 -0.262314 0.942335 -0.207838
0.000585798 -0.126019 0.122564 0.262116 -0.872389 0.412593
-0.0175354 0.207531 0.0815512 -0.96453 -0.207375 -0.163331
0.00093411 0.318837 0.324624 0.965657 0.00308388 0.259802
0.0315028 0.121057 0.267602 8.06092e-07 -0.104515 -0.994523
-0.00328027 -0.282201 0.0288187 -0.141249 -0.00814284 0.989941
0.0311195 -0.197911 0.377231 0.00179181 0.959067 -0.283174
-0.00371975 -0.437098 0.18536 -0.262316 0.964954 0.00736136
-0.0119238 -0.130069 0.103608 -0.701358 -0.645035 0.30336
-0.00914779 -0.418978 0.10645 -0.708029 0.633076 0.312905
-0.000660414 0.0336519 0.251996 -0.0030268 0.666461 0.745534
0.0051278 -0.285496 0.199991 -0.00576426 -0.675547 0.737294
-0.0183125 0.308166 0.0512164 -0.994938 -0.00592591 0.100316
0.00297787 0.194451 0.471861 0.260503 0.922206 -0.285788
-0.0124521 0.390934 0.284358 -0.254611 -0.598158 -0.759856
-0.00280792 -0.144005 0.283893 -0.253695 -0.752304 -0.608011
0.00196194 -0.0412923 0.296525 0.00300896 -0.664573 -0.747217
-0.0509381 0.0583282 0.116635 -2.62849e-06 0.104545 0.99452
0.0104305 -0.39646 0.052682 0.706795 -0.434453 -0.558294
-0.00235898 -0.123563 0.210783 0.63079 -0.234135 0.739787
0.00848086 -0.399571 0.0880186 0.138148 0.770007 0.622901
-0.0176228 0.253229 0.0589042 -0.965957 0.106166 0.235916
-0.0057122 -0.22169 0.339224 -0.140113 -0.423557 -0.894968
0.00679878 -0.179225 0.0592829 0.145473 -0.622219 0.769208
-0.0135243 -0.329977 0.352905 -0.965957 0.0547966 -0.252831
0.0460401 0.305122 0.203403 -0.124106 -0.890604 -0.437518
-0.0134558 -0.345216 0.034789 -0.999379 0.0104374 0.0336596
-0.00221909 -0.421132 0.167967 0.345613 -0.146538 0.926865
-0.000689882 0.124973 0.327428 0.00505663 -0.930989 0.365011
-0.0857285 0.0671105 0.11192 -0.999986 -0.00520356 0.000546955
-0.0153362 0.317786 0.327952 -0.704414 -0.00895824 0.709733
-0.0127392 -0.0262402 0.296231 -0.891879 0.299456 0.338938
0.00956105 0.3159 0.187486 -0.0231823 0.587572 0.80884
0.0051951 -0.155969 0.46169 0.707174 0.672434 -0.218488
0.00334376 0.0977765 0.218046 0.57277 0.762555 -0.30074
-0.0190525 0.418513 0.274453 -0.966459 0.197323 0.164381
0.000473021 0.197815 0.531414 0.260503 -0.922206 0.285787
-0.0023478 0.00629628 0.276443 -0.0030268 0.666461 0.745534
0.00114756 0.267249 0.207221 -0.985269 0.0208104 -0.169739
-0.0189926 0.321362 0.0401857 -0.965659 -0.00307851 -0.259796
-0.0178197 0.338821 0.23634 -0.633457 0.756196 -0.16401
-0.00250039 0.383675 0.0512619 0.702897 0.316197 -0.637146
0.00140293 0.29152 0.0396563 0.965654 -0.051004 -0.254776
-0.00345268 -0.128674 0.526486 -0.308133 -0.276238 -0.910355
0.00542339 -0.294151 0.00174137 0.257871 -0.206636 -0.943824
0.00123295 0.20021 0.243932 0.136986 0.895777 -0.42287
-0.00304055 0.233521 0.0800108 0.139125 0.612115 0.778434
0.00191057 -0.00436381 0.26368 0.00300896 -0.664573 -0.747217
0.0164304 0.110042 0.274699 0.00501494 -0.919808 0.392336
0.00103196 0.355188 0.205184 -0.984173 -0.165558 0.0632017
-0.0125379 -0.416607 0.267356 -0.995485 0.0850767 -0.0420936
0.000936635 0.412788 0.265472 0.995363 -0.0723793 -0.0633546
0.00160579 0.183007 0.482597 0.260503 -0.922206 0.285787
0.0174396 0.214271 0.181249 -0.975493 0.218917 -0.022126
0.00077869 -0.179226 0.440804 0.258838 -0.918643 0.298493
0.00234278 0.17667 0.1525 0.964225 0.258367 0.0592937
-0.0295356 0.134689 0.154346 0.0139811 0.01857 -0.99973
-0.046246 -0.279374 0.192355 -0.923294 0.249374 -0.292132
-0.0176326 0.457898 0.182492 -0.708544 0.705644 0.00568389
-0.0175266 -0.288704 0.196049 -0.00201043 -0.943551 0.331222
-0.00145979 -0.344955 0.330384 -0.144577 0.435411 -0.888546
0.0260237 0.260904 0.285827 0.980375 -0.176804 0.0872051
0.011103 -0.231592 0.0280595 0.999379 -0.00321368 0.0350927
0.00423628 -0.160896 0.494221 0.258655 -0.918691 0.298502
0.0536361 0.304563 0.18009 -0.473039 0.826479 0.305232
-0.0166081 0.30036 0.18685 0.046721 -0.99344 0.104373
-0.0076374 0.091457 0.468659 -0.950082 0.0861196 0.299881
-0.0142603 -0.125154 0.256135 -0.994555 -0.0947422 -0.0434158
0.000451355 0.440644 0.195481 0.995513 -0.0946167 -0.00128993
-0.0128855 -0.207226 0.193257 0.985479 -0.0952726 -0.140547
-0.00367279 -0.117843 0.160426 -0.136642 -0.967426 0.213108
-0.0130448 0.167021 0.147635 -0.252529 -0.941796 -0.221922
-0.0124385 -0.0814568 0.34522 -0.999972 -0.00748075 0.000886843
-0.038308 0.0627202 0.158792 -0.999986 -0.00521195 0.000549109
-0.00770601 -0.209648 0.101572 0.985938 -0.166304 0.0164232
0.00182095 -0.252073 0.34925 0.257985 -0.206631 -0.943794
0.00669923 -0.0977906 0.135562 0.701168 0.696375 -0.153056
0.000366493 0.0720942 0.217635 -0.0030268 0.666461 0.745534
0.0384338 -0.190101 0.412269 0.00513676 -0.951465 0.307715
0.0158861 0.281856 0.566667 0.160517 0.305731 0.938489
-0.0290017 0.175665 0.155794 0.81336 0.027345 -0.581118
-0.0584313 0.238061 0.176684 -0.776961 -0.29252 -0.557462
-0.0844196 -0.194195 0.590993 0.00501526 -0.922905 0.384995
0.00119936 0.210869 0.0913799 0.964539 0.20735 0.16331
0.0109864 -0.165948 0.315412 0.999418 -0.0174082 -0.0293435
0.00725745 -0.363278 0.144786 -0.627333 -0.207399 0.750625
0.00130622 0.335542 0.31609 0.965653 -0.050999 -0.254782
0.00295928 0.0994353 0.260625 -0.581415 0.757262 -0.297506
0.057597 -0.230634 0.258461 -0.444182 0.838483 -0.315671
-0.0148299 0.379543 0.04861 -0.70682 0.30887 -0.6364
0.0287379 -0.275811 0.20256 -0.00833446 0.388256 0.921514
-0.0154552 -0.220244 0.173453 0.342734 0.339715 0.875858
0.0116096 -0.210705 0.0244638 0.964773 0.119744 -0.234251
0.0112677 0.176783 0.563658 0.401059 -0.173002 0.899568
-0.0146441 -0.170498 0.0487734 -0.964539 -0.168864 0.202852
0.0126634 -0.410436 0.296599 0.96435 0.209771 -0.16132
0.0320212 -0.21077 0.326372 0.683852 0.720946 -0.112178
0.00264549 -0.404514 0.280222 0.137381 0.779269 -0.611446
0.0841485 -0.188929 0.594434 0.000934315 -0.0739605 0.997261
0.00191735 0.287731 0.317302 0.965038 0.0648757 -0.253953
0.0135281 -0.274344 0.133297 0.348214 -0.932108 0.099611
0.004364 0.137646 0.195654 -0.301558 0.167821 0.938562
-0.00757178 -0.455836 0.1493 -0.701283 -0.694085 -0.162629
-0.0386629 -0.210767 0.332702 -0.231274 0.945001 -0.23127
0.0123775 -0.436366 0.135603 0.999135 0.0408443 0.00786752
-0.00840423 0.302261 0.307584 0.141297 0.00813667 -0.989934
0.00519799 -0.137731 0.0617517 0.701754 0.561504 -0.438467
-0.0023985 -0.22766 0.369581 -0.257697 0.206655 0.943868
-0.0306099 -0.287279 0.18054 0.0057704 -0.814063 -0.580748
-0.0148642 0.295785 0.257151 -0.349265 0.925642 0.145609
-0.0416701 -0.21852 0.279759 -0.883822 -0.362953 0.295167
0.0053874 -0.337024 0.0408765 0.140105 0.423546 0.894974
-0.0602313 -0.237339 0.24527 -0.0265735 0.752048 -0.658573
0.0095497 -0.324519 0.0277331 0.704442 0.156336 0.69233
0.000794513 -0.122298 0.56621 0.258562 0.922221 -0.287497
0.00826057 -0.421135 0.0766211 0.707564 -0.547529 -0.446728
-0.0418249 0.212903 0.186981 0.565974 0.252435 0.784825
0.0254076 0.243415 0.182658 -0.788996 0.238635 0.566161
-0.00796728 -0.147663 0.501281 -0.965914 0.246195 -0.0799938
-0.0233049 0.316169 0.186349 -0.0231823 0.587572 0.80884
0.0314011 -0.203632 0.356036 0.22224 0.94276 -0.248622
0.00353648 -0.352025 0.0181178 0.258913 -0.411415 -0.8739
-0.0160501 0.397972 0.300125 -0.706852 0.434425 0.558243
-0.00559672 0.336754 0.0554853 0.14353 -0.22674 0.963321
-0.0163386 0.189665 0.260495 -0.701754 -0.561505 0.438468
0.00940909 -0.352643 0.201368 0.629985 -0.0345224 0.77584
0.00382306 -0.263275 0.316287 0.339541 0.935284 -0.0997787
0.00603012 -0.344179 0.100143 -0.633211 0.687778 -0.354972
-0.0578371 -0.228707 0.271174 0.434679 0.835954 -0.335015
-0.000348956 0.405227 0.292628 0.702841 0.441791 0.557527
-0.00456574 0.205295 0.510849 -0.709511 0.673114 -0.208595
0.103377 -0.184241 0.587307 -0.00521388 0.999934 -0.0102122
-0.0166619 0.227121 0.0771652 -0.706852 0.434416 0.558249
0.046001 0.291173 0.205655 0.125576 0.889549 0.439241
0.00395417 -0.169218 0.468852 0.258655 -0.918691 0.298502
-0.0562537 -0.222271 0.289288 0.434679 0.835954 -0.335015
0.120291 -0.190083 0.595362 0.868484 -0.475553 -0.139946
0.00123994 0.258621 0.191644 0.344104 -0.0948379 -0.93413
-0.0340986 0.296678 0.202198 -0.990894 0.0668041 -0.116905
-0.00210073 0.306244 0.0526622 0.142394 -0.00666384 0.989788
0.0493824 0.137579 0.273643 -0.0052419 0.994507 -0.104534
-0.0286541 0.268961 0.558716 -0.721562 0.498876 -0.480074
-0.0138081 0.233189 0.544945 -0.41485 0.123507 -0.901469
0.0175966 -0.257754 0.198572 -0.348491 0.75865 -0.550458
-0.033799 -0.272721 0.200692 -0.00833434 0.388254 0.921515
-0.0166249 0.173941 0.228252 -0.701382 -0.645013 0.303349
-0.000789598 -0.00904685 0.290165 -0.0030268 0.666461 0.745534
0.00615295 0.0946704 0.241696 0.80294 -0.553719 0.22064
0.0464814 0.106435 0.269486 0.00522393 -0.994508 0.104527
-0.053559 0.248905 0.172971 0.297549 -0.00897963 -0.954664
-0.0161051 -0.32356 0.200511 0.345173 -0.336161 -0.876271
0.0114784 -0.297421 0.0225507 0.999294 0.0130862 0.0352247
0.0253774 0.233026 0.56457 0.662097 -0.33786 0.668938
-0.00787441 -0.459464 0.177886 -0.701156 -0.712991 -0.00496347
0.00597608 0.215473 0.568284 0.134853 -0.141192 0.980755
0.00127684 -0.0719665 0.50817 -0.309968 0.273023 0.910702
0.00944804 -0.132974 0.0960886 0.708002 -0.554199 0.437717
0.00524167 -0.0985485 0.249315 0.701348 0.694021 0.162622
0.00282648 0.194929 0.437221 0.71449 -0.672946 -0.191434
-0.0153002 0.332991 0.311348 -0.704494 -0.156312 -0.692282
-0.0144635 -0.141906 0.0850084 -0.999153 -0.0340051 0.0231655
-0.00515378 -0.399959 0.233213 0.984608 0.0743021 -0.158199
-0.00228514 0.453057 0.224508 0.701349 0.694018 0.162627
0.0325337 0.247863 0.315584 0.969764 0.108125 0.218786
-0.0470728 -0.266132 0.206272 -0.923294 0.249374 -0.292132
-0.00473224 0.094998 0.190775 0.565284 0.0835373 -0.820656
0.00749488 0.183083 0.461334 0.966366 -0.245644 0.0761246
-0.00801723 -0.0904788 0.158307 -0.262302 0.942338 -0.20784
0.00789883 -0.107492 0.357286 -0.426711 0.599504 0.677136
0.0696832 -0.188607 0.581136 -0.00260216 0.403939 -0.914782
0.0438832 0.317757 0.179289 -0.999986 -0.00520022 0.000546348
-0.033449 0.305421 0.161339 -0.329231 -0.0238328 0.943948
0.0154206 0.231321 0.345854 0.968852 0.110299 0.221721
-0.0146405 0.439831 0.19486 -0.136646 -0.990593 -0.00732745
0.000354968 0.375276 0.311176 0.965045 0.116236 0.2349
0.00377997 -0.191383 0.0471652 0.259978 -0.42443 0.867335
9.78038e-05 -0.0354625 0.313783 -0.0030268 0.666461 0.745534
-0.0164683 -0.273183 0.178396 0.00577105 0.675547 -0.737294
-0.00680417 0.10843 0.249891 -0.803778 0.553688 -0.217646
0.0110746 -0.0269964 0.288773 0.664033 -0.496637 -0.558938
0.00667992 0.330122 0.176075 0.627068 0.55063 0.550992
-0.00759572 0.157208 0.449909 -0.950082 0.0861196 0.299881
0.00128976 0.06485 0.482615 -0.00110566 0.288737 0.957408
-0.0106258 -0.360025 0.349441 -0.702884 -0.316203 0.637158
0.0111194 -0.0996338 0.185281 0.964147 0.265364 0.00142151
-0.00759808 -0.294669 0.294457 -0.624935 -0.780672 -0.00261021
-0.0263684 0.0724025 0.164134 0.887184 0.11218 0.447571
-0.008337 0.425545 0.117473 0.262008 -0.872413 0.412611
0.00148433 0.112532 0.186768 0.000176601 0.10583 0.994384
-0.00411602 -0.168779 0.0648966 -0.253608 -0.609479 0.751145
-0.0142989 0.431138 0.133472 -0.136942 -0.895786 0.422864
-0.0118584 -0.4455 0.248345 -0.964216 -0.240425 0.111728
0.000820236 0.438828 0.137625 0.999506 -0.0305532 0.00733425
-0.0149113 -0.19103 0.58122 0.000946686 -0.283131 -0.959081
-0.00372233 0.255648 0.0425614 0.259015 -0.411413 -0.873871
0.000174105 0.432027 0.262205 0.964553 0.207315 0.163275
-0.0121355 -0.431867 0.100156 -0.964355 -0.238711 -0.114174
-0.103616 -0.18731 0.593537 -0.00261894 0.587676 0.809092
-0.00764179 -0.200639 0.358845 -0.258775 0.411453 0.873923
-0.00190534 0.317846 0.260741 0.340156 0.935073 -0.0996653
-0.0321185 0.32687 0.165162 0.455138 0.64685 -0.61191
-0.0190838 0.399932 0.0805308 -0.99918 -0.0282462 0.0290043
-0.00974706 -0.186346 0.159228 -0.985457 0.0638909 -0.157454
-0.00873662 -0.173187 0.199389 0.343048 0.150123 -0.927244
0.00407525 -0.404488 0.203961 -0.344246 0.0948557 0.934076
0.0025893 -0.285116 0.0613948 -0.985664 0.129526 0.108115
-0.0179249 0.186801 0.114293 -0.964348 -0.238736 -0.114182
-0.0340323 0.311743 0.206307 -0.990536 0.0270203 0.134566
-0.00248798 -0.127362 0.071615 -0.261649 0.758631 -0.596673
0.00879433 -0.136731 0.585576 0.999999 -0.000567239 -0.0013785
-0.0130131 -0.197788 0.0237839 -0.966227 0.109683 -0.233184
0.0117719 -0.385036 0.31867 0.964541 0.168859 -0.202846
-0.0101759 -0.434253 0.207951 -0.146929 0.965947 -0.212974
0.0367644 0.256886 0.285071 0.894501 -0.443947 -0.0527182
0.0121645 0.217086 0.369889 0.863314 0.382904 0.328745
0.00335422 0.168648 0.398105 0.298607 0.888704 -0.347906
-0.00365513 -0.179326 0.0261003 -0.259977 0.42443 -0.867335
-0.00169659 -0.145724 0.411724 -0.211153 0.648931 0.73096
-0.00327454 -0.105637 0.532769 -0.305349 0.271374 0.912753
0.0143589 -0.260637 0.141879 -0.340391 -0.85877 -0.382947
0.0018243 0.18328 0.186644 0.994474 0.104987 0.000200885
0.0134488 -0.0778311 0.339507 0.999996 0.00293445 -0.000206795
0.00468724 -0.104877 0.111881 0.701368 0.645027 -0.303355
0.00600008 -0.147827 0.489354 0.707174 0.672434 -0.218488
0.000424488 0.351546 0.225915 0.348594 -0.758607 0.550452
-0.0320728 0.228231 0.206628 0.586518 0.170335 0.791822
0.00579084 0.186656 0.544085 0.134459 -0.238958 -0.961676
-0.00231524 0.167234 0.562066 -0.396687 -0.189665 0.898146
-0.00217934 0.163748 0.172112 0.708546 -0.705641 -0.00569579
0.00969958 -0.189257 0.581108 -0.000945789 0.0770514 -0.997027
