-0.0636948 0.184048 0.377753
-0.088133 -0.000606402 0.310034
0.241984 -0.00760435 0.480925
-0.09525 -0.173881 0.322021
0.0844185 0.235334 0.661125
-0.0118249 -0.123461 0.311534
-0.178346 0.196603 0.490997
-0.0204321 0.0232174 0.289792
-0.111623 -0.218144 0.301046
-0.00967262 0.0736481 0.299749
-0.0281346 -0.156413 0.293324
-0.0604579 0.218243 0.590142
-0.0414164 0.196152 0.488334
-0.23041 0.00273605 0.479601
-0.0452686 -0.0689618 0.304496
0.0231513 0.221284 0.60953
0.125199 0.192039 0.406877
-0.0678545 0.215748 0.510439
-0.25832 0.213806 0.468502
-0.250162 -0.11847 0.0106107
0.259342 -0.255597 0.0611558
0.0807581 -0.15621 0.313834
-0.109248 0.220615 0.647979
0.0145171 0.0853062 0.303509
-0.258419 0.22242 0.41216
-0.0819415 0.170566 0.358615
-0.141965 0.249338 0.687013
0.000971049 0.228028 0.639219
0.124192 0.195969 0.426286
0.188894 0.0810073 0.316172
0.0472523 0.201116 0.531412
-0.145458 0.0635979 0.305488
0.245327 -0.0954431 0.482312
0.0902143 0.263625 0.69831
-0.211657 -0.197301 0.291345
-0.0609081 0.215742 0.472744
0.0901621 0.245684 0.682085
0.256685 0.250796 0.0264893
0.0686596 0.0959381 0.304313
0.190711 0.21082 0.548272
-0.254081 0.2226 0.445757
0.251427 -0.150116 0.475333
0.18118 0.257204 0.695099
0.0658747 0.120571 0.287877
-0.0519001 0.01816 0.302746
-0.0852574 0.115093 0.287987
-0.0920103 0.215587 0.504629
-0.0918023 0.179864 0.39553
-0.0658581 0.181042 0.365851
0.146334 0.201071 0.454679
-0.253063 -0.0140656 0.00494746
0.174827 -0.2213 0.310361
-0.0993742 -0.233059 0.286973
0.0546477 0.013778 0.306737
0.0767656 0.164933 0.303894
-0.138997 -0.155665 0.313903
0.0862095 0.0724716 0.302662
0.0342378 0.212071 0.541987
-0.250861 -0.204793 0.283709
0.093629 -0.124051 0.322981
0.0101475 -0.0470676 0.30645
-0.112149 -0.217585 0.311923
-0.00768932 0.233748 0.649372
-0.0495763 0.091688 0.312634
-0.150129 -0.0196613 0.316354
0.256199 -0.202575 0.302899
0.236787 0.0225938 0.474688
-0.249573 0.242686 0.106385
-0.173272 -0.168259 0.312923
-0.0211211 0.0122626 0.305096
0.0873467 0.146532 0.31228
-0.0423061 -0.0750299 0.305252
-0.0566035 0.217709 0.484736
0.0185356 -0.129211 0.312134
0.212336 0.130106 0.47608
0.111438 0.108489 0.317161
-0.065239 -0.151649 0.313864
0.192235 0.19033 0.421147
0.138037 0.196647 0.493528
-0.0170363 0.189293 0.313993
0.175613 0.20528 0.567515
0.0486868 -0.153322 0.310862
-0.192911 0.171382 0.353731
0.105707 0.00949911 0.311241
0.0790609 0.220553 0.648306
0.0472579 -0.0590547 0.291409
-0.254392 -0.11157 0.474903
-0.12014 -0.0537082 0.317327
0.0126106 0.198647 0.509615
0.0588075 -0.0858115 0.317239
-0.0898124 0.223166 0.626381
-0.150529 0.0433097 0.305056
0.253687 -0.234161 0.00382349
0.0460974 -0.12357 0.310875
-0.0551407 -0.132053 0.322581
0.0401119 0.232606 0.678581
0.137992 -0.220172 0.30007
0.100125 0.191542 0.456016
-0.223726 0.0932663 0.482602
-0.0452625 0.200976 0.453096
-0.174032 -0.220645 0.31053
-0.0853072 0.206989 0.419374
0.0174871 0.102076 0.313435
-0.156546 0.227818 0.667948
0.0962765 0.241223 0.648143
0.0256445 0.187412 0.385761
-0.0964618 0.101427 0.290958
-0.18661 -0.142938 0.32388
-0.0449383 0.020857 0.302662
-0.0695966 0.135943 0.319982
0.066273 0.218404 0.640953
-0.0152556 -0.1627 0.313288
-0.0666231 -0.0548492 0.303759
-0.0215378 0.212077 0.541634
0.0586183 0.236486 0.664057
-0.0176892 0.172203 0.364655
-0.0731665 0.214936 0.626837
-0.0862407 -0.0544451 0.306965
0.0963992 0.2157 0.489013
0.0884931 0.199176 0.37273
0.120986 0.192434 0.408773
0.109516 -0.121318 0.3232
0.0240713 0.21303 0.562853
-0.145989 0.210847 0.530016
-0.063941 0.114084 0.288007
-0.0789455 0.211594 0.550119
-0.193789 0.216201 0.595414
-0.0920315 0.182741 0.344815
-0.108776 -0.0889532 0.320363
-0.114548 0.254778 0.693021
0.156213 0.207394 0.502292
0.0878548 0.203312 0.55075
0.134643 0.178445 0.390237
-0.0878568 0.243103 0.639067
-0.249892 -0.120179 0.472392
-0.0258406 0.223599 0.628339
-0.00499181 0.0821752 0.303377
0.251149 -0.0854651 0.00602346
0.00920185 0.11346 0.288018
-0.0831614 -0.0886903 0.309224
0.141219 0.197327 0.499224
-0.145954 0.212614 0.545357
-0.129401 0.214377 0.624281
-0.224852 0.09506 0.481948
0.142629 0.265533 0.702653
-0.142463 -0.046003 0.318012
-0.258121 -0.141428 0.0101734
-0.254889 0.235832 0.27073
0.221547 0.112131 0.482429
-0.0466011 0.217914 0.598217
-0.00544626 0.231819 0.67703
-0.0299425 0.160704 0.297001
0.0303603 0.210079 0.601056
-0.0432722 0.0220332 0.306056
0.00264416 -0.131218 0.321959
0.120776 0.206834 0.497223
0.145546 -0.22427 0.308857
0.0434646 -0.0453128 0.291139
0.0547237 0.263565 0.70824
0.0597427 -0.228974 0.293443
0.0718506 0.182038 0.406111
-0.23352 -0.0293551 0.48196
0.00211595 0.183321 0.411907
0.12225 0.0192433 0.302905
0.0721598 0.0980039 0.304141
-0.0174815 0.110558 0.305121
0.0575443 -0.0773975 0.308508
0.109724 0.238509 0.688834
-0.0498408 0.167277 0.308668
0.231159 0.0647015 0.475028
0.17311 -0.199103 0.307858
-0.000376701 0.18278 0.366962
0.184517 0.214107 0.560148
-0.011314 -0.194666 0.294394
0.130159 -0.0444754 0.317087
-0.253461 0.239144 0.228833
0.00134391 0.0324264 0.295868
0.258949 0.0323293 0.00744271
0.0487126 0.238432 0.668396
0.132507 -0.19021 0.309834
-0.0283176 0.22854 0.646236
0.0469206 -0.200589 0.300309
0.105901 -0.175434 0.321857
-0.116279 0.191862 0.456858
0.0968286 0.0964262 0.305658
-0.0637031 -0.0352544 0.30114
0.0529442 0.165611 0.306008
0.0714306 -0.170452 0.309469
-0.0182288 0.00855258 0.305064
0.0988651 0.183174 0.411614
0.229289 -0.00826252 0.47605
0.0103611 0.230628 0.563675
0.0166316 0.164918 0.303388
-0.00373328 0.210473 0.603422
0.0553612 -0.200408 0.307507
-0.0666012 0.200599 0.460094
0.0493771 0.216118 0.57524
-0.0991116 -0.0603755 0.316489
0.262013 0.0967659 0.00879122
-0.0922401 0.169571 0.355039
-0.0964782 -0.240601 0.293626
-0.0302757 0.196129 0.426445
-0.0353226 -0.198749 0.291031
-0.16322 0.149051 0.312688
0.00508267 -0.0273611 0.290786
-0.160298 -0.0667354 0.320367
0.0476327 0.228995 0.642681
-0.164436 0.0612844 0.31553
-0.249926 -0.249405 0.0860178
0.0374856 -0.164481 0.293481
0.000280459 -0.0512906 0.310566
0.0696983 0.00480497 0.303255
-0.064485 0.149152 0.313683
-0.252329 -0.0740529 0.481028
-0.0665507 0.186594 0.314467
-0.0791576 0.193523 0.413257
0.00487709 0.215692 0.571822
0.250854 -0.261711 0.0469068
-0.149156 0.210424 0.602321
-0.0855509 0.219914 0.498002
0.131043 0.211389 0.536798
-0.0182726 0.205271 0.409262
0.0946182 0.186536 0.388741
0.059377 0.206405 0.41656
0.259368 0.0147118 0.0106724
-0.00882439 0.188442 0.437749
-0.0835622 0.211269 0.547315
-0.120552 -0.136002 0.3142
-0.050844 0.195519 0.349765
0.0335778 0.0515183 0.307403
0.0929343 0.229024 0.554341
0.0706168 0.263601 0.698299
0.07512 0.210581 0.529346
-0.139378 0.206648 0.493765
0.0776667 -0.0753928 0.307164
0.0153652 0.236226 0.685112
-0.0646376 0.193583 0.421055
-0.016131 -0.125316 0.310915
-0.10596 0.206631 0.493858
0.0614663 -0.0445308 0.291123
0.0402614 -0.0878893 0.316807
-0.0892018 -0.110448 0.310388
0.0836295 -0.0901188 0.30942
-0.0840006 0.228483 0.640539
-0.0150633 0.138263 0.287531
-0.0858499 0.18844 0.306297
-0.116571 0.20634 0.573966
-0.0169277 0.234575 0.649239
0.0711854 -0.139745 0.313661
0.143339 0.14789 0.320118
-0.119262 0.0638358 0.313809
-0.0396235 0.142432 0.310994
0.142277 0.194035 0.416601
0.058016 0.148256 0.318201
0.139008 0.177299 0.347859
-0.0794698 0.230523 0.562576
0.0590581 -0.04809 0.306518
0.0918085 0.208504 0.504863
0.0129363 0.0152955 0.304947
0.0070127 0.196409 0.490725
0.0482631 0.214268 0.572925
-0.160493 -0.202012 0.291919
-0.236502 0.00776036 0.481579
-0.15111 0.215013 0.626879
0.107671 -0.161613 0.323227
0.0555063 0.0406584 0.307656
-0.225848 0.0343983 0.473811
0.0836807 0.187478 0.392843
0.0233252 -0.0767315 0.291757
0.254045 -0.169167 0.444233
-0.17362 -0.0176745 0.307433
0.0964037 0.220858 0.578655
0.0914253 0.191292 0.45445
-0.0256089 0.204798 0.491937
-0.0496274 -0.0807144 0.291836
0.0281778 0.202883 0.465986
0.16487 0.163725 0.337194
0.0992547 0.0505753 0.301962
-0.027398 0.0864466 0.288549
0.251902 0.248602 0.0237303
0.142373 0.200796 0.529314
0.186793 0.0994476 0.317098
0.0899672 -0.181146 0.311338
-0.0808339 0.217405 0.504681
-0.0749559 0.228302 0.549086
0.0539219 -0.146099 0.29312
0.259522 0.225631 0.354303
-0.253074 0.240754 0.0857809
-0.0261339 -0.152828 0.323206
0.180599 0.197579 0.434916
-0.249918 0.135147 0.0120127
0.0230001 0.233379 0.580478
-0.0305032 -0.21796 0.311798
0.0963797 0.19077 0.37636
0.251591 -0.222257 0.185571
-0.00617779 -0.226613 0.307449
0.113383 0.220898 0.607865
0.00164133 0.197761 0.443248
0.257278 -0.0923801 0.0130008
0.030456 0.0773675 0.303208
-0.096593 -0.049283 0.298405
0.128159 0.196129 0.489319
-0.0301886 0.21957 0.496193
-0.0506565 0.163356 0.311619
-0.0916677 0.0171555 0.309866
0.257813 0.225315 0.391091
-0.0387383 0.218305 0.590673
0.156424 -0.0563667 0.319476
-0.111105 0.0709183 0.313758
-0.0552217 -0.0288322 0.299822
-0.000808761 -0.0461319 0.309842
-0.191634 0.201286 0.459005
0.00800673 -0.172145 0.293633
-0.19203 0.228204 0.665559
0.0780976 0.207128 0.499446
-0.124876 0.0491916 0.313432
-0.245275 -0.111276 0.4823
0.0616511 0.218148 0.48801
-0.00254144 -0.0385024 0.305856
0.0226794 -0.148275 0.311009
0.114009 0.195812 0.425444
-0.259114 -0.100254 0.00936804
0.124852 0.247544 0.685022
-0.134824 -0.0471362 0.308007
-0.186226 0.182716 0.408193
0.0843397 0.197102 0.360093
-0.0364118 -0.197572 0.300183
-0.0636581 0.143472 0.308323
-0.122666 -0.233087 0.286847
-0.050564 0.215969 0.631266
0.0744137 0.224803 0.528565
0.0716449 0.197816 0.502914
0.0425411 0.0824067 0.311106
0.252998 -0.17641 0.412038
0.232416 -0.0189958 0.47376
-0.25899 -0.180791 0.364527
-0.0521617 0.235971 0.595862
0.0917341 -0.142874 0.300392
0.0847979 0.0813757 0.303455
-0.0367447 -0.0948153 0.308072
0.0570391 0.115069 0.306576
0.00680011 0.158292 0.310514
0.242442 -0.0188693 0.482941
-0.134067 0.174972 0.374876
-0.0392587 -0.164313 0.322932
-0.0343536 0.207949 0.425469
0.0849616 0.20596 0.41398
0.258419 -0.159727 0.00701621
-0.258545 0.250128 0.0332183
-0.157616 -0.233755 0.286416
0.0284885 0.173189 0.316768
0.083571 -0.12824 0.313277
-0.250335 -0.169936 0.0106436
-0.0537307 0.124238 0.306143
0.0745342 0.222693 0.624832
0.0187939 -0.0637172 0.291501
0.132283 0.235441 0.661513
0.0815612 0.21201 0.450771
0.120191 -0.14595 0.3142
0.0170829 0.197052 0.495939
0.132633 -0.216255 0.302046
-0.134085 0.208874 0.592378
-0.240412 -0.0669582 0.480112
-0.00622809 0.220645 0.614405
0.0260934 -0.0449456 0.300262
-0.123162 -0.0551633 0.308006
0.0476571 -0.0591968 0.312854
0.135977 0.161813 0.330644
-0.0159868 -0.225557 0.308047
0.0672081 0.210696 0.543522
0.0848666 0.195151 0.421959
0.0484493 -0.0287205 0.305193
-0.0889119 0.175099 0.375553
-0.138131 0.21418 0.558558
-0.0609161 -0.0821013 0.291863
-0.0887942 0.208961 0.527217
-0.0660409 -0.0374358 0.311187
-0.250615 -0.134826 0.480237
0.136255 0.187291 0.432281
-0.0168809 0.0683985 0.288904
0.00557163 -0.0291305 0.307635
-0.192647 0.0536078 0.313478
0.0700356 0.053721 0.299973
0.0855577 0.212269 0.556992
-0.0208481 0.194995 0.346729
0.18204 0.204987 0.482667
-0.208389 0.217799 0.503203
-0.0640216 -0.174156 0.30907
0.017242 0.226339 0.633355
0.192158 -0.144261 0.315028
-0.132247 0.200277 0.522686
0.0145884 -0.0665333 0.291556
0.00224865 0.166793 0.289598
0.134586 -0.170503 0.312722
0.206277 0.212983 0.482552
-0.192475 -0.238129 0.295169
-0.0777857 -0.0168695 0.290581
0.259552 0.245504 0.0623177
-0.00218841 0.177423 0.316041
0.0304101 0.240985 0.692203
0.00633 0.188583 0.305474
-0.011058 0.19653 0.491569
-0.0367558 0.0838451 0.303446
0.0917284 -0.149551 0.303711
0.256714 0.225149 0.403051
0.248742 0.21167 0.488658
-0.0581753 0.211873 0.611468
0.135112 0.19522 0.422522
0.137073 -0.0844355 0.311452
0.120366 0.183138 0.411531
0.00312297 -0.226108 0.296034
0.0199057 -0.137347 0.311108
0.106551 0.216364 0.633499
0.163496 0.10426 0.307732
0.00303682 0.0200063 0.295352
-0.101101 0.191973 0.405639
-0.187644 -0.0608182 0.310403
0.049799 -0.00313035 0.306912
0.0817495 -0.205381 0.316167
0.0970961 -0.232619 0.288378
0.0677329 0.184199 0.295846
0.073771 0.046675 0.299719
0.072933 -0.0312258 0.30536
0.136477 0.265916 0.698938
0.017516 0.180813 0.288985
0.0330093 0.101902 0.303968
0.0299129 -0.0552273 0.291334
-0.0180965 0.179405 0.354559
0.250626 0.102842 0.0120575
0.196474 0.209455 0.50971
-0.0634292 0.213212 0.563713
0.11697 0.0190487 0.302459
-0.148793 0.192353 0.407293
-0.00270918 -0.0336026 0.305524
-0.258946 -0.0637844 0.010464
0.137676 0.201255 0.45575
0.183777 0.18047 0.358952
-0.0493729 -0.223926 0.308957
0.191775 -0.212996 0.30407
0.188242 -0.196235 0.299259
-0.259175 -0.247703 0.0877525
-0.149606 -0.0417464 0.308358
0.182799 -0.197647 0.318155
0.0652927 -0.134565 0.313314
-0.0573865 0.00246066 0.290201
0.0229997 0.200544 0.460289
-0.084576 -0.0706258 0.308068
0.144764 -0.231532 0.304188
-0.0338227 -0.0525353 0.291282
0.119981 0.208584 0.591919
0.0183905 0.18614 0.38036
0.00168715 0.205494 0.410723
-0.0929243 -0.0307425 0.312746
-0.252267 -0.217653 0.235217
0.0826121 -0.0961136 0.309643
-0.159753 0.179949 0.356069
0.171394 0.195124 0.422185
0.00527196 0.191185 0.32369
-0.0452711 0.21129 0.608406
-0.0954974 -0.240282 0.288648
0.192594 -0.219319 0.3021
-0.0221514 0.08334 0.301123
-0.212493 0.161006 0.473768
-0.0630364 0.210677 0.441922
0.0694077 0.174343 0.287442
-0.0402717 0.23845 0.611002
0.0239133 0.228967 0.55364
0.241719 -0.00452152 0.480307
-0.192992 -0.231294 0.301315
-0.0898085 0.098545 0.288313
0.109438 0.119597 0.3087
0.107948 0.179798 0.395971
0.0571895 0.171001 0.328534
-0.0119225 0.168524 0.328215
-0.0510092 0.0909481 0.303762
0.257261 -0.253254 0.0532569
0.0902894 0.206292 0.574928
-0.158436 -0.18562 0.310594
0.161869 0.0651281 0.305942
-0.111366 -0.18545 0.310631
-0.0450579 0.0813608 0.311091
0.107933 0.148324 0.317756
0.163907 0.207051 0.499403
0.0813429 -0.0146838 0.310239
0.0712784 0.182584 0.372333
-0.0108651 0.140768 0.3105
0.0957708 0.19489 0.428417
0.146114 -0.202716 0.306899
-0.103271 0.210889 0.5307
0.0295563 -0.0937931 0.307704
0.25707 -0.176372 0.375851
-0.182721 0.200461 0.52394
-0.0489107 0.168797 0.317538
-0.13727 -0.0272589 0.306451
0.0237935 0.0499143 0.302612
-0.147154 0.231093 0.648766
0.227897 -0.00203561 0.478095
0.0575758 0.186508 0.427958
-0.00209276 0.110695 0.304966
0.0691438 0.192945 0.33472
0.16651 -0.0788562 0.321274
0.115618 0.210062 0.601424
0.0780239 0.200707 0.528035
-0.0961295 0.156152 0.310149
0.0925729 0.169753 0.327728
-0.259072 -0.138473 0.00962144
-0.252563 -0.174404 0.0129101
-0.257331 -0.036636 0.00566818
-0.10262 0.133113 0.320044
0.250522 -0.157434 0.458677
0.0549933 -0.0654657 0.314132
-0.0940149 0.246971 0.698905
-0.0497949 0.220758 0.648565
0.0734564 0.22778 0.546673
-0.0276746 0.218958 0.492485
0.104589 -0.0834407 0.309814
-0.0946824 -0.0450225 0.291135
0.103889 0.174365 0.338435
-0.0821663 0.208124 0.426295
-0.0439518 -0.0926746 0.317633
-0.00996636 0.121982 0.316698
-0.0774151 -0.114309 0.310544
-0.119718 -0.113495 0.313276
-0.0832333 0.170798 0.331299
0.0931308 0.182996 0.410733
0.0634876 0.21611 0.632275
0.0769295 0.0850803 0.303501
-0.0562115 0.170832 0.327776
0.00499812 0.191741 0.456735
-0.0395996 0.239526 0.670667
0.232028 -0.031655 0.478026
0.256222 -0.170637 0.398517
-0.0920016 0.224941 0.557268
0.0788313 -0.0379362 0.302563
0.257527 0.234279 0.17178
0.0273491 -0.139706 0.311115
-0.138066 0.193738 0.469377
-0.0589192 -0.139525 0.323125
-0.0044487 0.19885 0.511229
-0.0966837 -0.160804 0.294537
-0.178009 -0.171947 0.312519
-0.13821 0.019097 0.304139
0.0919273 0.0887778 0.296035
0.0917348 -0.136307 0.308285
-0.118748 0.210104 0.600416
-0.256004 -0.166157 0.452178
0.0486088 0.050948 0.298441
0.0646096 -0.128066 0.292765
-0.0594718 0.204323 0.5581
0.117463 0.179395 0.394254
0.0687203 -0.0380662 0.290996
0.0168982 0.120689 0.306813
0.0162162 0.0165353 0.289923
-0.0679506 0.104465 0.315088
0.138994 0.108198 0.307969
0.254874 0.251464 0.0618981
-0.257389 0.220388 0.36707
-0.140675 0.203655 0.470457
-0.0708501 0.184548 0.291541
-0.0339782 0.0687444 0.299595
0.193274 0.0179027 0.313248
-0.252365 0.110319 0.0145892
0.0375828 -0.0687962 0.2916
0.0838894 -0.068222 0.307896
-0.092014 0.212324 0.512501
-0.0802391 0.169148 0.326394
0.0560428 0.167221 0.289311
-0.0949516 -0.122863 0.322934
-0.0446367 0.227736 0.545801
-0.106664 0.184315 0.416272
-0.0964214 0.148721 0.294712
-0.122156 0.189647 0.39493
-0.087882 -0.00219249 0.300466
0.0648608 -0.162813 0.323134
0.0963864 0.193483 0.365815
0.0240744 0.118121 0.305578
-0.0913963 0.219664 0.49645
-0.0830945 0.0196986 0.302696
-0.0491896 0.174275 0.337768
0.0416347 -0.029029 0.308579
0.158649 0.212497 0.615768
-0.0836014 0.0783982 0.288709
0.144399 0.216026 0.575169
-0.125121 0.224074 0.62326
-0.058174 0.264859 0.708205
-0.111915 0.194113 0.472219
0.0250893 -0.239465 0.295703
-0.0641429 0.187219 0.391159
-0.146708 0.221053 0.649181
-0.0937936 -0.114496 0.312558
0.182063 0.0958857 0.316891
-0.00357648 0.211552 0.550337
-0.0828423 0.096988 0.314758
0.0854984 0.117804 0.287931
0.0144806 0.0807093 0.300697
0.159142 0.210502 0.604499
-0.240629 0.00388297 0.482411
0.0600496 -0.239246 0.288245
0.0547083 -0.140228 0.313407
-0.0351682 -0.219342 0.311212
-0.138756 -0.0675786 0.319741
-0.0581358 0.220704 0.606035
-0.0937696 -0.154089 0.293279
0.0917633 -0.108593 0.29605
0.00669086 0.185261 0.421391
-0.0412718 -0.195136 0.2982
-0.0680248 0.163937 0.312183
-0.0778342 0.195054 0.479291
-0.0859012 0.192433 0.415246
0.191444 0.206823 0.520133
-0.170216 0.0195957 0.315292
-0.0692768 0.177883 0.354338
-0.0981522 -0.223192 0.298106
0.0182194 0.0261053 0.295696
-0.109623 0.212523 0.614709
-0.0166963 -0.0343557 0.298764
0.0237007 0.207847 0.585993
0.127063 0.252074 0.703284
-0.172862 0.192245 0.406667
0.0504525 0.171107 0.32882
-0.189818 -0.15787 0.313764
0.0105654 0.161409 0.308754
0.132282 0.202183 0.461633
-0.0708261 0.235245 0.591353
0.125198 0.11707 0.318335
-0.146464 0.187506 0.432135
-0.116754 0.176637 0.344953
-0.00418936 0.201022 0.463291
0.0655017 0.215821 0.57316
0.152744 -0.115768 0.313632
-0.211048 0.212511 0.511114
-0.130371 0.0597932 0.304599
-0.162779 -0.235508 0.300384
-0.106039 0.0618554 0.3128
-0.0940907 0.148259 0.308981
0.0233942 -0.04493 0.306301
0.0399371 0.195829 0.425216
-0.257526 -0.165461 0.420164
-0.0964506 -0.126928 0.323194
-0.121154 -0.201231 0.291451
-0.107146 0.243051 0.694678
0.187985 -0.102395 0.313002
0.126753 -0.150898 0.314082
-0.0109356 0.221671 0.611437
0.255081 -0.221939 0.222193
0.0474368 0.181319 0.367303
0.0571066 0.204973 0.481687
0.116821 0.0830874 0.314987
0.192097 0.235377 0.677188
-0.0245568 0.00609966 0.305259
0.0255706 -0.0706502 0.304047
-0.0559909 0.0365338 0.297872
0.231453 -0.00967693 0.484009
0.169389 0.213309 0.55351
-0.13813 0.206043 0.571512
0.0427499 0.00198646 0.306209
0.0469259 0.212552 0.453892
0.135843 0.195436 0.423624
-0.0050294 0.205805 0.412579
0.190929 0.0836215 0.316188
0.144584 -0.115591 0.323291
0.0989223 0.0960426 0.315346
0.190632 0.205903 0.55823
-0.25265 -0.107409 0.480547
0.0869326 -0.107098 0.311519
-0.0456468 0.00992758 0.2966
0.159448 0.109835 0.308132
-0.0173487 0.191691 0.40467
0.0451846 0.195285 0.430269
0.0233352 0.207583 0.502964
0.0652654 0.214385 0.561579
0.0313625 0.148766 0.315159
0.00595507 0.164936 0.290921
0.0775744 0.198352 0.367658
0.229994 0.0653814 0.473766
0.22616 0.0640218 0.483191
-0.252232 0.22208 0.446132
0.0887493 0.225677 0.662939
-0.167152 -0.0109695 0.31654
-0.254016 -0.110409 0.479403
0.129141 0.188353 0.437914
-0.192775 0.214121 0.612365
0.240524 -0.0623028 0.474831
0.00270942 0.0703017 0.288866
0.0650473 0.234903 0.682943
0.179576 0.210831 0.502216
0.023965 0.212543 0.558844
0.0964026 0.220061 0.541719
0.0888232 0.199919 0.521226
-0.0219369 0.0785052 0.303244
0.0822186 0.200726 0.528231
0.25459 -0.218149 0.238454
0.189986 0.217155 0.591799
0.0518251 0.21528 0.580491
-0.0807354 0.181512 0.361853
0.190527 0.18481 0.382573
-0.252453 -0.0886722 0.473632
-0.0739828 0.207554 0.583206
0.19225 0.209844 0.553833
0.218102 0.0839524 0.478278
-0.258726 0.243073 0.130709
-0.0920442 0.233661 0.656389
-0.055583 -0.109031 0.320245
0.108619 -0.2406 0.293911
-0.0197797 0.143212 0.308293
0.257889 0.23483 0.166791
-0.257144 -0.14117 0.0101734
0.0593975 0.126807 0.318211
-0.108067 -0.0913615 0.320561
-0.0561434 0.230914 0.675044
-0.0488468 0.206734 0.495098
0.013407 0.1393 0.307757
-0.10484 -0.0144168 0.31245
0.108654 0.204587 0.561415
-0.0877123 -0.149669 0.310972
0.00846113 0.204543 0.560355
-0.25127 0.229032 0.251277
0.0864975 0.183378 0.412543
-0.0590056 0.200999 0.462798
0.0601886 0.118056 0.307124
-0.149809 0.248907 0.700791
0.0811142 0.0735105 0.31204
0.0825369 0.191463 0.411227
-0.254757 0.235322 0.277682
0.14835 0.00683206 0.305089
-0.0342903 0.0472124 0.307071
0.255185 0.219738 0.0155592
0.0107826 0.193196 0.335949
-0.00896986 -0.16891 0.309622
-0.254853 0.241358 0.0753897
0.0854723 -0.202364 0.299458
0.187332 -0.0414136 0.309039
0.0782598 -0.0233251 0.310699
0.150189 0.223936 0.623706
-0.0651855 -0.206593 0.305701
0.152555 -0.233108 0.287353
-0.170199 0.172674 0.33274
0.0424177 0.118127 0.287926
-0.0342588 -0.0393242 0.291022
0.0374405 0.0950806 0.312709
-0.254389 0.00481153 0.00483062
0.0868093 0.212837 0.501669
-0.0353949 0.217732 0.597158
0.13408 0.21809 0.640075
-0.04225 0.164418 0.312682
0.0759954 0.202515 0.392981
0.10579 0.147774 0.320957
-0.0553228 -0.181936 0.311205
0.254842 0.245525 0.139796
0.0377609 -0.0137264 0.306895
0.0331886 0.191322 0.454324
-0.0938941 0.173405 0.316622
0.02496 0.147754 0.287343
0.0260639 0.218148 0.590026
-0.258061 -0.207789 0.245497
0.255911 -0.169487 0.00400877
-0.0875275 0.179107 0.392268
-0.0225997 0.168218 0.350742
-0.25685 0.0772894 0.00602242
-0.058108 0.213747 0.555573
0.0489936 0.0841718 0.288593
0.0505518 0.202313 0.541843
-0.0608704 0.17303 0.367689
-0.163281 0.188903 0.439514
0.225243 0.0835114 0.48508
0.0136539 0.216158 0.475657
-0.0880468 -0.177014 0.31192
-0.163887 0.238678 0.668534
-0.142392 0.232002 0.677158
-0.146773 -0.223432 0.30919
0.0432119 0.195528 0.423696
-0.0272641 -0.183494 0.320743
-0.127837 -0.183648 0.310943
0.145687 0.211564 0.610726
-0.168917 0.199981 0.44643
-0.0144566 0.207024 0.419947
-0.154448 -0.215096 0.302481
0.251559 -0.0786204 0.47582
-0.057171 0.195066 0.346976
-0.249771 -0.19281 0.319026
0.172462 0.21899 0.643279
-0.0314404 0.2099 0.599568
0.0259939 0.0838451 0.303448
-0.101537 0.196036 0.425678
-0.133421 0.0372811 0.303994
0.140236 0.13531 0.310695
0.127624 0.162758 0.330298
0.0722069 0.203315 0.550655
-0.185151 0.172447 0.332056
-0.036026 0.1436 0.287426
0.00668 0.224771 0.528021
-0.0841003 0.0289734 0.299717
-0.0833062 0.0343508 0.299861
-0.00200385 0.236189 0.597444
0.0980124 0.180966 0.294608
-0.0757302 0.136781 0.307471
-0.192008 -0.101449 0.321756
-0.043727 -0.229028 0.293296
-0.0296411 0.166766 0.319715
0.152964 0.0936175 0.316738
-0.0262184 0.214667 0.625869
0.0049101 -0.065099 0.302991
0.177049 0.203274 0.551074
0.0346296 0.191108 0.453032
-0.0351487 0.192184 0.329559
0.182539 0.195751 0.425424
0.0567233 0.0873744 0.312313
0.0426372 -0.171422 0.322327
0.25596 -0.21495 0.251009
0.133422 -0.141953 0.323876
0.0599106 0.211234 0.534935
-0.0146173 -0.172862 0.322136
-0.193507 0.181278 0.389602
0.253157 0.154205 0.00610291
0.17932 0.248728 0.686584
-0.136116 0.137267 0.31092
-0.0205324 -0.147169 0.311036
-0.0707896 0.116554 0.287958
-0.0222583 0.0893571 0.303684
0.259499 0.231261 0.245501
0.0333134 -0.174563 0.309037
-0.0244448 -0.152092 0.293239
-0.0414812 0.16061 0.302352
0.0533618 -0.160011 0.313519
-0.186463 0.264626 0.70846
-0.112744 -0.13338 0.323751
0.110764 0.173073 0.368403
0.025101 0.130508 0.308603
-0.187835 0.0707159 0.306141
-0.19224 -0.213953 0.312262
-0.0561413 0.213016 0.549478
-0.105498 0.0183019 0.311116
0.0589025 0.212207 0.613775
-0.0360259 0.160125 0.299123
0.187653 -0.19565 0.292839
-0.0609094 -0.131997 0.313043
-0.063892 0.176516 0.349712
0.153141 -0.0116124 0.315951
-0.0242705 0.265253 0.705418
0.0595857 0.198034 0.504708
-0.01416 -0.174302 0.293675
0.259642 0.233412 0.229572
-0.15507 0.180289 0.357286
0.181355 0.241145 0.674277
0.183729 -0.205098 0.306214
0.253851 -0.142471 0.0101734
0.00933716 0.120934 0.287871
-0.111882 -0.196827 0.291598
-0.0619728 0.172997 0.316589
0.0541545 -0.0301423 0.309503
-0.0527192 -0.0251283 0.299259
0.176836 0.0475107 0.305704
0.220292 0.129463 0.48144
-0.00345449 -0.236504 0.299503
0.175989 0.170464 0.359001
-0.0444249 0.0788995 0.288698
0.187391 0.0622878 0.3156
0.0919383 0.097341 0.29072
-0.0124897 0.0107288 0.304954
-0.190819 0.211707 0.609988
0.195762 -0.19612 0.29914
0.066066 -0.0609748 0.291446
0.0612483 0.178013 0.388101
-0.00173499 0.08636 0.288551
-0.158664 -0.0822408 0.311803
0.182299 0.163873 0.337655
-0.170503 0.216744 0.578456
0.0108585 0.19028 0.447874
0.0815903 0.216783 0.580354
-0.0532022 0.163667 0.336508
-0.133793 0.129236 0.319658
-0.0174483 0.209808 0.535234
0.121306 0.203519 0.55278
-0.0871898 0.199459 0.515835
0.10206 -0.210399 0.314657
0.014537 0.203123 0.396363
0.00455468 0.235582 0.593782
0.0110543 -0.0398194 0.291031
0.102598 -0.00296568 0.301828
0.1621 0.189354 0.443442
0.0481468 0.215406 0.581391
-0.0854908 0.0556849 0.310865
0.0202138 0.187593 0.386523
0.0745476 -0.176704 0.308817
-0.111104 0.203131 0.466902
-0.109583 0.0604041 0.303312
-0.0966936 -0.170123 0.29764
-0.192912 0.0804654 0.313251
0.191052 -0.205857 0.315856
-0.0615179 -0.214094 0.31334
0.0212042 0.177349 0.347699
0.0716695 0.182973 0.367925
-0.0346116 0.265912 0.701126
-0.0905546 -0.0384123 0.313312
0.191527 0.176605 0.37153
0.257279 -0.111142 0.0128847
0.0162297 -0.201226 0.307296
0.0733407 0.226432 0.633945
0.0496138 0.240961 0.692195
-0.0750758 0.236451 0.598667
-0.151471 0.247901 0.699789
0.099727 -0.208385 0.315297
0.0836601 0.183896 0.295438
0.0107469 0.115952 0.315655
-0.0782924 0.197806 0.443114
0.073939 0.200952 0.530157
-0.0675462 0.196041 0.425845
0.091963 0.119611 0.317969
-0.0433552 0.161909 0.30962
0.0731089 0.202125 0.390589
0.0817887 0.244736 0.69683
0.133565 0.223112 0.619837
-0.19307 -0.190888 0.316913
-0.137834 0.233496 0.655858
-0.107875 0.148453 0.318112
-0.0150438 -0.0686736 0.291599
-0.186274 0.13153 0.319918
0.0163115 0.178367 0.356342
0.0515458 0.0952257 0.303981
-0.191713 0.119707 0.317843
-0.00150057 0.0484142 0.306618
-0.0783169 0.137535 0.307552
-0.0247158 0.157591 0.287151
-0.0655716 0.179498 0.39404
-0.0618481 0.178178 0.388341
0.035835 0.208459 0.505274
0.149228 0.0284291 0.304753
0.0595234 0.183592 0.413458
-0.257257 0.240332 0.103679
0.128655 -0.039361 0.316495
0.0744728 -0.146552 0.293128
0.161642 -0.132113 0.323791
0.0243919 0.12739 0.317744
-0.212871 0.203248 0.479672
-0.0013683 0.16729 0.289301
-0.016915 0.0904785 0.302058
-0.0708171 0.193361 0.412504
0.068339 0.224298 0.631465
0.0297576 0.159927 0.304292
-0.101501 -0.0256111 0.313033
-0.134442 0.209035 0.514319
0.141204 -0.0373796 0.307484
-0.130361 0.172139 0.331314
-0.101135 -0.0999219 0.311461
-0.258838 0.199628 0.0112522
0.0558631 -0.195621 0.308688
0.150731 -0.00319742 0.305671
0.19669 0.21214 0.501807
0.0648369 0.148496 0.312454
-0.068034 0.160589 0.298579
-0.0333015 0.167956 0.349845
-0.0656193 0.177759 0.353921
0.188921 0.200802 0.529144
-0.00786264 0.13975 0.320051
-0.106906 0.231967 0.677149
0.207783 0.212564 0.482904
0.09905 0.216989 0.581993
0.086584 0.235525 0.593857
0.0966998 0.213783 0.50189
-0.0395149 0.0140922 0.289972
0.120405 0.208901 0.515005
-0.249662 -0.148454 0.467147
-0.0776108 0.201008 0.383025
-0.190119 0.223699 0.621428
0.11712 0.0228493 0.312106
-0.25198 -0.263515 0.0425225
0.0765103 0.215099 0.579307
0.135777 -0.161819 0.323215
-0.0309718 0.234085 0.649321
0.074855 0.212464 0.615219
-0.0502926 0.21133 0.608598
-0.0612996 0.171577 0.316405
-0.00943277 0.177775 0.35415
-0.172864 0.265129 0.707058
-0.0622718 -0.0246084 0.304922
0.0240098 0.216381 0.588236
0.0523433 -0.0148526 0.29054
0.119803 -0.211052 0.304225
0.131825 0.184418 0.417744
0.0035519 -0.151455 0.323129
-0.084621 -0.0378893 0.305819
-0.258671 0.229628 0.271572
-0.2572 -0.0205214 0.0133182
0.0707917 0.0705663 0.311121
-0.0905787 0.197532 0.361812
-0.0948013 0.180266 0.397345
-0.258097 -0.2489 0.0139952
-0.0920072 0.222003 0.586631
0.074363 0.0184813 0.308245
-0.253138 -0.254297 0.0830854
-0.156729 -0.235188 0.300713
0.0553839 0.233054 0.679449
0.190643 0.192365 0.417546
0.0661673 -0.19426 0.308974
0.0243571 0.245263 0.681334
-0.0327107 0.0100673 0.295938
0.00738709 0.20931 0.517739
0.086259 0.186394 0.381636
0.130443 0.0733638 0.305337
-0.0497375 -0.0961658 0.318345
-0.0549114 0.192729 0.462659
-0.171636 0.0931261 0.316718
0.152593 0.195529 0.484685
0.0464843 0.0397919 0.297482
0.147041 0.198887 0.512699
-0.2327 0.0638375 0.476021
-0.186424 -0.0683807 0.3206
-0.0920284 0.192876 0.348908
-0.077649 -0.194974 0.318668
0.145716 -0.104413 0.322756
0.00849184 0.105676 0.304279
0.116652 -0.00184609 0.303059
-0.0317609 0.165186 0.29933
-0.0820392 0.202764 0.47527
0.0739109 -0.0145839 0.309567
0.0914868 0.204568 0.478676
-0.189071 0.235601 0.661196
-0.0558415 0.251767 0.702949
0.080683 -0.0406816 0.306003
-0.0894225 0.191043 0.408517
-0.062869 0.212818 0.454948
-0.00114875 0.232399 0.574393
0.0963719 0.18232 0.335277
0.0612941 0.188793 0.299785
0.0349886 0.117835 0.287931
-0.0668392 0.185679 0.378186
0.0983874 0.0996612 0.30608
0.145639 0.239734 0.67146
0.176846 0.247379 0.684866
0.254783 -0.0919614 0.0137166
-0.13115 0.19243 0.407736
-0.0593305 0.243935 0.64428
0.160162 0.0275743 0.314897
0.0918697 0.212839 0.455868
-0.256964 -0.230251 0.182191
-0.1689 0.20378 0.552876
0.0252399 0.212321 0.614231
-0.091781 0.176754 0.382257
-0.0203574 0.147713 0.321427
0.183215 0.171376 0.329903
-0.127699 0.165299 0.341192
0.256932 -0.251039 0.0975469
0.00673638 0.19296 0.410871
-0.095672 -0.0677604 0.307875
0.0288361 0.186793 0.309766
-0.126936 0.232109 0.651854
-0.136866 0.146992 0.322155
0.062931 -0.00291822 0.298253
-0.0592263 0.0714349 0.288845
-0.0555336 -0.226035 0.307755
0.142999 0.258756 0.696209
-0.16416 0.207047 0.496943
-0.0390148 0.05006 0.307497
0.135366 0.235682 0.684413
0.0948956 0.225077 0.530335
0.101613 0.188567 0.391013
0.193432 0.0405187 0.308346
0.0297213 -0.203077 0.298718
0.184576 0.0476384 0.305706
-0.0812208 -0.203859 0.316574
0.250467 -0.185984 0.362159
0.0248263 0.210362 0.54032
0.0617267 0.222866 0.655155
-0.0758845 0.06695 0.301505
-0.0728275 0.00400284 0.308458
-0.0496308 0.177273 0.291373
-0.171969 0.193313 0.411857
0.142822 0.178109 0.388825
-0.0826576 0.00182552 0.299823
-0.129087 0.197963 0.502682
-0.0367034 -0.0762621 0.308441
0.251465 0.232661 0.286288
0.250077 -0.168804 0.422471
0.0717122 -0.0193085 0.300147
-0.123339 0.183394 0.411739
0.161181 0.214739 0.565155
-0.0481574 -0.105538 0.319555
0.0302221 0.17917 0.315889
0.0611667 0.0713431 0.310634
0.223956 0.0424276 0.478273
-0.0450636 0.210498 0.502376
-0.193181 -0.19376 0.313097
0.0206347 0.229276 0.643567
-0.0342045 0.188913 0.314061
-0.0313838 0.143893 0.28742
0.0544638 0.223684 0.628948
-0.160459 0.198333 0.505613
-0.0556603 0.223169 0.626507
0.0600937 -0.0142974 0.308382
-0.204674 0.191441 0.479604
0.109718 -0.192991 0.319116
-0.259152 -0.237941 0.128247
-0.0475425 0.225454 0.635511
-0.0930594 -0.00297635 0.300988
0.183139 0.16192 0.332156
0.00780034 0.0249824 0.302603
-0.18686 -0.0282496 0.317858
-0.089452 0.0291867 0.300187
-0.0124636 0.0485286 0.306686
-0.180949 -0.110173 0.313401
0.0621185 0.0394827 0.298436
0.182844 0.0498276 0.305733
0.0153891 -0.219431 0.311188
-0.150029 0.227553 0.667291
-0.115908 -0.241176 0.288962
0.0404653 -0.141047 0.322932
-0.23167 -0.00495079 0.479878
-0.214431 0.140368 0.473786
0.101268 0.257089 0.694961
-0.168175 -0.0298898 0.308134
-0.0506153 -0.160093 0.313524
0.253151 0.213498 0.438547
0.186937 0.117957 0.318517
0.0106082 -0.0393529 0.299273
0.0690573 0.0987279 0.304183
0.0954501 0.215646 0.572056
-0.133621 0.173466 0.335078
0.153482 0.18635 0.427562
0.250451 0.225866 0.350645
-0.0991131 0.209549 0.51905
-0.18334 -0.0546108 0.309975
0.0929232 0.00579336 0.300564
-0.00512994 0.222088 0.621642
-0.0608369 0.206848 0.509007
0.0813257 0.202241 0.541448
-0.0682967 0.203331 0.468589
-0.0385907 0.0631743 0.289007
-0.250877 0.12478 0.0135111
0.0928931 0.223395 0.520095
-0.190606 -0.0812153 0.321321
-0.0881735 0.190746 0.320539
0.14366 -0.199797 0.317635
0.117721 0.178071 0.388568
-0.00285994 0.180512 0.292499
-0.0472647 0.167726 0.31504
-0.0240537 0.20771 0.584676
0.158866 -0.00993432 0.306474
0.0377716 0.0605501 0.302772
-0.0245031 -0.0722952 0.29167
0.0356359 0.213551 0.56709
-0.00792503 0.198231 0.505895
-0.0295122 0.00947007 0.303042
0.167027 0.21113 0.534825
-0.255404 0.225926 0.399536
0.0640151 0.193863 0.471511
-0.130885 0.210233 0.502722
-0.110565 -0.171936 0.312527
0.0297313 -0.100135 0.292217
-0.0135726 0.202064 0.539224
-0.0689164 0.200553 0.525587
0.019164 0.082853 0.288619
0.0882443 0.239829 0.620053
0.0723454 -0.0348783 0.305605
0.0178011 0.0332165 0.305611
-0.00404001 -0.0671613 0.303315
0.185518 0.225565 0.630686
0.224485 0.076811 0.483188
0.149585 -0.235475 0.300686
0.0834085 -0.126798 0.310946
0.140076 -0.160915 0.313592
0.0700303 0.150008 0.309249
0.0856506 0.182619 0.372515
0.184551 -0.0399289 0.308936
-0.0635022 -0.12781 0.31278
0.079085 0.219555 0.608816
-0.182894 -0.239746 0.294949
-0.006242 -0.0922837 0.316933
-0.10442 -0.227659 0.294628
0.170527 0.21263 0.616533
0.0368623 0.0832794 0.31106
0.0182188 0.219597 0.599343
-0.150915 0.191707 0.455733
0.0919747 0.131609 0.306447
-0.15413 0.201166 0.530365
-0.0428999 -0.0325598 0.305456
-0.146106 -0.218535 0.300842
-0.147702 -0.232677 0.287757
-0.119831 0.131694 0.319942
0.258368 -0.102911 0.00587679
0.0258614 -0.0803128 0.305549
0.0317269 0.23129 0.56781
-0.0604789 0.212847 0.560787
-0.0808168 0.257913 0.69545
-0.258964 0.235408 0.220862
-0.125754 0.0891356 0.315882
0.00655192 0.145798 0.311518
-0.0886806 0.0221391 0.302645
-0.0667351 0.212545 0.453269
0.0752205 0.257024 0.694896
-0.0964835 0.077744 0.298613
-0.0516543 -0.00233326 0.29743
-0.20339 0.20495 0.481632
0.0459758 0.181649 0.362792
0.18197 0.171069 0.361178
-0.121715 0.190687 0.449659
0.0622638 -0.0648601 0.291523
0.163939 0.093966 0.3071
-0.0973928 0.216797 0.503561
0.106416 -0.0894542 0.310587
0.258589 0.238379 0.0129412
0.104629 0.178967 0.392364
0.0184323 -0.084885 0.306185
-0.144167 -0.126424 0.323672
-0.11721 -0.0582865 0.31758
-0.0540398 0.184513 0.379671
-0.036864 0.185601 0.422938
-0.091694 0.0313693 0.289633
0.259393 -0.0160727 0.0101685
0.0466278 0.208652 0.430163
-0.0717582 0.204016 0.555521
0.00107277 0.198277 0.446138
-0.0794055 0.265837 0.701873
0.0830827 0.185727 0.38524
0.149864 0.123189 0.309311
-0.253379 0.227931 0.253255
0.137231 0.0310886 0.304088
-0.0837668 0.220498 0.613243
0.0539519 -0.0562401 0.312778
-0.0699841 0.213058 0.549742
0.175731 0.0268338 0.315287
-0.146811 0.107758 0.307951
-0.175037 0.2105 0.602671
0.035189 -0.00316669 0.29031
-0.13996 -0.067075 0.310105
-0.00190996 0.198492 0.368106
-0.0966721 -0.146858 0.294656
-0.214813 0.179812 0.481138
-0.0577583 0.148065 0.319866
0.250981 0.248599 0.0692732
-0.00936881 0.160518 0.296438
0.0563378 0.211751 0.552459
0.00730343 -0.0275731 0.29782
0.0854179 0.238007 0.608948
-0.118239 0.230158 0.646045
0.019349 -0.221951 0.298998
0.0116583 -0.145232 0.322993
0.0625618 0.142527 0.287446
0.0104634 -0.0131186 0.304201
-0.141744 0.182718 0.40839
0.128129 0.208074 0.507935
-0.0557042 0.166385 0.307401
-0.0138084 0.0818821 0.300848
-0.158575 0.178852 0.390909
0.050893 0.200749 0.45221
-0.0432093 0.113799 0.305209
-0.0212269 0.208627 0.5248
0.0521236 0.167781 0.328469
0.101441 0.222978 0.618962
0.10699 -0.0406568 0.314911
0.165781 -0.12177 0.323525
0.137226 0.0955308 0.316664
0.182275 0.197177 0.498237
-0.0874881 0.20991 0.599327
0.0537196 0.216411 0.477406
-0.0346194 0.201684 0.467756
-0.00222283 0.165163 0.29932
0.0616368 0.192294 0.415208
-0.0608723 0.201707 0.5358
0.0329848 0.172739 0.291613
-0.249652 -0.0119487 0.00955222
0.0628406 0.0407765 0.302547
-0.241793 -0.0572773 0.472664
-0.0605366 0.199668 0.374956
0.189499 0.213156 0.61603
-0.208671 0.182496 0.474062
0.104892 0.197984 0.504607
0.0901247 -0.237999 0.297774
0.0571874 0.205524 0.568664
0.090393 0.220449 0.50216
-0.127165 -0.139966 0.323871
0.132979 0.219171 0.59721
-0.0204907 0.0607634 0.298392
-0.0969582 0.200838 0.451997
-0.0354314 0.197574 0.442061
0.0622702 0.199442 0.453342
-0.0496147 -0.0700052 0.304881
-0.169617 -0.0828502 0.321544
-0.176621 0.195019 0.420213
-0.0600457 -0.151289 0.310932
-0.0772516 0.258889 0.706942
0.149553 0.202234 0.541875
-0.117815 -0.202698 0.30684
-0.0335667 0.0843282 0.288591
0.0197491 0.22331 0.627331
-0.0101001 0.0638944 0.288992
-0.176037 0.199992 0.519849
0.0365596 0.1012 0.303937
0.164534 0.205713 0.570948
0.252406 0.187998 0.0145501
0.066282 -0.0594069 0.307298
0.0342794 0.0202574 0.295998
0.0856902 0.0848738 0.303493
0.100217 0.0279228 0.301066
0.0773158 0.189944 0.316506
-0.032251 0.211764 0.551906
0.0471081 -0.174058 0.29367
0.0990505 0.200491 0.526309
-0.032911 0.223489 0.656776
-0.0212204 0.219607 0.599201
-0.0840958 0.11902 0.307948
-0.033914 -0.137555 0.31299
-0.0720801 -0.0350242 0.290938
0.184089 0.0761269 0.306323
-0.0385386 0.183576 0.412966
0.0777081 -0.00538521 0.290353
0.257439 0.234258 0.171599
0.0964112 0.231658 0.63917
0.0260596 0.202003 0.538986
0.00187613 0.184538 0.417796
-0.233714 0.0597167 0.480095
-0.25121 0.25219 0.0453828
-0.0546777 -0.236027 0.287165
0.226851 0.030672 0.475279
0.0219327 -0.114245 0.310482
-0.0281511 0.171442 0.361891
0.178895 -0.13789 0.323864
0.256162 0.222533 0.318804
0.0764926 0.230723 0.564589
0.184477 0.252957 0.691462
0.255315 -0.224617 0.012946
0.0142527 0.239593 0.618235
0.0131407 0.116802 0.305457
0.0980049 0.16878 0.306962
-0.148347 0.108487 0.308003
-0.170267 0.205656 0.568144
-0.0423996 0.18041 0.39821
-0.109649 0.177335 0.384551
0.0722336 -0.0059593 0.308849
0.0766951 0.171289 0.317089
-0.241296 -0.0263164 0.481262
0.0515202 0.2094 0.596798
-0.218472 0.131215 0.482808
-0.106071 0.198539 0.507793
0.108038 0.203829 0.473264
0.158168 0.208262 0.509766
-0.193398 0.212293 0.563687
0.182232 0.113302 0.308409
0.165211 0.0230251 0.30547
-0.0386692 0.22651 0.633881
0.182139 -0.0542646 0.319614
-0.0452376 0.184975 0.306856
-0.140973 -0.159694 0.313653
-0.0437511 0.043813 0.302564
-0.0910665 -0.12298 0.322846
0.0349114 -0.0289986 0.305212
0.259311 0.0970468 0.0119559
-0.225068 0.214096 0.501897
0.0116659 0.198465 0.447296
-0.0732019 0.18582 0.292881
0.0236713 0.22971 0.645068
0.250806 0.223429 0.339033
0.0407607 -0.12827 0.312296
0.0206548 0.235586 0.593892
0.204267 0.199913 0.475453
0.259156 -0.244251 0.102794
-0.0588077 0.206189 0.49064
0.129528 0.215442 0.570683
0.225862 0.0866676 0.472882
0.250259 0.223717 0.362326
0.0391324 -0.0310435 0.305349
-0.0718773 0.189178 0.393021
-0.0557993 0.177351 0.352561
0.000354037 0.201845 0.537439
-0.0977159 -0.14641 0.323812
0.0016996 0.210169 0.60149
0.151526 0.0599573 0.315178
-0.193736 0.202236 0.514015
0.168868 -0.232492 0.288729
0.0269455 0.194597 0.344557
0.0259788 -0.13462 0.312688
-0.0872527 -0.131787 0.313629
0.139546 0.203793 0.473206
-0.014561 0.110131 0.30492
0.0993573 0.210585 0.60471
0.0445557 0.209058 0.503824
-0.010314 0.203103 0.478395
0.0607075 0.143446 0.287427
0.13667 0.215357 0.570038
-0.0559957 0.169211 0.317468
-0.0636037 0.210488 0.540766
0.135402 -0.114736 0.323227
0.0437012 -0.082443 0.316095
-0.0372517 0.247347 0.684526
0.0367618 0.235678 0.59453
-0.0259941 -0.158982 0.323111
-0.119938 0.255612 0.705313
0.14759 -0.183147 0.311052
0.052578 0.199558 0.453975
0.0136185 0.208774 0.592552
0.0190191 0.151237 0.287275
-0.0197147 0.113143 0.315231
-0.246771 0.0940451 0.00400977
0.243436 -0.0842162 0.482175
-0.125428 0.196557 0.490994
-0.077485 -0.167153 0.30979
-0.042689 0.174998 0.312548
-0.0235144 0.128229 0.317892
0.00898404 0.199988 0.521205
-0.00932525 0.219649 0.599535
0.0919534 0.115973 0.293556
0.101357 0.216437 0.633788
0.0303195 0.171317 0.329368
-0.0403772 0.217844 0.485639
-0.0736308 0.0551847 0.300344
-0.0539773 0.0506253 0.308331
0.157414 -0.104214 0.313093
-0.0234377 0.0969963 0.312706
0.111094 0.0744416 0.313988
0.0171329 -0.0817762 0.315383
0.0573395 0.00231347 0.297611
-0.0264283 -0.0580176 0.291389
-0.252104 -0.203874 0.292692
0.0303748 -0.0871401 0.291961
0.0627663 0.22524 0.531161
0.254324 -0.256627 0.0767952
-0.131119 0.186271 0.425932
0.133506 0.188495 0.438693
-0.0751874 -0.0270459 0.301159
-0.0311292 -0.0895787 0.307145
0.255082 -0.19094 0.352569
0.145146 -0.0696736 0.310508
0.029036 0.173457 0.335463
-0.238988 -0.00681227 0.472456
0.178611 -0.156038 0.313897
-0.0222428 0.0982066 0.312878
0.0186929 -0.0655543 0.303177
-0.066456 0.0655742 0.300782
-0.0632617 -0.152903 0.323496
0.0808746 0.216509 0.578325
-0.068772 -0.0622871 0.307504
-0.104903 0.26436 0.698464
-0.131755 -0.0742511 0.32006
0.0563425 -0.193716 0.318955
-0.255239 -0.218368 0.234366
-0.0965621 -0.0181326 0.291169
-0.0901968 0.226338 0.537063
-0.0319053 0.0919696 0.302499
0.00853641 -0.101229 0.308597
0.0821215 -0.159457 0.313653
-0.0225605 0.21727 0.636795
-0.252917 -0.209659 0.23175
0.253168 -0.245008 0.124222
-0.0405012 0.111594 0.305617
0.0760123 -0.191449 0.319419
0.250146 -0.0502791 0.0102717
-0.18644 -0.239106 0.296005
-0.0995953 0.105971 0.316507
-0.0332153 0.213513 0.553832
-0.0964219 0.151964 0.295462
-0.0871315 0.214501 0.62495
0.140281 0.0301738 0.304265
0.218041 0.0717922 0.476259
-0.186262 0.213567 0.61995
0.0509606 0.21742 0.584863
-0.0524068 0.165796 0.290336
0.0872406 0.219013 0.643106
0.144541 -0.171466 0.322332
-0.07286 0.203875 0.4841
-0.0630555 0.211049 0.444187
0.0756362 -0.0194697 0.29063
-0.0469198 0.205297 0.495927
0.185375 0.219056 0.643546
0.0842403 0.168775 0.325703
-0.0546012 0.0904727 0.303008
0.182412 0.217354 0.585239
0.0159717 0.166293 0.31796
0.0916389 0.172308 0.365409
0.252111 -0.215491 0.246399
-0.249826 0.217763 0.425351
0.132327 0.072799 0.305387
-0.00707264 -0.0115576 0.305912
0.0726962 0.259095 0.707097
0.182985 0.0709996 0.315822
0.014909 0.192089 0.458911
-0.0496917 0.173585 0.312408
-0.163731 -0.03141 0.308127
-0.251307 -0.135412 0.480418
0.0618522 0.193519 0.421295
-0.0514682 0.197407 0.441098
-0.0930637 0.215305 0.567995
0.151621 0.210195 0.602478
-0.0438899 -0.0421831 0.300657
0.0701377 0.215857 0.584855
0.02314 0.205019 0.481813
-0.147091 -0.171346 0.312593
-0.0057402 0.0259353 0.302589
0.0747634 0.194031 0.423938
-0.024053 0.210105 0.600934
-0.257866 -0.155506 0.467478
0.11898 -0.00376594 0.31301
0.0327757 -0.196623 0.299658
0.155718 0.20118 0.532778
0.0615654 0.17698 0.351629
-0.257205 0.14337 0.00673974
-0.116968 -0.15017 0.323763
0.128861 0.219894 0.646258
-0.0834375 -0.172995 0.322127
-0.0258591 -0.172001 0.312507
-0.162078 0.219171 0.59557
-0.0463601 0.132498 0.287644
0.083831 0.233184 0.655544
0.0760991 0.17457 0.338993
-0.067187 -0.0354668 0.311059
-0.129658 -0.0586281 0.318425
-0.0150979 -0.210255 0.314674
-0.0835869 0.16538 0.290649
0.0190445 0.191441 0.403665
0.0217564 0.238585 0.612144
0.00499815 0.214687 0.575808
0.0230905 0.119515 0.316336
-0.057664 0.230257 0.561068
-0.0384827 -0.15571 0.323279
-0.159767 0.0730169 0.315836
0.00707777 0.220749 0.606619
0.0150433 0.235581 0.593833
-0.0653553 0.223927 0.629522
0.204893 -0.202238 0.299614
0.0714025 0.0631786 0.289005
-0.0777921 0.233784 0.582426
-0.112174 0.217794 0.506904
0.0349363 0.241697 0.693115
0.0604007 0.0258042 0.30259
0.0676192 -0.0354172 0.311059
-0.0610911 0.228195 0.548509
0.0941008 -0.23316 0.287117
-0.0145576 0.0533396 0.297573
0.154416 -0.0822014 0.32142
-0.0648472 -0.138065 0.323144
-0.189799 0.205406 0.483406
-0.0678666 -0.234995 0.286815
-0.0549484 -0.0997975 0.30986
-0.127103 0.19827 0.437245
-0.00451237 0.136131 0.309587
0.0611598 0.182637 0.408864
-0.053242 0.199134 0.371744
0.174516 0.0439192 0.30567
-0.0207558 -0.0693212 0.291612
-0.167019 -0.147295 0.314162
-0.0883167 0.195797 0.485164
0.150107 -0.0864376 0.321656
0.0735127 0.168002 0.323413
-0.00272632 -0.204104 0.295502
0.0505401 0.2131 0.511302
0.0103966 0.174185 0.287461
-0.079274 0.190949 0.321816
-5.52833e-05 -0.191228 0.319446
0.250254 0.113625 0.00888191
-0.255528 0.0786933 0.0145177
0.141383 -0.209369 0.315023
-0.015467 0.227464 0.544293
0.131755 0.212252 0.544217
-0.036651 0.200995 0.529724
0.257411 0.22047 0.458811
-0.258538 -0.174287 0.410081
-0.0399828 0.19344 0.42044
-0.107457 0.252214 0.703245
0.0178339 0.133414 0.307115
-0.127716 -0.176735 0.321679
-0.0920178 0.206701 0.492408
0.0827337 0.210634 0.442407
0.0143125 -0.150786 0.293213
0.253252 -0.0979125 0.47875
-0.20212 0.213191 0.501691
0.0720153 0.160599 0.309344
-0.251911 0.220192 0.36052
0.0842757 -0.00563281 0.30378
0.0980076 0.180653 0.310226
-0.145316 0.202563 0.542568
0.25831 0.229689 0.241213
0.187801 -0.232661 0.288468
0.223276 0.210402 0.510613
-0.182704 -0.0715933 0.320816
-0.196583 0.215754 0.502506
0.00155519 0.135403 0.309447
0.147851 0.265088 0.705563
0.00218322 -0.125982 0.321455
0.0659969 0.18083 0.289013
-0.00385527 0.223819 0.65784
0.0532016 0.21984 0.498261
-0.161139 0.176667 0.381656
-0.156617 0.148309 0.319138
0.01783 0.192858 0.333932
0.0985676 -0.0914069 0.310363
-0.0583439 0.192077 0.458462
0.0680729 0.181635 0.36862
-0.0803711 0.139749 0.287502
0.0719053 -0.127572 0.322645
0.0694065 0.160524 0.302509
0.0148931 0.0696403 0.288879
0.00114484 0.206156 0.490787
-0.108273 -0.0653023 0.317709
-0.139626 -0.0164989 0.30583
-0.20999 0.208629 0.505451
-0.0289581 0.203841 0.554395
0.0983014 0.194955 0.479713
0.0650185 0.160356 0.287226
-0.250065 0.230233 0.253394
-0.0173316 0.202661 0.464122
-0.00104468 0.224326 0.659237
-0.156769 0.183998 0.414532
0.256714 -0.220727 0.22601
0.0713656 0.197236 0.497919
-0.193023 -0.0106905 0.31074
-0.113425 -0.226313 0.295777
0.0573846 0.160227 0.305721
-0.0964901 0.0730881 0.295017
0.188452 -0.123831 0.323603
0.0266781 -0.0132472 0.296752
0.0763587 0.196457 0.491586
-0.205706 0.213114 0.482487
-0.249388 0.231806 0.255629
-0.251137 -0.172055 0.394461
0.114231 0.0909718 0.315533
0.110733 -0.232642 0.288358
-0.039116 0.196964 0.494846
-0.0869804 -0.0243426 0.311603
0.109771 0.212128 0.501835
-0.0715823 -0.146153 0.31106
0.168727 0.00779815 0.315602
0.00844824 0.237232 0.603843
-0.0743975 0.231892 0.570935
-0.222953 0.0564639 0.483864
0.0110673 0.212579 0.546193
-0.0277568 0.206175 0.414713
0.0526313 -0.194617 0.296671
-0.0738457 -0.0817426 0.317498
-0.0735663 0.0769116 0.311968
-0.0112595 0.206381 0.505364
-0.00640552 0.21077 0.442776
-0.135518 0.204565 0.55953
0.0954771 -0.135669 0.323631
0.0108318 0.0130163 0.289992
-0.0267053 -0.0853407 0.309017
-0.157288 0.166434 0.344609
0.0583729 0.0438625 0.302565
0.0394025 0.160388 0.288294
-0.0382818 0.205077 0.494163
-0.0189307 -0.170259 0.309481
0.0239172 0.196653 0.357049
-0.0617758 0.220605 0.605383
0.0501242 -0.218062 0.301148
0.00937339 0.188562 0.298598
-0.0823531 -0.19566 0.292552
0.170317 0.254695 0.693174
0.187909 0.000149143 0.306487
0.193389 -0.0931676 0.31732
0.0352571 0.213528 0.566904
0.123847 -0.00926905 0.304109
-0.0920364 0.182517 0.329289
0.157261 0.259784 0.696718
0.259556 0.199852 0.00961091
-0.0903768 0.0631046 0.302819
0.0827686 0.193121 0.411948
-0.155644 0.203066 0.546827
-0.0516419 -0.188324 0.319945
-0.194254 0.18087 0.38096
0.122713 0.21867 0.593946
0.00106609 -0.0458851 0.300155
0.172652 0.227785 0.668489
0.0656908 -0.200911 0.300227
0.102972 -0.239614 0.295578
-0.111167 -0.0567034 0.316966
0.0354423 -0.120235 0.310762
-0.0314782 0.176666 0.350302
0.0138774 0.0673938 0.308645
0.157431 0.0188103 0.314864
0.110148 0.191069 0.402313
0.0722137 0.177634 0.291476
-0.258804 0.236272 0.0138536
0.0155276 -0.0475407 0.300469
-0.0855538 0.222067 0.652378
0.152986 -0.108652 0.322983
0.0811127 -0.0421328 0.306103
0.0756805 0.211839 0.449702
0.00247443 0.0327974 0.289604
0.185066 0.091285 0.316641
-0.0822681 -0.051624 0.30677
-0.180773 -0.0598675 0.320021
0.0057555 -0.0356285 0.308424
-0.15639 0.177546 0.385269
0.181401 0.0460155 0.315346
-0.000588642 -0.219428 0.300428
0.148363 0.193091 0.412062
-0.0171735 -0.162056 0.313325
0.0954596 0.201534 0.535434
0.0785562 0.0594011 0.30102
-0.2574 0.235902 0.164026
