0.0348784 0.199634 0.37524
-0.177754 0.206649 0.493501
0.130482 0.0936604 0.306711
0.010702 -0.152692 0.29325
-0.0162568 -0.0975608 0.292167
-0.193825 0.183019 0.395729
-0.249959 -0.181136 0.374502
0.0206506 -0.118307 0.292574
0.250936 0.217189 0.498335
0.048547 0.244262 0.646818
0.0204454 0.134828 0.319126
-0.25007 -0.223891 0.197632
-0.0967698 0.180347 0.309404
-0.0341982 -0.208296 0.305126
-0.242831 -0.0791868 0.484413
-0.115952 0.107919 0.317241
0.0171924 0.204515 0.404841
0.134946 0.232471 0.678477
0.256298 -0.0294822 0.0137702
0.180206 -0.183588 0.320756
0.0782751 0.229838 0.559217
0.0760845 0.17885 0.291798
-0.192163 -0.23389 0.28719
-0.118342 -0.131336 0.323727
0.0935405 -0.236887 0.299201
0.157569 0.147796 0.320544
0.110357 -0.098438 0.311668
0.0328641 0.122761 0.287835
-0.0743765 0.206047 0.489393
0.0271105 -0.00420459 0.305766
-0.25186 0.137113 0.0143786
0.0228534 0.194306 0.474424
0.134181 0.206382 0.575867
0.0947307 0.178313 0.389518
-0.0386904 0.243057 0.639044
0.174889 -0.202796 0.292335
0.185545 -0.0551403 0.319674
0.122659 0.201864 0.538485
-0.0687401 0.0624463 0.289022
0.159532 0.187621 0.387149
0.0616976 -0.0433842 0.2911
0.190377 0.0770331 0.316009
0.208482 0.188877 0.473897
-0.0595818 -0.130334 0.322544
0.258313 0.115165 0.0133967
-0.0826676 -0.106992 0.292353
-0.259021 -0.0200873 0.00998901
-0.262027 -0.158137 0.00569151
-0.0433484 0.207588 0.583652
-0.0557078 0.226126 0.535949
-0.0879665 0.202289 0.390764
-0.166516 -0.0142181 0.316713
-0.00465653 0.186193 0.293499
-0.163225 0.202045 0.458988
0.259396 -0.204714 0.00770665
-0.251549 -0.25289 0.0546564
-0.179856 0.0781179 0.316048
-0.0177207 0.240765 0.625206
0.0811841 0.195891 0.487087
0.23204 -0.202851 0.299137
-0.0934854 -0.195341 0.298549
0.0833829 0.22522 0.661742
0.0960444 0.194193 0.342454
0.019094 0.231154 0.566921
-0.131552 0.208717 0.511599
-0.139088 -0.192208 0.319238
-0.0529623 0.2466 0.683331
-0.0483484 -0.236922 0.287473
-0.0769555 0.146191 0.32191
-0.026269 -0.164393 0.322886
-0.122757 -0.00654117 0.303907
0.149124 0.0415967 0.30496
-0.0249663 -0.0130064 0.306291
0.258809 -0.244643 0.115819
-0.0360732 -0.164146 0.293476
-0.0183281 0.0867868 0.311175
0.0567022 -0.171097 0.322367
-0.0351262 0.162213 0.332437
0.0521559 0.210572 0.441871
-0.00136763 0.0750129 0.288774
0.150956 0.207463 0.502853
0.0293112 0.193138 0.335691
0.148148 -0.00459262 0.305605
-0.0860179 -0.0402634 0.303486
0.0491372 0.217715 0.638536
0.125119 0.214764 0.62681
0.0599088 0.0461099 0.289341
-0.0772682 -0.0305466 0.29085
0.107122 0.14692 0.322178
-0.172317 -0.119708 0.313791
-0.211126 -0.194568 0.297373
-0.191291 0.216892 0.632672
0.22552 0.025764 0.474443
-0.0316 0.140851 0.320389
0.0594661 -0.112526 0.311103
-0.0741748 0.171036 0.360312
0.0812558 0.210817 0.443515
-0.0893665 0.0724434 0.288826
0.241692 -0.0823338 0.479928
0.0618387 -0.122178 0.292649
-0.0248629 0.234883 0.589381
0.0339872 0.210079 0.537965
0.060696 -0.188613 0.319911
-0.138366 0.248149 0.700048
-0.141098 0.187731 0.386518
-0.135297 0.147185 0.312388
0.250528 0.226716 0.346331
-0.193484 0.173696 0.343963
-0.131187 0.21053 0.603108
-0.0547112 0.211664 0.447972
-0.0200916 0.19523 0.481097
-0.112463 0.228891 0.670425
0.143904 -0.149601 0.314113
-0.141766 0.20453 0.559202
0.0701399 -0.0139186 0.290521
0.00142894 -0.215245 0.31291
0.108479 0.0487639 0.312169
0.00152436 0.241462 0.648117
-0.0284998 0.0236347 0.289784
-0.151163 0.172274 0.331647
0.1176 0.26469 0.708352
-0.159331 0.238311 0.667722
0.12382 0.184381 0.41753
0.0325078 0.0931506 0.312311
-0.145174 -0.0968702 0.312639
-0.0907494 0.141782 0.287463
-0.0267596 0.189239 0.393446
0.0512807 0.207126 0.580836
-0.208651 0.208349 0.506644
0.116949 0.196458 0.491873
-0.0149017 0.203631 0.552734
0.0378331 0.231383 0.676266
0.00115009 0.169518 0.355116
0.00919203 0.187694 0.433819
-0.249494 0.240208 0.155848
-0.249912 0.223464 0.347493
-0.257965 -0.1893 0.322533
0.0402238 0.156261 0.287176
-0.250545 0.245186 0.0469524
0.193218 -0.234701 0.290559
0.136925 -0.217323 0.312116
-0.0474621 0.197994 0.503563
0.1498 0.212133 0.543325
0.0385841 0.203472 0.398606
0.0541804 0.128558 0.318404
-0.0545054 -0.0358896 0.290955
0.00855905 0.0876201 0.288526
-0.041364 -0.0638516 0.313223
-0.258833 0.218682 0.447312
0.153868 -0.0820227 0.311688
0.179373 0.196065 0.427008
-0.246768 0.0970728 2.8268e-05
0.185093 0.23813 0.667969
-0.0222998 0.2653 0.705097
0.0678741 0.173634 0.316653
-0.0891011 0.191655 0.455729
-0.0945385 0.207898 0.585611
0.256728 0.2126 0.452058
-0.248585 -0.118276 0.480968
0.0866586 -0.069981 0.291623
-0.0343852 0.0636112 0.308637
0.054446 0.0303118 0.307014
0.257965 -0.176375 0.408512
0.0456769 -0.0275319 0.305113
0.0331305 -0.0772507 0.3085
0.154735 0.225487 0.630251
-0.214665 0.131911 0.482142
0.0350897 0.220512 0.502257
0.173144 0.207554 0.584773
-0.170371 -0.201142 0.300046
-0.251642 -0.174336 0.415635
-0.138186 0.0769213 0.305839
-0.0757556 0.183785 0.413826
-0.227248 0.0397449 0.473782
0.134322 0.16227 0.33302
-0.102836 0.143847 0.321639
0.0759902 0.16811 0.350653
0.0932554 -0.203941 0.294218
0.250549 0.234676 0.243466
-0.155211 -0.154321 0.323662
0.0426138 0.23742 0.60516
-0.111734 0.0355205 0.302303
-0.186537 0.0200913 0.305754
-0.258674 0.230666 0.258278
0.0973443 -0.131882 0.323506
-0.0271228 0.230771 0.564353
0.00579359 -0.194987 0.293634
0.111945 -0.0218416 0.303957
0.0911877 0.148831 0.287321
0.0050235 0.143694 0.287423
-0.0760571 0.224853 0.660434
-0.0923727 0.199858 0.519287
0.0983771 0.209628 0.598526
-0.0628632 0.191531 0.325442
-0.170179 0.109952 0.308119
-0.0667607 -0.195004 0.318664
0.254003 0.0109693 0.0141822
-0.115207 0.195122 0.42099
0.0211702 -0.0651856 0.29153
-0.0821115 -0.0753343 0.317165
0.250407 0.247594 0.0608017
-0.0240296 -0.128723 0.310991
-0.0705947 0.203526 0.551414
-0.16759 0.207576 0.58277
0.168833 0.111663 0.317971
-0.00839605 0.118218 0.316029
0.0751567 0.0749625 0.311832
-0.0601794 0.181741 0.293252
0.0144974 0.199631 0.375115
0.15885 0.248304 0.700443
0.0963914 0.204893 0.417395
0.171565 -0.144701 0.323884
-0.0259685 0.0832451 0.288612
0.25809 0.0913118 0.0135111
0.251573 0.243722 0.142893
-0.0966703 -0.0160095 0.311806
0.213912 0.151665 0.47386
-0.0948126 0.168818 0.328132
-0.109153 -0.0289752 0.314021
-0.0824495 0.230845 0.564522
-0.00737053 -0.238839 0.288124
-0.0435675 0.109623 0.315042
-0.136842 0.204612 0.477396
0.129727 0.0317222 0.30359
-0.00889824 0.1922 0.329792
0.0476399 0.233596 0.581921
-0.0594587 0.215774 0.630413
0.00308378 0.197976 0.503785
-0.0849113 0.0990318 0.304193
0.18442 0.197781 0.503452
0.0228383 -0.17789 0.321558
-0.00257674 0.0157955 0.304879
0.126989 0.183921 0.371708
-0.165439 -0.0493087 0.309503
0.0642762 -0.228862 0.293562
-0.170302 0.210443 0.526323
-0.105331 0.196843 0.493422
-0.0670539 -0.156498 0.31377
0.101975 0.0858528 0.314475
-0.0829004 -0.222365 0.298684
0.111068 0.218992 0.643104
-0.0317361 0.217109 0.481213
-0.0776772 0.194111 0.341061
-0.259228 -0.212201 0.238872
-0.0691817 0.265578 0.698801
-0.116274 -0.204019 0.295863
0.0935638 0.239633 0.690553
0.214179 0.208365 0.50789
0.0769444 0.200499 0.380717
-0.0327412 -0.093367 0.317419
0.253854 -0.188799 0.321612
0.0524613 0.17558 0.378015
0.112096 -0.213335 0.313654
-0.00810856 0.212852 0.455437
-0.0201099 0.205192 0.40877
0.253608 -0.0696079 0.0136633
-0.113689 0.214643 0.625458
-0.14953 0.194923 0.419837
-0.244544 -0.0418392 0.480257
-0.0966714 -0.142987 0.298492
0.0619017 0.198647 0.509996
0.0319032 0.264953 0.707089
-0.192385 0.192924 0.453561
0.010243 -0.131043 0.321951
-0.0319695 -0.142337 0.293047
0.00936667 -0.0340969 0.305556
0.0907459 -0.177122 0.293729
0.100869 -0.0759752 0.31842
-0.0685543 0.0268781 0.289721
0.164538 0.162062 0.332508
0.0533791 0.21557 0.472286
0.0360907 0.0602166 0.302766
0.043904 -0.194697 0.296994
0.157991 -0.0363261 0.317935
-0.0927297 -0.108943 0.321671
0.0317597 0.188943 0.301211
0.156073 0.204194 0.476183
0.0685321 0.191537 0.326154
-0.159826 -0.241526 0.291599
0.0189865 0.028378 0.28969
0.250484 -0.242757 0.0137761
0.0764674 0.140545 0.320899
0.0236828 0.2267 0.539847
0.0417617 -0.0895753 0.292009
0.00723576 -0.0144646 0.290533
-0.15869 0.00694577 0.315311
0.0917269 -0.15134 0.30031
0.100064 0.205332 0.567411
0.15793 0.230759 0.648552
0.192199 0.180496 0.384445
-0.0413515 0.200053 0.521389
0.175808 -0.014893 0.307261
-0.254635 -0.189966 0.00370868
0.198658 -0.197362 0.291481
-0.0134019 0.117647 0.287936
-0.00125049 0.161753 0.309448
0.00797636 0.222957 0.625823
0.0440503 -0.0155784 0.290554
0.101687 0.190862 0.451889
0.158905 0.0826235 0.306559
0.122756 0.1198 0.308926
0.0411987 -0.134086 0.322507
0.093521 0.179796 0.288542
-0.0735661 0.223876 0.522166
-0.254638 -0.229014 0.149569
-0.049608 0.161475 0.308787
-0.0496201 -0.105601 0.292325
0.0254546 0.203932 0.555517
-0.234932 -0.196208 0.291944
0.255591 -0.246886 0.0772063
-0.107886 -0.15955 0.323344
0.0836007 -0.0289842 0.311713
-0.25338 0.0254615 0.0142416
0.130116 0.234221 0.658338
0.0427395 -0.170922 0.293608
-0.0563416 0.214967 0.468054
-0.0035298 -0.165416 0.32279
0.0642748 0.202193 0.54091
0.127273 -0.125037 0.323607
-0.0263074 0.235872 0.662265
-0.0576394 0.243914 0.644158
-0.0302959 -0.0382842 0.291002
0.0883477 0.198138 0.505811
-0.0922749 0.0317319 0.289626
0.0594647 -0.0837944 0.316978
-0.249882 -0.125266 0.00802663
-0.0659829 0.187283 0.431356
-0.0562225 0.183202 0.37435
0.0733324 0.183473 0.412942
-0.027723 0.171465 0.287781
-0.258084 -0.255172 0.0200381
-0.254318 0.177074 0.0058451
-0.0777276 0.111572 0.316427
-0.171134 0.18276 0.366325
0.0456099 0.22278 0.516112
-0.0743435 0.0859845 0.288559
-0.0898018 0.188763 0.439103
0.037741 -0.0582029 0.312256
-0.0422708 0.221752 0.611733
-0.171439 0.21103 0.606121
0.171767 0.0121472 0.315528
0.188497 0.202004 0.460709
-0.0122514 0.20007 0.377654
-0.0398344 0.203833 0.554259
0.0452467 0.0197045 0.28986
0.0696186 0.224452 0.632091
-0.188717 0.231472 0.676043
-0.0330353 -0.0721396 0.291667
-0.0221788 0.200779 0.527922
0.0294722 0.209177 0.43327
-0.193178 -0.188911 0.316273
0.130476 -0.195068 0.293694
0.165565 -0.204747 0.316374
-0.00242818 0.219059 0.493223
-0.0348281 0.187536 0.308474
0.178337 0.0527764 0.30577
-0.00287653 0.0333139 0.30549
0.254518 -0.224872 0.210227
0.0298016 -0.21901 0.311391
-0.0469499 0.238443 0.610928
0.092774 0.216106 0.632359
0.0663914 0.236908 0.686254
-0.0284514 0.0408458 0.306362
-0.0793521 0.169144 0.288467
-0.19304 -0.0350282 0.313898
-0.111305 0.187648 0.386269
0.00616469 0.236313 0.598239
-0.194246 0.192547 0.428587
0.0597923 0.177497 0.348299
0.120239 0.0103089 0.312539
0.131806 -0.167073 0.313059
-0.0820138 0.174016 0.371371
-0.106256 0.0746763 0.313763
0.154565 0.220168 0.603704
-0.255279 -0.252918 0.0896238
0.0114072 0.212318 0.452286
-0.081144 0.0722127 0.311956
-0.118395 0.24232 0.693734
-0.068702 0.0278775 0.308006
-0.0526533 0.0846865 0.302185
-0.255291 0.242672 0.014113
0.134722 0.209803 0.509988
0.0278667 -0.107698 0.319361
0.186348 -0.0952819 0.322277
0.0663529 -0.138807 0.323234
0.254795 0.230608 0.211095
0.0697823 0.219292 0.597656
0.0927993 0.193756 0.470912
0.00160193 0.180649 0.399475
0.0140182 0.183166 0.411209
-0.154153 0.197593 0.499318
-0.0643504 -0.110457 0.311069
0.129508 0.198245 0.438262
-0.0680645 0.210129 0.60085
0.0025784 -0.0819436 0.305635
-0.0987759 0.170114 0.356956
-0.0602981 -0.0576159 0.307182
0.0112943 0.237036 0.665205
-0.0154967 0.127818 0.317782
0.156454 0.171263 0.361797
-0.0693061 -0.130014 0.292805
0.2472 -0.055598 0.477831
0.00494258 0.205779 0.57037
-0.175397 0.0510295 0.305744
-0.0911617 0.112338 0.288041
0.0502953 0.193176 0.419506
-0.0175968 0.16679 0.308019
-0.133563 -0.217413 0.301388
-0.0422434 -0.141551 0.322983
-0.00304321 -0.112583 0.319884
0.193206 0.10558 0.309715
-0.0933664 0.00861715 0.310157
0.0838638 -0.206978 0.315702
0.00534275 0.264915 0.707488
-0.161904 0.256045 0.705508
-0.00669852 0.103152 0.313538
-0.115004 0.165663 0.329304
-0.0955973 -0.00402136 0.290329
0.0897918 0.210175 0.539201
-0.0430795 0.00333368 0.306216
0.0386958 0.191363 0.454605
-0.0415224 -0.186544 0.310451
-0.0623514 0.172795 0.333345
0.139611 0.0639334 0.314873
-0.25784 0.245064 0.129042
-0.112078 -0.189628 0.31971
0.119228 -0.232765 0.288085
0.0882248 -0.0981008 0.292176
-0.0295373 0.22284 0.654841
0.0423047 0.116745 0.305455
0.0882548 0.116954 0.317494
0.0154887 0.175976 0.379489
-0.25204 -0.0500435 0.00515149
-0.0612707 0.22112 0.505461
0.154609 0.185086 0.421126
0.133427 0.203271 0.469432
0.11141 -0.152884 0.323702
-0.0880884 -0.145542 0.323768
0.0644064 0.00680138 0.307597
-0.135615 -0.0328364 0.30681
-0.158465 0.176353 0.38039
0.0963669 0.174709 0.3195
0.227677 0.053687 0.485475
0.0806597 0.0464803 0.309839
0.250561 0.229269 0.315714
0.150506 -0.121499 0.323515
0.0825972 0.242561 0.636641
-0.161198 0.1398 0.321023
-0.0294359 0.177336 0.352575
-0.147737 0.0954497 0.316816
0.0898644 0.172241 0.365147
-0.0570448 -0.194423 0.295708
0.173555 0.199668 0.519686
0.154047 -0.175437 0.321862
-0.06331 -0.172121 0.293633
0.106382 0.254316 0.692746
-0.00973086 0.186603 0.428151
-0.0217243 0.0474807 0.289315
-0.112651 -0.0831003 0.319917
-0.00828131 0.21873 0.5936
-0.138883 0.242434 0.676212
-0.132632 0.125399 0.319226
-0.00596748 0.228002 0.547618
-0.0930006 0.234648 0.682214
-0.167329 0.228931 0.641834
-0.251397 -0.183656 0.345005
0.0833792 0.204711 0.562246
0.250127 -0.207751 0.265188
0.233658 0.00262408 0.483261
-0.0898248 0.216664 0.47821
-0.0918474 0.216097 0.631655
0.160108 0.214844 0.566007
0.0643927 0.0789486 0.288695
-0.000425339 0.162637 0.330384
-0.194231 0.207319 0.529007
0.0247949 0.164813 0.301582
0.176112 -0.0803381 0.311689
-0.11407 0.1285 0.309784
0.134528 -0.101384 0.322429
-0.167971 -0.092115 0.312436
0.0372767 0.0817395 0.288641
-0.192964 -0.00568515 0.313718
-0.0481651 -0.164944 0.322896
-0.211812 0.2089 0.480922
-0.0109426 0.196193 0.354072
0.0158568 0.200378 0.524671
-0.0131945 -0.0715167 0.313729
0.0363877 0.209346 0.596364
0.0312428 -0.154056 0.313591
-0.0459123 0.196141 0.488214
-0.0546271 0.231205 0.566853
0.14802 0.0197173 0.304728
0.107514 0.18691 0.430222
-0.0987093 -0.0512491 0.315412
-0.115653 0.20045 0.524328
-0.145166 -0.0762836 0.311112
-0.0296617 0.175128 0.375884
-0.0836703 -0.180962 0.321107
0.0842641 -0.0701401 0.316623
0.0605683 0.158441 0.287133
-0.139754 0.217431 0.583708
-0.092003 0.222699 0.534993
0.104315 0.00675839 0.301584
-0.110363 0.192748 0.462463
0.0853763 0.220085 0.499921
0.189216 0.228243 0.641728
-0.164964 0.204048 0.555129
-0.127543 -0.147589 0.314156
0.0553231 0.156502 0.310229
0.126147 0.220036 0.602713
0.249929 -0.177626 0.00925128
0.0546797 0.194136 0.341894
-0.0882683 0.197856 0.36379
-0.19249 -0.14015 0.322476
0.253798 0.243445 0.0332631
-0.053796 0.140491 0.307913
-0.134924 -0.168228 0.312928
0.0598222 0.0964714 0.313638
-0.0937166 0.221142 0.608273
-0.0133053 -0.0339582 0.290916
0.0917338 -0.0423191 0.291079
-0.144054 0.179652 0.355063
-0.122986 0.212327 0.543038
0.028475 0.179952 0.356636
-0.00505864 0.0586541 0.30762
-0.167584 0.217589 0.505035
0.0470729 0.142644 0.320898
-0.0732734 0.206538 0.41669
0.144655 0.111342 0.30825
-0.0816235 -0.239446 0.288355
0.259258 -0.237702 0.140222
-0.174825 0.162161 0.331947
0.25056 -0.106948 0.472042
0.119528 -0.0337568 0.3153
0.191202 -0.161843 0.313784
0.114199 0.214722 0.502109
-0.0199581 0.248842 0.686516
-0.0937842 0.177335 0.384608
-0.140002 0.0178418 0.304287
-0.175561 0.195051 0.478595
0.0875391 -0.104361 0.320981
-0.145949 0.223176 0.618853
0.0302888 0.224057 0.623773
-0.0516297 -0.00611396 0.290369
0.131058 -0.0765464 0.320219
-0.0261348 0.215793 0.630615
-0.259223 -0.129631 0.48274
-0.0877162 0.0578685 0.311201
-0.00789694 -0.193524 0.309116
0.109997 0.112 0.317511
-0.0437451 0.0272856 0.306236
-0.0336451 0.20226 0.461165
-0.112321 0.209205 0.594632
-0.0262693 0.188612 0.438582
0.0317965 0.196666 0.492948
0.0403281 0.181031 0.401381
0.0576432 -0.218299 0.311689
-0.0966269 -0.0911367 0.305457
0.0111749 -0.225748 0.296335
-0.259348 -0.229013 0.171377
0.0806551 0.00862525 0.308933
-0.0184607 -0.05304 0.310963
-0.110328 0.0137752 0.311633
0.0101609 0.240634 0.624547
-0.0741945 -0.0160232 0.309758
-0.258731 0.22229 0.372352
-0.130642 -0.119554 0.313745
0.104894 0.174381 0.373389
0.0833258 0.186422 0.427633
0.258816 0.218074 0.47526
-0.0473095 0.181377 0.402615
-0.0611776 0.206959 0.578888
-0.159538 -0.218691 0.311456
-0.144471 0.201221 0.530924
0.100042 0.233473 0.65633
-0.00486793 0.183504 0.369703
0.0132253 0.180314 0.31554
0.175494 0.195017 0.480739
-0.163647 0.237459 0.686808
-0.0850202 0.134245 0.307195
-0.249883 0.21411 0.471411
0.0586683 -0.0287508 0.305194
0.0902781 0.263252 0.708167
-0.0275148 -0.18892 0.319845
-0.12921 0.181621 0.403398
-0.0485904 -0.0267907 0.308784
-0.0844771 -0.0524174 0.29128
0.0150698 0.108849 0.314493
0.184732 0.16766 0.32847
0.0204896 0.191367 0.454534
-0.162932 -0.177107 0.321631
0.0813311 -0.153252 0.323644
0.0601671 0.212189 0.613681
-0.187386 -0.111305 0.323127
0.253508 0.227457 0.372429
-0.108028 -0.212617 0.313835
0.0298691 0.23345 0.649416
0.0152733 -0.17646 0.293717
-0.192505 0.217296 0.594105
0.0810493 0.0996249 0.304236
0.0919595 0.0623241 0.302183
-0.256882 0.230147 0.232703
0.0432421 -0.0510769 0.291252
-0.0251261 -0.238268 0.297296
-0.00302219 -0.0784842 0.291791
0.25545 -0.205596 0.290687
0.0833707 0.215621 0.472752
-0.147378 0.0505953 0.30511
-0.0833964 0.212314 0.451777
-0.0512391 -0.0797512 0.31604
-0.0798304 -0.153703 0.293271
-0.0184497 -0.116293 0.320393
0.134076 0.145895 0.312216
0.0566085 0.231606 0.676727
0.057964 -0.150478 0.310955
0.0238623 0.241963 0.69344
0.0406985 -0.115211 0.292513
-0.0167081 0.000553414 0.290238
-0.0601907 0.198348 0.366928
-0.105428 0.214435 0.501999
-0.0112161 0.210006 0.438107
-0.255229 0.214569 0.42834
0.067931 0.193842 0.471378
-0.0664878 0.135743 0.287581
-0.0206099 -0.202472 0.292177
0.157069 0.244184 0.679819
-0.0328141 0.226642 0.539206
0.0919229 0.0810894 0.292481
0.169711 0.0916713 0.31666
-0.097417 0.184271 0.416098
0.060942 -0.142562 0.29305
0.0516103 0.163494 0.336266
0.125528 0.189446 0.394956
0.0626448 0.205005 0.564488
-0.257805 0.113844 0.0132484
0.0726391 0.0297925 0.289662
0.18042 0.181901 0.405916
-0.0462762 0.0400215 0.289462
0.112824 0.231399 0.676425
0.177842 0.172898 0.367946
-0.188345 -0.209317 0.30473
-0.192914 0.116483 0.31207
-0.0643189 0.0916367 0.31323
-0.15701 -0.134168 0.323842
0.0632951 0.19118 0.453618
-0.0787601 -0.118615 0.310705
-0.0144551 -0.163901 0.293471
-0.172083 0.190974 0.4008
-0.258321 -0.168859 0.434505
-0.239427 0.0198929 0.478092
0.0709896 0.233675 0.582521
-0.0967753 0.22193 0.65194
0.00965359 -0.111296 0.31001
-0.0110218 0.19862 0.509204
-0.0728715 0.17238 0.316535
-0.0541639 -0.0608445 0.291445
0.0782112 0.167879 0.328424
0.115153 0.216183 0.576142
0.176083 0.0380482 0.315286
0.111882 0.19925 0.515554
0.192679 -0.00817832 0.315367
0.256486 0.223788 0.421354
0.0542006 0.229004 0.554018
-0.0835539 0.234792 0.588528
-0.236136 0.216607 0.508125
-0.136384 0.17397 0.371014
0.0917446 -0.130641 0.2979
0.0508728 0.186382 0.310329
0.191125 -0.138487 0.314414
-0.0464837 0.169723 0.355712
-0.0530572 0.0453815 0.307859
0.00801006 0.210996 0.545661
0.000235006 0.190589 0.4497
-0.0387217 0.12405 0.306125
-0.0210116 0.207157 0.498957
0.0482798 0.0824051 0.301728
-0.0327421 0.191455 0.325134
0.0390564 0.168551 0.317567
-0.256526 0.250794 0.0677795
0.0623188 0.204872 0.493165
0.081718 -0.122408 0.312809
0.0918411 -0.017067 0.291759
0.0281648 0.20641 0.5754
-0.158466 0.0631735 0.315482
-0.250614 0.00238982 0.00677208
0.0963803 0.189937 0.320073
0.129801 0.250433 0.688697
-0.0343572 0.223825 0.522056
-0.0171056 0.23212 0.677578
0.0761809 0.230245 0.646806
0.117756 0.0672601 0.304269
0.185511 0.239184 0.689998
-0.153702 0.218796 0.593187
0.0744763 0.178576 0.390573
-0.0444469 0.189224 0.441789
0.186296 -0.199683 0.307716
0.0524813 -0.0474235 0.306472
0.00146058 0.147694 0.321413
0.145571 0.18096 0.401458
-0.19073 0.185063 0.375263
-0.217715 0.102084 0.474891
-0.058984 0.0642983 0.309813
-0.123953 0.264315 0.708394
0.160061 -0.104304 0.313097
0.00215076 0.0183291 0.289888
-0.254172 -0.202035 0.303503
0.149677 -0.200153 0.291048
0.0173245 0.0485765 0.306745
-0.08032 -0.0569621 0.314655
0.0942785 0.202907 0.395459
-0.185396 0.098216 0.307331
0.0586738 0.188462 0.390406
0.0582692 0.0520305 0.308646
0.00224827 0.193534 0.468777
-0.0923416 -0.202022 0.317032
0.0730127 -0.196151 0.299274
-0.257713 0.0831515 0.0132167
-0.0105465 -0.0322948 0.308052
0.186989 -0.222495 0.309793
-0.0809806 0.246943 0.698888
-0.0353219 0.236812 0.685969
0.201003 0.20862 0.489278
0.0796996 -0.0506827 0.306696
0.047891 -0.121505 0.311773
0.18271 0.214569 0.56391
0.00255466 0.0845278 0.31078
-0.0122967 0.212477 0.614898
-0.00994723 0.216313 0.632861
-0.0778404 0.228007 0.638923
0.149973 0.130356 0.310087
0.0705393 0.181486 0.368046
0.130937 0.203993 0.556751
-0.0529273 0.160519 0.293461
-0.148252 0.125708 0.309542
0.169363 0.21683 0.635687
0.0850315 0.160551 0.306006
0.0615582 0.114646 0.305284
0.0317443 0.212597 0.454085
0.00141471 0.206482 0.416732
-0.042565 0.0684399 0.288904
0.0305725 0.18634 0.426991
-0.0725287 0.240578 0.672817
0.259164 0.233392 0.264809
0.174333 0.220375 0.605134
0.0226318 0.0995049 0.288292
-0.00868452 0.0590308 0.289088
0.25938 0.0335563 0.00855556
-0.0250203 0.207942 0.586383
-0.144431 0.226411 0.664333
-0.0663587 -0.0948451 0.309578
0.0964091 0.229393 0.572322
0.0157352 0.217391 0.508166
-0.0658143 -0.222771 0.298417
0.0830218 -0.187149 0.320171
-0.184436 0.203103 0.546927
-0.212852 0.154471 0.482819
-0.174439 0.215246 0.627778
0.126601 -0.143028 0.314214
0.134561 0.22611 0.632803
0.031323 0.241796 0.631727
-0.0553361 0.23465 0.58781
0.182844 0.126212 0.309622
-0.0673712 0.192108 0.458605
0.0241949 -0.029051 0.290819
0.0908515 0.198514 0.368716
0.01152 0.223159 0.655903
-0.122509 0.0881242 0.31567
-0.249639 0.229475 0.277751
-0.250832 -0.0985443 0.481028
-0.167678 -0.221892 0.298944
0.137895 -0.0197426 0.315558
-0.0936459 0.176496 0.287623
-0.0646384 0.209664 0.533622
-0.0668772 0.199053 0.512489
-0.070076 0.185517 0.383796
0.108358 -0.117744 0.313213
0.110674 -0.19688 0.299791
-0.157331 0.0265323 0.305177
-0.0448398 -0.121457 0.31081
0.250579 -0.00828621 0.00727011
0.0525108 0.25544 0.693717
0.0586899 0.0670781 0.300456
-0.0965031 0.0533832 0.29238
-0.223863 0.0658841 0.481943
-0.0365859 0.194389 0.417615
0.113951 0.203622 0.47182
-0.13521 0.186633 0.427756
0.258729 -0.170021 0.432461
-0.241297 -0.0212377 0.474036
-0.0835117 0.198033 0.503621
0.171671 0.260569 0.697107
-0.237701 -0.0600721 0.475828
0.168172 -0.228381 0.306418
-0.00529694 0.208582 0.524524
0.256003 0.240728 0.0793942
-0.133718 0.192724 0.462152
0.0139936 0.17363 0.28751
0.193039 0.0409954 0.313646
-0.156336 0.181277 0.401717
0.143866 0.261268 0.697437
-0.0448223 0.173114 0.3166
-0.258122 -0.215159 0.214912
0.0522625 0.208878 0.527594
0.163963 0.203435 0.552371
-0.098665 -0.234288 0.301678
0.255864 -0.22637 0.00367795
0.0867668 0.191238 0.410167
0.0846981 -0.0857238 0.308912
-0.165486 0.187382 0.431421
-0.0866938 0.160695 0.306785
0.0438035 0.0445511 0.297655
0.0423967 0.203609 0.48276
0.000988693 -0.0535708 0.31091
-0.0744999 0.228067 0.547663
0.166786 0.176853 0.346456
0.0794854 -0.00890721 0.309681
-0.123392 0.196801 0.492963
-0.078633 0.175707 0.346954
-0.149057 0.212601 0.511147
-0.0552656 0.21279 0.560347
-0.188313 0.241382 0.692461
0.0996004 0.0277188 0.310619
0.00307271 -0.151295 0.313454
0.0515069 0.193622 0.469706
-0.107927 0.200169 0.447877
0.103069 0.128345 0.30968
0.00755307 0.205571 0.486147
0.0469588 -0.103375 0.319239
-0.0733043 -0.0373048 0.311733
-0.148609 -0.0568566 0.319237
-0.185596 0.199051 0.511572
0.160979 0.226994 0.666515
0.253752 -0.157068 0.470496
-0.0966649 -0.122564 0.309301
-0.0171916 0.14922 0.312721
-0.0238276 0.105366 0.304591
0.00335429 0.215725 0.472973
-0.0144902 0.210147 0.538197
0.13792 -0.235317 0.300842
0.0258607 0.0781664 0.303234
0.254327 -0.0871642 0.00423656
-0.075452 0.239628 0.648425
-0.163734 -0.107469 0.322938
0.0269033 -0.123462 0.311627
0.151001 0.199713 0.519904
-0.0168722 0.182572 0.40822
-0.0783364 0.188541 0.305894
0.0214382 0.217447 0.637531
0.0493995 -0.0700246 0.314525
-0.115538 0.203844 0.471961
0.171396 0.0678276 0.315732
-0.0406387 -0.0213503 0.298147
-0.106959 -0.0648995 0.317584
-0.0925814 0.201851 0.536813
0.0473388 0.182984 0.294383
-0.0805651 0.0881883 0.3136
-0.0737481 -0.0669901 0.291567
0.00503097 0.107582 0.288133
0.143155 -0.192797 0.309294
0.152595 0.207872 0.586993
0.0571302 0.224312 0.659331
0.175813 0.216278 0.503298
0.0103985 -0.191018 0.319484
0.0964086 0.228047 0.616159
0.259435 -0.187966 0.343194
0.107204 0.191839 0.405831
0.0964085 0.228176 0.596903
-0.0296612 -0.121838 0.292644
0.111841 -0.0457571 0.306146
0.193076 -0.0707067 0.318798
-0.0256615 0.220734 0.503299
-0.138355 -0.19872 0.300451
-0.0500563 0.218337 0.488588
-0.0683692 0.123245 0.308144
-0.08488 0.190816 0.32098
-0.176148 -0.0245926 0.307905
0.105366 0.213922 0.623149
0.022272 0.220737 0.606618
0.0289427 -0.0401582 0.30938
-0.0890924 0.0252336 0.309693
-0.160977 -0.00487298 0.306303
-0.179603 0.184522 0.416983
-0.0731981 -0.203503 0.297933
0.0551877 0.199348 0.373604
-0.0407317 -0.043531 0.31033
-0.0479996 0.165337 0.341514
-0.00820835 0.165107 0.340909
-0.0838839 0.212516 0.614786
-0.258951 -0.0685783 0.0104303
-0.0892866 0.214262 0.571901
0.0255624 0.180027 0.396709
0.0720914 0.206436 0.575871
-0.0963534 -0.173033 0.312397
0.149353 0.0980103 0.316988
-0.108038 -0.112631 0.322569
-0.138521 -0.137192 0.323863
-0.193307 0.217886 0.505932
-0.0199772 0.150071 0.287298
0.250198 0.0711577 0.00953159
-0.194198 0.198748 0.481117
-0.233566 0.0546623 0.475187
0.0486254 -0.233804 0.302248
0.0430442 -0.215356 0.302437
0.0341901 0.174167 0.372338
0.164479 0.21093 0.533076
-0.172575 -0.146398 0.323853
0.0964021 0.219583 0.521353
0.133124 0.17984 0.356559
0.00208535 0.223672 0.521316
-0.0776783 0.0480004 0.302587
-0.119161 -0.229358 0.305586
0.251201 -0.159722 0.000294546
0.0878239 -0.168428 0.309681
0.0162964 0.0118617 0.302953
0.0678263 0.248494 0.70056
0.0746006 -0.230486 0.304931
-0.100263 -0.216498 0.301836
0.242958 -0.0144274 0.476631
-0.0346407 -0.00366335 0.290321
-0.139511 -0.237967 0.297554
0.019872 0.166947 0.320345
0.0522413 0.213486 0.501812
-0.184682 0.171252 0.360749
-0.0466383 0.201387 0.465522
-0.0495921 -0.199288 0.317718
0.194559 0.212768 0.511253
0.127257 0.0563341 0.304235
-0.0553398 0.191901 0.412772
-0.121199 -0.0491046 0.316934
-0.0274849 0.20879 0.51297
-0.00889988 0.177483 0.312399
-0.248736 -0.140507 0.472775
-0.156096 0.195122 0.479296
-0.0635161 0.196335 0.489641
-0.153045 -0.0272518 0.317054
-0.108921 0.0624812 0.303403
-0.0278736 0.194506 0.343719
0.169094 0.191529 0.456296
0.0915673 0.174792 0.344332
-0.0414748 0.0965162 0.288352
-0.017744 0.168684 0.328157
-0.15959 0.215738 0.571072
0.12613 0.208247 0.5896
0.0511127 0.188816 0.440039
0.122418 0.0800216 0.315026
-0.0661868 0.199829 0.446028
0.16761 -0.163528 0.323104
0.0724744 0.208735 0.504146
-0.091194 0.201973 0.469473
0.214914 0.128534 0.482965
0.259056 -0.245066 0.0966417
0.0685672 -0.0716008 0.308125
0.0153118 -0.163486 0.31015
0.0964123 0.233244 0.639406
0.0305149 0.208902 0.514359
-0.0490428 0.258681 0.696037
-0.0426966 0.217627 0.505513
0.0612764 0.205252 0.409553
-0.0569753 0.101837 0.304637
0.0712778 0.0565881 0.30029
0.14432 -0.0358409 0.307555
-0.0294851 -0.108799 0.310304
-0.253335 -0.180387 0.393199
0.0130522 0.191552 0.325961
0.0745291 0.12531 0.287784
-0.0279178 0.0130097 0.305281
-0.0176678 0.170217 0.357558
0.107843 0.220958 0.608159
0.259683 0.14198 0.0100804
0.0298999 0.235153 0.591301
-0.0132156 -0.139727 0.292996
0.257882 -0.213361 0.22305
0.0963954 0.210043 0.485227
0.00426831 0.137811 0.30991
-0.249887 -0.242862 0.00834517
0.00932515 0.174115 0.341867
-0.0229296 -0.0198942 0.29064
0.0242997 0.0421618 0.296744
-0.0846505 0.20928 0.433312
-0.248442 -0.146018 0.0101734
0.152583 0.183484 0.370126
-0.171819 0.0125508 0.31554
0.0336695 0.147914 0.308949
0.177197 0.22268 0.65491
-0.0896986 0.0830282 0.303903
0.0374772 -0.184032 0.310902
0.107944 0.203195 0.549888
-0.0825535 0.0145465 0.289964
-0.0131032 -0.229779 0.305367
-0.142951 0.189779 0.444317
-0.191281 0.224806 0.658839
0.0807356 0.208185 0.588853
-0.0957176 0.0898553 0.288483
-0.173911 -0.164724 0.313257
-0.257248 0.25146 0.0303112
-0.0794045 -0.0123022 0.290492
-0.0118113 -0.173368 0.309157
-0.115255 0.217017 0.580812
0.00890765 -0.00390026 0.303688
0.143566 0.196769 0.494541
-0.0677815 -0.14493 0.323513
-0.0706477 0.202101 0.470542
0.0514953 0.260974 0.707574
-0.0840513 0.213605 0.554245
0.0204836 -0.0882789 0.309196
-0.132994 0.171274 0.328845
0.091983 0.141931 0.304363
-0.259376 -0.238019 0.134245
0.0177666 0.168674 0.352357
-0.234191 -0.0338333 0.482042
-0.0476157 0.228798 0.647056
-0.0785775 0.20869 0.591501
-0.0446384 0.211483 0.536311
0.0392915 -0.165953 0.322807
0.252469 -0.22885 0.154757
0.139889 0.0804983 0.306109
0.140976 0.187097 0.384823
0.112518 0.186889 0.383822
-0.132613 0.22835 0.639944
-0.131354 0.1119 0.308218
-0.0450177 0.22965 0.672244
-0.0707726 0.220574 0.613717
-0.0477188 -0.124485 0.292696
-0.0422464 0.185877 0.385405
-0.0978254 -0.0757773 0.308564
-0.0289632 -0.224477 0.308648
0.145755 0.196723 0.430219
0.0407895 0.0984582 0.288312
0.13391 -0.122255 0.313865
0.0506866 0.00132336 0.303417
0.0324735 0.00307171 0.290188
0.0197286 -0.0605186 0.312096
0.211894 0.167083 0.483229
-0.17663 0.177136 0.383503
-0.249938 -0.26019 0.0354568
0.0770943 -0.0302549 0.290842
0.0141685 -0.0841556 0.291903
0.0212773 -0.20224 0.299505
-0.183214 0.216777 0.578618
-0.0609137 0.188817 0.398328
-0.0181036 0.189701 0.314538
-0.0780926 -0.159498 0.323324
-0.000842318 0.160442 0.290236
0.143719 0.220107 0.647029
-0.0919292 0.205111 0.407913
0.247106 0.104318 0.00458356
-0.092036 0.183841 0.347646
-0.176043 0.176167 0.343241
-0.16938 0.198659 0.508339
0.0586369 0.238682 0.612921
0.185073 -0.0374942 0.318454
-0.155517 0.211984 0.539822
-0.0672708 0.157533 0.287153
0.0775272 0.223164 0.619848
-0.0469888 0.171077 0.287888
0.0657761 0.217444 0.483752
0.157928 0.0570272 0.305648
-0.0460924 0.225747 0.630642
0.00371821 0.118527 0.306399
0.17475 0.177205 0.385065
-0.114864 -0.173715 0.312314
0.0475889 0.102176 0.304384
0.0746645 -0.116532 0.321727
-0.114841 0.208959 0.513793
-0.170999 0.190461 0.44803
-0.257519 -0.21204 0.256508
-0.00806483 0.186679 0.388978
0.0359558 -0.0945754 0.307977
-0.029929 0.2133 0.564644
-0.0488607 -0.106778 0.310205
-0.188626 0.0627918 0.315604
-0.0990181 0.250169 0.688118
-0.0611496 0.194588 0.344047
0.0181225 0.196826 0.358069
-0.0700685 0.157166 0.310319
-0.0228354 0.220496 0.604884
-0.256143 0.247753 0.111697
0.069009 0.197082 0.439912
0.0788309 0.202306 0.462183
0.00780473 0.0663867 0.302893
-0.105566 0.181203 0.401586
0.190249 0.211881 0.604535
-0.0121492 -0.142851 0.311125
0.0591523 0.0183743 0.297421
-0.184822 0.203023 0.465679
-0.191156 -0.194345 0.296172
-0.125813 -0.0911115 0.311677
-0.0284171 0.175334 0.312577
0.0980015 0.168636 0.304041
-0.108063 0.188336 0.436724
-0.255225 0.225742 0.00649777
-0.0888973 -0.158705 0.310528
0.0961641 0.162621 0.333914
-0.0899505 0.0415517 0.302551
0.218484 0.0881509 0.48447
0.163916 0.1812 0.402632
-0.0727354 -0.133087 0.313386
0.0716139 -0.159609 0.310482
0.0494759 0.225511 0.532741
0.191784 0.197797 0.479447
0.0275217 0.0229897 0.302631
-0.111458 0.176417 0.344237
0.0919651 0.127567 0.294785
-0.0367836 0.185404 0.29243
0.0193098 -0.241492 0.289032
-0.185382 -0.0545954 0.309974
-0.251132 0.223117 0.330289
0.0160888 0.126615 0.287759
-0.101696 0.116683 0.308147
0.0431533 0.248069 0.6856
0.0961437 0.185751 0.304448
0.185243 0.203283 0.551206
0.0805362 0.213199 0.552002
-0.0811177 -0.0923324 0.31925
-0.174605 -0.205228 0.31615
-0.15911 0.177008 0.346065
0.0530519 -0.0143139 0.304274
-0.0614624 -0.00907666 0.303978
-0.0949949 0.227805 0.638182
0.0675618 -0.0420394 0.311834
-0.170991 -0.0777931 0.321224
0.0447386 0.213097 0.550872
0.135161 0.00251453 0.314039
-0.250881 -0.248893 0.0736792
0.160048 0.213233 0.619709
-0.181131 -0.177696 0.32156
-0.0352969 0.194507 0.4755
-0.249471 0.238754 0.17278
-0.0965712 -0.0239232 0.297521
0.120627 -0.00731595 0.30373
0.250708 0.240633 0.169322
0.0803828 0.0448045 0.289366
-0.100976 0.100119 0.315899
-0.176931 0.237287 0.665393
0.0487504 0.223141 0.619591
0.11823 -0.060564 0.317861
0.109607 -0.221687 0.299193
0.165998 0.0315907 0.305465
0.0150849 -0.102419 0.292262
-0.178467 0.26504 0.707673
-0.0516065 0.18715 0.309324
0.25595 -0.258004 0.0183254
0.0393543 -0.0362061 0.29096
0.0914996 -0.220993 0.310475
0.140336 -0.135525 0.323857
0.0826295 0.195839 0.352399
-0.032097 0.127188 0.287749
-0.0367226 -0.0948819 0.292114
-0.0363154 0.0810949 0.303331
-0.0655914 0.238349 0.610259
-0.0136366 -0.212626 0.303543
0.0251019 -0.0207574 0.307007
0.148175 -0.238971 0.288122
-0.0542837 -0.183509 0.320736
0.229805 -0.0138691 0.476778
-0.0587668 -0.041565 0.306072
0.0212346 0.0910714 0.303771
-0.0230771 0.195646 0.424024
-0.0533953 -0.212907 0.303415
0.139826 0.20963 0.598771
0.165618 -0.0877552 0.321836
-0.189035 0.171111 0.328242
-0.0615845 0.168158 0.350438
-0.00380524 0.239961 0.671697
-0.0332526 0.055813 0.298211
0.0191198 -0.143738 0.311122
-0.0920176 0.209855 0.49301
-0.257934 0.217606 0.412418
0.257126 0.240594 0.198265
-0.25565 0.150652 0.00589033
0.09666 -0.0309366 0.303386
-0.0779469 0.0488671 0.289289
0.127928 0.106758 0.317396
-0.0768868 0.104312 0.288199
-0.116872 0.221684 0.611053
-0.114803 0.173424 0.369007
-0.0628664 0.233239 0.65536
0.0500104 0.180042 0.362505
0.0918689 0.238841 0.669382
0.104992 0.0671738 0.313075
-0.162068 0.223652 0.621326
-0.123865 0.201181 0.45394
0.00255838 0.233741 0.582574
0.111081 0.210325 0.527384
0.0665039 0.00188957 0.29021
0.00456267 0.101806 0.30436
-0.133828 0.21572 0.629919
-0.0346005 0.164149 0.312422
0.0730363 0.21052 0.528803
-0.0184609 -0.0860468 0.309061
-0.141249 0.0349948 0.31407
0.0626874 0.185505 0.298316
-0.261664 0.0990679 0.00588656
-0.0126566 -0.0469953 0.300371
-0.0935736 0.160507 0.289545
-0.0365661 0.0985243 0.303546
0.144485 0.214392 0.562196
-0.0315084 -0.0311287 0.305359
0.131945 0.20569 0.487958
-0.182148 -0.127649 0.3237
0.0260764 0.126796 0.306411
0.127514 0.133617 0.320217
-0.154096 -0.0845492 0.32158
0.173089 0.243949 0.67947
0.129561 -0.0900081 0.311685
0.113556 -0.180044 0.311503
0.0795289 0.18235 0.310038
0.0111434 0.248522 0.700541
-0.111676 0.233169 0.655061
-0.179087 0.20497 0.562516
-0.0740434 0.216269 0.475886
0.0915515 0.216856 0.580956
0.142236 0.244687 0.696834
0.114374 0.091012 0.305916
-0.0372815 0.182644 0.366321
0.000463642 0.21959 0.608647
0.115226 0.021402 0.302327
0.193188 0.0636689 0.307887
0.0184518 0.264694 0.698582
-0.0622828 -0.11581 0.292526
0.174077 -0.0321679 0.308379
-0.0432388 -0.171493 0.30935
-0.25094 -0.167715 0.0116604
-0.0495201 0.0159628 0.296825
0.0686218 0.0363419 0.308327
0.165104 0.00132994 0.306129
-0.259266 -0.183994 0.358686
-0.140748 0.212609 0.545353
0.0919412 0.0976838 0.29417
-0.128407 0.177266 0.384204
0.0387145 0.198764 0.440637
-0.035432 0.199768 0.375697
-0.258335 0.0447366 0.00719628
0.0130331 0.15538 0.31004
0.119794 0.192541 0.462356
0.0730284 0.113331 0.316495
0.255664 0.245992 0.017909
0.106765 -0.00960923 0.312265
-0.0620257 0.0383145 0.298382
-0.146845 0.1096 0.308092
0.130947 -0.041475 0.30718
0.0439487 0.132066 0.306971
-0.0314261 0.252688 0.70364
0.17064 0.193534 0.41429
0.254105 -0.108595 0.483817
0.162026 0.18771 0.43461
-0.076413 0.190495 0.398976
-0.19286 0.0833481 0.309208
-0.169677 -0.0344007 0.318156
0.0136212 0.215151 0.579303
-0.0928634 -0.0952048 0.292122
0.0451835 -0.209521 0.314941
0.0334464 0.179954 0.288592
0.258927 -0.0565673 0.00707141
0.0659715 0.133978 0.309841
-0.0884844 -0.121397 0.292636
-0.0065791 0.22149 0.507996
-0.128072 -0.181411 0.321036
-0.0649896 0.218086 0.589021
0.0266151 0.224226 0.52481
0.11585 0.189328 0.443085
-0.0147956 0.0514107 0.302631
-0.113203 -0.0416624 0.305916
0.130538 -0.155766 0.323593
-0.0415913 0.235802 0.59489
-0.181879 0.219709 0.644656
-0.132934 -0.0110983 0.314662
0.109836 0.239428 0.690277
0.0164387 0.188665 0.299006
0.0809652 0.0278178 0.302562
-0.0379642 0.160612 0.297319
0.251522 -0.0934164 0.4755
-0.0868197 0.19616 0.488081
-0.176986 0.251532 0.689749
0.0943978 0.211884 0.553841
0.0284454 0.109984 0.305134
0.0114027 0.0582701 0.289103
-0.0564547 0.166698 0.319456
0.212264 -0.204037 0.294196
-0.084759 0.126329 0.287766
0.0630369 0.243412 0.641722
0.257568 0.206174 0.0147257
0.0718054 -0.103097 0.32015
-0.0458616 -0.175973 0.293709
0.0930445 0.160386 0.297727
0.153474 0.00965907 0.314915
-0.0642862 0.179364 0.354279
-0.0816704 -0.0026641 0.30953
0.183596 0.199681 0.446401
-0.172231 -0.236492 0.299364
-0.183987 0.199294 0.442483
-0.0233744 0.0264647 0.305358
-0.0387828 0.206646 0.494447
0.0773639 -0.131397 0.29283
-0.0182289 -0.000548228 0.305387
0.19336 -0.111696 0.319945
-0.0623419 0.172872 0.367077
-0.0912542 0.212742 0.511191
-0.00108495 -0.132355 0.311071
0.0221828 -0.0513944 0.301089
0.0106996 0.036234 0.305697
-0.151948 -0.120201 0.323476
0.229952 0.0438595 0.474057
0.0207421 0.205376 0.484674
0.0395434 0.228348 0.549951
-0.118713 0.218108 0.639384
-0.137888 0.263202 0.698144
-0.164087 0.205776 0.486571
-0.0651305 0.218617 0.490217
0.229064 0.208347 0.505018
-0.0176955 0.227915 0.638781
0.0794735 0.255193 0.693553
0.0613962 0.212512 0.453723
0.029133 0.185233 0.382955
0.0917687 -0.101866 0.306396
0.0190655 0.194731 0.419556
-0.0459945 0.148321 0.31824
0.254128 -0.165664 0.418731
0.0139541 0.189359 0.394131
-0.101819 0.194843 0.477493
0.0421832 0.0616562 0.289036
0.0710822 -0.241546 0.289034
-0.0108801 0.0774059 0.300236
0.0391363 -0.0655564 0.291537
0.180313 0.0269071 0.305649
-0.147055 -0.0410343 0.31784
0.0280997 0.182432 0.315172
0.0135693 0.17886 0.358099
-0.0748367 0.213757 0.511148
-0.0726428 0.0815064 0.302785
0.0133009 0.214403 0.561366
-0.249776 -0.0356531 0.00874635
-0.12506 -0.159166 0.323368
0.090684 0.102259 0.315708
-0.165075 0.170879 0.359481
0.0393099 0.21475 0.467228
0.0963784 0.186393 0.361886
0.0100735 0.228872 0.642148
-0.016109 -0.157248 0.31062
0.138727 0.18446 0.417974
0.0760321 0.198089 0.36605
0.170459 -0.0437242 0.318829
-0.0311516 0.211267 0.53454
-0.0533744 0.201737 0.387584
-0.104604 -0.00456025 0.302165
0.184293 -0.0216839 0.317416
0.00328746 0.195482 0.349818
-0.0108453 0.215184 0.579391
0.0130996 -0.206508 0.315823
0.0518111 -0.233272 0.286771
0.173369 0.203098 0.468449
-0.253486 0.241133 0.0799863
0.176752 -0.214168 0.302983
0.257703 -0.0418555 0.00565252
-0.0966007 -0.186946 0.310371
0.16315 0.196045 0.488883
0.126138 -0.109657 0.313086
-0.152632 0.0814795 0.316113
-0.0564375 0.197868 0.435408
0.145959 0.16839 0.35177
0.0779541 0.235786 0.595403
-0.152335 -0.221889 0.29895
-0.186753 -0.224455 0.297198
0.0665061 0.0883701 0.303266
0.251676 -0.177204 0.375088
-0.0825882 0.164983 0.340338
0.0539598 0.170495 0.292469
-0.0566395 0.219723 0.609116
-0.130288 -0.211158 0.31433
-0.0267746 -0.0620235 0.312444
-0.0183604 -0.0978366 0.317861
-0.162882 -0.186619 0.31042
0.173593 -0.0689371 0.320616
0.00959946 -0.0289667 0.290818
0.112049 -0.141038 0.314173
0.0633578 0.224727 0.528049
-0.0975925 -0.136426 0.314024
-0.258615 -0.150308 0.468173
0.097939 0.19598 0.487919
-0.20285 0.212325 0.493797
0.0900755 0.198347 0.447025
0.115014 0.171679 0.36316
0.153939 -0.158305 0.323436
0.0537562 0.0889985 0.288498
-0.00775905 -0.0219976 0.297255
0.0296153 0.243316 0.67814
0.0836912 0.170393 0.31612
0.0683562 -0.21637 0.301967
0.1797 0.113619 0.308434
-0.0774844 0.131475 0.319377
0.141728 0.21734 0.584862
0.257038 -0.21384 0.253902
-0.250211 -0.203596 0.00629559
0.00512262 0.186145 0.380337
-0.120157 0.136192 0.320523
0.142901 0.172889 0.3678
-0.179948 0.0372341 0.305627
0.00182474 0.192176 0.414372
0.0527318 0.191809 0.327727
0.127419 0.177107 0.384477
0.0959131 -0.146287 0.323816
-0.0573977 0.247314 0.699278
-0.191795 0.191447 0.407316
-0.0362198 0.218403 0.640646
-0.115752 -0.121304 0.313646
-0.0482669 0.217174 0.593271
0.230807 0.013196 0.474228
0.0880393 0.148417 0.317342
-0.0169195 0.0140138 0.295456
-0.0687458 -0.233062 0.287039
0.026393 0.217539 0.585578
-0.187002 0.00969343 0.315741
-0.0766376 0.215952 0.631103
-0.120312 -0.0268851 0.305136
0.0880827 0.208962 0.5153
0.131293 0.265343 0.70397
0.0963968 0.210936 0.498528
0.127801 -0.218355 0.301043
0.0740895 -0.138546 0.311112
0.171838 0.133581 0.310475
-0.0458108 0.200551 0.450514
-0.0754475 -0.173049 0.312396
-0.0982556 -0.237527 0.287698
0.146649 0.227283 0.667231
0.0918533 -0.00273156 0.292409
-0.0820989 0.211262 0.534111
0.0486502 -0.139583 0.311115
0.0795588 0.185605 0.378396
-0.0174153 0.25026 0.701865
0.0698318 -0.209751 0.314871
0.0564379 -0.108911 0.292389
0.011414 -0.0679331 0.303463
0.0824941 0.137478 0.287544
0.0235913 0.014845 0.289956
-0.188803 0.197713 0.500084
-0.0757429 0.198954 0.370535
0.117683 0.195877 0.42579
0.136566 0.024242 0.313622
-0.115785 0.0808407 0.30513
-0.0581037 -0.146106 0.313732
-0.0888193 0.120391 0.317988
-0.177254 -0.00488327 0.316399
-0.0509631 0.0563735 0.29904
0.109067 -0.23588 0.30024
0.0048724 0.231043 0.566172
-0.161237 0.200254 0.522266
0.102062 0.243842 0.679209
-0.0920311 0.189629 0.332742
-0.146791 -0.203859 0.316558
0.0383048 0.17273 0.337428
0.0726276 -0.184899 0.310756
-0.252295 0.236801 0.139152
0.145331 -0.0751403 0.32067
0.147942 -0.094858 0.312493
-0.0883449 0.233148 0.649481
-0.130643 0.180873 0.359425
-0.0432319 0.186591 0.427941
-0.0210906 0.23709 0.602828
-0.0433542 -0.0937658 0.308088
-0.249408 0.234599 0.221568
0.152649 0.117009 0.318429
-0.187269 0.223596 0.620908
0.00663757 0.207699 0.516877
0.0727349 0.190232 0.398343
0.0538076 0.231532 0.569394
-0.00382662 -0.0660129 0.303135
-0.0231786 -0.196169 0.308549
0.157688 0.192417 0.408836
0.15902 0.0419249 0.314994
0.17404 -0.154942 0.313965
0.130594 0.212088 0.613456
-0.0544932 0.264981 0.707383
0.064004 0.220379 0.64771
0.0775849 0.237308 0.665946
-0.134937 0.197762 0.500913
-0.00994142 -0.177853 0.321558
0.0833279 0.246448 0.683277
0.0569614 0.21843 0.592029
-0.143579 -0.157227 0.313806
-0.0687916 0.21393 0.461684
0.144874 0.20356 0.553304
-0.0275859 -0.0438531 0.306229
-0.0544408 0.121782 0.30757
0.0521251 -0.00412424 0.290329
-0.0212153 0.175031 0.340156
-0.000127146 0.00302255 0.295517
-0.179873 0.112171 0.317989
0.115508 0.223374 0.621158
-0.119311 0.0197547 0.302707
0.188762 0.187301 0.432557
0.0481247 -0.087793 0.309166
-0.097681 0.184491 0.373253
0.235391 -0.0428587 0.483357
-0.00718473 -0.104746 0.30909
-0.15256 -0.188583 0.319885
-0.0823826 -0.139984 0.293002
-0.141796 -0.180283 0.311435
-0.190031 0.0529695 0.305795
-0.0965938 -0.0505476 0.297924
-0.250538 0.225548 0.383154
-0.247888 -0.0662051 0.484771
0.0353213 0.198245 0.506338
0.10106 0.21156 0.510955
-0.150512 0.24345 0.695137
0.147122 0.211792 0.61195
0.041019 0.0167893 0.302789
-0.0920014 0.224985 0.555077
-0.102327 0.209546 0.519003
-0.182949 0.209802 0.520647
0.0913024 0.11167 0.305049
0.107611 0.17946 0.394502
-0.0789717 -0.176933 0.293728
-0.0133355 0.196723 0.493096
-0.180307 0.0685155 0.306084
-0.115167 0.205694 0.486264
-0.00628571 0.088415 0.30169
0.0228797 0.0856779 0.288564
0.226314 0.0702319 0.483105
0.046253 0.211881 0.611973
-0.0906665 0.0685758 0.302625
-0.00363524 0.240531 0.623849
0.0666403 -0.0118371 0.304124
0.0893735 0.0887566 0.304468
-0.101144 0.21202 0.540542
-0.1477 0.207077 0.579211
0.0206379 -0.0423841 0.291081
0.03532 0.216598 0.634225
0.0311622 -0.137263 0.312921
-0.0838967 0.179492 0.393948
0.250256 0.216012 0.46372
-0.2216 0.0502003 0.480006
-0.0981654 0.136338 0.310681
0.152451 -0.131348 0.314112
0.000792205 0.198374 0.438379
0.0641745 0.194699 0.427271
-0.145678 0.165707 0.342403
-0.0625176 -0.0686615 0.315021
0.0564317 -0.199096 0.300468
-0.0785456 0.0173899 0.302772
-0.0709718 -0.0476259 0.303143
0.122188 0.205542 0.569265
-0.102769 -0.099611 0.321173
0.098217 0.136622 0.320505
0.079833 -0.129282 0.322963
-0.0965289 0.0215886 0.300522
-0.160878 0.220584 0.604731
-0.0128526 0.235052 0.660166
-0.0612219 0.128564 0.318554
-0.00351197 -0.223034 0.298279
-0.06173 0.176347 0.312524
0.177572 0.188758 0.440313
0.0249811 0.160403 0.288619
0.0372846 0.192416 0.408353
0.0117688 -0.160557 0.323045
0.106378 -0.0302485 0.313857
-0.0667428 0.235729 0.684222
-0.0590786 0.207739 0.503695
0.188215 0.0950617 0.316843
0.170312 -0.229517 0.292987
0.0880162 0.220305 0.604233
0.157668 0.173416 0.335668
0.0798642 0.218428 0.641074
-0.0809902 -0.0268791 0.305076
-0.00173804 0.222165 0.652889
-0.115938 0.261901 0.697639
-0.0438691 0.213984 0.622816
-0.136011 0.00483191 0.304397
-0.00408678 0.2279 0.638767
0.118155 0.0302044 0.312277
0.0208521 0.228228 0.669193
-0.121917 0.149248 0.313613
-0.174909 0.197174 0.431151
-0.147849 0.19165 0.403981
0.0634608 -0.124217 0.322147
-0.0601552 0.0519115 0.289229
0.250182 -0.196954 0.299757
-0.1526 0.258701 0.695984
0.0217554 0.188624 0.43887
0.174546 0.188772 0.392158
-0.0563075 0.229023 0.553567
-0.064564 0.0145818 0.30753
0.112987 -0.161724 0.313541
-0.0751564 0.24144 0.629014
0.0519721 0.236203 0.663306
0.0978216 0.185094 0.420929
-0.139211 0.206258 0.49063
0.0894377 0.0391972 0.302538
-0.083138 0.218289 0.600338
0.0281949 0.0717229 0.288838
0.00246488 0.252695 0.691051
0.250337 0.0442996 0.0083404
-0.255098 -0.169075 0.40037
-0.016156 0.199657 0.445239
0.0372968 0.194293 0.474422
-0.0910602 -0.0282777 0.31234
-0.0873524 0.192416 0.407846
-0.0861022 0.179392 0.359693
0.0408065 0.18816 0.389043
0.060244 0.235004 0.590555
-0.0569216 -0.237825 0.297829
-0.0715202 -0.103621 0.320199
-0.0676678 0.21419 0.559107
0.0164793 -0.220792 0.310537
-0.144797 0.184362 0.37257
0.00220981 -0.0164762 0.304411
0.184827 0.248387 0.700548
-0.146253 0.198848 0.510132
0.0808806 0.202654 0.475467
-0.152122 -0.0149807 0.306479
0.0532298 0.197195 0.360498
0.175051 0.202288 0.542531
0.0740108 -0.0633493 0.30532
0.131607 0.214846 0.565823
-0.00858409 0.171087 0.287877
-0.129527 0.203487 0.550645
0.0537852 -0.158084 0.32331
-0.162575 -0.0264601 0.307719
0.0635324 0.201033 0.383901
0.0379854 -0.107642 0.309863
0.0926212 0.195388 0.431019
-0.0191005 0.177073 0.383813
0.0759035 0.174563 0.338971
0.0623324 0.211812 0.553013
0.0951713 0.00289395 0.310503
-0.0696247 0.230078 0.559921
0.01257 0.0813787 0.300768
-0.0170261 0.188416 0.29797
-0.0411376 0.0831862 0.288614
0.0908576 -0.0573325 0.291374
-0.0825729 0.196736 0.429312
0.191162 0.231622 0.658048
0.250237 0.0922081 0
-0.067124 -0.184222 0.310854
0.0883284 -0.0607878 0.307391
-0.0073205 0.212584 0.558971
0.000946552 -0.16969 0.309542
-0.0334499 0.216891 0.591411
-0.02434 0.209689 0.43611
0.0622299 0.0612889 0.289043
-0.0660845 0.143919 0.311581
0.176744 -0.125298 0.313977
0.177223 0.218243 0.591496
0.0216025 0.233265 0.579773
-0.154049 0.232741 0.678531
0.0235322 -0.192786 0.319145
-0.0171211 0.22685 0.540547
0.035207 0.197484 0.362164
0.0163153 0.202164 0.540306
-0.0970819 0.189941 0.396367
-0.0114065 -0.123123 0.311491
-0.125942 -0.19489 0.297887
-0.0634797 -0.201003 0.307333
0.0872649 -0.0182859 0.30452
-0.00986975 0.203826 0.400512
-0.148482 0.148102 0.312537
0.186361 0.182993 0.368366
0.165874 0.251122 0.68961
0.165164 0.208902 0.515335
-0.249373 -0.0889272 0.472089
-0.170859 0.242999 0.677227
0.0474713 0.200563 0.451059
0.0144981 -0.14765 0.323057
0.162888 0.0980256 0.307337
0.0296034 -0.169994 0.29359
0.1611 0.0184242 0.305366
0.018009 0.111823 0.28805
0.0917204 -0.0458098 0.304524
0.250309 0.228988 0.297163
0.193126 -0.127606 0.32152
-0.169989 0.221339 0.649979
-0.102153 0.195339 0.422143
-0.065753 0.0534307 0.302656
0.0381209 0.16878 0.293588
0.0216841 0.0602695 0.302767
0.160703 -0.168101 0.312965
0.102895 0.259877 0.707304
-0.0350862 -0.163071 0.313309
-0.0589858 0.2023 0.461292
0.129769 0.0115039 0.303664
0.225297 0.0371505 0.484267
-0.250039 -0.227752 0.180457
0.205455 0.176524 0.476829
0.0542488 0.173957 0.312466
-0.174617 -0.0972767 0.32241
0.015225 0.202039 0.459888
-0.10236 -0.14359 0.32383
-0.0448911 0.175619 0.377823
