0.0981851 0.173447 0.481141
0.0724114 -0.0402732 0.386101
0.136765 0.16201 0.572455
0.102369 0.209533 0.351856
-0.0313447 0.18785 0.63941
-0.0061288 -0.0562698 0.338986
0.0272748 0.085644 0.386101
-0.00104315 0.221604 0.763168
-0.00596198 0.0199512 0.269794
-0.206493 0.0877379 0.363972
0.050451 0.00773466 0.123727
-0.108403 -0.139431 0.338986
-0.0541354 0.247043 0.785762
0.191999 0.0385114 0.326596
-0.0910354 0.147979 0.386101
-0.220091 -0.0601461 0.0319401
-0.181069 0.125873 0.373947
0.194027 0.171026 0.606958
-0.107 0.0122034 0.260569
0.0207878 0.0142317 0.174509
0.0483381 0.199959 0.691845
-0.0161682 0.183989 0.619396
-0.165996 0.205921 0.0402725
0.0609567 -0.148516 0.386101
-0.0906503 0.183973 0.651299
0.0904745 -0.00624389 0.153278
-0.180235 -0.0537923 0.349642
0.138404 0.235512 0.780386
0.00332139 -0.0230335 0.129308
-0.123493 0.181692 0.566141
0.00300219 -0.245226 0.0419057
-0.106713 0.169668 0.505809
-0.101616 0.166927 0.590725
0.0722719 0.0105015 0.251929
-0.0451636 0.208334 0.380131
0.0316429 0.195532 0.390068
-0.0566122 0.180921 0.349335
0.152981 0.198172 0.766639
0.144793 -0.0471224 0.338986
-0.143599 -0.0406098 0.386101
-0.263331 -0.0799167 0.00751863
-0.0175103 0.034902 0.124164
0.0310405 0.262219 0.817671
0.0394326 0.187442 0.562261
-0.14678 -0.119884 0.386101
0.0952228 0.222651 0.790682
0.0801252 0.193024 0.598188
0.173515 0.113539 0.382602
-0.0647322 0.203156 0.709627
-0.167697 0.166921 0.621819
0.179423 0.205439 0.711942
0.0935042 -0.155473 0.339212
-0.0870946 0.0183435 0.338986
0.146451 0.0302629 0.290117
-0.137265 0.205815 0.68174
0.0211333 0.201133 0.611346
-0.118428 -0.16836 0.347369
-0.0334773 -0.179267 0.36892
0.0723568 0.22912 0.739501
-0.0193355 0.0561848 0.283527
-0.0931485 0.178903 0.377223
-0.132014 0.215768 0.725628
-0.114295 -0.0978311 0.338986
0.0967857 0.18927 0.666549
0.121599 0.0469821 0.271864
-0.203086 0.161417 0.363645
-0.194486 0.174072 0.454367
0.146033 0.0756022 0.386101
-0.0178689 0.233634 0.737786
0.0749146 -0.165241 0.383504
-8.83642e-05 -0.0542056 0.159152
0.0469726 -0.149996 0.338986
0.0402331 0.241539 0.771537
-0.0747482 0.201652 0.628076
0.0167184 0.0310352 0.0495172
-0.194921 0.164295 0.569287
0.102959 0.103176 0.386101
0.0107132 0.186999 0.552363
0.162286 0.167851 0.529447
-0.0781047 -0.0228592 0.338986
-0.0258889 0.158068 0.338986
-0.171721 0.103924 0.341966
-0.0970808 0.100909 0.386101
-0.158909 0.147387 0.517801
-0.0516127 0.191106 0.423955
0.00916918 0.0426732 0.189095
-0.0468987 -0.106286 0.386101
0.112169 0.196706 0.712514
-0.0843395 0.260267 0.814738
-0.0351689 0.2061 0.712676
0.0363044 0.117332 0.338986
0.191125 0.14242 0.503611
-0.116778 -0.0116735 0.113649
0.011272 0.215 0.662601
-0.00437313 0.00731996 0.338986
-0.00544086 -0.180674 0.369211
-0.152381 0.193992 0.637929
0.142207 0.184173 0.598264
-0.0499462 0.0393932 0.248917
-0.166824 0.231987 0.780207
0.0556486 0.0298145 0.284648
0.127818 0.212718 0.0285654
-0.0212242 0.0190716 0.196772
-0.186893 -0.0414113 0.0894637
-0.0353581 0.105837 0.338986
0.183706 -0.0391 0.0899241
-0.153163 0.18118 0.575831
0.00833542 0.0888932 0.302222
0.0606606 0.107241 0.15092
0.0151296 0.180182 0.464318
-0.138086 0.245969 0.810825
-0.208152 0.155275 0.337299
0.00937684 0.0492429 0.144902
-0.058685 -0.138593 0.386101
-0.135703 -0.0512729 0.338986
-0.173833 0.176827 0.372021
-0.0844786 0.211689 0.6719
0.00693883 0.00763538 0.0564957
0.117263 0.10307 0.338986
-0.176831 0.213467 0.746536
-0.0226657 0.140986 0.386101
0.137699 0.105053 0.338986
0.0726914 0.206466 0.726339
-0.0017249 0.158856 0.508435
0.035653 0.0708255 0.338986
0.167212 0.111876 0.340551
0.019956 0.061028 0.386101
-0.00787533 0.204873 0.392196
-0.153609 0.152521 0.542925
-0.0481634 0.105312 0.136715
0.182785 0.197766 0.67983
0.257737 -0.0870166 0.0314832
0.152507 0.237355 0.05765
0.101324 0.0546191 0.338986
-0.015533 -0.00197587 0.258678
0.0839931 0.180821 0.442533
-0.0687271 -0.0602605 0.295224
0.0707929 -0.105736 0.338986
0.192524 0.173654 0.45711
0.0534115 -0.0763655 0.279942
0.0512274 0.183853 0.417026
-0.118312 0.227861 0.767684
-0.133297 0.0292408 0.261525
0.0256349 -0.116843 0.386101
-0.159135 -0.0212697 0.338986
0.193857 0.0857132 0.36267
-0.14389 0.184166 0.697718
0.151271 0.155621 0.552396
0.0638314 0.173001 0.506186
0.0921451 0.162217 0.555967
-0.0146223 0.257045 0.820083
0.11675 0.195498 0.637856
0.0128715 0.226922 0.780064
-0.211499 0.0448436 0.361932
0.187629 0.172069 0.568446
0.137891 0.211976 0.722286
0.148833 -0.0806327 0.338986
-0.00888064 0.204625 0.698587
0.0836896 0.155693 0.338986
0.13484 0.00232287 0.338986
0.117722 0.151117 0.386101
0.128035 -0.153173 0.339639
0.129302 0.15292 0.338986
-0.127355 0.219914 0.0352009
0.129981 -0.0184372 0.138799
0.17064 0.00874474 0.383565
0.147419 -0.109462 0.386101
0.0349068 0.0455411 0.250943
-0.181784 -0.110615 0.360819
-0.0225065 0.196087 0.5908
-0.138457 0.0311799 0.386101
0.115618 0.154381 0.478839
-0.139173 0.239405 0.0236559
-0.0323044 0.173095 0.580641
0.00875625 0.185437 0.335462
-0.172166 0.142206 0.342108
-0.138045 0.214184 0.787354
0.0163804 -0.263552 0.0179392
-0.0412868 -0.143939 0.338986
-0.127846 -0.0921448 0.386101
-0.113917 0.194192 0.71435
-0.0398315 -0.061058 0.27487
-0.0208012 -0.224384 0.0237178
-0.082012 0.181039 0.548165
-0.182906 0.0408796 0.292281
0.110806 -0.0210454 0.386101
-0.150574 0.167677 0.384434
-0.0572425 0.192583 0.665314
-0.098845 0.0773384 0.338986
0.0287746 -0.0381983 0.278618
-0.0514625 -0.101542 0.314002
0.0922378 -0.0867153 0.386101
-0.154796 0.165495 0.507087
0.0125197 0.191445 0.36152
-0.0821453 -0.0107663 0.386101
0.0494555 -0.00369112 0.262589
0.0744939 0.0244648 0.28558
-0.0873647 0.183041 0.432044
-0.0606963 0.131167 0.386101
-0.117425 -0.15226 0.385919
0.152707 0.245728 0.811569
-0.0762318 0.141108 0.115162
-0.195559 0.0985838 0.335524
-0.0123648 0.176852 0.492414
-0.189364 0.153183 0.537093
-0.05265 -0.00723838 0.338986
0.0901637 0.0455267 0.386101
0.20486 0.0347443 0.364017
-0.059428 -0.00254542 0.151686
-0.205015 0.215493 0.36273
0.0316674 0.216867 0.676648
0.165344 0.215079 0.000646288
0.0198696 0.236803 0.751117
0.0624229 0.201082 0.623124
0.0065945 -0.207001 0.0895514
-0.037565 0.225718 0.781746
-0.142744 0.205988 0.346006
0.162227 0.204229 0.345024
0.225677 -0.0484842 0.016087
0.0119329 -0.0150909 0.338986
-0.164295 0.181693 0.673609
0.0826239 0.157268 0.532371
0.0730792 0.206142 0.387965
-0.076583 0.209926 0.347403
-0.0712345 0.0979467 0.338986
0.199898 0.0190076 0.301955
0.20491 0.186813 0.40365
0.0696577 -0.143934 0.324172
0.00354434 0.129832 0.295349
-0.111019 0.201692 0.37411
-0.0108541 -0.0628483 0.386101
-0.0171235 0.169659 0.562813
0.120446 0.0114054 0.269191
-0.0280247 -0.02108 0.255187
0.146606 -0.165804 0.355518
-0.00440464 -0.0942862 0.140959
-0.0684153 -0.133583 0.315812
-0.01737 0.0352976 0.0952154
-0.0397555 0.0286457 0.283938
0.172891 0.134316 0.383037
0.00858134 0.00211049 0.137141
0.0759018 -0.0843266 0.305046
-0.0776738 0.0315253 0.285866
0.0757318 0.192247 0.670347
-0.100278 0.0446546 0.261294
0.0445317 0.212423 0.740551
0.167111 0.183944 0.708846
0.103639 0.155119 0.119177
-0.234614 -0.0592467 0.0601963
0.150884 0.218505 0.0646681
0.0608817 0.168046 0.568224
0.0746355 0.247222 0.79643
-0.0211836 0.0273968 0.0722666
0.131532 0.17519 0.550434
-0.0454681 -0.0627671 0.338986
0.175714 0.0506076 0.28823
0.198761 0.0537495 0.309513
0.215576 -0.0490028 0.0738097
-0.0735682 0.225793 0.787315
-0.16061 0.151916 0.47665
-0.238671 -0.0860698 0.0309858
-0.14252 0.0115559 0.281484
-0.141499 0.171818 0.481189
0.105342 0.219937 0.728572
-0.200913 0.175799 0.398159
-0.0494275 0.156577 0.51915
-0.176156 0.0920603 0.379209
-0.0629575 -0.0338574 0.386101
0.0462762 0.128102 0.386101
-0.0702991 0.194662 0.37287
-0.0623755 0.038678 0.386101
0.13315 0.181694 0.35251
0.0848656 0.172333 0.593817
-0.119518 0.184314 0.108171
-0.0112383 0.0183943 0.245188
-0.038582 0.0791977 0.161196
0.120815 0.0303363 0.338986
0.18167 0.186753 0.623633
0.120183 0.235197 0.795756
0.0237116 0.0257925 0.142116
0.161995 0.212342 0.741975
-0.172161 0.17317 0.654635
0.193878 0.0730013 0.340261
0.0362338 -0.0558737 0.386101
0.143984 0.166055 0.493167
-0.038356 -0.166062 0.38372
-0.174196 -0.0471391 0.381477
-0.000325207 0.00147911 0.276619
-0.0602741 0.171268 0.447237
0.197572 0.204946 0.339306
0.0730504 -0.177079 0.354735
-0.0578216 0.224252 0.712949
-0.0764357 0.00879558 0.258082
-0.101965 0.154829 0.481602
0.231746 -0.0717218 0.0428071
-0.0621625 0.109693 0.115311
0.207123 0.11612 0.335223
0.011887 0.25787 0.799832
0.112815 0.169433 0.437923
-0.0667434 0.20411 0.394932
-0.187909 0.18487 0.637826
0.118108 0.132588 0.338986
0.0870509 0.211355 0.759969
0.0253447 0.175077 0.438006
0.127654 -0.082373 0.386101
0.179719 0.151671 0.543217
0.0501775 0.155409 0.508503
-0.0807045 -0.0920159 0.386101
0.175506 -0.0916798 0.34515
-0.114086 0.186674 0.683452
-0.171404 0.208581 0.0103055
0.0206979 -0.151466 0.386101
0.0325739 0.0677637 0.123851
-0.0426763 0.229758 0.730154
0.043649 0.221145 0.697405
-0.0626305 0.160276 0.473025
0.00179879 0.00847434 0.0322981
0.0844796 0.254429 0.816626
0.190041 0.166242 0.426269
0.172373 0.178937 0.353973
0.0317679 0.0338938 0.386101
0.13936 0.236819 0.0335495
0.171392 0.209441 0.787842
0.185177 0.169647 0.474206
-0.136852 0.173578 0.538574
0.0210327 0.157474 0.50796
-0.155711 -0.031623 0.103156
-0.0888014 -0.177101 0.359025
-0.0841917 0.17696 0.616548
-0.139228 0.171327 0.630989
-0.254992 -0.0523638 0.0068956
-0.172277 0.193944 0.740175
-0.0674988 0.235182 0.760012
0.0683035 0.179907 0.34878
-0.0211731 0.0304803 0.180409
0.167589 0.179252 0.669909
-0.144605 0.233923 0.0780611
0.11267 0.167709 0.586017
0.0121744 0.206692 0.630245
-0.132293 -0.0820538 0.338986
0.0516938 -0.0161248 0.338986
0.0541193 -0.0292833 0.291011
-0.0244825 0.175561 0.437142
-0.141629 -0.119259 0.338986
-0.00432077 0.182152 0.531249
-0.18498 0.160961 0.591109
-0.00263769 0.0351969 0.338986
-0.0739851 0.169032 0.57559
0.180724 -0.115721 0.365842
-0.169596 0.219052 0.794168
-0.00841933 -0.0338133 0.144445
-0.0304054 -0.124473 0.386101
0.13531 0.223246 0.798611
0.0172176 -0.127292 0.338986
-0.0191577 0.20051 0.339347
0.0668006 -0.0785931 0.338986
0.0713516 0.0256698 0.386101
-0.0768115 -0.133059 0.338986
-0.00646374 -0.0342974 0.338986
-0.168849 -0.130474 0.380386
0.21025 0.182469 0.360953
0.166137 0.0127487 0.285895
-0.114921 0.151643 0.338986
-0.136102 0.212195 0.0703602
-0.11904 0.178211 0.433333
0.199895 0.1344 0.335132
0.0141769 0.182012 0.61018
0.0819428 0.0468434 0.274456
0.0326116 0.194815 0.665919
0.0311044 0.0788059 0.14993
-0.110373 0.207502 0.66481
-0.0960111 -0.0576484 0.338986
0.17833 -0.0321406 0.347624
-0.14787 0.220347 0.762915
0.0806267 0.182015 0.55358
0.0482454 0.177064 0.475589
-0.099139 0.18815 0.583001
-0.0340534 -0.0277587 0.386101
0.104768 -0.155107 0.385692
0.123534 0.186384 0.671857
-0.121941 0.176971 0.379137
0.120549 0.200213 0.373986
-0.0330609 0.0566963 0.142242
-0.00846027 0.196964 0.668206
-0.193014 0.113283 0.362238
0.0026284 0.00884705 0.386101
-0.157249 0.0471219 0.273337
0.0286619 0.16099 0.47598
0.0740161 0.210209 0.347315
-0.167347 0.188841 0.717121
-0.174599 0.160352 0.504742
0.0139328 0.0187538 0.283627
-0.0141471 0.105082 0.300704
0.0703678 0.0581639 0.338986
0.115238 0.206398 0.681203
0.149914 0.191985 0.639138
-0.0784625 0.160234 0.542336
-0.0999456 0.158152 0.123246
0.0143677 -0.222989 0.0275093
0.0799638 -0.115758 0.386101
0.0805478 0.180798 0.626178
-0.194756 0.163367 0.432185
0.171083 0.152982 0.498543
-0.118097 0.0127688 0.338986
0.180422 -0.0218498 0.375394
-0.0399725 0.175381 0.511623
0.11908 0.0522074 0.386101
-0.0188262 -0.0920101 0.386101
6.62997e-05 -0.0859821 0.338986
-0.110693 0.0187256 0.287255
0.0248995 0.139513 0.338986
-0.0246658 0.203872 0.368337
-0.0194771 -0.239829 0.00111228
-0.0728641 0.0331993 0.338986
-0.0221421 0.0690828 0.338986
0.118755 -0.0667626 0.338986
0.0480288 0.0421382 0.338986
0.164028 0.166602 0.615263
-0.137759 0.197992 0.0327544
-0.0465996 0.208179 0.645161
-0.0257625 0.188435 0.407026
-0.113593 0.177064 0.465748
-0.0597896 0.154324 0.5006
0.00727666 0.0733082 0.269417
-0.191506 0.0610747 0.339103
0.162146 0.203746 0.371491
0.118239 0.155897 0.540686
0.245929 -0.0590982 0.0761033
0.108982 0.17638 0.545788
-0.0592068 -0.0231785 0.285173
0.012939 0.165355 0.339735
0.15405 0.218398 0.761585
-0.055756 0.186099 0.560248
-0.202252 0.0185885 0.301657
-0.0729597 -0.0819072 0.297134
0.141993 -0.0213123 0.104906
-0.0389971 -0.120996 0.338986
-0.00212932 0.165647 0.46111
-0.111932 0.235605 0.804282
0.0727088 0.180059 0.459429
0.00975676 0.114425 0.316721
-0.123974 0.200183 0.641666
-0.114488 0.151407 0.518967
-0.182864 0.176981 0.582272
0.152277 0.214388 0.0415167
-0.000650861 0.0454913 0.0686627
0.130001 0.190095 0.0995143
0.0295348 0.19415 0.417215
0.102722 0.0337748 0.256494
-0.0483333 0.0473399 0.280067
0.0682975 0.127927 0.136269
-0.104919 0.208851 0.766832
-0.183349 0.0641922 0.365949
-0.00884532 0.16487 0.385511
0.0816839 -0.110868 0.31068
-0.149484 0.0362633 0.338986
-0.163112 0.209514 0.355368
-0.150506 0.125106 0.338986
0.0570739 -0.118452 0.323109
-0.0943262 -0.161192 0.340863
0.052378 0.082043 0.144085
-0.109901 0.173463 0.528134
0.0211748 0.0185405 0.0837725
-0.0395958 0.240353 0.767906
0.0729841 -0.00512912 0.127117
0.030626 0.208845 0.356385
-0.113387 0.0219307 0.386101
-0.101809 0.16888 0.443201
0.119729 0.126223 0.386101
-0.0952027 -2.33296e-05 0.125176
-0.0263897 -0.170932 0.343508
0.0558016 -0.0832908 0.308105
0.0222258 -0.0160521 0.265286
0.192305 0.200116 0.391547
-0.142722 0.0643686 0.386101
0.125445 0.179765 0.569512
0.0919907 0.170252 0.501644
0.106583 -0.0248003 0.338986
-0.10364 0.0742433 0.386101
-0.00601611 -0.228567 0.0476349
0.0473858 0.252772 0.797101
-0.213684 0.0372211 0.307739
-0.16475 0.236549 0.0291727
0.00889498 0.110498 0.386101
0.00905744 0.0318339 0.258232
-0.174022 0.168126 0.345693
0.0741079 0.12701 0.111455
-0.182498 0.00657663 0.355509
0.0605003 -0.0530162 0.273784
0.177438 0.155638 0.56238
-0.104583 -0.0322892 0.386101
0.100702 0.182051 0.639041
-0.00234145 -0.112908 0.386101
-0.183258 0.183918 0.693603
-0.0204815 0.0334374 0.152502
0.0723407 0.161825 0.468507
0.0720652 0.179724 0.376419
-0.100889 0.0981052 0.338986
-0.0735128 0.228297 0.734392
0.00441361 0.229602 0.717731
-0.10892 0.124461 0.386101
0.0633841 0.223758 0.713756
-0.249679 -0.0772652 0.0396392
0.146408 0.145092 0.386101
0.0744648 0.180879 0.418611
0.187248 0.146026 0.481272
0.0967355 0.203511 0.394087
-0.146587 -0.0674152 0.386101
-0.0394582 0.0126187 0.168355
-0.180378 0.150846 0.37486
-0.141057 -0.154399 0.341376
0.159267 0.240916 0.0214724
-0.0249954 0.0107363 0.136063
0.0228489 0.0474094 0.338986
-0.0410782 0.199796 0.689642
-0.197225 0.152613 0.476662
0.0209264 0.0243834 0.199081
-0.0196676 0.112516 0.386101
0.0649212 -0.015613 0.386101
0.0320366 0.168338 0.56124
0.163351 -0.066303 0.339619
0.0946375 0.19924 0.705802
0.12685 0.0788576 0.338986
-0.00640044 0.162589 0.531643
0.182425 0.0254342 0.371225
-0.115158 0.194923 0.0877083
0.0906277 -0.135349 0.386101
0.151367 0.167126 0.603555
-0.0297325 0.256439 0.801524
0.26464 -0.0581946 0.0311288
0.0111353 0.15305 0.386101
-0.0643877 -0.175891 0.374619
0.162032 -0.132833 0.383874
0.125437 0.175401 0.468643
0.013986 0.20083 0.684405
0.0146089 0.0404094 0.11929
-0.0118114 -0.250578 0.0405275
0.209777 0.10543 0.358991
0.0136957 0.249058 0.783311
-0.0901901 0.204696 0.645994
-0.184052 -0.0727308 0.360666
-0.0940494 0.202413 0.730504
-0.043569 0.192806 0.583424
0.113948 0.186485 0.596367
-0.204717 0.0199588 0.281994
0.177242 0.0482704 0.346361
0.042235 0.181004 0.537401
0.042881 0.0970933 0.338986
0.106353 -0.169879 0.346884
-0.151027 0.198952 0.660983
0.00394346 0.197399 0.591013
0.0551641 -0.174082 0.37713
-0.171758 0.20108 0.688073
-0.190346 0.134345 0.351254
-0.181815 0.159252 0.460493
-0.00874252 0.137655 0.338986
0.0333599 0.00502813 0.155909
0.175432 0.178552 0.595237
0.0982344 0.151895 0.51327
-0.0155401 0.0684617 0.259127
0.0202063 0.215619 0.745175
-0.0721733 0.109183 0.386101
0.170512 0.18989 0.651251
-0.0558393 0.186555 0.640821
0.0118165 0.243713 0.809975
0.0456182 0.24188 0.810883
-0.209782 0.082466 0.338168
0.0211953 0.0524072 0.171689
0.180777 -0.0282401 0.109786
0.0165126 -0.0667685 0.338986
0.05014 0.199758 0.404013
0.188532 0.0167042 0.281372
0.0686702 -0.0749314 0.386101
-0.00139165 0.0824021 0.386101
0.0122336 0.210368 0.37204
0.0925709 -0.0923904 0.338986
-0.119887 0.258149 0.810029
-0.0510285 -0.0414647 0.295282
0.0444616 0.200417 0.615387
0.187386 0.161402 0.498475
-0.172282 0.155944 0.568678
0.127893 -0.0118208 0.114782
-0.182304 0.0802115 0.35538
-0.0493856 0.15636 0.338986
-0.0935119 0.0523289 0.338986
0.191322 0.160782 0.35759
-0.0652066 0.179266 0.535864
0.0492527 0.0997749 0.386101
-0.155299 0.109665 0.386101
0.124578 0.172636 0.382933
0.0930845 0.079408 0.338986
-0.170571 -0.115036 0.342049
-0.0803653 -0.119223 0.323839
0.163761 -0.0291684 0.0966319
-0.0496697 0.208828 0.357644
0.0332226 0.205022 0.70706
-0.12887 0.167551 0.607259
-0.130871 -0.0102413 0.126543
-0.0870571 0.134485 0.338986
-0.133572 0.19356 0.729353
0.0312496 0.182542 0.452696
0.0059667 0.0173143 0.0127827
-0.116533 -0.0202192 0.136477
0.0673464 0.237636 0.767023
0.160232 0.148124 0.525727
0.0453933 -0.0303039 0.386101
-0.0379348 0.237849 0.807052
0.238827 -0.0912892 0.0216259
0.00811994 -0.166938 0.103064
-0.134457 0.0851964 0.338986
0.153931 0.18315 0.689699
-0.111286 0.221255 0.733107
-0.151461 0.207621 0.703898
-0.172281 -0.104363 0.382265
0.156663 -0.155743 0.379394
-0.158069 0.0158377 0.386101
-0.127545 0.193662 0.362758
-0.0641759 0.173879 0.488511
0.0851157 0.00562027 0.27525
0.159045 0.196113 0.727795
-0.164288 0.080007 0.339957
-0.0320837 -0.00195927 0.284574
0.0543603 0.044027 0.260068
-0.10371 0.198547 0.626356
-0.000551549 -0.209064 0.0700986
0.155673 0.224894 0.785844
0.0603072 0.00562349 0.283955
-0.179305 0.210437 0.779184
0.179599 0.153287 0.376598
0.131872 0.174111 0.619214
0.0838108 0.1319 0.338986
0.0107951 0.198384 0.40736
0.129219 -0.0896793 0.338986
-0.000822923 0.149003 0.310433
-0.106085 0.161367 0.386096
0.0787678 0.17422 0.483112
-0.0773019 0.246763 0.791307
0.0689803 0.213213 0.75203
0.166008 -0.125221 0.34111
0.0939225 0.173804 0.526574
0.0687185 0.177284 0.530074
-0.148841 -0.0166987 0.386101
-0.0366004 0.0627964 0.386101
0.14928 0.132407 0.338986
-0.00185089 -0.0854474 0.116462
0.0992014 0.192963 0.613333
-0.150685 0.211155 0.720499
0.111841 0.233847 0.774975
0.109427 0.22374 0.747417
0.0564285 0.186094 0.434938
-0.190504 -0.0360441 0.109573
0.0475042 0.153247 0.386101
-0.0849186 0.125542 0.386101
0.164804 0.174669 0.563189
0.0608632 0.045741 0.386101
-0.124968 0.132555 0.338986
-0.0739105 0.0147581 0.386101
-0.0536053 0.0178516 0.338986
-0.0487204 0.193271 0.370635
-0.00703188 -0.00687634 0.142151
0.0415123 -0.144148 0.386101
-0.134803 0.151005 0.526707
-0.0617035 -0.0469622 0.338986
0.110443 -0.00529177 0.138833
0.0178355 0.0878599 0.338986
-0.00543838 -0.164329 0.384649
0.0568781 0.192374 0.367627
0.200025 -0.0502946 0.0892439
0.0379141 -0.0715315 0.298417
-0.110859 0.16206 0.571399
0.181978 0.169513 0.543867
0.00504413 -0.140427 0.122116
-0.00384347 0.192297 0.571009
-0.0931548 0.191528 0.684747
0.129683 -0.00546941 0.386101
-0.0864341 0.192964 0.363387
0.109297 0.214136 0.708045
-0.179461 0.179437 0.442007
-0.00857809 0.213128 0.73207
-0.191605 0.167159 0.548255
0.142632 0.0975827 0.386101
0.158155 -0.0586651 0.386101
0.015495 0.131891 0.315156
0.182048 0.132411 0.351596
-0.0383765 0.126379 0.338986
-0.232232 -0.0511534 0.0168033
-0.138215 -0.169356 0.359371
-0.0841767 0.238682 0.776713
0.0692106 -0.159145 0.339881
-0.00760168 0.0330673 0.205735
-0.0289813 0.0778586 0.141018
-0.0102987 0.190145 0.402936
-0.0157103 0.226353 0.779117
0.124256 0.197906 0.732518
0.0536819 0.0258537 0.248588
-0.00877147 0.182637 0.336599
-0.0128002 0.00607237 0.0695716
-0.16692 -0.0696715 0.340575
-0.128258 0.167741 0.495592
0.210119 0.080541 0.354674
0.0332435 0.192099 0.368462
0.133641 0.208097 0.703
-0.179361 0.207814 0.350948
0.252904 -0.0819584 0.0158078
-0.157805 0.185004 0.598936
0.00419148 -0.0246388 0.161688
0.027474 0.193259 0.582055
-0.0247371 0.235107 0.799444
0.0492409 0.174367 0.382219
-0.106301 -0.0757345 0.338986
-0.0189887 0.192083 0.42235
-0.182696 0.0460076 0.356565
-0.108279 -0.173799 0.371662
-0.00819297 0.178141 0.593797
-0.0874571 0.208792 0.378414
-0.135506 0.250438 0.794828
-0.155257 -0.0421522 0.338986
-0.160066 0.131678 0.386101
-0.0914678 -0.102829 0.338986
-0.0120611 0.0844485 0.294439
-0.0231259 -0.249538 0.0263991
0.0911935 -0.175029 0.37443
0.0876659 -0.00948195 0.386101
0.159572 -0.0219546 0.338986
0.116852 0.149153 0.503016
-0.142224 0.157522 0.562892
0.18516 0.183815 0.695626
0.14823 0.250752 0.795414
-0.0661276 0.259084 0.815826
-0.154646 0.254098 0.811238
0.0801622 0.187428 0.575337
0.084988 0.15108 0.11027
-0.157313 0.194859 0.0213355
-0.151313 -0.0871556 0.386101
-0.0538705 0.0866071 0.146143
-0.150367 0.149783 0.338986
0.15545 0.0491351 0.281377
-0.124898 -0.130079 0.386101
-0.209449 0.182703 0.356911
-0.156903 0.204665 0.746634
0.239482 -0.0589423 0.0282406
0.0622677 0.184003 0.632545
-0.0704201 -0.113021 0.386101
0.173922 0.220143 0.772496
-0.191808 0.039296 0.320123
0.0162048 0.0300046 0.0286112
-0.174948 0.200022 0.373975
-0.0113933 0.051507 0.139979
0.196478 0.177726 0.386926
0.182997 0.183677 0.43913
0.013612 -0.0442174 0.386101
0.102078 0.0175181 0.338986
0.144384 0.0563268 0.386101
-0.0317239 0.217159 0.755262
0.0233598 0.205114 0.338043
-0.0494861 -0.168424 0.342223
-0.0997717 0.214354 0.688478
0.054119 0.214474 0.674138
0.080381 0.210037 0.367655
0.102592 0.177747 0.453505
-0.120798 0.173235 0.342222
0.191504 0.112854 0.346918
0.199458 -0.0340876 0.101164
0.161613 -0.150289 0.347865
-0.0525442 0.219239 0.691244
-0.147051 0.211737 0.0105276
0.00664247 0.198651 0.382143
-0.164605 0.0129848 0.287095
0.06101 0.230795 0.796178
-0.0251733 0.226574 0.711885
0.149201 0.00607847 0.386101
0.109883 0.253034 0.796588
0.252983 -0.0489089 0.0200447
-0.098295 0.228638 0.757139
-0.189735 0.162768 0.521165
0.140604 0.204596 0.344319
-0.18804 0.145714 0.518035
0.0870572 0.192789 0.367659
-0.0895017 0.00621747 0.276339
-0.0586716 -0.0541082 0.27262
0.182192 0.210771 0.746303
-0.202217 -0.0506208 0.0914843
0.136987 0.00961712 0.284382
-0.0514877 0.108173 0.386101
-0.115935 0.217752 0.787492
-0.0673511 0.168059 0.384423
-0.150056 0.239117 0.788726
-0.164374 0.170693 0.600119
-0.0250593 0.190405 0.569133
-0.0842855 0.160171 0.472484
-0.265332 -0.0691208 0.0264121
-0.178121 0.172467 0.561786
0.042209 -0.04395 0.264877
0.146619 0.178893 0.575049
0.0431194 0.217911 0.762085
0.145588 0.183317 0.366425
-0.00851673 -0.0583155 0.139358
-0.065605 0.178837 0.467301
0.0505216 0.212541 0.350597
0.0589015 0.203385 0.709146
0.0995757 0.138509 0.386101
-0.0386145 0.0839633 0.338986
-0.140235 0.182293 0.372558
-0.0198825 0.0339877 0.283771
-0.0294267 0.0167476 0.338986
-0.166938 0.189688 0.651832
-0.17854 0.04608 0.270334
-0.0347294 0.202401 0.61883
0.128818 0.232675 0.018903
-0.130615 -0.017848 0.338986
-0.064119 0.238254 0.809186
-0.0959586 2.86102e-06 0.338986
-0.0698686 0.187402 0.408764
0.192855 0.169984 0.587842
0.103844 0.184141 0.424835
0.033352 -0.0475209 0.297417
0.176513 0.197062 0.771512
0.103572 0.161654 0.339191
0.0847486 0.221428 0.71805
0.213189 0.0397275 0.321031
-0.0336332 -0.0415642 0.26569
-0.0786207 0.00252609 0.153256
0.0104186 0.221845 0.689222
0.208716 0.0497142 0.291203
-0.154658 0.213608 0.778995
0.183038 -0.0425669 0.368382
0.0720516 -0.127464 0.338986
0.0994283 0.159549 0.386101
-0.127354 0.221665 0.750174
-0.0997362 0.245605 0.814783
-2.27492e-05 0.241176 0.76118
-0.0550861 -0.076208 0.281484
0.0663959 0.248502 0.817823
0.225988 -0.062705 0.00143424
-0.0803423 0.196176 0.608204
0.00634109 0.00424264 0.075984
-0.182227 0.147505 0.479879
0.163301 0.091763 0.385575
0.119443 0.197225 0.347669
0.040956 0.0145628 0.283823
0.166265 0.200052 0.703439
0.0577074 0.155784 0.488483
0.0995231 0.0380356 0.287571
0.0233493 0.0604039 0.261045
-0.0616483 -0.00723777 0.386101
0.110956 0.169126 0.507837
0.0990495 0.0633282 0.386101
-0.111304 0.178525 0.548937
-0.00319698 -0.254693 0.0245639
0.0773666 0.235793 0.808586
0.049752 0.00486993 0.338986
0.103201 -0.0682444 0.386101
-0.0028107 0.175665 0.351486
-0.00867226 0.0578288 0.338986
0.163685 0.0637695 0.385456
0.129911 0.203546 0.00804002
-0.0448534 -0.0672896 0.303548
0.0697082 -0.0269934 0.338986
0.0885013 0.0340771 0.338986
0.0847355 0.202138 0.341686
0.1562 0.0949937 0.338986
0.185887 0.192993 0.662233
0.0191679 0.18297 0.373858
-0.190168 0.171048 0.62324
-0.00330537 0.0133255 0.2113
-0.103021 -0.00937204 0.386101
0.163037 0.169211 0.48114
-0.183012 0.0964841 0.358152
-0.0702141 0.194353 0.347532
-0.158886 0.23466 0.80432
-0.10745 0.0308403 0.338986
-0.221765 -0.0852806 0.0198595
0.0171798 -0.256125 0.0363455
-0.0908885 0.184224 0.564215
0.00125095 0.053391 0.386101
-0.121171 -0.123299 0.338986
0.150866 0.166237 0.515911
-0.0493409 0.194105 0.394792
-0.0189287 -0.0150954 0.276594
0.0147744 0.0872708 0.283293
0.0642175 0.173808 0.592314
0.110897 -0.0450724 0.338986
-0.152137 0.191037 0.735565
-0.0155563 0.0244379 0.0177447
0.219859 -0.0714587 0.0290433
-0.0705294 -0.00717617 0.136953
-0.0612613 0.211302 0.370548
-0.17434 0.148084 0.530069
0.160703 0.187393 0.622131
-0.0312309 -0.144278 0.386101
0.00651187 -0.112468 0.1306
-0.0987511 0.0355015 0.287189
-0.152883 0.0968549 0.338986
0.0219224 0.0399461 0.156733
-0.210766 0.0703917 0.363181
0.00102656 -0.0718062 0.152443
-0.0109823 0.0106934 0.048695
-0.00226933 0.184658 0.36874
0.122475 0.0967763 0.386101
0.0143996 0.1669 0.550593
-0.195943 0.0339951 0.351906
0.0420436 0.175387 0.514027
-0.130359 0.185761 0.584988
-0.0429708 -0.0077444 0.253194
-0.00470147 0.034577 0.225139
-0.157498 0.0794794 0.386101
0.0450204 0.135878 0.338986
-0.0381688 -0.0877727 0.386101
-0.167958 -0.00708939 0.384202
-0.191014 0.116884 0.342793
0.0807916 0.200726 0.630216
0.191908 0.0619326 0.355621
-0.153292 0.173577 0.648733
-0.11847 0.205149 0.343163
-0.106033 -0.103355 0.386101
0.00490365 0.00470589 0.257528
-0.0216133 0.0489816 0.386101
-0.184699 0.205317 0.722092
0.00732549 0.265056 0.812495
-0.0355285 0.16277 0.467527
-0.07794 0.223263 0.715859
-0.0133969 0.178633 0.472242
0.0133299 0.185974 0.43787
0.0363836 0.184034 0.624426
-0.0663001 0.174309 0.594638
-0.00428263 0.212344 0.64994
-0.0635058 -0.144524 0.335307
-0.112436 -0.0773157 0.386101
-0.111078 0.18443 0.364358
-0.00890052 0.00487419 0.12632
0.165845 0.249234 0.795852
0.0275507 -0.152796 0.338986
0.211568 0.193233 0.343501
-0.00225453 0.0403385 0.0302152
-0.0158402 0.0128021 0.283677
0.0865834 0.207755 0.740739
0.0166294 0.0399974 0.245888
-0.00738359 0.00455856 0.188217
0.106144 0.241093 0.81131
0.132602 0.239713 0.809221
0.169091 0.230734 0.800157
-0.0628284 -0.158092 0.385505
0.140616 0.150617 0.528138
-0.182903 0.228387 0.790192
-0.0044568 -0.234095 0.0276701
-0.11952 0.0456395 0.266275
-0.13331 -0.0191919 0.106462
-0.034062 0.191814 0.359679
-0.077737 0.0655152 0.338986
-0.164097 0.182008 0.69609
0.0619764 -0.128717 0.386101
0.185291 0.188245 0.714096
0.00378065 0.1736 0.574044
-0.14688 0.22285 0.042586
0.0381435 0.0534986 0.386101
0.0691545 -0.0860337 0.286633
0.252931 -0.0682922 0.0361902
0.146555 0.171171 0.538109
-0.105212 0.150567 0.501747
-0.20985 0.143336 0.352723
-0.0781187 -0.140941 0.386101
0.101087 0.202351 0.374003
0.0205211 0.179709 0.347656
0.0520975 0.193277 0.666314
0.0935343 0.161058 0.466798
-0.173088 0.15074 0.492804
-0.0766554 0.183719 0.637714
0.0141414 -0.0344515 0.338986
-0.172346 0.188327 0.628807
0.101072 0.193456 0.685043
0.136563 0.198132 0.0817792
-0.0290509 0.205526 0.390078
0.00902109 -0.0663871 0.386101
0.0223537 -0.239393 0.0248104
0.183187 0.103687 0.369019
0.148187 0.207633 0.782199
0.137253 0.148762 0.487728
0.00072138 -0.17517 0.346403
-0.029589 0.00586952 0.246777
-0.0546645 0.21435 0.672375
0.0660987 -0.10154 0.313869
0.0436759 0.0959357 0.144848
-0.128503 0.155096 0.544419
-0.130663 0.235505 0.800242
-0.120537 0.159206 0.466275
-0.19185 0.18319 0.370316
-0.0602878 0.220886 0.774384
0.149183 0.225261 0.0118903
0.191895 0.0361503 0.306268
0.0563342 0.1849 0.556918
0.138797 0.0171502 0.261909
0.00841905 -0.00768778 0.153831
-0.0259923 0.212941 0.657974
-0.199905 0.0738686 0.352822
0.177905 0.0798358 0.346956
0.0607913 0.196552 0.60461
-0.0337158 -0.00995716 0.338986
-0.005191 0.112677 0.286337
-0.00899502 0.184924 0.443194
-0.108972 0.172081 0.485725
-0.116099 0.0886532 0.386101
-0.0111531 0.209588 0.375045
-0.0573014 0.231976 0.74365
-0.132387 0.202072 0.658815
0.126162 0.170257 0.601499
0.00877432 0.195128 0.660429
-0.111588 0.2003 0.73749
-0.143161 0.17983 0.675567
-0.0743816 0.0863881 0.386101
-0.159636 0.222477 0.0336224
-0.0144651 -0.0171313 0.338986
-0.147277 0.177516 0.558214
0.130214 -0.117074 0.386101
-0.0271771 -0.0581703 0.338986
0.157393 0.231409 0.0386803
0.0858459 0.182493 0.354275
-0.0383937 0.193554 0.664133
0.0920496 0.167004 0.575179
-0.0848147 0.0381478 0.386101
-0.201497 0.174113 0.416961
0.232308 -0.0424224 0.0751676
0.0568234 0.244207 0.780104
0.0472671 0.173965 0.495963
0.0331113 0.20959 0.725342
-0.257733 -0.0885281 0.0233129
-0.0180697 0.200876 0.608467
-0.176583 -0.0216629 0.346058
0.0445624 0.191421 0.579571
-0.100203 0.188118 0.419282
-0.158357 0.194441 0.366696
0.137823 0.159724 0.386101
0.179173 0.161489 0.600606
-0.0571123 -0.118829 0.309418
0.0649263 0.0478594 0.282232
-0.0509063 0.172378 0.582775
-0.00574999 -0.193319 0.0806299
-0.233743 -0.068041 0.0420091
0.121527 0.0332306 0.288753
-0.0151984 0.158981 0.487831
0.125953 0.217563 0.735495
0.0259574 -0.00158753 0.338986
0.105215 0.20555 0.75052
-0.0849321 0.145718 0.130986
0.122909 0.0704424 0.386101
0.0372777 0.156462 0.495114
0.0962737 0.166906 0.103883
0.03621 -0.174683 0.37745
-0.0742024 0.154785 0.488841
-0.0165244 0.19225 0.652125
0.187418 0.180353 0.408465
-0.171031 -0.0385528 0.110797
0.121789 0.1718 0.341925
0.159235 0.14781 0.485314
-0.138359 0.0459857 0.267426
0.0356585 -0.126632 0.338986
0.112239 -0.005276 0.338986
0.069949 0.216609 0.687126
0.138183 0.204402 0.0394617
-0.154167 0.221868 0.0679794
-0.127593 0.0311786 0.338986
0.15322 0.00183559 0.338986
0.102542 -0.0752029 0.338986
-0.0341853 0.0667565 0.126915
-0.00703306 -0.151545 0.113881
-0.0530789 0.231424 0.795341
-0.19133 0.158741 0.493484
-0.16612 0.0438581 0.340428
-0.0863442 -0.148455 0.330349
-0.0303481 0.165405 0.549349
-0.162951 0.211713 0.734731
0.0212147 0.180954 0.53125
-0.136268 0.00681804 0.386101
0.16327 0.196703 0.667807
0.0659534 0.0758491 0.338986
-0.142549 0.155056 0.472577
0.118675 0.163042 0.453346
0.159255 0.175356 0.655291
-0.00329028 0.0445835 0.0871698
-0.0402862 0.0446076 0.263994
0.169632 -0.00939659 0.383824
-0.0768498 0.204856 0.725185
-0.106412 0.191841 0.697917
0.00289293 0.192299 0.349154
0.203021 0.0245946 0.330169
-0.197201 0.0553987 0.313836
0.192236 0.172131 0.625053
-0.0319424 0.247082 0.782851
0.181211 0.0525084 0.374766
-0.10008 0.175829 0.108553
0.110282 -0.0205757 0.127862
-0.0019733 0.204672 0.619171
-0.150017 0.045041 0.386101
-0.065628 0.157477 0.527115
0.160344 -0.0993371 0.338986
0.0193179 0.0336925 0.0741045
0.0201194 0.0611644 0.135146
0.0749218 -0.00850731 0.144395
-0.146524 -0.0657083 0.338986
0.207111 0.0695989 0.363986
0.0662065 0.198096 0.690393
0.138831 -0.134264 0.386101
-0.138744 0.0273818 0.289208
0.12792 0.169339 0.485783
0.175203 -0.0599098 0.38053
-0.057127 0.173693 0.50654
-0.00355855 -0.00802484 0.386101
0.0164705 0.0433133 0.386101
0.127695 0.179206 0.639315
0.047491 0.171872 0.57955
-0.0717087 0.179138 0.42419
-0.157078 -0.0524481 0.386101
-0.0869689 0.0347535 0.254515
0.132974 0.156994 0.550813
0.109438 0.161703 0.560614
0.113797 0.165866 0.107443
0.0453187 0.0216932 0.386101
-0.191448 0.043195 0.33926
-0.163134 0.219815 0.767671
0.0366406 -0.00582771 0.25034
-0.0389468 0.185704 0.439723
0.139699 -0.0692153 0.386101
-0.146669 0.0505385 0.287284
-0.122128 0.214642 0.71084
-0.251509 -0.0438322 0.0212537
-0.0661513 0.0475568 0.279949
0.018197 0.0174672 0.386101
0.204282 0.0604632 0.325962
-0.00118467 0.0653319 0.282879
-0.0166981 0.23803 0.754981
0.184675 0.22295 0.786341
-0.114886 0.0871583 0.338986
0.261984 -0.0762608 0.00233583
0.1605 0.0231104 0.386101
-0.010913 0.162529 0.330535
0.118648 0.189763 0.614189
0.0727965 0.199364 0.404091
-0.00731724 0.043687 0.190411
0.0324675 -0.0590676 0.338986
-0.192655 0.163587 0.339427
0.166207 0.19131 0.746073
0.015511 0.0363903 0.283665
0.0387797 0.0164024 0.133833
0.167265 0.207241 0.0398706
-0.0483713 0.254405 0.800796
0.12989 -0.171623 0.355418
0.166561 -0.0305202 0.384633
0.171162 -0.117789 0.382298
0.0613924 0.204581 0.339425
0.00761646 0.171678 0.446493
-0.00691488 0.1875 0.552955
-0.173541 -0.0858612 0.342878
0.0745399 -0.0100343 0.338986
0.0380564 0.212318 0.660875
-0.124267 0.210703 0.0833203
-0.0155601 0.209693 0.353937
0.176073 0.0973528 0.345086
0.0449072 0.225918 0.716576
0.0917312 0.250342 0.797011
0.0247102 -0.0264529 0.291042
0.0659137 0.0396466 0.338986
-0.17662 0.147043 0.510902
-0.250075 -0.0538113 0.0539102
0.187356 0.18577 0.640206
0.145091 0.182177 0.674573
-0.0394214 0.178622 0.346782
-0.00534932 0.0464401 0.167277
-0.168029 0.159902 0.586653
-0.00966597 0.258575 0.802248
0.0224688 0.0175038 0.117874
0.0130016 -0.166996 0.383838
0.129862 0.249464 0.792872
0.147698 0.17596 0.345534
-0.0422153 -0.0255829 0.290394
0.0143087 0.0310062 0.338986
0.0618492 0.120233 0.386101
-0.0731421 -0.0923252 0.311129
0.155231 0.229311 0.0776583
-0.0305741 0.156739 0.506741
0.133759 0.203612 0.771435
-0.0124187 -0.0738224 0.338986
0.175751 0.144537 0.513046
0.0289278 0.166399 0.458781
0.197848 0.159004 0.44937
-0.183027 -0.089213 0.368217
0.075452 0.162582 0.551073
-0.0675567 0.147157 0.386101
-0.0365401 0.194768 0.416096
-0.195943 0.212411 0.377226
0.119444 0.00855227 0.386101
-0.209268 0.196376 0.341072
-0.0247154 0.069726 0.156855
0.0163659 -0.234117 0.0403857
0.0565185 -0.000602639 0.155984
0.20443 0.121404 0.363014
-0.0680231 0.000714839 0.338986
-0.0431027 0.177999 0.472497
0.0884514 0.0243945 0.253768
0.164976 0.169786 0.632879
-0.0865811 0.0884249 0.338986
-0.181685 0.167506 0.483081
0.00215279 0.159473 0.491627
-0.0585355 0.0217432 0.284412
-0.0613708 0.185112 0.436862
0.182783 0.0317235 0.355162
0.120411 -0.13771 0.338986
-0.183529 0.0313093 0.365542
0.0892237 0.13405 0.115792
0.0103071 0.234298 0.799366
0.0901596 0.224563 0.735235
-0.0978857 0.149189 0.338986
0.187276 0.181171 0.679363
-0.0976889 0.148439 0.108068
0.00835164 -0.0948939 0.129465
-0.0638535 0.113461 0.338986
0.0795251 -0.145482 0.338986
-0.150336 -0.136637 0.386101
-0.0603939 0.100052 0.147484
0.103704 0.117987 0.338986
0.169033 0.234091 0.00920455
-0.0640407 0.165834 0.560123
-0.0676653 0.0494445 0.338986
-0.0764332 0.18028 0.454207
0.0277857 0.190859 0.648941
0.136443 -0.0689386 0.338986
0.200887 0.175791 0.435284
0.0269348 0.221732 0.694213
0.031212 0.243972 0.796791
0.0816423 0.166594 0.454076
0.0563968 -0.00193879 0.136402
-0.0595828 -0.129487 0.338986
0.10813 0.185192 0.654556
0.0830932 -0.12851 0.314648
-0.0772486 0.0139957 0.285126
-0.0017239 0.0415949 0.0521999
0.133243 0.199429 0.667079
0.138028 0.0457657 0.267972
-0.205572 0.194906 0.382672
-0.177968 0.151794 0.549472
-0.187562 0.18257 0.657729
0.0403348 -0.026776 0.258414
-0.135489 0.157828 0.338986
0.206515 0.188752 0.378946
-0.0816058 0.00541136 0.133604
-0.0584327 0.20191 0.623857
-0.018465 0.0146047 0.0967426
-0.12647 -0.0341424 0.338986
-0.141027 0.233987 0.061635
0.0293948 0.205509 0.631261
-0.00704745 0.0432471 0.105816
0.145552 0.215564 0.743137
0.106115 -0.10085 0.386101
0.026717 0.220005 0.764959
-0.128357 -0.108905 0.386101
0.265317 -0.0729975 0.0306638
-0.0960536 -0.128137 0.338986
-0.124603 0.234013 0.781909
0.0403188 -0.12485 0.386101
0.0423526 0.0693531 0.137324
-0.0114113 -0.128841 0.338986
0.0346104 0.142632 0.386101
-0.0507817 -0.178221 0.355684
-0.203954 0.215496 0.346065
0.211933 0.0391277 0.347132
0.242769 -0.0830763 0.0374934
0.0198701 0.209736 0.644742
-0.0962968 0.225361 0.739196
0.00528959 0.134789 0.386101
0.0445847 0.161253 0.471169
0.0636314 0.257308 0.803832
-0.000124948 -0.224081 0.0333066
0.0351612 -0.0551163 0.282711
0.207564 -0.0366395 0.0835018
-0.100175 0.171116 0.606734
-0.206171 0.18105 0.335499
-0.192273 0.0262991 0.270781
0.118863 0.0365575 0.259106
0.00947602 -0.138533 0.386101
-0.169995 -0.0221828 0.108551
-0.166605 0.173847 0.636777
0.102553 0.00696113 0.278685
0.0148741 -0.00552926 0.275651
0.176547 0.162825 0.522875
0.183093 0.138764 0.369651
0.00571494 0.178505 0.517103
-0.00726038 0.0336311 0.24136
-0.0868817 0.130648 0.122054
-0.0156116 0.170254 0.449918
0.0163619 0.204421 0.393129
0.0507293 -0.178643 0.35653
0.212719 0.052449 0.356711
-0.0399348 0.263263 0.814771
0.0580873 0.113905 0.122183
-0.0601392 0.120513 0.127491
-0.0621575 -0.0988538 0.386101
0.158431 0.127244 0.386101
0.155337 -0.0181792 0.11475
-0.160238 0.145753 0.501565
-0.186181 0.197797 0.68601
0.100528 0.180298 0.375325
0.146833 0.0220218 0.338986
-0.121147 -0.0229909 0.386101
0.102575 0.171716 0.598213
0.191875 0.169228 0.343632
0.0956367 0.17232 0.434877
0.00788661 -0.0345248 0.13996
0.0439451 -0.109873 0.338986
0.0755034 0.173656 0.517538
0.193575 0.0480747 0.363985
0.0849911 0.216164 0.774971
-0.0561681 0.0133416 0.152913
-0.065232 0.101691 0.129125
-0.00918233 -0.225964 0.0679025
0.117604 0.0654939 0.338986
-2.24471e-05 0.182156 0.456449
0.117943 0.0140498 0.338986
0.204607 0.0177367 0.286466
-0.182385 0.190731 0.711309
-0.0124944 0.180319 0.377017
-0.176534 0.162799 0.603183
-0.0061113 -0.244769 0.0088648
-0.100571 0.194968 0.610856
0.0361558 0.0724291 0.163951
-0.125741 -0.0247664 0.121539
-0.153646 -0.0171191 0.114671
-0.039108 0.0183721 0.138193
-0.209369 0.198847 0.358037
0.133282 0.182234 0.584908
0.00950452 0.056904 0.248736
0.107261 0.172884 0.0927987
0.0648471 0.204811 0.63867
-0.199842 0.131688 0.364068
-0.0727283 -0.177496 0.357317
-0.0187316 0.220497 0.764355
0.00254636 0.0748772 0.296668
-0.0502499 -0.0438207 0.386101
0.161455 0.036149 0.291021
-0.124449 0.176248 0.453832
0.00460155 0.0977572 0.338986
0.0419094 0.0117518 0.246041
-0.0690046 0.215053 0.679729
-0.192469 0.166502 0.470178
0.210459 0.198477 0.359099
-0.103398 0.258101 0.801399
0.145112 -0.0290587 0.338986
-0.212326 0.0514506 0.342972
0.0205985 -0.00593706 0.25174
0.0623419 0.159503 0.386101
-0.0934416 0.0184692 0.254587
0.143649 -0.149337 0.340244
-0.190423 0.15352 0.357647
-0.0900733 0.198601 0.391053
-0.233174 -0.0478094 0.0315646
0.0597582 -0.117417 0.338986
0.0676357 0.155154 0.338986
-0.0813431 -0.0640685 0.338986
-0.182448 -0.0393335 0.370139
0.168986 0.180026 0.61192
0.196361 0.165314 0.556882
0.0314518 0.196771 0.597175
-0.0533689 -0.105679 0.298641
0.00911662 0.174442 0.382922
-0.0937565 0.219721 0.783683
0.0185818 0.190619 0.569019
0.163825 0.0164722 0.27051
-0.139696 0.0207251 0.338986
0.0628327 0.174103 0.484224
0.149279 0.22534 0.0476349
-0.00812893 -0.0741273 0.137177
-0.255045 -0.0682808 0.000390618
-0.145288 0.208071 0.0412099
0.0333277 0.100774 0.386101
0.0212438 0.0661852 0.151653
-0.17205 0.213579 0.0254066
0.136887 0.189203 0.619871
0.109937 0.179952 0.563298
0.199309 0.154251 0.5104
0.234155 -0.0610048 0.0655877
0.0654235 0.179985 0.617494
0.173821 0.178729 0.685408
0.10965 -0.00395183 0.386101
-0.109995 -0.047221 0.386101
-0.00468053 0.0442872 0.121475
0.00355577 0.10178 0.312183
-0.0463927 0.160543 0.534212
-0.0245714 0.020506 0.168547
0.0138793 0.00623285 0.159132
-0.242732 -0.0443364 0.0704544
0.0905465 -0.161957 0.38418
0.064151 0.192946 0.415741
0.0548642 -0.0827234 0.386101
-0.129443 0.184041 0.686339
0.12972 0.166072 0.586052
-0.122813 0.245275 0.81145
0.166065 0.181568 0.368244
-0.0811659 0.0460221 0.270489
-0.156603 0.153169 0.386101
0.0364544 0.0212969 0.150281
0.170055 0.194206 0.357173
0.202698 0.168335 0.365469
0.0292896 0.0251558 0.283751
0.0908671 0.203987 0.726052
0.0354416 0.183398 0.354003
-0.125916 0.163186 0.385619
-0.0148677 0.0227336 0.338986
-0.181571 0.203683 0.76515
0.104255 0.22799 0.802802
0.177072 -0.125902 0.352279
0.0811818 0.232137 0.758956
0.0440425 0.201189 0.375352
0.0208211 0.00942665 0.143712
0.0936899 0.244351 0.782644
-0.0126713 0.0207454 0.386101
0.12834 0.193055 0.362461
0.0633118 0.0122521 0.386101
-0.264919 -0.0538072 0.0232614
-0.0244639 0.164231 0.385619
-0.191027 0.0854993 0.343551
0.228175 -0.0566393 0.0409111
-0.11413 0.169093 0.107637
-0.139457 0.164402 0.596248
-0.0345476 0.038847 0.24654
0.0579684 0.170843 0.341442
-0.0272006 -0.131169 0.338986
-0.130795 0.208789 0.358797
0.184933 0.198516 0.758495
-0.16823 0.185356 0.61043
-0.003268 -0.0919229 0.386101
0.0665889 0.205184 0.368322
-0.0579527 0.19829 0.343498
0.0866084 0.0162522 0.338986
-0.102666 0.179277 0.64267
-0.202821 0.0934701 0.350032
0.00889311 -0.102499 0.386101
-0.0335481 -0.0475592 0.338986
-0.143701 0.168049 0.616534
-0.0336869 0.0513892 0.27715
0.0399973 0.185409 0.440261
0.190773 0.0503874 0.291761
0.0869943 -0.0249367 0.386101
-0.179798 0.169084 0.538456
0.155632 0.17297 0.550867
0.0694257 0.220219 0.776221
-0.167253 -0.0336594 0.384406
-0.00446086 0.236478 0.744901
-0.104415 -0.143952 0.386101
0.00821793 0.16376 0.536455
0.074069 0.192672 0.35526
0.103931 0.0343221 0.338986
-0.10339 -0.174755 0.354609
0.182023 0.198987 0.698906
-0.133763 0.175552 0.468389
-0.0207184 -0.112482 0.386101
-0.0868416 0.169225 0.586975
-0.0524964 -0.0196401 0.386101
0.00709622 -0.228472 0.0549859
0.107529 0.0911272 0.338986
0.0876176 0.177003 0.470534
-0.114988 0.182877 0.668579
0.232626 -0.0534201 0.085892
-0.0316226 0.197539 0.677758
0.170284 0.206519 0.72879
-0.0936944 -0.172664 0.376294
-0.173126 0.138684 0.382138
-0.0114107 0.200439 0.682854
0.133848 0.192957 0.636418
-0.168832 0.172182 0.572991
0.18286 -0.00797594 0.369331
0.0613916 0.0839617 0.386101
-0.176174 -0.0395699 0.345611
-0.207844 -0.0376338 0.0806597
-0.187347 0.161004 0.445357
0.0773218 -0.0912443 0.338986
0.0906185 0.177537 0.542905
0.183839 0.148753 0.528789
-0.0183733 0.182731 0.537208
-0.086489 0.177115 0.534099
-0.160827 0.236917 0.0134983
0.0800379 0.204489 0.644994
0.0607118 -0.0390758 0.280003
0.0815414 0.184383 0.640981
-0.0721733 0.180947 0.375494
0.177324 0.173377 0.458442
0.0839453 0.00421598 0.132128
0.127679 0.14959 0.517732
-0.18465 0.172094 0.424864
-0.0760481 0.115857 0.126717
-0.00372112 0.147052 0.386101
0.00410241 -0.119636 0.338986
0.189356 -0.0444826 0.105664
-0.0886022 0.160677 0.113485
0.0722104 0.11406 0.141034
-0.0304632 0.139304 0.338986
0.160773 0.169544 0.341341
-0.00767269 0.015057 0.232193
-0.0378165 0.20073 0.402058
0.0649806 -0.141247 0.338986
0.0230732 0.0268941 0.1643
0.0172561 0.231489 0.729374
-0.111439 0.163647 0.455062
-0.113463 0.16752 0.600066
-0.173115 -0.03754 0.0958881
0.107424 -0.095027 0.338986
0.0252118 -0.0314354 0.386101
0.0594907 0.210906 0.739507
-0.0565867 0.0944012 0.338986
-0.161871 0.198169 0.69848
0.0702533 0.0575156 0.386101
0.00744485 -0.124778 0.121978
0.072189 0.10929 0.386101
0.132258 0.085335 0.386101
-0.069383 0.0199671 0.250868
0.203237 0.0855324 0.342851
-0.0199955 0.160181 0.525667
-0.156863 0.208537 0.027569
-0.0419361 0.0393584 0.386101
0.121455 0.178744 0.106313
-0.121612 -0.0714859 0.338986
-0.0306191 0.17682 0.595092
0.11566 0.19434 0.100861
0.0334388 0.243266 0.813612
0.0264889 0.180978 0.424261
-0.0056095 0.0805199 0.272003
-0.171955 0.181572 0.595367
-0.119643 0.189681 0.596728
0.138486 -0.0927306 0.386101
-0.0347169 0.180181 0.426452
-0.0867267 -0.10929 0.386101
-0.112974 0.00962933 0.274042
0.0428686 -0.0197898 0.288343
0.115583 0.0490813 0.285391
-0.0717406 0.181192 0.623639
0.0993188 0.256075 0.816068
-0.0327551 0.0154482 0.283815
-0.0976616 0.187261 0.671161
-0.16191 -0.076539 0.385861
-0.130859 0.208305 0.775656
-0.142641 0.232217 0.0365186
0.183999 0.157808 0.459586
-0.153603 0.069661 0.338986
-0.00740721 -0.2115 0.0872433
-0.201791 0.0690318 0.331105
-0.00086917 -0.0518205 0.386101
0.119366 0.173116 0.534945
0.134678 0.0401228 0.289564
0.0598299 0.234349 0.754622
0.0623997 0.187796 0.570175
0.106267 0.227853 0.761345
-0.017836 0.0132826 0.081544
0.00931792 -0.21796 0.0767357
-0.0224427 0.0577103 0.12783
-0.071412 0.208429 0.360099
-0.0177375 -0.00266945 0.338986
0.145677 -0.0316908 0.118745
0.124069 0.213443 0.717132
-0.175382 -0.101489 0.345649
-0.0239063 0.123182 0.338986
0.184129 0.208057 0.777889
-0.0787733 0.19406 0.682321
0.0675563 0.180919 0.544229
-0.0530628 -0.0188798 0.266881
0.0591678 0.106732 0.338986
0.19533 0.215915 0.348948
0.00268769 0.17885 0.472171
0.0577909 -0.0987223 0.338986
0.00512388 0.0243324 0.386101
-0.0101962 0.137071 0.306999
-0.0103253 0.174399 0.579693
-0.125724 0.17795 0.551971
0.166448 -0.104007 0.384516
0.154476 0.2089 0.722079
-0.0541983 0.0871134 0.131439
-0.110669 0.0367967 0.386101
-0.0939393 0.178991 0.450408
-0.180731 0.170288 0.638746
-0.215503 0.0296742 0.279686
0.134552 0.208448 0.357147
-0.18196 0.108692 0.370765
-0.0603954 -0.0372643 0.281156
0.0642284 -0.104276 0.292923
0.191803 0.158112 0.570336
-0.16866 0.165351 0.5172
0.233237 -0.0773537 0.0277297
-0.210324 0.171181 0.345535
-0.0780317 0.153162 0.502909
0.0105992 0.0185778 0.269343
-0.140997 0.219345 0.0885346
0.124047 0.16143 0.565188
0.0209165 0.0241137 0.245607
-0.0575311 0.206703 0.721883
-0.0858227 -0.0471234 0.338986
-0.0981425 0.238297 0.781115
-0.161346 0.176833 0.562182
-0.045883 0.00171908 0.155221
-0.0714275 0.177307 0.60801
-0.0711231 0.175599 0.522999
0.146107 -0.09598 0.338986
0.0998757 0.194258 0.408599
-0.0302691 0.246255 0.816225
-0.107213 0.173115 0.0920306
-0.0231869 0.0977843 0.338986
0.126623 0.182184 0.65356
0.00831089 -0.0803585 0.134245
-0.202736 -0.0379476 0.101855
0.123537 -0.0248484 0.123517
0.169942 0.165739 0.548619
-0.00663311 -0.120016 0.112989
0.0966685 -0.111939 0.386101
-0.0410967 0.093586 0.145643
0.139314 0.165314 0.340194
-0.120655 0.163298 0.582104
0.0513072 -0.159398 0.385374
-0.176642 0.194267 0.754056
-0.0793376 -0.174664 0.375055
-0.106083 0.209727 0.353419
0.0296222 -0.0750093 0.386101
0.0107025 -0.119255 0.386101
0.0937879 -0.05552 0.386101
0.149211 0.0151758 0.289829
-0.0698626 0.25801 0.801868
-0.0393131 0.219695 0.767332
0.0758549 0.0433321 0.386101
0.164965 0.190282 0.637893
-0.0533015 0.240949 0.772489
-0.063673 0.00384452 0.272501
0.191711 0.161505 0.521248
-0.00773288 0.0330655 0.263986
-0.190784 0.172248 0.60278
0.05038 0.0109968 0.162002
0.148852 0.193808 0.357069
0.197949 0.149864 0.490159
0.0826314 0.128209 0.134683
-0.0415554 -0.134212 0.386101
0.193312 0.179208 0.366446
0.0312041 -0.0279584 0.338986
-0.073662 -0.155392 0.339014
-0.0334758 -0.054888 0.286201
-0.212588 0.0245931 0.293094
-0.185463 0.20117 0.702067
0.0587005 -0.0661152 0.302665
-0.0442708 0.204413 0.629372
0.0312134 0.246957 0.781291
-0.18129 0.123255 0.351946
-0.0990339 0.177824 0.541587
0.148579 -0.144737 0.385572
-0.0274815 0.124512 0.386101
0.0551429 0.175668 0.519793
-0.00627984 0.0105868 0.0158891
-0.166452 0.16461 0.49378
0.108714 0.076697 0.338986
0.147194 0.232434 0.794544
-0.0243966 -0.036151 0.338986
0.181278 0.0054699 0.374598
0.0764524 -0.123019 0.326135
-0.0894991 -0.00665271 0.152068
-0.0350041 0.169645 0.451218
0.0641895 0.00758724 0.127583
-0.213276 -0.0543687 0.0832846
-0.16544 0.0376168 0.266551
-0.0631572 0.11739 0.143906
-0.0174681 -0.0754712 0.386101
-0.0173114 0.0225075 0.0535288
-0.132976 0.194713 0.0940972
0.219869 -0.0662319 0.015811
0.0231371 0.158282 0.488805
-0.118104 0.048855 0.282055
-0.103029 -0.00147233 0.137421
-0.174909 0.0222291 0.380611
-0.00737855 -0.112362 0.127672
0.205708 0.195473 0.392054
0.0351666 0.178476 0.470266
0.0749894 0.138862 0.119197
-0.0861405 0.229162 0.748319
-0.106777 0.0259585 0.257173
-0.0810791 -0.118497 0.308466
-0.181846 0.16478 0.357624
0.0211703 0.204187 0.699683
-0.0132588 0.0412917 0.0735272
-0.113573 0.22457 0.751505
0.124929 -0.0215352 0.386101
0.167479 0.141164 0.340605
