0.0264898 0.205147 0.628885
-0.163696 0.246618 0.791351
0.229384 -0.0885982 0.0311398
-0.096803 0.168581 0.59324
0.0476923 0.0132624 0.131554
-0.170136 0.149162 0.533575
0.210385 0.10687 0.356872
0.180542 0.18132 0.681235
0.174671 -0.0906967 0.380912
0.0659542 0.162537 0.46699
0.109175 0.194138 0.626182
0.100354 -0.0299176 0.338986
0.0520067 0.199429 0.38163
-0.169247 0.161473 0.576743
0.0828265 0.0327451 0.286484
-0.246557 -0.0485886 0.0759879
0.0759904 0.259609 0.812838
0.00647649 0.149559 0.313031
-0.10067 0.218515 0.709721
0.0532703 0.0280785 0.338986
-0.0815318 0.146364 0.10961
0.245477 -0.0910427 0.0212884
-0.111812 0.213635 0.696234
0.121854 0.168992 0.594742
-0.00902633 0.241959 0.765522
-0.0278727 0.171464 0.341424
-0.113317 0.191451 0.702492
-0.0592612 0.175872 0.598998
-0.196084 0.197104 0.3369
-0.0641719 -0.0934147 0.338986
-0.165736 -0.0674785 0.384832
-0.0100708 0.0403612 0.0565381
0.232113 -0.0795733 0.0388031
-0.143509 0.214305 0.0700771
0.109403 0.140381 0.386101
0.000196775 0.20818 0.360571
0.250487 -0.0558068 0.0618353
0.0796497 0.20715 0.364228
-0.146283 -0.0625652 0.338986
-0.007158 -0.223066 0.0317307
0.0448965 -0.0299944 0.291502
0.00507492 0.152594 0.31416
0.147101 -0.0124693 0.386101
0.0708309 0.240336 0.773846
-0.0551479 0.0360096 0.386101
-0.0941279 0.169711 0.595511
0.0348344 0.159233 0.338986
0.0222029 0.229903 0.724766
-0.179847 -0.105365 0.351068
-0.0146554 0.0615355 0.24603
0.015777 0.208377 0.638055
-0.113682 0.237298 0.807342
0.0806055 -0.10412 0.309536
0.177455 0.187766 0.638561
0.0265881 -0.130845 0.386101
-0.0825493 0.0805459 0.386101
-0.0116391 0.0257107 0.244917
-0.122454 -0.0412459 0.338986
0.154374 0.235065 0.0750828
0.20648 0.0934218 0.357223
-0.150759 -0.0384375 0.338986
-0.163749 -0.0764645 0.33972
0.00774664 -0.220347 0.0697326
-0.142962 0.225252 0.0582712
0.110835 0.190308 0.611865
-0.0755888 0.183543 0.636028
0.0241446 0.184934 0.358933
0.199622 0.0634489 0.36403
0.17575 0.241278 0.792186
0.110841 0.155973 0.47611
0.00685272 0.0521156 0.283595
-0.123909 0.182897 0.092616
-0.0479959 0.00011339 0.141544
0.215847 0.0377868 0.284857
-0.121052 0.0465168 0.271488
0.110321 0.179357 0.432507
0.214352 0.0281143 0.297938
0.0683751 0.192104 0.359776
0.155749 -0.0437446 0.386101
0.141315 0.169277 0.603443
0.0595479 -0.0781409 0.30647
-0.0274601 0.184304 0.624184
0.179799 -0.099946 0.350307
-0.0106859 -0.228755 0.00956826
-0.0105991 -0.0442565 0.338986
-0.0740212 0.254936 0.799133
-0.154194 0.169757 0.62992
-0.249268 -0.0594453 0.0298155
-0.00875235 0.0166406 0.227909
0.143575 0.238861 0.0289007
0.20218 0.0828383 0.35765
0.0216643 0.0441933 0.338986
-0.00113031 0.115522 0.286083
-0.0151219 0.183586 0.353062
-0.0580605 -0.166245 0.383392
0.200981 0.180795 0.427843
-0.0971088 0.00458993 0.338986
0.0392402 0.0427231 0.253632
-0.113065 0.20338 0.751537
-0.0268301 -0.14018 0.338986
0.0678126 -0.0946394 0.311683
-0.171121 0.197236 0.680377
0.174572 0.207229 0.781125
-0.0872361 0.191182 0.415898
0.0400743 -0.0136404 0.253874
-0.079073 0.196619 0.408067
-0.019859 0.264069 0.812588
0.183078 0.163891 0.358361
-0.135734 -0.0447954 0.386101
0.0742422 0.174001 0.483986
0.159828 0.193787 0.724348
0.150286 0.0506699 0.338986
0.175312 -0.0818286 0.344719
-0.0842039 0.152758 0.338986
-0.0447099 0.232725 0.796508
-0.214031 0.0290436 0.296483
-0.252953 -0.0884098 0.0280586
0.178059 -0.0249332 0.37775
0.103429 0.11193 0.386101
0.11853 0.107867 0.338986
0.0153581 0.17985 0.60198
0.183954 0.205993 0.763411
0.103304 0.206412 0.752819
-0.181778 0.166761 0.609989
0.184903 0.187283 0.64304
-0.0342141 -0.0254236 0.386101
0.185641 0.195267 0.353134
-0.0452626 0.179425 0.428279
0.14299 0.215672 0.792687
-0.0444951 0.224637 0.710265
-0.031962 -0.0443461 0.273503
0.0157509 0.249432 0.784498
-0.178057 -0.123712 0.37274
0.000489309 0.0688314 0.263956
-0.195439 0.159236 0.363564
0.0941415 0.170519 0.590126
0.0659202 0.048142 0.386101
-0.130304 -0.165543 0.378606
-0.158897 0.211431 0.788724
0.0968891 0.129789 0.386101
-0.0724391 0.0284481 0.338986
0.0981174 0.163238 0.56239
0.0715803 0.163209 0.552282
-0.175704 0.199887 0.773679
0.0396944 0.207087 0.364183
0.0257048 0.204911 0.368957
0.0828211 0.231208 0.802619
-0.0607809 0.0789374 0.338986
-0.0527146 -0.111721 0.310291
-0.172717 0.194743 0.743856
0.169002 0.151743 0.473575
-0.121147 0.0345953 0.338986
-0.251909 -0.0529415 0.0387278
-0.168297 0.189056 0.646323
-0.0855136 -0.132491 0.338986
0.109593 -0.0165093 0.14142
-0.13698 0.239739 0.806267
0.0122405 -0.255328 0.0388321
0.0491423 -0.101101 0.338986
-0.230235 -0.0537092 0.0394145
-0.110731 0.183182 0.369019
-0.0519665 0.139547 0.338986
-0.0896533 -0.0466297 0.386101
-0.20278 0.0562622 0.30983
-0.171828 0.161767 0.383048
-0.0387893 -0.0415844 0.386101
0.15321 0.164429 0.591647
0.180938 -0.075657 0.374763
0.0693169 0.208467 0.357841
0.142736 0.207196 0.706654
-0.182795 0.0180919 0.276538
0.0603353 -0.120892 0.386101
-0.157467 0.169502 0.483344
0.165474 0.201304 0.0365586
-0.111073 0.199923 0.735474
0.176662 -0.0608661 0.346022
-0.188614 0.182356 0.628956
-0.0326809 -0.0299146 0.338986
0.0802394 0.226427 0.792983
0.0386849 0.20518 0.632731
0.092041 -0.176644 0.368547
0.109564 0.0593722 0.386101
-0.154057 0.212116 0.728373
-0.1807 0.170981 0.630121
-0.0984507 0.189248 0.680074
0.163299 0.172907 0.647177
-0.0270154 0.231779 0.792215
-0.0756292 -0.147915 0.386101
-0.0543614 0.174846 0.515642
0.0170086 0.177014 0.481852
-0.0173483 0.237002 0.751079
-0.0843541 0.142325 0.338986
0.221005 -0.0575652 0.032424
0.0261756 0.073479 0.147993
0.13003 -0.0271764 0.123066
-0.0026751 0.00334112 0.111644
0.0651516 0.00476892 0.268275
0.0280669 -0.0674028 0.338986
-0.171622 0.149617 0.506835
-0.0584894 0.192362 0.40056
0.122233 0.0876696 0.386101
0.0625333 0.0647375 0.386101
-0.000292275 0.187432 0.550952
-0.0895955 0.183896 0.429036
-0.107178 0.0976471 0.338986
0.180386 0.0466949 0.349508
0.0918709 0.212324 0.686575
0.10805 0.00511876 0.338986
0.172247 0.1851 0.703014
0.184863 0.124721 0.362161
0.156164 0.204666 0.702616
-0.176115 0.229098 0.797874
0.00166584 0.103284 0.338986
-0.153411 0.146215 0.503511
0.128134 0.0346247 0.338986
-0.0742612 0.207524 0.345165
-0.155806 0.248212 0.792542
0.0249766 0.000860751 0.338986
0.110318 -0.126784 0.338986
0.00718322 -0.0420679 0.15023
0.0140746 0.187592 0.408807
-0.177127 0.193373 0.660865
0.0149175 0.0559389 0.160128
-0.162541 0.169297 0.530929
-0.08426 0.212064 0.673321
0.190753 0.162469 0.524328
0.0407905 0.166093 0.385012
0.182872 0.025114 0.36956
0.0711724 -0.0591203 0.338986
0.170447 0.165616 0.522504
0.110131 0.206053 0.344924
-0.0680234 0.192618 0.363169
-0.00210684 0.163933 0.53578
-0.0161452 0.157289 0.501956
0.0253086 -0.0446433 0.386101
0.058698 -0.0488974 0.338986
-0.0674758 0.0253746 0.250908
0.24035 -0.0490542 0.0319681
-0.104812 -0.0689261 0.338986
0.0936677 0.189467 0.666132
0.113909 0.183833 0.423921
0.0484134 0.200847 0.40142
0.00396447 -0.115773 0.110843
0.257022 -0.0498348 0.0326807
0.0752385 0.168988 0.576692
0.164269 0.1968 0.0258331
-0.110513 0.206761 0.366323
0.179304 0.0131153 0.348499
0.191481 0.176528 0.588762
0.147523 -0.0209453 0.105343
0.046535 -0.173884 0.347339
-0.0096018 0.184353 0.445957
-0.0587192 0.217979 0.688163
-0.022838 0.0513538 0.283606
-0.101786 0.0784016 0.386101
-0.0208171 0.0152818 0.176056
0.19132 0.130281 0.349918
0.0707405 0.0802612 0.338986
-0.18076 -0.00552317 0.350271
0.140755 0.00972577 0.285688
-0.130977 0.0497637 0.338986
0.00332033 -0.0747939 0.338986
0.0456522 0.201314 0.619301
-0.157229 0.221258 0.796013
0.00667321 -0.0954222 0.338986
-0.0474785 -0.17714 0.350985
-0.0804083 -0.0947635 0.338986
0.00524612 0.248671 0.814135
-0.078137 0.123721 0.386101
0.0480634 0.204499 0.367588
-0.00170216 -0.16815 0.113144
-0.0945914 -0.0139976 0.126705
-0.0182665 0.206128 0.339599
0.00267649 -0.00879761 0.130925
0.104416 -0.0867697 0.338986
-0.0852787 0.0519078 0.338986
0.0744298 0.185241 0.430521
0.102469 0.103071 0.338986
-0.0412426 -0.0781437 0.295045
0.171832 0.223427 0.0049304
0.179436 0.0715827 0.348504
0.0102666 0.176346 0.50123
0.0430128 0.0771819 0.338986
-0.129604 0.156225 0.550601
0.0905742 0.0458456 0.338986
-0.0139822 0.21693 0.670509
-0.00886541 -0.250865 0.0113718
-0.0401166 0.209975 0.650284
0.0882738 0.169379 0.583265
0.0319477 -0.0515178 0.297523
-0.0677086 0.0122483 0.250116
0.17788 0.154645 0.557599
0.01239 0.0716247 0.386101
-0.0554514 0.00579809 0.338986
-0.0726684 0.25285 0.799311
-0.0685477 0.174069 0.487032
-0.190841 0.0789887 0.346228
0.116894 0.0123937 0.386101
0.0556021 0.182794 0.371873
0.123518 -0.165895 0.345051
0.138163 0.167855 0.596501
0.0513389 0.214056 0.749393
0.00277119 -0.0208555 0.338986
-0.0233411 0.163124 0.538338
-0.10935 0.199479 0.732096
-0.000994453 0.0750397 0.338986
-0.188042 0.195752 0.69465
0.150893 0.179671 0.668168
0.183242 -0.0369029 0.113199
-0.0182062 0.196107 0.412858
0.121678 0.168516 0.437992
0.0552364 0.23898 0.807112
0.0753334 0.18044 0.544526
0.0816717 0.183916 0.639154
0.0816346 0.0702455 0.386101
0.182589 0.197973 0.748245
-0.142355 0.165083 0.600998
0.0917324 0.20846 0.357516
-0.118015 0.237179 0.803424
-0.158624 -0.0955273 0.386101
0.102517 0.196767 0.701831
-0.0104045 0.00530948 0.111864
0.180279 0.211314 0.744623
-0.0306331 0.00942545 0.338986
0.0754358 -0.0726469 0.338986
-0.0767935 -0.00824842 0.146355
0.026767 0.209846 0.724232
-0.18576 0.19456 0.692873
-0.00502781 0.104075 0.312471
-0.187598 0.187908 0.66797
0.0767476 0.19551 0.68386
-0.0516963 -0.0697285 0.304294
-0.208684 0.0489178 0.285446
-0.194731 0.0385863 0.361477
0.135703 0.240883 0.810079
-0.0752355 -0.0636607 0.386101
-0.17089 0.20515 0.717794
0.0637482 0.169425 0.574574
-0.174705 -0.0368613 0.380945
-0.0239942 -0.15385 0.386101
-0.0921928 0.19816 0.403862
-0.0353104 0.208793 0.723353
-0.198409 0.0569957 0.317911
-0.0584145 -0.02904 0.279226
0.0186823 0.0479044 0.124999
-0.00565778 -0.147809 0.101204
0.0324988 0.0808456 0.148971
-0.119153 0.176683 0.454069
-0.0622622 -0.169918 0.34439
-0.119082 0.0978526 0.386101
-0.0160656 0.0373024 0.0807671
0.0414468 0.197491 0.602877
-0.0432736 0.241857 0.79758
-0.0674646 0.106221 0.123822
-0.19008 0.195699 0.41438
0.163324 0.180997 0.373129
0.0668283 0.0537974 0.386101
-0.00654959 -0.0441353 0.152382
0.239823 -0.0699534 0.0417844
0.0415153 0.222905 0.77604
0.0605134 -0.127228 0.338986
-0.131031 -0.0195033 0.338986
-0.0132587 0.185455 0.546576
-0.0117752 0.0349786 0.0234914
0.178807 0.17242 0.565593
-0.136175 0.235521 0.0333518
0.184719 -0.0375774 0.112328
0.0131723 0.198553 0.675188
0.247803 -0.0910048 0.0212771
0.0724265 0.186773 0.647075
-0.259722 -0.0591003 0.0391993
0.00965929 0.186546 0.338355
0.0604224 0.189303 0.653178
0.189791 0.153766 0.555485
-0.0288218 0.0117754 0.386101
0.121013 0.175492 0.547056
-0.149205 0.182054 0.351565
0.0594789 0.198328 0.386085
-0.212951 0.0447787 0.315607
-0.19439 0.151254 0.529157
0.157282 -0.0237686 0.338986
-0.159843 0.18285 0.370647
-0.00519133 0.0344025 0.212245
0.0643073 0.155376 0.487864
0.0642812 0.0445876 0.386101
-0.180671 0.207769 0.725556
0.0730717 -0.080886 0.297467
-0.0698548 -0.0690373 0.386101
0.140395 0.00975476 0.285902
-0.170431 0.217647 0.791147
0.110208 0.0632419 0.386101
0.0217803 0.0516174 0.338986
-0.209229 0.148397 0.339258
0.142874 0.176761 0.643918
-0.079212 0.0138092 0.338986
-0.105449 0.183327 0.356669
-0.0604014 -0.00156636 0.275217
0.17642 -0.123532 0.349265
0.183144 0.152275 0.36957
0.186125 -0.0360319 0.11193
0.232234 -0.0822585 0.0187771
0.208702 0.0261134 0.324199
-0.0587799 0.20499 0.366925
0.142425 0.205853 0.0770942
-0.172476 0.0428633 0.382964
0.0675331 0.236927 0.801229
-0.0100115 0.0298856 0.223386
0.121221 0.23869 0.792301
0.0298141 0.119051 0.386101
0.222674 -0.0558608 0.0367208
0.14891 0.256505 0.807282
-0.0709838 -0.095117 0.386101
-0.0722693 0.19485 0.600026
0.0773532 0.250127 0.797343
0.0736352 0.243256 0.814259
-0.0162503 0.0604869 0.386101
-0.149708 0.0192828 0.263555
0.17341 0.167901 0.550966
-0.0540184 0.178481 0.469328
0.116166 -0.105908 0.386101
-0.0750615 0.228391 0.735344
0.0788155 -0.0646489 0.338986
0.0772851 -0.148239 0.338986
-0.00904884 -0.00166533 0.280389
-0.0784497 -0.0543722 0.386101
0.0325413 0.056425 0.157154
0.0221832 0.17207 0.44527
-0.0656142 0.217921 0.768313
0.127404 -0.0461994 0.386101
-0.204064 0.094212 0.351165
0.0549685 0.0912671 0.124855
-0.0174348 -0.000988662 0.386101
-0.098398 0.0143628 0.255136
0.118494 -0.0620139 0.386101
0.0673084 -0.0260436 0.338986
0.0557528 0.18504 0.440821
-0.186237 0.0185717 0.27641
-0.0168774 -0.179658 0.354346
-0.0655499 0.211263 0.369565
0.210217 0.182581 0.361407
0.044839 0.0738095 0.386101
-0.0179901 0.0338906 0.0624416
-0.114564 0.177818 0.43891
0.0448582 0.206335 0.362124
-0.057299 0.0129125 0.137124
0.192332 0.1479 0.516164
-0.177152 -0.00208886 0.34667
0.121835 0.249799 0.813276
-0.0332822 0.19794 0.384287
-0.0800309 0.161369 0.54843
0.134709 0.158692 0.462294
0.0741451 -0.123578 0.326508
-0.126024 -0.078359 0.386101
0.149211 0.181873 0.590482
-0.146266 -0.0157186 0.113198
-0.191025 0.155421 0.543306
0.0434636 0.210952 0.73429
-0.208377 0.110161 0.360029
0.173278 0.210635 0.016331
-0.0477333 0.184713 0.631271
0.0300128 0.195258 0.666932
-0.161143 -0.125279 0.385456
-0.0560746 -0.0579529 0.338986
-0.101519 0.205118 0.748371
0.0700184 -0.146498 0.386101
0.125297 0.159891 0.559483
-0.0317883 0.179392 0.377655
-0.0441284 0.0174068 0.14107
0.0772566 0.192338 0.400525
-0.101984 -0.0384015 0.386101
-0.178359 0.170969 0.642455
-0.00169756 0.0750112 0.246391
-0.0940566 0.182715 0.559344
-0.0357025 0.0200119 0.142012
0.0253639 0.211275 0.349473
-0.0439115 0.20107 0.401284
0.034364 0.0215603 0.148367
-0.117243 0.156451 0.546094
0.127946 -0.0854454 0.386101
-0.0425552 0.0972271 0.140448
-0.0511418 -0.0924301 0.338986
0.14869 -0.101267 0.338986
0.0943775 0.216574 0.781299
0.0759788 0.151535 0.338986
-0.209183 0.123515 0.338803
0.161721 0.21197 0.740074
-0.186381 0.1826 0.680884
0.0137506 0.232546 0.732374
0.0541262 0.0123328 0.28393
0.0673176 -0.146557 0.338986
0.0109079 -0.238795 0.0410642
0.101928 0.211688 0.773454
0.159726 -0.139097 0.341425
-0.0137729 -0.25204 0.00226045
-0.0159376 0.130654 0.386101
0.246172 -0.0473671 0.031767
-0.118795 -0.157248 0.340566
0.129443 0.0989991 0.338986
0.0600761 0.0459149 0.386101
-0.148214 0.205547 0.0399532
0.177156 0.0616192 0.346246
-0.130224 0.173915 0.6399
-0.124535 0.153773 0.479643
-0.194287 0.145962 0.493153
-0.0373081 0.252607 0.817499
-0.18499 0.194787 0.364518
-0.0482734 0.160624 0.472415
0.0787193 0.186506 0.64842
0.0275174 -0.000622027 0.24699
-0.215325 0.0350511 0.285975
0.0136185 -0.251863 0.0391273
-0.193799 0.0492981 0.301887
-0.0793024 0.082462 0.386101
-0.0877255 0.172497 0.488049
0.174965 0.175083 0.667473
0.0805409 0.161605 0.549004
0.109176 0.176494 0.345983
-0.00175413 -0.23293 0.039572
-0.110282 0.0265379 0.338986
0.127715 0.243101 0.784288
-0.0626553 0.191426 0.662139
0.180492 0.19289 0.652153
-0.176922 0.1447 0.496804
0.140421 0.215829 0.740081
-0.0557707 0.0463171 0.283886
-0.0863782 0.0883904 0.386101
-0.0898056 0.0185874 0.386101
-0.122223 -0.0421576 0.338986
0.0192418 0.211206 0.368918
-0.190679 0.17562 0.611158
-0.134908 -0.0986375 0.338986
-1.51088e-05 -0.222198 0.0230636
-0.112007 0.18846 0.688965
0.0730999 -0.116997 0.322125
-0.0276603 0.188456 0.562152
-0.00759366 -0.00211203 0.158552
-0.182057 0.183027 0.679156
0.0587211 -0.00424003 0.338986
0.011404 0.0220526 0.338986
0.195133 0.160739 0.545115
-0.0768349 0.174283 0.598902
0.209597 -0.0425885 0.0990266
-0.147017 0.19705 0.755813
-0.0828147 -0.147186 0.340436
-0.17137 0.150154 0.517567
0.161797 0.195039 0.659179
-0.0668343 0.221793 0.705978
0.0115113 0.209349 0.353904
0.187214 0.173477 0.575009
0.177902 0.206814 0.778022
0.0166397 -0.00960478 0.283516
-0.183645 0.204088 0.746344
-0.170093 -0.0239336 0.101923
-0.00705658 0.0032302 0.26372
0.215512 0.0324571 0.290478
0.163486 0.0371118 0.385494
-0.131324 0.19803 0.637998
0.198927 0.165923 0.426299
0.135113 0.212708 0.0719214
0.0311971 0.0578576 0.161366
0.0130909 0.199406 0.374234
-0.0833699 0.0833834 0.338986
0.0490606 0.165882 0.556346
0.107653 0.150609 0.49572
0.00949349 0.191354 0.360589
-0.064135 -0.00246961 0.338986
0.0851066 0.144405 0.106777
-0.196611 0.157882 0.537949
-0.192962 0.0266837 0.302772
-0.194033 0.148901 0.474408
-0.0399093 0.0470935 0.279
-0.144981 0.130268 0.338986
0.0284909 0.209619 0.647117
-0.0898104 0.134519 0.122169
0.17379 0.147846 0.506828
0.122725 0.162296 0.568157
0.235616 -0.0736187 0.0100886
0.144065 0.00989782 0.338986
-0.11112 0.167845 0.384367
0.211752 0.0211797 0.288819
-0.198496 0.0345424 0.360132
0.122206 -0.0528389 0.338986
0.0968976 0.193521 0.352978
-0.162063 0.18386 0.647113
-0.0925 0.211337 0.673458
-0.00621843 0.159988 0.31957
-0.184295 0.206144 0.368477
-0.20198 0.176927 0.368742
-0.151816 0.185625 0.708683
-0.0784327 0.168634 0.577003
0.0935869 0.1642 0.457901
0.192391 0.073009 0.357017
-0.17422 0.187552 0.709547
-0.0802819 0.0213343 0.285593
-0.124848 0.215255 0.716396
0.151626 -0.0716555 0.338986
0.117083 -0.00753162 0.136756
-0.163843 0.226668 0.799216
-0.0595 0.175721 0.484033
-0.136939 -0.00943672 0.338986
0.13476 0.205428 0.00457798
0.00781918 -0.0111659 0.144112
0.160852 0.201885 0.0304745
-0.0282794 -0.0907684 0.338986
0.089493 0.158876 0.111069
-0.0898883 0.207832 0.383581
0.0944044 0.0513289 0.386101
0.00368993 0.225823 0.702641
0.0181412 0.178045 0.379145
-0.0141069 0.0848705 0.288944
0.0628296 0.0374768 0.250673
-0.180442 -0.0169139 0.349928
-0.201517 0.0853353 0.362028
0.0262824 -0.0255515 0.386101
0.0356607 0.202661 0.338406
-0.145649 -0.0238202 0.386101
0.160298 0.205604 0.367712
-0.0937629 0.111665 0.338986
0.0478738 0.180489 0.61367
-0.0524762 -0.0252142 0.289944
-0.0123822 -0.226247 0.00980658
0.166247 0.237511 0.0228472
-0.19537 0.162607 0.469932
-0.181559 0.192625 0.735026
-0.179126 0.192782 0.726767
-0.126058 0.0246012 0.386101
-0.183738 -0.0757356 0.365626
0.10884 0.175389 0.11544
-0.203977 0.183411 0.392419
0.223893 -0.0537617 0.0346584
0.00473129 -0.108767 0.113785
0.0897333 -0.0148927 0.338986
-0.0136771 0.10603 0.302581
0.108955 0.0153752 0.256795
0.0566018 -0.0994092 0.386101
-0.0520999 0.260793 0.815087
0.116215 -0.0194846 0.386101
0.0132393 -0.136105 0.386101
0.122541 0.187855 0.606854
-0.14782 0.208599 0.0136716
0.168741 0.235597 0.804961
0.155987 0.157799 0.562985
-0.0218363 0.058932 0.281655
-0.0266697 -0.0455555 0.338986
-0.0920198 -0.123951 0.386101
0.00268039 0.183684 0.613537
-0.116426 0.177704 0.438036
-0.0174704 0.167807 0.340401
-0.0840212 -0.127088 0.31705
0.226311 -0.0639003 0.0412945
0.0186841 0.209627 0.352241
0.116451 -0.174314 0.357683
0.177835 0.19887 0.349557
-0.176867 0.183397 0.613813
0.149255 0.097025 0.386101
0.145615 0.206947 0.0148762
0.0225434 0.20825 0.356335
-0.13291 0.16947 0.520652
-0.0599165 0.0813024 0.338986
0.0682094 0.0931208 0.338986
0.00371391 -0.0927858 0.386101
-0.071785 0.230555 0.742799
0.174654 0.0208492 0.381256
0.0780037 -0.038002 0.338986
0.166326 0.167814 0.483493
0.0848507 -0.0775111 0.338986
0.0946787 0.208957 0.354831
0.191937 0.0690375 0.337771
-0.0481459 -0.0297103 0.386101
-0.0887141 -0.13711 0.386101
0.0562334 0.233109 0.748566
-0.0535666 0.158547 0.386101
-0.146256 0.195184 0.638031
0.0779048 0.227479 0.794199
-0.129463 0.155061 0.544678
0.123815 0.151749 0.526169
0.0481644 -0.0938983 0.29762
0.00925129 0.00490212 0.181751
-0.0857858 0.192996 0.684209
0.16088 0.213491 0.040155
-0.0210076 0.161331 0.53054
0.15486 0.225792 0.793918
0.108966 0.16887 0.589249
0.0726956 -0.109036 0.338986
0.090637 0.243442 0.794323
0.00930853 0.00178247 0.151089
0.0225586 0.176481 0.511069
-0.139398 0.0326515 0.386101
-0.112318 0.181805 0.374163
-0.0444763 0.263177 0.809151
0.00498169 -0.230618 0.0476349
-0.0939792 0.253761 0.81585
-0.0587131 -0.0976682 0.290345
0.12643 0.200717 0.100184
-0.0242499 0.047679 0.163376
-0.17923 0.105578 0.376106
-0.0165769 0.186701 0.411055
-0.000262108 0.139699 0.300051
0.0691773 0.156882 0.526494
0.000583806 -0.0457677 0.338986
-0.0116394 0.0247697 0.253623
-0.0725864 -0.100664 0.338986
-0.115037 -0.167026 0.379532
-0.234715 -0.065465 0.0434335
-0.0775831 0.222274 0.711764
-0.0380701 0.174653 0.497122
-0.138598 0.180364 0.56641
-0.181305 0.0413876 0.373747
0.187566 0.153691 0.548696
-0.125766 0.230839 0.798587
-0.125747 0.176936 0.345912
-0.152442 -0.0996706 0.338986
0.0264686 0.236919 0.753745
-0.145035 0.174513 0.456425
0.151473 0.237144 0.0437833
0.147937 0.0222 0.386101
-0.107109 0.160151 0.10508
0.0503645 0.254953 0.801599
-0.0208688 -0.245169 0.00114352
-0.030313 -0.0861802 0.338986
-0.204251 0.134625 0.363301
-0.183564 0.158626 0.571228
-0.00674472 0.0651818 0.270639
0.147193 0.167688 0.521752
0.145527 0.0887783 0.338986
-0.252927 -0.0638435 0.0348516
-0.0932222 0.17608 0.345049
-0.0503832 0.166563 0.559367
-0.119799 0.251176 0.815202
0.104542 0.155107 0.107154
-0.140241 0.253261 0.812199
0.0801823 0.208143 0.735992
0.100893 0.151811 0.121867
0.112223 0.193507 0.695957
0.242029 -0.0554703 0.0401117
-0.000587508 0.129284 0.338986
0.170845 0.204855 0.346617
0.200568 0.0729836 0.337473
-0.0146142 -0.00386739 0.386101
0.132051 0.208501 0.356896
0.117253 0.186517 0.598033
-0.173796 0.158381 0.343669
0.196303 -0.0354831 0.104899
-0.178942 0.209097 0.357658
-0.0614189 0.191269 0.420035
-0.0779342 0.131234 0.140123
0.173915 0.0285798 0.291638
-0.202804 0.0214086 0.314799
-0.105407 0.0248323 0.256885
0.101073 0.0284291 0.338986
0.206499 0.0623315 0.327375
-0.194279 -0.03588 0.0858077
-0.210912 0.041712 0.358072
-0.180878 0.158477 0.463889
0.0956777 0.155448 0.386101
-0.0341846 -0.00935163 0.338986
-0.16241 -0.124455 0.385194
-0.187169 0.187207 0.673321
0.188893 0.176273 0.581821
0.0927876 -0.00273015 0.121228
-0.0393337 0.175969 0.48752
0.106432 0.182871 0.575645
0.0595513 0.012449 0.138102
0.154156 0.222624 0.0424738
0.00182296 -0.253046 0.0135306
0.140442 0.184562 0.599313
-0.145888 0.19856 0.0297063
0.102556 0.182436 0.355025
-0.025798 0.0718474 0.338986
-0.211709 0.0553198 0.325852
-0.0325181 0.205125 0.391574
-0.00570138 0.17676 0.498692
-0.0658675 0.183832 0.632623
0.22713 -0.049272 0.0893882
-0.0348259 0.234356 0.798061
0.0772285 0.174787 0.522533
0.194557 0.197658 0.408984
0.153652 -0.0176 0.115298
-0.23259 -0.0786487 0.0218752
0.167208 -0.0932965 0.340746
-0.138346 0.0760828 0.338986
0.165669 0.188763 0.732232
-0.177049 0.165759 0.606002
0.00821497 0.150014 0.338986
-0.124912 0.187074 0.694803
0.0591137 0.086339 0.386101
-0.0377556 0.15619 0.49781
-0.0230248 0.179179 0.602489
0.0347785 0.231389 0.734746
-0.262078 -0.081506 0.00729429
0.0963446 0.0157015 0.254744
0.0642381 -0.131381 0.338986
0.137669 0.109899 0.386101
-0.190175 0.175429 0.402567
0.183904 0.194641 0.744527
-0.185599 0.188003 0.434221
0.0683964 0.104001 0.136029
0.0312662 -0.100323 0.386101
-0.00383332 0.0482932 0.283607
0.112344 0.192617 0.622522
-0.0409783 0.241315 0.770905
-0.189134 -0.0443432 0.0910828
-0.124204 0.258597 0.808093
0.0602153 0.251246 0.795461
-0.074937 0.136926 0.338986
0.0843553 -0.0294238 0.386101
-0.0950519 0.175798 0.426918
0.128925 0.156325 0.546554
0.00167451 -0.089733 0.115095
-0.0151516 0.0363537 0.338986
-0.0988724 0.0590405 0.386101
-0.181748 0.184027 0.617015
-0.179712 -0.0340164 0.0897043
-0.0527911 -0.0983632 0.338986
0.144125 0.195685 0.743631
0.0467171 0.0473151 0.280686
-0.138471 0.0872573 0.386101
-0.0343918 0.209287 0.346275
-0.0183301 0.177443 0.516409
-0.182329 0.180334 0.590199
-0.0396984 -0.0853556 0.338986
0.0447601 0.233252 0.745353
-0.127047 -0.00910737 0.338986
0.215068 0.0336199 0.29678
-0.109146 -0.027986 0.338986
0.105759 0.113247 0.338986
-0.0519028 0.190409 0.425653
0.171529 0.189896 0.64977
-0.158561 0.189664 0.622497
-0.018524 0.200994 0.401356
0.157335 0.20171 0.0369291
0.0320791 0.039378 0.246375
-0.15935 0.198032 0.349706
-0.188761 0.156545 0.552649
-0.0338256 0.186424 0.436187
-0.0878818 0.155449 0.106098
0.0765621 0.213449 0.678823
0.0919093 0.203194 0.723121
-0.00864301 0.0108973 0.0222813
-0.0716383 0.117148 0.141818
0.176791 -0.0808486 0.346195
0.122753 -0.00150117 0.338986
-0.026895 -0.0256286 0.261367
-0.0905054 0.190098 0.417274
0.000915017 -0.00702872 0.125855
0.0525009 -0.178837 0.367539
0.211407 0.106719 0.343125
-0.00257516 0.0130777 0.234686
0.200026 0.139075 0.364274
-0.057882 0.193996 0.396711
0.134656 0.233663 0.0352196
-0.114282 -0.172059 0.374566
0.19406 0.144099 0.490125
-0.202336 0.0884783 0.344144
-0.125076 0.101304 0.386101
0.112877 0.130118 0.338986
-0.0539257 0.173955 0.492414
-0.0409644 0.00143127 0.386101
0.057793 0.195093 0.39339
-0.0693031 0.225196 0.720407
-0.00191773 -0.120787 0.386101
0.0524053 0.2504 0.817182
-0.0846735 0.182616 0.371752
-0.161191 -0.0326277 0.100446
0.202736 0.176564 0.369602
0.155676 0.230508 0.0375242
0.0821489 0.13771 0.107334
-0.185832 0.167126 0.615424
0.00449806 0.191603 0.64531
0.220539 -0.0815244 0.0247001
0.0461032 0.206859 0.641524
-0.0851375 0.0493767 0.386101
0.053361 0.194727 0.414293
0.142848 0.175043 0.634966
0.0693411 0.179169 0.377027
-0.0560405 -0.00989763 0.386101
0.11586 0.232769 0.774815
0.153321 0.257358 0.801795
0.0862225 0.183606 0.366636
-0.0561551 0.194123 0.592013
-0.0530751 -0.0547185 0.299531
0.00360933 0.192265 0.349433
0.0275899 -0.17899 0.353618
0.178693 0.185617 0.717472
0.171987 0.171739 0.552478
-0.104154 -0.0719718 0.338986
0.181469 0.160951 0.587061
0.127839 -0.0833287 0.338986
-0.0961385 0.126924 0.338986
0.161333 0.187605 0.694644
-0.156945 0.178054 0.346959
0.0608538 0.16827 0.384326
-0.0495709 0.104712 0.128742
-0.0773894 0.187692 0.573115
-0.08503 0.0752413 0.338986
0.165554 0.168766 0.590177
0.0150857 0.00883913 0.104184
-0.100816 0.210021 0.671264
0.176008 0.0331572 0.291805
0.0913389 0.187092 0.421674
-0.180958 0.182872 0.441506
0.185339 0.175646 0.420972
0.117805 0.202358 0.666753
0.161332 0.0150031 0.386057
-0.152519 0.00313917 0.386101
-0.00409395 0.1968 0.411165
-0.0626612 -0.128681 0.312992
0.195143 0.17004 0.576559
0.141523 0.195068 0.350548
0.178518 -0.0670129 0.347889
0.00366533 0.201545 0.399971
-0.0290252 0.050879 0.144527
0.168119 -0.0347997 0.34088
-0.0637783 0.25757 0.81869
-0.00622933 -0.051191 0.129291
0.0859852 0.194791 0.396455
0.0999014 0.159141 0.470569
0.0160686 0.0296447 0.0220174
0.049479 0.0804579 0.130138
0.123439 -0.0465667 0.386101
0.020775 0.0372493 0.15509
0.000634632 0.0459089 0.133797
-0.112524 -0.152735 0.339132
-0.0455879 0.0120288 0.164668
0.00911895 0.0127177 0.0128598
0.0940112 0.0311258 0.287109
0.0416032 0.208675 0.357147
-0.0350703 0.18531 0.360635
-0.139097 0.0374588 0.262522
-0.0534379 0.187552 0.409041
0.256144 -0.0688476 0.041082
0.119156 0.206115 0.366499
-0.185603 0.164655 0.605405
0.0238214 0.0480487 0.386101
-0.192145 0.179403 0.620065
-0.171885 0.197872 0.683244
-0.148258 0.188696 0.722421
0.0301393 0.183046 0.45067
-0.0512116 -0.0248054 0.261552
-0.0181716 0.206779 0.710014
0.177014 0.186015 0.719814
0.0961707 0.222934 0.7915
-0.148712 0.187944 0.718932
-0.193891 0.171214 0.571674
-0.111495 0.117372 0.386101
0.0685882 0.236451 0.80227
0.141406 0.169102 0.602775
0.0334722 0.208541 0.644522
-0.139078 -0.017141 0.108285
-0.0145269 0.0359297 0.2837
0.0418629 0.017456 0.13769
-0.155461 0.18417 0.592648
0.109077 -0.00639738 0.14175
0.136692 0.113891 0.386101
0.204109 0.0943834 0.363014
0.0225366 -0.15171 0.338986
-0.0792244 0.00636589 0.13507
-0.176401 0.0546344 0.346043
-0.0700415 0.176583 0.345204
-0.166664 0.173052 0.652196
0.139759 0.228974 0.0771568
0.178721 -0.117433 0.35204
0.102402 0.207365 0.674798
-0.0541846 0.247786 0.81609
-0.183626 0.191051 0.644794
0.205456 0.185457 0.397546
-0.0911432 0.252769 0.796642
0.0749103 -0.148505 0.340369
0.261623 -0.0860214 0.0113691
-0.0433869 0.222396 0.70096
0.00144534 -0.122155 0.106247
-0.187108 0.188158 0.401403
0.190037 0.191774 0.685651
-0.223125 -0.0811718 0.0344525
-0.0990244 0.16354 0.573443
-0.0272516 -0.027608 0.263196
0.0131188 0.0360236 0.199088
-0.0778763 0.139562 0.338986
-0.122306 0.168243 0.505546
-0.114034 0.176055 0.639548
0.00823034 0.129222 0.338986
-0.0855964 -0.0963113 0.338986
-0.129156 0.181059 0.565701
0.0682389 -0.106922 0.294125
-0.177571 0.186848 0.629986
0.0215452 0.0243579 0.0723236
0.182883 0.039243 0.269151
-0.149976 0.0427006 0.386101
0.151955 0.25674 0.800469
-0.0782743 -0.0219751 0.338986
0.0517009 -0.00294969 0.338986
0.180857 0.157306 0.569833
-0.0103408 0.00361663 0.161062
0.0953287 0.00019676 0.127787
0.0966982 0.0447072 0.262266
0.120565 0.0157821 0.386101
-0.0733368 0.0410898 0.386101
-0.0220497 0.195712 0.389922
-0.132222 0.17576 0.467568
-0.0179634 0.0648652 0.338986
0.020337 -0.254791 0.00573805
-0.0265454 0.22602 0.780374
0.146295 0.244383 0.788159
0.160828 0.197638 0.671158
0.0897856 0.106234 0.338986
-0.168629 0.176475 0.567253
-0.0802386 0.177519 0.426187
-0.0522838 0.192635 0.368837
-0.162145 0.186776 0.71919
-0.120046 -0.0701758 0.386101
-0.0388741 0.207137 0.638547
0.147563 0.214319 0.0689911
0.056459 0.200484 0.696687
-0.0546796 0.110906 0.124254
-0.0294315 0.00724816 0.139303
0.00473481 0.178115 0.476857
-0.190637 0.171827 0.560154
-0.196461 0.0923152 0.363014
0.0791022 0.159542 0.474293
-0.135955 -0.0125191 0.126599
-0.0216027 0.127825 0.386101
-0.0834616 0.0171772 0.252923
-0.0773553 0.129525 0.140254
0.00727999 0.00448992 0.0674683
0.043302 0.256289 0.79995
-0.160488 0.0329598 0.338986
-0.100422 0.235066 0.803332
-0.0701652 0.216455 0.7671
0.0332287 0.196812 0.674133
0.139448 -0.0145357 0.114157
0.106687 0.198111 0.713562
-0.15463 0.217019 0.752954
-0.159632 0.0531556 0.386101
0.0987181 0.112101 0.338986
0.169673 0.144517 0.49841
-0.0713789 -0.0714231 0.302743
0.0486193 0.121831 0.386101
0.00463765 -0.10617 0.136482
0.00638524 0.193126 0.344731
-0.0353353 0.192001 0.36273
-0.169686 0.192499 0.658155
-0.0167782 0.177599 0.594355
-0.00717785 0.18961 0.638765
-0.0158708 0.010762 0.118261
0.098387 0.157452 0.0991152
-0.00217008 -0.128561 0.104412
0.163193 0.206395 0.0409543
0.000110373 0.0451519 0.0600134
-0.00864622 0.16616 0.339923
-0.128441 -0.111231 0.338986
0.198979 0.158354 0.464413
0.0530224 0.17357 0.495666
-0.019391 0.0328088 0.103104
0.0842275 -0.1259 0.31664
0.00130071 -0.149406 0.121484
0.135244 0.138671 0.386101
0.178866 -0.0281152 0.348151
-0.000253084 0.178723 0.473053
0.0118236 0.142171 0.318303
-0.057426 0.200334 0.617239
0.0178926 0.18008 0.526826
-0.26533 -0.0684452 0.0211929
0.152216 0.197038 0.664346
-0.182092 0.0309127 0.3709
0.0250573 0.00987149 0.137643
0.0558007 0.0194508 0.284179
-0.0679741 0.17151 0.383497
-0.0234819 0.0714087 0.146327
0.181191 -0.0115492 0.350439
-0.0158244 -0.179481 0.353476
0.140544 -0.0670848 0.386101
-0.0602555 0.181681 0.622506
0.143296 0.123217 0.386101
0.160919 0.231014 0.0118476
-0.18898 0.196622 0.405102
-0.146594 0.0519186 0.338986
-0.0868573 0.195483 0.408884
-0.145193 -0.0162413 0.338986
0.107988 -0.142909 0.338986
0.184728 0.184964 0.701529
0.0020461 0.0184653 0.28357
-0.0756208 0.178742 0.616228
0.0913483 0.209458 0.755014
-0.120157 0.0856083 0.386101
0.0825721 0.00333911 0.149491
-0.00155426 -0.117751 0.135003
-0.0327282 -0.0491671 0.278913
-0.00682192 0.106258 0.283304
0.211037 0.14558 0.349266
0.161516 0.188817 0.707971
0.211935 0.0837797 0.362714
0.162851 0.214534 0.752844
0.116268 0.0972944 0.338986
-0.00727468 -0.0370897 0.137779
0.00135538 -0.136223 0.386101
0.178761 0.0560255 0.347863
-0.022158 -0.258404 0.0173303
-0.00198372 0.189295 0.635886
0.108132 0.211756 0.697377
-0.182851 0.188759 0.631267
-0.0074793 -0.0399426 0.386101
-0.162361 0.203687 0.373377
0.180893 0.170366 0.356614
0.135601 0.193929 0.355017
0.0578756 -0.0649551 0.302298
0.00625882 0.0541742 0.24548
-0.033736 0.0199491 0.138302
0.173117 0.154633 0.484599
0.000292977 0.23561 0.800855
-0.169102 0.179918 0.687858
-0.0710732 0.10828 0.131245
0.0140409 -0.0533059 0.386101
-0.0385068 -0.0574321 0.300538
0.00846451 0.0155166 0.265018
0.149145 -0.16505 0.369311
0.193573 0.213649 0.350008
-0.0767627 0.212043 0.67046
-0.189266 0.173658 0.566717
-0.0294356 -0.160262 0.339692
0.0229419 0.176227 0.508876
-0.197279 0.0738643 0.358729
-0.118748 -0.113317 0.386101
-0.135701 0.180767 0.34972
0.0773895 0.140824 0.129354
-0.145057 0.170618 0.529748
0.140719 0.181704 0.667133
0.181757 0.0568252 0.37397
-0.175103 0.212494 0.753713
0.035691 -0.176388 0.349316
-0.00473752 0.201578 0.374225
-0.186228 0.193084 0.696924
0.1683 0.237964 0.0203497
0.0265869 0.199776 0.607771
-0.0794385 0.131024 0.110372
-0.14241 0.147682 0.507101
0.0505368 -0.157227 0.385965
0.116748 0.200806 0.659557
-0.186199 0.149271 0.53583
0.18595 0.208657 0.354008
-0.0322397 0.159388 0.476775
0.128894 0.0236888 0.288949
-0.156894 0.18821 0.613801
-0.0595382 0.0161933 0.28424
-0.00768766 0.0149663 0.262018
-0.171094 0.175141 0.664482
0.125003 0.179862 0.569776
0.165175 0.0745051 0.385065
-0.0362218 0.00314787 0.148316
-0.00800982 -0.171645 0.103265
0.0194589 -0.0116611 0.386101
-0.180463 0.218499 0.774927
-0.0103487 0.133728 0.317186
-0.131864 0.149415 0.51379
-0.0698802 0.238653 0.809895
-0.113821 -0.167062 0.379653
0.021058 0.0236104 0.185656
0.0771803 -0.00759414 0.127421
0.116173 0.183213 0.649718
0.194261 0.0892417 0.337386
0.0686822 0.218844 0.695672
-0.147748 0.170989 0.53223
0.251082 -0.0896392 0.02761
-0.0394748 -0.149432 0.386101
-0.0799385 -0.165499 0.383282
-0.0236638 0.0114611 0.386101
-0.0769777 -0.144811 0.338986
-0.0115685 0.0257879 0.20875
0.185481 0.186118 0.691711
-0.183417 0.137431 0.359992
-0.0991146 0.102662 0.338986
0.0164933 0.0275938 0.0273248
0.0407689 0.0903669 0.150944
0.0908429 0.175255 0.478247
-0.0188723 0.191966 0.651743
-0.0174659 0.0508974 0.283554
-0.174275 0.168297 0.618538
0.0630294 0.217029 0.686841
-0.0274852 0.0484853 0.249593
-0.21989 -0.077352 0.0174008
-0.108237 0.242169 0.789068
-0.172337 0.18418 0.618273
-0.129067 0.171414 0.527019
-0.00412122 0.158404 0.505237
0.198421 0.0493457 0.283014
-0.0143049 0.241074 0.764204
-0.01218 0.21187 0.650144
0.12062 0.202344 0.373961
0.0104981 0.0185593 0.224254
-0.0159499 0.262088 0.816901
-0.138964 0.226587 0.00855803
0.0396636 0.198022 0.408039
0.257067 -0.0883827 0.0266004
-0.069455 0.190139 0.404601
-0.111598 0.169078 0.49672
-0.207857 0.111234 0.336597
-0.141597 0.200307 0.658787
-0.111304 0.187268 0.683416
-0.112973 -0.142366 0.386101
0.191873 0.054301 0.344432
-0.0562374 0.213259 0.360036
0.0799222 0.0798005 0.338986
-0.00986883 0.0182889 0.215406
0.13467 0.156197 0.548267
0.0260343 0.208773 0.355055
-0.126063 -0.0201293 0.111771
-0.0243453 -0.0471426 0.338986
0.00938744 0.252802 0.791434
-0.183458 -0.0591114 0.366534
-0.0336117 -0.04849 0.338986
-0.0302804 0.177191 0.518549
-0.143637 0.0489703 0.288976
-0.0157895 0.191796 0.650102
0.114945 -0.121472 0.386101
0.0021149 0.180201 0.599629
0.205773 0.0423232 0.363978
0.0147392 0.192859 0.576726
-0.140173 0.237376 0.0335988
0.131108 0.257299 0.804517
0.150902 0.187356 0.708096
0.193032 0.168548 0.360984
0.0904766 0.0897825 0.338986
0.180069 0.231745 0.784883
-0.194633 0.190144 0.338364
-0.20492 0.047115 0.27483
0.0282917 0.102406 0.338986
0.167211 0.110326 0.384541
-0.00286456 0.116133 0.320664
-0.0991647 0.192534 0.412037
0.100684 0.209644 0.766621
0.200114 0.0837927 0.335533
0.00339488 0.00165465 0.274332
0.0939147 0.18747 0.40732
0.0094872 0.181919 0.531776
0.0647201 0.0119881 0.386101
0.154161 -0.111603 0.338986
-0.098266 0.180502 0.552032
-0.155873 0.23061 0.784466
0.000584098 0.189003 0.405568
-0.192052 0.160695 0.51638
0.133399 0.205671 0.00437841
-0.0253261 0.235171 0.799621
-0.0885976 -0.0241779 0.386101
-0.175232 0.179352 0.670586
-0.0586214 0.0336213 0.284902
-0.0879062 0.193679 0.39863
0.166529 0.19218 0.735945
0.196141 0.0504551 0.287122
0.144764 -0.130381 0.338986
0.179037 0.0305785 0.376893
-0.00798948 0.0433988 0.19485
-0.112523 0.235139 0.798905
-0.0703382 -0.0820107 0.338986
0.0818406 0.201106 0.632614
-0.0937277 0.172882 0.608249
-0.181167 0.0501849 0.283693
-0.175317 0.180598 0.689776
0.00213253 -0.0196268 0.338986
-0.080325 0.164702 0.460655
-0.0879208 0.159815 0.472594
0.101517 0.033981 0.287639
-0.124491 0.0758314 0.338986
-0.168495 0.200676 0.771388
0.0361605 0.206474 0.361014
-0.176641 0.190729 0.639347
0.0490199 0.167912 0.564351
0.021548 0.00959763 0.162543
0.139487 0.147141 0.505339
-0.185981 0.194784 0.70344
0.0070606 -0.120744 0.116003
-0.0845184 0.182877 0.354303
0.106428 0.199823 0.64721
0.189861 0.0360206 0.270335
-0.0875202 0.228606 0.746885
0.172331 0.202358 0.0222466
-0.132648 0.220011 0.0418239
-0.110102 0.205438 0.656336
-0.0155021 0.180632 0.462363
-0.146695 0.196004 0.350639
-0.174946 -0.106147 0.379129
-0.0594434 0.186869 0.409904
0.184109 0.126232 0.365762
-0.0497136 -0.146514 0.338986
-0.116483 -0.0202148 0.136444
-0.0995946 0.199724 0.629552
-0.0996744 0.213583 0.685115
0.0988728 -0.000374368 0.138294
-0.123459 0.181748 0.566355
-0.0620527 0.204503 0.714297
0.151371 0.207095 0.0396497
0.171159 0.203302 0.701951
-0.014504 0.0972568 0.338986
0.0490105 -0.0153112 0.338986
0.0111558 -0.160444 0.339474
-0.146283 0.210535 0.713334
-0.0109787 0.169901 0.450806
-0.0427842 0.199447 0.405101
0.0657856 0.18903 0.423921
0.193907 0.20663 0.384549
-0.1615 0.238132 0.0283593
-0.0836998 0.0699666 0.338986
0.210295 0.194084 0.361124
-0.169766 0.172075 0.648696
0.166247 0.182086 0.698213
0.209552 0.0916369 0.34861
-0.108404 0.177586 0.459917
0.134356 0.201945 0.34472
0.00738245 -0.134705 0.112547
0.153489 0.147513 0.520552
-0.17365 -0.0767574 0.382089
-0.0789081 0.212651 0.357296
-0.248693 -0.0484775 0.0610116
-0.00122538 0.246503 0.815597
-0.0913113 -0.112503 0.386101
0.158407 0.243196 0.810283
0.104856 0.180403 0.349878
-0.113767 0.184695 0.574572
0.258516 -0.0561633 0.0407382
-0.127061 -0.0185549 0.138518
-0.068799 0.206251 0.644487
-0.0443382 0.20995 0.651522
-0.110396 0.216667 0.709773
0.21082 0.0272759 0.274407
0.0400026 -0.0776866 0.338986
0.0270973 0.00420689 0.246204
0.173043 0.161285 0.342124
0.11957 0.0470717 0.272229
-0.153966 -0.0242896 0.101095
0.252895 -0.0860653 0.0187278
-0.203367 0.158179 0.334457
0.0523775 0.197399 0.682937
0.192069 0.203534 0.378725
0.171874 0.0406365 0.383254
-0.126572 0.220854 0.0187474
0.0886314 0.135804 0.386101
-0.0342274 0.207699 0.382135
-0.201555 0.151093 0.334049
-0.0353107 0.178211 0.601918
0.0215723 -0.0201127 0.288316
-0.0143212 0.261593 0.805567
-0.0977246 0.218557 0.707168
0.210572 0.175797 0.356374
0.0635438 0.18692 0.644674
-0.0402514 -0.0472331 0.386101
-0.103483 -0.0109767 0.386101
-0.0477057 0.2133 0.353983
-0.157103 -0.0731468 0.338986
0.0795359 -0.01022 0.142184
-0.0879158 0.195586 0.39572
-0.111077 0.158789 0.469785
-0.220702 -0.0449318 0.0924285
0.163158 0.178921 0.636074
0.040947 0.19648 0.675403
0.122387 0.0296797 0.288762
-0.147287 0.111763 0.338986
-0.0282794 0.221171 0.768708
0.186755 0.190057 0.661576
0.0674182 0.106475 0.121509
0.00070875 -0.141633 0.0994623
-0.101566 0.207629 0.661957
0.0402499 0.247066 0.796989
-0.0498932 -0.0731538 0.338986
-0.0958571 0.179845 0.638918
0.0673997 0.177833 0.470271
-0.109469 0.192037 0.602402
0.0545695 -0.171542 0.345388
0.0367433 0.209491 0.352702
0.107132 -0.141507 0.386101
0.0367761 0.00344035 0.152702
0.17379 0.194918 0.35375
-0.0793523 0.131708 0.338986
0.0808093 0.00392875 0.386101
-0.130384 0.167888 0.491654
-0.0944902 0.181317 0.64377
0.163503 0.052486 0.385499
0.175035 0.190113 0.650104
0.0779442 -0.103633 0.314518
0.0470317 0.189346 0.648839
-0.0612002 0.193049 0.58932
-0.141181 0.195075 0.632742
-0.0625551 -0.0845398 0.308817
-0.194663 0.160283 0.476526
0.0776755 0.0445823 0.261191
0.0780409 0.202751 0.378316
-0.257453 -0.0624758 0.00117304
-0.156781 0.201452 0.739232
-0.138979 0.219162 0.0343747
-0.0089251 -0.202799 0.0869253
0.101529 0.157279 0.475008
-0.19123 0.172586 0.589802
-0.0437042 0.178729 0.528115
0.0572502 0.128377 0.338986
-0.182011 -0.108848 0.360955
-0.149194 0.182339 0.352629
-0.186307 0.165692 0.521806
-0.25187 -0.0553343 0.0183773
-0.220986 -0.0821318 0.0235699
0.179525 0.164561 0.615517
-0.157078 0.200279 0.743824
0.131465 0.212919 0.720957
-0.075353 0.0101794 0.338986
0.116979 0.192973 0.36378
0.0739931 0.00588488 0.268186
-0.0835432 0.0146301 0.285498
0.0259125 0.0226447 0.140737
-0.135348 -0.0179291 0.134592
-0.100772 0.117099 0.338986
0.0300723 -0.028844 0.291622
0.133728 0.253516 0.796138
-0.0804261 -0.0404521 0.338986
0.153161 0.19561 0.0270324
-0.0715473 0.136895 0.125857
-0.0018435 -0.0785419 0.118022
-0.0527835 0.104501 0.338986
0.0157222 0.145249 0.386101
-0.00748427 -0.23876 0.0410659
-0.147095 0.177201 0.664139
-0.19354 -0.0458545 0.101466
-0.0275339 0.0126987 0.386101
-0.174544 0.193283 0.736582
0.0102519 0.0180971 0.262493
-0.085013 0.201264 0.399787
-0.123971 0.209066 0.357326
-0.0823634 0.178626 0.621791
0.244398 -0.0763339 0.0287735
0.103219 0.174016 0.428534
0.134102 0.0353699 0.261343
0.0359364 0.262838 0.816477
0.101599 0.179683 0.349152
-0.128321 0.191002 0.605233
-0.113052 0.172802 0.483118
0.187077 0.203792 0.738925
0.12186 0.127793 0.338986
-0.0100381 -0.0255353 0.338986
-0.00307176 0.0132111 0.234094
-0.244487 -0.0640047 0.0430647
0.0272903 0.238499 0.809924
0.0281852 0.256416 0.799359
0.0109937 -0.165618 0.384233
0.00828849 0.177748 0.479474
-0.115025 0.205312 0.658432
-0.178426 -0.0388632 0.377224
0.106471 -0.0177384 0.138499
-0.151869 0.173681 0.473268
0.0758206 0.228787 0.795965
0.181622 0.177408 0.6623
-0.0539582 0.263399 0.810722
0.164772 0.1914 0.728287
-0.0767254 -0.00684682 0.150464
0.144045 0.185786 0.692126
-0.0841542 0.176925 0.532474
0.170047 0.021996 0.383731
0.0411576 0.15996 0.530743
0.124745 0.120165 0.386101
-0.0968637 0.203784 0.644808
0.136123 0.0103694 0.28117
0.0586767 0.240596 0.772886
0.0215189 -0.123798 0.338986
0.191345 0.0749202 0.347957
-0.182815 -0.0220707 0.356461
0.198586 0.157337 0.530579
-0.0940276 0.124584 0.386101
0.191142 -0.0303164 0.0953518
0.170066 -0.0315947 0.120309
0.177611 0.0426799 0.378345
-0.181222 0.0526039 0.373965
-0.0310841 0.19171 0.423285
-0.160096 -0.00213349 0.338986
-0.0315832 -0.0184622 0.288419
-0.165976 0.249903 0.79572
-0.167519 0.171273 0.571749
0.12912 0.00188607 0.386101
-0.123973 0.207505 0.677572
-0.00711357 0.214874 0.660627
-0.100275 -0.111666 0.386101
0.173102 0.160855 0.595757
-0.163978 0.209926 0.726933
0.0757462 0.178575 0.465903
0.170176 0.165729 0.548108
-0.0418183 0.158541 0.52497
0.154889 0.0167946 0.266226
-0.0506363 -0.125182 0.386101
0.0696904 0.211825 0.360957
0.102783 0.213413 0.778214
-0.192871 0.0459823 0.304867
-0.174997 -0.0528592 0.380687
0.1794 -0.0760304 0.348789
-0.101917 -0.0728863 0.338986
-0.175983 0.16543 0.604621
-0.0298512 0.0654737 0.123675
-0.041943 0.0856835 0.157635
0.0216597 0.0283168 0.0704975
-0.143102 0.221767 0.764291
0.0964327 0.246168 0.794814
0.185369 0.198832 0.708085
-0.00124749 -0.0402628 0.161682
0.0218808 -0.181157 0.360686
0.0335565 0.0572175 0.155246
-0.0493815 0.180964 0.53839
-0.131965 0.249975 0.792686
-0.191541 0.0390704 0.33123
-0.148511 0.19135 0.621343
-0.0703387 0.124897 0.386101
0.0855448 0.210083 0.367939
0.147165 0.0499754 0.386101
0.11468 0.174263 0.426858
-0.172023 0.225577 0.0114589
-0.0422265 0.0706831 0.151873
0.0974557 0.192981 0.356071
0.153969 0.212394 0.790055
-0.0277473 -0.01622 0.252081
-0.0738225 0.172641 0.589985
-0.135732 0.0150079 0.264478
-0.178933 0.163816 0.511459
0.0712579 0.0204892 0.338986
-0.0138019 0.00602985 0.338986
0.140684 0.168828 0.524217
-0.00663489 0.208963 0.71501
0.157254 0.133952 0.386101
-0.153408 0.172361 0.642665
0.128271 0.036312 0.289164
-0.0612612 0.185363 0.558798
-0.191984 0.209887 0.348172
-0.135756 0.224342 0.766987
0.0358637 0.0761305 0.124509
-0.0990124 0.178798 0.445645
0.0020396 0.00654958 0.0646941
-0.0902039 0.152396 0.505989
-0.0154699 -0.264043 0.0266196
-0.138221 0.199776 0.0293056
-0.150183 0.190435 0.731328
-0.0663565 0.193266 0.670499
0.145076 0.129005 0.338986
-0.169936 0.203391 0.709706
0.00755838 0.229164 0.784493
0.0484161 0.0158381 0.13901
-0.00810467 0.152391 0.3345
-0.180191 -0.123539 0.364282
0.0722624 0.242311 0.795069
-0.141788 0.168727 0.619076
0.0155629 0.00818058 0.135018
0.0791573 0.250873 0.817759
0.0175738 0.196815 0.386997
0.11352 0.153744 0.530195
-0.25295 -0.0761026 0.0336843
0.208789 0.199618 0.340047
0.226963 -0.0876045 0.0240563
-0.172854 0.173207 0.569265
-0.157486 -0.00570836 0.386101
-0.0461464 0.225147 0.712825
-0.109955 0.189273 0.591506
-0.126562 0.22595 0.0270172
0.162177 0.191732 0.643547
0.158891 0.208822 0.352732
0.202765 0.184418 0.334121
-0.150168 0.237696 0.0334421
0.0017194 0.045391 0.182552
0.10847 0.17214 0.602203
-0.0851132 0.211552 0.362239
0.0494327 0.194521 0.5933
-0.0469389 0.167313 0.561443
-0.0938564 0.180145 0.548969
-0.032013 0.205215 0.70819
-0.195426 0.14781 0.494818
-0.0123541 -0.226387 0.0335168
0.140914 -0.0137894 0.121889
-0.129139 0.159567 0.46282
-0.102249 0.177754 0.542496
0.126922 0.177006 0.628933
0.163632 0.177403 0.638897
-0.101504 0.181719 0.374347
0.192337 -0.0478935 0.0942817
-0.167158 -0.111816 0.340905
-0.131569 0.165259 0.596956
0.121047 0.25559 0.798328
-0.0979613 -0.105356 0.386101
0.0419413 -0.161115 0.340055
0.0675986 0.184431 0.412985
-0.073894 0.243489 0.814119
-0.0762146 0.00392005 0.126239
0.182324 0.174551 0.467053
0.172267 0.202063 0.0219446
0.00603089 -0.228939 0.0388035
-0.149387 0.149604 0.526319
-0.0116265 0.0255225 0.2399
-0.209767 0.165507 0.353175
0.0404512 0.214638 0.74806
-0.0233806 0.204065 0.622397
-0.134072 0.112601 0.338986
0.166753 -0.035295 0.340514
-0.00839696 0.00332413 0.262674
0.128838 0.215686 0.0053667
-0.231786 -0.0412227 0.075441
-0.105758 0.221066 0.788536
0.0696477 0.164393 0.55638
0.144277 -0.151862 0.384214
-0.0255411 0.0475206 0.159809
0.132667 -0.0107978 0.338986
-0.103406 0.201431 0.734831
-0.0889 0.208777 0.378096
0.120855 -0.0506508 0.386101
0.0933927 0.170908 0.509202
0.162197 0.0251872 0.265599
-0.0603995 0.0640604 0.386101
0.00225661 0.196917 0.665654
-0.0350103 -0.0464739 0.297193
0.106796 0.211401 0.775495
-0.0847836 0.226456 0.733777
0.0672471 0.103771 0.127063
0.115625 0.0891933 0.338986
-0.171899 -0.127659 0.378561
0.176232 0.172416 0.654286
-0.020905 0.031273 0.158886
-0.0674026 -0.0641548 0.338986
0.191785 0.0504171 0.354955
0.0314797 0.211231 0.368737
0.0515633 -0.0918297 0.310825
-0.086602 0.230421 0.794956
0.174272 0.188411 0.718251
-0.0336157 0.133658 0.338986
-0.20879 0.0293913 0.330717
0.144204 0.2047 0.697298
0.0435095 0.26062 0.80407
-0.148673 0.176523 0.554751
-0.0308588 -0.00308307 0.338986
-0.0315965 0.0235819 0.28385
-0.078202 -0.17775 0.359351
0.105393 0.237344 0.804957
0.113845 0.155151 0.386101
-0.179194 0.195971 0.353011
0.00598753 0.247724 0.816243
0.144978 0.210719 0.0304217
0.00635664 0.127818 0.322525
0.197446 -0.0481094 0.0868791
0.0617665 0.0431077 0.254791
-0.0940504 0.0445761 0.26113
-0.14956 0.252629 0.794149
0.181472 0.161181 0.59875
-0.0135534 0.208535 0.358789
-0.252934 -0.0679707 0.00401889
-0.12285 0.176442 0.544865
-0.0389436 0.180601 0.46104
-0.108901 0.178694 0.64585
-0.0583854 0.163978 0.551178
-0.0176034 0.0330177 0.0583129
-0.00395218 0.00289704 0.386101
-0.0513931 0.150643 0.386101
0.12942 0.180097 0.375462
-0.177244 0.143385 0.34708
0.170689 0.1534 0.539346
0.180131 0.168509 0.539445
0.103974 0.255504 0.815945
0.179735 0.182947 0.689827
-0.0805772 0.00880285 0.386101
-0.0126719 0.234848 0.798733
-0.193317 0.214852 0.349049
-0.0261975 0.201537 0.69184
0.159947 0.158979 0.571021
-0.182691 -0.0925943 0.368088
0.219854 -0.0740139 0.0109612
-0.190411 0.165876 0.600434
0.0200626 0.0539529 0.169205
-0.0173468 0.0750408 0.386101
0.126723 0.0227851 0.288772
0.153309 0.0482526 0.277967
0.229671 -0.0889912 0.024224
0.0761041 0.204088 0.718102
-0.196408 0.156911 0.497719
0.0346134 0.17434 0.342567
-0.0991915 0.182829 0.561702
-0.156971 0.168507 0.624901
0.0653274 0.186039 0.564001
0.132341 0.246915 0.788793
0.131122 -0.0321563 0.386101
-0.0687997 0.253499 0.818971
0.0447294 -0.0525725 0.268881
-0.190864 0.199991 0.346771
-0.169504 0.142472 0.341394
-0.131953 0.15105 0.525634
-0.109879 0.160342 0.465691
0.119059 -0.0649668 0.386101
0.0434908 0.0117465 0.166212
0.0604614 -0.00303681 0.283813
0.121852 0.149541 0.493331
