0.272334 -0.0796484 0.0273845
0.0160431 -0.0890594 0.323251
0.00982074 0.109318 0.319478
-0.00175699 0.148202 0.407792
-0.207681 0.161517 0.569184
0.0939842 -0.118574 0.410195
0.138864 -0.215882 0.365728
0.038742 0.00488921 0.275972
0.105024 0.0169979 0.0903019
0.0584605 0.0514185 0.281978
0.0326796 -0.195551 0.348675
-0.209817 0.153394 0.54228
-0.184231 0.183683 0.630583
0.0996365 0.150019 0.586917
-0.0398316 0.238385 0.737629
-0.153304 -0.127273 0.342891
-0.0345421 -0.167696 0.409163
-0.0897105 -0.0663589 0.327317
-0.0258698 0.0914887 0.10543
0.0584578 0.150288 0.29515
0.0721572 -0.0191422 0.283502
-0.171574 0.156057 0.550353
0.0683082 0.18836 0.415049
-0.0183582 0.119542 0.4094
0.0312451 0.00348225 0.246099
-0.0244279 0.150115 0.524642
0.0547672 0.249066 0.756327
-0.0245777 0.224123 0.330501
0.0280876 0.0454693 0.0860603
0.0320376 0.0451237 0.405996
0.0300577 -0.202367 0.350697
-0.134542 0.134887 0.406992
0.0231201 0.243928 0.309701
-0.00844462 -0.0477228 0.404944
-0.119245 0.0163013 0.309123
-0.0264937 0.090437 0.114617
0.0627526 -0.0692742 0.406857
-0.0795181 0.208712 0.695522
0.099251 0.180098 0.670204
-0.0221176 0.227368 0.752065
0.0346792 -0.0677548 0.405332
0.0795822 0.0914228 0.292903
-0.0521499 0.0339144 0.0799778
-0.0357491 -0.0434476 0.268323
-0.00027394 0.00557353 0.130726
0.13751 0.246013 0.756013
0.11471 -0.112485 0.411417
0.126269 -0.198922 0.40644
-0.183411 0.134304 0.519379
0.0366876 -0.0855565 0.291927
0.178812 0.195485 0.703741
0.000116654 0.159191 0.45993
0.140404 0.220293 0.0710682
-0.144827 0.165547 0.480538
0.0149956 0.158993 0.337825
-0.0863604 0.15265 0.542454
-0.0802339 0.0560298 0.27498
0.147707 -0.203769 0.362992
0.136555 -0.162762 0.412786
0.0897374 -0.0846759 0.327271
0.127465 0.20263 0.0908355
0.188706 -0.0118544 0.0764098
0.245543 -0.0585053 0.000121026
0.103645 0.0587144 0.327984
-0.0350154 0.070757 0.0865711
0.0387508 0.230316 0.361926
-0.117532 0.22199 0.744447
-0.0171182 -0.071377 0.30838
0.00759966 0.211924 0.38798
0.0388856 -0.17117 0.343526
0.127397 0.199395 0.0747159
0.101442 0.00117991 0.112279
0.00893516 0.021173 0.150721
0.02613 0.199339 0.678144
0.0594777 -0.233568 0.388174
-0.0827997 0.124385 0.334754
0.182482 0.160367 0.458462
-0.07654 0.224043 0.747885
0.189825 -0.0122718 0.0951365
0.236711 -0.0469171 0.0779711
0.0381311 0.182543 0.63213
0.0189488 -0.18741 0.409266
-0.272244 -0.074537 0.0385278
0.0202283 0.0752001 0.269876
0.105169 0.155466 0.501721
-0.0338741 0.249724 0.752427
-0.191778 0.190334 0.690205
0.0860247 0.11896 0.32894
-0.00373421 -0.147409 0.408203
-0.158051 0.169824 0.595661
0.185684 0.169778 0.638747
0.00970653 -0.0738424 0.0997056
0.17162 0.265064 0.0745777
0.110528 -0.00629284 0.0819727
0.0517458 0.173041 0.651342
-0.112345 -0.174434 0.412074
0.0205312 0.152305 0.539882
0.15966 -0.117844 0.411798
-0.0796244 0.180532 0.672519
0.0639934 -0.109723 0.338958
-0.0757881 0.198172 0.403456
0.0193821 -0.0258377 0.318211
-0.0100879 0.121469 0.331671
-0.00358099 0.192695 0.698352
-0.191757 0.173247 0.456852
0.192174 -0.0228384 0.397752
-0.0333463 0.0181214 0.097466
0.084035 0.257675 0.76374
-0.128541 0.144634 0.487789
0.0381913 0.0376774 0.318211
-0.168456 -0.0575168 0.32257
0.0378687 0.226114 0.31593
-0.170197 0.0799174 0.357261
0.0570857 0.0128267 0.261782
0.0131518 0.260283 0.767242
-0.190627 0.169688 0.59815
-0.0221521 -0.0158761 0.318211
0.260625 -0.0371768 0.0869142
0.0607685 0.0656623 0.318211
-0.0191125 -0.17415 0.343865
0.00632415 -0.0547476 0.115306
0.156736 0.242661 0.739705
0.0714039 0.0349961 0.251778
-0.129592 -0.179528 0.411635
-0.18665 0.173858 0.468739
-0.127625 0.171534 0.438109
0.0571414 0.237276 0.310668
0.00742344 -0.0126629 0.280334
0.0220066 -0.234343 0.0363551
-0.00695606 -0.00212847 0.122305
0.138027 0.152295 0.511327
-0.0844979 0.230052 0.751662
0.00891251 -0.242354 0.0485641
0.0233584 0.195291 0.407015
0.0737088 0.249079 0.755284
-0.0344089 -0.00146609 0.276182
-0.0412174 0.177484 0.455329
-0.191971 0.201511 0.680641
-0.0379169 0.225225 0.326363
-0.130349 0.200842 0.0838271
0.0127296 0.177074 0.45637
0.0408532 0.0149968 0.246099
-0.0801294 0.0124977 0.245004
-0.0459144 0.235163 0.354041
-0.0482702 -0.124304 0.40809
0.123295 0.161604 0.48713
0.194311 -0.109809 0.399792
-0.0821771 -0.106694 0.335583
-0.0923137 0.232512 0.730195
-0.0335459 0.226486 0.317101
-0.0752326 0.00620153 0.108984
-0.119684 -0.00850349 0.0802693
-0.0142161 -0.152741 0.33917
-0.00306611 0.256749 0.762167
0.059747 0.176043 0.366215
-0.0603867 0.137133 0.301953
-0.128593 -0.22062 0.3667
0.09421 0.0201369 0.090693
0.114987 0.242104 0.746068
0.17328 0.172595 0.47229
0.0933193 0.156175 0.103771
-0.0371614 -0.0553623 0.318211
0.0207641 0.00861566 0.246099
-0.186663 0.176993 0.45005
0.0782534 -0.138218 0.338118
0.112617 0.00850813 0.410185
0.00876659 0.246876 0.748118
0.0630159 0.0195997 0.125206
0.116532 0.00106506 0.0740554
0.09363 0.151721 0.0872753
-0.0620059 0.214355 0.302143
0.00821665 -0.144137 0.098581
0.1849 0.0640175 0.392876
0.19838 -0.0972249 0.376143
0.0147084 -0.113761 0.335796
-0.0570292 0.239278 0.341703
-0.0325616 -0.151119 0.408456
-0.190124 0.208054 0.690418
0.0381466 0.242944 0.331745
0.0483554 -0.0899253 0.335231
0.00896822 -0.121631 0.0990798
0.0319118 0.14546 0.336767
-0.125103 0.167878 0.384549
-0.0233253 -0.124355 0.34046
-0.010874 0.244643 0.320738
-0.111618 0.225626 0.750019
0.158585 0.167497 0.635615
-0.0913924 -0.0253803 0.330777
0.0320398 0.16979 0.349806
0.0338956 -0.226112 0.357775
0.0784342 0.184827 0.41997
0.0299264 0.215402 0.733559
-0.0149672 0.0320408 0.0242775
-0.0880095 0.163801 0.579689
-0.0271727 0.2237 0.338279
-0.196894 0.15205 0.528788
-0.165681 0.25179 0.081828
-0.18728 0.209739 0.714812
0.0827253 0.00293957 0.0961741
-0.0221547 0.185744 0.641276
0.0242825 0.250505 0.753234
0.139876 0.0239406 0.331992
-0.16821 0.237825 0.73508
-0.157993 0.145927 0.386686
-0.0107981 -0.238985 0.379277
-0.199317 0.152422 0.481938
0.0508879 -0.125089 0.340059
0.0105991 -0.143112 0.0859157
0.0467708 0.135622 0.513325
-0.112815 0.173705 0.462402
-0.0416085 0.218598 0.73912
0.183713 0.254262 0.0118311
-0.0936893 0.196481 0.70477
-0.0574484 0.0143795 0.257355
0.191571 0.201282 0.701973
-0.126832 0.199183 0.0937106
0.0889904 0.00277666 0.109132
0.00852809 0.0314304 0.230242
-0.266267 -0.054334 0.0804129
-0.0275073 0.157809 0.610486
0.0744957 0.258971 0.331124
-0.169586 -0.0901554 0.318283
-0.032607 0.188121 0.647841
0.106491 -0.0550405 0.335224
-0.129968 0.147939 0.581841
-0.0630216 0.247506 0.771407
0.124475 0.201673 0.712284
0.123977 0.172877 0.650449
0.140013 0.225068 0.0698214
-0.175578 0.134807 0.535822
-0.194838 -0.0242606 0.0707758
0.00187258 -0.124062 0.327765
0.0587432 0.138159 0.548112
-0.122317 -0.0972316 0.336273
0.186764 0.187314 0.642811
-0.0365976 -0.0757797 0.319282
-0.0600888 0.259421 0.767626
0.159109 -0.0326968 0.342412
0.251846 -0.0562745 0.00326011
-0.0477731 -0.0286444 0.318211
-0.186538 0.184503 0.452934
-0.0711226 0.052354 0.253674
0.265425 -0.0458882 0.0560712
0.0616765 0.161618 0.486834
0.153086 -4.52474e-05 0.0739495
0.0100094 0.0798458 0.261253
-0.00997835 0.234156 0.76141
-0.036493 0.236807 0.735416
0.173461 -0.106435 0.328249
0.173398 -0.0494847 0.351061
0.193918 -0.0165002 0.0991073
0.0347272 0.182046 0.376026
0.0796365 0.171211 0.302403
-0.0319237 -0.0279815 0.287613
0.1695 -0.201907 0.383316
0.0284557 0.0178037 0.246099
-0.117188 0.136568 0.543109
0.0278689 0.0385785 0.0735423
-0.0590935 0.0840384 0.279338
-0.173613 0.115625 0.374117
-0.0870451 0.195654 0.6688
-0.13249 0.150475 0.518161
-0.0796535 0.0606865 0.258365
0.188479 0.203531 0.707821
-0.167532 -0.191667 0.39995
0.0909572 0.146379 0.485386
-0.0355855 -0.0868487 0.332709
0.0741133 0.258498 0.314822
0.00383456 0.163802 0.450935
-0.00089077 -0.262149 0.0331022
-0.176771 0.160119 0.459109
0.0257974 0.189381 0.692929
-0.123123 -0.206791 0.359377
0.168125 0.172574 0.471591
-0.181457 0.225179 0.73227
0.145155 -0.0927022 0.412482
-0.16587 0.162945 0.573373
0.00969739 0.16627 0.343948
0.00477066 -0.126499 0.105654
0.134485 0.0300093 0.321243
0.0381029 -0.124382 0.329038
0.208874 0.153745 0.493617
-0.102825 0.190949 0.695925
0.0215451 0.137017 0.336111
0.241071 -0.0407624 0.0135026
0.266772 -0.0723884 0.0288688
-0.0784109 -0.0906214 0.296763
-0.0270612 0.241353 0.337919
-0.105668 0.168799 0.47202
-0.0276393 0.241289 0.770348
0.0324132 0.244707 0.74592
-0.274639 -0.043272 0.0437712
0.192482 -0.0369227 0.39869
-0.00144426 -0.0608225 0.0749232
-0.0988679 0.1849 0.684501
0.0338592 0.0840124 0.076705
0.0095958 -0.168999 0.409075
0.164196 0.163968 0.453113
-0.160865 0.121065 0.402134
0.0528547 0.0340596 0.318211
0.104393 0.173521 0.463742
0.0634198 0.0233721 0.407037
0.0608702 0.125842 0.118528
-0.0668341 -0.101696 0.300964
0.168493 0.228846 0.71994
0.0776974 0.109947 0.319948
-0.13705 -0.218819 0.375301
0.00193217 0.161948 0.572932
-0.0748749 0.0365635 0.318211
0.0878503 0.235217 0.763361
-0.0250487 -0.114984 0.335856
-0.0245832 0.0439096 0.142644
-0.0849758 0.185578 0.686255
0.0853534 0.175746 0.0912835
0.135944 0.179706 0.622545
0.173919 0.227016 0.0143448
0.0260808 0.171701 0.352322
-0.00977223 -0.245212 0.0398484
-0.0721967 0.177593 0.372879
-0.152857 0.0949197 0.34609
0.149478 -0.213549 0.376059
0.00988881 0.187508 0.415951
0.0481886 0.157015 0.497195
-0.121981 0.22093 0.0893359
0.0299148 0.0904169 0.122387
0.198859 0.138536 0.510466
0.0102697 0.0536474 0.405911
-0.0802824 0.188226 0.311923
-0.160551 -0.105214 0.313868
0.00896923 0.239253 0.344827
0.036179 0.0326722 0.405831
0.0355666 0.0506483 0.267706
-0.0760184 0.0323927 0.318211
0.130868 0.0278037 0.411204
-0.137475 0.245092 0.744831
-0.265643 -0.06028 0.0107059
0.139005 -0.0590179 0.336859
0.0721941 0.179088 0.667629
0.109862 0.237198 0.761598
0.142332 -0.161011 0.348755
-0.0748853 0.231013 0.755467
0.0927613 0.107965 0.410739
0.0685674 0.20624 0.3273
0.0584258 0.14034 0.298432
-0.0218874 0.147377 0.579179
0.118063 0.14273 0.562818
0.123717 0.184532 0.682107
-0.185399 0.160848 0.615758
0.123054 -0.00278979 0.335147
-0.0802912 0.0785012 0.304236
0.0454049 0.201807 0.419549
-0.0433136 0.144958 0.487536
0.0795309 0.112407 0.289769
-0.0616872 0.178255 0.45391
-0.184686 -0.0109406 0.403201
-0.159761 -0.134011 0.411635
-0.120358 -0.209822 0.359968
0.137034 -0.0988273 0.299834
-0.0182563 0.0289492 0.164614
0.197535 0.192029 0.651572
0.0584358 0.0641322 0.338933
0.00904408 -0.0192376 0.110235
0.110561 -0.190761 0.352868
-0.0467295 -0.100396 0.335414
-0.161937 0.184173 0.682934
-0.00825195 -0.239141 0.0686026
0.0536239 -0.235819 0.37264
-0.100401 0.0544353 0.323638
0.12041 -0.0395238 0.335424
-0.197188 -0.0619057 0.39322
0.0583921 0.0835203 0.326259
-0.196351 0.171933 0.45477
-0.13037 0.0698993 0.411221
0.0621506 0.178294 0.620359
-0.00878502 -0.0974645 0.335364
-0.188925 0.0452012 0.385824
0.175677 -0.109318 0.351855
0.166038 0.00270473 0.347794
-0.107065 0.173177 0.390328
0.0184823 -0.0828353 0.324177
-0.0759876 -0.140658 0.338496
0.119601 0.195331 0.391668
0.0750734 0.0362892 0.278731
-0.182787 0.161999 0.481417
-0.139436 0.202117 0.714456
0.0334049 -0.101317 0.330473
-0.18935 0.170712 0.473732
0.0354015 0.071633 0.0997273
0.157157 0.225157 0.716364
-0.0893727 -0.0561431 0.408337
-0.148703 -0.12613 0.412973
0.0541321 0.0281438 0.406676
-0.0209944 0.0343146 0.203688
0.0146057 0.195996 0.406187
0.0114902 0.0629811 0.052962
0.00313996 0.204684 0.688621
0.00595081 -0.0704874 0.0744415
0.257064 -0.039966 0.0490607
-0.0945669 -0.204351 0.406681
0.0562535 -0.235607 0.381078
0.135927 0.0323147 0.31736
0.0512908 0.189524 0.651139
0.0269584 0.0464569 0.103919
-0.199019 -0.0695054 0.380448
-0.0193352 0.0839571 0.100292
0.0321789 0.25009 0.774861
-0.0679513 -0.0612589 0.318211
0.0205231 0.0253478 0.0606407
-0.00670126 0.133941 0.409622
-0.023603 -0.0523492 0.404966
-0.131274 -0.217344 0.364045
0.0790602 -0.176276 0.346536
0.0678022 0.139247 0.502857
-0.195561 0.154815 0.543579
0.0958507 0.252994 0.756305
-0.0166854 -0.0223023 0.404823
-0.0322814 0.231605 0.312648
0.158884 0.0606221 0.408666
0.0907508 0.2367 0.367859
-0.187287 0.14664 0.485932
-0.150577 -0.0117195 0.41118
-0.284567 -0.0484042 0.0212896
-0.0172636 -0.143062 0.338033
-0.239584 -0.0584988 0.0148151
0.0567528 -0.0287141 0.406356
0.188603 0.155027 0.60155
0.111623 0.218943 0.711507
-0.0289817 0.008686 0.246099
0.0438039 0.209374 0.696121
-0.195448 0.193966 0.690791
0.0526197 0.0337642 0.0827502
0.0200552 0.197635 0.404329
0.17225 0.220074 0.734008
0.134444 0.182493 0.676502
0.0449007 0.238828 0.348647
-0.167005 0.0650444 0.406875
0.104978 0.0162121 0.0802847
0.145711 0.241146 0.0690786
0.102424 0.240022 0.763525
0.0493287 0.114679 0.40979
-0.112586 -0.218077 0.361546
0.00891704 -0.244451 0.0412629
0.150474 0.249372 0.0686938
-0.0145988 0.195683 0.406467
-0.0539855 0.218378 0.37877
-0.0768175 -0.122998 0.336495
0.150209 0.161254 0.618713
-0.110248 0.173129 0.379736
0.131075 0.18724 0.689105
0.0773886 0.226384 0.297068
-0.0505087 -0.0370014 0.291904
-0.078416 -0.0912086 0.319715
-0.0921325 0.165317 0.110157
0.0588244 0.235762 0.311167
-0.0784083 -0.0932846 0.316737
-0.0200805 -0.188359 0.347023
0.212266 0.141961 0.529725
0.138253 0.197303 0.403192
-0.164192 0.147435 0.580456
0.167984 0.221243 0.714901
-0.0555977 0.118081 0.32839
0.20303 -0.0178099 0.0706148
-0.134641 0.159144 0.396412
-0.0374496 -0.15108 0.339063
-0.0096371 -0.263104 0.0207609
-0.0462488 0.204513 0.688526
0.0403337 -0.0459064 0.405547
-0.034855 0.149361 0.585799
0.024131 0.261846 0.771731
0.0359799 0.151739 0.537277
-0.0780629 -0.000251831 0.265186
-0.169842 0.106649 0.365784
-0.169527 -0.0418284 0.409555
0.244524 -0.0488489 0.0792848
-0.087545 0.169976 0.359673
0.0126528 0.228274 0.382632
-0.0524522 0.0126054 0.10345
-0.019008 0.0833764 0.0851308
-0.169452 0.135959 0.541064
-0.110434 0.237092 0.761957
-0.00828967 0.224205 0.370756
-0.0577775 0.0495489 0.318211
-0.0260979 -0.237718 0.387128
0.0368142 -0.185171 0.346539
0.0836825 0.150423 0.521509
0.0584266 0.0679149 0.2685
-0.0242373 0.0908872 0.089542
-0.0783878 -0.103004 0.321413
-0.00967116 0.21802 0.737887
0.120088 0.226545 0.721215
0.0583404 0.119677 0.275596
-0.0199919 0.0576179 0.246099
0.0510688 0.151011 0.533087
0.15264 0.254339 0.0685171
0.116201 0.158076 0.494773
0.100884 0.244196 0.766299
0.173897 0.177087 0.64537
-0.0276957 0.0928865 0.110337
-0.15799 -0.0876501 0.34145
0.0795577 0.175126 0.298963
-0.0951729 0.181842 0.447293
0.0260032 -0.12113 0.407101
0.0576825 0.223152 0.717305
-0.193215 0.170533 0.639587
-0.0802315 0.0552301 0.274312
-0.00797548 -0.154198 0.0712658
-0.0113078 0.0699109 0.318211
0.13662 -0.102569 0.301381
-0.0353178 0.0201057 0.0772306
0.162282 0.247704 0.010998
0.15268 0.109287 0.407422
-0.0222415 0.166655 0.403179
-0.0992762 0.118482 0.335267
0.1039 0.243808 0.743887
-0.0123816 0.10925 0.319461
-0.122471 0.195156 0.3918
0.110946 0.136764 0.336714
0.089628 0.158183 0.0731033
-0.00862198 0.0208868 0.164657
-0.023887 -0.0761433 0.286592
0.190663 0.203553 0.680802
0.0617267 -0.111253 0.339146
-0.0186916 -0.101804 0.330931
-0.0395407 0.153728 0.337424
-0.143422 0.228615 0.0695932
0.140869 -0.110155 0.325389
-0.121607 -0.213335 0.361263
0.0575954 0.181478 0.424642
0.0262789 0.104965 0.318211
0.111364 -0.225662 0.385611
-0.0542992 -0.151226 0.409435
0.000954475 -0.135021 0.335625
0.199839 0.19066 0.675318
-0.153096 0.211391 0.697781
-0.071277 -0.0302306 0.261013
-0.0780904 0.0408818 0.250791
-0.270508 -0.0731267 0.0416373
-0.0623845 -0.117656 0.408512
-0.130845 0.233694 0.755706
0.0503153 0.127525 0.0909833
0.127647 -0.100822 0.411953
0.115557 0.00646442 0.410399
0.11269 0.15743 0.463886
0.029382 0.242051 0.356152
0.0730451 0.156786 0.074546
-0.176079 0.261841 0.0469493
-0.178329 -0.142926 0.356245
0.241696 -0.0706296 0.0460639
0.0243266 0.0222925 0.120941
0.0456969 0.0900858 0.115939
0.0288733 -0.0166717 0.253464
0.045308 0.245483 0.348921
-0.022211 0.191414 0.656782
0.135098 0.234283 0.73756
0.190816 0.155094 0.473811
0.167111 0.0212356 0.349514
0.0670722 0.248974 0.751515
0.259464 -0.0454093 0.047218
0.0144606 -0.0682779 0.306935
-0.111784 -0.066321 0.410138
-0.2092 0.14551 0.551341
-0.133681 0.205261 0.394943
-0.115061 -0.0839474 0.33567
0.132892 0.0836846 0.335521
0.150982 0.26382 0.0217442
0.0777925 0.0893824 0.262928
0.172307 0.0639236 0.35666
0.148475 0.243996 0.743583
-0.0430007 0.160818 0.339843
0.0718894 -0.0984644 0.335397
-0.187573 -0.0816435 0.362807
0.0789543 0.0785226 0.33763
0.0723217 0.177263 0.617467
-0.251837 -0.0655448 0.0479734
0.0157545 0.0658015 0.318211
0.0324887 0.0707629 0.114822
0.0332427 0.226504 0.750416
0.0407774 -0.202899 0.40781
-0.0601108 -0.116178 0.309258
-0.142396 0.0270678 0.314735
0.270565 -0.068347 0.0444289
0.124387 0.152139 0.538111
0.00509911 0.262758 0.769305
-0.0216306 0.251043 0.758436
-0.0216534 0.16742 0.636553
0.0699939 0.109675 0.267372
-0.0155231 -0.0828335 0.324069
0.158002 0.200318 0.427187
0.183168 0.257338 0.0100377
0.133707 0.108134 0.338144
-0.0853398 0.225337 0.35215
-0.147691 -0.0167726 0.101924
-0.176085 0.221046 0.733818
-0.00860733 -0.15481 0.0894375
0.0956513 0.17115 0.600594
-0.213588 0.146427 0.524721
-0.195041 0.152576 0.478807
-0.152632 0.158215 0.612374
-0.0332048 0.249357 0.33388
-0.130977 0.141093 0.496716
0.0541263 0.157767 0.495211
-0.000851268 0.138944 0.503232
0.106774 0.00746406 0.074452
0.0216933 0.243503 0.331452
0.122505 0.0288959 0.30718
0.10021 -0.0548462 0.409227
-0.111587 0.15408 0.548098
-0.00905709 -0.0435128 0.105054
-0.153441 0.216701 0.728285
-0.00795277 -0.0584893 0.11118
0.0722068 0.107345 0.297874
0.0503315 0.0220173 0.259637
0.0801521 0.228936 0.724913
0.077405 -0.154929 0.410458
0.0263047 0.120286 0.409439
0.138623 0.00502244 0.0815108
-0.204493 0.138028 0.537484
-0.000631377 0.116756 0.326938
-0.0865157 -0.155309 0.410872
-0.112825 0.0921678 0.41111
0.0467743 0.231359 0.360326
-0.150727 0.00576577 0.338798
0.00661558 -0.193372 0.0934969
-0.122601 0.221379 0.0911323
0.132592 0.000793604 0.41134
0.0242203 -0.221134 0.356265
0.0771772 -0.0963124 0.328079
-0.029518 0.0318752 0.130677
0.0596737 0.166239 0.446423
-0.15125 0.168634 0.593027
0.0536102 -0.0294005 0.288391
0.0583664 0.0969086 0.280302
-0.187891 0.156159 0.495244
-0.149018 -0.041123 0.411756
0.0790288 0.15955 0.490962
0.0966967 0.0295902 0.409289
0.0142312 0.224101 0.326312
0.0270194 0.0599301 0.10155
-0.0399889 0.0379322 0.102875
-0.172164 -0.00780844 0.331018
0.078974 0.177291 0.28707
0.0234042 -0.070766 0.308135
0.176766 0.155772 0.482346
0.177659 0.150253 0.478201
0.153337 0.147733 0.578997
-0.0590352 0.242869 0.325532
0.0594279 0.110269 0.0752422
-7.12888e-05 -0.200187 0.0693918
0.108453 0.159703 0.564805
0.0259223 -0.173158 0.409184
0.0593853 0.0218547 0.0764227
0.263607 -0.0723947 0.0288764
-0.0280236 0.0453732 0.0911246
-0.0800079 -0.070636 0.407821
-0.0247356 0.0334784 0.405311
-0.0257433 -0.124869 0.330213
-0.0173946 -0.0530514 0.40497
-0.129031 0.16221 0.574684
0.188181 0.0479433 0.377163
0.163096 0.219613 0.717004
0.142734 0.0299419 0.315078
0.0303143 -0.22262 0.403041
0.134429 -0.135835 0.341073
-0.0414545 -0.143842 0.338283
-0.0266198 0.0473711 0.105098
-0.111001 0.0283461 0.410184
0.275639 -0.08104 0.0356429
-0.0732343 0.230166 0.366203
-0.179537 0.103137 0.377539
-0.183007 0.225613 0.0294479
-0.0536196 -0.00989611 0.318211
-0.0162834 0.217866 0.398164
0.0776636 -0.12517 0.409369
0.0383127 0.00042549 0.405306
-0.187187 0.0104144 0.368572
-0.195021 -0.0240322 0.0707751
-0.153996 -0.0285183 0.34004
-0.0331864 0.198021 0.674916
-0.0534622 0.257432 0.773637
-0.164117 -0.0542899 0.410305
-0.143535 0.151676 0.594239
0.0934043 0.1464 0.575066
0.0844883 -0.0402028 0.40795
0.0858153 0.174983 0.460809
0.0561457 0.259443 0.76542
0.204243 -0.0209839 0.070476
0.0606513 0.142733 0.276021
-0.0118693 0.0192094 0.275972
0.169552 -0.00402599 0.0901186
-0.185051 0.253902 0.0398416
0.124997 0.174646 0.655248
-0.0493166 -0.00698011 0.318211
-0.00266421 -0.26645 0.043205
-0.0241594 0.20374 0.416998
-0.164206 0.162531 0.452644
-0.0803466 0.101967 0.293621
-0.067807 0.11855 0.328886
0.198282 0.192283 0.652456
-0.0615772 0.0843936 0.30956
0.206903 0.147468 0.498238
0.0532499 0.204552 0.415321
0.0089997 0.245335 0.350839
0.0795361 0.190396 0.298516
-0.0509355 -0.0601132 0.318211
0.0199982 -0.0560658 0.318211
-0.0611541 0.192173 0.43305
-0.00603805 0.231702 0.376497
-0.00117273 0.16957 0.349103
-0.0354525 -0.0715491 0.308441
0.165922 0.161636 0.455908
-0.119918 0.121987 0.410207
0.0271913 -0.0396631 0.293267
-0.0752738 0.166424 0.350767
-0.000867326 0.00246838 0.275972
0.000944693 0.028608 0.205045
-0.0773355 0.149679 0.337402
0.0707393 0.13632 0.510636
-0.00774319 0.243503 0.321639
-0.182243 -0.147422 0.405473
0.154874 -0.144494 0.412445
0.0972765 -0.120063 0.410458
0.048715 -0.119797 0.340198
-0.0575024 0.19491 0.702116
0.0917553 0.166526 0.446013
0.067925 0.217134 0.347416
-0.000166561 -0.0802828 0.405533
0.164358 -0.0822835 0.316403
0.0854168 0.176526 0.087822
-0.0306251 0.195614 0.668319
0.111913 -0.0522835 0.410147
-0.0241148 0.0193409 0.0856331
0.0106776 -0.25019 0.00646134
0.0420754 0.254078 0.758299
0.0364105 -0.0276742 0.405285
0.028901 0.0311033 0.275972
0.131086 -0.11077 0.337609
-0.078398 -0.0998066 0.326988
0.0119321 0.114702 0.324856
0.0267118 0.0794586 0.127759
-0.183239 -0.140287 0.359125
-0.136726 0.0378707 0.30718
0.197049 0.161643 0.562768
-0.0815443 0.196339 0.405535
-0.0148109 0.246763 0.747802
0.0337027 0.0376024 0.123404
0.0508144 -0.0990513 0.299614
0.108083 0.251745 0.765032
-0.0888037 0.179522 0.0837988
-0.204949 -0.0182654 0.0907828
-0.194555 -0.0575994 0.398046
-0.0106183 -0.0120719 0.0910214
0.208759 0.152014 0.562697
0.0727044 0.0273398 0.100398
0.0445691 -0.237264 0.375169
0.09696 -0.207951 0.405571
-0.0592321 0.114991 0.28136
-0.075811 0.0109664 0.119484
0.199127 0.13653 0.522205
0.00371074 0.190368 0.653754
-0.0219182 -0.262851 0.03339
-0.0482282 0.0213802 0.274682
0.177732 0.198977 0.707728
0.0442048 0.23378 0.757378
-0.129743 -0.221384 0.383856
-0.0387982 0.164392 0.581248
-0.0803551 0.106247 0.296236
0.0711728 0.247078 0.302443
0.0750263 -0.165577 0.343744
0.0962388 0.150069 0.478198
-0.0302825 -0.033335 0.318211
-0.0442282 0.243494 0.320561
0.00886344 -0.0214634 0.111525
-0.120563 0.222889 0.0801916
0.0865258 0.173876 0.608105
0.173438 0.173603 0.602021
-0.00560044 0.236376 0.763243
0.0738996 0.171131 0.468279
0.152102 0.268493 0.0746804
-0.0405648 -0.0845893 0.318198
-0.0256339 0.127839 0.335404
-0.033796 -0.0788522 0.288092
0.18806 0.0428553 0.392175
-0.272256 -0.0713709 0.0426626
-0.166563 0.236345 0.0173924
0.0555274 0.115791 0.119842
-0.159408 0.153729 0.600235
0.0950794 0.206216 0.408686
-0.188339 0.141784 0.562072
0.192708 0.0121982 0.388377
-0.153994 -0.210578 0.388882
0.0542702 -0.0794917 0.288565
0.16035 0.0925324 0.407002
-0.115303 -0.0696546 0.335675
-0.179097 0.191942 0.699112
-0.0106023 -0.099686 0.0876147
0.0583954 0.134128 0.284097
0.066296 0.139072 0.503314
-0.0813202 0.211258 0.310463
0.119983 -0.101403 0.336176
-0.0257682 0.239901 0.346712
-0.0773948 -0.0829414 0.4081
0.128487 0.0923622 0.411133
0.0541925 0.17028 0.469857
-0.255958 -0.0440789 0.090825
-0.127307 0.0345617 0.318211
-0.0325258 0.175754 0.614019
-0.054881 -0.0665445 0.281193
-0.000139564 -0.238727 0.374428
-0.184542 0.25963 0.0119033
-0.0104779 -0.122468 0.0841502
-0.0590132 -0.0456361 0.318211
0.0736353 0.18258 0.632005
0.0651961 0.25701 0.335045
0.0414572 0.150968 0.516445
-0.142981 0.221114 0.713611
0.0898926 -0.230633 0.370536
0.126638 -0.118177 0.412238
0.0571004 0.00700957 0.249968
0.0998374 0.160747 0.0815766
0.101675 0.137826 0.50682
0.0778055 0.126174 0.300723
0.0676082 0.257843 0.338741
0.172399 0.201336 0.676628
-0.19581 0.139186 0.503206
0.0620639 0.0903165 0.318211
0.0918212 0.157616 0.34173
0.159348 0.128531 0.363603
0.143998 0.225838 0.0187717
0.0136747 0.0294927 0.0266867
-0.0570748 0.0808436 0.408313
0.129092 -0.179442 0.411582
-0.078406 -0.0426603 0.292862
-0.120477 0.14335 0.339916
0.0364018 0.00323477 0.246099
0.000926692 -0.256048 0.0123153
-0.0698419 0.00202447 0.267495
-0.0303578 0.226724 0.722009
0.131485 0.161176 0.369081
-0.093583 -0.0137164 0.335181
-0.179276 -0.162186 0.404941
0.187955 -0.0199784 0.0710738
0.0906535 -0.0109088 0.329642
-0.146458 -0.0161992 0.102765
0.00589158 -0.228925 0.0397266
-0.0503028 0.221186 0.743169
0.086446 0.165018 0.350594
0.0432329 0.108933 0.075636
0.120072 0.22418 0.395211
0.245378 -0.0352792 0.0336066
0.104921 0.214594 0.732674
0.0087723 -0.0102102 0.11332
0.0919247 -0.137408 0.3383
-0.0812622 0.151102 0.51312
0.148837 -0.165237 0.412134
0.0758465 0.238391 0.737473
-0.172483 0.216624 0.730803
-0.0582808 0.120697 0.331011
0.190326 0.147427 0.577695
0.0489334 0.201439 0.419835
0.0832622 -0.0277026 0.318211
0.200698 -0.0345725 0.0847851
0.149743 0.155244 0.377586
0.154758 0.263139 0.0298713
-0.0724099 -0.104364 0.334027
0.192256 0.155788 0.601683
-0.203299 0.164915 0.485377
-0.189591 -0.017147 0.0711548
-0.193628 -0.0264371 0.373758
-0.125467 0.151746 0.402882
0.136399 -0.0117919 0.0731388
-0.25599 -0.0742641 0.0264512
0.0548668 0.224671 0.339409
0.117411 0.19783 0.100455
0.0796726 0.0524017 0.266924
-0.0727245 0.194475 0.428382
0.000230752 -0.116068 0.335918
0.0214407 -0.125438 0.407266
0.00690338 0.0217166 0.0492845
-0.15242 0.227215 0.0235616
0.0922871 0.0212783 0.0960847
0.0431659 0.231669 0.75864
0.0548538 0.176377 0.660382
0.166425 0.10225 0.359597
-0.0785357 -0.00574691 0.24912
0.179493 0.223995 0.714641
0.0492983 0.141038 0.557778
-0.0679063 0.168766 0.281216
0.176493 -0.0277314 0.0785393
0.0583605 0.099949 0.281582
-0.142846 0.0970325 0.409579
0.00600505 0.225738 0.720838
-0.0858026 0.0299635 0.408515
0.0416914 0.148388 0.48123
0.149702 0.0047527 0.411034
-0.0315922 0.206568 0.72073
0.0794735 0.229856 0.338099
0.192756 0.164204 0.577421
0.00502183 0.171955 0.603376
0.108251 0.0564972 0.325438
-0.169746 0.238166 0.736416
-0.0553799 0.189018 0.650433
0.136164 0.0950946 0.33729
-0.00666078 0.024702 0.0413363
-0.102822 0.163968 0.627677
-0.0911721 -0.163734 0.411258
0.259454 -0.048584 0.0560712
-0.043391 0.233102 0.730763
0.212498 0.149629 0.533086
0.15303 0.255027 0.0120464
-0.0608973 0.155213 0.285371
0.021596 0.183172 0.377113
-0.163685 -0.0215209 0.345373
-0.203959 0.166245 0.5866
-0.0833635 0.0793734 0.409373
0.0303107 0.248865 0.341708
0.124696 -0.160497 0.412786
-0.147873 0.226249 0.084202
0.179347 0.184759 0.678739
-0.0656507 0.229582 0.299993
-0.124575 0.162331 0.623368
0.15397 0.236199 0.0190891
0.195496 0.1574 0.500642
-0.197312 -0.156595 0.373331
-0.0695609 0.162379 0.403635
-0.0474895 -0.237116 0.377813
0.0067403 0.262672 0.77197
-0.0999801 0.154714 0.602524
-0.110747 -0.214679 0.360206
0.000361349 -0.264013 0.0456371
-0.150296 0.237991 0.752755
0.13379 -0.181727 0.410703
-0.0865856 0.158175 0.34135
-0.0671922 0.058632 0.257839
0.0575978 0.160394 0.340538
-0.0268268 -0.00519308 0.404741
-0.0802453 0.0606808 0.261459
0.109508 0.206208 0.0949933
-0.192679 0.213458 0.706912
0.158379 0.106266 0.406023
0.00806962 0.135756 0.511746
0.122983 -0.103711 0.305179
0.107294 0.0331606 0.318211
-0.0509273 0.101849 0.0756973
0.0469316 0.248681 0.328792
-0.0863961 -0.0762974 0.320118
-0.197459 -0.0731687 0.377079
0.161722 0.0903088 0.406667
-0.192883 0.179618 0.621964
-0.157027 0.11571 0.404826
0.0626375 -0.0149322 0.281481
0.168441 0.0733399 0.405351
-0.159124 0.266306 0.0518301
-0.0660567 0.0732548 0.318211
0.0678835 -0.231574 0.362267
0.14346 0.202948 0.714519
0.198392 0.160034 0.497745
-0.0728273 0.250835 0.771295
-0.135542 0.023712 0.30718
0.12996 0.0409042 0.41114
0.253536 -0.0426513 0.0359961
0.015104 0.135437 0.514167
-0.107598 -0.203471 0.40634
-0.051357 0.176574 0.431221
-0.00487639 0.138353 0.504774
-0.276216 -0.0417475 0.0422087
-0.0751135 0.0269244 0.0924786
0.120652 0.220255 0.386713
0.0477731 0.16393 0.342809
-0.0502872 -0.0986437 0.299243
0.0618085 -0.0413155 0.318211
0.0246413 0.0570382 0.124054
0.191811 0.182395 0.626778
-0.0423222 0.257782 0.76502
0.00957065 0.0328227 0.243667
0.0106103 -0.102997 0.332541
0.0218377 -0.0489569 0.40495
-0.0179283 0.172815 0.651179
-0.148818 0.148712 0.398002
-0.080242 0.0586165 0.277646
-0.104581 -0.00173015 0.409582
-0.194142 -0.16706 0.374357
0.0581219 -0.16564 0.410039
-0.0574333 0.00547189 0.26111
0.118342 0.161663 0.486994
-0.169294 0.161729 0.45419
-0.140175 0.234174 0.0258142
0.0666665 -0.0940927 0.327534
0.0566316 0.116635 0.119193
-0.0369876 0.158557 0.492517
-0.162366 0.160786 0.566726
-0.180709 0.159456 0.458581
0.114159 -0.168917 0.412357
0.0205319 0.0731384 0.246533
-0.0784093 -0.0920855 0.302487
0.101158 0.131282 0.40966
-0.143019 -0.0580577 0.411904
0.112032 -0.210849 0.40263
-0.0426488 0.140907 0.558053
-0.0328783 0.0600836 0.249655
0.195375 -0.0141581 0.0739631
-0.0396142 -0.0824168 0.315603
0.253592 -0.0649978 0.0449541
0.0248683 0.165156 0.448379
-0.185411 0.0745714 0.380372
0.168919 0.185683 0.63474
0.0650266 -0.0431961 0.268316
0.0272071 0.185234 0.639556
0.159158 0.188984 0.442419
0.062762 -0.2097 0.4057
0.0632771 0.0626135 0.407959
0.284506 -0.0440402 0.0245138
-0.104533 -0.222291 0.361791
-0.119065 0.215437 0.0956441
0.0770179 0.128945 0.0876189
0.0950883 0.135147 0.532638
-0.0159967 0.0409911 0.318211
0.152027 0.145367 0.571225
-0.0217269 0.0265092 0.0567065
0.11715 0.153127 0.596849
0.0750722 0.179182 0.283803
0.0818605 0.149783 0.111054
-0.148203 -0.185545 0.408066
0.00824989 0.154312 0.504212
-0.140709 -0.102999 0.412383
-0.196541 -0.0129999 0.0784798
-0.0356851 0.218636 0.378464
-0.0529834 0.0152404 0.246099
-0.123058 -0.0489546 0.410953
-0.00329456 -0.121645 0.340411
0.0637951 0.181258 0.31606
-0.055526 0.23272 0.357825
-0.106164 0.133982 0.523275
-0.180235 0.0174504 0.359608
0.000103205 0.0842284 0.318211
0.0781733 0.246667 0.361303
-0.128662 -0.0580516 0.335687
-0.00574935 -0.0724019 0.284527
0.0514227 0.225347 0.327503
-0.148796 0.156438 0.553856
-0.108521 0.14986 0.522363
-0.122516 0.149334 0.40443
-0.0525672 0.233341 0.754638
0.153805 0.0542129 0.409397
-0.0739428 -0.156523 0.341187
-0.0587985 0.145236 0.57241
-0.0884057 0.0840384 0.323694
0.141007 0.249712 0.0864439
-0.161393 -0.0703895 0.343704
-0.130131 -0.0454571 0.335503
0.188425 -0.182297 0.384288
-0.0710734 -0.110721 0.408682
-0.00975712 -0.251139 0.0430503
0.0613495 0.22125 0.390288
0.0759465 0.171903 0.359517
0.188353 -0.153264 0.365418
-0.0232547 -0.237181 0.361161
-0.18871 0.0466741 0.3776
-0.0927939 -0.118464 0.336316
0.114913 0.226135 0.747952
-0.154456 0.26493 0.0844153
-0.140208 0.119263 0.408329
-0.00812437 -0.0682621 0.108032
-0.000511036 0.234556 0.371345
0.141718 0.231605 0.734814
0.0169309 -0.0369957 0.29198
-0.140672 0.0396329 0.411419
0.163773 -0.0850127 0.322981
-0.0224142 0.254445 0.76067
0.0138855 -0.0584052 0.318211
0.0699545 0.0114416 0.0758712
0.152164 0.180629 0.454946
-0.102558 0.163882 0.62744
0.0501886 0.180799 0.45014
0.0431316 0.00165783 0.318211
0.197472 -0.0816408 0.394245
0.00942697 0.15069 0.518015
-0.186043 0.199889 0.67778
-0.166741 0.170957 0.647071
0.128403 0.202014 0.392897
0.0314256 -0.0657936 0.318211
0.00888949 -0.233106 0.0403728
0.182975 0.135031 0.529129
0.165339 0.22951 0.0254556
0.0347421 0.18631 0.417725
-0.0589974 0.0433979 0.26301
0.0232417 0.135341 0.515074
-0.0614786 -0.215621 0.356255
-0.079271 0.155527 0.5004
0.056633 0.205674 0.413582
-0.0081287 -0.120471 0.315032
0.189799 -0.0499597 0.366231
-0.135255 -0.0449766 0.411587
-0.181947 0.153511 0.599792
-0.145559 0.0992276 0.341514
-0.12706 0.229194 0.0720714
-0.102239 0.194551 0.0916168
0.190209 0.142988 0.559003
0.122702 -0.0969806 0.336296
0.13128 0.160107 0.565448
0.229676 -0.0228105 0.0782602
-0.153383 -0.106333 0.340827
-0.0433827 0.144662 0.57041
-0.119882 0.210944 0.382716
-0.0567751 -0.0636507 0.318211
-0.182782 0.158903 0.459654
0.0832158 0.240552 0.740318
0.0928978 0.134928 0.51954
-0.0443715 0.134524 0.529408
0.0286191 0.0636779 0.275952
0.040878 0.178617 0.428636
0.0743803 0.0120739 0.271824
-0.156761 -0.0018152 0.0727977
0.020511 0.0150981 0.275972
0.063669 0.0113583 0.0760768
-0.183815 0.17179 0.646047
0.0632217 0.126652 0.410051
0.149266 -0.116163 0.412865
0.142282 0.16815 0.44379
-0.204029 0.145508 0.49766
0.199594 0.155948 0.547248
0.0563196 -0.0244846 0.286044
-0.142694 0.251667 0.0499497
-0.113103 0.134996 0.536268
-0.163243 -0.0025512 0.409714
0.0566387 -0.234635 0.363992
0.126162 -0.0941365 0.336522
0.0832171 0.114719 0.410599
-0.158959 0.16167 0.621797
0.157518 -0.125115 0.344382
0.189743 0.155891 0.544869
0.273005 -0.056417 0.0503636
0.13315 0.216396 0.0956472
-0.0721896 0.194468 0.665455
0.106169 -0.0204518 0.335178
0.0724427 0.000148415 0.265234
0.119801 0.146815 0.405974
0.0789407 0.0970506 0.409942
-0.020214 -0.228318 0.0182464
-0.00933577 -0.181177 0.0733341
0.0251277 0.0740946 0.406529
-0.143682 0.0147123 0.33592
-0.140179 0.235377 0.0257123
-0.0584465 0.164021 0.344839
0.061446 0.117508 0.410096
0.207772 0.150619 0.497199
-0.0779579 -0.0966634 0.335359
0.187877 0.188834 0.645775
-0.129928 -0.127384 0.412675
-0.113714 0.234506 0.732647
0.0413915 0.0734887 0.407244
0.0224348 -0.00862126 0.404758
0.099551 0.0185961 0.40933
-0.17295 0.26713 0.0150393
-0.14063 -0.0988825 0.337978
0.00498807 0.176039 0.614548
-0.1372 0.00314517 0.0733093
-0.0581906 0.16386 0.344546
0.0700796 0.225828 0.362393
0.168224 0.131527 0.38002
0.135319 0.192606 0.43146
-0.0143633 0.0237753 0.154743
-0.000319139 -0.236441 0.0182625
0.0353352 -0.102698 0.30168
0.272809 -0.0806217 0.0374012
0.241964 -0.0725453 0.00524488
-0.0633423 0.0902572 0.283032
-0.0647837 0.220788 0.390129
0.13875 0.221449 0.0699811
-0.0267391 0.230442 0.361493
-0.200359 0.166736 0.583208
0.173575 0.186154 0.660171
0.0864796 0.177619 0.385999
0.013882 0.0178333 0.275972
0.00471504 0.120739 0.330908
-0.199187 0.159776 0.608329
-0.120718 0.171118 0.438721
-0.181582 -0.0956333 0.355553
-0.11655 0.000529189 0.115026
-0.17171 0.234493 0.728637
-0.0206256 0.0610257 0.318211
-0.212038 0.148543 0.516962
0.206698 0.158014 0.590982
0.0895434 0.16815 0.108965
-0.174307 0.044265 0.404955
-0.196647 0.198784 0.674704
0.00928484 -0.106517 0.0840681
-0.000799144 0.159457 0.406259
-0.0595855 0.15194 0.303115
-0.0878704 0.092411 0.322486
-0.0203834 0.150178 0.407532
-0.167264 0.150789 0.523562
0.025388 -0.198334 0.408872
0.169929 0.194101 0.689121
-0.119287 -0.08968 0.411256
0.0501131 0.176873 0.396555
-0.0916485 0.16257 0.349099
0.0957673 0.200354 0.417816
0.106278 0.158746 0.348386
-0.0332195 0.139107 0.502586
0.0873182 0.206964 0.72091
-0.0491785 -0.0225126 0.284977
0.269024 -0.0408311 0.0562233
-0.12915 0.166586 0.383906
0.0172932 0.0812965 0.406925
0.0245669 -0.045186 0.269375
0.156848 0.248925 0.0402333
0.0154777 -0.0994282 0.3354
0.0407427 -0.0869496 0.334871
-0.126569 -0.149987 0.343577
-0.0590598 0.071382 0.329637
-0.173684 0.187983 0.446674
-0.146328 -0.148679 0.346206
-0.0687112 0.151631 0.308622
-0.015048 -0.0336466 0.318211
0.0148283 -0.224906 0.0287978
0.0583629 0.125956 0.277052
0.0179295 0.177313 0.663157
0.112996 0.171912 0.466922
-0.0604457 0.170253 0.400534
0.134276 0.190214 0.423535
0.0725794 0.0858542 0.318211
0.0355225 -0.0254586 0.405231
-0.0756815 0.194509 0.701539
0.181592 0.249597 0.00127283
-0.189864 0.136304 0.533896
-0.021592 0.176074 0.458175
0.0666391 0.181512 0.424624
-0.00169247 -0.0887627 0.112995
0.0627734 0.165674 0.281123
-0.050702 -0.101767 0.301027
-0.00573784 -0.0665006 0.405034
-0.130825 0.170824 0.46851
-0.0317913 0.175046 0.612077
0.0412096 -0.0886645 0.322895
-0.120731 0.0946973 0.335875
0.197019 -0.142073 0.394712
0.00875857 0.168408 0.639034
-0.195245 0.152115 0.592971
0.0752357 -0.010271 0.407349
0.0855526 0.0788125 0.409577
0.078577 -0.108892 0.325598
-0.150511 -0.207159 0.396356
-0.065963 -0.105172 0.335073
-0.0662165 0.175446 0.366686
0.115163 0.158275 0.35201
0.169921 0.146176 0.573743
-0.163865 0.150333 0.476485
0.0137071 0.249943 0.323615
-0.0376138 0.234077 0.759039
-0.166578 0.23634 0.732915
0.0125242 0.171054 0.600867
-0.0512325 0.159489 0.565318
0.175774 0.1985 0.707083
-0.154628 0.266161 0.0819869
0.0152805 0.0462986 0.405691
-0.0866 -0.00447246 0.320219
0.0268597 -0.0501021 0.404956
0.075967 0.161237 0.0829679
-0.0923874 0.151097 0.0807165
0.00292999 0.0218695 0.0492845
-0.0663482 0.215487 0.706543
-0.113401 0.0188664 0.410278
-0.168992 -0.170978 0.358815
0.113697 0.0116632 0.110333
0.0132968 -0.204003 0.407712
0.0601552 0.105725 0.0942887
-0.0384029 0.257191 0.764079
-0.111427 -0.155624 0.343171
0.157426 0.23101 0.0418185
-0.166663 0.24749 0.0505878
0.0509974 -0.232748 0.392747
-0.114286 0.198569 0.384605
0.132491 0.143649 0.565736
0.112105 0.226878 0.38383
-0.0447995 0.209927 0.725987
-0.0399902 -0.0249384 0.318211
0.00306624 -0.063792 0.279732
-0.178572 0.15954 0.561029
0.0295145 -0.00200176 0.246099
-0.0270492 -0.122994 0.323668
-0.00285377 0.141486 0.559668
-0.205369 0.155605 0.59146
-0.16877 0.0215662 0.350564
0.0780255 -0.0773464 0.288799
0.0794989 0.137374 0.285407
0.157201 0.16974 0.641714
0.0770978 0.148626 0.306424
0.0707376 0.145995 0.48604
-0.00299723 -0.148637 0.0714849
-0.152811 0.186972 0.643033
0.190954 0.158596 0.609577
-0.138665 0.00915767 0.328807
-0.0329611 -0.0276733 0.405106
-0.0484873 0.231557 0.374221
-0.173244 0.18665 0.448323
0.0459662 0.178192 0.368785
0.06583 0.224065 0.354613
-0.0916898 0.14868 0.48005
-0.0802831 0.0756278 0.336439
-0.155861 0.247642 0.0908334
0.107553 0.246183 0.74689
-0.103399 0.205818 0.719792
-0.177816 0.102468 0.375018
0.100753 0.136568 0.510155
-0.0476112 -0.00572399 0.276952
0.202384 0.152922 0.512823
-0.179583 0.180169 0.63685
-0.180312 -0.0686106 0.355292
0.0155016 0.0417941 0.318211
-0.202903 0.146219 0.5689
-0.0516083 0.165461 0.631415
-0.0962363 0.195773 0.424419
0.027429 0.181109 0.449986
0.182464 0.236888 0.0098269
-0.0879226 -0.225183 0.361169
-0.25081 -0.0553497 0.0011604
-0.0754592 0.159806 0.616201
0.249193 -0.0307033 0.072457
0.0378009 0.237537 0.736405
-0.00539879 0.173204 0.463866
0.0808973 0.159774 0.490534
0.104048 0.15154 0.405934
0.0539425 0.130366 0.106941
0.141232 0.144098 0.49042
0.124796 0.00839421 0.107314
0.0306129 0.10122 0.0958563
-0.0954046 0.183661 0.101036
-0.00445125 0.00732602 0.0742083
0.0802214 0.232745 0.75961
-0.0873984 0.0203169 0.110673
-0.00163706 0.194014 0.408409
0.0527265 0.227211 0.381284
-0.156048 -0.0193039 0.0723395
-0.0082125 0.148412 0.407763
-0.0228459 0.064817 0.318211
-0.0964031 0.0896408 0.335178
0.056756 -0.214738 0.404555
0.144475 0.174596 0.607619
0.109461 -0.202581 0.356538
-0.117118 0.0411237 0.308874
0.0275791 0.13841 0.549308
0.0561805 -0.0869595 0.321124
-0.02629 0.0293868 0.0681305
0.216946 -0.0212253 0.0912765
0.240974 -0.0753174 0.0372305
0.101091 0.176749 0.457423
0.131799 -0.127723 0.339431
0.261459 -0.0566188 0.0398848
-0.0526368 -0.133699 0.337212
-0.000506944 -0.245778 0.074833
-0.0339135 0.257844 0.775343
-0.179028 0.00784812 0.356927
0.174308 -0.0440091 0.35178
0.0401083 0.139847 0.336328
-0.263889 -0.0344738 0.0264954
0.00822543 -0.216115 0.0875936
-0.00871109 -0.237079 0.0595474
-0.0754636 0.21043 0.389461
-0.144516 0.0616686 0.410601
-0.030863 -0.135751 0.337171
0.116327 0.152127 0.538144
-0.0330647 0.0595846 0.256759
-0.0350305 0.0704113 0.0908047
-0.0880519 0.114284 0.410711
-0.068473 0.155831 0.553501
-0.0172212 0.121358 0.409442
0.12763 -0.1027 0.304114
0.0371753 0.110116 0.320212
0.254933 -0.0369454 0.0649905
-0.184464 0.249255 0.00736056
-0.0607358 0.0805094 0.32713
-0.10363 0.249535 0.752183
-0.0167815 0.213088 0.404579
-0.161804 -0.207413 0.380222
0.00174535 0.254191 0.757329
-0.0638439 -0.0860692 0.319871
-0.188673 0.158974 0.463363
-0.154338 0.138057 0.504624
0.111247 0.24521 0.764522
-0.0621543 0.217099 0.301781
-0.045567 -0.086601 0.406606
-0.0850094 0.172223 0.397794
-0.0995786 0.142023 0.494442
-0.000491159 0.216882 0.381043
0.00595974 0.172785 0.464737
-0.122017 0.19291 0.427531
0.0513272 0.230595 0.313037
0.00894795 -0.258486 0.0412962
-0.130267 0.202996 0.416263
-0.00592045 0.252586 0.775089
0.205376 0.1532 0.576179
0.0728719 0.201875 0.41777
0.0607668 -0.129762 0.33684
0.0488875 0.256992 0.772823
-0.180068 0.248837 0.000172169
0.169456 0.164888 0.450714
0.0987171 0.0666714 0.335197
0.189244 0.149481 0.513783
-0.142855 0.153839 0.545948
0.111858 -0.102372 0.335958
-0.00524125 0.18103 0.372176
-0.00799675 0.0674345 0.406324
0.0797255 0.0305747 0.25697
-0.0422184 0.0263356 0.12915
-0.067274 0.239977 0.751859
-0.0769417 -0.00608483 0.40743
-0.0450008 0.140692 0.498303
-0.190809 -0.00205426 0.397829
0.0108329 0.194724 0.429744
0.163928 0.176851 0.611663
-0.0485261 0.000553032 0.246099
0.0317289 0.07086 0.120226
-0.11564 -0.140891 0.33995
-0.0896886 0.229319 0.750743
0.00848218 0.23787 0.755947
-0.0738681 0.18946 0.693429
0.0711237 0.0335195 0.248853
-0.131167 0.177402 0.618834
0.0250141 0.0561416 0.122231
-0.133282 -0.0959663 0.412148
0.030327 -0.0247897 0.286159
0.0103899 -0.00612568 0.100303
-0.163256 0.159798 0.563407
-0.0251694 0.0265681 0.128866
-0.0646407 0.145253 0.572511
0.000812635 -0.0559677 0.318211
0.0941876 0.178691 0.105514
0.284551 -0.0612582 0.0131807
0.168762 0.149987 0.586289
-0.0583701 0.190611 0.412137
0.0120101 0.158204 0.560619
0.0504835 0.134898 0.531025
-0.045446 -0.081988 0.323003
-0.182832 -0.161685 0.362877
-0.00327612 -0.05678 0.0750763
-0.0527181 -0.0835978 0.316977
-0.0202902 0.161755 0.405263
0.0619183 0.204695 0.414593
-0.11377 0.0708649 0.410826
0.0017863 -0.0843826 0.0739426
0.0171425 -0.0800597 0.32163
0.109048 0.153058 0.472417
-0.00781496 -0.266878 0.0254556
-0.0232367 0.125242 0.335201
0.0794079 0.172786 0.286467
0.197458 -0.0704284 0.377346
0.0684682 0.187338 0.41638
0.194598 0.15487 0.505548
0.0608802 -0.00341074 0.248436
-0.102808 0.198734 0.0823679
-0.127761 0.166837 0.38684
-0.154918 -0.000914767 0.340512
0.0795659 0.0988204 0.295954
0.00893091 0.11787 0.328029
0.0142582 0.168029 0.443544
0.125997 0.0747508 0.33529
-0.175028 -0.039919 0.408805
0.0538985 -0.0460578 0.406259
-0.0491375 -0.150719 0.409188
0.116013 0.0317642 0.30718
-0.0625107 0.0213713 0.0763354
-0.171232 -0.0956703 0.409791
0.0609325 -0.00233483 0.255652
0.0156052 0.147187 0.407927
0.115084 0.196732 0.400447
-0.0142498 0.03172 0.246099
-0.059086 0.0798971 0.270116
0.00515491 -0.25094 0.0504938
0.0764271 0.0331233 0.318211
0.0422447 0.184614 0.42015
0.103758 0.197317 0.0988471
0.241052 -0.0743181 0.0122386
0.123561 0.0754682 0.335298
-0.0837579 0.0196211 0.318211
-0.0607955 -0.00237639 0.260564
0.0767256 0.243247 0.303626
0.143561 0.166334 0.446615
0.111405 0.210224 0.725917
0.0529747 0.0994527 0.110762
0.0049001 -0.200945 0.408482
0.163126 -0.112749 0.318992
-0.128309 -0.170781 0.412514
-0.0756508 -0.076368 0.3107
-0.025174 0.156804 0.464473
0.108313 0.229397 0.384164
0.0526333 0.176539 0.615621
-0.211046 0.144613 0.542457
-0.0466776 -0.101466 0.330414
-0.00866596 0.0475214 0.210061
-0.0301394 0.0690139 0.318211
0.0644934 0.161845 0.311504
-0.0353753 0.146053 0.485435
0.0136752 0.24213 0.742151
0.0152584 0.170453 0.644545
0.0725545 0.256198 0.761024
-0.00684291 0.195947 0.427863
-0.0697015 0.212505 0.730089
-0.0141742 0.228683 0.724478
-0.143221 -0.101171 0.309061
-0.0273503 0.0647997 0.318211
-0.108356 0.0864298 0.335178
0.184709 0.160963 0.494283
0.0312634 -0.000780751 0.318211
-0.282584 -0.0828736 0.0252867
0.111584 0.169493 0.59597
0.0164356 0.224721 0.344319
0.0921827 -0.194084 0.409483
0.0327359 0.207579 0.693232
0.014424 0.0176846 0.120925
-0.0490022 0.172341 0.437223
-0.0584806 0.187353 0.689991
-0.126744 0.195458 0.415127
-0.0348599 0.235978 0.765182
-0.137758 0.180432 0.672614
-0.196779 0.150666 0.532952
-0.167554 0.169136 0.64213
0.0547673 0.0421376 0.407137
-0.0582552 0.187298 0.689903
0.149077 0.180802 0.623725
-0.059698 0.179867 0.451528
0.00441116 -0.107318 0.304279
0.0976058 0.160222 0.566579
-0.0310343 -0.217203 0.404435
-0.0602685 0.159516 0.565482
-0.021889 0.222538 0.716596
-0.0328514 -0.0346152 0.405123
-0.0580362 0.206756 0.393701
-0.0672048 0.138685 0.0742302
-0.0803314 0.0959933 0.283813
0.182454 -0.00966504 0.360172
0.115014 -0.0901672 0.335784
-0.00458555 0.140197 0.499883
0.0592429 0.0810356 0.336384
0.139674 0.239139 0.0096926
0.112181 -0.198443 0.407513
-0.0798426 0.192167 0.697795
0.0370406 -0.132159 0.336811
0.0785135 0.249668 0.3483
-0.0487215 -0.00841085 0.405909
-0.0201319 0.113497 0.323726
-0.0487841 0.118413 0.328706
0.139384 0.187453 0.409704
0.0770658 0.235667 0.299173
0.187102 -0.173284 0.397091
0.251644 -0.057004 0.000384635
0.0970325 0.00516162 0.115472
-0.023876 0.0498339 0.130393
-0.0213644 0.235637 0.764079
-0.192323 -0.148596 0.399695
0.058421 0.138481 0.300913
-0.0500335 -0.138748 0.337841
-0.0802276 -0.232399 0.381926
-0.158572 0.203784 0.717453
-0.0712586 -0.22339 0.398604
-0.0658212 0.0289591 0.407179
0.0428576 0.0851794 0.112293
0.0266622 0.240904 0.358431
0.00394242 0.191353 0.696172
0.00505982 -0.197154 0.408917
0.127543 0.200286 0.392996
-0.0718184 0.124959 0.410225
-0.0733996 0.204053 0.325282
-0.062859 0.251727 0.315294
0.009543 -0.231539 0.0664754
0.25188 -0.0735179 0.0389243
0.147559 -0.111449 0.339977
0.0458052 -0.0371631 0.264925
-0.00840865 0.249957 0.331565
-0.0260169 -0.0529025 0.273615
0.0876299 -0.0256477 0.408215
0.172766 0.117589 0.378713
-0.0973726 -0.219278 0.359994
0.0346646 0.0615723 0.406659
-0.1218 -0.0517176 0.335551
-0.0508364 0.155312 0.603846
0.145256 -0.0940243 0.331161
0.0725737 0.136939 0.113739
0.105817 -0.155995 0.343135
0.0435946 -0.0272184 0.318211
-0.0745582 0.164702 0.312124
-0.124371 0.178564 0.667455
0.117625 0.200744 0.681424
-0.212354 0.153612 0.562065
-0.0394647 -0.0193535 0.254867
-0.0380717 0.18063 0.425525
-0.00892909 -0.000103071 0.11396
-0.162131 0.217291 0.73487
-0.130799 0.170209 0.599198
-0.0125331 0.228607 0.724375
0.00400314 0.0403041 0.405513
0.148157 0.174891 0.434269
-0.109642 0.253968 0.758251
-0.147928 0.191356 0.655466
-0.0593962 0.120783 0.271289
0.0383576 0.0767441 0.0797583
-0.0341261 0.150094 0.524681
-0.211058 0.140016 0.532409
-0.0746734 -0.141311 0.40989
-0.192528 0.182882 0.456404
-0.00637704 0.0629585 0.246099
-0.0280788 0.212406 0.701356
0.045454 -0.120905 0.33626
-0.116088 0.0692075 0.410914
-0.0493465 0.20179 0.419096
-0.178306 -0.161367 0.360144
-0.143281 0.235318 0.731977
0.112337 -0.0927194 0.304901
0.0584016 0.135237 0.287833
-0.0220476 -0.242252 0.0174979
-0.00634879 -0.189857 0.347364
-0.185687 -0.178003 0.396162
-0.0565841 0.0118877 0.107894
0.138297 -0.115751 0.33868
-0.195835 0.158401 0.555535
0.16567 -0.00412261 0.077794
-0.112962 0.206102 0.0976895
-0.0321152 -0.0923686 0.295675
-0.191192 0.205703 0.709127
-0.110561 0.205034 0.0937883
0.282941 -0.0372001 0.0277595
0.0258778 0.153376 0.506841
0.0590714 0.164666 0.291828
0.0797247 -0.132281 0.337337
0.0173252 -0.189189 0.409202
-0.10281 0.146761 0.577771
-0.207385 0.144032 0.550518
0.146928 0.172614 0.468476
0.0784349 -0.0482996 0.273879
0.136191 0.231458 0.0960373
0.143125 0.186233 0.639396
-0.169343 -0.164613 0.357263
-0.0846235 0.182583 0.422602
-0.0542696 0.0768882 0.318211
0.0141091 0.0671966 0.0730092
-0.0296102 0.0316841 0.246099
-0.0940202 0.191817 0.431058
0.172259 0.172794 0.471754
0.182991 0.136608 0.5403
0.116003 0.187735 0.0983347
-0.0123071 0.2588 0.776138
0.102144 -0.115128 0.410669
0.0400454 0.25182 0.774124
-0.111166 0.153832 0.344037
-0.172258 -0.107392 0.350095
0.022953 0.0937744 0.407775
-0.0556803 -0.0174098 0.253761
0.0179088 0.198121 0.674866
-0.0482338 -0.0110045 0.405891
0.106417 -0.179379 0.349033
-0.142656 -0.0115323 0.107837
-0.186663 -0.0646029 0.404236
-0.0803121 0.0879558 0.275491
0.00585425 -0.0137935 0.251826
0.127483 -0.0712386 0.336269
-0.107143 0.132775 0.409258
0.0520583 0.0162967 0.318211
-0.122988 -0.161703 0.346128
-0.0573939 0.248015 0.772036
0.0723037 0.220617 0.389115
0.0693719 0.212204 0.402909
0.00784518 -0.213071 0.405445
-0.0458173 -0.0553036 0.318211
-0.203057 0.155308 0.546135
0.114629 -0.00536845 0.335178
0.066522 0.0396063 0.407594
0.00264342 0.00432857 0.128011
0.109644 0.156817 0.606914
-0.179275 0.183467 0.681129
-0.245527 -0.0596779 0.000123484
-0.183214 -0.0607653 0.322857
0.126577 0.103365 0.336273
-0.186118 0.152364 0.591222
