-0.167981 0.133714 0.524344
0.165504 0.0485576 0.408293
0.122711 0.166372 0.394452
-0.137524 0.229234 0.72474
-0.0916859 0.167531 0.592062
-0.0599022 0.138054 0.0751807
0.0423914 0.259542 0.768527
0.0291997 0.19638 0.670081
-0.117033 0.010392 0.10684
-0.0699835 0.0616917 0.318223
0.219731 0.0528374 0.488757
-0.00884792 0.016439 0.0614538
-0.116175 0.24253 0.762389
-0.274264 -0.00613482 0.542803
-0.0556845 -0.0869592 0.320802
-0.119936 0.164168 0.365345
-0.234447 0.00835476 0.385077
0.142754 -0.152789 0.346778
0.171583 0.0762723 0.359807
0.230612 0.00414963 0.482456
0.0364841 0.075653 0.318223
-0.155903 0.163457 0.485603
-0.181624 0.0873811 0.393885
0.0235143 0.0312905 0.142997
0.168551 -0.098259 0.347554
-0.0372739 0.0298073 0.318223
-0.121868 0.141336 0.560245
-0.0113472 0.0372135 0.21445
0.24077 -0.00167535 0.529374
-0.00316847 0.203311 0.686468
0.0208088 -0.12132 0.407114
0.0695591 0.174277 0.363925
0.162363 0.200239 0.674945
-0.0291873 0.0669921 0.251043
-0.000499855 0.229396 0.725409
0.0904549 0.202704 0.398737
-0.0709362 0.165796 0.280517
-0.0913692 0.167982 0.638672
0.103156 -0.0525724 0.335185
-0.136681 -0.041795 0.335902
0.108804 0.177488 0.456052
-0.238755 0.0469645 0.55286
0.107664 0.00232852 0.114215
0.0184934 0.226025 0.347019
0.168586 0.245587 0.0498579
-0.0219958 -0.247464 0.0344619
-0.0328992 0.242165 0.742437
-0.0197703 0.0822147 0.111207
0.0167959 0.151275 0.535531
0.0506784 0.0922767 0.09456
-0.0542504 0.150525 0.517896
0.128127 0.228008 0.0947418
-0.0356283 0.191646 0.657635
0.0638417 0.0228599 0.248713
-0.0474422 0.196921 0.705378
0.116649 0.238513 0.761484
-0.0717582 -0.0532279 0.299627
-0.201912 0.197284 0.680866
0.171582 0.174704 0.655037
0.0997984 0.0198909 0.409387
-0.0149788 0.0172602 0.119209
0.060107 -0.202844 0.407549
-0.0805773 0.0223728 0.112928
0.0329205 -0.0197101 0.405085
0.149606 -0.157824 0.412587
-0.0289196 0.010857 0.404763
-0.1372 0.186958 0.644603
0.0582713 0.110929 0.291419
0.0166071 0.167993 0.592536
-0.150019 0.145727 0.36655
-0.245348 -0.0542206 0.00157203
0.0125939 0.0646382 0.275977
-0.105376 -0.181231 0.41135
-0.178262 -0.105247 0.318435
0.00883457 -0.105918 0.0734054
0.071762 0.126029 0.335252
-0.127717 0.0172197 0.335012
-0.115741 -0.193764 0.354184
0.207807 0.0153792 0.324355
0.0851516 0.11299 0.4106
0.170723 0.162109 0.490354
-0.100692 0.198818 0.708645
0.0513636 0.207879 0.410886
0.147138 -0.00804678 0.109683
-0.207986 0.0346629 0.552359
-0.0573819 0.102662 0.0762652
0.055093 -0.117965 0.311644
-0.164525 -0.065913 0.410425
0.222908 0.0191726 0.3711
-0.200639 0.0190628 0.32205
-0.127602 -0.0965661 0.336729
-0.00540399 -0.050154 0.272104
0.0230029 -0.0353146 0.291174
-0.0140398 -0.1165 0.339777
0.0923751 -0.00990844 0.333435
-0.121533 0.147886 0.481371
-0.0448431 0.248183 0.31381
-0.0143409 0.0601816 0.0492777
-0.0618335 -0.0322355 0.262052
-0.0923158 -0.0733493 0.333032
0.0912118 0.163342 0.57682
-0.0124539 0.113927 0.324173
-0.222442 0.0146828 0.407216
-0.10211 0.140817 0.336697
0.268318 0.0192078 0.550533
0.251826 -0.0515465 0.0490531
0.056062 0.0568021 0.407523
-0.00401296 0.0692348 0.406389
-0.119295 0.00340728 0.0740112
-0.000642888 -0.0542683 0.318223
0.0308997 -0.0928562 0.335289
-0.11812 -0.0124884 0.410575
0.237365 0.0263238 0.55332
-0.138268 0.12111 0.341117
-0.0401344 0.00781788 0.275977
-0.165695 0.179231 0.458763
0.166236 -0.0222766 0.346978
0.0532622 0.183091 0.633573
0.0219982 0.055168 0.0710866
0.0611963 0.17942 0.287893
-0.24938 0.0267007 0.48348
-0.0827835 -0.119071 0.409471
-0.0629065 0.168218 0.31223
0.0221214 -0.267756 0.0230028
0.178391 -0.0813372 0.408474
-0.151733 0.204984 0.687547
-0.234752 0.0920899 0.534551
-0.098337 0.167773 0.3995
-0.0469345 -0.220868 0.403272
-0.0638077 0.222389 0.387762
0.180882 0.27138 0.0381367
-0.0202377 0.17798 0.365047
-0.0309977 0.0731954 0.406741
0.216015 0.0497301 0.327528
0.147686 0.123945 0.348734
-0.25151 0.0431173 0.521881
-0.00849077 -0.0372816 0.110871
0.181205 0.168127 0.445561
-0.141159 0.259395 0.0404308
0.126407 0.147149 0.577279
0.0864158 0.151364 0.535169
0.131856 -0.0383816 0.411452
-0.151403 0.0433165 0.339864
0.0151432 0.194244 0.70082
-0.223497 0.0533714 0.452782
-0.24001 -0.0408353 0.0689203
0.112831 -0.0962076 0.410907
0.079492 0.107255 0.272218
-0.247628 0.0178389 0.445818
0.14309 -0.208985 0.396675
0.0382438 0.0338519 0.248171
0.128071 0.182219 0.423863
0.117148 -0.188537 0.352932
0.0610686 0.239103 0.347601
0.00214681 0.164192 0.450122
0.0146936 0.0539933 0.203167
0.00908746 0.144874 0.487908
0.029433 0.227696 0.383312
0.0671747 0.116555 0.076731
-0.28089 -0.0681167 0.00237287
0.0572858 0.180066 0.670412
0.0537922 0.169367 0.441763
-0.07615 -0.0741933 0.407756
0.0427871 0.181633 0.385657
0.0725348 -0.194237 0.350692
-0.165709 0.184142 0.683047
0.248596 0.0399489 0.478048
0.0986588 0.203833 0.686868
0.0598033 -0.140472 0.409135
-0.0592104 0.0866515 0.299289
-0.0510837 -0.234807 0.361755
0.128925 0.0387515 0.335467
0.194469 0.0452091 0.547052
0.0631316 0.227179 0.722648
0.195708 0.00771073 0.549961
0.0976544 0.170706 0.644709
-0.0323416 -0.00854308 0.318223
0.00311392 0.159544 0.615061
-0.0641303 0.156964 0.608546
-0.226804 -0.0259741 0.0907411
0.0769369 -0.0512513 0.273119
-0.087793 0.175228 0.0927471
-0.127826 -0.211964 0.398715
0.141734 0.187555 0.643133
0.0237227 -0.22986 0.397183
0.158116 -0.201522 0.364798
0.205578 0.156707 0.504396
0.0722506 0.00615802 0.0968953
0.135061 0.0966049 0.410625
0.0801702 0.223805 0.327598
-0.228555 -0.045106 0.552299
0.205014 0.169681 0.613366
0.137855 -0.110189 0.338146
-0.0944655 0.0610419 0.409709
0.220585 0.0314939 0.409716
0.17267 0.0151254 0.407605
0.195992 -0.129404 0.370288
0.0146108 0.239887 0.769384
0.0469613 -0.00794337 0.278118
-0.151576 -0.159006 0.350099
-0.186618 -0.185205 0.370818
0.000962116 0.145259 0.336761
0.0264293 0.0244735 0.0716057
-0.132472 0.0776689 0.335867
-0.0227054 -0.139872 0.40785
0.138801 0.249711 0.0751814
-0.176277 -0.146668 0.40884
0.058422 0.140609 0.49916
-0.0155834 0.0328137 0.0313049
-0.074392 0.177684 0.378303
-0.18313 0.146947 0.550341
0.0155929 0.00281436 0.318223
0.23729 -0.0444673 0.534551
0.245824 0.0969529 0.537393
-0.0767835 0.226854 0.752293
0.241504 -0.0365717 0.0189444
-0.126702 0.189537 0.400144
-0.189639 -0.0135851 0.0956058
0.0862762 0.0934506 0.320719
0.0602191 0.0563195 0.257179
-0.153959 0.106156 0.407577
-0.190363 0.155417 0.602503
-0.19356 -0.11164 0.368687
0.0289988 0.0434065 0.112261
0.0388484 -0.0745597 0.318846
-0.0700166 0.236462 0.297439
-0.0246911 -0.159102 0.340523
-0.113246 0.173653 0.435093
0.0190693 -0.116318 0.309448
-0.00240707 0.184496 0.63782
0.00967739 -0.0930852 0.0981208
0.160617 0.03214 0.321422
0.0675117 0.151112 0.0948594
-0.0874406 0.0478882 0.318223
-0.100943 0.16994 0.469721
-0.048493 0.145487 0.486427
-0.197451 -0.0673101 0.393575
-0.0517545 0.00261834 0.406041
-0.240398 -0.000719004 0.527602
0.16539 0.152884 0.535706
0.175436 -0.0253568 0.0924452
0.00864244 -0.133986 0.0728867
-0.0984558 0.191151 0.656712
0.212253 -0.018501 0.0877289
0.0445577 0.157877 0.559363
0.110257 0.131193 0.4094
-0.155019 0.243377 0.0688922
0.240517 0.0488708 0.369121
-0.0142134 0.14876 0.407714
-0.0897529 0.20665 0.36886
-0.00665363 -0.0164629 0.120191
-0.253599 -0.0592005 0.0494064
-0.0389929 0.0344952 0.272096
0.0889858 -0.192556 0.409996
0.239896 0.00811184 0.437697
-0.0291213 0.199225 0.678317
-0.0664975 0.136065 0.540683
-0.106784 0.178671 0.10463
-0.0457541 0.240035 0.768537
0.0944597 0.0416619 0.318223
-0.129971 0.10543 0.410813
-0.0665557 0.195546 0.288252
0.282392 -0.0646725 0.00277998
0.139329 -0.0139679 0.0733499
-0.155177 0.136824 0.544803
-0.0799332 -0.134213 0.337648
0.0661752 0.151944 0.308974
-0.0345441 0.178594 0.453471
0.121474 0.194612 0.093151
0.149649 0.151655 0.518032
-0.020872 0.194097 0.430531
-0.00922599 0.138631 0.550415
-0.00481838 0.243902 0.314437
0.0309637 0.243245 0.744025
-0.214802 0.0404602 0.32253
0.195842 -0.0455658 0.393779
0.05921 0.061713 0.328485
-0.0575045 0.164921 0.448386
-0.161658 0.0684429 0.348893
-0.174336 0.118108 0.387773
-0.0963039 -0.111831 0.335954
-0.196714 0.175762 0.652134
-0.0575214 0.172456 0.650574
0.0462772 0.149976 0.337118
-0.217305 0.0123455 0.51594
-0.0210101 -0.0956717 0.335337
-0.182016 0.0418519 0.401545
-0.271183 0.0321368 0.536723
0.00360373 -0.0673859 0.115955
-0.191971 0.011419 0.393732
-0.000359173 0.0668081 0.0872356
-0.0596618 -0.0149158 0.318223
-0.0320332 0.23354 0.356597
0.106187 0.134873 0.529293
0.0423728 0.225704 0.316819
-0.127987 -0.00752974 0.338524
0.117706 -0.12662 0.411952
0.237004 0.0656424 0.531113
-0.217964 0.0193766 0.477608
-0.284048 -0.0678706 0.0406141
0.0118461 -0.0116504 0.279848
-0.151355 -0.0460971 0.411577
-0.0804038 0.104491 0.28179
0.188873 0.0424601 0.385862
-0.18963 -0.0350247 0.401779
-0.0312118 -0.0242468 0.257605
-0.000871065 0.207551 0.722255
-0.154149 -0.0903082 0.318583
0.112457 0.205596 0.379387
-0.0608616 0.0921546 0.40903
-0.0629093 0.165093 0.402681
0.141481 0.23031 0.0409191
-0.0212398 0.150732 0.590304
-0.000858774 -0.0403925 0.404916
-0.00657633 -0.268097 0.041595
-0.0837145 -0.152607 0.410668
0.0904415 0.175543 0.392273
0.114534 -0.0958949 0.335897
0.232137 0.0551949 0.416257
0.0894085 0.232722 0.760588
-0.11242 0.211585 0.0786305
0.078819 0.156228 0.466081
-0.140676 0.199383 0.710235
-0.0836059 0.23982 0.371541
0.192858 0.155588 0.598482
-0.184631 0.228105 0.727212
-0.084961 0.135869 0.510759
-0.00248488 -0.112999 0.406793
0.157462 0.164279 0.62684
0.0342229 0.0960747 0.121455
0.0103526 0.0817163 0.318223
-0.0601489 0.132557 0.112008
0.0633421 0.214195 0.296793
0.259257 -0.0652268 0.542619
0.0583449 0.086751 0.294961
0.0873191 0.182018 0.675485
0.0505116 0.161077 0.618886
0.209208 -0.0119826 0.534116
0.0542402 0.107989 0.409665
-0.103341 0.135575 0.408924
-0.0120491 0.159857 0.489894
-0.171052 0.272493 0.0312195
0.114049 0.194399 0.700653
-0.0380642 0.0904945 0.125573
0.0848454 0.212786 0.729959
0.148396 0.261892 0.0475225
-0.0760393 -0.096093 0.297735
-0.0435739 0.213849 0.402957
-0.240779 0.036108 0.363439
0.0550041 -0.0117111 0.250729
-0.0523541 0.129693 0.335562
0.0100637 -0.209776 0.0814751
0.142671 -0.104179 0.302063
-0.149431 0.137841 0.401937
-0.0680546 0.000160232 0.249575
-0.00943747 0.0211123 0.165389
-0.032499 -0.120706 0.315513
0.145894 0.0138098 0.337495
0.262264 -0.0816665 0.033465
-0.183123 0.224888 0.0264538
0.132625 0.223061 0.741969
-0.13845 0.155485 0.501307
0.191987 -0.151903 0.399899
0.00662432 0.0636794 0.143971
0.0589023 0.0249827 0.275509
0.142949 -0.0772902 0.412166
0.0845021 0.23673 0.354993
-0.182198 0.146214 0.576795
0.162761 0.14903 0.480574
-0.014298 -0.0875757 0.292977
0.0939598 -0.228021 0.390312
0.0124624 -0.1534 0.339279
-0.00197964 0.176659 0.431238
0.0785491 -0.0957925 0.307272
-0.0777092 -0.166606 0.343741
-0.213473 0.144948 0.528868
-0.0904999 0.159142 0.0729661
-0.0300776 0.167323 0.63643
-0.117271 0.218997 0.712419
-0.181275 0.142449 0.492636
0.0767422 0.14271 0.563089
-0.169425 0.183517 0.432338
0.159778 0.219223 0.736571
-0.109687 0.134843 0.516142
-0.0104084 0.0359763 0.24611
0.0238577 0.178554 0.621364
0.0195585 0.0473567 0.171415
0.273155 -0.0123609 0.539969
-0.101066 0.238564 0.738325
0.120383 0.141338 0.339478
0.0638363 -0.0419684 0.406775
-0.0786383 -0.197977 0.351977
0.275692 -0.0334391 0.0235816
0.193661 0.203144 0.699587
-0.021393 -0.0648583 0.305243
-0.247112 -0.0512955 0.534551
-0.00605038 -0.167853 0.40905
0.093563 0.184717 0.0754145
-0.0465551 0.174719 0.361058
-0.0243954 -0.204318 0.351232
-0.0708462 0.0567296 0.257372
0.129865 0.169103 0.594367
0.159421 -0.131992 0.346073
-0.0134429 -0.229133 0.0111063
-0.13762 0.15184 0.538444
0.0973072 0.191252 0.655573
0.181425 0.264386 0.00701854
-0.193531 0.203111 0.704737
-0.0331743 -0.0665867 0.405242
-0.0122112 0.00350914 0.318223
-0.0589774 0.0259882 0.262369
-0.0119225 0.00990909 0.0915584
-0.239607 -0.0523565 0.0312863
-0.0214689 0.0427356 0.193726
0.138193 0.14628 0.353731
0.0292903 0.216421 0.707725
-0.0914791 0.143574 0.567373
0.0615064 0.217783 0.39569
0.124027 0.240803 0.744024
0.16179 0.149102 0.583399
-0.15307 -0.0690163 0.339649
0.0277098 0.0331969 0.318223
0.0715924 -0.126227 0.33574
0.0653269 -0.042305 0.294574
0.234337 -0.0389098 0.069169
-0.19137 0.151327 0.522429
-0.0617705 0.205805 0.719694
-0.190504 0.17643 0.610699
-0.0472964 0.219067 0.739956
-0.0541665 0.182558 0.632908
0.0335036 0.199146 0.402629
0.0935974 -0.224156 0.361413
0.15995 0.181306 0.428849
-0.0904694 -0.0510025 0.328884
0.156216 -0.0858451 0.324996
-0.13234 -0.100501 0.308775
-0.0662166 -0.106903 0.33557
0.0719775 0.160605 0.488861
-0.208887 -0.0145246 0.55242
0.0361652 0.24267 0.33577
0.0795735 0.0789557 0.279983
0.0612969 -0.235019 0.376623
-0.109601 0.110453 0.335506
0.0769613 -0.0580137 0.318223
-0.180204 -0.0846065 0.354932
-0.126791 0.0393218 0.411228
0.0455505 -0.157254 0.340687
-0.0603107 0.139588 0.284083
0.1336 -0.0427052 0.33638
0.0349144 -0.0951413 0.406332
-0.0590628 0.0555391 0.274807
0.179382 0.138011 0.546209
0.0381806 0.175542 0.459463
0.0779916 0.0798856 0.409173
-0.157773 -0.0263289 0.34159
-0.0616164 0.21511 0.324077
-0.13524 0.177811 0.619764
0.0795464 0.128164 0.298848
0.20368 0.136905 0.527987
-0.237173 0.0140238 0.353011
0.117982 0.156502 0.465729
0.0960476 0.174892 0.434108
0.0443093 0.0298062 0.406195
0.00122291 -0.237455 0.0560736
0.0169764 0.170272 0.469668
0.00101963 0.224505 0.370344
-0.242239 0.00572069 0.467741
0.0606603 0.203787 0.320031
0.0523349 0.0330679 0.109275
-0.134989 0.0180439 0.307186
0.0193456 -0.0836847 0.290856
-0.240202 0.0645714 0.531301
0.180895 0.178937 0.46177
-0.0707998 -0.0752197 0.286027
0.120056 -0.164899 0.412594
0.0313604 -0.0451365 0.318223
-0.154427 0.0263827 0.321422
0.129087 0.135737 0.513987
-0.216018 -0.0267007 0.0700333
-0.147892 0.242125 0.0942846
0.0711229 0.253093 0.771327
0.0523776 0.233998 0.761315
0.0360414 0.155306 0.603308
0.0355504 0.124658 0.409649
0.130806 0.00806795 0.0977986
0.127049 0.0429402 0.307186
-0.0152609 0.0184246 0.275977
-0.0102059 -0.151081 0.0777276
-0.212216 -0.0526132 0.534551
0.0323584 0.191928 0.433965
-0.0272434 0.0393019 0.0696417
-0.0729724 -0.0555133 0.275059
0.179734 0.232108 0.728541
0.161055 0.273162 0.0618968
0.179008 0.102831 0.380099
0.10751 0.160444 0.489358
-0.113008 0.183125 0.679955
0.00491747 0.171121 0.401308
-0.00172882 0.0215898 0.404962
-0.0732736 0.143192 0.408274
0.034524 0.137696 0.546487
0.0696199 -0.0154101 0.318223
0.0111121 0.00640125 0.0770821
0.191207 -0.0189193 0.371403
-0.0590925 0.0682624 0.333048
-0.081982 -0.19959 0.40834
0.0548226 0.16989 0.59746
0.0543758 0.0982163 0.318223
0.147496 -0.131402 0.413075
-0.0908932 0.00230268 0.408476
0.0470821 -0.0540691 0.274365
0.14972 0.159298 0.560499
0.0736906 0.195671 0.66783
-0.0204188 0.0451219 0.405668
-0.164581 0.155009 0.547834
-0.0950579 -0.094538 0.409486
-0.16114 0.0527665 0.408783
0.230017 0.060236 0.510745
-0.175118 0.156862 0.467058
0.222543 0.0454467 0.388617
0.0196658 -0.228275 0.358384
-0.0837433 0.00199424 0.0920316
-0.129717 0.235212 0.0755514
-0.180639 0.0234549 0.321422
-0.0108723 0.243004 0.355153
0.058396 0.0624328 0.284007
0.00960951 0.258481 0.763191
-0.0149569 0.231552 0.757884
-0.0269624 -0.238883 0.375036
0.234351 0.0615501 0.552565
0.0690483 -0.0732928 0.407319
-0.132519 0.164932 0.387574
0.0385527 0.00595597 0.405319
-0.264455 -0.0450617 0.0560736
-0.0516953 0.234341 0.367964
-0.0775653 0.0842658 0.329669
0.0675158 -0.173712 0.410511
-0.036095 -0.0459445 0.269708
0.0770668 0.134916 0.51935
0.00328041 -0.0288475 0.260223
0.134507 0.16867 0.443055
0.125895 -0.0854004 0.310473
0.0892938 -0.124761 0.410025
0.159342 -0.11028 0.324943
-0.142611 0.135029 0.514029
-0.158987 0.168452 0.592016
0.147864 0.154168 0.392662
0.0943546 -0.184445 0.349094
-0.199327 -0.128372 0.38796
0.207653 0.161663 0.577467
-0.188505 -0.135647 0.363763
0.0908898 -0.0777834 0.329819
-0.032378 -0.0368389 0.318223
0.121782 -0.0611013 0.410879
0.139866 0.185311 0.684075
0.114033 0.199993 0.417165
0.0550396 0.209684 0.696606
-0.243982 0.054389 0.471278
0.0363327 0.00854082 0.24611
0.109152 0.169431 0.368613
-0.0761316 0.148701 0.584116
-0.0484572 0.0884949 0.0987239
-0.0638826 0.11101 0.102467
-0.250779 -0.0210293 0.552626
0.0650176 0.0414891 0.318223
-0.232535 -0.030968 0.534551
-0.251439 0.0238296 0.552772
-0.00135623 -0.0475181 0.296978
0.21529 0.045843 0.521013
0.00913052 -0.0649023 0.0747043
-0.0382767 0.174443 0.434238
0.164454 0.111487 0.402411
0.0138786 -0.256393 0.0489818
0.183663 0.244778 0.0353579
0.0399125 0.0162014 0.0925351
0.200304 0.184461 0.635947
0.240768 0.0112585 0.393048
0.0058177 -0.117793 0.339944
-0.068893 0.155662 0.553104
0.212756 -0.0676508 0.535626
0.0149142 -0.147582 0.408218
0.00970228 -0.0267463 0.103953
0.143702 0.0327618 0.411122
-0.114298 0.0572605 0.326979
-0.0762273 0.155976 0.46577
-0.0803155 0.0691759 0.300502
-0.164309 -0.1798 0.359616
-0.00111956 0.0670623 0.113264
0.0703937 0.192456 0.410379
0.082239 0.158923 0.34107
0.117683 0.0402304 0.410892
-0.187649 0.0171396 0.369875
-0.197873 0.134541 0.528612
-0.11462 0.160466 0.569173
0.133728 0.231891 0.727398
0.0555815 0.105727 0.115284
-0.0222983 0.0520743 0.318223
0.00836389 0.223334 0.745244
-0.126584 0.157899 0.461775
0.0153852 0.0179348 0.0497191
-0.121814 0.224767 0.746438
-0.0633992 0.0311738 0.318223
0.0747206 0.0782373 0.33886
-0.12968 0.241975 0.741485
-0.0796794 -0.0961411 0.323997
-0.0561851 0.0116873 0.105622
-0.010109 -0.009857 0.0798923
0.157367 -0.0647072 0.341379
0.192473 -0.0132481 0.0715604
0.184636 0.074788 0.383478
-0.164099 -0.00460432 0.0953714
-0.223799 0.0513582 0.421579
-0.0727757 0.190009 0.653416
0.257887 0.0401768 0.552319
0.00195384 0.183169 0.379299
0.0976327 0.0106834 0.319688
0.00567469 -0.239013 0.378798
0.20626 -0.0300865 0.534551
0.0944525 0.236694 0.734838
0.0125614 0.241931 0.35698
-0.155877 0.234639 0.0288999
0.180599 0.184023 0.680272
0.0586495 0.19201 0.432864
0.00589159 0.0163674 0.142874
-0.154945 0.213497 0.731231
-0.181198 0.167924 0.444719
0.101825 0.152201 0.594109
-0.249095 -0.0778508 0.541954
-0.151415 0.159812 0.457911
-0.0266099 0.195463 0.406651
-0.0270935 0.228913 0.313788
0.187171 -0.109659 0.360956
0.194723 0.1531 0.530221
-0.120036 0.20504 0.101625
0.0190234 -0.0704359 0.307963
-0.141536 -0.126819 0.34051
0.170454 -0.0558968 0.409659
0.0472141 0.170338 0.352621
-0.0411442 0.0379022 0.0918912
-0.0251125 0.0353985 0.135784
0.182116 0.195519 0.659575
-0.139177 0.00570468 0.0821794
0.146938 0.158693 0.461596
-0.138718 0.143125 0.351507
-0.109511 0.150721 0.591025
-0.0254602 -0.228664 0.398338
0.00275147 -0.186662 0.0968806
-0.0694159 0.254957 0.310603
-0.00059396 0.126525 0.409565
-0.0837055 0.209061 0.696201
0.0143374 0.0535891 0.318223
0.0310367 0.147348 0.578726
0.196037 -0.160794 0.374881
-0.0543976 -0.196452 0.40944
-0.159152 0.217956 0.707899
0.254485 -0.00747548 0.552611
0.0356761 -0.194889 0.409084
-0.17148 0.0445755 0.353615
0.0928473 0.138484 0.336631
0.0808093 0.008702 0.0754532
-0.188346 0.185996 0.450833
0.0356588 0.0396203 0.275853
-0.222844 0.02642 0.371434
0.173262 0.163108 0.471198
-0.0860571 0.161114 0.109422
-0.0310166 0.258149 0.765137
0.256802 -0.0364831 0.060058
0.188389 0.140749 0.499721
-0.0713947 0.191369 0.696571
-0.0850136 0.205772 0.394722
-0.0353511 -0.179621 0.345168
0.272259 -0.0477726 0.0446862
0.0328135 0.06789 0.406757
-0.242991 0.0529631 0.443734
-0.225454 0.046309 0.34842
-0.0609327 0.162986 0.576988
0.238453 0.0480635 0.344999
0.0470622 -0.118122 0.336128
-0.196895 -0.0482425 0.376073
-0.0511146 0.0817413 0.318223
-0.0804205 0.174942 0.612258
-0.138614 0.00105737 0.411538
-0.109693 -0.00664162 0.0932304
0.0796284 0.0577089 0.256327
-0.156312 0.080411 0.408556
-0.05089 -0.0121893 0.250846
-0.0194403 0.151524 0.537012
0.142545 0.0997805 0.340076
-0.145196 0.0205656 0.337358
0.0786867 0.0338153 0.408028
0.0788328 0.175414 0.45994
0.186117 0.164868 0.628222
-0.0802482 -0.0707311 0.318271
-0.0114321 -0.226295 0.033839
-0.1895 0.164305 0.48239
-0.11489 -0.0615297 0.335633
0.0393159 0.134402 0.522571
-0.0592624 0.112777 0.290983
-0.0234335 0.24288 0.330175
-0.0785025 0.149942 0.524616
-0.127803 0.0439018 0.328766
-0.180226 0.270619 0.0132048
0.1535 0.195497 0.418183
0.0458563 0.109553 0.07558
0.0177025 0.0259174 0.24611
-0.167944 0.238133 0.745635
0.15927 0.0407667 0.345179
-0.0418259 -0.111238 0.33568
-0.0271292 0.203963 0.716596
-0.133096 0.191972 0.422409
-0.0348822 0.0937238 0.0763775
0.000925571 -0.192269 0.409101
0.145911 0.15987 0.492482
-0.00979812 -0.0912542 0.405958
-0.197645 -0.0868039 0.377571
-0.0517554 0.162356 0.6231
0.0302229 0.0646633 0.249742
-0.0144475 -0.00544127 0.247131
0.0539984 0.0834416 0.408208
-0.0792193 -0.0384543 0.407606
0.0851134 0.215521 0.356107
-0.177226 0.174663 0.63176
-0.0579628 0.258931 0.765171
-0.0162858 0.174921 0.656965
-0.00811132 0.166547 0.588146
0.0575516 -0.0147512 0.406388
0.0890315 -0.0936778 0.409099
-0.0895285 0.17652 0.431117
0.249037 0.014761 0.50361
0.0742163 0.18716 0.644552
-0.036137 -0.0168408 0.405249
0.109877 0.151384 0.514472
0.233798 -0.0412364 0.0910352
0.00851444 0.0314403 0.211302
0.0705159 -0.0803254 0.313412
0.183623 0.0227725 0.321422
0.134485 0.18894 0.437665
0.0876775 -0.0312383 0.323084
-0.00496911 0.0561696 0.0273057
-0.066077 -0.23139 0.392055
0.090901 0.0623571 0.330646
-0.184086 -0.0306083 0.359979
-0.244372 0.0121963 0.41833
-0.282231 -0.0487765 0.0476376
-0.210547 0.00645339 0.552685
-0.0807452 0.150075 0.300593
0.100302 0.255516 0.765584
-0.209089 0.168483 0.601175
0.111785 -0.0266572 0.410147
0.115732 0.188564 0.648084
-0.0998697 0.184019 0.637214
-0.161125 -0.168999 0.409588
-0.107059 -0.204905 0.405996
0.120067 -0.147356 0.342041
0.198693 -0.0998026 0.391304
-0.0388693 -0.121456 0.407562
0.217886 0.0200586 0.469559
-0.0547009 0.244128 0.745491
0.149812 0.234232 0.0873603
0.00866327 0.0638661 0.0528449
0.0793716 0.192076 0.292405
-0.0991916 0.143455 0.490525
-0.0801362 0.00395653 0.264083
-0.0733823 -0.0348394 0.318223
0.190528 -0.0112246 0.398698
-0.0982784 0.231307 0.759022
0.142133 0.194911 0.663199
0.211236 0.0653825 0.551535
-0.177366 0.198994 0.672368
-0.137042 -0.00847212 0.323655
0.0504302 0.221441 0.743132
0.144712 -0.185195 0.356391
-0.0590864 0.0622997 0.297528
0.0907784 0.158649 0.612031
0.0576136 0.149113 0.479868
0.176197 -0.166086 0.40559
0.274042 -0.0807862 0.0144076
-0.0318792 0.0438492 0.24611
0.140391 -0.186504 0.408691
-0.004783 0.0812529 0.25537
0.181607 0.226507 0.0294054
0.0394898 0.224206 0.339326
0.0552672 0.243546 0.32191
-0.111558 0.165261 0.631419
-0.0753308 0.0180459 0.407455
0.027918 0.163592 0.340898
-0.0503207 0.169541 0.470743
0.164738 -0.0134756 0.409701
-0.0133879 0.0207299 0.24611
-0.179868 0.207757 0.689969
0.194477 0.0273069 0.337536
-0.0105773 -0.0443312 0.0887514
-0.0527501 0.0103248 0.318223
-0.114924 -0.158904 0.412405
-0.0264574 -0.0853311 0.319094
-0.183335 0.155643 0.504802
-0.0528241 -0.161363 0.34163
0.0144851 0.250112 0.321311
0.248427 0.016979 0.478018
0.120275 0.191922 0.396477
-0.0803575 0.0864202 0.263471
0.241316 -0.0760803 0.0383394
-0.245513 0.0303967 0.398476
0.129544 0.143218 0.405354
0.0694353 -0.0226346 0.285175
0.275996 -0.0693378 0.0478942
0.0722796 -0.0276183 0.259715
0.0962868 0.0499743 0.409625
0.138684 0.248447 0.0286873
0.0464505 -0.0509784 0.298695
0.220282 0.00274234 0.553053
-0.153827 -0.147133 0.412434
-4.84187e-05 0.152921 0.507862
0.0387074 0.189012 0.649862
-0.136977 -0.171571 0.350699
0.0889599 0.149635 0.102251
0.175319 -0.181094 0.363963
0.046866 -0.0960073 0.297871
0.0154494 0.109959 0.320137
0.0105977 -0.0532907 0.0941516
-0.214678 0.0848221 0.535082
-0.265149 -0.0726583 0.0180487
0.0687948 0.178971 0.390713
-0.00661725 0.0499732 0.234912
0.133314 0.20612 0.689973
-0.244079 -0.0435053 0.0909893
-0.250545 0.0212567 0.509495
0.139334 0.221139 0.0699712
0.0324541 0.169348 0.401851
-0.103021 0.159965 0.348601
0.169644 -0.00790721 0.102484
-0.197111 0.0512623 0.538767
0.0334879 0.236153 0.76511
0.0795983 0.209613 0.309399
0.0210971 0.0866946 0.104624
-0.201836 0.0389259 0.337536
-0.04852 -0.0122415 0.280057
-0.104031 0.0174073 0.0899543
-0.0635311 -0.218373 0.357262
0.00509157 0.222199 0.392381
-0.146445 -0.18651 0.40805
-0.135014 0.166122 0.477981
-0.0443739 0.055838 0.318223
-0.173559 0.151914 0.595479
-0.0811546 0.229543 0.311759
-0.162427 -0.140025 0.348673
-0.0844815 0.121011 0.331447
-0.0334187 0.182487 0.382511
0.196082 -0.0228427 0.101655
0.0584908 0.14781 0.285994
-0.219752 0.0362794 0.439508
0.172618 0.050435 0.355071
-0.0454274 0.135272 0.537105
-0.250157 0.0437893 0.499739
0.0342041 0.230379 0.36181
-0.094866 0.0661595 0.335185
-0.216976 0.0333439 0.500342
-0.0554442 0.20086 0.400399
-0.208743 0.140042 0.510503
-0.128502 0.156431 0.607539
0.251805 -0.0437968 0.00754326
-0.117175 0.208408 0.403678
-0.0965077 0.00030414 0.074733
-0.0148309 0.0902711 0.407552
-0.0507558 -0.140001 0.408766
0.0398545 -0.237637 0.372267
-0.115954 0.0176256 0.313277
-0.0111247 0.0216321 0.188249
-0.0179956 0.193091 0.699106
0.092367 0.149207 0.407074
-0.0286407 0.140199 0.499648
-0.191855 0.0464841 0.32313
0.0993196 -0.0881572 0.308442
0.162458 0.188762 0.643537
0.174729 0.187027 0.449071
0.136175 0.022872 0.321422
-0.276468 -0.0467287 0.00381234
-0.16538 0.143419 0.567458
-0.248177 0.0368177 0.45661
0.078485 -0.0678673 0.291458
0.161489 0.167096 0.445385
-0.00749104 -0.0691227 0.282688
0.0479856 -0.0135638 0.318223
-0.133849 0.187505 0.690853
-0.11755 0.152989 0.506855
0.0873211 -0.105168 0.323592
0.0787321 0.0252428 0.0893754
-0.0670779 0.18501 0.443829
-0.0251433 0.162643 0.340333
-0.108901 0.110507 0.411007
-0.0802904 0.0594891 0.280896
0.00785674 0.00935395 0.122462
-0.162079 0.271485 0.0581532
0.0372862 -0.0734465 0.285169
-0.164507 -0.0474273 0.345797
0.247222 0.0521323 0.50044
0.159352 0.140696 0.555778
0.0909211 0.208812 0.378067
-0.171661 0.259906 0.0696901
-0.03832 -0.0528837 0.299498
-0.0276348 0.0627857 0.115943
-0.0489978 0.15049 0.589756
-0.148841 0.179579 0.670548
0.130211 0.165025 0.374367
0.0597512 0.101844 0.265708
0.0786496 0.219874 0.712901
0.0247223 0.139751 0.501198
-0.00402755 -0.139794 0.324466
0.104367 0.193311 0.102456
0.0638719 0.15521 0.550481
-0.157714 0.127732 0.359461
-0.0259393 -0.103193 0.301864
-0.0898948 -0.0190699 0.40839
0.058313 0.127433 0.277842
-0.0943514 0.157734 0.610859
0.188471 0.148677 0.481539
-0.053597 -0.0879916 0.293149
0.0672743 0.168124 0.637923
0.230702 0.00540609 0.460938
-0.181915 0.161917 0.622802
0.110826 0.210216 0.0896111
0.0373986 0.0206964 0.318223
-0.188085 -0.162173 0.400363
0.120966 0.112485 0.410816
-0.0986173 0.251408 0.754896
-0.0673778 -0.0935168 0.407989
0.102296 -0.0771261 0.40971
-0.152602 0.267592 0.0218211
-0.203696 0.190613 0.661478
0.226125 0.101518 0.54378
0.0797062 0.0298023 0.252694
0.0521753 0.249141 0.756544
-0.191082 0.03159 0.379444
0.17035 0.155915 0.604032
0.163985 -0.0432416 0.345234
-0.000799102 -0.0870892 0.0738785
0.0387964 0.0772215 0.0816247
0.177324 0.21006 0.692817
-0.0839446 0.0796365 0.409422
0.241979 0.0262331 0.365434
-0.23002 0.00318136 0.48476
-0.129918 -0.0613657 0.41146
-0.0290111 0.141011 0.558414
-0.197439 0.143343 0.561317
0.22835 0.0304418 0.327751
0.150997 0.142549 0.494657
0.185075 -0.10677 0.405567
-0.0589273 0.00572192 0.26852
0.0705955 0.22661 0.751084
-0.188725 -0.0822333 0.322875
0.188955 -0.040305 0.36589
-0.0853027 0.231709 0.352252
-0.151771 0.148819 0.585113
-0.00903671 0.176605 0.616284
-0.0534659 0.0626657 0.407398
0.155038 0.170588 0.473554
0.0919058 0.166776 0.476884
-0.00833849 0.0474423 0.275977
0.0155359 0.180226 0.451238
-0.137186 -0.218958 0.381113
-0.0104857 0.157638 0.559037
0.125082 0.0548062 0.323469
-0.0726104 -0.177238 0.41071
0.0868271 0.18577 0.418673
-0.0581237 -0.0214898 0.406469
-0.110024 0.00872132 0.40998
0.170704 -0.00232939 0.350752
-0.0785128 0.14693 0.276289
-0.168477 0.239061 0.0146043
0.144339 0.152334 0.594176
-0.00788304 0.241282 0.740722
-0.218414 0.0416198 0.468974
0.0666907 0.0069337 0.270363
0.0661076 0.145855 0.336903
-0.0105146 -0.119702 0.085181
0.0412279 0.0303369 0.126469
-0.174845 -0.0837637 0.409374
-0.0346539 0.165544 0.585124
0.175965 0.193091 0.699313
0.025245 0.0492725 0.0928462
-0.0102219 -0.0758344 0.31932
-0.152555 -0.0234696 0.411135
0.145106 0.0505047 0.337402
0.0678145 0.156323 0.605867
0.241436 -0.0401495 0.0389643
0.0813749 0.13581 0.078805
0.0239716 0.151987 0.474097
-0.04837 0.224329 0.336815
-0.225992 0.0630637 0.552181
-0.172328 -0.0231354 0.101179
0.00822684 -0.112906 0.103286
-0.160358 0.232918 0.727292
0.189974 0.148739 0.578262
0.118995 -0.00748623 0.410664
-0.156704 0.147648 0.385056
0.21977 0.0429015 0.426945
0.0106398 -0.0905661 0.405934
0.209424 0.0323621 0.552474
-0.032555 0.209017 0.695917
0.0168442 0.0767152 0.260058
0.219124 0.0103761 0.498157
0.000936737 0.0602775 0.170164
-0.142576 0.210006 0.407537
-0.160303 0.171341 0.648238
-0.24599 -0.0742214 0.00534751
0.0334633 0.165841 0.63194
-0.180303 -0.190483 0.389436
0.22102 0.0135379 0.443605
0.0894389 0.170687 0.361575
-0.0235341 0.223753 0.371312
0.126692 -0.144817 0.412754
0.125651 0.158416 0.560397
-0.059016 0.0388494 0.250351
-0.177127 -0.11403 0.409213
-0.0797782 0.243215 0.751527
-0.00215709 -0.247878 0.0399415
-0.0251391 -0.105159 0.40649
0.162542 0.17977 0.61952
0.00933671 0.215846 0.70688
-0.258631 -0.0340967 0.0729369
-0.0623058 0.211405 0.300011
-0.131859 -0.0128722 0.0851503
0.143586 -0.215839 0.36964
0.0768633 0.025156 0.318223
-0.0486657 -0.105975 0.303422
0.0800142 0.236398 0.373636
-0.176207 0.165845 0.5819
-0.0583904 -0.0616721 0.406555
-0.140128 0.0367143 0.315344
0.0318927 0.00523921 0.275977
0.11136 0.190078 0.434466
-0.186569 0.189505 0.690419
-0.201938 -0.032274 0.0968201
-0.220755 0.03191 0.417443
0.067295 0.217418 0.347034
-0.00457473 -0.207397 0.352163
0.0794131 0.161885 0.286402
-0.121166 0.151643 0.346621
0.0805831 -0.0940756 0.335321
0.195053 -0.0764927 0.398437
-0.0719008 0.247489 0.357203
-0.037052 0.158991 0.460083
-0.282939 -0.0812637 0.0265832
0.0581273 0.188195 0.69092
0.119878 -0.118799 0.337304
-0.103845 0.174551 0.381535
0.169695 0.152517 0.516228
-0.0157941 -0.185926 0.346486
0.0429785 -0.213033 0.405247
0.0210028 0.210537 0.389581
-0.000492014 0.125455 0.335223
-0.0727676 0.14238 0.49356
0.0924644 0.198673 0.707596
-0.224086 -0.0644504 0.551278
-0.0864491 0.219458 0.712931
-0.180326 0.0369558 0.337536
-0.0607771 0.211963 0.700847
0.141909 0.177028 0.614313
0.0978189 0.104263 0.335355
0.111476 0.138281 0.548096
0.122021 0.25265 0.75648
0.275538 -0.0461385 0.00331887
0.0796245 0.0595199 0.283504
-0.230215 0.00641511 0.430793
-0.230833 -0.024515 0.553114
0.165057 0.26347 0.022104
-0.179967 0.100555 0.379299
0.221205 -0.0246855 0.0698566
0.149772 0.00110621 0.0752611
0.0345948 -0.147421 0.408354
0.00203687 0.242211 0.341188
0.150635 -0.0178499 0.0930049
-0.0591009 0.0728197 0.265462
-0.222679 0.0252269 0.345929
0.256827 -0.0217889 0.534551
0.0170904 -0.106786 0.335538
-0.0786883 0.21474 0.295664
0.163064 -0.143631 0.411179
0.0946615 -0.213825 0.403822
0.0426787 0.151174 0.534824
0.100541 -0.00236391 0.0965685
0.127246 0.202077 0.712919
0.107986 0.177165 0.616957
0.0117356 -0.100557 0.300414
-0.20529 -0.0437464 0.550564
-0.00704227 0.0644515 0.0690165
-0.080556 0.128818 0.285813
-0.00739458 0.165959 0.63256
-0.189054 0.188197 0.642193
-0.00446864 -0.26362 0.0226945
0.245443 0.0511003 0.462434
-0.018908 -0.0108737 0.279439
-0.095639 0.161805 0.573406
0.25607 0.0790256 0.55005
-0.160535 -0.0650149 0.321295
-0.0595103 0.137648 0.0950865
-0.264207 0.0431392 0.551198
0.225333 0.0104903 0.404884
-0.0415373 0.113856 0.0778669
0.120224 0.152587 0.540022
-0.191967 -0.000913411 0.374037
-0.00251966 -0.244607 0.0681936
-0.00813577 -0.0996865 0.10224
0.0601179 0.167114 0.476053
-0.182666 -0.167477 0.363922
0.148724 0.225664 0.0192676
0.132044 0.207221 0.08535
0.188742 0.17223 0.64558
-0.091547 -0.0533941 0.408521
-0.140282 0.166347 0.634549
-0.0518301 0.0175027 0.24611
-0.0555216 0.168591 0.594716
-0.0482539 -0.0518836 0.318223
0.0632157 -0.0643071 0.280104
-0.0299286 0.0424001 0.11153
-0.186364 0.134751 0.515369
-0.0210988 0.0283478 0.0492777
-0.0470083 0.177537 0.664297
0.0262182 0.0940555 0.318223
-0.0535572 0.0989355 0.114134
0.156754 0.18213 0.675312
-0.104885 0.202107 0.388688
-0.177364 0.176612 0.655523
0.198302 -0.0613813 0.385197
0.126313 -0.0103722 0.0944236
-0.102756 0.16327 0.0906014
0.0409927 0.22789 0.723644
-0.00659889 -0.231571 0.395769
-0.0273302 0.243429 0.771776
0.00839967 0.0492072 0.222934
-0.0692323 0.0139334 0.244707
0.0184494 0.0688908 0.129402
0.102395 0.223189 0.745917
-0.111074 0.191888 0.42954
-0.157942 -0.206733 0.391315
0.0170532 -0.030463 0.404869
0.209775 -0.0118489 0.552486
-0.145659 -0.0905116 0.338737
-0.114991 -0.0906852 0.312243
-0.178291 0.217589 0.705461
-0.232354 0.0245228 0.553451
-0.0972414 0.187166 0.68994
-0.0877715 -0.213774 0.357564
0.0206818 0.161373 0.570987
0.0866365 0.169874 0.597177
0.139092 0.211934 0.727975
-0.12945 0.21337 0.731507
0.272252 0.0413431 0.539896
0.2161 0.0297682 0.507865
0.0900625 -0.173629 0.411258
0.0223609 0.108621 0.40877
-0.0220014 -0.244001 0.015816
0.18365 0.247721 0.0157908
-0.013421 -0.036418 0.318223
-0.0970314 0.176915 0.0723253
-0.120428 0.179259 0.451698
-0.131347 0.219965 0.0987989
0.118394 0.21758 0.737086
-0.189369 -0.13405 0.403026
0.1045 -0.0243327 0.335185
-0.0336359 0.144809 0.408237
-0.00970931 0.172169 0.465837
0.00502251 -0.235387 0.0286402
-0.155163 0.179083 0.621441
0.00466863 0.028053 0.0238337
-0.00748954 0.252837 0.75563
-0.132802 -0.024303 0.411435
0.174252 -0.0866514 0.319618
0.103593 0.185724 0.685441
0.0215655 0.146361 0.336842
0.127252 0.155225 0.502589
-0.251907 -0.0381206 0.0199642
0.109964 0.212707 0.701313
0.222915 0.0378356 0.369121
-0.11054 0.202379 0.685392
0.148682 0.158638 0.611589
-0.128412 -0.0226929 0.335333
0.0102683 -0.126959 0.0901637
-0.0736486 0.0928237 0.307898
0.0596165 0.222895 0.323518
-0.152515 0.23376 0.00643588
-0.123626 0.202487 0.387022
0.138131 0.164539 0.62769
0.0819173 -0.210498 0.356393
-0.253152 0.0898687 0.536599
0.0323296 0.0574921 0.318223
0.069577 0.150473 0.526322
0.0696044 0.13423 0.409654
-0.0705531 0.207646 0.409528
0.0242689 -0.0279379 0.318223
-0.148097 0.193142 0.433862
-0.245387 -0.0591374 0.551321
-0.124766 -0.114921 0.337403
-0.157158 0.151136 0.531247
-0.0103527 0.189567 0.413434
-0.100258 -0.144214 0.411292
-0.0396421 0.199774 0.422189
-0.0108168 -0.0265923 0.0958822
0.0576306 -0.104818 0.334998
-0.27167 0.010987 0.53614
0.0671254 0.0877248 0.321782
-0.0379673 0.0742512 0.0928097
0.0320436 0.19026 0.694349
0.0872738 0.116955 0.326942
-0.161293 0.0167917 0.345112
0.0211957 0.134609 0.52884
-0.099351 -0.0936196 0.335466
-0.0807635 0.192761 0.430495
0.18556 -0.0301101 0.0744782
0.141467 0.0420324 0.321422
0.188731 -0.145183 0.364083
-0.0319759 -0.123514 0.340639
-0.00882312 -0.172082 0.0725766
-0.00212886 0.0601319 0.198868
-0.00729655 -0.156516 0.0978471
0.0583617 -0.169988 0.344209
0.113058 0.167273 0.635286
0.0811495 0.00562267 0.112947
0.0418863 0.15249 0.407115
0.225335 -0.0202112 0.533715
-0.133309 0.13466 0.533665
0.1498 0.173288 0.651358
0.202918 0.188869 0.653553
0.0109901 0.0797645 0.406833
0.00110999 0.0181724 0.318223
0.166835 0.026004 0.337536
-0.108997 -0.225744 0.36558
0.258362 -0.0430186 0.534551
0.1094 0.0885558 0.410887
0.017724 -0.00478402 0.246808
0.107066 0.207836 0.722245
0.242946 0.047867 0.393998
-0.0733196 0.143121 0.565736
-0.0668448 0.135372 0.512859
-0.00788999 0.0816659 0.318223
-0.24328 0.0570168 0.510242
-0.067057 0.159419 0.490471
-0.0627245 0.176485 0.616356
0.106807 0.0542394 0.322871
-0.0278323 0.0196365 0.0879552
0.0130399 0.0509014 0.0258842
0.0315957 0.0610326 0.267548
-0.011613 0.211724 0.700245
-0.145448 0.0894054 0.340898
-0.110619 0.161918 0.454006
0.108693 0.193999 0.0714242
-0.205686 -0.00999789 0.534324
-0.0156302 0.165876 0.446731
-0.180413 0.0238637 0.403567
0.199725 -0.116625 0.382654
0.0396955 0.0384299 0.094768
-0.218954 0.0106035 0.497948
0.0382546 -0.126265 0.407643
0.235312 0.0558438 0.434103
-0.169834 0.0687813 0.405311
-0.183543 0.266331 0.0385286
0.155287 0.146742 0.377895
0.0997857 0.0172754 0.107714
-0.0390165 -0.214443 0.3546
0.0489796 -0.230787 0.394659
0.0551799 -0.189739 0.348442
0.243101 -0.0658425 0.534551
-0.0335948 0.0966693 0.318223
0.142647 -0.00593281 0.335745
0.18862 0.168906 0.587177
0.0783977 0.165141 0.097936
-0.168097 -0.039712 0.409684
-0.0506453 0.212544 0.386904
0.0859892 0.138018 0.547259
0.0977837 0.221882 0.367196
-0.0185099 -0.0369168 0.404899
-0.133529 -0.154664 0.345727
0.0791106 0.0754148 0.259389
0.00621877 0.188984 0.438218
0.192731 -0.00755823 0.541043
-0.144354 0.0341562 0.411136
-0.103588 -0.11027 0.410562
0.159646 -0.208439 0.381265
-0.0328411 0.22807 0.753505
0.013228 0.0151672 0.0925621
0.103978 0.196911 0.671003
-0.0636888 -0.123886 0.340675
-0.0322355 0.0513506 0.275977
-0.0202711 0.152005 0.51018
-0.207632 0.172681 0.620192
0.00132725 -0.0127767 0.251248
-0.0829348 0.18189 0.631277
0.056249 -0.130406 0.336857
0.0448831 0.113699 0.323798
-0.0159394 0.168367 0.402454
0.229139 0.00253813 0.516533
0.0622392 0.110382 0.0994237
0.0105633 -0.0540691 0.404981
-0.0460354 0.202911 0.686003
0.177999 0.206688 0.71632
0.00711045 -0.034194 0.318223
-0.184297 -0.0685239 0.40549
-0.19174 0.183102 0.672292
0.0600051 0.160493 0.567776
-0.00308597 0.0411681 0.405549
0.165883 0.230797 0.0415521
0.19844 0.142382 0.553547
-0.123426 -0.0991475 0.411753
-0.163849 0.166535 0.445204
-0.0583797 0.241121 0.312008
-0.222342 0.0445446 0.402939
0.00675852 -0.0289585 0.288115
-0.114142 0.187586 0.647062
0.0737469 0.0568657 0.408294
-0.00636116 0.245224 0.772919
0.155901 0.165022 0.578449
0.166241 0.162185 0.460604
-0.0277414 0.184694 0.638561
0.030251 0.154829 0.54951
0.00871854 0.00526961 0.275977
-0.128667 -0.20449 0.359556
-0.261848 -0.0582537 0.0109293
-0.128879 0.199408 0.0874693
-0.28456 -0.0599555 0.0175432
0.0258367 0.261534 0.774154
0.190214 0.0208225 0.394528
0.0181189 -0.215096 0.404941
0.0102526 -0.227024 0.0781293
0.0272366 0.18293 0.377603
0.128519 -0.087286 0.41177
-0.153794 -0.011858 0.108313
-0.119707 0.00314421 0.327665
-0.0270127 0.135967 0.539836
-0.0597935 0.145599 0.300539
0.0190458 0.242394 0.339189
0.158683 0.235513 0.732077
-0.25674 0.000484212 0.533782
0.121178 0.21249 0.405895
0.183317 0.189844 0.644302
-0.0231847 -0.157351 0.408673
-0.226525 0.0556481 0.475588
0.104776 0.177767 0.663831
-0.0225153 0.0204429 0.318223
0.0793267 0.24223 0.339233
-0.0148771 0.221145 0.714833
0.160351 -0.0761623 0.411082
-0.255781 0.0265536 0.525407
0.0108086 0.239178 0.738319
-0.161768 0.147375 0.482162
-0.0255866 0.171092 0.601332
-0.0881263 0.144878 0.0827491
0.211316 0.149059 0.519133
-0.0783407 0.186161 0.314418
-0.00659024 0.144575 0.569933
-0.0758708 0.168167 0.443
0.217536 -0.0333019 0.0952547
0.0106532 -0.229241 0.0117624
0.0767895 0.161571 0.0732384
0.0936679 0.165293 0.448428
-0.246141 -0.0376855 0.0379854
0.0354062 0.226389 0.750373
0.0706167 -0.111719 0.306891
-0.0246186 0.0282842 0.405165
0.0211824 0.204804 0.717748
-0.103649 0.198498 0.0858759
0.270834 -0.0296921 0.541002
-0.156666 0.266521 0.0423212
0.200734 0.0344776 0.534983
0.179795 0.19981 0.679076
0.0777995 0.0971863 0.409908
-0.140647 0.00146841 0.338492
0.0584762 0.0393213 0.254378
-0.152579 -0.0783654 0.411819
0.265001 0.0128742 0.534774
-0.18201 -0.028056 0.0724375
-0.0360806 0.172915 0.651663
0.100217 -0.105609 0.335731
0.248399 0.0786682 0.534551
-0.120717 0.221483 0.387086
0.153709 0.238412 0.0710474
0.254758 0.059024 0.551779
0.0681251 0.0915958 0.276801
-0.13285 0.232844 0.755791
-0.0163768 -0.250887 0.0504181
-0.16998 0.104728 0.401338
0.247655 0.0264922 0.456616
0.0289678 0.17923 0.668338
-0.0345624 0.163073 0.483481
0.240775 0.0455782 0.552828
-0.0265845 0.214712 0.402187
0.133841 -0.120745 0.412745
-0.0728841 0.22804 0.365116
-0.0365814 0.155337 0.5011
0.1545 0.107074 0.349982
-0.176927 0.197131 0.708228
0.000613112 -0.0512502 0.120862
-0.223259 0.0799362 0.551277
0.0420469 -0.12351 0.326012
0.0507531 -0.0304491 0.406053
0.138603 0.0490854 0.411417
0.169059 0.168646 0.63861
0.185853 0.146976 0.516744
-0.0807894 0.18987 0.295796
0.113188 0.0361376 0.314469
-0.171742 -0.0223322 0.35054
0.0924169 0.0790061 0.334032
0.0510156 0.152828 0.508454
-0.0956446 0.134647 0.532552
0.0588414 0.16962 0.400912
0.20342 0.0684978 0.535679
-0.22832 0.0983022 0.549049
-0.213203 -0.0395222 0.086308
0.0858345 0.149352 0.584871
0.256881 -0.0526066 0.0654818
0.0560248 0.0151856 0.0764223
-0.0765279 0.175983 0.395083
0.0584537 0.165572 0.302401
0.0917262 0.249663 0.752145
0.0451336 0.175233 0.657367
0.0226255 0.0526895 0.126682
0.183288 0.0433244 0.369885
0.104035 0.167974 0.398959
-0.070825 -0.019689 0.255105
0.09265 0.185254 0.093284
-0.03255 -0.00952259 0.249383
-0.220549 -0.0190432 0.534002
-0.17126 0.0994757 0.364844
0.0209268 0.0342972 0.160764
0.146034 0.143853 0.566276
0.13098 -0.197007 0.357615
-0.161728 -0.132252 0.411432
-0.0677839 -0.234176 0.375497
-0.016446 -0.122456 0.407154
0.0097363 0.0724371 0.0995063
-0.11203 0.154053 0.469357
0.0607996 0.228481 0.305351
-0.262995 0.0115848 0.552419
-0.261451 -0.0594656 0.537885
0.150798 0.265115 0.0713481
0.0470457 -0.0598917 0.318223
-0.172671 0.164523 0.485017
0.15404 -0.0590342 0.411476
0.184504 0.170212 0.473496
-0.171976 -0.00500812 0.0805404
-0.134274 0.132013 0.407461
-0.144888 0.061386 0.410573
0.0785971 -0.111158 0.336622
-0.172409 -0.0850721 0.32014
0.0299879 0.184067 0.636399
-0.170418 0.226318 0.0373282
0.0250215 0.233665 0.31225
-0.106797 0.178622 0.622497
0.0772723 0.183731 0.445487
-0.0594826 0.151216 0.475166
0.094484 0.154378 0.504594
-0.223128 0.0419397 0.373134
0.050442 0.193134 0.661053
-0.0203643 0.146032 0.485505
-0.178104 -0.101103 0.353363
-0.127478 0.133737 0.339391
-0.0764887 0.236629 0.764651
-0.0338257 0.143987 0.336669
0.0683426 0.165088 0.448699
0.246446 0.0211678 0.429655
0.0350159 0.188215 0.415117
0.141122 0.178457 0.665456
-0.00954519 -0.146813 0.338486
-0.117787 0.189887 0.694391
0.247523 -0.0482163 0.0848181
-0.0266193 0.216081 0.735306
-0.0778662 0.108666 0.297631
0.0796721 0.00164316 0.25819
-0.0623052 0.240513 0.768883
0.072671 0.184648 0.682733
-0.0879391 -0.153868 0.341101
0.0270838 0.142659 0.563356
0.2483 -0.0288994 0.076913
0.23482 0.0590965 0.486174
0.200944 0.030122 0.321422
-0.218038 0.00128853 0.528193
-0.0801629 0.162119 0.622667
0.0638987 0.20219 0.684331
0.049371 -0.154672 0.409299
-0.159502 0.255218 0.0577708
0.00914084 -0.189916 0.0749346
-0.197412 -0.0690561 0.377207
-0.09059 0.148178 0.100324
0.174835 -0.115146 0.351561
0.0465114 0.133588 0.335845
-0.225524 0.0204022 0.326873
0.1069 0.138779 0.504354
-0.0348877 -0.23288 0.359819
-0.142697 -0.0137011 0.0728688
-0.0067671 0.194669 0.66569
0.245174 -0.0651859 0.551009
-0.0365098 0.229477 0.379516
0.0549721 0.177353 0.456016
0.256503 -0.0372337 0.0254548
-0.0808014 0.166961 0.293518
-0.218615 0.0690065 0.533728
0.123986 0.150375 0.522673
-0.172925 0.0141726 0.333932
0.0450598 0.184277 0.681931
0.191654 0.160294 0.496665
0.0583753 0.0732446 0.316968
-0.0726281 0.152728 0.105471
-0.142038 0.226238 0.0268615
-0.0117839 -0.0234132 0.257167
0.161274 -0.175639 0.357752
0.188127 0.135411 0.532706
0.0457307 0.0893344 0.112092
0.153612 0.136894 0.509699
0.0013607 0.156202 0.406764
0.00653936 0.154252 0.547813
0.0776597 -0.113453 0.409
0.0244613 0.0539748 0.40593
0.0397498 0.141963 0.495423
0.143472 0.202853 0.714336
0.0209362 0.0338506 0.194671
0.00505497 0.140908 0.557777
0.0308208 -0.098104 0.299043
0.134471 0.120426 0.340015
-0.194527 0.157932 0.470182
0.0229831 -0.254645 0.0324867
-0.0748674 0.00753477 0.116056
-0.121448 0.151805 0.539371
-0.0804193 0.114304 0.410515
0.196609 -0.0352038 0.546504
0.131891 0.203086 0.394898
-0.141632 0.212762 0.701175
-0.0202321 0.243543 0.312892
-0.0578885 0.140174 0.499521
-0.0971776 0.175078 0.657985
0.061094 0.131369 0.0745199
0.10995 -0.0427139 0.410014
0.128272 -0.0907598 0.32911
0.0275913 -0.0149313 0.281435
0.118734 0.173051 0.605615
0.105266 0.166952 0.588482
0.159803 0.134582 0.524621
0.0298547 0.0226747 0.405177
-0.0116563 0.0679495 0.125469
-0.125299 0.161902 0.622382
-0.105764 0.150277 0.518768
-0.0785395 -0.0417824 0.281456
0.0371662 0.203663 0.715847
0.119822 0.163808 0.451464
0.129371 0.178358 0.454869
0.0797985 0.023139 0.114054
0.0509791 0.2203 0.713558
0.198639 -0.140704 0.390452
-0.0216428 0.124371 0.409519
-0.0551263 0.232721 0.756828
-0.0572469 -0.0457127 0.269547
-0.0254274 0.0437088 0.0512947
-0.240748 0.0245959 0.38426
-0.171287 -0.0722596 0.349796
0.0528864 0.176749 0.616235
-0.0125894 0.18891 0.649979
-0.0288582 0.186215 0.687734
-0.182014 -0.0108606 0.359122
0.271877 -0.0410409 0.0774594
0.0453331 0.246063 0.311907
0.144499 0.0344713 0.337536
-0.0493077 0.0781265 0.407786
-0.077455 0.134218 0.527413
-0.18405 0.0851774 0.377603
0.0179986 0.163261 0.45202
-0.168534 0.0334196 0.40838
0.181871 -0.094684 0.355632
0.0616151 0.215183 0.733596
0.123612 0.199664 0.0710006
-0.244151 0.0145405 0.399687
-0.0466695 -0.0870735 0.333971
0.0699086 0.251526 0.352306
-0.239607 -0.0582654 0.0158958
0.217326 0.0393302 0.480619
0.175918 -0.143455 0.354742
0.0527502 0.022017 0.260132
-0.0958401 -0.12815 0.410551
0.152104 -0.0924722 0.412288
-0.193412 0.0330555 0.546162
-0.189516 0.148405 0.480393
0.105667 0.142537 0.562283
0.0792256 0.213958 0.398203
0.0571921 -0.232829 0.361419
-0.141921 0.160882 0.619712
0.0303305 0.163449 0.483089
-0.0557752 0.188014 0.647843
0.0479072 0.177257 0.366908
0.0412839 0.112206 0.112835
0.0169541 0.128151 0.335428
-0.253383 0.0550337 0.532217
0.184235 0.142261 0.560717
-0.0928418 0.138975 0.552254
-0.188844 0.215165 0.717047
0.241701 -0.0265447 0.534329
0.0861017 -0.0158209 0.319737
-0.0229627 0.155044 0.467884
-0.261061 0.0717482 0.535585
-0.0936185 0.244359 0.76817
-0.0424394 0.195759 0.406264
0.0174393 -0.124444 0.329024
0.155033 0.23022 0.749078
0.117382 -0.106706 0.324717
-0.0423871 -0.149692 0.338999
-0.0981488 0.225839 0.721435
-0.0503972 -0.233266 0.392512
0.133485 0.154897 0.468941
0.203545 0.168901 0.592288
-0.118162 0.097207 0.335633
0.0574631 0.245218 0.771006
-0.00958394 0.00564712 0.110011
-0.0162764 0.0757343 0.24611
0.0178451 0.197047 0.404978
-0.201701 -0.0284104 0.550558
-0.025092 0.15585 0.605234
-0.213461 0.147917 0.544321
-0.155831 0.177685 0.427009
-0.13463 -0.196768 0.406539
0.190512 0.182447 0.623821
0.115951 0.012855 0.0995368
-0.176965 0.17423 0.468474
0.0221326 0.0254185 0.128544
-0.107495 0.188151 0.41477
-0.138836 0.00394208 0.0977199
-0.116103 0.0704551 0.335185
0.0487559 0.205255 0.395697
-0.196917 -0.0204213 0.0708291
0.0909638 -0.105242 0.308142
-0.0516121 0.183825 0.44565
0.0784132 -0.039754 0.286451
-0.0455065 0.188381 0.691665
0.0795572 0.0822099 0.306856
0.0573945 -0.0438429 0.26867
-0.215776 0.0269187 0.521275
0.106904 0.134219 0.336204
-0.0129256 -0.120475 0.3149
0.102578 0.157522 0.463665
0.202357 0.148195 0.567434
-0.00902618 -0.129956 0.0735784
-0.221151 0.049564 0.333428
0.210076 0.014473 0.552668
0.0205277 0.250412 0.753052
0.152709 0.241001 0.0418663
-0.0807396 0.153133 0.598265
-0.0101031 -0.106585 0.0768828
0.005133 0.179857 0.625066
-0.183791 -0.121974 0.358118
-0.155783 0.0128849 0.328994
-0.0856529 0.19459 0.701801
0.0119445 0.184042 0.420835
-0.15428 0.245259 0.0400915
-0.131761 -0.0816328 0.336687
-0.0764194 0.162833 0.576613
0.187328 0.160553 0.613395
-0.20977 -0.0586843 0.550096
-0.0729809 0.172194 0.649977
0.0844451 0.19952 0.678281
0.0553604 0.0138658 0.11682
0.0225822 -0.0828936 0.316337
0.00023222 -0.193302 0.348134
-0.19813 0.151656 0.589723
0.0883759 0.159941 0.490245
0.179777 0.156094 0.590345
-0.039142 -0.194266 0.409248
0.169108 0.269507 0.0742337
0.180379 -0.139903 0.407402
0.0609541 0.198986 0.297144
0.0657634 0.11725 0.269044
0.123334 -0.174865 0.34956
-0.232192 -0.0829366 0.547121
0.140343 0.268909 0.0364638
-0.147674 0.190751 0.696727
0.0733596 -0.232382 0.386669
-0.0969081 0.163022 0.62524
0.081664 -0.206088 0.406378
0.116399 0.153773 0.598617
0.284521 -0.0513208 0.0146097
