0.0428042 0.0513824 0.29378
0.186706 0.0565661 0.344497
-0.0660458 0.23837 0.753743
0.0227428 0.173231 0.39704
0.0844873 0.237155 0.770035
0.1822 0.0695017 0.373637
-0.0998303 -0.0929233 0.340308
0.070014 0.110907 0.335696
0.00406377 0.238987 0.711332
0.119949 0.197165 0.0932033
-0.034818 0.02106 0.298346
0.152832 0.251414 0.0225341
0.0649728 -0.00426242 0.276102
-0.0109622 0.0390545 0.240165
0.00779763 -0.077783 0.0734284
0.0793583 0.0114248 0.299735
-0.104853 0.0772082 0.356311
-0.0428082 -0.177659 0.395444
0.106072 0.0164106 0.335333
-0.152794 0.13982 0.479378
-0.0360252 0.00785329 0.272091
-0.0146052 0.0244545 0.194047
-0.168303 0.186822 0.754512
0.0556761 -0.0595833 0.285579
-0.0903812 -0.137099 0.345494
0.134011 0.128432 0.340967
0.116266 0.202723 0.424749
-0.110196 0.171889 0.374743
-0.0763326 0.102148 0.286197
-0.0862383 0.173472 0.39084
-0.00279004 0.190673 0.675109
-0.0219957 0.00413898 0.300872
0.128646 -0.029981 0.300737
0.0706042 -0.104651 0.314893
0.149989 0.239429 0.0622492
0.16933 -0.0636022 0.309083
0.0926116 0.159446 0.407063
0.0420066 0.229539 0.645384
0.121399 -0.0395478 0.302163
-0.0231925 0.032507 0.114879
0.154236 0.163239 0.335812
-0.0712673 -0.0999253 0.334537
0.132424 -0.00783342 0.41654
0.0395505 0.182484 0.643691
-0.125124 -0.0709822 0.338527
-0.112419 0.18012 0.696921
0.150403 -0.0517592 0.41654
0.0752097 -0.105556 0.29491
-0.096338 -0.00491571 0.279315
0.0327601 -0.163712 0.411303
-0.0886775 0.199816 0.778084
-0.0529236 -0.178252 0.390742
0.0427996 0.181171 0.352148
0.178272 -0.138865 0.380311
0.0706126 -0.0778219 0.41654
0.0149011 0.029092 0.147479
-0.119453 0.202216 0.431624
-0.100476 0.217774 0.606116
-0.0625678 0.0598605 0.356255
-0.159337 -0.164485 0.364035
0.0836643 0.168836 0.37642
-0.170108 0.16091 0.559789
0.105043 0.23233 0.773525
0.0453133 -0.000450559 0.335333
0.241407 -0.0752486 0.0129309
-0.00990048 0.0714884 0.330025
0.14579 -0.047584 0.303352
-0.0258524 -0.136375 0.41654
0.00130426 0.164046 0.466945
-0.122454 0.215231 0.627787
-0.0814246 0.164879 0.0927186
-0.0162703 0.234235 0.672533
-0.0761119 0.159526 0.0713315
0.0708839 -0.125186 0.325812
0.0369002 0.24091 0.758835
-0.193598 0.00385974 0.398462
0.117479 0.0371325 0.335333
0.161409 -0.140165 0.343891
-0.192248 0.0718655 0.37466
0.136445 0.212072 0.0655149
-0.010293 -0.160639 0.0767065
-0.136323 0.250485 0.00286966
0.0767179 0.161006 0.429465
-0.00374898 0.0640176 0.068302
-0.158449 0.029046 0.336392
0.0482749 0.20836 0.472132
-0.177154 0.0146347 0.339966
-0.112499 -0.152031 0.337023
-0.0037025 0.0187015 0.0197452
-0.00813068 -0.17254 0.0661097
-0.157779 -0.0700621 0.341541
-0.0850224 0.0384894 0.41654
0.114788 0.225688 0.721563
0.0360815 0.0731888 0.0786409
-0.04247 0.133994 0.337204
-0.1363 0.198303 0.337541
-0.185599 -0.0250189 0.343982
0.137609 0.133707 0.32208
-0.0882476 0.233149 0.737974
-0.120316 0.21736 0.648991
0.167933 0.0740025 0.348642
-0.0257962 0.166886 0.546095
0.138398 0.213465 0.643287
-0.113361 0.182633 0.367923
0.0285188 0.172053 0.391333
0.0705033 -0.0949195 0.320514
0.0375318 0.175043 0.388953
-0.0643111 0.158848 0.510567
-0.0942943 -0.0484766 0.41654
0.0709242 -0.116836 0.312296
0.1294 0.0473162 0.41654
-0.201908 -0.0677279 0.387224
0.00228205 -0.019501 0.278631
0.0112945 0.166623 0.430367
-0.0568566 -0.166513 0.408379
-0.227513 -0.0423437 0.0859139
-0.259745 -0.0457232 0.0283848
-0.1839 0.0385708 0.404475
0.110285 0.16902 0.373836
0.0661676 -0.128824 0.34449
-0.165594 0.247053 0.00200076
0.128057 -0.0075386 0.335333
-0.147915 0.259802 0.0592565
-0.0810284 0.022706 0.08634
-0.154595 -0.017061 0.0646059
0.0117369 0.0884139 0.268874
-0.132002 0.130995 0.337616
-0.0592622 0.126525 0.0652728
0.00167267 -0.152295 0.336305
0.0055899 0.166048 0.531227
0.1867 0.0551926 0.351048
-0.114878 0.0236299 0.41654
0.159718 0.110372 0.406072
0.0920968 0.0187185 0.0857369
-0.100972 0.19405 0.083576
-0.109227 0.177021 0.0907032
-0.108935 0.206083 0.0716337
-0.109551 -0.0289543 0.41654
-0.0177816 0.0389563 0.0529107
-0.0480149 0.206237 0.781837
0.145242 0.153673 0.374347
-0.155541 -0.134852 0.336255
0.141035 0.220241 0.0359904
-0.125565 0.182162 0.352004
0.0233775 -0.021357 0.279217
0.0837003 0.206121 0.449195
0.100927 0.0144945 0.0943368
-0.134963 0.129475 0.337794
-0.0542156 0.212759 0.407308
0.149486 -0.0724842 0.307074
-0.14167 0.12479 0.415249
-0.0190677 0.0774728 0.0666687
-0.127423 0.0675315 0.352229
0.169331 0.1932 0.565131
0.107353 0.182886 0.0962796
0.0481835 0.213923 0.407426
-0.0109392 0.235199 0.67847
0.185091 -0.125587 0.35582
0.0359028 0.217816 0.561972
-0.00735905 -0.0875249 0.0976659
-0.0535271 -0.117208 0.31645
-0.0170566 0.179126 0.360848
0.0931196 0.197174 0.770484
0.00854932 -0.00888784 0.335333
0.1334 0.14919 0.411773
0.0927759 -0.0473869 0.41654
0.170866 0.207435 0.699994
0.0079812 -0.168298 0.0720826
-0.109725 -0.100789 0.41654
0.169523 0.256267 0.0336148
0.153707 0.227448 0.0180052
-0.173212 -0.0639902 0.414101
-0.0818328 0.0881939 0.41654
-0.121635 0.153381 0.407351
0.163761 0.0555942 0.340138
-0.0950904 0.204484 0.507656
-0.0682557 0.166492 0.404334
-0.144115 0.248008 0.0355991
0.0404836 -0.169474 0.345993
-0.173485 0.17208 0.563379
-0.0607465 0.203692 0.777009
-0.0639517 0.0654266 0.352247
0.128524 -0.0320629 0.301047
0.0746014 0.198777 0.756305
-0.096277 0.207578 0.406767
0.0112917 0.100139 0.271404
0.150573 0.0277528 0.415901
-0.140925 0.202226 0.355646
-0.0531765 -0.0998656 0.294626
0.180835 0.0813028 0.372323
-0.166686 0.215166 0.790162
0.0709428 0.0875426 0.335482
0.139173 0.171295 0.686175
0.140591 0.0256881 0.33491
-0.238729 -0.0368874 0.0300533
0.177125 0.251884 0.0378189
0.116623 0.129608 0.339289
-0.0405142 0.162508 0.45004
0.162744 0.188848 0.439501
-0.151331 0.156538 0.370565
-0.165605 -0.0729283 0.416354
0.0983761 0.228543 0.708049
0.0776942 0.171399 0.371131
-0.0716797 0.0798899 0.41654
-0.00970589 -0.0230903 0.335487
0.139674 0.197825 0.523449
0.0186521 0.0774862 0.100268
-0.151154 0.252251 0.0477378
0.263 -0.0425214 0.0226352
0.162516 -0.153158 0.352927
-0.208719 -0.0265488 0.0919454
-0.020077 0.0845637 0.41654
-0.0129036 0.167736 0.54543
0.151459 -0.0545833 0.41654
-0.0950689 0.00816643 0.105363
-0.0225779 0.0514508 0.0743054
-0.184491 -0.104301 0.354644
0.0195197 0.156907 0.348821
-0.139139 -0.0655244 0.304053
-0.0454987 -0.0824872 0.338287
0.0532867 -0.0921863 0.293082
-0.162792 0.194504 0.369649
-0.0758786 0.217102 0.371562
0.0546141 0.0305382 0.268551
0.100747 -0.152239 0.336813
0.0797374 -0.150164 0.415944
-0.0515347 0.209517 0.449859
-0.166177 0.016815 0.337744
-0.169984 0.179769 0.696104
-0.132347 -0.0446804 0.336741
0.0337535 0.176513 0.373039
-0.0295369 0.219279 0.369524
-0.0404302 0.235568 0.704935
0.125355 0.195903 0.0852592
-0.020774 0.0351712 0.0311086
0.0938553 0.170732 0.617248
0.0459672 -0.0824629 0.41654
-0.00629506 -0.0381507 0.102939
-0.0169686 0.0530499 0.0448106
0.0113349 0.225483 0.577114
0.0568261 0.133086 0.33718
0.10214 -0.119972 0.343792
-0.158873 0.113869 0.41224
-0.0251274 -0.0394868 0.41654
0.061926 0.176112 0.370807
0.0636758 0.169218 0.390774
-0.00591903 -0.066677 0.41654
-0.194072 -0.0849376 0.348564
-0.141224 0.030946 0.41654
-0.132202 0.139779 0.328934
0.121689 0.00770717 0.078931
-0.137143 0.164198 0.390194
-0.125145 0.135733 0.319679
-0.144141 0.23963 0.00250276
0.135033 0.224955 0.774478
-0.0719324 0.220462 0.572845
-0.0512004 0.0172586 0.270181
-0.130483 -0.037206 0.33614
-0.18334 -0.115248 0.354639
-0.0979887 0.150902 0.485531
-0.0837325 0.223018 0.62306
0.0374763 0.17506 0.388829
-0.0216285 0.0985287 0.41654
-0.166129 -0.0651317 0.342168
-0.118722 0.221663 0.695669
-0.0647625 0.20873 0.789387
0.0253758 0.171327 0.396318
0.00657964 -0.261769 0.0263662
-0.134988 -0.0193297 0.335333
-0.17439 0.00225201 0.342826
0.131976 0.197963 0.459335
-0.0659204 -0.131322 0.338501
-0.161887 0.153518 0.573646
-0.0382196 -0.17858 0.36279
0.0773231 0.230653 0.686394
0.142646 0.163581 0.646327
0.108427 -0.0356434 0.336349
0.0897993 -0.0172318 0.283043
-0.161061 0.0703043 0.360149
-0.275748 -0.0625876 0.0329427
-0.0227623 0.0848011 0.288709
0.00796207 -0.185835 0.0837887
-0.169493 0.213094 0.7241
-0.152618 0.219426 0.75225
-0.051289 0.208768 0.460019
-0.17358 0.0997103 0.343511
-0.170833 0.167314 0.591722
-0.275839 -0.0546924 0.00948167
-0.159606 -0.145464 0.34846
0.127406 0.185424 0.357383
-0.0467331 0.134116 0.41654
0.192562 -0.0323054 0.08899
0.018787 0.0507336 0.0513657
0.0361345 0.0529908 0.293544
0.139746 -0.0729754 0.339353
0.00945031 0.217913 0.793183
-0.106539 -0.0260098 0.41654
0.0851991 0.197492 0.760895
0.0182894 0.049179 0.0302863
-0.19674 -0.017025 0.0903098
-0.194372 0.0284938 0.392
0.00270598 0.0207081 0.172575
-0.0777287 0.191466 0.714221
-0.133409 0.112524 0.335246
0.117068 0.211504 0.572068
0.0609634 0.174256 0.36642
0.267466 -0.0585438 0.0427609
-0.0758744 0.0859008 0.296334
-0.126013 0.0111196 0.41654
-0.0148068 0.0597896 0.26833
0.259174 -0.0663327 0.0433269
0.0301869 0.176099 0.601658
-0.173455 -0.083366 0.348037
0.2415 -0.0474255 0.0112231
-0.185623 0.102171 0.354833
0.0939583 0.107926 0.41654
0.133242 0.239393 0.0166707
0.0723834 0.228047 0.655322
0.0284831 0.170735 0.351805
-0.0516367 0.0241514 0.0657681
-0.10554 0.222639 0.673087
0.0198686 -0.233226 0.0409801
-0.0190221 0.242882 0.764604
0.145983 0.140307 0.512814
0.0143461 0.237604 0.705699
0.024878 0.165919 0.425712
0.0203318 0.24069 0.742766
0.0414437 0.215741 0.399341
0.117549 -0.0519797 0.296589
0.166193 0.251224 0.0231013
0.0464027 -0.152843 0.33644
-0.109415 -0.124274 0.41654
-0.152859 0.161389 0.639716
-0.169099 -0.0459568 0.306615
-0.0534364 -0.102251 0.329587
-0.149492 0.17432 0.715089
0.098961 0.158109 0.0737999
0.175768 0.256637 0.00985521
0.265742 -0.0820861 0.0225012
0.165034 0.189989 0.532675
-0.167022 0.1864 0.383211
0.167561 0.224533 0.0209534
0.245041 -0.0472672 0.0862083
-0.252034 -0.0391677 0.0477378
-0.0889896 0.0210259 0.282766
-0.0205413 0.0442754 0.195194
0.0715185 0.0214407 0.104189
0.00359288 0.244566 0.768919
-0.0335499 0.000716585 0.41654
-0.13544 0.182031 0.373033
-0.197922 -0.0514146 0.353936
-0.12309 -0.0101883 0.301227
0.140775 0.220166 0.0641669
0.0451319 0.0039286 0.335333
0.151723 0.106779 0.340179
-0.0543129 0.0306871 0.41654
0.106094 0.0610279 0.284275
-0.0356361 0.215952 0.549523
0.0293149 0.0619963 0.288719
0.154605 0.07281 0.350765
-0.0846113 0.191578 0.361466
0.0206844 0.202774 0.754245
-0.158753 0.179003 0.738949
-0.0199055 -0.161452 0.412007
-0.0695428 0.00772577 0.0980546
-0.166628 0.259723 0.0142472
0.056006 -0.0960198 0.291029
-0.155596 0.192375 0.471147
0.136007 0.140837 0.488
-0.199967 -0.0247593 0.383227
-0.0253536 0.0896274 0.41654
0.0231087 0.0552328 0.0965324
0.151817 0.196702 0.416203
0.16497 -0.0255127 0.0758614
0.140885 -0.158418 0.404894
-0.0199682 -0.149961 0.4159
-0.132775 -0.0324481 0.335853
-0.247663 -0.0662987 0.0145403
-0.0874258 -0.123015 0.41654
0.173109 0.161291 0.473589
0.140111 0.00392757 0.335333
0.0216001 0.0378403 0.118305
-0.0254691 0.131277 0.33583
0.121025 0.222077 0.792509
0.0697911 0.0517598 0.268574
-0.11559 0.0962448 0.41654
-0.236215 -0.0522646 0.0430097
0.0751362 -0.103241 0.310619
0.170261 0.0137723 0.409558
0.0614526 0.00954709 0.0934573
-0.082174 0.196072 0.747428
0.091678 0.0139927 0.276396
0.125762 0.0403008 0.41654
-0.0380906 0.163511 0.441237
0.269576 -0.0652498 0.0422599
-0.0750374 -0.105745 0.315549
0.00382005 0.219641 0.55694
-0.0578179 0.132526 0.0678775
-0.0130175 0.0155109 0.335333
0.0655539 0.076361 0.335378
0.145262 0.241677 0.0624409
-0.0659337 0.19328 0.718038
0.109592 0.0699484 0.335348
0.0860849 0.211769 0.360139
0.118027 -0.0257422 0.335649
0.00345761 0.166496 0.438692
0.145285 0.141868 0.448647
-0.124477 -0.0574234 0.299707
-0.0113848 -0.248504 0.00394824
-0.116138 -0.100692 0.41654
0.036729 0.0173187 0.0832216
0.0195556 0.195776 0.712466
0.0160601 0.0755149 0.268597
0.140098 0.207516 0.578916
0.00219563 0.0746906 0.290319
-0.05512 0.167221 0.405731
0.140558 0.141767 0.355235
0.1933 -0.0887542 0.379611
0.171957 0.0122294 0.343273
0.0105669 -0.0514215 0.336639
0.0408362 0.23689 0.720525
0.142886 0.180483 0.376401
3.89025e-06 0.167776 0.426714
-0.187384 0.00153741 0.404389
-0.0226098 0.0480228 0.0832875
0.0967749 0.105503 0.306943
-0.100975 -0.00704156 0.41654
-0.111206 -0.0226507 0.303112
-0.18738 -0.0261227 0.345585
0.0645102 0.0551045 0.293216
0.10639 0.167668 0.357319
-0.128736 0.0787142 0.335849
0.0740438 0.188437 0.69527
0.0798918 0.101951 0.41654
-0.18554 -0.0521381 0.409
-0.202007 -0.0657071 0.365704
-0.171555 0.184343 0.552684
-0.022306 0.210737 0.479699
0.103357 0.185272 0.715824
0.0472783 0.229122 0.645529
0.044103 -0.0458687 0.30832
0.0208451 0.18979 0.677795
0.138937 0.242858 0.080927
-0.11929 -0.0466804 0.302474
0.0404214 0.0597498 0.41654
-0.193725 -0.0733372 0.308219
-0.0433013 -0.0559539 0.28544
0.0522176 0.209687 0.510519
-0.124433 -0.00935287 0.0957828
-0.142575 0.159271 0.322049
0.045557 0.212628 0.417219
0.100359 0.204783 0.523013
-0.147306 -0.144427 0.346921
-0.024266 -0.248976 0.0270908
-0.00466376 0.222393 0.79462
-0.0457545 0.0839784 0.33544
0.00789847 0.0172233 0.26862
0.00596997 0.0124656 0.10964
-0.169593 0.182771 0.509707
0.0108953 0.053625 0.131031
0.0510332 0.115242 0.10356
0.138258 -0.0167419 0.0788083
-0.228892 -0.0320696 0.0894566
-0.14727 0.0650722 0.360035
0.0126433 0.025227 0.0505728
-0.172053 0.173565 0.482124
-0.0963489 0.0792511 0.289688
-0.171386 0.169755 0.423765
-0.110597 -0.0452714 0.291677
0.0432765 -0.0410696 0.41654
-0.173082 0.18729 0.708591
0.228045 -0.0313282 0.0632561
-0.0129405 0.166971 0.541189
-0.0854621 0.00676193 0.275687
-0.0524199 0.103234 0.41654
0.159933 0.241215 0.0335004
-0.095758 0.210446 0.386252
0.258592 -0.0567977 0.0338161
0.186154 -0.123409 0.392002
0.148071 0.253651 0.0518464
-0.0507855 -0.00122795 0.41654
-0.187226 -0.0238631 0.345561
0.0775625 0.146327 0.338593
0.238432 -0.0478247 0.0414704
0.217374 -0.0313101 0.0916362
-0.166114 0.260437 0.0260577
0.0533694 0.0496641 0.268397
0.153903 0.114294 0.341631
-0.0575473 0.115955 0.104883
-0.135562 -0.118451 0.34445
-0.0136468 0.137569 0.337447
-0.12126 0.151185 0.41966
-0.0711492 -0.0990178 0.313794
-0.0534097 0.0311639 0.41654
-0.0811754 0.160372 0.341696
0.141828 0.198154 0.532163
-0.262911 -0.0434446 0.00875188
0.12908 0.158762 0.598633
-0.0129251 -0.0363213 0.336005
-0.142461 0.0628112 0.358802
-0.0743389 0.173842 0.363499
-0.11085 0.180983 0.351256
-0.0259586 0.0465023 0.268315
-0.125127 0.140326 0.336839
-0.135797 0.200846 0.416484
-0.160296 0.264313 0.0230717
-0.152924 0.0236702 0.336258
0.132527 0.173427 0.319296
-0.0457081 0.00235342 0.30115
-0.177582 -0.077714 0.338372
0.0852603 0.163073 0.347002
0.0690525 0.223347 0.603919
-0.0454087 0.174675 0.393597
0.00775176 -0.0772353 0.0963467
-0.25049 -0.0743517 0.0365489
0.176418 0.0444946 0.401083
-0.127845 0.15342 0.398828
0.0509547 0.171922 0.382488
0.036777 0.0145894 0.29928
-0.112485 0.171023 0.372174
0.0423847 0.209018 0.478119
0.189352 -0.0989368 0.357811
0.114838 0.106653 0.41654
-0.0834156 -0.120033 0.41654
-0.00453417 -0.021464 0.105852
-0.179806 0.103865 0.350666
0.0170192 0.0605585 0.0655365
-0.179527 -0.0123498 0.34897
0.129617 -0.171854 0.38987
0.0638018 0.163667 0.4188
0.0667517 0.23487 0.721213
0.157876 -0.0842154 0.415568
0.209076 -0.037504 0.0886543
-0.169032 0.191824 0.782339
0.15527 0.192154 0.478076
-0.125267 0.198903 0.493128
-0.021913 -0.0594161 0.336908
-0.0305552 0.217513 0.380725
0.083648 0.11938 0.307943
-0.152277 0.242748 0.0872232
0.0201305 0.243793 0.777094
0.262898 -0.0729801 0.0335876
0.167839 0.262682 0.022727
0.09117 0.218259 0.58765
-0.140137 0.0429904 0.41654
0.0376452 0.0560741 0.268565
0.136546 0.0643433 0.334997
-0.249854 -0.0326987 0.0799498
-0.0619956 -0.0695624 0.311914
0.0470933 -0.0439828 0.41654
-0.0963414 0.00759741 0.105275
-0.0378265 0.240419 0.753402
0.175707 0.212155 0.752957
-0.0607692 -0.135987 0.345275
-0.0124152 0.176897 0.374727
0.171651 0.166693 0.410964
-0.0959085 0.190066 0.731729
-0.141495 0.196499 0.500273
0.183063 -0.0232956 0.35161
-0.155257 0.160236 0.629553
-0.0681352 -0.126876 0.41654
0.0173726 0.0324712 0.173625
0.187602 -0.0204689 0.359609
0.139103 0.142892 0.314808
-0.200727 -0.0533296 0.362566
0.067503 0.233685 0.709578
0.0411738 0.179906 0.629318
-0.0179622 0.040451 0.195858
0.0735936 0.0258786 0.29758
0.0333292 0.241845 0.76554
-0.170152 0.151545 0.478651
0.102992 0.183142 0.343397
-0.0570016 -0.0457718 0.308353
-0.00424799 -0.0822925 0.337326
0.07804 0.158168 0.340858
0.051583 0.192046 0.705675
0.113428 0.19886 0.0938173
-0.110863 0.00894649 0.297734
0.0423016 0.0340094 0.0822239
0.0412968 0.233549 0.686354
-0.096766 0.173355 0.37024
-0.105515 0.198898 0.0864445
0.069239 -0.0781846 0.288352
-0.0185096 0.207134 0.357603
-0.261233 -0.0526837 0.00978586
0.0621854 0.21109 0.41813
-0.00925596 0.214453 0.524233
-0.0512244 0.122139 0.100516
-0.148343 0.00399147 0.41654
-0.0116898 0.215322 0.352304
0.0414452 -0.0458701 0.283543
0.174433 0.0160527 0.342666
0.0122852 0.0962439 0.2691
-0.0206758 0.0246827 0.110208
-0.199465 -0.0288816 0.363836
-0.0120888 0.21879 0.377376
0.00541805 -0.0673626 0.41654
0.00700321 0.0903211 0.266809
0.0131017 0.225326 0.576983
0.0765246 0.131876 0.41654
0.115151 0.181574 0.373864
-0.145194 0.143319 0.43907
-0.0171741 -0.14135 0.41654
0.127695 -0.173178 0.384819
0.119663 0.223988 0.715544
-0.0835972 -0.017798 0.279159
0.0490537 0.199861 0.750537
-0.133632 0.260048 0.0257242
0.101506 0.155024 0.313379
-0.0981712 0.176013 0.652824
0.0230221 -0.236666 0.0146603
-0.041648 0.22918 0.639598
0.0575883 0.157556 0.411766
0.204793 -0.028794 0.0934596
0.175831 0.104836 0.386708
-0.172052 0.0218296 0.3408
-0.0506081 0.163115 0.534918
0.104995 0.144639 0.305741
-0.00822536 0.0456027 0.201153
0.106398 0.00151816 0.335333
-0.104074 0.1606 0.571093
-0.0135796 0.210929 0.357605
0.00505649 0.0607145 0.0531245
0.00140522 -0.0357599 0.335991
-0.147077 0.20865 0.605833
0.00999617 -0.00604901 0.335333
0.031531 0.239235 0.737041
-0.260707 -0.0803343 0.0224229
-0.0684475 0.133977 0.0640211
0.117805 0.20319 0.356275
-0.0349375 -0.0408692 0.282832
0.0584234 0.0795801 0.335404
0.0647612 0.236625 0.737707
0.162052 0.211206 0.681028
0.12767 0.173308 0.681214
0.024399 0.164417 0.442476
0.0719243 0.199829 0.358738
-0.118599 0.205817 0.0628006
-0.111679 0.200981 0.488917
0.216116 -0.0304008 0.0623188
0.157815 0.212539 0.689484
-0.0132596 0.177735 0.603444
0.190585 -0.103255 0.392306
-0.135657 0.0034932 0.0903526
-0.0161133 0.0546853 0.0469882
0.161455 0.191557 0.512915
-0.144308 0.1817 0.750823
0.074243 0.0445433 0.335333
0.135077 -0.132026 0.41654
-0.0136623 0.01927 0.0674439
0.262478 -0.0636126 0.0424894
-0.00828125 0.0215447 0.058559
0.106404 0.0859099 0.335493
-0.13278 0.0343165 0.41654
0.125917 0.179987 0.379293
-0.0407808 0.159332 0.484279
0.0848339 -0.0360844 0.336046
0.11052 0.150085 0.356035
0.163855 0.220996 0.0346854
0.174284 0.0629506 0.349806
-0.172185 0.194736 0.617717
-0.10706 0.202192 0.0692835
-0.0525797 0.0985877 0.0728235
0.0994506 0.176147 0.656931
0.163344 0.259735 0.0343124
-0.0459221 0.0457096 0.268441
0.0297093 0.18206 0.636461
-0.160266 -0.0698576 0.341811
0.164235 0.200401 0.580147
0.113811 0.0132704 0.335333
0.171838 -0.0493134 0.303601
0.181676 -0.114351 0.350197
0.161319 -0.11292 0.345475
0.0770331 -0.0805961 0.297402
-0.0189057 0.207807 0.780281
0.070433 0.138691 0.41654
0.184669 0.033039 0.38456
0.184552 -0.122919 0.397118
0.165476 -0.0108142 0.0954921
-0.136114 0.0879821 0.336841
0.0541844 0.036377 0.296013
0.133617 0.197261 0.502255
-0.0507068 0.211174 0.522531
-0.101453 0.154622 0.533353
-0.0086012 0.16356 0.464995
-0.0373897 0.169579 0.400655
0.018931 -0.105339 0.41654
0.172514 0.00645985 0.343311
0.0523529 0.140845 0.338104
0.0374137 -0.100936 0.340693
0.0745645 0.128336 0.335274
-0.0581326 -0.0481034 0.336508
-0.133061 0.19156 0.783359
0.177074 0.051997 0.399801
-0.0210638 0.0651351 0.335333
-0.0946106 0.219528 0.613655
0.128468 0.17404 0.686629
0.178977 -0.0737263 0.405966
0.163052 0.087387 0.339706
0.0623992 0.20495 0.78184
-0.05326 -0.0941431 0.302722
-0.0713899 -0.089092 0.293678
0.256804 -0.0449955 0.0496827
-0.0695424 0.196605 0.360272
-0.0574413 0.206258 0.783663
-0.11553 -0.0452725 0.292736
0.0312601 0.0668598 0.0779247
0.173866 -0.144647 0.370733
0.173195 -0.0104457 0.408353
-0.0699207 0.228232 0.65174
-0.00805433 -0.0433233 0.0958305
0.122374 -0.134042 0.41654
-0.145539 0.152599 0.582983
0.0546275 0.209667 0.512364
-0.149565 0.261654 0.0266923
0.0760029 0.190414 0.70783
-0.135616 0.23637 0.0879311
-0.107359 0.217716 0.622047
-0.183455 0.109696 0.364009
0.18019 0.0615112 0.349703
0.0722428 0.186476 0.682882
0.229427 -0.0486639 0.00908894
0.0835556 -0.0427752 0.306175
-0.193744 0.0543333 0.37252
-0.0461223 0.0275818 0.107923
0.156988 0.192331 0.50523
0.0526295 -0.0998051 0.301714
-0.135865 -0.0626835 0.41654
-0.0840484 -0.0467116 0.287028
0.111756 0.200668 0.464822
0.0323965 0.173993 0.590345
-0.00960337 -0.166067 0.409052
-0.0579221 0.19421 0.720039
-0.0978661 0.203362 0.492954
0.0595782 0.0774953 0.41654
0.0159191 0.227442 0.601382
-0.0176303 -0.0219145 0.30477
-0.275833 -0.0529783 0.0251432
-0.167791 0.175012 0.395995
-0.0676344 0.210082 0.524412
0.161129 0.0891584 0.339609
-0.0482204 0.152203 0.344014
0.0464565 0.0104482 0.41654
0.171836 -0.0155211 0.0961287
0.00920159 0.070175 0.319507
-0.0310323 0.0597157 0.273098
-0.0119175 0.0922442 0.321559
0.175639 0.214744 0.776967
-0.100311 -0.177828 0.358699
0.0161349 -0.0108757 0.41654
-0.0375295 0.209599 0.462793
0.0996357 -0.113978 0.34295
-0.153845 0.163958 0.653642
-0.114112 -0.0690518 0.41654
-0.16557 -0.0652578 0.306149
-0.04964 0.238561 0.743136
-0.0193946 0.226222 0.591695
0.185892 0.00228424 0.356696
-0.182479 -0.0154438 0.353151
0.120074 -0.0509306 0.33737
-0.0116561 0.0531574 0.154471
-0.0796136 0.159412 0.529927
0.074001 0.189731 0.351367
-0.0893537 0.0182748 0.095417
0.0089996 -0.210276 0.0770961
0.0669594 0.162093 0.429164
0.0684388 0.209732 0.354224
0.172627 0.0786409 0.401638
-0.171055 0.0911064 0.352644
0.15013 0.132917 0.347963
0.162045 0.047655 0.339673
0.149503 0.165948 0.338898
-0.00941758 -0.199842 0.0694752
0.156769 0.132612 0.352571
-0.0714699 -0.105741 0.298061
-0.0939108 0.0172514 0.072531
0.116358 0.15014 0.305558
-0.125028 0.0091251 0.41654
0.068005 -0.104572 0.297531
-0.134099 0.00107574 0.0975611
0.0900932 0.178942 0.659718
-0.136376 0.211953 0.620858
-0.164909 0.190962 0.36699
0.0513134 0.224987 0.605979
0.123494 0.159507 0.370308
0.172732 0.164533 0.56777
0.0786471 0.221518 0.595107
-0.181466 -0.0309371 0.351424
-0.087803 0.195246 0.355612
0.0541271 0.14702 0.415157
0.0533068 0.208747 0.455185
-0.133943 0.104765 0.33767
-0.0972705 0.160763 0.562491
-0.113461 0.108735 0.336931
-0.168144 0.215219 0.743138
-0.056415 -0.035418 0.41654
0.186367 -0.0666775 0.306189
-0.191612 0.0137049 0.399523
0.157396 0.141374 0.520843
0.131155 0.154545 0.350351
0.0665537 0.233004 0.701747
0.00454882 0.018435 0.41654
0.0121967 0.16622 0.536167
-0.0974017 0.189529 0.0829663
0.0976958 -0.00281552 0.077583
0.0333643 0.231523 0.794145
-0.162879 0.200841 0.573005
-0.0246919 0.000358049 0.335333
-0.188289 -0.0194035 0.404719
0.0676219 -0.0291502 0.41654
0.160515 0.165033 0.661778
-0.0876081 0.224959 0.652511
-0.0866508 -0.173709 0.400261
-0.0221106 0.0067566 0.335333
0.0617921 0.104295 0.41654
-0.0987886 0.210054 0.384427
0.152754 0.149094 0.574955
0.229454 -0.0493488 0.0346983
-0.00455064 0.0801874 0.336017
-0.128966 0.00541249 0.0677124
0.169569 0.170314 0.393447
0.0229004 -0.236186 0.00925459
-0.139545 0.198115 0.519661
0.131206 -0.0556015 0.337664
0.189157 -0.0215782 0.0944456
0.230111 -0.0267026 0.077785
0.0302717 0.0417365 0.295226
-0.166309 -0.0175753 0.338719
-0.0857497 0.166815 0.0961915
0.178298 -0.0946386 0.40761
0.0341147 0.171722 0.39065
0.050551 -0.0612786 0.31062
0.0878388 -0.178887 0.389498
0.165412 0.186158 0.441765
-0.0506568 0.094716 0.0799014
-0.1266 0.154142 0.34399
0.0736516 0.183194 0.664268
0.0428674 0.015645 0.0951818
0.00178087 -0.138417 0.096396
0.145915 0.00021372 0.335591
0.181611 0.0720691 0.341982
0.0636288 -0.105275 0.302352
-0.241517 -0.0684756 0.00985967
-0.0537514 -0.0281531 0.335677
-0.0758155 -0.0253739 0.41654
-0.119805 0.185699 0.739779
0.0703016 0.166515 0.40164
0.110196 0.00240309 0.335333
-0.115009 0.214213 0.597156
0.0469838 0.202329 0.355413
-0.198441 -0.0192719 0.390482
-0.056153 0.10333 0.07396
-0.158735 0.213067 0.684841
-0.118191 -0.0649082 0.33791
-0.0474606 0.0450951 0.41654
-0.144128 -0.169147 0.355769
0.158279 0.242497 0.059234
-0.12482 -0.174931 0.387961
0.120555 0.0129359 0.335333
0.133896 0.140988 0.346761
0.0308648 0.181621 0.634437
0.152803 -0.0703921 0.41654
-0.163296 -0.0066923 0.338042
-0.00203543 0.175825 0.367212
-0.114409 0.169153 0.361039
-0.090007 0.212316 0.357706
0.0244034 0.193868 0.703519
-0.15679 0.197413 0.792521
-0.0142745 -0.177996 0.357806
0.143636 0.141359 0.356447
0.113986 0.129512 0.31844
-0.0672077 -0.0569929 0.336949
0.16876 0.151394 0.445903
-0.004186 -0.0675065 0.101547
0.231437 -0.0487173 0.040446
0.0229995 -0.243688 0.033005
0.174584 0.0091097 0.345458
-0.0131086 0.0588612 0.055745
-0.0451691 0.0674904 0.335333
-0.156792 -0.102753 0.41654
0.158155 -0.0100196 0.337866
-0.158793 0.197441 0.356113
-0.0121788 0.179585 0.613872
-0.0580076 0.0617574 0.284655
0.255605 -0.0448498 0.0396545
0.0715535 0.060503 0.41654
-0.16227 -0.0907785 0.41654
0.0637572 0.141882 0.0833872
-0.153892 0.260489 0.0371968
0.101383 0.102684 0.41654
0.0569711 0.00112929 0.301283
0.170913 0.155614 0.458049
-0.00100181 0.0974645 0.3255
0.110312 -0.0138814 0.30169
0.0159431 0.0811121 0.326208
0.0430007 0.0630165 0.335333
-0.138192 0.248526 0.00230121
-0.00756119 -0.0754506 0.337545
-0.049591 0.199375 0.746801
0.0043755 -0.174696 0.399502
0.00653585 -0.249516 0.0431262
0.0833545 -0.150483 0.41584
-0.045662 0.107336 0.335653
0.0885873 -0.0763255 0.338115
-0.0529234 -0.10273 0.311368
-0.0533062 -0.105457 0.312285
0.128987 0.146287 0.44571
0.156843 0.182809 0.7717
0.145385 0.180994 0.326413
0.138005 0.235961 0.0881148
0.105962 -0.0379487 0.28867
0.0577726 0.0195218 0.270036
0.19527 -0.0356426 0.0785108
-0.1032 0.176881 0.335758
-0.00662137 -0.0233939 0.41654
-0.0424616 -0.0945473 0.339913
-0.00905215 -0.179266 0.367209
0.0102226 -0.102293 0.330489
-0.165394 0.184407 0.475262
0.0614247 -0.107806 0.341739
0.0710312 0.221032 0.581621
-0.000176569 0.116823 0.278504
-0.012628 0.22863 0.611432
-0.0127569 0.0992003 0.304119
0.0802926 0.111314 0.304225
-0.202635 -0.104849 0.368285
-0.157756 0.22158 0.783213
-0.176526 0.233956 0.0394544
0.0354635 0.0955833 0.33554
0.184929 0.0241033 0.388357
0.149473 0.0772795 0.415052
0.0347261 0.070103 0.0862205
-0.00295023 -0.230458 0.0854176
0.073878 0.210946 0.412724
-0.00474103 0.0315829 0.335333
0.101018 0.0134468 0.0692201
0.234761 -0.0769832 0.0350625
0.0210987 0.0315053 0.0629654
0.00105713 0.205128 0.75881
0.0271772 0.0947585 0.41654
-0.00232474 0.243453 0.757728
0.0760934 -0.0282416 0.335701
-0.0547378 -0.149728 0.41594
0.17533 0.244067 0.0415378
-0.0077337 -0.157107 0.0903032
-0.123481 0.190923 0.775369
0.174581 -0.135009 0.351647
0.1275 0.139413 0.34673
-0.24142 -0.0395425 0.0201994
-0.0173058 0.0466665 0.0649572
-0.106087 0.11193 0.336737
0.162521 0.150498 0.566692
-0.0124244 0.017462 0.0733125
0.0196414 -0.119468 0.34317
0.0125486 -0.00163399 0.41654
-0.0807662 -0.0749663 0.337805
0.0959122 0.184481 0.086858
-0.200302 -0.0357468 0.366424
-0.110078 0.152592 0.533762
-0.148753 -0.00932433 0.0632521
-0.102703 0.145449 0.346358
-0.198176 -0.105442 0.398059
0.0965518 -0.12041 0.41654
0.0895111 0.019697 0.279606
0.110708 0.0274331 0.41654
-0.104853 0.0351083 0.274527
-0.0187643 0.182434 0.633589
-0.084068 0.216398 0.363727
-0.15352 0.044759 0.336515
0.0522238 -0.0598283 0.310403
0.0981483 0.153791 0.313562
0.0126154 0.0201224 0.335333
-0.106478 0.194996 0.77527
-0.165652 0.232262 0.00281909
0.0167344 0.214661 0.531924
-0.0840337 -0.0221459 0.41654
-0.191804 0.059713 0.388092
-0.114918 0.0113956 0.0860389
0.126414 0.22516 0.750662
-0.123843 0.165726 0.629023
-0.162049 -0.0596883 0.41654
0.0678614 0.178951 0.636551
0.0751716 -0.159829 0.412666
-0.126198 0.146651 0.454454
-0.0987298 0.159672 0.323791
-0.228598 -0.0618404 0.0131641
0.0191257 0.188555 0.669697
0.083599 0.137132 0.0763525
0.133788 0.135132 0.308468
0.164775 -0.10818 0.413306
0.0414347 0.0774258 0.41654
-0.183504 -0.0485142 0.303662
0.149722 0.0990948 0.338645
0.180205 0.0657041 0.345365
0.0576295 0.0278691 0.102566
0.131603 0.163351 0.376793
-0.27369 -0.0374102 0.0163155
-0.113512 0.213059 0.579244
-0.0548938 0.165167 0.405746
-0.0863353 0.143751 0.41577
-0.175433 0.0205405 0.411993
0.15549 0.229111 0.0142757
0.185328 0.0147158 0.359713
-0.000791954 0.0496229 0.223707
0.0379982 0.0615508 0.285794
-0.158264 0.241605 0.0725169
0.249323 -0.0424882 0.0374172
-0.108665 0.0405456 0.276499
-0.0119425 0.175161 0.389281
-0.00651427 0.200685 0.363515
0.051834 0.0303774 0.0773134
-0.118172 0.193109 0.779017
-0.0157288 0.026611 0.0603962
0.173208 0.162522 0.471753
-0.186033 -0.0107583 0.0775843
0.253649 -0.0339206 0.073444
0.150686 0.0123158 0.416234
-0.131241 0.24126 0.00950045
-0.00838286 -0.0661674 0.0705093
0.159538 0.191302 0.500134
0.12323 0.146498 0.323708
-0.0542412 0.0165018 0.41654
0.0968312 -0.0276544 0.288334
0.170424 0.178326 0.44109
-0.148471 -0.00186724 0.0952942
-0.0705905 0.146472 0.338209
-0.171198 0.172521 0.628088
0.180422 0.0263484 0.35234
-0.0701066 0.187355 0.685
-0.0251798 -0.0232718 0.279627
0.0592351 0.240607 0.776018
0.0096493 -0.0231461 0.0882923
0.0589922 0.104713 0.0734058
0.163207 0.207116 0.63723
-0.0683903 -0.0154238 0.2784
0.149869 0.14197 0.531687
0.0138725 0.0277451 0.297322
-0.00249254 0.0498637 0.0132864
-0.034656 -0.013822 0.277431
0.0818235 0.207642 0.519524
-0.0841792 0.0625856 0.274801
0.132054 0.165866 0.644274
-0.0558487 -0.0135516 0.277615
-0.0576856 0.110092 0.335682
0.178995 -0.0793528 0.345166
0.170237 -0.112132 0.340002
-0.0812933 0.143899 0.339181
0.0109108 0.185702 0.648988
0.121192 0.182716 0.353392
0.0711157 0.176106 0.354509
0.0651982 -0.0338915 0.306518
-0.0805858 0.0661244 0.335333
0.242467 -0.0779569 0.0311986
0.0628106 -0.0307802 0.281276
-0.0722039 0.0947705 0.296791
-0.0487564 -0.164265 0.34053
0.142198 0.176625 0.721569
0.0872302 0.022154 0.335333
-0.0783682 0.047534 0.294415
0.163283 0.162392 0.369807
-0.0733121 -0.0745464 0.287879
0.148957 -0.0939272 0.342334
-0.0942498 0.170701 0.61623
0.0548649 0.128044 0.335362
0.151925 0.154281 0.37607
0.15282 -0.0657188 0.309413
-0.103941 0.0497241 0.272172
0.156113 -0.00450001 0.337303
0.173671 -0.0555469 0.304533
0.0523557 0.210424 0.43373
0.127091 0.146561 0.4482
0.0132267 0.0268025 0.195763
0.0173052 0.222074 0.7947
-0.039406 0.0596077 0.335333
-0.151129 0.135575 0.352463
-0.0710689 -0.097227 0.322377
-0.0878986 0.029168 0.41654
0.105868 0.190036 0.342349
-0.0649142 0.204338 0.357036
-0.037377 -0.0105502 0.41654
0.0542844 -0.0518264 0.336765
0.137915 0.141119 0.497988
-0.0118423 0.177541 0.60167
0.00352976 0.0645133 0.41654
0.0460492 0.0448895 0.268282
-0.172342 -0.0241801 0.413729
0.0123852 0.052508 0.0553304
-0.163985 0.177362 0.714488
0.112688 0.166854 0.388903
0.183634 0.0557777 0.374155
-0.12512 0.142712 0.338786
-0.11386 -0.0428881 0.292842
0.0275019 0.0620872 0.0992706
-0.174322 -0.0835664 0.348596
-0.148828 0.230623 0.0814114
-0.165294 0.174878 0.361739
-0.165858 0.00383557 0.337415
0.0832595 0.228008 0.671223
0.0793781 0.108927 0.297826
-0.112406 0.224071 0.704719
0.193193 -0.0844014 0.378837
-0.0480633 0.0491512 0.294159
0.01025 0.0539168 0.173788
0.0370056 -0.176461 0.397658
0.142772 0.158086 0.355309
-0.179415 -0.0928898 0.338641
0.161454 -0.0145636 0.0630692
-0.0203936 -0.255444 0.00766516
-0.171718 0.171471 0.604992
0.0324716 0.242501 0.785075
-0.00427195 0.0225704 0.0352558
-0.0603709 -0.05881 0.285522
-0.00977278 0.21816 0.386038
-0.132456 0.148963 0.41662
0.0747534 0.238072 0.761003
0.0177292 0.0363211 0.157616
-0.0637913 0.224171 0.604925
0.100219 -0.00806548 0.279687
0.100562 0.192671 0.079112
0.0579524 0.206263 0.784331
0.1506 0.0321055 0.337097
-0.0975645 -0.000464084 0.0678319
-0.020956 0.037333 0.0356766
0.173872 0.214017 0.7628
-0.171444 0.159324 0.458504
-0.0464244 -0.179112 0.366992
0.164068 0.208627 0.662696
-0.174907 0.17698 0.554994
0.115879 0.205284 0.360021
0.0689922 -0.0298428 0.335776
0.0510975 0.0281806 0.106257
0.176546 0.17737 0.558213
0.0470775 0.162629 0.531088
-0.0987812 0.171005 0.355214
-0.10681 0.153096 0.435708
-0.0123363 0.151958 0.41364
-0.025639 -0.17304 0.401234
-0.133935 0.176969 0.345544
0.0463113 0.236615 0.722241
0.0689475 0.227254 0.64425
0.13574 0.115205 0.33758
0.109092 0.0253068 0.335333
0.127515 0.199928 0.440162
0.0611444 0.175796 0.368497
-0.142333 0.241056 0.0427054
0.0972711 -0.178233 0.360093
0.126877 0.154265 0.569274
-0.0633758 0.0215697 0.41654
-0.0613483 0.178636 0.629945
0.00723405 0.0648616 0.0703678
-0.00659474 0.236028 0.683766
-0.139445 0.244606 0.0640889
-0.142627 0.184024 0.357553
0.163003 -0.00572108 0.0759888
0.100297 0.183503 0.701084
0.105014 0.123645 0.315737
-0.0723964 0.234244 0.715905
-0.0907334 0.155712 0.451083
-0.0282491 0.17559 0.373835
-0.00550432 -0.229585 0.0495266
0.0243758 0.18655 0.660372
-0.0480202 0.208585 0.472849
-0.163846 0.257321 0.0705191
0.0929926 -0.052459 0.337039
-0.10336 -0.160046 0.41236
0.0571435 0.170568 0.386713
0.11864 0.199823 0.461922
0.182854 -0.000448667 0.39887
-0.060772 0.234956 0.714256
-0.166089 -0.0171143 0.415393
0.138946 -0.0276946 0.335735
0.0683358 -0.12264 0.34336
0.189328 -0.0126719 0.378598
-0.00232931 0.109354 0.274201
0.18539 0.0360641 0.372889
0.0560466 0.208361 0.494032
-0.0983676 0.0157198 0.0711087
-0.250916 -0.0319154 0.0757353
0.146384 -0.00106689 0.0722615
-0.0754023 -0.118396 0.325746
-0.165793 0.244184 0.00107537
-0.109629 0.203358 0.436427
-0.0702173 0.233038 0.701725
0.0993194 0.188956 0.731492
-0.12615 0.124756 0.309717
-0.167643 0.238893 0.0451924
0.0654273 -0.0151238 0.335333
-0.111173 -0.0908576 0.41654
-0.143445 -0.146854 0.337895
-0.070924 0.166339 0.404071
-0.141559 0.0595432 0.335715
0.0829966 0.155184 0.476559
-0.0050392 0.0231636 0.0275202
0.00477521 -0.168954 0.345549
0.127542 -0.0355342 0.336298
0.0723288 0.226574 0.640032
-0.088359 0.158188 0.430184
0.125989 -0.157734 0.411119
-0.0568678 0.0400149 0.41654
-0.00554473 -0.157778 0.33817
-0.0176011 0.197725 0.723243
0.120109 0.212759 0.591242
0.246478 -0.0603443 0.0448489
-0.0961329 -0.144998 0.346407
0.0341087 0.171128 0.393651
-0.134373 0.180305 0.38233
-0.094091 0.233539 0.756408
0.175361 0.0311409 0.34801
-0.0965581 0.147299 0.347129
0.00915527 0.0118495 0.0853844
-0.0369494 0.130056 0.33563
-0.107106 -0.171699 0.349357
-0.134633 0.147206 0.424204
-0.150735 0.222514 0.0372274
0.0365041 0.0366432 0.0892594
0.08996 0.156926 0.437825
-0.0992277 -0.0535756 0.41654
-0.153872 0.00647857 0.41654
0.16828 0.104036 0.349628
0.172865 0.204147 0.678948
0.0804827 -0.179462 0.366437
-0.259622 -0.0623296 0.0423708
-0.00642888 0.0727324 0.41654
0.147167 0.0936314 0.337925
-0.166278 -0.108606 0.335485
0.0324302 -0.180498 0.37602
-0.167576 0.102095 0.349884
-0.188125 0.0468038 0.399692
0.0238552 -0.0367648 0.336109
0.127654 0.117724 0.31506
0.0298044 0.0192688 0.0920182
0.00727551 -0.183543 0.068686
0.0517227 -0.102724 0.293318
0.0815664 0.106675 0.306238
-0.0289647 0.211658 0.444317
-0.156404 0.178083 0.735468
0.0779035 -0.173706 0.400876
0.241524 -0.0402278 0.0232199
0.00483189 0.018262 0.0255234
-0.0404951 0.127951 0.336446
0.0658453 0.00618998 0.273955
-0.141587 0.194573 0.336086
0.117027 -0.170978 0.399307
-0.00155156 -0.0151647 0.277255
-0.0344254 0.0738149 0.0710128
0.00768358 0.0513156 0.41654
0.145257 0.198692 0.348338
0.18263 0.0397875 0.357962
-0.166671 -0.0236278 0.0889136
0.069909 -0.17046 0.34698
-0.170292 0.193265 0.577972
0.146127 0.241701 0.0369804
-0.100866 0.139333 0.302157
-0.0526091 0.213856 0.400276
0.0512893 0.176382 0.613479
-0.130907 -0.0117837 0.0730605
-0.108983 -0.141001 0.41654
-0.0613416 0.200879 0.760731
-0.158535 -0.147657 0.348376
-0.163833 0.141999 0.37353
0.00513793 -0.146872 0.346592
0.135411 0.207138 0.0721731
0.0458895 -0.1642 0.340288
-0.153693 0.259031 0.0360057
-0.0689154 0.172781 0.372179
-0.15001 -0.16098 0.402114
0.129681 0.202777 0.551821
-0.1022 -0.0477015 0.336567
0.161724 0.143577 0.46067
0.0575716 0.0218003 0.0654356
-0.177304 0.123801 0.377007
0.0544742 0.0375846 0.41654
0.142614 0.173856 0.322126
-0.107897 0.0724678 0.352235
-0.0183637 0.161953 0.474271
0.17344 0.247335 0.0407073
0.270191 -0.0443242 0.0372879
-0.137636 0.139287 0.320951
0.00754596 0.221951 0.794564
0.00747319 -0.0729125 0.0700921
0.0884174 0.0384861 0.270911
-0.0456438 0.218166 0.563561
-0.035431 -0.0815042 0.41654
0.0684343 0.116187 0.0802918
0.0803859 0.0605592 0.29123
-0.122529 0.120906 0.299234
0.159115 -0.162214 0.371004
0.149075 0.128539 0.34377
-0.121484 0.19142 0.775464
0.160142 0.1566 0.385535
0.143618 0.256426 0.0375467
-0.0192686 0.200426 0.3626
-0.0422975 0.0555787 0.41654
0.00551068 0.217373 0.543557
-0.178495 0.24491 0.0281683
-0.102549 0.194111 0.764607
0.0806913 0.134155 0.0709236
0.0574758 0.165042 0.414522
-0.145257 0.207809 0.591003
-0.101558 0.23421 0.779396
0.13425 0.222558 0.0618912
-0.125117 0.22645 0.760511
-0.189027 0.0975871 0.371326
-0.261503 -0.0569585 0.0452789
-0.170741 -0.118509 0.337175
0.135428 0.179495 0.728456
0.120885 0.190008 0.768793
-0.0191323 0.217681 0.552597
0.0751368 0.0809842 0.41654
-0.13857 -0.0917443 0.341393
-0.0650662 0.114548 0.0934748
0.138316 0.173678 0.343428
-0.158544 0.263183 0.0270838
-0.0673394 0.21325 0.401505
-0.00833497 0.0763291 0.268687
0.0517514 -0.135866 0.41654
0.173986 0.194164 0.616199
-0.199876 -0.0359278 0.387936
-0.1752 -0.125403 0.412007
0.158027 0.146959 0.414028
0.0398691 0.162428 0.450083
-0.130497 0.150239 0.548849
0.102264 0.178158 0.351101
-0.0144117 0.164335 0.451874
-0.118825 0.226361 0.74404
0.13147 0.136732 0.412236
0.00695831 0.239831 0.722575
0.138991 -0.0392152 0.305453
0.217842 -0.0270632 0.0637253
0.130263 0.197628 0.478235
-0.161367 0.203968 0.585981
0.101618 -0.113859 0.342972
-0.00957323 0.0491284 0.0132864
0.111202 -0.00629415 0.300549
0.070782 0.175132 0.380547
0.0364012 0.195255 0.717385
-0.147758 -0.0100151 0.0991343
-0.129657 -0.157608 0.411561
-0.094677 0.152092 0.496361
0.00884792 -0.0453196 0.307454
0.159041 -0.0160051 0.33758
0.181917 0.0725503 0.377538
0.228575 -0.0595069 0.011116
-0.00260963 -0.053825 0.41654
-0.173331 0.0699239 0.357697
-0.141429 0.261084 0.0233133
0.0301529 0.0211564 0.105215
-0.0380506 0.159709 0.353821
0.24461 -0.0612482 0.044616
0.17143 0.259878 0.0190523
-0.0682942 0.147617 0.0909074
0.172379 -0.0378615 0.341024
0.0132625 0.0489261 0.195862
-0.0244115 0.0991719 0.41654
0.00535055 0.0655408 0.291685
-0.0990668 0.157716 0.34148
-0.106629 0.0700372 0.33537
0.0230325 -0.232686 0.0283052
-0.00541324 -0.106511 0.348953
0.141837 0.14681 0.548469
-0.102662 0.136578 0.336528
0.131217 -0.17193 0.367005
-0.0304388 0.177572 0.363034
0.0731811 -0.071993 0.287424
-0.00495254 0.230388 0.623833
-0.0755365 0.202974 0.353975
-0.00744431 -0.0840111 0.0973108
0.0130597 0.0177958 0.0971577
0.112038 -0.101059 0.341496
0.0596796 -0.0607199 0.41654
0.070652 -0.0958867 0.305593
-0.0521237 0.103895 0.41654
-0.0229776 -0.0852803 0.338573
0.0266228 0.0213267 0.335333
0.045232 -0.0133039 0.30345
-0.143665 -0.0304856 0.304287
-0.122221 0.0704356 0.35223
-0.174643 -0.022307 0.340313
-0.127536 0.0128012 0.41654
-0.238801 -0.0717561 0.0390687
0.144593 -0.0178595 0.0860311
-0.108479 0.133332 0.320271
-0.160881 0.0505203 0.337155
0.183408 0.0186548 0.354516
0.159276 0.0626819 0.354374
0.0901181 -0.179566 0.384462
0.0554712 0.128075 0.0958157
-0.135475 0.145933 0.436207
0.1327 0.0220426 0.41654
0.172248 0.0125565 0.34357
0.18679 -0.0284672 0.0918347
0.0687123 0.179261 0.352087
0.00895344 -0.00909793 0.0943245
-0.168526 0.234263 0.0424729
-0.0439883 0.0567406 0.335333
-0.197744 0.0142162 0.380431
0.166329 0.254479 0.0557427
0.175295 0.0795846 0.352334
-0.0748647 0.00817986 0.103284
0.0606153 0.0239519 0.0658472
0.235267 -0.0679425 0.0428927
0.00857095 -0.130722 0.0873675
-0.0924032 0.13274 0.300727
0.0750037 -0.115174 0.328371
-0.24183 -0.0787301 0.0226266
-0.00930331 -0.19455 0.0692453
0.14859 0.243416 0.0329189
0.23241 -0.0298809 0.0864322
-0.19438 -0.0617396 0.308991
0.240341 -0.0435072 0.0879125
-0.0836742 0.122618 0.302012
0.167171 -0.152706 0.385498
0.1141 -0.0763336 0.338725
-0.0262858 0.0550935 0.293261
0.00927309 -0.0319329 0.41654
-0.147196 0.224367 0.0390068
-0.0324582 0.164014 0.440469
0.0158376 0.192952 0.694055
0.0914844 0.15583 0.0971687
-0.16472 0.198338 0.569849
-0.142928 0.16197 0.379698
0.0232578 0.0963678 0.287068
0.146544 0.250858 0.0602196
-0.129306 -0.144178 0.335415
0.119445 -0.0114698 0.289129
-0.11961 0.123456 0.295818
-0.260597 -0.0401081 0.0803309
0.214248 -0.034706 0.0629609
0.113274 0.138602 0.330842
0.157291 0.0631858 0.413061
0.0666977 -0.168501 0.344811
0.105666 0.151837 0.450515
-0.00893412 -0.102947 0.0710007
0.113255 0.13282 0.32661
-0.0885439 0.163773 0.346304
-0.0301538 0.0948595 0.0738901
0.0236328 0.029266 0.41654
0.00532348 0.048013 0.216945
0.262823 -0.0682803 0.0281376
0.0139569 0.0190492 0.0997553
0.0143279 0.219729 0.562898
-0.142925 0.237069 0.090629
-0.0270741 0.19922 0.736141
-0.1105 0.141619 0.324133
0.0533548 -0.104541 0.328117
0.180638 -0.0892817 0.350336
-0.0142688 0.23635 0.693
0.0411547 0.0800682 0.0780829
0.148755 0.00812111 0.336263
0.018643 0.0976041 0.269385
-0.110608 0.143563 0.333387
0.00923102 0.0568417 0.268119
0.172535 0.173057 0.457994
-0.092608 0.00222974 0.335333
-0.126882 0.183224 0.735278
0.0735545 0.151576 0.0960452
-0.0898418 0.161721 0.405212
-0.243431 -0.042003 0.0406329
0.177199 0.0560359 0.351985
-0.136741 0.190147 0.330973
-0.0961492 -0.0774889 0.41654
-0.0634041 0.193015 0.715384
-0.170219 0.165094 0.588429
-0.0779378 0.218371 0.794774
0.02248 -0.068859 0.337368
0.0464016 0.218944 0.36912
-0.156903 -0.00414615 0.336878
-0.0104653 0.0575536 0.0337155
0.157078 0.235608 0.0430938
-0.0633833 -0.131533 0.41654
-0.185027 -0.0978829 0.411097
0.145226 0.0677712 0.336143
0.157909 -0.102135 0.34408
-0.0394324 0.163477 0.440506
-0.0881858 -0.00149317 0.278736
-0.111076 0.157442 0.562612
-0.0827763 -0.105327 0.341559
0.138261 0.00413672 0.41654
0.149584 0.251695 0.0214316
0.162532 0.247476 0.0826454
-0.00345451 -0.0220787 0.304787
-0.0488414 0.0274846 0.335333
0.145345 0.0805049 0.416204
0.0781093 0.0592066 0.272107
0.0788611 0.174075 0.357917
-0.160927 0.180838 0.346799
0.107017 0.167787 0.391812
-0.000952695 0.210654 0.784432
-0.154983 0.0674208 0.336998
0.141122 -0.104626 0.342899
0.130659 -0.0386521 0.305378
-0.0394161 -0.145539 0.346429
-0.06148 0.0627119 0.352248
0.0767333 0.198211 0.754003
-0.0761392 -0.177834 0.358137
0.104949 0.0999631 0.41654
-0.101291 0.0258424 0.274136
0.131958 0.0147106 0.41654
-0.149283 0.180533 0.357045
-0.0981876 0.136164 0.320655
0.0858497 0.020796 0.273556
-0.148512 0.000178777 0.0854039
0.133244 0.239987 0.0235766
-0.00559874 -0.0867035 0.33892
-0.101775 0.158812 0.34301
0.0396917 0.236507 0.715609
-0.0379142 0.176767 0.373185
0.100936 0.12832 0.337958
0.158043 -0.125395 0.337675
0.000614565 0.138328 0.337438
0.0365409 0.104865 0.41654
0.0460329 -0.120962 0.343434
-0.0252117 0.0229408 0.268254
-0.170023 0.0848271 0.411765
-0.129103 0.0928416 0.336494
0.0684783 0.105876 0.335649
-0.147144 0.16799 0.325646
0.0976558 0.171618 0.378954
-0.189909 0.0870958 0.381671
0.00321527 0.0818515 0.335407
-0.188813 -0.0760816 0.344235
0.135306 0.18329 0.356993
0.0939268 -0.00153358 0.0881579
0.15513 -0.0999994 0.343577
-0.137127 0.214457 0.6537
-0.1449 0.144597 0.424821
0.165114 0.160397 0.38648
0.105361 0.138467 0.322405
-0.128111 -0.0397151 0.41654
0.173056 -0.0773355 0.340246
0.0896238 0.158601 0.343034
-0.114527 -0.0039672 0.287589
-0.10593 0.161254 0.57754
-0.148835 0.156953 0.332107
-0.174975 0.0458265 0.340134
-0.185101 -0.064314 0.410039
0.167561 0.182627 0.477714
-0.183233 -0.0289081 0.302681
-0.149674 0.198539 0.54383
-0.00100236 -0.0851471 0.41654
0.126367 -0.0123499 0.0755497
0.190742 -0.089932 0.39519
-0.00667195 0.190803 0.351063
-0.000352502 -0.0482622 0.41654
0.00166007 0.228657 0.601877
-0.140027 0.199779 0.344017
0.0279526 0.155048 0.347566
-0.0590939 0.160055 0.340363
-0.0817916 0.206875 0.446191
-0.0103523 0.0728427 0.268624
-0.136619 0.198511 0.518589
-0.0102539 0.0536695 0.0513529
0.106579 0.171056 0.0665573
-0.0972865 0.228241 0.710056
-0.0996657 0.0128784 0.100623
0.259439 -0.0797718 0.0306384
0.0101666 -0.227361 0.00775057
0.0906025 0.219623 0.60046
-0.0514891 0.0315404 0.0917923
-0.117496 0.187093 0.0743909
0.143342 0.19977 0.411291
-0.123191 -0.0110079 0.301367
0.17545 -0.0705849 0.306779
-0.20568 -0.0354327 0.0683254
-0.177974 0.202082 0.751808
0.00148794 0.124251 0.335787
-0.0675584 -0.0195987 0.335339
0.170685 0.179593 0.489528
0.108379 0.162497 0.375721
0.04317 0.0304512 0.107288
-0.0325495 0.00251683 0.335333
-0.126756 0.210986 0.585609
0.177701 -0.0188515 0.346829
-0.0024636 -0.249893 0.0288915
-0.00227056 0.212345 0.483227
-0.161344 0.260173 0.0528637
0.0763747 -0.0259055 0.41654
0.148215 0.19593 0.451041
-0.0123164 -0.0081814 0.302711
0.0922477 -0.155237 0.414117
0.0850698 0.205486 0.455004
-0.142818 0.00222029 0.0849948
-0.166347 -0.0145996 0.0976107
-0.148163 0.143753 0.429692
0.0682814 0.235598 0.730018
-0.0549604 -0.139776 0.345719
-0.120909 -0.0330861 0.335896
0.156024 0.160704 0.641192
-0.0351182 0.136211 0.41654
-0.0789749 0.0235605 0.41654
0.0476412 0.211209 0.428617
0.275822 -0.0643168 0.0136685
-0.115285 -0.0435292 0.297758
-0.0630746 0.117661 0.335752
-0.164242 0.178026 0.360648
0.00392844 0.176259 0.590015
-0.0870937 0.0812771 0.41654
-0.262939 -0.0526513 0.040575
0.0997482 -0.0298407 0.41654
-0.106619 0.230821 0.759547
-0.173467 0.183104 0.661372
-0.107721 0.166656 0.611648
0.0617661 0.230689 0.673805
0.150908 0.129363 0.405574
-0.00615308 0.0163962 0.0619882
-0.021438 0.0398212 0.0441999
-0.0847809 0.107801 0.335981
0.0672901 0.21285 0.356747
0.143396 -0.167718 0.382519
0.100734 0.169264 0.359601
0.0559311 0.164605 0.417377
-0.0523401 0.0995915 0.102656
-0.0534714 -0.107416 0.326236
-0.17232 0.0366867 0.344247
0.17347 -0.0407811 0.305671
-0.0105625 0.107287 0.41654
0.160364 0.106843 0.344026
0.0338309 0.0341551 0.335333
0.1736 0.170689 0.456788
-0.0158065 0.219887 0.362681
0.148281 -0.166222 0.371369
0.0776942 0.00423824 0.0920828
-0.0173668 0.230027 0.6296
0.102569 0.211261 0.376908
0.0296712 0.167669 0.412966
-0.113824 0.201299 0.345001
0.126916 0.19816 0.478194
0.139971 -0.0959541 0.41654
0.0487237 0.176213 0.371221
0.120132 0.225625 0.73715
-0.137907 0.0923617 0.337415
-0.092539 0.210877 0.388092
-0.153585 0.196437 0.533993
-0.0286404 -0.0875818 0.338909
-0.113223 0.0109965 0.0699745
-0.0694951 -0.106186 0.311549
0.0738258 0.237855 0.757981
-0.0372335 0.0851317 0.335448
0.172409 0.110568 0.362258
0.0283447 0.237189 0.713223
-0.132955 0.0813652 0.335986
0.11452 0.208902 0.0862589
-0.0817202 0.164602 0.562902
-0.13854 0.207047 0.565319
0.0666429 0.097881 0.41654
0.100199 0.19628 0.775501
0.156766 0.219944 0.774942
-0.052115 0.229735 0.653471
0.0965964 -0.0113226 0.41654
-0.0541387 0.098299 0.0899183
-0.0532357 -0.0508719 0.284334
0.17316 0.155092 0.519746
-0.0108959 -0.263263 0.0219112
-0.0474522 -0.0384408 0.282476
0.214975 -0.034908 0.0629326
-0.17692 0.195013 0.711011
0.13441 0.174305 0.696784
-0.123027 -0.0556512 0.302251
0.0458608 0.169475 0.570277
0.109934 0.197206 0.784001
-0.0147035 0.176788 0.373887
0.0113366 -0.081981 0.327623
0.0277394 0.0131909 0.299494
0.0882758 0.117691 0.336162
-0.00916203 -0.231069 0.0133103
-0.151193 0.18393 0.360536
0.0840351 0.116263 0.293683
0.118764 0.0551365 0.41654
-0.099861 0.0238843 0.41654
-0.0910045 0.181733 0.077641
0.134386 0.142349 0.502183
-0.103691 0.0704801 0.41654
0.119467 -0.175879 0.377423
0.00275511 0.22072 0.361549
0.00914931 0.211641 0.474087
0.117045 0.120567 0.29346
0.021998 0.0516157 0.268201
