-0.0900023 0.193293 0.389536
0.14289 0.0705878 0.343269
-0.102952 0.20057 0.472446
0.0123203 -0.0363395 0.324641
0.00432081 0.203463 0.525762
0.101026 0.206445 0.48509
0.132418 0.183583 0.580899
-0.00300333 0.22689 0.784987
0.065767 0.0420513 0.401457
0.053949 -0.0383194 0.40543
0.087677 0.0636115 0.330369
-0.0175889 -0.0188938 0.324655
-0.218615 -0.060488 0.0235928
0.0179747 0.0508095 0.163647
-2.94714e-05 0.00844492 0.106621
-0.138806 -0.151475 0.355323
0.0768685 -0.00224831 0.264328
-0.0108237 0.193321 0.521564
-0.0202268 0.158829 0.564501
-0.0483604 0.10565 0.396364
0.169273 0.152071 0.61675
-0.106225 0.206361 0.655103
-0.0101873 -0.114796 0.399346
0.0271335 0.0850531 0.324736
0.149012 0.031706 0.405579
-0.0786707 0.19688 0.339672
-0.104104 0.1959 0.743259
0.00665205 -0.108659 0.113894
-0.141366 0.186384 0.613362
-0.0774817 0.0778168 0.264057
-0.0101313 0.0315049 0.347156
0.137294 0.0472531 0.404238
-0.136298 0.205372 0.0283458
-0.102485 0.0747107 0.347817
-0.247498 -0.0440674 0.0790536
0.0392247 -0.0412985 0.346322
0.0223931 0.255927 0.807038
0.150708 0.208731 0.783168
0.0754394 0.153437 0.310663
0.0974791 0.220843 0.349176
-0.142345 -0.136639 0.402527
-0.0374314 -0.081977 0.324606
-0.0535136 -0.106033 0.310288
0.117595 -0.0932202 0.34844
0.0109293 0.0326157 0.246918
0.0493003 0.195363 0.467698
-0.162779 0.061622 0.360229
0.0564558 0.0317999 0.402135
-0.102029 0.213797 0.781425
-0.00265851 0.193546 0.525478
0.00357719 -0.0699586 0.40272
0.118884 -0.114703 0.402433
0.0184499 0.158004 0.549132
-0.0675709 -0.138628 0.398577
0.00775189 0.23118 0.678465
0.0339045 0.0292849 0.402112
0.0418394 0.222116 0.65481
0.0925651 -0.0652122 0.404452
0.00323369 0.0422044 0.219278
-0.0201494 0.0411114 0.119548
-0.0418901 0.155619 0.552262
-0.071779 -0.0928328 0.284937
0.102773 0.205015 0.558578
0.0850491 0.191412 0.4937
0.0307196 0.197273 0.473807
0.0240021 0.077429 0.149095
0.0525984 -0.100136 0.324592
0.0650587 0.221166 0.669469
0.017525 0.0852364 0.347684
-0.0120067 0.0588489 0.159704
-0.0132641 0.167239 0.303179
0.0565832 0.191965 0.446683
-0.000560061 0.0567451 0.311695
-0.102606 0.20399 0.429117
0.0772187 -0.183614 0.356812
0.0178653 -0.0347028 0.34721
0.16516 -0.0354909 0.288054
0.124584 0.0113728 0.40605
-0.00929803 0.0513899 0.25649
-0.0221754 -0.127715 0.346614
-0.0818527 0.209928 0.640939
-0.078413 -0.116845 0.347277
0.0132436 0.0775208 0.257069
0.00935367 0.229443 0.671712
0.0878175 0.0216663 0.330432
0.0576983 0.15364 0.558378
-0.00698241 -0.145726 0.34664
0.0324814 0.214598 0.617097
0.00632378 -0.210051 0.0650093
-0.00255322 0.119172 0.283843
0.0687439 0.221269 0.785225
0.00424229 -0.196399 0.389313
-0.0466474 -0.165325 0.395766
0.232142 -0.0496007 0.0649607
-0.0949008 0.217229 0.381988
0.00764756 -0.13322 0.0985704
-0.130286 0.179492 0.708272
0.0839158 0.0530696 0.34869
-0.162886 0.163377 0.655185
-0.0983112 0.055561 0.401654
-0.000711232 -0.00691134 0.347188
0.143896 0.0463547 0.40457
0.0320507 0.241595 0.632883
0.107635 0.158373 0.633211
0.0812955 0.0815334 0.327723
-0.0896955 0.0386884 0.347151
-0.105726 0.148686 0.587247
0.0774598 0.136152 0.285504
-0.228209 -0.0621999 0.00101907
-0.148357 0.0683993 0.344472
0.0922215 -0.166899 0.397172
0.0781917 0.050223 0.348583
-0.235523 -0.0486731 0.0448168
-0.11049 -0.152547 0.349802
0.0518748 -0.132114 0.325454
0.247576 -0.0784618 0.0273147
0.00878672 0.074731 0.273199
0.115583 -0.012017 0.110359
0.124661 0.0676732 0.402108
-0.101629 0.111496 0.274347
-0.0613537 0.128044 0.128717
0.00532093 0.0149656 0.0576748
-0.0708623 0.209179 0.508475
-0.0674129 -0.102645 0.293483
-0.0755221 -0.114737 0.347276
0.120832 -0.0613088 0.348589
0.0484578 0.138891 0.304283
0.000340328 -0.221697 0.0402883
0.0663277 0.230492 0.803163
0.00377725 -0.197699 0.0896928
0.115146 -0.0312102 0.40667
-0.244128 -0.051341 0.0437474
-0.0798553 -0.0899063 0.326955
0.0143302 -0.104834 0.400074
0.257215 -0.0779833 0.0290238
-0.0193652 0.0846059 0.397716
-0.138215 0.188663 0.619112
0.103377 0.196657 0.540415
-0.22631 -0.0594786 0.0407852
0.0753693 0.129673 0.324769
0.0540387 -0.0864735 0.401784
-0.016006 0.0202452 0.402729
-0.0469047 0.0209327 0.154935
-0.00812378 0.066638 0.256908
-0.101056 -0.121917 0.348623
0.114707 -0.173958 0.361448
0.123296 0.175048 0.691724
0.0433014 -0.0693096 0.324616
-0.146138 -0.0209732 0.349787
0.0900333 0.190655 0.493725
0.103425 0.21658 0.602611
0.136007 -0.100549 0.348904
-0.15231 -0.147797 0.367001
0.0957653 0.191996 0.538626
0.0010807 -0.0491072 0.106941
-0.10772 0.172424 0.107676
-0.0500453 -0.0652847 0.347235
-0.102295 0.161706 0.642398
-0.16494 0.0605748 0.362235
0.157107 0.230269 0.0407766
-0.0941649 -0.0314395 0.347208
0.0539595 0.231963 0.699998
-0.0363406 0.0240392 0.324689
-0.101512 0.0711346 0.346269
0.16335 0.178129 0.688791
-0.0327261 0.163303 0.310449
-0.00528883 0.0421848 0.0652048
-0.0648082 0.110039 0.110762
0.0959596 0.0796732 0.285909
0.00768386 0.0998884 0.396482
-0.052198 0.167542 0.306538
0.000270329 -0.132029 0.324567
-0.0384245 0.248316 0.757372
-0.0671077 0.170323 0.441767
-0.0825473 0.0771016 0.267546
-0.170387 0.0375482 0.363347
0.0187347 0.247597 0.749897
0.043496 -0.00688716 0.346529
-0.181051 0.0594088 0.377983
-0.0923588 0.148838 0.508185
-0.0222914 -0.0268223 0.347204
0.0853677 0.0038341 0.279582
0.0091122 0.235607 0.806154
0.101124 0.172693 0.432884
0.0679244 -0.151261 0.397488
0.00385448 0.232966 0.61685
0.0983126 0.188558 0.499427
-0.0892452 0.189034 0.462174
0.00662966 -0.130234 0.0956885
0.0494921 0.19263 0.517076
0.0617706 0.0204673 0.121511
0.160218 -0.0169444 0.352906
-0.05143 -0.180898 0.394585
-0.0907235 0.212563 0.557063
-0.149039 0.236639 0.0496586
-0.152662 0.218772 0.785843
0.0298618 0.197467 0.475383
0.0984361 0.00247375 0.285584
-0.263817 -0.0589578 0.0184559
0.00749476 0.256625 0.795098
0.0469502 -0.0864678 0.289095
0.0780666 0.238331 0.619947
-0.115219 0.221737 0.715233
-0.067102 0.209595 0.514963
0.0599749 0.120748 0.347082
-0.0973861 0.071086 0.347406
0.0924849 0.159596 0.450939
0.0434645 0.158822 0.591428
-0.0135554 0.226303 0.660456
-0.0727741 -0.00468429 0.405316
0.0643141 -0.0902204 0.347256
-0.00165129 0.142708 0.279684
0.0200936 -0.0925026 0.401031
0.0204286 -0.192476 0.356332
-0.119834 -0.0142129 0.114075
0.061151 0.118348 0.284662
0.139575 -0.0706248 0.293294
-0.163482 0.187142 0.692736
-0.0889515 -0.0470587 0.330788
0.0629264 -0.191534 0.363864
-0.136218 -0.00477844 0.407471
0.0173714 0.055079 0.347137
0.161342 0.220989 0.039966
0.113286 0.1938 0.740817
-0.0905776 0.0779446 0.285267
-0.0247615 -0.0959176 0.34726
0.0146021 -0.156523 0.346597
0.0660719 0.0182145 0.324684
0.0947683 0.215932 0.391484
0.0374451 -0.011127 0.263903
0.0862503 0.189909 0.516529
0.0542977 0.107085 0.104435
-0.11561 -0.0805304 0.348382
0.147118 0.0908024 0.359375
0.0964268 0.141512 0.324726
0.0939338 0.225064 0.799156
-0.00292679 0.256812 0.802485
-0.0641621 0.21714 0.774682
0.115071 0.198927 0.753607
0.144004 -0.114515 0.350849
-0.0837248 0.151882 0.309985
0.0499011 -0.114239 0.347275
-0.0078764 0.144207 0.306617
0.218615 -0.0694083 0.0250446
0.0833983 -0.0347576 0.275537
-0.0755029 -0.137917 0.347295
0.0265459 -0.0356086 0.289547
-0.0204533 -0.0898804 0.3246
0.109136 0.226418 0.727341
-0.0727341 0.225936 0.796453
0.0388601 -0.105554 0.40017
-0.0965184 -0.0134885 0.40663
-0.0280922 0.255742 0.803789
0.043536 0.109371 0.324755
-0.159365 0.212202 0.0133592
-0.0282467 0.166352 0.620913
-0.079506 0.0890319 0.398641
-0.0374731 -0.153694 0.396549
0.0887041 -0.0032487 0.132994
-0.115706 0.206865 0.772915
-0.0127563 0.0147288 0.130958
0.013098 0.234724 0.694527
0.039372 -0.0634504 0.403351
-0.042135 0.203665 0.560921
0.144581 -0.0207391 0.113638
0.174003 0.159693 0.60031
0.0804547 -0.096457 0.401742
-0.0504249 0.171607 0.650372
-0.0741214 0.031673 0.28295
0.138792 0.23435 0.0280759
-0.102435 0.155217 0.619774
0.0863466 0.0203928 0.274895
-0.141096 0.22332 0.75361
-0.152495 0.199447 0.761158
0.0898858 0.119046 0.300604
-0.0967057 0.140012 0.308755
-0.0775558 -0.0771562 0.403233
-0.0424631 0.177434 0.436154
0.0914347 0.18891 0.457432
-0.0938698 0.133618 0.306223
0.0855143 -0.129482 0.399652
-0.0572762 0.161144 0.466273
-0.0762101 0.205377 0.575325
0.0270462 -0.0605212 0.403496
0.057974 0.194244 0.467248
0.117772 0.0562591 0.329191
0.122596 0.0600723 0.329191
-0.251487 -0.0479927 0.0276431
-0.0101317 0.0114339 0.155523
0.0713211 -0.0193248 0.266879
-0.0962695 0.212743 0.503804
0.16092 0.190454 0.69385
0.132017 0.0287463 0.405256
0.0615949 0.0662579 0.399568
0.0245057 0.0341286 0.161902
-0.0775819 0.160334 0.294738
0.120206 0.0530316 0.402964
0.053369 0.170817 0.443619
-0.0851402 -0.126801 0.399995
0.227204 -0.0551718 0.000858797
0.252793 -0.0407901 0.0349013
0.129701 0.200352 0.0922015
0.0611856 0.224591 0.678982
0.0466565 0.0862633 0.143793
-0.0648166 0.0162035 0.147424
-0.111126 0.231593 0.811485
0.181573 0.0154249 0.371861
0.132942 0.203955 0.0831101
-0.0420093 0.0240459 0.119724
-0.0971078 0.152333 0.285085
0.0775834 0.203864 0.493154
0.0306394 0.156285 0.542014
0.135586 0.224872 0.745908
0.148508 0.173417 0.569646
-0.0867909 0.197559 0.584428
0.00891722 0.238531 0.810161
0.0104388 0.155449 0.284867
-0.0754536 0.151003 0.5669
0.15469 0.211791 0.758927
0.159798 -0.117449 0.35899
0.0719863 -0.116037 0.298551
-0.17981 -0.0284208 0.104367
0.143678 0.0701632 0.40287
0.0826701 0.195804 0.563689
0.176968 -0.0149419 0.409281
-0.0337431 0.16107 0.288484
0.0852265 0.0750971 0.276461
-0.144486 0.243453 0.0652784
0.120762 0.0518353 0.348853
-0.166504 0.144405 0.602077
0.0125443 0.199329 0.482178
0.0376263 0.188207 0.694664
-0.170365 0.233351 0.0351468
0.0835292 -0.0331436 0.3286
0.122139 0.144784 0.519639
0.047231 0.181602 0.432974
-0.0565129 0.136203 0.391486
0.135852 0.241378 0.0342308
-0.0146933 0.0859332 0.347112
0.0470133 -0.040816 0.405157
0.00323613 0.133524 0.30193
0.158215 -0.00438789 0.352296
0.127297 0.111552 0.397896
0.0328478 0.10314 0.348068
-0.0744168 0.120019 0.347083
0.164248 0.238467 0.0370142
-0.0447882 -0.0565059 0.404075
-0.123369 0.193727 0.0838064
0.151102 0.247299 0.0256143
0.103369 0.194019 0.425883
-0.145496 -0.146692 0.358336
0.0680966 0.125504 0.347078
-0.162326 0.100344 0.392996
-0.149592 0.201696 0.767549
-0.0294322 0.200037 0.511422
0.0946665 0.143885 0.280143
-0.0786811 0.210052 0.413846
0.0781992 0.15655 0.471309
0.112591 0.070893 0.348049
0.05636 0.0844321 0.398083
-0.0156588 0.131028 0.300835
-0.147333 -0.0487818 0.407961
0.0447362 0.24793 0.758932
-0.12366 -0.00916337 0.0969465
0.0600285 0.125557 0.347078
0.0596642 -0.188251 0.391907
-0.0343369 0.0432343 0.347147
-0.0522815 0.247828 0.760127
0.0943272 -0.161901 0.348624
0.0213272 -0.0274549 0.324648
0.134193 -0.175297 0.390285
-0.0109724 -0.123529 0.346206
-0.0840282 0.136915 0.115561
-0.0181549 0.158872 0.507638
0.144051 0.0567549 0.350891
-0.0469534 0.178887 0.67085
0.0643675 0.0155202 0.285366
0.101923 0.209709 0.602328
-0.0797011 0.0802101 0.286113
0.148034 0.158487 0.486865
0.16538 -0.139761 0.376255
-0.00823001 -0.0346314 0.324643
0.103235 0.219304 0.694685
-0.0569203 -0.0392195 0.324639
-0.0528759 -0.0334827 0.405863
0.0696576 0.221707 0.675227
0.0581244 0.0654231 0.324721
0.0633924 -0.137 0.335976
-0.035808 0.155763 0.518193
-0.0856677 -0.00239503 0.286319
-0.0680591 0.0778015 0.324731
0.0119661 0.158043 0.533428
-0.137437 0.232771 0.0798413
0.115736 0.181324 0.101138
-0.0783115 0.0854129 0.288055
0.0928013 0.146937 0.108215
-0.0953705 -0.0372377 0.273969
-0.0782679 0.195647 0.373282
-0.0365971 0.0956477 0.122323
0.0529596 0.0479233 0.324707
-0.144322 -0.00817747 0.0960203
0.00484588 -0.0335999 0.273864
-0.0197062 0.134215 0.355734
-0.0654476 0.020296 0.133947
-0.0477396 0.118747 0.347084
0.114153 0.183865 0.494659
-0.0452432 0.0841626 0.116047
0.0298494 0.237416 0.711162
-0.0696968 0.162891 0.290726
0.0422197 0.0703357 0.398952
0.115785 0.185787 0.54648
-0.0010469 0.138823 0.358904
-0.10262 0.0395958 0.347818
-0.246342 -0.0489646 0.0396591
-0.0604737 -0.0873681 0.347253
0.0084608 0.0266382 0.208164
-0.0861552 0.133523 0.325157
0.143246 -0.0224329 0.349273
-0.0615181 0.0580954 0.324715
0.102965 0.0739797 0.331362
-0.0880595 -0.0703045 0.330419
0.0727332 0.14625 0.107516
0.0180585 -0.0110069 0.324661
-0.0505225 0.0952305 0.110655
0.133893 0.109951 0.364113
-0.0838007 0.0594553 0.400879
-0.0372697 0.0546002 0.324712
0.0382453 0.234394 0.628095
0.00664169 0.0453948 0.187326
0.0935006 0.216013 0.783113
-0.0613452 0.196935 0.521242
-0.0902385 0.157165 0.284151
0.0431298 0.0916321 0.347107
-0.12849 0.205809 0.0768895
0.00329368 0.197885 0.70952
-0.0289845 -0.0199514 0.265869
-0.237226 -0.0689236 0.0149063
-0.0864569 0.188893 0.476643
-0.0203525 -0.218854 0.0328173
0.0423815 0.136685 0.324779
-0.116534 -0.0367791 0.291444
0.0251691 0.064737 0.274607
0.134869 -0.049048 0.406724
0.102593 0.220227 0.793476
0.154943 0.159713 0.655966
-0.011239 0.15929 0.550115
0.0756724 0.026341 0.325324
-0.138486 -0.0459885 0.349063
-0.14858 0.224611 0.773634
-0.18404 -0.0100637 0.40781
0.0111327 -0.139087 0.344576
-0.0399284 -0.0190411 0.405933
0.173191 0.155951 0.607055
-0.147358 0.114441 0.381252
-0.255459 -0.0646901 0.0394043
0.0412534 0.0758654 0.131845
-0.00547044 0.106345 0.395952
0.0117418 -0.0293902 0.405845
-0.0504673 -0.0910907 0.291331
-0.0713797 0.0519534 0.34714
-0.0594616 -0.124599 0.347284
0.0595623 0.213609 0.633895
0.0334292 -0.00164736 0.40451
0.0318219 0.199328 0.50232
-0.0866014 0.165423 0.647319
0.0111715 -0.0156953 0.405544
0.23847 -0.0380159 0.0789194
-0.117289 -0.158921 0.399185
-0.0654298 0.184514 0.432071
0.0822416 0.130802 0.306021
-0.048572 0.219255 0.775431
0.162742 0.14289 0.598852
-0.0674129 -0.0928767 0.295208
-0.101066 0.15725 0.455084
0.0614535 0.154042 0.505722
-0.0509809 -0.0898993 0.281489
-0.0758749 0.1892 0.501986
0.131955 0.184492 0.722129
0.0364657 0.0742366 0.347963
0.0230382 -0.0984512 0.345517
0.170355 -0.0298687 0.10161
0.0219108 -0.0324951 0.324644
0.0798718 -0.052516 0.276762
-0.0952936 -0.011219 0.347875
0.0855511 0.0154086 0.329494
0.00846885 -0.0485714 0.324632
0.0250334 0.00229074 0.260338
0.122472 0.209293 0.778514
0.0449758 0.213156 0.616415
-0.0741913 0.0789806 0.399269
-0.00974873 -0.0894853 0.347255
0.130018 -0.106997 0.403596
0.111535 0.243878 0.781931
0.069575 -0.0997667 0.324592
0.0708289 0.240266 0.742523
-0.0222501 0.0886662 0.324739
0.153253 0.00573917 0.351058
-0.0740916 0.201952 0.744261
0.0306374 0.112018 0.347949
0.0230125 0.115508 0.395338
-0.0940247 0.210997 0.479162
0.0234715 0.0592726 0.120188
-0.142013 0.00554646 0.349419
0.102459 0.0145638 0.404912
-0.000781302 -0.0114199 0.405175
-0.118744 0.172626 0.684431
-0.0523133 0.221916 0.659261
0.108917 -0.0672647 0.348266
0.0806569 0.150806 0.508052
-0.130115 0.181418 0.545691
-0.0125026 0.163256 0.593086
-0.0605641 0.207693 0.752403
0.0953036 0.18811 0.456645
-0.0290585 0.223996 0.657528
-0.0449936 0.202001 0.546414
-0.0880353 0.215116 0.41193
0.113623 -0.145531 0.349668
-0.0992554 0.208415 0.46585
0.053822 0.0104286 0.116614
-0.0993588 0.208672 0.448298
0.0396587 0.108075 0.324754
0.0170921 0.0997668 0.264518
-0.00715248 -0.245842 0.0400468
0.101383 0.205398 0.764698
0.00230339 -0.0231659 0.152839
-0.230944 -0.0476857 0.0047724
0.110497 0.200563 0.756623
0.108708 0.0542739 0.347865
-0.126311 0.182967 0.555538
0.0212529 0.160913 0.483474
-0.0143929 0.0933133 0.271541
0.150484 -0.163113 0.393349
0.0210114 0.0502022 0.347141
0.0287441 0.0718475 0.398794
0.145799 -0.0216935 0.406283
0.138792 0.232579 0.0107415
-0.103639 0.173882 0.110935
0.135232 0.203498 0.680238
0.109552 0.0629552 0.349203
0.162126 -0.0658184 0.292581
0.011965 -0.0497257 0.324631
0.0782808 -0.13008 0.399339
0.0423438 0.200356 0.527703
-0.0361978 0.255312 0.794133
0.0631111 0.238891 0.732534
-0.0525051 0.167531 0.636808
-0.158607 0.223002 0.0415197
0.102106 0.199054 0.348314
0.102321 0.235964 0.750251
0.0632615 0.194543 0.486228
0.129304 -0.0618873 0.291988
0.0232463 0.0140187 0.347171
0.0883984 0.0273609 0.330672
0.0642663 -0.140152 0.398117
-0.0299199 0.207067 0.576023
-0.0545654 -0.0953384 0.324595
-0.0250767 -0.0353625 0.274574
-0.0611409 -0.105875 0.347268
-0.103137 0.169363 0.668184
-0.0290367 0.000516452 0.40431
-0.0101423 0.24384 0.816798
-0.152156 0.231684 0.0597113
-0.191954 0.0366263 0.392683
0.128067 0.218785 0.723392
0.0206687 0.0760771 0.136607
-0.0352259 0.0848893 0.150872
0.123627 0.212943 0.0916364
0.16308 0.0386954 0.356142
0.144493 0.179698 0.593173
0.0673586 -0.0263975 0.267936
-0.0821604 0.129606 0.324276
0.129624 -0.0654337 0.348825
0.101222 0.21019 0.319307
0.0187811 0.0313749 0.324694
-0.00614169 0.215823 0.608349
0.141507 0.226833 0.0089524
-0.00940595 0.0289243 0.253801
0.0690911 0.166898 0.299365
-0.160504 0.237298 0.0401073
0.00682657 0.0407171 0.200912
-0.117952 -0.0146249 0.287822
-0.00922539 0.0593371 0.137533
-0.0307125 0.229923 0.682984
0.00689404 -0.139235 0.345186
-0.0388775 0.0936456 0.113071
0.115435 0.0451845 0.348116
-0.0541703 0.0081368 0.119034
-0.0469402 -0.0794661 0.285357
0.0065649 0.0124886 0.103916
0.0206424 0.025152 0.0824667
0.0596228 0.0631397 0.324719
-0.163484 0.229387 0.0409959
-0.0930858 -0.0234092 0.286242
-0.0637443 0.209265 0.617727
-0.180321 -0.125496 0.388764
0.0229398 -0.138516 0.342223
-0.150101 0.14377 0.596679
0.0674035 0.112433 0.118561
-0.0366577 0.207887 0.526431
0.129913 0.195257 0.640778
-0.0372593 -0.122256 0.398923
-0.036106 0.112545 0.395635
0.192325 -0.0813394 0.388479
0.0690121 0.241431 0.744795
-0.00785766 -0.120571 0.107454
0.100252 0.242395 0.76796
-0.0892322 0.21774 0.321046
0.0143869 0.245733 0.740042
0.144607 0.174357 0.557066
-0.0510568 -0.112769 0.315582
0.0415409 -0.0404491 0.346393
-0.0370444 0.0465622 0.347144
-0.0110224 0.0200171 0.0368938
0.00792251 -0.198989 0.365744
0.0855499 0.189622 0.455707
0.0714304 0.224069 0.68492
0.153125 0.183896 0.723033
0.0255439 0.117479 0.348308
-0.0223648 0.0883762 0.274274
-0.0301212 0.0624752 0.124766
-0.0402552 0.0036723 0.287135
-0.0820153 0.192608 0.508674
0.072309 0.246443 0.76516
-0.151229 0.152834 0.633022
-0.089384 0.0137467 0.40431
0.116873 0.213125 0.690905
0.00687706 0.218786 0.624821
0.0320558 0.123464 0.394651
0.121631 0.0554856 0.34841
-0.0719827 0.121114 0.282616
-0.0413621 0.0826478 0.347115
0.0164588 0.255618 0.812197
-0.00354074 0.026274 0.283757
0.0377396 0.0415804 0.324702
-0.0100523 -0.00302655 0.260676
-0.135618 0.196811 0.656363
0.142612 0.180153 0.590872
-0.0603475 0.161873 0.289474
0.129529 -0.0642518 0.289547
0.0739263 0.151158 0.557759
0.0917125 0.114791 0.347088
0.0124238 -0.0534055 0.324628
-0.150947 -0.0949088 0.405947
-0.107851 0.214977 0.78624
0.0176838 -0.214716 0.0262972
0.00634014 -0.0924371 0.12273
0.164541 0.174389 0.622298
-0.171505 -0.027451 0.0877044
-0.00741161 0.0378491 0.282028
0.0286081 0.215957 0.762395
-0.0322555 0.161775 0.473359
-0.241209 -0.0385627 0.0397922
0.00452778 0.0979121 0.347102
0.149704 0.185492 0.728496
0.160416 0.141265 0.568257
-0.0995769 0.220672 0.793729
-0.0677785 -0.17503 0.395542
-0.0813006 0.0501106 0.327651
-0.0972777 -0.183179 0.392605
-0.0214062 0.0858592 0.274853
0.169766 -0.0736113 0.36091
-0.0209283 -0.0837672 0.345628
-0.118537 0.184545 0.541197
-0.0156293 0.00279693 0.404097
0.192153 -0.0273722 0.0818415
-0.0278047 0.0784132 0.346982
-0.00932738 -0.0444454 0.404714
-0.013454 0.0987666 0.280999
-0.08224 0.210257 0.552586
-0.0774405 0.246713 0.818265
-0.0776894 0.201139 0.582766
-0.151488 0.16067 0.503489
0.0393126 0.131103 0.393973
0.0686794 0.192749 0.53088
-0.0980086 0.228973 0.722807
0.0609744 0.241871 0.816776
-0.110977 0.210607 0.676129
-0.0869787 0.102438 0.263254
0.0458934 -0.0378019 0.405371
0.0403176 0.177755 0.665459
0.0821972 -0.15657 0.346679
-0.165529 -0.107963 0.405651
0.0397448 0.160428 0.598776
0.00795955 -0.066067 0.293433
0.0965199 -0.0656044 0.334048
0.0251997 -0.182817 0.393959
0.147502 -0.0458312 0.34997
-0.0861985 0.205864 0.628588
-0.00690511 -0.0409317 0.141065
0.00866373 0.0124245 0.345599
-0.00954221 0.180647 0.661361
0.230944 -0.0459124 0.0297265
0.0794331 0.142026 0.305657
-0.180972 -0.0967145 0.375229
-0.0787799 0.183218 0.299839
-0.0774737 0.175121 0.300956
0.0530999 0.146314 0.376184
0.0188926 0.0725034 0.257038
0.0182527 0.0253482 0.0580476
0.105003 -0.0145401 0.284924
0.0694026 0.133683 0.324776
-0.00825685 -0.101981 0.330098
-0.0999654 -0.141085 0.347535
0.120969 -0.176702 0.393753
0.172166 0.144488 0.585102
-0.021404 0.0888538 0.34711
0.245894 -0.0401379 0.0736021
0.024484 -0.0989869 0.400569
0.0304389 -0.126763 0.345743
-0.0591633 0.127904 0.394613
0.0977572 0.12912 0.3184
0.0635276 -0.0237941 0.347201
0.0582498 0.160279 0.468981
-0.0478257 0.145372 0.372395
-0.0312828 -0.0390608 0.292752
0.0158981 -0.24494 0.00383006
-0.0574123 0.0259024 0.32469
0.0151779 -0.142596 0.397216
-0.00115198 0.247074 0.740952
-0.135153 0.181455 0.574878
-0.103053 0.13349 0.303894
-0.0975559 0.13443 0.371641
-0.0120813 0.163086 0.310626
-0.164517 -0.117207 0.405026
0.0489465 0.217371 0.770599
-0.0613219 -0.120344 0.347501
-0.101496 -0.118321 0.341069
-0.0179793 -0.157467 0.39613
-0.0335043 0.159781 0.483087
-0.0662307 0.223658 0.614525
-0.103425 0.20678 0.355441
0.161093 -0.049741 0.406504
-0.0162833 0.0838222 0.397761
-0.0280969 0.160236 0.586979
0.0255166 0.194051 0.44548
-0.151029 0.0994283 0.369662
-0.0492946 0.153076 0.283905
0.0108699 -0.222622 0.0375901
0.138394 0.175138 0.527787
-0.103433 0.196082 0.439895
0.0860416 0.154741 0.314583
0.0243504 0.206811 0.571494
0.0251624 0.118259 0.287329
-0.0409374 -0.0889967 0.346207
0.0452303 0.187029 0.432548
-0.041587 0.161553 0.311874
0.0433691 0.182035 0.678901
-0.0754805 -0.113353 0.347716
0.0211369 0.218995 0.632525
-0.0880554 0.190587 0.522052
0.000388585 0.161167 0.502177
-0.132969 0.146612 0.599129
-0.164348 0.0420147 0.357774
-0.0480256 -0.112135 0.324582
-0.06641 0.0176948 0.403641
0.0688135 0.136179 0.336013
0.1323 0.153734 0.461073
-0.0147945 -0.22987 0.00102219
0.242195 -0.0777171 0.029975
0.10429 0.0471233 0.280224
-0.00655454 0.20382 0.529227
-0.0391329 -0.0532663 0.294444
0.226575 -0.0595897 0.0417623
0.168576 0.171024 0.631429
-0.0933902 0.0565565 0.256543
0.263817 -0.061456 0.00907664
-0.0594657 -0.0801225 0.402788
-0.185691 -0.019769 0.0921727
-0.135121 0.179106 0.708238
0.0634235 -0.0335255 0.405908
-0.0492629 0.140143 0.324782
0.0187002 -0.0837601 0.34725
0.166827 0.165873 0.651968
0.02235 0.0371608 0.166734
-0.0359054 0.17285 0.442592
-0.00404829 0.017447 0.034871
0.231889 -0.0606396 0.0414936
0.178399 -0.0408494 0.40911
0.00268502 0.0671537 0.290408
-0.0711325 0.0180081 0.134975
-0.127354 0.214189 0.79256
-0.0102613 -0.223815 0.0369962
-0.0935588 -0.00598809 0.118369
0.122496 0.144862 0.509281
0.00273088 0.0176457 0.0239102
-0.0257173 0.0257203 0.347161
-0.0311369 0.25155 0.76959
-0.0129481 0.074381 0.280122
-0.0755994 -0.0296158 0.292113
-0.131289 0.208774 0.695545
0.0730967 0.203084 0.746874
0.154327 0.144475 0.604545
-0.0290158 -0.134944 0.327491
0.163951 0.179815 0.685763
-0.0612276 -0.128702 0.324569
-0.159365 0.210647 0.0205129
0.0735163 0.0976302 0.347102
-0.199494 -0.0396863 0.0894573
0.021635 0.0172758 0.138726
-0.0744995 -0.0892718 0.347183
0.0770391 0.126197 0.121024
-0.0497373 -0.109635 0.400164
-0.0200744 0.0407742 0.0967133
-0.196397 -0.032932 0.398671
0.0109513 -0.0268397 0.324649
-0.0988161 -0.0699996 0.404559
-5.22868e-05 -0.128413 0.116713
0.0130906 -0.0759602 0.32461
0.00349915 0.0220725 0.187328
-0.109594 -0.0871924 0.348204
0.100489 0.146445 0.527605
-0.0873775 0.217261 0.612702
0.066712 -0.101798 0.400856
0.0913901 -0.169275 0.349738
-0.0109773 -0.237039 0.0412049
-0.0514397 0.04989 0.400857
-0.171471 -0.0954817 0.40654
-0.0902122 0.0635748 0.331344
-0.082601 0.149172 0.534663
0.022626 0.0124527 0.257813
-0.0761939 0.19474 0.314544
-0.014376 0.139477 0.391289
0.00605498 -0.0365776 0.144845
0.0260237 0.0676091 0.324723
0.0677866 -0.0941995 0.288734
-0.109513 -0.0499 0.406579
-0.0332405 0.210302 0.751041
0.0155372 0.0672339 0.147551
-0.0816993 0.216027 0.378207
0.0119831 0.150795 0.309506
0.028499 0.114926 0.348157
-0.00769065 0.0934916 0.270907
-0.120842 0.0236969 0.348431
0.110362 0.0937155 0.349034
0.17949 -0.0491137 0.29329
0.0656303 0.194923 0.501622
-0.068943 -0.162128 0.346584
-0.136134 0.237765 0.0396612
-0.0782932 0.193333 0.331686
0.0816753 0.191509 0.411539
0.131097 -0.0377407 0.406614
-0.0831204 0.1396 0.372994
-0.0429306 0.0903135 0.10911
-0.0667385 0.237019 0.811783
0.000507006 0.245521 0.733949
-0.094748 0.181336 0.701111
-0.0268367 0.157389 0.545996
0.0889484 0.0216408 0.330901
-0.122835 0.219341 0.799838
0.159335 0.220374 0.00556639
-0.108515 -0.182231 0.368608
-0.221099 -0.0610453 0.0402571
-0.0321472 0.168162 0.449253
0.169229 -0.0498074 0.358664
-0.246308 -0.0758433 0.0350331
-0.00366829 0.000460118 0.287615
0.0353812 0.254762 0.790809
0.0858684 0.0722236 0.347783
0.0621423 -0.014762 0.289895
0.0332566 -0.184059 0.394019
0.185401 -0.0251559 0.408889
-0.0828327 -0.0668441 0.403989
0.0910247 0.234214 0.736462
-0.0853214 0.190525 0.469919
-0.0629075 0.119445 0.293895
0.0920523 0.230283 0.807563
-0.126493 0.22937 0.0177274
-0.0526667 -0.0344294 0.346634
0.0132734 0.197499 0.461963
0.221884 -0.0764596 0.0293125
-0.249053 -0.0559465 0.00916907
0.0956347 0.189861 0.512744
-0.0158856 0.018637 0.103728
0.0273722 0.123024 0.394682
0.163265 -0.0727388 0.406776
0.155224 0.168104 0.552766
-0.11743 0.152043 0.615888
0.00799794 0.052142 0.0677708
0.0615787 -0.100322 0.31789
-0.00673871 -0.130667 0.109031
0.0158852 0.0222782 0.284355
0.0831066 0.0996699 0.347101
0.162693 -0.0235325 0.353775
0.0107456 0.0189427 0.0448314
0.0365845 0.204775 0.567082
-0.0761901 0.207413 0.34831
-0.17065 0.143521 0.58317
0.186361 -0.0729285 0.293643
0.117821 0.130804 0.386454
-0.125153 -0.133391 0.401744
0.127964 -0.0044444 0.123622
0.0848314 -0.157969 0.39766
-0.1116 -0.0640299 0.348273
0.165596 0.160069 0.642793
-0.0774871 0.038335 0.347151
-0.0390302 -0.186539 0.393657
-0.218836 -0.0611768 0.0328685
-0.009275 -0.0327432 0.345456
-0.0183513 0.0432314 0.0764084
-0.113089 0.182866 0.714218
-0.0677178 -0.0225127 0.3472
-0.092634 0.0512899 0.332335
-0.0288537 0.0276635 0.119169
-0.114736 -0.0284071 0.290193
-0.0269562 0.0143969 0.34717
-0.159644 -0.0396778 0.291873
-0.0404331 0.00752361 0.324676
0.167142 0.174582 0.643277
-0.0102613 -0.243614 0.0354083
0.0623659 0.242065 0.625548
-0.042462 0.078672 0.347118
0.000615565 -0.111273 0.312665
0.0309007 -0.0581465 0.347229
0.184333 -0.0279675 0.373086
0.159615 -0.00148579 0.405906
-0.0769853 0.128118 0.284047
-0.0502892 -0.187951 0.392516
0.0110654 0.246985 0.744344
0.0311511 -0.0637768 0.403271
-0.00794734 0.214076 0.600117
-0.0333845 -0.0682889 0.402974
0.0439732 0.0871514 0.146823
-0.093513 0.24759 0.818739
-0.143143 0.0806701 0.351696
-0.125355 -0.177275 0.372527
-0.0425763 0.0252489 0.154166
0.0077467 0.0402897 0.245944
0.149572 0.174055 0.578559
0.0625968 -0.127035 0.325454
-0.00716086 -0.00595034 0.127836
0.000771213 0.0189492 0.0127955
0.084317 -0.0923051 0.347469
-0.018641 0.0395265 0.256489
0.0107105 0.0781857 0.398201
0.0855825 -0.177478 0.351403
-0.0653922 0.236422 0.614955
0.0716142 0.120916 0.128829
-0.0572124 0.100975 0.110962
-0.150441 0.238625 0.038839
0.0794173 0.138724 0.304209
0.135804 0.0439952 0.329191
-0.0468063 0.107003 0.110693
0.0460533 0.0980889 0.34788
-0.00520843 0.137664 0.303746
0.0223029 0.0374855 0.401446
0.168822 0.158783 0.63373
0.00584968 -0.0287628 0.345387
0.0762259 0.137365 0.301413
0.0591886 0.0230231 0.284244
-0.139935 0.143598 0.586529
0.00917001 0.0283536 0.247979
0.067027 0.0708237 0.347124
0.00933522 -0.110004 0.318403
-0.0867752 0.150609 0.58102
0.0872646 0.190333 0.521095
-0.184866 -0.0638261 0.374827
0.0113448 0.22566 0.656362
-0.0106071 -0.0710583 0.308317
0.0840281 0.129988 0.324747
-0.0142662 0.245664 0.738822
-0.014511 0.233959 0.625253
-0.144749 0.20519 0.0276987
0.141762 0.144013 0.590348
-0.0761849 0.201158 0.407677
0.174335 -0.109072 0.405667
-0.148198 -0.0352228 0.408561
-0.0595832 0.210763 0.620124
-0.00751808 -0.117377 0.111015
-0.0772483 0.130396 0.284033
-0.155629 -0.0663067 0.407504
-0.0923003 0.23697 0.747482
-0.0125923 0.0702237 0.301962
-0.0888993 0.201977 0.751018
0.0538912 -0.0806246 0.276034
0.0765158 0.237775 0.617195
-0.161882 0.202812 0.0210018
0.167742 0.151147 0.558302
0.0965788 0.109247 0.397625
0.0217836 0.070473 0.347429
-0.0611143 0.081067 0.347116
-0.0665846 0.111677 0.113863
0.0226108 -0.225746 0.0239809
0.164253 -0.0236021 0.406146
-0.0717754 0.0748148 0.347121
-0.152437 -0.0547798 0.407881
-0.0884031 0.100751 0.262625
-0.000155939 0.0118668 0.181975
0.0312399 0.233434 0.696704
-0.10804 0.132907 0.37371
-0.00862645 -0.0716575 0.313967
0.11547 -0.0138817 0.348466
0.145207 0.17208 0.536576
-0.0332125 0.196898 0.472546
-0.101351 0.184249 0.301699
0.0984694 0.0854191 0.399502
-0.0716402 -0.107802 0.304376
0.143342 0.176553 0.701822
0.0692238 -0.0718792 0.347097
-0.00629647 0.0136832 0.181583
-0.0487893 -0.0926946 0.401434
0.0974991 0.210163 0.772851
0.0103897 0.0205694 0.019964
-0.0946694 -0.11335 0.347274
0.00333993 -0.0182414 0.153691
0.0638794 0.207564 0.608554
-0.00565688 -0.113503 0.330012
0.0515962 0.203853 0.574485
-0.0272553 -0.0943954 0.324596
-0.151289 0.142269 0.539709
0.04718 -0.119086 0.32202
-0.197374 -0.0253088 0.08337
-0.0255134 0.224966 0.660087
0.14199 0.0954254 0.400316
0.0192432 -0.160431 0.395897
0.0485665 0.192723 0.520043
0.0382201 0.157691 0.497217
0.126175 0.0519952 0.403337
0.152949 0.171321 0.573193
-0.089563 0.186131 0.295616
0.0761824 0.186671 0.314101
0.0273901 0.246967 0.750328
0.00659517 -0.115415 0.317558
-0.0622356 0.11767 0.347085
-0.058377 0.1527 0.521031
-0.00515141 -0.157737 0.102885
0.00581885 -0.0332164 0.276443
-0.0932798 0.220077 0.370704
0.0249331 0.0118582 0.324679
0.0943836 0.231472 0.80916
-0.078656 0.0702672 0.340744
-0.146595 -0.0415691 0.292153
0.2446 -0.0513371 0.0402741
0.076191 0.111385 0.285012
0.125183 0.0745278 0.329191
0.149946 -0.0230555 0.10992
0.125366 -0.0222246 0.284808
0.0465943 -0.015797 0.290053
0.0511944 -0.136792 0.347294
0.0435418 -0.0502537 0.4044
-0.089874 0.0610329 0.347132
0.0157645 0.14892 0.383487
0.0676926 0.203316 0.590832
-0.193106 -0.0714996 0.386975
-0.0856099 0.119251 0.39607
0.136985 0.149651 0.479725
0.120762 -0.167088 0.356593
0.0658755 -0.10156 0.347265
-0.0324348 0.0607451 0.347133
-0.089922 0.0522733 0.34076
0.0254523 0.100459 0.396532
-0.00280566 0.0790922 0.324732
0.0989508 0.178133 0.694089
-0.00356802 -0.147426 0.346589
0.0838182 0.194509 0.546374
-0.000254817 -0.0482874 0.347221
0.0814089 0.238677 0.744695
-0.0504598 0.0494441 0.324708
0.144891 0.0635224 0.403419
0.0189335 0.15975 0.495948
0.100152 -0.0389551 0.27547
-0.142357 -0.056035 0.349171
-0.0900861 -0.152765 0.398303
0.0511661 -0.0403609 0.324638
-0.173342 0.0877902 0.386187
-0.115053 -0.163248 0.398578
-0.0200674 0.0390189 0.34715
0.132162 0.100523 0.354089
-0.173738 0.149722 0.598767
-0.0379203 0.0747855 0.149559
0.136519 0.0453194 0.404342
0.156395 0.209677 0.759438
-0.0267636 -0.0226717 0.291072
-0.0627909 0.229415 0.697334
0.0991023 -0.137156 0.33663
-0.135991 0.218331 0.0654328
0.0945875 0.191921 0.330661
0.0996915 0.186747 0.719248
-0.0190502 0.0305839 0.347157
0.0763952 -0.130952 0.325502
-0.0744696 0.0990696 0.324865
0.138154 0.235153 0.7819
0.0750174 0.164465 0.637649
-0.14749 0.236771 0.0386164
-0.107037 -0.0325189 0.348155
0.133782 0.19496 0.748517
0.110019 0.18545 0.48244
0.0659443 -0.0308341 0.347207
0.194438 -0.0679074 0.38964
0.126337 0.0700917 0.344999
-0.101511 -0.0257213 0.336959
0.0485874 0.19424 0.454249
-0.155517 -0.0733148 0.407206
0.0334148 0.197848 0.483556
0.0907866 0.218148 0.614756
0.00643234 -0.0346051 0.144744
0.240493 -0.0684553 0.039493
-0.119954 -0.0430185 0.292377
-0.112622 0.145293 0.517358
-0.103406 0.119232 0.291423
0.0876331 0.193737 0.548197
0.12438 0.183781 0.718839
-0.0773705 0.139845 0.127224
-0.0864005 0.15011 0.505024
-0.0876566 0.050809 0.347141
0.140026 0.176765 0.555988
-0.228789 -0.0692082 0.039308
0.106157 0.189213 0.557621
0.0266237 0.157857 0.506563
0.0894292 0.198421 0.592252
-0.00999572 -0.203713 0.373354
-0.0928284 0.112493 0.34709
0.0607554 0.19367 0.465156
0.0875397 -0.00312526 0.117693
0.0903151 0.149616 0.312981
-0.0467916 0.0220973 0.154059
-0.0784251 0.18945 0.448987
-0.0940336 0.193459 0.732634
-0.0589116 -0.104364 0.347267
-0.0297499 0.20905 0.512184
0.0188096 0.0335337 0.256196
-0.0853437 0.247967 0.780266
0.0108477 -0.0315808 0.269004
-0.0943321 -0.106849 0.348071
0.0899339 -0.0280439 0.275448
0.141357 0.214692 0.0147789
-0.092703 -0.0691902 0.347721
-0.142645 -0.0220465 0.408738
0.0234334 0.242406 0.729083
-0.1454 0.229944 0.783138
-0.00606827 -0.114517 0.0981929
0.0708515 0.253518 0.805279
0.0738912 0.0113091 0.347451
0.101423 0.0438642 0.336066
-0.00183051 0.246771 0.739811
0.00409781 0.0770385 0.322303
-0.0293034 -0.00556273 0.404787
-0.0247178 0.165234 0.614942
-0.0343064 0.00386696 0.347179
0.155721 -0.0280138 0.406276
-0.101495 -0.124721 0.344869
0.04875 0.23096 0.801065
-0.00337711 0.202287 0.505941
0.0596243 0.115603 0.32476
-0.0616308 0.225534 0.614187
-0.0511667 -0.107156 0.317364
0.134279 0.156055 0.635438
-0.0826055 0.14186 0.38223
-0.0905234 0.231392 0.610021
0.0254391 -0.0607499 0.345852
-0.000444971 -0.0928527 0.347258
0.173879 -0.136591 0.391518
-0.138822 0.241659 0.0141754
0.123649 -0.145161 0.40077
-0.126987 0.0743783 0.401594
0.0731882 -0.0623771 0.403841
-0.10129 -0.0697546 0.347971
-0.112903 -0.186764 0.381499
-0.146467 0.221047 0.758256
-0.15598 0.0885942 0.401201
0.163576 0.147225 0.615631
0.237761 -0.0581346 0.042014
-0.00260489 0.121743 0.296071
-0.0222206 0.225243 0.659861
0.113622 -0.0644674 0.348394
0.0539126 0.194997 0.469162
-0.079221 0.141195 0.32477
-0.120695 0.144071 0.534824
0.00119524 0.0112366 0.174138
-0.157967 0.106378 0.384278
0.0547978 0.154435 0.510854
0.045093 0.0271494 0.34716
0.0836532 0.136314 0.107734
-0.00312314 -0.21506 0.0838752
0.0722107 0.0833359 0.324735
0.161597 0.244685 0.0166055
0.020922 0.204614 0.506001
0.110904 0.107852 0.351546
-0.0804418 -0.122711 0.400212
0.00820483 0.0391851 0.193961
0.063828 -0.0977447 0.302293
-0.0259084 -0.0325173 0.324644
0.22795 -0.0689508 0.00305662
0.0919317 0.135852 0.325106
-0.0452678 0.0268845 0.13562
-0.0382165 0.182089 0.676665
0.0700161 0.201236 0.582745
0.0978928 0.0191165 0.2831
0.110903 -0.154327 0.350027
-0.0723056 -0.182582 0.353172
0.0988138 0.212574 0.40172
0.254269 -0.07478 0.00888769
-0.0413325 0.0845068 0.11264
0.00757938 -0.0281764 0.138237
-0.126888 0.0637377 0.349067
0.0181012 0.0755588 0.347451
-0.0104776 0.148707 0.384071
0.0807232 0.192195 0.498831
0.0697253 0.201629 0.584412
0.167493 0.0809804 0.372717
-0.00462123 -0.0627349 0.347233
-0.0193575 0.174558 0.646417
0.0501355 0.24273 0.816961
-0.0738995 0.115643 0.347087
-0.00739896 -0.0629286 0.130087
-0.00676 0.195408 0.444641
0.0772036 0.112118 0.277322
0.103368 0.20523 0.348848
-0.102911 0.211349 0.667986
0.0505178 0.135857 0.39199
0.0266857 0.0778544 0.398312
-0.0134867 0.0594709 0.122755
-0.137449 0.142771 0.529257
-0.09819 -0.117065 0.347277
-0.0962176 0.22075 0.355453
0.031488 -0.0118272 0.347192
-0.00900615 0.0372674 0.225851
-0.0137063 0.0615922 0.324718
-0.078799 0.216663 0.661652
-0.000726633 0.0557076 0.347137
-0.00951886 0.213806 0.599618
0.0166961 -0.0169556 0.347196
-0.0122811 -0.102333 0.400314
0.136533 0.146489 0.601163
0.0748623 0.191503 0.527187
-0.0632942 0.145041 0.377989
-0.0901356 0.0775774 0.255794
0.0325547 0.215163 0.620035
-0.0698251 -0.128974 0.324569
-0.00795405 -0.0129535 0.132987
0.121661 0.058053 0.348417
0.128008 0.183104 0.717949
0.125115 0.0518727 0.348869
0.0329954 0.164975 0.293276
-0.015628 -0.0241066 0.406208
0.0988615 0.227735 0.618472
0.0977238 0.248777 0.789702
0.00668399 0.216815 0.614201
-0.0847908 -0.0196217 0.34756
-0.0463113 -0.143866 0.397406
0.246803 -0.0577432 0.0419138
0.118099 0.241188 0.818012
-0.0611664 0.0398676 0.257233
0.0666967 0.152569 0.572945
0.0215435 0.0316919 0.102276
0.0523979 0.198608 0.726722
0.164846 0.214272 0.0407458
0.0508748 -0.021293 0.266381
0.0185576 0.116448 0.348004
-0.0524835 -0.198695 0.382735
0.157572 -0.0383726 0.291681
0.164854 0.00354808 0.405797
-0.135888 -0.0929552 0.405304
-0.08988 -0.0112171 0.331168
-0.0210023 -0.114725 0.399423
0.11725 0.153912 0.621381
0.029282 0.022189 0.402651
0.103492 0.0947055 0.274262
0.102444 0.196718 0.370655
0.0102913 -0.224015 0.00686095
0.0635971 -0.119036 0.347279
-0.11655 0.174261 0.433908
-0.0676012 0.00305182 0.133947
-0.0818635 0.153718 0.314181
-0.135205 0.172247 0.462482
0.0254003 0.0175826 0.157318
0.0389346 0.0577668 0.347135
-0.0348699 0.0142168 0.285559
-0.00375344 0.100558 0.396398
0.121255 -0.0188464 0.34862
0.0675451 0.0407369 0.348022
-0.0624847 0.095245 0.324744
0.0582793 -0.11196 0.309838
-0.0899172 -8.34502e-05 0.137312
0.109076 -0.0103721 0.113866
0.077483 0.206286 0.550582
0.147399 0.0604418 0.350246
-0.0465916 0.171375 0.647757
0.0596035 -0.0223529 0.406399
0.152377 0.140817 0.552138
-0.0733848 0.084918 0.324736
-0.186167 -0.0657088 0.406669
-0.149995 0.0631541 0.351679
0.0887873 -0.0895205 0.347255
-0.0930055 0.216606 0.395271
-0.0146594 0.202489 0.523888
0.153721 0.217334 0.77897
-0.0327825 0.199092 0.505064
0.0766882 0.201314 0.480023
0.0239526 0.221181 0.774402
0.0781146 0.239082 0.624489
0.0111376 -0.203901 0.375936
-0.0227341 0.156599 0.523665
0.178689 0.0624995 0.376278
0.0741843 -0.0397299 0.293627
-0.0325772 0.0726192 0.346832
0.0534002 0.00942264 0.117641
0.1657 0.227288 0.0426606
0.0121452 0.0487438 0.0620874
-0.045909 0.247318 0.755981
-0.00157595 -0.109367 0.12269
-0.036021 0.0277536 0.123052
0.0232028 0.243055 0.731625
0.159335 0.216558 0.0285708
0.101414 0.108925 0.334991
0.105433 -0.00358155 0.102188
0.124859 0.0192078 0.4056
-0.125946 0.000176739 0.115856
0.117464 -0.166034 0.353241
0.00628525 0.0409412 0.249141
-0.0571928 0.103441 0.324751
0.153395 0.154683 0.505466
0.0820687 -0.0884098 0.347254
0.170183 0.228417 0.00410446
0.0888376 0.0286637 0.259708
0.0367834 0.0165056 0.257071
0.0732341 -0.0824333 0.291838
-0.0850698 0.200392 0.745349
0.133719 0.212513 0.092472
0.0107403 -0.0324067 0.281889
0.093352 -0.0635264 0.332731
0.0753802 -0.19161 0.389326
0.151138 0.150716 0.625518
-0.0832763 0.19164 0.723184
0.0484969 0.0782081 0.324731
-0.0805735 0.224447 0.601499
0.0430868 -0.00971571 0.324662
-0.00756794 0.230713 0.794517
-0.155129 0.00373519 0.351384
0.0122348 -0.0775516 0.402158
0.182181 0.0271345 0.373675
-0.0956623 0.188768 0.481001
-0.0956521 0.215762 0.782908
-0.0808253 0.219183 0.355331
0.103157 0.104125 0.292467
0.0120435 0.071101 0.296479
-0.0417347 0.22813 0.680128
-0.0983205 0.174994 0.0897586
-0.165883 -0.0980937 0.359993
0.13907 0.101413 0.360516
0.05747 0.190636 0.440604
0.0897445 0.212125 0.456825
0.0877653 -0.0899722 0.347578
0.0663041 0.158463 0.471066
-0.0635303 0.254089 0.797195
0.104388 0.0313929 0.348876
0.0776856 0.000829643 0.113896
-0.0220678 0.159006 0.573819
0.14077 0.216185 0.0704968
0.0207722 -0.0721192 0.402594
-0.0755613 -0.115018 0.325155
0.073564 -0.0130576 0.347193
-0.0464668 -0.151187 0.396848
0.140874 -0.00303615 0.349156
-0.103405 0.16972 0.311877
-0.138553 -0.132101 0.351465
0.0188522 -0.136096 0.346064
-0.090451 -0.132582 0.331452
0.00600763 -0.146872 0.103944
0.0454986 0.1919 0.442132
-0.0416044 0.0757 0.132202
0.0265712 0.207075 0.74055
0.0545372 -0.134776 0.398131
0.0949654 -0.117488 0.400905
0.0922999 -0.129668 0.332232
-0.154556 0.20694 0.734604
-0.0102755 0.0705866 0.290471
-0.157321 0.231428 0.0419401
0.193907 0.00265643 0.384006
-0.00240532 0.145483 0.388415
0.0524175 0.228656 0.796552
-0.113596 0.193466 0.603586
0.101502 -0.108737 0.338794
0.0100131 0.158838 0.515049
0.159638 -0.0105778 0.101239
-0.0504752 0.157846 0.591161
-0.0762402 0.12901 0.297332
-0.154101 0.183581 0.72158
-0.00286552 -0.0726736 0.345146
0.0307446 -0.00715055 0.288756
-0.0520334 0.254671 0.801927
0.00985836 -0.126363 0.345898
0.0229515 -0.115603 0.34553
0.0502595 -0.136341 0.345818
-0.103406 0.196126 0.323929
-0.111585 0.246729 0.792103
0.0316364 0.077396 0.398373
-0.0630438 0.187856 0.436385
-0.102125 0.174325 0.432477
-0.00488776 0.0655873 0.320059
-0.0147582 -0.24545 0.0384113
-0.163039 0.0278829 0.35503
0.0116559 0.140123 0.278632
-0.0683196 -0.099435 0.324592
-0.0336189 0.205459 0.569908
0.0454821 0.253414 0.786107
-0.147787 0.155264 0.639523
-0.0344186 0.0813918 0.15329
-0.0858129 0.201032 0.747275
-0.0257648 -0.00896169 0.347189
0.00999446 0.0897042 0.301481
-0.0977604 -0.00553742 0.10765
0.0421328 0.0544837 0.272502
0.0978527 -0.136685 0.399714
-0.0765619 0.157819 0.29712
-0.0945575 0.0922018 0.398794
0.0171173 -0.0425125 0.404852
0.0958091 0.21384 0.407774
0.0450389 0.232952 0.804901
-0.157629 0.24438 0.0333408
0.0579053 0.0684865 0.348452
-0.205012 -0.0358939 0.0761439
-0.102181 0.0763161 0.40031
0.0658616 0.212389 0.765258
-0.0311805 0.136221 0.39249
-0.0686915 0.208706 0.508066
0.167139 0.0975572 0.387579
-0.085104 0.202234 0.74994
0.044375 0.0257967 0.123698
0.091079 0.220854 0.368066
0.0856534 0.211865 0.551192
-0.131678 0.216659 0.00235267
0.0530388 0.195666 0.476274
-0.0909852 0.189333 0.439978
-0.0863068 -0.015915 0.347614
0.0893474 0.0757259 0.399774
-0.00741818 -0.0866162 0.303478
0.0887587 0.148139 0.308339
0.0614548 -0.0897684 0.301101
-0.103374 0.191739 0.485595
0.256365 -0.03954 0.0317047
-0.108857 -0.0471701 0.279325
0.0955291 0.236118 0.746291
0.0993913 0.150254 0.489544
-0.0264267 -0.138349 0.341523
-0.0947622 0.141265 0.324984
0.0128661 0.246071 0.740972
0.00835163 -0.13764 0.338607
-0.154325 -0.0593585 0.351124
0.0185257 0.0500927 0.25662
-0.100435 0.0722479 0.347123
-0.163023 -0.0698795 0.296391
0.041607 0.0931566 0.147137
-0.0393585 0.169417 0.637405
-0.0419587 -0.0102492 0.346424
0.144659 -0.0364768 0.406479
0.188126 -0.0652128 0.405441
0.100461 0.0942137 0.265204
0.0360554 0.0616999 0.347627
-0.0881594 -0.100473 0.347264
0.0319062 0.0254546 0.256436
0.180286 -0.0388074 0.291748
0.0527626 0.118342 0.347085
-0.253534 -0.0363086 0.0256331
0.051237 0.251798 0.778662
0.0615142 0.105514 0.116553
-0.138822 0.226971 0.00644499
0.134397 0.211889 0.789487
0.0334539 0.238534 0.716919
-0.00922448 0.0465743 0.0290273
-0.0184817 -0.124524 0.346436
0.0024582 0.0541407 0.0939499
0.00331005 -0.254669 0.0239735
-0.10703 -0.00560295 0.277378
0.0854335 0.00121678 0.272525
-0.114209 0.187342 0.569775
-0.0256742 -0.0205304 0.290752
-0.0973764 0.139568 0.325022
0.159958 0.244174 0.0312655
-0.221539 -0.0769433 0.013498
0.0506872 -0.107805 0.284031
-0.0571451 0.107684 0.10533
0.030328 0.0462289 0.280778
-0.00606265 -0.123582 0.0964179
0.0376603 0.0150199 0.285442
0.0819415 -0.00189118 0.287967
0.00643279 0.0408801 0.212607
0.0849458 -0.0421903 0.405657
-0.103408 0.201157 0.383435
-0.0739368 0.205137 0.752103
0.0805371 0.211671 0.40924
-0.161751 -0.0127348 0.107949
-0.00642211 -0.167113 0.0875682
0.091793 0.232969 0.73257
0.0129486 -0.0203814 0.347199
0.00201561 -0.210018 0.0869918
0.0213784 0.165628 0.463096
0.100057 -0.190673 0.380906
-0.00295105 0.238135 0.704883
-0.0301344 0.173248 0.646766
0.0978634 0.0666758 0.347662
-0.111626 -0.100501 0.403213
0.165761 -0.101755 0.406111
0.017391 0.0106324 0.286096
0.0647708 -0.122755 0.310875
0.0503455 -0.0873926 0.283894
-0.00645188 -0.115696 0.115308
0.142744 -0.0515275 0.349184
0.0102913 -0.216341 0.0262901
-0.0763784 0.21023 0.584052
0.0898905 0.145608 0.1022
0.00867211 -0.0525418 0.28784
-0.153311 -0.000227995 0.351066
0.0894953 0.121913 0.347082
0.0691022 -0.0887442 0.292654
-0.100763 -0.105178 0.347268
0.0712753 -0.0936109 0.401593
0.0735868 0.154241 0.488204
-0.0636713 0.0771351 0.32473
0.0857387 0.221347 0.36085
-0.0660974 0.0689367 0.324724
0.0611374 0.173289 0.66111
-0.0965049 0.0572988 0.25762
-0.169282 -0.117174 0.36858
0.0969967 0.201475 0.619858
0.178935 -0.0256918 0.0837713
0.075893 -0.0150541 0.406032
-0.058714 -0.127435 0.325454
-0.0159966 0.0763527 0.324729
-0.104022 0.207474 0.526432
0.0287073 0.22374 0.78191
0.0313919 0.132978 0.278188
-0.0547068 0.0974182 0.138859
0.130575 0.0519251 0.348793
0.00974262 0.0144292 0.180407
-0.156179 0.160029 0.524081
0.0448079 0.23476 0.629249
-0.103374 0.193579 0.534364
0.0480434 0.0100557 0.148175
-0.085315 0.19071 0.29848
0.123279 -0.0413335 0.406727
-0.0114947 0.07676 0.271511
0.057644 0.123913 0.125722
0.00364285 -0.151165 0.0866807
-0.160445 -0.0315811 0.288492
-0.0987203 0.00781778 0.111588
0.14794 -0.109003 0.404474
0.0854735 -0.163685 0.348168
-0.0769603 0.08718 0.287573
0.221574 -0.0468128 0.0368879
0.0559378 0.213109 0.6273
-0.0774152 0.205286 0.428008
0.0926766 -0.0936246 0.332421
0.143609 0.0553253 0.349841
-0.128945 0.178656 0.499182
-0.0566057 0.223 0.784892
-0.176402 0.077555 0.39804
-0.0140227 0.0700611 0.317971
-0.0454036 -0.137127 0.397892
-0.154903 0.214554 0.772446
-0.136615 -0.161019 0.362664
0.00555538 0.166505 0.465132
-0.0108497 -0.0239321 0.345529
-0.116997 -0.0147229 0.28094
0.0406407 0.246757 0.753242
-0.112841 0.148988 0.595735
0.253784 -0.0724333 0.0345511
0.0517565 0.0635199 0.324719
-0.0680124 -0.117463 0.322232
-0.0411766 0.19445 0.452545
-0.101351 0.0889682 0.399344
0.0631221 0.0903736 0.347689
-0.10262 0.157825 0.452039
-0.0346006 0.231198 0.623198
0.152086 0.203459 0.0269481
-0.0503098 0.0174846 0.155583
-0.12008 0.104708 0.398843
0.0367804 0.215618 0.763687
0.0803498 0.189131 0.463039
0.161409 -0.112663 0.359235
-0.0932123 0.189131 0.468023
-0.0711634 0.140785 0.123871
-0.0956198 0.234013 0.739047
0.0222219 -0.0552019 0.345777
0.0235529 -0.023926 0.324651
0.00346419 0.0902687 0.306475
-0.030346 -0.102488 0.34622
-0.00170932 -0.0678084 0.104058
-0.016385 0.0775399 0.347119
0.131387 -0.0187021 0.348893
-0.137315 0.0192338 0.349552
0.0284918 0.197651 0.476374
0.225203 -0.0683732 0.039514
0.119204 0.242659 0.785469
-0.14444 0.0581668 0.403586
-0.00356756 0.223632 0.644429
0.0587963 0.0762638 0.34712
-0.100982 -0.187782 0.387506
0.0780839 0.218878 0.671633
0.0106269 0.0701499 0.318896
-0.00334418 0.0230642 0.193394
0.0561644 -0.0561196 0.296078
-0.0588601 0.0525393 0.324711
-0.107295 0.186377 0.507337
-0.225588 -0.0768595 0.0340609
0.0769676 0.193772 0.547573
-0.0855404 0.164099 0.104278
0.168074 0.0111518 0.406795
-0.103653 0.0689758 0.275722
0.0235165 0.193105 0.520471
0.103266 0.203351 0.639447
0.0842217 -0.128193 0.399693
0.0198097 -0.152452 0.346456
-0.00691292 -0.0758193 0.112482
0.00558492 -0.0717858 0.324614
0.140539 -0.157955 0.363453
0.0491474 0.155572 0.506465
0.0111055 0.0666876 0.30118
0.125068 -0.158704 0.352358
-0.054707 0.182893 0.685409
-0.0514251 0.165475 0.293896
0.0120054 0.223426 0.647077
-0.130025 0.19771 0.650882
-0.0981544 -0.130531 0.347288
-0.0359617 -0.0398501 0.347215
-0.0282421 0.219114 0.771907
-0.0128718 0.0152536 0.100993
0.232487 -0.0710051 0.0376214
0.000899576 -0.00643065 0.16017
0.131637 0.0486166 0.347519
0.0500239 0.166917 0.299581
0.0977385 -0.0709346 0.334553
0.136868 0.0596073 0.349086
0.156722 -0.153857 0.377005
0.149532 -0.0100245 0.350403
-0.107733 0.156948 0.45275
-0.106068 0.0162045 0.27689
0.0854344 0.0135509 0.269147
0.096794 -0.0130343 0.347963
0.0854482 0.0957968 0.261716
-0.157084 0.139685 0.576893
0.070681 0.222484 0.678751
-0.0410752 0.0391341 0.401384
0.0681672 0.25022 0.77776
-0.13289 0.182445 0.575637
0.101182 0.174974 0.297541
0.000530835 -0.00853236 0.262271
0.0444515 0.0995584 0.347865
-0.0853577 -0.00812848 0.272352
-0.0101388 0.0112944 0.137599
-0.154579 -0.0901685 0.351825
-0.093611 0.188994 0.466951
0.0155242 0.0170136 0.324683
0.00610194 0.162462 0.483086
0.0014884 0.256403 0.789954
0.262656 -0.0738904 0.0178535
0.00510215 0.0121064 0.0866854
0.0395867 0.00545588 0.324674
-0.00686683 0.100704 0.324748
-0.131651 0.176083 0.466844
0.0884498 0.120447 0.307288
-0.114936 -0.0381638 0.348382
0.0368706 -0.0747457 0.34614
0.038966 0.0126908 0.149153
0.0200469 0.250235 0.76139
-0.100106 0.0913537 0.335457
0.030579 0.223033 0.653585
0.0386858 0.156893 0.503942
-0.0693798 0.0677401 0.346708
-0.18101 -0.0719952 0.296706
-0.00553107 0.0531757 0.400119
0.158088 0.181769 0.627996
0.103502 -0.118229 0.347607
0.015126 0.235178 0.627042
