-0.0698948 0.0171545 0.272666
-0.0355058 0.016659 0.261791
-0.00734588 0.181203 0.383146
-0.130998 0.144604 0.549995
0.164406 -0.0372199 0.333571
-0.186608 0.0542361 0.335627
-0.0686725 -0.160923 0.348181
-0.128154 0.181864 0.36421
0.0871022 0.180079 0.416173
0.157604 0.162666 0.62761
0.175096 0.152032 0.449913
-0.141872 0.180598 0.360749
-0.129678 -0.068581 0.348181
-0.180405 0.152346 0.522637
0.016217 0.219929 0.729944
-0.135846 0.154513 0.382709
-0.13835 0.224267 0.030372
0.0505045 0.00686972 0.265717
-0.0714995 0.186635 0.413501
0.143038 -0.12405 0.383146
-0.0398391 0.0162142 0.151457
-0.0117294 0.0751909 0.276176
-0.142977 0.143291 0.46793
0.140251 0.168406 0.43098
-0.162335 -0.170665 0.354237
-0.113521 0.0989119 0.383146
0.169122 0.198307 0.0310376
0.0180453 -0.0028812 0.26235
-0.109475 0.202391 0.384166
-0.167082 0.14396 0.540117
0.156918 0.101327 0.349376
0.133061 -0.104945 0.383146
0.107324 0.156416 0.10949
-0.00828625 0.0916569 0.381729
0.12421 0.160958 0.558239
-0.0116398 -0.0849132 0.383146
0.176241 0.152095 0.511703
0.18262 0.0864125 0.347689
0.237498 -0.0506192 0.0558557
0.0987888 0.157169 0.46367
-0.117557 0.0854614 0.383146
0.140709 0.137777 0.514238
0.0189149 0.0246099 0.279371
0.134438 0.186255 0.367701
0.0844657 0.161829 0.462045
-0.156531 0.182234 0.708092
0.0524815 0.0771082 0.380047
0.163981 0.188135 0.683012
-0.057385 0.111875 0.129344
-0.0899585 0.17718 0.645879
0.146692 0.16747 0.652912
-0.0052417 0.0314213 0.0126498
0.0753574 0.137512 0.35645
0.0191251 0.00944629 0.191247
-0.111583 0.212147 0.359893
-0.075155 0.111894 0.351808
-0.0414285 0.248099 0.822423
-0.194759 0.111409 0.355887
0.0590171 0.177409 0.383146
-0.128741 0.0410956 0.32253
-0.00245038 -0.066256 0.383146
0.168812 0.153883 0.61137
0.0347153 0.0692767 0.348903
0.0377289 0.207668 0.381286
0.0385006 0.22163 0.742703
-0.191519 0.19009 0.342842
0.0500888 -0.182486 0.383146
0.106247 0.190629 0.718386
-0.192879 -0.0935454 0.348181
-0.172539 0.15153 0.50114
-0.091158 0.0300166 0.302011
0.200334 -0.097002 0.374516
-0.229672 -0.0862951 0.0331132
-0.19468 0.156892 0.361806
-0.0625586 0.119869 0.122972
-0.0814803 0.226682 0.77298
-0.0160815 -0.256786 0.0368058
0.0349057 0.219272 0.73244
-0.0218624 -0.245928 0.00669473
-0.00456442 -0.232461 0.0372172
-0.0288227 0.222528 0.791429
-0.0578432 0.19811 0.366015
0.186515 0.13916 0.513353
0.0180566 0.180124 0.445747
0.0280051 0.0484243 0.168829
-0.0454471 0.181697 0.364173
0.181459 0.0581396 0.347765
-0.0765097 0.166707 0.538313
0.0413501 0.206983 0.397852
0.156912 0.213639 0.770402
0.132805 -0.0306561 0.348181
0.105102 0.174374 0.442266
-0.14723 0.0523269 0.332234
0.147313 0.145248 0.459418
-0.181915 0.16292 0.616365
-0.0146537 -0.225818 0.0291055
-0.0910991 0.173314 0.583303
0.090266 -0.181525 0.383146
0.131876 0.21035 0.0405622
-0.0121676 0.216066 0.339478
0.0602176 0.182573 0.650671
-0.0105592 0.174005 0.593524
-0.0528956 0.077303 0.136296
-0.148829 0.007546 0.348181
0.175823 0.0644704 0.348181
0.18448 0.148963 0.550746
-0.0808268 0.131715 0.0944158
0.121294 -0.0107541 0.303166
0.0106078 0.0392063 0.278796
0.1008 0.144847 0.358471
0.126216 0.204641 0.00813106
-0.0792856 0.173239 0.623177
-0.00463412 0.215821 0.366186
-0.124756 0.237112 0.815076
0.186722 0.143244 0.482226
0.16347 0.199891 0.348063
-0.117031 0.210736 0.786004
0.172816 0.201587 0.761808
-0.0993942 -0.0147826 0.292345
-0.0547913 0.00843813 0.266901
0.0781137 0.158682 0.479256
0.165214 0.144992 0.491511
0.0955436 0.0406057 0.284762
-0.102822 0.0175957 0.383146
-0.09862 0.0743125 0.349152
-0.10307 0.189 0.362969
0.0631294 -0.170758 0.383146
-0.126874 0.182507 0.69294
-0.126466 0.125674 0.383146
0.00697578 0.176403 0.54023
-0.0562722 0.0333625 0.286881
-0.0579314 -0.157886 0.348181
-0.201103 0.00656293 0.370954
0.10063 0.198979 0.379452
-0.189851 0.0807558 0.347279
0.0379984 0.239511 0.789693
0.17526 0.152625 0.494162
-0.0175532 -0.0391683 0.383146
-0.0178049 0.0418323 0.122788
-0.145396 -0.0435331 0.348181
-0.078898 0.21109 0.366018
-0.0312436 0.172179 0.521474
0.0146056 0.172095 0.586676
0.00165522 0.0235425 0.278249
0.158868 0.198562 0.718981
-0.18149 0.152335 0.527478
-0.0115935 0.100138 0.305926
0.0980002 -0.125574 0.348181
0.16714 0.0823226 0.348181
0.262221 -0.0693319 0.0333912
-0.164632 0.0493509 0.342256
-0.188303 -0.0582246 0.383031
0.131914 0.239985 0.816983
-0.160479 -0.175777 0.369482
0.14297 0.219909 0.0422315
-0.0966062 -0.00586607 0.280142
0.154141 0.192251 0.70903
-0.0906336 0.139711 0.383146
-0.0361182 0.240004 0.790277
-0.115459 0.152126 0.383146
0.0755356 0.21156 0.339917
0.158696 -0.0872966 0.383146
0.0730685 0.135512 0.112663
-0.108506 0.0411178 0.383146
0.000276098 -0.158444 0.0828921
-0.0921863 0.167207 0.476441
-0.145245 0.0713011 0.348349
-0.251939 -0.0610575 0.0382126
-0.1565 0.225878 0.0579227
0.172532 0.181815 0.664196
0.149005 0.151741 0.546652
-0.177113 0.146773 0.436195
-0.117443 0.04335 0.383146
-0.144122 0.0850413 0.383146
-0.153349 0.20735 0.789547
-0.100189 0.00186346 0.348181
0.141495 0.200495 0.773995
0.021392 0.217571 0.779663
0.00962123 0.184556 0.437058
-0.0357683 0.209924 0.367343
-0.0655166 -0.00697612 0.271246
0.0865408 0.0522373 0.381436
0.00444067 0.165881 0.383146
0.00898319 -0.00328092 0.130798
-0.0891499 0.188682 0.641032
-0.0221253 0.212554 0.371274
0.0623438 0.0970795 0.350322
0.0770529 0.00633833 0.275679
-0.0209211 -0.196499 0.349692
-0.0405833 0.212248 0.704166
-0.155427 0.223952 0.0430628
-0.0268722 0.245833 0.818594
-0.0560112 0.207401 0.336719
0.0567592 0.202506 0.67236
0.173373 -0.0114624 0.312023
0.00339124 0.166584 0.502935
0.171655 0.143887 0.531255
0.183861 0.142781 0.478583
0.152526 0.199659 0.718532
-0.116912 -0.124375 0.383146
0.00520698 0.205573 0.409333
-0.122856 0.229947 0.810773
0.0557058 0.0522732 0.348181
0.193387 0.0042279 0.335346
0.0173574 -0.00664161 0.273146
0.137393 0.0526508 0.383146
0.164429 0.200175 0.778844
-0.0909278 0.160008 0.462667
0.0133769 0.19459 0.3488
0.0620906 0.161807 0.361111
0.0186443 0.254458 0.827016
-0.19617 -0.0348194 0.0898551
-0.118118 0.0296037 0.292897
0.151772 0.189127 0.718288
0.118342 -0.107507 0.348181
-0.0300922 -0.114697 0.383146
-0.0261294 0.0797998 0.379234
-0.0518489 -0.113076 0.383146
0.0600407 -0.160542 0.383146
0.124209 0.180537 0.415571
-0.108163 0.000817881 0.288982
-0.0818055 0.174301 0.629037
-0.133404 0.107319 0.350797
-0.0108169 0.179195 0.49167
0.0539472 0.211971 0.370813
-0.196165 0.126569 0.356763
0.0578008 0.248466 0.801511
-0.0756184 0.24429 0.799534
0.019213 0.00481141 0.127305
-0.15133 0.135694 0.50189
-0.00978177 -0.00305833 0.156774
0.105803 -0.12839 0.348181
-0.192698 -0.132337 0.382086
0.0721502 -0.192294 0.350042
0.069934 0.150959 0.383146
0.0336771 0.189407 0.419195
-0.172144 0.169268 0.395578
-0.167429 -0.0347966 0.348181
-0.126986 0.12598 0.355344
0.158308 0.178558 0.64746
0.0791913 0.118562 0.383146
0.115146 0.176835 0.0786555
-0.0721397 0.191658 0.358692
0.1551 0.195391 0.757825
0.189566 -0.161182 0.378435
0.198303 -0.0100382 0.378493
-0.0375645 0.035739 0.262366
0.0348034 0.0527285 0.144738
-0.159482 -0.0489937 0.348181
0.0551327 0.200263 0.336068
-0.153001 0.16105 0.582959
0.18955 -0.00166037 0.334575
-0.085926 0.19266 0.337838
0.161102 0.178384 0.654919
-0.228105 -0.0503574 0.0247566
0.108226 0.130141 0.355271
0.0178216 0.0307821 0.257586
-0.111593 0.193237 0.334376
0.142343 -0.181104 0.363452
0.156139 0.138935 0.550044
0.0635837 0.0949721 0.350207
0.030314 0.24376 0.813853
0.00690928 0.0409264 0.113806
-0.0166715 -0.199637 0.354846
0.15669 0.129647 0.377778
0.0659651 -0.0056375 0.348181
0.0890947 -0.0123575 0.300952
0.0429391 0.0202215 0.255728
-0.00872007 -0.192555 0.0865604
-0.103641 0.148858 0.0998445
-0.00579445 0.0297739 0.237523
-0.132944 -0.0281456 0.348181
-0.12894 0.00658657 0.297103
-0.0903276 0.18717 0.687715
0.171817 0.149159 0.437388
-0.169733 -0.0225604 0.383146
-0.135258 -0.184099 0.364858
0.1537 0.165653 0.428812
-0.00588265 0.0386126 0.250968
-0.0216156 0.217027 0.362955
0.189295 0.147403 0.469003
0.0492842 0.265315 0.820173
-0.207983 -0.0471295 0.0718292
-0.0103048 0.211221 0.758681
0.168465 0.146061 0.583197
0.127707 0.165713 0.422337
0.175455 0.13496 0.350045
-0.122616 0.144244 0.537024
0.168548 0.159317 0.557976
0.0431493 -0.0224478 0.383146
-0.115472 -0.0688652 0.383146
-0.10551 0.181626 0.357326
0.172182 0.202383 0.768033
0.0401329 0.236268 0.810782
0.05051 0.0407241 0.348181
-0.012679 -0.230672 0.0337762
0.00530612 -0.00534041 0.123904
-0.065559 -0.00829414 0.290323
-0.0723235 0.110874 0.103403
-0.123646 0.240895 0.7994
-0.0448108 0.00030379 0.383146
-0.0227301 0.0262078 0.134814
0.0148568 -0.140699 0.348181
-0.00737511 0.00995605 0.245085
0.102395 0.185628 0.364737
-0.194542 -0.0463769 0.347649
0.23686 -0.060047 0.0406072
-0.0664632 0.0123255 0.383146
0.114275 0.205811 0.372817
-0.0749928 0.0306137 0.274765
-0.00616684 -0.253073 0.0289995
0.102859 0.160645 0.360986
-0.13024 0.19465 0.371653
0.165705 0.133438 0.52559
0.137126 -0.00990076 0.348181
0.113028 0.199452 0.37845
0.13829 0.226199 0.0373351
-0.119885 0.182955 0.0764917
-0.163491 0.118729 0.357901
-0.0169808 0.224792 0.748701
-0.006976 0.00990835 0.207144
-0.176009 0.145936 0.540432
-0.178054 0.0793265 0.341367
-0.0326148 0.228316 0.765792
0.108402 0.20696 0.717231
-0.0124475 -0.0239371 0.383146
0.202267 -0.0106431 0.367578
0.105057 0.0672111 0.383146
0.095242 0.207969 0.713722
0.0843912 0.207997 0.37059
-0.029138 -0.0713958 0.383146
0.102209 0.0859602 0.383146
-0.00378796 -0.0013837 0.199105
-0.163815 -0.0668615 0.348181
-0.0522603 0.172112 0.543003
-0.113065 0.179206 0.670377
-0.0215621 0.0221701 0.259459
-0.0319029 -0.135599 0.383146
0.0781224 -0.0119994 0.295768
-0.127802 0.198387 0.383195
0.00878807 -0.212914 0.0781699
0.140198 0.0122962 0.318803
-0.180196 0.158122 0.403286
0.0811403 0.178738 0.651257
0.178314 -0.134136 0.348181
-0.0209135 -0.0163149 0.383146
0.11767 0.101897 0.383146
-0.0935435 0.160068 0.109861
0.0371703 0.214715 0.775911
-0.0662415 0.216487 0.730795
-0.162705 0.225701 0.788817
0.174734 0.133215 0.537061
-0.0926406 0.170085 0.436172
-0.15705 0.166356 0.639367
-0.103223 -0.0446552 0.348181
-0.0163488 -0.00440436 0.348181
0.0203765 -0.230207 0.032412
-0.0273253 -0.171439 0.383146
0.0834727 0.192405 0.413346
0.0794512 0.0817693 0.349467
-0.0453961 0.0219076 0.383146
-0.170253 0.200408 0.771811
-0.0317136 0.264289 0.818156
0.158765 0.160192 0.420738
0.127528 0.00793766 0.383146
-0.0663271 0.217137 0.353472
0.260166 -0.0509581 0.0187261
-0.0428271 -0.187181 0.383146
0.17261 0.155468 0.616646
0.162021 0.248948 0.811386
0.185228 0.0138723 0.348181
-0.0517636 0.198863 0.340444
0.103092 0.205484 0.367922
0.10792 0.188607 0.348175
-0.262523 -0.0799426 0.0258354
-0.0297386 0.215059 0.37814
-0.0429865 0.0467188 0.348181
-0.0506188 0.253027 0.827405
-0.125373 0.18774 0.711673
-0.197171 0.0952672 0.352861
0.12792 0.123269 0.354747
0.110328 0.172296 0.647898
-0.157215 0.19379 0.755118
-0.169133 0.172393 0.679162
-0.17106 0.21972 0.0185375
-0.00476423 0.12156 0.383146
-0.011771 0.0227776 0.221879
0.133528 0.0140059 0.28858
-0.029843 -0.00121852 0.383146
-0.132516 0.0186874 0.348181
-0.0263674 -0.0011036 0.256259
0.166294 0.169111 0.666583
0.156051 -0.0302077 0.323873
0.0391752 -0.153356 0.348181
-0.101447 0.0390986 0.383146
-0.119576 0.200451 0.338865
0.0483309 0.170515 0.524936
-0.141445 0.233761 0.80994
0.0965234 0.0522658 0.383146
-0.014636 0.116997 0.307434
-0.103205 0.158556 0.512983
-0.113634 0.0361037 0.314232
-0.0999395 -0.0139486 0.14387
-0.0944816 0.188608 0.34065
0.122364 0.145837 0.547307
-0.156611 0.146368 0.52644
-0.165503 -0.0314187 0.328864
0.142795 -0.126352 0.383146
0.0584884 0.0185478 0.287744
0.175231 0.165854 0.649195
-0.178433 0.163881 0.637556
-0.0114553 0.203185 0.658643
0.0678154 0.0540579 0.348181
0.0080356 -0.159418 0.104827
0.0284627 -0.154033 0.348181
0.00888283 -0.0926756 0.123818
0.126052 0.0129029 0.308641
-0.1342 0.0682665 0.383146
0.0939642 0.161336 0.588912
-0.187781 0.137336 0.511694
-0.20167 0.135933 0.349462
0.169611 0.220169 0.785749
0.00591237 0.164763 0.513596
-0.00183377 -0.0249846 0.383146
-0.0129268 0.0387514 0.0979205
0.250275 -0.0775717 0.00958216
0.159503 -0.141907 0.348181
-0.136964 0.189018 0.0247445
0.154487 0.0361616 0.383146
-0.0143145 0.118891 0.309464
-0.162327 -0.0168918 0.302088
0.0877524 0.166236 0.448877
-0.119473 0.168687 0.425261
0.0964356 0.206384 0.339929
0.177742 0.190472 0.340316
0.143076 0.158866 0.457678
0.0906534 0.172256 0.631856
-0.154981 0.154069 0.56023
0.00499243 -0.00102382 0.0684275
0.116259 0.0798589 0.349264
-0.089238 -0.000441604 0.28386
-0.235564 -0.0498272 0.0635463
0.0780364 0.252018 0.806178
-0.0829395 0.0307185 0.348181
0.139627 0.144865 0.561476
0.0441338 0.197308 0.338291
-0.19711 -0.104798 0.38009
-0.0277059 0.248325 0.822184
0.19918 0.0250217 0.348015
-0.194158 0.16011 0.336502
-0.150784 0.0307367 0.296707
0.0151151 0.165849 0.554557
0.0538452 0.195148 0.363752
-0.175601 0.0597965 0.383146
-0.19879 -0.0120741 0.338441
-0.0072741 -0.0225866 0.128355
-0.0941177 0.193029 0.343924
0.0146258 0.0313055 0.202275
-0.200524 0.0857894 0.348105
-0.0236111 -0.0356675 0.348181
-0.190176 0.136013 0.486942
-0.06704 0.174906 0.442506
-0.126222 0.239957 0.817092
0.248288 -0.0919002 0.0282364
-0.00876281 0.235105 0.776754
0.0348636 0.261737 0.814769
0.138404 0.191272 0.337129
-0.108831 0.202796 0.338436
-0.190793 0.0912425 0.348422
-0.0533689 0.107019 0.383146
0.0786827 0.206576 0.763619
-0.0965877 -0.0166444 0.296469
0.219475 -0.0441447 0.0863805
0.062718 -0.036167 0.348181
-0.143141 0.16169 0.366222
-0.201106 -0.0205135 0.34589
-0.067419 -0.104957 0.383146
-0.176504 -0.149815 0.348181
0.00971503 0.0686353 0.280963
-0.0543264 0.163842 0.48419
0.15586 0.146385 0.523545
-0.0175069 -0.191284 0.348181
-0.0248838 0.0663601 0.125227
0.0573504 0.163024 0.488432
0.00848499 0.204224 0.726425
-0.230545 -0.0900727 0.0332529
-0.038644 0.161092 0.538593
0.184232 0.118652 0.336064
0.163955 0.194313 0.755789
0.0038418 -0.147343 0.115838
0.0201671 0.0106775 0.279354
0.0225267 0.0434723 0.270578
0.0835106 0.211391 0.363777
-0.127046 0.223002 0.0110183
0.11656 0.188456 0.0780276
-0.187133 0.146272 0.537394
0.144769 0.172389 0.408693
0.0301987 0.0226958 0.280432
-0.105676 0.0492182 0.348181
-0.142506 0.177827 0.68659
-0.151312 0.200197 0.778335
-0.152398 0.161252 0.42242
-0.00798633 -0.0570124 0.124024
-0.0333412 0.0356944 0.26137
0.239879 -0.0686222 0.0428003
0.155606 0.217336 0.778922
0.15182 0.149482 0.586082
-0.138345 0.217826 0.0389734
0.0408579 -0.0673274 0.383146
-0.154089 0.145808 0.572727
-0.2241 -0.0790857 0.0386975
-0.0669968 0.0977507 0.123685
-0.00332484 0.177491 0.605839
-0.12778 0.166465 0.632818
-0.141654 -0.000198569 0.329649
0.0766268 0.178142 0.589948
-0.154103 0.227508 0.0417023
0.0728818 0.179441 0.454691
-0.156054 0.118639 0.355168
-0.0258727 -0.0198438 0.348181
-0.134478 0.191108 0.0216741
0.0182975 0.0316265 0.090238
-0.0396897 -0.180199 0.348181
-0.0362358 0.166041 0.566704
0.202856 -0.063489 0.360525
0.0665977 0.242197 0.811153
-0.168802 -0.0327808 0.11266
0.0800405 0.213806 0.341202
-0.0750516 0.0500267 0.348181
-0.156299 0.0297019 0.383146
-0.120319 0.197852 0.696681
0.0269956 0.00768814 0.258777
0.125139 0.13885 0.383146
0.00363575 0.198481 0.36665
0.121029 0.0447484 0.383146
-0.116201 0.0496884 0.299749
0.0571789 0.203784 0.403224
0.188525 -0.0379463 0.347314
-0.0582468 0.208473 0.39049
-0.0400302 0.213477 0.38123
0.0769177 0.201393 0.394877
0.054406 0.172177 0.604034
0.179969 0.169879 0.648897
0.229819 -0.0717873 0.00323491
-0.0100947 -0.233187 0.0160896
-0.175437 0.160141 0.556789
-0.0895535 4.76621e-05 0.278636
0.0647868 0.156171 0.52415
0.148235 -0.153984 0.383146
0.0468508 0.171997 0.513315
-0.146817 -0.0354302 0.0987366
-0.0114215 0.0486252 0.137674
-0.137493 0.175738 0.404957
0.0318895 0.219683 0.34989
0.0329059 0.182529 0.638992
-0.197639 0.0201312 0.379244
-0.102388 0.174191 0.0895188
0.184996 0.102499 0.371515
-0.188439 -0.0117394 0.347324
0.0249297 0.02247 0.252195
-0.0880736 -0.180424 0.383146
-0.256597 -0.0651431 0.0412227
-0.0229928 0.22651 0.757476
-0.0420308 -0.170346 0.348181
-0.0925045 0.15753 0.46767
0.179639 0.152566 0.560549
-0.00696733 -0.135862 0.114879
0.0792518 0.255045 0.826781
-0.150047 0.235409 0.813226
-0.104703 0.19014 0.391187
-0.107937 -0.024484 0.119996
-0.119292 0.195403 0.336819
0.0949106 0.180924 0.671499
0.127132 0.0146842 0.383146
-0.0134132 0.0149222 0.0126498
0.124618 0.147024 0.471513
0.0195083 0.211172 0.696115
0.0288059 0.104132 0.38291
0.0714481 -0.0693739 0.383146
0.0844918 0.168198 0.484968
0.185597 0.1329 0.513444
-0.247674 -0.0599955 0.0169847
0.0199091 0.200315 0.419532
0.161297 0.232579 0.0249435
-0.176461 -0.0368483 0.0811868
0.12011 -0.110397 0.348181
-0.178221 0.164654 0.606991
0.0579605 -0.127015 0.348181
-0.0726824 0.104616 0.122072
0.175246 0.142668 0.524951
0.180498 0.142642 0.526614
0.163876 0.155878 0.615042
-0.0770901 0.17679 0.45847
0.116195 0.0146502 0.301572
-0.0775598 0.0360426 0.272933
-0.0129253 0.231353 0.804139
-0.0930266 0.176891 0.42437
-0.162934 0.00771626 0.335647
0.0168821 -0.00777438 0.383146
0.105045 0.15336 0.111611
0.0436553 0.0209256 0.348181
0.198455 0.0725883 0.348181
0.150413 -0.0384552 0.383146
-0.0684343 0.255687 0.809677
0.0964445 0.190633 0.713224
0.20116 0.105999 0.344624
-0.128026 0.152782 0.506655
-0.131358 0.173989 0.411425
-0.184181 -0.0470547 0.0830405
0.171156 -0.142504 0.348181
0.106778 0.124822 0.354303
0.040713 0.041942 0.282285
0.181162 0.174934 0.420366
-0.0710511 0.199449 0.367336
0.166235 0.0389496 0.343231
0.113732 0.0182098 0.281016
0.0726147 0.261471 0.82575
0.0885387 -0.0105593 0.107527
-0.00147897 0.165472 0.512054
-0.138896 0.250234 0.806162
0.122227 0.00548431 0.348181
0.0675642 -0.0117925 0.284139
0.174937 -0.0943531 0.383146
0.0588006 0.191767 0.365648
0.0609658 -0.181593 0.348181
0.25319 -0.0851501 0.0376118
-0.0594155 0.160781 0.551562
-0.111131 -0.158633 0.348181
-0.134293 -0.0662198 0.348181
-0.125885 0.184124 0.394863
0.0232699 0.205709 0.675275
0.144124 0.13927 0.487162
0.137964 0.193422 0.0342421
0.187561 0.136222 0.523725
0.00478153 -0.166825 0.0832875
0.00435864 -0.0378388 0.119617
0.152494 0.144336 0.458004
0.0427421 0.231179 0.805673
0.0913275 -0.141334 0.383146
0.161164 0.231475 0.792397
-0.196303 -0.0495768 0.381202
-0.0084756 0.00605803 0.0225083
0.23883 -0.0741737 0.0409715
-0.154126 0.152419 0.598783
-0.0262404 -0.0662932 0.383146
-0.129345 0.00634436 0.322879
-0.176042 0.148474 0.461486
0.0521544 0.161016 0.54724
0.0225204 0.0186302 0.185401
0.16819 0.0072891 0.340041
-0.0224999 0.186564 0.455709
0.127293 0.100772 0.349925
-0.0525918 -0.014933 0.383146
0.0115073 0.0165329 0.209009
-0.0409647 -0.044062 0.383146
0.0142812 0.208756 0.748423
0.046632 0.208123 0.368114
0.181682 0.140491 0.558483
-0.0426751 0.17991 0.576907
0.229632 -0.0770422 0.0391895
0.103976 0.0459287 0.383146
-0.148367 0.173571 0.625994
0.250258 -0.0563516 0.0155208
0.115901 0.172753 0.597723
0.0548288 0.259047 0.828578
0.0187637 0.220168 0.348725
-0.00648662 0.177196 0.383146
-0.0863382 -0.0252692 0.348181
-0.0135789 0.18342 0.579661
-0.100397 -0.0266119 0.348181
0.182969 0.136227 0.461072
0.0816824 -0.00960955 0.278804
-0.0367724 0.0189575 0.262144
-0.0798876 -0.00193129 0.151723
-0.0146656 0.193886 0.365972
0.0943802 0.138599 0.11936
-0.0691297 0.149045 0.383146
0.031843 0.219791 0.356015
0.136551 0.19898 0.705159
-0.131354 0.160936 0.459926
-0.0524517 0.057321 0.348265
-0.045394 -0.00387095 0.141299
0.17611 0.188539 0.711113
-0.00981662 0.244635 0.813844
-0.136887 0.139459 0.522387
-0.0724293 0.179313 0.363825
0.130655 0.166334 0.639398
0.0971788 0.0844304 0.349579
0.0820516 0.249878 0.807003
0.132974 0.0222567 0.288419
-0.0136524 0.210985 0.393603
-0.177847 0.183999 0.681642
0.128113 0.00726411 0.348181
-0.137499 0.137775 0.383146
-0.05396 0.0565509 0.383146
0.0543242 0.170986 0.534531
-0.0680885 0.155995 0.531798
0.066389 0.124214 0.111428
-0.0443965 0.102508 0.382863
-0.0552678 0.0112584 0.144343
-0.161434 0.173442 0.640201
-0.171088 0.197676 0.359055
0.182957 0.195369 0.348424
0.12152 -0.0541905 0.383146
0.0661002 -0.0664346 0.383146
-0.0123133 0.0269036 0.348181
-0.047421 0.230095 0.805283
-0.017243 0.00311228 0.13282
0.0928071 0.0949799 0.383146
0.175685 0.186248 0.338265
0.0508252 0.162612 0.361229
-0.0204962 0.221554 0.360549
-0.00980147 0.134025 0.383146
0.0715338 0.188139 0.682772
0.0797673 0.028353 0.383146
0.250278 -0.0824976 0.0232459
0.135174 0.0271001 0.315189
-0.096457 0.225948 0.777016
-0.0684638 -0.126267 0.383146
0.102292 -0.0636924 0.383146
0.175699 0.15556 0.612741
0.0319274 0.0460515 0.348181
0.0966587 0.149913 0.506906
0.00530891 0.161185 0.319864
-0.109268 0.208552 0.338065
0.116152 0.244486 0.803756
-0.09132 0.161761 0.525578
-0.134956 0.215176 0.765479
0.0827883 -0.146255 0.383146
-0.0888108 0.183969 0.356708
0.00249915 -0.0159532 0.383146
0.184649 0.147253 0.336137
0.165785 -0.0833939 0.383146
-0.0139171 0.0368876 0.0658154
0.0727955 0.182882 0.661831
-0.171814 0.217193 0.789616
0.167464 0.194522 0.753708
0.102096 0.10494 0.383146
0.0466653 0.00605763 0.263792
0.104338 0.152368 0.11206
0.0648792 0.0228229 0.348181
-0.0825137 -0.0131697 0.148329
0.16754 0.140122 0.497698
-0.125217 0.195273 0.389153
0.00822972 6.33185e-05 0.0657089
0.0803078 0.019937 0.296768
0.133758 0.198216 0.761366
-0.119801 0.0356688 0.348181
-0.0117365 0.0201765 0.225511
0.00805174 0.192517 0.357883
-0.0861256 0.256182 0.810896
0.246487 -0.0565113 0.0436903
-0.156386 -0.105443 0.383146
0.200947 0.0868325 0.345315
0.055134 0.181392 0.643512
-0.0543486 0.204924 0.744855
0.18058 0.146182 0.543625
0.0374669 0.210321 0.376465
0.0634133 0.174644 0.564069
-0.0748233 0.1921 0.383146
-0.0950523 -0.136731 0.348181
-0.0823736 -0.179442 0.348181
0.200297 0.0864132 0.373197
-0.137116 0.00538505 0.300202
0.108785 -0.15653 0.348181
0.230941 -0.081075 0.0263759
-0.0512732 0.215069 0.365321
-0.0973932 0.18799 0.352347
-0.0151436 0.211683 0.391106
-0.137402 0.159495 0.459122
-0.00147119 -0.115536 0.348181
0.154719 0.0915017 0.383146
0.139688 0.0159828 0.290943
0.149649 -0.0586489 0.348181
0.0288668 0.0788733 0.378716
-0.1653 0.0909473 0.383146
0.156708 -0.0256425 0.322788
0.127346 -0.0951554 0.348181
0.14067 -0.165793 0.348181
0.0465203 0.127233 0.354144
-0.0890472 0.175042 0.453296
-0.0414925 -0.20171 0.368783
0.109557 0.0209232 0.279436
-0.0116662 0.191245 0.670986
-0.141589 0.220022 0.0584375
0.156459 0.184944 0.371138
-0.147004 0.132869 0.382377
-0.17532 0.173376 0.337122
0.0557509 -0.00740417 0.137641
0.0219699 -0.241128 0.0337979
0.026903 0.117986 0.383146
0.0304781 0.0164286 0.280463
-0.0485786 -0.100064 0.348181
-0.228848 -0.0733701 0.000627582
-0.0201298 0.216905 0.717321
-0.259249 -0.090451 0.0239563
0.0291746 -0.0932773 0.348181
-0.16325 0.215111 0.775229
-0.183979 -0.0118315 0.336523
0.0535948 0.0944665 0.382274
0.0478729 0.0450989 0.280833
0.103039 0.0100823 0.276984
-0.070302 0.0374557 0.292159
0.00108405 0.175282 0.524675
0.0159616 0.0946145 0.382019
-0.0915907 0.15823 0.5719
-0.134881 -0.184459 0.365752
-0.0513943 0.150175 0.383146
-0.111902 0.011763 0.280288
-0.135399 0.198901 0.379356
-0.180342 0.0993651 0.348577
-0.162714 -0.0230687 0.341235
0.0696456 0.163406 0.468697
0.17525 0.182486 0.336466
-0.0916252 0.164099 0.383146
-0.0327206 -0.0603601 0.348181
-0.128866 -0.183 0.379362
0.0631567 0.210386 0.705133
-0.138281 -0.160196 0.383146
0.192646 -0.0656189 0.348181
-0.0125486 0.0520645 0.148157
-0.201184 -0.0857555 0.370652
0.170242 0.0500375 0.338933
0.0632471 -0.148417 0.383146
0.18228 0.0680507 0.347712
0.127871 0.149687 0.46202
-0.177478 0.101174 0.381291
0.147207 0.157231 0.459176
0.0721994 0.155746 0.537682
-0.088329 -0.0183832 0.128517
0.0200685 0.00735701 0.383146
-0.0685937 0.202722 0.369363
0.138177 0.162939 0.631286
0.0815037 -0.0464327 0.348181
0.0404798 -0.117681 0.348181
0.251641 -0.0566063 0.0343093
-0.000678905 -0.124337 0.0927707
0.0890157 0.182351 0.672704
0.104643 0.150905 0.106141
-0.166379 0.177037 0.696327
0.131942 0.148465 0.569021
-0.145444 0.124762 0.383146
0.0928945 0.0306364 0.303034
0.00807592 0.199059 0.366734
-0.0317121 0.194868 0.407754
-0.0448926 0.0945835 0.350221
0.112528 0.14695 0.54224
0.151635 0.190227 0.336995
0.00215596 0.0444026 0.348181
-0.0166549 0.0574337 0.383146
-0.00385932 0.191959 0.383146
0.0782899 -0.00578069 0.383146
-0.05725 0.177153 0.473535
-0.12037 0.197477 0.695387
0.158374 0.204786 0.00543209
0.0633254 0.0780677 0.349321
-0.125077 0.0276547 0.285229
-0.011799 0.0210838 0.249087
-0.0895753 0.236945 0.793097
-0.120631 0.207165 0.729659
0.180155 0.154228 0.4478
0.105838 0.147987 0.539137
-0.049702 0.137529 0.356227
0.00228488 -0.158021 0.348181
0.00424631 0.211183 0.689952
0.171029 -0.115722 0.383146
-0.178777 -0.115974 0.348181
-0.0275542 0.200233 0.651452
-0.131665 0.233037 0.794477
-0.021966 0.0288386 0.145178
0.189947 0.136307 0.475778
0.0105236 0.194113 0.350629
-0.0207378 0.0584616 0.124655
0.117063 0.0181965 0.3162
-0.171732 0.00391967 0.311528
0.142653 0.253956 0.80958
0.0157487 0.0173987 0.0226984
0.0292262 0.173816 0.513142
0.0670841 0.199342 0.367273
0.183128 0.179766 0.40653
-0.0276829 0.0659035 0.16372
0.02213 0.0649669 0.150825
0.150632 -0.0235636 0.119482
-0.0407732 0.0277104 0.263253
-0.184831 0.0197901 0.383146
-0.0116995 0.0175691 0.232341
0.102183 0.188102 0.383146
-0.174659 0.152002 0.510822
-0.187043 -0.047923 0.347412
0.0243207 0.0996877 0.382503
0.0779734 -0.0306882 0.348181
0.118894 0.163557 0.564175
-0.0973027 0.209793 0.362987
0.0631319 0.00333812 0.289458
0.0718217 0.172205 0.481356
0.13191 0.0542434 0.319558
0.0364359 0.207797 0.381251
0.103915 0.108797 0.383146
0.109968 0.161924 0.479506
0.00822593 0.0816648 0.297567
0.158009 0.172591 0.412564
-0.200665 0.0902721 0.372646
-0.0713532 -0.033221 0.383146
-0.0714198 -0.197364 0.374798
-0.153633 0.186977 0.676018
-0.160314 0.156739 0.590794
0.134835 0.186312 0.396903
-0.0654615 -0.0477567 0.383146
-0.108312 0.0349453 0.295906
0.0131885 0.00129832 0.0902478
-0.137927 0.155472 0.439975
-0.179287 0.0950066 0.339793
0.0221326 0.0215442 0.119075
-0.156845 0.166882 0.639426
-0.110416 0.166371 0.361919
-0.0978949 0.16892 0.0953214
-0.0424818 0.084932 0.113609
0.0152204 0.204756 0.336721
0.200216 -0.142447 0.361796
-0.0915099 -0.00106523 0.122802
-0.132813 0.231333 0.0215905
0.0949047 0.0378089 0.279802
0.0403903 0.237113 0.811677
-0.170668 -0.0276396 0.102882
0.00626315 0.168703 0.345723
-0.00488369 0.1689 0.484696
0.0341309 0.0824591 0.349596
0.0930059 0.050231 0.348181
-0.12701 -0.00685461 0.321603
-0.0451135 0.173746 0.607873
0.0287302 0.0387173 0.254256
0.0197348 0.00986366 0.0969039
0.00289531 0.196271 0.68922
0.110812 0.147218 0.498184
0.126357 0.167904 0.642487
-0.122698 0.199784 0.0907255
0.182437 0.160898 0.393863
-0.0957438 0.174222 0.59032
0.124699 0.193694 0.739623
0.162847 -0.00398868 0.341352
-0.17236 0.209152 0.771743
-0.170634 -0.0248694 0.383146
0.0714679 0.0294988 0.265134
0.117806 0.164287 0.56661
-0.146294 -0.0798851 0.348181
-0.0916905 0.239532 0.809617
-0.175715 0.151586 0.499285
0.0965797 0.00235198 0.348181
0.094754 0.216403 0.746222
0.0437087 0.0256243 0.348181
-0.201512 0.110736 0.342031
0.186443 0.148143 0.535195
0.0590637 0.211038 0.771306
0.195066 0.118862 0.356471
0.023026 0.0298173 0.383146
0.193972 -0.029191 0.347609
0.122384 0.0112273 0.348181
0.166449 0.190969 0.743387
-0.0578629 -0.00652686 0.157477
0.000629181 -0.248832 0.0424128
0.174386 0.0191208 0.307058
-0.0975786 0.240082 0.798305
-0.0246089 0.0207552 0.127363
0.0796864 0.00865497 0.383146
0.200233 -0.0847563 0.374811
-0.0146654 0.257327 0.828443
0.0462473 0.00612409 0.261111
-0.064213 0.245069 0.798469
-0.110811 0.189477 0.709422
-0.12318 -0.0273718 0.101876
-0.227679 -0.0587446 0.065593
0.132794 0.168334 0.382396
-0.0869474 0.0387675 0.282554
0.150865 -0.160989 0.383146
-0.0336882 0.159661 0.360755
0.153986 0.199236 0.775871
0.104319 0.0309265 0.293443
-0.169796 0.141442 0.489915
-0.0285286 0.00728483 0.174644
-0.0727706 0.0198121 0.274627
-0.200718 -0.0769724 0.362547
-0.10294 0.193614 0.34173
0.153412 -0.0295928 0.383146
-0.00962785 0.166395 0.340098
-0.00853282 -0.114926 0.115905
0.00630602 0.254353 0.827343
0.145388 0.171607 0.613876
-0.156784 0.237232 0.814336
0.0578468 0.0876915 0.144286
0.0101242 0.212559 0.764138
-0.0312627 0.0573487 0.383146
0.133707 0.191565 0.370887
-0.0763761 0.0215517 0.294926
0.0700295 0.0320551 0.348181
0.204976 0.0551415 0.356848
-0.160387 0.175773 0.362754
-0.0996701 0.170626 0.362548
-0.0312007 0.0747239 0.378401
-0.185449 -0.16092 0.353385
-0.197944 0.0290234 0.348181
0.00479601 0.211559 0.332979
-0.094719 0.0314506 0.287217
-0.16391 -0.130499 0.383146
-0.10329 -0.012805 0.288526
0.182869 0.00091292 0.336878
-0.238829 -0.0788261 0.0398725
-0.147053 0.0532823 0.320169
0.0453473 0.160776 0.513472
-0.140023 0.163687 0.379593
-0.0728493 0.159349 0.558407
0.0997787 0.15138 0.549895
-0.118005 0.130567 0.383146
-0.154189 0.244265 0.801855
-0.0334107 0.16735 0.473991
0.1374 0.0358799 0.327378
-0.138066 0.150568 0.580077
-0.111816 0.174302 0.420397
-0.153364 0.213847 0.80051
-0.167818 -0.150677 0.348181
-0.171051 0.207322 0.0127236
-0.089072 -0.0864339 0.348181
0.0550275 0.213801 0.776544
0.138252 0.251011 0.805935
-0.0286775 0.0466068 0.164784
0.0648259 0.160018 0.383146
0.146186 0.213537 0.764132
-0.176904 0.155529 0.436185
0.0466961 -0.17634 0.348181
-0.00749715 -0.233562 0.0705182
-0.0993884 0.0608814 0.348473
0.0958213 0.230579 0.784722
-0.119524 -0.0341464 0.348181
-0.154773 0.0907717 0.349106
0.175677 0.142065 0.511828
0.161077 0.204333 0.786063
0.0927017 0.231342 0.807763
-0.062668 -0.0094156 0.289253
0.014739 0.045186 0.269871
-0.132237 0.202351 0.718851
-0.0263116 0.0118707 0.120407
-0.039737 -0.130839 0.383146
0.15288 -0.0212816 0.113763
-0.063105 0.177338 0.439241
0.0692038 -0.198659 0.364088
-0.145843 0.232103 0.793668
0.101547 0.153939 0.564802
-0.0897863 0.18372 0.356425
0.0857506 -0.0274792 0.383146
-0.0100988 -0.228214 0.022448
0.155962 -0.0886327 0.348181
0.100594 0.0204056 0.28595
-0.197845 -0.101567 0.353424
-0.104861 0.152125 0.472445
-0.116892 -0.116594 0.348181
0.229815 -0.0670776 0.0337595
0.0422543 0.118991 0.383146
-0.145554 0.215133 0.0610293
-0.183947 -0.0801901 0.383146
0.170981 0.166818 0.340462
-0.153712 0.202731 0.350763
0.133443 0.156717 0.439822
0.146945 0.159076 0.621574
-0.0927682 0.0273251 0.273066
-0.0886127 0.183251 0.619702
0.0280797 0.180994 0.471106
-0.181925 0.140788 0.558386
-0.251402 -0.0777822 0.00180648
0.0114743 0.226452 0.754341
0.060564 0.12867 0.383146
0.0816541 0.194922 0.344405
0.16043 -0.140677 0.348181
-0.00819483 0.155738 0.360113
-0.1953 0.0935057 0.335695
0.0239432 -0.116911 0.348181
-0.128906 0.0287896 0.322626
0.130264 0.160354 0.464581
-0.0931814 -0.00433921 0.303113
-0.112812 0.237944 0.815782
0.172764 0.176319 0.415741
-0.158775 0.198181 0.00570938
-0.119277 0.118139 0.352772
0.0139753 0.052764 0.25672
-0.0049135 0.000245394 0.0648962
0.0906569 0.0213444 0.282083
0.119751 0.119818 0.383146
-0.120939 0.0695773 0.383146
0.183474 0.147356 0.55427
-0.173396 0.0784514 0.348181
0.0112244 0.176078 0.541187
0.087834 -0.0165355 0.113066
-0.00368038 -0.166396 0.383146
0.0912996 0.0839689 0.349555
-0.132726 0.192624 0.376716
-0.147184 0.217088 0.795395
0.0260282 0.216499 0.778072
0.182435 0.150948 0.564674
0.0293923 0.252673 0.8266
-0.114553 0.0278639 0.383146
-0.24059 -0.0625855 0.0479167
-0.0916739 -0.017636 0.141799
0.200651 0.0256515 0.372342
-0.200193 0.038236 0.374423
0.0518347 0.106362 0.12573
-0.0874208 0.0734774 0.349129
-0.0879559 -0.0714607 0.383146
-0.0904379 -0.0170144 0.298593
-0.179645 0.162777 0.360587
0.0827337 0.157596 0.562187
-0.166436 0.00723906 0.338488
0.0323569 0.220082 0.351354
-0.130673 0.146498 0.468516
-0.00724694 -0.210012 0.0747548
0.0303412 -0.0951204 0.348181
0.161728 0.185691 0.676892
-0.181309 0.155375 0.60514
0.0717738 0.131602 0.108899
0.0234633 0.035119 0.259988
0.131714 0.00553085 0.383146
0.0501804 0.075734 0.123784
0.151769 0.164165 0.591787
-0.19217 -0.0936609 0.348181
0.0711929 0.207111 0.696805
-0.0822512 0.0238645 0.297593
-0.0778431 -0.0584696 0.383146
0.112094 0.228834 0.786061
0.133567 -0.00372251 0.314045
-0.143731 0.156107 0.433815
-0.148958 0.244683 0.819699
-0.154529 0.204856 0.0104365
0.100684 0.18578 0.41805
-0.173246 0.15637 0.473769
0.0121233 0.00492008 0.0563144
0.09185 0.167711 0.613837
-0.183083 -0.094459 0.342061
-0.0726694 -0.0126048 0.13223
-0.00467314 0.0148411 0.278315
0.0971665 0.243662 0.819211
-0.0464553 -0.119784 0.383146
-0.0518827 0.0331122 0.348181
0.142927 0.15009 0.501356
0.0375713 0.264721 0.826868
0.151455 0.219262 0.803674
0.0150238 0.00176585 0.148189
0.0755574 0.135964 0.102317
0.0755256 0.17047 0.362504
0.13564 0.170156 0.602028
-0.182603 0.0716515 0.347704
0.103218 0.207133 0.337356
-0.00774514 -0.197947 0.350804
-0.104241 0.199626 0.373001
0.0980906 -0.153398 0.348181
-0.123336 0.203061 0.774073
0.170342 0.203367 0.739099
-0.144196 -0.0280416 0.0907734
-0.143334 0.232217 0.802875
0.0305208 0.213632 0.772679
-0.0318898 0.182806 0.584904
0.154612 0.150816 0.547699
0.00684325 -0.16768 0.10459
-0.0456299 0.0442019 0.281912
-0.233174 -0.0858897 0.0372536
0.0347093 -0.2014 0.363122
0.00824302 0.0400565 0.0911893
0.0768134 0.0936811 0.3501
0.187053 -0.0605598 0.34741
-0.159329 0.190682 0.744481
0.00933763 -0.238589 0.0416223
-0.226705 -0.0736831 0.0411863
0.104861 -0.00177671 0.309484
-0.000813554 0.173178 0.585033
0.194615 -0.047546 0.0770897
-0.108944 0.192689 0.367674
0.178165 0.0838997 0.347976
0.0886329 -0.0149021 0.291968
0.054392 0.234063 0.78121
0.105937 -0.02342 0.116276
-0.188716 -0.0929684 0.34611
0.0283765 0.213952 0.773046
-0.0229765 0.0418153 0.383146
0.0817344 -0.0148264 0.118003
-0.0491036 0.00518355 0.348181
0.0275051 0.151102 0.383146
-0.172746 0.159447 0.344104
-0.0381615 0.000806795 0.256174
0.0446334 0.0291279 0.348181
0.0371346 0.0845716 0.147361
0.246647 -0.0812995 0.0406095
0.00994083 0.0256213 0.252457
-0.170043 0.166056 0.60814
0.107567 0.15599 0.105851
0.0190307 0.0299877 0.0721376
-0.0533475 0.216691 0.341371
-0.113278 0.207014 0.725231
-0.168456 0.142169 0.500304
0.0181325 -0.108429 0.348181
-0.170197 0.016389 0.306494
0.144573 0.168257 0.601403
-0.139223 -0.0220226 0.0938402
0.000684708 0.0840249 0.349678
-0.180717 0.1449 0.573816
0.195276 -0.0731924 0.381607
-0.00770888 -0.13449 0.348181
-0.156506 0.154503 0.562506
0.0636685 0.216075 0.358705
0.120474 0.237003 0.814076
0.180686 -0.0988474 0.348181
-0.12405 0.0532185 0.315816
0.0995543 0.108122 0.351315
0.16165 -0.00657654 0.383146
0.180667 -0.102485 0.348181
-0.125386 0.188037 0.366392
0.0902878 8.65571e-05 0.129901
0.127302 0.00081889 0.321819
0.154406 0.0415961 0.336729
0.011612 0.0810369 0.272435
0.160967 0.180061 0.660335
0.106035 0.00234068 0.294547
0.10076 0.259545 0.815463
0.130341 -0.0461813 0.383146
0.171915 -0.0707282 0.348181
0.129159 0.243619 0.819971
-0.119954 -0.0647428 0.348181
0.0067166 0.189654 0.660838
-0.156086 -0.0266133 0.0893964
-0.176308 0.0309413 0.336755
-0.00253768 0.109494 0.316957
0.118797 0.178214 0.678463
-0.179122 -0.0527207 0.383146
0.189805 0.140705 0.467387
0.118561 0.243152 0.818854
-0.0393901 0.177032 0.447865
-0.194339 -0.0907241 0.381832
0.0982086 0.17175 0.428108
-0.00967721 0.0692686 0.282031
-0.245523 -0.0640791 0.0593656
0.0415846 0.176558 0.560434
0.0819822 -0.00703119 0.152602
0.116849 0.161795 0.609294
-0.189184 0.138573 0.485066
0.0285275 0.208334 0.332478
0.00753636 -0.0246505 0.161187
0.0894157 0.254794 0.825656
0.110925 0.0208045 0.312827
-0.0930905 0.182501 0.411766
0.122351 -0.0175172 0.319091
-0.0708023 -0.162824 0.348181
-0.0894935 9.73007e-05 0.275868
-0.191532 0.153042 0.435557
0.189197 0.163593 0.335591
0.177806 0.0487764 0.336842
0.0870937 0.154381 0.492747
-0.0125507 0.0504421 0.162633
0.0566591 0.182495 0.457911
0.1829 -0.0309536 0.0998163
0.151848 0.210352 0.756095
-0.0272584 -0.118472 0.383146
-0.058201 0.199605 0.723258
-0.0677753 0.215578 0.358595
0.109084 0.205518 0.712011
-0.0588849 -0.0951617 0.383146
-0.072937 -0.077349 0.348181
0.139054 -0.0262665 0.348181
0.145497 -0.0205936 0.121254
-0.0513641 0.175559 0.487785
-0.119296 0.162106 0.610127
0.126587 0.168942 0.417187
-0.160418 0.203257 0.737462
0.202825 0.00243862 0.35559
-0.139219 0.150999 0.58255
0.181479 0.162372 0.602654
-0.115373 0.202633 0.710906
-0.0476968 0.0781907 0.155079
0.00890054 0.0270151 0.253148
-0.10935 0.174507 0.383146
0.0895017 0.166601 0.486479
-0.0554892 0.193362 0.365557
-0.0256935 -0.113835 0.383146
-0.0679944 0.111241 0.140304
0.141039 -0.0241838 0.383146
0.171438 0.0904131 0.383146
-0.0927476 -0.187882 0.34935
-0.186457 0.0209864 0.383146
-0.0397792 -0.190105 0.348181
-0.0116841 0.243311 0.817416
0.157599 0.135088 0.533275
0.173199 0.15215 0.604609
0.170324 -0.127278 0.383146
0.102205 0.187044 0.702808
0.00740519 0.163933 0.53617
-0.195233 -0.00700537 0.3477
0.145383 0.188526 0.0222363
0.172444 0.0190599 0.345812
-0.023782 0.21289 0.334444
0.0960648 0.135843 0.383146
-0.0930338 0.0807269 0.383146
0.142536 0.229962 0.0600632
-0.183578 0.133633 0.469013
0.105916 0.17223 0.0829806
-0.0869083 -0.135005 0.383146
-0.00210686 0.159812 0.317341
0.181137 0.147914 0.581461
0.00147484 0.190149 0.451302
-0.0123471 0.0120819 0.27868
0.177698 0.147369 0.545785
0.192626 -0.000417337 0.382123
-0.115826 0.256162 0.823833
-0.112381 0.175862 0.65721
0.163296 0.0494082 0.327158
0.0638643 0.153579 0.383146
0.119016 0.151382 0.570687
0.144186 0.163988 0.439264
-0.0782644 0.155134 0.510806
0.0682213 0.155182 0.524445
0.0236546 0.193976 0.685279
0.0794097 -0.173275 0.348181
-0.0658487 0.16761 0.520396
0.128954 -0.148774 0.348181
-0.16751 -0.102542 0.383146
-0.13254 0.074657 0.383146
0.110618 0.00797282 0.289951
-0.0977001 0.205173 0.768002
-0.00758253 -0.10015 0.106178
0.178651 0.0225439 0.305638
0.0116114 -0.0873508 0.348181
-0.198797 0.0499279 0.377828
0.123117 -0.0540721 0.348181
0.180384 0.165838 0.613956
0.0764608 0.195652 0.718133
0.0245173 -0.194443 0.382034
0.0549976 0.215892 0.370669
0.061349 0.171988 0.502724
-0.00353085 0.214615 0.70315
0.118612 -0.149289 0.348181
-0.137745 0.154511 0.476426
0.141657 0.223147 0.0471221
0.22195 -0.0506514 0.0891662
0.0875173 0.197826 0.367415
0.161652 0.190223 0.743474
-0.00816118 -0.040976 0.147393
0.0617303 -0.19332 0.348668
0.133137 0.184863 0.366096
-0.0889056 0.033023 0.271622
-0.167771 0.146135 0.457699
-0.0591297 0.197897 0.341223
0.175789 0.142767 0.447523
0.00300879 0.0715997 0.265552
-0.11528 0.172239 0.645595
-0.176246 0.157206 0.566884
-0.162303 -0.0247183 0.34101
0.190371 0.14111 0.461863
0.177273 0.145363 0.535676
-0.082752 0.0393591 0.297811
0.131347 -0.136984 0.383146
-0.0320831 0.202265 0.726865
0.00349465 -0.00676993 0.276217
0.186745 0.149204 0.458919
-0.00494838 0.0299521 0.27836
-0.059884 0.261084 0.828285
0.164812 0.196988 0.714769
0.171275 0.217897 0.794189
-0.198341 -0.0631551 0.378223
-0.149315 0.0417837 0.325224
0.140207 0.222512 0.0388653
-0.191145 -0.0225619 0.334878
-0.00734883 0.0394108 0.348181
0.261932 -0.0644739 0.00784412
0.088739 0.143205 0.0905301
-0.0800677 0.199177 0.384182
-0.0686213 0.128275 0.354444
0.145524 0.0263211 0.348181
-0.0102239 0.196068 0.35905
-0.00557567 0.0385262 0.0606654
-0.0466203 0.0808973 0.381377
0.0209437 0.176825 0.500553
0.183745 -0.0914408 0.383146
0.180661 -0.153575 0.348181
0.0758015 0.0634163 0.381399
-0.0236636 0.191264 0.357276
-0.0245338 0.0672024 0.133236
0.0429723 0.0657455 0.128487
0.184071 0.13247 0.478132
-0.0336183 0.220246 0.734898
0.122852 -0.0156513 0.383146
0.180986 0.0969415 0.381899
0.14622 -0.00777785 0.303489
-0.0943034 0.202207 0.337594
-0.160356 0.18972 0.689247
-0.0500775 0.17919 0.633562
-0.000788455 0.179238 0.4986
0.115927 -0.0433521 0.383146
0.156114 0.061016 0.348181
-0.185153 0.146126 0.565612
0.00223456 0.199907 0.364339
-0.128583 0.124837 0.355145
0.126819 0.178625 0.684244
-0.0796326 0.211419 0.337272
0.158777 0.246144 0.802952
0.00701381 -0.0145306 0.169725
-0.0433544 0.200007 0.720565
-0.0365916 0.0527228 0.348181
-0.0967476 0.122957 0.383146
-0.163758 0.136804 0.541
0.00194308 0.175273 0.520827
-0.160922 0.1916 0.0327146
0.01056 0.0387245 0.0678527
0.116819 0.231414 0.80918
-0.165119 0.244555 0.804497
-0.0138689 0.195734 0.346071
0.102367 0.211066 0.36307
-0.147561 0.200952 0.365037
0.148787 0.055095 0.348181
0.0218766 0.177295 0.554496
0.142948 0.169926 0.606225
-0.0658331 0.207401 0.758857
0.223752 -0.0534898 0.0669515
-0.0135689 -0.107379 0.383146
-0.0233777 0.00947609 0.259946
-0.032029 -0.167286 0.383146
0.124647 0.255809 0.810824
-0.087294 0.127191 0.124419
0.159201 0.169447 0.630042
-0.171676 0.0251128 0.345428
-0.175739 -0.0317326 0.0843928
0.174118 -0.000261307 0.383146
0.0237736 0.195887 0.363997
-0.103615 0.170905 0.632047
-0.109531 0.146496 0.518878
-0.0205646 0.20252 0.658552
-0.00388063 0.0427029 0.124596
-0.0443636 0.0131148 0.16244
0.146284 -0.0199587 0.118857
-0.147522 0.224813 0.795437
0.236413 -0.0905106 0.0277672
0.0152201 -0.175724 0.383146
0.00129541 0.00389888 0.0284947
-0.168042 0.0312697 0.305338
0.131864 0.168624 0.38258
0.192137 -0.0832985 0.348181
-0.0449494 -0.15373 0.348181
0.0169058 0.096998 0.35035
-0.0137793 0.170033 0.575556
-0.0527689 0.204566 0.678385
-0.121757 -0.187458 0.373744
0.141126 0.186399 0.389397
0.20004 -0.0151723 0.374986
0.00846128 0.0457564 0.144552
-0.173456 0.17659 0.644381
-0.118249 -0.107251 0.383146
0.0997416 0.0158318 0.383146
-0.0828451 0.168357 0.486461
-0.000724604 0.0363365 0.0395892
-0.107382 0.0116884 0.383146
-0.217943 -0.0784442 0.00927429
0.148352 0.178574 0.358766
-0.0953422 -0.192563 0.360079
-0.0936035 -0.0274437 0.348181
0.109357 0.220809 0.770376
0.190025 -0.0408139 0.382646
-0.12313 -0.0109929 0.11512
-0.0783476 0.165537 0.45774
-0.023226 -0.133695 0.383146
-0.072903 0.110207 0.351532
-0.0444728 0.187618 0.66793
-0.0516206 0.158179 0.527607
-0.0167092 0.209153 0.751743
0.0117825 0.215348 0.376983
-0.0476502 0.192979 0.343674
0.0545052 0.23269 0.778311
-0.0506182 0.0120265 0.1518
0.0138404 -0.247795 0.0412142
-0.0521827 0.192307 0.355323
0.0668437 0.00628233 0.348181
0.0711696 0.198109 0.724128
-0.0837984 0.150016 0.106386
-0.0876688 0.168276 0.477751
-0.0661448 0.107851 0.351134
0.0100888 -0.233489 0.0196559
0.0859829 -0.119456 0.383146
-0.018926 0.0037099 0.158726
0.202582 -0.0535828 0.0899118
0.0877187 0.153093 0.54477
-0.139 -0.0207757 0.125072
-0.202363 -0.0486972 0.096821
-0.0637099 0.245659 0.807945
0.00743171 -0.119411 0.106388
-0.0315727 0.0562287 0.383146
0.164742 0.143594 0.4951
-0.0638302 0.19269 0.637288
0.25414 -0.0697669 0.0406521
-0.0515733 0.144299 0.357935
-0.0634812 -0.11178 0.383146
0.0411262 0.193326 0.365857
0.153797 -0.0824584 0.383146
-0.176574 0.0438424 0.347386
-0.133962 0.0417729 0.291051
-0.0615771 0.205106 0.371143
0.136997 0.163839 0.421162
-0.00129465 -0.123195 0.0934225
0.203581 -0.0312118 0.359322
-0.15449 -0.0952439 0.348181
-0.0105589 0.220937 0.354844
-0.0569815 0.0164077 0.383146
0.0948436 0.209241 0.778702
-0.201117 0.0161327 0.343421
-0.170821 0.19094 0.738095
0.125454 0.197622 0.75475
-0.0153932 0.24025 0.78879
0.201181 -0.0902971 0.370984
-0.0780558 0.172793 0.469875
-0.172969 0.132346 0.486861
0.100929 0.212228 0.363801
0.0691683 0.185225 0.668694
0.0445277 0.218424 0.358038
0.0936372 0.162549 0.533189
0.185216 -0.0912941 0.383146
-0.148602 0.171784 0.668132
0.0403162 0.117676 0.383146
0.145898 0.145307 0.380675
0.0260509 -0.181585 0.383146
-0.0620212 0.190325 0.409937
-0.0884426 0.213908 0.341801
0.0638269 0.224771 0.761964
0.18119 -0.0424668 0.347787
-0.053092 0.16159 0.502131
0.0089537 -0.0360236 0.143919
0.167514 0.15677 0.452187
-0.0185216 0.192827 0.681126
-0.0689898 -0.0699362 0.383146
0.10178 -0.0215163 0.112354
0.0997174 -0.10107 0.348181
0.169506 0.164934 0.603573
0.000986999 -0.190181 0.0743734
0.108305 0.163268 0.110714
0.0615251 0.115421 0.104973
-0.0737416 0.191647 0.420496
0.200478 0.0029662 0.3511
0.016716 0.0173651 0.0421022
0.189663 -0.0940979 0.348181
0.0977399 -0.127917 0.348181
0.160649 -0.0248794 0.0956556
-0.0365549 -0.201194 0.362396
0.131433 0.201362 0.710118
0.0183089 0.0998575 0.350497
-0.00505007 0.124128 0.319928
0.0202357 0.0231018 0.0597638
0.189448 -0.0616539 0.348181
-0.0620543 0.0923657 0.383146
0.00727886 -0.0780745 0.383146
-0.156422 0.216125 0.0420684
0.0432756 0.221469 0.34618
0.154133 0.205768 0.789335
-0.00691983 0.212506 0.389118
0.128381 -0.139388 0.383146
0.0632085 0.160218 0.499259
0.169023 0.149364 0.432644
0.182314 0.141425 0.503759
0.0551251 -0.0090784 0.276562
0.190948 -0.019824 0.348181
-0.156623 0.146321 0.526182
0.0226266 -0.246958 0.0120581
0.217556 -0.0691894 0.0288124
-0.0555582 0.0825022 0.127263
-0.0813668 0.191719 0.415176
0.184128 0.178856 0.335868
-0.164307 0.230128 0.025995
0.0192795 0.177239 0.36351
-0.132004 0.207457 0.0421512
-0.0380494 0.266046 0.823381
-0.0536921 0.203736 0.385753
0.0836144 -0.184122 0.348181
-0.231361 -0.0520391 0.0307255
-0.000872324 -0.0709753 0.150295
-0.0558942 0.210176 0.367273
0.0756582 0.0309358 0.383146
-0.106951 0.117324 0.383146
0.175248 0.173664 0.672737
-0.199257 0.0159109 0.348257
0.00335849 -0.121652 0.127116
0.0532516 0.163366 0.383146
0.0120721 0.0388286 0.0914857
0.146552 0.188518 0.674813
0.139803 0.1393 0.49753
-0.04329 0.172037 0.534121
-0.0400916 0.108991 0.351253
-0.0743562 0.182077 0.444904
-0.143471 0.240212 0.8166
0.114051 0.189509 0.71831
0.106529 -0.0193453 0.383146
0.186813 0.145952 0.519421
-0.205694 0.0615033 0.360682
-0.0245099 0.0454099 0.172008
0.141105 0.248541 0.804811
-0.0365641 0.191064 0.415623
-0.170456 -0.0218573 0.33364
0.134079 -0.0214363 0.383146
-0.114322 -0.00850835 0.114438
-0.117019 0.0521557 0.313959
0.109392 0.198712 0.685733
-0.196783 0.0964324 0.347814
0.0375093 0.0203197 0.281523
0.106179 0.177281 0.0839021
0.104049 0.168933 0.628784
0.240417 -0.0818561 0.0234397
0.00988938 0.179989 0.561619
0.0157316 0.223009 0.74194
-0.118853 0.198829 0.753594
-0.167808 -0.0423873 0.348181
0.0661616 0.173614 0.561786
0.191203 0.143978 0.335449
0.191456 0.154863 0.44607
-0.219295 -0.054472 0.0147411
0.197116 0.00272223 0.336572
0.0844637 0.16773 0.447541
-0.133616 0.240306 0.801742
-0.144368 0.148699 0.515441
-0.110037 0.051155 0.305798
0.148415 0.175107 0.413012
0.0131567 0.196362 0.692741
-0.0885693 0.0160535 0.271516
0.169032 0.151307 0.447374
-0.104818 0.148624 0.504142
-0.00818398 -0.107699 0.119629
-0.082699 -0.00257144 0.29781
0.130524 0.14062 0.528617
0.173337 0.0228493 0.33541
0.145529 0.108113 0.351646
0.156021 0.147896 0.488867
0.113704 -0.0829259 0.383146
0.0439503 0.0143397 0.155057
0.057831 0.210805 0.705333
-0.166122 0.147755 0.492626
0.00579721 0.128938 0.383146
0.027883 0.174731 0.456427
-0.131124 -0.00237544 0.31223
0.111832 0.188696 0.3944
0.0758159 -0.0104403 0.280756
-0.08772 0.1642 0.539763
0.135152 0.140322 0.534145
-0.0433735 0.193766 0.349862
-0.126313 -0.177259 0.348181
-0.14282 0.138302 0.518939
0.186889 0.136083 0.465593
0.125563 0.185484 0.364716
0.100845 0.182658 0.42503
-0.202342 -0.0453335 0.0734775
-0.00442615 0.109063 0.383146
0.0327268 0.0784425 0.150499
0.104151 0.166982 0.566422
-0.0918655 0.190473 0.343983
0.0331533 0.164718 0.558059
-0.164449 0.144503 0.523933
0.114463 0.0515749 0.383146
-0.100341 0.191426 0.71153
-0.0968221 -0.0213736 0.348181
0.176106 0.187846 0.692233
-0.140848 0.178557 0.639575
-0.120001 0.208671 0.356682
0.146335 0.0149117 0.383146
-0.161268 0.155868 0.617051
0.145158 0.131847 0.382761
0.183654 0.137037 0.541402
0.099345 0.168409 0.0900304
-0.120235 0.013197 0.293765
-0.0623854 0.157848 0.518141
-0.0203587 -0.0245133 0.348181
0.0964209 0.224565 0.772126
0.036305 0.192692 0.683626
0.172129 0.15888 0.584642
-0.12173 0.043737 0.318677
-0.0606388 0.022659 0.288497
-0.0382966 0.159651 0.52592
0.014646 0.0847782 0.283172
-0.167499 -0.0909935 0.383146
-0.135317 -0.00874843 0.383146
0.0618607 0.0424391 0.383146
-0.0567729 0.0410263 0.287061
0.162628 0.186215 0.67857
0.0952361 0.152656 0.359695
-0.0680942 0.245053 0.807709
-0.0973037 -0.0199266 0.118582
-0.135643 0.15776 0.560247
0.0833562 -0.0132045 0.111309
