0.131202 0.0493394 0.323978
-0.0500279 0.175644 0.560197
-0.119835 0.201504 0.709291
-0.110987 -0.183156 0.381887
-0.120986 0.0447753 0.318268
0.0049715 0.161795 0.383146
0.0155405 -0.252993 0.0413461
-0.134701 0.140462 0.512691
0.0364252 0.215902 0.719582
0.154636 -0.0496358 0.348181
0.0982652 0.146597 0.383146
-0.127577 0.227256 0.0251777
-0.102449 0.23684 0.795236
0.188117 -0.0318322 0.383084
-0.159358 0.013115 0.348181
-0.0981323 0.168249 0.0913845
-0.0291381 0.202132 0.725421
-0.253719 -0.0674872 0.040954
-0.128633 -0.0228035 0.131333
-0.0177942 0.0576292 0.348304
0.0672069 0.159613 0.554862
0.0192159 0.197708 0.640865
-0.201541 0.126934 0.349921
-0.155322 -0.108289 0.348181
0.109627 -0.0961615 0.348181
-0.156649 0.196979 0.368837
0.0200835 0.00403465 0.15907
0.00894241 0.259879 0.828641
-0.0537051 0.181376 0.461939
0.0917538 0.177078 0.420036
-0.0232133 0.00381947 0.143008
-0.0893427 0.166994 0.556135
-0.011497 -0.202298 0.373831
0.173135 -0.0225015 0.311963
0.113023 0.20998 0.351979
0.0783392 0.217184 0.739989
0.00272846 -0.0258331 0.348181
0.0735416 0.196537 0.657035
-0.151127 -0.0326536 0.0899162
0.154422 0.171541 0.619838
0.183972 -0.102345 0.348181
-0.0496859 0.0789433 0.15364
0.0127968 0.0308607 0.0500703
0.177849 0.0623909 0.342017
0.148878 0.148158 0.45052
0.169425 -0.138514 0.383146
-0.0481673 0.1375 0.356201
0.0950792 0.177225 0.599342
-0.00916615 0.0267703 0.236443
0.108421 -0.0236146 0.109321
0.155655 0.251638 0.815635
-0.135096 -0.03625 0.348181
0.0739765 0.23266 0.808701
-0.0256543 0.177691 0.491443
-0.182838 0.0872722 0.383146
-0.0554645 0.100955 0.383146
-0.0633838 -0.092431 0.383146
0.18523 -0.0494566 0.336069
0.159592 0.224846 0.0366469
0.0117376 0.0547322 0.383146
0.0116266 0.214653 0.368687
-0.12535 0.166776 0.632227
-0.129632 0.0709676 0.348639
-0.10578 0.1866 0.397386
-0.150792 0.153596 0.600816
0.119705 0.0202024 0.283282
0.121913 -0.00985159 0.383146
-0.0243588 0.181201 0.63184
-0.00924916 0.120148 0.292685
0.00593308 -0.14322 0.116372
-0.0282333 0.215912 0.777274
0.128818 0.193306 0.740345
-0.0284876 0.0189902 0.348181
-0.198056 -0.0299495 0.378613
-0.0102461 -0.142841 0.348181
-0.069666 -0.0119746 0.383146
0.0761029 0.0839904 0.383146
0.0409452 0.0415607 0.348181
-0.0769223 0.194607 0.711267
0.202503 0.0190816 0.367207
-0.121262 0.0160396 0.283801
0.15008 0.196128 0.370406
0.00945877 -0.0685375 0.383146
-0.228136 -0.0816798 0.0406033
-0.0415266 0.195344 0.383146
0.170265 0.17803 0.383559
-0.0192074 -0.00167228 0.258688
0.00714369 -0.121853 0.102794
0.0422984 -0.158733 0.383146
-0.152997 -0.127087 0.383146
0.118055 0.165164 0.460218
-0.00564753 -0.235185 0.0751068
0.0861858 0.00443724 0.270685
-0.0248541 0.235941 0.810151
0.00591826 0.20158 0.713842
0.0437235 -0.0321235 0.383146
-0.150907 -0.00208681 0.305152
-0.00123 0.0435254 0.27777
0.0552959 0.213737 0.376589
-0.0326191 0.0989149 0.350446
0.105282 -0.0614256 0.383146
0.0265976 0.0238376 0.383146
-0.121923 0.00634183 0.348181
-0.143926 -0.161933 0.348181
0.202061 0.165032 0.351433
-0.138817 0.224142 0.785783
0.0190096 0.234118 0.776234
0.128824 -0.00134599 0.348181
0.0351167 0.166289 0.48087
0.0118007 0.000771601 0.0945501
-0.0945222 0.137385 0.356728
-0.176543 0.176985 0.685282
0.18681 0.135198 0.468456
0.0706921 1.07661e-06 0.156579
-0.23 -0.0628414 0.0778393
-0.0261082 0.0946654 0.382097
-0.000816397 -0.0417246 0.116133
-0.0717044 0.206246 0.334105
0.0541014 0.0299155 0.258728
-0.155624 0.205595 0.0309165
-0.0589743 -0.115313 0.348181
-0.177138 0.160427 0.461527
0.0821247 0.100021 0.350417
0.178948 0.144004 0.338733
0.145398 -0.0273111 0.318936
-0.159605 0.0529021 0.325443
-0.0315393 0.17407 0.363046
0.0199517 0.0112209 0.202273
0.10938 0.148286 0.545286
0.128131 0.214963 0.797945
-0.102533 0.0937967 0.383146
-0.00796648 0.185802 0.434497
0.0530808 0.181229 0.587161
-0.1645 -0.0688864 0.383146
0.000901373 0.19403 0.678608
0.0117782 -0.0562146 0.348181
-0.100547 0.162826 0.490577
0.0613848 -0.0603779 0.348181
0.174939 0.19668 0.723539
0.167798 -0.173101 0.366979
0.158383 0.107111 0.351153
-0.0618843 -0.163182 0.348181
-0.138596 0.144958 0.558629
-0.0604954 0.243301 0.795906
-0.138088 0.142285 0.475558
-0.0766195 0.205751 0.390956
0.00530205 0.177821 0.329772
-0.0680033 -0.00266166 0.266153
0.0984384 0.184206 0.688056
-0.0254259 0.177095 0.555152
-0.200934 0.0275476 0.340939
-0.19611 -0.00927049 0.335874
0.198791 0.0608154 0.377715
-0.0590083 0.194752 0.642408
-0.0798935 -0.00886439 0.110831
0.187545 0.0993558 0.377452
-0.000672433 0.104992 0.382831
0.0493727 0.159952 0.516311
0.155505 0.134377 0.52057
0.0673788 0.00459813 0.348181
0.118489 0.177485 0.0791971
0.0212482 -0.24849 0.00442107
-0.0464894 0.0100982 0.122975
-0.166444 0.0305565 0.383146
-0.114889 0.16227 0.361313
-0.00786298 -0.021634 0.158726
-0.113148 -0.110517 0.383146
0.162159 0.22739 0.00846352
-0.023966 -0.117567 0.383146
-0.0843196 0.0485875 0.292184
-0.0747483 -0.0565579 0.383146
0.150545 0.00931662 0.32679
-0.108984 -0.063444 0.348181
0.167032 0.157226 0.579797
-0.154853 0.229599 0.0690149
0.0689492 -0.0954435 0.383146
0.0432959 0.0644255 0.139656
0.0727723 -0.00810025 0.293335
0.129167 0.181886 0.343804
0.113504 0.184174 0.636693
0.032983 0.189921 0.442713
-0.0716026 0.0393924 0.266707
-0.0496097 0.0997467 0.111488
-0.0459521 0.214 0.712892
0.205048 -0.0398959 0.0778176
-0.170827 0.223994 0.798294
0.144587 0.149278 0.361818
-0.13301 0.210331 0.747376
0.152293 0.141127 0.556654
-0.00118691 -0.163306 0.383146
0.148925 -0.102824 0.383146
-0.0866495 0.172841 0.462032
0.00136822 0.00894839 0.278233
0.248465 -0.0499442 0.0299981
0.0147916 0.204851 0.33379
0.0930769 0.024276 0.273238
-0.0256419 -0.025052 0.383146
-0.112351 0.0520415 0.383146
0.0518377 0.0299999 0.285352
0.0601276 0.18943 0.412525
-0.201898 0.176469 0.362187
-0.0123542 -0.196281 0.348317
-0.0209549 -0.261158 0.0243831
-0.110489 0.214153 0.790927
-0.182392 0.097285 0.348527
0.0866024 0.155467 0.485571
-0.11699 0.180709 0.67893
0.121053 0.181295 0.383146
0.0479562 0.263081 0.828167
-0.0974392 0.253348 0.807877
-0.0101534 0.0471881 0.140224
-0.0687685 0.0247249 0.348181
0.136064 0.232028 0.0304686
0.115564 0.0970332 0.383146
-0.161927 0.155369 0.56847
-0.00774349 0.223596 0.741137
0.0951897 0.0331743 0.383146
0.0491548 0.0885112 0.153326
0.131055 -0.159097 0.383146
0.0147757 -0.225961 0.0161534
0.00932796 0.0536631 0.255732
-0.0875607 -0.0120336 0.300077
-0.0969374 0.176509 0.600035
0.0547939 0.191133 0.627039
-0.187556 -0.08104 0.335261
0.0836357 0.193574 0.715243
0.144981 0.231205 0.070419
0.0594175 0.230899 0.775206
0.129053 0.258002 0.818551
-0.168979 -0.0334675 0.331736
0.256483 -0.0697686 0.0416357
0.13384 0.042048 0.29276
-0.181885 0.14896 0.429421
0.0572194 0.174953 0.560189
-0.077863 0.186776 0.429121
-0.15304 0.184671 0.72019
-0.0655848 -0.0467494 0.348181
-0.00563328 0.206554 0.406616
-0.0170325 0.0173815 0.0459036
-0.18664 -0.121809 0.348181
-0.106385 -0.0196413 0.383146
-0.0193983 0.0583061 0.165829
-0.0458466 0.219172 0.364031
-0.100631 -0.182305 0.348181
0.134276 0.0542047 0.348181
-0.0862354 0.158975 0.383146
-0.156803 0.149076 0.542613
0.179855 0.168007 0.621268
0.10781 -0.190937 0.365014
0.00929428 0.167278 0.558889
-0.151694 0.109197 0.383146
-0.25855 -0.0910089 0.0189613
-0.142326 0.191001 0.389092
0.122588 0.1701 0.416658
-0.14861 -0.166813 0.382929
0.0879671 0.189235 0.365272
0.0851847 0.0128972 0.298985
0.0220298 0.027847 0.148232
-0.186724 0.132823 0.520284
0.0495572 0.153567 0.383146
0.0897636 0.253693 0.825874
-0.255909 -0.0570559 0.00656144
0.0896312 0.138278 0.356813
-0.0903808 0.0372663 0.383146
0.184154 0.0984092 0.336387
0.157954 0.00457615 0.300069
-0.196142 0.0533443 0.3813
-0.133112 -0.0852559 0.348181
-0.00412293 0.0858759 0.349771
0.0055552 0.113208 0.317573
0.086251 0.199905 0.38157
-0.0271344 0.185898 0.595137
-0.0667156 -0.180438 0.383146
-0.0519904 0.18273 0.364326
0.078498 0.165484 0.516973
-0.16976 0.0742775 0.348181
-0.154703 0.183839 0.340589
0.0511829 -0.166424 0.348181
-0.0198971 0.119503 0.352904
0.141018 -0.0280579 0.0921312
0.113368 -0.0088647 0.132913
-0.100562 0.16 0.529508
-0.134916 0.191098 0.0192499
0.0896458 -0.127308 0.348181
0.115299 0.203464 0.707537
0.159863 0.0835353 0.348181
-0.175094 0.197058 0.356694
0.0267542 0.196435 0.363503
-0.114586 0.00515758 0.314768
0.0828405 -0.0044952 0.110236
-0.0378452 0.0147934 0.16913
0.0369125 0.00104407 0.348181
0.18808 0.0386636 0.335054
0.0254099 0.165273 0.361653
-0.0340242 -0.0373679 0.348181
-0.012681 0.0386127 0.0891628
-0.00189597 0.181993 0.478607
0.0564775 0.13448 0.355512
-0.143112 0.00416452 0.320822
0.0826353 0.131988 0.129398
-0.0556232 0.0770454 0.349303
0.00421637 0.0933739 0.274488
-0.066242 0.114038 0.13923
-0.111911 0.109712 0.35162
0.153754 0.193673 0.748833
0.0829356 0.21584 0.348273
0.0661505 0.0682403 0.348797
4.12236e-05 -0.082602 0.104185
-0.163114 0.132592 0.513219
0.204327 -0.00904346 0.359719
-0.100395 0.18781 0.346869
0.0182419 0.234267 0.807237
-0.188453 -0.13867 0.382889
0.183717 0.149797 0.514535
0.0515994 0.0489333 0.383146
0.17302 -0.0119207 0.335128
-0.0641576 0.157734 0.537773
0.139271 0.120909 0.354707
0.229831 -0.0889404 0.0280948
0.0477086 -0.0727082 0.383146
-0.115612 0.198345 0.749656
-0.229826 -0.0590469 0.0233752
0.0320794 0.204618 0.673965
-0.19909 -0.0667772 0.377223
-0.180269 -0.0228847 0.306604
-0.00925999 0.165882 0.340825
0.121899 0.17259 0.658463
-0.0265911 0.267058 0.822015
-0.171199 0.170294 0.363918
0.0954866 0.175251 0.383146
-0.00217933 0.0416614 0.193103
0.203357 -0.057108 0.362051
-0.0120374 0.162897 0.522161
-0.00254571 0.19169 0.383146
0.0069455 -0.0123001 0.12987
-0.123277 0.188125 0.100121
-0.121306 0.0378984 0.348181
-0.0607809 0.203233 0.676329
-0.17261 -0.139105 0.348181
0.205582 0.0800434 0.356604
0.0263404 0.179967 0.383146
-0.00162046 -0.00207444 0.200907
0.159819 0.176426 0.640913
-0.150661 0.0397397 0.305445
-0.14508 0.181114 0.65083
-0.163991 0.120095 0.360826
-0.074488 0.121208 0.353288
-0.0655353 0.164589 0.577888
-0.0118147 -0.231727 0.0385103
-0.00163266 0.19229 0.6112
0.0785846 0.119367 0.383146
0.102186 0.0419936 0.308053
-0.0995807 -0.0318607 0.348181
0.0809074 -0.0155941 0.128526
0.17059 0.15865 0.423418
0.164967 0.221569 0.802342
0.0377983 0.0142864 0.126511
-0.0931673 0.18857 0.695286
-0.0825749 0.148078 0.105593
0.122569 -0.0421389 0.348181
0.0720826 0.165692 0.58945
-0.00909984 0.0372613 0.383146
-0.0989787 0.184937 0.634052
0.100656 -0.0941546 0.383146
-0.0775266 0.203377 0.748633
-0.0303048 0.0395611 0.254777
0.144273 0.0142796 0.383146
0.115856 0.127835 0.383146
0.0613208 0.202007 0.733753
0.142426 0.156216 0.606629
-0.0733731 0.226975 0.770575
0.228315 -0.0619944 0.0411034
-0.116693 0.148346 0.475339
-0.176158 0.190809 0.723057
-0.00698588 -0.142499 0.0926521
0.0906737 -0.010857 0.383146
0.0832901 0.177797 0.450999
-0.156387 0.234246 0.0217771
0.0494519 0.195573 0.701407
-0.171791 0.153098 0.486721
-0.0833696 0.121206 0.383146
0.0985 0.169268 0.571914
-0.0459586 0.194889 0.347273
-0.0303061 0.0609399 0.383146
0.167785 0.17106 0.359656
0.0156025 0.0210034 0.0186772
0.0503202 0.223542 0.753449
0.0726787 -0.196834 0.375598
-0.167237 -0.0335744 0.113978
0.0973265 0.193763 0.340987
-0.13011 0.172075 0.608091
0.201739 -0.133711 0.368952
-0.0796576 -0.0784554 0.348181
-0.0769105 0.21736 0.788645
-0.0779182 0.216433 0.361462
-0.0293383 0.19096 0.417566
0.110497 0.238774 0.794428
0.0149568 0.0102962 0.251088
0.00438999 0.00117009 0.0617804
0.0987046 0.152684 0.0873859
0.0651488 0.111516 0.14097
-0.174285 0.0340513 0.312137
-0.100494 0.205931 0.38131
-0.0471622 0.171642 0.515048
-0.0477159 0.165914 0.473618
0.00779638 -0.165867 0.102705
0.142645 0.151653 0.536205
-0.0917326 0.0274167 0.282667
-0.0266763 -0.17784 0.383146
0.0398205 -0.0508277 0.348181
0.162955 0.19166 0.0228557
0.0143503 0.054727 0.146947
-0.0427689 0.18086 0.5815
-0.145171 -0.095682 0.383146
0.0975783 0.201744 0.755482
0.0189466 -0.188917 0.383146
-0.0167667 0.00659259 0.383146
0.159121 0.0212832 0.308252
0.164263 0.133895 0.485592
0.122576 -0.121077 0.348181
-0.0444831 -0.108361 0.383146
-0.143923 0.0468737 0.383146
0.0821519 -0.185434 0.348181
0.0759207 0.212515 0.778901
-0.116578 0.244546 0.820829
-0.149424 0.218426 0.0112927
0.102755 0.00904867 0.348181
-0.157898 0.140835 0.463377
0.0236872 -0.149115 0.348181
-0.181302 0.158969 0.592492
0.00267275 -0.210457 0.0696255
-0.126097 -0.0125586 0.108029
0.162086 0.190182 0.690177
0.188861 0.152194 0.448448
-0.105049 0.208463 0.725977
0.151301 0.0483817 0.335024
0.201528 -0.113408 0.369695
0.137368 -0.182979 0.363953
0.0694212 -0.0901016 0.348181
-0.0159873 0.21548 0.378074
-0.170335 0.169797 0.408346
-0.0326879 0.225486 0.756082
-0.0775048 0.176073 0.633388
-0.130032 0.181678 0.354459
-0.144877 0.158297 0.367346
-0.027338 0.165219 0.383146
0.0297473 0.179291 0.567814
-0.156316 -0.0728331 0.348181
0.19815 0.180289 0.383896
0.201843 -0.077879 0.358359
-0.17698 0.0441106 0.347549
-0.0069926 0.202426 0.654244
-0.058304 -0.0116246 0.284284
0.0400576 0.172353 0.533905
0.0182193 0.209565 0.689008
0.0782667 0.0606316 0.381048
-0.175212 0.13813 0.557732
-0.090966 -0.0181642 0.137099
-0.111442 -0.16151 0.348181
0.0087845 0.0270671 0.217536
0.108385 0.173665 0.441463
0.117102 -0.18502 0.379936
0.143503 0.15274 0.478673
-0.164093 0.166994 0.658297
-0.0190344 0.213953 0.70492
-0.165145 -0.0132326 0.348181
0.00928381 0.0437449 0.126635
0.0201636 0.108534 0.35114
-0.0219515 0.173802 0.460152
0.113253 0.188226 0.40397
0.143646 0.158208 0.429103
-0.00158588 -0.0956295 0.383146
-0.127253 0.213129 0.0361722
0.0167905 0.128973 0.383146
0.137932 0.177343 0.685306
-0.202067 0.0890147 0.367975
0.0322721 0.218672 0.34469
-0.133766 -0.00894897 0.2885
-0.104794 -0.00973996 0.286389
-0.154943 0.204564 0.787912
-0.0530007 0.051023 0.348181
-0.173069 -0.0149128 0.383146
0.15033 0.202091 0.341655
-0.0127948 0.181166 0.568485
0.118599 0.190395 0.366621
0.0147891 0.0574818 0.348299
0.00681255 0.214013 0.769624
0.181628 0.133038 0.531727
0.117075 0.195194 0.678334
-0.0738777 0.185643 0.671658
-0.0276676 0.07126 0.150839
0.092766 0.0652028 0.348649
0.0509363 0.183351 0.650073
0.0501253 -0.0206308 0.348181
0.108315 -0.0033776 0.296011
-0.192662 0.078931 0.335168
-0.248321 -0.0607259 0.0633588
0.00402541 -0.136436 0.383146
-0.117824 0.172835 0.420036
0.19123 0.135045 0.358831
-0.0380884 0.0863541 0.12834
-0.201094 -0.0314982 0.345346
-0.0040153 0.251598 0.808433
0.121607 0.140376 0.357818
-0.120999 0.188558 0.0752761
0.127031 0.200138 0.765019
0.0208681 0.177795 0.613802
-0.0166992 0.127855 0.383146
0.0605591 0.187108 0.441801
0.0760044 -0.129654 0.383146
0.133108 -0.0803783 0.348181
-0.0773967 0.238732 0.816862
-0.0261386 0.0414891 0.158017
-0.144425 -0.0285803 0.320206
-0.0795479 -0.137387 0.348181
0.142795 0.224517 0.786405
-0.0460364 0.176848 0.622132
-0.0116543 -0.00085696 0.174232
-0.108195 0.155507 0.10846
-0.202378 0.156448 0.35215
0.0486701 -0.129984 0.383146
-0.0762262 0.212756 0.723989
-0.151267 0.0486877 0.348181
0.0551924 0.00952202 0.259029
-0.104589 0.0274338 0.309267
-0.143219 0.15907 0.455087
-0.135457 -0.184166 0.365392
-0.0788293 0.194667 0.409985
0.105292 0.158366 0.521526
0.030906 0.18103 0.631777
0.0528307 0.0105054 0.159813
-0.0327111 -0.102439 0.348181
0.201765 0.0505833 0.350563
-0.149867 0.200306 0.761892
0.115313 0.161279 0.605901
-0.134482 0.246898 0.803714
0.0481976 0.171638 0.458886
-0.126986 -0.139171 0.383146
-0.123929 0.185021 0.653281
0.156753 0.0356822 0.348181
-0.00307165 -0.0420982 0.161189
0.15388 -0.0107421 0.383146
-0.046046 0.191783 0.433262
-0.00270055 -0.0946365 0.348181
0.0353946 0.0715302 0.381514
0.0333252 -0.0782634 0.348181
-0.118699 0.111998 0.383146
0.00876706 -0.0835119 0.124641
0.0248242 0.0142186 0.179077
0.139297 0.1759 0.374483
0.0238797 0.0791745 0.349431
0.100949 0.192128 0.656368
-0.173524 0.170533 0.430722
-0.00835788 -0.069385 0.123682
-0.0742509 -0.119069 0.383146
0.133879 -0.13867 0.348181
-0.123243 0.153956 0.523721
0.0362693 0.240945 0.815439
0.140127 0.207536 0.0423306
-0.171056 0.214404 0.025816
-0.169752 0.064723 0.383146
-0.0151038 0.00291303 0.119849
0.122832 -0.0386577 0.383146
-0.0950258 0.225885 0.776346
-0.0423874 -0.00322477 0.147963
-0.0271758 0.00296816 0.280181
-0.166816 -0.0492342 0.348181
0.0065135 -0.113035 0.128976
-0.0465277 0.259152 0.812274
0.200213 -0.0270843 0.340212
0.154002 -0.0347101 0.383146
-0.00729283 0.000820905 0.348181
-0.0838926 0.262186 0.821853
-0.179723 0.109442 0.339099
-0.156752 0.00484414 0.383146
0.145063 -0.0238847 0.348181
-0.12922 0.165147 0.580724
-0.0175985 0.194131 0.354672
0.0618118 0.200815 0.389477
-0.00393097 0.0348084 0.0280315
-0.0961684 0.031407 0.348181
0.185687 -0.0343119 0.0820278
0.170416 0.152688 0.604843
-0.00429601 0.152594 0.359604
-0.0200795 -0.24033 0.0390537
0.0571151 0.172442 0.6063
-0.101988 -0.0887542 0.383146
0.170565 0.0825064 0.383146
0.178517 0.19389 0.366651
0.163686 0.180929 0.709621
-0.0165238 -0.149389 0.383146
0.159193 0.199836 0.778551
0.148711 0.200635 0.719387
0.188782 0.00441217 0.382983
-0.0015554 0.221355 0.350409
-0.0384012 0.0168626 0.148298
-0.142978 -0.134085 0.348181
0.140425 0.203831 0.783451
0.0640731 -0.0177066 0.383146
0.115805 0.18854 0.0988537
-0.0579618 0.0218252 0.259888
0.0579084 0.193148 0.359696
-0.139235 0.230185 0.810638
-0.0766963 -0.188811 0.348181
-0.18697 0.0129219 0.348181
-0.0401809 0.202265 0.367257
0.0301155 0.207691 0.382432
0.131327 0.0342789 0.383146
0.177956 -0.0762606 0.342334
-0.0349671 -0.160624 0.348181
-0.0870112 0.14045 0.12568
-0.112184 0.148691 0.549265
0.180007 0.169284 0.435901
0.166953 -0.139343 0.348181
-0.204495 0.0438078 0.356857
0.103795 0.211262 0.731351
0.00737444 -0.201192 0.356515
0.02199 0.176655 0.500921
0.133711 -0.00801125 0.298888
-0.187981 0.18798 0.379684
0.154236 0.147015 0.504223
-0.0143369 0.0577931 0.259926
-0.15818 0.164072 0.638988
0.0749056 0.0432344 0.348181
0.137302 0.0299361 0.316717
0.131697 -0.068339 0.383146
0.0638729 0.209911 0.703552
-0.0314198 0.210237 0.391861
-0.0447521 0.182687 0.646929
0.14161 -0.00560115 0.319823
-0.120106 0.192039 0.36824
0.16882 0.143088 0.453106
-0.109143 0.163589 0.561192
-0.0548435 0.213769 0.776636
-0.141503 0.20361 0.728195
0.024202 0.182415 0.468041
0.0231479 -0.0445994 0.383146
-0.110766 0.0370796 0.279822
-0.0548229 0.172243 0.383146
-0.127428 0.173607 0.383146
0.130973 -0.12077 0.383146
0.0145549 0.107651 0.296545
-0.0166635 -0.0666282 0.383146
-0.0946244 0.178273 0.438671
-0.190891 0.139927 0.464111
-0.141644 0.108285 0.350774
-0.167253 0.154621 0.615249
0.117865 0.0163167 0.383146
0.0903859 0.160261 0.461695
-0.0901772 0.199163 0.682189
0.0109694 0.00565698 0.383146
-0.218991 -0.0442001 0.0741309
0.118567 0.182211 0.693331
-0.131335 0.0236565 0.312352
-0.176027 0.133568 0.348009
-0.044489 0.00608638 0.260614
-0.0569435 0.224242 0.798974
-0.0751701 0.177478 0.587277
0.0965388 -0.00518219 0.143564
-0.0903114 0.152667 0.505517
0.141441 0.161934 0.629383
0.0735917 0.259049 0.81241
-0.0551126 0.158093 0.360522
-0.020128 0.171535 0.586595
0.176357 0.122705 0.344479
-0.00916531 0.0403289 0.115013
0.0389499 0.188962 0.419102
0.155441 0.146114 0.575597
-0.127836 -0.16325 0.383146
0.137938 0.24486 0.801295
-0.0724342 0.0136678 0.383146
0.000789172 0.00826338 0.227088
0.189921 -0.162515 0.375746
0.156085 0.00258981 0.348181
0.0273165 0.189471 0.666275
-0.162646 0.219292 0.782315
-0.155195 -0.0440488 0.383146
0.0652408 0.16882 0.532373
0.127804 0.157001 0.383146
-0.0104128 -0.0609968 0.348181
-0.0114781 0.134415 0.313925
0.0720289 0.0333861 0.383146
0.1025 0.0719482 0.383146
0.0338309 0.0337411 0.258871
-0.0921966 0.155532 0.472903
-0.10453 0.085362 0.349668
-0.139287 0.176823 0.680443
-0.0216174 0.0301096 0.134494
0.10906 0.0390994 0.286599
-0.092195 0.0668812 0.383146
0.014262 0.0370654 0.0875756
-0.0674294 -0.0366829 0.383146
0.111612 0.115617 0.352788
0.051392 0.222421 0.353101
0.199137 0.00743091 0.338969
0.00317236 0.194919 0.354289
0.12704 -0.0131888 0.111923
0.163664 0.205477 0.743637
-0.111767 0.163557 0.610143
-0.104376 -0.0449609 0.383146
-0.00645095 0.231924 0.804299
0.177944 0.0232004 0.347994
-0.0961109 0.139099 0.383146
-0.0100796 -0.254302 0.00547879
0.0577765 -0.00837396 0.139967
0.00394269 0.0357284 0.255464
0.139318 0.211073 0.750678
0.124723 0.156821 0.544277
-0.262529 -0.0722486 0.011835
-0.0842745 -0.00210774 0.280959
0.00792406 -0.257165 0.0207024
-0.0575754 -0.0072701 0.132417
-0.201363 -0.132703 0.365409
-0.128078 0.198075 0.33519
0.176672 0.0514556 0.383146
-0.0518458 0.162728 0.494651
-0.0715759 0.146194 0.358562
0.0420142 0.0102778 0.282724
-0.188347 0.0529152 0.335021
-0.146441 0.173819 0.405407
0.151688 0.163685 0.590026
0.196636 0.0749829 0.336068
-0.142882 0.0233928 0.383146
-0.0495115 0.215439 0.340521
-0.0823838 0.238176 0.793323
0.048457 0.0755949 0.116396
-0.175838 0.177701 0.652131
0.101459 0.168607 0.625331
0.160369 -0.075375 0.348181
0.0964673 0.20342 0.696732
0.0498202 0.189031 0.673752
-0.0125961 0.250666 0.824399
-0.152348 0.136301 0.532961
-0.189713 -0.0984845 0.348181
-0.0615031 0.211383 0.381217
0.200312 0.13782 0.3405
-0.0485627 0.0430922 0.266511
0.0661902 0.252229 0.825961
-0.0299969 0.187332 0.451073
0.167753 0.160499 0.63333
0.139613 0.179978 0.639685
-0.147584 0.137171 0.49679
-0.0754127 0.190596 0.352873
-0.0088572 -0.107995 0.115676
-0.158058 0.000547893 0.331959
-0.160124 0.159852 0.583739
-0.0893396 0.211278 0.341428
-0.00598938 -0.118592 0.348181
-0.158093 0.190055 0.741712
0.136314 0.145929 0.563181
-0.0762351 0.102496 0.383146
-0.249383 -0.0844454 0.0386457
0.145614 -0.142398 0.383146
0.0788282 0.17222 0.567219
0.154343 0.0446071 0.303556
0.159221 0.126443 0.3663
0.0789434 0.0399864 0.270133
0.0924572 0.192419 0.39451
-0.11424 0.146004 0.50362
-0.150137 0.21773 0.0435632
-0.176632 -0.110826 0.383146
0.0240934 0.0663699 0.132376
0.00106572 0.00390135 0.0272281
0.000124161 0.175865 0.529069
0.0716056 0.191803 0.340443
0.129156 0.202499 0.337062
0.161286 -0.0256533 0.0899328
0.0737033 -0.0704575 0.383146
0.035004 0.197642 0.337835
0.00205778 -0.24005 0.0548282
-0.0536793 0.171878 0.603371
0.0888486 -0.0115034 0.348181
0.0291935 0.0439088 0.274761
0.107222 0.163051 0.476788
-0.239647 -0.0514644 0.0382602
0.0574706 -0.0087743 0.275717
0.184485 0.149264 0.574054
0.176869 0.159372 0.404827
-0.0582455 0.187997 0.417278
-0.0521061 0.243535 0.816082
0.0703776 0.0188061 0.272903
0.168919 -0.0280558 0.344425
-0.128882 -0.0307746 0.110696
0.107924 0.173156 0.107842
0.180015 0.130208 0.508348
-0.15906 0.192465 0.014091
0.165925 0.1494 0.469725
-0.172927 -0.154918 0.383146
0.010477 0.0844883 0.381123
0.041139 -0.182181 0.383146
-0.211498 -0.0505928 0.0935046
0.128557 0.166175 0.36186
0.125655 0.216252 0.0291688
-0.144046 -0.00144473 0.348181
0.0891288 0.177534 0.652672
-0.0374145 -0.183913 0.348181
-0.0226243 0.0211725 0.259622
-0.0418388 -0.0153889 0.348181
0.00973256 0.193495 0.415231
0.118512 0.0247753 0.30324
-0.0898905 -4.3815e-05 0.128349
-0.16108 0.173072 0.679099
-0.104455 0.0505866 0.302596
-0.203942 0.0275417 0.361631
-0.140062 0.025803 0.291149
-0.058643 0.00394362 0.348181
-0.0416259 0.237877 0.787547
0.124038 0.142486 0.530899
0.194833 -0.0611992 0.381693
-0.202677 0.000698693 0.362189
0.01994 0.00968804 0.114112
0.0263304 0.255669 0.827455
-0.175393 -0.0319055 0.0842979
0.262523 -0.0611996 0.0182702
0.134649 0.188522 0.39377
-0.0434371 -0.0396095 0.383146
-0.149227 0.0328254 0.325174
0.170731 0.0272397 0.333538
0.129354 -0.0244366 0.129747
0.0271831 0.163635 0.547957
-0.172008 0.203978 0.780269
0.158695 0.236555 0.795926
0.0188272 0.0347664 0.179429
0.146159 0.179132 0.353795
0.048114 0.0246185 0.383146
-0.0949225 0.194725 0.366102
-0.112867 0.20449 0.773985
-0.0957466 -0.0658418 0.383146
-0.0174826 0.00744334 0.0699352
0.187144 -0.0665955 0.348181
0.032874 0.0745052 0.159378
-0.0692236 0.160322 0.559695
0.167442 0.174687 0.686557
-0.142692 0.149654 0.57998
0.124114 0.0199406 0.348181
-0.0720977 0.171653 0.484392
0.16902 0.165908 0.652691
0.0643618 -0.141266 0.348181
-0.0851182 0.183124 0.616568
-0.152674 0.139231 0.37418
0.108394 0.157971 0.586497
0.0856628 0.22277 0.765835
-0.0651053 0.124899 0.383146
0.193224 -0.135996 0.348181
0.157069 -0.159331 0.348181
0.107522 0.186642 0.34994
0.226751 -0.0509001 0.0864346
0.0917156 -0.0149492 0.302368
0.0280019 0.199818 0.712682
-0.0102403 0.145659 0.383146
-0.0691817 0.0347456 0.383146
-0.00218588 -0.223784 0.0218908
-0.132381 0.206121 0.368587
0.0298664 0.217663 0.78107
0.00919456 0.244545 0.793366
0.2552 -0.0917144 0.0288781
0.0278251 -0.142014 0.383146
-0.0575051 0.177045 0.443251
0.0725601 0.208055 0.368033
0.0584038 0.028086 0.348181
-0.178055 0.0240457 0.336847
-0.00891364 -0.0329986 0.142013
0.0966174 0.208231 0.367121
-0.12297 -0.0156116 0.348181
0.000499399 -0.161428 0.348181
0.0760665 0.205879 0.759624
-0.00451007 0.177308 0.507682
0.175758 0.0061338 0.312279
-0.115528 0.131264 0.356079
0.0799437 0.157555 0.360451
0.169066 0.206671 0.0367084
-0.164112 0.237453 0.811514
-0.169583 -0.0891959 0.348181
0.195849 -0.0824943 0.335827
-0.0115249 0.0681995 0.274923
-0.183436 0.149664 0.503049
0.106403 0.148713 0.49568
-0.037824 0.203355 0.667737
0.121238 -7.91941e-05 0.318486
0.123091 0.234458 0.811779
0.165786 0.145781 0.533833
0.129659 0.218084 0.772394
-0.189375 0.0329627 0.382955
0.0127871 0.209513 0.396625
0.0589407 0.120599 0.383146
-0.0240091 0.218386 0.359422
-0.0670248 0.255941 0.810588
-0.141152 -0.0176052 0.310239
0.0114392 0.128222 0.300059
0.0201207 0.0153562 0.0600533
0.0783252 0.188909 0.691474
-0.0122941 0.078643 0.377728
0.0954466 0.0115819 0.383146
-0.1788 0.159873 0.556785
-0.166316 -0.172987 0.372844
-0.200308 0.0927427 0.340141
0.155279 -0.121281 0.348181
-0.139741 0.181815 0.699684
-0.191133 0.170302 0.420733
-0.15441 0.214517 0.80001
0.143499 0.16883 0.656328
0.171487 0.215402 0.785881
-0.201064 -0.0718016 0.345309
-0.223971 -0.0612237 0.0382241
-0.0689936 0.200808 0.368272
-0.00969859 0.195949 0.337706
0.00191264 0.0435309 0.159399
-0.0571985 0.18497 0.66039
-0.110318 -0.0204524 0.102643
-0.063196 0.0465187 0.283146
-0.00702502 -0.0148125 0.383146
-0.17961 -0.0622205 0.339415
-0.0483814 0.172151 0.539801
0.0164586 -0.00226222 0.348181
0.0333614 0.0217579 0.348181
-0.26137 -0.0561182 0.0251825
0.0433371 0.212562 0.366322
0.0915883 -0.085138 0.348181
0.14312 0.221413 0.014056
0.15473 0.0631597 0.348181
-0.0600753 -0.0943131 0.348181
0.0543447 0.256637 0.810329
0.00852269 0.225028 0.793793
0.108939 0.250209 0.823342
-0.171928 0.107767 0.380855
-0.127752 0.217356 0.769341
-0.201642 -0.0526498 0.360937
-0.103663 0.0109288 0.292961
-0.0232377 0.174327 0.536189
0.0825483 0.14791 0.113932
0.133139 0.174813 0.616875
0.172361 0.137905 0.554723
0.181793 0.15581 0.360555
0.102113 -0.00192001 0.278916
0.0396674 0.0152726 0.262818
-0.186732 -0.0822311 0.383146
0.15671 0.185717 0.72662
0.106619 -0.025921 0.383146
0.0101526 -0.000126887 0.187111
0.0167402 0.186299 0.431023
-0.0975937 0.184073 0.422126
-0.150137 -0.0346428 0.334329
0.0162926 0.252879 0.808924
0.0129626 0.0873478 0.293788
-0.133343 0.0640994 0.383146
0.135385 0.0919391 0.383146
0.0829183 0.154007 0.543227
-0.180861 0.15509 0.575195
-0.0058973 0.264884 0.816156
-0.0244406 0.175058 0.508828
-0.165966 0.150697 0.431898
-0.0354716 -0.134215 0.383146
-0.111111 0.195094 0.38074
-0.16801 0.131813 0.493627
0.242236 -0.0517741 0.0432742
-0.103047 0.0183339 0.276936
-0.181139 -0.00462303 0.347795
0.0928746 0.0953097 0.383146
0.136138 0.197107 0.0732739
0.062296 -0.189126 0.348181
-0.0960259 0.170518 0.625054
-0.0260045 0.039197 0.348181
-0.181446 -0.0315352 0.348181
-0.0193233 0.0282394 0.202273
-0.0662232 -0.0228868 0.348181
0.0429415 -0.0939243 0.383146
0.0635078 -0.145452 0.383146
0.0292088 0.137893 0.35625
0.00741903 -0.0087453 0.168099
-0.126104 -0.0899577 0.383146
0.246107 -0.0630421 0.0570595
0.106897 -0.137666 0.348181
0.0460513 0.0676922 0.348812
0.165423 -0.080695 0.383146
-0.183788 0.130935 0.500526
-0.0862975 0.0279753 0.270657
0.227145 -0.0537243 0.064447
0.00255832 0.139087 0.329887
0.186351 -0.0129209 0.348181
-0.0826804 -0.0749168 0.383146
0.200251 0.181927 0.364081
0.0265241 0.00308421 0.138636
0.185862 0.0249263 0.383146
0.101068 -0.0483775 0.348181
-0.197013 0.104587 0.354628
0.1286 0.205401 0.363005
-0.0894948 -0.106216 0.383146
0.118678 -0.0226018 0.348181
0.146329 0.234397 0.812154
0.133159 0.193681 0.0928695
-0.156065 -0.0178953 0.301154
0.0477313 -0.00636725 0.383146
0.10585 0.163614 0.553635
-0.14595 -0.022057 0.121595
-0.11924 0.0830446 0.383146
-0.0152291 0.17797 0.613321
0.0413603 0.168036 0.579339
-0.0014208 -0.214735 0.0885732
0.00280374 0.207137 0.737707
-0.106545 0.199367 0.694718
-0.121857 -0.178342 0.348181
-0.170876 0.133959 0.538915
0.161039 0.179796 0.34117
0.00823179 -0.183307 0.348181
0.13952 0.10149 0.349673
-0.0871499 0.190756 0.647507
-0.181151 0.0134014 0.309294
-0.00909679 0.211221 0.758323
-0.0464796 0.0958325 0.143435
-0.143099 0.207661 0.0694132
-0.0979829 -0.192982 0.370907
0.00867964 -0.0413311 0.144508
0.0193223 0.192408 0.34544
0.0243727 0.173051 0.595109
-0.0102381 0.187393 0.59432
-0.0339066 0.0794222 0.349422
-0.0836048 -0.156507 0.348181
0.057695 -0.171799 0.383146
0.250267 -0.0673858 0.00407071
0.0107695 0.221912 0.341316
0.183442 0.151705 0.486216
0.0472844 0.210899 0.768014
0.124453 0.148416 0.467934
-0.0184185 0.208635 0.68297
-0.129045 -0.0153132 0.322726
0.169977 0.153175 0.564311
0.190496 -0.14205 0.382507
-0.126345 0.156635 0.546562
0.118344 0.07376 0.348912
-0.111307 0.21509 0.752642
0.172939 0.112634 0.366733
-0.142903 0.150189 0.530719
-0.0477254 0.0831773 0.381621
0.155765 0.222944 0.0565181
0.108982 -0.167661 0.383146
-0.18816 0.0414744 0.348181
-0.00902107 0.0122766 0.260793
-0.00137931 -0.00346638 0.263557
-0.101319 0.213666 0.35986
-0.164392 0.0381039 0.336075
0.111322 -0.182428 0.348181
0.106469 0.252615 0.807156
0.201374 0.0965633 0.363558
0.200702 0.0278658 0.350051
0.0870165 0.188246 0.633006
-0.173838 0.152642 0.350338
0.131235 0.167268 0.440808
0.0564467 0.0837995 0.136071
-0.111454 0.165306 0.463834
-0.029214 0.141064 0.357057
-0.166768 0.144892 0.579467
-0.0850068 0.0129246 0.270194
-0.173587 0.134672 0.467635
-0.0826995 -0.169703 0.383146
0.0717056 0.236335 0.788981
-0.0312192 -0.199875 0.35695
0.0791229 0.148487 0.383146
-0.100008 0.198798 0.333275
-0.0207047 0.0363903 0.173864
-0.0207302 0.059343 0.124787
0.0687554 0.128594 0.113946
-0.0948105 0.183511 0.383146
0.156319 -0.00605868 0.33154
0.156584 0.209064 0.00910489
-0.161032 0.237307 0.796304
0.00457599 -0.117312 0.383146
0.0378538 0.210604 0.699105
0.119681 0.0519987 0.308949
0.00212358 0.170374 0.362475
0.242987 -0.0806142 0.0393225
-0.129163 0.189413 0.720772
-0.121296 -0.0360994 0.383146
-0.0259943 0.259051 0.81158
-0.0649208 0.166204 0.465335
-0.0807941 0.165779 0.539138
0.171231 0.1423 0.500722
0.0425491 0.193023 0.351597
-0.104819 -0.0897125 0.348181
0.0820367 0.121172 0.353434
-0.0836727 -0.0248375 0.383146
-0.126069 0.207873 0.020337
-0.0737837 0.10608 0.12354
-0.192326 -0.139922 0.348181
0.0666721 0.0994077 0.109897
0.00831239 0.181244 0.348168
-0.00536472 0.0353335 0.0470149
-0.0607917 -0.065058 0.348181
0.0477274 0.200273 0.720705
-0.115585 0.187943 0.33878
0.029829 0.047214 0.139111
0.106206 0.0149607 0.294655
-0.0925327 0.220219 0.798881
0.138722 -0.0869335 0.383146
0.0430005 0.171999 0.362732
0.0690862 0.000473875 0.265015
-0.00656154 0.0282804 0.266935
-0.102714 0.234649 0.81396
0.0795668 -0.0653504 0.348181
0.107974 -0.0758552 0.348181
0.178477 0.0807631 0.347956
-0.163801 0.209324 0.0403694
0.00889557 -0.0189794 0.150701
0.107836 0.193158 0.728706
-0.127005 0.233171 0.794637
0.192626 0.0560886 0.335201
0.0985791 -0.183959 0.38226
0.0236492 0.161003 0.383146
-0.00803437 0.177544 0.548853
0.16243 -0.0422366 0.0999914
-0.138456 -0.0673621 0.348181
0.203786 -0.0387053 0.365127
-0.0158665 0.00523908 0.193516
0.00186963 -0.263402 0.0341106
0.0857313 0.0166465 0.348181
-0.126157 0.15741 0.597329
-0.135679 0.196215 0.0371057
-0.162076 0.195159 0.707839
-0.144238 0.181005 0.362767
0.172053 0.191513 0.736121
-0.141279 0.0546456 0.323299
-0.0281938 -0.0501548 0.383146
0.0216503 -0.0408779 0.348181
-0.0672794 0.215811 0.347544
-0.0724439 0.206781 0.698104
-0.0924791 0.213878 0.738393
-0.136503 0.196226 0.0899259
-0.172294 0.180941 0.386316
-0.1341 0.00612977 0.299087
0.100803 0.210733 0.344285
0.176758 0.187858 0.693673
-0.0826902 -0.146002 0.383146
-0.191723 0.14334 0.359439
0.223787 -0.0522774 0.0278716
0.0145921 0.202262 0.65763
0.196617 -0.0366295 0.0966198
0.00678761 -0.0649593 0.114268
0.134594 0.122126 0.383146
-0.0674492 0.0148209 0.271733
0.138023 0.0364192 0.348181
-0.0338408 0.162836 0.547228
0.0916003 -0.103467 0.348181
0.111449 0.194057 0.334429
-0.100968 0.0545043 0.348181
-0.199529 -0.0117893 0.376773
0.160895 0.0190285 0.348181
0.218813 -0.0854074 0.0139331
0.0334452 0.193854 0.687709
-0.188824 0.101602 0.367382
-0.231752 -0.0526525 0.0627659
0.131738 0.0074619 0.287872
0.0850042 0.192931 0.411159
-0.0228941 0.206446 0.742011
0.061162 0.0439166 0.269229
0.00672934 -0.229657 0.0365434
-0.0103397 0.152699 0.321573
0.0578733 0.00273361 0.287513
-0.00287845 0.205543 0.368998
-0.153312 -0.0169093 0.336064
-0.0121853 0.116243 0.313861
0.187717 0.153309 0.420481
-0.0173112 0.0324545 0.0727001
0.199653 -0.0194306 0.376491
0.076851 0.204496 0.334025
-0.134615 0.153569 0.489354
0.181481 0.161881 0.600818
-0.0122363 -0.254802 0.0394261
-0.170242 0.169792 0.343001
-0.178507 0.0440665 0.383146
-0.115245 0.2233 0.805803
-0.134377 0.0481018 0.30656
0.0801769 -0.0313621 0.383146
-0.157742 -0.150272 0.348181
0.185086 0.161891 0.388943
0.145432 -0.0180761 0.110392
0.0342278 0.17268 0.516816
-0.0604677 0.217346 0.731483
0.0337694 0.0171142 0.163685
0.0416623 0.163987 0.558696
0.0528219 0.218872 0.786902
0.0149011 -0.0857144 0.383146
0.127739 0.197663 0.694431
-0.155156 0.227256 0.0511709
0.0866298 -0.19482 0.362867
0.0564652 0.161399 0.501391
0.0901925 0.152284 0.502886
-0.0332562 0.191705 0.620303
-0.184154 0.165361 0.375304
-0.0386549 0.0606455 0.160195
0.0775915 0.00300758 0.127022
0.0449308 0.199154 0.655944
0.0785474 0.169521 0.383146
-0.112054 0.17864 0.619701
0.0742795 0.101747 0.383113
0.201422 -0.0945193 0.370014
0.0325655 0.137315 0.383146
0.0115098 0.222599 0.739176
-0.0421358 -0.0532158 0.348181
-0.054926 -0.136455 0.383146
-0.101799 0.259225 0.823242
-0.0458399 -0.127328 0.348181
-0.0678761 0.0977293 0.350379
0.0694745 0.0288604 0.291852
-0.0571992 0.159581 0.513037
-0.113498 -0.188711 0.359402
0.0818191 0.199826 0.739894
0.159031 0.15541 0.614213
0.072698 0.106596 0.125755
0.000779303 0.0976634 0.310653
-0.142029 -0.113049 0.383146
-0.0827149 0.168112 0.606248
-0.222833 -0.0555148 0.00812076
-0.141365 0.173369 0.621569
0.0693433 0.190561 0.354614
-0.07908 0.12507 0.0972145
-0.127352 0.25681 0.821936
0.128269 -0.139494 0.383146
0.182195 0.0493397 0.347718
-0.0116914 0.223053 0.790066
-0.0375262 0.19904 0.65072
-0.0427721 0.0272588 0.255665
-0.0861095 -0.000835437 0.145449
-0.00256229 -0.167775 0.0815367
0.086205 -0.11542 0.383146
-0.131255 0.124204 0.383146
-0.154284 0.147939 0.447327
-0.0785514 0.0213377 0.295914
-0.0290908 0.0126685 0.123792
-0.149189 0.0155128 0.333781
-0.151756 0.203584 0.355562
0.038599 0.00997032 0.383146
-0.132615 0.156273 0.383146
-0.0195431 0.21806 0.72188
0.151192 -0.175211 0.356687
-0.119444 0.209283 0.736495
0.0608214 -0.0354305 0.383146
-0.0456654 0.0218222 0.348181
0.121149 0.155764 0.514851
-0.129871 0.160085 0.564094
0.00357278 0.103364 0.350676
-0.0339547 0.00915178 0.383146
0.153184 0.204636 0.0300013
-0.0253947 -0.195102 0.381866
0.0358961 -0.0563632 0.383146
-0.0596783 0.205111 0.747238
-0.0349744 0.208685 0.687958
0.0457944 0.200405 0.38257
0.0206072 -0.236979 0.0372466
0.0206122 0.0275593 0.196707
-0.0864037 0.195486 0.34288
-0.0694595 0.154922 0.383146
-0.115395 0.206298 0.365546
0.137617 -0.0524568 0.348181
-0.00624425 0.21765 0.336446
0.0739456 0.165381 0.460788
-0.0551225 0.121988 0.353344
-0.0639869 0.19535 0.342361
-0.0696492 0.130264 0.117169
-0.15396 0.207066 0.746976
-0.107404 -0.0245429 0.121638
0.244408 -0.0664887 0.0313006
0.049609 0.202411 0.408436
0.0979441 0.129422 0.383146
-0.150499 0.147201 0.512734
0.0655148 0.213947 0.720164
0.00237428 0.0205208 0.383146
0.00849904 -0.127789 0.348181
0.0836783 -0.00971712 0.279226
0.100171 0.170413 0.0928148
0.0483434 0.227771 0.80251
0.14368 0.219376 0.0398335
-0.184185 0.145164 0.548524
0.175669 0.172516 0.336059
-0.129189 0.17498 0.666107
0.170629 0.214858 0.0217585
-0.0402538 0.186913 0.663659
-0.141388 0.166476 0.64277
0.197032 0.170002 0.398111
-0.117596 0.171435 0.596142
0.00224822 0.199053 0.639471
-0.0139724 0.166382 0.496665
-0.00135582 -0.18091 0.102947
0.12527 -0.0261181 0.0983547
0.0539502 0.159012 0.36065
0.0645412 0.219215 0.345529
0.0832816 0.119753 0.114097
-0.0789285 0.00342962 0.296093
-0.159661 -0.0276858 0.383146
-0.00831521 -0.0160617 0.141537
-0.0821015 0.203041 0.372646
0.00893928 -0.0675496 0.130869
-0.118339 -0.0081095 0.303046
-0.00858768 -0.126975 0.106329
0.143686 0.159598 0.375557
0.0634086 0.0737814 0.378589
-0.191536 0.186223 0.340548
-0.0191907 0.180677 0.475326
-0.0098421 -0.178444 0.383146
0.127198 0.188369 0.661009
0.0263902 0.224856 0.795908
-0.0769582 0.189785 0.690937
0.0981352 -0.00409794 0.117229
0.130308 -0.0147237 0.323465
0.112638 -0.00586888 0.348181
0.0525102 0.193585 0.427863
-0.189748 0.142797 0.448474
0.0727553 0.186657 0.383146
0.15136 0.0868618 0.383146
-0.0468786 0.209907 0.389473
0.000500021 -0.223487 0.0593193
-0.134669 0.0502602 0.348181
-0.000256792 -0.130441 0.125248
0.122093 0.176737 0.674666
0.163862 -0.00799099 0.309391
0.104246 0.194857 0.368162
0.149927 0.209142 0.768251
0.062276 0.18046 0.460431
-0.0956959 0.189926 0.410255
-0.00458082 0.216878 0.712716
0.00507884 -0.202226 0.375662
0.130369 0.0861238 0.349139
0.15019 0.142001 0.465921
-0.161703 0.0277407 0.302171
-0.16416 0.0290345 0.348181
0.107054 0.183543 0.419287
0.00895789 0.165718 0.340571
0.0209396 0.213826 0.707195
-0.169055 0.19408 0.0272646
-0.189219 0.0622607 0.348181
-0.102313 0.164551 0.443382
-0.10535 0.187477 0.648666
-0.193961 -0.155412 0.355238
0.130876 0.182736 0.360243
-0.0747715 0.157847 0.493108
-0.0234709 0.202368 0.658769
-0.0876064 0.207222 0.71129
-0.177946 0.185583 0.699328
0.144829 0.212832 0.797898
0.00332945 0.039148 0.0607286
-0.159712 0.141218 0.561811
0.189999 -0.0378956 0.347301
0.0061976 0.00973673 0.21122
0.172055 0.0514541 0.334374
0.00704265 0.0293598 0.237774
-0.0502536 -0.180811 0.383146
0.0987747 0.0805063 0.34939
-0.0485802 0.102916 0.35066
0.0691051 0.221104 0.794624
0.134739 0.154252 0.592221
-0.135218 0.0869173 0.383146
0.190965 0.0972437 0.351909
-0.128738 0.198481 0.382674
-0.169746 0.161715 0.446908
0.0902298 0.207365 0.772678
0.00539782 0.00412812 0.0456497
-0.250472 -0.0743862 0.000895666
0.153325 0.177555 0.694233
-0.155901 -0.0832583 0.383146
-0.184041 -0.0391945 0.336494
0.131056 0.142676 0.488907
-0.0476426 0.226072 0.762805
-0.0728326 -0.0125798 0.292876
-0.0214547 0.0039619 0.159316
0.00469488 0.0432244 0.348181
-0.143208 0.201236 0.777983
-0.0277246 0.247061 0.821835
-0.0046418 -0.239534 0.0100005
0.00282716 0.168774 0.487034
-0.0995103 0.191213 0.710148
-0.00400196 -0.0227156 0.123583
-0.173499 0.192636 0.739099
-0.0784595 0.122669 0.132621
-0.17363 -0.105037 0.348181
0.0816981 -0.163328 0.348181
-0.200404 -0.117554 0.359378
0.00134631 0.0705129 0.348981
0.080657 0.173766 0.435407
0.106237 -0.109475 0.383146
-0.0105883 0.185617 0.46239
-0.141459 0.232248 0.0289391
-0.0837234 0.195509 0.663222
0.00795787 -0.000846503 0.117351
0.13273 -0.104284 0.383146
0.038196 -0.156661 0.348181
-0.0343627 -0.07725 0.383146
-0.143513 0.202985 0.0123124
-0.0593139 0.231758 0.777106
0.0827092 0.0376841 0.297864
-0.0596143 -0.189779 0.348181
-0.0814646 0.197943 0.728001
-0.0102555 -0.128768 0.383146
-0.0410281 0.235039 0.810154
0.0943729 0.239851 0.793608
-0.034686 0.162539 0.508636
0.127144 -0.0647771 0.348181
-0.164177 0.143626 0.524761
-0.0669786 -0.0712263 0.383146
0.000460743 0.0425688 0.0976311
0.0572724 0.166099 0.577594
-0.112169 0.0246206 0.348181
0.0951948 0.0105486 0.283765
0.102846 -0.0254548 0.348181
0.117791 0.164225 0.432485
0.174895 0.197193 0.350863
-0.161393 -0.0414406 0.0985941
-0.0663988 0.217231 0.363512
-0.100287 -0.0158264 0.348181
-0.0672012 -0.195917 0.378937
0.115611 0.186663 0.708459
0.199403 -0.151231 0.369471
0.129623 0.208737 0.736124
-0.0670494 0.0597016 0.348396
-0.159951 0.162258 0.417913
-0.0694653 0.210057 0.7713
0.0841842 0.212681 0.725791
0.0820142 0.151853 0.524536
-0.00665029 0.164247 0.537683
-0.0955638 0.121768 0.353572
-0.186236 -0.00565797 0.383146
-0.0449466 -0.0892191 0.348181
0.0311547 0.00727988 0.25892
-0.0169087 0.201385 0.416641
-0.0110175 -0.00109183 0.278554
0.188208 -0.014456 0.335023
0.175579 0.174576 0.639456
0.0732111 0.193739 0.398071
0.12158 0.148101 0.557564
0.0910998 0.173402 0.637002
-0.00524282 -0.100238 0.102279
-0.0218355 0.168324 0.570939
0.0675789 0.224685 0.763064
-0.11566 0.128242 0.383146
-0.00959572 -0.0158468 0.348181
-0.0200509 0.0298466 0.110206
-0.122373 0.173206 0.0948249
-0.0419346 0.264717 0.826379
0.171247 -0.00197247 0.348181
0.167396 0.235865 0.807411
-0.21755 -0.0684323 0.0199896
-0.00758993 0.206627 0.671618
-0.109126 0.18112 0.0999278
-0.0570673 0.190814 0.685335
-0.162988 0.21066 0.762118
0.0987414 0.148877 0.533654
-0.0955872 0.0451252 0.28171
-0.194088 0.189968 0.365286
-0.158304 0.0634561 0.348181
0.184449 0.117577 0.35718
0.120483 0.0296648 0.318082
-0.0657076 0.170407 0.546996
0.0613175 0.242609 0.811829
-0.236221 -0.0644657 0.0533807
-0.00788927 -0.196929 0.0803185
0.0997093 0.171603 0.45604
-0.0482619 0.166831 0.576967
-0.00835424 0.0449604 0.253071
-0.179475 0.18147 0.403114
-0.0204818 0.179367 0.383146
0.0460188 0.205486 0.681174
-0.149636 0.215493 0.774374
-0.0261795 0.183103 0.436442
0.0197433 0.18696 0.652767
0.0352142 0.000427335 0.161069
0.00780497 -0.0967122 0.116233
0.0394729 0.179988 0.47064
-0.0389372 0.174476 0.608357
0.0154628 0.194337 0.684403
-0.120046 0.0875918 0.349633
0.199449 0.0968058 0.339416
-0.17523 0.17113 0.668454
-0.136975 0.199649 0.711838
0.00414919 -0.181643 0.0786981
0.135718 0.218719 0.068586
0.110815 0.172249 0.592441
-0.0324732 0.198996 0.340477
-0.170691 0.0556786 0.336131
0.00147794 -0.0711528 0.348181
-0.0839985 0.0211908 0.348181
0.183944 0.0194305 0.336499
-0.102125 0.109414 0.383146
0.170724 0.173432 0.401922
-0.1302 0.141873 0.534338
0.0950562 0.166288 0.610476
0.157219 -0.0141 0.348181
0.0236198 0.0673568 0.147939
-0.112578 0.161078 0.094511
-0.010953 0.0243133 0.221151
-0.035745 0.0707338 0.116167
-0.00161152 0.132684 0.383146
-0.0532082 0.107947 0.124234
-0.150339 -0.0262218 0.348181
-0.102351 -0.00586726 0.135643
0.225777 -0.0808131 0.040738
0.0535522 -0.0435067 0.348181
0.0812628 0.204185 0.691118
0.12444 -0.0298355 0.11343
-0.127373 0.224238 0.0107549
0.107462 -0.117439 0.348181
0.0301462 0.25124 0.802805
-0.163226 0.144026 0.5027
-0.0883635 0.1369 0.0933123
-0.161227 0.179702 0.706623
-0.016055 0.175185 0.36321
0.166485 0.112219 0.381623
0.0282503 0.192009 0.621202
0.0867577 0.151762 0.0995488
-0.24195 -0.0911283 0.0268395
-0.112866 0.257804 0.812537
-0.0107452 0.131798 0.354853
-0.200128 0.0396392 0.37467
-0.0385965 0.17182 0.527893
0.168195 -0.0165199 0.383146
0.00805552 -0.0414035 0.383146
-0.179037 0.10818 0.3557
-0.160828 -0.113815 0.383146
-0.00633149 -0.0551985 0.383146
0.181925 0.148123 0.464867
-0.188466 0.149652 0.474964
-0.0647438 -0.141592 0.348181
0.0989629 0.206863 0.711521
0.105999 0.155778 0.462028
0.0505328 0.176974 0.622795
0.0979417 0.182236 0.619126
0.0233743 0.0242814 0.133333
-0.13063 -0.00538543 0.311877
0.0968093 -0.188327 0.351752
-0.105743 0.0356172 0.294262
0.177543 0.1783 0.656269
0.102263 -0.0228077 0.123361
-0.167546 0.164652 0.603643
-0.107528 -0.00434686 0.383146
-0.0059333 0.0298407 0.0126498
0.12276 0.0378637 0.348181
0.068375 0.18449 0.664982
-0.0349631 0.0516176 0.348181
0.116014 0.0342203 0.383146
-0.168856 -0.0135362 0.310704
0.0356241 0.181845 0.582585
0.112392 0.198962 0.752875
0.0456411 0.123862 0.353608
-0.12714 0.185361 0.392912
0.0447025 -0.0680612 0.348181
-0.0503849 0.0844866 0.111713
0.0100685 0.195217 0.626943
0.0504629 0.216444 0.725535
-0.00244845 -0.158978 0.111652
0.126556 -0.182624 0.353214
-0.164514 0.154351 0.554335
-0.0355431 -0.165447 0.383146
-0.174874 0.0035635 0.336577
-0.000261619 0.199677 0.424926
0.114765 0.149143 0.383146
-0.0543094 0.00294052 0.286159
-0.019049 0.0829123 0.349608
-0.0711978 0.189832 0.631863
-0.0786369 0.168696 0.449783
-0.0572062 0.207228 0.690565
0.0242902 0.0476007 0.124954
-0.20479 0.0825575 0.35449
0.00729244 -0.0353682 0.127289
0.101091 0.202847 0.379538
-0.185193 0.126437 0.357789
0.109327 0.190892 0.382254
-0.145891 -0.151881 0.383146
0.119317 0.171799 0.0979191
-0.15796 0.125815 0.378865
0.086221 0.161995 0.585415
0.0960787 0.115531 0.352548
0.142359 0.0371865 0.330105
-0.00457564 0.171111 0.576274
0.109931 0.0574771 0.383146
0.018698 0.0340152 0.259307
-0.0932398 -0.0188556 0.122152
-0.15649 0.202642 0.732728
0.0453613 0.219593 0.339099
-0.00482572 0.241083 0.788945
-0.101255 0.160543 0.383146
-0.0859602 0.211257 0.778212
0.0157485 0.0128182 0.348181
0.120309 0.157397 0.447482
0.024325 0.187251 0.600123
0.125514 -0.15256 0.348181
-0.0902599 -0.0518348 0.383146
-0.145834 -0.0358349 0.115558
0.0163543 0.0212432 0.0336947
0.0374846 0.0579983 0.151946
-0.0630427 0.182183 0.596213
0.011607 0.0165964 0.264301
0.0147825 0.0910826 0.350044
0.0118904 0.052952 0.270485
0.0389346 0.171857 0.383146
-0.0223115 0.206692 0.403205
-0.141085 -0.0390398 0.383146
-0.0292068 0.00956899 0.252833
-0.0032809 -0.00171753 0.0743021
-0.0443351 0.00146973 0.167058
-0.00122855 0.175198 0.594662
0.115635 0.20868 0.338764
-0.109552 -0.00746326 0.111048
-0.00326498 0.213609 0.38572
-0.0740612 0.172751 0.617526
-0.124414 0.171087 0.647881
-0.0940796 -0.0644806 0.348181
-0.0718906 -0.0113892 0.123178
0.00851606 -0.222873 0.0754993
-0.0863772 -0.17117 0.348181
0.165281 0.194498 0.758258
-0.129062 0.157689 0.360637
-0.0951187 0.220329 0.76252
-0.0948652 0.162111 0.107619
0.178141 0.130453 0.495072
0.194094 0.0860358 0.348181
-0.121369 0.201399 0.0827802
0.152893 0.0214483 0.335891
0.0825489 0.075981 0.349166
0.131955 0.142904 0.543455
-0.0756287 0.17328 0.571331
0.109889 0.145118 0.516654
0.125348 0.110024 0.35224
0.156996 -0.0249856 0.327875
-0.0363805 0.214713 0.378647
0.00711813 -0.144986 0.096388
-0.000882098 -0.0208608 0.171742
-0.0595109 0.180124 0.64036
-0.00704741 0.189597 0.661554
0.0067242 -0.198612 0.077452
-0.0902607 -0.0887228 0.348181
0.136468 0.0481129 0.383146
-0.195936 -0.151035 0.379983
0.0425731 0.0439035 0.280924
0.177613 0.154857 0.43762
-0.133017 0.108582 0.383146
-0.188765 -0.0339928 0.0970718
-0.198277 -0.0521199 0.378302
0.0128863 0.179414 0.488535
0.063634 -0.158581 0.348181
-0.0758015 0.202168 0.682873
-0.0566208 0.205679 0.369114
-0.169828 0.14879 0.469185
-0.158559 0.0481042 0.383146
-0.00711117 -0.256263 0.0241101
-0.159843 0.147854 0.479985
-0.172151 -0.0368409 0.345658
-0.123949 -0.0222223 0.0972037
0.161551 0.15552 0.450967
-0.0121725 0.168742 0.480155
-0.126823 -0.105228 0.383146
0.0838178 0.156475 0.557645
-0.0218302 0.0294365 0.14913
-0.240482 -0.0656342 0.0309736
0.248021 -0.0591993 0.0185724
-0.0117821 0.0270621 0.250842
0.0226335 -0.256319 0.0166841
-0.129335 -0.162729 0.348181
-0.0938107 0.177458 0.649738
-0.110218 -0.041862 0.348181
0.167535 0.194229 0.704997
-0.115832 0.194659 0.683054
-0.0678635 0.188397 0.365165
-0.0974729 0.150672 0.540284
0.103927 0.103408 0.350539
0.151597 0.203563 0.356097
0.189772 0.0706897 0.348181
-0.124149 0.1897 0.669989
-0.138833 -0.177502 0.381496
0.133526 0.00631123 0.314012
0.0627891 0.0221433 0.383146
0.0582635 -0.110819 0.348181
0.00152126 0.248637 0.821643
-0.166006 -0.118128 0.348181
0.0851438 0.164477 0.533414
-0.171024 0.218497 0.0108293
0.0429466 0.187562 0.365029
0.117383 0.208241 0.727281
-0.170868 0.202218 0.0118432
0.193662 -0.10316 0.38191
