-0.0384635 0.203489 0.367897
0.0270225 0.202874 0.726057
-0.00322628 0.182333 0.475204
0.0597412 0.15158 0.383158
0.0186428 0.00465014 0.127012
0.165097 0.137847 0.490919
0.127323 0.15797 0.551129
-0.129999 0.191534 0.337816
0.184701 -0.133766 0.348192
0.123563 0.141819 0.515279
0.130055 0.246172 0.821177
-0.00314993 0.187753 0.458175
0.165245 -0.0589065 0.348192
-0.201847 -0.125724 0.368165
0.117497 0.249284 0.804454
-0.0598046 0.20577 0.397388
0.122075 0.198681 0.757122
0.131799 0.221212 0.0382012
-0.0116054 0.188382 0.365168
-0.0899762 0.216266 0.745407
0.0690929 0.194586 0.342474
-0.029969 0.181113 0.47007
-0.105217 0.251814 0.824067
-0.00785401 -0.231187 0.0597235
-0.0659779 0.262794 0.817009
-0.0691933 0.182661 0.423893
-0.110994 -0.19031 0.364664
0.135451 0.167131 0.437073
-0.0602464 0.174861 0.562352
0.00840092 -0.0828551 0.123808
0.16947 -0.0373602 0.0836848
-0.16761 0.0434634 0.343833
0.121194 0.171813 0.598164
0.164186 0.132033 0.507042
-0.105055 0.00963649 0.287892
-0.0570103 0.194805 0.366115
0.164774 0.197814 0.71602
-0.00477301 0.0608243 0.279259
0.111262 0.172897 0.383158
0.199836 -0.0516389 0.353105
-0.0895711 0.163507 0.537367
-0.19574 -0.0950391 0.520216
0.177938 0.0852037 0.348192
-0.103372 0.089312 0.34987
0.146453 0.194769 0.372122
0.0997169 0.159863 0.115171
0.111087 0.260087 0.820313
-0.0459778 -0.146608 0.383158
-0.0219248 0.0169319 0.0972557
-0.219322 -0.0274228 0.442442
0.0330435 0.189956 0.354396
0.179815 0.0856456 0.347887
-0.175061 0.164659 0.604446
0.0255911 0.0499534 0.170888
-0.178646 0.176859 0.670835
0.0212295 -0.0708548 0.348192
0.156305 0.148226 0.584723
0.00676229 0.13803 0.383158
-0.062662 0.140701 0.357216
-0.0125924 0.00639869 0.251955
0.0871914 -0.04905 0.383158
-0.0115376 -0.224938 0.0208487
-0.212235 0.0226124 0.397601
0.191368 0.186672 0.383176
0.00264222 0.189327 0.427232
-0.0174218 0.171567 0.585402
-0.0128875 0.163167 0.534696
0.179306 0.130587 0.505885
-0.172075 0.149853 0.453891
0.0561818 0.104117 0.350723
-0.0959802 0.104241 0.383158
-0.0648506 -0.124399 0.383158
0.253926 -0.058218 0.0374049
0.00483535 -0.0773932 0.108724
-0.0401171 -0.1093 0.383158
-0.148625 0.0987988 0.383158
-0.128208 -0.0114747 0.348192
-0.00433048 0.24193 0.790009
-0.00795639 0.138527 0.307575
0.0998623 0.210938 0.367902
-0.099118 0.151467 0.548161
-0.0965599 -0.0765048 0.348192
-0.234712 0.067751 0.537656
0.0494115 0.160627 0.383158
0.0338169 0.0115805 0.261382
-0.145171 0.242331 0.800856
0.107881 0.210821 0.365017
-0.00249369 -0.0369293 0.118599
-0.00239782 0.0922459 0.350111
-0.173408 0.203387 0.752458
0.106362 0.150291 0.482689
0.202316 -0.11354 0.36526
-0.144159 -0.106099 0.383158
0.0659311 0.0317253 0.383158
-0.138041 -0.14924 0.383158
-0.153644 0.131023 0.380483
0.155968 -0.0228301 0.321132
0.208201 0.0128046 0.51117
0.0573607 0.0129723 0.348192
-0.00625898 0.175981 0.60048
-0.156065 0.050579 0.348192
-0.16825 0.216787 0.780282
-0.0262702 -0.17838 0.348192
-0.153004 0.221838 0.01504
0.171705 -0.0268932 0.334007
0.173011 0.204342 0.751222
-0.132839 -0.0249567 0.348192
-0.146284 -0.0251009 0.0912313
0.0990859 0.23048 0.807101
-0.16625 0.0108164 0.304324
0.170377 0.209511 0.764508
0.0366805 0.0308295 0.254054
-0.0857891 0.193427 0.392691
0.203302 -0.0827154 0.514562
0.146146 0.0243662 0.323119
-0.155426 0.223302 0.0522236
0.015442 0.0555045 0.143108
0.0527646 0.0127302 0.348192
0.101953 -0.00470704 0.122435
0.195848 -0.0339892 0.51937
0.240165 -0.0518694 0.0308572
0.102008 0.198589 0.337681
0.243489 -0.0536211 0.535006
0.09004 0.182556 0.383158
-0.00861721 -0.0230287 0.142848
0.00735404 0.181696 0.444635
-0.108703 0.0513735 0.308966
0.203981 -0.0587934 0.513826
0.206394 0.00228747 0.518231
-0.176873 0.192655 0.341558
-0.00105114 0.180425 0.350454
-0.0866902 0.040453 0.383158
0.0299409 -0.135435 0.383158
0.180011 0.0921478 0.382829
-0.214415 -0.0439912 0.537656
-0.25094 -0.066797 0.0422772
0.00244304 0.0435677 0.166532
0.180956 0.0515776 0.348192
0.164794 0.0317464 0.303946
-0.0632469 0.192048 0.35149
-0.00671396 -0.115932 0.383158
-0.0481129 0.0182124 0.383158
-0.140027 0.0461595 0.315895
-0.249297 -0.0796169 0.0411001
0.16151 0.222752 0.786907
-0.158777 0.0411255 0.348192
0.164871 -0.143806 0.383158
0.19939 0.186102 0.3618
0.158562 0.196426 0.0115668
-0.00287523 0.17505 0.524046
0.113594 0.188763 0.71544
0.0886071 -0.0569045 0.348192
-0.185043 0.141928 0.51155
0.148562 0.0352195 0.304689
0.144175 0.205671 0.0823878
-0.0813255 0.195783 0.718717
0.029768 0.178593 0.446563
0.226768 0.0364088 0.518231
-0.11114 0.167148 0.457968
0.0432703 0.237042 0.81183
0.0170926 0.200839 0.339023
0.0153203 0.182515 0.364302
-0.267941 0.0405571 0.522302
-0.219534 -0.0743732 0.518231
-0.149623 -0.0984323 0.348192
-0.170939 -0.0430495 0.0905212
-0.0224252 0.185727 0.592633
-0.169184 0.150721 0.519388
0.222751 0.0244304 0.518231
0.189648 -0.087589 0.532253
0.103386 0.179144 0.611978
0.103236 0.222039 0.770433
0.0466829 0.182802 0.646004
-0.119162 0.16932 0.362355
0.189757 -0.0644551 0.348192
-0.139167 0.168727 0.430092
-0.108168 0.0388628 0.282099
-0.0404468 0.218033 0.359062
-0.121372 0.0451704 0.296554
0.174902 0.186735 0.386573
-0.272132 0.0812007 0.529977
-0.0535809 0.00975528 0.122526
-0.139916 0.247151 0.803649
0.117141 0.107192 0.351458
-0.0741827 0.204681 0.691311
0.211903 -0.00609485 0.423887
-0.169692 0.0313985 0.34467
0.154527 -0.152705 0.348192
0.0340648 0.167414 0.473094
0.187696 -0.0322441 0.0912341
0.119866 0.181687 0.349174
0.106747 -0.0442592 0.348192
0.145828 0.00363424 0.322839
0.166486 -0.0910929 0.348192
0.197844 -0.0695515 0.337347
-0.0550669 -0.0918756 0.383158
0.0636836 -0.0560069 0.383158
0.00779309 -0.191615 0.0914278
-0.130972 -0.137507 0.383158
-0.131821 0.191435 0.370195
-0.00735008 0.212303 0.762476
0.144672 0.141695 0.551364
0.148114 0.209123 0.78539
-0.151637 0.19984 0.720074
0.094712 -0.0163264 0.296032
0.0685204 0.216029 0.343109
0.0851933 0.016115 0.383158
-0.204628 0.0595194 0.35613
0.243846 -0.0308333 0.537357
0.0333762 -0.0553533 0.348192
0.13508 0.193697 0.0888798
0.0430101 0.2007 0.33973
-0.0508096 0.265648 0.823059
0.00290013 0.0110446 0.266942
0.101826 0.149112 0.502554
0.0218368 0.0153998 0.0932299
-0.153396 0.205328 0.7516
0.151608 0.213839 0.0700249
0.138111 0.229878 0.0202651
-0.0448016 0.174272 0.551129
0.195077 -0.0941011 0.338844
0.0129844 0.216842 0.364014
0.177409 0.154657 0.568543
0.133599 -0.0231673 0.311248
0.0148664 0.234598 0.776657
0.0295029 -0.201866 0.371069
-0.248234 0.0778124 0.518231
0.163188 0.211239 0.0418381
0.10247 0.0381915 0.383158
-0.193286 -0.0700533 0.347564
0.142236 0.192626 0.745115
0.168222 0.0630861 0.348192
-0.0550144 0.17521 0.617931
0.247728 -0.0910899 0.0316556
-0.00488563 0.224023 0.742113
0.0129585 -0.164485 0.383158
0.214843 -0.0660696 0.537656
0.0139462 -0.0954109 0.348192
-0.0609028 0.213018 0.775872
0.132465 -0.0138065 0.32463
0.0531046 -0.0148347 0.383158
0.218159 0.00657022 0.454994
0.181448 0.0763101 0.383158
0.159741 0.20406 0.786901
0.178453 0.141691 0.49957
-0.128454 0.252653 0.823238
-0.201359 0.177748 0.365405
-0.098777 0.174226 0.363081
-0.157806 0.199042 0.720519
0.13471 0.192574 0.0780504
0.207582 0.0168765 0.334245
0.172031 -0.170831 0.36359
-0.0353946 0.219138 0.730854
0.081442 0.166814 0.451953
-0.0985009 0.043203 0.348192
0.011044 0.221262 0.338734
0.197969 -0.060861 0.379071
-0.067903 0.0159412 0.383158
0.040901 -0.151825 0.383158
-0.166102 0.216821 0.00155856
0.195796 0.0133936 0.348192
0.191403 -0.0356708 0.52072
0.0290619 0.215095 0.71443
-0.0588551 0.237643 0.789244
0.10412 0.0133496 0.309056
-0.131945 0.236397 0.814495
-0.01155 0.184012 0.34425
-0.174852 -0.0178788 0.336621
-0.00483723 -0.149373 0.114449
0.0242381 -0.137141 0.348192
-0.0132271 0.177646 0.500446
-0.136433 0.174112 0.380263
0.144188 0.180194 0.360656
0.15498 0.0129149 0.383158
-0.142907 0.0101809 0.383158
0.148273 0.237572 0.796824
0.225749 -0.0703796 0.0432128
0.219417 -0.0285787 0.476297
-0.129612 -0.0148918 0.302595
0.185047 -0.163744 0.357777
0.152513 0.20896 0.764111
0.215336 -0.0644894 0.518231
0.0583038 0.186379 0.44577
0.195269 0.0759521 0.335722
0.219693 -0.0561238 0.503836
-0.187112 -0.0435552 0.0788018
-0.0778313 0.23758 0.816082
-0.0921302 -0.00115625 0.302585
0.0642849 0.00412691 0.267155
0.0478517 0.2039 0.737023
-0.219202 -0.0390474 0.484835
0.0109663 0.205967 0.407299
0.194122 -0.0749906 0.347625
0.0528182 0.179923 0.363916
-0.083078 0.161137 0.578045
0.0145558 0.266636 0.821484
0.216721 -0.100784 0.515895
-0.177674 0.122152 0.340535
-0.226158 -0.00407672 0.518231
-0.111599 0.138809 0.383158
-0.000383544 -0.167089 0.383158
0.0115427 0.103934 0.307959
-0.201023 0.172325 0.361048
0.21864 0.0333088 0.370371
0.176974 0.182976 0.699021
-0.216798 0.0143802 0.433313
-0.162677 0.220624 0.783985
-0.11696 -0.0292103 0.383158
0.0587632 0.0197208 0.260229
0.124268 0.0105243 0.348192
-0.107351 0.0354286 0.278577
0.169006 0.169759 0.668989
0.134144 0.165375 0.638414
0.148728 0.0499951 0.383158
0.110154 -0.171964 0.383158
-0.153111 0.135251 0.501835
0.178902 0.162253 0.455551
0.185541 -0.00725901 0.331244
-0.168447 0.151181 0.458323
-0.0674384 0.126797 0.110306
0.187897 -0.13101 0.348192
0.0324934 0.192701 0.383158
0.113793 -0.0519037 0.383158
0.128939 0.00383097 0.297031
-0.129875 0.182671 0.648094
-0.190102 -0.0502816 0.521654
0.161625 0.151309 0.593691
0.147683 0.0148419 0.383158
-0.0504476 0.218616 0.3497
0.0844574 0.201463 0.370155
0.0276904 -0.0839492 0.348192
0.187618 -0.0553935 0.530311
0.174574 0.196908 0.358991
0.122966 0.163088 0.566022
0.0598337 -0.150072 0.383158
-0.129776 0.247885 0.821725
-0.181749 0.10494 0.369021
-0.0907764 0.203881 0.758392
0.259908 -0.0505986 0.0208207
-0.104271 0.174703 0.10368
0.2332 -0.0730957 0.0318165
-0.0462646 0.18999 0.3572
-0.157512 0.130276 0.373323
0.0225273 0.0372833 0.348192
-0.0348958 0.0692364 0.116463
-0.030205 0.075521 0.131999
0.178352 0.0457082 0.337872
0.115989 0.157089 0.514083
-0.0560369 0.0369577 0.265732
-0.0772384 0.179358 0.596051
0.0942372 0.172491 0.582026
0.191408 0.178981 0.401774
0.111373 0.177124 0.430038
0.064475 0.0930327 0.382289
0.224571 -0.0848078 0.0380929
-0.0628947 0.24495 0.820924
0.134122 -0.140111 0.348192
-0.158602 0.195839 0.0157156
0.00615969 0.166138 0.50417
-0.0741308 -0.176789 0.383158
-0.0088262 0.0354904 0.0623634
-0.00468145 0.211121 0.394073
-0.0114117 0.0717329 0.289231
-0.00716694 0.257776 0.80995
-0.0410171 0.0623477 0.149938
-0.124382 0.0531038 0.317444
-0.143463 0.205768 0.736648
-0.19107 -0.0409287 0.520834
0.148087 0.00528605 0.383158
0.11924 0.250276 0.806051
-0.196195 0.166688 0.407379
-0.0997018 0.153137 0.383158
0.137579 -0.122554 0.383158
-0.0225953 0.196242 0.427974
-0.0708134 0.0636805 0.383158
0.0637677 0.201971 0.386845
0.18979 -0.0932422 0.382663
0.194726 -0.0512168 0.347673
-0.12786 0.206479 0.342458
0.0615387 -0.12848 0.348192
-0.0170057 -0.0774572 0.348192
0.111629 -0.145428 0.348192
-0.194693 -0.0509572 0.537321
0.0325431 0.0797801 0.137766
-0.0129144 0.194632 0.340963
0.211444 -0.00139368 0.518231
0.00197146 0.0545402 0.383158
0.0495009 0.0962497 0.382391
-0.0533119 0.0745114 0.377352
-0.219283 -0.0181822 0.392213
-0.190658 0.147812 0.450092
0.0631934 -0.191467 0.382155
0.0870085 0.00535464 0.383158
-0.055836 0.140533 0.357071
-0.0223572 0.175318 0.508568
-0.157771 0.185973 0.728344
0.0918097 -0.111649 0.383158
-0.149659 0.180239 0.345426
-0.00853264 -0.149767 0.348192
-0.000856019 -0.225355 0.0274554
-0.0683317 0.226302 0.76726
0.0402681 0.0391326 0.348192
-0.058743 0.191826 0.35234
-0.137788 -0.125684 0.383158
-0.211983 -0.0190094 0.392322
0.0534889 0.171283 0.5135
-0.174084 -0.0795369 0.383158
0.113807 -0.0179096 0.137943
0.113074 0.0401833 0.2993
0.0413663 -0.00260855 0.141681
-0.0154534 0.0122397 0.0483296
0.169997 0.193996 0.703701
0.0275907 0.0517299 0.169388
0.16334 -0.0323938 0.328049
0.104653 0.195442 0.390096
-0.213964 0.00523506 0.460358
-0.114966 0.177584 0.665489
0.173846 0.141975 0.502357
0.0478154 0.205427 0.401454
-0.115526 0.174773 0.431865
-0.18457 0.0478454 0.336315
-0.120322 0.19632 0.0939576
-0.17614 0.0379379 0.338345
0.14931 0.218568 0.779127
-0.142586 0.210203 0.792542
0.0449173 -0.137624 0.348192
-0.218497 0.0320009 0.375299
-0.0881617 0.202517 0.336641
0.00616173 0.081333 0.298433
0.116421 0.0326737 0.383158
0.0964113 0.00728262 0.274473
-0.137445 0.22188 0.0681369
0.0775163 -0.173681 0.383158
0.152557 0.149404 0.537084
-0.105801 0.2339 0.813436
-0.168799 0.198217 0.0336508
0.0830941 0.156507 0.485133
0.00767625 0.0427037 0.179395
0.1481 0.178307 0.405809
0.118845 0.157925 0.542674
0.0508242 0.192923 0.63309
-0.12002 0.183618 0.410228
-0.153337 0.227376 0.0471352
-0.125566 0.156728 0.484785
-0.0242721 0.202281 0.724615
0.219273 0.00912238 0.393989
-0.179521 0.143109 0.567932
-0.133241 0.243808 0.820251
-0.237932 0.0831904 0.518744
0.123056 0.179133 0.355619
0.119934 0.206544 0.370655
-0.0257802 0.167467 0.568594
0.178099 0.0485876 0.336864
-0.17256 -0.0274732 0.0926032
-0.217324 -0.0114733 0.348728
0.182169 0.15185 0.448941
0.134719 0.195115 0.378524
-0.0804996 0.111664 0.351793
0.170437 0.173215 0.681292
0.158272 0.186629 0.676358
0.0102755 -0.257021 0.0321963
0.185881 0.155996 0.439693
-0.0174745 0.0504585 0.125673
-0.155635 0.0958263 0.383158
-0.0143624 0.203458 0.337227
0.0124091 0.211215 0.336733
0.0595951 0.255267 0.809254
-0.120567 0.180685 0.0781387
-0.120701 0.174867 0.428157
-0.0300741 0.236332 0.782535
0.22568 -0.0864766 0.0327275
-0.0334618 0.262372 0.814606
0.218895 0.00322885 0.354135
0.257574 -0.00641158 0.532921
0.19974 0.139816 0.353683
-0.0217669 0.193204 0.413913
-0.0584635 0.184141 0.600574
0.149713 -0.166443 0.38296
-0.0913353 0.0315742 0.302157
0.0213601 0.167074 0.48565
-0.170114 0.150003 0.451893
0.136953 0.0325237 0.348192
-0.00161305 -0.230847 0.0376669
-0.219058 -0.0126067 0.494844
-0.0141139 0.00586984 0.0583625
-0.0517001 0.0165405 0.266031
0.179604 0.0926427 0.339425
-0.0882607 0.000175003 0.125489
0.219231 0.0903808 0.530582
0.127451 0.158073 0.440694
-0.173488 0.1454 0.540436
0.205031 -0.00156193 0.513726
-0.136145 -0.181442 0.357262
-0.122437 0.0228985 0.383158
0.147667 0.0116213 0.332984
-0.218878 0.090914 0.528525
-0.139775 0.159338 0.430354
-0.127164 0.0368369 0.296546
0.248657 -0.0482554 0.527886
-0.0817008 0.164178 0.526625
0.0367194 0.171848 0.520206
0.140281 -0.100263 0.348192
0.121323 -0.0455418 0.348192
-0.127462 0.0153719 0.321888
-0.0114865 0.156899 0.360312
-0.190004 0.174378 0.41371
-0.252633 -0.0609461 0.0382218
-0.0790124 0.183747 0.666568
0.0547472 0.0860357 0.149537
0.214086 0.0156703 0.537656
0.0900927 0.0293648 0.383158
0.00293455 0.0352766 0.250199
-0.021895 -0.255905 0.0290734
-0.00612077 0.0369462 0.348192
0.180991 -0.0656951 0.338266
0.0892074 0.211739 0.36604
0.231718 -0.0680889 0.518511
-0.182905 0.137819 0.546543
0.174174 0.18992 0.694735
-0.00575255 -0.00157308 0.114992
0.174688 -0.0439556 0.0850087
-0.151966 0.221038 0.0408377
0.147935 0.161702 0.443231
-0.155383 -0.0370702 0.336704
-0.168263 0.132202 0.511976
0.135044 0.196069 0.0348499
0.219326 -0.00452562 0.438189
0.119706 -0.0173274 0.299443
0.120621 -0.0584175 0.348192
0.0881813 0.188455 0.697614
0.0412354 -0.142102 0.383158
-0.206763 -0.0207188 0.334215
-0.111792 -0.000347476 0.348192
-0.139352 0.160521 0.618539
-0.0987681 -0.0173887 0.305751
-0.117343 0.0484348 0.296614
0.195179 0.0321859 0.347709
-0.000249523 -0.0170014 0.122697
0.194103 -0.051685 0.0832461
0.13227 0.195558 0.750823
-0.00975934 0.0487794 0.152246
-0.0810561 -0.00201631 0.151041
0.0934542 0.249924 0.804394
0.181281 0.08839 0.347793
-0.254738 0.0383034 0.537656
-0.0604495 -0.132311 0.348192
0.147317 0.183225 0.656718
0.131132 -0.183268 0.357898
-0.108145 0.206836 0.72177
0.165066 0.149486 0.591732
0.0222959 0.122398 0.383158
-0.0232436 -0.0251208 0.383158
-0.0321914 0.173218 0.534444
0.140465 0.0195337 0.329025
-0.159624 0.199084 0.36245
-0.090335 0.0292722 0.272197
0.156412 0.180348 0.652745
0.233398 -0.058884 0.0203257
0.0355453 0.177517 0.562163
0.055861 0.257885 0.811429
0.00158226 0.030952 0.208826
-0.195688 -0.0551904 0.34775
0.236271 -0.0723481 0.520233
0.0364739 0.0563396 0.152258
0.0914649 0.149045 0.120798
0.0073235 0.0101319 0.198612
-0.0707943 0.243919 0.798241
-0.0162604 0.200804 0.382756
-0.123324 0.184716 0.346803
-0.171221 0.174179 0.635211
0.00723466 -0.158591 0.348192
-0.167362 -0.151665 0.348192
-0.0780269 0.200681 0.368818
0.0218917 0.0353094 0.149343
-0.0641564 -0.0492055 0.383158
0.177986 0.0653504 0.345622
0.215666 0.00714346 0.456728
-0.156507 0.233587 0.0244622
-0.12544 0.190731 0.339184
-0.0891624 0.189639 0.644672
-0.169074 0.184809 0.722379
-0.0179456 0.00946498 0.279242
0.177586 0.178684 0.681622
0.0198969 0.0617758 0.152122
-0.11406 0.188452 0.404441
0.118291 0.170762 0.648086
-0.00905692 0.0447615 0.17074
-0.1759 0.184341 0.337519
-0.142045 -0.00400739 0.329907
0.00280718 -0.226612 0.0382048
-0.175513 0.133401 0.471119
-0.199042 0.041851 0.51916
0.0878079 0.217175 0.745408
0.0460901 0.246286 0.798145
0.0465267 0.15192 0.359511
-0.105286 0.225382 0.806667
0.211762 -0.00892341 0.401504
-0.0303029 0.17186 0.59281
0.00230547 0.139992 0.305735
0.197067 -0.0834503 0.519486
-0.192277 -0.0283821 0.335124
0.0195888 0.010502 0.0670016
0.0381525 0.213778 0.339093
0.00223467 0.0602271 0.256973
-0.174185 -0.0546068 0.348192
0.136274 0.254059 0.809231
-0.229097 -0.0576596 0.0351313
-0.0785699 0.246568 0.822332
-0.204356 0.0234827 0.340696
-0.116984 0.158342 0.448603
0.0821798 -0.184991 0.382808
0.00350352 0.0410363 0.0683567
-0.0826815 0.163653 0.524006
-0.0202703 -0.00461277 0.266953
0.20084 -0.0111269 0.352362
-0.128661 0.0103322 0.348192
-0.152951 -0.0377564 0.113209
-0.0161395 -0.265456 0.0319501
0.212093 -0.000602198 0.43809
0.0118792 0.0382698 0.194107
-0.000774272 0.0312987 0.252439
0.0693615 0.163389 0.383158
0.130661 0.00953094 0.311913
0.132298 0.174954 0.408364
-0.120364 0.258577 0.815912
0.109536 0.00525137 0.279425
-0.131497 0.0342186 0.383158
0.130054 0.0294876 0.348192
-0.0865968 0.187161 0.354295
-0.146571 0.23298 0.810286
-0.167332 0.0301698 0.343737
0.186291 0.190129 0.340363
-0.0391003 0.170392 0.590179
0.183623 0.178519 0.409364
0.0246628 -0.181938 0.348192
-0.124979 -0.124439 0.383158
-0.0547633 0.00758818 0.1206
-0.117882 -0.00512723 0.292058
0.00371384 0.00906867 0.201906
0.15139 0.152897 0.55218
-0.0740221 0.022551 0.293897
-0.0948558 0.194084 0.342719
-0.0415165 0.00155137 0.167734
0.203691 -0.0291725 0.359285
-0.0867117 0.157188 0.472528
-0.146545 0.189902 0.68237
-0.0253895 0.224356 0.749351
-0.0549797 -0.0179968 0.348192
0.0883608 0.193419 0.653397
-0.146912 0.158642 0.616905
0.144548 0.14969 0.508716
0.059466 0.212644 0.368198
-0.0416931 -0.128222 0.348192
-0.0709572 0.220557 0.750044
0.0472517 0.0722388 0.149162
0.196324 -0.0576708 0.381254
-0.034949 0.000876658 0.280979
-0.0348095 0.222242 0.35745
-0.17229 0.160005 0.588976
-0.149053 0.205629 0.783672
0.115773 0.206527 0.719882
0.123268 0.184258 0.360322
-0.10619 -0.11552 0.348192
0.177955 0.0918817 0.342973
0.160678 0.220178 0.0410707
-0.0243432 0.145301 0.383158
0.082334 0.212605 0.72454
0.21175 -0.0096298 0.407603
-0.0130432 0.000364687 0.151284
-0.177615 0.160025 0.565649
-0.169518 0.140635 0.497353
-0.124244 0.192974 0.369573
0.211814 -0.00232927 0.358986
-0.0465587 0.0125065 0.160528
-0.0576156 0.105945 0.142796
0.0989161 0.256336 0.810997
-0.0286792 0.221423 0.789093
-0.219322 0.0106693 0.36735
0.0820787 0.178323 0.5944
0.122175 0.158341 0.599344
0.050329 0.182115 0.43279
-0.0116673 0.169076 0.477963
-0.0105784 0.190324 0.666443
0.129109 0.189473 0.388312
-0.143917 0.175912 0.631691
0.0105732 0.032945 0.0379601
0.146146 0.231233 0.792734
-0.0795535 0.244983 0.820307
-0.0195968 0.170485 0.580965
-0.0358495 0.21333 0.382553
-0.00603049 0.25056 0.823423
-0.212057 -0.000596335 0.447603
-0.223153 -0.105844 0.520121
0.182268 -0.00634742 0.348192
0.195276 0.00160222 0.348192
0.0832005 0.0102014 0.298058
-0.236148 0.0566088 0.537656
0.244715 0.0372195 0.515413
-0.10158 0.171583 0.452839
-0.111195 0.208742 0.34194
0.0111774 0.0737701 0.38091
0.0340174 0.0535311 0.383158
-0.113232 -0.14085 0.348192
-0.151541 0.167043 0.652096
0.167529 0.00733716 0.310507
-0.252881 -0.0850385 0.0359485
-0.064652 0.218536 0.343246
0.10162 -0.020331 0.137204
-0.265239 0.0418597 0.535463
-0.0608804 0.174621 0.6175
-0.156768 0.201912 0.356899
-0.0455048 0.183596 0.650986
0.0180116 0.0293603 0.256708
-0.21696 0.0372455 0.366108
0.165966 0.159483 0.630306
-0.119187 0.189441 0.400839
-0.173323 0.195296 0.716107
0.0225419 -0.24079 0.0280293
0.0257954 0.0824209 0.381053
-0.067212 0.238742 0.791345
0.0652776 0.160796 0.558788
0.0296786 0.000499148 0.255405
0.0425389 -0.0367882 0.348192
0.0167176 -0.113018 0.348192
0.0111518 -0.0357433 0.348192
-0.0859978 0.155135 0.553377
-0.103396 0.00514284 0.383158
-0.0425299 -0.10524 0.383158
-0.220808 -0.104968 0.536817
0.205776 -0.0909518 0.518231
-0.0318386 0.0775534 0.145407
0.105701 0.164671 0.439955
0.204436 0.0657642 0.364301
0.0764341 0.250491 0.825567
0.0101394 0.00833229 0.250735
0.131615 0.240268 0.816587
-0.151771 0.0701854 0.383158
-0.0644807 0.183908 0.447997
0.0302235 0.0468184 0.144051
0.251925 -0.0894453 0.0272539
-0.163758 0.132535 0.526364
-0.0283399 0.0142859 0.175203
-0.0203996 -0.0775504 0.383158
-0.182702 -0.106027 0.383158
-0.0334176 0.256313 0.809447
0.200891 -0.0626987 0.34815
0.155765 0.201662 0.345971
-0.0888548 0.251104 0.824615
-0.136034 0.0966172 0.383158
-0.119244 0.240593 0.803459
0.129546 0.216823 0.767705
-0.156064 0.154012 0.560519
0.18884 0.0374087 0.529479
0.17274 0.193071 0.742771
0.152848 0.00797637 0.348192
0.167669 0.192555 0.0147236
0.219454 -0.028104 0.480465
0.259259 -0.0904258 0.0231941
-0.0751203 -0.178936 0.348192
-0.0324988 0.103205 0.350681
-0.17545 0.132233 0.487167
-0.0772578 -0.161028 0.348192
0.0189442 0.162259 0.532596
-0.147506 0.170098 0.613099
-0.135042 -0.00498016 0.3151
0.208607 0.0258032 0.518231
-0.137802 -0.0335248 0.11754
0.204215 0.040321 0.518231
0.176573 0.155009 0.536036
0.118916 0.00774906 0.317185
0.121609 0.168179 0.585529
-0.0284158 0.195111 0.347483
-0.0788503 0.0464545 0.348192
0.19652 0.169658 0.380443
-0.21218 0.00874192 0.433602
-0.0300551 0.196337 0.404544
-0.219569 -0.112241 0.535565
-0.250569 -0.051559 0.0245453
0.130411 0.219051 0.774149
0.184626 0.0711264 0.348192
0.0983386 -0.00310669 0.131439
-0.0764177 0.199755 0.674018
0.0278566 0.0650845 0.164745
-0.066291 0.168658 0.596337
0.206893 0.058201 0.518231
0.194734 0.161912 0.417007
-0.144874 0.218441 0.041502
0.11996 0.165775 0.628606
0.222912 -0.082104 0.515862
0.194836 -0.139972 0.350316
-0.149169 0.15211 0.440351
-0.188427 0.163891 0.440019
0.083241 0.166109 0.544325
-0.232932 0.0652055 0.517742
0.177965 0.151921 0.43582
0.0274025 -0.0779707 0.348192
-0.205881 0.0485756 0.359551
0.139572 0.187417 0.394361
0.226276 0.00991642 0.537656
0.0811133 0.214507 0.349592
0.21033 0.0586001 0.518231
-0.177545 -0.0295793 0.0892671
-0.147243 0.201852 0.724844
0.0483874 -0.180557 0.383158
0.0441001 0.224824 0.756865
0.0797177 -0.0213233 0.348192
-0.0572201 -0.0319874 0.383158
0.181974 0.00655936 0.347749
0.19821 0.0489661 0.537656
0.185131 -0.0980275 0.348192
0.223521 -0.0870968 0.0346835
-0.000304538 0.221414 0.3504
-0.147761 0.218784 0.790726
0.103214 0.172331 0.450903
-0.144147 0.00364656 0.302766
-0.173669 0.144253 0.534596
-0.00277969 0.184228 0.578399
-0.202301 0.0486441 0.352177
0.0767464 0.185841 0.617463
-0.153892 0.036485 0.336412
0.00738528 -0.0450923 0.155422
0.0592833 0.248456 0.801638
-0.133185 0.173785 0.616848
-0.160241 0.151472 0.589248
-0.152628 0.201973 0.780097
0.0923315 0.216123 0.792409
0.00628183 0.206479 0.335975
0.0228907 0.208057 0.747931
0.201974 0.141162 0.342589
0.183094 0.0958172 0.381902
-0.253186 0.0797985 0.537656
0.0131034 0.190461 0.608676
0.15856 0.207026 0.032819
-0.0133975 -0.226605 0.0316163
0.00607953 -0.0967432 0.136223
-0.173147 0.174876 0.681386
0.130463 0.191728 0.675356
-0.0783696 0.181101 0.444356
0.00729111 -0.0255846 0.129411
0.121741 0.23676 0.813946
-0.187594 0.138119 0.507997
-0.128561 0.183446 0.697569
-0.160701 0.155549 0.450769
0.177577 0.136942 0.464428
0.124786 -0.0261303 0.315488
0.17951 0.141969 0.50863
-0.122214 0.189138 0.714528
0.164827 0.0980025 0.383158
-0.169046 -0.0181256 0.305898
0.170281 0.150758 0.559047
-0.0155174 -0.00696352 0.277403
0.184921 0.132114 0.508106
0.091011 0.176474 0.649862
-0.000788331 0.0596604 0.281218
0.1614 0.149439 0.585952
0.0123168 0.17377 0.36301
0.0305645 0.195093 0.346419
0.0839434 0.155953 0.36022
-0.0130595 0.188438 0.452952
0.133114 0.173891 0.670036
0.194832 0.0616871 0.531799
-0.142063 0.149348 0.577743
-0.165125 0.156269 0.573493
0.238028 -0.0519337 0.038193
-0.0716596 0.248261 0.82301
-0.211743 -0.0183055 0.4549
0.00312104 0.206843 0.335814
-0.136928 0.152153 0.495422
-0.142151 0.172396 0.42064
-0.186526 0.017235 0.335633
-0.102853 0.213901 0.349303
-0.20575 0.0212011 0.513701
-0.106644 -0.0807186 0.348192
0.199637 0.0408667 0.518948
0.160696 0.166299 0.618472
-0.0216888 0.245858 0.818241
-0.067941 0.225067 0.764481
0.109632 0.188005 0.365702
0.021706 -0.00446194 0.266498
0.25119 0.0771333 0.537656
0.0407599 -0.00278721 0.259779
0.100465 0.231946 0.808614
0.17076 0.143376 0.491402
0.17083 0.200371 0.0231746
-0.189894 -0.045581 0.521748
0.110682 -0.0438968 0.383158
-0.175592 0.0842141 0.383158
0.141512 0.141475 0.474646
-0.147873 0.209682 0.0319908
-0.104119 0.162188 0.488262
-0.0181657 0.0403749 0.383158
0.136668 0.180509 0.366382
-0.13547 0.235681 0.80509
0.0818325 0.178132 0.59355
-0.147556 0.178151 0.407421
-0.231691 -0.0654026 0.0404594
0.225183 0.0880163 0.521106
-0.00661931 0.204986 0.389419
0.0796154 0.166062 0.536597
0.0185822 0.179167 0.486286
-0.0868327 0.113397 0.383158
0.169962 0.162516 0.595679
0.0186173 0.00830434 0.0944382
-0.0481689 0.20319 0.735549
0.00364176 0.00857016 0.383158
0.153194 0.201012 0.341491
-0.12931 0.152748 0.505004
0.112383 -0.190069 0.370544
0.00857079 0.19628 0.359932
-0.0254438 0.215735 0.376317
0.0229344 0.192005 0.676275
-0.0705977 0.190114 0.383158
-0.00117413 0.0425337 0.10184
0.125829 0.257823 0.819963
-0.100786 0.190808 0.345472
0.035498 0.193118 0.343382
0.00467081 -0.201867 0.357405
0.168335 0.185476 0.337567
-0.0207564 0.209907 0.336348
0.197196 0.0488617 0.334697
0.256622 -0.0825884 0.0383889
-0.143574 -0.0405402 0.348192
0.219247 -0.0120462 0.473563
-0.0720112 0.114177 0.383158
-0.163775 0.197979 0.769655
-0.171866 -0.0028281 0.348192
0.153023 0.206439 0.0420712
0.270902 0.0901635 0.529008
-0.155551 -0.031908 0.325847
0.187647 0.0862379 0.347382
0.118263 -0.0122841 0.383158
0.139583 0.231334 0.0272063
0.188904 0.00209465 0.334813
-0.178984 -0.102926 0.383158
-0.0886684 0.130563 0.124918
-0.148076 0.0268888 0.304397
0.248813 -0.0590806 0.0213038
-0.0822913 0.234839 0.789262
-0.0270913 0.220418 0.351377
0.00988998 0.0696025 0.285786
-0.0985937 0.150368 0.504157
0.0870152 -0.122942 0.383158
-0.0426362 -0.10908 0.348192
-0.0560106 0.185394 0.661772
-0.0269897 0.266632 0.821212
0.084479 0.180509 0.441655
0.148115 0.139665 0.474307
0.205248 0.0673598 0.363
-0.167505 0.00937913 0.343826
0.0616313 0.203948 0.679471
-0.0601186 -0.15284 0.348192
-0.0185882 0.188996 0.664089
0.183108 0.104378 0.366838
-0.0375161 0.183025 0.645871
-0.0122765 0.110673 0.383158
-0.211937 -0.0704263 0.518231
-0.0547015 -0.108348 0.383158
0.0819393 0.0548067 0.381767
0.0938813 0.189489 0.398342
-0.0963952 0.196833 0.398205
0.08366 0.164008 0.591835
0.0844001 0.206515 0.368644
0.179349 0.142769 0.523357
-0.00168673 0.183346 0.631325
0.145959 0.170589 0.610854
-0.0888112 0.191725 0.342806
-0.00408903 0.0329908 0.0132045
-0.0652789 0.0375475 0.271395
-0.0665953 0.114457 0.383158
-0.158923 0.173318 0.68123
-0.0496229 0.0821343 0.349578
-0.116209 -0.00998513 0.106115
-0.113384 0.0382316 0.299534
-0.26931 0.0472377 0.530629
0.0562012 0.248881 0.807958
0.180802 0.160033 0.593102
-0.0198253 0.00402378 0.159272
-0.20211 0.163013 0.354392
-0.0456591 0.069261 0.1304
-0.013088 0.116421 0.311078
0.000541407 -0.20411 0.36973
-0.212221 0.0257255 0.38646
0.0453627 0.204992 0.403104
-0.0881051 0.0752808 0.381336
-0.16928 -0.0226873 0.310367
0.0143955 -0.130761 0.383158
0.0716934 -0.021522 0.348192
0.184822 -0.0448027 0.347566
-0.196298 0.0986174 0.335953
0.0781453 0.0628865 0.348545
0.183783 0.0245703 0.383158
-0.0475603 0.0205498 0.284196
0.195942 0.0146355 0.331081
0.0227434 0.0169098 0.117842
-0.232154 -0.0516643 0.0330644
0.162396 -0.116006 0.383158
-0.150389 0.0231431 0.305225
-0.122057 0.0344178 0.318916
0.183903 0.0800932 0.348192
-0.125709 0.153419 0.454939
-0.167639 0.196541 0.761009
0.0333221 0.249548 0.823415
0.0592963 0.0253394 0.268661
-0.229609 -0.0549678 0.0342224
-0.0353772 0.178667 0.444925
-0.120203 0.186215 0.366976
0.126919 0.154542 0.498501
-0.170578 0.153007 0.440019
0.201296 -0.115129 0.36046
0.018918 0.0167206 0.0569027
-0.152392 0.0655625 0.348192
-0.0564086 0.213037 0.339758
0.0894716 0.153333 0.496035
0.16297 0.190139 0.338745
-0.216071 0.0242073 0.511045
-0.0163604 0.0256119 0.0431662
0.0581257 0.179818 0.638162
0.0765936 0.243201 0.81813
-0.0251471 0.199747 0.648619
-0.071777 0.198015 0.66381
0.219367 -0.0141068 0.407007
0.131837 0.0730398 0.348493
0.00654223 0.142006 0.383158
0.0612405 0.108869 0.104382
-0.201338 -0.0580441 0.356837
-0.135373 0.14736 0.463274
0.190079 0.15425 0.456047
-0.137337 0.188392 0.672192
0.0437276 0.159417 0.530413
-0.0248351 0.131048 0.354753
0.00698779 0.029333 0.203559
-0.0698896 0.196648 0.411376
-0.166905 0.19878 0.358582
-0.0125867 0.000939159 0.0989238
-0.16822 0.0106919 0.383158
-0.208261 -0.0460671 0.0723643
0.0310413 -0.000765327 0.383158
0.180896 0.00876083 0.309783
-0.00321941 0.223117 0.344993
0.133061 0.189458 0.0805294
0.172883 0.169206 0.662621
-0.211957 -0.017614 0.393857
0.0625942 0.192105 0.350079
0.0214343 0.0170672 0.0738409
0.0818764 -0.0603204 0.383158
-0.148306 0.0677658 0.348192
-0.098575 0.020428 0.348192
0.168799 0.205604 0.784913
-0.000659184 0.175985 0.598002
-0.122622 0.209095 0.73737
-0.177978 0.0719772 0.344583
-0.123505 0.086331 0.383158
0.162399 0.156105 0.618883
-0.0556716 -0.00768986 0.141495
0.186658 0.14054 0.53744
0.00706482 0.209059 0.682353
0.248036 0.0867468 0.51881
0.125935 -0.0494409 0.348192
-0.0890772 0.176267 0.42689
-0.0206458 -0.26037 0.0303484
-0.023891 0.216613 0.340167
0.00149445 0.0419548 0.0813644
-0.161445 0.155927 0.569745
0.232532 -0.0374327 0.537656
0.194926 0.163272 0.408882
-0.0816246 -0.060606 0.383158
0.178625 0.165862 0.644683
0.0120558 0.00704145 0.0523087
0.0950734 0.215013 0.354675
0.218799 0.0160444 0.421113
0.0367428 0.000267717 0.129871
-0.171796 0.193675 0.705496
0.112218 0.187349 0.344746
-0.0808258 0.0229002 0.277618
0.0250154 0.178238 0.488168
-0.201527 0.0285144 0.368307
0.102073 0.154644 0.569181
-0.0805922 0.21897 0.749983
0.0457915 0.215545 0.373403
-0.113642 -0.161573 0.348192
0.131564 0.0789839 0.348783
0.0649246 -0.0839434 0.348192
-0.072783 0.177028 0.634584
0.228913 -0.0018 0.537656
0.0940599 0.0285396 0.286839
0.0821778 0.0314647 0.269156
0.0573663 0.112329 0.119799
0.0578438 -0.0370233 0.383158
0.0237781 0.0554451 0.122108
-0.0898647 0.161941 0.523945
0.214286 -0.0775593 0.537656
-0.0954991 -0.190238 0.355086
-0.178074 0.193917 0.366818
-0.197847 -0.101185 0.353418
-0.00800337 -0.234594 0.0664362
-0.138913 0.169395 0.378596
0.128176 0.192907 0.0266334
0.159688 0.194019 0.339855
-0.212225 -0.00595812 0.48404
0.0953804 0.0090602 0.287676
0.000753357 0.20706 0.736698
-0.0931949 0.179374 0.418982
-0.0603367 -0.0803701 0.348192
-0.261753 0.080296 0.537656
-0.165349 -0.0264499 0.106836
0.0189953 0.198153 0.702517
-0.00754352 -0.0729143 0.383158
-0.071636 0.119155 0.0987552
-0.265002 0.0320118 0.520716
-0.137862 0.00638407 0.327606
-0.0740805 0.0780722 0.349374
0.00806759 -0.174515 0.348192
-0.135135 0.252296 0.807104
-0.217538 -0.0615359 0.0223527
0.0281662 0.0915281 0.350081
0.00645444 -0.176786 0.0816027
0.0935215 -0.015594 0.143832
-0.124663 0.22345 0.806785
0.0032516 -0.0208099 0.170439
-0.0805553 -0.0031388 0.29687
0.177329 0.0109507 0.336823
0.0121182 0.179963 0.619305
0.179178 0.13709 0.552337
-0.13245 0.194014 0.0741546
-0.190409 -0.00389016 0.334748
0.167383 0.210612 0.761774
0.0834029 0.207388 0.76926
0.0253477 -0.00429203 0.279904
-0.183391 0.153793 0.438679
0.147808 -0.0319817 0.0908251
-0.139891 0.0293718 0.291134
0.076896 0.163266 0.36138
0.0548352 0.0343603 0.26696
-0.0421133 0.0838516 0.154659
0.00756388 -0.0675008 0.121312
0.0217057 0.21163 0.763519
0.0920269 0.206575 0.338782
-0.00627977 0.025609 0.383158
-0.181252 0.0591403 0.383158
0.0040246 0.222072 0.786854
0.106212 0.187697 0.346783
-0.194341 -0.0161126 0.348192
-0.0163453 0.00562753 0.191694
0.114754 0.211814 0.35553
-0.0579753 -0.169336 0.383158
-0.0206153 0.173496 0.526374
-0.0915143 0.0201357 0.285216
-0.0754046 0.199335 0.385795
-0.14826 0.039216 0.324536
0.169429 0.199311 0.72262
-0.0723274 0.064423 0.383158
0.176461 0.151615 0.499659
0.136009 0.201648 0.0382921
0.0392409 0.170322 0.589801
0.17815 0.0824033 0.383158
-0.10025 0.196062 0.677797
-0.165774 -0.130369 0.348192
0.0993311 -0.00468544 0.115393
-0.173221 0.20312 0.742887
-0.0492565 0.00574475 0.261001
0.0263823 0.0207709 0.151909
-0.101407 0.260536 0.817673
-0.219153 0.00693058 0.411167
-0.131102 -0.00877994 0.383158
0.180249 -0.115013 0.383158
0.0973869 0.197662 0.368362
-0.222099 0.0206672 0.518231
0.123385 0.211354 0.791925
-0.012985 -0.267209 0.0257171
0.0917171 0.163013 0.594202
0.0085575 -0.203101 0.0842927
-0.184336 0.170799 0.429152
-0.0404614 0.211529 0.701153
-0.0150035 -0.245203 3.55763e-05
0.0131575 0.00941796 0.0428849
0.0270872 0.209933 0.757595
0.210384 -0.0525596 0.505976
-0.0778052 0.11842 0.133021
0.128848 -0.0148185 0.102254
0.104861 0.188364 0.345141
0.15545 0.163625 0.417163
0.134661 0.0160054 0.348192
0.0259331 0.0394539 0.280142
0.148923 -0.0991608 0.348192
-0.161685 0.142557 0.553317
0.157474 0.187144 0.688499
0.0631184 0.0312574 0.270694
-0.229087 0.0432941 0.518231
-0.0326866 0.18736 0.60306
-0.137119 0.206844 0.353706
-0.0505199 0.200243 0.366917
-0.142585 0.178342 0.688408
-0.137027 0.236047 0.814195
-0.13123 0.141291 0.500239
0.131782 0.212365 0.0420735
-0.0393325 0.0273563 0.262888
-0.248066 0.093213 0.537248
0.197014 -0.113589 0.352223
-0.0689914 0.0034011 0.269448
0.201307 0.0265964 0.537656
0.0938742 0.202041 0.370309
0.0644276 0.171669 0.499924
-0.169977 0.198043 0.344074
0.150806 0.182256 0.655673
0.0413096 0.198913 0.418239
0.208798 -0.0551605 0.518231
-0.212022 -0.00316189 0.451267
-0.054716 0.0523044 0.383158
-0.191588 0.0454187 0.347432
-0.0410418 0.182516 0.64505
-0.123167 0.177768 0.0990864
0.0113329 0.0394866 0.187466
0.196851 0.0698033 0.347839
0.00421792 -0.237261 0.0412796
-0.083673 -0.00144479 0.27464
-0.0851133 -0.0170253 0.132246
-0.00158838 -0.236363 0.0485746
0.138457 -0.0286542 0.124822
-0.0838895 0.191092 0.345167
-0.0273602 0.155446 0.383158
-0.0432775 0.159477 0.530628
-0.242714 0.0296541 0.537656
-0.0194967 0.0362993 0.279576
-0.219248 -0.0208664 0.39411
0.220273 -0.0357473 0.518231
0.110234 -0.0185652 0.312407
-0.00346451 -0.223609 0.0266641
-0.163862 -0.0146496 0.348192
-0.0161949 0.206868 0.741847
0.158452 0.22469 0.806062
-0.163554 0.241506 0.800586
0.0789664 0.181289 0.383158
-0.184694 0.155372 0.469207
0.126511 -0.178827 0.382149
0.0795899 0.216262 0.737196
0.0764894 0.211121 0.340606
0.0352311 0.176487 0.45032
-0.166586 0.226011 0.00734649
-0.107193 0.164045 0.608547
0.0934743 0.213133 0.353761
-0.158605 0.208739 0.00806558
0.117766 0.195316 0.336692
-0.139915 0.168068 0.599906
0.201089 -0.0436058 0.344566
0.0601632 0.0405044 0.26321
0.0529678 0.226797 0.801849
-0.00581311 -0.236164 0.0494901
-0.1352 0.140437 0.517686
-0.0952486 0.20661 0.714169
0.20129 -0.0080407 0.370293
-0.0130785 0.0386491 0.0967491
0.0233245 0.0643207 0.127899
-0.0067924 0.196251 0.366331
0.128937 0.0794572 0.348884
0.0999406 -0.0214422 0.117757
0.055924 0.215589 0.780496
-0.00260185 -0.0588217 0.154331
0.198037 -0.121982 0.354307
0.217629 0.038508 0.537656
-0.0440247 0.164522 0.56289
-0.24908 -0.083632 0.0392902
0.118121 0.200859 0.699331
-0.076356 0.158197 0.360585
-0.111681 0.187847 0.406346
0.172135 0.138164 0.555901
-0.0933482 0.0356358 0.383158
-0.0845681 0.0149815 0.348192
0.138114 0.213808 0.00661462
-0.0807672 0.146787 0.358753
0.062682 0.187512 0.355029
-0.0331414 0.0781179 0.151115
-0.131734 -0.184653 0.362423
-0.155659 -0.0631369 0.348192
0.141383 0.253583 0.821191
-0.0930911 0.187554 0.350025
-0.118401 0.168601 0.383158
-0.0646817 0.0275674 0.290021
0.0131003 0.194926 0.626954
0.109596 0.187506 0.365034
-0.114969 -0.00428452 0.290835
0.00711368 0.022725 0.26695
-0.175656 0.142265 0.512778
0.0119349 0.221497 0.353046
-0.0951267 0.0184076 0.304204
-0.0713505 0.20782 0.337812
-0.215985 0.0262111 0.400123
-0.127284 0.205305 0.726477
-0.00954905 0.132152 0.31946
-0.118718 0.145148 0.49724
-0.0765429 0.16504 0.518185
-0.107042 -0.0466816 0.383158
-0.192861 0.0510242 0.348192
0.174458 0.190412 0.697013
-0.0758669 0.183874 0.665272
-0.135603 0.193785 0.741863
0.0181364 -0.250276 0.00142848
-0.0123035 -0.061385 0.383158
0.0400754 0.0192578 0.348192
-0.0368745 -0.199294 0.377191
0.160525 0.146698 0.488129
0.115012 0.20714 0.340811
0.00697147 0.209321 0.374548
-0.024905 0.225669 0.754591
-0.162587 0.163873 0.599126
0.175183 0.142173 0.514974
0.140033 -0.180901 0.359202
0.154868 0.0558964 0.348192
0.0497389 0.196474 0.646777
-0.214142 -0.0367347 0.377261
0.162872 0.195101 0.759201
0.127138 0.196497 0.337503
0.114184 0.161062 0.551577
-0.115599 0.201375 0.706461
0.0590785 0.115317 0.129256
0.007017 -0.0822798 0.111889
-0.184498 0.17862 0.408468
0.175129 -0.00412579 0.346846
-0.130847 -0.185285 0.372782
0.105365 -0.134666 0.348192
-0.186078 -0.11238 0.383158
-0.040568 -0.002143 0.141145
-0.00293979 -0.057302 0.154755
-0.00499284 0.0194051 0.278338
0.0490624 0.22122 0.346625
0.0349514 0.0826629 0.141532
-0.164015 0.21164 0.795739
-0.0831968 0.0406959 0.383158
0.0480344 0.197037 0.383158
-0.163964 0.0743144 0.348192
-0.0380897 0.194272 0.694447
0.129003 0.126977 0.355419
-0.109925 0.195958 0.338495
0.183163 0.155095 0.596871
-0.0883451 0.214921 0.78654
-0.108489 0.178046 0.42894
-0.149863 0.255648 0.814846
-0.241692 0.0896132 0.520246
0.15777 0.129757 0.36767
0.232704 -0.06474 0.0723245
0.242209 -0.0391799 0.51898
-0.0601618 -0.0383288 0.348192
-0.152455 -0.0148525 0.297082
-0.00273812 0.206025 0.408609
-0.0813476 0.140846 0.0950017
0.177266 0.00979948 0.305394
-0.219421 -0.0216946 0.444438
-0.0853999 0.216427 0.353888
0.142586 -0.0900403 0.383158
-0.178131 0.178826 0.410874
0.0964767 0.20372 0.33789
0.0800594 0.0941671 0.383086
-0.00795955 -0.0020218 0.182503
0.0683984 0.126312 0.108044
0.0907031 -0.0592755 0.348192
-0.0823292 -0.0130813 0.297678
0.113218 0.209926 0.352082
-0.0260337 0.00894642 0.260169
-0.0854145 0.187634 0.686698
0.00591361 0.215374 0.338828
-0.222064 -0.027782 0.508399
0.21184 -0.00978733 0.384229
0.075753 0.245859 0.821733
0.0778435 0.192055 0.360552
-0.00831398 -0.00741896 0.145126
-0.00645802 0.187838 0.45687
-0.0282108 -0.0792146 0.383158
0.222508 0.049837 0.537656
-0.0601779 0.179679 0.363883
0.14565 0.240979 0.817299
0.0623833 0.186896 0.416959
-0.080285 0.173032 0.623069
-0.18203 0.106034 0.365027
-0.00656626 0.192771 0.675582
0.0334274 0.190524 0.365482
-0.236086 -0.0854111 0.526264
0.215752 -0.041945 0.411875
0.0494472 0.260817 0.828852
-0.113475 0.203283 0.769075
-0.0624455 0.205821 0.751007
-0.0209904 -0.230319 0.0286353
-0.141089 0.0212597 0.291689
0.268996 0.0446888 0.530666
-0.192698 0.159027 0.362843
0.186288 0.0794941 0.348192
-0.202419 0.00393416 0.355676
0.195636 -0.0135886 0.381571
0.219378 -0.00747736 0.436859
0.112643 0.0392543 0.282359
0.134504 0.158691 0.465988
-0.0456582 0.0595686 0.348395
-0.0250447 0.18506 0.591049
0.0815272 0.0353918 0.268911
-0.0025437 0.040196 0.348192
-0.0814555 -0.178328 0.383158
-0.0748109 0.181865 0.603874
-0.0336238 0.0234459 0.348192
0.165586 0.204602 0.786166
-0.0128874 0.0404413 0.27898
-0.204089 -0.0338561 0.513801
0.011347 0.189668 0.449919
-0.132522 -0.178796 0.349453
-0.0152003 0.0565995 0.383158
-0.0548783 0.0782753 0.349376
-0.00406531 0.202555 0.416865
-0.186611 0.147336 0.435835
0.0462887 0.172657 0.383158
-0.0785555 0.174582 0.463867
-0.226071 0.000891361 0.537656
0.123267 0.172928 0.431609
0.0178182 -0.00382394 0.383158
0.197139 0.0519924 0.336536
-0.184533 0.00750694 0.383158
0.211995 0.0040432 0.405148
0.0537269 0.0913178 0.150524
0.0325853 0.262088 0.815035
0.0515686 -0.0397377 0.348192
0.155989 -0.0538072 0.348192
0.059664 0.263896 0.819632
-0.269853 0.0751726 0.535259
-0.0824106 0.187633 0.383158
0.0420374 0.207494 0.688059
0.21758 -0.0595577 0.0226833
-0.10162 0.165385 0.561554
0.111394 -0.0165354 0.29807
0.0171006 -0.201776 0.374458
0.0665856 0.00904339 0.383158
-0.15442 -0.022896 0.323164
0.224238 -0.0855239 0.00725773
-0.0628839 -0.0898343 0.348192
-0.0267077 0.251098 0.808498
-0.120796 -0.186452 0.376877
-0.00348014 -0.0764732 0.146194
-0.120187 0.14949 0.383158
-0.136629 0.251969 0.806839
-0.212092 -0.0232344 0.372927
0.0432574 0.180863 0.364055
0.0475616 -0.140065 0.348192
0.137605 0.216397 0.0405757
-0.0138608 0.10235 0.382695
-0.0725479 -0.187083 0.382777
-0.190176 -0.0881323 0.334972
0.0656213 0.159764 0.497639
-0.0073584 -0.178786 0.0836076
-0.115987 0.21421 0.751891
0.168612 -0.0201247 0.337231
0.0457397 0.0848102 0.155053
-0.186383 0.133434 0.520234
0.0230702 0.127803 0.354227
-0.0388303 0.218508 0.338223
-0.219227 -0.0171474 0.372694
-0.0687737 -0.130628 0.348192
0.139087 0.219926 0.062823
-0.14965 0.245039 0.801662
-0.0212798 0.0215968 0.197708
0.138118 0.196361 0.381819
0.0444196 0.0362316 0.259561
-0.183628 -0.0733938 0.348192
0.0568507 0.0207873 0.259493
0.130741 -0.00838909 0.383158
0.166667 0.165266 0.651035
0.00624646 0.21866 0.721332
0.154334 0.13801 0.473603
-0.121564 0.159184 0.47553
0.00982778 -0.11612 0.348192
-0.208722 -0.0339287 0.509709
0.0812499 0.216448 0.356419
-0.0126044 0.0140205 0.0126502
0.0337668 0.216336 0.34049
0.0896214 -0.00125122 0.120703
0.118583 0.143074 0.519585
-0.180668 0.159443 0.559376
-0.116556 0.161281 0.558017
0.104488 0.208046 0.719385
0.262849 0.0727406 0.537656
0.211821 -0.0319917 0.491087
0.187311 -0.085566 0.335372
-0.0995791 0.174244 0.641664
0.219257 -0.0194342 0.495024
-0.198925 -0.00136063 0.537656
-0.0935931 0.259701 0.814019
0.0274287 0.194829 0.358136
0.126204 0.0313527 0.383158
0.037249 0.210362 0.762623
-0.167878 0.147777 0.446001
-0.0184697 0.0172702 0.279381
0.0418606 0.0265576 0.2634
-0.180089 0.16065 0.396009
0.0205109 0.199647 0.421091
0.0836896 0.171319 0.470221
0.164143 0.0571064 0.383158
-0.133824 0.19754 0.756678
-0.081445 -0.115054 0.383158
-0.0469771 0.0562642 0.348224
-0.250962 -0.0396402 0.527461
-0.0166621 0.192234 0.677688
-0.0516816 0.188555 0.353883
0.21683 0.0139728 0.518231
-0.0307063 0.19331 0.351278
0.156171 0.179375 0.34428
0.162057 0.175724 0.64572
-0.183796 0.187268 0.386101
-0.195288 0.0148323 0.348192
0.140642 0.0732706 0.383158
-0.00654474 -0.251263 0.0100709
-0.199016 0.0489959 0.519405
-0.133442 0.191317 0.0220995
0.187355 0.0717363 0.348192
0.189462 -0.025411 0.522085
0.137473 -0.0304034 0.322248
-0.204613 -0.0545703 0.518231
0.124753 0.202447 0.0752765
0.0372273 0.191326 0.622089
0.00953735 -0.124149 0.348192
0.053292 -0.184958 0.348192
-0.170911 0.189581 0.688852
0.0826695 -0.191598 0.352525
-0.196292 0.128304 0.356838
-0.107704 0.198429 0.745232
-0.215024 -0.0164799 0.537656
-0.179001 -0.0246329 0.331497
0.143439 -0.0772734 0.383158
-0.211584 0.0108129 0.357096
-0.262317 -0.0697099 0.00781547
-0.091402 0.260255 0.814862
0.156356 0.157078 0.569334
-0.157724 0.146501 0.448636
-0.179719 0.171658 0.640687
-0.169912 0.200382 0.771703
0.212253 -0.047553 0.482842
-0.0491882 -0.0933996 0.348192
0.169944 0.175694 0.690289
-0.050057 -0.130984 0.348192
0.207781 -0.0551088 0.518231
-0.202788 0.0273167 0.332311
-0.162074 -0.0657305 0.348192
0.199309 0.0184695 0.348028
0.175166 0.142081 0.522544
0.175711 0.184641 0.679588
-0.0469368 0.0441112 0.273369
0.20053 0.0970634 0.362179
-0.115089 0.150329 0.469902
-0.22125 -0.0576731 0.0350122
-0.0860713 0.214813 0.362809
-0.0652081 0.00770317 0.134155
0.0728507 0.235536 0.78819
-0.0367808 0.214427 0.339392
0.0210337 -0.22892 0.0168273
0.0877638 0.195182 0.659909
0.050688 0.189443 0.365321
0.150242 0.231699 0.0259091
0.0945043 0.174575 0.45139
0.0193746 0.199153 0.646829
-0.143817 0.13073 0.35663
-0.219371 -0.0237934 0.440051
0.155679 0.039854 0.337388
-0.183547 0.152631 0.589362
0.0759998 -0.0129734 0.14099
-0.120378 0.195905 0.741954
0.042119 0.1609 0.5395
-0.156374 0.23487 0.812822
0.0516903 -0.200606 0.364658
0.0581658 0.259761 0.813008
0.164997 0.243298 0.803956
-0.00979529 -0.184344 0.383158
0.0210795 0.163341 0.541616
0.145403 -0.0196922 0.10281
-0.0976087 0.205943 0.369795
-0.110864 -0.18981 0.373001
-0.153176 0.224612 0.0493886
-0.0871245 -0.0167547 0.139716
0.015102 0.0359257 0.191074
-0.0300973 0.200872 0.720308
-0.123027 0.0113513 0.306466
0.109996 -0.171175 0.383158
-0.0902634 0.188278 0.400541
-0.0994179 0.168168 0.618527
-0.0813498 0.224496 0.768259
0.215924 -0.0127236 0.345089
-0.00125318 0.239778 0.812731
-0.0998697 0.202033 0.700481
-0.0722744 0.162971 0.576427
0.0145223 0.176337 0.507269
0.0501416 0.0382945 0.258839
-0.165283 0.148405 0.523424
0.0296152 0.0385907 0.383158
0.0142388 -0.147243 0.383158
-0.131096 0.169402 0.362366
-0.0450599 -0.165999 0.348192
0.105056 -0.00259432 0.27911
-0.198433 0.172967 0.387949
-0.111329 -0.109268 0.383158
-0.0414389 0.205678 0.370272
0.137523 0.225349 0.786666
-0.0148126 0.104142 0.382852
0.0254677 0.201673 0.720217
0.172285 -0.123927 0.383158
0.171184 0.147227 0.548281
0.155215 0.046891 0.348192
-0.0367246 0.0693645 0.116119
-0.116594 0.0676911 0.383158
-0.0108219 -0.112878 0.383158
0.160561 0.0118873 0.334363
-0.113069 -0.00782219 0.296384
0.132 0.0223759 0.324374
-0.159614 0.183018 0.718448
0.1296 0.210135 0.358269
-0.0796843 0.216667 0.360303
0.0929693 0.127862 0.354606
-0.14955 0.179046 0.696131
-0.162743 0.0291869 0.302745
-0.0457431 0.216863 0.370493
-0.0452826 0.191098 0.435405
-0.0655782 0.0375577 0.27109
0.0201656 0.0102873 0.0987877
-0.200378 0.166944 0.358756
0.0655694 0.190972 0.689826
0.200079 -0.0181601 0.518231
0.0567427 0.202658 0.338583
-0.248045 0.0341757 0.537656
-0.0842082 0.175154 0.430452
-0.200122 0.0856038 0.340063
0.0992119 0.141991 0.10103
-0.158604 0.20835 0.00167302
-0.108624 0.23803 0.815887
0.0166467 0.201389 0.338296
0.171558 -0.0303043 0.337037
-0.0814314 0.170571 0.564621
0.141751 0.144231 0.382332
-0.001773 0.257284 0.80922
-0.0486902 0.17665 0.446488
0.0264693 0.0327861 0.280128
-0.0696515 0.203935 0.37888
-0.0527227 0.206315 0.750254
0.153134 0.198136 0.368161
-0.0220568 -0.242821 0.00754537
0.14379 0.211791 0.756224
0.00305998 -0.04023 0.118088
-0.197843 -0.0954562 0.35315
-0.20105 -0.0281164 0.343979
0.185684 0.100332 0.356142
-0.128253 0.247797 0.822335
-0.0726167 0.192329 0.363603
0.0710069 0.17375 0.5671
0.00410175 0.204039 0.660588
0.0562413 0.219451 0.341075
0.0033217 0.179919 0.55805
0.136982 0.210442 0.0406527
-0.0280653 0.195214 0.695519
-0.239554 -0.060122 0.0405709
-0.163806 -0.05131 0.383158
0.106933 0.205562 0.774891
-0.18674 0.143285 0.481636
0.103825 0.0431643 0.3089
-0.0466883 0.21144 0.770387
0.051892 -0.141062 0.348192
0.0126716 0.172005 0.36275
0.20952 0.0420599 0.537656
0.245039 -0.0528229 0.056888
0.233987 -0.0882451 0.531607
0.118757 -0.182329 0.381721
0.131113 0.0447755 0.31223
-0.156549 0.0371058 0.383158
0.211896 -0.0241054 0.430647
0.0767898 0.0960507 0.350238
-0.0208687 0.0115034 0.0913984
-0.11125 0.146719 0.383158
0.197807 0.0166899 0.379205
0.128667 -0.185252 0.360647
-0.165484 0.0603282 0.383158
-0.00784056 -0.230009 0.0730088
-0.155393 0.207102 0.753888
-0.129883 0.156095 0.480873
0.19687 -0.0443175 0.348192
0.146871 0.2135 0.799352
0.132563 -0.0119968 0.324684
-0.0746181 0.0398071 0.383158
-0.0141884 0.00972736 0.0541084
-0.058567 0.197958 0.337106
-0.260755 -0.0888982 0.0211925
0.261172 -0.0819952 0.0324194
