0.0721224 0.20771 0.701257
-0.0542769 0.266135 0.770759
0.0656289 0.146161 0.334647
-0.0604388 0.172317 0.49914
-0.178539 0.0103724 0.335042
0.278877 -0.0448757 0.555926
0.27856 -0.0558253 0.0374801
-0.185926 0.108347 0.392705
0.178669 -0.015531 0.0962015
-0.0138062 0.180577 0.432098
0.106741 0.0338095 0.310292
0.0581974 -0.0333318 0.31866
-0.0587045 -0.0280305 0.302056
-0.114715 0.212385 0.536347
0.0944851 0.218271 0.453696
-0.104234 -0.0662222 0.314305
0.0429029 0.174632 0.514301
0.0409018 0.230834 0.373543
-0.190158 -0.0505648 0.405563
0.0344358 0.194815 0.641992
-0.125022 -0.0345351 0.3013
0.109436 0.182911 0.625798
-0.129778 0.256336 0.75322
0.0877422 0.236864 0.63129
-0.127422 0.17803 0.625906
-0.291877 0.0557679 0.573257
-0.180042 0.236232 0.0404547
-0.069121 -0.10501 0.314147
0.0206657 0.0213522 0.0942717
-0.0256637 -0.0196983 0.413324
-0.24373 0.0520261 0.481543
0.167974 0.211019 0.669714
-0.00842809 -0.0815557 0.0903824
-0.0208353 0.213741 0.713182
-0.0528671 0.123371 0.0669024
-0.167982 -0.00940069 0.412803
0.157458 0.0696422 0.409125
0.0598563 0.0914209 0.305551
-0.129475 0.160197 0.551259
0.0152944 0.226103 0.756778
-0.0762434 0.0705044 0.413324
0.133439 -0.123549 0.413324
0.280093 0.0543332 0.573627
0.0122574 -0.234595 0.041094
0.00264514 -0.12957 0.0641913
0.232208 0.0429281 0.468284
0.0587657 -0.0728407 0.413324
0.137503 0.262648 0.0164278
-0.00405928 0.239919 0.612836
0.084797 0.172918 0.568734
0.030468 -0.0117206 0.413324
0.163796 0.0482731 0.336122
-0.2702 -0.0381941 0.0352264
-0.0899092 0.107841 0.328167
-0.121807 0.226646 0.608799
0.0494404 0.175957 0.463571
0.197568 -0.0134321 0.565073
0.0114678 -0.252901 0.0303914
0.002298 -0.165284 0.409936
-0.144348 0.173509 0.51747
0.0711093 -0.130519 0.413324
0.117996 0.168033 0.434758
-0.0782141 0.170171 0.552382
-0.154394 -0.0810849 0.328159
0.100792 0.254557 0.784707
-0.197319 -0.141874 0.374431
-0.0143576 -0.063153 0.294357
0.0901982 -0.176175 0.341457
0.0924112 -0.0900391 0.314424
0.08746 0.0606205 0.413324
-0.0717536 0.150927 0.0917018
-0.147343 0.223817 0.0141797
0.136492 0.133466 0.406544
-0.10458 0.193184 0.665009
0.038301 0.0779037 0.0738945
0.0773182 0.188709 0.366071
-0.0449178 0.227547 0.556027
-0.255471 0.0264512 0.44663
-0.0248852 -0.139104 0.328165
-0.156102 0.207358 0.600757
0.18957 0.0613902 0.32029
0.0947274 0.01835 0.0873643
-0.0196543 -0.224701 0.0116987
-0.0703241 0.193504 0.651658
0.212037 0.0235331 0.543057
0.128968 -0.0402592 0.32968
0.165894 0.233521 0.745989
-0.0566223 0.0904242 0.413324
-0.169757 0.219565 0.679979
-0.139614 0.13098 0.411044
0.124451 0.201216 0.349232
-0.0947493 -0.169431 0.4086
0.1278 0.0930868 0.328182
-0.10261 -0.0737276 0.413324
0.111947 0.256393 0.740129
-0.140354 0.0742427 0.328176
0.129267 0.201269 0.699733
0.0093318 -0.0135423 0.0878693
-0.088281 0.216488 0.525835
0.0110467 0.0238453 0.138385
0.13066 -0.179453 0.368938
0.0618616 0.224045 0.549203
0.0362724 0.241681 0.630638
-0.174452 -0.117149 0.41149
0.00854756 -0.0868413 0.0774593
-0.22315 -0.0254576 0.0838411
0.115766 0.00658871 0.330522
0.135042 0.222601 0.772966
-0.0104264 0.0414453 0.209007
0.0860306 0.177752 0.410305
0.136976 -0.100365 0.322015
-0.204849 -0.0428721 0.358541
0.205313 0.0871135 0.57314
-0.217215 0.0485612 0.573627
0.232158 -0.0708739 0.0271012
0.154778 0.235507 0.0736794
0.0257685 0.214728 0.717238
0.0777405 0.0616631 0.311898
-0.113753 0.1975 0.350596
-0.00460176 -0.204343 0.0892961
0.236647 0.0259952 0.506969
0.269641 0.094619 0.573627
-0.0172475 0.1549 0.33593
0.165005 0.0433316 0.407456
-0.00422233 0.0641728 0.0886237
-0.0446594 0.0342715 0.0904538
-0.153678 0.0498263 0.413324
-0.160655 0.218033 0.743359
0.192956 -0.0815372 0.3736
-0.136272 -0.153525 0.411975
-0.274235 -0.0755213 0.0344508
0.275448 -0.0211883 0.547318
-0.17235 0.262512 0.0308701
0.187263 -0.130695 0.379499
-0.220683 0.0387731 0.534968
-0.262669 -0.0315122 0.573627
-0.258662 0.0356852 0.573627
0.0258774 0.00200208 0.286803
-0.0933092 0.17517 0.419981
-0.157434 0.253277 0.0895594
-0.125743 0.00030306 0.328744
-0.133258 0.181605 0.376705
-0.0101125 -0.0351392 0.413324
-0.0248695 0.176907 0.49799
0.141785 0.174401 0.411998
0.0244827 -0.235626 0.0315909
0.297174 0.0361064 0.552242
0.17728 0.254528 0.0393024
0.070007 0.169893 0.527256
-0.223326 0.114851 0.573627
-0.0115741 -0.0216512 0.28681
0.0381371 0.0440186 0.286803
0.232098 -0.0447864 0.0147222
-0.0199508 0.0522569 0.286803
-0.0998305 0.179738 0.0974165
0.004435 -0.109771 0.413324
0.0303861 0.0110039 0.413324
-0.092894 -0.148585 0.330119
0.00879471 0.0546884 0.135299
-0.130073 0.231851 0.0821034
0.0666764 0.168253 0.348998
0.22608 -0.0413382 0.0649537
0.26869 0.039374 0.541388
-0.197925 0.052107 0.362246
-0.00465987 0.203101 0.673414
0.023425 0.0366323 0.0598396
-0.0463645 -0.0604126 0.413324
-0.0297686 -0.187885 0.37311
-0.105428 0.168434 0.576181
-0.141017 0.168098 0.44007
0.155431 0.186974 0.603042
0.0435077 0.111464 0.103126
-0.0105387 0.256061 0.700627
-0.167369 -0.14323 0.409966
0.0168391 0.187735 0.383122
0.069739 0.256341 0.71775
0.0355563 0.229477 0.413722
0.254312 -0.0529691 0.0720654
0.0533158 0.224792 0.756697
0.0890997 -0.167253 0.409209
0.257647 -0.0523526 0.573627
0.10974 0.1997 0.094144
-0.0133481 0.0241674 0.0164615
0.255234 0.0686141 0.541388
-0.0232123 0.0501158 0.0809703
-0.10967 0.178279 0.0654585
-0.0815072 -0.0414637 0.322264
0.0466652 -0.112733 0.320455
-0.194908 0.0857488 0.363986
0.0912997 0.178157 0.594633
-0.256561 0.124736 0.573627
-0.0415796 -0.170555 0.335805
0.131775 0.18691 0.656441
-0.100451 0.147948 0.409509
-0.0297875 0.121917 0.330725
0.0868368 0.0175242 0.413324
0.152921 -0.0581939 0.413154
0.137575 0.255448 0.75152
-0.168757 0.131932 0.348439
0.0567477 0.0211331 0.110636
-0.0916185 0.14394 0.334107
-0.163987 -0.171365 0.351515
0.230124 -0.0446127 0.573627
0.264541 -0.0337066 0.0256134
0.0679482 -0.186691 0.363357
0.0260103 0.263506 0.739002
0.0406018 -0.0490756 0.413324
0.0919757 0.219494 0.549582
-0.129591 0.1517 0.340914
0.117588 0.243933 0.687233
0.130758 -0.0132696 0.0766529
0.084115 0.220498 0.74892
0.0102924 0.225421 0.494618
0.0472731 0.201481 0.67232
0.0585556 -0.0647597 0.321632
-0.189747 -0.0855043 0.407591
0.138228 0.231169 0.0034244
-0.147591 0.198821 0.46562
-0.242686 0.0299082 0.378766
0.0561495 0.191932 0.358173
0.141457 0.196351 0.511631
-0.0237938 0.172583 0.362646
-0.168922 0.0162713 0.412006
-0.155263 0.0951049 0.413223
0.133808 0.249315 0.0341176
-0.229312 0.0164024 0.542026
-0.0959992 0.260009 0.748431
0.186282 -0.0554842 0.394457
-0.0721664 0.22827 0.772023
-0.0100892 0.0766032 0.286803
-0.141374 -0.159147 0.334373
-0.210583 0.0315588 0.342735
0.0261457 -0.0927586 0.413324
0.0965684 0.224777 0.366726
-0.238855 0.0700938 0.541388
0.089138 -0.0403267 0.413324
0.0739813 0.195285 0.6594
-0.0372685 0.228752 0.418825
-0.17521 -0.00833084 0.07742
0.178687 0.0873486 0.367744
-0.116107 0.23782 0.786782
0.260345 -0.0809698 0.0221735
-0.0822064 -0.176904 0.341876
-0.0591914 0.001389 0.321643
0.208154 -0.0178262 0.0781832
-0.144949 0.241686 0.698424
0.080273 0.0856085 0.413324
-0.0479162 0.0359184 0.286803
-0.117149 -0.0395531 0.413324
0.00878905 0.0453411 0.266024
0.254367 0.0964949 0.542193
0.126579 0.143939 0.338215
0.225553 0.0319345 0.573627
0.0369911 0.224351 0.487624
-0.157174 -0.0175175 0.328179
-0.05137 -0.1563 0.413011
0.0490876 -0.1628 0.410743
0.0278859 0.074796 0.413324
0.0444817 0.13002 0.317656
-0.0804239 -0.11728 0.328143
0.0245856 0.177111 0.544554
0.0167158 0.246167 0.786059
0.0848091 0.0126313 0.330461
0.118222 -0.106065 0.322213
0.0823519 0.227988 0.582701
0.236681 0.0472479 0.418681
-0.169021 0.0407082 0.333646
0.0876489 0.172511 0.067146
-0.279096 -0.0640159 0.0299455
-0.0296695 0.0949493 0.0911887
-0.25429 0.0487105 0.454821
0.0203612 0.117298 0.413324
-0.113706 0.0496008 0.329307
-0.0262726 0.18652 0.599954
-0.0433903 0.230567 0.341283
-0.0275683 0.18146 0.574311
0.045726 -0.169736 0.335588
-0.057083 0.01277 0.105924
-0.115276 -0.132698 0.413324
0.112953 0.0768146 0.310723
-0.127424 0.196377 0.0781832
0.00701748 0.190315 0.613686
0.161011 -0.0301546 0.328223
0.132133 0.0219744 0.328175
-0.194013 -0.127636 0.343834
0.168038 0.0052414 0.407855
-0.0855786 0.226031 0.369792
-0.188139 0.0752131 0.345779
-0.00866435 -0.160693 0.0835135
0.186031 -0.0127584 0.353075
0.15535 0.20877 0.721144
0.111154 0.212369 0.482233
0.246345 0.139471 0.566612
0.0211746 0.231681 0.349932
-0.119155 0.159068 0.491415
-0.193502 -0.00194955 0.567217
-0.161346 -0.0466437 0.413324
0.0761593 0.129981 0.0929925
0.22786 0.0470473 0.356977
-0.202746 -0.00966852 0.356804
0.157713 0.259998 0.0873418
-0.00663691 0.232693 0.773942
-0.0890638 0.21957 0.447202
-0.237132 -0.0518863 0.573627
-0.0395903 0.166676 0.397174
-0.0526772 0.110663 0.310814
-0.00874231 -0.227788 0.0595073
0.144879 -0.169885 0.3492
-0.115849 -0.0579493 0.332208
-0.292027 -0.0186738 0.558234
0.136362 0.165252 0.518252
-0.151341 0.197249 0.691018
0.0653369 0.253545 0.78558
0.231653 0.0687457 0.541388
0.169824 -0.105129 0.408926
-0.151614 0.199795 0.391162
0.0852161 0.00502762 0.0666976
-0.0567623 0.0998832 0.0874465
0.134364 0.104617 0.41331
0.0582774 -0.0140225 0.29382
-0.0880588 0.0238366 0.329291
-0.0777756 0.256525 0.724488
0.151237 0.177834 0.452549
-0.112615 -0.0070227 0.0953307
0.212729 -0.0348263 0.549228
0.0929589 -0.0646876 0.327904
-0.152933 0.233211 0.0423336
-0.110172 0.0537206 0.413324
0.0156703 -0.0642648 0.294824
-0.115699 0.209061 0.720878
0.10664 0.165103 0.357819
-0.0155162 0.23177 0.373657
0.00145017 -0.00279701 0.111912
-0.163467 0.24511 0.757592
-0.261391 0.037572 0.505734
-0.290735 0.0807466 0.553986
-0.107428 -0.0993504 0.313763
0.0121047 0.0466336 0.286803
-0.0714611 0.238235 0.629987
0.00202766 0.265799 0.74635
-0.134839 -0.181051 0.390686
0.259258 0.0351355 0.451527
-0.0461973 0.223789 0.471316
-0.279481 0.010099 0.544359
0.100361 0.0599153 0.32979
0.0164103 0.0531551 0.0414892
-0.231219 0.0364763 0.43511
-0.153919 0.101557 0.333295
-0.0422355 0.116291 0.413324
0.0656521 0.221849 0.46737
-0.040186 0.246359 0.786458
0.02492 0.164527 0.399562
-0.0648691 0.168672 0.395029
0.0233411 -0.112724 0.315045
-0.177612 -0.0821379 0.332922
-0.262069 -0.0510752 0.0604555
-0.0184721 0.177886 0.468444
-0.056769 0.126211 0.102055
-0.0042293 0.228635 0.434971
0.049956 0.265156 0.751941
-0.0756305 0.0230173 0.0765152
0.170422 0.036185 0.312954
0.179415 0.225472 0.031377
0.0446018 0.223175 0.526682
0.0591831 0.0394668 0.304596
-0.0146194 -0.134891 0.413324
-0.166548 0.252513 0.015041
-0.0276678 0.22464 0.528506
0.0533127 -0.054634 0.29326
0.074409 0.157195 0.405417
-0.00886683 -0.0579405 0.0899506
-0.0262993 0.233049 0.579729
0.192211 0.0606612 0.562057
0.175154 0.0184486 0.343763
-0.0918381 0.246561 0.684364
0.160497 0.129739 0.369531
0.156912 -0.0215054 0.0719257
-0.13858 0.201664 0.706171
0.0357514 0.249519 0.673467
0.059468 0.178215 0.431037
-0.0142086 0.223713 0.51122
-0.23618 -0.0452085 0.0380146
0.00790564 -0.209077 0.0663688
-0.00909752 0.0140358 0.413324
-0.032527 0.0680604 0.413324
0.136555 0.210966 0.0729258
-0.0913659 0.0653909 0.326915
0.151298 0.19651 0.394122
-0.0282213 -0.0910575 0.299828
-0.00910202 -0.0240739 0.0835294
-0.239718 -0.0753249 0.00882085
0.0152425 -0.186679 0.381514
-0.148001 0.186242 0.545509
-0.115277 0.0921649 0.328177
0.128367 0.210302 0.544728
0.00790817 0.180379 0.436013
-0.0927312 0.222354 0.563429
0.0646893 0.139199 0.066259
-0.206376 -0.064242 0.383557
-0.129902 0.230814 0.636129
0.00404009 0.0561845 0.185577
-0.0227757 -0.0840114 0.413324
-0.232505 -0.0358798 0.547175
-0.0212874 0.0300442 0.0391053
0.079928 0.118871 0.413324
0.188586 -0.026513 0.380089
-0.223311 -0.00585779 0.544667
0.060198 0.176605 0.567317
0.0485575 -0.141463 0.328171
-0.166174 0.199892 0.655906
0.236463 0.0842953 0.573627
-0.216729 0.0788624 0.573627
-0.225034 -0.0291919 0.573627
-0.0646795 0.215591 0.727127
-0.0549714 -0.185031 0.393003
-0.192296 0.0596855 0.562366
-0.222343 -0.0589534 0.559536
-0.0863875 0.216198 0.49835
-0.0728754 -0.0714173 0.413324
-0.177278 0.0663752 0.320514
-0.101007 0.185703 0.63799
-0.00267174 0.0593894 0.0201341
-0.0212498 0.248793 0.667468
-0.128889 0.171868 0.407607
-0.050601 0.187822 0.616254
0.0903637 0.16609 0.539676
0.040891 0.237214 0.606764
-0.237258 0.0499522 0.515063
-0.0717814 0.119718 0.413324
-0.00270464 0.0282181 0.227782
0.106836 0.121097 0.328182
0.0583419 0.251609 0.69033
0.014307 0.151483 0.33538
-0.00428988 0.220491 0.735665
0.156253 0.221555 0.632286
0.146641 0.23499 0.668181
-0.0584799 -0.123717 0.328151
-0.152631 0.262766 0.0634631
-0.103197 0.231112 0.615479
0.0840983 0.156189 0.10197
-0.0331834 0.198925 0.661968
-0.1537 0.183696 0.615702
0.11925 0.00801933 0.0685037
0.0650517 0.0940944 0.328819
0.0806411 0.189742 0.635726
-0.191496 -0.0628974 0.339122
0.0157657 0.0699219 0.0673122
0.0920799 0.211956 0.721171
0.211659 0.0388988 0.526911
-0.0668029 0.157707 0.337468
-0.00131511 -0.0235427 0.255701
0.281332 -0.0206459 0.573627
-0.0223936 0.04914 0.110135
0.0443797 0.0336369 0.096651
-0.0304783 -0.0391411 0.289986
-0.0602451 0.0624073 0.318772
-0.0753856 -0.0650279 0.32043
-0.0561689 0.193771 0.354345
0.018926 -0.0866094 0.298941
-0.137449 0.226057 0.0626455
-0.207899 0.106739 0.555446
-0.0817221 0.170355 0.476308
0.0440615 0.222507 0.340135
0.114737 0.160188 0.547898
-0.00337989 0.209404 0.345663
0.0900606 0.202743 0.688629
0.0129823 0.23197 0.391496
-0.101006 -0.106968 0.413324
0.11779 -0.00600496 0.0996827
-0.116377 0.168083 0.43896
0.17702 0.0808562 0.391309
0.240673 0.0324709 0.541388
0.149159 0.248045 0.728855
0.19798 -0.0333669 0.0880255
0.0250227 0.0875618 0.302499
-0.143745 0.0209212 0.328164
-0.18135 0.122448 0.371694
0.143463 0.0794145 0.328182
-0.128986 -0.0891306 0.317897
0.0835604 0.232966 0.780083
-0.132825 0.217234 0.755862
0.0574501 0.0584712 0.325222
0.0970441 0.253043 0.715412
0.154328 -0.0176034 0.0961466
-0.0879119 0.170188 0.0659629
-0.0587454 0.0131036 0.298384
-0.0580816 0.173475 0.369569
-0.297786 0.0372082 0.555446
0.143642 -0.165559 0.399721
-0.0125785 -0.185662 0.389589
-0.00666659 0.138039 0.32235
0.182622 -0.136364 0.35218
-0.0522422 0.0164437 0.413324
0.15537 -0.121064 0.412392
0.13124 -0.0335015 0.413324
0.0117045 0.260063 0.719952
-0.0657374 0.221672 0.539516
-0.0383557 0.0223368 0.0668986
0.109658 -0.146324 0.413324
-0.110049 0.132213 0.413324
-0.0284966 0.267267 0.758799
0.0922139 -0.113814 0.328139
0.0391772 0.184625 0.591874
-0.0778193 -0.0924164 0.413324
0.289375 0.011989 0.546756
-0.195941 -0.0194218 0.0926203
-0.105402 -0.0299634 0.322255
0.107886 0.237716 0.650809
0.109611 0.058453 0.413324
-0.0426408 -0.0152758 0.286803
-0.146348 -0.00509996 0.413324
0.120464 0.155103 0.398447
-0.160575 0.0751148 0.33277
-0.196583 -0.128235 0.397449
-0.204969 -0.0347305 0.382192
-0.280168 -0.0439479 0.559432
0.255471 0.114748 0.573627
0.160674 0.228537 0.768935
-0.234109 -0.0352368 0.090462
0.062825 -0.00985071 0.32858
0.13675 0.178017 0.629174
0.268964 0.0179568 0.573627
-0.052643 0.255863 0.709421
0.115919 0.234358 0.784898
-0.00607407 -0.183853 0.0651339
0.0991803 0.222015 0.341555
0.191462 -0.104321 0.389724
-0.00392843 0.170566 0.393171
-0.147394 0.250675 0.00398204
-0.0710249 0.246238 0.672487
0.0746602 0.122427 0.328338
-0.280815 0.11383 0.557128
0.063762 0.240089 0.634925
0.00196541 0.0279075 0.249374
0.0625823 -0.0454553 0.413324
-0.00495599 0.0636579 0.413324
0.00455531 -0.161799 0.332875
0.111831 0.225345 0.596391
0.0102778 -0.151358 0.0792759
0.289336 0.0305951 0.573627
-0.190736 -0.0215499 0.40364
-0.0121019 0.0237914 0.149616
0.103732 -0.0792399 0.413324
-0.214326 -0.0404303 0.0716133
0.207868 0.111749 0.565755
-0.265823 -0.0606219 0.566695
0.161957 0.265505 0.0226388
0.216442 -0.0112227 0.573627
0.0916498 0.167715 0.388323
0.0664354 -0.178905 0.399547
0.202149 0.0446298 0.323347
-0.0764986 0.129884 0.0739635
0.00992724 0.22672 0.454185
-0.0153058 0.0494685 0.139941
-0.11092 0.210411 0.508306
0.255505 -0.0649233 0.0426545
-0.0348843 0.230936 0.372764
0.0731634 -0.0975045 0.413324
-0.167284 0.234988 0.730895
0.130968 -0.0828805 0.305588
0.137741 0.183587 0.375426
0.0100732 0.0200337 0.0233331
-0.025098 0.182812 0.40323
0.069117 0.00671361 0.0824058
0.0231132 -0.259383 0.0143415
-0.0133594 0.0264034 0.181052
-0.0194363 0.243502 0.637175
0.0679716 0.228244 0.372441
0.138248 -0.126425 0.328159
0.000230924 0.196925 0.647462
-0.0626675 -0.186164 0.357423
-0.0711403 0.220403 0.47657
-0.111871 0.214615 0.454076
-0.000188921 -0.162072 0.0633954
0.232775 0.0333812 0.441779
-0.154751 -0.099239 0.413324
0.024583 -0.173024 0.406184
-0.243142 0.0445343 0.392897
0.14316 0.0549769 0.332292
0.255243 0.0260713 0.521217
-0.0214768 0.0347141 0.0649233
0.0101502 -0.111177 0.083429
-0.0498199 -0.00927898 0.413324
-0.0290223 0.224522 0.491211
-0.0907164 0.201726 0.686328
0.0534348 0.22977 0.574146
-0.000777145 -0.0159539 0.0664012
-0.00332862 -0.222816 0.0305872
-0.133455 -0.0107249 0.0656095
-0.0323647 -0.109882 0.312354
-0.0429783 0.216973 0.727145
0.0554415 0.174195 0.489656
0.128627 0.0229742 0.310308
-0.119775 0.197979 0.685842
0.238973 -0.059117 0.043062
0.127365 0.218869 0.39661
-0.049124 0.172962 0.523323
-0.0603247 0.174091 0.465201
-0.134819 0.210036 0.732534
0.062852 0.224349 0.436735
-0.187055 0.0475588 0.401949
0.0482419 0.208602 0.697741
0.045639 -0.185825 0.356499
-0.197299 0.0576645 0.333337
-0.137146 -0.182088 0.36493
0.076166 0.0374276 0.413324
0.0185908 -0.0350566 0.413324
0.240595 -0.0655137 0.00213266
0.129311 0.162632 0.457929
-0.116897 0.008941 0.069087
0.0327164 0.0984328 0.0794087
-0.260322 0.0100482 0.573627
-0.139597 -0.109166 0.321877
-0.038988 0.158533 0.338274
0.0635228 -0.0974074 0.314523
0.081479 0.00448235 0.100901
0.0614431 0.132488 0.413324
0.142757 0.0136981 0.413324
-0.132016 0.159283 0.395213
0.177382 -0.0101772 0.0728944
0.0528435 0.0823868 0.413324
-0.0726573 0.17555 0.57523
-0.169091 0.222829 0.0245977
0.242225 0.0525463 0.48858
0.137376 -0.0913925 0.413324
0.195362 0.00968124 0.555446
0.0867718 0.0376411 0.330576
-0.26678 0.0627607 0.573627
-0.0489984 0.243578 0.645739
0.147956 0.140887 0.386792
-0.208722 0.0184192 0.544348
-0.0102797 -0.25773 0.00895317
-0.126773 -0.0564724 0.312654
0.00533881 -0.0678243 0.102875
-0.117376 0.258944 0.77551
0.109318 -0.182997 0.357688
0.136458 -0.0645944 0.327661
0.257151 -0.0342492 0.0593319
-0.0529588 0.0434611 0.413324
0.000572824 -0.0439281 0.290872
-0.0691995 0.226223 0.411128
-0.234274 0.0304403 0.573627
-0.162422 0.126358 0.404788
0.27614 -0.0440786 0.00562496
-0.14615 -0.132162 0.413324
0.242964 0.0139538 0.573627
0.262243 0.0154614 0.542252
-0.120229 0.0770488 0.311195
-0.251247 0.0232611 0.529357
-0.0101743 -0.248242 0.0433613
-0.141471 0.254977 0.779175
0.107719 0.167394 0.570246
-0.0755634 0.264231 0.760662
0.239453 0.043466 0.393662
0.0593282 0.0619099 0.301966
-0.158481 0.0403733 0.311079
-0.260418 0.0357206 0.478674
0.152591 0.193765 0.575046
-0.100487 0.224036 0.348333
-0.113389 0.158518 0.534464
0.244381 0.0527819 0.45109
0.287845 0.0900517 0.571806
0.141148 0.222345 0.609151
-0.0548967 0.174764 0.557014
-0.144818 0.181721 0.638978
0.139093 -0.0197747 0.328163
0.0363595 0.0184313 0.0751343
0.239708 0.025125 0.484775
-0.139146 0.213145 0.0815081
0.0179981 0.176355 0.517684
0.0108903 0.0536993 0.16904
-0.0305039 0.081892 0.300516
-0.25763 0.0313401 0.424051
0.259742 0.0685244 0.573627
0.173368 0.258827 0.00839265
0.0931694 0.214611 0.498379
0.0178805 0.0800298 0.0905559
0.0517698 -0.115968 0.413324
-0.252395 -0.034587 0.0695242
0.0237178 0.0450154 0.0938098
-0.131193 0.220599 0.590816
0.106345 -0.0300672 0.332246
-0.226854 0.0947356 0.542801
-0.0879734 -0.147762 0.413324
-0.0827658 0.173536 0.442366
-0.0351884 0.0718515 0.0833962
0.170996 0.102063 0.349548
-0.180122 -0.157579 0.395116
0.166136 -0.111802 0.334463
-0.00484405 0.234328 0.581131
0.132009 0.123513 0.328541
0.0438755 0.166084 0.346016
-0.133034 -0.137733 0.328175
-0.0737659 0.251801 0.700629
0.0500581 0.156803 0.407719
0.179381 0.0274088 0.395332
0.003702 0.213436 0.710441
0.253861 0.0374662 0.573627
-0.198314 0.087012 0.566624
-0.00814752 0.00295511 0.0762944
0.105829 -0.0126485 0.413324
-0.141245 0.196219 0.515868
-0.151588 0.255906 0.0391707
-0.0219847 -0.108479 0.413324
-0.0262736 0.0793408 0.109952
-0.126731 0.111442 0.413324
0.000542387 0.17834 0.543515
0.158478 0.238155 0.010165
-0.277295 0.0841093 0.543504
-0.120598 0.170093 0.595039
-0.0963779 0.160583 0.097595
0.0586096 0.18026 0.410791
-0.00719176 -0.0761071 0.067001
0.0493685 0.122034 0.082406
-0.152879 0.221054 0.619945
0.116245 0.210281 0.0651125
-0.191602 0.0318622 0.329901
-0.233966 0.0459284 0.463022
0.0390552 0.189282 0.373804
-0.215436 0.0520993 0.344887
-0.203314 0.0102723 0.369618
0.0946465 0.172646 0.433515
-0.126433 0.218547 0.397014
0.0425465 0.106794 0.30936
-0.0147712 0.0713483 0.0686191
-0.10812 0.225 0.589286
0.041777 0.145578 0.334438
0.000921711 -0.0972235 0.102838
0.275865 0.105554 0.54725
0.00838571 0.18322 0.404894
0.108623 0.217621 0.436823
0.0537687 0.229322 0.400528
0.189242 -0.0744287 0.35122
-0.0751588 -0.01149 0.413324
-0.230922 -0.0322866 0.0640262
-0.0631175 0.119944 0.328143
-0.0943504 -0.0419532 0.413324
-0.0659111 -0.0220601 0.322271
0.0465564 0.245294 0.65328
-0.0942542 0.0829335 0.413324
0.183286 -0.0891499 0.399009
0.144775 0.208553 0.35361
0.0203929 0.0414079 0.119784
-0.173297 -0.0210879 0.096748
0.000293259 0.0196632 0.167751
0.235061 -0.0194529 0.545404
0.231738 0.0438642 0.516884
-0.0375975 0.230752 0.392932
0.150851 0.249205 0.0543157
-0.249646 0.0502628 0.433246
0.135077 0.193967 0.678442
-0.0476808 0.194688 0.646864
0.118254 0.213422 0.460973
0.215922 0.00218735 0.544626
0.131234 0.0752459 0.413324
-0.167161 0.254248 0.0558552
0.00746034 0.117091 0.313062
-0.137034 0.206335 0.53929
0.273328 0.0816196 0.541572
-0.122002 0.210857 0.0641202
-0.242393 0.0233349 0.466504
0.250047 0.118963 0.546325
-0.144489 0.233293 0.660042
0.157619 0.0516961 0.31059
0.208144 0.0504037 0.541822
0.176378 -0.0490056 0.340668
0.00840792 0.071869 0.286803
-0.0333541 0.254581 0.698141
-0.0778042 0.0610516 0.310655
-0.140792 0.249009 0.0751191
-0.00614432 0.168356 0.348502
0.115139 0.0344928 0.329598
0.0159175 0.239161 0.612
0.166947 0.226399 0.724394
-0.118609 -0.158834 0.332636
0.128178 0.215622 0.424771
0.0687589 0.120443 0.0686341
-0.0890951 -0.0867101 0.314103
-0.153973 0.0674929 0.312372
-0.279132 -0.0484864 0.0146012
0.153937 0.0935466 0.409292
-0.125937 0.159172 0.513147
-0.108298 0.217851 0.431858
-0.111569 0.0717852 0.328913
0.156951 0.19519 0.675983
-0.119252 -0.0620811 0.413324
0.00314709 0.244321 0.637904
0.0998906 0.0544885 0.31045
-0.0465468 -0.0815331 0.298272
0.0779185 -0.0624409 0.413324
0.0688437 -0.157933 0.331611
-0.0876129 0.217757 0.740955
0.129143 0.251671 0.729115
-0.147043 0.220137 0.0331661
-0.195939 0.0642842 0.387378
-0.205683 -0.116041 0.35819
0.0227648 0.0559083 0.0796589
-0.195608 -0.0311076 0.344494
-0.105964 0.128562 0.328182
-0.121144 -0.173032 0.403775
-0.00088812 -0.236529 0.011418
-0.0615497 0.239893 0.784019
-0.0163334 0.208046 0.692496
0.145764 0.194815 0.490157
-0.100736 0.0850179 0.310734
0.190951 0.042566 0.555446
0.0105686 -0.147354 0.413324
-0.0646929 0.226612 0.564349
0.147242 0.212592 0.740662
0.16033 0.0687286 0.322867
-0.254214 -0.0486361 0.0292137
-0.0307719 0.0901762 0.413324
-0.163282 0.205569 0.631305
0.156695 0.202711 0.7004
0.260774 -0.0252385 0.573627
0.0042632 0.0160122 0.116449
-0.258161 -0.0623756 0.0451287
-0.0975483 0.189179 0.0794066
-0.124037 0.215274 0.343069
0.18536 0.0374579 0.3298
0.104368 0.220588 0.755958
-0.0071602 0.123895 0.33103
-0.135156 0.236695 0.00726714
0.125384 0.0634058 0.327101
0.146546 -0.0874215 0.328146
0.0233636 0.178448 0.451237
0.0742801 -0.111562 0.321615
-0.151012 0.232915 0.087387
0.035623 0.184019 0.39657
-0.0679442 0.00637165 0.089581
-0.266853 -0.0787789 0.0158622
0.00119702 -0.267803 0.0223742
-0.0980145 0.163661 0.497025
-0.13844 -0.0369682 0.413324
0.0916979 0.183148 0.615679
-0.0100469 0.0423626 0.270337
-0.00262716 -0.0879657 0.298873
-0.080496 0.179357 0.594984
-0.131621 0.0531277 0.413324
0.0827024 0.137753 0.0751116
0.206472 0.00773683 0.573627
-0.138458 -0.0667734 0.330359
0.1567 0.227919 0.650707
-0.187668 -0.000413748 0.405421
-0.0947322 0.188636 0.358527
-0.130798 0.162396 0.457671
-0.134278 0.0980988 0.328181
-0.041751 0.103836 0.0667089
-0.141805 0.0220093 0.413324
-0.051961 0.264287 0.749569
0.123176 -0.0690235 0.413324
-0.023198 0.125879 0.413324
-0.0533746 0.0565133 0.286803
-0.145237 0.179753 0.394557
0.0877682 0.26348 0.770402
0.0272072 0.228627 0.555453
-0.281252 -0.0222122 0.573627
0.129637 0.258871 0.771686
0.112213 -0.12497 0.413324
-0.20591 0.045288 0.543037
0.148016 0.0294447 0.316174
0.151421 0.253336 0.0282859
-0.0736645 -0.166861 0.409454
0.0789358 -0.186222 0.383991
-0.151531 0.184461 0.567587
0.00580375 -0.233103 0.0286684
0.153325 0.0223067 0.333574
-0.19265 0.0385776 0.346738
0.00394902 0.178604 0.4606
-0.188709 -0.146599 0.349202
0.20233 0.0552975 0.338169
0.165891 0.23849 0.0334218
0.0904472 -0.186961 0.365727
0.111858 0.175679 0.401401
-0.175419 -0.134232 0.334426
-0.0706415 0.227751 0.354912
0.0500775 0.173176 0.365807
-0.255369 0.0833159 0.541388
0.0363853 0.0193083 0.107047
0.00859873 0.230758 0.412564
0.0359124 0.0949661 0.413324
0.00551226 0.135795 0.413324
0.085432 0.20712 0.346679
-0.169989 0.0628705 0.410575
-0.0342297 -0.18417 0.350071
0.0311272 0.222453 0.74512
-0.119588 0.253588 0.73513
-0.0161641 -0.159031 0.331924
-0.0531677 0.211987 0.344497
0.109311 0.222311 0.386637
0.21798 -0.0519806 0.559824
0.0952109 0.100221 0.413324
-0.0673838 0.0209559 0.328467
0.0111799 0.0396076 0.202515
-0.0954645 -0.126251 0.413324
0.0795827 0.219275 0.532869
0.0569781 0.116457 0.327272
-0.069553 0.169628 0.525257
0.146372 0.209672 0.409422
-0.254085 0.135647 0.556106
-0.195381 -0.107215 0.402416
-0.189795 -0.109545 0.336869
0.0432966 -0.0280058 0.413324
-0.0106831 0.248277 0.786992
-0.168577 0.227653 0.704763
-0.0161497 -0.264548 0.0347518
-0.052767 -0.0350661 0.413324
0.141316 0.240469 0.688452
0.00354545 0.231085 0.33911
-0.153244 0.190407 0.447596
0.0790146 0.226746 0.389854
-0.143337 0.070154 0.413324
0.237792 -0.0627827 0.569327
-0.0382636 0.17689 0.474228
-0.0332431 0.00837236 0.413324
-0.00547992 -7.45207e-05 0.286803
0.0662765 0.139038 0.101635
0.244118 0.0540999 0.531918
0.00846145 0.0599793 0.116102
-0.0897118 -0.185624 0.39103
0.013358 0.265671 0.775442
-0.014211 -0.114924 0.32814
0.0625068 -0.126085 0.328155
0.00712775 0.0802469 0.413324
0.116473 0.15908 0.498291
0.225079 0.034352 0.341121
0.0752611 0.171437 0.376886
-0.0451264 0.116681 0.0881749
-0.0789195 0.186612 0.625561
0.0856691 0.240865 0.651207
0.117425 -0.0957051 0.413324
-0.0176085 0.0497957 0.0214423
-0.131827 0.189383 0.355454
-0.0840829 0.0516897 0.413324
0.0135564 0.0195047 0.0583223
-0.0406042 0.234849 0.594099
0.11404 -0.0609067 0.332914
-0.20543 -0.0171955 0.572984
0.0213728 0.244688 0.644137
0.0896728 0.218013 0.47216
0.0808592 0.167853 0.510203
0.154448 -0.141137 0.409426
-0.23225 0.0307211 0.510982
0.259917 -0.00845181 0.544456
-0.167578 -0.0238685 0.066871
-0.125185 0.00735106 0.0874843
0.050178 -0.144504 0.413324
-0.147175 0.15535 0.350227
0.0124115 0.251534 0.67873
-0.100675 -0.167852 0.334849
0.206725 -0.0367074 0.0683457
-0.0237435 0.229473 0.559097
0.261783 -0.0477337 0.0491886
-0.107837 0.00692874 0.322254
0.10901 -0.125028 0.328154
-0.155953 0.00490636 0.329028
-0.0820727 0.180525 0.395409
0.0676308 0.218452 0.73805
0.152615 0.188295 0.426147
-0.13431 0.234602 0.0315665
0.0244851 -0.237409 0.0139301
-0.0789808 0.13211 0.0936632
0.00908931 0.0127916 0.0792279
-0.129355 0.0365258 0.328164
0.0883211 -0.140814 0.413324
-0.258032 -0.03874 0.0435512
0.290498 -0.00978095 0.553979
-0.0601778 0.0746281 0.309088
-0.0435456 0.0142936 0.0905436
0.217591 0.0716086 0.573627
0.00604145 0.000963776 0.413324
0.0130328 0.193683 0.632468
0.0278752 0.200842 0.6676
0.00512174 -0.0226618 0.275892
0.0627497 0.112138 0.0978594
0.0826538 -0.0084094 0.330268
-0.104533 0.165658 0.0801091
-0.235388 0.0505272 0.53975
0.0431515 0.260871 0.729278
0.09744 0.230712 0.60904
0.100663 0.0317804 0.413324
-0.023674 0.115498 0.312519
0.136803 0.240855 0.0671541
-0.061848 -0.0408277 0.322272
-0.199969 0.00037645 0.548623
-0.229734 -0.046557 0.0790784
0.264236 -0.0602851 0.556739
-0.0949989 0.262585 0.767997
-0.246201 0.0614568 0.573627
0.0636058 0.188894 0.623825
0.0337148 -0.0161193 0.286803
0.110342 0.261092 0.768213
-0.00900336 -0.142981 0.0727628
0.120059 0.219416 0.343034
0.221762 -0.0342559 0.0922683
0.246423 0.0446193 0.363096
0.252409 0.0507509 0.468934
0.0454446 -0.0965469 0.413324
0.240446 0.025157 0.465689
0.0238497 -0.165338 0.334086
-0.206222 0.041493 0.32635
0.248262 -0.0418975 0.0901327
-0.0903546 0.231243 0.778721
0.0821039 0.22248 0.433584
0.0809584 0.0440927 0.312886
0.0840334 0.169067 0.358058
0.179771 0.0649976 0.359632
0.0181831 0.235579 0.592522
0.110476 -0.156591 0.332463
-0.0497134 0.230002 0.771986
0.175752 0.0622071 0.395412
0.104347 0.0224542 0.330795
-0.0246557 0.171975 0.385745
0.144424 -0.173549 0.381507
0.149932 -0.00446299 0.413213
0.0652542 0.232211 0.59519
0.0262579 0.19027 0.616638
-0.0943737 0.163762 0.397838
-0.0992067 0.249252 0.786151
0.0439899 0.0838639 0.0914472
0.0655938 0.261191 0.739337
-0.0449497 0.0265561 0.110438
-0.205133 -0.0687545 0.351583
0.159903 0.193389 0.654329
-0.170469 0.134455 0.389147
0.165762 0.214279 0.647498
0.0865434 0.0734555 0.329573
-0.154952 0.198121 0.584114
0.071498 -0.179476 0.345085
-0.167212 -0.0607054 0.330983
-0.0960781 0.0849659 0.328319
-0.0478987 -0.0472737 0.291633
0.0555275 0.221863 0.492365
0.156275 -0.156385 0.341813
0.124305 -0.176256 0.348029
-0.115614 -0.0773563 0.316834
0.0364767 0.176634 0.492122
-0.0751746 0.177904 0.414131
0.153796 -0.0510938 0.328174
-0.0575369 -0.00359476 0.290254
0.137371 0.0409773 0.328182
-0.00432793 0.0220747 0.0401219
-0.0167597 0.178548 0.555532
0.00544437 -0.106275 0.0654676
-0.099111 -0.0491106 0.322258
0.256284 -0.0272086 0.546252
-0.0112927 -0.0683779 0.413324
-0.148718 -0.124815 0.328171
-0.106058 0.203497 0.698031
-0.184425 0.0290086 0.405959
0.0645007 0.203506 0.684195
-0.0032867 -0.187847 0.372999
-0.181368 0.11625 0.351021
0.00910504 0.0545686 0.0566764
-0.14907 0.246696 0.0331884
0.159237 0.24913 0.0428396
0.159015 0.0951881 0.336332
-0.100993 0.164832 0.478221
0.0165505 0.225729 0.476632
0.278963 -0.0711563 0.026494
-0.257086 0.0486654 0.520598
-0.0780581 0.137667 0.413324
0.20948 -0.0154395 0.547604
0.13392 0.213491 0.0908681
-0.145936 -0.16746 0.403455
0.205295 -0.0301553 0.569606
0.257542 0.0448764 0.435105
-0.154835 0.242916 0.715991
-0.283743 0.0649193 0.542841
-0.293111 0.0341337 0.57356
-0.0456977 -0.18712 0.364869
0.0429068 0.224475 0.468107
-0.157172 -0.176086 0.369313
-0.00758795 -0.0225114 0.102469
-0.0121732 0.0668669 0.108594
0.0428968 0.255885 0.705328
0.128248 0.221705 0.592089
-0.20501 0.0659504 0.543862
-0.182588 -0.0673686 0.409498
-0.0669965 0.145494 0.0742999
-0.0360596 0.137769 0.322719
-0.251713 -0.0803904 0.026966
0.0214057 0.186779 0.597703
0.0428055 0.135012 0.413324
0.0960057 0.187349 0.364493
-0.0119267 -0.00457026 0.413324
-0.176495 -0.0358103 0.410768
0.0712449 0.01855 0.0661159
-0.0838588 0.232145 0.605477
0.0221499 0.231642 0.373382
-0.0206989 -0.152643 0.413324
-0.0610027 0.222436 0.459996
0.0894558 0.17759 0.0895049
-0.00610824 0.262253 0.729859
0.0533744 0.0629983 0.413324
0.112632 0.248655 0.704653
-0.00585766 0.173354 0.367921
-0.257904 -0.0346909 0.025337
-0.124426 0.214469 0.0929656
-0.0327231 -0.0665275 0.295132
0.0170411 0.214647 0.343456
-0.146642 0.192712 0.36999
0.114538 0.185862 0.363148
-0.171966 -0.00695862 0.333324
0.0411773 -0.10199 0.306291
0.00705918 -0.112817 0.324038
-0.0167723 0.0458989 0.0475806
-0.154918 0.191311 0.667932
0.185543 -0.120024 0.394592
0.133448 0.0014592 0.328164
0.106519 0.21466 0.539136
-0.199994 0.0284534 0.360433
0.112215 0.173609 0.593842
-0.00699092 -0.177911 0.0901792
-0.0710931 0.0682986 0.32815
0.0295206 0.235155 0.778595
0.133743 0.228765 0.0211688
0.104712 0.0866042 0.324026
0.0254974 0.228269 0.42915
0.0507822 0.0265231 0.413324
-0.248643 0.0994297 0.573627
0.111217 0.166501 0.451813
0.141142 0.246881 0.0861769
-0.00547463 0.0479712 0.253424
0.00405432 0.0287774 0.272453
-0.127406 0.225936 0.778463
0.141209 0.213518 0.574325
-0.0602807 0.190416 0.634187
-0.0493878 0.229815 0.361555
-0.144451 0.207331 0.444835
-0.283213 0.028041 0.543421
-0.00174788 0.187458 0.597836
-0.0971046 0.0462209 0.326863
0.112406 0.219449 0.416306
-0.0430913 0.182356 0.583888
-0.109963 -0.142392 0.328177
-0.295501 0.0191363 0.554297
0.0948148 0.0751158 0.311724
-0.139204 -0.173925 0.344781
0.188665 -0.122938 0.362865
-0.142333 0.168176 0.567551
0.00852519 -0.0591751 0.0782236
-0.000543017 0.232464 0.363529
-0.0294874 0.218868 0.341612
-0.0662089 0.00485176 0.413324
0.0353836 0.22715 0.762125
-0.291871 0.0813071 0.570684
-0.129499 0.162847 0.355215
0.122849 0.208307 0.495472
0.276593 0.0779973 0.573627
-0.242014 -0.0671195 0.565135
-0.266909 -0.0458027 0.00484688
-0.11278 0.11009 0.328182
0.16947 -0.0639016 0.408585
-0.194306 0.0441886 0.571475
0.0917947 0.193085 0.657283
-0.0031861 0.0845912 0.301455
0.0714462 0.226896 0.768162
-0.124536 0.241414 0.68335
0.113347 -0.0357987 0.413324
0.249768 -0.0482246 0.0136734
0.0732511 0.252282 0.700421
-0.161172 0.226531 0.659889
0.043064 0.188096 0.610577
-0.245871 0.00883834 0.54231
-0.191455 0.102979 0.367801
0.126037 0.236474 0.659287
0.142507 0.175476 0.607942
-0.0674803 0.183342 0.606725
-0.0685182 0.0247536 0.0990149
-0.109227 0.0358247 0.413324
0.140761 -0.0737946 0.413324
0.117677 0.222935 0.768584
-0.0214209 0.227296 0.439793
0.217094 0.0908623 0.543587
0.0834401 0.216261 0.514466
-0.109949 -0.00590553 0.0762205
-0.0188725 0.0344802 0.13121
0.0359067 0.0958516 0.107272
0.0218132 0.0382459 0.0348794
-0.161584 -0.0070998 0.0658632
-0.244301 -0.0611354 0.00418693
-0.0851587 0.125026 0.328163
0.255095 0.0263238 0.503389
0.0859905 -0.000278252 0.413324
0.0760042 -0.0831056 0.314847
-0.0114543 0.022437 0.198313
0.0294225 0.0284989 0.286803
-0.0776539 0.00695197 0.104481
0.106647 0.199285 0.683201
-0.0606595 0.220514 0.522508
0.172274 -0.0274257 0.0793346
-0.00210034 -0.0425534 0.260438
-0.0457958 0.0848464 0.0892194
-0.204229 -0.0246655 0.36086
-0.139679 0.222457 0.608421
-0.0401902 0.248975 0.672319
0.14865 0.0481835 0.412286
0.181319 0.251461 0.023587
0.128517 -0.0773305 0.322242
-0.0956169 0.0652681 0.413324
-0.157733 0.0299314 0.413324
0.107927 0.138396 0.334207
0.133231 -0.0101871 0.413324
-0.0268409 0.203559 0.677775
-0.112885 0.156408 0.402689
0.129837 0.207526 0.518737
0.149086 0.0301229 0.412614
0.0478705 0.265456 0.773831
-0.0739614 -0.136157 0.328166
-0.100467 0.223314 0.378743
-0.176396 0.0843633 0.335984
0.0379675 -0.0630259 0.294886
-0.272777 -0.0647929 0.0442368
-0.132612 0.164319 0.373748
0.103117 0.243951 0.677314
-0.00845142 -0.0413632 0.075658
0.0537204 -0.0374293 0.28991
-0.141991 0.214197 0.388516
0.0636431 0.0961751 0.413324
-0.0168618 0.225447 0.754603
0.0628358 0.228886 0.351929
-0.166174 0.261644 0.0769347
-0.10336 0.164655 0.559238
-0.113244 0.235205 0.644054
0.150813 0.138183 0.35769
-0.049068 -0.112927 0.318141
0.0610306 0.220476 0.521428
-0.107054 -0.181145 0.397445
-0.0916565 0.0174727 0.0719389
0.0100125 -0.128604 0.0837241
0.107504 0.16627 0.375445
-0.218818 0.0980357 0.573627
0.0701487 -0.0542322 0.329182
0.142868 0.202505 0.550304
-0.143844 -0.0173974 0.0778452
-0.0289406 0.0671335 0.286803
-0.118774 0.187831 0.0905957
-0.18811 -0.00369332 0.33882
-0.116 0.142842 0.334783
-0.127898 0.207174 0.517457
-0.0362272 0.154073 0.408588
-0.252326 0.0502959 0.498241
-0.229027 0.0464806 0.356665
0.143522 -0.141082 0.331738
0.0101597 0.0553399 0.413324
-0.0809572 0.167692 0.508567
-0.0735364 0.0933644 0.413324
0.18274 -0.0287826 0.347656
-0.280231 0.0226848 0.573627
-0.0373346 0.0223266 0.286803
0.10138 0.187597 0.640279
-0.164093 0.228313 0.761306
-0.00735444 -0.232211 0.0416209
0.0756924 0.175522 0.436669
-0.0593911 0.102014 0.324413
-0.280748 -0.00813547 0.546512
0.0610689 0.133734 0.320206
-0.0322621 -0.123607 0.328149
-0.166353 0.0576583 0.333476
0.0424159 0.0338469 0.0796043
-0.0121311 0.0544382 0.0674974
0.151705 -0.171001 0.364
0.0581935 0.236065 0.611206
-0.00785395 0.00919272 0.103974
-0.103915 0.173878 0.595714
0.0301523 -0.121375 0.328149
0.00389177 0.208549 0.692971
-0.122707 -0.102818 0.32211
0.0948921 -0.0644351 0.413324
0.135507 0.00293279 0.0697535
-0.0825468 0.222377 0.431668
-0.245027 -0.0367754 0.573627
0.00911918 -0.0340068 0.0937722
0.00792539 -0.0517192 0.100803
-0.0356801 0.177418 0.457441
0.125345 0.0460067 0.413324
-0.0109752 0.191551 0.622351
0.000954261 -0.23888 0.051065
-0.145637 0.169619 0.461641
0.27342 0.00159183 0.573627
0.0908522 0.160967 0.34481
0.124279 0.251874 0.786177
-0.205663 -0.0786366 0.392485
0.184619 0.00962956 0.354721
0.272844 0.0646815 0.541388
0.23 0.0377258 0.49672
-0.0597597 0.0534531 0.305868
-0.0268458 0.21882 0.73186
0.181587 0.0475637 0.359809
-0.0381134 -0.184322 0.393753
-0.197728 -0.0818457 0.343931
-0.105962 0.00763526 0.103116
-0.0258781 0.255462 0.78566
0.0907026 0.127602 0.328182
-0.151714 -0.115817 0.413324
0.159173 -0.00603643 0.0656379
0.0471942 0.218594 0.732956
-0.0691381 -0.0514162 0.413324
-0.107179 -0.0260024 0.413324
0.248792 0.0956864 0.573627
-0.0467359 0.230368 0.572467
-0.0578966 0.105627 0.103158
0.0161613 -0.221137 0.030227
-0.120932 0.161378 0.471168
-0.141861 0.0559893 0.311187
-0.0117044 0.0532823 0.180773
-0.21163 -0.0175137 0.547244
0.00159465 0.268214 0.763869
0.0296055 0.177328 0.474415
-0.00514248 0.0564701 0.151174
-0.112583 0.0744606 0.413324
0.227862 -0.0234119 0.573627
-0.150602 0.117847 0.333978
-0.161985 0.0773035 0.412559
-0.0146138 0.2275 0.545351
-0.245164 -0.046182 0.0600645
-0.185143 -0.139222 0.402401
0.182166 0.039998 0.384855
-0.0878893 0.236791 0.631881
0.0328268 -0.159756 0.411785
0.0783859 0.220774 0.456743
-0.0765303 -0.163791 0.333493
-0.0836166 0.225891 0.391662
0.012235 0.0569911 0.0268972
0.00989633 0.232468 0.773746
0.00746655 0.162311 0.401849
-0.0525194 0.257394 0.784679
-0.297386 -0.00257407 0.564437
0.12389 0.196003 0.0864807
0.235674 0.0489074 0.436975
0.0281415 0.259258 0.718721
0.0641405 0.0093735 0.0979108
-0.0481204 0.130617 0.332105
0.014173 0.0281812 0.165166
0.0362777 0.129853 0.331956
0.039154 0.17316 0.37814
-0.079101 -0.186337 0.358479
-0.113785 0.0314829 0.329956
0.224413 0.037202 0.537179
0.0102943 -0.178466 0.400159
0.0140251 -0.225198 0.0104216
0.146523 0.250147 0.010684
0.0983549 0.162089 0.0952133
-0.00224934 0.0593715 0.286803
0.0804923 0.218657 0.488729
0.256026 0.0272928 0.47044
-0.0954926 0.249741 0.700554
0.295231 0.0481339 0.572262
0.277252 -0.0600048 0.00184196
-0.0377714 0.222809 0.515716
-0.0430647 -0.0764739 0.413324
-0.172794 -0.0233296 0.33308
-0.25702 -0.0479208 0.573627
-0.0989728 0.171334 0.441687
-0.237071 0.0336713 0.417392
0.139808 0.238339 0.0442244
0.0180038 0.023778 0.11219
-0.136863 0.16372 0.495181
-0.128612 0.172908 0.608995
-0.0605512 -0.0821396 0.413324
-0.186938 0.0241048 0.340112
0.0825436 0.18343 0.385245
0.126299 0.160173 0.536388
-0.0844588 0.212812 0.722924
0.17514 0.0417478 0.34585
0.0599968 0.181919 0.589121
0.144145 0.179461 0.520012
0.118371 0.15873 0.348477
0.00871992 -0.0815345 0.0947457
-0.137671 0.163777 0.537655
0.109958 0.207835 0.0800432
-0.181935 0.255244 0.0199045
0.250069 0.0318775 0.39789
0.165646 0.213296 0.709382
0.0366684 -0.152569 0.328406
-0.21742 0.122713 0.56067
0.134371 0.205013 0.71471
0.262895 -0.0665715 0.0301169
-0.008557 0.225872 0.482766
0.144313 0.182147 0.391206
0.0268526 0.223698 0.51799
-0.249286 0.0434551 0.372754
0.0802616 0.0204351 0.103578
-0.0448548 0.172653 0.38055
0.0499792 0.177729 0.444174
0.0348725 0.07071 0.0889091
0.0678746 0.236271 0.782448
0.0104496 0.0359887 0.233167
0.150725 0.191383 0.464431
-0.104081 0.216506 0.547831
0.171406 0.062467 0.312874
-0.234666 0.0273405 0.45287
-0.203447 -0.127647 0.382816
0.110411 0.222973 0.355513
0.24384 -0.0727202 0.038126
-0.03948 -0.146039 0.328175
-0.13764 0.213123 0.421665
0.0159946 0.100134 0.306996
-0.090217 -0.110149 0.317515
-0.00224768 -0.0211101 0.413324
-0.244342 -0.0421903 0.0212635
0.0587167 -0.0432902 0.306063
-0.134209 -0.0475372 0.303411
-0.232181 0.0726869 0.573627
0.126445 -0.0488052 0.413324
0.29976 0.0206159 0.566639
0.0601555 0.172373 0.50486
-0.263843 0.00688769 0.543026
-0.138034 -0.00994115 0.328153
-0.0695473 0.189818 0.362194
-0.0102694 0.0355078 0.239856
0.144586 0.183795 0.501694
0.175238 0.00251719 0.342437
0.0710317 0.171809 0.487084
0.0880552 0.207913 0.706252
-0.16585 0.204213 0.681997
0.294711 0.075742 0.570055
-0.0213592 0.229442 0.419578
0.0586171 -0.072374 0.30082
0.261572 0.129339 0.554722
0.110487 0.253236 0.724581
0.221771 0.0121726 0.573627
-0.0826603 0.00738253 0.413324
0.0957958 -0.0173342 0.331382
-0.00836773 0.178042 0.480733
-0.191578 0.0170524 0.567049
0.237456 0.0508311 0.503802
0.142392 0.0988483 0.330661
0.0139731 0.0147182 0.413324
-0.0118613 0.182061 0.416417
-0.195485 -0.0469443 0.343615
0.0600025 0.0770455 0.312231
0.129365 -0.173893 0.396653
-0.0606203 0.0906421 0.313478
0.00538053 0.177473 0.508177
-0.120319 0.165341 0.386458
-0.0835138 0.219437 0.462009
-0.273325 0.103318 0.546395
-0.132638 -0.0536722 0.413324
-0.160418 0.197949 0.616948
-0.201416 -0.0549609 0.395385
0.132822 0.15531 0.388624
0.0589503 0.000202633 0.305578
0.151208 0.181309 0.588934
0.00978784 -0.221006 0.0787518
-0.164965 0.0179579 0.332385
0.197433 0.0713373 0.551695
0.124655 0.226855 0.612917
0.0161521 -0.0183024 0.413324
-0.146836 0.175379 0.604225
0.238274 0.0359501 0.407856
-0.151689 0.00970166 0.413324
-0.196467 0.0760862 0.37629
-0.0371199 -0.149681 0.413324
-0.130628 0.167179 0.42832
0.100356 0.0089436 0.0654773
-0.223179 0.0700073 0.541388
0.0981662 -0.116916 0.413324
-0.0347292 0.226184 0.544203
-0.104962 -0.0143041 0.322255
-0.158803 0.0327068 0.324732
0.0543533 0.12632 0.067009
0.17129 0.231514 0.0432836
0.0102872 0.0540218 0.151212
-0.135735 0.197298 0.690312
0.157647 0.263327 0.0374733
-0.160922 0.235544 0.693678
-0.149906 0.228904 0.0716054
-0.0747473 -0.182159 0.396241
0.118303 -0.088695 0.312608
0.0589866 0.134986 0.0801523
0.0644694 0.265101 0.757654
-0.153251 0.194091 0.430442
-0.0682318 0.0403065 0.413324
-0.145768 0.172773 0.553051
0.220885 0.0869186 0.573627
0.18361 0.0443496 0.313026
-0.0689106 0.220814 0.340756
0.0878436 0.243512 0.666404
-0.151005 0.249856 0.0549039
-0.0435991 0.0990091 0.413324
-0.18193 0.0539333 0.328638
-0.0175929 0.246313 0.652539
0.11347 0.202433 0.696832
0.0412014 0.22671 0.548927
-0.244614 0.0381123 0.541388
-0.0503841 -0.140782 0.413324
-0.117063 -0.0794671 0.413324
0.120923 -0.157651 0.410477
-0.202969 0.0586696 0.573627
0.0720842 0.177049 0.577308
0.100314 -0.108893 0.315835
0.000991654 0.176984 0.525113
0.265452 -0.0461064 0.0803946
0.0935986 0.197395 0.67207
-0.234582 0.0929242 0.573627
-0.128391 0.247218 0.787557
0.0040275 -0.254899 0.0432015
-0.131755 0.0337708 0.413324
0.0333361 0.158272 0.337844
0.00807664 -0.124775 0.413324
0.150534 0.238355 0.0333939
-0.0606062 0.179802 0.409418
0.142752 0.0476491 0.311231
-0.199086 -0.0101797 0.555446
0.172524 -0.0251181 0.405586
-0.057706 0.196741 0.659852
-0.14512 0.226663 0.632234
-0.146091 0.183209 0.530559
0.0206238 0.247379 0.659233
0.0109001 0.132007 0.31839
0.129617 0.183671 0.641594
-0.139826 0.220287 0.769169
-0.230008 0.0367664 0.497063
-0.0432128 -0.10156 0.305435
-0.0777077 0.200344 0.678369
0.0227287 0.197004 0.65161
0.233218 0.00201268 0.573627
-0.00161718 -0.239219 0.0667594
-0.0638603 0.0615267 0.413324
-0.107304 0.172235 0.42737
0.00796397 -0.0172979 0.102629
-0.0976017 0.256566 0.733624
0.114295 -0.0434366 0.332528
0.152601 0.1958 0.412838
-0.169918 0.0928754 0.409549
-0.21853 -0.0237158 0.069391
-0.00935777 0.0397363 0.0134515
0.10238 0.0428478 0.330246
-0.207298 -0.0524116 0.373959
-0.0889544 0.190405 0.646063
-0.08614 0.217695 0.477057
-0.240012 -0.0491026 0.54831
-0.00865126 -0.0354112 0.0937129
0.0217911 0.021754 0.0709544
0.0945718 0.123094 0.413324
0.0902172 -0.178917 0.399481
-0.156513 0.239825 0.00954744
-0.243092 -0.0459705 0.00463236
-0.0439411 0.201502 0.672415
-0.0211972 0.041154 0.198266
-0.0960264 0.221563 0.419288
-0.247958 -0.0414297 0.0899047
-0.0648666 0.211433 0.712529
-0.164395 0.209222 0.704037
0.129798 -0.113857 0.32814
-0.00174716 0.232428 0.379925
0.279203 -0.0403405 0.570369
0.276996 -0.00621932 0.545706
-0.149293 -0.177402 0.356457
0.0251612 0.0868945 0.0731819
-0.0486717 0.220544 0.7407
-0.0224956 0.14098 0.412805
-0.0103153 -0.242977 0.00152214
0.0528549 0.108716 0.0661322
-0.0987684 0.21391 0.486197
-0.0809972 0.078765 0.328158
-0.107586 -0.00937867 0.413324
0.151809 0.0364647 0.328603
-0.0760731 -0.107393 0.413324
-0.16746 0.243715 0.0440561
-0.122127 -0.184385 0.383304
0.157666 0.130483 0.391758
0.164834 -0.147478 0.400533
-0.0250764 0.252381 0.685748
0.170584 -0.00954208 0.406585
0.154577 -0.00980448 0.328182
0.0817684 0.227027 0.351752
-0.0289742 0.0333588 0.11101
0.0491278 0.0135029 0.0813645
-0.0849958 0.224833 0.764975
-0.145933 0.194448 0.492266
0.0381155 0.191852 0.627723
-0.245526 0.0290291 0.393491
-0.031388 -0.0592675 0.413324
0.144529 0.114788 0.408982
-0.0711254 -0.0782924 0.314843
0.145463 0.265167 0.0295339
-0.046512 0.0895792 0.0701138
-0.0611503 0.172349 0.543612
-0.0288463 -0.0211237 0.286803
0.0078712 -0.178907 0.0674522
0.143274 -0.0467444 0.413324
-0.0587275 0.0280122 0.297025
0.104121 0.216069 0.740185
0.000326373 0.25439 0.690504
-0.214051 -0.0319178 0.0937691
-0.162812 -0.0615061 0.413324
-0.101989 -0.118313 0.328145
-0.0511465 0.240685 0.631261
0.0168795 0.0515372 0.195628
0.168957 0.212155 0.684544
-0.181763 -0.0963922 0.333874
0.0963874 -0.164701 0.334293
-0.0959489 0.0427256 0.413324
0.285172 0.0940544 0.548743
0.24473 0.126462 0.573627
0.149709 0.179357 0.572806
0.0452432 0.010921 0.413324
0.241544 -0.081317 0.0222544
0.0201104 0.0874418 0.413324
-0.0806465 0.00515712 0.322265
-0.0861008 0.226135 0.351139
-0.0879238 0.17219 0.0929189
0.0788057 -0.0647172 0.323346
-0.00777288 0.237288 0.598762
-0.100011 -0.0556063 0.413324
0.0899166 0.244891 0.787281
-0.00533589 0.184966 0.396142
0.0263876 0.0416228 0.0787233
-0.00846582 -0.0631702 0.0740055
0.0774141 0.186327 0.619281
0.179621 -0.143121 0.377255
-0.116964 0.0568192 0.310571
-0.205409 -0.0171091 0.373451
0.164652 0.0195711 0.40843
-0.123129 -0.0141539 0.32979
-0.233834 0.0262738 0.524932
0.159409 0.127402 0.352541
-0.000217077 -0.111823 0.10137
0.0240385 0.0609596 0.286803
0.244593 0.0691966 0.573627
-0.147415 0.258905 0.020482
-0.0469409 -0.175378 0.403727
-0.164185 -0.00960126 0.0960743
-0.201131 0.0299384 0.375956
0.16714 -0.128913 0.408499
-0.216214 -0.0442373 0.555371
0.0979565 0.166649 0.559327
-0.253711 -0.019903 0.573627
-0.110311 0.232495 0.628224
0.196343 0.0550329 0.549181
-0.0872207 -0.0197937 0.413324
0.141466 0.199967 0.535183
0.0634551 0.226157 0.419874
-0.0071596 -0.138081 0.0932204
-0.0783621 0.164779 0.399082
0.0350928 0.0248412 0.413324
-0.255175 -0.0700793 0.0170848
0.12636 0.199992 0.0674228
-0.0181228 0.128228 0.317062
0.0500209 0.239829 0.626054
-0.0702707 0.221928 0.448723
0.15674 -0.097348 0.331362
0.266966 0.0479753 0.573627
-0.195503 0.0768016 0.555446
0.260574 0.0832172 0.573627
-0.146836 -0.0250704 0.413324
-0.0593881 0.0832398 0.32814
0.165011 0.250391 0.0580398
-0.0800652 0.219613 0.538036
0.155963 -0.102944 0.41277
-0.0514741 0.0308106 0.0780795
0.0790385 0.0499403 0.329988
-0.163605 -0.165076 0.399166
-0.020752 0.0796627 0.413324
0.131892 -0.00425989 0.102655
0.0382729 0.230852 0.39954
-0.251343 0.0313883 0.408406
-0.0457801 0.0808079 0.413324
-0.100307 0.162639 0.539136
0.114987 0.0732974 0.329035
0.257835 0.0280521 0.536635
-0.20113 -0.0248108 0.39411
-0.104836 0.196606 0.0693626
0.00188099 0.0278723 0.199621
-0.00257564 0.179862 0.557998
0.143553 0.196623 0.689848
-0.00763479 0.225245 0.498458
-0.0488365 0.17841 0.569599
