0.05878 -0.0359561 0.304475
-0.165526 -0.13585 0.33219
0.149597 -0.0452818 0.413324
0.0388628 -0.083974 0.413324
-0.148077 0.19138 0.483533
0.0230493 0.0548769 0.0945624
0.132654 0.145169 0.400282
0.0748377 -0.0846372 0.413324
0.0935261 0.247732 0.78666
0.0396476 -0.0231555 0.287125
-0.291318 0.0915923 0.564338
-0.233768 0.029376 0.456311
0.0260929 0.0756053 0.286803
0.105481 0.211735 0.512354
0.076929 0.0234984 0.0923754
0.268696 0.0664776 0.573627
0.0111214 0.0376252 0.269742
0.152082 -0.114328 0.413324
-0.296813 -0.00503076 0.556459
-0.00372892 0.126132 0.316301
0.183611 -0.00793523 0.349608
0.148777 0.0343074 0.4126
-0.066142 -0.00465686 0.413324
0.227324 0.0590033 0.541388
0.105567 0.0990795 0.328629
0.00394767 0.0608337 0.0473947
-0.0790751 0.168353 0.533709
0.114813 0.112739 0.330707
0.119866 -0.16267 0.408934
-0.00635973 0.082386 0.30067
0.0496118 -0.0142962 0.286803
-0.019592 0.0267302 0.117787
0.247841 0.0455227 0.383424
-0.169098 0.208911 0.683634
-0.0489572 0.1732 0.376546
0.0761673 -0.0495876 0.329697
-0.0805473 0.230677 0.595778
-0.103545 0.107164 0.413324
-0.208305 -0.0677636 0.373047
-0.0175978 0.0231439 0.0651885
-0.229473 0.0375537 0.520199
0.259325 0.0363199 0.427598
0.0647711 0.228445 0.382468
-0.0291412 0.225608 0.458345
0.0414756 0.191522 0.627005
0.0984526 -0.0646761 0.329634
-0.0155823 0.258934 0.715673
-0.0408758 0.188102 0.61056
-0.112372 0.0726983 0.310689
0.0284985 0.0910919 0.0706602
-0.0348902 -0.0949719 0.413324
0.241434 0.0448247 0.389548
-0.0126798 0.185544 0.392566
-0.276826 -0.0550327 0.00197885
-0.0450501 0.189859 0.369019
-0.0972039 0.0632189 0.310519
-0.114986 0.16526 0.574208
-0.10061 -0.0661451 0.314409
0.000643656 -0.0627157 0.0652358
-0.0975056 0.203526 0.34805
0.121859 0.0528124 0.328173
-0.12078 0.0690296 0.327211
-0.083378 0.213113 0.723656
0.151741 0.219305 0.613379
0.266469 -0.0706389 0.00529142
0.137464 -0.0828671 0.31781
0.290776 -0.00897581 0.552203
0.152615 0.188655 0.44938
-0.0127412 0.0260309 0.197885
-0.114358 0.125114 0.413324
0.0281603 0.0637537 0.0764428
-0.0587673 0.235218 0.60602
0.149391 0.238603 0.0334612
0.00992368 0.0131714 0.067648
-0.0318993 0.223416 0.504472
-0.143138 0.195527 0.525958
0.0356383 -0.052692 0.292873
0.168692 0.210721 0.677485
-0.149973 0.240472 0.698839
-0.0572124 -0.025449 0.289491
-0.00440959 0.0558893 0.198002
0.10697 0.129193 0.332501
-0.0350677 -0.18689 0.3633
-0.29585 0.0224515 0.554007
0.134116 0.189554 0.666037
0.184981 0.0474634 0.313056
0.0346423 0.0827175 0.109546
-0.0562319 0.172716 0.507421
0.0585089 0.0635017 0.290801
-0.250911 0.021125 0.540584
-0.119742 0.193778 0.0941573
-0.203219 -0.00985857 0.359646
-0.17499 -0.0830847 0.332176
-0.00628077 -0.199072 0.08887
0.154751 0.134847 0.360992
-0.00236376 0.0492726 0.273068
0.0387721 0.165218 0.398868
-0.0533599 0.171613 0.387932
-0.286814 -0.00457711 0.573627
0.144001 0.202632 0.464121
-0.0127749 0.0260034 0.195271
0.146508 0.256451 0.0139888
0.0622813 0.263404 0.775657
-0.145463 -0.125 0.328167
0.0170717 0.191279 0.620444
0.0624419 0.193832 0.647667
0.151618 0.230823 0.0176009
0.0169063 -0.150078 0.413324
-0.121554 0.227636 0.61347
-0.165504 -0.0646796 0.413324
-0.0147306 0.242421 0.629814
0.141099 0.100096 0.328182
0.151239 0.181498 0.430077
-0.129722 0.237564 0.788296
-0.253237 -0.0477514 0.548212
-0.0638207 0.251688 0.695029
0.239929 -0.0289537 0.079774
0.194716 -0.00528581 0.564834
0.00305729 -0.0487246 0.250775
0.123543 -0.134458 0.328167
-0.158034 0.231343 0.669072
0.0352451 -0.112756 0.327415
0.298185 0.0617071 0.568335
-0.08512 0.168547 0.39417
-0.0293282 0.0775008 0.111712
0.0817917 0.0434139 0.314782
0.108788 0.029396 0.327387
-0.18835 -0.0127836 0.0745488
0.0359225 0.229473 0.413615
-0.276639 -0.037942 0.0187001
0.0710325 0.243305 0.656349
0.0160821 -0.151574 0.413324
-0.101068 0.16287 0.495812
-0.0950178 -0.0650691 0.316157
-0.0217321 0.0346651 0.0358107
0.0902311 -0.109068 0.316389
0.164642 0.096615 0.402168
-0.275254 0.0903472 0.5439
0.26975 -0.0225618 0.573627
-0.0132494 0.0237283 0.0594298
0.0954512 0.0961704 0.32883
0.125178 0.0598433 0.327083
0.173395 0.00426482 0.340877
0.0434099 0.224473 0.753286
0.0688431 0.216804 0.732622
0.085411 0.14075 0.0790287
0.145086 0.256037 0.0396231
0.167445 0.24843 0.043023
0.00267021 0.235337 0.586656
0.184231 -0.1099 0.346449
-0.0998088 -0.0976032 0.313868
-0.137862 0.106529 0.413324
-0.0259857 -0.105153 0.308137
-0.00751305 0.266032 0.748493
0.181541 0.0591456 0.36723
0.00813885 -0.0239096 0.0756412
0.163084 0.104343 0.399946
0.121737 0.2133 0.454767
-0.196929 -0.00450491 0.570609
0.164096 0.223604 0.036699
0.0114105 -0.225559 0.0226449
-0.120234 0.246057 0.787704
-0.127449 0.0701903 0.328173
-0.00784568 -0.0487171 0.0692367
-0.103044 0.162561 0.492794
-0.0382894 0.0805699 0.287734
0.116549 0.212637 0.53894
-0.0211604 0.00144609 0.286803
0.146382 0.235467 0.0416327
-0.105216 -0.0209406 0.322255
-0.154216 -0.162819 0.405028
0.106548 -0.00884675 0.413324
-0.0717394 0.00691045 0.101419
-0.0881963 0.2446 0.673342
0.0168885 0.190076 0.372939
0.0599472 0.0836843 0.309402
-0.0591055 0.177792 0.426261
0.148517 0.0472767 0.327113
-0.122411 0.00462062 0.0999704
0.120353 0.249227 0.712332
0.0923034 -0.162911 0.410507
0.211492 -0.0325438 0.0638181
-0.0908167 0.179625 0.0825835
-0.166946 0.0812945 0.33411
-0.0725345 0.124016 0.0766297
-0.146385 0.238416 0.685023
-0.297199 0.0409875 0.555446
0.0148251 0.027237 0.413324
-0.103084 0.196486 0.0768343
0.149831 0.266167 0.0260009
0.05331 -0.169576 0.408448
-0.0566577 -0.0892225 0.413324
0.0438576 0.22547 0.338882
-0.0119716 0.0196534 0.0452609
-0.129407 -0.0832438 0.315847
0.105551 0.190024 0.653002
-0.210737 -0.0363804 0.0647163
0.129096 0.232594 0.0825694
0.0301929 0.125037 0.315886
-0.0222735 0.137911 0.322032
-0.218193 -0.0367489 0.573627
0.0267599 0.0637734 0.0675805
0.161863 0.0864627 0.406539
0.0264349 -0.0540418 0.293132
-0.131627 -0.0560573 0.30638
-0.142915 0.263766 0.0324381
0.22077 0.126737 0.555446
0.0200788 0.17752 0.54683
0.104119 0.0400327 0.413324
-0.0296642 0.23122 0.35354
-0.00697735 -0.244584 0.0342402
-0.184229 -0.0136081 0.0911899
0.0403941 0.222149 0.512016
-0.255256 0.0263039 0.44999
0.147736 0.191355 0.481757
-0.105438 -0.00951517 0.322255
0.033283 -0.0384019 0.29009
-0.0675395 0.118195 0.0707404
-0.233217 -0.0687403 0.0050071
-0.162131 0.212967 0.72385
-0.045704 -0.0069804 0.413324
-0.05949 0.102169 0.324241
0.212958 0.115742 0.569417
-0.240447 0.0451924 0.357532
0.0609753 0.1802 0.582698
0.272361 -0.0632347 0.00157484
-0.277249 -0.0277045 0.573627
0.042981 0.180336 0.423445
0.103171 0.214095 0.529257
-0.00172893 -0.041164 0.290362
0.0133597 -0.22284 0.0307847
-0.00717707 0.232148 0.361519
0.100347 0.187502 0.639233
-0.132823 -0.0798217 0.320777
0.203168 -0.0181945 0.0875007
0.0277511 0.237544 0.605644
-0.0819714 0.137435 0.328164
-0.108379 0.0878004 0.328785
-0.157934 0.243007 0.0457969
0.105543 0.248655 0.700286
-0.247124 0.0296561 0.407604
0.150017 0.250616 0.0541182
0.0770613 0.234147 0.611538
-0.0743516 0.0230314 0.0728311
0.0453548 0.183424 0.588555
-0.0655569 0.115179 0.0725525
-0.152344 0.19845 0.570719
-0.229167 -0.00758825 0.54431
0.142847 0.0575139 0.328182
-0.184361 0.0620863 0.325475
-0.151148 0.255823 0.0501453
-0.272311 0.108615 0.573627
0.145251 0.266453 0.0244476
0.0967652 0.0693783 0.329567
-0.183849 -0.078402 0.334715
-0.113848 0.220902 0.383956
-0.288274 -0.0192038 0.571203
-0.0253153 0.00389085 0.413324
-0.00492586 -0.187026 0.364779
-0.187483 0.0906495 0.3465
-0.115998 0.000935571 0.330164
-0.239544 0.0426592 0.394201
0.0525605 0.107309 0.309538
0.0366777 -0.0302491 0.288505
-0.154506 0.252291 0.02871
-0.13749 0.22571 0.0929627
-0.00197125 -0.0725038 0.104051
0.0276408 0.267388 0.759754
-0.264479 -0.0537062 0.033178
-0.0973589 0.168093 0.392876
0.00979975 -0.0772856 0.0872448
-0.249722 -0.0762212 0.0378702
0.191115 -0.112629 0.380946
0.112199 0.083936 0.327552
0.227956 0.0375654 0.539315
-0.287339 -0.000722827 0.547427
-0.140523 0.183683 0.652321
-0.0592288 0.0595615 0.298385
-0.0177112 0.0521681 0.0386352
0.158789 0.191449 0.619978
0.0819066 0.143767 0.0998316
-0.2243 0.00941087 0.573627
0.281296 0.0408289 0.573627
-0.181257 0.256333 0.0281065
-0.174856 -0.0966103 0.412047
-0.0529195 0.174807 0.46921
0.0780319 0.0220463 0.0760911
-0.00144935 0.177929 0.499882
0.190435 -0.0232848 0.0962562
0.00768148 -0.237106 0.0776698
0.0168833 0.0345731 0.0258404
0.0676944 0.21941 0.519551
-0.0257944 0.090184 0.0902259
-0.155156 -0.138081 0.413324
-0.103138 0.025243 0.413324
-0.0412082 0.176189 0.481956
-0.0767456 0.258675 0.733981
0.25935 0.0994796 0.573627
-0.251692 0.0722556 0.541388
0.0168925 -0.257306 0.0416078
0.268914 -0.0365073 0.029851
0.146082 0.209149 0.378071
0.0397557 0.135401 0.332831
-0.0383125 0.215961 0.342831
0.059135 0.241278 0.638541
0.0212118 0.250885 0.677277
-0.140401 0.209327 0.558027
0.00240705 -0.0322575 0.270392
-0.00485081 -0.181073 0.397294
0.14943 0.071253 0.333788
0.170955 -0.00324548 0.338065
0.0101565 0.0183376 0.0523615
0.0736261 -0.0882951 0.413324
0.231188 0.0362348 0.532382
-0.179065 0.221709 0.0275574
0.00578319 -0.0292164 0.265141
-0.14977 0.253816 0.778328
0.0145714 0.226027 0.469891
-0.145869 0.185022 0.497462
0.0547964 0.0819034 0.413324
-0.0601672 0.050811 0.323137
0.165967 0.0727494 0.403817
-0.0999641 0.190309 0.0701675
-0.169867 0.253322 0.0399431
-0.0506705 -0.155663 0.330761
-0.178304 -0.0519798 0.410491
0.0442125 0.224674 0.459418
0.0586527 -0.0476606 0.315499
-0.126765 0.0476328 0.310531
-0.255448 -0.0682119 0.0139701
0.234114 0.0484446 0.354037
0.132643 -0.0536677 0.413324
0.115362 -0.0125148 0.331319
0.0614485 0.220021 0.506375
-0.0641504 0.249349 0.683953
0.0415958 0.178935 0.439007
0.23119 0.0352214 0.528128
-0.091214 0.166224 0.548476
-0.0635358 0.172695 0.55369
-0.234392 0.00923452 0.573627
0.155788 -0.00263876 0.333487
0.114053 -0.0851213 0.413324
-0.16294 0.0782508 0.333286
-0.151725 -0.0209739 0.0853102
-0.231717 0.0355553 0.428381
0.151116 0.0316635 0.411972
0.0244733 -0.230827 0.0209429
0.0538609 0.173659 0.501215
-0.192136 0.0581672 0.565195
-0.16915 0.254829 0.0325114
0.117443 0.0497644 0.310503
0.168738 0.266287 0.0256952
0.225872 -0.0400739 0.0893561
-0.188238 -0.136502 0.342492
-0.141099 0.1698 0.51366
0.0164655 0.09266 0.304325
0.135372 0.112576 0.328182
0.0775687 0.147699 0.0646667
-0.0800331 -0.0705516 0.314845
-0.200745 -0.137574 0.372937
0.0367385 0.251154 0.681489
-0.0241181 0.262689 0.735394
0.0974242 0.0160901 0.0966072
0.178797 0.0264105 0.347879
0.204324 0.00311546 0.573627
-0.0822242 0.212384 0.720801
-0.289338 0.0441577 0.573627
-0.129919 0.00364716 0.0663422
0.125977 0.0684528 0.413324
0.149505 0.197211 0.560179
-0.236753 0.103015 0.543589
0.136417 0.177386 0.626556
0.0644835 -0.0527659 0.413324
-0.00902337 0.178889 0.452102
0.254393 0.0886256 0.541388
-0.00956188 -0.0982614 0.0819797
-0.0092716 -0.0787221 0.29719
0.1679 0.0465857 0.311151
-0.0719731 0.182645 0.605592
0.122491 0.0337121 0.329594
-0.136414 0.211341 0.0862644
0.00946889 -0.0812043 0.0894405
-0.0958592 0.173776 0.586574
0.0524658 0.125536 0.0777558
0.0758546 -0.166557 0.334533
-0.179568 -0.164186 0.361878
0.0864809 0.162031 0.345282
0.0422008 -0.0114529 0.413324
-0.145333 0.193447 0.364243
-0.116511 -0.00645777 0.0662907
-0.0473256 0.097796 0.107222
-0.0111245 0.116613 0.312906
-0.0355095 0.227486 0.763686
0.115348 0.156666 0.398046
-0.0282705 0.252842 0.786449
0.0276121 0.0219798 0.0692478
-0.0829889 0.193668 0.65763
0.189519 -0.111799 0.391759
-0.017914 0.0360231 0.188809
-0.0175818 0.0341596 0.0400399
-0.020868 -0.241411 0.0425985
-0.251292 -0.0675259 0.043806
-0.141399 0.245815 0.0668712
0.117693 -0.00281166 0.330495
-0.136418 0.206217 0.533933
-0.123354 -0.0353154 0.330523
0.286973 -0.032713 0.559421
0.00702489 0.215453 0.717987
0.0753617 0.150977 0.409004
0.0475506 0.209945 0.702321
-0.106054 -0.113046 0.323603
-0.0873632 -0.118014 0.328144
0.0161281 0.0251587 0.031267
0.243446 0.106746 0.54383
0.105702 0.261629 0.768954
0.151139 0.0413431 0.311797
-0.0190312 -0.079534 0.413324
0.121106 0.189704 0.0813379
0.193333 -0.0252306 0.095142
-0.13849 -0.182157 0.376565
0.135403 0.0482332 0.310689
0.139725 0.169486 0.513849
0.0163005 0.180075 0.436054
0.162128 0.205186 0.628488
-0.095476 0.0675342 0.327034
0.105025 0.0856786 0.310764
0.00448508 -0.0837407 0.0654045
0.0530349 0.0173234 0.0668564
-0.18164 0.232953 0.010377
-0.18606 -0.0973473 0.408933
-0.118387 0.0494301 0.329306
-0.0213721 0.228756 0.426099
0.142668 0.222675 0.0358569
-0.186388 0.0325503 0.318643
-0.0823393 0.140076 0.0662186
0.0181613 -0.112795 0.315674
0.240128 0.0654974 0.541388
-0.236123 -0.0297558 0.0831873
-0.0302694 0.231175 0.358737
0.0991887 -0.161548 0.410535
0.134836 0.238271 0.0676793
-0.156977 0.203087 0.594752
-0.0383379 0.175181 0.516382
0.0138218 -0.256098 0.00456368
-0.177415 0.117929 0.348438
-0.0119033 0.191283 0.367723
-0.0126849 0.232296 0.571523
-0.0344545 0.239988 0.62093
-0.0877334 -0.171048 0.408048
0.219331 0.0882792 0.542629
0.118679 0.158994 0.506276
-0.229776 0.0621276 0.573627
-0.00934177 -0.135901 0.0766997
0.0684969 -0.141745 0.328173
-0.135839 0.176427 0.624939
-0.145444 0.176697 0.526529
-0.121146 0.100429 0.32818
0.132542 -0.0708062 0.322252
-0.145083 0.0318326 0.413324
-0.132961 -0.073373 0.318532
-0.0309585 0.176935 0.547348
0.0201087 0.0319165 0.286803
0.0537569 -0.0222805 0.286961
0.0442474 0.192237 0.631553
0.031781 0.1719 0.387078
0.232714 -0.0636837 0.0067737
-0.173314 -0.168581 0.387189
0.0209837 0.262559 0.781056
0.0204337 0.239591 0.615418
0.204376 -0.00406267 0.573627
-0.100588 0.164592 0.480662
-0.243566 -0.047765 0.0433325
-0.0682192 0.185549 0.379269
-0.137706 0.183875 0.372982
0.116186 0.211954 0.532886
0.139257 -0.0648338 0.322268
0.121069 0.139072 0.335155
-0.110769 -0.0316394 0.322253
0.00847103 -0.100696 0.0943969
0.141439 0.171347 0.502047
0.0596428 0.221468 0.746655
-0.00658691 0.0638102 0.286803
0.0167593 0.0904853 0.303548
0.219442 0.037192 0.538629
-0.080523 0.226683 0.362593
-0.194531 -0.144506 0.363589
0.280725 0.0596308 0.573627
-0.097593 -0.102398 0.413324
0.0485183 0.106171 0.309134
0.0925534 0.221219 0.430269
-0.0124222 -0.0532371 0.413324
-0.145257 0.228612 0.0643305
-0.206524 -0.0419293 0.368963
-0.0066252 0.159109 0.405177
0.131146 0.0480374 0.310553
-0.11829 -0.100016 0.322175
0.0775059 0.214036 0.725028
-0.243573 0.0519387 0.480263
-0.221674 -0.0580914 0.561657
0.119531 0.114744 0.413324
-0.0233389 -0.253507 0.0290645
-0.24249 0.0228465 0.491983
-0.0183471 0.171747 0.356545
0.262235 -0.0803265 0.0292879
-0.10933 0.210923 0.510804
0.0861359 0.172327 0.0916337
0.0417099 -0.0952864 0.413324
0.161877 -0.122966 0.328563
0.0866665 0.217795 0.48463
-0.0596113 0.225629 0.426396
-0.0240829 -0.0517202 0.292275
-0.0548671 0.231113 0.581354
-0.175545 0.0527969 0.326677
-0.098409 0.156429 0.339164
-0.121955 0.18007 0.629956
-0.141155 0.0519681 0.32817
-0.131672 -0.0881243 0.323668
-0.00462484 0.0668329 0.286803
-0.20383 -0.0315119 0.356114
0.0092653 -0.199201 0.0716891
-0.199742 0.0304128 0.360095
0.0432202 0.190206 0.62106
0.234314 -0.0607929 0.0425106
0.203847 -0.0201043 0.0651723
-0.00468703 0.251805 0.678672
0.0769979 -0.0427104 0.413324
0.106708 0.161914 0.49818
0.138083 0.119818 0.410246
-0.0453422 0.0503475 0.286803
0.0903809 0.18386 0.617819
0.0512604 0.255587 0.706521
0.0596819 0.113173 0.413324
-0.117896 -0.170322 0.407305
-0.0822594 -0.0045782 0.413324
-0.0526119 0.172388 0.523218
-0.0753123 0.223177 0.431926
-0.182298 -0.0605676 0.409481
0.134921 0.192415 0.674155
0.116048 0.209645 0.723075
-0.0363704 -0.0818976 0.298179
-0.277743 -0.0746737 0.0272298
0.144512 -0.0853257 0.328142
0.150803 0.00352402 0.41279
0.0158811 0.172195 0.384738
0.101271 -0.176463 0.400393
-0.0736636 0.223653 0.75796
-0.0564712 -0.125333 0.413324
0.0167503 0.0412899 0.198322
-0.118617 0.0971123 0.413324
-0.0343016 0.258031 0.714855
-0.161551 0.119966 0.408234
0.153325 0.20041 0.696391
-0.266079 -0.0493383 0.0391355
-0.226442 0.111302 0.573627
0.0872622 0.0798699 0.329385
-0.234766 -0.015242 0.573627
-0.0423058 0.0965613 0.0657521
-0.187559 -0.101941 0.335423
0.0514419 0.0136502 0.413324
-0.104445 0.0979038 0.328399
0.147294 -0.172246 0.36084
-0.0399329 0.094174 0.304914
-0.161696 0.199651 0.686732
0.0510253 0.185789 0.385785
0.00587322 0.183028 0.407694
0.256165 0.0486436 0.445976
-0.135844 0.185512 0.366368
-0.0567656 0.146346 0.334592
0.0587683 0.0533802 0.294269
0.0243716 0.0596315 0.070556
-0.132126 -0.064614 0.309359
-0.0401545 -0.166934 0.409407
0.0325696 -0.0407452 0.290546
0.297743 0.0706257 0.558876
-0.0591241 0.0285291 0.0793469
0.116612 0.219901 0.758064
-0.0625398 0.172303 0.489602
0.113723 0.209682 0.0717689
-0.0503702 -0.147141 0.413324
-0.00553944 0.020632 0.12762
0.262015 0.109064 0.545006
0.151148 0.260577 0.0484959
-0.137624 0.142434 0.40858
-0.197425 0.0690193 0.554259
-0.127405 0.0266349 0.327245
-0.299822 0.0279157 0.555446
-0.0274722 0.182374 0.4072
0.018655 0.0490025 0.0340761
-0.0187476 0.0740379 0.108475
0.2308 0.0385577 0.44627
0.0585569 -0.0603936 0.310536
0.0298699 0.171843 0.356546
-0.020044 0.000104176 0.413324
0.0902786 0.000261514 0.0909207
0.00699941 0.0181488 0.286803
0.228588 -0.0456964 0.0765293
-0.0897663 0.0418471 0.327352
-0.00510505 0.223282 0.745731
0.0114592 -0.251839 0.0401334
-0.291475 0.0124108 0.573298
-0.239211 0.0418575 0.395129
0.286407 -0.0343509 0.564995
0.0274847 0.181435 0.572668
0.0106911 0.262168 0.782398
0.089096 0.2172 0.738643
0.0494468 0.249723 0.677612
0.128237 -0.0886746 0.316724
0.0142656 0.0622619 0.286803
0.130979 0.0318891 0.310404
0.0444816 0.161491 0.341196
0.0520021 0.256097 0.709277
0.209812 0.0147067 0.573627
0.228134 0.072093 0.541388
0.147763 0.200512 0.561622
0.001123 -0.0921957 0.0647143
-0.027731 0.262168 0.781206
-0.0070304 0.211185 0.3449
0.0966288 -0.0662486 0.413324
0.0742806 0.0309319 0.413324
0.151545 -0.0508071 0.328169
0.237984 0.0353833 0.380928
-0.100865 0.187011 0.362011
-0.010506 0.041253 0.239911
0.255824 -0.0251234 0.573627
0.17009 0.247058 0.0422828
0.00632499 0.0443668 0.198327
-0.120791 0.208045 0.0941331
0.0818619 0.113252 0.413324
0.250734 0.0381632 0.365808
-0.273423 0.116701 0.553527
-0.108481 -0.00484183 0.0707374
-0.0932776 0.180911 0.087186
0.16337 0.0340938 0.313265
-0.100503 -0.187147 0.379734
0.143057 -0.00223025 0.330861
-0.0226585 0.000775672 0.413324
-0.15752 0.247627 0.0501828
0.0905948 0.225648 0.768238
0.0622832 0.0637161 0.328569
-0.112076 0.212146 0.475701
-0.10327 0.164104 0.479891
-0.0981831 0.171062 0.0640908
-0.11577 0.162476 0.471485
0.25146 0.0226873 0.573627
0.141925 -0.158268 0.407752
0.0964262 0.204308 0.695857
-0.106954 0.0592729 0.329338
0.024328 -0.256844 0.0201541
0.106398 0.19885 0.0918381
0.130101 0.206981 0.507933
0.147124 0.0633237 0.325946
0.25552 0.0497935 0.487225
-0.160565 0.0646638 0.332537
0.165147 -0.0135633 0.409017
-0.105223 0.0140316 0.0799036
-0.239655 0.051237 0.531892
0.00407548 0.231535 0.407071
0.252724 -0.0154032 0.544923
-0.245729 -0.0398632 0.0368662
-0.0467365 0.0914228 0.105376
0.171315 0.0456569 0.31138
-0.113639 0.00977644 0.330978
0.17557 0.0386379 0.34596
0.0554908 0.0300452 0.0833612
-0.012964 0.0513274 0.188308
0.146529 0.231872 0.654321
0.158189 -0.0844975 0.328165
0.251267 0.0250254 0.486389
0.164965 -0.119165 0.330193
0.0384562 0.180616 0.422936
0.0929641 0.118059 0.413324
0.166116 -0.00999004 0.0649201
-0.254696 -0.075544 0.0385266
0.0800052 0.0415664 0.330066
0.0934892 -0.0920315 0.314355
0.23105 -0.0436952 0.0871196
0.236097 0.0708124 0.541388
-0.26083 0.0355398 0.506395
0.241035 0.0252733 0.445249
-0.0843526 -0.0260309 0.413324
-0.156778 0.240612 0.0859953
0.249557 -0.0107386 0.573627
-0.195374 -0.121026 0.343748
0.151673 0.251094 0.782713
-0.0379886 0.175308 0.515278
-0.176368 0.252137 0.0406665
0.103434 0.114642 0.413324
-0.000276573 0.173622 0.369757
-0.00273477 0.185245 0.586467
-0.138646 -0.0152188 0.0750438
-0.0925804 0.149251 0.0818441
-0.0944083 0.25045 0.703376
0.110088 0.0116115 0.0976544
-0.0829656 0.10819 0.413324
-0.146774 0.156845 0.392891
0.0590382 0.191605 0.358805
0.16557 0.0364354 0.325066
-0.140928 -0.128944 0.328168
0.00162749 0.208024 0.690867
-0.00764699 0.232148 0.378444
0.163156 0.253239 0.0151076
-0.117644 0.19205 0.0948188
0.0513311 0.229918 0.363169
-0.14308 -0.150491 0.331866
-0.0498557 0.233634 0.777488
0.0538269 0.211011 0.345005
0.118219 0.202246 0.698273
-0.201816 0.0285531 0.372365
-0.133901 0.180084 0.636429
0.137245 0.0900677 0.413324
-0.0680817 0.226374 0.410926
-0.0721007 0.0869474 0.413324
0.0842301 -0.184322 0.393482
-0.045229 -0.0228834 0.413324
0.22771 -0.0259032 0.0842716
0.0900061 0.198739 0.350227
0.0945471 0.0704318 0.310567
-0.098622 -0.116235 0.328142
0.133279 0.240739 0.684082
-0.127117 -0.0498114 0.413324
-0.124587 0.194216 0.0751494
-0.0670102 0.261193 0.741552
0.0243501 0.171952 0.357412
-0.113882 -0.0613016 0.413324
-0.0472075 0.0138023 0.0951211
0.0234347 0.192364 0.36234
-0.018109 0.0552667 0.0651527
0.157856 0.112624 0.34278
0.00369574 0.0201114 0.0668354
-0.0108941 0.0618448 0.112654
-0.100214 0.0404289 0.413324
0.256539 0.0474336 0.438609
0.0320971 0.186403 0.598794
-0.060036 0.0890627 0.323311
-0.0230098 0.173476 0.374942
0.128489 0.101491 0.328182
-0.00794579 0.0637513 0.413324
0.287062 0.0707127 0.573627
0.145794 0.217939 0.0224548
-0.0137333 0.235063 0.587579
-0.137945 0.240827 0.690483
-0.166938 0.234936 0.0443375
0.244812 0.0529344 0.449574
0.266411 -0.0438998 0.0171304
-0.0471728 -0.0538296 0.292896
0.0918725 0.178614 0.0685936
0.142521 0.198728 0.486614
0.0470695 0.179504 0.428471
0.0894404 0.26285 0.757122
-0.0110543 0.0399277 0.251625
-0.135694 0.254707 0.0105768
-0.103761 0.232001 0.620348
0.00217727 -0.109593 0.312306
0.00369954 -0.257293 0.0416435
0.238748 0.0509648 0.480968
-0.147374 0.240454 0.0386636
-0.145893 -0.141751 0.413324
0.0629129 0.0180215 0.328601
-0.0313971 0.250841 0.679569
-0.185661 -0.0787503 0.408791
0.0680903 0.189771 0.630183
-0.00675742 -0.150713 0.328177
-0.00583667 -0.185675 0.389385
0.0747646 -0.0150065 0.413324
-0.0883303 0.039166 0.311977
-0.176808 -0.133025 0.409504
0.259285 -0.0666709 0.013478
-0.194943 0.0167544 0.346889
0.209289 0.0181964 0.573627
0.114152 0.18028 0.0751798
-0.0821508 -0.187504 0.37677
-0.105408 0.177342 0.396529
-0.153059 0.17853 0.454532
0.192469 0.0483999 0.555446
-0.0830406 0.254905 0.719205
0.0674661 0.239337 0.783887
0.0629938 0.0605522 0.318058
0.106194 -0.140292 0.413324
-0.00935701 -0.0204626 0.413324
0.132919 0.234064 0.0891351
-0.00875521 -0.091633 0.0880155
0.122634 -0.116247 0.413324
0.0791149 -0.144144 0.328177
-0.0167657 0.220389 0.736493
0.281518 0.0042039 0.573627
-0.0936424 0.196443 0.670123
0.2718 0.0729352 0.573627
0.256645 0.0496991 0.50816
-0.0348864 0.165763 0.345843
-0.0374475 0.0325128 0.286803
-0.210239 0.00455795 0.545234
-0.0608729 0.226132 0.420405
0.0822414 0.00443762 0.0672268
0.0901361 -0.0646935 0.326278
-0.014772 0.0287163 0.194362
0.11784 0.0620343 0.310614
-0.207881 0.11053 0.559779
-0.0794881 -0.0397146 0.413324
0.168574 0.101014 0.396831
-0.0907034 -0.128361 0.328157
0.0327584 0.22416 0.49695
0.0657151 0.223016 0.445622
-0.0590048 0.0169403 0.300109
0.118697 0.0111173 0.413324
0.19069 -0.109259 0.387956
0.0341057 0.242404 0.634185
0.062913 0.00935224 0.0952684
-0.130149 0.224365 0.606435
0.151459 -0.169062 0.393129
-0.0740109 0.255914 0.784562
0.0104898 0.145075 0.334369
0.102391 0.187126 0.096462
-0.157909 0.242051 0.066144
-0.0293775 0.14294 0.334045
0.0176137 0.169839 0.393977
0.10098 0.208239 0.711549
0.114076 0.0736938 0.328336
-0.092011 -0.103742 0.313896
-0.0555279 0.135506 0.33288
-0.25086 0.0526739 0.539866
0.0265449 0.210864 0.345057
-0.0024667 -0.18598 0.356947
-0.0544657 0.229222 0.368435
-0.234679 0.0486551 0.501627
-0.293639 0.0816852 0.555446
-0.172479 0.234919 0.0443363
-0.0969103 0.224535 0.348702
-0.132294 -0.183048 0.37877
0.24606 -0.0403713 0.0552656
-0.188884 -0.0308057 0.0920707
-0.0849713 -0.0123844 0.413324
0.225154 0.0463168 0.541388
0.0271859 0.224615 0.493962
0.169752 0.0692458 0.318105
0.145082 0.222267 0.035463
0.219155 0.0905054 0.543179
0.292179 0.0400276 0.573627
-0.0960043 0.221759 0.417642
-0.0388451 0.159543 0.404653
-0.174983 0.258699 0.0385802
-0.164131 -0.0253067 0.0827581
-0.0276243 0.250232 0.675811
-0.167233 -0.127628 0.413089
-0.201713 -0.119557 0.394477
-0.162159 0.253032 0.048337
-0.124716 -0.136684 0.413324
0.18098 -0.134708 0.349015
-0.241708 0.132294 0.549496
0.151383 0.196022 0.684308
0.240596 -0.064898 0.0415405
-0.134012 0.233769 0.786947
-0.0329568 0.133273 0.413324
0.165838 0.040952 0.337082
0.14944 0.116676 0.337306
-0.119028 0.0770643 0.326969
-0.0712815 0.0238066 0.0990315
0.0473751 0.081613 0.300362
-0.154957 0.150396 0.359913
0.0900326 0.130943 0.413324
0.0593745 0.256886 0.7161
0.242679 -0.0792735 0.027369
0.039323 0.166124 0.346068
0.234283 0.026991 0.506921
0.0882773 0.109204 0.413324
-0.237282 0.0255332 0.462689
0.245954 -0.0530852 0.0332899
0.231766 0.0400063 0.425199
0.114278 0.0390404 0.413324
-0.0688644 0.22103 0.469339
0.0305186 0.0816527 0.0661847
0.0414946 -0.172195 0.336918
0.124813 0.244994 0.696871
0.25712 0.0276218 0.506081
-0.0164365 -0.043956 0.290865
0.0296407 0.18117 0.571942
0.103278 0.00400162 0.104959
-0.0566257 0.126808 0.101758
-0.0959394 0.0832247 0.413324
0.0679166 -0.0954037 0.314538
-0.0609602 0.263129 0.747967
-0.215337 0.0701079 0.573627
-0.0722158 0.00648356 0.0764195
-0.112741 0.258355 0.751815
0.0576376 0.0354323 0.32717
0.155029 0.194978 0.677247
0.0932509 0.216768 0.738104
0.0239974 -0.233459 0.0316874
0.00428448 0.230548 0.559792
-0.13026 -0.114482 0.413324
0.24107 -0.0373186 0.0161807
-0.0689215 -0.0776101 0.314927
-0.0441177 0.256723 0.71031
-0.154114 0.261185 0.0469342
-0.125478 -0.185001 0.370495
-0.138129 0.107221 0.328182
0.0124676 0.16514 0.34509
-0.193001 -0.118982 0.402422
-0.109051 0.211339 0.487794
0.00147022 -0.216105 0.0624854
0.164932 0.226149 0.0391275
-0.023745 0.0303521 0.0605719
-0.185836 -0.111204 0.408571
-0.220563 0.0362995 0.535421
0.0462184 0.227234 0.338782
0.132302 0.210004 0.548811
0.0819968 -0.0341108 0.413324
0.0691188 0.118846 0.0782486
-0.0803789 0.231662 0.600648
0.0201957 0.163544 0.400583
-0.011309 0.0524946 0.0385876
-0.00861422 -0.0745383 0.0898309
-0.00738079 -0.0813484 0.0675516
0.0152975 -0.250974 0.0415205
-0.064711 0.125218 0.328144
0.0537041 0.22968 0.37494
-0.241932 -0.0670881 0.555647
0.242166 -0.078838 0.0344114
-0.0757737 0.20782 0.703147
0.236379 0.0260301 0.511244
-0.114489 -0.156134 0.412495
-0.129731 0.217227 0.406152
-0.157091 0.0395547 0.413324
0.0106701 0.210979 0.702333
0.0992077 -0.105842 0.313839
-0.11694 0.2051 0.708171
-0.192759 0.0053901 0.564071
-0.00766379 -0.260432 0.036545
0.0552701 0.252852 0.78606
0.0804748 -0.11527 0.328141
0.061932 0.202471 0.679853
0.140156 0.221053 0.770382
0.145952 -0.172739 0.383422
-0.085487 0.0112017 0.0655584
0.127452 -0.0128832 0.0834074
0.0944853 0.182221 0.385514
-0.12582 -0.0847591 0.413324
0.0166661 0.0557978 0.413324
-0.26197 0.080181 0.573627
-0.0537714 0.226441 0.555999
-0.111275 0.0106331 0.0687302
-0.135966 0.17129 0.600217
0.0202567 0.177099 0.541141
0.0726781 0.0335654 0.329439
0.0344085 0.177367 0.465982
0.0555947 0.20598 0.690484
0.0093886 0.0231094 0.195361
0.173504 0.106065 0.375205
-0.181159 -0.162527 0.36442
0.276078 0.105967 0.547439
0.272897 -0.0611919 0.0436006
0.132423 0.162706 0.474348
-0.00303539 0.0212761 0.0493056
-0.0395107 0.184922 0.391606
0.248571 -0.00557164 0.573627
0.118102 0.183627 0.634206
-0.0741429 0.00780432 0.104626
0.0927976 0.166316 0.549532
0.262654 -0.0443499 0.0421816
-0.164878 0.0124364 0.413243
0.0239973 -0.245134 0.00744016
-0.209643 -0.0933667 0.373612
-0.210718 0.00593397 0.573627
0.000103387 0.18553 0.587275
-0.258866 0.0316737 0.486479
-0.150452 0.105445 0.413324
-0.112157 -0.0058363 0.0992707
0.165699 -0.161687 0.378299
-0.167071 0.25335 0.0660453
-0.219275 0.0859528 0.573627
-0.0320309 0.167831 0.348005
0.122514 -0.173492 0.34467
0.0377001 0.0362778 0.413324
0.252021 0.0338855 0.402563
-0.0954167 0.216052 0.737299
0.219483 -0.0488926 0.570928
0.174323 0.0883283 0.349651
0.185126 0.0164316 0.381706
-0.0265027 0.0616159 0.0738247
0.129202 0.0233533 0.32817
0.0982812 -0.168687 0.335716
-0.20626 -0.0183194 0.0790152
0.14022 -0.152878 0.409669
-0.0389865 0.107276 0.0801595
-0.0531969 0.222508 0.480101
-0.00061205 -0.025707 0.066153
0.0885362 0.166145 0.0645342
-0.118691 -0.0692549 0.322216
-0.0481269 0.230073 0.343933
-0.0221296 0.0382875 0.0443506
-0.285851 -0.031487 0.569426
-0.143854 0.16915 0.472623
-0.150207 -0.00809744 0.0992698
0.08086 0.250766 0.696987
-0.136039 0.231871 0.0375649
0.0141366 0.0273337 0.0522032
-0.0794568 0.22643 0.769257
-0.198248 0.0183157 0.548091
-0.1474 0.253254 0.0384915
-0.0852249 0.00175289 0.0956145
-0.00874352 -0.0208616 0.0802408
0.0826995 0.180698 0.396007
-0.163873 0.058442 0.325959
-0.0102721 -0.261258 0.0147911
0.0632297 0.110945 0.0778714
0.00906557 0.225668 0.489156
-0.135003 0.23849 0.0361963
-0.122685 0.0258256 0.327265
-0.0830306 -0.163655 0.410545
-0.0343685 0.188697 0.612392
0.0317975 -0.168483 0.335155
0.114433 0.218626 0.567471
-0.0420416 -0.141977 0.32817
0.108715 -0.120067 0.328147
-0.0849799 0.173391 0.573274
-0.056921 -0.178652 0.400106
-0.257015 -0.046729 0.0250763
0.028821 0.0929453 0.0989098
0.110566 -0.0417315 0.332524
0.141916 0.00147597 0.0754641
0.129623 0.0523414 0.310585
0.0533292 -0.147428 0.328178
-0.145633 0.2109 0.739517
0.00666163 0.0298632 0.281351
-0.092142 -0.065063 0.318626
-0.254943 0.0262108 0.447953
-0.0268585 0.201228 0.34908
0.00540376 -0.0280986 0.256667
-0.134928 0.109918 0.413324
0.192063 -0.0141919 0.0743474
0.157833 -0.130124 0.333222
0.270907 0.112529 0.547507
-0.274857 -0.025459 0.547486
0.141654 0.214094 0.369254
-0.256155 0.0473631 0.437356
-0.020868 0.239057 0.612177
0.0742966 0.174755 0.569357
-0.0486073 0.17418 0.539926
-0.041554 -0.00145522 0.286803
0.0222773 -0.18389 0.349886
-0.15718 0.225444 0.774512
-0.244496 0.0533438 0.538286
-0.153021 -0.0250709 0.413324
-0.0883935 0.143599 0.0869337
0.0250483 -0.0983418 0.413324
-0.0513263 0.0975989 0.104581
0.080428 0.00376904 0.0745564
-0.0672428 -0.157131 0.331247
-0.0522114 -0.0392506 0.413324
0.125646 0.11148 0.328182
-0.168146 0.25131 0.02966
-0.282646 0.0344246 0.542682
0.0870047 0.219491 0.544686
0.0470238 -0.0181583 0.413324
0.242749 -0.076956 0.0129284
0.000867989 0.180719 0.43505
0.149465 0.2031 0.572397
0.0891863 0.217067 0.53064
-0.154358 0.213381 0.607815
0.117221 0.16226 0.388785
0.158506 0.234252 0.043992
0.033801 0.0538608 0.286803
0.00810559 -0.23058 0.0401802
0.00415515 0.230718 0.414836
-0.162482 -0.163457 0.342701
-0.0994679 -0.0524381 0.413324
0.0491313 0.131134 0.332154
-0.168837 0.0947541 0.335151
0.0485903 0.240112 0.626569
-0.237055 0.0525467 0.540984
-0.0210153 0.177665 0.474264
0.068785 -0.0440182 0.329071
0.187932 -0.0256335 0.359992
-0.075577 -0.0898431 0.31434
0.0692078 0.239843 0.636603
-0.0300187 0.267249 0.763331
-0.0595561 0.0463915 0.303801
0.148952 -0.044456 0.328168
-0.148819 0.23561 0.0328149
-0.165929 0.249571 0.0633425
-0.206255 -0.0222495 0.0913185
-0.0203333 0.141907 0.412508
-0.0393745 0.163562 0.343545
-0.239453 0.0320918 0.407215
-0.0742919 0.24206 0.652157
-0.239448 -0.0600737 0.549492
0.156281 -0.168638 0.358736
0.0728332 0.0508133 0.413324
0.133628 0.0758807 0.320214
0.0403503 0.176301 0.488202
-0.0594131 0.0116905 0.316257
-0.146921 0.254274 0.0818736
0.00636924 0.244079 0.637278
-0.120773 -0.173019 0.340177
0.231615 -0.0465703 0.0178412
0.0596761 0.166762 0.346694
-0.236421 -0.0500923 0.0411585
-0.0102787 -0.258064 0.0087588
-0.0500349 -0.0557864 0.293322
-0.0627436 0.245937 0.666672
0.151213 -0.0695255 0.330802
-0.259027 -0.0538708 0.0684139
0.126777 0.209841 0.470981
0.0857181 -0.176009 0.402725
-0.0543811 0.17207 0.359383
-0.203277 0.0700625 0.545038
0.0473523 -0.0114973 0.413324
0.0933132 0.172287 0.573085
0.00674471 0.047448 0.269972
0.253734 0.0369766 0.417392
-0.202817 -0.102153 0.396423
0.212461 0.0988912 0.54638
0.245387 -0.0350683 0.0245532
-0.186081 0.0914222 0.345208
0.193473 0.0731242 0.562993
0.0423063 0.207902 0.346308
-0.108396 0.22576 0.593277
-0.0396946 -0.112911 0.325671
0.159617 0.050274 0.327113
0.0734635 0.222178 0.445112
0.188651 -0.024241 0.364929
0.0500825 -0.172705 0.406481
-0.218598 -0.00119344 0.573627
0.168303 0.233248 0.00846817
-0.0597996 0.220904 0.497095
-0.0410124 0.224257 0.476482
0.267571 -0.050284 0.042691
-0.0959034 0.252083 0.711532
0.134989 0.208724 0.073647
0.259815 0.0185331 0.541761
-0.144757 0.255024 0.00521757
-0.165727 0.248785 0.0663261
0.174388 0.222949 0.0136878
0.083729 0.16837 0.352635
0.0355672 0.192357 0.629537
0.0514882 0.259208 0.724004
-0.121602 0.249212 0.786761
0.146555 0.231939 0.0106949
-0.234034 0.0287393 0.456047
-0.232204 0.0297412 0.536434
-0.130676 -0.0785956 0.322143
-0.0584834 -0.102848 0.314396
-0.047099 -0.000277434 0.413324
-0.0166925 -0.079611 0.413324
-0.00611216 0.196186 0.645098
0.0604953 0.0264173 0.413324
0.00598858 0.0295829 0.20675
-0.173245 0.0999374 0.407542
-0.192138 -0.0020083 0.34266
0.0193368 0.233693 0.77601
0.239403 0.0724884 0.541388
-0.145508 0.174344 0.600975
-0.0790474 0.154766 0.335913
-0.0070951 0.188991 0.607615
0.0499617 0.0770899 0.413324
-0.14539 -0.00106719 0.0960275
0.0845693 0.241691 0.655003
-0.032038 0.241965 0.631596
-0.05002 0.109893 0.413324
0.143273 -0.0289838 0.328166
0.00716556 0.0653322 0.108554
0.0659976 0.0491422 0.328878
-0.216504 -0.0243628 0.0655323
-0.119874 0.165231 0.388043
0.114431 0.0230072 0.312884
0.0611432 0.0203155 0.413324
0.0119704 -0.155615 0.330788
0.257491 0.0445572 0.424662
-0.233233 0.0284204 0.508901
0.116053 -0.0713785 0.413324
-0.119474 0.0563695 0.327082
-0.0630643 0.174898 0.450186
-0.141794 0.0186951 0.328161
0.0796901 -0.171384 0.336169
0.134956 0.257888 0.761372
-0.214547 0.0515828 0.573627
-0.102319 0.18638 0.641017
-0.0498633 0.17672 0.562319
-0.00395859 -0.107072 0.06576
0.0254434 0.0790961 0.11016
0.0342776 0.173267 0.366699
-0.201475 0.0218744 0.378821
-0.0689287 0.181858 0.394414
-0.274875 -0.000288669 0.54475
0.260458 0.112809 0.545655
0.0207472 0.0340446 0.413324
-0.211452 0.115091 0.564294
0.160831 0.226989 0.764053
0.0071 0.193685 0.631492
-0.270434 -0.0433185 0.037992
0.0876558 0.212708 0.722761
-0.0648192 0.114015 0.413324
-0.261256 0.0359569 0.52074
0.0590924 0.0141515 0.309088
0.0092072 -0.219441 0.0696875
-0.0954473 0.015298 0.413324
-0.0293822 0.110344 0.310683
-0.0285064 0.182778 0.402352
0.233873 0.0287427 0.488926
-0.130118 -0.0626012 0.330192
-0.108415 0.215113 0.455266
-0.144602 0.217613 0.761658
0.16094 -0.108297 0.328173
-0.0265192 0.0516421 0.286803
-0.179151 0.0788044 0.337373
-0.0768338 0.170131 0.49435
-0.00749834 0.232154 0.34067
0.127115 0.209567 0.531393
-0.0431658 0.0127565 0.286803
0.245716 0.0457239 0.369697
-0.0210247 0.128441 0.317141
0.0828722 0.0484017 0.310303
-0.247142 0.0298578 0.38089
-0.0344978 -0.0409911 0.290321
0.150385 0.249348 0.735971
-0.00604099 -0.0291158 0.263295
0.0200656 0.0471753 0.286803
-0.0401714 -0.128108 0.413324
0.156655 -0.132529 0.333384
0.171762 0.0757119 0.345927
0.0374028 0.267165 0.767265
0.0851939 0.00270289 0.0696075
-0.0921867 0.177047 0.595312
-0.0996032 -0.178089 0.343156
0.0772364 0.232673 0.604045
-0.0915271 -0.178466 0.343594
0.0092941 -0.201165 0.0716072
0.034835 0.130897 0.413324
0.192654 0.0650391 0.559932
-0.111339 0.212727 0.533537
0.0175683 0.0993947 0.306731
0.153097 0.0271361 0.330098
-0.0159391 0.0224723 0.0503351
0.144187 0.263843 0.0204426
-0.108124 -0.0743474 0.413324
-0.0536068 -0.00745453 0.413324
0.113573 0.171668 0.588896
-0.0712732 0.222063 0.446376
-0.258075 0.0421735 0.424956
0.10618 -0.152209 0.413204
-0.176996 -0.026884 0.0933732
0.149975 -0.0269209 0.33198
-0.00951101 0.226725 0.454024
0.24598 0.0141385 0.541902
-0.0941541 0.224331 0.387846
0.0340099 0.176267 0.538155
0.0993696 0.215165 0.531761
-0.00538568 0.0627514 0.286803
0.139675 0.14943 0.383386
-0.0202554 0.218267 0.729235
-0.166959 0.124296 0.341821
0.101473 0.224158 0.361214
0.120638 0.0715069 0.413324
0.212406 -0.0221558 0.0658797
-0.203447 0.00483706 0.367109
-0.00625852 -0.102574 0.066165
-0.0189013 0.0426281 0.130349
-0.106084 0.0107507 0.101209
-0.0208164 0.161346 0.341183
0.1118 0.0114794 0.0956173
0.231234 0.0402146 0.460305
0.258833 -0.05786 0.554316
-0.200791 0.0440192 0.322304
0.0992706 0.242155 0.666445
-0.107182 0.172147 0.0719006
-0.13164 0.0618221 0.413324
0.052679 0.229804 0.358156
-0.00231601 0.0606475 0.0412515
0.0138302 0.0341196 0.286803
0.240293 0.0257394 0.436061
-0.0014554 0.179461 0.55553
-0.115692 0.186003 0.646917
-0.115102 0.033683 0.329616
0.244405 0.0226129 0.517347
-0.208215 -0.10423 0.385654
0.278945 -0.0379842 0.552999
-0.0153466 0.0756559 0.0887534
0.164691 0.0847999 0.403947
0.171534 0.0577643 0.343937
0.0330678 0.267316 0.76967
0.15474 0.186765 0.589813
-0.271353 -0.0261309 0.547101
0.259271 0.0467051 0.539508
0.101621 0.184889 0.629144
0.135626 0.262098 0.0244161
0.0993033 -0.0736508 0.3144
-0.173339 0.133122 0.364771
0.287983 0.101636 0.566878
0.129007 0.240392 0.67961
-0.0859027 0.00561702 0.0660664
-0.193431 0.0704402 0.567371
0.104942 0.161578 0.536092
0.121308 0.209224 0.48629
-0.0926398 -0.0507934 0.32226
-0.142842 0.16974 0.434458
-0.181626 -0.16291 0.369908
-0.054019 -0.0332707 0.289009
0.00405049 -0.113382 0.099454
0.043003 0.133507 0.332531
-0.0107856 0.0405772 0.228863
-0.262656 -0.0816611 0.0225427
0.00961623 -0.112721 0.0805764
-0.0837371 0.0197855 0.070163
-0.0684261 0.227586 0.393501
0.148395 0.202212 0.37654
-0.049041 -0.0248446 0.28738
-0.169979 0.256995 0.0362704
-0.005077 0.192273 0.624303
0.227618 -0.0191997 0.573627
0.175662 -0.0495123 0.403928
0.0591339 0.0536532 0.29821
0.0109592 0.0618506 0.0661294
0.164616 0.211126 0.641598
0.0358898 -0.038383 0.290088
-0.202535 0.00947111 0.379744
-0.0588026 0.107388 0.0668238
-0.199868 -0.0050819 0.572463
0.117369 0.214862 0.741501
0.0105953 0.227133 0.446348
0.111977 -0.126868 0.328156
-0.0129069 -0.24881 0.00139151
0.00113879 0.180209 0.440577
0.202982 0.0441724 0.324027
0.11226 0.182986 0.375323
-0.125842 -0.0509086 0.330605
-0.103909 0.16579 0.466354
-0.0186932 0.041567 0.142806
0.00964531 0.176866 0.515325
-0.0234397 0.0583234 0.108389
0.242017 0.0404253 0.573627
0.119813 0.167908 0.582475
0.0418913 0.16055 0.40377
0.186436 0.0102647 0.366252
0.0629763 0.0446124 0.328619
-0.245051 0.0515993 0.426559
0.156046 0.189969 0.659649
0.0720683 0.232074 0.598167
-0.0961163 0.082021 0.328384
-0.0769238 -0.0769418 0.314724
-0.185262 0.115399 0.371845
-0.114076 0.217237 0.748627
-0.0990587 0.188638 0.069405
-0.00826186 0.264763 0.742535
-0.197837 0.0745295 0.571525
0.268895 -0.0622183 0.0433402
-0.0704989 0.262611 0.749543
-0.27534 -0.000256971 0.573627
0.134984 0.0734045 0.313386
0.246578 -0.0427068 0.0520756
-0.255381 0.0259835 0.471228
0.295305 0.0493412 0.572181
-0.0580033 0.0499138 0.287106
0.236031 -0.047999 0.548424
0.0784764 0.23691 0.626521
0.00732663 -0.0131007 0.0679529
0.0181312 0.129237 0.413324
0.0490466 0.101128 0.307332
0.231039 0.0395749 0.456449
-0.142499 0.166167 0.453768
-0.12951 0.05833 0.413324
-0.236912 0.0817644 0.541388
-0.273872 -0.0452928 0.571973
-0.0657018 -0.126182 0.413324
0.256645 0.0279243 0.471974
-0.0255482 0.0596952 0.101872
0.275503 0.121348 0.557893
0.0108848 0.0403153 0.274252
-0.0175001 0.267742 0.770033
-0.244303 -0.0595644 0.00103028
0.191477 0.0195281 0.562771
0.123489 0.212169 0.545552
-0.208119 -0.0852457 0.364057
-0.172221 -0.0431098 0.412071
-0.00177596 -0.0209615 0.283879
-0.152923 0.0535668 0.327113
0.0965981 -0.178118 0.344383
0.0617778 0.219694 0.509681
-0.127044 0.249562 0.722042
0.257049 0.0113254 0.573627
-0.0642126 0.223879 0.550196
0.245469 0.022565 0.495214
0.187543 -0.0168976 0.360817
-0.0370483 -0.0897513 0.299716
-0.11645 0.0778901 0.328173
0.019832 0.0493588 0.413324
-0.00918877 0.0109832 0.0872752
0.00924239 0.0657642 0.0787091
0.00870527 0.177684 0.49536
-0.138748 -0.00955842 0.328153
-0.00293628 0.228984 0.432213
0.148527 0.0696448 0.31214
-0.140923 -0.10919 0.322121
0.058899 -0.00578629 0.299537
-0.132656 0.162192 0.38878
0.11314 0.193729 0.0968148
0.124965 0.238542 0.787982
0.0677778 0.218429 0.738004
-0.16119 0.257041 0.0380678
0.123199 0.169049 0.589055
-0.0246845 0.0674247 0.0668693
-0.110452 0.191881 0.35297
-0.00585194 -0.0728414 0.413324
-0.13427 0.215598 0.574074
0.241857 -0.0535872 0.0424391
-0.0694039 0.000531442 0.322269
0.124872 0.215751 0.428502
0.100525 0.0865826 0.313306
0.0621454 -0.136775 0.413324
-0.185367 -0.0844596 0.335052
-0.0512818 -0.122285 0.328148
0.0322901 0.0242957 0.413324
0.175734 0.0250429 0.344882
0.131705 0.241648 0.686978
0.230894 0.0347571 0.516131
-0.0828232 0.154758 0.0649389
-0.214851 0.0383255 0.539315
-0.150916 0.237834 0.0638659
0.0597761 0.0341547 0.328342
0.145429 0.13688 0.39707
0.119374 -0.181609 0.381876
-0.0827947 0.054133 0.413324
-0.124571 -0.0909427 0.318531
0.229016 0.0923805 0.573627
0.166962 -0.0732414 0.328483
-0.126337 0.245333 0.702915
0.191262 0.0512814 0.559057
-0.0949889 0.168573 0.565396
0.0874337 0.2344 0.618445
-0.0231588 -0.168137 0.408988
0.146253 0.238613 0.0451153
0.121702 0.17781 0.615448
0.181346 0.239587 0.0150285
0.065204 0.172122 0.54678
-0.0878999 0.0551041 0.413324
0.0328289 0.195684 0.646314
0.134785 0.215423 0.573436
-0.198638 -0.0566995 0.398065
-0.11114 0.0580436 0.32703
0.0434116 0.193213 0.636005
0.0137253 0.0275603 0.181096
0.0111076 0.130261 0.413324
0.279469 -0.0472406 0.0289724
0.0261069 0.0905765 0.0933188
0.079752 0.173512 0.447908
-0.136886 0.17648 0.394297
-0.141847 0.180655 0.638057
0.156386 -0.026868 0.411707
-0.122841 -0.183321 0.353552
-0.122007 0.115101 0.413324
0.142265 0.242219 0.0444865
0.261687 -0.0355783 0.032271
-0.0167883 -0.123483 0.413324
-0.0530223 -0.0299138 0.288341
-0.0334443 0.223866 0.498707
0.105344 0.0593451 0.413324
0.103239 -0.00209837 0.100694
0.116376 0.210103 0.490072
-0.183501 -0.0290417 0.0662679
-0.0359631 0.243556 0.641643
-0.205147 -0.0367252 0.558411
0.153652 0.239214 0.00987882
0.133491 0.239076 0.0270064
0.192879 -0.0778447 0.3712
-0.0508381 0.0921744 0.0905054
0.163261 -0.0139859 0.0995734
0.00879296 -0.116428 0.0775585
0.0907626 0.232093 0.609137
-0.0583004 -0.0181735 0.297444
-0.119865 0.251016 0.72408
0.125597 -0.0453169 0.413324
0.110352 0.22107 0.759719
0.144227 0.177796 0.514694
-0.0589178 -0.143178 0.413324
-0.0992049 0.191009 0.655203
-0.0644285 0.237302 0.620731
0.293884 0.0471326 0.547462
-0.0083159 -0.18628 0.359115
-0.225624 0.0323618 0.573627
-0.102155 0.186158 0.640167
-0.0228736 0.0212161 0.0905384
0.177376 0.013378 0.398523
0.118048 0.192885 0.0937701
0.222051 -0.0298486 0.547354
0.00917763 -0.0444289 0.092949
0.0699428 -0.179649 0.345274
-0.121561 0.201381 0.0636105
0.106376 0.237214 0.646953
-0.224722 -0.0604829 0.558276
0.249721 0.0403211 0.365221
-0.0506102 0.0325055 0.286803
0.138877 0.185062 0.653443
0.160094 -0.0429732 0.333912
0.0897402 0.101419 0.413324
0.0834574 -0.0356121 0.330323
-0.0700058 0.226532 0.567587
0.192137 -0.094003 0.361017
0.177207 0.0951439 0.380563
-0.169596 -0.160938 0.342856
0.176093 0.246082 0.0424676
-0.0591981 0.202522 0.348493
0.105958 0.244234 0.680516
-0.00378056 0.0534973 0.198323
-0.174175 -0.170111 0.371531
-0.0166615 0.240541 0.619573
0.0644573 0.0138968 0.32873
0.0513912 0.258956 0.722756
-0.161939 0.00590618 0.413324
-0.0470233 0.223944 0.464955
-0.0076509 -0.0669291 0.0684977
-0.122768 0.0308203 0.310354
-0.0367235 0.223784 0.524877
0.234903 0.0678577 0.541388
0.243522 -0.0386125 0.032183
-0.221542 -0.0415288 0.0886522
0.122329 -0.172063 0.400888
0.158346 0.230108 0.662401
0.180174 0.0743599 0.375128
0.148814 0.203158 0.430013
0.0208909 0.266584 0.773256
-0.0589867 0.236732 0.614392
-0.103797 0.165406 0.0884446
-0.010286 -0.253058 0.0406872
-0.0180805 0.23898 0.61103
0.137066 0.165499 0.52796
0.182367 -0.0287677 0.0870594
0.254205 -0.0721962 0.0386063
-0.0850083 0.112015 0.328162
-0.131561 0.152912 0.342589
-0.203448 0.098675 0.555446
-0.0189268 0.186921 0.600418
0.104247 0.199614 0.683274
0.0491292 0.175989 0.463774
0.0948466 0.186806 0.0819979
0.032863 -0.115835 0.413324
-0.0132335 0.0893627 0.413324
0.182296 0.0666499 0.320931
-0.100448 0.0863337 0.315859
0.253325 0.0264641 0.453474
0.259666 -0.0526792 0.549143
0.186882 0.0610552 0.327884
0.107063 0.161671 0.499094
-0.123822 0.208015 0.518096
-0.25536 0.0259687 0.471598
0.0917288 0.102551 0.328695
0.083742 0.212312 0.720491
0.0989534 -0.0270367 0.413324
0.257183 -0.0629973 0.564193
-0.175411 0.241346 0.0444304
0.135248 0.0734672 0.315106
-0.116139 0.0124509 0.330191
-0.0402289 0.181303 0.413839
0.168275 0.24947 0.00333702
0.100803 -0.17828 0.39855
-0.0701509 0.147659 0.410627
0.0867986 0.00799708 0.413324
0.00697102 0.165748 0.398243
-0.0797129 0.131179 0.0845267
-0.019675 0.0682762 0.11222
-0.0326077 0.019792 0.0737593
0.0540748 0.171187 0.351473
0.0996885 -0.185737 0.36461
-0.0823063 0.0766198 0.32816
0.109345 0.063198 0.327126
0.0997844 0.192035 0.657771
-0.23891 0.0326753 0.382916
0.184371 0.00862215 0.352572
0.0641148 0.229956 0.773316
-0.150301 0.201926 0.430001
-0.00885871 -0.185866 0.387992
0.187894 0.0569347 0.316392
-0.130983 0.173186 0.611221
-0.020376 -0.0146127 0.286803
0.0385944 0.0956737 0.108789
0.248216 -0.0330308 0.0840955
-0.269298 -0.0403154 0.0331652
-0.153984 0.263422 0.0549387
-0.0640668 0.144514 0.411642
0.292647 0.00902132 0.572682
-0.264797 -0.0472015 0.0628761
-0.246952 -2.42312e-05 0.543179
-0.146167 0.264337 0.0245588
0.0989572 -0.109471 0.316979
-0.118601 0.189283 0.354626
-0.112305 0.248404 0.70669
0.127958 -0.1113 0.413324
-0.149281 0.233731 0.786835
0.143025 0.199564 0.479734
-0.117499 0.0470235 0.413324
0.109899 -0.100925 0.413324
0.156709 0.016175 0.410775
-0.0340866 0.0535712 0.286803
0.0408529 0.171565 0.354391
0.0311818 -0.00862248 0.413324
0.162998 0.0757797 0.406419
-0.0976643 0.215833 0.466335
-0.0158453 -0.102201 0.413324
-0.138278 0.113455 0.331737
0.0359221 0.0861178 0.0664227
-0.00606844 0.0477228 0.241767
-0.010585 -0.182748 0.395444
-0.229356 0.0909213 0.573627
0.0731365 0.0343289 0.413324
-0.114768 0.152652 0.337956
-0.0438944 0.0712883 0.286803
0.137062 0.222749 0.0290531
0.0758612 0.187354 0.622457
-0.197715 0.0557435 0.322687
0.225621 0.0693271 0.541388
-0.0397232 -0.17723 0.401649
-0.0319046 0.235979 0.597706
0.0654386 0.213437 0.719738
0.0067347 -0.0599544 0.102614
-0.168233 0.0364535 0.411736
-0.00109027 0.0202495 0.187639
0.16413 0.220108 0.733643
0.0612009 0.258516 0.724679
-0.0174781 0.0201576 0.0817806
-0.0669541 0.142901 0.0669843
0.0960669 0.164153 0.536031
0.0178297 0.226138 0.461517
0.205588 0.096897 0.551268
0.235284 0.0281565 0.422752
0.266468 -0.0696053 0.0375437
0.0474505 0.11431 0.104099
-0.242414 -0.0355859 0.0286424
-0.0705642 0.187686 0.37029
-0.0523671 0.0974811 0.1028
-0.25017 0.042496 0.371012
-0.0832798 0.222813 0.427054
-0.195616 -0.129276 0.398185
0.0524515 0.131855 0.332267
-0.159815 0.00586551 0.331099
-0.0622739 0.260757 0.737568
0.00272544 0.028224 0.243693
-0.205227 0.106754 0.558131
0.0979641 0.26139 0.754701
0.153131 -0.146548 0.335212
0.046294 -0.122673 0.32815
0.113756 0.0572324 0.310553
0.154457 0.249393 0.740658
0.054579 0.0714669 0.286803
0.0628513 0.129225 0.0653001
0.0445824 0.163501 0.343304
0.142312 0.0696147 0.413324
0.23069 0.0422511 0.539315
0.15212 0.062292 0.325695
-0.00331108 -0.0319804 0.271631
0.214795 0.0492486 0.573627
-0.0518518 -0.0581609 0.293813
-0.0582192 0.125588 0.331314
-0.252036 0.0416569 0.398409
0.230953 0.0371018 0.363029
0.145443 0.249411 0.730925
0.217276 0.0909464 0.573627
0.0834176 0.161749 0.0992923
-0.180043 -0.0712805 0.410264
0.114261 0.192846 0.666559
0.096497 0.254766 0.72307
-0.0832195 0.166319 0.522752
0.0774826 0.163861 0.39801
0.126344 0.15719 0.348849
-0.0230619 -0.24777 0.00883364
0.251947 -0.0405929 0.0506318
-0.111747 0.208605 0.717762
0.0235795 0.231514 0.391495
-0.215334 0.00651224 0.573627
-0.00973543 0.126167 0.331389
0.15546 0.2034 0.703762
0.163926 0.257996 0.0377838
-0.145315 0.0994879 0.331588
0.245381 0.0230756 0.468345
