-0.179726 -0.207447 0.374846
0.162179 -0.254856 0.326902
-0.154125 -0.112416 0.315372
0.200339 -0.103656 0.316039
-0.0815109 0.137919 0.395898
0.202491 0.00701167 0.257422
0.148527 -0.269675 0.321254
-0.185076 0.21842 0.477305
-0.206486 -0.0458643 0.291631
0.0475185 -0.135683 0.320604
-0.0439755 -0.136502 0.322318
-0.156859 -0.253708 0.350272
0.186851 0.254889 0.566394
-0.00493801 -0.269391 0.0509258
-0.0567774 -0.0594219 0.299393
0.182449 0.219107 0.49624
0.17796 -0.255621 0.325547
0.0485581 -0.197585 0.336365
0.00346959 0.28032 0.655498
0.0914153 -0.101993 0.310915
-0.120109 0.248017 0.674326
-0.0612901 -0.126943 0.319593
-0.216791 -0.0114353 0.463301
0.183613 0.226331 0.594114
0.122136 -0.00541711 0.283733
-0.1564 -0.217269 0.339409
-0.15413 -0.262448 0.345047
0.0682733 -0.127597 0.321443
-0.152157 -0.206311 0.284734
-0.140003 -0.00152954 0.282397
0.00986789 0.311086 0.674269
-0.0744234 -0.062094 0.297813
-0.187951 0.106436 0.350711
0.161597 0.127133 0.44557
0.0879298 -0.257749 0.344612
-0.0937607 0.241955 0.5594
-0.206682 0.0897562 0.323852
0.047637 0.0369168 0.279513
0.18314 0.245602 0.642466
0.224059 0.0432079 0.245063
0.163055 0.140192 0.397967
0.124755 -0.251352 0.342382
-0.067907 0.251307 0.578905
0.133633 0.204363 0.491609
0.0255693 0.310771 0.674134
-0.141559 0.00648495 0.325676
-0.0697149 0.273635 0.639057
0.0412364 -0.0877287 0.306583
0.0991717 -0.082797 0.346392
0.00181122 0.0422792 0.317556
-0.190782 0.19721 0.482615
0.173293 0.134213 0.389437
-0.00868902 0.259882 0.600198
-0.0239269 0.240703 0.561728
-0.102836 -0.0731098 0.184505
0.241688 0.0763841 0.434655
-0.0333811 0.226553 0.53935
0.202672 -0.145545 0.323547
-0.176936 0.249682 0.562172
-0.000413121 -0.0447117 0.155603
-0.241122 0.0988796 0.303369
0.051301 -0.00957558 0.284831
0.173944 0.281481 0.656998
0.199408 0.130128 0.383519
0.197574 -0.0730749 0.266831
0.208663 -0.166898 0.337325
0.0593611 0.242111 0.575529
-0.118474 0.175428 0.523121
0.0271148 0.298217 0.698712
0.21552 -0.013659 0.272512
0.208524 0.0692963 0.284294
0.00213501 -0.249461 0.342125
-0.178379 0.124148 0.381832
-0.0623976 -0.270216 0.333736
0.185908 -0.165891 0.32837
0.00620514 -0.149077 0.0633876
-0.0395168 -0.154587 0.327567
0.116776 0.233805 0.532314
0.0257203 -0.0898506 0.312729
0.0769151 -0.121533 0.318191
-0.0560357 0.235209 0.537422
0.178947 0.14958 0.39883
0.178237 0.112209 0.362545
0.131309 -0.275756 0.343267
0.240015 0.139149 0.34405
-0.0060661 0.0047323 0.280945
-0.174511 -0.192214 0.333847
-0.132512 -0.0425617 0.290497
-0.0230068 0.126287 0.384209
-0.144947 0.14911 0.414853
0.082807 -0.0516349 0.0803998
-0.0206176 0.0526239 0.292725
0.0439104 0.276265 0.651443
-0.0272762 -0.0691587 0.183935
0.021176 -0.0221232 0.288315
-0.173024 -0.0771102 0.227074
0.0134564 0.144529 0.40487
0.117068 0.196499 0.48275
0.0729506 -0.199749 0.33804
0.0227172 0.239725 0.552003
0.11297 -0.0155111 0.28655
0.0931296 0.271813 0.628953
-0.121443 0.20334 0.494089
-0.0373611 0.0951633 0.335651
0.188406 0.0834029 0.316316
0.0871893 -0.00423426 0.278576
-0.132046 -0.0723885 0.301561
-0.185378 0.11661 0.366084
-0.0728929 0.15529 0.490964
0.104269 -0.139497 0.323309
-0.0178874 -0.2368 0.340706
0.24608 0.133917 0.349237
0.133676 0.278969 0.646767
0.161983 0.266516 0.615239
-0.0837846 -0.0535144 0.33952
-0.0746841 -0.257716 0.344547
0.191321 -0.130646 0.320883
0.104178 -0.283893 0.38621
0.103197 0.288541 0.671572
-0.129649 -0.144348 0.325142
0.0379593 -0.00591208 0.279047
-0.135044 -0.287224 0.357997
0.0634823 0.104972 0.347224
0.213943 -0.0950135 0.303953
-0.113982 -0.0882966 0.308183
0.178652 0.181556 0.460332
-0.152704 0.194159 0.488641
-0.146761 -0.189529 0.33493
0.0059164 -0.28013 0.321107
0.150048 0.168575 0.45068
0.0241601 -0.0518646 0.29712
0.143935 0.161305 0.428255
0.141345 0.0801334 0.304385
-0.199002 0.0136255 0.255336
-0.200346 0.133829 0.452749
-0.127772 0.286942 0.673729
-0.132673 0.0187514 0.276244
0.179459 0.183695 0.431485
-0.0108249 -0.0731007 0.0741619
-0.159465 -0.00514869 0.278604
0.060969 -0.0517321 0.30399
0.0235302 -0.0179854 0.282782
0.150552 0.148561 0.416081
0.0342703 -0.261667 0.319333
0.150427 0.0832469 0.381156
-0.122444 -0.280008 0.391578
-0.168977 -0.242689 0.341306
-0.000320047 0.0176453 0.287988
-0.00644656 -0.211436 0.340666
0.121653 -0.178051 0.333088
0.118666 -0.0941303 0.310166
-0.0559306 0.284395 0.700096
0.157847 0.063667 0.294022
-0.0592094 0.0563071 0.285028
-0.0295643 -0.113516 0.31425
0.028359 -0.177557 0.330843
-0.0212585 -0.0757629 0.302928
-0.218699 0.0782866 0.308267
0.18684 0.185962 0.453849
-0.0689445 0.219351 0.528125
0.0813896 0.177289 0.454565
0.161159 0.286517 0.669987
-0.121316 0.0427756 0.282115
0.0228897 0.245256 0.566854
-0.0797833 -0.255036 0.344246
0.00633456 0.180248 0.456564
-0.00427324 -0.259814 0.351794
-0.201605 -0.138098 0.358881
-0.23607 0.163958 0.391626
-0.193157 -0.183935 0.334194
0.0601102 -0.217064 0.337957
0.225556 0.150808 0.380217
0.200392 -0.222378 0.340419
-0.144163 0.252084 0.585746
0.00606801 -0.233371 0.345721
0.0140929 -0.140218 0.359533
-0.216211 0.0043761 0.271793
-0.152561 0.240694 0.552418
0.192898 -0.271738 0.34446
-0.0737437 0.259723 0.604415
-0.123497 -0.017734 0.296029
-0.190778 -0.103279 0.284753
0.108177 -0.0686972 0.187365
-0.0782618 0.24757 0.573638
0.0130071 0.142547 0.407925
-0.204775 0.0530112 0.287554
-0.0610437 0.267185 0.61875
0.120947 0.269472 0.706003
0.19891 0.0092223 0.290079
-0.0370672 -0.284007 0.327701
0.0178328 -0.0619647 0.341542
-0.0140208 -0.219194 0.283261
-0.0956321 0.100846 0.34179
0.00608621 -0.142306 0.0823687
0.182763 0.147463 0.393335
0.187983 0.0697023 0.294109
0.119987 0.123828 0.377601
-0.0134636 0.167311 0.440432
0.0917955 0.211646 0.505242
-0.037137 0.0261176 0.275962
0.0787661 0.144076 0.409848
-0.0693594 0.213148 0.508216
0.245426 0.163891 0.387355
-0.0788219 0.290912 0.679561
-0.0109934 0.195783 0.482321
0.0735414 0.21243 0.506473
-0.192929 0.135444 0.395567
0.128181 0.121935 0.372235
0.114635 0.246371 0.568918
-0.0225909 0.303847 0.702192
0.00406227 0.125885 0.378427
-0.0329483 0.152655 0.41939
0.0697245 0.26049 0.605118
-0.0224212 0.265581 0.61445
0.0433153 0.124795 0.376695
0.110738 0.23887 0.548757
0.105731 0.207593 0.508555
0.0651219 -0.0515889 0.0704983
-0.154741 0.00634211 0.290468
-0.217051 0.0304158 0.27867
-0.012064 0.0598999 0.291529
0.195676 0.104122 0.348014
0.0363158 -0.081321 0.346008
0.0206519 0.287381 0.673567
0.0287457 0.205785 0.494241
0.0406434 0.0796673 0.311317
-0.182901 0.128547 0.369296
0.101443 -0.063239 0.0782342
0.00019674 -0.134836 0.32032
0.169136 -0.0442191 0.21677
0.00623407 -0.197166 0.0548104
-0.180506 -0.0378476 0.292531
0.133711 0.266074 0.614377
-0.167585 0.194477 0.553574
-0.0796983 0.141142 0.403136
-0.103563 0.257932 0.600224
-0.0714106 0.247675 0.569643
0.0644142 0.18362 0.461213
-0.0768102 -0.281175 0.35665
-0.13504 -0.132706 0.322461
0.208749 0.035584 0.258827
-0.0561331 0.0197217 0.276215
-0.168315 0.138521 0.397162
-0.219599 0.0328956 0.253276
-0.0275327 0.208703 0.511026
0.00256065 -0.0417937 0.293956
-0.0679594 0.135334 0.394817
0.105186 0.0930436 0.331639
-0.0226413 0.217301 0.514043
-0.0172538 -0.0509653 0.132713
-0.19947 0.00180837 0.276914
-0.180286 0.0359315 0.275549
-0.135156 0.108139 0.35302
-0.00812438 0.24641 0.565862
0.112842 0.111527 0.361862
0.177577 0.237394 0.48641
-0.0349513 0.156115 0.492068
-0.0984286 0.304227 0.702424
-0.0516575 -0.0140594 0.285988
0.183331 0.12359 0.379234
-0.204327 -0.239412 0.342452
0.00937088 -0.269873 0.389349
-0.181624 0.0818445 0.349836
0.219156 -0.116109 0.444699
0.0653912 0.168152 0.438569
-0.177011 0.121378 0.375535
0.0456237 0.239397 0.547355
-0.105444 -0.0285503 0.29853
0.00500859 0.295213 0.53689
-0.0792798 0.177468 0.526145
0.22822 -0.114876 0.467588
-0.0949065 -0.0524948 0.055797
-0.0520972 -0.138593 0.321334
-0.0133017 -0.269174 0.317145
-0.000442997 -0.0980253 0.309632
0.0543069 -0.11507 0.31477
-0.245762 0.0607894 0.443877
-0.181442 0.132315 0.454856
-0.154495 0.0549782 0.284298
-0.0131383 0.0980859 0.339947
0.201376 0.142171 0.415713
-0.0449218 -0.0823617 0.346184
-0.0011182 0.165945 0.435664
0.195099 0.186089 0.518819
0.194359 0.128564 0.383965
-0.0938822 0.289885 0.676945
-0.214122 0.0990946 0.341199
0.0738171 -0.176243 0.367864
-0.00204122 0.0142765 0.276441
0.124301 0.107758 0.35627
0.206942 0.09307 0.331148
0.180946 -0.0718348 0.248394
0.00841966 0.28951 0.535708
0.134087 -0.0350433 0.292038
0.0695483 0.108369 0.35508
0.168954 0.203728 0.493229
-0.213829 0.0704149 0.287155
0.135476 0.206078 0.570345
-0.164797 0.261662 0.609985
-0.0586019 0.282625 0.524577
-0.0777322 0.170234 0.442315
-0.0706969 0.244751 0.576358
-0.0344064 0.230413 0.631158
0.232725 -0.0295974 0.46154
0.19222 0.145244 0.377168
-0.130425 0.240605 0.656525
-0.00562975 -0.184569 0.067358
-0.165571 0.250499 0.581878
-0.0308371 0.197009 0.48152
0.0294846 -0.0520367 0.0634286
-0.107008 0.270686 0.627814
-0.0261789 -0.00364638 0.278276
-0.143482 0.110033 0.355926
-0.10544 0.0775551 0.308809
0.160473 -0.26251 0.345172
-0.113158 -0.270551 0.321215
0.110634 -0.0323333 0.291258
-0.18086 0.154942 0.420699
-0.105184 0.0337445 0.275647
-0.215413 -0.0188223 0.270502
0.193122 -0.05902 0.297005
0.101981 0.080921 0.306043
0.0449907 0.140509 0.398974
0.202879 0.134658 0.436881
0.100173 0.0970057 0.334987
0.0555214 -0.0202869 0.296754
0.124539 0.100247 0.345237
0.0954252 0.183296 0.460584
0.0710956 0.267608 0.706468
0.234514 -0.0468253 0.467348
-0.135476 -0.0996873 0.314867
-0.150557 0.126672 0.382921
0.142141 -0.0591668 0.296996
0.21634 -0.109079 0.365857
0.0585881 0.147618 0.46882
0.161351 -0.0685258 0.210189
0.18324 -0.0620808 0.253456
-0.0347426 -0.118283 0.319221
0.0376581 0.230029 0.52353
0.075389 0.173924 0.446965
0.00965853 -0.22894 0.379935
-0.185429 0.174429 0.457527
0.0480024 -0.215363 0.292779
-0.0268332 0.289576 0.675512
-0.24104 0.0626568 0.251961
0.0237524 -0.0350241 0.300119
0.0910866 0.188216 0.470578
-0.190025 0.156671 0.395816
0.132137 0.280209 0.649945
0.198109 0.180122 0.458138
-0.190335 0.163236 0.432625
-0.144961 0.069669 0.299491
0.196484 0.0746541 0.360055
-0.154443 0.218565 0.516367
0.00683886 -0.280039 0.0541069
-0.165669 0.143183 0.471851
0.0321141 -0.0834506 0.30529
-0.0407287 0.0451587 0.276928
-0.0503902 0.143114 0.467343
0.121593 -0.0403233 0.301414
-0.214504 0.0576996 0.275693
0.178914 0.244001 0.517069
-0.0815054 -0.0976753 0.311027
0.0615202 -0.225478 0.339307
-0.118472 0.117084 0.369165
-0.0370683 0.179942 0.459028
0.0402118 0.13613 0.398366
0.0011311 -0.281597 0.339233
-0.0485662 0.137972 0.46253
-0.0515745 -0.232784 0.341768
-0.189979 -0.0783358 0.274084
0.148687 0.228873 0.625948
0.163335 0.287587 0.698616
-0.153027 -0.276806 0.31882
-0.19142 0.128112 0.338372
-0.11567 0.133635 0.395458
0.101593 -0.200878 0.335385
0.0253228 0.110239 0.355384
0.0852122 0.137774 0.461579
0.0034259 -0.230504 0.0517983
-0.14466 0.179996 0.456945
-0.185866 -0.0842194 0.3053
0.005096 0.109846 0.0533516
0.00452276 -0.202774 0.337173
-0.108685 0.03545 0.275578
-0.1148 0.232251 0.636243
-0.182331 0.100468 0.408084
0.062146 0.158669 0.431365
0.159219 -0.0711681 0.308536
-0.00541726 -0.201249 0.0743399
0.0511935 0.221287 0.519079
-0.153845 -0.215687 0.34153
-0.179513 -0.0186925 0.296206
-0.0250269 0.0101289 0.289697
-0.105582 -0.195275 0.334375
0.0992263 0.262334 0.609443
-0.0898993 -0.168781 0.330356
-0.0193271 0.274747 0.648289
-0.175788 -0.0241604 0.284493
0.196119 -0.234903 0.342098
-0.067415 -0.168643 0.330342
0.200543 -0.11862 0.315914
0.0278073 0.223326 0.515649
0.207066 0.000228727 0.267189
0.010351 0.145757 0.412654
-0.170007 0.149956 0.41351
-0.195117 0.103424 0.346193
0.0790384 0.0634272 0.294041
-0.18014 0.0630896 0.294455
-0.0766517 -0.155854 0.327489
0.204106 0.037569 0.275535
-0.092993 -0.0645196 0.300946
0.148825 -0.239426 0.341061
0.0870871 -0.219912 0.292197
0.10312 -0.200348 0.3353
-0.230623 0.148829 0.379525
-0.17945 -0.038982 0.292886
0.202054 -0.269175 0.334114
-0.19109 0.187421 0.41705
0.164866 0.244115 0.562718
-0.000933871 -0.221054 0.286312
0.231445 0.13636 0.416966
-0.168367 0.137908 0.398947
0.207562 0.0587343 0.290047
0.039831 0.28139 0.657918
-0.00513656 0.179685 0.458495
0.110001 0.14423 0.403982
0.18709 -0.196976 0.312695
0.0468572 -0.0887308 0.347721
-0.103227 0.221488 0.513993
-0.123556 0.291283 0.680958
0.0894568 0.284147 0.700489
-0.0137893 -0.219576 0.283303
0.133855 0.144507 0.404264
0.164986 -0.27925 0.391625
0.181802 -0.196106 0.311934
-0.155059 0.293452 0.653427
0.0321259 -0.0190512 0.287465
-0.176112 0.261305 0.701856
0.112581 0.12763 0.385522
0.187738 0.222862 0.510405
-0.00596061 -0.0233682 0.0770736
-0.00517233 0.177979 0.453297
0.15401 0.103623 0.344723
0.119431 0.0638386 0.290038
-0.0362839 -0.0847815 0.307207
-0.207499 -0.0881484 0.286634
-0.222298 -0.112545 0.41787
-0.0206078 -0.014908 0.286255
0.0198534 0.102919 0.410699
0.196154 0.180028 0.452714
0.160414 0.263946 0.595217
-0.178889 0.273047 0.628266
-0.148746 -0.277264 0.3191
-0.042051 0.121042 0.376599
0.0152398 0.234755 0.535638
-0.118662 -0.153003 0.326823
-0.0693662 0.199547 0.561084
0.192656 0.0752812 0.303752
-0.0901878 0.282107 0.660866
0.178812 0.248135 0.516265
0.0766003 0.0108801 0.289603
0.0038805 0.269813 0.628785
-0.215179 -0.0202711 0.463997
-0.152603 -0.245982 0.341679
0.169874 -0.132351 0.357844
0.144013 -0.117028 0.315409
0.0540124 0.194172 0.487558
-0.0589163 0.231428 0.571534
0.115105 -0.128615 0.320235
0.171341 0.119362 0.371022
-0.109923 -0.271346 0.3449
0.119128 0.292842 0.68294
0.161106 0.0710755 0.299788
-0.130317 0.163361 0.457788
-0.027632 0.260554 0.606092
0.0631374 0.293622 0.535592
0.0616075 0.159943 0.426698
-0.0658468 0.287122 0.678508
-0.0981594 0.217155 0.514197
0.012135 0.2796 0.653585
0.184804 -0.184086 0.33241
-0.0227748 0.143441 0.406152
0.189448 -0.0633284 0.285228
0.0838557 0.228037 0.541077
-0.110158 0.196051 0.491413
-0.0565713 0.107576 0.35452
-0.118468 -0.063074 0.298122
0.124279 -0.143167 0.324368
0.17388 -0.184723 0.334101
0.0591142 0.284284 0.670662
0.179976 0.0879095 0.32332
0.177876 0.0274102 0.285873
-0.192059 -0.0630157 0.276998
0.145347 0.127359 0.382489
0.152781 0.113673 0.42584
-0.0347117 0.188109 0.542772
0.182857 -0.254846 0.344323
-0.189476 0.138075 0.396629
0.181569 -0.0826416 0.306786
0.0930274 0.158763 0.427524
-0.00112191 -0.270014 0.345202
0.0798026 0.152364 0.464977
-0.194353 0.150374 0.398537
0.189776 -0.0510208 0.0694873
0.124291 -0.161263 0.328844
-0.143761 0.320897 0.681648
0.171941 -0.209645 0.295326
0.00368706 -0.0380931 0.11073
0.127708 0.289314 0.67342
0.152026 -0.0905362 0.309122
-0.0901497 -0.166548 0.329858
-0.0199437 -0.283977 0.331186
0.180892 0.11482 0.346655
0.0512382 -0.0853222 0.311705
0.218013 0.0587773 0.289861
0.150859 0.213774 0.508056
-0.0356134 0.185527 0.474334
-0.186092 0.131214 0.386883
0.125344 0.209242 0.511064
-0.159956 0.284462 0.672859
0.18624 0.195353 0.553082
0.119434 0.243506 0.557326
0.00393952 0.0569289 0.289402
-0.233929 0.027468 0.253378
-0.181267 -0.0526016 0.248744
-0.221571 -0.00801062 0.455358
0.00516398 0.0728983 0.0544048
-0.0846517 0.176152 0.451017
-0.0738506 0.275036 0.638501
-0.143691 0.16972 0.441889
-0.0514304 0.293102 0.689843
0.20134 0.0274815 0.278018
0.0998168 0.249187 0.576244
0.168129 -0.238679 0.34251
0.111418 -0.0140162 0.330588
0.125455 0.32287 0.685147
-0.0978489 0.274967 0.6427
-0.0466763 -0.181434 0.333204
-0.0839148 0.0565303 0.285249
-0.137153 0.166853 0.44437
0.159056 -0.09373 0.308503
0.172644 0.257282 0.694291
0.188603 0.217234 0.523394
-0.0867788 0.17694 0.45488
-0.114044 0.255003 0.588756
0.114018 -0.242839 0.341429
-0.057951 -0.221804 0.338654
0.212516 -0.110636 0.294767
-0.0466451 -0.183529 0.334218
-0.150294 0.205448 0.497364
-0.0962234 0.162875 0.454976
0.16608 0.202382 0.499972
0.096248 0.257313 0.592869
-0.0626749 -0.127705 0.318239
0.145612 0.245986 0.667249
0.106646 0.2168 0.507622
0.057096 -0.175503 0.367681
-0.234457 -0.0339711 0.257093
-0.187213 -0.131827 0.322219
-0.14831 0.0587686 0.287022
0.112603 -0.0399325 0.289822
0.206416 0.082048 0.296081
0.150482 0.294178 0.691121
-0.172281 0.0357393 0.275558
-0.179826 0.191762 0.549351
-0.171681 -0.266669 0.343979
0.00943798 0.15066 0.416331
-0.00466335 -0.25461 0.385827
-0.154681 0.239423 0.564939
0.019783 -0.0633907 0.30664
-0.099614 -0.132726 0.319627
0.0650079 -0.269758 0.334573
-0.0978705 0.232075 0.535541
0.102558 -0.0429075 0.337227
-0.0374532 0.230224 0.54519
-0.154916 0.179251 0.465023
-0.242493 0.153445 0.418022
0.24784 -0.0503014 0.0543355
-0.0773075 -0.228137 0.379683
-0.000421122 -0.155558 0.325936
0.0171339 0.291536 0.680364
0.0752209 0.011978 0.276543
0.0842299 -0.0752804 0.30289
0.193606 0.180345 0.439597
0.0228761 -0.112449 0.31556
0.149018 0.243796 0.661939
-0.0242855 0.0788985 0.352204
0.197482 0.00384504 0.25746
-0.151791 -0.0250888 0.288981
-0.06243 -0.0156368 0.28642
-0.145839 0.23783 0.649953
0.0387151 0.191238 0.472603
0.191793 0.134742 0.343219
0.011891 0.0137956 0.288883
-0.15537 -0.18725 0.334417
0.247362 0.153225 0.37147
-0.187664 -0.0127729 0.264317
-0.142636 -0.209865 0.336694
0.21026 0.107701 0.32531
0.0867877 -0.026895 0.285613
-0.125873 0.267722 0.632208
-0.18361 0.255731 0.585109
0.173227 -0.0511168 0.057142
-0.0113832 0.105732 0.351501
0.200956 0.0435885 0.241564
-0.0776338 -0.172797 0.331258
-0.0995929 -0.137868 0.322652
-0.131958 -0.149443 0.325901
-0.17249 -0.0519415 0.230526
-0.0946239 0.0149932 0.2764
-0.0454515 0.219756 0.528641
-0.0407135 -0.111211 0.313549
0.0522167 0.287326 0.673137
0.0990789 -0.0515388 0.17899
-0.0176889 -0.0643439 0.127535
0.113934 0.283919 0.659565
-0.0977931 0.268063 0.632806
0.0168916 0.215426 0.511117
-0.16228 -0.205582 0.374431
0.189465 0.0948484 0.333985
0.0824271 0.165763 0.434991
0.121314 0.0990434 0.340706
-0.0834102 -0.0735781 0.302064
0.146876 0.288548 0.649721
0.0102376 -0.0296727 0.298878
0.00548168 -0.2701 0.323398
-0.00818889 -0.0676848 0.0570381
-0.0614988 0.285366 0.664761
-0.143409 -0.110922 0.317445
-0.130749 0.0958869 0.337223
0.183896 0.117258 0.367954
-0.219124 -0.0633814 0.479678
-0.208952 -0.268035 0.333594
0.109586 0.0953999 0.33212
-0.207263 0.072561 0.249753
-0.157883 -0.160367 0.326887
-0.0863594 -0.205203 0.339169
0.0857831 0.244765 0.575136
-0.208914 -0.239356 0.34058
0.211742 -0.180308 0.324758
0.12698 0.287575 0.668782
0.172154 0.238013 0.542695
-0.0962727 0.193592 0.476777
-0.0186465 -0.064653 0.0621921
0.159552 0.292599 0.681928
-0.196434 0.20232 0.466745
0.172024 -0.0169328 0.282607
0.0601557 0.216563 0.512564
0.0988354 -0.269574 0.331943
-0.0341601 0.0819899 0.315293
0.0193162 0.0822667 0.350008
0.0934863 0.0880789 0.324033
-0.0479696 -0.0533446 0.304277
0.0735709 0.259988 0.603842
-0.0897561 -0.0948831 0.310181
0.0768623 -0.245762 0.341741
0.102263 0.0724332 0.301
0.20185 -0.184469 0.332508
-0.0844495 -0.133773 0.322745
0.104819 0.102683 0.409932
0.0876812 -0.287813 0.358304
-0.0176436 -0.0515172 0.132713
0.19184 0.00241349 0.276942
0.181762 0.171082 0.411138
-0.0627898 -0.0798963 0.345603
0.0961138 0.0681193 0.293187
0.0107983 0.178635 0.454178
0.0854876 0.147258 0.414488
-0.0042053 -0.0521713 0.132713
-0.0966366 -0.0976278 0.309415
-0.0905963 -0.00494894 0.278614
0.0506172 0.285945 0.665278
0.032999 -0.223019 0.340432
0.134534 -0.268557 0.389143
0.0852282 -0.124362 0.320712
-0.106398 -0.284295 0.329549
0.189463 0.206708 0.494809
-0.199993 0.133899 0.453979
-0.0439633 0.307423 0.703251
-0.133438 0.088251 0.320692
-0.00404837 -0.105282 0.0913506
0.0828924 0.232652 0.6356
-0.110539 0.149526 0.482029
0.174364 0.259212 0.561534
0.014138 -0.0550288 0.0570572
0.00988688 0.00174031 0.281652
-0.120302 -0.0523553 0.0579591
-0.094045 0.215668 0.580208
0.0142932 -0.020926 0.332101
-0.210348 -0.242728 0.359363
0.0822568 -0.0547383 0.298078
0.192225 -0.120395 0.31641
-0.0187763 0.136368 0.39605
-0.130599 0.109074 0.42047
-0.050514 0.0920931 0.327123
-0.146214 0.285421 0.665629
-0.0994159 -0.0742886 0.303987
0.0438088 0.127432 0.383076
-0.198161 0.175034 0.475333
0.0554157 -0.211558 0.292366
0.0333517 -0.0273853 0.285711
0.103384 0.135849 0.397641
-0.109397 0.242966 0.557908
-0.214957 -0.121061 0.310047
-0.140769 -0.0365663 0.292204
-0.157739 0.000430286 0.281832
0.177716 -0.267501 0.345736
0.0987834 0.209425 0.511496
-0.0313652 0.176712 0.454273
0.16682 -0.113901 0.316114
-0.0415749 0.284629 0.52246
0.0674397 -0.0880629 0.30671
0.183034 0.163997 0.43192
0.0140174 0.241833 0.558035
-0.0357194 -0.200071 0.282656
0.140859 -0.0723011 0.30362
-0.178733 -0.0585294 0.305368
0.0451614 -0.269103 0.389199
0.144922 -0.258718 0.351657
0.19811 -0.0302102 0.286757
-0.0271485 -0.214891 0.2927
-0.180124 0.143293 0.467028
0.0419607 0.0703901 0.294959
-0.0902614 0.154168 0.421831
0.139266 -0.0301309 0.290668
0.166702 -0.269142 0.340161
0.123036 -0.282195 0.337567
-0.0476035 -0.134285 0.322892
-0.0202669 0.227399 0.623772
-0.149903 -0.140044 0.32322
-0.000218034 -0.0520322 0.297147
-0.111714 -0.259258 0.386814
-0.209925 0.0449661 0.282942
-0.0184301 0.195645 0.482153
0.194075 0.143959 0.405852
-0.0173352 -0.0500314 0.103255
0.107985 0.238961 0.549039
-0.170527 0.258255 0.601585
0.00481176 -0.0229465 0.332559
0.150944 0.25026 0.578546
-0.183284 -0.237594 0.328303
0.168752 0.118688 0.367436
0.202865 -0.0428447 0.272263
-0.108761 0.0866702 0.34672
0.192431 0.185123 0.529029
0.106739 -0.108277 0.312816
0.249039 0.118353 0.426925
0.163777 0.269484 0.576701
0.0721001 0.0385944 0.279752
-0.161227 0.244302 0.539931
0.151421 0.245446 0.532624
0.212885 0.00725515 0.280531
-0.0565366 0.255468 0.593646
0.076609 -0.214602 0.337572
-0.10237 -0.0431908 0.294281
-0.208187 0.0357643 0.25743
-0.0355147 0.250103 0.57975
-0.152029 0.276012 0.608329
0.00391023 -0.236639 0.34222
0.180898 -0.26142 0.319198
0.119432 -0.0633214 0.180429
0.134672 0.212943 0.502951
0.0451255 -0.00587089 0.279041
0.107648 0.251381 0.590917
0.145069 0.121884 0.372083
-0.124868 0.146493 0.411011
-0.184732 -0.0621604 0.297702
0.123654 0.292125 0.68098
-0.083614 0.254155 0.590523
0.101522 -0.217813 0.339634
0.21617 0.0984729 0.333009
0.176131 0.0916303 0.324916
0.194927 -0.177905 0.309969
-0.0783878 -0.0115858 0.280688
0.0293321 0.0106691 0.27659
-0.206896 -0.245311 0.380702
0.0545826 -0.177995 0.333023
-0.186798 0.210437 0.459486
-0.206742 0.128538 0.355731
0.141425 -0.167222 0.365842
-0.199168 -0.18182 0.333704
0.134496 0.0546257 0.299191
0.157365 -0.15744 0.328375
-0.167459 -0.106673 0.35168
0.16466 0.132657 0.392648
0.166466 0.237155 0.54053
-0.19345 0.165414 0.438543
-0.133846 0.078115 0.309821
0.174603 -0.21386 0.337506
-0.0143056 -0.0479953 0.292657
0.149644 0.10129 0.341216
-0.0899798 0.258459 0.601418
0.19338 -0.255555 0.32557
0.0144275 0.318713 0.67843
0.0112102 0.262333 0.618108
-0.0325934 -0.271835 0.344666
0.0610874 -0.233888 0.340411
0.204508 -0.0719711 0.281624
0.117419 -0.282617 0.326143
-0.0919064 0.288035 0.676334
0.199558 0.0801312 0.356056
-0.149648 0.135822 0.459871
0.192181 0.129909 0.383243
0.0854339 0.149659 0.414531
0.165764 0.228182 0.624145
-0.0244701 0.250445 0.576327
0.0340744 -0.206079 0.339466
0.193197 0.114241 0.311984
-0.17782 0.127838 0.384705
-0.223805 0.0512991 0.439403
-0.146181 0.0885826 0.321367
-0.0518643 -0.163213 0.329541
0.199881 0.116974 0.326766
-0.0435872 -0.0488963 0.175519
0.0601855 -0.0177949 0.331417
0.0821758 -0.00495899 0.278796
-0.0259483 0.273017 0.632942
0.123004 0.154365 0.421086
0.0893065 -0.0547713 0.295299
-0.128 -0.0640422 0.057126
0.205185 -0.0774226 0.303655
-0.227292 -0.11697 0.441341
-0.149199 0.0270994 0.320929
-0.130735 -0.0152169 0.281762
-0.0124308 0.213667 0.518813
-0.190778 -0.0177424 0.258555
0.115963 -0.0574731 0.298967
-0.0150825 0.0829407 0.310393
0.133497 -0.203829 0.281634
0.194518 -0.253072 0.344129
0.236649 0.0247648 0.457671
-0.0822333 0.0967603 0.335542
0.0795325 0.119901 0.374332
-0.161953 -0.109434 0.317088
-0.0605621 0.108202 0.355487
0.1067 0.225866 0.537512
-0.181372 0.278288 0.644742
0.0686975 -0.0131766 0.281335
0.187285 0.150722 0.365973
-0.00941761 0.107324 0.353899
-0.0435458 0.111205 0.357193
0.249851 0.151916 0.413253
0.00516736 0.16936 0.0528887
-0.0302029 -0.208478 0.339968
0.0944189 0.279445 0.652481
0.0729421 -0.168953 0.330516
0.176782 0.213787 0.503781
-0.0156972 -0.271021 0.344903
0.00735648 0.159 0.496414
0.116018 -0.0315956 0.287103
-0.145159 0.130901 0.452612
0.217174 -0.126412 0.456447
-0.17503 0.244558 0.566765
-0.19834 -0.0524724 0.0690701
0.247093 0.0981122 0.29066
0.123924 0.0892105 0.325622
0.0970524 -0.170112 0.329241
0.121995 0.284013 0.70059
-0.109239 -0.143889 0.324349
-0.172116 0.271471 0.630301
-0.0511342 0.095094 0.332542
0.202349 -0.075221 0.304583
0.18299 -0.0225634 0.288591
-0.00403595 0.231813 0.63429
-0.0106378 0.0851779 0.314402
0.067374 -0.0382132 0.336118
-0.189077 0.203775 0.504064
-0.202443 0.0224373 0.276087
-0.187019 0.198591 0.458454
-0.0338026 0.13209 0.387406
-0.0822882 -0.17309 0.33132
0.0488039 0.245004 0.561778
-0.00164168 0.293321 0.69001
-0.144177 0.122972 0.377641
0.16279 0.301611 0.676485
0.116742 0.231748 0.533903
-0.141983 0.234143 0.641026
0.00271094 0.199977 0.00544586
0.0440232 0.0989362 0.404729
0.0788485 0.233823 0.532686
0.111323 0.264554 0.622658
0.0944674 -0.0675759 0.180385
-0.181003 -0.156163 0.307247
-0.0594532 -0.235276 0.381339
-0.0275379 0.214502 0.505439
-0.102038 0.302984 0.701974
-0.0481679 0.0268939 0.278055
0.149585 -0.0318628 0.291163
0.184922 -0.0259246 0.250233
0.199787 0.02075 0.287429
-0.199912 0.137621 0.378263
0.0493824 0.2466 0.565858
-0.196142 -0.0473171 0.295469
0.160266 0.150932 0.415993
0.180609 -0.148894 0.361657
0.141937 -0.0662059 0.299609
0.0412583 -0.0916081 0.348376
-0.172808 -0.173829 0.36712
0.0295367 0.228899 0.579748
0.0709913 0.0906783 0.323833
-0.157078 -0.127015 0.356366
-0.00711414 -0.0516976 0.132713
0.183908 0.242084 0.536589
-0.00953211 0.125731 0.380916
0.117308 -0.0664525 0.189182
-0.122383 0.119064 0.37409
0.0982942 -0.0774641 0.30515
-0.202911 -0.118512 0.303724
-0.144268 -0.270181 0.340261
-0.187742 -0.165064 0.306118
0.037989 -0.262492 0.345124
0.0944628 -0.0096264 0.284886
-0.00560639 -0.152008 0.0663917
-0.160644 -0.217462 0.337902
-0.217556 -0.0140143 0.46074
0.013753 0.242076 0.554547
-0.141133 0.191209 0.473465
0.0521662 -0.0647732 0.298965
0.118863 -0.0293311 0.298882
-0.0441348 0.293365 0.693391
0.165999 0.0793781 0.310218
0.100631 0.157635 0.425873
-0.0960981 0.222833 0.521794
-0.157896 0.149786 0.415883
0.182398 -0.139964 0.308051
0.00767741 0.253519 0.596878
0.0147286 -0.069482 0.0921262
0.184345 -0.151035 0.326923
-0.144351 0.207159 0.499847
-0.0809887 0.237959 0.576539
0.193617 0.21557 0.557939
0.00716488 0.110949 0.359301
0.171002 0.223928 0.613847
0.114729 -0.18618 0.370181
-0.174666 0.147805 0.413128
0.017499 -0.253364 0.342566
0.136031 -0.139278 0.321708
-0.0131669 0.240549 0.554669
-0.00916378 0.202165 0
0.0930056 -0.0692151 0.186466
-0.158184 0.155362 0.462507
0.165441 0.129982 0.383473
-0.0608267 -0.0553 0.304717
-0.0108623 -0.0185026 0.282907
0.165944 0.155142 0.421991
0.177281 0.289492 0.665376
0.211225 0.0180164 0.27632
-0.173496 -0.133595 0.357867
-0.104473 -0.169192 0.328886
0.0453164 0.206874 0.572085
-0.0660278 0.111038 0.357054
0.092567 0.162042 0.500781
-0.203126 0.141925 0.402175
0.191341 0.190145 0.48044
0.0990397 0.0347808 0.284124
-0.0543612 0.182155 0.459658
0.03625 0.176335 0.450684
-0.196678 0.154147 0.363457
-0.0592546 0.293747 0.53692
0.207083 -0.0179747 0.282967
-0.12224 0.104018 0.349476
-0.194147 -0.00919465 0.268303
0.0232828 0.0976398 0.336337
-0.1121 -0.0732648 0.184901
-0.208803 0.0958206 0.379084
-0.223277 0.00740779 0.25673
0.113486 0.122474 0.37307
0.161696 0.0835889 0.316743
0.150199 0.205973 0.493915
-0.186101 0.0688649 0.361683
0.252721 -0.0632472 0.0462294
0.164498 0.196129 0.479229
0.0757229 -0.0575013 0.296295
-0.0568148 -0.0532947 0.0562642
-0.162673 0.225938 0.519485
0.0666956 -0.0680053 0.186299
-0.236049 0.0890279 0.288609
0.00334485 0.270217 0.625737
-0.114043 0.0264768 0.3211
0.0982962 -0.10271 0.311137
-0.217529 -0.0031146 0.250887
-0.0257403 0.1475 0.411977
-0.0173863 -0.0228957 0.297298
-0.152283 0.239623 0.553374
0.0105419 -0.281449 0.32342
-0.2033 -0.220784 0.328107
0.0729203 0.107433 0.356046
0.150237 -0.0730906 0.308971
-0.169238 0.15969 0.427439
0.0604017 -0.225632 0.340865
0.0978038 0.198011 0.485091
-0.0466699 0.216521 0.513023
0.185504 0.247245 0.569812
0.00824381 0.114039 0.361217
0.134818 -0.229615 0.344956
0.231893 0.0976071 0.2802
-0.00621853 0.029191 0.0760915
0.0246363 0.0326132 0.278878
0.0825354 0.194598 0.552438
-0.103546 -0.21159 0.282395
-0.233418 -0.117732 0.417743
-0.0631154 0.284092 0.700254
0.246691 0.113097 0.314569
0.00918313 -0.0742933 0.108324
0.151641 0.145362 0.470933
0.207877 -0.0522074 0.0699232
0.0916662 -0.146193 0.323625
-0.223236 -0.0346837 0.47332
0.098284 0.279805 0.649203
0.0400705 0.277433 0.643647
-0.0771581 -0.0550184 0.177127
0.140747 0.0562157 0.284478
-0.241831 0.0525105 0.257428
-0.170199 -0.161584 0.327148
0.210348 -0.0868263 0.326874
-0.183103 0.104934 0.351173
0.163161 -0.144907 0.324898
0.0555692 -0.283672 0.334341
-0.00170133 0.2629 0.619581
0.0071722 -0.259604 0.320528
-0.220126 0.117797 0.328562
0.162514 -0.288927 0.368551
0.0732827 -0.0969743 0.310972
-0.0234893 -0.0516957 0.0800178
-0.109429 -0.0521556 0.0716721
-0.199155 -0.0564124 0.340096
-0.058587 -0.273292 0.344237
0.0736378 0.133173 0.388435
0.0661682 0.27739 0.653978
0.207285 -0.101007 0.346886
0.138321 0.161783 0.500125
0.160076 0.256304 0.593914
-0.226655 -0.096334 0.288006
0.0403153 -0.0471614 0.29567
-0.0101571 -0.178549 0.332589
0.167861 0.235311 0.528449
-0.00882983 0.274892 0.641742
0.0380714 0.0780125 0.308773
0.173419 0.055444 0.304535
-0.154671 0.234483 0.552567
-0.0705903 0.287157 0.669429
0.0537267 0.229352 0.530495
0.00742047 -0.231977 0.3417
-0.0174229 0.0858369 0.385782
-0.184205 0.106267 0.319264
0.182958 0.255068 0.590029
-0.220087 -0.100672 0.354725
0.163799 0.260601 0.612707
-0.0621627 0.0306896 0.320171
0.0924073 0.257925 0.598568
-0.104679 -0.270408 0.3258
0.0778932 0.0990964 0.338263
-0.0482493 0.0345048 0.275624
0.185238 0.230788 0.532046
0.187138 -0.17852 0.314638
0.0333276 -0.0829699 0.311153
-0.135887 0.179221 0.458457
-0.07096 0.128101 0.381925
0.190663 -0.174529 0.331845
-0.0531414 -0.236531 0.346402
0.162972 -0.230455 0.340066
0.118294 -0.212987 0.292545
-0.0937679 0.320576 0.681068
0.0995803 0.31825 0.699355
0.186617 0.120909 0.370502
0.185927 0.146701 0.409814
-0.134537 -0.289082 0.359723
0.103586 -0.241919 0.342848
0.126679 0.0178257 0.276316
0.0139374 -0.283465 0.357247
-0.144402 -0.0745688 0.302355
-0.216677 -0.110955 0.395798
0.0643727 0.28056 0.655588
-0.0908939 0.230812 0.533534
-0.23567 -0.0352387 0.472958
0.229366 0.000108134 0.258724
0.177037 0.208802 0.574448
-0.206158 -0.226643 0.325891
0.169026 0.109784 0.359029
-0.0791753 0.188143 0.471317
0.029921 -0.0519118 0.0686376
0.128371 -0.245985 0.343312
0.165211 -0.152213 0.326861
0.00416733 -0.124822 0.317486
-0.00534676 0.00129607 0.0896405
-0.199709 -0.145496 0.32315
0.043594 0.134054 0.395299
-0.161421 -0.122942 0.316795
-0.107994 0.135918 0.459806
0.241123 0.144139 0.351655
0.22349 -0.10597 0.340936
0.0734364 -0.260727 0.34494
-0.0274829 0.164955 0.434345
0.0807088 0.214279 0.509134
0.0629288 -0.11523 0.314823
-0.0303187 -0.162474 0.328997
-0.23144 -0.0823971 0.475303
0.163167 0.260908 0.563799
-0.0170354 -0.0848604 0.30725
-0.0373572 0.23597 0.539225
0.00742044 0.0373808 0.279603
0.171804 -0.0688118 0.227624
-0.0412275 0.142412 0.404768
-0.0951229 0.209571 0.499878
-0.0780709 0.243852 0.564128
0.102595 0.0951338 0.33488
-0.0907587 0.291968 0.690395
-0.111457 0.22904 0.579494
0.180076 0.135036 0.360331
0.197695 0.178407 0.452927
0.0569822 0.232835 0.578152
-0.00659133 0.198343 0.00550569
-0.210484 -0.270241 0.318428
-0.0984003 0.174653 0.451591
-0.17838 -0.149302 0.324249
-0.191238 0.0129415 0.324152
-0.066638 0.00151864 0.291645
-0.158428 0.0955967 0.336926
-0.220994 0.0195795 0.268212
0.0678444 -0.264941 0.345409
-0.19856 -0.000923911 0.257757
0.218797 0.143821 0.367238
-0.021005 0.134954 0.396938
0.0555947 0.124085 0.380596
0.188246 0.197454 0.42714
0.17922 0.232673 0.527385
-0.142715 -0.22039 0.29293
-0.092096 0.214914 0.594232
0.0036018 -0.293704 0.045668
-0.103615 0.00338543 0.281181
0.0836754 -0.289044 0.36701
-0.173701 0.0426576 0.281546
-0.205029 0.0871087 0.324087
-0.142501 0.272297 0.636266
0.102335 -0.202385 0.335627
0.16277 0.165489 0.440887
-0.0521144 0.26461 0.612288
-0.0292655 -0.270845 0.344972
0.0288823 0.272105 0.634301
-0.134532 0.260404 0.606614
0.180757 0.142406 0.403692
0.172514 0.270075 0.635479
-0.0257185 -0.228253 0.379749
-0.157951 0.184268 0.463269
-0.164202 0.149813 0.413279
-0.24948 -0.0562548 0
0.0540882 0.178825 0.456947
0.14459 0.0535366 0.2943
-0.168401 0.0169434 0.288019
0.160252 -0.0553278 0.298344
-0.112924 0.165663 0.438511
-0.212147 -0.00941735 0.284537
0.0956465 -0.0922504 0.309579
0.175614 0.158687 0.404976
0.00470336 0.0376206 0.318629
-0.123098 0.0952299 0.342319
0.240553 -0.0626736 0.061815
-0.0979748 0.218234 0.515675
-0.00495907 0.202259 0.0176271
0.108941 -0.199544 0.336711
0.0721954 0.165013 0.457334
0.0334536 0.19807 0.493847
0.22189 0.0572886 0.283049
-0.0261396 -0.211447 0.338546
0.222785 0.0423745 0.276534
-0.065211 0.0724299 0.366325
0.216386 -0.0579207 0.289447
-0.0068016 0.171333 0.0659439
-0.0492069 -0.118899 0.354584
-0.165745 0.126228 0.382362
0.154055 -0.177928 0.333084
-0.102534 -0.0607525 0.34117
0.207557 -0.183557 0.332309
-0.222917 0.0420417 0.27382
-0.208777 -0.136153 0.320494
0.100004 0.14616 0.475574
-0.207462 -3.9041e-06 0.294074
0.239492 0.0258344 0.454716
-0.0243948 -0.0808937 0.306054
-0.23284 -0.0627617 0.266823
-0.118062 -0.0154106 0.33073
0.0128637 -0.189578 0.333501
0.203397 0.0883925 0.304321
-0.102345 -0.0879478 0.306504
-0.114887 0.154423 0.419641
-0.0236214 0.171023 0.515644
-0.120532 -0.0465167 0.295299
-0.186175 0.22631 0.539778
0.0616549 0.179921 0.458513
-0.122297 -0.072867 0.30352
0.16593 -0.0583079 0.204594
0.188805 -0.195539 0.322099
0.0921966 0.289919 0.679723
0.00781061 0.0553507 0.284175
0.105494 0.00873778 0.280102
-0.193607 -0.0459915 0.302472
0.182544 -0.12724 0.32145
-0.0275796 0.168212 0.43911
0.162281 0.273712 0.590405
-0.0510123 -0.120526 0.317784
-0.105265 -0.00731909 0.279335
0.033563 0.259959 0.600036
0.174078 0.199725 0.456917
-0.0367658 -0.0563124 0.093395
0.0151024 0.0123322 0.289222
0.177635 0.061897 0.29259
-0.191013 0.191113 0.476282
0.161625 -0.13716 0.323714
-0.231782 -0.116855 0.428036
-0.136211 -0.00841411 0.279643
0.135671 0.171673 0.443378
-0.10397 0.112609 0.364518
0.0408638 0.297247 0.697504
0.0784945 0.119982 0.435475
-0.00738162 0.191627 0.473414
0.00399205 -0.0644237 0.298775
-0.0538363 -0.163635 0.329238
-0.0932099 -0.283118 0.357084
0.198182 0.103402 0.346912
0.146031 0.101296 0.343989
-0.153107 0.0755558 0.354484
0.100986 0.210947 0.504178
-0.190571 -0.0852128 0.278328
0.0825823 0.320164 0.697722
-0.18378 -0.251875 0.342325
0.120162 -0.251278 0.342372
-0.128947 0.0204924 0.27719
-0.210149 -0.188083 0.33338
0.0790156 0.254664 0.590422
0.00158534 -0.032646 0.0961865
0.0945873 -0.0324897 0.287358
0.0332979 -0.188066 0.370552
-0.191651 0.123154 0.378124
0.133061 0.166527 0.442558
0.187744 -0.16155 0.305505
0.12407 0.262412 0.605372
0.175211 -0.209396 0.301026
0.245486 -0.0487862 0.0303837
-0.20042 -0.146425 0.323413
-0.131961 -0.200263 0.282878
-0.0752155 0.113695 0.363874
0.0154282 0.146166 0.469896
0.191571 -0.0579945 0.283784
-0.22125 0.0741908 0.296232
-0.112255 0.272054 0.631251
-0.0467755 0.0512211 0.281323
0.0110353 0.259915 0.600115
0.12214 0.183815 0.461212
-0.200935 0.0967277 0.347399
0.163728 0.216312 0.482914
0.0682072 0.149612 0.414548
-0.0219457 -0.104375 0.313095
-0.048488 0.276595 0.646434
0.0304643 0.0512372 0.281148
-0.144277 0.219973 0.512365
-0.0547343 -0.155205 0.327361
-0.0121302 -0.22168 0.378248
0.207202 -0.181949 0.366418
-0.0766864 -0.203527 0.291437
0.0553317 0.254088 0.584966
-0.0187207 -0.263881 0.343725
-0.0150388 0.189679 0.47056
-0.0533357 -0.039462 0.336311
-0.205454 -0.145275 0.323082
-0.0266609 0.0543457 0.308996
0.00160922 0.0983763 0.404106
0.0223933 0.0454235 0.276966
-0.131123 0.150143 0.413592
0.064412 0.170857 0.442532
-0.139128 0.179505 0.458889
0.149967 -0.240036 0.34113
0.0808002 -0.0631952 0.298415
0.122902 -0.222826 0.340449
0.0989253 0.224687 0.535683
-0.117352 0.255051 0.601576
-0.104185 0.172056 0.44782
-0.158431 0.255844 0.693486
0.147976 0.204197 0.491291
-0.116624 -0.0631186 0.0820206
0.0100583 0.187888 0.470495
0.0965365 -0.0776525 0.303614
0.105746 -0.219195 0.339858
-0.0415118 -0.138619 0.321352
0.0598813 0.0813842 0.350703
0.15283 0.247868 0.568216
-0.165977 0.0936222 0.333949
-0.0330322 -0.158422 0.328453
0.179693 -0.269349 0.330128
-0.144296 0.146604 0.414646
-0.150402 0.0332178 0.279057
0.0608139 0.15492 0.461063
-0.127096 -0.177122 0.330631
-0.231149 0.0694331 0.434525
0.11567 0.1433 0.408525
-0.17359 0.0707163 0.358693
-0.210339 -0.254454 0.367094
0.0939689 -0.13249 0.319744
-0.187177 0.0779273 0.290674
0.154455 0.263771 0.620424
-0.141065 0.061171 0.28874
-0.104008 -0.0178687 0.287005
-0.100034 -0.0480725 0.29258
-0.171045 -0.00942206 0.27992
-0.0450725 0.0284294 0.278284
0.152659 -0.0965033 0.309329
-0.210364 0.129808 0.336936
0.0113547 -0.0548279 0.298031
0.113218 -0.22164 0.340254
0.0916776 0.209938 0.502752
0.228472 -0.108536 0.354719
0.0304975 0.0746306 0.369086
0.193489 -0.0383999 0.293098
-0.0196901 -0.0655069 0.342327
-0.0351132 0.29277 0.684143
0.0055058 0.0016489 0.0627795
-0.00618477 0.0306151 0.0635312
0.0348012 -0.0099555 0.329594
0.200394 0.155649 0.414273
-0.225936 0.0461638 0.451666
0.154965 0.14608 0.409076
0.136415 0.0861424 0.385478
-0.0234535 -0.284009 0.330006
-0.0263193 0.252113 0.584809
0.177132 0.150602 0.412781
0.131973 -0.0451724 0.337764
0.179459 0.156781 0.424272
-0.00423883 -0.0559371 0.340139
-0.191712 0.134091 0.393642
0.110484 0.188782 0.471323
-0.226975 0.05913 0.448193
-0.0762281 0.28857 0.539297
0.212568 -0.272799 0.320165
-0.11705 -0.220363 0.33839
0.0457864 0.25391 0.58878
-0.0161384 0.17294 0.44868
0.0965888 0.0359089 0.279337
0.0177522 0.0258087 0.275981
0.0352085 0.132929 0.38827
-0.00843115 0.154205 0.41882
0.206665 -0.0341191 0.255092
0.11856 0.154548 0.461447
0.0399633 0.222016 0.531768
-0.143731 0.307016 0.703263
-0.168349 0.0208188 0.277203
0.0421495 -0.138437 0.359145
0.0763007 -0.0547713 0.295282
0.163893 0.148038 0.465191
-0.0854767 0.17962 0.456101
-0.17358 -0.227112 0.344142
-0.180673 0.247811 0.563231
-0.0289846 0.0594335 0.29121
-0.015047 -0.0622029 0.297927
-0.018231 -0.175292 0.331858
0.0215925 0.0985543 0.340477
-0.121533 -0.201339 0.335338
0.003784 -0.2776 0.0685538
0.0748738 0.147289 0.408527
0.10953 0.260106 0.701599
0.221649 0.00377645 0.247417
-0.0306436 -0.177951 0.368176
0.0910289 -0.232227 0.341759
0.0155632 0.309968 0.673853
-0.155672 -0.165813 0.329646
0.0457214 0.284585 0.661849
-0.145777 -0.230346 0.34146
-0.181595 -0.159746 0.326731
0.00736719 0.209805 0.512587
0.163156 -0.078449 0.345441
-0.157284 0.148938 0.411993
0.0407716 0.246232 0.569197
0.199077 0.0579365 0.255875
-0.0798925 -0.104263 0.311424
-0.164531 0.215987 0.512818
-0.193216 -0.140694 0.323363
0.156029 0.256151 0.577344
-0.209517 0.0113409 0.279251
-0.0291818 -0.0448057 0.337559
0.18276 -0.280821 0.390811
-0.11881 -0.00777859 0.279464
0.241841 0.0560274 0.440949
-0.13525 0.0715325 0.296212
-0.0966363 0.309967 0.702784
-0.0458027 0.00795513 0.290181
-0.0233028 0.169926 0.448323
0.147785 0.00744551 0.280436
-0.0828984 0.238535 0.546241
-0.108696 0.12586 0.445036
0.0663975 0.147085 0.469281
0.0373762 0.197661 0.48487
-0.183702 0.107338 0.354811
0.161236 -0.226429 0.379474
-0.0718335 0.241186 0.557023
0.113066 -0.0150148 0.286412
-0.203676 -0.0860533 0.285551
0.0895202 -0.0382733 0.336149
-0.208735 -0.164864 0.336656
0.00268337 -0.102094 0.310856
-0.128706 -0.266208 0.317121
0.15646 0.121896 0.372046
-0.235922 0.101519 0.307297
0.181358 0.156466 0.463359
0.14053 -0.264443 0.317599
0.0681861 0.138923 0.40233
-0.176882 -0.276513 0.390732
0.0765546 0.196961 0.483636
0.0256943 0.131756 0.453032
0.0717329 -0.229038 0.341395
0.124225 0.167325 0.439774
-0.193835 -0.0122725 0.280782
0.0025826 -0.0774926 0.110447
-0.181297 0.226432 0.520142
-0.197648 -0.148507 0.361277
0.188384 0.139115 0.354166
-0.144693 -0.0460083 0.337746
-0.0485556 -0.247232 0.341858
0.168807 0.107192 0.350046
0.14255 -0.0614073 0.341506
0.0785027 0.317482 0.699933
0.143819 0.241142 0.561528
0.0423698 0.0955923 0.335892
-0.199119 0.148384 0.4114
0.209049 0.0889154 0.30572
0.00553643 0.0619542 0.0629119
-0.0846181 0.0587074 0.286824
-0.16255 0.252168 0.586121
0.00524154 0.160671 0.0667499
0.180628 0.2799 0.67719
-0.132672 0.111134 0.362494
-0.179402 0.237352 0.544021
-0.0401321 -0.184196 0.332267
0.0352325 0.061232 0.292444
-0.170849 -0.210103 0.304453
-0.1638 0.164464 0.505987
-0.207487 -0.199264 0.326312
-0.0329792 -0.130817 0.320718
-0.191737 0.0443726 0.276726
-0.148908 -0.199199 0.337742
-0.114009 0.142419 0.405128
0.207304 0.0564319 0.258267
0.0757224 0.196371 0.490927
-0.103392 0.241369 0.563208
0.049381 -0.132515 0.321278
-0.118506 -0.133848 0.321495
-0.0998185 -0.270221 0.336902
0.084867 0.195469 0.553808
0.162637 0.1148 0.366429
-0.153891 0.255037 0.556991
-0.146325 -0.00315519 0.277999
-0.149405 0.2572 0.594681
-0.0394007 0.10996 0.35529
0.041615 -0.272216 0.354681
-0.0361822 -0.217012 0.283014
0.198557 0.179566 0.431627
0.0491784 -0.0408256 0.301473
-0.216822 -0.0755781 0.480743
0.210103 -0.163798 0.34033
-0.0127856 0.233742 0.533264
-0.109484 0.0388742 0.279886
0.0336161 0.0974681 0.341597
-0.105101 -0.107707 0.351966
-0.035841 -0.13627 0.32226
0.108174 -0.261505 0.352269
0.177962 0.0846855 0.312376
0.0660029 0.105629 0.350952
-0.105308 -0.210932 0.338421
-0.114689 -0.214496 0.282709
-0.00446102 0.276722 0.652933
0.187874 -0.122321 0.31852
-0.129583 0.291809 0.690322
-0.0360048 0.231584 0.527896
-0.00338648 -0.316286 0
0.0873047 0.194661 0.488155
-0.0164683 -0.164756 0.329924
-0.197114 0.0414181 0.268166
-0.025966 0.255991 0.590531
-0.193498 0.103853 0.316863
0.119881 -0.283206 0.33591
0.069623 -0.281016 0.323002
0.152113 0.292761 0.662147
-0.0157964 0.310578 0.702726
-0.190069 0.145616 0.3792
0.139252 -0.254691 0.327303
0.151273 0.179938 0.528833
-0.203136 -0.119985 0.31948
0.199418 -0.0208123 0.28384
0.171014 0.107948 0.35393
0.165238 -0.173607 0.331621
-0.0742476 -0.199778 0.335113
0.125256 -0.252638 0.342525
0.0220099 -0.107638 0.312539
0.0456144 -0.234612 0.340486
0.16738 -0.172848 0.329901
0.062369 0.191245 0.475218
0.0245186 -0.254778 0.344256
0.174035 0.281711 0.65342
-0.148026 0.0896012 0.327644
0.0513931 0.177717 0.525848
-0.133656 0.114135 0.364836
0.14479 -0.269209 0.341899
0.144599 0.127817 0.385639
-0.0279937 -0.118698 0.319322
0.0862606 -0.204654 0.335982
0.173822 -0.0710083 0.303251
0.151869 0.253352 0.58644
0.0267721 -0.117661 0.319126
-0.135939 0.223087 0.522309
-0.193407 -0.0764073 0.302947
-0.0650486 -0.153 0.325319
0.165481 0.172874 0.444989
0.233103 0.11774 0.329671
0.0935158 0.293788 0.690486
-0.177233 0.108602 0.353933
0.149441 0.100096 0.339411
0.0297653 -0.0747672 0.302646
0.177122 -0.0817727 0.22933
-0.0448471 0.145644 0.466057
-0.197715 0.0474126 0.254967
-0.00640732 -0.0652252 0.307041
0.208962 0.0283285 0.238001
-0.0133817 -0.0590165 0.0570201
-0.192417 0.169602 0.408774
-0.0583403 -0.0437539 0.337295
0.131328 0.274798 0.640296
-0.203781 -0.228203 0.320778
0.0919188 0.0996707 0.341806
0.0575723 -0.197367 0.37271
0.0791488 -0.269924 0.329035
0.0528984 0.0126507 0.279153
-0.116977 0.161616 0.432618
0.0552989 -0.163981 0.329397
0.0560911 -0.279859 0.341805
-0.103383 0.2763 0.540341
-0.0200314 0.292833 0.688643
-0.160103 0.247093 0.535629
0.150102 0.226844 0.621043
0.106689 -0.0993526 0.311719
-0.0902621 -0.0603248 0.29964
-0.0599792 0.161125 0.42897
-0.14368 -0.284437 0.328548
-0.188533 0.14691 0.411915
0.0224032 -0.0517596 0.297086
-0.0350206 0.124958 0.379941
0.0628951 0.209808 0.512295
-0.00225517 -0.164379 0.329442
-0.0564717 0.277779 0.645351
0.215454 -0.0960042 0.298776
-0.189779 0.23111 0.527997
0.233631 -0.0189497 0.458681
-0.0231759 0.0130685 0.276487
0.0723881 0.135155 0.393896
0.00551739 0.137375 0.0606316
-0.0951236 0.185619 0.467649
-0.0173485 0.249429 0.577871
-0.175697 0.214398 0.591189
0.0962767 0.202227 0.564447
0.124089 0.285384 0.667393
0.0973344 0.311562 0.702623
0.194392 0.00570311 0.265193
-0.0232442 -0.00398043 0.292943
0.130187 0.0540478 0.282937
-0.127856 -0.0929053 0.307966
-0.0996475 -0.265726 0.343901
0.00514035 -0.109351 0.314614
-0.185499 0.108896 0.323388
0.159604 0.186135 0.467148
-0.145901 -0.207331 0.336286
-0.172228 0.113627 0.36635
0.0024039 0.196016 0.490756
0.154797 0.270348 0.636283
-0.172911 0.247276 0.514415
0.00097324 0.115074 0.362819
-0.066927 -0.172686 0.32969
0.0452758 -0.0569031 0.0924381
0.161109 -0.00620182 0.279264
-0.172095 0.107658 0.352479
-0.204965 -0.131779 0.32219
-0.0668712 -0.130272 0.318962
-0.0614318 -0.0289724 0.286106
0.0435879 0.242379 0.559297
-0.0241669 0.160496 0.427899
0.134597 -0.25959 0.38708
-0.151598 0.0960929 0.337641
-0.122351 0.10405 0.349525
0.11091 0.268013 0.619378
0.036202 0.0298437 0.278456
0.163075 -0.0171188 0.296109
-0.0388616 0.278584 0.65143
-0.0883171 0.0389338 0.275441
-0.0869913 -0.17427 0.367288
0.116709 0.0423513 0.317628
-0.0917638 0.035876 0.318955
-0.00456941 0.0770328 0.372787
-0.199026 0.102536 0.35019
0.00729567 -0.228151 0.341241
-0.137019 -0.284306 0.334892
-0.165949 0.166796 0.437717
0.16016 -0.13766 0.321272
-0.163322 0.12503 0.380652
0.0353934 0.0656419 0.295881
0.1905 0.156826 0.428005
0.18973 0.103678 0.347372
-0.0147324 0.0940819 0.330495
-0.00490573 -0.318172 0.0118309
-0.24424 0.0703155 0.436086
0.202791 0.124022 0.38397
-0.0900974 0.259509 0.599947
-0.177122 -0.0767725 0.303073
-0.134358 -0.128266 0.31833
0.202591 -0.243945 0.323553
0.200516 -0.1078 0.312767
0.189839 -0.121934 0.286229
-0.0917463 -0.215826 0.339213
0.0369907 0.134895 0.393696
-0.0866321 -0.0520707 0.0697101
0.165888 0.088869 0.324875
0.16914 0.226288 0.619554
-0.0597443 -0.127327 0.318135
0.130353 0.204397 0.491676
-0.0106265 0.289705 0.675711
0.161359 -0.0510287 0.0617504
0.203643 -0.0619938 0.298122
0.104982 -0.020831 0.288032
0.174044 0.170672 0.422724
-0.101144 0.274846 0.642419
-0.142156 -0.0802726 0.310397
-0.134456 0.183245 0.464339
0.0609773 0.318796 0.678344
0.214137 -0.121242 0.443878
0.0209579 0.116114 0.369051
0.132651 -0.0266201 0.333497
0.228919 -0.0987473 0.303989
-0.169447 -0.251417 0.342279
0.0505239 0.268054 0.624032
-0.226665 0.123308 0.340536
-0.237743 -0.0576704 0.0640406
-0.217636 0.0885759 0.310409
0.221108 -0.101781 0.368527
0.00289312 -0.00290487 0.327948
-0.0178113 0.126693 0.38232
-0.119985 0.26183 0.610027
0.00546199 0.15005 0.0625295
-0.13837 0.213317 0.590757
-0.118773 0.16968 0.45485
0.0864069 0.0399401 0.279947
0.154576 0.206814 0.495141
0.133105 0.251015 0.580629
-0.0385347 0.216048 0.596534
-0.0370601 -0.0642694 0.342029
0.205537 -0.110308 0.352802
-0.129576 0.292227 0.687897
-0.136354 0.0665272 0.29702
-0.0193887 0.0874688 0.346467
-0.223641 0.12839 0.418721
-0.141798 0.226155 0.539298
0.0811098 0.268694 0.625364
-0.0584352 -0.236772 0.381683
0.208451 -0.00398159 0.265533
-0.050001 0.25844 0.596962
-0.123435 0.298972 0.700211
-0.00990105 0.161207 0.428848
0.10795 0.246661 0.569717
-0.119134 -0.110387 0.313223
0.127672 0.0157205 0.2764
0.0441164 0.161024 0.434913
0.0425617 -0.105129 0.311807
0.143979 0.269025 0.62566
-0.163337 0.305436 0.676075
-0.188152 0.00761683 0.280133
0.00316547 -0.222795 0.34038
-0.216921 0.100259 0.331171
-0.00339015 0.0158134 0.278374
-0.133987 0.222115 0.611943
-0.131979 0.290718 0.683876
-0.0860997 0.263011 0.608601
0.00262798 0.226733 0.519774
-0.0569061 0.0373281 0.27551
-0.0458658 -0.240346 0.347284
-0.182814 -0.265843 0.317423
0.0422775 -0.0781751 0.310057
-0.0806286 -0.0589748 0.340778
0.183135 -0.127418 0.29634
-0.189728 -0.280542 0.342038
-0.0425446 -0.240699 0.347368
0.0976337 0.249185 0.675356
0.129032 0.0307388 0.275799
-0.136607 0.18997 0.471604
