0.0133108 0.201995 0.487518
-0.170111 0.248921 0.688506
0.120256 0.219883 0.639764
0.165493 -0.146618 0.345435
0.105946 0.240959 0.7394
0.0817738 0.20189 0.5764
-0.0753241 0.280599 0.767363
-0.0364035 0.228292 0.681908
-0.164214 -0.19331 0.355823
-0.0921443 -0.246257 0.366167
0.0623108 0.0642364 0.353602
-0.0827555 0.198806 0.533533
-0.191299 0.176795 0.442152
0.228613 0.132676 0.335409
-0.179026 -0.0151735 0.282881
0.0772952 -0.00785962 0.281272
-0.0145182 -0.0508392 0.290779
0.217114 -0.0948107 0.315362
0.0536734 0.214691 0.529194
0.0721554 0.233697 0.706407
0.192784 0.100554 0.341138
0.186101 0.0552417 0.26704
-0.0236609 -0.117835 0.339124
-0.153444 0.0972487 0.343908
0.209359 -0.0118745 0.308194
-0.0012292 0.0922386 0.0739425
0.118248 -0.177079 0.321927
-0.0538814 -0.0602742 0.326384
0.0317853 -0.00392053 0.313916
-0.173526 0.0842464 0.382773
-0.0771185 0.022852 0.268105
-0.16016 0.150519 0.412511
0.152118 0.206927 0.503782
-0.110753 -0.125157 0.340741
0.114859 -0.0655367 0.293911
0.0826281 0.184007 0.461208
0.130312 0.16993 0.445915
0.134317 0.0999457 0.340239
0.138891 0.0214911 0.267901
-0.101113 0.243659 0.751806
-0.0572819 0.245005 0.608516
0.072089 0.025391 0.273914
-0.0799951 0.204013 0.499298
0.0836737 -0.241109 0.331856
-0.0621659 0.168401 0.504349
0.195283 0.0720547 0.242231
0.00191099 0.176007 0.0584288
-0.126693 0.276333 0.743336
0.191571 -0.25315 0.349405
0.0269618 -0.188351 0.354694
-0.127605 0.259142 0.567677
0.247668 -0.0447868 0.000362527
-0.162149 0.0237024 0.268232
-0.097642 0.135675 0.391431
-0.0037194 0.245868 0.761764
-0.180934 -0.138899 0.295184
-0.160504 -0.0658785 0.18485
-0.151615 0.20284 0.497482
0.16276 0.0911096 0.326979
0.058112 0.0904126 0.39167
-0.0609576 -0.117317 0.305486
-0.00192012 -0.00600666 0.280859
-0.0222574 0.115796 0.370831
-0.14215 0.178453 0.45309
-0.0104242 0.163373 0.496468
0.00519876 0.00998895 0.0533474
0.09879 0.136649 0.454631
0.0723843 -0.132807 0.342366
-0.202039 -0.0814707 0.331112
0.13486 0.261388 0.675856
-0.196198 0.0575495 0.232301
0.140063 0.0971745 0.401487
-0.189988 0.150034 0.463149
-0.0235122 -0.108764 0.208681
-0.135062 -0.186488 0.320789
0.0358854 -0.0867424 0.297395
0.201659 -0.00418659 0.259045
-0.170662 0.134625 0.355992
-0.210655 0.0154556 0.430685
-0.112534 0.0932489 0.338079
0.125462 -0.0793054 0.330491
-0.0433027 -0.244057 0.332195
0.183423 -0.0676099 0.294374
0.0567034 0.238065 0.57442
0.122191 -0.185317 0.354024
-0.222371 0.0797207 0.269796
0.171674 0.176452 0.450067
0.04158 -0.157338 0.317447
-0.115721 -0.0695121 0.184002
-0.123714 0.243373 0.651784
0.0260699 -0.109266 0.198252
-0.0687361 -0.144354 0.344992
-0.0905094 -0.0179416 0.283496
0.0461019 0.262209 0.679424
-0.0134257 -0.172838 0.32096
0.0906969 0.136434 0.400815
-0.176113 -0.097687 0.278043
0.0600367 0.281673 0.757712
0.149487 0.250791 0.573962
-0.0777256 -0.192538 0.324855
0.0310028 0.18246 0.46554
0.0845904 0.268724 0.70797
0.00571345 -0.172705 0.072346
0.192404 0.148601 0.389068
-0.175042 0.241263 0.579085
-0.208416 0.145084 0.360422
-0.213823 0.00615325 0.236266
0.143239 -0.0388543 0.215593
-0.146235 0.248633 0.620102
0.171481 0.223015 0.463256
-0.168889 0.258313 0.733686
-0.13155 -0.266904 0.331151
-0.0710465 0.0509403 0.326295
-0.0322875 -0.0528436 0.0892991
0.100732 -0.24949 0.310043
0.127264 0.203992 0.531788
0.0426183 0.156132 0.420556
0.20143 -0.128628 0.294379
0.0678812 0.262472 0.777009
0.201757 -0.257094 0.308267
-0.00785545 0.0319539 0.305975
0.197112 -0.166021 0.349784
-0.130443 0.218099 0.63365
-0.164469 -0.0489161 0.0598113
-0.08745 -0.0232237 0.318183
-0.0717543 0.118577 0.430709
0.126929 0.0695082 0.293991
-0.123159 0.110548 0.420998
-0.00975204 -0.252621 0.352076
-0.00756784 0.277373 0.749628
-0.129566 -0.0637465 0.32715
0.0646349 0.0696499 0.313304
-0.0742777 -0.247979 0.312569
-0.179217 -0.198028 0.309888
0.0509178 0.234072 0.708127
0.206559 -0.0488939 0.0649465
-0.0309405 -0.0366527 0.215333
0.0299248 -0.0498103 0.208681
-0.0017368 0.243169 0.652051
-0.196507 -0.0193772 0.317344
0.183483 -0.0237938 0.278084
0.0219892 0.23875 0.577579
0.178301 0.181738 0.525145
0.196191 0.060703 0.329675
-0.0716724 0.0989655 0.338819
-0.0466995 -0.176501 0.352061
0.0382128 -0.257103 0.333705
0.224468 -0.0238394 0.247978
-0.0029155 -0.0644391 0.166068
0.181521 -0.0466034 0.269776
-0.18399 0.2138 0.485719
0.20717 -0.0301107 0.44235
0.0280941 0.257047 0.657391
0.0140765 0.0413614 0.280852
0.0158483 0.2445 0.755532
0.0734652 -0.0249793 0.318578
0.185178 0.208009 0.495165
-0.234202 0.129036 0.404969
-0.157465 0.242435 0.53062
-0.0517323 -0.0440613 0.284037
-0.0578687 0.183256 0.460137
-0.0179928 0.0878143 0.387908
-0.0103972 -0.185435 0.354045
-0.0335086 0.149127 0.41051
0.122523 0.26994 0.713358
-0.0235141 0.231153 0.54289
-0.0478119 0.295318 0.760972
0.016093 0.114777 0.369339
-0.193285 0.155742 0.400006
-0.0571665 -0.266778 0.331186
-0.201912 0.104193 0.323813
-0.198367 0.07317 0.299679
0.0979712 0.151643 0.478087
-0.116509 0.213696 0.514458
-0.0318369 0.222315 0.648406
-0.126616 0.207794 0.597334
-0.118075 -0.2183 0.361337
0.1874 -0.173707 0.321164
-0.015626 -0.117957 0.176282
-0.0408133 0.0214618 0.2679
-0.154046 0.102486 0.409299
-0.00556782 0.213136 0.513553
-0.0140796 0.183974 0.461183
0.211653 0.0314319 0.262267
0.125786 -0.0928521 0.299974
0.15685 0.288991 0.757093
-0.118595 0.261745 0.681715
0.165745 0.130338 0.444742
0.0562677 0.226228 0.655667
-0.145212 0.282332 0.689646
-0.123629 -0.0712567 0.295292
-0.0724298 0.0724198 0.298499
-0.0743118 0.154212 0.482154
0.154539 -0.242262 0.333134
0.0813265 -0.134654 0.311584
0.103612 -0.0220025 0.27757
0.0451403 -0.217721 0.329008
-0.126478 -0.0274169 0.279102
0.0440151 -0.0587847 0.0872337
0.00429474 -0.299015 0.0303679
0.16716 0.25592 0.668489
-0.00240032 -0.219185 0.328007
-0.06202 0.204307 0.58501
0.122684 0.21063 0.509599
0.10402 0.209192 0.602111
0.0149135 -0.0304883 0.319795
0.0154532 -0.10772 0.336795
0.17918 0.109371 0.328212
-0.150611 -0.0877682 0.298945
-0.208021 0.0621962 0.419199
0.116276 0.117803 0.431124
-0.0579092 0.131622 0.446808
-0.100355 0.228343 0.549849
0.178558 0.220877 0.561115
0.0227619 0.110925 0.421514
0.0132764 -0.0752378 0.296178
0.083377 0.233004 0.551211
0.129979 -0.153152 0.346884
-0.196035 0.0230229 0.268133
-0.166323 -0.0741288 0.329446
-0.10192 0.135915 0.420289
0.0838158 -0.0614378 0.326523
0.068427 -0.0666248 0.20506
0.160715 0.227592 0.678595
0.0938106 0.051595 0.335205
-0.126752 -0.00071764 0.313201
-0.0594864 0.153486 0.420237
-0.188181 -0.24972 0.309943
0.227717 0.0968195 0.29274
0.121962 -0.253549 0.345562
-0.153733 0.132076 0.422921
-0.147924 0.233469 0.567935
-0.226175 -0.0611685 0.258633
0.00281256 -0.111081 0.0535217
-0.0513926 -0.00727063 0.314654
-0.0961465 0.0435777 0.290258
-0.0821584 0.0806557 0.377525
-0.126505 0.269554 0.775443
0.205162 0.0761381 0.293087
0.0688808 -0.0880476 0.298906
0.128453 0.00497285 0.311951
0.195062 0.127062 0.412152
-0.167947 0.054882 0.281226
-0.15 -0.104925 0.22705
-0.0490987 0.110542 0.363209
0.165566 0.164724 0.401322
-0.200059 -0.00981617 0.257199
0.15083 0.238928 0.730137
-0.0613754 0.0190975 0.308818
-0.167191 0.270133 0.759149
-0.0688342 -0.223177 0.32889
0.00572952 -0.139778 0.069187
-0.203692 -0.107444 0.297966
0.0242338 0.133238 0.4287
-0.00763914 -0.0624802 0.136413
-0.223161 -0.102882 0.359129
-0.14532 0.159136 0.424955
0.158833 0.259465 0.624787
0.200962 0.129369 0.373582
0.0517358 -0.0113495 0.282043
0.102583 -0.251784 0.355963
0.0783422 0.25468 0.646978
0.182293 -0.133428 0.272851
-0.0632648 0.225526 0.669351
0.181767 0.0295091 0.250203
0.176835 0.091454 0.299148
-0.0919503 -0.210014 0.359498
-0.1727 0.0852721 0.318213
0.21377 -0.0962983 0.463893
-0.241542 -0.0469506 0.0260213
0.00787078 -0.151687 0.346554
0.0934354 -0.00821246 0.314868
-0.187352 0.112657 0.300733
0.0176484 -0.27313 0.320736
-0.102682 -0.124955 0.307175
0.203199 -0.0740398 0.26289
0.00632562 -0.0722887 0.101156
0.176683 -0.0835367 0.275524
-0.0589397 0.183601 0.528127
-0.193424 0.0102961 0.310769
-0.181274 -0.253321 0.343388
0.123539 0.245544 0.606599
-0.166169 0.264602 0.638194
-0.0032919 -0.0292563 0.206686
-0.0100712 -0.0416831 0.322271
0.0484879 0.0421158 0.303728
0.068569 0.115165 0.369889
0.0955466 -0.21681 0.327483
0.197434 0.0962473 0.373339
0.114667 -0.146281 0.311831
0.205575 -0.112299 0.399213
-0.0884551 0.102634 0.40948
0.157175 -0.000600678 0.271527
0.0767922 -0.0542136 0.083589
0.00485609 0.267646 0.703232
0.176663 -0.239273 0.318149
-0.229968 -0.0337708 0.444053
0.0247414 -0.23278 0.364556
0.170146 0.0434716 0.296494
0.100086 -0.0490827 0.0581723
-0.00411474 0.188677 0.0335015
0.164559 0.22393 0.52228
-0.0563784 0.214886 0.525642
0.0942636 0.103386 0.34541
0.094749 -0.154541 0.347191
-0.0313454 0.249763 0.778429
0.142287 -0.0488934 0.0674377
-0.0677813 0.286329 0.55754
0.055344 -0.208757 0.359225
0.189044 -0.0565629 0.325445
0.0585824 0.172143 0.44379
0.116841 0.131986 0.386154
-0.116563 -0.252901 0.350829
0.166685 0.253781 0.534501
-0.111684 0.19223 0.539523
-0.191994 -0.152342 0.316305
0.0393079 0.136404 0.454263
-0.00671762 0.138377 0.457362
0.174897 -0.123564 0.293549
0.153256 0.169423 0.439819
-0.0268576 0.208625 0.600209
0.159741 0.197877 0.453489
0.0976905 0.275448 0.74383
-0.197807 -0.219674 0.328149
-0.0388073 -0.0554967 0.181036
0.0919649 0.223905 0.661882
0.0292463 0.101668 0.342849
0.131224 -0.216908 0.361037
-0.166458 0.0642206 0.316174
-0.153351 -0.156949 0.317351
0.208 0.0957026 0.407132
-0.20534 -0.079454 0.291222
-0.100276 0.256399 0.777818
0.00871974 -0.049431 0.159358
0.141135 0.195353 0.553345
-0.169117 0.185791 0.531575
-0.205491 -0.0427585 0.273503
-0.124737 0.15205 0.478784
-0.180569 0.20724 0.504355
-0.0789849 -0.0494191 0.0540015
-0.00699615 0.0615494 0.349713
-0.0279272 -0.11409 0.304773
-0.150739 0.284762 0.723481
0.149555 0.285445 0.726463
-0.15815 -0.0443949 0.210438
-0.0392783 0.0925142 0.336987
0.0228715 0.202721 0.534306
-0.113654 0.0762302 0.304347
-0.207398 -0.192681 0.355824
-0.0472331 0.273687 0.730502
-0.0258957 0.29862 0.546839
-0.153954 -0.00783006 0.27352
-0.155503 -0.252556 0.337435
0.165247 0.0381027 0.271183
-0.0992089 -0.0715493 0.205151
0.00511467 0.24607 0.612231
0.0521753 0.273229 0.728208
-0.168172 0.231952 0.667269
-0.0363637 -0.0727916 0.208681
0.199197 -0.158191 0.30222
-0.099535 0.0678804 0.358947
-0.159719 0.211188 0.609309
-0.00954987 0.075218 0.311808
0.139549 -0.115487 0.338523
-0.207883 0.0639514 0.269433
-0.126701 -0.0271791 0.319057
-0.172933 0.183381 0.467034
0.206861 -0.0226817 0.265246
0.107749 0.234718 0.711024
-0.0748362 0.273308 0.734232
0.0057457 -0.18744 0.0558627
-0.228854 -0.060674 0.0534479
0.174976 0.229913 0.622493
0.106816 0.19453 0.550469
0.180823 0.0707658 0.313282
-0.0542502 -0.0747824 0.293745
-0.00559925 -0.0789601 0.0696022
-0.113341 -0.0491689 0.0735261
0.0672306 -0.119369 0.305857
0.115418 0.264277 0.6882
-0.048155 0.255275 0.649715
-0.203049 -0.0534517 0.32486
-0.0492331 0.239129 0.587814
-0.196301 0.116783 0.341982
-0.0576274 -0.07231 0.184756
-0.0970506 0.227516 0.656064
-0.00246268 -0.0245061 0.0894558
-0.0147695 -0.269332 0.33029
-0.00183077 0.0780424 0.0504586
0.102114 0.0238225 0.307778
-0.176629 0.202464 0.432441
0.221058 0.0513301 0.24696
0.0397231 -0.0461369 0.188832
0.178047 0.175929 0.391685
-0.198978 0.0948124 0.380601
0.0435719 0.0405084 0.272561
-0.0833386 -0.164602 0.349473
0.122265 0.268843 0.554608
-0.189616 0.0441674 0.260175
-0.16228 0.19743 0.560844
-0.183507 -0.0979685 0.3012
0.152317 0.112356 0.423566
-0.0506182 0.08006 0.318875
0.186225 0.160069 0.481138
0.0824729 0.209362 0.530265
-0.164218 0.134209 0.450882
0.0421087 0.19866 0.482689
-0.118182 0.250399 0.627556
0.138093 0.274692 0.773845
0.0148575 0.162852 0.495647
0.232064 0.0668009 0.418852
0.00540983 0.105817 0.0513595
0.161817 0.134298 0.39769
0.110746 -0.273134 0.31971
-0.112159 -0.0870417 0.332306
-0.197135 -0.227713 0.363441
0.209444 -0.118155 0.331671
-0.015674 -0.0460778 0.0642467
-0.100098 0.00614849 0.269921
0.2024 0.119435 0.32614
-0.130864 0.0308938 0.306205
0.192924 -0.0251299 0.239298
0.146551 -0.188687 0.324226
-0.0523114 0.218292 0.511847
-0.168406 0.232296 0.478075
0.134213 0.301699 0.757073
0.233134 0.149387 0.388254
0.0152434 -0.107315 0.181036
0.0126084 0.0291388 0.306598
-0.0795525 0.236106 0.717451
0.193594 -0.0989496 0.30133
0.0238864 -0.0111327 0.274469
0.00835806 0.0987977 0.403877
-0.141763 0.186544 0.471982
-0.0998096 -0.273176 0.319389
0.0393976 0.293057 0.552445
-0.186474 -0.174758 0.291852
-0.0678392 0.243399 0.750597
0.000384271 0.183912 0.528598
0.163873 0.263535 0.68964
0.0885641 0.134531 0.421259
-0.103569 0.281193 0.770082
0.0401744 0.104345 0.411939
-0.207752 0.0912914 0.411659
0.0453009 -0.0314748 0.320014
-0.0553764 -0.172542 0.320891
0.184776 0.171868 0.422848
0.197169 -0.188905 0.303323
-0.163742 0.23539 0.714265
0.0685414 0.0481736 0.328781
0.228493 0.113119 0.305651
0.187053 0.187647 0.456366
0.210503 -0.198761 0.333708
-0.0723853 0.139741 0.397197
-0.176226 0.160557 0.427025
0.0339636 -0.267307 0.309016
-0.19224 0.0415428 0.303837
-0.131127 0.198439 0.56438
-0.00376105 0.144346 0.421939
-0.223606 -0.0980235 0.300359
-0.0615348 0.043411 0.274221
-0.109999 0.159036 0.428932
-0.0759368 0.265646 0.694382
0.173174 -0.121487 0.339857
-0.173321 0.0664357 0.356866
-0.180777 -0.121747 0.339984
0.0873014 -0.037624 0.28202
-0.00142831 0.20245 0.578433
-0.0230971 0.163249 0.430902
-0.0906257 0.060784 0.318547
-0.1538 -0.00872923 0.314973
-0.104533 -0.185568 0.323705
0.107106 -0.0883104 0.202925
-0.0192492 0.271052 0.723944
-0.193263 -0.122323 0.279896
0.0923149 0.198371 0.482258
-0.00644366 -0.0924365 0.181036
-0.0299712 -0.0769169 0.330068
-0.0364953 0.173915 0.512969
-0.15232 0.211656 0.511276
-0.133173 0.0720678 0.365047
-0.134594 -0.219847 0.328149
-0.184229 -0.0604377 0.0516188
-0.170266 0.155861 0.38756
0.13122 0.229343 0.655426
0.154691 0.281351 0.706779
-0.0138982 0.0180819 0.267405
-0.0843024 0.242584 0.600009
-0.195781 -0.0763639 0.266875
0.0850652 0.24112 0.740146
-0.173075 0.230996 0.525884
0.217149 -0.090005 0.288986
-0.121519 -0.161598 0.315282
0.139663 0.0460918 0.275728
0.122537 0.15871 0.489137
-0.0225283 0.130994 0.384772
0.108702 0.223927 0.534166
-0.169883 0.24616 0.612657
0.196694 0.110719 0.388406
0.0617333 0.207349 0.595642
-0.0668497 0.199748 0.484288
0.182262 -0.216458 0.328803
0.00864655 0.0138741 0.268098
0.0900033 0.290678 0.568563
-0.132705 0.0785602 0.316707
0.0386163 0.0683146 0.292184
-0.036186 -0.0536883 0.212371
-0.194808 -0.128678 0.308005
-0.129505 0.108501 0.353137
0.168494 0.141322 0.374171
0.00397102 -0.0292553 0.183031
-0.0343238 0.126174 0.438279
-0.0931848 0.302557 0.755472
-0.154505 -0.132444 0.30883
0.0933649 0.246917 0.615161
0.0361883 -0.162104 0.348868
-0.0999169 0.161077 0.4929
-0.18519 0.106634 0.357568
0.0483881 -0.0749626 0.204044
0.210937 -0.0754926 0.315275
-0.138321 0.0562965 0.282315
0.074771 -0.249224 0.310482
0.00469897 -0.105565 0.212011
0.160781 0.207264 0.530862
0.03899 -0.109264 0.181647
0.0263116 0.147337 0.407959
-0.212385 -0.0851869 0.461488
0.055954 0.192336 0.542772
0.151105 0.189485 0.469252
-0.160537 -0.196761 0.325549
-0.0362942 0.211723 0.529645
-0.00874764 0.279635 0.772081
0.230829 0.0288126 0.428376
-0.194473 -0.032215 0.241996
0.16478 0.235986 0.576626
-0.0451688 0.0733118 0.29986
0.0109672 -0.170853 0.317281
0.134476 -0.0624583 0.202979
0.165982 0.167934 0.503554
0.010987 0.252769 0.635825
-0.0395805 0.137828 0.456511
0.131033 -0.000623456 0.271531
-0.0738426 -0.138142 0.312581
0.049617 0.250701 0.651045
-0.00845996 0.198259 0.482121
0.0628231 0.138314 0.418261
-0.12287 0.13114 0.393184
0.0053063 0.0559144 0.0522285
-0.0989713 0.276346 0.743382
0.0705049 0.242835 0.600796
-0.20091 0.0899394 0.293872
-0.208488 0.01314 0.267205
-0.0795865 -0.116119 0.338742
-0.144981 0.16361 0.496873
0.20666 -0.0377573 0.281754
-0.152045 -0.273203 0.318415
0.128494 0.113851 0.367962
0.186069 -0.143058 0.311119
-0.162148 0.168038 0.443031
0.194387 0.023836 0.229955
0.198395 0.0814537 0.351076
0.0684233 -0.162625 0.318647
-0.0489249 0.274105 0.774042
0.0124722 -0.118539 0.305671
-0.0669618 -0.036553 0.321134
-0.0970298 0.25879 0.664911
0.15882 0.0857625 0.384884
-0.125793 0.268529 0.70726
0.115325 0.0990327 0.404195
-0.176385 -0.2429 0.366795
-0.0278726 0.278339 0.752485
0.10874 0.185447 0.470192
0.0528103 -0.0999563 0.335073
0.16438 0.272159 0.747281
0.164295 0.10611 0.349477
0.180458 -0.0234303 0.262259
-0.0981415 0.222971 0.530923
-0.191097 0.0683146 0.260014
-0.118721 0.225752 0.670414
-0.157807 0.226203 0.502132
0.180484 0.142363 0.425163
0.0961589 0.00381419 0.27869
-0.191709 0.141056 0.437923
0.10262 0.27277 0.725974
0.169283 0.144845 0.467436
-0.184245 0.00945518 0.269136
0.07001 0.181632 0.525014
0.166047 0.226873 0.486266
0.0990564 -0.0852167 0.331802
0.132139 0.245039 0.757914
-0.158168 -0.0832231 0.214395
-0.137456 -0.058885 0.192923
-0.170858 0.239347 0.552155
0.182282 0.113174 0.359677
-0.221148 0.03053 0.242979
-0.183203 -0.0323179 0.265399
0.0315805 0.277978 0.755382
0.122664 0.154909 0.42242
-0.118159 0.240898 0.739267
-0.0537173 -0.112726 0.337992
0.149992 0.241969 0.597697
-0.140262 0.0285924 0.268948
0.20953 0.0223819 0.28227
0.0702155 0.0478324 0.276724
-0.225792 0.0992759 0.28089
0.165991 0.200249 0.570592
-0.0125951 0.00619254 0.311676
0.186127 -0.0494183 0.290337
-0.133767 0.259478 0.66787
-0.0213367 0.265325 0.697916
0.157093 0.156236 0.420681
-0.121568 0.175187 0.454207
0.0863281 0.070491 0.362687
0.19133 0.036625 0.27034
0.0841571 0.092465 0.394649
0.0642722 0.192316 0.47344
-0.14421 0.25519 0.64445
0.15057 0.0748716 0.369045
-0.103466 0.244946 0.608341
-0.224155 -0.112467 0.414058
-0.174293 -0.131406 0.272123
-0.158521 0.136174 0.39215
0.134861 -0.116547 0.306376
0.0933925 -0.157668 0.314358
-0.117512 -0.150466 0.346342
-0.179942 0.0906524 0.300422
-0.0651299 0.212744 0.614729
0.174839 -0.245249 0.36733
-0.0864368 0.173668 0.512595
-0.00275671 0.30353 0.741065
0.190002 0.0796116 0.279165
0.00710704 -0.084906 0.208681
0.142079 -0.0625917 0.289909
-0.166909 0.197725 0.481388
0.108431 0.287259 0.760762
-0.0707362 0.253122 0.640101
0.0445034 0.297792 0.73535
0.191354 -0.0974603 0.334524
-0.135276 0.21788 0.52101
-0.166429 0.249951 0.754196
0.101978 0.251849 0.648744
0.041282 0.242764 0.594826
0.141662 0.0811415 0.311809
-0.0592906 0.232652 0.701733
0.00749595 -0.0380984 0.0743246
-0.205716 -0.0243238 0.26249
0.193572 0.117501 0.303996
0.00976248 -0.250064 0.33486
0.112904 -0.202743 0.324362
-0.14381 -0.0532614 0.29131
0.135678 0.225732 0.525754
0.184319 -0.187876 0.354594
-0.176766 0.208617 0.465487
0.144759 0.234244 0.708846
0.0950389 0.214367 0.620348
-0.0549903 -0.203477 0.326658
0.0078679 -0.287408 0.0102293
-0.0714279 -0.232473 0.364485
-0.12186 0.231977 0.562662
0.0603887 -0.0344634 0.287158
0.00454799 -0.0500884 0.208681
0.0618294 -0.252935 0.340682
-0.137817 -0.11345 0.304628
-0.218128 0.111872 0.400581
0.204813 0.0611982 0.274946
0.0909381 0.0385845 0.276232
-0.10659 0.20031 0.493512
-0.0716281 -0.0285014 0.285834
0.130167 -0.0790379 0.198975
-0.212853 -0.14942 0.330131
-0.036912 0.261911 0.682427
-0.00644855 0.10967 0.419694
-0.0613712 0.165939 0.439718
0.0394108 0.255452 0.777907
0.135307 0.237407 0.581635
0.0770612 0.143936 0.466037
0.0544772 0.198724 0.565275
0.0154229 0.220583 0.516088
-0.0801236 0.216352 0.518604
0.0418801 -0.0600729 0.0583339
-0.138794 -0.0925513 0.333524
0.0643083 -0.202399 0.324284
0.128416 -0.0592092 0.0509437
0.119115 -0.242272 0.366667
-0.0791748 0.198498 0.56456
-0.0359775 -0.0610503 0.289412
-0.0265369 -0.225556 0.32942
0.115739 0.0691836 0.360779
0.0411675 0.0620693 0.317676
-0.171662 0.160449 0.491944
0.192908 -0.229669 0.315608
0.00945683 0.181424 0.463923
0.104867 0.201174 0.573869
-0.0128542 0.23262 0.701568
0.149623 0.25331 0.637648
0.0491283 -0.0677827 0.291546
0.0407882 -0.0540732 0.325015
0.145509 -0.0127843 0.315762
-0.0727901 -0.251885 0.35562
0.185429 -0.259755 0.324836
-0.0846955 -0.0733882 0.185044
-0.220693 -0.0964684 0.326458
-0.118182 -0.203648 0.324554
0.00695737 -0.130503 0.341852
0.103996 0.151286 0.413547
0.207307 -0.11284 0.306864
0.19646 -0.0602062 0.0505186
0.0428157 0.266155 0.701661
0.196921 0.131906 0.355336
-0.193251 -0.035251 0.287337
-0.0273169 0.244796 0.607765
0.178577 0.207347 0.444144
-0.00555653 -0.191953 0.071866
-0.0126574 0.104026 0.353722
0.00684334 -0.0261899 0.278759
0.139979 0.133783 0.388699
-0.115597 0.277042 0.56023
-0.233525 0.0738335 0.253268
0.182842 0.00362816 0.246862
-0.0575681 0.0163585 0.275908
0.204868 0.131797 0.341203
0.0494363 0.0775469 0.372958
0.00803149 0.00171584 0.312667
0.182333 -0.120022 0.307378
0.0467293 -0.182885 0.319952
-0.00690015 0.0441892 0.274659
0.230942 -0.0480403 0.0153099
-0.132467 0.182785 0.526869
-0.14434 -0.0558954 0.0499951
-0.0530642 0.276267 0.747661
-0.200924 -0.143428 0.296199
-0.17534 0.138862 0.404419
-0.181569 0.186347 0.419135
0.186197 0.180861 0.504833
-0.211109 -0.0263217 0.292136
0.20663 -0.139218 0.343208
0.0797434 0.279515 0.762331
-0.124496 -0.242722 0.333226
0.000803407 0.29432 0.560999
0.0265395 -0.230106 0.330582
0.146448 -0.207177 0.327273
-0.0913795 0.169329 0.439744
0.14407 0.134863 0.421036
-0.0202404 0.0729468 0.366295
0.219963 0.146058 0.353438
0.10402 -0.255947 0.333573
0.182861 0.150241 0.352826
0.000619092 -0.257206 0.0477084
-0.0523717 0.137679 0.425854
0.136718 0.211244 0.609325
0.138517 0.266578 0.698373
0.180842 0.124828 0.427046
0.185964 0.207438 0.468029
-0.130847 0.209031 0.497724
-0.148799 0.221555 0.645855
-0.147356 0.265952 0.629033
-0.163181 0.261102 0.661998
-0.194751 0.0272443 0.228295
-0.183235 0.203822 0.525997
-0.00608477 0.22678 0.529117
-0.0759768 -0.271569 0.31384
0.124574 0.0883847 0.322901
0.184296 -0.00237125 0.313415
0.221966 0.138095 0.403246
-0.00562868 0.15927 0.047773
-0.138056 0.138926 0.458255
-0.149224 0.28042 0.741166
-0.200087 -0.24187 0.333073
0.163358 -0.17731 0.321981
0.189225 0.170238 0.440994
0.15211 0.262332 0.604935
0.024211 0.165887 0.43472
-0.161047 0.226718 0.54416
0.0720058 0.0878301 0.33014
0.157644 -0.134094 0.269593
0.00429766 0.223149 0.658504
0.0908471 -0.093914 0.299584
-0.179375 0.120505 0.37774
0.150776 -0.0753306 0.32961
0.118575 0.0499705 0.327188
-0.155759 -0.219855 0.361698
-0.216288 -0.016631 0.240881
0.157699 -0.121753 0.307875
-0.0827426 -0.0944577 0.300427
-0.0631726 0.237776 0.653018
-0.0157278 -0.0635662 0.11667
0.178553 0.0599102 0.347276
-0.190654 -0.100175 0.335206
-0.036246 0.00998804 0.310835
0.147993 -0.0961538 0.214348
-0.0115812 0.196246 0.556584
-0.236063 0.1531 0.370939
-0.191178 0.131201 0.324833
-0.172706 -0.11738 0.251648
-0.181851 0.231167 0.505625
0.0192025 -0.149716 0.315718
0.0402149 0.108756 0.360576
0.100888 0.228388 0.682252
-0.174958 -0.118917 0.292063
-0.0164415 -0.152603 0.316371
0.0208628 0.239188 0.731376
0.00195698 0.237541 0.572051
-0.230928 0.00490198 0.432725
0.126099 -0.259802 0.323961
-0.108264 -0.0446716 0.322929
-0.183546 -0.204777 0.35836
0.161442 0.208317 0.474085
-0.207892 -0.172772 0.351383
0.204526 -0.0613138 0.278779
0.00520983 0.0334173 0.0525008
-0.073168 -0.0035913 0.280322
0.156539 0.23957 0.520918
-0.0127055 -0.0888974 0.221771
-0.213769 0.131846 0.403836
0.109397 0.245757 0.761205
-0.181074 0.0756213 0.285402
-0.0772235 0.178211 0.452719
-0.151041 0.239012 0.730721
0.0368682 0.232066 0.562883
0.0955146 0.171022 0.44763
0.0344646 -0.0925099 0.208681
0.0101566 0.129975 0.444214
0.182044 0.228674 0.502999
-0.0067351 -0.10618 0.303024
0.148805 0.248824 0.552328
0.141363 0.18487 0.530067
-0.0972078 0.103694 0.345918
0.032391 0.215032 0.516511
-0.151969 0.240347 0.592166
0.0668923 -0.0655001 0.184944
-0.159812 0.108262 0.359928
0.097079 -0.0534727 0.287022
0.161901 -0.0728334 0.29315
0.129967 0.181234 0.463597
0.211232 0.120518 0.398899
0.179071 -0.196161 0.322904
0.0875363 0.123255 0.38165
0.119411 -0.0364573 0.287501
-0.0191681 -0.00307695 0.272172
-0.195979 -0.0128933 0.235241
0.0269975 -0.0491465 0.0729173
-0.00425311 -0.280214 0.0417809
0.0537141 -0.00861552 0.314955
0.0366325 0.228382 0.53414
-0.209154 -0.0295197 0.444102
-0.0513139 -0.266845 0.308732
-0.00905727 -0.0435098 0.221507
0.10077 0.236761 0.568416
0.182448 -0.107812 0.286428
0.037567 0.219586 0.638758
-0.0236264 0.152296 0.479147
0.158976 -0.203041 0.35796
0.0721595 0.0802708 0.376915
0.150519 0.246946 0.615228
-0.197699 -0.198368 0.314532
-0.208967 0.0428671 0.257558
0.143296 0.257168 0.65784
0.0846891 -0.114683 0.338343
-0.00541235 -0.126545 0.0807346
-0.0751046 0.234826 0.572672
-0.14259 0.281929 0.757865
0.233816 0.0979581 0.408797
-0.0506186 0.230777 0.541718
0.0857283 -0.0733877 0.295653
-0.116572 -0.23997 0.366147
0.124116 0.146884 0.470637
0.0659948 0.260073 0.670296
0.133377 -0.141645 0.310803
0.199852 0.0477902 0.254439
0.0822182 0.247545 0.769318
0.166504 0.264325 0.649226
0.14402 0.111067 0.356723
0.0561258 0.179612 0.461078
-0.109956 0.0383825 0.304548
-0.158826 0.24484 0.653012
-0.0202329 0.0485771 0.330845
-0.0316125 0.187794 0.473909
0.133004 0.258425 0.570444
-0.101217 -0.143826 0.314215
0.219244 -0.0997345 0.33855
-0.0468559 0.246201 0.763318
-0.190023 0.17216 0.476911
-0.176991 -0.074659 0.267301
0.129228 0.28292 0.732206
0.0509838 -0.128206 0.341343
-0.169385 -0.240992 0.312085
-0.0139185 -0.062709 0.326925
-0.0249002 0.217615 0.520567
-0.175165 -0.211545 0.326332
-0.0478605 -0.0912702 0.299723
-0.116572 0.0986632 0.40371
-0.0947905 0.236822 0.568813
-0.0233151 0.216845 0.629134
-0.112747 0.0597997 0.285019
0.172709 0.231169 0.542847
-0.0362318 0.0430036 0.299852
0.0516616 0.227274 0.67722
-0.11734 -0.052322 0.286647
0.206312 0.0994228 0.292979
-0.0653831 -0.0491185 0.0705599
-0.155849 0.252389 0.570193
0.0773411 -0.0853443 0.33183
0.167615 0.251087 0.73348
0.105247 -0.0645892 0.327224
-0.0402804 -0.103543 0.195558
0.2228 -0.112515 0.454019
-0.136947 -0.15975 0.348396
0.0815749 0.1508 0.412862
0.0840224 0.193117 0.545507
0.110175 -0.212352 0.360025
0.00842113 0.184046 0.0175432
0.0336483 -0.251188 0.357957
-0.235948 0.108814 0.404013
-0.1817 -0.0161447 0.253932
0.0888179 -0.264495 0.307337
-0.156433 0.260698 0.67697
-0.0114935 0.250185 0.626942
-0.0346697 -0.263619 0.332156
-0.0106386 -0.101301 0.335465
0.0250595 0.274957 0.736577
0.0537393 -0.140583 0.313289
0.0865083 -0.0591321 0.197832
0.070379 0.132899 0.395679
-0.15608 -0.065204 0.204673
-0.12669 0.247012 0.613015
0.0646713 -0.152124 0.346653
0.0238522 0.23697 0.65381
-0.155896 0.0845621 0.325458
-0.235667 0.142078 0.389486
-0.0982942 0.125681 0.434938
0.165359 0.191677 0.479924
-0.0697465 0.113991 0.36088
-0.113687 0.145414 0.405257
0.095262 0.10277 0.409635
0.109885 0.2008 0.485765
0.114329 0.103594 0.345716
0.0972515 0.266188 0.696666
-0.178113 0.227445 0.56693
0.149105 -0.133908 0.342613
-0.167688 -0.0992325 0.335002
-0.221569 -0.122744 0.434074
0.0254722 -0.212283 0.360006
-0.211967 -0.109272 0.312705
-0.121188 -0.107375 0.336806
0.226171 0.0711369 0.257406
-0.189784 -0.104188 0.267132
0.0397231 -0.0929273 0.19495
0.169139 -0.252811 0.33986
-0.00800333 -0.109271 0.194763
-0.0320478 -0.0201564 0.277038
0.0159596 0.095944 0.334266
0.208505 -0.242231 0.35462
0.0384145 0.0890529 0.323924
-0.174874 0.0380595 0.271188
-0.175425 0.0317972 0.306003
0.0134381 -0.211946 0.328055
-0.0480426 -0.220833 0.328371
-0.0240824 0.103833 0.411209
-0.172504 -0.147209 0.34562
0.121971 0.257366 0.661617
-0.00578941 0.0617486 0.0679763
-0.188741 0.19158 0.46151
0.0366956 0.0155731 0.309602
0.210978 0.0334198 0.242225
0.0918736 -0.041575 0.322214
0.0397231 -0.0747887 0.184289
0.0692686 0.129313 0.443163
0.115279 0.2138 0.61834
0.204818 -0.0536661 0.450688
-0.111586 0.0134967 0.310055
-0.0666389 0.104617 0.412358
0.082439 -0.0603741 0.0649959
-0.168272 0.261109 0.611776
-0.00506087 -0.0840765 0.088998
0.189375 0.166109 0.461715
-0.0811473 0.22656 0.543555
0.00956981 0.196879 0.558803
-0.136437 0.264804 0.690677
0.00964794 -0.178121 0.352422
-0.207519 0.124296 0.329303
0.192251 -0.143577 0.283759
-0.182452 -0.049429 0.285728
0.0121024 -0.0883919 0.332609
0.0728307 0.26517 0.692148
-0.152863 0.0740641 0.367956
0.191187 -0.0207033 0.317485
-0.113935 -0.199206 0.357098
-0.0140057 -0.0716648 0.181036
0.197474 -0.0389626 0.267719
-0.191521 -0.15536 0.289522
0.222383 -0.0174488 0.44503
-0.0945014 -0.0961513 0.334323
-0.0402887 -0.0410426 0.19507
-0.00564642 0.000797102 0.0673498
-0.0282678 -0.060325 0.0702768
-0.170495 0.0954153 0.399018
-0.0902536 -0.190614 0.355192
0.17718 0.234576 0.521625
0.163863 -0.0488783 0.0665615
0.181786 0.123978 0.341069
-0.131475 0.172066 0.510099
-0.17677 -0.0220203 0.317913
-0.152257 0.202128 0.577387
0.182359 0.201192 0.525892
-0.171542 0.250708 0.629053
0.0285144 0.04373 0.294305
-0.111476 -0.259664 0.328108
-0.0590986 0.198942 0.566112
0.00638087 -0.0570819 0.292161
-0.198594 0.0425197 0.240294
-0.0518803 0.221141 0.644281
0.178945 -0.00614785 0.280733
0.0453678 0.04977 0.332564
-0.0013385 -0.044383 0.141244
0.186855 0.0876736 0.387656
0.141452 -0.0810969 0.297366
-0.134497 0.129113 0.424958
0.187002 -0.0680558 0.269587
0.105645 0.210426 0.499681
-0.170741 0.243232 0.595722
-0.196796 -0.186675 0.302844
-0.087675 0.248951 0.622437
0.0747066 0.197673 0.489339
0.0340394 0.121166 0.370941
0.0773306 0.108907 0.353694
-0.19974 0.0914971 0.354488
-0.0216171 0.224537 0.66483
0.191134 0.0660355 0.2898
-0.00243742 -0.129939 0.052766
0.00698157 -0.194549 0.32254
0.196741 0.0814715 0.331562
0.0375673 0.189177 0.536826
0.190153 -0.0521827 0.253423
-0.152224 -0.176347 0.318544
-0.0955289 0.0361052 0.27218
-0.182808 0.14259 0.342875
0.199482 -0.100263 0.286015
-0.212867 -0.0650589 0.312548
-0.0833408 0.14487 0.46754
0.203066 0.111788 0.35267
0.0425943 0.0671934 0.357908
-0.193675 0.0638158 0.321219
0.0573096 0.00611112 0.27818
-0.158204 0.259935 0.775168
0.154437 0.225326 0.509773
-0.185823 0.0955744 0.341484
0.0954159 -0.179801 0.352798
-0.0148546 -0.205795 0.327041
-0.0584024 0.142089 0.463181
-0.210103 -0.12676 0.312083
-0.224737 0.0553339 0.426332
0.166952 -0.143744 0.283644
-0.0506955 -0.0582521 0.0864558
0.113859 -0.24128 0.332915
-0.0350123 0.134916 0.420982
-0.180394 -0.138486 0.312675
-0.0467447 -0.21681 0.361009
0.201259 0.00672987 0.311396
0.0713207 0.272648 0.725458
0.0691647 0.163207 0.43082
-0.107665 -0.00923809 0.28157
-0.184268 -0.0489759 0.323879
-0.0844176 -0.118839 0.305822
0.141218 0.226053 0.671609
-0.161261 0.214528 0.474671
0.0237973 0.246728 0.61454
0.00588511 -0.248475 0.362462
-0.118393 0.294046 0.761017
0.0053609 -0.0926268 0.0581833
-0.102588 0.0804544 0.319461
0.160691 0.253618 0.576574
-0.0743786 0.140316 0.416458
0.0299024 -0.120036 0.339529
-0.196251 0.0574079 0.283181
0.199096 0.0052926 0.229108
0.0569912 0.0643665 0.288527
0.126773 0.0780328 0.373648
-0.15693 0.264591 0.694658
0.177688 -0.0881034 0.297818
0.078017 0.229789 0.688637
-0.172733 0.125566 0.43537
0.0290815 0.0573605 0.34361
-0.0761949 -0.00816491 0.314851
-0.00855525 -0.244938 0.333722
0.0139506 0.107636 0.351803
-0.160751 -0.103501 0.302493
0.206492 -0.0329495 0.25225
0.030632 -0.0637484 0.293637
-0.00898783 0.220271 0.641196
0.174354 -0.0345669 0.28704
-0.119473 -0.0552903 0.197871
0.0021008 -0.255804 0.066591
-0.171571 -0.178314 0.303372
-0.106614 0.230177 0.690518
0.0824857 0.0580165 0.320468
0.139608 -0.252643 0.338506
0.166977 -0.0252544 0.318494
0.00439051 0.259721 0.672428
-0.0132251 0.307522 0.557753
-0.189819 0.0787815 0.374828
-0.00789989 -0.287496 0.0216191
0.0384802 0.118594 0.430709
-0.00235626 -0.0665947 0.0543098
-0.021023 0.23732 0.57105
0.168327 -0.227082 0.330234
0.0119181 0.240734 0.593431
-0.111315 0.236523 0.719372
-0.0240771 0.0820391 0.321748
-0.0706815 0.193496 0.546932
0.0310434 -0.0292517 0.199669
-0.0938354 0.264377 0.688778
-0.0360742 0.184013 0.528766
0.0237645 0.126381 0.386213
-0.0308492 0.108452 0.353038
-0.201504 -0.096732 0.285107
0.177943 0.213396 0.578258
-0.128887 -0.091042 0.298697
0.0933871 -0.174972 0.321448
-0.0837411 -0.0456129 0.323138
0.12067 0.0741698 0.310974
-0.210262 0.0440114 0.422955
0.00398955 -0.0502379 0.177397
-0.195159 0.104671 0.28451
-0.145656 -0.194923 0.35618
0.152004 -0.0230524 0.235077
-0.156384 0.113904 0.425887
-0.0431322 -0.250172 0.309683
0.108778 -0.0699838 0.205559
-0.186557 0.153818 0.481022
-0.0150626 0.208139 0.496406
-0.0211096 0.244464 0.755398
-0.0543766 0.296083 0.548144
-0.118703 0.221397 0.528165
-0.0340752 0.181012 0.45683
0.174917 -0.160607 0.318193
-0.00735186 0.253818 0.778056
0.0730537 -0.217947 0.329046
0.210949 -0.177256 0.331104
0.21284 0.0895045 0.283474
-0.0586603 0.250105 0.626486
0.119168 -0.249869 0.309834
-0.112065 -0.257116 0.306525
-0.0350363 -0.0942049 0.333894
-0.15717 0.0341308 0.305487
0.0989346 -0.139779 0.31306
-0.0619111 -0.151483 0.313046
0.134809 0.121305 0.429315
0.130732 -0.133951 0.342622
-0.0788004 0.232927 0.654641
-0.0436745 0.204465 0.585558
-0.0931557 0.301108 0.737178
0.210497 -0.0143522 0.240803
0.0437503 -0.236387 0.331309
0.100059 0.0613586 0.349403
0.193331 -0.119414 0.280997
-0.0799239 0.188392 0.467703
0.13741 0.277674 0.718285
-0.0798293 -0.266612 0.331238
0.214339 0.150522 0.392013
-0.163652 0.215318 0.525268
-0.025398 0.0376374 0.270935
0.0226694 0.173363 0.451311
-0.0598115 -0.0518337 0.0533827
-0.170265 0.139728 0.378709
-0.114682 0.215624 0.624909
-0.147547 -0.0709955 0.292551
0.0899477 0.0438344 0.293575
0.121475 -0.016548 0.276016
0.201805 0.00181702 0.278967
-0.0796362 0.164628 0.49845
-0.124229 0.124862 0.376169
-0.214586 -0.106738 0.34173
0.220584 -0.078471 0.264769
-0.141924 0.193665 0.547568
-0.117751 -0.273146 0.321112
0.128361 -0.050951 0.324197
0.202716 -0.0722138 0.292956
-0.00451797 0.207863 0.530685
-0.0690726 0.303646 0.753517
-0.160882 -0.0323493 0.223449
0.111158 -0.171406 0.350935
-0.0588951 0.123906 0.374812
-0.0424846 -0.15495 0.347277
-0.0801359 0.0244149 0.30764
-0.212858 0.0506845 0.240057
0.0154363 -0.123722 0.173821
0.00776874 0.118214 0.430903
-0.077328 0.247267 0.768185
0.0940077 0.285102 0.552017
0.0417385 0.164944 0.438137
-0.127651 -0.059595 0.0759725
-0.248375 -0.0585807 0.0135118
0.169454 -0.119306 0.254544
-0.00570656 0.119563 0.376304
-0.077322 0.240155 0.735853
-0.0458102 -0.0447625 0.322951
-0.0796138 -0.237029 0.331964
0.11823 0.241211 0.652611
0.188207 -0.0841237 0.264534
-0.208609 -0.146869 0.312954
-0.00705277 0.192911 0.0164636
0.152992 0.265164 0.775779
0.00539899 0.00384681 0.0818491
0.114172 0.131852 0.447124
-0.0762031 0.0564846 0.342365
0.0894476 -0.253369 0.34411
0.083159 0.250701 0.629183
-0.0398947 -0.164075 0.318972
-0.178197 0.207143 0.449455
-0.0150705 0.254023 0.647813
0.16515 0.179646 0.431604
0.123682 0.193045 0.545229
-0.0854521 0.226628 0.674376
-0.207429 0.0305974 0.305504
-0.0673878 0.269862 0.718565
0.059787 -0.173037 0.351296
0.0736343 0.234351 0.570909
0.166141 -0.136959 0.309765
-0.0878888 0.0488509 0.331261
-0.212489 -0.0299201 0.309337
0.194922 0.0973843 0.301595
0.160656 -0.0139619 0.282467
0.0710419 0.229937 0.539019
-0.0309646 0.0669776 0.290555
0.184851 -0.259973 0.304382
-0.106375 -0.0877639 0.298945
0.0389642 0.295305 0.760987
0.149091 0.227763 0.65599
0.0500454 -0.225115 0.362856
0.163843 0.0209887 0.274892
-0.111945 -0.0178754 0.316999
-0.144102 0.24007 0.65251
-0.0696252 -0.0787822 0.294963
-0.0128309 -0.067561 0.0998662
0.228398 -0.00271414 0.437723
0.0843886 -0.203655 0.324564
-0.198449 0.0756177 0.24592
-0.0967202 0.219468 0.51405
0.10027 0.0237488 0.268232
0.16692 0.236703 0.662348
-0.156655 -0.252058 0.354866
-0.00441282 0.109197 0.0712146
0.056563 0.124014 0.382762
0.176096 -0.0287095 0.232837
0.138938 -0.0732681 0.185022
-0.150356 0.013823 0.276466
-0.105999 -0.0491766 0.0577084
-0.00999896 -0.039855 0.0795074
-0.224791 0.146678 0.354669
-0.00606932 0.175483 0.0220257
-0.0860912 0.14769 0.408482
-0.0223189 0.0225285 0.30806
0.108902 -0.106352 0.336494
-0.00173761 -0.0393296 0.288232
-0.0435474 -0.0590845 0.197577
-0.0277711 -0.18569 0.354101
0.0983977 -0.233921 0.364812
0.146781 -0.171708 0.32071
-0.162177 0.117992 0.37408
0.179963 0.188036 0.436297
-0.194251 -0.248569 0.362132
-0.0879712 -0.0385554 0.288058
-0.00159854 -0.0253948 0.318667
-0.195021 -0.115515 0.293328
-0.062347 0.256592 0.658252
-0.0519382 -0.0762139 0.202804
0.0169472 -0.0611688 0.109058
0.140819 0.214362 0.515434
-0.145448 -0.0365129 0.281693
0.0866974 0.0871944 0.321095
-0.110106 -0.0366839 0.287643
-0.192547 -0.00928095 0.273932
0.10789 0.224281 0.655262
0.000812516 0.110244 0.362751
-0.0193249 0.237473 0.653666
-0.0715615 -0.166826 0.319594
0.0941539 0.117109 0.430493
-0.196652 0.124026 0.415468
-0.047182 -0.193295 0.355788
0.0724202 0.223713 0.661021
0.0651688 0.0380209 0.304635
0.13377 0.239393 0.732262
0.127581 0.198242 0.563529
-0.0604593 -0.0581861 0.288505
0.173214 0.21479 0.505972
-0.176264 0.177304 0.399996
0.210927 -0.00515369 0.291736
-0.0349781 0.227261 0.530645
0.0853057 0.0123251 0.268468
-0.134867 0.281404 0.725743
-0.11409 0.270107 0.71971
-0.0987999 0.281788 0.551539
-0.0238301 0.240439 0.737104
-0.0332952 0.230367 0.556938
0.106373 -0.0490688 0.0741122
0.213777 0.10956 0.313673
0.185027 0.163388 0.401035
0.0312426 0.0502117 0.27808
0.0721489 -0.000820175 0.313231
0.00969756 -0.101537 0.301903
-0.126946 0.161119 0.42783
0.187426 0.130461 0.38398
-0.0223821 -0.0292588 0.202513
0.20617 0.145308 0.365095
0.199384 -0.13237 0.310932
0.00572454 0.0781126 0.0657689
-0.180037 -0.264055 0.307047
-0.170031 0.182792 0.439699
-0.203316 -0.0605862 0.0526709
0.215357 0.00412842 0.245015
0.0546009 -0.0970939 0.300913
-0.00894405 -0.0499896 0.155403
0.1157 0.274979 0.736624
0.0052763 -0.0634645 0.150381
0.220117 -0.0368761 0.451065
-0.0202225 -0.135007 0.198096
-0.169481 0.251262 0.712333
-0.169642 -0.152378 0.316314
-0.202916 0.0157176 0.251415
0.0474965 0.13318 0.422183
-0.00530958 0.0774829 0.372888
-0.0546437 -0.234637 0.364966
0.147956 0.243746 0.752042
-0.199491 -0.210249 0.359596
0.0342768 -0.0921251 0.181036
-0.0582974 0.0658634 0.31525
-0.0501456 -0.137906 0.310042
-0.129409 0.093025 0.337758
0.144355 -0.00628872 0.280907
-0.192373 -0.259747 0.326485
0.104079 0.0957804 0.333999
-0.0324961 0.269962 0.713575
0.158042 0.191659 0.536583
0.112525 0.25019 0.626881
-0.120753 0.205637 0.531312
0.162472 0.176792 0.517412
-0.142167 0.285694 0.709196
-0.0530909 0.260434 0.67572
0.229103 0.083914 0.416649
0.0936802 -0.25993 0.321084
-0.144731 -0.113322 0.23928
0.102568 -0.140095 0.343985
0.0148747 -0.0632533 0.208681
-0.157377 0.178888 0.460008
0.237071 -0.0622747 0.00901492
-0.145369 0.295574 0.735228
0.15245 0.129455 0.382573
-0.0298878 -0.0578714 0.325853
-0.141236 -0.019875 0.276953
0.192161 -0.234765 0.331506
-0.215854 -0.105301 0.377642
0.134095 0.248476 0.619203
-0.0608799 -0.203047 0.357953
0.0865527 0.113147 0.36695
-0.00174122 0.21099 0.608497
0.17301 -0.0610555 0.326442
-0.113708 0.258731 0.664667
-0.0342866 0.0898186 0.390827
-0.187919 0.161853 0.414553
0.0314125 0.263548 0.68981
0.0751749 0.17293 0.444928
-0.0538473 0.198434 0.533693
-0.201069 0.0420853 0.289743
0.201492 -0.207178 0.322552
0.00122046 0.169752 0.506446
-0.199877 0.0735045 0.281305
-0.0859275 0.294353 0.556442
0.00785846 0.154752 0.482973
-0.220447 -0.0982394 0.455179
-0.214574 -0.0428974 0.452241
0.123832 0.229579 0.537868
0.145323 -0.223506 0.32982
-0.0521415 0.242266 0.745431
-0.218965 0.0744763 0.421141
-0.0421717 -0.185503 0.323696
0.139158 0.263334 0.63037
-0.083768 0.0936443 0.396404
0.0248915 0.247466 0.769007
0.172243 0.0920076 0.393964
0.197002 -0.0780675 0.278641
-0.176023 -0.241652 0.332993
0.0746209 0.299213 0.562812
-0.130528 -0.0428324 0.322521
0.00575978 -0.229493 0.0687792
-0.00654228 0.263032 0.687499
-0.0635415 -0.125621 0.340846
-0.0166989 0.174844 0.447748
0.11044 -0.00415276 0.280453
-0.00555 0.160298 0.426613
0.158795 -0.0354498 0.219676
0.064829 -0.0491105 0.0735383
-0.0559837 0.0941039 0.339304
-0.0321643 0.251667 0.648813
-0.155337 0.126777 0.439253
-0.00810507 -0.0227041 0.284553
0.144497 0.180492 0.456019
0.10601 0.10979 0.419844
-0.200453 0.0587312 0.248089
-0.153258 0.22553 0.669434
-0.144874 0.0948086 0.398128
-0.186051 0.152496 0.384847
0.208389 0.0798748 0.411243
0.127475 -0.0951523 0.334009
0.161788 -0.245772 0.31614
0.177477 -0.173279 0.297964
-0.0364864 -0.0891366 0.208681
0.155921 0.27128 0.724872
0.166827 0.247419 0.614547
0.157698 0.268642 0.664628
0.12367 0.281171 0.769827
0.104766 0.260916 0.673865
0.185088 -0.00921287 0.258267
0.099333 0.232316 0.548049
-0.0698081 0.302473 0.557046
-0.110151 0.279686 0.754717
0.0545384 0.268579 0.712676
-0.0191489 0.13273 0.44853
0.0556626 0.030177 0.269175
0.117908 -0.0590985 0.19772
-0.0988878 -0.105898 0.302958
-0.0675745 -0.102875 0.302307
0.160831 -0.0530758 0.2869
-0.00137471 0.270915 0.717796
0.107363 0.200699 0.535529
-0.0238095 0.09517 0.333114
-0.0630759 -0.237923 0.332163
-0.00469152 0.142576 0.0484474
0.0712865 -0.0260389 0.278718
-0.0578632 0.0517644 0.335493
-0.212844 -0.202903 0.343211
0.0216841 0.0232987 0.268168
-0.00563887 0.0456501 0.0580247
-0.0820041 0.0406086 0.279632
0.0905083 0.129224 0.443019
-0.00532862 -0.165217 0.0526872
0.00974837 -0.227161 0.363308
-0.145485 0.222697 0.529987
0.142118 -0.102849 0.302193
0.182067 0.0851136 0.326158
-0.111639 0.246244 0.763563
0.143905 0.274371 0.738943
-0.0803772 0.209326 0.602706
0.044201 -0.0249858 0.278417
-0.134036 -0.217439 0.361145
0.0710396 0.198696 0.533588
0.132717 -0.199107 0.325943
-0.151546 0.194039 0.483712
0.127353 -0.263197 0.306641
-0.14559 0.042139 0.283459
-0.159832 0.274816 0.712275
-0.0116655 0.246379 0.610243
0.156263 0.0743733 0.301437
-0.101548 -0.201205 0.324013
-0.137455 0.0107876 0.310654
0.190529 -0.0338354 0.254346
-0.020587 0.0433797 0.296957
0.196173 0.112234 0.404224
-0.0541256 0.142672 0.409926
0.118724 0.237183 0.722222
-0.00558713 -0.0170075 0.0732618
-0.0956763 -0.154875 0.347319
-0.177494 -0.033565 0.28695
0.00178735 0.193109 0.545525
0.143942 -0.0604042 0.0566837
0.0464547 0.186367 0.471647
0.0624868 -0.11219 0.337789
-0.0522235 0.231306 0.560257
-0.244012 -0.0623867 0.0284105
-0.154595 0.182439 0.526334
-0.144839 -0.0514626 0.205726
-0.157327 -0.0538023 0.324948
0.0524898 -0.052374 0.291121
0.0240111 -0.107936 0.303854
-0.159239 0.193108 0.545615
-0.0881439 -0.264141 0.307108
-0.190528 -0.046371 0.258309
0.0392526 0.194914 0.551861
-0.0388566 0.238399 0.576004
-0.0459068 -0.0216954 0.284329
0.214695 0.0651009 0.242787
0.0441874 0.141647 0.39988
0.0591623 0.302229 0.738914
-0.051529 -0.030464 0.319787
-0.118567 0.22778 0.547878
-0.137402 -0.0119928 0.315696
-0.146361 -0.0926903 0.209239
0.0162386 -0.039585 0.208681
0.0106653 0.211293 0.528643
-0.0914276 0.185854 0.53166
-0.0264138 0.304253 0.565593
0.00710208 0.174499 0.0304872
-0.159633 0.228949 0.518077
0.130806 0.0582531 0.283794
0.0818799 0.273937 0.736966
0.025439 0.0619456 0.28666
-0.108171 0.113049 0.424632
0.054402 0.115047 0.362336
0.151493 0.201835 0.576175
0.185402 0.19678 0.506012
-0.0657294 0.23791 0.725641
0.143569 0.0669682 0.35755
0.188813 0.0466782 0.243465
-0.175054 0.145997 0.421535
-0.18664 -0.231681 0.310565
0.178428 -0.135822 0.343039
-0.202838 0.0940081 0.308782
0.172529 0.216154 0.615628
0.180613 0.105558 0.313183
-0.132416 -0.0606 0.0609684
-0.131748 0.103193 0.410309
0.136538 0.164527 0.432719
-0.0533949 0.293055 0.563371
-0.109643 0.0745712 0.368682
0.176654 0.157048 0.421855
0.206008 -0.107085 0.37168
0.00375605 0.270948 0.775142
-0.146404 -0.238818 0.331587
-0.147212 -0.25982 0.324587
0.0961935 0.24401 0.75326
0.109264 0.183576 0.528045
-0.218785 0.0346814 0.4319
0.209858 -0.0616046 0.301678
0.199504 -0.190775 0.355326
0.196034 -0.246977 0.318464
-0.168941 -0.211982 0.359955
-0.10603 -0.215514 0.328641
-0.104795 -0.0717807 0.328929
-0.000337422 -0.0341571 0.101324
-0.00788375 -0.0812935 0.208681
-0.188461 -0.0322193 0.32017
-0.0447239 0.104742 0.347477
-0.159484 -0.237006 0.365487
0.0562607 0.296346 0.760365
-0.161893 0.142702 0.464169
-0.109355 -0.0796372 0.196892
0.00127934 -0.159205 0.314695
0.0763338 -0.0397166 0.321839
0.00102985 0.171929 0.449073
-0.0897519 0.0538405 0.280412
-0.0645433 0.203775 0.498923
0.104785 0.169731 0.506381
-0.0449614 0.228865 0.655585
-0.200883 0.116027 0.356599
-0.0742191 0.276598 0.749179
-0.0467852 0.18891 0.47566
0.140317 0.281099 0.701503
0.0744636 0.132659 0.429157
-0.00417684 -0.160904 0.3486
-0.072349 0.230404 0.691521
0.00841332 -0.0707748 0.121649
-0.140145 0.11517 0.427725
-0.0197332 0.135493 0.420587
-0.105287 0.169991 0.446074
0.152634 0.266826 0.699464
0.183795 0.14131 0.399374
0.203496 -0.147039 0.312102
-0.218061 0.138468 0.390755
0.0272519 0.253675 0.642515
-0.0639701 0.191268 0.471931
0.0159792 -0.0292537 0.197258
0.17169 -0.178718 0.352561
-0.123662 -0.175105 0.32147
-0.0785401 -0.130966 0.342028
0.224169 0.0378632 0.236024
-0.0329358 0.259502 0.667918
-0.224847 0.0973399 0.29597
-0.188697 -0.0770506 0.294429
0.146946 -0.102488 0.335638
-0.170678 0.201691 0.534341
-0.154578 -0.210758 0.326159
0.0208209 -0.0425412 0.181036
0.0571058 0.230328 0.6911
0.190544 -0.170975 0.305412
0.15769 0.214425 0.488848
0.00893934 0.263412 0.689211
-0.148878 0.278378 0.666671
0.201797 -0.0528438 0.291101
0.207908 -0.0256983 0.288954
0.00564214 -0.12027 0.0724575
-0.142127 0.155235 0.483772
-0.219787 0.0203557 0.23183
0.132462 0.248902 0.65121
-0.174188 0.210763 0.60487
-0.0727295 0.00622335 0.311667
0.00107871 0.0195723 0.308715
-0.00151943 -0.182044 0.323048
-0.198896 0.0810971 0.26213
0.116432 -0.118569 0.306957
-0.218808 -0.0743646 0.258144
0.0213608 -0.0953954 0.208681
-0.0738987 0.241406 0.589102
0.15777 0.0431083 0.287827
0.0290601 0.19433 0.476413
0.192106 0.016018 0.242685
0.0351823 0.22366 0.653112
-0.174753 0.225135 0.493727
0.00597648 0.280269 0.755653
-0.0162907 -0.0468551 0.114212
0.0104885 0.126922 0.379039
-0.126727 0.190505 0.478176
-0.0356687 -0.0230167 0.318139
0.100172 -0.0689155 0.294661
-0.142759 0.0935942 0.330779
0.174371 0.212021 0.535319
-0.0221245 0.168486 0.50447
-0.0793434 0.293471 0.569963
0.00578044 0.092806 0.0606286
-0.124963 0.143942 0.466099
-0.182752 0.121298 0.334143
-0.156722 -0.0220604 0.277575
-0.131233 0.0737709 0.300583
-0.172131 0.217441 0.630427
-0.135868 -0.102002 0.222801
-0.124428 -0.148649 0.312417
-0.171963 0.0141649 0.276389
-0.088594 0.130031 0.424332
-0.182346 0.0248592 0.274022
-0.0527665 0.270323 0.715199
-0.187454 0.00507708 0.255142
-0.141066 -0.25307 0.341471
0.195161 -0.148509 0.345861
0.152036 -0.0265124 0.318773
0.165278 0.186745 0.465216
-0.000635566 -0.161195 0.0795275
-0.166289 0.236596 0.567826
0.145586 -0.0723077 0.204938
0.0887185 -0.0490606 0.0725349
0.187685 0.143991 0.365545
-0.08035 0.00830371 0.269412
0.160236 -0.0102419 0.315161
0.110901 -0.0918532 0.298957
0.126662 -0.0488783 0.0616083
-0.156919 0.25165 0.631988
0.129466 -0.243691 0.332155
0.113748 -0.0601389 0.0536433
0.0258574 -0.0545997 0.325131
0.044503 0.251861 0.634395
-0.108242 -0.172437 0.317681
-0.0346412 0.242779 0.594932
-0.0208812 0.274235 0.738405
0.096658 0.0617925 0.317872
-0.0019688 0.124467 0.0487377
-0.111539 0.222955 0.65769
0.0852033 0.163244 0.435466
0.00588866 -0.222282 0.0557719
-0.00859548 -0.260112 0.317198
-0.191567 0.170775 0.42857
0.0985643 -0.198952 0.32352
0.133766 -0.181248 0.322873
-0.00570586 -0.156584 0.0647624
0.0380537 0.241033 0.652305
-0.0667608 -0.105462 0.336384
-0.218759 -0.0204342 0.437357
0.11139 0.30002 0.758171
-0.180379 -0.114784 0.305853
0.00127131 0.202021 0.496161
-0.14029 -0.0737046 0.329353
-0.0446248 0.0624977 0.287095
0.0399558 0.307195 0.556731
0.124472 0.14164 0.415308
-0.190679 -0.162059 0.305257
0.19519 -0.0151304 0.275616
-0.159189 0.273053 0.733133
-0.159378 0.275162 0.676606
-0.167134 0.0988289 0.338637
0.174296 0.172812 0.41004
-0.0589177 0.000824839 0.279345
0.211451 -0.0489291 0.0510338
-0.193026 -0.205773 0.327033
-0.125767 0.253346 0.64114
0.0022357 0.0337541 0.269701
-0.167823 0.201609 0.495556
0.0119234 -0.0407569 0.282995
-0.037601 -0.113283 0.338116
0.0390851 -0.0369512 0.209255
0.0397231 -0.0621557 0.191787
-0.0352134 0.197691 0.534009
-0.100944 0.248605 0.651233
0.0522692 -0.142472 0.344511
0.0441914 -0.241562 0.366506
0.0354564 0.270505 0.721427
