0.244393 0.139475 0.00671337
-0.241633 0.186126 0.0124127
0.174585 0.219108 0.353798
-0.199708 0.189033 0.351442
-0.120315 0.0963208 0.302985
0.166975 -0.216675 0.241072
0.215148 0.040319 0.294085
0.0700719 -0.222221 0.241469
0.00617096 0.18788 0.490689
-0.0188726 0.198947 0.292764
-0.0763994 -0.111798 0.334733
-0.191213 0.253308 0.562028
-0.15282 -0.293144 0.335623
0.248719 -0.298972 0.174021
0.196393 0.251552 0.570395
-0.270129 -0.291926 0.120657
-0.0102304 0.255453 0.462605
-0.250884 0.119822 0.437687
0.0868299 0.129634 0.275651
0.245566 -0.230828 0.362614
-0.213917 -0.0439845 0.237569
-0.2306 -0.00757581 0.00960755
0.258026 0.0866847 0.432991
0.207745 0.162236 0.272231
0.0393785 -0.0338684 0.32549
0.237059 -0.0137725 0.00700211
0.215029 -0.300923 0.328045
0.205189 0.309389 0.0209606
0.192108 -0.121935 0.335786
0.138489 -0.0426509 0.229297
-0.188518 0.154218 0.219249
-0.127728 0.167209 0.435099
-0.165575 0.305199 0.0290896
-0.263642 -0.218111 0.403166
-0.0712611 -0.146218 0.236359
-0.13801 0.259604 0.636345
-0.19386 0.089055 0.222426
0.125804 0.283262 0.550198
-0.20442 -0.110098 0.334591
-0.153085 0.251014 0.447252
0.0101744 -0.320535 0.279987
0.184312 0.0614269 0.308853
0.134398 0.160086 0.409768
0.171555 -0.0857749 0.33164
-0.00608636 0.148903 0.361778
0.0892072 -0.317469 0.290608
-0.0780536 0.290964 0.571732
-0.081168 -0.268876 0.244662
0.127503 0.247175 0.438531
-0.249979 0.17855 0.422805
-0.0153754 0.0662539 0.30814
0.258825 -0.305687 0.0469197
0.0703417 0.181938 0.24498
-0.240938 -0.0503396 0.429298
0.225911 -0.107302 0.256804
-0.115465 -0.0211002 0.227901
-0.170911 -0.0503462 0.327712
-0.0450967 0.139055 0.216617
0.079967 0.231266 0.583898
-0.0280308 0.226885 0.574899
0.157569 0.276776 0.650947
0.174356 0.181065 0.474994
0.0478998 -0.0969717 0.232999
-0.188128 0.24642 0.459144
0.250575 0.202465 0.432464
-0.261275 -0.288985 0.0240189
-0.033967 -0.119267 0.335573
0.172861 0.103962 0.219367
-0.112429 0.177756 0.231267
0.0290983 0.0874488 0.22052
0.253241 -0.263991 0.256408
0.0980753 0.217956 0.349467
0.0505993 0.0620121 0.308835
-0.115374 -0.236404 0.242472
-0.260823 -0.270391 0.221488
-0.125025 0.200858 0.297137
0.125662 -0.073099 0.330203
0.223929 0.222642 0.0257941
0.264347 -0.166687 0.4351
-0.0562114 -0.250602 0.342243
-0.17281 -0.135793 0.235677
-0.0026457 -0.30714 0.247233
0.0979867 0.0580242 0.222494
-0.0707112 0.224012 0.36593
-0.203913 0.0995875 0.287325
-0.153906 -0.197984 0.341004
0.0173722 0.286913 0.560266
-0.0761309 0.31631 0.0179628
-0.222849 0.0888017 0.0159005
0.130225 0.312906 0.0249095
0.150192 -0.222409 0.341554
0.233728 0.0855944 0.00590224
0.260678 0.0158874 0.43887
-0.119663 0.273302 0.516622
0.21243 0.0229667 0.240874
0.10305 -0.267212 0.244504
-0.228724 0.0530535 0.42013
0.261672 -0.108743 0.0152289
-0.0859345 0.00201088 0.319339
-0.108636 0.0643658 0.222115
-0.120496 0.212705 0.547514
0.118382 -0.160777 0.237302
-0.055662 0.102802 0.219501
0.00907036 0.293535 0.580661
0.191305 0.278057 0.634535
-0.176322 -0.303115 0.247003
-0.264301 -0.261111 0.322545
-0.0670154 0.269508 0.648865
0.190384 0.24221 0.441847
-0.124103 0.146487 0.349889
-0.0580954 -0.0708205 0.330017
0.236395 -0.231465 0.324457
-0.260709 -0.172215 0.442472
-0.0447388 0.173658 0.455578
-0.250171 -0.0857767 0.00542428
0.11591 0.20659 0.537261
0.109633 0.142181 0.331847
0.0614089 -0.128758 0.336624
0.131761 0.153749 0.215959
0.0228809 0.0409951 0.312502
-0.0570955 -0.0497115 0.229823
-0.200701 0.175865 0.251752
-0.20122 0.0330421 0.310326
0.0107841 0.224161 0.367267
-0.0897427 0.264233 0.48888
-0.229644 -0.15729 0.269668
0.169385 -0.313669 0.25213
0.226313 -0.0466118 0.295228
-0.172799 0.187931 0.486298
0.0658224 -0.0177209 0.227628
-0.00638703 -0.201634 0.240093
0.0572634 0.160013 0.408307
0.0536696 -0.281412 0.34032
-0.0477109 0.131754 0.287815
-0.077779 0.188978 0.49263
-0.171594 0.25567 0.625279
-0.0769727 -0.312295 0.305101
0.0608722 0.25539 0.463216
-0.129331 0.127459 0.245665
0.179094 0.272905 0.523608
-0.146883 0.230939 0.386033
-0.0137564 -0.0846261 0.331585
0.242458 0.0400649 0.45484
0.16338 0.136982 0.305702
0.230557 -0.176861 0.260577
0.00921773 0.172906 0.222394
-0.214251 0.244816 0.0133757
0.0475446 0.201454 0.524148
0.144358 -0.28922 0.337741
0.223452 -0.266761 0.245107
-0.226162 -0.0857298 0.302974
0.244241 0.163533 0.407152
-0.0239399 -0.286447 0.338487
0.121038 -0.167666 0.340255
-0.221383 -0.0295788 0.293161
0.145782 0.00574995 0.318544
0.0547372 0.243461 0.426224
-0.0194592 -0.17999 0.340563
-0.166318 0.0459154 0.223378
0.263026 -0.136171 0.0149034
0.0810813 0.175606 0.461439
0.202203 0.163914 0.365924
0.0628319 0.276097 0.527317
0.0717958 0.301597 0.606316
0.0265342 0.127887 0.263827
-0.231935 -0.206309 0.325864
-0.156059 0.305264 0.616671
-0.214823 -0.312062 0.301884
-0.0968599 -0.183365 0.340651
0.202845 -0.0441694 0.229384
-0.0908308 -0.229544 0.341746
0.158026 0.198117 0.29223
0.258675 -0.277763 0.188565
-0.0614307 0.153654 0.380459
0.0265741 0.246664 0.612591
0.269237 -0.301892 0.137032
0.192686 -0.11073 0.233895
-0.0825524 0.241403 0.418373
0.228876 -0.0876047 0.305812
-0.131745 -0.125514 0.336332
-0.124259 0.210142 0.323732
0.247398 -0.252113 0.000367622
0.198959 0.23699 0.500696
-0.212283 0.0325966 0.251244
-0.238869 -0.0195756 0.459401
-0.128648 -0.0806618 0.231936
-0.224927 0.127268 0.026536
-0.0968421 0.227374 0.575355
-0.180633 0.139382 0.311704
-0.0613711 0.284685 0.552494
-0.197335 0.194266 0.414209
0.228568 0.142649 0.44522
-0.056659 0.182728 0.245917
0.0212764 -0.181458 0.238723
0.209639 0.104543 0.263744
0.0985393 0.093202 0.220113
-0.250866 -0.255956 0.348016
0.00066556 -0.0823828 0.232022
-0.132736 -0.319262 0.270948
-0.234366 -0.11102 0.0167023
-0.171961 0.157883 0.395499
0.0941861 0.290131 0.647391
0.00773732 0.09674 0.219896
-0.134055 0.183175 0.246389
0.0430401 0.143967 0.339885
-0.16436 -0.197966 0.239882
0.121746 -0.13703 0.33755
0.135043 0.235227 0.591744
-0.027274 0.304954 0.617614
-0.225427 0.0451472 0.0170246
-0.229717 0.113824 0.411056
0.237324 -0.20313 0.291525
0.0498715 0.204489 0.309351
-0.238785 -0.056436 0.00518634
0.22033 0.108067 0.436174
-0.069379 -0.224954 0.241685
-0.178788 -0.0217227 0.227959
-0.170922 0.241451 0.418805
0.126095 0.193776 0.279466
0.073924 0.307438 0.00511964
0.231859 -0.148983 0.316119
0.159064 0.0332759 0.224154
0.121149 0.0870505 0.304444
0.130456 0.239425 0.414727
-0.239555 -0.127744 0.457238
0.255058 -0.266307 0.325716
-0.0917883 0.0465653 0.311607
0.0927567 0.00954819 0.317918
-0.157147 -0.23426 0.341865
-0.0113666 0.256961 0.631938
0.146415 0.249453 0.618667
-0.0604868 0.217716 0.347003
0.243385 0.101929 0.0285954
0.239749 -0.0362094 0.429038
-0.19111 0.256528 0.524547
0.0976789 -0.235117 0.341861
-0.0853681 0.1971 0.286788
0.161129 0.31476 0.0207122
0.129187 0.267517 0.501518
0.226963 -0.317412 0.271277
-0.0603587 -0.00562153 0.22684
0.0155774 -0.162185 0.340137
-0.265334 -0.235428 0.0215619
-0.145037 0.0031992 0.31917
0.141554 0.125601 0.252592
0.105041 0.247936 0.615522
-0.0511588 -0.317557 0.261958
0.253348 -0.122236 0.436416
-0.247935 -0.282789 0.165475
-0.123569 0.13855 0.308248
-0.258198 -0.283599 0.0694853
-0.0186708 -0.0148143 0.322218
0.108253 -0.0951939 0.232863
-0.229128 -0.124896 0.301306
-0.129037 0.283811 0.549031
0.171256 0.296613 0.59323
0.140318 -0.217794 0.241153
0.242239 0.178071 0.0268241
-0.165022 0.202437 0.52468
-0.0198679 0.272417 0.514993
-0.0126241 0.159971 0.407078
-0.223472 0.134519 0.445245
-0.188322 0.126678 0.251906
-0.0879191 0.176658 0.462518
0.199985 0.174557 0.410712
-0.234856 -0.199797 0.298358
0.133402 0.185647 0.486376
0.0464202 0.0306045 0.224362
0.241331 -0.203217 0.416888
0.209356 -0.220109 0.241295
0.169233 0.205012 0.533883
-0.225999 -0.291819 0.248479
0.270832 -0.287099 0.222812
0.0809303 -0.146208 0.236324
0.23845 0.270793 0.00998509
0.25666 -0.0531638 0.0243399
0.00348239 0.138495 0.310138
0.113597 0.305388 0.631206
0.180901 -0.161534 0.237339
-0.12929 0.137632 0.216691
0.0607788 0.132489 0.216882
-0.196718 0.19386 0.300253
0.268419 -0.266124 0.303138
0.195828 -0.026979 0.324195
0.18701 -0.180306 0.340549
-0.000247835 0.215176 0.552992
0.0445933 -0.0774538 0.330737
-0.249432 -0.211711 0.420173
-0.095391 0.305364 0.618544
0.0478549 -0.284755 0.245705
0.102484 0.152239 0.377112
0.197013 0.146828 0.222086
0.258049 -0.284711 0.0908186
-0.205247 -0.266549 0.342636
0.176244 0.255764 0.468105
0.0359782 -0.0470068 0.229617
-0.14983 -0.259143 0.24402
-0.0731707 -0.11354 0.234149
0.207266 0.0627627 0.234112
-0.194455 -0.170654 0.34036
-0.0830238 0.12762 0.247432
-0.054834 0.300646 0.00467859
-0.218188 -0.108639 0.240721
0.254506 0.0335465 0.0147045
-0.127469 0.0126863 0.225618
-0.222562 0.0170507 0.434982
-0.169982 -0.0779773 0.231764
-0.0305129 -0.310271 0.312044
-0.0096513 -0.137046 0.235725
-0.249696 0.0459281 0.450633
-0.206395 0.303092 0.00695093
0.172433 0.180848 0.242929
-0.0207792 0.216669 0.34427
0.0484803 0.10294 0.30173
0.148718 0.164922 0.42981
0.0181573 0.270107 0.508275
0.182246 0.211492 0.3337
0.168672 -0.317908 0.290124
-0.134272 0.296159 0.587164
-0.266735 -0.277069 0.268517
0.205717 0.164792 0.327567
-0.146722 0.260288 0.476033
-0.112914 -0.075952 0.33063
-0.01526 -0.253884 0.243631
-0.0536135 0.206939 0.536627
0.228232 -0.00913848 0.435526
0.192743 0.284998 0.588774
-0.0232248 0.237322 0.406696
-0.168949 0.0722847 0.307189
0.018235 0.0645918 0.222069
0.0757524 0.26784 0.501913
-0.115219 -0.278074 0.341259
-0.14217 0.235693 0.590746
0.0169346 -0.247096 0.243163
0.106042 0.00810964 0.22587
0.0214246 -0.272593 0.34276
-0.086093 0.0660475 0.221996
-0.119966 0.291466 0.0144237
0.262677 -0.227851 0.0267588
0.197502 0.223281 0.397464
-0.108476 -0.184367 0.238948
-0.101323 0.207105 0.315271
-0.0483036 0.25301 0.454611
-0.0842218 0.140462 0.318851
-0.187712 0.287878 0.604282
-0.116338 -0.0377362 0.326241
-0.199976 0.151991 0.318531
0.0446345 0.125679 0.297435
-0.106701 -0.145943 0.338668
0.0486188 0.175539 0.460984
0.198073 0.00527052 0.318595
-0.109554 0.157749 0.396554
-0.211087 0.0573831 0.27458
-0.0536487 0.0230339 0.224899
0.126811 -0.293155 0.246254
-0.0710281 0.0912796 0.30383
0.161286 0.152395 0.378644
0.00124456 -0.0287805 0.228392
0.06022 -0.178687 0.340523
0.232396 -0.220153 0.256886
-0.220505 0.0821767 0.444129
-0.0179608 0.127087 0.245411
0.155437 -0.166119 0.340215
-0.0474445 0.0395151 0.312803
-0.209876 -0.188761 0.23927
-0.208249 0.292567 0.0291305
-0.171433 0.206442 0.312651
0.154699 -0.0376949 0.326082
-0.171174 -0.132359 0.337134
0.0450616 -0.319423 0.268053
-0.0121488 -0.219701 0.341504
-0.122494 -0.275152 0.245097
-0.17449 -0.316513 0.290619
-0.0891251 -0.0465068 0.229614
0.00266658 0.169987 0.447039
0.224983 -0.15007 0.247711
-0.235772 0.0927003 0.413508
-0.209524 0.00486491 0.310146
0.137747 0.21123 0.329575
0.0854096 0.292963 0.579757
-0.019112 0.29117 0.0161059
-0.194793 0.197544 0.460121
0.101862 -0.0471541 0.229611
0.262942 -0.26978 0.0359153
-0.113398 -0.134831 0.235598
0.010658 0.100013 0.302262
0.185963 0.133663 0.287811
-0.263246 -0.227119 0.364125
0.224943 0.0626877 0.425854
-0.0332243 0.157926 0.215806
0.221633 -0.00418126 0.278282
0.0309853 0.210678 0.326872
-0.0207812 0.0609625 0.222324
-0.221548 0.20889 0.0271795
0.0858205 -0.0917399 0.332361
0.201809 -0.267357 0.34262
0.0299633 0.230612 0.386985
0.138263 0.0497294 0.310913
0.00985913 0.134958 0.216784
0.194789 0.147568 0.338531
0.145168 0.145377 0.349256
-0.158646 0.131084 0.279015
-0.121424 0.3143 0.0238869
0.236272 -0.0828355 0.0128118
-0.229602 -0.289039 0.330832
-0.175152 0.108504 0.300904
-0.220381 0.158403 0.409007
0.20129 0.205361 0.441336
0.14325 0.132624 0.216863
-0.0564142 -0.175774 0.238356
-0.201962 0.144305 0.289714
0.161402 -0.261494 0.244104
0.223634 0.209766 0.407358
-0.0968245 0.248733 0.61566
-0.245724 -0.255364 0.289958
0.268379 -0.245916 0.347982
0.0258991 0.30304 0.61026
-0.263492 -0.195362 0.423493
-0.0656768 0.26994 0.506817
0.0664069 0.302008 0.0292944
-0.131968 0.18355 0.478934
-0.0518673 0.297974 0.593712
0.0665432 0.230459 0.386919
0.213813 -0.0205177 0.233451
-0.0230964 0.196111 0.510497
0.033171 0.154308 0.384537
0.174977 0.00197183 0.226268
-0.143007 -0.312351 0.304168
-0.234588 -0.0686287 0.459637
0.0314865 0.227878 0.577175
-0.0926338 -0.308281 0.247643
0.0516628 -0.170491 0.237974
0.0964641 0.0527798 0.310409
0.101176 0.181107 0.242924
-0.231392 0.202263 0.401373
0.175729 0.238845 0.596317
-0.0754312 0.160549 0.21612
0.226732 -0.0666946 0.265931
-0.15132 0.101267 0.219629
0.0773601 0.155057 0.215912
0.0924397 0.164091 0.425558
-0.192786 0.231358 0.52664
-0.0942255 0.275537 0.650643
-0.0557055 -0.196904 0.340968
0.148783 0.0754724 0.221301
0.125522 0.222835 0.364518
0.26675 -0.216764 0.401713
0.241336 -0.256774 0.300362
0.127466 -0.320753 0.274267
-0.193902 -0.216817 0.341455
-0.175262 0.221207 0.359131
0.197577 0.192173 0.289708
-0.0454067 0.142223 0.328876
0.0157495 -0.115533 0.335124
0.142057 -0.112199 0.234007
0.260218 -0.0150237 0.449775
-0.115904 0.195617 0.508482
0.173684 -0.310582 0.313394
-0.0716875 0.22933 0.579218
0.223255 0.16684 0.0177872
-0.161533 0.273267 0.51605
0.0105288 0.243506 0.425871
0.121672 0.130846 0.285193
0.159328 0.094547 0.303118
0.167164 -0.0779596 0.231681
-0.164571 0.146813 0.350838
0.110018 0.260206 0.478677
-0.210992 -0.0690202 0.325563
-0.260042 -0.125747 0.0174485
0.250162 -0.175317 0.00459256
-0.0949686 0.25176 0.450215
0.208264 0.112244 0.243416
-0.169646 0.279829 0.648903
-0.121146 0.103783 0.219451
0.1059 -0.0390008 0.326293
0.014574 -0.270324 0.244736
0.089855 0.191221 0.49958
-0.198468 -0.259972 0.244088
0.100931 0.124121 0.23069
0.216051 -0.107268 0.329715
-0.25159 0.145833 0.423629
0.104143 0.297753 0.00552752
-0.0632147 -0.15896 0.340068
-0.0135134 0.315782 0.014517
-0.247079 -0.300797 0.102926
0.161829 0.160501 0.216235
-0.246388 -0.29089 0.211195
0.250736 -0.285259 0.136066
-0.186868 -0.0224657 0.323653
-0.16233 0.0402846 0.312741
-0.00790907 -0.251569 0.342262
0.0597656 0.0729577 0.221493
-0.0437796 -0.286333 0.245834
-0.156347 -0.168823 0.237908
-0.112267 0.129733 0.271899
0.0479194 0.263329 0.643429
-0.256332 0.00904572 0.446884
0.0464959 -0.311714 0.308352
-0.172346 0.282283 0.548626
-0.168077 0.191464 0.269794
-0.223608 -0.0812959 0.263071
-0.219951 0.215631 0.430602
-0.0981619 0.208961 0.5406
0.0752136 0.138067 0.309539
0.0896664 0.205245 0.311933
0.241042 -0.121016 0.0256171
-0.0281639 0.281033 0.650516
0.202102 -0.0666631 0.329431
-0.20263 0.0602721 0.229493
0.173234 0.304916 0.628815
0.104565 -0.296284 0.333642
-0.222532 -0.152854 0.329168
0.000233606 -0.0423037 0.326717
0.0637083 0.0183037 0.316416
0.232967 -0.145155 0.276246
0.244042 0.128872 0.409816
0.0175917 0.19293 0.275917
0.245685 -0.151254 0.455587
-0.134204 0.0409784 0.312603
0.0345667 -0.136523 0.23568
-0.014414 0.14298 0.333462
-0.0649234 -0.293502 0.335587
-0.24849 -0.0222373 0.0270953
0.128465 0.269978 0.649972
0.235816 0.0185528 0.0270136
0.0950686 0.111729 0.300175
-0.243855 0.111942 0.0246906
0.0992767 0.251213 0.450716
-0.110098 0.229377 0.381719
0.23555 0.0627991 0.0279789
0.220542 -0.180636 0.335347
0.133499 -0.310335 0.313717
0.191927 -0.249732 0.243302
-0.00799084 0.0222976 0.315768
0.0695413 0.0160528 0.225341
0.0941166 -0.314975 0.254285
-0.237769 0.259969 0.0191824
0.0348099 0.258953 0.473945
0.175032 0.126942 0.249322
-0.195225 -0.30435 0.322049
-0.0588852 0.163695 0.421683
-0.224238 -0.105292 0.318681
-0.0192683 -0.156804 0.33988
-0.241036 -0.0883286 0.460193
-0.145797 -0.0887959 0.332119
-0.209496 -0.31767 0.263644
-0.251848 0.0166727 0.0195936
-0.165097 0.166782 0.432802
-0.240485 -0.209848 0.0211449
0.203511 0.284403 0.0113667
-0.220172 0.159075 0.0224377
-0.257684 -0.122017 0.440811
-0.205806 0.100123 0.256691
-0.216926 0.170876 0.439399
-0.243583 -0.237207 0.379597
-0.147284 0.17128 0.218723
-0.213164 -0.00392234 0.244963
0.0806136 0.208835 0.541576
-0.0321544 0.154602 0.384775
-0.106937 0.219248 0.35113
0.0808038 0.192574 0.275554
0.170003 -0.256778 0.342371
-0.0933348 0.103932 0.219434
0.261822 -0.310083 0.0780537
0.0330205 -0.00487456 0.226766
-0.19846 0.202965 0.37967
0.213686 0.0687499 0.274402
0.0482117 0.164456 0.216735
-0.173167 0.229789 0.57629
-0.0466067 -0.00684157 0.320852
0.0685281 0.148581 0.361589
-0.12527 0.294024 0.646377
0.18718 0.172467 0.446983
0.162386 0.221146 0.565359
-0.0356773 0.00831233 0.225891
-0.0249553 0.175806 0.227988
0.0337757 0.00313466 0.319069
0.0268849 0.312845 0.00870628
-0.0397767 0.231497 0.388902
-0.270057 -0.262991 0.00129407
0.189983 0.19953 0.505257
0.0616154 0.301454 0.641493
0.0989338 -0.198938 0.239887
-0.171949 -0.233266 0.242273
-0.035624 0.287016 0.559992
0.202597 0.203227 0.367858
0.199953 0.210434 0.478295
0.1657 0.288419 0.566607
0.210102 -0.183437 0.238814
0.255952 0.122706 0.43621
-0.0679169 0.3038 0.639664
0.0148715 -0.303369 0.324874
0.0519939 0.186418 0.487535
-0.191103 0.176711 0.432978
0.118191 -0.231083 0.242057
0.257884 -0.279429 0.0136295
0.0814612 -0.0564142 0.328304
0.238417 -0.0760176 0.438106
0.235356 -0.176609 0.294648
0.245197 -0.216755 0.00522258
-0.14786 -0.111954 0.234058
-0.0330956 -0.227883 0.241875
0.101483 0.281081 0.543176
0.0718927 -0.229293 0.341725
-0.0939565 -0.320312 0.276422
-0.186911 -0.178797 0.238589
-0.248564 -0.155428 0.0292121
-0.0422269 -0.0949323 0.232883
0.165106 0.236441 0.406084
0.102652 0.232081 0.392217
0.142997 0.300901 0.004594
-0.181877 0.260417 0.488807
-0.0546923 0.192873 0.275003
-0.196033 0.221505 0.438592
0.227825 0.12719 0.0244595
-0.254974 -0.308133 0.0745321
0.144521 -0.104242 0.333773
0.0776029 -0.0215628 0.323329
-0.180246 -0.090191 0.332294
0.195472 0.0935417 0.301775
-0.240003 -0.164509 0.431011
-0.236282 -0.24007 0.320395
-0.164287 0.298482 0.000712674
-0.269492 -0.294033 0.174045
0.121207 -0.201326 0.341055
0.169313 0.267156 0.500852
0.142111 0.259244 0.476054
0.198022 0.181753 0.257059
0.143316 0.215338 0.554271
-0.16546 0.133441 0.216876
0.180028 0.294293 0.00440759
0.136162 0.000438906 0.226382
0.262745 -0.0498033 0.441695
0.199156 -0.132999 0.235402
-0.0197712 0.116351 0.299444
0.0710805 0.265482 0.645541
-0.0817522 0.0325492 0.224262
0.23614 0.255984 0.0282059
0.131628 0.0983001 0.21976
-0.100119 -0.080155 0.231896
0.06978 0.246546 0.61266
-0.25422 -0.269334 0.0385336
0.226993 0.0236466 0.43074
-0.241748 -0.00946921 0.425008
-0.216253 0.0129849 0.277209
-0.145744 -0.0289505 0.22844
0.2329 -0.0366769 0.455039
0.0461335 0.216494 0.555794
-0.0152389 0.131597 0.272232
-0.246573 0.0735886 0.0236436
-0.203019 -0.0822937 0.232064
-0.0474773 0.18795 0.490389
0.216555 0.155988 0.421529
0.235914 -0.0496224 0.0101797
0.131482 -0.134167 0.235498
0.195156 0.221025 0.539561
-0.23616 -0.307028 0.282039
-0.0438972 0.303835 0.0291737
0.215658 -0.0875191 0.235121
0.0768074 -0.264522 0.342563
0.231686 -0.124455 0.300954
-0.206465 -0.14213 0.236113
0.113961 0.175051 0.46038
0.215471 -0.209382 0.34062
-0.215486 -0.233351 0.340654
0.0722373 0.124287 0.243182
0.244417 -0.202685 0.0245478
0.137514 0.295112 0.586997
-0.196333 0.132705 0.226548
-0.0316862 0.205567 0.533476
-0.235402 0.220307 0.00681507
-0.0598321 0.204463 0.308133
0.250008 0.165717 0.438494
0.243007 -0.287478 0.279597
-0.00964447 0.240929 0.601524
-0.119665 -0.210185 0.34129
-0.0605176 -0.03621 0.32596
0.169942 0.161143 0.414635
-0.0784782 -0.19823 0.239879
-0.0996875 -0.10843 0.334356
0.0331033 0.24989 0.445882
-0.241852 -0.243696 0.014534
0.0995928 -0.110942 0.334561
-0.0924692 0.163567 0.420669
-0.106392 0.149098 0.216196
0.17669 -0.280236 0.245368
-0.210654 -0.0403307 0.320969
0.076454 0.0840542 0.304992
0.27144 -0.292662 0.15671
-0.04771 0.128017 0.250417
0.190628 0.277011 0.554565
0.221814 -0.0362921 0.254831
0.073689 0.130287 0.26658
0.217435 -0.0203827 0.312354
-0.0115974 0.188743 0.263622
-0.186574 -0.106705 0.233712
0.0252693 0.162603 0.418441
0.023127 0.147026 0.354519
-0.241828 -0.28456 0.30023
-0.16453 -0.317529 0.262897
0.239645 -0.298769 0.305966
-0.124483 -0.209475 0.240651
-0.126789 -0.169065 0.340315
0.184421 0.0449139 0.22336
-0.157535 0.00125819 0.226398
0.151424 0.17462 0.459662
0.252481 -0.238502 0.389427
0.238804 0.107444 0.0044106
-0.0753738 0.123197 0.29829
0.0790532 0.144019 0.340865
0.13523 0.196295 0.512341
-0.0179374 -0.0558027 0.230226
0.251699 -0.29841 0.202749
-0.149155 0.0777338 0.221221
0.122963 -0.255042 0.342333
0.261569 -0.0943282 0.446833
-0.115413 0.26318 0.485336
0.00665295 -0.111062 0.233963
-0.238565 0.153046 0.00646851
0.0751913 -0.302011 0.246867
-0.148224 0.21599 0.34083
0.087321 -0.164826 0.340192
-0.177434 0.00828529 0.318307
0.151566 0.250586 0.449356
0.147659 -0.16789 0.237777
0.15332 0.228304 0.381358
-0.147576 -0.257324 0.342411
-0.225758 0.289594 0.0118903
0.194192 0.125878 0.255392
0.24155 -0.177078 0.439959
-0.232112 -0.16403 0.301749
-0.0427853 -0.0297516 0.228469
0.0504821 0.285096 0.55502
-0.127111 0.237965 0.407488
0.162019 -0.135143 0.235556
0.253977 -0.285609 0.0617295
0.254771 -0.307823 0.112457
-0.233761 0.196079 0.442211
-0.0909952 0.0045289 0.226161
0.219662 0.276584 0.0282562
-0.234333 0.12879 0.00434066
0.174069 -0.0495941 0.327482
-0.254179 0.0765894 0.4351
-0.226265 -0.0382624 0.446306
-0.0926547 0.282101 0.54415
-0.15414 0.289533 0.566446
-0.0650575 0.249822 0.61793
0.24236 -0.116186 0.458445
0.0348988 0.122569 0.232053
0.14119 0.304419 0.61809
-0.268978 -0.287285 0.146112
-0.0870466 0.299831 0.00475908
-0.107294 -0.311587 0.306996
0.0630846 0.213281 0.334948
0.10301 0.240555 0.417844
0.239729 0.209285 0.00613396
0.0557611 -0.255504 0.243723
0.0208972 -0.0732873 0.231401
-0.0229136 0.12298 0.217666
-0.0108208 0.282602 0.546609
-0.194058 0.223141 0.400597
-0.196733 0.165695 0.37274
0.235298 0.055644 0.00585705
0.204682 0.190015 0.336178
-0.262881 -0.206315 0.0104942
-0.086548 0.299221 0.597176
-0.033111 0.091314 0.3038
-0.19043 0.207473 0.508069
0.0373012 -0.224031 0.241598
0.216998 0.0362367 0.262704
-0.242397 -0.102217 0.437093
-0.0243101 -0.318956 0.284598
0.262665 -0.200492 0.427301
-0.0468013 0.243318 0.424636
-0.223824 -0.0555133 0.296302
-0.0521998 -0.252404 0.243539
-0.043479 -0.207146 0.240474
-0.151312 0.210391 0.542938
0.174792 0.120236 0.298648
-0.151298 0.198131 0.289059
-0.0188509 0.176062 0.461659
-0.202648 0.16438 0.279672
0.134988 0.108128 0.300775
0.191954 0.115417 0.218587
-0.269801 -0.295277 0.0516355
-0.187127 0.281815 0.574126
0.130652 0.0447057 0.223387
0.251976 -0.155159 0.029147
-0.0699453 0.122941 0.219908
0.040941 0.166749 0.43568
0.0264617 -0.307336 0.247239
-0.0451134 0.276468 0.52725
-0.0885338 0.1459 0.347464
0.106379 0.229771 0.581254
0.18483 -0.194247 0.239551
0.197907 0.241406 0.472638
-0.00552413 -0.173255 0.238174
0.103274 0.166313 0.217079
0.0113718 0.2029 0.304396
0.232677 0.0716038 0.450858
-0.180509 0.216556 0.546978
0.130275 -0.0738132 0.23141
0.117432 0.127924 0.253675
-0.167032 -0.172631 0.340404
-0.0373261 0.261735 0.481735
0.0201015 -0.220541 0.341521
-0.230765 0.0334452 0.453773
0.114773 0.0298153 0.314385
-0.140507 -0.060796 0.3289
-0.0408638 0.252112 0.622414
0.176733 -0.0286678 0.228341
0.229856 0.0892522 0.416204
-0.0826754 -0.270169 0.342711
-0.261928 -0.290943 0.236273
-0.246951 -0.296402 0.043692
0.22191 0.195696 0.0193336
0.202702 -0.150068 0.339014
0.203403 0.179412 0.389085
-0.00773672 0.302561 0.640661
0.230586 -0.295594 0.250464
-0.222143 -0.0531846 0.263236
0.0245015 0.0768329 0.306278
-0.0721041 -0.0270299 0.228292
0.204322 -0.319178 0.286506
0.206711 -0.291606 0.246131
-0.241826 -0.211259 0.393378
-0.258832 -0.234385 0.337242
0.0633509 0.110935 0.218922
-0.110323 -0.105947 0.233643
-0.0997739 -0.251674 0.243502
-0.205685 -0.301681 0.246913
0.225781 0.245548 0.00586104
0.257712 -0.0255767 0.0184686
-0.126379 0.224131 0.569036
0.179884 -0.153047 0.339366
0.159183 0.128808 0.272259
0.228872 0.182399 0.403758
0.0181419 0.027619 0.224571
-0.203635 0.0694163 0.298201
-0.244075 0.0274964 0.421284
0.229087 -0.263465 0.333459
-0.13832 -0.306758 0.24724
0.0955047 -0.0197071 0.227755
-0.152847 -0.0202186 0.323241
-0.23777 -0.23903 0.27863
0.234557 -0.20268 0.322615
0.2296 0.186081 0.442742
-0.0550987 0.146903 0.35285
-0.0856061 0.157137 0.394397
-0.103417 0.186763 0.256991
-0.158533 0.124908 0.241882
-0.0719342 0.129396 0.270754
-0.0968741 -0.15816 0.237173
-0.106612 0.123067 0.231955
0.0368147 0.294486 0.00797797
0.226221 -0.0659871 0.30787
-0.25606 -0.263318 0.248921
-0.0870155 -0.0755977 0.330578
0.041464 -0.0994007 0.333259
-0.131737 0.244811 0.428292
0.195003 0.263182 0.607385
-0.0979816 0.152194 0.373927
-0.233019 -0.189882 0.272883
0.0924253 -0.190915 0.34081
-0.10746 0.0305966 0.314389
-0.137013 -0.055179 0.230213
0.0368624 0.220146 0.355411
0.127923 0.1842 0.25206
0.167492 0.258579 0.636492
0.123732 0.275281 0.525481
-0.0742155 0.216344 0.554695
-0.236566 -0.142358 0.441714
-0.145979 0.0346218 0.224138
-0.126174 -0.238353 0.341959
-0.0316641 0.0865994 0.220592
-0.237193 0.0685048 0.00437949
0.144688 -0.24383 0.242913
0.116214 0.293169 0.580742
0.260256 -0.0825331 0.0136529
0.0345808 0.292614 0.578102
-0.214598 0.116502 0.429153
-0.168591 0.296916 0.592248
-0.041602 -0.226247 0.341662
-0.245308 -0.294982 0.130262
-0.226009 -0.204782 0.249989
-0.250476 -0.0624388 0.0273087
0.24088 0.00335255 0.45742
-0.16538 0.180308 0.237845
0.269782 -0.273396 0.277639
0.0675681 0.195914 0.510821
-0.156677 0.314292 0.00982123
0.158597 0.188771 0.265468
0.257598 -0.240698 0.324279
-0.187977 -0.237876 0.341954
-0.148859 -0.149117 0.339051
-0.22327 -0.13356 0.252965
0.00134574 0.233627 0.395788
0.207975 -0.313099 0.251412
0.0114742 0.260917 0.479758
0.246886 -0.252197 0.353072
-0.227404 -0.104412 0.277954
0.00716398 0.133992 0.286458
-0.180789 -0.197103 0.340986
0.0846908 -0.174031 0.238206
0.195537 0.25806 0.515005
-0.255236 -0.100105 0.0255818
0.00171681 0.19977 0.519636
-0.116034 0.25153 0.620807
-0.257806 -0.148037 0.453496
0.0761274 -0.0401476 0.229143
-0.0342882 -0.0460143 0.327157
-0.174236 0.177432 0.460397
-0.13558 0.130084 0.2735
-0.232892 0.0204726 0.00617337
0.239409 -0.234136 0.285529
-0.136926 0.175119 0.458345
0.226767 0.294864 0.0134912
0.0347949 0.23924 0.413128
0.0715808 -0.274085 0.244977
-0.0872035 -0.0283004 0.324603
0.197136 0.0345057 0.313519
-0.0261006 0.294844 0.584319
-0.230674 -0.254806 0.331175
-0.0718504 -0.318769 0.284647
-0.19272 0.124362 0.293667
0.0457398 -0.147409 0.338774
0.00532946 -0.00258781 0.226619
0.170002 0.129318 0.217001
0.110678 0.201373 0.301067
0.206774 0.156113 0.297786
0.106948 0.295863 0.0270091
-0.129293 -0.163457 0.237539
0.151151 -0.320235 0.270636
-0.233356 -0.0881982 0.0209334
0.26894 -0.252531 0.0166362
0.0359372 -0.126266 0.336348
0.00110182 0.30223 0.0292959
-0.113998 0.290405 0.569597
-0.10137 0.128376 0.295367
0.149165 -0.195159 0.340906
0.144605 0.0758315 0.306377
-0.0410489 0.302174 0.641155
0.0880701 0.156253 0.393357
-0.108911 -0.00137821 0.319942
0.132116 -0.188993 0.239207
-0.204226 -0.292329 0.336187
-0.0530974 -0.314752 0.297587
-0.000165084 0.155019 0.386948
0.267801 -0.233958 0.372721
-0.178332 0.302637 0.62863
0.152043 0.274692 0.523979
0.116326 -0.0176277 0.227609
-0.114124 0.238842 0.596878
0.0180698 -0.0827156 0.331352
-0.0981494 0.298224 0.0277628
-0.260642 -0.148446 0.0121188
0.0879704 0.313084 0.0248523
-0.153434 0.22075 0.562472
-0.254892 -0.300397 0.191177
0.00667603 0.12604 0.239657
-0.0610566 0.0562341 0.222654
-0.0129845 0.247225 0.437111
-0.235948 -0.13589 0.0190969
0.00853171 0.278804 0.535076
-0.0688414 0.0239997 0.315511
-0.0369642 0.161852 0.41444
-0.228522 -0.180102 0.32656
0.214892 -0.0456124 0.320755
0.108177 0.183998 0.482139
-0.0293808 -0.160962 0.237348
0.172681 0.146612 0.355107
0.00713193 0.297451 0.00598629
0.153793 -0.0207428 0.227811
-0.0652706 0.260876 0.478761
-0.208647 0.0765254 0.262152
-0.237037 0.157129 0.44482
0.0211046 0.181167 0.242258
-0.0412928 0.216058 0.554379
-0.14288 0.126044 0.297731
-0.219845 0.183027 0.0240069
0.0701964 0.201174 0.300073
-0.00449066 -0.311755 0.307641
-0.253995 -0.0527319 0.4592
0.0884701 -0.120833 0.234605
-0.0259656 0.138572 0.309983
0.197187 0.245202 0.549232
-0.14165 -0.233686 0.242294
0.001993 0.304678 0.616635
-0.258531 -0.029661 0.448327
0.0693584 -0.195118 0.239636
-0.0254601 -0.0773318 0.231686
-0.129729 -0.302809 0.324934
-0.164907 -0.0744531 0.330479
-0.0420017 0.064739 0.30842
-0.206807 0.0345833 0.233457
0.121163 -0.0182561 0.322728
0.0647952 0.0402208 0.31261
-0.188295 0.273335 0.62547
0.0559774 -0.00636763 0.320705
-0.203652 0.138995 0.257222
-0.0934257 0.0833513 0.30522
0.200594 0.222448 0.427134
0.245137 -0.000375539 0.42383
-0.1211 0.251987 0.450621
-0.14669 -0.136054 0.235688
0.249596 0.190893 0.408807
0.145805 0.175397 0.22842
0.251292 -0.291844 0.235297
-0.147026 0.159391 0.40274
-0.244457 -0.028866 0.00427123
-0.0474936 -0.0942917 0.332709
0.238616 -0.0911125 0.455779
0.000528867 0.227289 0.575854
-0.198558 -0.211794 0.240826
0.181954 0.202667 0.307302
-0.139063 0.151229 0.369364
-0.224542 -0.0125904 0.441095
0.0229735 -0.248036 0.342175
-0.198828 -0.318715 0.283363
0.13217 -0.268011 0.244552
0.172527 -0.0169205 0.322464
-0.226711 0.229681 0.0291967
0.189992 -0.319459 0.265123
0.0399177 0.294799 0.645928
0.135053 0.141109 0.326733
0.0388226 0.196926 0.287581
0.0202451 0.179663 0.470785
0.10962 0.134412 0.216792
-0.25335 -0.256182 0.272426
0.0738095 0.220351 0.563258
0.126166 0.167896 0.44166
-0.196325 -0.136369 0.337606
0.0860419 0.225168 0.371132
0.246534 0.212401 0.412787
-0.124676 0.0479349 0.223231
-0.243369 0.211328 0.426684
0.223596 0.123027 0.415724
0.214522 -0.245234 0.342092
-0.0910467 0.197292 0.512782
0.257517 0.0571301 0.443329
-0.04721 0.211116 0.327315
-0.191363 0.209335 0.341134
-0.0346497 -0.306073 0.247169
0.265998 -0.285585 0.11499
-0.0122178 0.14207 0.216483
0.230693 -0.112362 0.277637
0.119506 0.0715329 0.221574
0.245206 -0.272201 0.022385
0.144835 -0.316597 0.294005
0.218941 0.000848517 0.253638
0.00992617 -0.137441 0.337643
-0.0496611 -0.302248 0.326315
-0.0156254 -0.285555 0.245775
-0.0495813 0.125043 0.232723
-0.145383 0.291577 0.0154374
0.25806 -0.19187 0.407566
-0.267914 -0.287722 0.096058
-0.191814 0.188178 0.272011
-0.249894 -0.271246 0.0113975
-0.128181 0.192672 0.273666
-0.0852142 0.258531 0.634566
0.0505462 0.138957 0.313663
0.00845759 0.210072 0.324901
-0.0576806 0.304965 0.617032
-0.0679837 0.0519959 0.310649
-0.189557 0.288783 0.0159601
0.0519028 0.270184 0.508893
-0.0452012 0.112847 0.300068
-0.111749 0.299387 0.597402
-0.258236 -0.30526 0.136135
0.0241728 0.140706 0.322283
0.0506319 0.297255 0.592643
-0.0543311 0.172443 0.220999
-0.110836 -0.295595 0.246478
-0.0951841 0.13041 0.216995
0.0381321 -0.190103 0.340796
-0.0875649 0.176766 0.229459
-0.209521 -0.197595 0.341001
0.136596 0.152983 0.380683
-0.178393 -0.153973 0.339621
0.253984 0.105304 0.419393
0.192193 0.137909 0.306335
0.242597 0.168592 0.00654573
0.0615364 0.168328 0.442463
0.0151773 -0.159903 0.237266
-0.0601812 -0.078065 0.231745
-0.239857 0.101627 0.449387
0.201521 -0.31182 0.309789
0.145582 0.297377 0.644957
0.034437 0.279425 0.537289
-0.0341456 -0.135563 0.23563
-0.210524 0.268236 0.0184315
0.254146 0.0025993 0.0237758
-0.1765 -0.28728 0.338009
-0.0722513 0.248869 0.441526
-0.156727 0.142669 0.329275
-0.194884 0.225337 0.469621
0.110245 0.218481 0.559977
0.0647662 -0.315964 0.295094
0.0943821 -0.233422 0.242221
-0.110517 -0.0578177 0.230386
-0.235511 -0.0451442 0.026877
0.0957243 0.299712 0.600757
0.112188 0.193377 0.50503
0.247483 -0.099658 0.0292577
-0.0432386 0.0470691 0.22327
-0.242174 -0.194693 0.408473
0.104977 0.0347765 0.224065
-0.177856 0.0249729 0.224798
-0.0847823 0.216021 0.341615
-0.158563 0.302944 0.640815
0.249993 0.0704756 0.418574
0.0561091 0.228179 0.577911
0.0278455 0.151295 0.216081
0.0142031 0.014284 0.317145
0.200874 -0.00299107 0.226598
-0.0198553 -0.00998454 0.227125
0.176383 0.317452 0.000712674
0.164673 0.141332 0.32848
0.168821 0.19047 0.498441
0.100477 -0.0704973 0.231192
-0.063147 0.236826 0.404755
0.207493 0.161862 0.237801
0.15127 0.21866 0.352183
-0.175447 -0.259206 0.24403
0.132543 -0.0469606 0.327197
-0.0453591 -0.281264 0.340247
0.165097 -0.0999355 0.233171
-0.0884959 -0.29589 0.333368
-0.235785 -0.275996 0.261184
-0.0647457 -0.292327 0.246245
0.187663 0.230623 0.571708
0.0984752 -0.143917 0.338351
0.0744221 -0.292299 0.336592
0.132929 0.136736 0.303819
0.00407247 -0.0585283 0.230405
-0.21985 -0.018745 0.271981
0.174296 -0.05671 0.23024
-0.181147 0.312215 0.000712674
0.0989134 0.0876558 0.304352
0.188151 0.0860057 0.220578
0.205519 0.0399008 0.227341
0.060948 0.133472 0.284958
0.202326 0.19762 0.414362
-0.166316 -0.05479 0.230194
0.231393 -0.0536589 0.439932
-0.143371 0.0618163 0.308991
0.249986 -0.149363 0.431669
0.187351 0.293393 0.0256747
-0.163042 0.24082 0.600278
0.142921 -0.126939 0.336381
0.0576412 -0.138278 0.235793
-0.25022 -0.223286 0.000765831
0.0528135 -0.308716 0.247549
-0.235395 -0.0820922 0.441178
-0.00254656 -0.278436 0.341275
0.0798865 -0.120228 0.335637
-0.115805 0.177695 0.464805
0.00212774 0.0498327 0.223072
-0.161796 0.136297 0.295901
-0.018929 0.0436426 0.312069
-0.264344 -0.26924 0.300698
0.0960303 0.128147 0.254449
-0.136733 0.198992 0.516527
0.151373 -0.281601 0.245466
0.0684642 -0.152497 0.339349
0.239224 0.106223 0.449604
-0.190217 0.265294 0.552561
-0.267452 -0.280564 0.19264
-0.211602 0.151323 0.429326
-0.0228646 0.206499 0.314344
0.105971 0.190043 0.268567
0.00622672 -0.0645556 0.329271
0.0680744 -0.110036 0.233879
0.246381 -0.153 0.00544262
-0.243078 -0.259884 0.312299
0.0749252 0.281614 0.544524
-0.107557 0.141585 0.324348
-0.00714762 0.180722 0.24069
-0.0408578 -0.175131 0.34045
-0.186055 0.147838 0.344098
0.0763627 0.244821 0.430674
0.157404 0.207408 0.318836
0.0905429 0.256149 0.631039
0.269754 -0.296966 0.183384
-0.0703336 0.239831 0.59904
0.00643806 0.129516 0.260283
-0.241604 -0.238678 0.357546
0.0169944 0.205985 0.534921
0.252816 -0.25849 0.0300626
-0.0801049 0.209628 0.322714
-0.215898 0.187586 0.406987
-0.00641235 0.275056 0.650619
-0.0108864 -0.106893 0.334142
-0.00695461 0.11362 0.218757
-0.14544 0.275347 0.65059
0.0565189 -0.302022 0.327305
-0.0776122 -0.211401 0.341314
0.22718 -0.201015 0.246416
0.179674 0.128039 0.268083
-0.141704 -0.218444 0.341488
-0.235636 -0.211441 0.278305
-0.0275632 0.131752 0.288444
0.1244 0.145219 0.348022
0.0167288 0.2166 0.344469
0.253002 0.0619966 0.0134636
0.0873349 0.275829 0.526763
0.166589 0.291462 0.0218998
-0.20092 0.173226 0.325163
0.241541 -0.265608 0.282412
-0.00327802 -0.223593 0.241578
0.245056 -0.176136 0.0267557
0.218582 -0.0658477 0.238922
-0.241122 -0.171559 0.00803204
0.00347495 -0.0141861 0.322095
-0.183333 0.242989 0.591669
-0.107876 0.246277 0.433099
-0.0786391 0.169178 0.443883
-0.244089 -0.193159 0.433826
-0.00683784 -0.301214 0.328244
0.217058 0.0189068 0.299093
0.126249 -0.314206 0.252833
-0.0971085 -0.250672 0.342248
0.0537067 0.05187 0.222921
-0.140969 0.124466 0.227702
0.0296194 0.256437 0.631179
0.10515 -0.29635 0.246476
-0.0743538 -0.315067 0.256029
0.0541611 0.127843 0.251573
0.17938 0.0163855 0.316676
0.203147 0.203379 0.390598
-0.129039 0.226077 0.371533
0.203887 0.0735072 0.300368
-0.118623 0.265043 0.644483
-0.0265588 -0.200501 0.34105
0.204061 0.125571 0.283791
0.251826 -0.20973 0.387648
-0.230606 0.135328 0.408453
-0.255348 -0.0435693 0.0178173
0.0888218 0.240501 0.601384
-0.152475 0.281007 0.540094
-0.238612 0.0308984 0.0291642
-0.245551 0.0956641 0.0105027
0.224806 -0.0331778 0.278346
0.0895589 0.25813 0.47202
-0.155389 0.191668 0.498517
-0.223068 0.109684 0.0112267
0.0656799 0.237624 0.408575
0.229653 0.0397815 0.0182573
-0.0294479 0.0204398 0.316104
0.234755 -0.181147 0.315679
0.0803708 -0.208735 0.341235
0.20653 0.17852 0.303707
0.141642 -0.244424 0.342079
-0.134745 0.305648 0.619353
0.177956 0.251344 0.61918
0.196976 -0.29295 0.336521
0.113368 -0.310681 0.312391
-0.0260738 0.187424 0.489296
0.0472131 0.314544 0.0112489
-0.253088 0.0566753 0.427293
-0.107258 0.18816 0.490382
-0.148994 0.188842 0.262476
0.160798 -0.300523 0.33002
-0.0780263 0.292312 0.0218461
0.0646356 -0.0944481 0.332681
-0.186334 0.0905793 0.304023
0.116398 0.0602289 0.309104
0.138495 0.28856 0.566736
0.234338 0.00733267 0.00811119
-0.0454769 0.199176 0.293144
0.069186 0.173213 0.223455
-0.209858 0.196916 0.429507
-0.267325 -0.256874 0.0214932
0.260186 -0.270119 0.22989
-0.0845412 0.234767 0.398293
-0.248537 -0.029334 0.427972
-0.214119 -0.168469 0.237913
0.254011 0.14381 0.435952
0.107752 -0.0618414 0.328917
-0.192836 0.132451 0.274222
0.238708 -0.0669221 0.0261848
0.00647104 0.249834 0.618436
-0.0351352 -0.14288 0.338287
-0.0733802 0.279359 0.535879
0.208296 0.147443 0.257125
-0.199954 -0.28137 0.245537
0.132334 0.122142 0.231608
0.237263 -0.102516 0.0128031
-0.178536 0.123544 0.233257
-0.183119 0.0438572 0.312134
0.179446 0.0668383 0.221877
-0.194684 0.206532 0.47915
0.134585 0.204382 0.309932
-0.132925 0.26682 0.496409
-0.20577 -0.014016 0.318556
-0.129125 0.0166999 0.316816
0.0745413 0.0656671 0.308186
0.208431 0.0947072 0.239861
-0.202071 -0.000907563 0.227409
-0.0447083 0.22199 0.360101
0.190449 -0.0947395 0.332662
-0.167046 -0.284388 0.245733
-0.107269 0.0881681 0.220504
0.159615 0.0541496 0.222741
-0.220464 0.039818 0.436719
0.263595 -0.226489 0.00713895
0.143696 0.234161 0.398955
-0.140873 0.206023 0.311765
-0.0458611 0.267851 0.50057
-0.1789 -0.110882 0.33467
-0.238707 0.0144115 0.456881
0.154256 0.116868 0.299245
-0.179875 0.172978 0.221531
0.244069 -0.249105 0.332314
-0.0131303 0.163069 0.216508
0.246118 -0.195519 0.00703766
0.248649 -0.176786 0.42048
-0.0151332 -0.0561239 0.328311
-0.212857 -0.0904246 0.327493
0.138893 0.131204 0.273717
-0.180554 0.16572 0.418987
-0.0909347 0.224277 0.366513
-0.171487 0.129166 0.267197
0.263635 -0.0704346 0.445886
-0.212469 -0.0232928 0.237888
0.247663 -0.290111 0.0318754
0.176017 0.242901 0.427127
0.146504 -0.0864213 0.23226
0.201893 0.189574 0.428178
0.147797 -0.313116 0.25165
0.248068 -0.119844 0.00454816
0.214727 0.0533498 0.251578
0.158445 0.302643 0.610537
0.0724274 0.122501 0.298319
0.0792736 -0.319483 0.267673
-0.246317 -0.1081 0.461166
0.0971184 0.134676 0.292148
-0.154743 0.222111 0.35926
0.109109 0.147629 0.358306
0.248524 -0.279625 0.210219
-0.154271 0.267365 0.497859
0.182501 0.260354 0.486792
-0.133371 -0.191131 0.239411
0.139369 0.29472 0.0264407
-0.0203647 -0.26679 0.342625
0.181039 0.18865 0.265983
-0.147188 -0.279806 0.245418
-0.193259 0.241264 0.508834
0.00262403 0.163122 0.420223
0.263078 -0.147751 0.44993
0.258122 -0.0244307 0.431835
-0.190979 -0.158895 0.237244
-0.256069 -0.303447 0.161992
0.107941 -0.0925148 0.332441
0.0469553 0.234066 0.397614
0.239887 -0.0179952 0.458915
-0.0438798 -0.0651092 0.230863
0.150968 0.182594 0.247704
0.144656 0.261228 0.641657
0.190446 0.295573 0.623551
0.112811 -0.182799 0.238793
-0.170772 0.228219 0.377618
-0.095367 -0.0185062 0.227721
0.0549621 0.0815098 0.305447
0.068425 -0.0393767 0.326352
0.079379 0.291007 0.0183381
0.118029 0.177366 0.23239
0.175929 -0.234768 0.242293
-0.25378 -0.179209 0.416233
0.102395 -0.215487 0.341394
-0.0307983 0.145221 0.344976
0.170468 -0.13535 0.337336
-0.224143 0.178497 0.0059618
0.111085 0.162224 0.418182
-0.102877 0.29326 0.646601
0.219859 0.264508 0.00819568
-0.0673627 0.159085 0.40265
-0.122907 0.167744 0.217325
-0.128389 0.161112 0.410075
-0.195931 0.210038 0.360684
-0.11174 0.280237 0.538171
-0.191663 -0.313971 0.254376
0.197791 0.215643 0.514351
0.228629 0.0429921 0.424563
-0.153207 0.128066 0.260981
0.101464 -0.0145241 0.322092
-0.227294 -0.310038 0.256771
-0.0516544 0.228835 0.578418
0.153301 0.108376 0.219073
0.23865 -0.139546 0.0184223
0.149197 0.26727 0.500979
-0.225573 -0.0798213 0.283861
-0.209445 0.0535234 0.247035
0.0362237 0.109035 0.219057
-0.177064 0.232956 0.39692
-0.139286 -0.00682327 0.226941
0.0395891 0.265399 0.493948
0.214837 -0.0817438 0.326739
-0.245562 -0.29369 0.0845147
0.0379081 -0.192392 0.239458
0.204163 -0.170203 0.340307
-0.145646 0.240304 0.414351
-0.129758 0.0820808 0.220922
-0.243063 0.142568 0.0227397
0.0350042 -0.158903 0.237194
0.0796909 0.0996999 0.219678
0.271456 -0.291597 0.0528721
0.173055 0.227613 0.379488
-0.236958 0.0933911 0.0290393
0.185628 -0.244605 0.34208
0.0904202 0.139277 0.216586
-0.174191 0.212049 0.329678
-0.0200883 -0.318726 0.265273
-0.0241996 -0.193055 0.239517
-0.116338 0.20446 0.530033
0.15825 -0.0429735 0.229314
0.2531 -0.132678 0.460165
-0.184253 -0.269749 0.34271
0.0489399 -0.0267708 0.228244
-0.0302563 0.182573 0.24575
-0.0534176 0.227578 0.376902
0.0192405 0.235149 0.590813
0.191778 -0.0910785 0.232564
0.150295 -0.196605 0.239718
0.164221 0.169145 0.446431
0.0617598 0.190983 0.270801
-0.239046 -0.274501 0.321511
-0.244802 0.159683 0.411406
0.229418 -0.107501 0.310661
-0.0542858 -0.119018 0.234515
-0.261216 -0.188072 0.0243959
0.046413 0.193589 0.504968
0.176767 0.215887 0.55304
-0.222902 0.261885 0.00455908
0.169479 -0.189157 0.340761
-0.198654 -0.0538478 0.230138
-0.0913115 0.12997 0.273783
-0.242573 0.0805653 0.450365
-0.0831907 -0.169352 0.340317
-0.14759 -0.174823 0.340454
-0.204684 -0.15391 0.339624
0.0557509 0.0929792 0.220139
0.124533 0.216721 0.346026
0.132102 0.177702 0.467003
-0.0842925 0.136769 0.299531
0.0973653 0.211118 0.328831
0.240158 0.0827366 0.0291404
0.0824637 0.18297 0.479403
-0.257935 -0.0100722 0.443621
0.0103688 0.316037 0.0184756
-0.0581484 0.168737 0.442373
-0.10084 -0.205313 0.341172
-0.234623 -0.298041 0.314344
-0.205475 0.087147 0.242206
0.177549 -0.122901 0.234723
0.058937 -0.256896 0.342383
-0.179283 -0.215324 0.24106
-0.165423 0.255658 0.461492
-0.255116 -0.219854 0.0290279
-0.177826 0.00562232 0.226108
0.149075 0.228918 0.579936
0.204191 0.130519 0.229699
0.203921 -0.272497 0.244839
-0.253057 0.0958669 0.436321
0.226462 0.104356 0.0189517
0.0841707 -0.0601735 0.230497
0.11047 0.265204 0.645415
-0.101867 0.167825 0.217389
-0.141959 0.139704 0.314
-0.246777 0.127234 0.415201
0.233198 -0.031981 0.0174754
0.184648 0.151667 0.369343
-0.224922 0.0639691 0.448619
0.0203893 -0.0267911 0.228253
-0.0422186 0.150244 0.366749
0.122339 -0.210962 0.240695
0.0194824 -0.185409 0.340687
0.266668 -0.257464 0.286057
0.257003 -0.27821 0.290284
-0.056786 0.0836667 0.220797
0.200638 0.215505 0.457636
-0.150541 -0.0445329 0.327036
0.223677 0.160737 0.44106
-0.238487 0.177481 0.442009
-0.22358 0.111212 0.446097
-0.232323 -0.0642779 0.021443
0.19782 0.186196 0.455066
-0.191412 0.237094 0.556037
0.0884607 0.0190317 0.225135
-0.101728 0.0466063 0.223316
0.210529 -0.156405 0.236985
0.0368416 0.130658 0.280766
-0.217732 -0.122255 0.328401
0.152653 -0.0656525 0.230851
0.0893036 0.202088 0.526058
0.222131 -0.161869 0.332688
0.0127764 0.305556 0.632272
-0.193629 0.20249 0.323558
-0.19274 -0.0402825 0.326565
-0.0569575 0.194221 0.505594
-0.217743 -0.0621449 0.247094
0.0615953 -0.202733 0.341094
-0.229818 -0.0286404 0.0194525
0.173553 0.122256 0.233193
-0.137559 -0.1076 0.334276
0.0498552 0.147578 0.35719
-0.189706 0.220113 0.375462
-0.0866792 -0.238046 0.242576
-0.169365 -0.0968141 0.233038
-0.0870378 0.190908 0.269039
0.262612 -0.207419 0.0261216
0.165385 -0.233578 0.341819
-0.0548458 -0.111544 0.334695
0.0232392 -0.211499 0.240754
-0.122277 -0.314049 0.253944
0.0976982 0.196919 0.288173
-0.0243339 0.169255 0.444984
-0.146683 -0.215589 0.24107
0.220957 -0.113886 0.239892
-0.246511 0.00182299 0.00610394
-0.0377756 -0.246885 0.342153
0.0386956 -0.0655671 0.230874
-0.237581 0.174772 0.0268308
0.0633628 -0.0758289 0.330542
0.0365908 -0.242753 0.242865
0.0807818 0.118442 0.220101
0.0826084 0.287262 0.562087
0.148805 -0.148458 0.236461
0.0979199 0.171401 0.451338
-0.20828 -0.12346 0.23485
0.214708 0.180717 0.420573
0.24622 -0.233924 0.0249026
-0.226909 -0.171806 0.258157
-0.0950053 -0.0451381 0.327082
0.246515 -0.032403 0.00436516
0.156565 -0.00122336 0.226489
0.116482 -0.227763 0.341685
-0.211978 -0.177031 0.339534
-0.183602 0.272027 0.531698
-0.261854 -0.166394 0.0206068
-0.103034 0.315525 0.0211271
-0.0337485 0.129982 0.262324
0.236441 0.214501 0.430957
0.140202 0.20681 0.538011
0.221977 0.0799098 0.438111
-0.251078 -0.0831246 0.0276968
-0.00902648 0.101416 0.302031
0.0321804 0.270651 0.650017
-0.244238 -0.278491 0.244854
-0.130034 0.257744 0.468344
0.0793273 0.304434 0.637021
-0.245355 -0.199954 0.00630002
-0.191426 -0.229235 0.242005
0.0182307 0.215109 0.552991
0.261919 -0.184283 0.439702
0.0396346 -0.113444 0.234117
-0.218618 0.213684 0.408242
0.163848 0.297109 0.00455574
-0.223637 0.206195 0.00523985
0.207458 0.290376 0.0286073
0.195652 0.266826 0.588118
0.242332 0.222583 0.0252825
-0.252135 -0.275127 0.201284
0.0353561 -0.234429 0.34185
0.228967 -0.0865185 0.287449
-0.247379 -0.274707 0.285729
-0.0993488 -0.281285 0.245506
0.0797078 -0.00572201 0.226812
0.11576 0.107509 0.219141
-0.0381746 0.260359 0.638576
-0.256211 -0.0416465 0.434552
-0.106565 -0.31791 0.263321
-0.269443 -0.286822 0.209757
-0.193468 0.115108 0.222338
0.150765 0.0231158 0.315526
-0.184618 -0.0670145 0.231026
0.13457 -0.269169 0.342669
0.242678 -0.274398 0.305022
0.204582 0.179552 0.35677
-0.255582 -0.212103 0.382049
0.0517445 0.25465 0.627831
0.213568 -0.000208922 0.310654
0.00142691 -0.207535 0.341214
0.00582917 0.186951 0.25867
0.217249 -0.132771 0.237392
0.13894 0.0285495 0.224478
-0.094206 0.294178 0.58149
0.134672 -0.0890898 0.332036
-0.237144 -0.223981 0.312045
0.252095 0.148859 0.414382
0.240778 0.0289392 0.420252
0.194217 0.277391 0.572411
-0.0626726 0.143279 0.334121
-0.0510714 -0.229704 0.242002
0.091254 0.186641 0.258667
-0.0081106 -0.138311 0.337751
0.207492 0.107862 0.284575
-0.116619 0.045926 0.311733
0.122844 0.0146846 0.225421
0.0182641 0.125408 0.297783
0.0456717 -0.318747 0.286059
0.223264 -0.020867 0.264045
0.0889052 0.147051 0.355629
-0.162393 -0.0372629 0.229006
-0.25618 0.0218224 0.434215
-0.204393 -0.243024 0.242942
0.0303959 -0.288992 0.245996
0.0379522 0.0313606 0.314165
-0.268012 -0.263229 0.280005
-0.238687 0.237011 0.0123753
-0.238086 0.215116 0.0243865
0.215621 0.0511034 0.2766
-0.131383 -0.116655 0.234372
0.25873 -0.262113 0.000908196
0.0335906 0.309735 0.02745
-0.232867 -0.0244039 0.429218
0.0511982 0.306251 0.627781
-0.0632349 0.201251 0.522677
-0.23832 -0.0373928 0.46066
-0.150964 0.164146 0.422194
0.0818273 0.250099 0.447073
-0.122904 0.216799 0.343554
-0.174957 0.19673 0.285375
0.0833139 0.239709 0.415074
-0.258333 -0.100911 0.444937
-0.0860161 0.298675 0.644723
0.0530985 0.292305 0.0225238
-0.0226632 0.267025 0.498272
0.198631 0.163132 0.383757
-0.0434008 0.236964 0.40539
0.199992 -0.200658 0.341033
-0.182305 0.185883 0.257257
-0.139239 0.316083 0.0126632
-0.237843 -0.154569 0.0120055
0.18528 0.203116 0.521992
0.118751 0.20707 0.317464
-0.193783 0.225409 0.500902
-0.00843363 0.166442 0.433678
-0.225712 0.247368 0.0291956
0.22402 -0.0241011 0.293538
0.09827 0.178458 0.468544
0.0597588 0.248659 0.442369
-0.106151 0.220358 0.562053
0.254647 0.181743 0.423067
0.0210634 0.23579 0.402543
0.156371 0.123402 0.22785
-0.256754 -0.251375 0.000765093
0.22503 0.181922 0.00873222
-0.0750067 0.305604 0.62037
0.233571 -0.152424 0.292324
0.227829 0.0548625 0.448065
0.234672 -0.168865 0.278802
0.159747 0.259259 0.476297
0.19756 0.207431 0.341447
-0.0577514 0.291609 0.0195395
0.060204 -0.0843764 0.232142
0.0431963 0.0669554 0.221903
0.00943318 -0.234568 0.341856
0.150613 0.187034 0.489908
0.153586 -0.14865 0.338872
-0.176224 0.154516 0.37874
-0.212356 0.0303366 0.29695
-0.15189 0.296083 0.58673
0.238631 -0.138328 0.44594
-0.166848 -0.0306899 0.325068
0.0512359 -0.0467269 0.327204
0.11995 -0.248516 0.243236
-0.248218 -0.162722 0.452914
0.201923 -0.198925 0.239863
-0.166237 -0.0090658 0.321313
0.242496 0.246893 0.0109432
0.105203 0.312922 0.0092286
-0.083777 -0.214876 0.241007
0.064597 0.207558 0.318293
0.198466 0.235855 0.455998
0.235281 -0.0708458 0.457604
0.184953 -0.27191 0.342729
0.19266 0.194679 0.488703
-0.153163 0.0796202 0.305905
-0.19279 -0.311493 0.306316
0.242002 0.136579 0.028361
-0.270235 -0.294955 0.0749972
-0.176682 0.315775 0.0208325
-0.0553009 0.0986408 0.302542
0.0446536 0.125958 0.21728
-0.12119 0.124506 0.228287
0.10585 -0.12013 0.234553
-0.0288532 0.189503 0.265616
-0.0152508 0.232054 0.390853
-0.221679 -0.0351971 0.266675
0.244421 0.0844094 0.450877
