0.113721 0.195369 0.10472
0.201637 0.172758 0.461085
0.0405439 -0.0531897 0.39058
0.236057 0.169614 0.513826
-0.248204 0.0110031 0.586633
0.0264571 -0.224096 0.411465
0.193811 0.279546 0.00977389
0.0546862 -0.121652 0.409227
0.233283 -0.113534 0.550444
-0.205215 0.034427 0.369194
-0.0710544 0.158304 0.587771
-0.145509 -0.0304114 0.396102
-0.247725 0.0707441 0.349831
-0.0221483 0.15335 0.564689
-0.0686605 0.171587 0.465876
0.0243676 0.236608 0.740407
0.175323 0.207808 0.685112
0.186363 0.166812 0.500033
-0.0546501 -0.118437 0.408723
-0.0066403 -0.221227 0.126747
0.250993 -0.090069 0.605407
-0.160089 -0.170826 0.407274
0.194812 -0.235986 0.394798
0.116406 -0.189957 0.418135
0.157924 0.183168 0.627659
-0.220683 -0.0268188 0.364778
0.0746336 0.172032 0.464443
-0.000693172 0.182145 0.626709
-0.0185234 0.0625815 0.282423
-0.213616 0.170187 0.580725
-0.0844695 0.0615001 0.374555
0.203596 0.225568 0.710793
-0.225739 0.109335 0.371333
0.198308 0.177069 0.463779
-0.204982 -0.175017 0.394581
-0.233504 0.105382 0.582008
0.184316 -0.0343654 0.387869
0.0868022 -0.204519 0.418005
0.202442 -0.109755 0.390373
-0.044086 0.0195482 0.124033
0.154756 -0.242093 0.414613
-0.266515 -0.051084 0.0746218
-0.00741389 -0.0568412 0.39229
-0.19534 -0.154509 0.408734
-0.154268 0.0433011 0.385858
0.182907 0.213055 0.688736
-0.24383 0.132289 0.357297
0.0843563 0.155254 0.110524
-0.199127 -0.189631 0.409632
-0.117702 0.239381 0.64726
-0.198558 -0.0735914 0.402325
0.0135705 0.0272789 0.0641422
-0.0674684 -0.193215 0.417361
-0.0877128 -0.260588 0.411391
0.00861788 0.206103 0.710366
0.193746 0.0611905 0.38352
0.00146585 0.027342 0.295852
-0.063954 0.127044 0.385642
-0.161521 -0.179796 0.417258
-0.061799 -0.0656273 0.398064
-0.178152 0.233052 0.740408
-0.042218 0.217747 0.733617
0.24442 0.0185154 0.365232
0.0084275 0.0352161 0.262396
-0.0036381 -0.0190959 0.390932
-0.0828727 -0.0584043 0.398085
-0.192752 -0.047784 0.389741
0.205147 0.176703 0.486267
-0.117544 -0.174971 0.407803
0.146317 0.160412 0.494542
0.221238 -0.241586 0.410809
0.182113 0.180519 0.59331
-0.102652 -0.0590347 0.393476
0.217392 0.111744 0.345877
-0.0421826 0.00822063 0.25621
-0.0386499 0.154883 0.57385
0.12093 0.13067 0.38767
0.280015 -0.0701192 0.0965178
0.0895915 0.177961 0.620075
0.0063663 -0.209169 0.419899
0.228149 0.122708 0.364404
-0.108055 -0.13832 0.411679
-0.229024 0.111969 0.36177
0.18818 -0.0411727 0.108228
0.162261 0.267763 0.0433379
-0.232292 0.165937 0.398151
-0.196985 0.184573 0.568696
0.0626341 0.125253 0.376127
-0.187917 -0.00452133 0.392425
-0.185996 0.157441 0.58046
0.185579 0.194498 0.641426
0.0582934 -0.116252 0.400762
-0.0635774 -0.265394 0.401776
-0.0872004 0.143794 0.138472
0.0948188 0.16339 0.600902
0.0923636 -0.0197136 0.391269
0.0105152 -0.204744 0.413105
0.0568773 0.1168 0.105546
-0.0448055 -0.212058 0.420073
-0.0915415 0.206644 0.702666
-0.209212 0.172617 0.573783
0.0574094 0.0878867 0.372155
0.241731 0.137526 0.375007
0.192347 0.0258833 0.349756
0.156251 0.054516 0.384411
-0.239824 0.134431 0.372969
0.211903 -0.00321683 0.35809
0.159176 0.162011 0.472115
-0.196793 0.160271 0.574235
-0.00746442 -0.271715 0.0573756
-0.243019 -0.113298 0.567028
0.111818 -0.264407 0.404978
-0.0888029 -0.23955 0.380483
0.209149 0.183335 0.472285
-0.174571 -0.266322 0.398405
-0.136319 0.191779 0.658588
-0.137484 0.142914 0.395326
0.201372 0.179359 0.420918
-0.126865 0.165932 0.60715
-0.236046 -0.0433969 0.105097
-0.0349543 0.0632809 0.114739
-0.167391 0.244192 0.119017
-0.217236 0.154359 0.356913
0.0849143 -0.164787 0.40656
0.00688708 -0.0870856 0.113398
0.1899 0.186489 0.43328
-0.178455 0.160969 0.475457
-0.107854 0.164236 0.491402
-0.0835032 -0.182011 0.408695
-0.204843 -0.1666 0.393328
-0.0196601 0.156925 0.403101
-0.201612 -0.0399801 0.383526
-0.083795 -0.256665 0.381635
0.147972 0.219636 0.128904
0.0279362 0.0235887 0.0993433
-0.222721 -0.164353 0.406714
-0.123653 -0.00625761 0.121464
0.0398454 -0.124791 0.40081
0.0759642 0.123788 0.102708
0.204467 0.0357181 0.386012
-0.126289 -0.252398 0.41601
-0.192358 0.106082 0.370889
0.00694976 -0.0826367 0.126122
-0.0667798 -0.160954 0.413733
-0.171601 0.126675 0.385518
0.111307 0.212895 0.713566
0.0671732 0.121687 0.141042
-0.108425 0.0269844 0.278221
0.118491 0.0237076 0.287806
-0.0433755 0.21487 0.71614
-0.104697 0.171226 0.445179
0.180963 0.204237 0.663176
0.140025 0.166278 0.503475
-0.218657 0.0245517 0.371485
0.161924 0.238626 0.120907
-0.137795 0.156716 0.403506
0.0628283 -0.192946 0.417379
-0.0858897 0.155713 0.136024
0.195835 -0.135611 0.388164
-0.0219781 0.0295868 0.133029
0.176544 0.0115325 0.274666
-0.0100758 0.0235594 0.0641422
-0.0251035 -0.0343151 0.290097
0.229982 0.0542193 0.356643
-0.0249421 -0.0148419 0.295852
0.115916 -0.0547157 0.391167
-0.185157 -0.138059 0.402734
-0.194603 0.169418 0.524876
0.185009 -0.0395853 0.33135
-0.0790312 0.237844 0.65172
-0.22417 -0.0441368 0.398084
-0.0359991 0.162053 0.548717
-0.18425 -0.243059 0.417477
0.0496966 0.106178 0.14206
0.0418133 0.162248 0.563137
0.0632237 0.102989 0.10778
-0.255325 -0.108566 0.521718
0.0663389 0.107322 0.138191
0.152145 0.165122 0.453235
0.108216 0.167008 0.608723
-0.249705 -0.0892045 0.402276
0.0294749 -0.0547383 0.398926
0.129524 0.0379608 0.278309
0.0651614 -0.0377605 0.397219
0.21696 -0.264936 0.401937
-0.0560005 0.0193829 0.267321
-0.146351 0.171411 0.616158
0.205689 -0.00205158 0.354429
-0.15667 0.0375453 0.377776
-0.0861981 0.204838 0.691087
0.0326422 -0.169045 0.415943
-0.191451 0.0656033 0.381676
-0.204894 0.0241871 0.373043
0.124103 -0.0228681 0.388397
-0.0386299 0.189999 0.646854
0.217442 0.0604713 0.367476
0.0949298 -0.243969 0.417048
-0.22028 -0.156736 0.411283
-0.191903 -0.230534 0.411559
-0.259154 -0.0121988 0.594278
0.195356 0.221912 0.699848
-0.278271 -0.0612556 0.0554895
-0.0171797 0.160377 0.494167
0.201018 -0.222562 0.404822
0.240475 0.168618 0.509742
0.194728 0.0323375 0.363482
0.206612 0.0752663 0.34674
-0.0957062 0.0227701 0.386449
0.0100932 -0.0303377 0.396126
0.157189 -0.245344 0.415313
0.256337 -0.053278 0.598464
0.0986212 -0.0119772 0.140989
0.196417 0.222836 0.709079
-0.0745013 -0.15643 0.411234
-0.304491 -0.0494592 0.013118
0.00279772 0.0479395 0.0720802
-0.0888222 -0.00227489 0.383259
0.149168 -0.0770817 0.402889
-0.23327 0.109855 0.584219
-0.160629 0.169768 0.442807
0.248978 0.0803041 0.580097
0.00312573 -0.273961 0.0805366
-0.208394 0.202066 0.654612
0.047188 0.166179 0.412812
0.158719 0.258724 0.109286
0.108558 -0.0259649 0.387661
0.0599752 -0.0354323 0.396879
0.205013 0.00964749 0.357661
0.0586437 -0.261689 0.386455
0.244347 0.0963921 0.35871
-0.196154 0.148435 0.388433
0.0244208 0.1719 0.440054
0.247767 -0.0784413 0.395411
0.00527192 -0.0288641 0.300717
0.0104286 0.176868 0.622796
-0.156043 -0.0832541 0.403691
-0.0184436 -0.229564 0.411548
-0.143761 0.0251772 0.272281
-0.203156 -0.2298 0.401107
0.111438 0.21674 0.719674
-0.205779 -0.0472788 0.375661
0.0196499 0.189447 0.644853
-0.0571088 0.116243 0.135596
-0.11928 0.121378 0.375531
0.147834 0.153622 0.567094
0.0728369 0.169759 0.44231
-0.243121 0.154861 0.393885
0.253851 0.142551 0.576078
-0.0732883 0.171632 0.447423
0.0710962 0.216793 0.731599
0.099641 0.191888 0.652136
0.255758 -0.101572 0.598878
-0.292413 -0.0779205 0.0271373
-0.195337 0.15169 0.37549
0.114081 0.0414548 0.377303
0.206634 0.0529236 0.375773
-0.11064 0.18968 0.106807
0.225236 -0.23271 0.400306
0.0468903 -0.0845478 0.403916
-0.0708338 0.237627 0.653483
0.226308 -0.120536 0.388713
0.0766529 0.155701 0.515326
-0.103836 0.0200313 0.267514
0.239046 -0.0138476 0.589259
0.127225 -0.0143001 0.391153
0.28218 -0.0515956 0.0448223
0.286234 -0.0586259 0.086184
0.0431327 -0.132744 0.41088
0.0552996 -0.245329 0.415311
0.00669488 -0.237195 0.4196
-0.0024629 0.0028666 0.0792954
-0.157819 0.0265413 0.276845
-0.265588 -0.0721494 0.015611
0.200306 -0.0563578 0.368645
0.0124221 0.00906606 0.152391
-0.168492 -0.0404447 0.282821
-0.0321432 0.00457338 0.382322
-0.0681299 0.201638 0.681782
0.00826052 0.162178 0.559542
0.12481 0.150687 0.389504
0.0953238 0.162205 0.484495
-0.160919 0.069155 0.376366
0.0425639 0.206137 0.710026
0.194497 0.0426857 0.352159
-0.204086 0.165123 0.392397
-0.0179744 0.0111018 0.0966419
-0.196585 -0.240418 0.41849
-0.105963 0.00578067 0.382139
0.131611 0.185871 0.633077
-0.0206462 -0.291286 0.0100971
-0.253139 0.180763 0.442268
-0.19557 0.115672 0.360534
-0.210631 0.0411508 0.348454
0.13624 0.214853 0.726837
0.251009 -0.0618199 0.118295
-0.243452 -0.107814 0.601882
-0.0419266 0.166359 0.50084
0.223699 -0.107711 0.403656
0.160746 -0.133062 0.410955
-0.284077 -0.0568431 0.0913231
-0.247868 0.0410281 0.595296
0.00666909 -0.0346576 0.132277
-0.0966076 0.159327 0.137185
0.187765 0.157597 0.502488
-0.200728 0.109372 0.354441
-0.220168 0.171198 0.466878
0.0950734 0.063264 0.383221
0.232021 -0.0265663 0.596849
0.16011 0.255582 0.0604553
-0.201548 0.117567 0.374134
0.0153238 0.0966207 0.380365
0.207262 0.145932 0.357247
0.166851 0.25002 0.0621125
0.0163156 0.153424 0.567666
-0.189715 0.177609 0.593525
-0.0245774 0.177324 0.613133
0.0211866 0.0988821 0.380213
0.125229 -0.247711 0.379067
0.209108 0.148591 0.388157
0.0379921 0.153813 0.393128
-0.166575 -0.0414043 0.388818
0.205272 0.153995 0.370926
-0.182801 -0.235952 0.381738
0.0312147 0.192592 0.682147
-0.154357 0.250292 0.119228
-0.106531 -0.146868 0.404904
-0.179301 0.156087 0.410897
0.0431111 -0.0206144 0.30103
0.0235342 0.0483266 0.138163
0.172954 0.161445 0.426469
0.0481953 0.0819797 0.12828
-0.157012 -0.0490358 0.294016
-0.228406 -0.080169 0.389432
-0.22064 0.117305 0.366632
-0.190845 0.15607 0.410896
-0.119052 0.183653 0.103686
-0.130953 0.094553 0.38049
-0.0119584 0.0464543 0.166046
-0.156545 0.0121762 0.266374
0.192569 -0.154386 0.390772
-0.0167989 -0.0618254 0.395166
0.192325 0.162495 0.566844
0.127508 0.215293 0.121676
0.183739 0.162492 0.568583
-0.0195841 0.211587 0.721485
-0.0179901 0.187848 0.640008
-0.126409 0.0472834 0.376467
-0.21761 -0.0370606 0.128443
0.182499 -0.13309 0.410964
0.0583963 0.158987 0.536741
0.0212622 0.0147839 0.311706
0.199138 0.065321 0.33002
-0.0180571 0.162193 0.569711
0.176519 0.092105 0.380688
-0.0775474 0.167144 0.416458
0.0624188 -0.175605 0.416774
-0.063432 0.0859349 0.381081
-0.0832742 0.0014703 0.102131
-0.0176761 0.0620054 0.113991
-0.15519 -0.0550801 0.30188
0.150858 0.206488 0.713619
-0.0748668 -0.264699 0.404937
-0.00342573 0.199804 0.676207
0.0811386 0.156474 0.531606
0.178712 0.071424 0.333515
0.154512 0.192356 0.65335
0.211741 0.171368 0.494018
-0.210549 0.174909 0.475195
0.190426 0.172916 0.425729
-0.21017 0.201623 0.451789
0.0273752 0.0298553 0.384615
0.0825659 0.0667262 0.381273
-0.05833 0.206006 0.710426
0.11521 0.19841 0.117746
0.169938 0.00126606 0.279276
-0.227424 -0.0641532 0.386933
0.027131 0.169118 0.42221
-0.0216881 -0.282467 0.0326114
0.0952037 0.0469617 0.385416
-0.0480105 -0.0291658 0.268394
-0.159874 -0.266176 0.398954
0.182561 -0.242923 0.417316
-0.0285334 -0.00690851 0.383914
-0.143704 0.133722 0.389763
-0.19601 -0.0199856 0.362491
-0.0108797 0.0604589 0.262385
-0.0377671 0.00304991 0.262385
0.0907868 0.249727 0.73099
0.221872 -0.134354 0.389843
0.0413948 0.0709307 0.378863
-0.197108 0.0641166 0.36407
0.18488 0.159694 0.538007
0.0488465 -0.103212 0.399338
0.234123 0.145545 0.367925
0.211131 0.117541 0.375518
0.209884 -0.145579 0.404432
-0.136256 -0.0982508 0.396932
-0.222783 0.137019 0.369032
0.134122 0.141694 0.39434
-0.203287 0.128498 0.367549
-0.0212718 -0.0997591 0.397305
-0.240932 -0.0873603 0.426703
-0.155692 0.192197 0.665703
-0.199629 0.169179 0.47976
0.0190133 -0.00188666 0.383228
0.0119392 -0.222686 0.411443
-0.000289701 -0.0101583 0.262385
-0.0332787 0.158343 0.587386
-0.000584758 0.0120196 0.0641422
-0.00596546 0.21542 0.717207
-0.136834 -0.0265884 0.3876
-0.257239 -0.026277 0.597261
-0.16522 0.169556 0.444072
-0.196966 0.116382 0.364851
0.182169 0.201843 0.653453
0.136834 0.15542 0.574509
-0.169345 0.247648 0.0652378
-0.109445 0.248808 0.731804
-0.000813894 -0.000695422 0.0985101
-0.161334 0.0629148 0.374802
-0.10452 0.251123 0.728737
-0.0523706 0.00670306 0.289771
-0.174081 0.208274 0.665481
0.0100819 0.00796843 0.068523
0.199218 0.161988 0.543583
-0.0281682 0.159456 0.42113
0.0886113 0.161318 0.114824
0.0955887 -0.042774 0.397957
0.275774 -0.0518665 0.0629472
0.0430124 -0.0284159 0.295852
0.0342573 0.0449201 0.376819
0.113244 0.199765 0.67558
0.0688318 -0.0799121 0.403269
0.0147696 -0.215879 0.411337
0.210296 0.191296 0.661407
0.0159106 0.252328 0.721611
0.24674 0.106317 0.358356
0.143084 0.135335 0.390477
0.0129777 -0.0686357 0.394908
0.00760394 0.177512 0.615907
0.228746 -0.216608 0.408053
0.21231 -0.0492826 0.121418
0.180065 -0.216399 0.420144
0.044763 0.0472002 0.295852
0.197529 0.139102 0.361319
-0.149669 -0.00947351 0.289018
-0.0421756 0.00203636 0.259069
-0.0480926 0.0251713 0.283085
-0.125899 0.178669 0.640702
-0.223779 0.173905 0.404692
-0.197518 -0.11164 0.393878
0.14102 0.172562 0.450072
0.189468 0.0330114 0.38015
0.245964 -0.0531677 0.603673
-0.119909 -0.0991117 0.405638
0.151545 0.26169 0.0209877
-0.0162082 0.062585 0.267952
0.000550196 0.153341 0.555731
-0.194466 0.20652 0.701997
0.0612558 -0.188745 0.418426
-0.199264 -0.0383495 0.373871
0.0836862 0.166781 0.484661
0.00599716 0.0225919 0.262385
-0.0433212 -0.227918 0.411522
-0.185897 -0.264737 0.405513
0.192418 0.222096 0.730993
0.208078 0.123526 0.347797
-0.141623 0.161888 0.547688
-0.0990032 0.171769 0.439338
-0.101854 0.193511 0.667208
-0.10303 0.155519 0.39908
0.234453 -0.101826 0.471446
-0.253018 -0.0789496 0.388947
0.103743 0.172987 0.458718
0.18238 0.169321 0.592436
-0.171693 0.199252 0.700865
0.252566 0.177074 0.421177
-0.0589104 0.00577005 0.246347
-0.0315967 0.00396753 0.391277
-0.207258 0.199702 0.639214
0.101626 0.0201659 0.388102
-0.164087 -0.134835 0.411146
-0.0257939 -0.168665 0.407027
0.248878 0.111945 0.357613
0.1774 0.163709 0.601324
-0.101838 0.191646 0.661117
0.17158 0.198119 0.672032
0.18041 0.195111 0.64957
-0.076786 0.168138 0.447605
0.238389 -0.110429 0.503841
-0.0768045 -0.124771 0.400781
-0.144905 0.248023 0.732777
-0.0084543 -0.296237 0.0125703
0.120744 -0.00501761 0.126783
-0.14313 -0.118851 0.408765
0.0231382 0.15711 0.504255
0.0573082 0.167796 0.417881
-0.114155 0.237833 0.659554
0.256827 0.0212962 0.591734
-0.199861 -0.173927 0.403278
0.0552123 0.215012 0.727497
-0.201835 0.180124 0.645638
0.0904063 -0.034547 0.387875
0.0796019 -0.125937 0.409872
-0.214679 0.167966 0.447544
0.125775 0.211644 0.721261
-0.060321 0.0629272 0.383235
-0.0897469 0.0205591 0.290576
0.249013 -0.111785 0.512929
-0.149452 -0.123943 0.400641
0.119715 0.0219835 0.268692
-0.103824 0.157447 0.133503
-0.15822 0.0264115 0.281848
-0.0200096 0.216347 0.730883
-0.0218587 -0.0275738 0.387322
0.0414629 0.142863 0.384841
-0.210022 0.16725 0.417433
0.158828 0.176693 0.628736
-0.239579 0.178619 0.533376
0.0712269 0.168527 0.447332
-0.108617 0.149297 0.388875
0.0130227 0.0562518 0.117811
-0.306831 -0.0640239 0.0413325
-0.200226 0.278941 0.039751
-0.193453 -0.107331 0.403654
-0.0167463 0.123666 0.382547
0.242857 -0.0908683 0.450744
-0.208801 0.0787609 0.345031
-0.139836 0.173235 0.602006
0.0435805 0.158619 0.590661
-0.166945 0.155775 0.512019
0.273618 -0.0722772 0.0726989
0.0298354 0.191925 0.65999
0.00180278 0.0485266 0.0973112
0.233386 0.0199997 0.593961
-0.0882175 0.169719 0.614468
0.255496 -0.0482238 0.115785
-0.16017 0.0604593 0.37468
0.0629403 -0.180196 0.417351
-0.201092 -0.14266 0.395089
-0.108227 0.186193 0.635238
-0.0346254 -0.000662138 0.39192
0.167428 0.245319 0.0878831
0.0601588 -0.250405 0.416334
0.193641 -0.0722837 0.402094
-0.0215962 0.0124425 0.15498
-0.253169 0.172837 0.445726
0.168555 -0.166092 0.415598
-0.207195 0.0564155 0.375217
-0.167471 -0.0798531 0.394343
-0.126103 0.0416053 0.377234
0.177912 0.0625774 0.374587
-0.19948 0.286299 0.0313157
-0.0175458 0.0401225 0.174132
0.156144 -0.181685 0.417556
0.153643 0.190919 0.666043
-0.108889 0.0654725 0.38182
-0.12241 0.0267612 0.277463
0.104975 0.15534 0.518324
-0.0286306 0.248753 0.658879
-0.0264844 0.00387962 0.295852
0.0181769 0.0634332 0.11812
-0.191675 0.204161 0.689591
-0.0193121 -0.0343064 0.274705
-0.0883989 0.1915 0.679516
-0.0827449 0.123341 0.375847
-0.19467 0.189901 0.590898
0.27333 -0.0608085 0.0554895
0.0291831 0.197531 0.696401
-0.0306146 0.0237818 0.13319
0.163209 0.0496888 0.310251
-0.21678 0.0200026 0.357399
0.0559743 -0.228877 0.41154
-0.135604 0.206754 0.69899
-0.182053 0.269697 0.0559627
-0.106347 -0.00959398 0.141298
0.136344 0.0656669 0.375379
-0.0209109 0.181696 0.626202
-0.121868 -0.125194 0.409716
0.239706 0.0768067 0.346638
-0.158591 0.163759 0.458159
-0.195471 -0.0489466 0.384422
-0.0145844 0.0290931 0.209586
0.1114 -0.190915 0.417888
0.235354 0.0240825 0.363844
-0.1748 0.253951 0.0402477
0.173233 -0.0335798 0.396634
-0.195086 -0.174491 0.416585
0.0241994 0.164598 0.488244
0.208857 0.166746 0.499433
0.00693021 -0.072956 0.119346
0.144004 0.162107 0.597951
-0.216374 0.168027 0.513562
0.187948 -0.165779 0.406704
-0.190474 0.225911 0.711618
0.252311 0.179208 0.509229
0.037219 0.0479077 0.30624
-0.201246 0.103704 0.37105
-0.0122274 0.205222 0.691873
-0.0705401 0.056604 0.384084
0.015121 0.250194 0.654527
0.188705 -0.116405 0.400679
0.245324 -0.060576 0.604368
-0.0936756 -0.154347 0.410517
0.00514731 -0.0137841 0.262385
-0.00826828 0.153302 0.550937
-0.178642 0.202557 0.644884
0.118596 0.181599 0.648748
-0.0382044 0.252245 0.717369
0.0448227 0.206185 0.710886
-0.158782 0.281834 0.0198983
-0.125658 0.247618 0.733354
-0.0507453 0.190691 0.677018
-0.00667938 -0.102102 0.110043
-0.192191 0.16987 0.425651
-0.00207946 -0.130891 0.401709
0.022488 0.0127663 0.381197
0.268934 -0.0478775 0.0267749
-0.206731 -0.261399 0.410708
0.026107 0.185249 0.631628
0.0846407 0.164527 0.489456
-0.0841186 0.206768 0.70033
0.140224 -0.1381 0.402814
0.00160216 -0.229964 0.411555
0.0777342 0.15561 0.528231
0.0313164 0.219203 0.725268
-0.143935 0.154741 0.540347
-0.00683455 -0.23569 0.117163
0.00272053 -0.144223 0.412291
0.0035516 0.200247 0.677454
0.180624 0.297405 0.0165199
0.0702018 -0.224729 0.420266
0.171411 -0.167388 0.406904
-0.133384 0.095837 0.371593
0.00616932 0.0139753 0.215388
0.175459 0.271942 0.0781216
-0.0332376 0.0227469 0.142058
-0.251311 -0.0889592 0.42613
0.149602 0.163185 0.600276
0.146253 -0.0712415 0.401456
-0.0403091 0.246318 0.735254
-0.206227 0.153386 0.570803
0.0233879 0.155397 0.52772
0.0941836 0.246733 0.662273
0.0970758 0.0579523 0.375072
-0.1413 0.165418 0.586156
0.013441 0.0256366 0.0641422
0.228689 0.0698252 0.378616
-0.193085 0.158917 0.420216
0.217759 -0.188243 0.406176
-0.1662 0.18359 0.656363
-0.236939 0.0619636 0.350875
0.0498969 -0.0968954 0.405649
0.198589 0.18321 0.472438
-0.074875 -0.120406 0.400132
-0.15785 0.153425 0.570718
-0.251215 0.171242 0.454523
-0.239585 -0.122351 0.570044
0.312509 -0.051666 0.0193805
-0.217469 0.122713 0.381687
-0.00302418 0.0242658 0.0641422
0.215157 -0.134856 0.396249
-0.301843 -0.0886548 0.0105851
0.19715 0.172727 0.461237
-0.195763 0.174841 0.462573
-0.143159 0.211158 0.129962
0.110206 0.14221 0.394675
0.122483 0.184987 0.657682
-0.19316 -0.146882 0.411734
-0.027546 -0.0161871 0.295852
-0.102173 -0.0397296 0.388588
0.279675 -0.0495025 0.00561341
-0.127578 0.00173978 0.275482
-0.0965841 0.164025 0.407785
0.0794499 0.162183 0.484502
0.17454 -0.254858 0.380691
0.15468 0.230657 0.128707
0.00037872 -0.254005 0.0352852
-0.215766 0.179042 0.378641
-0.0530711 0.147265 0.397691
-0.182522 -0.0136783 0.391422
0.19122 -0.23177 0.385643
-0.0080495 0.154874 0.398948
-0.215382 0.164103 0.489237
-0.240834 -0.0657792 0.604409
0.172194 0.190709 0.674181
-0.196271 0.0656231 0.375494
0.247719 -0.0826446 0.407047
0.183695 0.156344 0.511753
0.17755 0.254688 0.0709372
-0.0898864 0.0170912 0.291505
-0.0444338 -0.0253054 0.394385
0.246658 0.0321063 0.596074
-0.257604 0.176534 0.50761
-0.019664 0.0399939 0.127749
-0.185709 -0.151753 0.410583
-0.119817 0.177375 0.617066
0.0163214 -0.240428 0.418363
-0.175298 0.185139 0.658414
-0.126427 -0.118359 0.408681
-0.0964049 0.170292 0.108136
-0.272144 -0.052762 0.0923972
0.0740823 -0.258538 0.413345
0.0325582 -0.0172799 0.388907
-0.0778221 0.171614 0.430627
-0.241018 0.0957305 0.57839
0.0259284 0.174681 0.619019
-0.0481364 0.0542236 0.279735
-0.185962 -0.0601739 0.305531
0.120964 0.164718 0.454793
0.0661214 -0.190414 0.409979
-0.14188 0.103949 0.379853
-0.031677 0.010004 0.262385
0.172522 0.189759 0.66338
0.0237669 -0.0823581 0.403603
0.110844 0.172115 0.598744
-0.0481356 0.0536397 0.265877
-0.0817068 0.210011 0.719467
-0.0699579 0.171785 0.439697
-0.104034 0.00147466 0.281598
-0.0951493 -0.0165924 0.39067
-0.02785 0.250867 0.651135
-0.0743535 0.163273 0.601203
0.217559 0.064266 0.365894
0.166381 0.107295 0.379658
0.0760167 -0.107146 0.403599
-0.204891 -0.155124 0.389308
-0.198614 0.261754 0.0145113
0.168 0.172233 0.431402
-0.071037 0.00460848 0.24904
0.0011815 0.193018 0.666462
-0.164936 -0.0395996 0.272296
-0.055593 0.164984 0.58562
-0.00726427 0.154515 0.52318
0.025365 0.204455 0.70651
0.238877 -0.0688653 0.371417
-0.191987 0.200329 0.678545
0.122292 0.246188 0.735754
0.176222 0.204296 0.662995
0.087377 0.165457 0.585866
-0.189159 0.271219 0.0397462
0.126923 0.0389483 0.276937
0.126703 0.0390667 0.276773
-0.0906638 -0.00896623 0.384235
-0.175717 0.153654 0.393347
-0.0674336 0.120209 0.378052
-0.208677 0.161309 0.355781
0.112691 0.0098215 0.267115
0.000459374 0.00868445 0.0641422
-0.205925 -0.105884 0.404013
-0.139067 -0.187034 0.409317
-0.0407405 0.178384 0.622007
-0.111915 -0.167181 0.406824
0.0241835 -0.148936 0.411172
-0.255038 0.0872732 0.58937
0.193633 0.175226 0.4192
0.234605 0.140151 0.575727
-0.169068 0.190213 0.673833
0.248763 0.161156 0.384566
-0.0192278 0.0639665 0.14143
-0.20712 0.19778 0.69349
0.126435 0.00653773 0.28933
0.214719 0.0681624 0.380574
0.137931 0.171999 0.430806
-0.187532 0.168392 0.59163
0.201165 0.162506 0.566271
0.185196 0.211791 0.670175
-0.220552 0.168945 0.422856
0.208398 0.121466 0.344823
0.180486 0.190436 0.607645
-0.197967 0.041973 0.367423
0.216542 -0.218722 0.405658
0.0198491 0.162222 0.56442
0.16176 0.148445 0.397834
0.249911 0.180584 0.431917
-0.0856993 0.0262165 0.282985
-0.195804 0.0731808 0.357053
0.21872 0.182684 0.475615
0.153248 0.142992 0.384816
-0.00701624 0.0142156 0.225498
-0.175409 -0.0427624 0.334992
0.176404 0.260544 0.0447112
0.232023 -0.246852 0.395464
0.21353 0.183177 0.410476
0.134666 0.177587 0.636079
-0.0580416 0.012595 0.390072
0.0903395 0.14029 0.134323
-0.0423413 0.169131 0.422586
0.20363 0.0683362 0.380466
0.307525 -0.0761493 0.0374497
-0.0274285 0.0250491 0.141778
0.0258941 -0.0384245 0.397307
0.225364 -0.0615985 0.397202
0.225889 -0.140959 0.411344
-0.207697 0.19166 0.630014
-0.169341 0.0174025 0.291389
0.272184 -0.0507623 0.067824
0.148219 0.158208 0.399486
-0.207794 0.181937 0.498152
0.0184049 -0.0342499 0.265682
0.215818 -0.0332717 0.369726
-0.0854967 0.0210886 0.381804
-0.208034 -0.237878 0.381059
-0.240863 -0.0716985 0.595079
-0.245699 0.133738 0.587199
-0.0947739 -0.162669 0.414656
0.213925 -0.211668 0.399466
-0.234704 -0.0433469 0.367284
-0.206625 0.124455 0.376062
-0.112936 0.00594651 0.241705
0.223708 -0.232736 0.384544
-0.258631 0.176251 0.45706
0.13978 -0.0149289 0.138086
-0.243015 0.169463 0.472156
-0.0703464 0.111279 0.123252
-0.112142 0.163178 0.583986
0.191494 -0.16718 0.40558
0.0690701 -0.127729 0.401254
0.229654 0.10913 0.35694
-0.115005 0.167571 0.417993
-0.185827 0.211967 0.691024
0.194939 -0.0532344 0.362984
-0.0742921 0.156875 0.401444
-0.0726484 -0.203366 0.417422
-0.104331 -0.102062 0.40491
-0.139263 0.156379 0.507849
-0.113987 0.0216875 0.38705
0.0460045 0.136482 0.391262
-0.209646 0.169464 0.387679
0.162412 -0.229162 0.420335
-0.228218 -0.16368 0.411385
0.244117 -0.00340654 0.599374
0.205386 0.104789 0.379831
0.0275975 -0.019489 0.391081
-0.177702 0.252514 0.0357352
-0.0337249 -0.034328 0.287409
0.151357 0.0415029 0.293193
-0.212983 -0.224495 0.401232
-0.214341 0.163912 0.517074
-0.17827 -0.031465 0.396249
0.236797 -0.0816458 0.386077
0.173227 0.0318486 0.380791
-0.0347307 0.0851986 0.143321
-0.104662 -0.0146635 0.118605
-0.0129882 0.0329515 0.213109
-0.246166 0.0432937 0.362653
-0.163507 -0.177588 0.408124
-0.196619 0.0632819 0.364159
-0.0428676 0.165917 0.45141
-0.0927424 0.155285 0.5165
0.208435 0.0293797 0.384428
0.221654 0.181301 0.458361
-0.0645994 -0.0422237 0.388959
0.199815 0.191113 0.508789
-0.220585 0.161294 0.540326
-0.0528544 0.16919 0.422822
-0.0729134 0.171473 0.443316
-0.061821 0.00366988 0.101886
0.154702 -0.21359 0.411305
0.0392759 0.168068 0.611251
-0.0698228 -0.266026 0.39902
0.126101 0.144174 0.385557
-0.230577 -0.0396922 0.390972
0.0919926 -0.145368 0.404206
0.0616549 -0.215535 0.420128
0.0610816 0.0997525 0.12887
0.189828 0.25152 0.0310354
-0.036768 0.177716 0.619915
0.0348072 -0.194649 0.41229
0.203707 0.224513 0.709222
-0.0271156 0.165576 0.496217
0.202325 -0.0696727 0.388077
0.111191 0.0914233 0.380727
0.262653 -0.0609407 0.0701326
-0.179414 -0.0156249 0.39094
0.13574 0.00745356 0.267993
-0.205005 0.270528 0.0237911
-0.034527 -0.239088 0.418903
0.0798054 -0.0487872 0.389947
0.213967 -0.162101 0.393387
-0.185473 -0.026592 0.10939
-0.0865579 0.162115 0.598726
0.0990131 0.105201 0.370979
-0.194136 0.187257 0.638978
0.20135 0.209824 0.710543
0.195187 0.0746175 0.362535
-0.0580084 -0.15376 0.408653
0.221559 0.0609519 0.374692
0.0889402 -0.00949575 0.392354
-0.121687 0.205382 0.123843
-0.185089 0.298912 0.019961
-0.237441 0.0311169 0.594087
-0.171655 0.190319 0.671531
-0.23854 0.0625607 0.591949
0.093856 0.123752 0.382438
0.0447887 0.226751 0.739608
-0.204761 -0.0026107 0.233127
-0.190477 0.0185701 0.355396
-0.0627873 -0.158737 0.408118
0.124821 0.00148048 0.280336
-0.00863521 0.222387 0.732283
-0.290519 -0.077302 0.0291293
-0.27626 -0.0735375 0.00292175
0.000603953 0.0458391 0.310947
0.190198 -0.0881897 0.395589
0.164066 0.133883 0.389577
-0.102175 -0.153079 0.408526
0.0716888 0.162283 0.491033
-0.239108 0.100087 0.588987
-0.0835809 -0.0734138 0.402325
-0.218011 0.116211 0.347407
0.18007 0.198364 0.64608
0.0226126 0.203165 0.685789
-0.0810382 0.202878 0.685413
0.0117463 -0.261165 0.410602
0.134289 -0.0922037 0.39614
-0.0169184 -0.0516631 0.399227
0.15906 0.202506 0.68329
-0.0190594 -0.00245124 0.392172
-0.0861727 0.161629 0.428291
-0.0225283 -0.0183852 0.310188
0.201048 -0.0404524 0.397642
-0.237621 0.177907 0.523248
-0.304549 -0.0633753 0.0328646
0.201788 0.187389 0.42758
-0.146425 -0.265629 0.401291
0.133712 0.176981 0.624321
-0.0122123 -0.276567 0.0474068
0.192824 0.159986 0.538695
-0.165052 -0.0576782 0.286446
0.223308 -0.144622 0.412118
0.148797 -0.0890044 0.395694
-0.112934 -0.256313 0.381271
-0.188598 -0.0524157 0.355531
-0.228633 0.0496523 0.363625
-0.114895 0.153117 0.546192
-0.277141 -0.0729339 0.0257475
0.0432157 0.0506238 0.295852
-0.094798 0.16846 0.114636
-0.0983694 0.13718 0.381525
0.0789058 0.00832406 0.114974
0.0745915 -0.150886 0.410694
0.0121534 0.240283 0.657117
0.134178 0.162974 0.488324
-0.0346653 0.0849578 0.102443
-0.288749 -0.044317 0.0109471
-0.0800826 0.160298 0.424046
-0.0216147 0.166401 0.607827
0.014391 0.0246336 0.201718
0.108201 0.0366207 0.378046
0.24554 -0.110724 0.503225
-0.0358907 0.0616847 0.296635
0.233804 0.0965866 0.587857
0.207797 0.0456033 0.351805
0.236558 0.162379 0.383158
0.151666 0.0139852 0.266014
-0.0956125 -0.0115447 0.131976
-0.239269 0.170718 0.463204
0.128268 -0.0217204 0.388671
-0.175093 0.251929 0.0193116
-0.0142865 -0.0476345 0.39864
0.17256 0.249083 0.0623803
0.228822 0.135655 0.387754
0.102967 0.215209 0.71639
-0.0462399 -0.151525 0.410587
0.281256 -0.0742869 0.0742073
-0.213202 -0.0228953 0.37257
-0.158425 -0.0173956 0.299953
0.0881995 -0.194905 0.412475
-0.30735 -0.0733763 0.0385073
-0.198392 0.245414 0.736136
0.244241 0.124002 0.365592
0.102792 -0.255869 0.381161
-0.168432 -0.21932 0.411386
0.0756985 0.162509 0.59905
-0.19431 0.129328 0.376867
-0.101541 0.240286 0.659178
0.000975454 0.00797132 0.311706
-0.213958 0.0362627 0.377973
0.00756554 -0.210081 0.115914
0.203467 0.221307 0.707996
-0.00784415 0.156668 0.412213
-0.189433 -0.0952271 0.405364
0.145481 0.12278 0.381043
0.0307004 -0.255798 0.380996
-0.00233697 0.0412846 0.24183
-0.0114192 0.00689573 0.0752571
0.0526626 0.192237 0.664915
-0.180384 0.251265 0.727913
-0.00111604 0.0354723 0.311706
0.155985 0.164178 0.519245
-0.142382 -0.186969 0.418164
0.20195 -0.1874 0.404975
-0.162543 0.247031 0.0930135
-0.208107 0.155816 0.358811
0.12779 0.0942449 0.380538
0.00708497 -0.107428 0.123447
0.105119 -0.138258 0.411718
-0.161281 -0.0188179 0.134053
-0.0807254 0.00665489 0.382023
0.201726 0.165265 0.487478
-0.27562 -0.0435012 0.0255561
0.249333 0.147132 0.371825
0.217142 -0.083434 0.403795
-0.181025 0.159613 0.539163
0.0178071 -0.0186178 0.309922
-0.00603348 0.0626004 0.2956
0.103933 0.153471 0.550699
0.0960827 -0.26009 0.411629
-0.22626 -0.013446 0.391496
-0.241284 -0.0811149 0.404738
0.178303 -0.132477 0.401986
0.00643593 0.14505 0.39649
-0.161671 0.156124 0.410751
0.117164 0.163005 0.525719
0.213842 0.181945 0.611913
-0.00642597 -0.0666903 0.103565
0.0831873 0.0236479 0.270409
-0.172414 0.0586352 0.315582
-0.00978574 -0.260122 0.0757489
-0.114467 0.170643 0.427727
-0.17667 0.201647 0.682276
-0.0388529 0.0481621 0.262385
0.197176 -0.0524197 0.375907
-0.190356 -0.0585764 0.364967
0.00943152 0.0382411 0.218236
0.0853499 0.164532 0.603416
-0.20165 0.076864 0.362584
-0.15682 0.161174 0.481645
0.0257566 -0.25593 0.38111
0.130582 -0.17346 0.416517
0.0980851 -0.0122184 0.123054
-0.130074 0.0023231 0.284918
0.165085 0.166354 0.412809
0.214324 0.160738 0.529994
-0.23023 0.140608 0.389593
0.0375312 -0.0107704 0.295852
0.200436 -0.211146 0.411268
0.196572 -0.0447002 0.374715
-0.17368 -0.119661 0.400041
-0.284269 -0.0567516 0.0310302
0.0980558 0.201569 0.703065
0.0262358 0.0566991 0.384091
-0.123003 0.161329 0.528043
0.116713 0.117938 0.375844
-0.0292723 0.0781172 0.131248
0.0241578 0.0626459 0.266337
0.132249 0.0900946 0.380819
0.0828843 0.177656 0.616496
-0.163342 0.284096 0.0419473
-0.035605 -0.0219852 0.392471
0.0133821 -0.179821 0.417295
0.0727912 0.162766 0.487115
-0.198283 0.0773662 0.362276
-0.228786 -0.12417 0.405494
0.124797 -0.00881448 0.384332
0.00361902 -0.0198858 0.262385
0.129497 0.210822 0.720134
0.0998862 0.172123 0.103446
0.210485 -0.128925 0.401464
0.252308 0.169912 0.52538
0.079979 0.0515495 0.375933
0.0150825 0.216528 0.73118
-0.0382961 0.173291 0.455457
-0.169985 0.19516 0.669225
-0.1755 0.253712 0.105831
-0.00879403 0.0262928 0.262385
-0.205897 0.195257 0.484498
0.0528283 0.110982 0.103488
0.164431 0.131136 0.377623
0.293092 -0.060805 0.0471196
0.0259539 0.0216894 0.38191
-0.154013 0.0429091 0.385911
0.201697 0.195119 0.688697
0.20029 0.167405 0.588213
0.11495 0.160434 0.59441
0.206964 0.196308 0.68695
-0.127993 0.229929 0.740022
-0.0904932 0.00216414 0.382643
-0.186403 0.185849 0.634524
-0.0287398 -0.235615 0.420223
0.209286 0.196762 0.400377
-0.204851 0.0678312 0.358491
0.209921 -0.154147 0.391919
-0.202634 0.0810083 0.356578
0.206945 -0.238833 0.413287
0.222277 -0.0508283 0.386708
-0.199324 0.0434065 0.376975
-0.155816 0.177036 0.611372
-0.0974806 0.0832026 0.372458
-0.00793794 -0.241981 0.414463
0.12676 -0.138818 0.411806
-0.249168 -0.0964692 0.428255
0.100231 0.164507 0.516184
0.109661 0.211124 0.720586
-0.188423 0.270208 0.0131904
-0.216024 0.0655416 0.343667
0.0318857 0.0510614 0.295852
0.0175152 -0.0145235 0.391139
0.132346 0.236733 0.664463
-0.289673 -0.053196 0.000631943
0.201335 0.161724 0.391557
0.147082 -0.0764166 0.393927
0.23597 0.136947 0.585676
0.0314466 -0.234699 0.382739
-0.0703144 0.168335 0.481689
0.15441 0.203722 0.686817
-0.187721 0.153389 0.393017
-0.190513 0.0461186 0.385472
-0.125355 0.164712 0.604496
-0.288949 -0.0696791 0.0640405
-0.0473957 0.241497 0.644832
0.201661 -0.0573019 0.363666
0.12369 0.0230911 0.386457
-0.0989039 0.202023 0.683024
-0.00967698 -0.25296 0.380202
0.225403 0.109192 0.371065
0.182924 0.17316 0.530359
0.198003 0.0488637 0.360931
0.183595 0.0802533 0.380275
-0.0300357 -0.0140393 0.262385
0.202676 -0.237039 0.419546
0.0109908 0.0371307 0.161787
-0.0447938 0.0993434 0.111411
0.00703888 -0.112814 0.114434
-0.188138 -0.0271758 0.117879
-0.129255 0.161993 0.56379
-0.243249 0.00770476 0.355901
0.134007 -0.263791 0.390319
-0.0530118 0.161042 0.528739
0.0519501 0.0975066 0.102142
-0.0067775 -0.172391 0.111575
0.207834 0.11873 0.349031
-0.205988 -0.0327332 0.370563
0.145226 0.0851677 0.381154
0.165153 -0.0262178 0.395097
-0.104162 -0.000129607 0.11209
0.174927 0.0285806 0.38437
-0.204056 0.226448 0.738841
-0.0863656 0.0269753 0.384532
-0.13565 0.23013 0.740048
-0.20977 -0.0224384 0.392579
0.153366 0.0336808 0.385523
-0.144436 0.072737 0.378444
-0.00870931 -0.0954912 0.40544
-0.02846 -0.171707 0.416266
0.00787091 -0.249945 0.0990898
0.139651 -0.0158049 0.305562
0.161563 -0.214886 0.411325
-0.103423 0.16431 0.488957
0.225682 -0.16297 0.396783
0.0948243 0.165972 0.505245
0.206539 -0.241813 0.414529
0.232321 0.134147 0.362128
-0.196816 -0.0515104 0.390283
0.00699078 -0.0827184 0.124027
0.048824 0.00546305 0.289164
-0.0999534 0.149406 0.388934
-0.154833 -0.185505 0.409121
-0.0512223 0.161293 0.492458
0.0415607 -0.159499 0.407878
0.0382546 0.0574986 0.295852
0.220874 0.0516913 0.362149
0.0755 0.00909832 0.102967
0.182686 0.0670382 0.325569
0.206052 -0.00391919 0.367346
0.158925 0.280436 0.0407795
0.190856 0.17138 0.567408
0.160504 0.188729 0.662153
-0.316392 -0.0634821 0.0158158
0.0447788 -0.0211935 0.295852
-0.0119972 0.0353469 0.168875
0.0335842 0.212348 0.722412
0.168827 0.275044 0.0385608
0.161911 0.0466734 0.376608
0.111426 0.182099 0.134753
-0.186226 -0.234433 0.420406
-0.25058 -0.0970852 0.474001
0.0498758 -0.196737 0.4164
-0.234251 0.088697 0.586773
-0.0118587 0.206787 0.702216
-0.01608 0.121706 0.379938
0.169718 0.0400385 0.377506
-0.251788 0.121891 0.35844
0.00650005 -0.188678 0.104326
-0.155959 0.00948449 0.381615
0.177496 0.186637 0.606259
-0.185607 0.1815 0.649887
-0.191973 -0.124813 0.409644
-0.0126974 0.162082 0.547624
0.00758111 -0.242317 0.113172
-0.124161 0.251658 0.725379
-0.1414 0.153181 0.567354
-0.173543 0.198341 0.672457
0.194656 0.0964307 0.365514
0.207258 0.176215 0.594515
0.194934 -0.135328 0.388057
-0.149527 0.153178 0.569336
0.14582 0.213012 0.713627
0.0731173 0.163344 0.524513
0.150472 -0.0293817 0.317169
0.165791 -0.00592903 0.383819
0.0326344 0.161827 0.491736
-0.0877429 0.15561 0.399091
0.161019 -0.0925603 0.405065
-0.251301 -0.111026 0.550405
0.208064 0.162846 0.377695
0.126457 -0.0214 0.124011
0.211775 -0.0241681 0.359502
-0.0343745 0.0139736 0.308182
0.16009 -0.18014 0.408506
-0.0881858 -0.005749 0.142454
-0.169599 -0.257277 0.382079
-0.186953 0.159389 0.580479
-0.166007 0.263319 0.0554895
-0.0068236 -0.0450361 0.126189
0.0904203 -0.0360268 0.396972
-0.103077 0.206775 0.699593
-0.0345103 0.153264 0.551181
0.284076 -0.0623648 0.0904594
-0.199517 0.187591 0.629734
-0.205471 0.224098 0.736779
0.100055 -0.215381 0.411331
0.0131148 0.169464 0.479992
-0.21106 0.165133 0.437187
-0.198439 -0.0450499 0.389342
0.0966876 0.168645 0.612318
-0.0708342 0.183659 0.628674
0.0893637 -0.253195 0.415798
0.00959882 -0.256025 0.026971
-0.0284978 0.249905 0.655234
-0.180074 0.191178 0.678982
-0.189205 -0.0462662 0.34704
0.117794 0.224428 0.736284
0.140626 -0.0789072 0.394276
0.0472128 0.00836703 0.10171
0.0854414 0.170958 0.427759
0.19794 0.190726 0.592216
0.0417622 0.0517745 0.375895
0.162916 0.0390104 0.276926
-0.136414 0.251271 0.728413
-0.161312 0.00637094 0.268625
-0.0124213 0.0544392 0.146489
-0.170586 0.0182222 0.290403
-0.173017 0.224166 0.702072
0.172666 0.133422 0.379
-0.208905 0.172402 0.459417
-0.173255 -0.0249117 0.317581
0.0209351 0.161675 0.48266
0.143001 0.131028 0.377577
-0.141074 -0.0266158 0.114537
-0.0568745 0.237801 0.653918
-0.244146 -0.11268 0.563161
0.254158 -0.0480219 0.12505
0.111635 -0.235176 0.411703
0.0598157 0.160546 0.581236
-0.188631 0.181077 0.4812
-0.0759331 -0.128111 0.410162
-0.0101383 -0.146366 0.41179
0.217449 0.117769 0.345452
-0.132964 -0.216146 0.411338
0.212583 -0.134018 0.411109
0.0491063 -0.200914 0.416474
-0.0295377 0.019577 0.262385
-0.236013 0.175008 0.409839
0.214482 -0.202269 0.417145
-0.113603 0.12301 0.381871
0.114634 0.163457 0.433113
-0.190774 0.165089 0.410489
0.22954 0.177295 0.476225
0.0223512 -0.290093 0.0312818
-0.011961 0.153271 0.545944
-0.237635 0.0729816 0.35808
0.115353 0.231188 0.74013
0.00733281 -0.192665 0.123984
-0.129073 0.0679931 0.380378
0.210859 0.124269 0.375927
-0.171422 0.171184 0.446115
-0.206372 0.202411 0.646799
-0.119173 0.243368 0.662422
0.0518785 0.0709245 0.376729
0.233333 0.173797 0.487316
-0.0571352 -0.24418 0.415289
0.0586951 0.0263874 0.275054
-0.240672 0.12981 0.587213
-0.228889 -0.25438 0.381845
-0.0178258 0.162644 0.431178
0.0459844 0.171906 0.440412
0.0877409 -0.211505 0.411271
-0.191161 -0.238277 0.403208
-0.0728792 0.168093 0.419442
0.225549 -0.0845692 0.4039
0.161687 -0.0133829 0.302358
0.26512 -0.0534048 0.0792361
-0.0812556 0.10482 0.3798
0.00667484 -0.0781289 0.138672
0.0461834 0.156054 0.512357
-0.0722408 0.0409282 0.377336
-0.208472 0.164318 0.436188
-0.165495 0.157966 0.583784
-0.140952 0.191532 0.663722
-0.0819063 0.203983 0.688602
-0.135734 -0.125594 0.409773
0.250602 -0.0857809 0.410518
-0.0480308 -0.0157477 0.290995
0.142137 0.0149172 0.266045
-0.14693 0.222733 0.658949
0.00480676 0.153313 0.549141
-0.24273 0.0783277 0.359304
-0.193597 -0.0457223 0.378754
-0.0967717 0.191509 0.663087
-0.225507 0.177527 0.43668
-0.0259619 -0.0929547 0.40508
0.0383018 0.00759548 0.143261
-0.162895 0.171895 0.436379
-0.163871 0.168333 0.447057
-0.258084 -0.0467263 0.598279
-0.184198 0.170212 0.473416
0.0135543 0.0510514 0.151964
-0.171263 0.213326 0.705067
0.104902 0.169951 0.424479
-0.077453 -0.104778 0.404236
-0.0591891 0.165707 0.50549
0.0942776 -0.0441172 0.38927
-0.0218183 0.154693 0.521698
0.195624 -0.163153 0.39781
-0.224849 0.059548 0.37479
0.194255 0.129683 0.371631
0.206562 -0.0206436 0.365771
0.015446 0.0194602 0.262385
-0.0507846 0.198789 0.700124
-0.047849 -0.0104695 0.295852
-0.00305916 0.061239 0.297081
-0.10111 0.165976 0.412873
0.0674735 0.122688 0.140886
0.139176 -0.120794 0.400238
-0.0604529 0.15173 0.390555
-0.0231688 0.176376 0.629324
-0.209955 -0.179997 0.393957
0.0110873 0.00518542 0.382246
-0.165404 -0.00251501 0.236569
-0.126361 0.188175 0.130456
-0.0250455 -0.174722 0.407789
0.0320614 0.165787 0.496698
-0.199313 0.173696 0.603206
-0.217593 0.165998 0.501559
-0.246988 -0.0898961 0.440506
0.200225 -0.236216 0.405741
0.124379 -0.0208698 0.391967
-0.0943838 0.247298 0.647858
-0.0454146 -0.035306 0.387956
0.202174 0.209963 0.693106
0.249234 -0.103494 0.512129
-0.0217105 -0.269813 0.0181195
-0.0442246 -0.0853827 0.404013
-0.0234209 0.201926 0.682416
-0.0116045 0.0172924 0.232903
-0.184681 -0.15798 0.408364
0.197172 0.212568 0.673291
0.204266 0.157155 0.505963
0.17998 0.160748 0.494036
0.129485 0.245417 0.736723
0.0725705 0.162603 0.490377
-0.190625 -0.252626 0.408377
-0.0823624 0.201807 0.682331
-0.126109 0.176408 0.626779
0.068393 0.173068 0.452773
-0.033856 0.017285 0.147901
-0.163745 -0.0308812 0.318589
-0.22807 0.0306804 0.370425
0.149107 0.0389381 0.276997
-0.15348 0.274562 0.0212286
0.188078 0.249571 0.710317
0.0599711 -0.242119 0.379613
0.00655675 -0.0326965 0.110725
-0.0252761 0.0625713 0.279823
-0.022091 0.0680602 0.112852
0.0184291 -0.239044 0.413256
-0.170116 0.161931 0.469506
-0.0126799 0.0630788 0.383224
-0.11507 -0.243474 0.379273
0.19413 -0.226908 0.40768
-0.102086 0.154961 0.131169
0.176076 -0.0373422 0.109452
0.0237518 -0.210156 0.411249
0.211831 0.1655 0.510056
-0.0130204 0.0206875 0.160989
0.215945 0.162931 0.376499
0.0881393 0.191467 0.678653
-0.0447426 0.09142 0.371904
-0.11412 -0.126825 0.401078
0.0485877 -0.00128569 0.392025
0.19843 -0.240712 0.390055
-0.0961255 0.156228 0.410675
0.0267349 0.0829077 0.372491
0.0292224 0.024573 0.127976
-0.218607 -0.0814546 0.403425
-0.0945313 0.00182535 0.275353
-0.206843 0.11182 0.355357
-0.196708 0.168161 0.440857
0.22068 -0.195023 0.404004
0.176779 0.156807 0.411777
-0.20319 -0.0943521 0.389953
-0.0908338 0.193208 0.666841
0.00221246 -0.0320036 0.145712
0.0407934 0.246041 0.646592
-0.0984593 0.130414 0.377426
-0.0106576 0.0378154 0.157467
0.161728 -0.219468 0.411396
-0.187643 -0.0425508 0.283084
-0.18976 0.246624 0.734545
0.244184 0.0678689 0.593053
0.0155491 -0.0128472 0.391553
-0.00676511 -0.2294 0.121164
-0.136518 0.201925 0.110551
0.0786603 0.212966 0.713679
0.154153 0.0272533 0.277737
-0.119216 -0.0974332 0.405689
0.0965223 -0.121031 0.409144
-0.197429 0.0451667 0.351647
-0.217961 -0.0283213 0.373714
-0.0935597 -0.230912 0.38704
-0.243366 0.0954989 0.347662
-0.213969 0.168505 0.607372
-0.135174 0.236973 0.740148
0.219544 0.0178412 0.376322
0.0133825 0.0389327 0.262385
0.299855 -0.0810317 0.0422715
0.144254 0.0368463 0.386317
0.00567019 0.0171349 0.244783
0.0427132 -0.0988986 0.40563
-0.173592 0.159197 0.577043
0.245527 0.183213 0.460285
0.215869 0.169646 0.586507
-0.00631372 -0.218325 0.105268
-0.0322397 0.169807 0.477406
-0.209687 -0.0888063 0.404459
0.150195 -0.0154955 0.29797
0.000876099 0.0480462 0.0916135
0.115365 0.168543 0.590965
-0.065836 0.168789 0.421615
0.0205999 0.190467 0.665322
-0.138274 0.214428 0.131157
0.0358218 0.179859 0.643674
-0.205843 0.179619 0.492566
-0.215917 -0.0368106 0.105296
-0.111404 -0.110329 0.404013
0.140675 -0.0116338 0.135542
0.299203 -0.0785272 0.0434287
-0.013373 0.192263 0.654455
-0.15911 0.156617 0.412769
0.161721 0.138248 0.392226
0.286616 -0.0751645 0.038466
-0.212768 0.179305 0.592364
-0.0288415 0.0771205 0.105194
0.109104 0.0133816 0.38113
-0.166806 6.71111e-06 0.382927
-0.11967 0.00105731 0.280131
-0.0779781 -0.174498 0.416608
-0.163846 0.261312 0.040404
0.254086 0.177568 0.523108
-0.190179 -0.228667 0.42032
0.193662 0.167725 0.5283
-0.204753 0.157478 0.580602
-0.118274 -0.00826677 0.392735
0.158554 0.279391 0.0408611
-0.204969 -0.125597 0.387254
0.156772 -0.0872134 0.404313
0.101626 0.154996 0.525675
-0.227769 0.151965 0.378059
-0.0318574 0.0235211 0.262385
-0.0240035 0.0371675 0.311706
0.13252 0.178076 0.637622
-0.0644497 0.13514 0.380258
-0.0122209 0.195726 0.691375
0.221996 0.165414 0.391707
-0.0427165 0.0738556 0.133374
-0.254213 0.178788 0.523174
-0.149964 0.160692 0.493255
-0.0961647 0.164093 0.407867
-0.0180714 0.0124125 0.129334
0.140796 0.0776553 0.374937
-0.0852424 0.00569983 0.102923
-0.105726 -0.114425 0.401251
-0.14387 0.169412 0.423965
-0.11607 -0.237271 0.419643
0.126354 -0.264132 0.406102
-0.190341 0.199942 0.63847
0.177553 -0.197549 0.416139
-0.183083 -0.193078 0.417441
0.245462 0.0559979 0.352227
0.185329 0.162175 0.471336
0.180126 0.290641 0.0216487
0.0771642 0.189156 0.662824
0.189404 -0.0307942 0.38735
-0.0801666 -0.0710574 0.401155
-0.12859 0.17291 0.456992
0.197115 0.226177 0.712051
0.249756 -0.095045 0.432732
0.194317 0.243165 0.737724
-0.0222537 -0.0298947 0.396054
-0.107239 0.0416296 0.386093
0.0378293 -0.00740993 0.295852
-0.0251912 0.156604 0.507466
-0.060444 0.116304 0.102375
-0.107402 0.176381 0.621822
0.164733 0.264187 0.0447249
0.0541745 -0.019741 0.391251
-0.21585 0.165285 0.596354
0.14228 -0.0907179 0.395933
0.171872 -0.0231327 0.103645
-0.194513 0.216249 0.710921
-0.191792 0.168141 0.447308
-0.236825 0.130071 0.358534
0.0487651 0.0448042 0.280766
0.0500999 0.17769 0.618173
0.199241 0.16169 0.542853
-0.220315 0.161393 0.544724
-0.196515 0.13122 0.358355
-0.186614 0.201033 0.680549
-0.0204494 0.173952 0.603172
-0.0588466 0.176448 0.627612
0.133332 0.162422 0.569771
-0.00246077 0.048941 0.113082
0.197974 -0.0114856 0.356005
-0.0600124 0.125826 0.376253
0.177383 0.235255 0.740609
-0.191121 0.289261 0.0370683
-0.186965 0.247977 0.0109904
0.19237 -0.0963844 0.394447
0.0111133 0.172483 0.461004
-0.200893 0.245845 0.735558
0.228855 0.153687 0.576335
0.170427 0.0521769 0.306715
0.21006 0.193783 0.452587
-0.0873608 -0.123885 0.400647
0.102851 0.184752 0.629699
-0.194162 0.190405 0.648853
-0.215354 -0.201836 0.414347
-0.0169549 0.0403288 0.262385
0.168369 0.253248 0.0457387
-0.0067336 0.0370085 0.386414
0.172666 0.219457 0.691145
-0.0763854 -0.191619 0.410525
0.218564 -0.236587 0.381259
-0.194793 0.161918 0.568071
-0.112571 0.114841 0.376462
0.0448689 0.0777918 0.107926
-0.0734961 0.0733713 0.378407
-0.0894531 0.211709 0.712736
-0.025522 0.0147593 0.100359
0.150568 -0.0140687 0.295998
0.121182 0.0240621 0.287456
0.00724261 -0.236395 0.107015
0.204856 0.168502 0.440531
-0.0646427 0.12497 0.140141
0.00361732 0.00510178 0.183357
0.18664 -0.147036 0.411562
0.192509 -0.0930426 0.392594
-0.136134 0.036768 0.287731
-0.138057 0.178589 0.640509
0.0641906 0.127414 0.116971
-0.0923195 -0.0106366 0.123673
0.144502 0.00848109 0.267487
-0.171337 0.0305685 0.38122
0.0256234 0.196549 0.693584
-0.0717736 0.00162416 0.281976
-0.154896 -0.166934 0.415642
0.184753 0.207918 0.659076
0.081073 0.17116 0.596766
0.200715 -0.19293 0.396964
-0.251632 -0.0970159 0.43736
-0.191896 0.172547 0.479479
-0.156853 0.0281727 0.384358
-0.170115 0.0105415 0.381465
0.193551 0.149847 0.381868
-0.123567 0.223644 0.735376
-0.0915722 0.153541 0.570754
0.231503 -0.0210724 0.594637
0.196211 0.179972 0.507468
-0.171336 -0.0286642 0.135747
-0.188285 0.106421 0.370866
0.152009 0.081292 0.380625
0.209136 -0.103972 0.399911
-0.112745 0.156662 0.404699
-0.192948 0.180092 0.568198
-0.211077 0.00457705 0.391155
0.207948 0.00781606 0.381922
-0.00474795 -0.0177629 0.101638
0.192783 0.202641 0.644737
0.125463 0.0787642 0.374394
-0.202678 0.160382 0.595337
0.106741 -0.219558 0.411396
-0.0186263 -0.167987 0.4158
-0.0689046 0.00958649 0.390488
0.00170074 0.0122313 0.244783
0.15605 0.227573 0.668174
-0.171037 -0.0300265 0.317391
-0.0967349 -0.00653284 0.383848
-0.225526 -0.0113047 0.392025
-0.0852171 0.137379 0.391925
0.166261 -0.180493 0.408552
0.00883679 -0.250586 0.0745629
-0.141508 -0.0150365 0.391071
0.206472 -0.0203272 0.366193
0.225605 -0.141167 0.39112
0.066165 0.107023 0.136935
-0.159245 0.164312 0.488311
0.0217859 -0.220582 0.41141
0.210823 0.0457409 0.347651
0.0835644 0.117699 0.373985
-0.0657963 0.123228 0.382064
0.116609 0.192264 0.653237
-0.203372 -0.0239407 0.393454
-0.236459 0.17702 0.527737
0.212224 -0.204604 0.413042
-0.0983541 0.0988739 0.37139
0.197985 0.285635 0.0342438
0.13677 -0.173263 0.416494
0.205985 0.177772 0.61508
-0.271491 -0.0743146 0.0380639
-0.197684 0.184986 0.65827
0.0999487 0.251657 0.715504
0.0428263 0.154189 0.398821
-0.00868239 0.168041 0.44794
0.106856 -0.217806 0.420163
0.0957463 0.00302073 0.118569
-0.0564649 0.115701 0.118924
0.0786176 -0.265205 0.401666
0.20918 0.00773328 0.355575
-0.122743 0.160656 0.479142
0.196413 0.175206 0.52905
0.104079 0.085087 0.381155
0.0904659 0.0294683 0.382062
0.172111 0.0428903 0.301607
0.1921 0.195705 0.609833
-0.0369329 -0.0343328 0.267809
-0.181615 -0.171708 0.40738
0.108171 0.01961 0.29091
0.160545 0.164587 0.43583
-0.0120818 0.156728 0.535199
-0.147194 0.0663212 0.381308
0.0994241 -0.144233 0.412254
0.142994 -0.166117 0.406738
-0.216337 0.163094 0.357541
-0.0554314 0.177461 0.616817
-0.113164 0.0158003 0.291841
-0.223931 -0.0194296 0.389159
-0.246806 0.0650112 0.359452
-0.0532221 0.0745268 0.378543
-0.24612 0.180308 0.418915
0.126563 -0.150377 0.410795
-0.157524 0.0103493 0.291362
0.110779 0.162258 0.545633
0.0437398 0.153396 0.553762
-0.00432326 0.191857 0.660226
0.223908 -0.134921 0.411246
0.0114936 0.0359207 0.236222
0.0295898 0.0626541 0.290559
-0.296725 -0.0881239 0.0392342
0.0641774 0.19056 0.673902
0.137561 -0.0335407 0.396621
-0.212409 0.176599 0.449352
0.224105 0.181302 0.409264
-0.103972 -0.226165 0.420284
0.160559 0.246722 0.0984087
-0.000956491 -0.211832 0.411274
0.0348476 0.206878 0.714958
0.00739823 -0.135737 0.411319
-0.129483 -0.160854 0.413626
0.205641 0.174332 0.576779
-0.0752594 0.00407044 0.382382
0.101493 -0.248113 0.416755
-0.0224383 0.196754 0.694385
0.0313178 -0.0920876 0.404971
-0.185184 0.232999 0.740403
-0.0552742 0.0915892 0.102331
0.0270088 0.0752582 0.144192
0.00483781 0.181237 0.648149
-0.0456401 0.0484816 0.262385
-0.212272 0.111612 0.355711
0.153449 -0.0234289 0.137298
-0.0404674 0.0204624 0.13871
0.102573 -0.111488 0.404877
-0.216409 -0.0068074 0.3678
