-0.056619 0.00571693 0.370529
0.00649431 -0.0237826 0.40911
-0.0499136 0.259767 0.469889
-0.128561 -0.199597 0.419329
0.0568743 -0.0609249 0.374565
0.00165317 0.224104 0.703023
-0.179167 0.203758 0.513123
-0.165973 0.215715 0.596618
0.0722209 -0.0214834 0.401247
0.0427761 0.262826 0.449303
0.184258 0.216434 0.557654
-0.197729 -0.179142 0.133485
-0.161083 0.230974 0.197133
-0.232105 0.02858 0.407066
-0.140097 0.201377 0.299204
-0.186497 -0.0289623 0.408763
0.0117006 0.233684 0.623225
0.123827 0.102611 0.408863
0.0426846 0.248294 0.618679
0.216744 -0.152883 0.121641
0.17802 0.209121 0.660188
-0.0154832 -0.172559 0.419872
-0.139829 0.222832 0.670233
0.0527802 -0.0854497 0.361942
0.064675 0.221784 0.594858
-0.100984 0.189511 0.291971
-0.0220545 -0.243974 0.394967
0.108125 0.226089 0.544494
0.106127 -0.140668 0.39556
-0.173854 -0.249271 0.404148
-0.0299687 -0.126415 0.391444
-0.058332 0.220659 0.580738
-0.11146 -0.0678317 0.409248
0.0479671 0.264251 0.491163
-0.187922 -0.139272 0.241086
0.213504 -0.186568 0.0438108
-0.0711462 0.219254 0.524411
-0.126223 -0.14176 0.358742
0.179359 -0.0892705 0.352296
0.00410075 -0.141397 0.392028
0.0600882 0.172537 0.321885
0.240277 -0.181501 0.427231
0.0451752 -0.152908 0.360561
0.0635783 0.0119778 0.377748
0.08404 0.147555 0.400674
0.134229 -0.158002 0.361307
-0.0140896 0.108606 0.382301
0.133374 0.0625522 0.411632
0.179249 -0.12021 0.352527
-0.0852513 0.0906014 0.399251
0.143281 0.0242587 0.406267
-0.165249 -0.162117 0.426648
-0.0507541 0.14926 0.321153
0.146554 0.221777 0.616038
-0.0218107 0.257107 0.380384
0.0781633 0.0701504 0.346603
-0.196968 -0.145448 0.194813
-0.206339 -0.169615 0.0717
-0.00952709 -0.062473 0.38909
-0.0975088 -0.25448 0.387646
-0.0658808 0.170551 0.292046
0.189738 -0.143371 0.425102
0.0140335 0.233107 0.487384
0.182789 -0.216763 0.427685
0.0160984 -0.230189 0.402465
0.172371 0.195341 0.232855
-0.049473 -0.201631 0.420548
-0.241808 -0.167928 0.42663
0.162109 0.213729 0.486473
0.187711 0.185559 0.143913
-0.125836 -0.233078 0.415985
0.00367988 -0.0178336 0.368551
-0.0145448 -0.0941286 0.391178
0.0368646 -0.030923 0.386196
-0.0213624 0.0318527 0.399228
0.137449 0.140535 0.4133
-0.177664 0.245496 0.106543
-0.0281269 0.1829 0.292128
0.150783 0.144874 0.26913
-0.141861 0.1604 0.412589
0.0757077 0.221581 0.681885
0.199479 -0.127828 0.240024
-0.159251 -0.0860269 0.330003
-0.158538 0.179865 0.201226
-0.150987 0.211571 0.701201
-0.0334179 -0.143367 0.359904
-0.0632736 0.220453 0.671807
0.0192615 0.248783 0.581367
-0.0861658 -0.146855 0.416979
-0.0300328 0.159834 0.321255
-0.214437 -0.153065 0.105431
0.175816 -0.0060509 0.417871
-0.181731 -0.130201 0.272741
0.0614457 0.208851 0.306826
-0.0384192 0.253346 0.59999
0.200772 0.21292 0.612552
0.0694733 0.0291343 0.39278
-0.144391 -0.0860671 0.421142
0.0917086 -0.0946324 0.36095
0.0193218 0.15283 0.39336
-0.0564333 0.0438859 0.358435
0.0356436 0.260181 0.405218
0.0252764 -0.061625 0.416498
-0.200685 0.252485 0.0426252
-0.0272662 0.222403 0.556339
0.19684 0.214345 0.67379
0.198696 0.259851 0.0173414
0.194402 0.120165 0.418186
0.210627 -0.12675 0.163654
0.0325307 0.225707 0.747479
0.0287824 0.125344 0.309592
0.0491455 0.239033 0.362628
-0.137374 0.222208 0.598251
-0.190181 -0.127646 0.423932
-0.0273446 0.232962 0.705642
-0.0560542 0.247448 0.359934
-0.213533 -0.0570324 0.4099
0.181052 0.243388 0.0978054
-0.173419 0.174311 0.153199
-0.00623499 0.239869 0.367679
-0.0946602 -0.0147192 0.411854
-0.14941 0.213711 0.253621
-0.0780398 -0.0858235 0.410275
0.0317861 -0.00966404 0.407239
0.145906 0.218869 0.737234
0.061097 -0.19251 0.429692
0.0706303 0.143698 0.292341
0.0473496 0.0285128 0.359189
-0.0943291 0.217773 0.651714
-0.0607846 0.150469 0.387039
-0.0867555 0.144926 0.306506
-0.15933 -0.135202 0.356785
0.0212149 0.264286 0.494741
0.0355996 0.232933 0.541825
-0.0532597 0.255375 0.440761
0.245913 -0.145118 0.419511
-0.110959 0.140186 0.396223
0.0946376 -0.119453 0.414361
-0.0520013 0.220179 0.494899
-0.0265253 0.263407 0.46115
0.0587279 -0.082824 0.41972
0.0503076 -0.121875 0.424699
-0.109172 0.0509363 0.406347
-0.00199648 0.21973 0.292874
-0.160223 -0.121146 0.307266
-0.175905 -0.0839539 0.421025
0.205325 0.202851 0.577781
-0.210811 -0.13413 0.0968816
0.00896365 0.232549 0.343782
0.223632 -0.149572 0.0219146
-0.144813 0.180193 0.295284
0.0953584 0.228424 0.502073
-0.129204 0.16873 0.303552
0.0981793 0.0954224 0.402825
-0.0450488 -0.0190195 0.409066
0.214211 0.210986 0.532384
0.0146742 0.224156 0.651771
0.165363 0.20229 0.188333
-0.188713 0.213979 0.111838
0.147992 -0.135494 0.373974
-0.0200372 0.0656883 0.394076
-0.181419 0.209846 0.153909
-0.0267244 0.00502439 0.378813
-0.18111 0.0933282 0.404867
0.0477384 -0.25855 0.376385
0.151719 -0.249333 0.401384
-0.200194 -0.152358 0.103052
-0.0185105 0.264401 0.570156
0.1305 -0.0780036 0.410868
-0.177776 0.217954 0.17488
0.167956 0.146182 0.414062
0.00425704 0.142866 0.292882
-0.0293063 -0.25849 0.373145
0.105745 -0.13122 0.375583
-0.0297489 -0.0924348 0.359934
0.140218 0.21544 0.580159
-0.0679972 -0.0853655 0.367257
0.181585 -0.139347 0.262272
0.123124 0.217037 0.47886
-0.16758 0.216289 0.650483
0.118505 -0.102504 0.422377
0.0486819 0.257808 0.386698
0.155496 0.0811374 0.414151
0.0780008 0.194886 0.322191
0.00434873 0.246762 0.43444
0.184928 0.200929 0.0751835
0.162599 -0.0775367 0.411046
0.11569 0.134644 0.398457
0.0774758 -0.0752109 0.383644
-0.0681377 -0.134447 0.374121
0.178715 -0.0477215 0.409675
0.159274 0.00471796 0.407932
0.167256 0.218771 0.640883
0.0442406 -0.0901733 0.391232
0.200595 0.0568653 0.406119
0.203279 -0.189743 0.418541
-0.0073152 0.184742 0.292173
0.119778 -0.177134 0.418393
0.210521 -0.153363 0.0643915
0.197685 0.222738 0.0862533
0.0551827 0.211607 0.322202
-0.16492 0.216256 0.618156
-0.0822985 0.0339977 0.394444
0.0771273 -0.15399 0.382736
0.0246117 0.0171664 0.392284
-0.215093 -0.155234 0.0268826
0.0815213 0.221307 0.710534
0.0132796 -0.137425 0.360294
0.171519 0.206055 0.152759
-0.134588 -0.129631 0.414563
-0.199915 0.0691633 0.414626
0.0402998 0.223306 0.58562
0.0862404 -0.14102 0.426361
0.0163405 0.0399487 0.371232
0.0928841 -0.243557 0.397884
0.176846 -0.0990397 0.294857
-0.164756 -0.156506 0.284215
-0.0645007 0.220416 0.60922
-0.0780395 0.228495 0.554255
0.130336 -0.0364244 0.41796
-0.158172 0.202483 0.203249
-0.0452081 0.0967504 0.383539
-0.0896402 0.219204 0.715553
-0.151445 0.0901639 0.413823
-0.143932 0.21944 0.523768
-0.0169 0.259462 0.398947
0.0074129 0.048192 0.350968
-0.206741 -0.154659 0.144824
0.17659 -0.159365 0.296334
-0.0919266 -0.135705 0.373921
-0.246188 -0.025421 0.410607
-0.0177606 0.233242 0.586607
-0.076715 -0.175208 0.42893
-0.18855 0.138171 0.410463
0.142706 0.191146 0.301299
0.167051 0.221068 0.17866
-0.0236109 -0.0999725 0.412212
-0.0266986 0.0754936 0.354982
0.0771947 0.260716 0.420852
-0.00297302 0.233578 0.547364
0.0308726 -0.054936 0.388869
-0.191833 0.223439 0.00947608
0.0105475 -0.0950766 0.360271
-0.184306 0.229168 0.0527695
-0.00934233 0.134675 0.382688
0.0122463 0.224122 0.715729
-0.00241637 0.233693 0.631817
0.0363517 0.223064 0.513368
0.00419658 0.24898 0.528216
-0.164498 -0.157103 0.347621
0.220502 -0.18516 0.0665651
-0.0323449 -0.0597128 0.388784
0.187567 -0.144612 0.221355
0.0800998 -0.228372 0.417681
-0.151948 0.185541 0.239124
0.00975208 0.0742878 0.355731
0.0629136 -0.0494034 0.414725
0.209913 -0.159701 0.168407
0.246278 -0.0742446 0.42041
-0.222555 -0.121883 0.423474
0.00235759 0.162623 0.292194
0.174162 -0.129016 0.313069
0.0405483 0.0951907 0.341205
0.183116 -0.144753 0.342158
0.228487 0.199156 0.612011
-0.148744 0.173862 0.257606
0.169277 -0.125756 0.423743
-0.140071 -0.0546495 0.419396
0.0362497 -0.113238 0.360486
-0.0298075 -0.141509 0.426826
-0.22635 -0.0723274 0.410676
-0.0552778 -0.162223 0.361889
-0.182846 -0.231841 0.420576
-0.0456514 0.231897 0.732529
0.0763863 0.231274 0.540657
-0.0371627 0.104513 0.333703
0.0567209 0.232357 0.493655
0.206475 0.231717 0.0353546
-0.166301 0.00443883 0.407432
0.115055 0.228569 0.659493
-0.194777 -0.180701 0.428189
-0.2303 -0.180847 0.0243655
-0.101712 0.221312 0.741482
0.0095145 -0.0819209 0.419393
0.019566 -0.1574 0.375934
0.219159 -0.0362352 0.41879
0.220221 -0.164544 0.0977668
-0.0404762 0.0134096 0.403063
0.10046 -0.0402408 0.406564
-0.113928 -0.133386 0.42496
0.028512 -0.224881 0.423201
0.0655337 0.251068 0.503347
0.0430165 0.264434 0.538285
0.0578884 -0.133213 0.392462
0.125444 0.165797 0.291375
-0.120056 -0.0337511 0.415756
0.0489145 -0.00420614 0.366313
0.03572 -0.167881 0.41964
0.0389301 0.138386 0.322354
0.0693342 -0.247904 0.391948
0.00842358 0.263559 0.635191
0.194049 0.213726 0.0224976
0.187743 0.10113 0.406815
0.0626972 0.133949 0.395081
0.0683974 -0.00931499 0.382193
0.148891 -0.190945 0.418535
-0.177117 0.203787 0.570346
-0.16367 0.153305 0.256519
0.243323 -0.00618144 0.411599
-0.106223 0.216425 0.625006
-0.115708 -0.238814 0.39533
0.165259 0.209902 0.540981
-0.175762 -0.12755 0.227859
-0.0200107 -0.0418031 0.402921
0.198295 -0.157522 0.247998
-0.00964748 0.233525 0.509537
-0.174594 -0.166067 0.23396
-0.0944956 0.120123 0.392174
0.218061 -0.0784723 0.420663
-0.127733 -0.104724 0.358348
-0.0649985 -0.109936 0.423191
0.161533 0.170091 0.279971
-0.154764 -0.229087 0.408243
0.165702 -0.0956912 0.367013
0.119352 0.22835 0.686629
0.161845 0.205828 0.208695
0.0409763 0.184393 0.306418
-0.0246125 0.248889 0.498342
0.00484803 -0.0649946 0.374428
0.186554 -0.109973 0.228436
0.219704 -0.13158 0.424203
-0.123586 -0.00862199 0.404976
-0.0877089 -0.0647565 0.417982
0.0465409 0.250092 0.562882
0.206852 -0.146061 0.189436
0.21253 0.0163795 0.417187
-0.180696 -0.154794 0.202732
0.0208256 0.23377 0.684933
-0.0377509 0.226318 0.329093
0.0928852 0.172642 0.403802
0.194475 -0.0174634 0.408554
0.219595 -0.0554386 0.4099
-0.106061 -0.202764 0.419884
0.0785416 0.158601 0.308318
0.0601769 0.0558168 0.347677
0.178359 0.0246327 0.407309
0.0585459 0.178447 0.292315
-0.185403 0.0390034 0.406294
0.0917085 0.23042 0.625027
-0.199727 -0.118509 0.1806
-0.0344858 0.152511 0.384683
0.0414899 0.121056 0.383925
-0.0144311 0.26377 0.619779
0.150497 0.206461 0.269861
0.018486 0.213613 0.322021
0.0629843 0.222308 0.654724
-0.00214092 0.148453 0.321462
-0.205149 0.208277 0.605955
-0.0660683 -0.250839 0.38741
-0.0506082 -0.0232135 0.369193
-0.159284 0.216883 0.508304
0.114189 -0.117062 0.361139
-0.205797 -0.0101594 0.417688
0.199353 -0.14994 0.140755
0.188526 0.242823 0.124757
-0.221769 0.0805533 0.4146
0.029379 0.0441966 0.388055
-0.135725 -0.127253 0.371038
0.0929336 0.20126 0.306893
-0.00633861 0.264261 0.482351
0.111942 0.226215 0.526839
0.0699156 0.166564 0.398236
0.0537756 0.110918 0.312928
0.11692 -0.226429 0.419768
0.00726013 0.0293341 0.398866
-0.247376 -0.0895561 0.411773
0.153995 -0.116806 0.35783
-0.0189296 -0.154172 0.3913
-0.226544 -0.147945 0.0434531
-0.0318578 0.222983 0.6411
0.0384577 0.223712 0.627034
-0.0225696 0.222443 0.530975
-0.172707 -0.113952 0.24343
0.0917565 0.0110186 0.399933
-0.0387951 0.231933 0.670955
0.0228725 0.17469 0.306216
0.0688502 0.103257 0.395794
-0.0828074 0.219079 0.677633
0.095306 0.230445 0.683527
-0.151288 -0.144378 0.415633
0.0431075 -0.244825 0.394402
0.0115636 0.11499 0.327515
0.225172 0.208573 0.552411
-0.0969423 0.226696 0.508871
0.134888 0.122404 0.402573
0.054323 -0.107274 0.376175
-0.100144 0.211094 0.306478
0.0535446 0.078227 0.334981
-0.10946 0.22495 0.49235
-0.135745 0.113109 0.413092
-0.181016 -0.125598 0.200992
0.0358044 0.227243 0.475136
-0.0865155 0.150919 0.401391
-0.174881 0.165575 0.191807
0.189489 0.215031 0.589209
-0.102278 0.215802 0.536208
0.0954815 0.229588 0.574884
-0.153231 -0.0853011 0.357391
-0.148301 -0.1854 0.427855
-0.0872232 -0.0922354 0.359453
0.193294 -0.124512 0.182291
0.0260196 0.0641593 0.394558
-0.0256844 -0.202666 0.430015
0.0574518 0.264497 0.55801
-0.000708353 0.229078 0.313887
-0.0867214 0.217637 0.584282
-0.18726 -0.205705 0.419842
0.174605 0.165789 0.219791
-0.0446563 -0.0761433 0.409036
-0.0621465 0.0255999 0.40239
0.0268506 0.248908 0.514221
0.0726007 0.0803929 0.386989
-0.154214 0.208473 0.582019
0.00302066 0.223811 0.504248
-0.0048627 -0.0977482 0.411926
0.131013 -0.131326 0.424584
-0.0639511 0.0781112 0.386033
0.170979 -0.228867 0.407281
0.00023128 0.224118 0.661935
-0.18576 0.212255 0.653994
0.0468874 0.248554 0.597901
0.0590862 -0.128778 0.360678
-0.194743 0.112171 0.416625
0.00356596 0.248322 0.470599
0.0225666 0.1718 0.394838
-0.0441154 -0.243429 0.395666
0.153749 0.221849 0.510791
-0.0594843 -0.138486 0.416634
0.0517312 -0.0293128 0.411289
-0.245551 -0.140227 0.417951
-0.0222169 0.128792 0.324189
0.0843148 -0.00432545 0.410339
0.215689 -0.103624 0.412606
0.150202 -0.039629 0.409422
-0.23411 -0.193795 0.419627
0.0295527 0.24798 0.463308
-0.0977995 0.171122 0.306483
0.233254 -0.20761 0.419622
0.118282 0.225219 0.568789
-0.14025 0.135051 0.405795
-0.0722544 -0.0322077 0.412165
-0.11314 -0.180669 0.428391
-0.0692474 -0.112531 0.374112
0.0648015 0.232961 0.716985
-0.00198039 -0.1932 0.429897
-0.164056 0.206089 0.53531
-0.138934 0.0385244 0.415233
-0.078129 -0.240661 0.404911
0.0911492 0.220057 0.598471
0.221166 0.0621411 0.405944
-0.012907 -0.126035 0.374585
-0.0742761 -0.217173 0.420732
-0.0546121 -0.182189 0.419951
-0.0344477 -0.106397 0.375613
0.117304 -0.261268 0.380596
0.0651473 0.00208996 0.406328
-0.0470142 0.231109 0.626034
-0.128672 0.215542 0.704586
-0.166868 -0.103535 0.273238
-0.114349 0.226404 0.653145
0.0022538 -0.0428063 0.372951
0.0784006 0.244257 0.364487
-0.00415484 -0.132889 0.425987
0.0258543 0.263992 0.599932
0.0194363 0.26438 0.518713
-0.019732 0.155151 0.305856
0.116189 0.0531526 0.399127
0.192623 -0.154891 0.286864
-0.0374458 0.246075 0.417485
-0.0423391 0.0265083 0.373925
-0.227108 -0.140317 0.4249
-0.163773 0.23127 0.17091
0.029747 -0.138517 0.374944
0.099991 -0.0799387 0.420326
-0.192112 0.242539 0.00779578
-0.180762 -0.103544 0.412637
-0.212537 0.0399131 0.406489
-0.00838039 0.0244111 0.374574
0.028699 0.262057 0.431096
-0.0236822 0.23508 0.350768
-0.218066 -0.158448 0.0868793
0.201021 -0.176938 0.162805
-0.000599535 -0.233391 0.397822
-0.229339 0.00663285 0.417239
0.152316 0.221713 0.558497
-0.195746 -0.242821 0.404884
0.162455 0.21292 0.680629
0.132358 0.0781381 0.400358
0.177073 -0.106109 0.422361
-0.210889 -0.169369 0.0484374
-0.0483557 -0.139859 0.375737
-0.190722 -0.173922 0.195816
-0.184587 0.202429 0.592069
0.00344807 0.264304 0.576576
0.00599098 0.224157 0.60286
0.00219061 -0.0480961 0.404002
0.0752565 0.220485 0.506627
0.201664 0.21333 0.556612
0.169038 0.213841 0.721995
0.0806858 0.0660527 0.390472
0.190818 -0.135929 0.299317
-0.203983 0.227472 0.0237075
0.18921 0.205997 0.639182
0.182028 0.196012 0.176889
-0.136181 0.221721 0.551207
-0.147192 -0.00409068 0.417329
-0.0415839 -0.120784 0.414944
-0.0157241 0.248598 0.598179
-0.0155763 0.26446 0.53225
-0.0482772 -0.0863179 0.359779
0.153605 -0.144911 0.415584
0.196524 0.037894 0.416462
0.224586 -0.141941 0.0679523
0.0784141 -0.157087 0.418354
0.0298413 0.142848 0.297083
-0.00388354 0.0871069 0.391535
-0.107965 0.215813 0.596519
0.12864 0.195288 0.290603
0.0536041 0.131705 0.308321
0.200571 -0.227525 0.41869
-0.00304838 0.261772 0.423677
0.0977794 0.21884 0.480732
-0.181025 0.212511 0.548607
-0.0111904 0.224066 0.723218
-0.162818 0.179355 0.176604
0.099326 -0.220075 0.415514
-0.120883 -0.090476 0.420859
0.0104972 -0.16643 0.419765
0.0380204 0.143701 0.393911
-0.185315 -0.154949 0.17912
-0.0488426 0.0867935 0.328044
-0.212007 -0.18296 0.0894986
-0.190966 -0.162705 0.417032
0.0417404 -0.199408 0.420541
-0.163969 -0.163854 0.313724
0.134478 0.216994 0.637688
-0.0214997 0.224059 0.685497
0.149345 0.0490168 0.415319
-0.204564 -0.0346482 0.41861
-0.0681937 0.218125 0.306546
-0.164513 0.199934 0.251438
-0.166453 -0.0302781 0.418375
-0.155432 -0.125854 0.331774
0.160442 -0.208849 0.428886
-0.106687 0.0957474 0.393812
0.0225796 0.224215 0.550273
0.179137 -0.197436 0.418915
-0.165299 0.0221666 0.416359
-0.0795848 0.127723 0.389576
-0.0293742 0.0888638 0.392477
0.0286318 -0.125226 0.415464
0.1269 0.225459 0.610093
-0.135054 -0.22065 0.425889
0.153947 0.182133 0.254253
-0.00942054 0.0488586 0.367437
-0.119279 0.216239 0.672215
-0.145594 0.211779 0.647169
-0.0544012 -0.0567201 0.415835
-0.00175361 -0.0991903 0.374679
-0.183725 0.202959 0.0562086
-0.0412237 -0.00776239 0.381285
-0.031795 -0.226701 0.407773
0.0612154 -0.110967 0.41372
-0.176099 0.204238 0.61876
0.0281855 -0.0944675 0.374931
0.000437394 -0.000250132 0.380065
0.171334 0.163501 0.193028
0.110615 0.142789 0.294759
0.154035 0.219521 0.291962
0.117438 0.0193833 0.402262
0.141256 -0.259565 0.389624
-0.179302 0.193525 0.166194
-0.192026 -0.149084 0.220115
-0.115487 -0.256553 0.377339
-0.224044 -0.219911 0.424499
-0.027727 0.0133221 0.362092
0.0109517 0.242579 0.389067
-0.0207478 0.163444 0.394363
0.0610033 -0.0284666 0.385859
0.196903 0.00254393 0.408006
-0.0778717 0.218599 0.502861
-0.229226 -0.0427332 0.418963
-0.191405 -0.0651825 0.410237
0.111734 0.0771849 0.396023
0.0291987 0.233312 0.607897
0.150109 0.224635 0.703808
0.214763 -0.16348 0.0353357
-0.155104 0.22269 0.220821
0.0772166 -0.133692 0.383058
0.19649 -0.0945256 0.421649
-0.0449118 0.220903 0.520912
0.163288 0.210283 0.575794
0.206042 0.21132 0.507345
0.0912979 0.161402 0.292386
-0.19215 0.192935 0.0920947
0.17427 0.209062 0.62676
-0.0369924 0.231708 0.578962
0.110061 -0.0571822 0.408401
0.167348 -0.16238 0.344814
0.0807985 -0.200899 0.420098
0.146384 -0.232592 0.402917
-0.0490927 -0.111978 0.39071
0.0238542 -0.0410034 0.403091
-0.0472608 -0.0295866 0.385461
0.207811 0.202158 0.620118
0.0779264 0.0470665 0.402167
0.188324 -0.178917 0.427475
0.0285345 0.016555 0.361691
0.104753 0.114594 0.404783
0.0543761 0.161864 0.306351
-0.0383724 0.160972 0.292106
0.0485272 0.0440429 0.398624
-0.0305886 -0.162405 0.429093
0.0488572 0.222596 0.563485
0.107092 -0.15031 0.426619
-0.0169686 0.246312 0.423468
-0.0500517 0.0391431 0.389357
-0.171311 -0.130594 0.250619
0.0752711 0.206552 0.292351
-0.160998 0.147541 0.408177
-0.153909 -0.244977 0.39421
-0.222877 -0.161965 0.062274
-0.195753 0.226976 0.0711797
-0.155456 -0.0405315 0.409203
-0.0443006 0.133983 0.393664
-0.142322 0.142969 0.295243
-0.0294258 -0.120475 0.359937
-0.223237 -0.170914 0.417676
-0.0186241 0.248178 0.561497
-0.0987538 0.154603 0.291976
0.143846 0.214108 0.489855
0.102344 -0.0157686 0.403606
0.110606 0.187779 0.306932
0.203219 -0.173765 0.114196
0.104297 -0.25112 0.378974
0.175383 0.180209 0.131162
0.0616602 0.144507 0.321883
0.0315649 0.0713412 0.340049
-0.0129103 0.233531 0.563571
0.0161232 -0.0861327 0.390732
-0.00920306 0.23375 0.675145
0.0743697 0.0891013 0.346027
-0.0346571 0.205946 0.306619
-0.0877759 -0.163263 0.428314
0.18915 0.21188 0.700118
-0.0249227 -0.141234 0.375947
0.170639 -0.0977638 0.335185
0.161532 -0.161822 0.426517
-0.0307778 -0.0384158 0.387259
0.0787716 -0.0823368 0.410409
0.0234423 0.133573 0.383089
0.0779447 0.015446 0.363632
0.155708 0.155939 0.243946
0.00989793 0.24886 0.498181
-0.00886675 -0.0212758 0.384069
0.148411 -0.01668 0.408365
0.0409619 0.159574 0.321704
-0.0857704 0.218041 0.629422
0.0505246 0.201514 0.292298
0.18992 0.0677335 0.405534
-0.0064579 0.0310763 0.358346
0.0542243 0.263696 0.469802
-0.0204994 -0.0634236 0.374201
-0.201359 -0.139771 0.172319
-0.011516 0.0612855 0.344751
0.182824 0.216846 0.537084
-0.0744778 -0.143705 0.35956
-0.104985 0.0325857 0.397768
-0.177545 -0.143048 0.294206
0.0487976 -0.141049 0.426732
0.0423465 0.26434 0.513327
0.19909 -0.03995 0.409354
0.205646 -0.207931 0.428985
0.0506452 -0.0155323 0.399011
0.0761056 -0.121295 0.424422
0.0192011 0.192125 0.306345
0.0310753 0.22416 0.728175
0.190626 0.202024 0.127078
-0.0763487 0.10238 0.388353
0.189546 -0.163624 0.417039
0.0590998 0.232512 0.550401
-0.185567 0.238842 0.129862
-0.184195 -0.00808867 0.40796
0.217382 -0.19525 0.418887
-0.0462031 0.256442 0.374879
-0.0254709 0.224024 0.745404
-0.156138 0.0792405 0.403872
-0.0522176 0.230445 0.560634
0.0242193 0.248993 0.535812
0.0897662 0.219855 0.552104
-0.0103221 -0.25519 0.378146
-0.146518 0.193484 0.267927
-0.15561 -0.147961 0.330937
0.185877 -0.128783 0.333201
0.0159868 -0.120633 0.375963
-0.0861566 -0.25998 0.371026
0.157085 0.176492 0.236084
-0.00568062 0.233664 0.610877
-0.0448881 0.222572 0.715236
-0.0529014 0.221665 0.64438
-0.0368402 0.0516351 0.366008
-0.0446496 0.227809 0.476174
-0.0492228 -0.225879 0.421919
0.0216324 0.248794 0.483453
0.100916 0.155993 0.395795
0.0798492 -0.0424982 0.405557
-0.0375889 -0.188569 0.420229
-0.0931983 0.0712839 0.401451
-0.0802759 -0.141289 0.398318
-0.0977573 0.00325105 0.400048
0.0698677 -0.16231 0.364381
0.225289 -0.163225 0.0630523
-0.0159031 0.216244 0.305738
-0.0121777 -0.14121 0.360081
0.222108 -0.189237 0.017656
0.0678611 0.232603 0.640126
-0.171417 0.220155 0.211538
0.0547381 -0.0475092 0.388556
0.194275 0.229009 0.106051
-0.15551 -0.0717832 0.410624
-0.180577 -0.0470555 0.41908
0.225407 -0.170182 0.427122
0.0615254 0.26024 0.405983
0.123347 0.228204 0.721709
0.154373 0.130209 0.416568
0.111213 -0.0305749 0.415639
0.170925 0.185039 0.15609
-0.15345 0.209214 0.607335
-0.0784179 -0.128738 0.41477
-0.0784996 -0.122923 0.359526
-0.12329 0.091376 0.408173
0.0263096 0.236783 0.356019
-0.00121988 0.0148319 0.392039
-0.00492313 0.228215 0.475062
0.0748888 0.231631 0.579389
0.0379689 0.243654 0.584986
-0.231454 -0.104945 0.412745
0.0973995 -0.0987905 0.412408
-0.0375697 0.264286 0.580376
0.200604 0.198901 0.0692375
-0.00477645 0.264545 0.556868
0.0499768 0.231158 0.315524
0.0603563 0.232942 0.682379
-0.0154564 0.15085 0.292155
0.157097 0.148746 0.289396
0.0786283 0.181501 0.309077
0.0508294 0.233357 0.740033
0.00923746 0.0706047 0.382902
0.0656934 -0.164937 0.428912
-0.161947 0.106188 0.405448
0.19158 0.243703 0.0369286
0.0359328 -0.091286 0.360484
-0.0297285 0.0521618 0.386705
-0.187092 0.242727 0.0366825
0.0165928 0.0106901 0.37778
-0.0423501 0.264444 0.544
0.0868418 -0.186283 0.428902
0.0508869 -0.178571 0.429345
-0.0333587 -0.162239 0.363934
-0.142627 -0.240114 0.408817
0.196183 0.241481 0.0102999
0.195576 -0.112676 0.26683
0.192582 -0.155977 0.18702
-0.193466 0.244232 0.084287
-0.0560284 0.134913 0.310108
-0.00481927 0.224033 0.57452
0.190988 -0.138053 0.197998
-0.154478 0.170197 0.224628
-0.178817 -0.111219 0.287588
0.052997 -0.140166 0.375139
0.0575658 -0.212475 0.430217
-0.174973 -0.18582 0.428274
0.127567 -0.214941 0.429275
0.127634 0.0341872 0.412401
-0.020549 0.100696 0.317733
0.103015 -0.119936 0.396591
0.179215 0.207152 0.574491
-0.0539591 0.197611 0.306577
-0.125142 -0.112162 0.413286
0.108945 -0.130129 0.415137
0.0323161 0.261366 0.638646
0.00223351 -0.152143 0.418455
-0.124751 0.225398 0.685533
-0.212045 -0.133696 0.117608
-0.0385706 0.242458 0.387542
0.00299926 0.251858 0.352045
0.0667568 -0.264146 0.370276
-0.170317 0.177184 0.218078
-0.0196802 0.264141 0.590797
0.186569 0.220786 0.150673
0.0722848 -0.0946396 0.375301
-0.100417 -0.0876496 0.420601
0.221189 -0.153537 0.00178662
0.110941 -0.0891915 0.375626
0.101699 -0.109164 0.375549
-0.123702 0.213134 0.489929
-0.0102068 0.242397 0.387394
-0.00350488 0.167822 0.32146
0.0359465 0.241896 0.384022
0.0573047 0.247173 0.445271
0.167314 -0.248924 0.396283
0.110579 -0.148933 0.361109
-0.00306929 -0.0854108 0.366512
0.151105 -0.162365 0.37203
0.0672739 0.248755 0.483131
-0.03223 0.0566898 0.346793
-0.108372 -0.221728 0.413802
-0.0514537 0.0669104 0.358839
0.0399431 -0.0788268 0.419168
0.185934 -0.161805 0.232437
0.137928 -0.000988023 0.416401
0.0495649 0.0766705 0.354831
0.19115 0.222706 0.0393084
-0.208999 -0.12019 0.413718
0.213556 -0.158842 0.143449
0.0504588 0.245981 0.417467
-0.0479248 0.251743 0.488353
0.232574 -0.0963996 0.421788
-0.21043 -0.148582 0.125923
-0.0851754 -0.110705 0.423125
-0.120598 0.184929 0.290944
0.0107802 -0.00439652 0.405573
0.208388 0.20218 0.599636
-0.123144 0.167131 0.409665
-0.171353 -0.101453 0.325756
-0.220313 -0.142817 0.075324
-0.189576 -0.114717 0.232539
0.0726025 0.085449 0.329642
0.0397931 0.00575688 0.404809
0.0947715 0.143832 0.306897
-0.184691 0.213323 0.135031
0.147526 -0.0681282 0.420096
-0.128334 0.223433 0.57949
0.167154 -0.128932 0.365718
-0.038761 0.247847 0.458545
0.195133 0.209679 0.100988
0.153153 0.222091 0.649444
-0.0467242 -0.253294 0.367653
-0.0133061 0.248959 0.518944
-0.161351 0.209364 0.18493
-0.109415 -0.145034 0.373775
0.0361698 0.0443342 0.352918
0.157939 0.215059 0.231324
0.164788 0.219942 0.267438
-0.161749 0.224197 0.240977
-0.149312 -0.150435 0.365377
-0.144051 0.210592 0.564741
-0.0307951 0.232268 0.597961
0.0448231 -0.0321172 0.371308
-0.164779 0.15933 0.208036
0.197779 -0.0567799 0.41958
-0.0336802 0.170785 0.306621
0.111858 0.21032 0.306934
-0.0467737 0.234377 0.348581
0.0187308 -0.0322601 0.371187
0.06191 0.109075 0.330693
-0.169662 0.215465 0.696596
0.0377476 0.163379 0.385712
-0.136246 -0.0853154 0.36719
0.0856688 0.0994686 0.390351
-0.0691164 -0.198523 0.420265
-0.155574 -0.0137779 0.408126
0.133125 -0.136533 0.361297
0.158144 -0.135019 0.354441
0.0415643 0.233247 0.64785
0.240005 0.0125241 0.41618
0.0597398 -0.0638967 0.40742
0.216575 -0.129293 0.122892
-0.125732 0.055997 0.400453
-0.13953 -0.119802 0.354771
0.0597065 0.0428728 0.370567
-0.0635621 0.230172 0.65665
0.179529 -0.105916 0.276485
-0.0707566 -0.165302 0.419134
-0.159121 0.218739 0.667523
-0.145508 -0.153565 0.349667
-0.00510864 -0.126115 0.39158
-0.0722408 0.157823 0.306538
0.0238782 0.244895 0.407322
-0.17489 0.200825 0.107057
-0.201434 0.0882331 0.414397
0.191653 -0.111459 0.29371
-0.0371245 0.257923 0.621269
-0.204505 -0.145031 0.0809755
0.0736643 0.246714 0.435021
-0.0399703 0.127425 0.3244
0.222992 0.209068 0.597084
-0.0994298 -0.095995 0.373858
-0.0569985 -0.0770124 0.380663
0.136315 0.161303 0.415581
-0.0560796 0.107228 0.331537
-0.041076 0.222962 0.696393
0.176378 0.192836 0.209622
-0.171971 -0.144303 0.425243
0.043891 -0.11904 0.376094
-0.0661596 0.229029 0.478081
-0.180562 0.227924 0.158768
-0.0476164 0.261736 0.421736
-0.141661 0.171086 0.278737
0.042223 0.0203965 0.375745
0.0974921 0.22024 0.726376
-0.146889 -0.102965 0.412585
-0.20144 -0.162256 0.171986
-0.0507692 -0.131239 0.359758
-0.191036 0.227296 0.0983782
-0.191685 0.260032 0.0153807
0.122028 -0.160575 0.37572
0.115315 0.112115 0.397728
-0.114215 0.217507 0.724744
-0.203154 -0.221373 0.415489
0.147519 0.224282 0.680326
-0.030834 -0.00716905 0.406548
0.116815 0.21844 0.64363
-0.151391 0.156563 0.242439
0.229595 -0.181944 0.0334767
-0.178209 0.169798 0.171079
-0.1745 0.227016 0.1092
-0.160898 0.16588 0.270387
0.0367256 -0.00175429 0.380554
0.159039 0.221614 0.664086
0.0593237 -0.159201 0.379754
0.0219974 0.0979593 0.338997
-0.0186092 -0.0113443 0.367279
0.00255255 0.233633 0.587336
-0.171633 -0.155156 0.24906
-0.174684 0.223307 0.192682
0.124885 0.0170138 0.413408
-0.189589 -0.161999 0.157299
-0.0103625 0.261332 0.638328
0.185367 0.240845 0.0728432
-0.0893394 0.18766 0.306501
0.025811 0.0308906 0.399431
-0.159475 -0.102851 0.311029
-0.0107168 0.248817 0.580397
-0.227348 -0.170216 0.039427
0.0516434 0.09497 0.322383
0.0545782 0.233138 0.701391
-0.109465 0.215018 0.505059
0.0201349 0.246373 0.425804
-0.00069882 -0.13995 0.374688
-0.104811 -0.0285726 0.404672
-0.185778 0.211923 0.530086
0.0983244 0.138583 0.40384
0.00879894 0.214497 0.305997
0.0597151 0.190305 0.306588
0.0837192 0.15981 0.391744
0.188555 0.0559164 0.415734
-0.209693 0.00703688 0.417089
0.0712696 -0.0647186 0.417602
-0.0495536 0.221391 0.597032
0.236824 -0.12503 0.423704
-0.181494 -0.148663 0.274017
-0.0522509 0.177557 0.305757
0.179805 -0.153162 0.274383
-0.18523 -0.129859 0.179468
-0.177656 0.115286 0.406623
-0.152155 -0.0997745 0.339993
0.0600597 0.264394 0.531402
-0.184209 0.247992 0.0532534
0.12992 0.227727 0.739049
0.171601 0.231297 0.195738
-0.125969 0.222672 0.500068
0.194328 -0.137059 0.275269
0.219815 -0.0209798 0.408629
0.0744698 -0.0580525 0.389339
-0.0469261 -0.103396 0.412726
0.134959 0.175293 0.303805
-0.172102 0.209255 0.123064
0.200547 0.215701 0.0696347
-0.0230153 0.195649 0.306644
-0.122219 0.224925 0.627194
0.161063 -0.0923628 0.421544
0.0463851 0.23267 0.52513
0.0947923 0.220293 0.698122
-0.0199388 0.247087 0.441389
-0.0283262 0.177509 0.321358
0.215867 0.0404573 0.416392
-0.214219 -0.185379 0.0314744
0.0687695 -0.231162 0.401996
-0.175361 0.145921 0.42023
-0.0273004 -0.225018 0.423334
0.0413087 0.228409 0.332259
0.222813 -0.167068 0.0800048
0.0363872 0.254085 0.358931
0.241862 -0.162985 0.426649
0.00886524 0.143906 0.382588
0.17422 0.214856 0.137181
-0.00522342 0.233552 0.529007
0.0473589 0.142835 0.292395
-0.0555162 -0.00541359 0.4071
0.0713506 0.234816 0.350774
0.0298325 0.263814 0.47197
-0.146373 0.213311 0.26822
0.146859 -0.0855172 0.364651
-0.162615 0.0399719 0.415651
-0.000400379 0.256117 0.372845
-0.122542 0.195927 0.305083
0.166011 0.182026 0.184493
0.204609 -0.158487 0.104784
0.22713 -0.1763 0.0503879
-0.215137 0.0252774 0.416626
-0.146859 -0.101466 0.367444
-0.166823 0.191048 0.153509
-0.0362138 0.0260328 0.390965
0.144082 0.166112 0.281461
-0.0279439 -0.0853343 0.419871
0.0940234 0.228702 0.538888
0.054811 -0.107112 0.391516
-0.202986 -0.165657 0.0888282
0.00239246 0.180901 0.306698
0.0210564 -0.158796 0.428774
-0.0572161 -0.123103 0.382577
0.153007 -0.110777 0.372817
0.208179 -0.17567 0.179126
-0.0799274 0.0690661 0.389717
0.180687 -0.162388 0.341169
-0.108695 0.215028 0.553291
-0.0643032 0.174748 0.398636
0.168525 -0.131128 0.340498
0.181725 0.225804 0.0938348
-0.000354853 -0.17548 0.429525
-0.161542 -0.150438 0.300624
0.11002 0.219083 0.674662
0.0371778 0.202554 0.306773
-0.217846 0.0632308 0.415163
-0.0763103 0.22891 0.597741
-0.0405432 0.11609 0.393091
0.0380279 -0.229895 0.402461
-0.0927853 -0.0506259 0.415761
0.197992 -0.106816 0.250306
-0.0502518 0.230499 0.535362
-0.139378 -0.156424 0.426225
0.0338528 0.248833 0.496242
-0.0136007 0.222668 0.496942
-0.0412854 0.222249 0.309306
-0.0612345 0.220155 0.550009
0.0131005 -0.0176021 0.383481
0.047172 0.247921 0.462353
0.0112732 -0.154829 0.360278
0.122999 -0.136832 0.375728
0.0155168 0.0141532 0.402187
0.0310873 0.233854 0.317103
0.165163 -0.0531127 0.419492
0.127418 -0.154549 0.416934
-0.0360434 -0.150183 0.391387
0.101726 -0.00261397 0.411981
0.119745 0.0926865 0.398076
0.216118 0.201145 0.517958
-0.13203 0.21266 0.534766
0.143571 0.221406 0.596333
-0.030333 0.131036 0.383466
0.194367 0.248746 0.0877707
0.046596 0.233394 0.723082
0.027835 0.233547 0.660525
0.147299 0.0928551 0.404101
-0.0846661 0.229067 0.702015
-0.0667023 0.221107 0.725855
-0.175584 -0.217438 0.427288
-0.00407965 0.201909 0.29218
0.0215354 0.0240997 0.376392
-0.0315229 0.248227 0.573926
0.16793 0.170744 0.258499
0.0172889 0.23336 0.565584
-0.0863434 0.227706 0.520712
0.0121795 0.262309 0.436558
-0.0909222 -0.216026 0.429829
0.0126168 0.233329 0.536506
0.0360627 0.176653 0.292267
0.0240068 0.233002 0.506318
-0.108355 0.0659685 0.394969
0.0113752 -0.226441 0.421246
-0.0788713 0.218749 0.568544
0.164404 -0.106148 0.348971
0.177096 0.213343 0.205542
-0.160372 -0.224933 0.423926
0.0159074 -0.0688797 0.389644
-0.0869775 0.109358 0.400066
-0.103212 -0.149601 0.417059
0.127136 0.148624 0.29096
-0.0177974 0.248823 0.482485
-0.0110039 0.233711 0.646787
0.174463 0.196831 0.135686
0.0272313 0.233459 0.635782
0.017301 0.242719 0.324898
-0.147331 -0.171544 0.417658
0.0102698 0.264091 0.477926
-0.172241 0.133529 0.407686
0.0782183 0.25725 0.403227
-0.207604 -0.135238 0.140342
-0.0229299 0.222853 0.572948
0.201713 0.102404 0.416716
-0.152665 0.00830101 0.416856
0.185839 -0.0344496 0.41878
-0.0567702 -0.0963113 0.374217
0.108937 -0.239835 0.404269
-0.0569927 0.0113009 0.394518
0.0777282 0.211984 0.322357
0.142253 -0.173624 0.427214
0.219499 -0.141613 0.102809
0.0039175 0.107267 0.313454
0.132269 0.204668 0.304418
-0.0621933 -0.122402 0.411562
-0.0568242 -0.0385129 0.378856
0.177803 0.188309 0.116325
-0.0419312 -0.153791 0.418445
-0.171591 0.229895 0.125927
0.0404406 0.264501 0.558862
-0.130968 -0.0455897 0.408211
-0.0603664 0.230651 0.695073
-0.20922 -0.170341 0.427287
0.0758824 0.221184 0.613694
0.205651 0.212329 0.647247
0.0161017 0.264447 0.535596
0.124526 -0.190136 0.428234
0.0558819 0.232664 0.573216
0.0336176 0.219704 0.305113
0.18843 -0.12024 0.315745
0.150243 0.178324 0.270366
0.0287765 -0.0474615 0.373813
-0.0344841 -0.048225 0.373466
-0.0473003 0.157163 0.306591
0.0466622 -0.105468 0.422726
-0.156104 0.207526 0.522031
-0.135396 0.18981 0.284369
-0.0412673 -0.0677579 0.37425
0.0166556 0.181789 0.292225
0.175376 0.234003 0.130585
-0.075463 0.158135 0.39027
0.10999 -0.0732222 0.409967
0.028628 -0.156099 0.360423
0.0243807 0.257046 0.38042
-0.0422853 0.250595 0.347924
-0.127669 0.00822548 0.413858
-0.186844 0.201839 0.556106
0.0242382 0.0330431 0.358081
-0.169237 0.215006 0.521733
-0.156441 -0.109187 0.32656
0.182757 -0.167653 0.254124
-0.175864 -0.110623 0.227273
0.21475 0.201089 0.564006
0.129349 -0.0159941 0.406463
-0.16767 0.184915 0.233306
-0.0954374 0.227506 0.580315
-0.013319 -0.0399497 0.387656
-0.104362 -0.124498 0.373817
0.201404 -0.158712 0.126693
-0.153265 0.200371 0.23149
-0.00914998 0.143734 0.305905
0.0660227 0.0594329 0.362915
-0.0657 0.229144 0.498223
0.148823 -0.126098 0.414186
-0.00831601 0.247829 0.458883
0.188626 -0.159575 0.214046
-0.219014 -0.157966 0.00684518
0.0124714 -0.181964 0.420182
-0.176581 0.2142 0.0972726
0.198954 0.204355 0.531868
-0.168691 0.204275 0.142715
0.0778127 0.00326945 0.376754
0.0433911 0.178647 0.321825
0.0867151 0.0377825 0.395064
0.0282686 -0.252782 0.370113
-0.130074 -0.141541 0.425204
0.206923 0.248481 0.0328443
0.200975 -0.137676 0.129724
0.0174457 0.240635 0.373944
0.0217275 0.0835479 0.330828
0.164915 0.0235614 0.416917
-0.035137 -0.0889708 0.375196
0.0266386 0.0836382 0.349971
-0.233463 -0.182298 0.0081852
0.119549 -0.141482 0.410522
-0.178989 -0.16693 0.278861
0.0498218 -0.101665 0.3606
0.196012 -0.148729 0.263677
0.0181041 0.142297 0.321612
0.177254 -0.154151 0.42593
0.0791367 0.231365 0.597795
0.0766098 -0.0854663 0.362809
0.0122423 0.161412 0.306078
0.201326 -0.117227 0.227416
-0.0286063 0.0355428 0.371979
-0.0487616 0.100181 0.317984
-0.126918 0.203022 0.289374
0.00761314 -0.0981243 0.4217
0.208418 -0.132883 0.178766
0.0480784 0.222481 0.539488
-0.0518728 -0.13865 0.391748
0.00312778 0.12875 0.391606
-0.0452439 -0.00742937 0.397217
0.157156 0.0648113 0.414937
-0.0136026 0.17723 0.306003
0.0784146 0.221212 0.646905
-0.213526 -0.0774165 0.420616
-0.125988 0.128063 0.410346
0.0624776 -0.126657 0.376598
0.233691 -0.168227 0.00546336
-0.0172781 0.0897634 0.382444
-0.0360731 0.264362 0.502302
0.17243 0.218275 0.613318
0.0543358 0.102237 0.393976
-0.00479079 0.224096 0.687629
-0.200494 0.0528065 0.415263
-0.0208823 -0.188015 0.420288
0.00707622 0.260588 0.408081
-0.0237762 0.241142 0.37742
-0.0232917 0.144933 0.321339
-0.047554 0.23125 0.65717
0.180865 0.175268 0.183548
-0.0362384 -0.038664 0.402637
-0.0327606 0.19853 0.292118
0.0215779 -0.0364748 0.387183
-0.1629 0.195785 0.176064
-0.0869211 0.217837 0.531201
-0.156092 0.191696 0.21526
0.0309427 -0.128296 0.360442
-0.201506 0.23451 0.0379671
0.175937 -0.142216 0.300876
-0.0534832 -0.0590178 0.388615
0.0104324 0.248172 0.630476
0.118699 0.15085 0.306949
-0.0275554 0.243951 0.39934
0.0612728 0.227547 0.475729
-0.200581 0.21188 0.0167132
-0.179817 0.00611155 0.416999
-0.170595 -0.232278 0.407036
-0.0910004 -0.0304059 0.413441
-0.0522876 0.246512 0.427259
0.0783293 0.105296 0.318213
-0.240751 0.0152075 0.409915
0.185541 0.195447 0.156525
0.0727013 0.25778 0.386759
0.013738 0.140414 0.306169
0.200865 -0.143542 0.23046
-0.0230605 0.216419 0.321903
-0.00150986 -0.0625198 0.416476
-0.194753 0.195739 0.0764119
0.0749307 -0.250622 0.376341
0.0582099 0.26431 0.508942
0.136553 0.178927 0.287692
-0.0871598 0.168143 0.402335
-0.0873772 0.22915 0.740501
0.0635183 0.148434 0.306379
0.137321 0.22628 0.692622
0.00511953 0.066959 0.342187
0.206353 0.215652 0.0359802
0.0985628 0.219849 0.66341
-0.0524478 0.241449 0.37949
0.0479054 0.232918 0.59432
-0.170871 -0.128675 0.328314
-0.0858456 0.04732 0.402703
-0.196952 -0.125451 0.194823
0.0670057 -0.145823 0.417432
0.0889757 -0.245552 0.383719
0.0483597 0.249673 0.576983
-0.131029 -0.237884 0.400028
-0.00807825 0.222764 0.326671
0.205012 -0.155881 0.201994
0.207827 0.0710527 0.405557
-0.0397667 0.0312293 0.358136
0.0215857 0.264273 0.577926
0.081724 0.213145 0.306869
0.111785 0.227571 0.483027
-0.216984 -0.00422534 0.407873
0.0647234 -0.0172734 0.368783
-0.00140888 0.233405 0.491556
0.224152 0.201144 0.630639
-0.185533 -0.123781 0.253261
0.0592229 -0.0443783 0.373557
-0.106739 0.110948 0.403777
0.218349 -0.213309 0.419259
0.183131 -0.166841 0.281897
0.171414 -0.147879 0.331772
0.236612 -0.0665504 0.410315
-0.171756 0.208366 0.499772
-0.0483745 0.223237 0.745644
-0.019834 -0.109168 0.390906
0.128749 -0.110621 0.413265
-0.00620758 0.153235 0.393091
0.210212 0.24816 0.0137806
-0.0423182 0.231409 0.608914
-0.0132559 0.0514111 0.395979
-0.103619 0.217375 0.6696
0.112331 0.0389641 0.40923
-0.156694 0.177719 0.280151
-0.0639123 0.22991 0.621971
0.0660273 0.0332523 0.35825
-0.175229 -0.143191 0.230637
0.0428876 0.263788 0.615138
0.130049 -0.109628 0.361271
-0.188331 0.257515 0.0309929
0.0554495 0.221766 0.505436
-0.03888 0.221139 0.506216
0.0832528 0.219857 0.49098
0.169796 0.115275 0.416801
-0.211689 -0.153473 0.0442766
-0.0232129 0.26452 0.546162
0.186985 -0.22279 0.411992
0.174823 0.0874098 0.405466
0.067356 0.219679 0.296431
0.225163 0.0770033 0.413504
-0.0617188 0.229529 0.516879
-0.163726 -0.115713 0.289345
0.203797 0.233319 0.050888
0.0686167 0.224956 0.311732
0.153574 0.175985 0.292319
-0.206363 0.235997 0.00994604
0.0431457 0.248879 0.510075
-0.189119 0.222256 0.0251013
0.19858 -0.12749 0.146143
0.192508 0.205404 0.546459
-0.167085 -0.120476 0.341262
0.184853 0.179038 0.160447
0.2275 -0.00356143 0.408095
-0.117647 -0.221319 0.426555
0.17574 0.133119 0.418241
0.0654611 0.0737226 0.356282
-0.239144 -0.00569806 0.417648
0.208189 -0.161241 0.0802932
0.047414 0.0110963 0.362978
0.00105656 0.0362888 0.371969
-0.15066 0.218237 0.541435
0.0647339 0.264195 0.481658
0.0446192 -0.221291 0.41533
0.0499958 0.248807 0.493012
0.044089 -0.0572027 0.415893
0.211295 -0.146708 0.415736
-0.0644134 0.126482 0.396271
0.170305 0.224997 0.159864
0.176779 -0.0259438 0.408895
0.0680219 0.15621 0.38767
0.0379894 0.152038 0.306775
-0.0178109 -0.139519 0.416986
0.133285 -0.148614 0.375814
0.182928 0.117176 0.407988
-0.0687938 0.0397158 0.401451
-0.161111 -0.109413 0.412998
0.0961691 0.0696988 0.403207
0.149225 0.205214 0.295926
0.000797495 0.0632078 0.393745
-0.0640355 -0.139621 0.401471
-0.015076 0.234261 0.317067
0.139052 0.215189 0.551879
0.164034 -0.225552 0.420842
0.0775922 -0.0409716 0.387815
0.0686083 0.232447 0.624556
-0.194588 -0.163983 0.131748
0.0937543 -0.159812 0.418182
-0.00301126 -0.262818 0.366705
-0.0838763 0.202233 0.306513
-0.120781 0.219814 0.292284
-0.108603 -0.0953064 0.359274
-0.164628 -0.093952 0.347201
-0.00509962 0.257991 0.38752
-0.00216727 -0.112868 0.414092
0.163396 0.152321 0.275682
0.00118946 0.246969 0.337453
0.134991 -0.183969 0.41828
-0.0301984 -0.0706772 0.408227
0.0269892 0.247326 0.448063
0.218128 -0.170011 0.112083
-0.117418 0.227089 0.736444
-0.0166973 -0.138892 0.391978
-0.231003 -0.157592 0.4166
0.0725531 -0.180427 0.429131
-0.110349 -0.139884 0.35926
-0.0766611 -0.225984 0.410219
0.06817 0.159399 0.321876
0.0583758 -0.148624 0.392117
-0.0487862 0.234946 0.317278
-0.161999 0.204597 0.265911
0.0382641 0.0859251 0.32912
-0.00626456 -0.0378926 0.411839
-0.10071 0.21614 0.519424
-0.24222 -0.048055 0.40959
-0.000341374 0.248585 0.598239
-0.0160151 0.230661 0.338191
-0.154952 0.218933 0.629545
-0.0382255 -0.251546 0.383545
-0.224107 0.048547 0.415811
-0.0052909 0.233802 0.712685
-0.0123781 -0.157552 0.418981
0.162375 0.145435 0.259084
-0.0200518 0.232887 0.541928
0.149446 0.0121237 0.417094
-0.0243747 -0.157944 0.3756
0.209922 -0.144098 0.168412
0.0393312 -0.0332709 0.402025
0.026851 -0.104844 0.422704
-0.00382981 -0.0826073 0.409764
0.0997897 -0.183593 0.419065
0.18955 -0.106655 0.308137
-0.0649545 -0.0155095 0.399936
-0.172471 0.205702 0.660408
0.0663967 -0.0346518 0.412556
-0.120578 -0.253 0.392289
0.155411 0.194835 0.24585
-0.119995 0.142058 0.408872
-0.0114338 0.175562 0.394776
0.249473 -0.0891675 0.419504
-0.0328586 -0.0239929 0.400013
0.181155 -0.0855387 0.337598
0.149286 -0.0944792 0.412081
0.0116801 0.224138 0.67743
0.0902114 -0.0901537 0.375452
-0.0196663 0.00241341 0.394768
-0.0947243 -0.190603 0.419638
0.192379 0.0866862 0.405517
0.0149999 -0.0870804 0.37482
0.0977404 -0.141666 0.416464
-0.198727 -0.101234 0.412499
-0.193649 0.212488 0.0833712
0.007169 -0.201086 0.420745
-0.169037 0.226622 0.225228
0.0309397 -0.140499 0.426788
0.081917 0.220884 0.631512
0.209255 0.223655 0.0192041
0.194594 -0.161855 0.173231
0.0723519 0.231016 0.496175
-0.060086 0.0986823 0.385347
0.0693231 -0.221547 0.427425
-0.198794 -0.120058 0.165606
0.161185 -0.183209 0.427631
0.0691833 0.0563655 0.389177
0.0536834 -0.230947 0.401729
-0.224827 -0.205665 0.418986
-0.14996 0.143974 0.263151
0.153486 0.213838 0.257064
0.132048 0.225054 0.49461
0.000581902 0.263774 0.618602
-0.198685 -0.134217 0.110689
0.0413929 -0.0556514 0.374244
-0.0305929 -0.124277 0.374437
-0.155701 -0.0890985 0.411716
-0.176835 0.235087 0.0957323
0.103708 -0.134449 0.361051
-0.0757713 0.229439 0.669334
-0.119987 -0.134363 0.373686
-0.113403 -0.013959 0.413753
0.124894 0.218024 0.676423
-0.071092 0.219412 0.539425
-0.206947 0.200482 0.593284
-0.0630232 0.203487 0.292053
-0.140405 0.0933923 0.404222
-0.025011 -0.0502118 0.414265
-0.0795363 -0.0586417 0.407021
-0.0934106 -0.114291 0.373909
0.105314 0.164885 0.406871
-0.00261464 0.263044 0.453289
-0.185112 0.212039 0.629421
0.107777 -0.151394 0.3756
0.0523447 -0.00235972 0.380757
0.202371 -0.0254468 0.418425
0.0398878 -0.106241 0.391456
0.0393801 0.246425 0.427476
-0.249484 -0.0752976 0.415858
-0.219931 -0.179153 0.0774232
-0.150758 0.203336 0.245905
-0.169805 -0.144388 0.333827
-0.018427 0.0729729 0.338578
0.171603 0.152385 0.234704
-0.0795268 -0.245939 0.383323
-0.0642509 0.220127 0.566073
-0.00351117 -0.0760603 0.389969
0.178742 0.20208 0.195957
0.0187502 0.23346 0.597307
0.128415 -0.251574 0.382549
-0.194468 0.101764 0.406004
-0.13394 -0.181537 0.427782
-0.128963 0.166392 0.288874
-0.00580654 0.204665 0.306681
-0.0120125 0.0718106 0.383195
0.151184 0.212122 0.536838
0.0773152 0.00842518 0.397747
0.0617703 0.0972934 0.339701
-0.15789 -0.055146 0.409813
-0.196768 0.24053 0.0652694
-0.0164762 -0.0854014 0.360206
-0.175447 -0.160447 0.305003
0.174159 0.219002 0.673896
0.172097 -0.0708842 0.420257
0.0443624 0.232821 0.553756
-0.172933 0.176937 0.202997
0.184466 -0.106824 0.24273
0.0215495 0.23382 0.721882
0.167507 -0.114184 0.365417
0.0185433 0.263835 0.612747
0.06042 0.24644 0.428338
-0.158964 -0.131821 0.414643
-0.047386 0.013394 0.361971
-0.00519137 -0.11088 0.390959
-0.163887 0.216201 0.170308
-0.19301 -0.00088397 0.417299
-0.0143402 0.263749 0.4694
0.153131 -0.169726 0.417376
-0.118323 0.178317 0.306057
0.173615 -0.143253 0.316744
-0.188071 0.237481 0.115427
-0.0118684 0.118612 0.326557
0.0955327 0.219812 0.612502
0.0413213 0.103654 0.315804
-0.223234 -0.190673 0.42901
0.154923 0.15101 0.418832
-0.0206585 0.0574216 0.363405
-0.0804676 0.16999 0.30652
0.172598 0.2344 0.17599
0.129176 0.0471226 0.402341
0.0733522 0.232224 0.65781
-0.212844 -0.176803 0.113687
-0.123099 -0.0970902 0.373659
-0.126772 -0.127121 0.358599
0.0213518 -0.00506234 0.381108
-0.0849246 0.21867 0.662895
-0.197993 -0.0199091 0.408445
0.214974 0.206985 0.657878
-0.132857 0.223929 0.657439
-0.150025 -0.122592 0.344998
-0.0490277 0.210352 0.305866
0.109694 -0.0450391 0.416921
0.0781204 0.0560259 0.350278
0.0505446 0.223521 0.713087
-0.0128291 0.0481316 0.350893
-0.197554 0.200953 0.646166
-0.118287 -0.194289 0.428749
-0.0678924 -0.112176 0.359615
-0.0344866 0.0931484 0.342403
0.00416444 0.211008 0.321859
-0.0185137 0.249016 0.532531
0.145835 0.0640199 0.404272
0.207138 -0.109818 0.422612
-0.00478573 0.264405 0.520155
-0.0341979 -0.106911 0.390917
0.0669212 0.222154 0.670323
0.210288 0.261577 0.00824052
-0.119392 0.21479 0.586973
-0.174289 -0.12147 0.310797
0.164261 -0.0353371 0.409258
0.1361 0.107964 0.402267
-0.0971318 0.212591 0.291979
0.111573 -0.160882 0.417797
-0.08145 0.229418 0.721699
0.0147268 -0.0519154 0.414647
-0.0381601 0.166451 0.385735
-0.025416 -0.24454 0.380923
0.0814579 0.191452 0.292365
-0.0368328 0.0613659 0.395336
-0.162659 -0.199227 0.419207
0.128428 0.226709 0.654395
0.00327931 0.224171 0.556341
-0.117899 0.0385791 0.400107
-0.0192845 0.232862 0.52025
-0.112937 0.00598859 0.40186
0.0267224 0.123261 0.392619
-0.205349 0.0206788 0.40709
0.205551 0.203158 0.671171
-0.0126896 -0.237739 0.404353
0.198682 0.235933 0.0805442
0.221689 -0.154284 0.0877558
-0.100054 -0.0733184 0.419176
0.195966 0.251485 0.070474
0.188206 -0.118694 0.217104
0.0931038 -0.149958 0.375477
0.187289 0.20484 0.0615511
-0.0565932 0.01996 0.37249
0.0704898 -0.0982616 0.412252
0.229701 -0.0348137 0.40912
0.11267 0.226591 0.512489
-0.148418 -0.135334 0.366132
-0.0778025 -0.116868 0.405577
-0.0625661 -0.206927 0.429897
0.186957 -0.0668071 0.42
-0.0526116 0.162793 0.292075
-0.170316 0.205681 0.6318
-0.07353 -0.044163 0.404356
-0.0202998 -0.104105 0.375849
0.17172 0.2183 0.585144
-0.220964 -0.106056 0.422432
-0.0369886 -0.0982499 0.42166
-0.00407777 0.223498 0.518097
0.0551452 -0.00212701 0.396839
0.123963 -0.226488 0.407316
-0.114727 -0.0512147 0.417304
0.203959 -0.131439 0.209318
-0.183255 0.200355 0.143372
0.0560774 -0.0822751 0.375485
-0.0457086 -0.0364244 0.371549
-0.190566 -0.220972 0.425666
0.183429 0.240108 0.141279
0.0493865 -0.0889976 0.410879
0.170866 -0.139888 0.42483
-0.180938 0.228004 0.0721528
0.0645601 0.0892865 0.394699
-0.194428 0.20065 0.611439
0.0119368 -0.129496 0.391919
0.0256463 0.0767285 0.382903
0.208428 0.0854011 0.414974
0.0582942 0.0170038 0.403365
0.0570099 0.260551 0.593416
0.125924 0.224707 0.589948
0.211249 -0.166651 0.0593372
0.193698 -0.20025 0.419105
0.101084 0.219266 0.582913
0.174127 0.0641342 0.405549
-0.0858601 -0.0205298 0.402319
-0.147036 0.219733 0.577159
0.222436 0.0127376 0.407674
0.139861 -0.14256 0.425315
0.182606 0.196884 0.0885953
-0.0528473 0.0747262 0.394207
-0.0703156 -0.25162 0.373259
-0.0350948 0.222918 0.654918
0.0677255 0.0747854 0.337637
0.02864 -0.11429 0.374935
0.115178 -0.212356 0.41993
0.0491591 0.222858 0.604235
0.16146 -0.0855272 0.358086
0.062072 0.0751491 0.394901
0.0504058 0.223256 0.673446
-0.141562 -0.221891 0.413362
-0.241978 -0.0372877 0.418785
0.181928 0.216489 0.602976
0.186658 -0.159662 0.327711
0.04505 0.0522505 0.387641
-0.217359 -0.0286253 0.41841
0.021124 0.223504 0.310511
0.0225933 -0.208159 0.420866
-0.186238 -0.0838474 0.411396
0.0244733 0.249047 0.549925
-0.136732 0.223765 0.692793
0.0669904 0.231943 0.513818
-0.0228783 0.140554 0.305934
-0.0255833 0.263887 0.611185
0.161222 -0.0104618 0.41802
0.0484008 0.255194 0.366142
-0.099239 -0.263851 0.37439
-0.136797 0.0523312 0.413739
-0.21661 -0.170619 0.0943875
0.148667 0.0350039 0.415974
0.041072 -0.18872 0.429625
0.039925 0.264027 0.596366
0.00102084 -0.125185 0.3761
0.174573 -0.168428 0.426934
0.0846002 0.130056 0.400229
0.140981 0.215057 0.565767
-0.18153 0.185732 0.153376
-0.0584552 0.22111 0.631532
-0.0184973 0.233258 0.605242
0.0674879 -0.112032 0.376021
-0.17713 -0.161479 0.22098
0.0367594 0.233664 0.736735
-0.176668 0.234851 0.174995
0.190919 -0.162453 0.298508
-0.177175 0.188289 0.101293
-0.186783 -0.113121 0.198411
-0.17467 0.0847649 0.413847
0.217522 -0.182235 0.101377
0.225251 -0.117238 0.423101
0.15117 0.215548 0.724735
0.0669529 -0.139813 0.375257
-0.0975032 0.138121 0.393188
0.0658963 -0.0116075 0.408808
-0.217151 -0.0181537 0.408416
-0.030407 -0.0247462 0.38462
-0.0675503 0.14471 0.306548
-0.0918878 0.228001 0.617588
0.173892 0.217653 0.566866
-0.201258 -0.113105 0.422866
-0.161859 -0.181191 0.427877
0.034617 0.248093 0.635178
-0.176215 -0.108151 0.300897
-0.118006 -0.104314 0.422273
-0.156198 -0.0985935 0.421934
0.185507 0.0127204 0.407706
-0.135192 -0.00282187 0.406573
-0.0101276 0.008555 0.378113
0.227462 -0.162597 0.0481644
