0.0599715 0.213954 0.322304
-0.164909 0.173247 0.16459
0.0843686 0.000426676 0.409907
0.175553 -0.0960874 0.303708
0.0200086 0.172611 0.292232
0.084509 -0.219183 0.41743
-0.03315 0.0617629 0.395139
0.12386 0.176389 0.306314
-0.053866 -0.155528 0.359733
0.160912 0.0108066 0.407736
0.0775588 -0.0495007 0.387347
0.0404564 0.264319 0.507445
-0.0410413 0.261175 0.557128
-0.158159 0.225631 0.23106
0.121955 0.224545 0.570388
0.206196 -0.0974821 0.412217
-0.0235618 0.0887717 0.326681
0.0994889 -0.113476 0.37553
-0.0386441 -0.246546 0.377867
-0.0277333 -0.131598 0.375882
-0.209594 0.107282 0.416616
-0.0046092 0.243723 0.397828
-0.182843 -0.170832 0.191811
-0.0186167 0.249094 0.558979
0.0165141 -0.158409 0.428764
0.194376 -0.134858 0.274949
-0.00160712 0.264097 0.593177
0.0708975 0.0377962 0.356151
0.130564 -0.00830122 0.415922
-0.0477982 0.13482 0.384273
0.0525067 0.142831 0.303073
-0.0764454 -0.234758 0.399656
0.0198129 0.224118 0.510212
0.129063 -0.133049 0.424758
0.174226 0.220528 0.706095
-0.0532137 -0.0370852 0.371622
-0.119936 -0.0853293 0.369191
-0.0917205 -0.168227 0.428398
0.185169 -0.102611 0.422148
0.218305 -0.161824 0.110908
-0.0292406 -0.102831 0.412611
-0.107603 0.227767 0.736876
0.14601 0.216009 0.699332
-0.0214045 0.0949457 0.322052
0.199144 0.21354 0.593508
-0.0399508 -0.262524 0.367063
0.194689 -0.115008 0.272897
0.0498209 0.222197 0.514825
0.00526716 0.233832 0.733396
-0.0226909 0.214776 0.32176
-0.0160238 0.251383 0.350487
-0.165121 0.203059 0.247921
0.0116423 0.233112 0.477542
0.00109803 0.182361 0.292191
-0.0613651 -0.0938439 0.35967
-0.047106 0.0828704 0.350198
0.028061 0.233714 0.703512
-0.161321 -0.161548 0.355094
-0.0537661 0.156625 0.292073
0.207428 -0.0820281 0.420885
0.0747909 0.243375 0.327315
0.0478498 0.230072 0.586441
0.101775 -0.114619 0.375549
-0.0341311 0.246397 0.425029
0.109892 0.218823 0.620771
0.197381 0.0909191 0.405999
0.156421 0.208937 0.240074
0.0602472 0.246731 0.435079
-0.0161184 0.185147 0.306061
-0.170501 -0.0955659 0.421751
0.0966772 0.203469 0.306901
0.212206 0.201666 0.542307
-0.177224 -0.241832 0.399318
-0.194892 0.0925956 0.405014
-0.234593 -0.166631 0.426941
-0.0183901 0.130285 0.392512
-0.023242 -0.101829 0.39124
-0.0124578 -0.0812818 0.375003
-0.0555528 0.12021 0.32595
0.106803 0.0748058 0.395259
0.0653241 -0.0731812 0.418492
0.0103269 -0.251391 0.383787
0.164849 -0.141561 0.34856
0.201676 -0.0348171 0.418763
-0.0210818 0.230162 0.563837
-0.0627588 0.187651 0.306558
0.141103 0.215254 0.283951
-0.188287 0.224908 0.0298744
-0.00652831 0.19639 0.321665
-0.0193305 0.127152 0.392478
0.176143 0.202451 0.21102
0.129118 0.199671 0.290488
0.0784339 0.14725 0.319017
0.156272 0.222493 0.249515
0.195523 0.197222 0.0986765
0.177717 -0.0666793 0.410385
0.0721982 0.199222 0.292345
-0.0329632 0.195836 0.306622
-0.189165 0.205273 0.109261
0.24327 -0.0370551 0.409184
-0.101773 -0.161318 0.418196
0.0251964 -0.0461416 0.404099
-0.0334584 0.192568 0.292116
0.178776 -0.0881273 0.322036
0.15477 0.127651 0.406969
-0.179786 -0.100855 0.422087
0.00557112 0.242929 0.325427
0.226573 -0.176198 0.0542029
0.0869671 0.220129 0.565315
0.182069 -0.0971692 0.277427
-0.162111 0.231213 0.195788
0.152055 0.20678 0.265309
0.174424 -0.133615 0.311259
0.0686724 0.258511 0.476865
-0.109542 0.0560741 0.405921
0.0944949 0.213366 0.292393
0.0234359 0.264379 0.519352
-0.010759 0.257736 0.385446
-0.0563072 0.25602 0.409954
0.0173138 0.233014 0.478948
0.0153913 0.013421 0.377162
-0.0168343 -0.242118 0.384601
-0.180679 -0.142908 0.202777
0.122245 0.127909 0.399805
0.157655 0.214351 0.712334
-0.000402432 0.175764 0.306074
-0.0947165 -0.218807 0.429855
0.190747 0.195559 0.0764258
-0.0351606 0.1056 0.383127
-0.0376069 0.231876 0.633909
0.0753808 -0.0324215 0.403406
0.193677 0.0912554 0.415486
-0.146132 0.21229 0.687556
-0.0366767 -0.149261 0.417973
0.0145576 0.224221 0.502005
0.0764316 0.0883016 0.388051
0.0382391 0.128405 0.308967
-0.0287718 0.262276 0.434766
0.197962 -0.149882 0.150265
-0.0976995 0.218191 0.691545
-0.157404 -0.119854 0.358426
-0.169886 0.166336 0.220615
0.185724 -0.168955 0.256798
0.0871961 -0.158001 0.375427
-0.0170607 0.0954324 0.340741
-0.246347 -0.0270881 0.411911
0.126019 0.150666 0.402433
0.0222284 0.00525728 0.386006
0.1685 -0.119482 0.340582
0.211512 -0.161575 0.157444
0.196965 0.199821 0.0903313
-0.189452 0.210661 0.023226
-0.0882051 0.219426 0.722261
-0.0214639 0.0530521 0.386275
0.103157 -0.112398 0.413567
0.192628 -0.0993053 0.287088
0.0597285 0.221565 0.516634
-0.0529131 0.223985 0.74529
-0.0694941 -0.0989456 0.411988
-0.196217 -0.104022 0.412674
0.161809 -0.123224 0.370411
0.238424 0.0207104 0.410045
-0.0199876 0.248491 0.606978
0.0257316 0.263207 0.457751
-0.164686 0.209191 0.165742
0.222621 0.209121 0.552374
0.0660692 0.147671 0.306836
0.147066 0.142767 0.297361
-0.226038 -0.0849914 0.411479
0.047567 0.179704 0.306419
-0.117174 -0.165449 0.427679
0.016853 -0.155391 0.391483
0.225548 -0.188961 0.0214974
-0.0530737 -0.0874834 0.42026
0.178262 0.234191 0.178348
-0.0528685 0.0149827 0.361596
0.196588 0.204493 0.575908
-0.0622905 -0.10864 0.413358
0.201559 -0.109782 0.422606
-0.00242948 -0.0293691 0.38567
-0.0209532 0.222946 0.569609
0.00714253 -0.0429482 0.412754
-0.203314 -0.146845 0.0870733
-0.22519 -0.144978 0.0448258
-0.130723 0.0605562 0.401732
-0.16771 -0.156149 0.339797
0.133096 -0.222725 0.422545
0.0199974 0.0576923 0.346593
0.239992 -0.110218 0.413031
0.15039 -0.0469378 0.409692
-0.134591 -0.168597 0.417596
-0.0490331 0.0974286 0.339061
0.0995384 0.152988 0.395297
0.118236 -0.219383 0.415981
0.120616 0.0845856 0.407522
0.0966698 -0.102276 0.41273
-0.163637 0.173795 0.171911
-0.186772 0.223949 0.0385952
-0.210296 -0.158275 0.0514228
0.242339 -0.0697894 0.410504
-0.184734 0.248637 0.0875783
-0.186819 0.226859 0.122697
-0.00946858 0.248485 0.606756
0.199726 -0.115076 0.190599
0.199745 0.20317 0.0742325
-0.0146725 0.19142 0.321566
-0.0450617 0.176417 0.390832
-0.0971899 0.216443 0.546202
-0.149097 0.208843 0.506011
0.11774 0.0226152 0.411659
-0.114667 0.227101 0.710923
-0.0745226 0.228759 0.558338
0.0174825 -0.126374 0.391741
-0.0333376 -0.260667 0.369867
-0.146497 -0.142877 0.41552
0.136277 0.217298 0.697028
0.0755961 0.0422149 0.370953
0.00129969 0.142869 0.299381
0.0592807 0.248834 0.501866
-0.0984668 0.222434 0.479082
0.245422 -0.149679 0.416167
0.156109 -0.160479 0.372091
-0.171086 -0.117529 0.327178
0.0671418 -0.150055 0.360745
0.117143 -0.1383 0.425354
-0.00955365 -0.0707899 0.408139
0.14666 -0.0977861 0.412306
-0.199941 -0.126326 0.134234
-0.187135 0.211586 0.583341
0.0452483 0.101614 0.393436
-0.0893045 0.0281255 0.405843
-0.00254813 0.034917 0.357122
0.211574 -0.153675 0.157052
0.216898 -0.179421 0.427557
-0.209844 -0.164682 0.128987
0.17335 -0.125198 0.318638
0.0780808 0.0448189 0.354466
0.23315 0.0456634 0.412447
0.181895 -0.119672 0.345466
-0.133047 -0.260257 0.387254
-0.0336464 0.179278 0.306621
-0.0825673 0.219842 0.721722
0.122182 -0.16708 0.427502
-0.19471 0.210179 0.631537
0.206155 -0.168429 0.194109
-0.111378 -0.151297 0.373758
-0.158664 0.207486 0.581961
0.207718 -0.136998 0.0836307
0.172759 0.210519 0.665981
-0.0526639 0.111188 0.393731
0.0952324 -0.158437 0.36098
0.150364 -0.107886 0.412866
-0.0639532 -0.119344 0.4094
0.0752646 -0.0943701 0.375326
-0.167587 -0.158559 0.340101
-0.133936 0.213972 0.645145
-0.108914 -0.134533 0.425253
0.00711736 0.1701 0.321537
0.0185312 0.2489 0.51039
-0.0120862 0.0414844 0.354004
0.0654057 0.23172 0.481735
0.204773 -0.139064 0.103753
0.107304 0.219284 0.675843
0.00237222 0.113224 0.381739
0.169912 0.21825 0.641375
0.189737 0.218253 0.0474608
0.0104398 0.0366348 0.356386
-0.0320786 0.0606728 0.395256
0.168066 0.191525 0.257793
0.127937 0.224817 0.526806
-0.0809519 0.219788 0.302009
0.00932741 -0.0882615 0.4203
0.0123684 0.233768 0.685187
0.211518 0.202103 0.514092
0.0844435 0.187163 0.292371
-0.0616201 0.220171 0.553939
0.120789 0.0975355 0.398471
-0.0116395 -0.146779 0.391722
0.173753 -0.197202 0.418894
0.208094 -0.136048 0.180974
0.0808989 -0.201707 0.42948
0.22418 -0.22714 0.423855
-0.0228837 -0.0563387 0.40569
0.21338 0.201221 0.605468
0.15267 0.215699 0.734293
-0.0277018 0.243233 0.393726
0.21159 0.0122531 0.4173
0.0722928 -0.0808014 0.390747
-0.177245 0.213368 0.568878
-0.0784801 0.146194 0.292019
0.168516 -0.249265 0.397074
-0.133517 -0.22442 0.422795
-0.000272192 0.14806 0.305969
0.0797528 0.230879 0.533235
0.0361374 0.0760687 0.355041
0.00949131 0.264385 0.517857
-0.121968 -0.036617 0.406547
0.0231629 -0.079625 0.409476
-0.00404384 -0.170502 0.429404
0.0164264 0.224168 0.485581
-0.177483 -0.0965539 0.28018
0.00610549 0.224183 0.54511
-0.248776 -0.0779795 0.420657
0.0682946 0.259759 0.402279
-0.140977 0.142969 0.286418
0.141472 -0.0684474 0.419955
-0.0464952 0.0720417 0.356482
0.217362 -0.17185 0.417595
0.220159 -0.189436 0.000944421
0.128526 0.186749 0.305262
-0.181689 -0.242491 0.399189
-0.164133 0.232769 0.16883
-0.10434 -0.170009 0.418648
0.177386 0.00253712 0.417618
0.00220116 0.233762 0.681851
-0.19054 -0.140989 0.152365
0.196918 -0.230722 0.405948
0.0274372 0.00506669 0.379099
-0.0537073 0.103209 0.315685
-0.0395966 -0.251117 0.384179
0.200537 -0.0895818 0.411722
-0.228282 -0.0229157 0.408617
0.193436 -0.225345 0.409843
0.146154 0.214898 0.614844
0.0552434 -0.00273927 0.380846
-0.0446808 0.131057 0.323551
-0.00397615 0.263578 0.634397
-0.178734 -0.144516 0.212727
-0.139731 -0.149414 0.354616
-0.103562 0.149804 0.404388
-0.149522 -0.0733325 0.420346
-0.161053 0.223234 0.247058
0.0496402 -0.159745 0.390925
0.0458308 0.223389 0.649716
0.249136 -0.11462 0.42292
0.134976 -0.11253 0.361313
0.108946 0.195763 0.292424
-0.122997 0.225898 0.704535
0.13353 0.000557262 0.40632
-0.0365388 -0.119167 0.37557
-0.046672 -0.236294 0.406337
-0.215645 -0.173639 0.0241364
-0.00771114 0.248508 0.604845
-0.0425872 0.164322 0.321196
-0.0270682 0.185881 0.321439
0.188391 -0.108325 0.316067
0.0712991 0.232329 0.644857
-0.00511862 0.0126596 0.362358
0.0139596 -0.251517 0.383516
-0.100729 -0.0413123 0.41538
0.0425215 0.129567 0.384193
-0.0369167 -0.142621 0.374384
0.151781 0.213162 0.584846
0.0425424 0.180065 0.306785
0.050421 0.237207 0.586488
-0.162977 -0.0942226 0.293097
0.040856 0.219699 0.295131
-0.0375236 0.229198 0.31372
0.114728 0.218641 0.653857
0.185918 0.059494 0.405928
-0.166592 0.205856 0.58817
-0.124218 -0.0774854 0.419988
-0.079101 0.149619 0.292018
-0.16616 0.199498 0.157294
-0.137956 -0.246987 0.390905
0.163972 0.223976 0.196479
0.0808373 0.00126719 0.409325
0.0197319 0.194759 0.306736
-0.215304 -0.100599 0.422086
0.203262 0.212829 0.647469
0.0391911 0.224181 0.701691
-0.190794 0.228085 0.0154402
-0.0681284 0.21988 0.659547
-0.17091 0.107915 0.405938
-0.0060245 -0.250869 0.371397
0.189074 -0.107549 0.311392
-0.0515302 -0.258456 0.373157
-0.0241654 0.232363 0.490614
-0.132208 -0.252395 0.383168
-0.0053721 0.229393 0.334668
0.0614919 -0.128757 0.425361
0.0718706 -0.115404 0.423854
-0.00959404 -0.0405788 0.387745
0.142594 0.160443 0.410334
0.237134 0.0276421 0.407936
0.0676838 0.130279 0.324358
-0.140366 0.220225 0.524537
0.00620953 0.248604 0.596322
-0.0324926 0.0247513 0.37437
-0.0343888 -0.10461 0.422542
-0.0837664 0.218204 0.539097
-0.143967 -0.225902 0.421083
-0.0208637 0.248948 0.514386
0.0236146 0.171762 0.306205
-0.0485061 0.221187 0.570691
-0.0231364 0.264532 0.54931
-0.213196 0.100373 0.415941
-0.0164633 0.0562399 0.385634
0.0530693 -0.0400859 0.388063
-0.0121391 0.143495 0.306667
0.192172 0.0231728 0.416966
0.0594984 0.222703 0.679159
0.193992 0.187708 0.106355
-0.0439816 0.241872 0.321871
-0.107085 -0.162187 0.370816
0.139531 -0.220115 0.424962
0.226859 -0.1503 0.0523437
-0.010319 -0.031288 0.370848
-0.126535 -0.136407 0.415219
-0.0737606 0.219363 0.551287
-0.0417131 -0.220051 0.430329
0.0918716 -0.235347 0.395799
0.180183 0.21184 0.492716
0.040338 0.233405 0.685451
0.00437789 0.181612 0.306703
0.0138075 0.181236 0.306723
-0.0320726 0.142893 0.299219
-0.170991 -0.0684408 0.420041
0.0338072 0.103756 0.315691
-0.0568285 0.229781 0.483814
-0.143552 -0.0853103 0.355114
0.0817834 0.220532 0.574934
0.136311 0.0340127 0.413903
-0.025378 0.16656 0.394749
-0.0436162 0.246845 0.435178
0.108207 -0.13531 0.361089
0.0258943 -0.0548249 0.405661
0.145589 -0.140263 0.359929
0.178413 -0.104965 0.284114
0.0284607 0.248568 0.342436
0.00209114 0.120744 0.391472
-0.150598 -0.125956 0.414191
0.177527 0.188795 0.202949
0.146852 -0.104486 0.374243
-0.0686105 0.154045 0.292041
-0.0554863 -0.0276182 0.410771
0.214842 -0.184741 0.0346719
0.177541 0.243065 0.121313
-0.00298995 -0.0750478 0.374802
-0.179575 0.182729 0.164663
-0.0662092 0.220033 0.651027
0.196314 0.0561987 0.406139
-0.187122 0.208671 0.0366422
-0.18453 -0.108511 0.258341
-0.138858 0.212551 0.613352
-0.0889227 0.227648 0.537422
0.121617 0.0260731 0.412009
0.0730935 0.141689 0.397642
-0.163109 -0.155601 0.29263
-0.184279 0.240507 0.0528798
-0.00694185 0.222905 0.478473
0.16828 -0.132614 0.41464
0.0692751 0.103705 0.315898
-0.0226252 -0.0635133 0.374191
0.11278 -0.197162 0.419379
0.0782638 0.254959 0.393754
-0.0977596 -0.0656881 0.418369
0.0562684 -0.144967 0.375167
0.237687 0.0252211 0.415151
0.0522172 0.230094 0.475351
-0.0467257 -0.00385263 0.380501
0.19161 -0.111713 0.20623
-0.0672106 0.22012 0.589747
0.115552 0.21877 0.691532
-0.0371309 0.248972 0.517001
0.202954 0.203203 0.598077
0.0102564 0.233823 0.725879
-0.191033 -0.139933 0.41525
0.0611597 -0.00826158 0.407757
0.0744505 0.0438244 0.3702
0.031893 -0.25241 0.383094
-0.162545 0.0938973 0.414174
-0.191909 0.191458 0.0934887
-0.10909 -0.126116 0.414822
0.14111 0.0159262 0.406552
0.220922 -0.0744983 0.420424
-0.193464 0.0241292 0.406911
0.168681 0.211384 0.169189
-0.113171 -0.0991395 0.359236
-0.196988 0.204922 0.648479
0.0209488 0.151399 0.306111
-0.072868 -0.199533 0.420254
-0.215643 0.102967 0.412378
0.171456 0.20757 0.238208
-0.0166197 0.0327515 0.372666
-0.0279048 0.0259274 0.400448
0.00015546 -0.111033 0.375576
0.0546707 -0.0956685 0.375153
-0.212094 0.0648459 0.415001
0.0998162 -0.227498 0.405715
-0.158086 -0.155687 0.31831
-0.0498054 0.00810631 0.363106
0.112245 -0.0949128 0.361122
0.184702 -0.153601 0.337905
-0.0485388 0.176076 0.388052
-0.0490386 0.122693 0.325423
-0.0927484 -0.205314 0.420211
-0.0264726 -0.0320898 0.411033
-0.164066 0.0977972 0.414404
0.0261003 0.113414 0.39235
-0.164777 0.233799 0.179601
0.172945 0.233464 0.18206
0.0592886 0.252466 0.560649
-0.0842768 0.121809 0.399854
0.112541 0.22708 0.49688
-0.0130435 0.2491 0.55816
-0.071726 0.218796 0.483665
-0.180192 -0.164068 0.426788
0.00148417 0.22415 0.595945
0.0601652 -0.0198049 0.369207
0.000177443 0.153109 0.383302
-0.187288 -0.188657 0.428581
0.166734 0.207789 0.265578
-0.098952 0.168028 0.30648
0.0474678 0.0706874 0.340618
0.0058322 -0.210438 0.42101
-0.0359753 -0.100194 0.375973
0.0151149 -0.045234 0.388179
-0.140306 0.187154 0.299039
-0.183248 0.224417 0.143298
0.202918 -0.104396 0.412648
0.117426 0.218181 0.600512
0.197121 -0.146958 0.256091
-0.100613 -0.0933484 0.373848
0.177215 0.206208 0.204822
0.16362 0.222068 0.697295
0.0282898 0.248788 0.483168
0.0474216 -0.162295 0.361603
-0.00964781 0.248779 0.480892
0.00979982 0.176332 0.306145
0.0204547 0.0237527 0.386955
0.16011 0.18792 0.218646
-0.0912781 -0.0853493 0.364352
-0.0379285 0.159158 0.305746
-0.164997 0.215561 0.563703
0.181589 -0.136808 0.414964
0.0661235 0.247064 0.442964
-0.037681 -0.248309 0.388395
0.221832 -0.0591533 0.410035
0.24443 -0.0122524 0.41198
0.185815 0.216027 0.567061
-0.0175967 0.0816015 0.392082
0.113575 0.21786 0.487671
-0.162842 0.157158 0.215863
-0.167091 0.189405 0.236624
-0.0604464 -0.195704 0.42967
-0.187335 -0.131081 0.244061
-0.021428 0.111168 0.392209
0.171915 -0.162382 0.34003
-0.178725 0.10373 0.415194
-0.168677 -0.131975 0.264092
0.104151 -0.173237 0.41857
0.039671 0.251061 0.562875
-0.152308 0.184188 0.237059
0.174347 -0.10096 0.31193
0.206453 -0.163553 0.0921472
-0.0618289 0.229381 0.481436
0.027809 0.167702 0.321658
0.198712 -0.118855 0.17161
0.160868 0.195695 0.281533
0.0418845 -0.0167508 0.368566
-0.0451194 0.0210373 0.375133
-0.0408121 -0.155851 0.374351
0.136084 0.0608626 0.412371
0.167273 -0.00621476 0.408299
0.156814 0.222296 0.669431
-0.0344238 0.248657 0.594714
0.0389332 0.1065 0.332551
-0.0572485 -0.129405 0.382526
-0.194998 -0.16084 0.129643
0.0312143 -0.087054 0.375526
-0.20631 -0.141999 0.425038
0.190345 -0.119449 0.41363
0.158768 0.147952 0.419197
-0.143926 -0.137949 0.351014
0.117438 0.21771 0.506402
0.215295 -0.147595 0.0317806
-0.0249414 0.119399 0.392532
-0.0714494 0.229543 0.642246
-0.197715 0.243321 0.0597949
0.0355907 0.0590993 0.346017
0.0551947 0.241882 0.384138
0.121562 -0.0205813 0.415642
0.00326871 0.224017 0.522649
0.116619 0.0315936 0.40104
0.00823432 0.23376 0.679642
-0.123861 0.215251 0.638432
0.137473 -0.232645 0.400507
-0.130842 -0.217132 0.429176
-0.0734571 -0.0328826 0.402678
0.075988 0.218124 0.323806
0.159081 0.0346916 0.40693
0.0316801 0.224162 0.727405
-0.0560412 0.144781 0.316345
-0.177672 -0.118991 0.293478
0.0618456 -0.239037 0.391475
-0.0553912 0.157749 0.305632
-0.0312253 0.221723 0.515079
0.0267863 0.224188 0.641254
-0.0486668 0.0208783 0.392261
0.099714 0.22969 0.620491
-0.198977 -0.0534154 0.419348
0.082025 -0.184903 0.419532
0.00990933 -0.037066 0.401984
0.150843 0.09829 0.40512
0.231749 -0.150669 0.416051
-0.0285135 -0.102512 0.375888
-0.00153911 0.0580699 0.363203
0.0494623 -0.113806 0.391411
-0.183106 -0.109218 0.26563
0.00429914 -0.152057 0.376101
-0.0295915 0.223278 0.655522
0.202016 -0.224498 0.421122
0.181974 -0.152458 0.345187
0.169785 -0.13272 0.363408
-0.101593 -0.137056 0.425562
0.186397 -0.162681 0.229268
0.181167 0.199357 0.181892
-0.187401 -0.135159 0.243737
0.137402 0.214528 0.510484
-0.127089 -0.256837 0.389605
0.0521962 0.0374455 0.399709
-0.145869 -0.245565 0.393042
0.197205 0.206971 0.0889695
0.150854 0.212562 0.512326
0.0327041 0.2474 0.573225
0.0238911 -0.18352 0.429608
-0.0147293 0.206393 0.321653
0.18422 0.206272 0.595118
-0.175837 0.213586 0.558292
-0.245835 -0.13779 0.4199
-0.0895334 0.217278 0.579512
0.14394 -0.0959223 0.374919
0.121969 0.0270169 0.402341
0.0222326 -0.0545783 0.374082
-0.136044 0.211977 0.540188
0.188757 -0.108356 0.22257
-0.0556623 -0.124485 0.359717
0.0122782 -0.0993566 0.360286
0.138074 0.226428 0.706024
0.193011 0.0363992 0.406918
0.0347962 -0.17957 0.429454
0.169501 0.210054 0.493936
-0.226647 -0.188442 0.0253121
-0.191114 -0.110005 0.21487
0.041215 0.206549 0.306782
0.0115851 0.0680275 0.393136
0.16593 0.205086 0.185069
-0.00628252 0.129555 0.324105
-0.182267 0.21232 0.55513
0.106492 -0.116991 0.398241
-0.189709 -0.156839 0.231998
-0.139943 -0.00717067 0.417434
-0.152061 -0.111004 0.34023
0.164778 0.084081 0.405043
-0.0954921 0.2276 0.594469
-0.106292 -0.149019 0.416979
0.129238 0.034264 0.403063
0.116714 0.22689 0.600236
-0.0442065 0.209051 0.306598
-0.181987 -0.0450035 0.409393
-0.0639718 0.219497 0.503328
-0.18556 -0.148649 0.425572
0.0772621 -0.189696 0.419812
-0.10332 0.168386 0.306471
0.236423 -0.19855 0.424849
0.0584863 0.0626888 0.386793
-0.150254 0.210381 0.624796
0.206305 0.212291 0.0362482
0.00521143 0.142866 0.292368
0.0520355 0.0286041 0.401038
-0.191221 -0.122592 0.151513
-0.0490559 0.23245 0.34305
0.19497 -0.139994 0.27086
0.13265 0.216949 0.606025
-0.123669 -0.143189 0.425499
-0.0412423 0.26448 0.531906
0.0710343 0.221778 0.654176
0.182248 0.206962 0.61135
0.0439232 0.119981 0.393597
0.0387794 0.0392123 0.389174
0.0616708 -0.103731 0.360699
-0.146475 0.0510351 0.414877
0.173766 0.209645 0.643304
0.217043 -0.166981 0.0197236
-0.048789 -0.17814 0.429381
-0.0187247 0.248927 0.57217
-0.203519 0.254676 0.00175169
0.0595274 -0.0779362 0.419077
-0.169121 -0.246077 0.406385
-0.111869 -0.0339785 0.405674
-0.00947806 0.123909 0.392008
-0.0388724 -0.0681434 0.417605
-0.114462 0.167429 0.291942
-0.0291374 0.24845 0.610869
0.152662 0.0518349 0.405964
-0.180819 -0.141453 0.202055
-0.0359361 -0.229551 0.403459
-0.174188 0.0411246 0.406072
0.215347 -0.184073 0.0789093
-0.0945128 0.146319 0.30649
-0.0563098 0.0678459 0.344374
0.222716 0.199399 0.622487
-0.0402305 0.26454 0.547786
0.065031 0.222022 0.632633
-0.0371441 0.264308 0.488025
0.114777 -0.102689 0.422289
-0.185569 0.202262 0.584489
-0.20651 -0.173878 0.0708444
0.00424892 -0.00756325 0.381496
-0.0999363 0.0456717 0.405205
-0.00973169 -0.0416987 0.402849
0.16691 0.0631205 0.415135
-0.164736 -0.122491 0.284201
0.0498521 0.242729 0.390696
0.0508019 -0.157859 0.418818
0.0642352 0.129554 0.308857
0.0347189 0.24445 0.403972
0.217423 -0.175146 0.417773
-0.0131033 0.263701 0.625125
0.008601 0.024315 0.372972
-0.0151757 0.242671 0.586611
0.0622498 -0.122076 0.360704
0.0675021 -0.141135 0.416936
0.0401582 0.22409 0.697713
-0.222099 -0.142905 0.415469
0.150993 0.200049 0.268768
0.206055 -0.16993 0.194789
-0.117894 0.226428 0.692434
0.0359732 -0.0320371 0.371246
0.0990728 -0.108549 0.413267
-0.0374448 -0.0594458 0.406352
0.0497291 0.264469 0.548918
0.153198 -0.119174 0.358029
0.0611091 0.222268 0.631305
0.146878 -0.047832 0.419219
0.110871 -0.112812 0.413518
-0.0836343 0.22855 0.616862
-0.0286528 -0.0812146 0.374896
-0.056869 0.221156 0.68487
-0.230046 -0.0721324 0.410664
0.171723 -0.104795 0.329856
0.203201 0.203477 0.540411
-0.104952 0.212472 0.291962
-0.0128131 0.142879 0.300346
-0.0187211 0.224052 0.715685
-0.0248943 0.223504 0.648217
0.117201 -0.221276 0.413882
0.0431765 0.240364 0.372127
-0.130376 -0.114072 0.423043
-0.172069 0.204897 0.60397
-0.181797 -0.110525 0.210614
-0.130943 0.100714 0.411004
0.00401941 0.264325 0.501252
0.0571055 0.105705 0.384556
0.0100498 0.233434 0.551096
-0.129701 -0.161229 0.426934
0.0785017 0.153024 0.311435
-0.00579424 -0.0748353 0.418343
-0.032977 -0.160343 0.374417
-0.154248 0.219836 0.281393
0.0694195 -0.157234 0.360764
0.211637 -0.130614 0.114786
0.00554376 -0.122606 0.36023
0.00112285 0.224078 0.541916
-0.0577184 0.230508 0.648505
-0.0943327 0.0723169 0.401544
-0.15688 0.217153 0.559707
-0.0168157 0.248954 0.516904
-0.187082 0.21163 0.541783
0.16636 0.208702 0.182602
-0.186859 -0.107812 0.412908
-0.0287202 -0.0808244 0.409589
0.0153689 0.24877 0.481282
-0.179048 0.238304 0.0829842
-0.13264 0.0585483 0.402448
-0.00853382 -0.102579 0.391304
0.0509212 -0.0452126 0.373656
0.00840304 0.23996 0.368557
-0.21012 -0.226336 0.413875
0.0407326 0.188579 0.306781
0.0973736 0.218887 0.483605
-0.121797 0.028326 0.411583
0.0862819 0.0348669 0.40489
-0.132079 -0.218286 0.41703
-0.0862619 0.229192 0.735674
0.202416 0.216902 0.00301354
-0.044076 0.147202 0.305687
-0.130255 -0.186042 0.428118
-0.127518 0.213167 0.527118
-0.0672559 -0.0977857 0.35962
0.0333649 0.224188 0.676638
0.0456125 0.233082 0.626603
0.091359 -0.106949 0.41321
0.15841 0.219614 0.269233
0.00826996 0.224168 0.590268
-0.0277033 -0.155975 0.375678
0.0563446 0.24895 0.565984
0.0130513 0.224192 0.560075
-0.0301382 -0.26249 0.367136
-0.170304 -0.0938241 0.292675
-0.113181 0.226353 0.63796
0.193759 -0.150557 0.178997
-0.241633 -0.0736988 0.420384
-0.0443104 0.248566 0.475094
0.0065707 0.113914 0.311998
0.124895 0.0955382 0.399331
0.129593 0.217642 0.667388
-0.111317 0.216952 0.678949
-0.0294418 0.248884 0.576271
0.226728 -0.169417 0.417479
0.166312 -0.247213 0.39403
0.0373165 -0.110512 0.375865
-0.201699 0.199161 0.567403
-0.207138 -0.166364 0.142843
0.0212003 0.2644 0.524294
0.0625801 0.221355 0.513146
0.0365363 0.248431 0.608236
0.196604 0.22143 0.00775898
-0.118756 -0.0524141 0.417598
0.239462 0.0151306 0.411712
0.185094 0.206453 0.074255
0.20268 -0.125133 0.218108
-0.0270711 -0.195646 0.42986
0.0371334 0.223192 0.539218
0.176125 0.0294082 0.416741
-0.0414247 -0.0769234 0.409126
0.117286 0.22565 0.53003
-0.233957 -0.0412279 0.418916
0.166312 0.181612 0.182752
0.203357 -0.1391 0.113429
0.0641409 -0.142172 0.375233
0.0638555 -0.162422 0.428867
-0.19891 -0.192865 0.419367
0.0557168 -0.0581961 0.416143
-0.0320946 -0.156899 0.374424
-0.0910571 0.212428 0.291992
-0.0918744 0.00823935 0.408356
0.0612135 0.26421 0.483365
0.113339 -0.162215 0.375647
0.00323955 -0.149621 0.391687
0.0493001 0.24848 0.603634
-0.159862 0.216488 0.554412
-0.0447233 0.0752598 0.383945
-0.0667846 0.142918 0.302256
-0.136312 -0.00588853 0.406977
-0.160378 -0.16278 0.326184
-0.118023 -0.246121 0.399682
-0.0863723 0.169712 0.292002
-0.16854 0.172853 0.228345
0.0308462 0.232764 0.477915
-0.0558154 -0.253362 0.368262
-0.214823 -0.190974 0.419407
0.0767519 0.259076 0.397005
0.180522 -0.071806 0.410687
0.0222195 0.131568 0.392521
0.210566 -0.215853 0.428003
-0.0168496 0.123216 0.309807
0.0262075 0.22415 0.72559
-0.0488291 -0.0244502 0.369421
-0.176319 -0.143036 0.30048
0.0450918 -0.155314 0.42825
-0.185197 0.181355 0.132241
-0.170169 0.207408 0.695907
-0.161282 -0.104716 0.3018
0.110537 0.05032 0.407878
0.0304572 0.248834 0.495818
-0.00414857 0.141368 0.392214
0.0987857 0.0921598 0.402854
0.0940363 0.142801 0.306883
0.129398 -0.0117088 0.406324
0.0203243 0.233397 0.588741
-0.145576 0.22172 0.669208
-0.174192 0.20504 0.645576
0.204247 0.203024 0.647749
0.136315 -0.182588 0.41819
-0.0435702 0.176721 0.393803
-0.126666 0.215358 0.672527
-0.0939265 -0.0387656 0.414572
-0.0446517 0.205022 0.321461
0.0591561 0.00886797 0.363525
0.116693 0.219643 0.304669
0.0374896 0.232456 0.585399
0.0730312 0.231616 0.548709
0.211388 -0.0598361 0.419676
0.123461 -0.236901 0.395343
0.17124 -0.0890449 0.362161
-0.016325 0.240698 0.561497
0.0443193 0.248879 0.572366
0.0378374 0.000399239 0.365253
0.0781714 0.255324 0.412199
0.00349744 -0.162468 0.429245
-0.19632 0.133486 0.418783
0.0127901 0.248809 0.579706
-0.0248187 0.210823 0.30664
0.00171115 -0.00633691 0.381246
0.0383468 -0.130009 0.375016
-0.162317 0.208785 0.687351
0.24173 0.00290755 0.417482
0.147102 -0.243556 0.404672
0.0339753 -0.060661 0.416399
0.0753759 0.0369634 0.402728
-0.0654446 -0.108611 0.374144
0.187788 -0.219815 0.414388
0.0945619 -0.0989582 0.360974
-0.0930784 0.14808 0.392919
0.0833561 0.171238 0.392297
0.193796 0.214031 0.693809
-0.170629 -0.163475 0.319457
-0.180539 -0.13032 0.278843
0.196011 0.214178 0.095915
-0.057213 -0.131135 0.376365
0.205832 -0.156031 0.0964364
0.0972373 0.23041 0.706728
-0.17471 0.233493 0.107969
0.195208 -0.157842 0.169055
0.222268 -0.0787864 0.42068
0.040262 -0.0555693 0.388967
-0.202248 0.0318745 0.416353
0.0527888 0.248451 0.605679
-0.206862 0.221023 0.00712133
0.171427 0.0477751 0.406391
-0.179585 0.209445 0.0800047
0.0405964 0.103506 0.334847
0.11646 -0.149424 0.41671
0.190493 -0.131248 0.201416
-0.200705 -0.127714 0.423933
0.0284721 0.224172 0.687221
-0.143644 0.219995 0.551037
0.0269797 0.26372 0.621423
-0.115581 0.0422352 0.40882
-0.0377003 0.264251 0.480496
0.0242028 -0.122031 0.415128
0.14307 0.216098 0.666045
0.0584022 0.249013 0.560916
-0.0805592 0.228123 0.524748
0.0585011 0.239592 0.571008
-0.183969 -0.0243923 0.408586
-0.181394 0.0537361 0.405421
0.0441333 -0.0957187 0.411774
0.0373225 0.188306 0.321874
-0.161529 0.190261 0.268691
0.0192141 -0.0340806 0.411387
-0.185425 -0.160832 0.253941
0.0391662 0.168025 0.395625
0.0654256 -0.246813 0.381005
-0.0479876 -0.0853795 0.363954
0.0873255 -0.0547736 0.407516
0.199234 -0.149227 0.141574
-0.0391321 -0.239045 0.389153
-0.108202 0.0366613 0.397891
-0.175174 0.212683 0.68898
-0.0317541 -0.0030444 0.396037
0.0876463 0.14858 0.401627
0.217829 -0.173799 0.114114
-0.176694 0.213635 0.613508
0.0798823 0.231599 0.649096
-0.0214791 -0.225338 0.422888
0.0302565 -0.221262 0.428599
-0.032156 0.0523782 0.365687
0.180542 -0.106485 0.269557
0.0672086 -0.102646 0.422413
-0.00146399 0.119619 0.39159
-0.0224319 0.248342 0.61902
-0.0151805 0.224052 0.734784
0.0181625 0.26251 0.441369
-0.090732 -0.22536 0.422341
0.0372214 0.233058 0.580745
-0.202798 0.10248 0.406358
-0.0286446 0.264553 0.553702
-0.0192867 0.18468 0.306652
-0.105932 0.227775 0.721732
-0.00100595 -0.209322 0.430245
-0.157217 0.209222 0.650035
-0.00646123 0.0527 0.36567
0.140327 -0.123538 0.414151
-0.171492 0.0428638 0.415567
-0.0568168 0.21977 0.296416
-0.000231682 0.224115 0.666829
-0.229867 0.011048 0.417122
-0.207659 -0.160504 0.0649164
-0.014773 -0.223965 0.411991
-0.0243817 0.243414 0.395179
-0.00679699 0.223668 0.551472
-0.0640072 0.156611 0.292051
-0.157703 -0.110127 0.358164
-0.0286434 0.249112 0.555052
0.0574669 0.232531 0.545206
0.141396 0.0946933 0.402927
0.0128219 0.263651 0.627636
0.00241712 0.0639632 0.343573
-0.00297647 0.233849 0.746631
-0.0568567 -0.0417827 0.382151
-0.102815 -0.14133 0.37383
0.0642736 -0.159672 0.388288
-0.0147324 0.224037 0.636585
-0.201813 -0.135904 0.169982
-0.15099 -0.112101 0.363914
0.073328 0.181165 0.322039
0.14545 -0.218657 0.414593
0.131129 0.22596 0.646193
0.0533584 0.00961156 0.394788
0.222226 -0.153134 0.00394392
0.102737 0.227956 0.560483
0.0438126 0.230805 0.475249
0.0353357 0.0426692 0.388537
0.135711 -0.0139463 0.407021
0.0543045 -0.0956879 0.391738
-0.0020621 0.174358 0.384808
-0.200719 0.234857 0.042501
0.145456 0.22494 0.689114
0.0380695 0.233269 0.63742
-0.148556 0.221586 0.6978
0.0320814 0.198037 0.321926
-0.171714 -0.0982376 0.323897
-0.102609 -0.110658 0.413285
-0.173841 0.209103 0.690828
0.163025 0.210038 0.54578
0.0728023 0.220594 0.499326
-0.114112 -0.132894 0.424908
-0.209161 0.103428 0.406675
0.0386926 0.2197 0.302592
-0.128583 0.144556 0.402361
-0.167932 -0.139703 0.267925
0.219585 -0.127535 0.423891
-0.0557017 -0.217898 0.420721
-0.226032 0.0762043 0.405232
-0.0179246 0.217334 0.29215
0.127247 0.184973 0.30555
-0.143136 0.184154 0.275446
-0.0308056 -0.220898 0.429484
0.00488669 0.263654 0.62785
-0.0566528 0.147491 0.292066
0.230109 -0.0675846 0.410383
0.0509821 -0.00168781 0.380619
0.0225746 0.107292 0.382434
-0.152085 0.147759 0.249284
-0.0939126 -0.0542813 0.406589
0.0844652 -0.234627 0.39656
-0.148807 -0.118856 0.346815
0.0490076 0.232644 0.530541
0.15498 0.213586 0.636012
0.16752 0.218064 0.175938
0.0192407 0.233759 0.677256
0.00328749 -0.259701 0.371401
0.109815 0.105477 0.405798
-0.175614 -0.222404 0.425924
0.0213155 0.24892 0.516295
-0.212442 -0.184114 0.0405532
0.0272388 -0.222187 0.427277
-0.17426 -0.13884 0.311004
-0.203107 0.256418 0.02864
-0.00547094 -0.12392 0.375967
0.0851761 0.00709929 0.409117
-0.0665948 -0.023542 0.410787
-0.183064 0.248016 0.0912858
-0.178001 0.104202 0.405745
-0.0776699 -0.0190477 0.401517
0.0805851 0.156407 0.306867
-0.100612 -0.242021 0.402194
-0.0114637 -0.0456902 0.403614
-0.0370443 0.259935 0.622595
0.0245626 0.0235947 0.400765
-0.0721744 0.220523 0.715675
-0.14808 0.153804 0.417329
-0.249328 -0.0600143 0.417865
0.144853 0.216313 0.715485
-0.0899714 -0.143171 0.426223
-0.0158323 0.248621 0.477078
-0.100394 0.113364 0.402653
-0.113076 -0.0632429 0.408878
0.174518 0.208753 0.53225
0.160771 0.210635 0.535271
0.115414 -0.0854935 0.374399
-0.0168479 -0.157012 0.374553
-0.0549342 0.230274 0.571291
0.17535 -0.0513011 0.419407
0.0914758 0.220457 0.683281
-0.0162214 -0.174416 0.429439
0.208022 -0.131914 0.181482
-0.199999 -0.153891 0.104052
-0.0500419 0.220537 0.517342
0.164092 0.191119 0.195634
0.0706052 0.115427 0.386863
0.0601186 0.170794 0.306435
-0.198491 -0.156399 0.187056
0.0435892 -0.231163 0.413422
-0.0504362 0.258744 0.392919
0.0454354 0.233378 0.710929
-0.0929342 0.219374 0.740303
-0.14339 0.0924107 0.404305
-0.196593 -0.0213925 0.408498
0.0156207 0.173677 0.394529
0.090529 -0.141197 0.375455
0.17223 0.218326 0.592779
-0.225119 -0.16857 0.050831
-0.22159 0.0916468 0.410356
-0.0825449 -0.125888 0.424695
0.0134726 -0.158929 0.378664
-0.00952791 0.0052897 0.403764
0.0432748 -0.252665 0.383868
-0.0152109 0.264043 0.598262
-0.183451 0.228789 0.0576881
-0.159448 0.144633 0.273802
0.230942 -0.208381 0.429093
-0.0903725 0.138072 0.391853
0.0163047 0.142858 0.302725
0.0500815 0.248317 0.471622
-0.143517 0.210806 0.568512
0.186127 0.0732848 0.414807
-0.0247006 0.204989 0.292135
0.130535 -0.116899 0.413669
0.221849 0.209145 0.627393
-0.12002 -0.0853292 0.36398
-0.105787 -0.238696 0.40586
-0.0430228 -0.0381228 0.412371
-0.00437384 -0.0794134 0.418991
-0.0105823 0.0756404 0.354998
-0.219836 -0.236193 0.415333
-0.186688 -0.172631 0.210841
-0.180757 -0.109446 0.215861
-0.186955 0.234293 0.0375043
0.136882 0.093403 0.411425
0.185897 0.200093 0.15448
0.208808 0.224597 0.0217983
-0.0486271 0.194293 0.321377
0.0117233 0.22717 0.330043
0.0853931 -0.117613 0.414272
-0.136943 -0.128501 0.355991
-0.0454924 0.191873 0.306595
0.168335 -0.18833 0.418406
-0.0626973 0.230448 0.688318
0.0582769 0.24578 0.414648
-0.00762342 0.222878 0.480094
0.0519857 0.223015 0.653521
-0.0293923 0.172761 0.30587
-0.11018 -0.0767993 0.410026
0.0037719 0.223665 0.485412
-0.197454 0.218641 0.0613978
-0.187098 0.211612 0.629669
0.0741766 -0.113131 0.3761
-0.151422 0.208382 0.242068
0.0426465 -0.0301245 0.370943
-0.156418 0.223002 0.247692
-0.128806 0.212591 0.49877
-0.247104 -0.127873 0.417429
0.177064 0.208083 0.613958
-0.0220609 0.0440232 0.397379
-0.218232 -0.00454807 0.407889
0.238415 0.0123509 0.407646
0.0274625 0.243317 0.395027
0.238699 -0.18858 0.426928
-0.0213811 0.157893 0.394025
0.0728199 0.0733261 0.356503
-0.199907 -0.0433812 0.409332
-0.0717744 0.219559 0.597335
0.0478194 -0.087267 0.391022
-0.0913777 -0.0536659 0.416125
-0.168445 0.201658 0.228759
0.0790583 -0.159392 0.428187
0.0789403 0.221059 0.624294
-0.213757 -0.239601 0.415186
-0.221615 -0.158525 0.416677
0.242193 -5.3619e-05 0.410382
-0.22227 -0.226089 0.422882
-0.0805134 -0.261745 0.37389
0.195904 -0.15981 0.426379
-0.09502 0.0468685 0.404231
-0.0507953 -0.153057 0.359758
0.0551968 -0.0703884 0.374965
0.167269 0.210474 0.490822
0.0200018 0.184371 0.292232
0.200488 -0.158245 0.232975
0.0146484 1.43279e-05 0.379724
0.190591 0.215334 0.550492
0.230301 -0.190103 0.00842592
-0.216712 -0.16193 0.0938238
0.0168878 -0.135775 0.360325
0.169434 -0.142231 0.42501
0.217421 -0.154896 0.017213
0.164951 0.219388 0.643776
-0.00154355 0.185821 0.292185
-0.192265 -0.16649 0.143633
0.0548487 0.233157 0.708598
-0.20603 -0.152782 0.148457
0.133359 0.217197 0.643362
0.185896 -0.137078 0.333028
0.0606 0.17147 0.29232
-0.19317 0.245467 0.0859914
0.0951716 -0.125138 0.41495
-0.15975 0.0482387 0.405536
0.192385 -0.129431 0.288612
-0.100369 -0.254127 0.374404
0.1887 0.230094 0.138366
-0.0617973 0.081285 0.385649
-0.066641 -0.0369309 0.412648
-0.0251444 -0.198305 0.429924
-0.20218 0.209341 0.0265462
-0.0597222 0.229982 0.59168
-0.0552486 0.221504 0.698254
0.0268243 0.179533 0.292247
0.0374047 0.256593 0.377013
0.0357218 0.1724 0.30677
-0.0529213 0.160792 0.292075
0.176221 0.217739 0.606777
-0.151248 -0.146896 0.342191
0.117264 0.227479 0.62025
-0.190912 0.210936 0.534268
-0.10763 0.161803 0.306461
0.0608709 -0.240792 0.389023
-0.133517 -0.0732065 0.410474
0.150765 0.214622 0.29466
0.173049 -0.0944606 0.360571
0.0603296 0.245982 0.576248
-0.0232869 0.0614983 0.344591
0.0350526 0.0606652 0.395613
0.0772817 -0.253964 0.383853
0.111526 -0.226682 0.407934
0.195703 0.222353 0.097739
-0.166621 -0.173922 0.427636
0.0687838 0.142819 0.295321
0.000413284 0.223382 0.47889
0.0489908 0.222596 0.564655
0.0385698 0.0568297 0.396392
0.0451183 0.249009 0.544643
-0.0320353 0.231987 0.5514
0.173357 0.211072 0.69305
0.0232077 -0.203505 0.430039
-0.234385 -0.174061 0.427577
0.0502812 0.154628 0.306802
0.188143 -0.153743 0.217375
0.0381232 -0.231075 0.400675
0.0956198 0.220213 0.693998
-0.155577 0.18705 0.218238
0.0300531 0.224005 0.590172
0.0120105 0.24883 0.490669
-0.030995 0.221524 0.494383
0.0372126 0.242286 0.563621
0.224573 -0.184651 0.418312
-0.106102 -0.255082 0.374452
0.0635864 0.248795 0.492574
0.170717 0.190264 0.157317
0.123971 0.218317 0.291743
0.047202 0.263802 0.613817
0.170338 -0.0377845 0.409334
-0.234878 -0.0865931 0.421201
0.17289 0.218101 0.55604
0.195298 0.207015 0.10002
-0.159553 0.208523 0.644288
0.0695451 0.166513 0.306843
0.00113332 0.0143358 0.371484
0.0696252 0.0608123 0.345392
0.154281 -0.0464401 0.419272
0.0365044 -0.0980432 0.412101
-0.0409217 0.22261 0.661339
-0.0172345 0.108604 0.313039
-0.13735 -0.153523 0.370655
-0.00277144 0.233749 0.672982
0.152471 -0.0568569 0.410057
-0.0861733 -0.0496402 0.405595
-0.116735 0.223827 0.486916
-0.0145579 -0.124368 0.374572
0.0877138 -0.0522736 0.416942
0.0759713 0.221245 0.623233
-0.205067 0.0282446 0.406882
0.104266 0.0371284 0.398298
0.0405877 0.249052 0.554565
0.114808 0.21831 0.588639
0.0644517 -0.110671 0.423385
-0.0397674 0.231656 0.620964
0.102146 0.218807 0.517019
-0.0297635 0.0399787 0.354618
0.116527 0.228734 0.709965
0.0255409 0.038021 0.388742
0.103457 -0.200091 0.429038
-0.109273 0.22498 0.492629
-0.037126 0.056704 0.386332
0.0172212 -0.224065 0.424683
-0.0460745 0.0887145 0.393147
0.225375 -0.176828 0.417877
0.0168139 0.257411 0.383205
0.21856 -0.133889 0.0994155
-0.0977032 0.0120507 0.408742
0.0295224 0.26451 0.555123
-0.186578 -0.144612 0.17263
-0.0774479 0.228611 0.56539
-0.030265 -0.0755788 0.374649
0.0224789 -0.198385 0.429933
0.0234059 0.263717 0.469567
-0.117329 0.0552126 0.398288
0.0481963 0.233266 0.696619
-0.0366257 0.0857439 0.348052
-0.214878 0.00686302 0.407535
-0.0892264 -0.161639 0.418485
-0.0551623 -0.13728 0.359722
0.061772 0.0268959 0.401764
0.0989471 0.124256 0.403635
0.0102277 0.248952 0.638297
0.214763 0.0868949 0.415176
0.0922274 0.220118 0.626274
-0.171584 0.0162602 0.416585
-0.10011 0.21614 0.580843
-0.155598 -0.221873 0.414658
-0.000174487 0.0260349 0.399594
0.0165537 0.233839 0.73672
0.191088 -0.161536 0.29735
-0.204628 0.243993 0.0199187
-0.041681 0.127565 0.308704
0.0367322 -0.0655073 0.374643
0.187111 -0.157899 0.224412
0.00356923 0.264288 0.577787
0.0602146 -0.0122438 0.408413
-0.153938 -0.155879 0.361417
0.014576 0.193425 0.321771
0.0114518 0.0253141 0.390107
0.0238146 -0.251273 0.371784
0.0268109 -0.122232 0.415143
-0.122787 -0.23707 0.399053
0.0349138 -0.127446 0.415688
0.135112 0.10387 0.411448
0.0187125 -0.110141 0.391122
-0.067489 -0.256227 0.368177
-0.153374 -0.117747 0.41355
-0.19317 0.225289 0.0860839
0.184556 -0.0878118 0.324394
0.0549888 -0.130311 0.392246
0.203814 0.212988 0.663278
-0.0514914 0.247966 0.45671
0.0775137 -0.0617497 0.386279
0.0227158 0.233608 0.652644
0.170344 -0.162384 0.352388
0.15345 0.0976633 0.405524
0.18805 -0.17117 0.230451
-0.0879289 0.168746 0.402496
-0.0378395 -0.158916 0.382865
0.0209569 -0.000632575 0.376817
-0.161246 0.224605 0.238251
-0.0271087 -0.131477 0.391808
0.0150092 0.22412 0.735137
-0.222221 -0.159928 0.0656256
-0.0579155 0.220129 0.526844
-0.0551594 0.249467 0.424837
0.0076998 -0.184509 0.420283
-0.189983 0.207642 0.104534
0.0276049 0.170376 0.321669
0.163623 -0.118359 0.368823
0.105624 -0.236827 0.407304
-0.0849457 -0.109241 0.359472
0.140262 0.138699 0.413886
-0.0268338 0.090773 0.382799
-0.183702 0.251925 0.0661889
0.0414795 -0.112142 0.423617
-0.0450608 0.0365713 0.399224
0.141315 -0.09484 0.361007
0.149001 -0.151591 0.373738
0.0352889 -0.106537 0.376088
0.130202 0.0383373 0.403003
0.0579122 0.24838 0.473279
0.108315 0.0756987 0.405164
-0.0336027 0.20027 0.321521
0.00406 0.233814 0.72029
-0.0982334 0.0781699 0.401631
-0.12872 0.221207 0.484977
-0.204396 0.214029 0.021376
0.0540107 0.146311 0.385576
0.232469 -0.154017 0.0138917
-0.17108 -0.124754 0.327232
-0.195712 0.0860126 0.404671
0.0401653 0.232729 0.511578
0.0916603 -0.0854769 0.365954
0.0525926 0.189317 0.306807
-0.0609031 -0.0234536 0.410331
-0.0719926 -0.0406388 0.413416
-0.177563 0.236851 0.0915361
0.0953602 -0.0350656 0.415588
0.151561 0.215475 0.722499
-0.022285 -0.24632 0.37824
-0.172672 -0.0464511 0.409452
0.0100394 -0.130059 0.374778
0.182191 -0.165455 0.298457
0.0299727 0.233808 0.735917
0.0474331 0.222448 0.528646
0.0468672 -0.0644428 0.374657
-0.0321473 0.015077 0.402515
0.171342 -0.130506 0.424109
0.0773321 -0.0991725 0.390421
0.036155 0.176333 0.321757
-0.174069 -0.113399 0.236465
-0.207538 0.0662061 0.405269
0.0453501 -0.185755 0.429541
-0.141309 0.0167217 0.406901
0.0310126 0.222004 0.326367
0.0842189 -0.086021 0.360888
0.0140326 0.0681967 0.383548
0.230312 -0.160731 0.0286451
0.171033 0.209136 0.539503
0.0254325 0.248127 0.638396
0.0211508 0.210761 0.306279
0.170425 0.195475 0.244137
-0.04903 0.22217 0.709914
-0.158532 -0.25339 0.392783
-0.206398 0.241443 0.00972105
0.205749 0.202907 0.659031
0.0492833 0.0477839 0.398137
0.0578349 -0.146642 0.360667
-0.0637987 0.229568 0.568146
-0.215699 -0.183903 0.42844
-0.062794 -0.129963 0.415663
-0.21924 -0.200002 0.42955
-0.120471 0.0336291 0.401246
0.199979 -0.146221 0.136491
-0.032122 0.222528 0.598606
0.044732 0.232695 0.523848
-0.205994 -0.124977 0.423719
-0.0115681 -0.0542091 0.405229
0.12977 -0.0855034 0.368876
-0.0774609 -0.147981 0.359535
-0.185736 0.242175 0.0444873
-0.162645 0.145795 0.258624
-0.0959483 0.216608 0.54738
0.0209149 0.141307 0.392682
0.156829 0.0634208 0.405394
-0.0164765 0.248209 0.629209
0.155653 0.182784 0.290607
0.0340021 0.223991 0.625441
-0.0430583 0.249013 0.526475
-0.164183 -0.0911845 0.3049
-0.00428554 0.238471 0.360614
0.154256 -0.23117 0.405633
-0.0394653 -0.103444 0.374362
0.0416997 0.24904 0.551765
-0.100699 0.149839 0.291971
-0.0511065 -0.0472593 0.387907
-0.110466 -0.162185 0.37062
-0.158361 -0.0904632 0.316683
-0.0196073 0.264461 0.531414
0.11399 -0.0153662 0.414516
-0.133527 -0.139234 0.356868
-0.0230082 -0.144522 0.391728
0.112754 0.0965974 0.406169
-0.129876 0.217293 0.73484
0.0864392 0.0796668 0.399639
0.158648 0.221171 0.508048
0.0848985 -0.199652 0.429341
0.190925 0.21536 0.540914
-0.0595673 0.220448 0.476907
-0.0370423 0.222551 0.631441
0.0425158 0.0910821 0.344356
-0.122785 0.223338 0.515433
-0.083291 -0.0306251 0.41286
-0.0291597 0.264494 0.538217
0.0754327 -0.22979 0.40353
-0.0406509 0.220781 0.482528
0.155022 0.213254 0.616515
0.206627 0.202618 0.652846
-0.0252748 0.264474 0.564742
-0.137109 0.179663 0.282946
0.0200637 -0.0388245 0.372352
0.140715 0.222486 0.606232
0.175856 0.185587 0.212619
-0.19364 -0.0725784 0.410684
0.00892156 0.16148 0.306057
-0.0441635 -0.0696257 0.417831
-0.0344345 0.247588 0.452654
-0.1997 -0.181873 0.418643
-0.167798 0.149313 0.419726
-0.156474 0.21787 0.598018
-0.0102632 0.233816 0.723463
-0.15425 0.220618 0.705647
-0.123972 0.224127 0.586754
-0.0263317 0.157409 0.305818
-0.0397136 0.222621 0.654866
-0.00191051 0.248206 0.628556
0.071589 0.262685 0.446732
0.0654919 0.125785 0.309699
-0.0553607 0.194531 0.306574
0.186051 -0.00298509 0.417766
0.0931345 0.220371 0.68983
0.0517168 -0.191474 0.42968
0.18844 -0.153188 0.215349
0.0130618 0.217764 0.323129
-0.0440243 -0.0970539 0.359815
-0.161955 0.0744595 0.404152
0.16281 0.218957 0.618499
-0.186038 0.103014 0.405872
0.111098 -0.103608 0.375628
0.155523 0.214612 0.703882
0.106099 -0.127413 0.375586
-0.031968 0.0851665 0.392597
-0.132118 -0.0828785 0.420647
-0.16441 0.217351 0.167295
0.210106 -0.170667 0.0671296
0.186799 -0.130762 0.22667
0.0172705 0.224178 0.615061
-0.0829234 0.21812 0.487919
0.0157709 -0.108816 0.391166
0.137172 -0.15461 0.375847
0.0535082 0.0884864 0.393898
-0.0621015 -0.17042 0.429065
-0.161395 0.206026 0.184691
-0.0440635 -0.0453524 0.373132
0.0472463 0.030326 0.390795
-0.0854521 0.197576 0.292004
0.158351 0.143236 0.266591
-0.18595 -0.17675 0.427862
0.090512 0.108739 0.401136
0.194454 0.0895086 0.405829
0.0701766 -0.0367828 0.372273
0.182837 -0.150786 0.342889
-0.0209964 0.262476 0.439611
-0.195965 -0.103887 0.412665
-0.000267707 0.0108103 0.402533
0.187634 -0.0432361 0.409495
0.00675263 0.248924 0.514071
-0.0484179 0.142905 0.297275
-0.00893278 -0.140285 0.39198
0.199759 -0.172032 0.221737
0.0521663 0.134078 0.307787
0.0800197 -0.12606 0.360853
-0.0698403 0.169273 0.389832
-0.0398541 -0.16739 0.419616
-0.0560532 0.241357 0.358745
-0.048385 0.221148 0.566191
-0.0244218 0.0881865 0.392296
-0.115472 -0.260001 0.377577
-0.0775308 0.220537 0.740443
-0.00927352 0.166793 0.321418
-0.227923 -0.186126 0.0365533
0.168276 0.190429 0.256572
0.0124288 -0.215833 0.421136
-0.156082 0.215247 0.215225
-0.0807938 0.21909 0.669316
0.183895 -0.185876 0.427807
-0.00272159 0.223243 0.475299
-0.00306892 0.138831 0.32202
-0.166889 -0.165547 0.293641
0.192517 -0.164735 0.28755
-0.121996 -0.0866477 0.410856
0.0788077 -0.14465 0.375356
0.0711175 -0.152212 0.39202
0.137543 -0.144923 0.425558
-0.0917282 0.0646747 0.392207
-0.120945 0.223962 0.542063
0.207833 -0.133704 0.182771
0.0261931 0.0988473 0.392288
-0.0487676 -0.196647 0.420409
-0.224702 -0.152049 0.0528942
0.0630656 0.0125877 0.362737
0.0558807 0.174025 0.306814
0.11611 -0.0489753 0.408065
0.0295389 0.0472416 0.39732
0.0782984 0.100094 0.323856
0.158208 0.219613 0.274209
-0.14939 0.219832 0.281948
0.185872 0.240051 0.0699202
-0.0490691 -0.0839171 0.419785
-0.148573 -0.1089 0.422577
-0.0619011 0.185998 0.30656
0.195466 0.0061991 0.417499
0.192245 0.216544 0.0329443
0.0800466 0.168091 0.391304
-0.110718 0.0368491 0.398493
-0.0312241 0.168795 0.292121
0.15941 0.164587 0.284821
0.16012 0.221685 0.218744
-0.019046 -0.26267 0.366891
0.168826 0.220857 0.689144
0.0595421 0.222991 0.731882
-0.204594 0.225798 0.0201869
-0.0533251 0.207739 0.305964
-0.124024 0.166438 0.304746
0.0866257 0.124664 0.391062
0.181682 -0.105845 0.261761
0.0771857 -0.149623 0.376724
0.155178 0.211573 0.527312
0.16228 0.213458 0.711034
-0.00347814 0.224136 0.601652
-0.0776173 0.0585918 0.400026
-0.0559533 0.236539 0.340067
0.0276669 -0.0542151 0.415277
0.0286484 0.133593 0.392966
0.00481365 0.224118 0.687947
0.196787 0.215669 0.00667277
0.1835 -0.214708 0.418573
-0.0271338 0.23477 0.349853
-0.0348721 -0.236964 0.405401
-0.223965 0.0868483 0.406408
0.189471 -0.128628 0.30858
-0.0251453 0.20521 0.306639
0.177856 -0.109683 0.287903
-0.0114802 0.233791 0.705279
-0.174527 0.213862 0.56152
-0.159593 0.144147 0.273467
-0.153909 0.211979 0.227739
-0.181779 -0.105237 0.237223
-0.149747 0.0274804 0.406507
0.195747 0.12024 0.408765
0.0446412 0.264396 0.528596
-0.0811842 0.229166 0.682457
0.198237 0.213926 0.554872
-0.174686 0.192319 0.192818
0.0575512 0.258753 0.585635
-0.118278 -0.131462 0.3737
-0.0922695 -0.148674 0.417068
-0.00393516 0.241367 0.379415
0.231263 -0.180771 0.0220538
-0.024436 0.244156 0.400982
0.0773658 0.231866 0.656981
0.128349 0.216845 0.531825
-0.0912247 0.142936 0.294605
-0.220834 0.086417 0.414588
-0.175136 -0.0925528 0.411942
0.0106458 0.23373 0.657202
-0.202904 -0.123819 0.147401
0.003521 0.228846 0.474841
-0.199193 -0.139947 0.183407
0.185475 0.210707 0.0720698
0.00961751 0.038097 0.355698
0.182626 0.211323 0.0885535
0.206104 -0.135462 0.194609
-0.178938 0.212953 0.553715
0.122068 -0.246032 0.396678
0.196163 0.219658 0.0102995
0.0526873 -0.0854497 0.361708
-0.0404879 -0.117651 0.414614
-0.04896 0.0947597 0.322057
-0.167936 -0.0223929 0.418076
0.191953 0.215027 0.561969
0.0438904 -0.146008 0.392129
-0.0533212 0.118391 0.394021
0.117397 -0.120107 0.361166
0.0991836 0.0104518 0.400869
0.248416 -0.0504955 0.417807
0.0475794 0.232959 0.604156
0.20293 0.22336 0.0558597
0.0574761 0.101286 0.317661
0.052853 0.245755 0.41439
0.0554167 0.0973189 0.33965
0.0565724 -0.033971 0.412102
0.0123158 0.139565 0.306349
0.00202901 -0.162263 0.366937
0.122278 -0.0238728 0.406367
0.18422 -0.207211 0.428876
-0.0603813 0.22087 0.637051
-0.232285 -0.0555949 0.41945
0.13729 -0.218561 0.41537
-0.0512147 0.220809 0.551015
0.0165421 0.210416 0.292224
0.0763358 0.221429 0.66048
0.026891 0.232925 0.500279
-0.178937 0.203395 0.559708
-0.0725407 0.229895 0.704069
-0.165626 0.126441 0.416179
0.168281 0.191743 0.25655
-0.0691184 0.164169 0.29204
-0.120638 -0.239704 0.395438
0.143454 -0.145372 0.360462
-0.205377 -0.140351 0.0764976
-0.0330536 -0.0373848 0.402358
0.0544072 -0.0799633 0.419358
0.0131217 0.254977 0.364041
-0.125015 0.213665 0.545412
0.179519 0.243016 0.106668
0.00727884 -0.0299433 0.400566
-0.00283435 0.223903 0.549611
0.1787 0.217362 0.552277
-0.15423 0.207919 0.529739
-0.124397 0.223583 0.550859
-0.0189966 0.263506 0.463628
0.0926661 0.0452997 0.4051
0.0213963 -0.0825058 0.409875
0.174892 0.232484 0.188708
0.204392 -0.123354 0.206387
-0.151906 -0.160156 0.36316
-0.113099 -0.0743635 0.419388
0.0531506 0.222675 0.615228
0.153186 0.222127 0.650308
0.109816 -0.162338 0.372499
-0.206459 -0.183012 0.0878922
-0.00255132 0.146109 0.292183
-0.187744 -0.21646 0.417402
0.214878 -0.158267 0.416634
0.15623 -0.183907 0.418147
0.202967 0.202349 0.0555547
0.218409 -0.138452 0.110287
-0.0197867 0.22649 0.329337
0.0827689 0.150085 0.306872
-0.0120956 0.261746 0.422856
