-0.0145073 0.244302 0.668
0.262643 -0.204684 0.103603
0.287515 0.00676759 0.383209
0.0224223 0.284423 0.551227
-0.18168 -0.109565 0.385022
-0.153289 -0.288766 0.361502
-0.0565717 -0.156395 0.347527
0.232146 -0.179629 0.311175
0.199239 0.214903 0.402543
-0.0339978 -0.186889 0.406054
0.212188 -0.102143 0.394454
0.132851 0.126732 0.365627
0.0349345 0.235509 0.702627
0.191186 0.220217 0.539422
0.0653322 0.233123 0.260827
0.0266188 -0.0282534 0.378786
-0.253835 -0.175932 0.145622
0.0319888 0.243395 0.521167
-0.0173685 0.223366 0.333597
-0.0539687 0.238343 0.387203
-0.167252 0.2283 0.481957
-0.0925357 0.162848 0.355738
0.0594912 0.242509 0.388676
-0.0847416 0.240003 0.623155
-0.283546 -0.0634665 0.391285
-0.215785 0.07086 0.370525
-0.210673 -0.243397 0.393502
0.199108 -0.282978 0.375428
0.196695 -0.025736 0.388518
0.00678331 0.0366831 0.3101
0.109043 -0.240436 0.408465
0.0261241 0.0537964 0.361587
0.0328904 -0.114792 0.395998
-0.224704 -0.174932 0.314431
0.0456244 -0.264292 0.380583
0.160208 0.044906 0.379682
0.143904 0.221639 0.634407
0.10495 -0.02073 0.38167
0.0499078 0.135688 0.339795
-0.176951 0.165418 0.361392
-0.120183 0.000108354 0.380179
0.133716 -0.159657 0.390777
0.267539 -0.244852 0.393307
-0.0013286 0.178513 0.278552
-0.0653068 -0.256897 0.390511
0.172852 0.224118 0.481871
0.204767 0.231018 0.199192
-0.0462125 0.243562 0.545742
0.11724 0.186392 0.34782
0.0812181 0.229323 0.510458
0.215859 0.25275 0.0716196
-0.228348 -0.169915 0.402027
-0.109663 0.231776 0.247807
-0.201475 0.227576 0.181184
0.0635615 0.240885 0.630796
-0.226542 0.209609 0.423328
-0.000161339 0.24395 0.432159
0.000351272 0.239367 0.278864
0.250624 0.204909 0.562606
-0.0651909 0.0785043 0.349499
-0.18162 0.225278 0.647934
-0.172621 -0.23392 0.40755
-0.208566 0.207754 0.532428
0.1819 0.225619 0.670403
0.144881 -0.0421404 0.387599
-0.172094 -0.0641092 0.3908
-0.001939 -0.0324254 0.344495
-0.24763 -0.106376 0.395248
-0.0985958 0.239803 0.487597
0.0214044 0.276955 0.477645
0.12832 -0.165236 0.364856
-0.208176 0.252833 0.0635082
-0.225018 0.00609865 0.38609
-0.131619 -0.141688 0.388763
0.198237 0.144658 0.363845
0.0131571 -0.167827 0.380228
0.262882 -0.0582225 0.380232
-0.0534875 0.242664 0.681107
-0.120848 -0.053442 0.387702
0.262665 -0.192947 0.141903
0.227726 -0.1697 0.401528
0.213739 0.0453785 0.38363
0.274789 -0.19913 0.0560032
-0.024498 -0.0896698 0.381005
-0.097056 0.230222 0.4272
-0.151415 0.231544 0.456249
-0.0836084 -0.155331 0.401597
0.00164752 -0.241449 0.409331
0.141129 -0.135312 0.387711
-0.0421796 -0.0350785 0.369985
-0.254354 0.0940706 0.379784
-0.135193 0.233424 0.595264
-0.0350805 0.166754 0.337098
0.148242 -0.262794 0.372916
-0.0266789 0.0424671 0.363716
-0.182525 0.205544 0.358982
-0.286447 -0.205015 0.00144688
0.0374656 0.243116 0.573133
0.0429045 0.232703 0.463464
-0.11435 -0.258966 0.388102
-0.176295 0.0912909 0.37823
-0.265705 -0.183282 0.105163
0.175988 0.0890073 0.366419
0.214748 0.216761 0.447218
-0.170317 -0.177294 0.392499
0.0719329 0.0865521 0.348169
0.0901006 -0.159295 0.391661
0.276938 0.056805 0.381148
-0.170766 0.017586 0.373742
0.0373227 0.225834 0.339245
0.156424 0.228528 0.437039
0.249883 -0.114331 0.395581
0.122736 0.23402 0.498868
-0.281647 -0.211759 0.406968
0.11364 0.226013 0.24513
-0.0592408 0.193865 0.337433
-0.20882 -0.266035 0.375517
0.164068 0.227573 0.589203
-0.0144639 0.265497 0.517056
0.0561976 -0.0672279 0.37696
-0.121678 0.236152 0.387961
-0.0922768 0.0450074 0.369486
-0.219171 -0.0743323 0.381634
-0.0363275 0.243793 0.644691
0.126162 0.0894969 0.36903
0.000681188 0.273788 0.38584
-0.202654 0.119074 0.376001
-0.156726 0.215492 0.360181
-0.00828673 0.0837346 0.345103
-0.0677919 0.242415 0.535241
0.134722 -0.204455 0.405527
-0.170149 0.217892 0.568754
-0.141652 0.222224 0.505797
-0.0996548 -0.15716 0.362436
0.202879 0.207418 0.560629
0.064863 0.0099678 0.371748
0.0704656 -0.0564476 0.375043
-0.0118021 -0.0104733 0.332412
-0.0995412 -0.275708 0.356749
-0.295279 -0.0509036 0.381337
0.139573 0.0233431 0.36887
-0.0206575 -0.140053 0.399988
0.118332 0.225622 0.399581
0.0122067 0.233369 0.472594
-0.206578 0.218952 0.499522
0.180131 -0.150077 0.389068
-0.00844906 0.233867 0.690974
-0.23327 -0.0346057 0.378666
0.159956 -0.0865097 0.392765
0.294098 -0.0391591 0.388706
-0.0500531 0.232783 0.589588
-0.133534 0.234343 0.638932
0.0144266 -0.20566 0.407215
0.151204 0.218513 0.542518
-0.0824038 0.120021 0.346755
-0.236187 -0.180258 0.178846
0.244762 -0.182741 0.254466
-0.132723 0.134941 0.364985
-0.0800546 -0.21254 0.397022
0.0306724 0.232802 0.651429
0.0994556 -0.267824 0.365915
-0.0984337 0.238817 0.570118
0.160172 -0.237831 0.407796
0.0609217 0.258317 0.517617
0.247968 0.132315 0.365891
-0.187818 0.238394 0.212791
0.215822 -0.170513 0.353071
0.0230602 0.216217 0.251551
-0.0180126 -0.0456961 0.371761
-0.141822 0.0421201 0.377541
-0.0267942 -0.250903 0.384495
0.0223967 0.177668 0.345989
-0.0800895 0.00212241 0.364304
0.0106891 0.233426 0.415404
0.220903 -0.24614 0.40202
-0.201407 -0.169313 0.356529
0.215149 0.216181 0.490067
0.123961 0.152711 0.361859
-0.269434 -0.19161 0.394063
0.0226225 -0.167968 0.345755
0.059395 -0.0209905 0.378009
0.00770174 0.172826 0.345365
0.233992 0.0201758 0.385475
-0.00993019 0.233687 0.553337
0.0897563 0.127987 0.356457
0.174619 0.00319339 0.385458
0.0703521 -0.126882 0.387379
-0.218008 0.21686 0.461748
-0.223183 -0.138709 0.38804
0.0631472 0.241336 0.547124
-0.081729 0.241827 0.449254
0.0857047 -0.219519 0.397195
-0.0298128 -0.221734 0.408096
-0.0659629 0.214877 0.255506
0.236004 0.247326 0.0344254
-0.129609 -0.0953898 0.393346
0.118378 0.234455 0.533796
0.00326201 0.0201722 0.367239
-0.189 0.229298 0.156408
0.215591 -0.0653825 0.380834
-0.100135 0.238335 0.66099
-0.246819 -0.199725 0.395044
-0.122014 -0.158817 0.391135
-0.0667131 -0.285317 0.35314
0.0121323 -0.12128 0.397151
0.0978944 0.237641 0.618274
0.000712161 0.0760406 0.318282
-0.0890254 -0.194072 0.395577
0.265368 -0.195982 0.404218
-0.0740284 -0.0463996 0.383659
-0.235678 -0.161497 0.269493
-0.147143 -0.0289492 0.386088
0.138316 0.217831 0.35998
-0.103422 -0.248846 0.399333
0.23409 0.164597 0.365951
0.0273567 0.108644 0.341984
0.061794 0.230436 0.66854
0.0333193 -0.290911 0.347616
-0.226103 0.0347839 0.373826
0.140808 0.232815 0.672861
0.157895 0.165345 0.367022
-0.189313 -0.197851 0.404724
0.115447 -0.139295 0.388598
-0.102053 0.228267 0.512238
0.0762056 0.0718045 0.361861
-0.207144 0.250805 0.105469
-0.164602 -0.125921 0.386657
-0.00140988 0.142069 0.296148
-0.270934 -0.00995306 0.376972
-0.137409 0.175315 0.353177
0.249373 0.20233 0.431605
-0.239144 0.208627 0.543282
-0.0413292 0.233322 0.428085
-0.13781 -0.234946 0.407971
-0.183363 0.215188 0.439818
-0.133164 -0.161579 0.344679
0.0203115 -0.0735981 0.388632
-0.167161 0.119179 0.362914
-0.00372701 -0.13295 0.36926
0.0989068 -0.143334 0.367842
0.0920163 0.213631 0.351253
0.225901 0.202928 0.532437
0.0099384 0.275171 0.294256
0.0137511 0.289366 0.512191
-0.170619 0.228124 0.607503
0.00520837 0.264843 0.455303
-0.240896 -0.229057 0.406817
0.0819434 0.239692 0.470649
0.163862 -0.1831 0.393052
0.0860922 0.00647268 0.375268
0.209978 0.226919 0.159472
-0.0977068 -0.123308 0.38663
0.210635 0.0796227 0.370157
0.233686 -0.0347315 0.389053
-0.164855 0.229258 0.538331
0.0760506 0.239934 0.425846
-0.147203 0.222548 0.670618
-0.00265129 -0.0740601 0.346102
0.00674127 0.0149457 0.316012
0.10701 0.236576 0.655063
-0.187575 0.0381125 0.383587
0.107895 -0.0612974 0.378019
-0.0218969 0.243946 0.514602
0.00867464 -0.268062 0.375316
-0.219675 0.184792 0.363085
0.261577 -0.0143578 0.377213
0.158888 0.226939 0.394552
-0.131419 0.22551 0.425056
-0.251827 0.0267239 0.384961
0.189071 -0.0600278 0.390917
0.209683 -0.139479 0.387694
-0.0818481 0.229794 0.688374
0.0864836 0.163213 0.342852
-0.171941 -0.259767 0.378971
-0.153118 -0.0614252 0.379107
-0.249744 -0.14876 0.399651
-0.000125151 0.216297 0.277772
0.136273 -0.0213791 0.384553
-0.0145299 0.233612 0.473608
0.0417554 -0.232463 0.398591
0.0486962 0.0407598 0.354459
0.131666 0.222025 0.446898
0.139169 0.223432 0.264916
-0.058761 -0.179183 0.394937
0.1815 0.222758 0.220453
0.165347 0.118512 0.361391
-0.230656 0.249248 0.0340738
-0.193181 -0.146159 0.399341
0.131693 0.223082 0.594541
-0.201858 0.219563 0.561732
-0.0168839 -0.157403 0.347465
-0.102362 0.0875122 0.365261
-0.0183953 -0.00889713 0.363714
0.0931863 -0.175083 0.359588
-0.132032 0.233657 0.260848
-0.279684 -0.100498 0.394698
0.21211 0.215541 0.638975
0.129413 -0.292155 0.354145
0.256464 0.196696 0.525015
0.0370711 -0.176776 0.394586
0.253958 -0.150284 0.388868
-0.154281 -0.206719 0.395497
0.224835 0.202878 0.592345
0.0277619 0.243416 0.606171
-0.106446 0.226876 0.60651
-0.0391887 0.221016 0.334552
0.22538 -0.166762 0.281714
-0.191165 0.21337 0.402588
-0.00527294 -0.184682 0.406037
0.218319 0.231872 0.105759
0.0032363 0.206799 0.333569
-0.228519 0.0918139 0.369035
0.184901 0.222833 0.452071
-0.0567637 -0.118024 0.396582
0.181299 -0.115543 0.395824
0.0523912 -0.0931374 0.392316
0.24281 0.0651265 0.382205
-0.0192716 0.144302 0.3378
-0.188961 -0.00867944 0.387086
0.124277 0.0610937 0.362043
0.204046 -0.178178 0.402488
0.169725 0.0714854 0.37805
0.191572 0.0414872 0.373255
0.225896 -0.212713 0.405586
0.0347137 0.00943711 0.360256
0.239598 -0.191346 0.16958
-0.0838998 0.205892 0.351799
0.0583939 0.258136 0.479176
0.116302 0.100286 0.355257
0.169253 0.21622 0.618736
-0.118186 0.144642 0.351221
0.19884 0.017618 0.375207
-0.196414 0.220291 0.636405
0.0352811 0.232993 0.437791
-0.0626812 0.0456291 0.365237
-0.0435421 -0.267556 0.362125
0.26018 -0.092848 0.393497
0.221601 0.120783 0.366265
0.0169345 -0.147716 0.401099
0.031802 0.232943 0.558119
-0.242286 -0.0539562 0.39052
0.075813 -0.0927088 0.392367
-0.212453 -0.103335 0.394909
0.070785 0.24042 0.589725
0.183003 -0.253853 0.384018
-0.23283 -0.260938 0.394131
-0.00540889 0.238554 0.386707
0.252398 -0.201891 0.0829036
0.121136 -0.048424 0.376705
-0.052455 0.232942 0.503512
-0.116099 0.0605301 0.36084
0.0103027 0.258212 0.361459
0.239503 -0.0797951 0.392307
-0.152411 0.160911 0.356864
-0.102801 -0.0712067 0.378966
0.188885 -0.238513 0.396303
0.152962 -0.159392 0.349985
-0.252529 0.125428 0.366607
-0.109365 -0.0322779 0.373415
0.0567308 0.231721 0.502057
0.109732 -0.177272 0.403954
-0.296335 -0.118535 0.396305
0.286965 -0.0742971 0.391754
-0.212663 0.145898 0.363831
-0.263143 -0.205083 0.0667208
0.186312 0.220951 0.50797
-0.124469 0.226116 0.453272
0.0448716 -0.172998 0.347832
0.194712 0.171006 0.372587
0.171107 -0.0281143 0.377095
0.026708 0.233024 0.622342
0.0058186 0.243967 0.648387
-0.0274641 0.244075 0.572955
-0.169805 0.228312 0.510129
-0.0894988 -0.164733 0.345179
0.247337 -0.186201 0.126268
-0.0831201 0.241963 0.402117
-0.0388233 -0.00723101 0.363781
-0.0688954 -0.242176 0.408206
0.0664961 -0.274713 0.370169
-0.221942 -0.154225 0.34167
-0.0615925 0.242217 0.617076
0.260075 -0.207798 0.0290131
0.222655 -0.158408 0.329172
-0.270707 0.067597 0.37177
-0.0420741 0.0566495 0.351139
0.0611056 0.166539 0.338629
-0.228784 0.208287 0.580231
-0.0680425 0.232143 0.481715
0.152937 0.216964 0.507203
0.0167802 0.0541888 0.31417
0.201409 0.103492 0.378086
0.245969 -0.249531 0.388116
-0.0501595 0.132839 0.350176
0.0158872 -0.00285633 0.346535
-0.00183577 0.244103 0.582916
0.17351 -0.284002 0.370988
0.139104 -0.097402 0.393744
-0.174146 0.21683 0.460651
0.0939053 0.22896 0.396251
-0.0453473 -0.14904 0.390726
-0.165729 0.187847 0.368241
-0.27619 -0.162244 0.390698
-0.0316125 -0.174229 0.355753
-0.0566521 0.232795 0.453719
-0.0480903 -0.0611162 0.375569
-0.237659 0.0761495 0.370554
0.255477 0.0892188 0.380212
-0.238795 -0.0906149 0.383237
-0.125503 -0.271324 0.363199
0.112303 0.23573 0.473379
-0.0112101 0.0601613 0.349321
-0.248707 -0.181949 0.117637
-0.273391 -0.235565 0.393846
-0.143273 0.00175306 0.381852
-0.161943 -0.148323 0.399719
0.00913623 0.132667 0.347903
0.000494709 0.244016 0.501276
0.131148 0.232513 0.555724
-0.0312919 0.243946 0.612518
0.0336821 0.259832 0.506463
-0.195057 0.0895984 0.368588
0.243459 -0.00587518 0.376749
0.231494 -0.102534 0.384012
-0.151965 0.0710055 0.375887
0.0176119 0.0825554 0.345281
0.288077 -0.137177 0.387384
-0.0425326 0.0955518 0.355224
0.27642 0.0261133 0.374697
-0.141198 0.232398 0.570357
-0.236714 -0.16964 0.206211
-0.0900059 0.0204177 0.373232
-0.119083 0.235917 0.583439
0.0631363 -0.242793 0.395281
0.0990531 0.227305 0.264652
0.0387243 0.256091 0.478778
-0.240397 0.200736 0.477088
-0.167987 0.232842 0.23816
0.163656 0.199792 0.365974
-0.0022609 0.233643 0.530515
0.0875584 0.228152 0.64548
-0.222216 -0.19791 0.3948
-0.0938576 0.228949 0.541982
0.043103 0.232766 0.413424
-0.0863128 0.239807 0.589689
0.188304 -0.0857014 0.382517
-0.144243 -0.17332 0.403023
0.0759251 -0.191715 0.405895
0.048441 0.0773736 0.358376
0.156928 0.2303 0.657012
-0.266866 -0.184851 0.0846925
-0.0567578 0.229133 0.246656
-0.263824 -0.13149 0.387255
-0.289272 -0.0168583 0.377533
0.0122972 -0.285158 0.342534
0.219141 0.205242 0.466367
0.00630027 0.259589 0.314
0.0657042 -0.152891 0.401541
0.25354 -0.223586 0.406588
0.129981 0.223625 0.690826
-0.0595543 0.171261 0.338627
0.209522 0.216881 0.516507
0.0909899 -0.0703048 0.378755
0.0086941 -0.0512532 0.372916
-0.0384963 0.240278 0.700882
0.143842 0.23001 0.471173
0.0138035 -0.0523004 0.338138
-0.0647153 -0.173222 0.356624
0.0673104 0.116946 0.353626
-0.274691 -0.208646 0.0296132
0.153794 -0.211354 0.395401
-0.20002 0.209559 0.587739
0.190499 0.221386 0.601286
0.121735 -0.00713954 0.381414
0.0432978 -0.0485695 0.38369
-0.123667 0.225396 0.666408
-0.0812105 0.18301 0.342097
-0.0258981 0.193162 0.345797
-0.165916 0.229056 0.422385
0.171031 0.213788 0.549549
-0.121754 0.225992 0.485333
0.0773711 0.229739 0.446681
0.228105 0.213191 0.414612
-0.014686 0.233723 0.63225
0.231537 0.133898 0.36537
-0.189886 -0.226601 0.396792
0.0840821 -0.160046 0.347275
-0.0754112 0.24191 0.510729
-0.133009 0.203587 0.350373
0.123106 0.22448 0.6361
0.0424153 0.18545 0.33645
0.123438 -0.254785 0.393686
-0.193992 -0.0735418 0.381556
-0.267137 -0.0418773 0.379275
-0.00424438 -0.0947753 0.356233
-0.139449 -0.115426 0.395948
-0.0203925 0.25959 0.488512
0.282194 -0.22021 0.403374
0.189437 0.232307 0.171745
0.155243 0.218775 0.608845
-0.0640539 0.241775 0.652315
0.145862 0.177921 0.35395
-0.115257 -0.222112 0.397165
-0.219022 -0.166071 0.286903
-0.203862 0.232111 0.100998
0.215866 0.189053 0.370247
0.121544 -0.216577 0.396372
0.0714185 0.0443541 0.355202
0.147102 0.101738 0.360559
-0.193939 0.222358 0.476622
0.030331 0.242626 0.386712
-0.00383978 0.220276 0.246942
-0.00762142 -0.162314 0.392694
-0.209196 -0.0473996 0.389999
0.0175748 0.15504 0.287234
0.0502896 0.107648 0.354009
-0.001366 -0.0299541 0.378732
-0.0735865 0.232094 0.417664
0.214086 0.247749 0.0421504
-0.26954 -0.192345 0.016137
0.16935 0.227146 0.636097
0.00629717 0.270482 0.497798
-0.21166 0.246785 0.0283635
0.0193323 0.233152 0.687889
0.0750944 0.229879 0.527322
-0.14434 -0.252124 0.385787
-0.0672605 0.10867 0.356044
0.248721 -0.176855 0.182905
-0.237737 0.201417 0.44966
-0.0869381 -0.258547 0.3776
-0.0409958 -0.103179 0.383407
0.0166652 0.0952493 0.306533
0.0722176 0.240172 0.613583
0.196482 0.210346 0.431592
0.160558 0.226811 0.689023
0.0490197 0.242329 0.592258
-0.0169176 -0.11903 0.386142
0.0528803 0.231335 0.644165
0.250145 -0.179255 0.225607
-0.13475 -0.082159 0.381323
0.0183927 0.250272 0.27735
0.0843643 -0.0163211 0.368806
0.0193372 0.233248 0.500065
0.0152853 0.27243 0.525868
-0.179801 0.0670612 0.380871
0.191669 0.226689 0.242699
0.247831 0.198766 0.463375
-0.199261 -0.176143 0.40273
-0.0833325 -0.140383 0.360532
-0.110072 0.117104 0.352376
-0.251367 0.0499342 0.372691
0.24109 -0.197671 0.404331
0.182299 -0.181561 0.392532
0.162704 -0.131068 0.387004
0.233087 0.201975 0.502234
0.0180315 0.198742 0.276316
-0.19295 0.159494 0.372826
-0.157937 0.0916278 0.36429
0.0908657 0.185594 0.342257
-0.00774883 0.0137175 0.34486
-0.0831212 -0.0248415 0.370265
0.01212 -0.00408138 0.373
-0.15089 0.221637 0.629124
-0.188749 0.0195404 0.385007
0.00344965 -0.225257 0.398272
0.148539 -0.0701541 0.39087
0.11796 0.138193 0.351054
-0.216644 0.235965 0.0542949
-0.246085 -0.192759 0.159219
0.221916 0.253927 0.0117192
-0.233586 -0.165886 0.232958
-0.0894709 0.22149 0.264472
-0.0731268 0.231131 0.565465
0.113225 -0.168429 0.34532
-0.0397325 0.263179 0.506297
0.256413 -0.177912 0.391964
-0.189582 0.22536 0.236489
0.222419 0.234585 0.0766995
0.122827 0.0171058 0.367929
-0.0195981 0.233533 0.414641
-0.185307 0.224283 0.619899
0.0853221 0.0264931 0.360397
0.0901153 -0.108075 0.395265
0.18051 0.222944 0.577327
0.0412753 -0.137146 0.388961
-0.262388 -0.0715067 0.381448
-0.0254199 0.233457 0.390908
-0.180351 -0.287059 0.367402
-0.255799 -0.177245 0.173327
0.13293 -0.183507 0.393666
0.083626 0.22473 0.244763
0.0395538 0.157448 0.34826
0.0995278 0.227146 0.522262
-0.158773 -0.0846227 0.392591
-0.210146 0.208501 0.441313
-0.0348147 0.233367 0.455377
-0.134708 0.111248 0.368118
0.0951628 -0.133652 0.398545
-0.290207 -0.18124 0.40006
-0.189597 -0.151243 0.3524
-0.0222323 -0.237498 0.39897
-0.0567814 -0.209732 0.407296
0.116169 -0.109896 0.384792
-0.227923 0.214276 0.499468
0.0353951 0.242925 0.672138
0.0804812 0.239074 0.680394
0.226006 0.212888 0.554964
0.197146 0.220145 0.467104
0.168518 -0.0622968 0.380276
-0.0619856 -0.00423872 0.364196
-0.0479522 0.243392 0.57309
-0.020323 0.215302 0.256844
-0.110219 0.179643 0.347718
-0.196089 -0.0284205 0.378128
0.012281 0.243788 0.451323
-0.170124 0.0503717 0.370591
0.185843 -0.166368 0.345269
0.140485 0.0478943 0.376662
-0.264605 0.00769193 0.386233
-0.185288 0.214405 0.513193
-0.112811 0.201398 0.357043
0.0374878 -0.018377 0.366336
0.0901378 0.0942954 0.361366
0.0234722 -0.251473 0.383992
-0.0632842 -0.138381 0.3996
0.221885 -0.164366 0.30287
-0.0202746 -0.261448 0.370571
-0.114074 -0.0967114 0.383002
-0.0287288 -0.0697875 0.387879
0.270502 0.0809076 0.370663
0.161576 0.216948 0.56873
-0.246885 -0.0119416 0.377056
-0.218683 -0.0259406 0.388423
0.235223 -0.151148 0.388977
0.207068 -0.0451999 0.37944
-0.113563 0.0333708 0.374548
0.031476 -0.165189 0.365504
-0.16087 0.230212 0.639968
0.185828 0.0687609 0.380567
0.0631758 0.241918 0.410304
-0.0896973 0.147527 0.345689
0.165308 0.144114 0.359024
-0.0237983 0.243901 0.444405
0.0246612 0.199497 0.345085
0.00414694 0.107003 0.351664
0.0864944 0.228497 0.586984
0.00577199 0.257968 0.408216
0.267522 -0.124293 0.386094
0.0111491 0.243811 0.547868
-0.102992 0.23837 0.528627
0.200301 0.239139 0.114703
0.0143758 -0.181947 0.405852
-0.142256 0.229078 0.688689
-0.00388094 -0.158474 0.376175
0.0822237 -0.235313 0.408517
0.261025 0.00343181 0.386534
0.118034 0.235384 0.583137
-0.0800525 -0.109254 0.394917
-0.0723616 0.0196189 0.360384
-0.0638339 -0.0755254 0.378935
0.0139062 0.0378612 0.353352
0.104104 0.236898 0.422563
0.0917827 0.146973 0.355416
0.0442356 0.218594 0.263094
0.141265 0.232307 0.617736
0.140717 -0.231233 0.397191
0.22214 -0.192778 0.393488
-0.101877 -0.208056 0.406637
0.061726 0.231577 0.438101
0.084904 -0.249834 0.386599
0.288807 -0.192137 0.398445
0.172797 0.213709 0.52336
0.216495 -0.155262 0.399922
-0.181621 0.23298 0.188589
-0.11383 0.23887 0.417751
0.0126164 0.276873 0.360963
0.21764 -0.266798 0.38703
0.0252427 0.234795 0.256928
-0.20296 0.00743083 0.375516
-0.0692956 -0.2725 0.370523
-0.16709 0.228816 0.660489
-0.0821941 0.0723308 0.363818
0.0448302 0.231795 0.686643
0.0454516 0.267286 0.494739
-0.0744869 -0.162307 0.369819
0.164417 -0.158192 0.400741
-0.254336 -0.19951 0.0990345
-0.0475995 0.224074 0.265457
-0.00321368 0.0440318 0.362676
0.101102 0.236819 0.495332
0.13867 0.00608539 0.370963
-0.170936 0.217683 0.593328
-0.0776035 0.223907 0.339029
0.0964846 -0.194114 0.405563
0.131119 0.222691 0.421279
0.00780447 -0.0926217 0.39201
0.106106 0.0677109 0.357912
0.163447 0.0255319 0.381908
-0.0312278 0.233557 0.556003
0.182925 -0.00620796 0.376249
-0.10485 0.227356 0.642379
0.1152 0.211399 0.345679
0.257884 -0.0333136 0.388891
0.0694751 0.189225 0.348332
0.10144 0.23744 0.556442
-0.0926451 -0.232645 0.408311
0.0803917 0.239616 0.56408
-0.0207527 -0.02325 0.367056
-0.244578 -0.187509 0.205675
0.231852 -0.185064 0.275228
0.191566 -0.131954 0.386869
-0.096434 -0.0928392 0.392581
-0.113362 0.236393 0.550826
-0.13006 -0.0232745 0.373824
0.145505 0.0760576 0.373854
0.00569304 0.0418356 0.329341
-0.0314996 0.233584 0.679014
0.0104484 0.258846 0.336732
-0.180621 0.219958 0.215
0.0567612 0.242042 0.521217
0.138859 0.220982 0.526405
0.172107 0.215687 0.407723
0.170447 0.215723 0.425447
-0.0721788 0.0543194 0.354455
0.13033 -0.276211 0.372099
0.102101 0.172059 0.356034
-0.0381833 -0.173629 0.394226
-0.189536 -0.272071 0.380738
-0.0283847 0.013864 0.358931
-0.141472 0.232997 0.477162
-0.0103818 0.192433 0.334793
-0.114544 -0.186817 0.394533
-0.201868 -0.136405 0.387772
-0.0429325 -0.287167 0.349491
0.228439 0.212301 0.574415
-0.180711 0.133486 0.373982
0.251832 0.113167 0.378026
-0.200191 0.200776 0.371508
0.128541 0.177243 0.361318
0.032858 0.091875 0.355304
-0.234719 -0.182382 0.253594
-0.113184 0.237937 0.463187
-0.135658 -0.167007 0.363339
0.00355397 0.116623 0.308209
0.0793275 -0.157186 0.369819
0.281137 -0.105366 0.384254
-0.113627 -0.288909 0.356095
0.168744 0.225778 0.457274
-0.204571 -0.162551 0.390718
-0.253063 -0.0269109 0.388579
-0.14266 -0.190609 0.404738
0.217265 0.235875 0.0601175
-0.205101 0.220181 0.419969
-0.0190223 0.233629 0.592704
-0.161202 -0.0424459 0.377833
-0.221331 0.0544887 0.382423
-0.247051 -0.179389 0.403097
0.109056 0.0249776 0.364395
0.0934342 -0.0360194 0.383496
-0.110982 0.0103177 0.367071
0.228801 0.149977 0.375409
0.0491574 0.2382 0.48622
-0.165077 0.035032 0.381824
-0.230009 0.213568 0.522409
-0.0479691 -0.243131 0.394488
-0.17347 -0.165961 0.346274
0.0276671 0.167172 0.336515
-0.266728 0.0500347 0.383355
-0.0985203 -0.155274 0.390903
0.0102266 -0.0110425 0.324308
0.194543 -0.263467 0.389652
0.187907 0.222854 0.621519
-0.142632 0.231943 0.525477
-0.24055 -0.127682 0.386856
0.189613 0.22231 0.422016
-0.0444292 0.233145 0.524599
0.201629 0.20778 0.592258
-0.158373 -0.262187 0.389234
0.0663666 -0.220682 0.407903
0.153251 -0.109825 0.385066
-0.11864 -0.120151 0.386235
-0.151878 0.231737 0.612341
-0.0102704 -0.257278 0.389491
0.00320984 0.281273 0.471591
-0.0156146 0.177009 0.335718
0.159144 0.21635 0.467361
-0.186361 0.224314 0.544867
0.105054 -0.219922 0.407085
0.274248 -0.149027 0.399194
0.123725 -0.0800394 0.391398
-0.207447 0.0942737 0.378798
-0.0323899 0.0747156 0.358079
0.157103 0.234392 0.25534
0.0154936 -0.125169 0.362324
-0.0440805 -0.234311 0.408775
0.190345 0.210677 0.488111
0.0170845 0.262642 0.428649
0.0963589 -0.260325 0.386406
0.25451 -0.180666 0.159091
0.015645 -0.0703808 0.351313
0.239692 0.107823 0.367937
-0.040121 -0.206544 0.396932
-0.133852 0.235797 0.406535
-0.2553 -0.212859 0.406908
0.0500776 -0.0372355 0.370761
-0.127417 0.16236 0.362366
-0.190366 -0.246148 0.401291
-0.14636 0.23288 0.652715
-0.219913 0.164341 0.37394
0.227144 -0.0127159 0.38762
-0.129709 0.0722922 0.37178
0.242639 -0.0491643 0.379622
-0.209305 0.235135 0.147594
0.125538 0.22204 0.469124
0.160133 -0.254814 0.392605
0.231274 -0.133731 0.387039
-0.0400894 -0.158081 0.36302
-0.224099 0.104367 0.378042
0.0245209 -0.0471392 0.38299
-0.00715487 -0.277346 0.362929
0.0358986 -0.210804 0.407363
0.0471179 0.023007 0.368302
-0.173812 -0.00996543 0.376202
-0.221695 0.260186 0.0168011
0.208802 -0.12318 0.396446
-0.200545 0.0404147 0.373062
0.0739924 -0.17285 0.404238
0.107069 -0.155551 0.401342
-0.220285 -0.231297 0.407201
0.237538 0.211622 0.440866
-0.219593 0.215254 0.545419
-0.21572 0.241448 0.0039658
0.17239 0.21532 0.596129
0.178754 0.16198 0.360207
0.0336647 -0.0915282 0.381412
-0.00948216 -0.20261 0.396791
-0.2309 0.133141 0.365231
0.124417 0.22427 0.671802
-0.0388415 -0.121645 0.39716
-0.266161 -0.0915878 0.383357
-0.0867032 -0.0720149 0.38935
-0.00379032 -0.000961535 0.36161
-0.00583154 -0.0800464 0.379251
-0.144483 -0.15515 0.400709
-0.0789366 -0.177616 0.40483
-0.0699607 -0.16287 0.402925
0.0480671 0.242296 0.614101
-0.182669 0.215262 0.492438
-0.0968775 0.230461 0.409795
0.118727 0.235424 0.611238
-0.125418 0.224499 0.625226
-0.201782 -0.162249 0.336676
-0.0410052 0.0325353 0.355479
0.148614 0.229925 0.558613
-0.148441 0.126217 0.358515
-0.135509 -0.207182 0.39579
0.0691917 -0.291373 0.350184
0.255766 -0.196017 0.0630175
0.00707769 0.204067 0.264533
0.12921 0.22295 0.571349
-0.0369931 0.233418 0.489162
0.124036 0.0408104 0.364569
0.0156489 -0.0268314 0.34035
0.242473 0.077392 0.370683
-0.170545 0.217728 0.620964
-0.061666 -0.025465 0.368642
-0.0830043 0.22946 0.663737
-0.114903 0.225749 0.565444
0.211789 -0.229588 0.407003
-0.121408 0.237152 0.437732
-0.000548049 0.261539 0.282403
0.0499115 -0.00298927 0.363461
0.0442774 0.232474 0.541334
0.0144576 0.154132 0.336498
-0.100893 0.240666 0.390515
0.176071 -0.0464457 0.379301
0.00848719 0.170852 0.294968
-0.193507 0.242937 0.173362
0.238795 0.211023 0.517176
0.0148559 0.133831 0.287566
0.144358 0.230625 0.58244
-0.0511397 -0.263429 0.380749
0.0071538 0.279078 0.317319
-0.216585 0.206645 0.486495
0.155017 -0.00481718 0.384684
-0.0089707 0.233586 0.453199
-0.0489248 0.151106 0.338618
0.259401 -0.0773876 0.381611
-0.0233793 0.243936 0.535447
0.00640304 0.243951 0.678599
-0.00881243 -0.174214 0.353211
-0.00299612 -0.0533655 0.348225
-0.127563 0.234534 0.511364
0.0384991 -0.158745 0.392062
-0.148672 -0.134546 0.398268
0.0278834 0.14233 0.348464
0.223644 0.063975 0.382104
0.0322346 0.243524 0.423843
-0.280842 -0.133713 0.387508
0.243342 0.209694 0.543425
-0.153713 -0.165311 0.345865
-0.169545 0.14568 0.361006
0.010481 -0.155562 0.357592
-0.12811 -0.0478774 0.376569
0.0731465 -0.174486 0.360083
-0.282037 0.0431804 0.382035
-0.0883582 0.102361 0.360659
-0.159253 -0.107392 0.39481
0.0641985 0.231226 0.462788
0.0714663 0.224552 0.342795
-0.245878 -0.0730456 0.391981
0.000310679 -0.137685 0.389169
0.134284 0.223066 0.245323
-0.22311 -0.156613 0.304603
0.0121978 0.243778 0.518544
-0.0888967 -0.286655 0.355014
-0.0579804 0.23244 0.55629
-0.151878 0.228036 0.263339
-0.0757356 0.232089 0.389935
-0.249387 -0.266132 0.391792
0.179647 0.113858 0.37466
0.0623396 -0.108049 0.384209
-0.102493 -0.108133 0.394762
0.10338 -0.15063 0.349001
0.0807367 0.201113 0.339291
0.0813398 0.228639 0.667102
0.169892 -0.195674 0.404269
0.219337 -0.0855658 0.382439
-0.132875 -0.286575 0.360715
-0.000767405 0.0979273 0.297095
0.141257 0.142403 0.365664
-0.192466 0.0555424 0.371604
0.216605 0.166252 0.374153
0.0053145 0.288383 0.540683
0.291172 -0.0620874 0.380455
-0.100721 0.210685 0.343904
-0.224895 -0.219616 0.396666
0.236896 -0.237509 0.407762
0.13704 0.233148 0.646588
-0.0336344 -0.159015 0.40265
0.0134604 0.233331 0.603634
0.0103402 0.223367 0.265083
-0.135686 0.21711 0.360411
-0.231197 -0.15644 0.39003
-0.0379414 0.22149 0.246525
-0.0588779 0.243149 0.426263
0.131265 0.221321 0.487201
0.0439265 0.243111 0.44067
0.109924 -0.289674 0.351601
0.251336 0.0212037 0.375009
0.0460581 -0.188571 0.406016
0.0913867 0.10591 0.349499
-0.0816361 -0.129873 0.398304
-0.0911042 -0.0390077 0.383426
-0.231374 -0.179039 0.278551
-0.0977983 0.228212 0.676102
0.260079 0.0460324 0.383657
0.0186715 0.220974 0.333341
-0.208775 0.252439 0.0836337
-0.132728 0.0292244 0.367468
-0.225917 -0.26945 0.377985
-0.152075 -0.266259 0.371856
-0.144603 0.0217145 0.380146
0.0893676 0.23881 0.532534
0.186681 0.227386 0.191349
0.0948599 0.227232 0.453016
-0.127305 -0.244768 0.391414
0.00985413 -0.089214 0.345493
0.213833 0.205452 0.606511
-0.262849 0.110961 0.37573
0.0166779 0.243637 0.578557
-0.227095 -0.0163159 0.377327
0.00613228 0.23349 0.397974
0.0140838 -0.140708 0.373786
0.236156 -0.189098 0.237655
-0.208902 0.245642 0.129834
-0.0973518 0.238163 0.697466
-0.198887 0.22127 0.459263
0.248962 -0.126699 0.386331
0.199396 0.231032 0.221976
0.134297 -0.0631978 0.379071
-0.206342 -0.08465 0.393082
0.0146376 0.0758452 0.303556
0.274645 -0.0290914 0.378127
0.102555 0.226787 0.604018
-0.0917637 0.230233 0.471803
0.0102333 0.287169 0.492975
-0.00255732 -0.0125571 0.349633
0.186175 0.128625 0.363472
-0.206556 -0.216245 0.396139
-0.187409 0.223742 0.598312
-0.114264 -0.167556 0.40284
0.15803 0.213167 0.358685
0.00391698 -0.0681276 0.376669
0.251483 -0.163062 0.400775
-0.297137 -0.077454 0.392453
-0.213433 -0.156652 0.324309
0.260406 -0.210411 0.0492772
-0.130408 0.0478899 0.364625
0.202626 0.227131 0.137746
0.0183945 0.266289 0.382927
0.258132 -0.185837 0.102171
-0.120868 0.0887586 0.357968
0.218305 0.205556 0.431776
0.136344 -0.16806 0.345006
0.0763155 0.229898 0.49171
-0.0398546 0.201677 0.335535
-0.0737747 0.159074 0.342017
-0.00420117 0.159259 0.336268
0.18021 0.0184317 0.384793
-0.0576261 0.215362 0.336073
0.0193356 0.263462 0.494112
-0.0748497 0.2318 0.462385
-0.167542 0.218582 0.409944
0.223763 0.240594 0.0211428
-0.179478 0.104144 0.366685
0.0146509 0.276105 0.415146
-0.22472 0.203617 0.554949
-0.0622891 -0.104701 0.383719
0.192105 0.222547 0.640227
0.0803772 0.217489 0.26221
-0.116706 0.215343 0.254694
0.00766917 0.0152542 0.336961
0.183701 -0.225021 0.40661
0.0671629 0.240446 0.653122
-0.210258 0.206951 0.573176
0.19844 -0.172544 0.360806
-0.224863 -0.168364 0.255288
-0.261701 -0.197333 0.117473
-0.103019 0.237751 0.625567
0.260733 0.196571 0.502272
-0.178322 -0.15726 0.400597
-0.124109 -0.154428 0.360923
-0.0519973 0.242891 0.633929
0.0435182 0.243036 0.502537
-0.233903 0.10963 0.367284
-0.256359 -0.16424 0.390912
0.203645 0.130513 0.375233
-0.23189 -0.108858 0.385013
0.0801554 -0.259389 0.375271
-0.0462317 0.243551 0.446664
0.207935 -0.19284 0.403881
0.0333536 0.238716 0.487684
-0.116396 0.236718 0.677774
-0.265618 -0.256588 0.390795
0.0105524 0.282235 0.450359
-0.26919 -0.11314 0.38547
-0.213978 0.025399 0.384755
0.241103 0.199353 0.590334
0.216622 0.245528 0.121556
0.0322464 -0.196697 0.396265
-0.15703 0.0513066 0.378603
-0.197203 0.21026 0.621917
0.196768 0.00281246 0.386613
-0.0394473 0.243702 0.398093
0.0461023 -0.0757128 0.389207
0.0767303 -0.0679185 0.388514
-0.0292421 -0.281054 0.357755
0.161021 0.0904773 0.374491
0.222548 0.20391 0.512835
0.173701 -0.0973678 0.383734
0.0310734 0.0306788 0.355444
0.0235295 0.243641 0.436764
0.158687 -0.280598 0.360072
0.296596 -0.0889873 0.393111
-0.117413 0.124711 0.363301
0.145021 0.231443 0.406235
-0.224075 -0.0580881 0.390825
0.232991 0.206369 0.605663
-0.197946 -0.118668 0.385928
0.0246958 0.233205 0.452644
0.180117 0.181053 0.36975
0.213502 0.157368 0.364059
-0.0768637 0.226115 0.245464
0.0581458 0.0618665 0.361735
0.266237 -0.209096 0.0710588
-0.119723 -0.0297487 0.384299
0.0238133 -0.280219 0.359445
0.240864 -0.193295 0.200098
-0.051072 0.243358 0.490031
0.120639 0.22293 0.26474
0.0639413 -0.162257 0.346172
-0.0456188 -0.0181896 0.376991
-0.268187 -0.216111 0.396943
0.148577 0.125263 0.357853
0.104738 0.0134033 0.376725
0.152764 -0.196546 0.404643
0.193546 -0.103228 0.384143
0.217816 -0.175509 0.391706
0.105914 -0.164795 0.367815
-0.184207 0.214425 0.579886
-0.207149 0.234233 0.0826877
-0.210346 -0.0048156 0.386857
0.086812 0.239836 0.409148
0.0194426 -0.237262 0.409041
0.0952414 -0.177943 0.393895
-0.119226 -0.171734 0.357647
-0.175607 -0.0400113 0.389252
0.252506 -0.202846 0.120946
-0.0315012 0.243925 0.593586
0.00527928 -0.245613 0.391967
-0.226307 0.250738 0.0498509
0.230015 0.248837 0.0595588
0.155696 0.217141 0.489284
0.13781 0.161959 0.353552
0.245549 -0.198761 0.140715
0.226002 0.036336 0.373916
-0.0446506 0.24359 0.464149
0.0337107 0.232829 0.593534
0.0741726 0.14809 0.351588
0.174848 0.207765 0.356937
0.0771654 0.238945 0.387961
0.275871 -0.0100074 0.387314
0.108102 -0.00653145 0.369644
-0.132389 -0.172497 0.392662
-0.205997 -0.190202 0.393903
0.169972 -0.157667 0.355458
-0.0925448 -0.0102552 0.367959
0.177469 0.215669 0.656158
0.171384 -0.214459 0.395505
-0.188204 0.187562 0.371101
-0.241026 0.210954 0.464451
0.244987 -0.0671361 0.380904
-0.0263142 -0.102163 0.393691
0.106533 0.226158 0.669591
-0.0797954 0.231209 0.497112
0.198696 0.207981 0.527581
0.01216 -0.108102 0.384241
0.162529 -0.0396817 0.388475
0.175117 0.0487175 0.37066
-0.195519 0.241806 0.115571
-0.0265431 0.243876 0.465359
-0.00276374 0.122822 0.339055
0.27982 -0.167925 0.401308
0.0347235 0.0772651 0.34706
0.279166 -0.20468 0.0167269
-0.1001 -0.172276 0.357239
0.185569 -0.162193 0.400788
-0.153319 0.220668 0.565012
0.0502759 -0.165454 0.403413
-0.140797 0.233622 0.442269
-0.064055 0.242992 0.407536
-0.282748 -0.033632 0.378721
-0.0550656 0.243229 0.51193
-0.111641 -0.0473002 0.37573
0.0387604 -0.156286 0.352108
0.0209069 0.0165576 0.368632
0.240962 -0.266296 0.385879
0.240246 0.200446 0.492019
-0.0703254 -0.227841 0.398107
-0.0560003 -0.292942 0.341462
0.213421 0.00839452 0.386251
0.156561 0.056949 0.367429
0.0165423 0.243642 0.634481
0.0943721 0.237743 0.680774
-0.205439 -0.230114 0.407514
-0.175321 -0.216909 0.395941
0.100452 0.200491 0.343318
0.206569 -0.209896 0.405324
0.186712 0.0851825 0.378918
0.08958 -0.090553 0.381796
0.259488 -0.26026 0.390935
0.266895 -0.193983 0.0372771
-0.189121 0.224048 0.425892
-0.0640799 0.120207 0.343309
0.153753 -0.0299371 0.376156
-0.222136 0.214426 0.5635
0.0366529 -0.00253778 0.373643
-0.144045 -0.0396271 0.376216
-0.215662 -0.262266 0.391257
-0.000159264 -0.168583 0.404132
-0.0698612 0.236904 0.698877
0.106566 -0.118567 0.396468
-0.173981 0.218116 0.230986
0.269815 -0.195264 0.0908547
-0.108528 -0.266587 0.368051
0.226214 -0.0557505 0.390547
-0.0952209 -0.0560061 0.375657
-0.247356 0.142897 0.375632
-0.0403516 0.233294 0.505433
-0.198208 0.225274 0.197739
0.068724 -0.2582 0.389821
0.217261 0.110337 0.377746
-0.216195 -0.170468 0.342666
0.126465 0.233467 0.433926
-0.17955 0.224984 0.397311
-0.127664 -0.0665758 0.379223
0.103984 0.0882725 0.35435
0.199493 0.221322 0.181563
-0.238777 0.00514858 0.37579
0.217464 -0.0176337 0.377544
0.0771382 0.176276 0.350423
-0.143653 0.215026 0.25567
-0.0985165 0.139741 0.358216
0.0634323 0.248091 0.492173
-0.104158 0.22925 0.454488
0.11537 0.22517 0.561003
-0.0895069 0.229186 0.604919
0.0517159 0.231762 0.579002
0.134773 0.0746634 0.361933
-0.0270411 -0.195471 0.396269
-0.161523 0.229585 0.442533
0.145334 0.116617 0.368902
-0.039523 -0.163958 0.34453
0.251412 -0.1991 0.159872
0.159355 -0.27503 0.374543
-0.056181 0.0978596 0.345139
0.00600471 -0.153665 0.391486
0.175918 0.223517 0.562744
-0.158599 0.218931 0.493345
-0.214117 -0.058049 0.380389
-0.0452266 0.243609 0.415013
0.234719 -0.163343 0.315647
-0.266792 -0.147671 0.399539
0.0674843 0.0279108 0.357533
0.174064 -0.245476 0.401508
0.188177 -0.196997 0.404217
0.00274605 0.244053 0.562692
0.215386 0.0216696 0.374948
-0.0016035 -0.122172 0.35624
-0.0687207 0.230889 0.640076
-0.0127752 -0.102779 0.383247
0.224107 0.24676 0.0884297
-0.21078 0.254417 0.0440227
0.0118698 0.230845 0.247245
-0.259561 -0.191899 0.146255
-0.128213 0.223927 0.6085
0.200275 0.218568 0.573147
-0.209369 0.207365 0.552649
0.194164 0.238528 0.15669
0.163794 0.00537694 0.374027
-0.0615175 0.243015 0.470455
0.141995 -0.276853 0.359813
-0.16289 0.000135625 0.38433
0.135378 0.220927 0.544095
-0.181371 0.236529 0.226786
-0.00560306 0.140954 0.347851
-0.191903 0.211954 0.605738
0.100666 0.237459 0.584814
-0.000998978 -0.106884 0.367566
-0.256009 -0.189817 0.0679411
0.131549 0.232727 0.513212
-0.0401992 0.0107462 0.370575
-0.273836 -0.0797855 0.392662
-0.0605699 -0.156256 0.391664
-0.0471212 0.232909 0.606199
0.044745 0.232517 0.519347
-0.27647 -0.211137 0.0124747
-0.151268 0.222004 0.407261
-0.077352 -0.243685 0.393727
0.0494904 0.231707 0.627723
-0.206995 0.20955 0.40656
-0.00749332 -0.227012 0.408471
-0.145421 0.231702 0.554173
-0.0353846 0.151257 0.348453
-0.128066 -0.266028 0.381628
0.237654 0.0492575 0.383395
-0.0788644 0.0885943 0.360977
-0.178981 0.226409 0.529867
-0.154381 -0.151572 0.355355
0.12432 0.205472 0.358361
-0.0116693 0.233645 0.506345
0.00438133 0.0592874 0.324126
-0.00830796 -0.151143 0.401595
0.276141 0.0404161 0.384089
-0.127906 -0.216801 0.406816
-0.171884 -0.083695 0.382356
0.0117658 -0.0873028 0.362266
0.109272 -0.195848 0.395035
-0.130283 0.224004 0.522603
0.0234975 -0.165874 0.393174
-0.141048 -0.0546696 0.388368
-0.0610125 0.232392 0.523491
-0.00876132 0.2337 0.56993
0.115788 -0.270002 0.377211
-0.204814 0.219243 0.516032
-0.0179447 0.206793 0.334439
0.0167285 0.0315403 0.32236
0.125759 -0.0964655 0.383015
0.184334 0.151805 0.372034
0.251176 0.208405 0.45032
0.183055 -0.274157 0.380252
-0.120299 0.102852 0.366582
-0.148547 -0.222079 0.396764
0.143857 0.232495 0.689592
0.239217 0.250202 0.017984
0.0477097 0.243042 0.400205
0.0490428 -0.288571 0.351945
-0.061215 0.0638324 0.361788
0.138873 -0.25083 0.397791
-0.237753 -0.187441 0.190712
0.0525258 -0.129804 0.398376
-0.111409 0.16405 0.359221
0.0602633 -0.182828 0.405588
0.248557 -0.0988959 0.383641
-0.00350234 0.0736622 0.357122
-0.148019 -0.238987 0.395824
-0.00196196 0.244185 0.701879
-0.191201 -0.259649 0.390722
0.110686 0.225365 0.45854
0.05822 0.229422 0.246598
-0.00570296 0.233774 0.653817
0.036337 0.229006 0.246463
-0.163379 0.170473 0.368882
0.101255 0.216609 0.250034
-0.217944 -0.148883 0.39965
-0.233386 0.251589 0.0181798
-0.130353 0.11829 0.355948
-0.138451 -0.105503 0.384127
-0.0902671 0.228568 0.633354
-0.249749 -0.173845 0.215026
0.0222208 0.285974 0.531675
-0.263768 0.0195337 0.375092
-0.0838984 0.240862 0.537025
-0.155508 -0.161927 0.390848
-0.127154 -0.128933 0.397806
0.141818 -0.00968126 0.373345
-0.0674215 0.241855 0.601909
0.0803381 -0.207324 0.406759
0.034648 0.243077 0.632329
0.229787 0.238725 0.046852
-0.167458 0.0779743 0.378025
-0.0722805 0.241074 0.667413
-0.0466198 0.0435346 0.364224
0.0114275 0.252373 0.291851
0.243643 -0.171125 0.243201
-0.24389 -0.169293 0.250885
0.0940497 0.237964 0.634015
-0.207859 -0.152605 0.349514
-0.0140023 0.114945 0.351197
-0.0310478 0.233584 0.62496
-0.148998 0.228371 0.245288
0.00129731 0.233593 0.488911
-0.167154 0.230369 0.258543
0.156209 0.181577 0.365837
0.113957 0.126766 0.361782
0.180069 0.214458 0.633062
0.14926 -0.152568 0.40026
-0.24042 -0.178221 0.163463
0.0492939 -0.250744 0.397833
-0.0661515 0.24284 0.445097
-0.0518163 0.23235 0.696353
0.142937 0.22042 0.433519
0.0724984 0.230011 0.553775
0.0833332 -0.0534054 0.386143
0.0750714 -0.27513 0.356532
0.281451 -0.0893341 0.382698
-0.102899 -0.182674 0.404861
0.0945083 -0.122609 0.386609
-0.192593 0.17135 0.361957
-0.0218619 -0.0547921 0.384457
0.0753722 0.126111 0.343153
0.0145198 0.243705 0.661892
-0.233391 -0.201682 0.405694
0.123122 0.030958 0.376168
0.248191 0.208919 0.531317
-0.137968 0.234162 0.668406
0.0945946 0.111028 0.359947
0.0642027 -0.202633 0.406787
0.0607251 -0.0468709 0.383444
0.00715776 -0.175002 0.354404
-0.190332 -0.130485 0.397572
0.0623534 0.241876 0.450362
-0.239978 0.211236 0.489173
-0.012024 0.00526854 0.329516
0.00780474 0.2335 0.620244
0.141672 -0.113051 0.395748
0.150487 -0.165167 0.364675
-0.079916 0.138765 0.354783
-0.145806 0.182457 0.364736
-0.214436 0.25735 0.0039658
0.171804 0.225639 0.440192
0.253165 -0.200029 0.394169
-0.0257482 0.0581167 0.360786
0.167258 -0.108025 0.395237
-0.090437 0.2182 0.248097
-0.269052 0.0388964 0.37387
0.20965 -0.159971 0.338171
-0.268345 -0.200061 0.0890416
-0.0973812 -0.222053 0.397461
-0.225279 -0.176349 0.298623
0.0327259 0.208457 0.334758
0.273935 -0.18268 0.402963
0.0483704 0.242028 0.663057
0.0967735 -0.239225 0.398491
-0.0185193 0.23357 0.488934
-0.284942 -0.00166536 0.376562
0.082653 -0.124028 0.397406
0.0037747 0.0876607 0.354563
0.192416 0.210942 0.613006
-0.0116181 0.233578 0.437633
0.0216213 0.243577 0.564429
0.00604626 -0.136655 0.357106
0.0756927 0.229491 0.599963
-0.15795 0.230785 0.598529
-0.269869 -0.225878 0.406283
-0.00369844 0.227213 0.340382
-0.154881 -0.180278 0.393193
-0.218472 0.242277 0.09865
-0.0874901 0.22928 0.576183
-0.0970468 0.197747 0.354617
-0.257848 0.0788114 0.381153
-0.0720398 -0.00640618 0.376074
-0.0623741 0.136947 0.341193
-0.117405 -0.0142778 0.371469
-0.19399 0.211576 0.549968
-0.163139 0.102386 0.374461
-0.0455824 0.232966 0.65127
-0.09113 -0.107405 0.383968
-0.0503087 -0.22471 0.398063
0.241913 -0.171992 0.391304
-0.15431 -0.0161823 0.385329
-0.254032 -0.0436293 0.389784
-0.259949 -0.059315 0.39094
0.104385 0.237011 0.540287
0.268615 -0.223386 0.396321
-0.0203737 0.233846 0.646788
0.204446 0.21814 0.50128
-0.0201115 -0.214035 0.397484
0.261303 -0.110034 0.384711
0.0166446 0.183217 0.277296
0.0112767 0.0529544 0.350346
0.165963 0.225578 0.515897
0.234658 -0.182369 0.290332
0.0298598 -0.133814 0.399046
0.0601151 -0.144204 0.389862
0.150992 -0.127914 0.397241
0.0580819 0.255144 0.502039
0.0863751 -0.276724 0.367136
-0.165166 0.229393 0.559899
0.0498189 0.233654 0.259608
-0.052468 -0.0464783 0.372577
0.243404 -0.174671 0.276006
0.119052 -0.0618495 0.388846
-0.0694594 0.230917 0.679033
-0.0109719 0.243949 0.40018
0.137363 0.222773 0.658153
0.204478 0.218095 0.607218
0.0361492 -0.0513791 0.373612
0.00596573 0.254448 0.269035
-0.15405 0.201237 0.354654
-0.0556766 -0.276055 0.364002
0.191101 0.213102 0.663068
-0.178088 0.00245581 0.386238
0.0506625 0.26656 0.509451
-0.200855 0.0808464 0.379958
0.209104 -0.0740499 0.391885
-0.166819 -0.251724 0.396861
0.225493 0.214215 0.478761
-0.175083 0.21671 0.636868
-0.0661222 -0.0921529 0.392105
0.0958833 0.238011 0.511909
0.254228 0.065092 0.371816
0.15331 -0.178161 0.403178
-0.195897 0.227989 0.220808
-0.0830943 -0.150619 0.349001
0.0873165 0.23881 0.436302
0.102919 -0.251277 0.397006
0.251723 -0.179575 0.210294
0.0955532 0.226716 0.468378
0.0646107 0.144204 0.34018
-0.0144865 0.233387 0.260716
0.126337 -0.177368 0.355622
0.101064 0.120237 0.349477
0.0963307 -0.0786244 0.390511
0.153081 0.229653 0.419183
-0.0911397 0.229821 0.523949
0.269582 -0.212336 0.00603066
0.040527 0.116468 0.341613
-0.176905 -0.157331 0.363648
0.00430668 0.1439 0.28206
0.0147838 0.266833 0.282361
0.171659 -0.262692 0.386225
0.290757 -0.125298 0.396643
-0.0111334 -0.157857 0.362727
0.217055 0.204311 0.565446
0.119443 -0.20396 0.405743
0.120945 -0.231807 0.39754
-0.274549 -0.195401 0.0697866
-0.0741185 -0.0644296 0.376852
-0.202816 -0.0659088 0.39141
0.00295188 0.280273 0.521445
-0.0242092 0.24389 0.424867
0.0149554 0.218322 0.278951
0.23689 -0.17294 0.221529
-0.0921551 0.060069 0.36721
0.0175613 0.264996 0.348715
0.17881 0.233371 0.247385
-0.198208 -0.275677 0.368752
-0.260982 -0.202131 0.0308191
0.0443057 0.0927591 0.345309
-0.110671 -0.239141 0.408526
0.120015 0.235096 0.69028
-0.231939 -0.158028 0.316899
0.0047492 0.15639 0.29779
0.172931 0.225937 0.604165
0.127683 -0.260634 0.375948
-0.221949 -0.0974234 0.383887
-0.0737053 -0.163635 0.349001
0.202549 -0.176687 0.346781
0.175666 0.223399 0.538749
0.169576 0.12929 0.371212
0.0272145 0.233196 0.413929
0.152759 0.152268 0.356555
-0.017639 0.0467248 0.35206
0.195704 0.240187 0.191246
0.208422 -0.267855 0.375076
-0.187879 -0.169764 0.348877
0.285187 -0.207721 0.395395
0.18712 -0.037396 0.389286
0.200054 -0.137687 0.397971
0.00135138 0.233681 0.594611
0.219794 0.24465 0
0.266199 -0.210997 0.40552
-0.137433 0.22262 0.584969
-0.00151591 0.269458 0.325046
0.0131488 -0.19532 0.396313
0.091749 0.228606 0.424999
-0.0906871 -0.137086 0.388654
-0.216542 0.205169 0.594121
0.171204 -0.13666 0.398108
0.256284 0.202706 0.542395
-0.149875 0.220216 0.518252
0.141001 0.228376 0.392049
-0.000389658 -0.105058 0.394215
-0.00465226 0.217335 0.261673
0.217688 0.098442 0.368547
0.239055 0.199948 0.554369
0.237297 -0.116348 0.385328
0.237807 0.126059 0.376569
0.218521 -0.174609 0.315084
-0.0130747 0.0209393 0.356926
0.0755498 0.0150969 0.361241
0.270378 -0.216229 0.020655
0.20704 0.207521 0.480837
0.0716888 0.230426 0.476529
-0.0825915 -0.277684 0.365848
0.107689 0.237364 0.407997
0.179466 0.21298 0.474298
-0.0615982 0.00976367 0.371772
-0.277905 0.0175734 0.385724
-0.0380611 0.0271309 0.366999
0.137594 -0.172619 0.402834
0.149632 0.22107 0.66657
0.26803 -0.0701774 0.391496
-0.283648 -0.116991 0.385861
-0.216528 -0.178907 0.403043
0.0137713 0.243729 0.696901
0.154268 0.228155 0.45432
-0.200321 0.220229 0.531995
0.0095046 -0.0573808 0.355433
-0.129863 0.235295 0.463762
0.0132664 0.233337 0.529184
-0.0959063 0.112918 0.350216
-0.106644 0.0380919 0.362194
-0.08206 -0.169011 0.393045
0.0132097 0.0209886 0.356652
0.0941468 0.0232252 0.373041
-0.228877 0.067279 0.381435
-0.182058 -0.148535 0.389137
-0.210797 0.0511633 0.372182
-0.243653 -0.183482 0.137842
0.228418 0.000486869 0.386795
-0.0478984 -0.128921 0.387886
-0.066592 -0.129817 0.387915
-0.0804338 0.241063 0.557176
0.238975 -0.183033 0.403017
0.0171042 0.27776 0.437828
-0.0239212 0.237797 0.701991
0.0656692 0.241017 0.565052
0.186968 0.220971 0.522766
-0.275296 -0.0512024 0.390382
0.212783 0.142022 0.364688
-0.164258 -0.184666 0.403822
-0.177343 0.216154 0.658777
-0.179527 0.215972 0.477995
-0.233989 0.170753 0.374772
0.236377 -0.164718 0.299912
0.254081 -0.235144 0.397368
-0.000254299 0.233623 0.515747
0.157766 -0.0499492 0.37897
-0.187523 0.224201 0.177699
0.207058 0.242518 0.0776188
-0.0357713 -0.248233 0.401059
0.00503625 0.185294 0.290014
0.228741 -0.223811 0.396285
-0.216574 0.238583 0.0395974
-0.0223915 0.0717133 0.347663
-0.0101499 0.243966 0.420455
0.23508 -0.20715 0.394789
-0.293059 -0.0272501 0.387239
-0.185777 -0.170288 0.402068
-0.0486522 0.175496 0.347552
0.26422 0.0141291 0.375465
-0.00124436 0.26927 0.301755
-0.027059 -0.0119242 0.375196
0.175213 -0.0131995 0.38662
0.0228932 -0.00766165 0.363672
0.149899 -0.0862568 0.382062
0.181421 -0.162425 0.363317
0.00408653 0.269817 0.480722
-0.182086 0.225526 0.564941
-0.0631582 0.0277009 0.368463
-0.0719135 0.223903 0.265424
-0.115238 0.0750165 0.358745
-0.112303 -0.0724536 0.390059
-0.136984 -0.0710502 0.390604
0.209965 0.248996 0.109005
-0.291901 -0.167282 0.396049
-0.0378176 0.233364 0.581609
-0.0284522 0.243865 0.501542
0.0368678 -0.244888 0.392656
0.0886171 0.238657 0.597246
-0.252964 -0.00108911 0.386692
-0.0489245 0.0826179 0.357385
0.237979 0.211533 0.426289
-0.0363551 0.118221 0.351667
0.212674 0.205203 0.538137
-0.12555 0.178389 0.361085
0.130657 0.233913 0.406624
0.0580415 0.117993 0.342437
-0.162512 0.219446 0.649631
-0.291598 -0.133879 0.398009
0.112157 0.151386 0.349043
-0.000215046 0.270571 0.412341
0.195842 -0.186851 0.392929
0.261833 -0.0473986 0.389881
0.217588 -0.207639 0.394815
0.0621053 0.23066 0.617832
0.0627969 0.0939355 0.356691
-0.0369204 0.23338 0.541204
0.00439493 -0.210808 0.397355
0.0709539 0.0586136 0.3526
-0.231537 0.0538777 0.372137
0.0198769 -0.040763 0.370822
0.258603 -0.140246 0.398221
-0.000161339 -0.292533 0.342881
0.219797 -0.124946 0.386166
-0.104017 0.00327185 0.377624
-0.118248 0.23575 0.537221
0.108515 0.200895 0.355324
0.153343 0.13484 0.368011
0.0963235 -0.0252853 0.370996
0.0192808 0.116782 0.350793
-0.0898679 -0.248726 0.387791
-0.10059 0.237956 0.590916
-0.00155267 0.0483251 0.311971
-0.0872357 0.0509399 0.357162
-0.111921 0.131638 0.350892
0.0170967 0.272326 0.306466
0.0427515 0.242458 0.476328
0.173833 0.225865 0.397659
-0.251186 -0.134509 0.398057
0.0249715 0.243545 0.543805
0.169146 0.214189 0.493503
-0.103209 -0.0225337 0.382051
0.267226 -0.157194 0.389636
0.026243 0.243552 0.507969
0.0562142 -0.222581 0.397877
-0.200269 0.245644 0.0930489
-0.198535 -0.0436221 0.379279
-0.158952 0.0401181 0.369762
0.154054 -0.220662 0.406368
0.0240974 0.0677676 0.358827
-0.167215 0.218567 0.547657
-0.0059009 -0.261523 0.37064
0.0978433 -0.16392 0.345783
0.00132827 -0.166803 0.36467
0.0425508 -0.242503 0.408833
-0.132619 0.224573 0.677664
0.0811897 -0.147037 0.359831
-0.0480571 -0.189787 0.406168
-0.153397 -0.118696 0.396276
0.127029 0.0100438 0.379692
-0.0931876 0.228351 0.618759
-0.202863 0.191178 0.361189
0.0409327 -0.0275811 0.378983
0.0644197 -0.0752163 0.389211
0.111547 0.225452 0.428052
-0.21696 0.217139 0.430854
0.104379 0.236966 0.448052
-0.121668 0.225255 0.266048
-0.123232 -0.181093 0.40437
0.247959 -0.0570294 0.390595
0.120155 0.235218 0.645085
0.112677 0.0412865 0.373249
0.0953066 -0.166939 0.40303
0.115595 -0.0229009 0.372384
-0.127046 0.224732 0.647241
0.224412 0.17832 0.374143
-0.276751 -0.193213 0.0439521
0.109658 -0.166072 0.392083
-0.194577 0.212069 0.448041
