-0.198873 -0.309138 0.111219
-0.184698 -0.0711418 0.26603
-0.196608 0.281566 0.603617
-0.223087 -0.150554 0.0212921
-0.0269542 0.249836 0.496187
0.215214 -0.229716 0.308418
-0.170983 -0.273705 0.282841
-0.133026 -0.291808 0.273578
0.142395 0.0333346 0.270412
0.21893 -0.266623 0.273901
-0.0535099 -0.206249 0.29783
-0.0498622 -0.301375 0.278509
0.100792 -0.25443 0.308688
0.220357 0.102855 0.00883805
0.142353 0.262337 0.526886
-0.0900684 0.117234 0.268069
-0.185235 0.020415 0.280642
-0.107625 -0.316331 0.24768
0.0691841 0.187645 0.317188
0.188861 0.123088 0.269596
0.223719 -0.157149 0.0169716
-0.0923112 0.303508 0.639695
0.100742 0.220687 0.425141
0.135864 0.287649 0.606495
-0.0689133 -0.030915 0.286201
-0.102798 0.179871 0.299609
-0.194405 0.229023 0.463977
0.203863 0.164153 0.00767694
-0.108018 0.250907 0.490101
-0.157547 -0.288898 0.211519
0.144234 0.3184 0.617585
-0.223724 0.274016 0.537859
0.184883 0.0910736 0.247638
-0.0931427 -0.153692 0.291846
0.01976 0.27015 0.0232105
0.0229317 -0.158485 0.292296
-0.215122 -0.295462 0.181546
0.192438 -0.286528 0.228538
0.030291 -0.294224 0.270469
-0.167857 -0.156163 0.288417
0.221795 -0.185194 0.300066
-0.223906 0.19279 0.334809
0.213091 -0.0667732 0.00579902
0.0486868 0.257703 0.518028
-0.133304 0.268461 0.0191369
-0.197986 0.154877 0.0162652
-0.0127702 0.179281 0.311442
-0.104488 0.225773 0.439698
0.158645 0.270403 0.0125855
0.16608 0.225303 0.447115
-0.0145655 0.322811 0.61471
0.188394 0.256703 0.464277
-0.033971 -0.0144001 0.275533
0.0164758 0.280159 0.574933
0.184168 0.21074 0.412161
0.222574 0.276162 0.529258
0.147958 -0.191991 0.305873
-0.173694 0.267018 0.0247061
0.195916 0.265416 0.00463598
0.218254 0.307549 0.603631
-0.200861 -0.277156 0.011591
0.0931406 -0.0458861 0.287822
-0.130108 -0.184758 0.295324
-0.200898 -0.301362 0.144263
0.104801 -0.293013 0.225632
0.0463423 -0.208892 0.298093
0.106721 0.28201 0.572445
-0.0783705 0.32306 0.618541
0.047724 -0.263502 0.306227
0.0549573 0.0257849 0.278968
0.0276628 0.207185 0.366822
-0.0200945 -0.190049 0.29603
0.082607 0.321749 0.615318
0.113065 0.107397 0.261728
-0.154696 0.161359 0.277039
-0.215335 0.185325 0.280414
0.186116 -0.0552576 0.289594
0.0668736 -0.0922132 0.284601
-0.202174 -0.229427 0.028486
0.152772 0.0462738 0.269056
0.203008 0.00993048 0.282092
-0.180404 0.249201 0.515588
-0.147949 -0.0294823 0.277739
-0.131632 0.0758928 0.273431
0.162458 0.00636682 0.282022
-0.21129 0.314826 0.621884
-0.164383 0.234409 0.450761
0.120807 0.193323 0.337885
0.17697 0.246551 0.5058
-0.105635 0.269743 0.53964
0.0224321 -0.0357365 0.277974
-0.00906668 0.0317368 0.270025
0.210465 -0.0872593 0.00492179
-0.224132 -0.207535 0.297076
0.110401 0.321992 0.638032
-0.20401 0.245996 0.00603873
-0.155119 0.189402 0.333043
0.171703 -0.126711 0.282063
0.20059 -0.258375 0.0100219
0.20291 0.117457 0.0287698
-0.195186 0.206721 0.404753
0.0475124 0.133678 0.26052
-0.0761374 0.160266 0.272144
-0.174128 0.188109 0.306667
0.00611524 0.215478 0.405557
0.141779 -0.159107 0.292249
0.200199 0.22037 0.025731
-0.21104 -0.166804 0.00496972
0.224145 0.232986 0.450506
-0.194329 0.220159 0.362388
-0.0174911 -0.287645 0.278353
0.160613 0.286738 0.586406
-0.0520621 0.247235 0.474442
0.191487 -0.0535082 0.259789
-0.151781 0.0462791 0.277177
-0.219952 -0.157281 0.298105
0.0929163 -0.187257 0.305289
-0.148451 -0.319832 0.222944
0.0376926 0.301007 0.589697
0.158022 -0.224685 0.299805
-0.0862192 0.0371333 0.277873
-0.224964 -0.304366 0.244984
0.13755 0.29199 0.0103266
-0.053341 0.287318 0.00711896
0.207591 -0.211175 0.00611147
-0.150896 0.315828 0.612248
0.0701455 0.245371 0.486957
0.0189213 0.0909128 0.270921
-0.187681 0.051216 0.250019
0.116857 -0.0546313 0.280212
0.221194 -0.307269 0.0956504
0.194258 -0.132359 0.298809
-0.212859 -0.0875257 0.292809
-0.22355 -0.315996 0.0579144
-0.0811504 -0.279109 0.286253
-0.0577898 0.0847382 0.271944
0.0945403 -0.308552 0.266756
-0.0417022 -0.31472 0.252201
-0.223421 0.125623 0.259584
0.21054 -0.0179235 0.00489178
-0.124796 0.294369 0.622453
-0.052048 0.166881 0.276982
-0.0264731 0.265506 0.52184
-0.147032 0.208518 0.383452
-0.216711 0.0103287 0.0295033
-0.169576 -0.0837746 0.292769
0.209502 0.0100616 0.0314915
0.145103 0.246662 0.485154
0.221257 0.15634 0.278468
-0.12916 -0.214126 0.298647
-0.221607 -0.240168 0.306091
0.130732 0.198456 0.371622
-0.118023 -0.28924 0.206208
-0.124505 -0.129686 0.298291
-0.00911937 0.118409 0.259894
0.149565 0.142888 0.273252
0.0822942 0.0951821 0.262944
0.0379331 0.303859 0.637714
0.0238511 0.151909 0.274235
0.211726 -0.0954583 0.0315953
0.0695665 0.197654 0.362629
-0.0507836 -0.312967 0.206548
-0.214615 0.0310539 0.0303759
0.21225 -0.139614 0.0313762
0.100213 0.272706 0.545949
0.18573 -0.157073 0.274824
-0.203052 0.111236 0.0288547
-0.165547 0.24961 0.489526
-0.183234 -0.0417539 0.287967
0.0986208 0.283213 0.031408
0.0694499 -0.320861 0.208808
0.204832 -0.298641 0.152429
0.0507987 0.230453 0.430083
-0.0806522 0.280921 0.0316468
-0.181205 0.240212 0.433596
-0.190778 0.184513 0.345011
-0.127077 0.190082 0.330747
0.0590976 0.268576 0.531746
-0.120696 -0.267417 0.30495
0.0186017 0.191223 0.32379
-0.0939775 0.289362 0.603187
0.112012 -0.032886 0.286295
-0.223742 -0.0106624 0.26601
-0.10835 -0.0946997 0.285156
-0.218407 -0.0633185 0.264228
0.0347776 -0.00508781 0.282782
-0.197341 -0.0811568 0.0178593
-0.127492 -0.298078 0.235719
-0.165958 0.315214 0.640536
-0.170267 0.099167 0.271149
-0.185274 -0.286757 0.247206
0.162078 0.266461 0.555618
0.0875714 -0.131095 0.289069
-0.105346 0.21375 0.390842
0.108185 0.283845 0.590718
0.171141 -0.0193622 0.285169
-0.224049 0.157525 0.0179037
-0.128342 0.292546 0.0252459
-0.00846201 0.222734 0.424562
-0.0190864 -0.150704 0.30086
0.0296764 -0.139208 0.299353
0.223042 -0.173588 0.281568
-0.0620891 0.198037 0.344279
0.00247295 0.242574 0.476062
0.202202 0.30063 0.581561
-0.198526 0.0817297 0.273554
-0.0970615 0.262261 0.517979
-0.0378232 0.190041 0.321657
-0.22104 0.251393 0.457622
0.205485 -0.317537 0.242934
-0.193421 0.308814 0.601919
-0.193779 0.282818 0.0159583
-0.0484536 0.271333 0.553328
0.0912192 0.168151 0.290807
0.0894346 0.27432 0.00791264
0.212182 0.0613072 0.00542309
-0.0222851 0.0608067 0.266688
0.132324 0.175725 0.312653
-0.0699987 -0.288794 0.213239
-0.218898 -0.267159 0.301274
0.22378 -0.294125 0.0311058
0.223045 -0.304526 0.178354
0.0443337 0.118854 0.260003
0.206452 -0.080886 0.292871
0.16211 0.288417 0.613945
0.222214 0.0747153 0.023543
0.114192 0.212838 0.406664
-0.206705 0.216769 0.00646025
-0.220205 -0.321938 0.124807
0.12545 0.124272 0.268262
0.177758 0.179033 0.281302
0.055816 -0.302289 0.25652
-0.00745868 -0.266207 0.294138
-0.203112 -0.250665 0
0.0328675 0.281472 0.00493317
0.0770737 0.303678 0.591998
-0.043364 0.234621 0.440423
0.19183 0.26273 0.551836
0.192511 0.319523 0.630719
-0.202404 0.194571 0.0285894
-0.00648841 0.202087 0.351969
-0.180962 -0.183682 0.281516
-0.210404 -0.282582 0.0379136
0.211307 0.156705 0.251569
0.186533 -0.24338 0.310365
-0.184778 0.165454 0.295125
-0.220741 -0.295443 0.0197871
0.091545 0.075112 0.273152
-0.219426 -0.198956 0.00843276
-0.0234624 0.279036 0.0308724
0.177534 0.0296651 0.27945
0.223501 -0.00803992 0.265016
-0.224964 0.0639886 0.261039
0.00667684 -0.230709 0.310314
-0.0581971 -0.130375 0.298375
0.205084 0.238641 0.413995
0.0515886 0.238164 0.467282
-0.173619 0.268678 0.525292
0.00925677 -0.0564749 0.289132
-0.176039 0.21863 0.38541
0.221715 -0.119256 0.292155
0.179854 0.0544219 0.276551
-0.159628 -0.253753 0.29838
-0.114246 0.213346 0.409302
-0.177537 0.098898 0.252207
-0.110277 -0.224265 0.299813
0.20121 -0.174633 0.303891
0.220343 -0.323246 0.109086
-0.198307 -0.214256 0.277807
0.221152 -0.190804 0.0107643
0.193162 0.0612657 0.246947
0.215043 -0.290036 0.222282
0.141049 -0.294141 0.270625
0.208269 0.194525 0.295072
-0.0488953 0.208502 0.389571
-0.187997 -0.305642 0.206062
-0.192651 0.2963 0.567922
-0.169051 -0.12299 0.297472
-0.133785 0.139635 0.271383
-0.088248 -0.0546426 0.280644
-0.195519 -0.309457 0.265184
0.0903472 -0.00821507 0.274879
-0.223166 0.291317 0.621452
-0.0071848 -0.32007 0.219755
0.0401378 -0.309772 0.206335
-0.0186304 -0.0498409 0.288396
0.0406202 0.275561 0.549385
0.00416642 0.253449 0.504536
0.157923 0.187737 0.328808
0.218157 -0.286718 0.289512
0.107641 0.236964 0.451887
0.144982 -0.311756 0.260512
-0.147141 -0.300672 0.240863
0.129011 0.248453 0.501582
0.170581 -0.320596 0.212593
-0.160155 -0.0521063 0.28891
-0.0598431 0.109407 0.268905
0.17307 -0.184874 0.287626
-0.129733 0.228278 0.45132
-0.197593 -0.222588 0.309662
0.175692 0.188665 0.305312
-0.0119648 0.288803 0.597147
0.224889 0.0596586 0.26116
-0.218616 0.240756 0.426365
0.0809103 0.0254114 0.27911
0.0546483 0.312426 0.597093
-0.184581 0.139489 0.273003
-0.157121 -0.294098 0.286702
-0.0324726 0.145288 0.263187
-0.0744827 0.185656 0.312097
-0.0275283 -0.0881079 0.293164
0.154225 -0.102793 0.285935
-0.0542455 0.319481 0.60782
0.010199 -0.00762491 0.283096
0.213927 0.227714 0.386696
0.204718 -0.316516 0.0374201
-0.110584 0.0430766 0.269389
0.147096 0.305238 0.596906
-0.148434 0.191709 0.357884
0.11728 -0.303549 0.246526
-0.174011 -0.223939 0.309827
-0.187932 -0.0040057 0.256024
0.205725 0.139109 0.273734
0.209123 0.245204 0.508846
0.17143 -0.288806 0.213423
0.189461 -0.26155 0.273841
-0.0840127 0.270269 0.013362
-0.222764 0.274803 0.57067
-0.00106772 -0.104182 0.285877
-0.173047 -0.196929 0.306521
0.158297 0.313229 0.641271
0.164646 0.20222 0.386374
-0.199105 0.275468 0.512932
-0.211011 0.153199 0.249606
-0.219985 -0.31626 0.218945
0.171048 0.127524 0.255629
-0.0509403 0.289846 0.601759
0.0250637 -0.299893 0.239288
0.13305 -0.291414 0.222458
0.109889 0.045161 0.276854
0.20377 -0.245176 0.0291383
0.186648 -0.0815186 0.265671
-0.0573316 -0.319223 0.231511
-0.20605 0.191173 0.364995
-0.148304 0.00781921 0.273519
-0.00259278 0.15125 0.265246
-0.053537 -0.178787 0.3043
0.0188484 -0.215225 0.308746
0.0720939 -0.267145 0.305095
0.0348682 0.283197 0.569383
-0.147403 0.281505 0.0318852
0.187264 0.0164572 0.25423
0.00208313 -0.293283 0.271903
0.0427474 -0.0980621 0.2853
-0.126435 0.0548916 0.268151
-0.208949 0.199176 0.307782
0.108687 -0.106474 0.286205
0.045879 -0.0418994 0.278801
-0.0718777 -0.256397 0.30815
0.224175 0.217268 0.0188012
-0.20874 -0.205873 0.0311905
-0.215159 0.105906 0.244032
-0.114704 0.0806282 0.272665
0.0938823 0.187816 0.338533
-0.0454266 0.0112555 0.272587
0.127691 0.221733 0.414343
0.222735 -0.274262 0.0160605
-0.150251 -0.141182 0.290374
-0.0930808 0.199363 0.350067
-0.0445764 -0.0348006 0.277966
-0.223485 -0.053845 0.0203033
0.199892 -0.150145 0.0117298
-0.03289 -0.235357 0.300463
-0.18326 -0.276535 0.300345
-0.0794581 0.251178 0.486428
0.0634337 0.11968 0.26764
-0.130888 0.166014 0.291225
0.197426 -0.0745001 0.0177205
-0.0730003 -0.16744 0.302911
0.103134 0.290265 0.00834152
-0.213412 0.0149725 0.280458
0.0817726 -0.161728 0.292612
-0.21665 0.0399801 0.251994
-0.215296 0.230323 0.394952
0.105837 -0.233975 0.31042
0.0799461 -0.0287628 0.277262
-0.187368 0.263522 0.00757162
-0.223916 0.255956 0.484989
0.218082 0.264925 0.563077
-0.0624217 -0.0942195 0.29395
0.199995 0.136079 0.0115303
0.195895 0.238124 0.0175146
-0.205159 -0.157006 0.029717
-0.109668 -0.186223 0.305211
-0.0883263 0.0175339 0.272187
-0.178111 0.275766 0.584774
-0.223173 0.0852842 0.263302
0.016778 0.293767 0.0222547
0.210963 -0.19389 0.0319039
-0.203074 -0.0906871 0.263959
-0.199508 0.256031 0.536593
-0.151292 0.120282 0.260967
-0.154348 -0.16791 0.30297
-0.220351 0.029796 0.00898753
-0.204055 0.0672101 0.007568
-0.224392 0.202935 0.356962
-0.19027 0.218423 0.435159
-0.128748 -0.31759 0.242401
0.0349406 0.0263981 0.278892
0.051341 0.211243 0.378997
-0.0799236 0.136957 0.269074
0.0643395 0.285329 0.590743
-0.0618839 0.0322006 0.278453
0.197515 0.0389674 0.0193313
0.185368 0.264402 0.490988
0.134343 0.0864742 0.264317
0.165771 -0.257746 0.295167
-0.204481 0.0619127 0.27597
0.0731118 0.293615 0.61275
0.160505 -0.179369 0.294663
0.0243262 0.228384 0.423082
-0.172556 0.201706 0.346509
0.0578683 0.0708186 0.26568
0.10103 0.250795 0.487662
0.00879028 -0.0773451 0.282775
0.0101652 0.197396 0.3586
-0.216007 -0.295809 0.205389
0.033703 -0.179223 0.304297
0.0540439 -0.278853 0.286469
-0.0575982 0.215309 0.407785
-0.140976 0.222734 0.439155
0.0950949 -0.319612 0.206989
0.0138955 0.0375497 0.277515
0.136184 -0.222375 0.309627
-0.18174 -0.256817 0.282704
0.0485192 0.292154 0.0261642
-0.189398 0.197496 0.302042
0.173265 0.0914662 0.272092
-0.0156926 0.302863 0.634016
0.180277 0.179791 0.330241
-0.0847224 -0.311732 0.26053
0.181618 -0.233096 0.286169
0.197747 0.192001 0.017004
-0.110658 0.131166 0.261105
-0.0581879 -0.0744483 0.282766
-0.176078 0.0560509 0.276317
-0.218565 -0.301881 0.12455
0.200256 -0.307752 0.0892343
0.212024 0.264852 0.016357
0.196749 0.218285 0.434794
0.092263 -0.288095 0.277846
-0.106258 -0.0745216 0.282876
-0.0508882 0.285694 0.576331
-0.215622 -0.102893 0.0299601
0.197812 -0.275085 0.00814888
0.0415446 -0.293265 0.226139
-0.223291 0.271546 0.51949
0.223303 -0.309286 0.131066
-0.0153385 -0.28932 0.205052
-0.005748 0.268627 0.0195467
0.180662 0.286345 0.00877842
-0.0316332 -0.203859 0.307369
0.00100406 -0.206321 0.307646
-0.116012 -0.0347804 0.286675
0.109449 -0.27187 0.291235
0.2155 0.256253 0.463912
-0.156557 -0.272585 0.30234
-0.115637 -0.319787 0.223616
-0.033973 0.168645 0.289538
0.0697029 0.172877 0.297979
-0.174125 -0.320235 0.217264
-0.0867954 0.0937912 0.270938
-0.0072054 0.280942 0.576401
0.0667607 0.223735 0.413028
-0.0141077 -0.174297 0.294135
-0.127816 0.248399 0.503339
0.137748 -0.0722313 0.282306
0.0301649 0.238375 0.466668
-0.0832883 -0.269742 0.303778
-0.197961 -0.157807 0.301867
-0.216465 -0.305051 0.0782375
0.221157 -0.0750431 0.0260789
-0.101016 0.283031 0.573975
0.135311 0.212704 0.391468
-0.176631 -0.0949175 0.274863
-0.170086 0.00225506 0.282604
0.126792 0.171593 0.286423
-0.221266 0.000619411 0.0111771
-0.133176 -0.00578922 0.275073
-0.197898 -0.309984 0.0520157
-0.0639657 0.208637 0.372543
-0.126219 0.284856 0.597966
0.222185 -0.0395678 0.0132298
0.206673 -0.279352 0.254613
0.221091 0.0475692 0.010601
-0.10495 -0.285516 0.29432
-0.144518 0.300213 0.593677
0.219617 0.0989129 0.0283287
0.145005 0.22137 0.433382
0.0625051 -0.0745878 0.291369
-0.121062 -0.108859 0.286746
0.0156931 -0.250223 0.309637
-0.121127 -0.302266 0.256574
0.156269 0.231134 0.460583
-0.0633703 -0.216108 0.308868
0.219473 0.192116 0.360438
-0.022075 0.00485326 0.281654
0.197007 0.113951 0.24109
0.0570474 -0.226419 0.300106
0.0644824 -0.190435 0.305682
-0.218383 0.131689 0.0288039
-0.166194 0.261796 0.545982
-0.169853 0.234698 0.475437
-0.188474 -0.0961329 0.29446
-0.071585 0.0678371 0.266093
-0.148482 0.0943815 0.263701
-0.0241943 0.241249 0.473644
-0.0784452 -0.238414 0.300531
0.129555 0.0523776 0.268124
-0.0870081 -0.182692 0.295132
0.179767 -0.30181 0.278034
-0.0248638 0.219145 0.398298
0.0464423 0.175851 0.304426
0.1778 -0.102781 0.274685
-0.0324559 0.274014 0.00804428
0.0598287 -0.144387 0.299993
-0.086831 -0.0126064 0.283961
-0.215747 -0.0383673 0.00691794
-0.154991 0.256486 0.514109
0.00378665 0.180766 0.295085
0.028749 0.141205 0.269672
-0.198787 0.0472884 0.0225123
0.21332 -0.249255 0
-0.0801963 0.174333 0.28679
0.223092 -0.231189 0.287595
0.0122335 0.179807 0.312817
0.0788446 -0.207953 0.307846
-0.160023 0.145387 0.266762
-0.183171 -0.0158871 0.284908
0.166178 0.260817 0.518739
-0.0708618 0.227318 0.422559
-0.17681 -0.29312 0.2259
-0.147039 -0.217283 0.309013
0.221573 0.285838 0.61633
0.18373 0.156171 0.255391
0.220639 -0.210049 0.027306
-0.198218 0.0925105 0.0211503
-0.177156 0.17885 0.327925
0.181248 0.277215 0.588131
0.0879448 0.284408 0.589497
0.176367 0.24101 0.4453
0.205987 0.226368 0.458167
0.200872 0.157592 0.0273639
-0.109062 0.186635 0.31879
0.172082 0.208451 0.365804
0.042173 -0.124983 0.288409
-0.013877 -0.317442 0.243452
-0.0327702 -0.136677 0.299146
-0.074945 0.28089 0.579558
0.0224748 0.215358 0.388286
0.197688 -0.293411 0.0273827
-0.178415 0.0344563 0.258882
-0.145331 -0.311677 0.260664
-0.101384 0.273848 0.0287336
0.206743 0.29563 0.6423
-0.0463823 -0.288983 0.210303
-0.126255 0.209534 0.383135
0.117225 -0.187442 0.295545
0.216907 -0.0466466 0.261721
-0.221437 -0.130263 0.294096
0.224031 0.246759 0.481138
-0.117868 -0.294874 0.28583
0.0745298 -0.243457 0.310356
-0.181498 -0.138824 0.276071
-0.213987 0.224348 0.454438
-0.207015 -0.0323117 0.0304837
-0.111095 0.324286 0.626636
0.0541998 0.166211 0.287
-0.216113 0.207951 0.407433
0.185617 0.198138 0.378983
-0.0231053 -0.111865 0.296079
-0.0687555 0.264388 0.536235
-0.060886 -0.00747395 0.283332
0.0259499 0.00478961 0.281562
0.128375 -0.24392 0.300189
-0.0231335 -0.30195 0.257224
-0.202981 0.115612 0.00801329
-0.152423 -0.0943703 0.285076
-0.0302838 0.111922 0.26075
0.00126778 -0.301823 0.243119
0.0107654 0.298853 0.587909
0.125834 -0.112576 0.286893
0.0170036 -0.315308 0.206703
0.0914555 0.23942 0.472576
-0.10835 0.0997973 0.262657
0.220009 -0.113491 0.270462
-0.175615 0.226708 0.408078
0.090528 0.318516 0.63933
0.0740732 0.226844 0.438899
-0.00416348 0.0840657 0.263886
0.113481 -0.319899 0.222258
0.081563 0.203949 0.379636
-0.00663865 -0.245896 0.310096
-0.0911674 0.185931 0.313988
0.143177 0.162764 0.277514
0.14097 -0.00931323 0.283615
0.109442 0.263545 0.523175
0.189618 -0.133591 0.269302
0.0106156 -0.289696 0.291099
-0.205506 -0.202298 0.307218
-0.0622358 -0.0534785 0.280326
0.121417 0.296072 0.625892
-0.00683018 -0.0379176 0.278157
0.0758372 0.133101 0.268218
0.211838 0.206333 0.32774
-0.106804 0.237033 0.469491
-0.106481 -0.171613 0.29386
0.184706 0.258538 0.0221108
0.053763 0.14846 0.264649
0.12942 0.0169513 0.27213
0.0219579 -0.0880996 0.284092
-0.213206 -0.286537 0.240653
0.0263587 0.0716143 0.265443
0.0724074 0.189314 0.341025
0.173102 0.227618 0.415538
0.202194 -0.165128 0.272341
-0.153911 0.272236 0.00878966
-0.0362486 0.283525 0.584551
0.196245 -0.27483 0.301221
0.213867 0.121228 0.268615
-0.186235 0.0745455 0.248504
-0.0836272 -0.318585 0.235983
0.00226229 0.238964 0.449983
0.0234118 0.193137 0.348235
-0.215013 -0.179422 0.302779
-0.106679 -0.128344 0.288964
-0.0225461 0.200447 0.367116
0.154475 -0.0652921 0.290403
-0.156676 0.281804 0.581348
0.0143133 0.325815 0.622724
0.136877 -0.267703 0.304817
-0.0698012 0.0473299 0.268482
-0.219828 -0.244302 0.0282141
0.0673766 -0.29913 0.237768
-0.0800301 0.296207 0.619771
0.151028 0.276017 0.565652
-0.0512981 0.0651019 0.274341
0.0106118 0.301456 0.630121
0.22219 0.180097 0.0132305
-0.075106 0.292557 0.0116485
-0.213985 0.275207 0.589758
0.0883071 -0.0836361 0.292487
0.0775197 0.326916 0.636211
-0.114031 0.00157358 0.274259
0.171543 0.072119 0.259689
0.153304 -0.294349 0.286438
0.133954 -0.315534 0.206718
0.117915 -0.292436 0.205161
-0.123435 -0.241483 0.300462
-0.0935151 0.0523824 0.268117
0.221966 -0.156165 0.29608
-0.191719 0.314189 0.640909
0.119045 -0.134013 0.289375
-0.17012 0.179211 0.2905
-0.020896 0.12893 0.267323
-0.081677 -0.217741 0.299103
0.162041 0.0231717 0.271737
0.0641045 0.285119 0.00621431
-0.0752589 0.243341 0.465373
-0.194944 0.241423 0.497049
0.201359 -0.320871 0.208786
0.223598 0.209549 0.370439
-0.17646 -0.29811 0.282179
0.221901 -0.208708 0.302699
0.118389 0.230337 0.435846
-0.138403 -0.139835 0.299533
0.128034 0.270002 0.544544
0.00997628 0.164377 0.283774
-0.224295 -0.276942 0.00122575
-0.185519 -0.274254 0.267574
-0.201979 0.18003 0.00842856
0.028175 0.289299 0.599316
0.211169 0.246517 0.00312539
-0.072189 -0.110922 0.287027
0.032927 0.103215 0.269492
-0.107193 0.194213 0.33897
-0.153535 0.215284 0.402676
0.0693103 -0.312048 0.259686
0.221235 0.15153 0.0109429
0.0249727 0.259669 0.506406
0.222931 0.290563 0.574506
0.167126 -0.298042 0.235597
-0.117476 0.26008 0.51644
0.0688349 0.00726745 0.281255
-0.0542492 0.186467 0.313098
0.00805862 0.11007 0.268555
0.198211 0.0984933 0.0158541
0.0576195 -0.244178 0.300159
0.126492 0.238937 0.476432
0.00234198 0.271325 0.55108
-0.139953 -0.290335 0.22037
0.119945 0.279735 0.00565429
0.0839399 0.275299 0.55083
-0.197611 -0.0110022 0.0171948
0.104716 0.0952614 0.270811
-0.0659052 -0.309044 0.265908
-0.0568465 -0.294831 0.229266
0.0918267 -0.0664012 0.281595
0.197561 -0.108768 0.0194634
0.202145 0.182275 0.340255
0.135068 0.0686282 0.274328
-0.122485 0.174873 0.309244
0.0881116 0.154292 0.26829
0.223929 -0.295694 0.269277
0.0368227 0.228421 0.441067
-0.0746876 0.185274 0.330521
0.210192 -0.325367 0.128541
0.220694 -0.321281 0.0519392
-0.214029 0.210928 0.342294
-0.018208 0.272443 0.539909
-0.224778 -0.075676 0.279249
0.00350199 -0.299225 0.205624
0.222128 -0.0320165 0.280423
-0.218018 0.170254 0.264556
-0.0182099 0.322662 0.6378
0.183013 0.209765 0.347903
0.222845 0.227466 0.414715
-0.138975 -0.26462 0.294949
0.190788 0.234124 0.399955
0.0344044 -0.291929 0.289157
-0.211556 0.062828 0.247325
0.0877382 0.118634 0.267876
0.0202678 0.318133 0.602542
-0.221334 0.236767 0.0130207
-0.0226145 0.197373 0.340265
-0.191749 -0.0520437 0.259626
0.210914 0.100231 0.271439
0.0468375 -0.152129 0.291538
0.223907 0.259738 0.515069
-0.035128 0.294323 0.0159015
-0.178497 -0.139966 0.299549
0.0508873 0.245059 0.485206
0.100592 0.0583289 0.267185
-0.194082 -0.168625 0.272692
-0.0675406 -0.290317 0.27529
0.160757 0.248549 0.493565
0.221583 0.122845 0.0117771
-0.0911581 0.250802 0.50219
0.0934068 0.188243 0.320414
-0.216787 -0.223178 0.281351
0.0592668 -0.0328022 0.277749
-0.199189 -0.303205 0.170365
0.0943171 0.292155 0.610335
-0.097891 -0.0316176 0.286288
0.221248 -0.052883 0.285131
-0.197711 0.237188 0.0228714
0.00664818 0.279267 0.005853
0.108149 0.132693 0.268709
-0.212648 -0.107421 0.295249
-0.102387 0.224618 0.419095
0.18898 0.173201 0.263104
-0.182813 0.199726 0.384308
-0.0614367 0.29292 0.0243272
0.202093 0.281515 0.529684
-0.220565 0.0534119 0.0273627
0.0949176 -0.206426 0.297759
-0.104213 0.0256709 0.271385
-0.0281649 -0.0306671 0.28607
0.20054 0.00388905 0.0101873
0.140501 0.1918 0.355711
0.156333 -0.144087 0.290629
0.141809 0.190742 0.334078
0.167574 0.316184 0.616479
0.0442819 0.00781664 0.272982
-0.010792 -0.206187 0.297865
-0.132331 -0.0956598 0.294126
-0.135144 -0.0418903 0.287545
-0.122784 0.269795 0.543352
0.0630735 0.252249 0.504525
0.207924 -0.231978 0.00597326
-0.068325 -0.194894 0.296531
-0.0490444 0.262219 0.514196
-0.194825 0.188249 0.279832
-0.106353 -0.305847 0.271308
0.0377259 0.164494 0.274713
0.216474 0.20198 0.0296359
0.152536 -0.319949 0.221631
0.0879217 0.275936 0.567431
-0.200892 0.248782 0.51751
0.17863 -0.319154 0.23248
0.0697089 0.24395 0.466865
-0.150603 0.0776083 0.265621
0.0332479 0.269249 0.532259
0.093515 0.313593 0.598603
0.199249 -0.293527 0.287367
-0.0539942 0.23503 0.458946
-0.170319 0.268255 0.563638
0.0408886 -0.0578588 0.289302
-0.105572 -0.299862 0.239252
-0.108885 -0.206578 0.307702
0.216139 -0.135128 0.00706055
0.046108 0.038573 0.269395
-0.200293 0.245117 0.431112
-0.117745 -0.152347 0.301064
-0.101793 0.318286 0.608779
0.10516 -0.120139 0.296996
0.203754 -0.0259566 0.256842
-0.216075 0.25955 0.548411
-0.0619375 0.327143 0.628585
0.095675 -0.30357 0.249766
0.223 0.0289904 0.0216283
0.213661 -0.161306 0.0307929
-0.197962 0.0329899 0.250121
-0.145759 0.0256848 0.279539
-0.134097 0.207055 0.396589
0.196627 0.251424 0.522794
-0.0836309 -0.298606 0.281627
0.153675 0.196795 0.370643
-0.162371 -0.101932 0.294894
-0.208032 0.180296 0.336348
0.221972 -0.249565 0.304384
0.0462399 0.190776 0.324198
-0.0933139 -0.0986764 0.294495
-0.14778 0.230714 0.461311
0.0521653 0.108702 0.268915
0.137515 0.282936 0.580452
-0.0256343 -0.319551 0.226962
-0.221058 -0.324196 0.0760867
-0.111029 0.309127 0.642805
-0.0243457 0.0450995 0.276691
0.166416 0.175332 0.316606
-0.0637408 0.311235 0.642029
0.215782 -0.136739 0.297422
-0.123902 0.278389 0.00622341
-0.224174 0.225497 0.416025
0.194423 0.312584 0.612367
0.146329 -0.302012 0.243473
0.153741 -0.291533 0.222691
0.197558 0.204674 0.398807
-0.0245121 0.0209649 0.271356
-0.200274 -0.296641 0.0422853
-0.128257 0.157299 0.272317
0.168123 0.197543 0.344125
-0.207803 0.291034 0.556829
-0.0284955 -0.27077 0.291792
0.222768 0.0787099 0.265257
0.110904 0.18734 0.320556
0.187501 0.148085 0.277593
-0.177089 0.284003 0.00635273
-0.0622751 0.270872 0.0118993
0.14295 0.324278 0.63642
0.204177 -0.325744 0.0956103
0.0572517 0.30267 0.635558
-0.174685 0.313972 0.612072
0.18984 -0.0923889 0.29403
-0.0903727 -0.289295 0.205384
0.199517 -0.302426 0.170744
0.167923 0.280192 0.567673
-0.213498 -0.0598016 0.00598836
0.0199188 0.246703 0.471614
0.219566 -0.256576 0.0283509
0.100673 -0.165625 0.293043
0.218283 -0.192961 0.278595
0.0561017 -0.295483 0.285154
-0.0489525 0.247976 0.492399
-0.0352742 0.259324 0.505811
0.162463 0.156405 0.273101
-0.219591 0.219457 0.371305
0.0129405 -0.124179 0.297497
-0.0624529 0.148213 0.264664
-0.0381541 -0.296954 0.265783
-0.0352408 -0.182048 0.29511
0.0373545 0.202426 0.354708
-0.223993 -0.035594 0.269267
0.219578 -0.296365 0.192753
0.0748146 0.262459 0.516276
0.196571 -0.197758 0.3066
0.05747 -0.298593 0.205581
-0.201067 -0.185256 0.00883595
-0.202724 -0.0382399 0.287789
-0.207726 -0.325107 0.0520775
0.118813 0.289206 0.0289162
0.188037 -0.277412 0.261067
0.169012 -0.0932265 0.293876
0.0356718 0.277817 0.0303724
0.159913 0.295211 0.631537
0.222838 -0.279933 0.00061493
0.0551486 -0.110315 0.295783
0.222838 -0.106299 0.0220045
0.0520137 0.280259 0.576936
0.0666659 0.21562 0.391468
-0.205972 -0.0129468 0.255338
0.102725 0.268895 0.0202004
-0.141395 0.186765 0.343687
0.161033 -0.205469 0.307538
0.0730504 0.0786914 0.272636
-0.18167 0.291908 0.627533
-0.222864 -0.253632 0.284503
-0.163883 -0.315407 0.206711
-0.220634 -0.316698 0.175105
-0.198345 -0.108468 0.0214309
0.146875 0.271786 0.0271534
-0.0788366 -0.0436298 0.287758
-0.0839281 0.207151 0.388016
-0.190655 0.235622 0.480979
0.204159 0.155948 0.28493
-0.0427524 0.192175 0.346703
-0.22583 -0.190052 0.290799
-0.121707 -0.0819362 0.283699
0.171197 -0.00280274 0.268373
-0.201669 0.212693 0.421602
0.124346 -0.0169702 0.284428
0.194383 -0.0322301 0.286972
-0.0332408 -0.301429 0.242347
-0.209946 0.130821 0.271274
0.0683838 0.268476 0.547048
-0.0978212 0.165629 0.277235
0.205927 -0.0357929 0.00680272
-0.0256585 0.229479 0.42586
-0.220296 -0.306267 0.262778
0.0893853 -0.272979 0.30215
0.145195 0.207259 0.37881
0.00928615 0.078366 0.272472
-0.198322 0.301995 0.584497
-0.172326 0.0334327 0.278946
-0.125568 0.245011 0.478097
0.132947 -0.0517406 0.288668
-0.212323 0.16438 0.00551002
-0.00248617 0.264846 0.534168
0.116902 0.270327 0.556784
0.122497 -0.0701824 0.290849
0.160937 -0.116165 0.29658
0.144915 0.0166197 0.280597
-0.149402 0.323061 0.631267
-0.213617 0.174416 0.318304
-0.223872 -0.307458 0.0416918
0.0285233 -0.0191533 0.276063
-0.103617 -0.301958 0.205811
0.0747369 -0.0672459 0.28171
-0.207274 0.258105 0.467633
0.110432 -0.309056 0.206287
0.215781 0.0435659 0.0299258
-0.132852 0.317859 0.614037
-0.141691 -0.193757 0.306133
0.0255078 -0.191739 0.296133
0.17251 -0.171643 0.303359
-0.11908 -0.27576 0.288881
0.145839 0.266953 0.553577
-0.041329 -0.282914 0.283273
0.148931 -0.0511642 0.280039
-0.00907157 0.169211 0.289503
0.0366837 -0.302972 0.252902
0.0854345 0.248824 0.496698
-0.145495 0.296846 0.633087
0.185703 -0.183109 0.277771
-0.15402 -0.069975 0.282314
-0.224198 0.0140746 0.264487
0.124747 -0.197227 0.30652
-0.19626 0.296872 0.643411
-0.208626 0.146696 0.0311508
0.172495 -0.149073 0.283999
-0.190111 -0.0591272 0.290105
0.108822 0.172179 0.285675
-0.0889266 0.301661 0.590919
0.118205 0.204742 0.386164
0.198211 -0.0190211 0.0210244
0.0415675 -0.272132 0.291095
0.217732 -0.101766 0.292477
0.215743 -0.287883 0.240078
-0.129228 0.0389247 0.270018
-0.177485 0.260861 0.496671
-0.17057 -0.300414 0.205706
0.22183 -0.321736 0.0851634
0.123307 0.14389 0.26454
0.0653807 -0.208615 0.298042
0.171152 -0.234321 0.310431
-0.0799671 0.264631 0.522193
0.17447 0.258415 0.536799
0.220254 0.186038 0.284981
0.215257 -0.245706 0.280904
0.0505614 0.196651 0.358938
0.0786897 0.279 0.574959
-0.166999 -0.0189094 0.273447
0.125195 0.255847 0.520282
0.222826 -0.177168 0.0220199
-0.161973 0.187629 0.349033
-0.19998 -0.2816 0.29734
-0.201368 -0.318724 0.162096
0.177125 0.231556 0.466
0.216881 0.0795386 0.00735843
0.189082 0.271111 0.573532
-0.213051 -0.323488 0.140901
-0.113942 0.16767 0.292086
0.0848157 -0.297827 0.235182
-0.213685 0.282129 0.608132
-0.0706226 0.316888 0.601751
0.0192618 0.214966 0.404965
0.210813 0.0609658 0.247191
0.0793319 0.304702 0.641928
0.165211 0.0650067 0.275122
0.168847 -0.132235 0.298557
-0.167223 0.171959 0.30812
0.0560442 0.278305 0.557436
0.0369423 -0.317583 0.242575
0.17637 0.0530334 0.258236
0.201693 -0.0527751 0.00856788
0.194874 0.0325724 0.279317
0.128787 0.0403817 0.277591
-0.174397 -0.164292 0.302527
-0.10927 0.200531 0.356332
-0.115761 0.220206 0.427476
-0.224513 -0.142468 0.281889
-0.223708 -0.0565157 0.279485
0.0363249 0.296687 0.618955
-0.183627 0.261034 0.547521
0.224062 0.150851 0.262052
-0.0243334 0.18293 0.301998
-0.0945422 -0.295053 0.269032
-0.042533 -0.0820087 0.283503
0.216967 -0.30194 0.116561
-0.0600087 -0.151204 0.300924
-0.21373 0.131173 0.243697
-0.120356 -0.306822 0.20614
-0.0321045 0.290078 0.601452
-0.198723 0.0299358 0.0223554
-0.174196 0.196018 0.327912
-0.0488003 -0.0221182 0.285106
0.107434 -0.197163 0.306513
0.147682 0.29138 0.618842
-0.217601 -0.302994 0.107204
0.203122 0.113222 0.00798296
0.0924012 0.0122117 0.280757
0.20377 -0.300763 0.133197
-0.169549 -0.0484031 0.274903
0.01257 -0.200953 0.29721
-0.166312 0.116869 0.269008
-0.0686265 0.216664 0.39413
0.174859 0.0280506 0.262161
-0.117758 0.271513 0.561506
-0.0910804 0.240688 0.475833
0.00476097 0.204118 0.375836
0.2014 -0.320478 0.142623
-0.052499 0.262487 0.53044
0.139371 0.131685 0.26171
0.213881 0.120322 0.242571
-0.0744727 0.257114 0.501913
0.219959 0.277136 0.594918
-0.198645 -0.302629 0.191973
-0.00643406 0.247816 0.489919
0.200263 -0.124044 0.0108369
0.0946295 0.20711 0.388889
0.00991362 -0.0235712 0.276494
0.0705981 0.268199 0.0183593
-0.185872 -0.202477 0.279873
0.22368 0.0106717 0.263454
-0.0610495 0.276584 0.567641
0.177503 0.110166 0.269932
0.012879 0.25445 0.491837
-0.172912 -0.293218 0.257267
-0.119841 0.272965 0.028369
-0.209705 0.27957 0.526224
-0.223752 -0.290174 0.254496
0.00584595 -0.291452 0.222548
-0.152903 -0.1286 0.298158
0.111493 0.201015 0.356964
0.221758 -0.0580089 0.024628
0.110048 0.322252 0.620952
0.135974 -0.137527 0.289764
-0.0813683 -0.13603 0.299067
-0.205513 -0.293426 0.0124257
0.128235 0.316514 0.640061
-0.216807 0.308867 0.606916
-0.197384 -0.216044 0.0191085
0.0235419 0.048365 0.268147
0.1981 -0.194249 0.0207785
0.215085 0.244711 0.432787
0.185291 0.294807 0.573326
0.209859 0.318532 0.639272
-0.00445341 0.0125188 0.280628
0.0369883 -0.167937 0.293373
0.0956827 0.228354 0.444372
0.00339645 -0.262276 0.306558
-0.210553 -0.0781951 0.00486808
-0.208621 -0.250469 0.309608
0.00465104 -0.141268 0.299608
-0.16718 0.280891 0.0319242
0.198565 0.0644684 0.0149877
0.0841133 -0.314194 0.253695
0.218218 0.00286134 0.279909
0.20336 -0.325089 0.0580625
-0.0334302 -0.0487596 0.279547
-0.110398 0.269693 0.0147589
0.215609 -0.175359 0.00684348
-0.207252 0.271527 0.0175278
-0.175988 -0.242966 0.290362
-0.100092 -0.270455 0.303418
0.216481 -0.261197 0.00720845
-0.00114848 0.0531941 0.267481
-0.221928 -0.119088 0.0127412
-0.206987 -0.326694 0.0977784
0.193125 0.243939 0.502189
-0.031231 0.321943 0.613214
-0.166158 0.0466646 0.266615
0.198358 0.306684 0.597191
-0.218891 0.267159 0.496357
-0.0266146 0.213268 0.382734
0.183615 -0.259556 0.307301
-0.211941 -0.235275 0
-0.162543 -0.211086 0.308254
-0.176606 0.228767 0.460659
0.207728 0.0625874 0.275924
-0.200381 -0.0328819 0.0104759
0.197468 0.0185103 0.0176402
-0.151866 -0.0122951 0.275791
-0.107055 0.0620709 0.267107
-0.191002 -0.320542 0.212929
0.205316 -0.24299 0.310407
0.217344 -0.317738 0.186768
0.219832 -0.215907 0.281797
-0.141405 -0.30127 0.205765
0.17186 -0.169746 0.286833
-0.222225 0.14142 0.253153
0.0310958 0.182796 0.321683
-0.156815 0.257514 0.532935
-0.0374638 -0.222252 0.30962
-0.214116 -0.195945 0.277205
-0.0556949 -0.260055 0.307159
-0.0378223 0.202586 0.373541
0.0902786 -0.244865 0.300082
0.0138765 -0.26973 0.292328
-0.137727 0.242957 0.491166
-0.175578 0.319672 0.627652
-0.181098 0.255371 0.532109
-0.207703 -0.137952 0.030765
-0.126408 0.0887532 0.264145
0.221957 0.0438702 0.271511
0.0431319 -0.302535 0.276918
0.0696402 -0.297717 0.264489
-0.208556 -0.00403801 0.031119
-0.200863 0.21106 0.0275185
0.149316 -0.257619 0.29731
-0.0685602 -0.281721 0.297257
-0.203402 0.250718 0.446903
-0.0663789 0.180839 0.298839
-0.147055 -0.234385 0.300378
0.222793 -0.012718 0.0146961
0.205898 0.258454 0.0303144
0.218218 -0.0969959 0.267877
-0.221023 -0.2738 0.0281952
-0.221913 0.23344 0.465671
-0.164433 0.0826503 0.273031
-0.0153553 -0.252497 0.298736
0.185379 -0.291459 0.205094
-0.189611 0.227703 0.383372
-0.0951447 -0.319738 0.224306
0.0479461 -0.235807 0.310479
0.175578 -0.0427468 0.287987
0.159836 -0.0120951 0.275733
-0.195122 0.104226 0.270853
0.17878 0.114391 0.249565
0.00468028 -0.218753 0.299273
0.125779 0.282934 0.591893
0.193316 0.30865 0.642955
0.0383876 0.314894 0.598362
0.179212 0.18736 0.349798
-0.00643358 0.29538 0.61404
0.22348 0.0983485 0.261112
-0.190207 0.25066 0.0172906
-0.178993 0.304555 0.644479
-0.00573613 -0.234629 0.300446
0.19743 -0.0908263 0.0177077
0.173868 -0.0704169 0.274013
0.0999804 0.163045 0.275274
-0.192637 0.0888089 0.24384
0.0406543 0.24702 0.473582
0.181127 0.217751 0.430155
-0.222715 0.218352 0.0221123
-0.0831455 0.224382 0.432849
-0.105073 0.289708 0.028715
-0.0847526 -0.0312718 0.277925
-0.0769629 0.103152 0.261989
0.0594343 0.328923 0.633694
-0.128329 -0.225673 0.310039
-0.0795487 0.314719 0.640741
-0.223464 -0.209163 0.0203929
-0.111024 0.116655 0.268361
0.210326 0.220475 0.443408
-0.00858315 -0.1439 0.290554
0.00262831 0.284901 0.586527
0.220138 0.248787 0.450299
0.103142 0.00164148 0.273728
0.172179 0.13319 0.270751
-0.22601 -0.229615 0.294641
-0.0376255 -0.301823 0.205801
-0.00899881 0.220509 0.401151
0.217682 0.301151 0.586158
-0.221569 0.190591 0.302653
0.219251 0.240799 0.495311
0.10695 0.19516 0.340753
0.222602 0.258553 0.499088
0.156929 0.257995 0.532067
-0.16334 -0.181123 0.304587
-0.162837 0.227895 0.436186
0.223496 0.297229 0.629865
0.0910209 0.295116 0.0178295
-0.219063 -0.251862 0.000586021
-0.18241 0.0706529 0.274668
0.0491014 -0.19545 0.306302
-0.0194674 0.293532 0.0228318
0.0614048 0.239287 0.45407
-0.20842 -0.105624 0.26569
-0.176586 0.275961 0.539175
-0.181848 0.284702 0.608802
-0.0357723 -0.156821 0.292256
-0.0070359 -0.057349 0.28043
-0.14201 -0.0824217 0.283734
0.0256031 -0.301938 0.205809
0.181084 0.285235 0.609402
-0.168516 0.155924 0.282742
-0.0645799 0.245605 0.48708
0.187771 0.0175992 0.281001
0.0740437 0.316492 0.600893
0.113076 0.241964 0.465956
-0.127924 0.1963 0.347657
-0.0437223 0.103546 0.261791
-0.166051 -0.0632687 0.279196
-0.222544 -0.136368 0.0142164
-0.208865 0.290051 0.628192
-0.0620991 0.197431 0.361478
0.22355 0.201766 0.348539
-0.106083 0.301792 0.592107
-0.00552929 0.136465 0.260396
0.137234 0.151856 0.269058
-0.218848 0.111867 0.0286107
0.0759876 -0.12446 0.297531
-0.0744685 0.119724 0.267696
0.00353653 0.27694 0.565802
-0.180396 0.161747 0.261508
0.155212 0.241243 0.472669
0.166148 -0.305925 0.271202
-0.209234 -0.0885413 0.0313963
-0.215946 -0.3159 0.239125
-0.124248 -0.0192266 0.276602
0.152788 0.181929 0.312265
-0.223808 -0.285949 0.281429
0.199134 0.175245 0.321154
-0.218007 -0.291186 0.223091
-0.00218989 -0.0831291 0.292435
-0.0679099 -0.264253 0.295141
-0.115704 0.234033 0.446881
-0.0623302 0.285063 0.58983
-0.201501 -0.322559 0.118868
-0.19741 -0.200305 0.0191727
-0.20559 0.012786 0.00693089
-0.0573243 -0.314352 0.253223
-0.00605246 0.229114 0.441096
-0.00720054 -0.310613 0.206391
0.221843 -0.0148465 0.279006
0.197456 0.174289 0.0177053
0.165109 -0.189541 0.30557
-0.00878506 0.20781 0.367323
-0.1804 0.251569 0.465878
0.169052 0.282136 0.59869
-0.113181 -0.293734 0.227105
-0.175014 -0.226804 0.2909
-0.222208 0.177416 0.0233523
0.192259 -0.0745897 0.291955
-0.0478505 -0.231111 0.300365
-0.183726 0.299686 0.589321
0.194241 -0.283275 0.246151
-0.0665967 0.276517 0.553135
0.0246952 0.274751 0.561259
-0.0974623 -0.0627843 0.290102
0.209925 -0.0118184 0.255267
-0.0490307 0.0262236 0.270853
-0.195748 0.0089647 0.252789
0.134195 0.274169 0.00797441
-0.222135 -0.0689012 0.0235757
-0.204777 0.196656 0.379396
-0.101066 0.320214 0.6387
0.128821 -0.313354 0.256048
0.0567062 -0.288989 0.217647
0.190721 0.242984 0.423967
0.173171 -0.306831 0.206139
0.138766 -0.104236 0.285937
0.156316 -0.302547 0.255199
-0.106864 0.0135716 0.280757
0.0242186 0.119929 0.267433
0.00662358 0.194907 0.332909
-0.216881 -0.166968 0.0294383
-0.198928 0.22363 0.450298
-0.0971751 -0.11319 0.287259
-0.0310662 0.302639 0.634179
0.223902 0.215505 0.405119
0.194463 0.281062 0.0236064
-0.16925 0.209791 0.374846
0.167147 -0.289672 0.291125
-0.175425 -0.26095 0.306914
-0.165377 -0.288012 0.275294
-0.202773 0.100278 0.00810052
0.206538 0.0895899 0.00655545
-0.157105 0.164789 0.291778
-0.108672 -0.106633 0.295469
-0.223375 0.234177 0.447382
-0.199988 0.130242 0.0114025
-0.0374026 -0.121157 0.297246
-0.0122209 0.260119 0.522305
0.0543774 -0.276076 0.300587
0.102073 -0.0950274 0.293894
0.145418 0.207651 0.397713
0.0757671 -0.195037 0.296464
0.137939 0.110911 0.26159
-0.155429 0.27127 0.568483
0.20843 0.199805 0.309374
-0.212843 -0.0552735 0.0311161
-0.14637 -0.276253 0.288493
0.0333563 -0.210654 0.308181
0.204711 -0.263252 0.306299
-0.0358319 0.127914 0.267353
-0.20977 0.23729 0.411459
-0.196436 -0.289083 0.20861
0.0878113 0.038858 0.277516
0.201099 -0.304002 0.10886
-0.223397 0.307154 0.626915
0.166859 0.216921 0.425012
-0.162893 0.023844 0.271366
-0.173985 -0.287524 0.292767
-0.11824 -0.171831 0.303449
0.102285 0.0816902 0.264524
0.209468 0.0252056 0.0314767
0.0249942 0.0164009 0.271891
0.0696872 0.0363948 0.269749
0.073426 -0.170591 0.30323
-0.117668 0.293799 0.0146263
0.00751745 0.2607 0.523648
0.0774506 -0.220373 0.299387
0.223806 -0.28025 0.269642
0.119717 -0.31844 0.237071
-0.103117 -0.0444536 0.287859
0.0983419 0.262876 0.534669
0.0862632 -0.178993 0.294601
0.132189 -0.185784 0.295339
0.126477 0.306106 0.596095
0.0759877 -0.25435 0.298221
0.0549064 0.0561879 0.267377
-0.221604 -0.302901 0.156691
-0.136296 0.0977527 0.270903
0.164845 -0.252582 0.30919
0.223863 0.163488 0.0195503
-0.0384386 0.282829 0.568562
0.117262 -0.233928 0.300346
0.0477189 -0.0714052 0.282217
-0.185867 0.15589 0.283703
-0.206618 -0.250947 0.0303157
0.181907 0.251619 0.520279
0.106716 -0.300695 0.259392
0.119238 0.0918704 0.271388
0.10025 0.110578 0.268946
0.0439098 -0.287467 0.278562
-0.0684789 0.293021 0.610896
-0.124355 -0.3208 0.209413
-0.0480668 0.269158 0.0160474
-0.0361644 0.316568 0.599766
-0.03874 0.161838 0.272587
0.212759 -0.297848 0.281219
-0.176027 0.292017 0.0188386
0.114171 0.24896 0.500736
-0.224208 0.0407617 0.0182583
0.0812816 0.184878 0.329951
-0.222262 0.000245541 0.276002
0.0605829 0.200594 0.351173
-0.0435478 -0.00593875 0.283083
-0.202711 0.223913 0.374048
-0.0501295 -0.0526731 0.288864
0.185338 0.0736582 0.249251
0.218181 -0.30553 0.0812316
0.219449 -0.31001 0.254666
-0.0526716 -0.191107 0.296118
-0.199693 0.0442638 0.277998
0.124806 0.161686 0.275593
-0.206195 -0.26346 0.00675316
-0.221817 0.295537 0.642306
0.0382121 0.213885 0.385274
-0.106024 -0.302062 0.257022
-0.172078 -0.129218 0.282191
0.127938 -0.0419763 0.278781
-0.211662 0.266345 0.565836
-0.0536234 -0.142045 0.290567
-0.121249 0.142178 0.264009
0.114654 0.224783 0.420552
-0.16778 0.252623 0.522413
-0.113305 0.202692 0.381366
0.179824 0.226219 0.452381
-0.0547003 0.124511 0.267177
0.152996 0.284975 0.602922
-0.189605 0.313983 0.615151
0.118328 0.206915 0.373628
-0.216876 -0.303074 0.0599544
0.0105447 -0.0358839 0.286588
0.0632885 0.133089 0.260603
0.0234569 -0.230546 0.300331
0.200672 -0.322232 0.109421
0.0897821 -0.27689 0.288013
0.12014 -0.292357 0.272972
0.119953 0.292813 0.0122993
0.138632 0.262945 0.541446
-0.0151395 0.272127 0.00884356
-0.0411541 -0.0934732 0.293858
-0.0147693 0.151652 0.273947
-0.197323 -0.238341 0.0179215
-0.128975 -0.308115 0.267468
-0.0390838 0.0633481 0.266468
0.0246436 0.29482 0.585623
-0.167992 -0.191736 0.29233
0.17284 0.306539 0.643733
0.116147 0.308797 0.642915
-0.0209592 0.235834 0.44255
0.141656 0.0523634 0.276331
-0.017618 0.30335 0.590814
-0.209665 -0.285014 0.00122367
0.0269382 0.328188 0.629676
-0.101741 -0.194835 0.296492
-0.187163 0.0237714 0.253494
-0.221858 -0.168947 0.278279
-0.127097 0.00795934 0.273524
-0.217207 0.189631 0.355767
0.174258 0.166083 0.295128
-0.196896 -0.280228 0.253056
-0.183474 0.288542 0.559734
-0.132982 0.179408 0.322865
-0.192353 -0.260628 0.273557
-0.0497242 -0.303644 0.247033
0.180934 -0.124248 0.297688
-0.183881 -0.153397 0.301193
-0.0716748 0.0243408 0.271215
0.0955532 -0.0178027 0.284398
0.0453575 0.0687731 0.27371
-0.0200118 0.293117 0.608793
-0.071612 -0.0593066 0.289676
0.209631 -0.190445 0.305863
0.174403 -0.0770061 0.292024
-0.145355 0.133376 0.262237
0.0042666 0.290232 0.0284934
-0.199256 -0.297402 0.0255666
0.0335667 0.238585 0.450782
-0.109922 -0.246426 0.299903
-0.100194 -0.257405 0.297365
0.0857661 0.179798 0.297249
-0.221954 0.0560287 0.0128437
-0.220431 0.0280714 0.275988
0.117871 -0.282554 0.296624
0.178929 -0.260359 0.283531
0.167028 -0.112713 0.284046
-0.132129 0.31257 0.600725
0.197781 -0.0450397 0.019986
0.147078 0.291105 0.588171
-0.179511 0.112742 0.249164
-0.14597 0.0556965 0.268104
-0.202127 -0.315232 0.205663
0.136463 -0.0863907 0.283895
-0.0153653 -0.103694 0.285886
0.0347489 -0.0378753 0.286833
0.105812 0.297895 0.589617
0.212292 -0.179952 0.274647
-0.0244219 0.250645 0.482164
0.0156591 0.172852 0.29486
0.115529 0.291895 0.613585
-0.047418 0.187255 0.334151
0.00389835 -0.245117 0.300053
-0.0754009 0.279628 0.00570539
-0.179141 -0.158533 0.280084
0.0593356 0.181958 0.301474
0.139488 0.292886 0.0243706
0.0194449 0.285814 0.00650013
0.199766 -0.0649506 0.261176
0.133137 0.186576 0.321756
0.200066 0.150994 0.0113631
0.168186 0.24255 0.465491
0.214086 0.133509 0.00620667
-0.000781472 0.0407906 0.277118
-0.0773277 -0.316067 0.248426
0.121741 0.171328 0.299656
-0.174887 0.128113 0.269784
0.0627127 -0.105651 0.286156
0.0542684 -0.215598 0.308791
-0.176357 0.265039 0.510141
0.018829 -0.0668132 0.290409
-0.0636402 0.225606 0.434942
0.223615 0.118904 0.258641
-0.0481568 0.224667 0.431629
-0.0256634 0.202171 0.353184
-0.0281446 -0.0783545 0.282982
0.032972 -0.104823 0.295105
-0.217652 0.19633 0.373639
-0.0400032 0.24037 0.472116
-0.197202 0.2209 0.0181596
0.0962602 -0.288782 0.291809
0.0690876 -0.150457 0.291323
-0.163184 0.181084 0.3318
-0.00875382 -0.297829 0.282507
-0.224224 0.222082 0.401986
-0.0900026 0.276302 0.568453
-0.0201563 -0.242149 0.310494
-0.0931555 0.263959 0.536862
0.0497145 -0.0258905 0.285352
-0.0792911 0.268306 0.54703
-0.0640748 -0.0191437 0.276283
0.20045 -0.159686 0.0264581
0.150861 0.0891879 0.264182
-0.157493 0.17587 0.317084
0.172192 -0.056316 0.289551
0.0148663 -0.296172 0.26713
-0.116594 0.299561 0.634318
0.215303 -0.285449 0.0123066
0.216341 -0.150557 0.00714516
0.208005 0.190647 0.00595025
-0.0963721 0.220607 0.407185
-0.0541428 -0.10361 0.286175
0.0950829 0.305982 0.643333
-0.0689434 0.166156 0.287333
0.0161326 0.323652 0.63743
-0.035422 0.0819876 0.272183
0.167251 -0.267966 0.304686
0.0231415 -0.298696 0.281533
-0.153301 -0.0797536 0.29218
0.0183014 0.103674 0.261658
-0.165049 -0.0391735 0.287441
-0.0782011 0.17429 0.302111
0.203064 0.0724179 0.245821
-0.0827275 -0.0895129 0.293374
0.109495 0.258718 0.510155
-0.00782248 -0.110976 0.295901
0.014829 0.242267 0.459504
0.11905 0.0602615 0.275123
0.102171 0.216251 0.396077
-0.00588302 -0.288639 0.215722
-0.100948 -0.225364 0.310001
-0.141372 -0.0549511 0.280627
0.219337 0.141621 0.271242
-0.0236084 -0.29995 0.280117
0.192929 0.278482 0.519756
0.0723346 -0.0105726 0.275169
0.132465 -0.300715 0.279264
0.0792289 -0.291152 0.274347
0.135873 0.225528 0.442877
-0.222626 -0.277272 0.292106
0.0629699 0.232876 0.437118
0.194939 0.279046 0.00995646
0.0120656 -0.149306 0.291202
0.204103 -0.0710054 0.0292694
0.173578 0.218811 0.390832
-0.174264 0.22098 0.439592
0.106943 -0.259515 0.296781
-0.0684689 0.087676 0.263759
-0.195939 0.200797 0.389104
0.0402547 0.150981 0.274031
-0.180953 0.244336 0.502727
0.188565 -0.160939 0.302118
-0.0959689 0.169691 0.293373
0.215596 -0.233679 0.02999
0.0255391 -0.293711 0.227026
0.2234 0.087824 0.0161441
0.219037 -0.316336 0.223822
0.222707 0.262845 0.550345
-0.0704362 -0.0805388 0.283591
0.192628 -0.120379 0.267298
0.172467 0.14102 0.257446
0.176047 0.255798 0.485898
0.19106 0.108476 0.270297
-0.178476 -0.0205639 0.265094
-0.139321 0.273831 0.00812422
0.168296 0.0445297 0.265213
-0.167132 -0.235699 0.310476
-0.162168 -0.221478 0.29943
-0.0492881 0.210276 0.376061
-0.208961 -0.0235155 0.00552907
-0.224092 -0.129065 0.279444
-0.200565 0.212744 0.343379
-0.00032408 -0.0468565 0.287945
-0.0906093 -0.303189 0.251694
-0.0795774 0.203698 0.360313
-0.203723 0.228959 0.38791
0.203341 -0.298215 0.0490135
0.160489 0.120914 0.268727
-0.138654 -0.130945 0.289227
-0.200608 0.269295 0.0291956
0.0831149 -0.148276 0.291057
-0.0696158 -0.177652 0.294579
0.22065 -0.209515 0.00955561
0.219266 0.270014 0.505618
0.0147414 0.231958 0.432047
-0.21751 0.0691646 0.00765165
-0.197822 -0.267466 0.020631
0.0357191 0.190848 0.342955
0.193397 -0.23191 0.279532
0.172607 0.288219 0.580239
-0.205645 0.269491 0.498128
-0.142667 0.201849 0.364807
-0.0644321 -0.226391 0.300099
0.202116 -0.271753 0.26487
-0.197245 0.258157 0
0.0739241 -0.0426147 0.278867
0.133525 -0.303735 0.247554
0.210757 -0.160511 0.302323
0.191912 0.253569 0.00984426
-0.000483947 -0.317748 0.241476
0.0508122 0.285751 0.591181
-0.205564 0.296803 0.571962
-0.0346284 0.194949 0.334512
0.0347875 -0.0781645 0.291811
0.00359167 0.193293 0.347521
0.00624498 -0.112528 0.296057
0.218773 -0.0768529 0.2891
-0.210153 -0.29627 0.154049
0.207901 0.214501 0.427041
0.201332 0.198736 0.0281148
0.077815 0.122685 0.259708
0.208759 -0.144378 0.27003
0.186525 0.27389 0
0.203621 -0.287403 0.0378649
-0.162036 0.245121 0.501714
-0.177587 0.186053 0.347155
0.173479 0.27967 0.555433
0.0565397 0.0825658 0.272093
0.223823 0.169258 0.275796
-0.115303 0.183136 0.330165
-0.0715641 0.300078 0.629462
0.155549 -0.0918481 0.293617
0.145493 0.238702 0.463751
0.179716 -0.219813 0.286516
-0.099018 0.122905 0.259839
0.13008 0.200102 0.357237
0.167461 -0.19573 0.293146
0.0612962 0.241736 0.477058
-0.185746 -0.216968 0.281596
0.218431 -0.297677 0.0193528
-0.0844774 0.00149987 0.274046
0.0547133 -0.189323 0.295825
0.0812493 0.00151935 0.273764
-0.135354 -0.319644 0.225586
0.16955 0.0104441 0.268127
-0.128774 0.25319 0.516011
-0.0121421 0.105496 0.261417
0.0905812 -0.236064 0.310487
-0.122249 0.167581 0.281182
-0.168793 -0.023905 0.285681
-0.11499 -0.239544 0.3106
-0.054578 0.25221 0.503723
-0.172535 -0.106792 0.279321
-0.223623 0.27424 0.55117
-0.079489 -0.126473 0.288779
0.033819 -0.119008 0.296858
-0.210518 -0.135665 0.299402
-0.040435 -0.202883 0.297462
0.142852 0.202499 0.365465
-0.100933 0.291564 0.585376
0.140628 -0.319529 0.227488
0.152774 -0.216577 0.308911
-0.0664874 0.0122028 0.272599
0.0909093 -0.307048 0.206154
-0.21479 -0.209073 0.278948
0.0311426 0.223535 0.410563
-0.132169 -0.253771 0.298376
0.0308025 0.0822347 0.272017
0.0355619 0.0407316 0.277121
-0.131121 0.22024 0.430666
-0.0856883 0.290801 0.584075
0.085219 0.288815 0.00774173
0.0461252 -0.112439 0.286956
-0.187402 0.191676 0.290231
0.0979341 -0.0868611 0.283952
-0.137067 -0.153319 0.301184
-0.204668 -0.189199 0.30566
0.114412 -0.0198233 0.276195
0.202476 0.251514 0.44838
-0.170725 -0.288845 0.212336
0.10534 -0.289286 0.276485
-0.000817249 0.168586 0.277447
-0.0235885 0.283456 0.00552463
-0.199855 0.0548304 0.0117383
-0.046269 -0.319739 0.22434
0.21906 -0.284636 0.25242
-0.196198 -0.0667848 0.261279
0.220418 -0.320608 0.13717
0.0397428 0.22349 0.428365
-0.0819357 0.0789758 0.272751
-0.209739 0.0472187 0.0316072
0.179754 -0.0600546 0.268395
0.111961 0.266826 0.546946
0.0742605 0.288749 0.582618
