-0.00843169 -0.181995 0.304678
-0.0523714 0.288824 0.599163
0.191735 -0.164774 0.272263
-0.163699 0.117784 0.260357
-0.0189531 -0.204183 0.297631
0.224434 -0.0443251 0.271152
0.092524 0.132664 0.260778
-0.10717 0.288091 0.0293869
0.0613315 0.0689701 0.265912
-0.162637 -0.106676 0.295475
-0.0449778 0.169097 0.290544
-0.207698 -0.239737 0.310607
-0.207536 0.205556 0.403484
-0.0385141 0.278722 0.0060816
0.0441434 -0.0162947 0.284167
-0.218932 -0.223652 0.00822796
0.0173292 0.325975 0.623302
-0.0123681 -0.0933456 0.293743
-0.120675 -0.0156685 0.276203
0.0112023 -0.28886 0.212284
0.221635 0.00641188 0.0119076
0.155456 -0.0851755 0.283955
0.0935684 0.159099 0.281005
-0.0717462 0.117306 0.260311
-0.116736 0.168376 0.293325
-0.173258 -0.29803 0.23715
0.200875 0.281652 0.529803
0.0423517 0.179257 0.293297
-0.126029 0.141863 0.271785
0.145056 -0.252795 0.298656
0.108869 -0.162981 0.292729
0.203093 -0.240084 0.00797498
-0.0728362 -0.288773 0.21356
-0.114732 0.252488 0.495701
-0.184286 0.11837 0.269049
0.191649 0.0379645 0.27864
-0.0680761 0.053611 0.275836
-0.125477 0.28082 0.573201
-0.200845 -0.225345 0.00938274
0.100308 0.171486 0.283973
0.212845 0.0687055 0.0311436
0.00123335 -0.150077 0.291242
0.00134411 0.255534 0.494055
-0.0346458 -0.212571 0.298564
-0.0629617 0.280406 0.563314
-0.0414433 0.190135 0.322111
-0.219487 -0.305796 0.0654858
-0.223716 0.277723 0.538776
0.161627 0.00987175 0.281597
-0.19686 0.269838 0.497244
-0.202159 -0.03308 0.287172
-0.0490063 -0.175193 0.294321
-0.155015 -0.256526 0.297608
-0.209593 -0.0634098 0.290848
-0.207748 -0.10589 0.265711
-0.0590748 0.260761 0.526254
-0.208837 -0.0265707 0.256891
0.18254 0.212706 0.356771
-0.0878634 0.235509 0.462093
-0.0560102 0.176169 0.305761
0.0425014 -0.289305 0.205358
-0.095041 0.107754 0.261582
-0.199381 -0.262508 0.306492
-0.0166024 -0.110207 0.286653
-0.194555 0.245314 0.0220974
-0.0587212 0.276408 0.552458
0.119052 -0.0459057 0.279202
0.111267 0.30835 0.596497
0.2009 -0.137032 0.299442
0.224069 -0.310981 0.132936
0.156439 0.230923 0.44507
-0.0256432 0.252743 0.487811
-0.224111 0.152432 0.0180521
0.225254 -0.200123 0.289767
0.0222491 0.216438 0.39115
-0.19957 0.258817 0.00479591
-0.210224 -0.272585 0.263884
-0.216409 0.177937 0.324599
0.200639 -0.0427755 0.0268731
0.146998 0.264735 0.534344
0.198137 -0.307343 0.152855
-0.20114 0.182703 0.341732
-0.197709 -0.303988 0.202238
-0.201182 0.308199 0.601867
0.180625 -0.273257 0.273816
0.0965329 0.103945 0.269691
-0.0604107 0.126869 0.259815
0.220913 0.304227 0.644578
-0.215546 0.028904 0.0299879
0.12573 0.109691 0.2616
0.0492954 0.222175 0.425474
0.0644412 -0.0597311 0.289533
0.202084 -0.156681 0.00839722
0.0407499 0.0781454 0.264745
0.108376 -0.296346 0.232242
0.11241 -0.318 0.239911
-0.121549 -0.270707 0.291821
0.0954863 -0.312792 0.257614
-0.172962 -0.0763543 0.275541
0.104884 -0.0275032 0.285613
0.00973459 0.0663311 0.273959
-0.221622 -0.134207 0.0248323
0.113127 0.283875 0.591787
-0.20469 0.216952 0.433383
0.155259 0.309816 0.642529
0.221973 0.0541618 0.0241252
0.133494 -0.319561 0.227028
0.0375168 -0.124135 0.288315
0.105549 0.242897 0.467341
-0.0462785 -0.164034 0.293061
0.149162 0.290024 0.0285754
-0.216859 0.19044 0.358413
-0.0949406 -0.0645772 0.281762
-0.215407 -0.29458 0.00625774
-0.19928 -0.309325 0.0978366
0.121499 0.111955 0.2613
0.155855 -0.301104 0.241671
-0.0662207 -0.0701338 0.291002
-0.17439 0.177352 0.323529
-0.163216 0.169923 0.285797
-0.197093 0.258463 0.00607248
0.00604346 -0.0511033 0.288468
-0.201928 0.180207 0.269734
-0.105071 -0.303052 0.252416
0.198284 0.0672728 0.0156703
0.129809 0.214931 0.414395
0.175222 -0.307325 0.268838
-0.198623 -0.277493 0.0248492
0.0209573 0.180048 0.313938
-0.092533 0.292804 0.585576
0.113152 0.120935 0.260197
0.174085 0.060596 0.259089
0.223742 0.272586 0.561943
0.10701 0.21815 0.401825
0.0177575 0.157921 0.278298
-0.222906 0.189428 0.021654
-0.0989605 0.245046 0.488776
0.205477 0.285616 0.615438
-0.109644 0.291735 0.0272133
0.197468 0.205551 0.323246
0.140526 -0.295766 0.26784
-0.0802986 0.118516 0.267871
0.17173 0.161815 0.289006
0.0694713 0.322422 0.637881
0.192179 -0.210666 0.277412
-0.142316 -0.174202 0.294118
-0.011062 -0.29637 0.20543
-0.180896 -0.290637 0.290363
-0.197413 0.241897 0.421808
-0.0146915 0.300962 0.629009
-0.220439 0.124303 0.266152
0.0108522 0.270274 0.533858
-0.037963 -0.137851 0.290063
-0.0399524 -0.237754 0.310542
-0.00028531 -0.303792 0.248553
0.224008 0.192168 0.0192024
-0.0903287 0.168786 0.280173
0.206447 -0.13041 0.00658634
0.102714 0.183345 0.328178
0.213838 0.300191 0.582762
0.145085 -0.15443 0.301233
0.0957812 0.0225907 0.271317
0.221603 -0.308299 0.0952172
0.106333 -0.139634 0.299405
0.12204 0.325344 0.636687
-0.0744631 0.186316 0.31385
0.187397 0.123103 0.243246
0.034037 -0.0881447 0.293044
-0.172277 0.281351 0.598142
0.202952 0.213702 0.346117
0.0126823 0.269884 0.0142843
0.047756 0.213523 0.402807
-0.206697 0.115453 0.0303556
-0.219636 -0.224741 0.306214
-0.0646763 0.266394 0.526084
0.127359 -0.256963 0.297493
-0.0778502 0.199257 0.348419
-0.0708338 0.135953 0.260929
0.0983742 0.206842 0.370537
0.205533 0.195904 0.0298455
0.0979933 0.264273 0.538256
0.207768 0.27626 0.59106
0.13262 -0.0915267 0.293474
-0.13825 -0.27508 0.301082
-0.0212809 -0.138629 0.289996
0.211332 0.140509 0.244908
-0.115467 -0.00638174 0.275157
0.0803342 -0.195272 0.30628
-0.135339 0.271513 0.0103549
-0.0979248 -0.319411 0.228865
0.0336494 -0.0143347 0.283925
0.0865571 0.181945 0.30301
0.178115 -0.315104 0.206689
-0.0459181 -0.12381 0.297571
0.15398 0.295531 0.591356
-0.175233 0.279221 0.00520757
0.176421 0.27677 0.585955
-0.0189467 0.108813 0.261061
0.150202 0.147773 0.267541
0.200335 -0.298884 0.188532
-0.221894 0.226295 0.0127427
-0.0442812 0.278548 0.571953
-0.104216 0.271408 0.558496
0.199946 -0.204467 0.0252501
-0.0163207 0.187639 0.314049
0.214036 0.265245 0.488004
0.220554 -0.0750129 0.0275391
0.0706591 0.285629 0.591831
0.203247 0.000144288 0.00792266
0.175719 0.214388 0.374692
-0.121798 -0.00425434 0.282939
0.0997433 -0.101707 0.294719
0.22109 0.00995341 0.25725
-0.161161 0.296768 0.636047
-0.164665 -0.233823 0.299132
-0.0882656 0.238519 0.453303
0.0680112 -0.286744 0.293383
-0.205837 0.260885 0
0.182088 -0.317585 0.242613
-0.201876 0.171444 0.0283715
0.13574 0.249857 0.491797
0.130347 0.281944 0.590204
-0.204914 -0.319659 0.168382
0.0596079 0.271931 0.540684
0.00258772 0.255435 0.50963
0.16822 0.0261901 0.279748
0.0629838 -0.31146 0.261326
-0.212388 0.215428 0.43047
-0.0468567 -0.220327 0.309384
0.0846402 -0.314839 0.251893
0.220253 0.201926 0.326052
0.202407 -0.23719 0.00151439
0.0251118 0.257109 0.499611
-0.0501694 0.00732157 0.273068
-0.182458 0.201258 0.325844
-0.0780651 0.324131 0.63725
0.0765233 0.252831 0.506698
-0.179412 -0.288826 0.216986
0.00292301 -0.129629 0.28886
-0.0759789 -0.162391 0.302294
0.0261778 -0.0862858 0.292815
-0.0613421 0.0379289 0.277743
0.0912902 -0.289938 0.219535
0.200721 -0.209967 0.0271257
0.219692 0.19126 0.297083
0.0414694 0.28436 0.00590044
-0.218206 -0.318435 0.17428
-0.0121441 -0.0941992 0.293847
0.224699 0.0932672 0.257113
0.209426 0.0011813 0.253819
0.0394915 0.286564 0.577831
-0.173239 0.272902 0.576331
0.224196 0.200373 0.0187484
-0.210564 0.258464 0.00249622
-0.101328 0.206113 0.369718
0.197226 -0.313443 0.114208
-0.0548746 -0.296001 0.267412
0.0688561 0.207315 0.369518
-0.183842 0.258308 0.0166642
0.20313 0.191801 0.365761
0.218159 0.168309 0.296213
0.0199512 0.177497 0.289277
-0.187336 0.235796 0.48095
0.120069 0.165743 0.289926
0.11635 -0.29516 0.229889
0.060192 -0.0834901 0.2836
0.168504 -0.303015 0.205882
0.159171 0.190155 0.3356
-0.108777 0.171657 0.284972
-0.127584 -0.196674 0.296675
0.0383187 0.270137 0.534868
0.0307769 0.275576 0.563703
-0.0729034 -0.317103 0.245533
-0.106322 0.164839 0.287611
0.215779 0.251492 0.451612
-0.133891 0.27379 0.556281
-0.166572 -0.315723 0.249357
-0.190276 -0.100775 0.295031
0.116425 -0.303739 0.248877
-0.218118 -0.315095 0.0359357
0.028521 0.212236 0.380322
-0.199477 -0.0477709 0.0241574
-0.163017 0.226025 0.451349
0.0419369 0.211235 0.396508
0.0908977 0.263703 0.535737
0.204993 -0.258022 0.00726716
-0.0370994 -0.288142 0.277782
-0.0904256 -0.00446069 0.282964
0.210032 0.228058 0.386302
0.0270683 -0.31669 0.246717
0.0370524 -0.0173364 0.27589
0.125955 0.226735 0.427376
-0.093176 0.0228989 0.279615
-0.217142 -0.235708 0.307807
-0.219182 -0.310493 0.253552
-0.200301 0.154126 0.249488
-0.0968778 0.190504 0.327326
0.165231 -0.0519439 0.288949
-0.198913 -0.0245759 0.0140429
-0.0500442 0.132639 0.260356
0.0423162 0.145322 0.263323
0.19877 -0.2722 0.015339
0.170085 0.17728 0.287915
0.200541 -0.249111 0.0266954
-0.206483 -0.28839 0.219505
-0.178018 0.31005 0.642453
0.200471 0.28159 0.603715
0.108875 -0.0309245 0.277482
0.136176 0.308302 0.598101
-0.215076 -0.0850207 0.00663941
0.0516864 0.0924428 0.263124
-0.149027 0.0393293 0.277965
0.133479 0.262108 0.53816
0.0214355 -0.266518 0.29398
-0.035484 0.192936 0.329212
0.18399 -0.314023 0.254189
0.0987618 0.225094 0.43633
-0.178783 0.236036 0.480322
-0.0203523 -0.0905906 0.293438
-0.178845 0.284054 0.556625
-0.135741 -0.299394 0.23833
-0.125359 0.0781459 0.273088
0.017785 -0.314193 0.253688
-0.189319 0.247483 0.51234
0.13252 -0.217404 0.309013
0.0334968 -0.243899 0.300191
-0.218043 0.0717897 0.249033
0.218529 -0.258554 0.00477373
0.221202 0.227001 0.454363
0.0367343 -0.318022 0.239724
-0.189291 0.232157 0.395939
0.136589 -0.295502 0.230564
-0.024568 0.176244 0.304195
0.0205804 0.184948 0.326704
-0.0642008 -0.18511 0.295428
-0.179985 0.194701 0.312979
0.00296491 0.292579 0.606581
0.0558036 -0.166764 0.302758
0.0373657 -0.287127 0.293086
0.141513 -0.254697 0.298125
0.0932164 0.217294 0.397549
-0.124321 0.0246556 0.2794
-0.168519 -0.23397 0.31042
0.0313385 -0.312558 0.258256
-0.166659 0.0303922 0.268093
0.0425385 0.23905 0.452507
0.0428188 0.16571 0.286137
-0.0593482 -0.0390827 0.278594
0.053701 -0.176284 0.29432
-0.0871785 -0.187833 0.305408
0.107066 0.256648 0.504084
-0.0388154 -0.249364 0.309727
0.143131 0.000519671 0.274132
0.057316 -0.240373 0.300573
0.100292 0.28161 0.00487356
-0.150013 -0.156574 0.292116
0.224494 0.199923 0.353352
-0.223741 -0.112962 0.276883
0.206092 0.0438501 0.249061
0.0232683 0.302437 0.633295
-0.0567892 -0.0603506 0.289804
-0.220502 0.0378799 0.00935162
0.110245 0.290915 0.585562
0.115816 0.0812557 0.272602
0.0651275 0.141161 0.270117
0.200357 -0.177378 0.0105983
-0.0748192 0.1641 0.275215
0.139623 -0.158839 0.301777
0.223777 -0.206621 0.286875
0.123262 -0.305388 0.272105
-0.154119 -0.16116 0.302143
-0.123164 0.290799 0.586415
0.152602 -0.295128 0.22982
0.00679073 0.227555 0.41986
-0.170878 -0.0599693 0.275229
-0.193995 -0.19951 0.306838
-0.04933 0.0818138 0.272267
0.0373343 0.302809 0.63495
-0.149984 0.155868 0.272426
0.114344 0.21931 0.423542
0.223676 0.276719 0.581221
-0.0556042 0.198763 0.364582
0.177794 -0.171923 0.282545
0.140544 0.213254 0.411593
0.131073 0.190706 0.351487
0.103629 0.0403984 0.269253
0.210529 -0.294495 0.00244007
0.0482517 -0.162568 0.292742
-0.170207 0.283397 0.603051
-0.173148 0.211245 0.413524
0.204752 -0.316804 0.200581
-0.115899 -0.298497 0.236547
0.193667 -0.176065 0.273553
0.145434 0.251062 0.511283
-0.141998 0.208778 0.383413
-0.129612 0.289317 0.0288781
0.0985786 0.215999 0.412618
-0.163552 -0.134663 0.289121
-0.0907812 0.03203 0.278497
-0.0598171 0.117422 0.260242
0.0613789 -0.043628 0.278996
-0.224151 -0.0201404 0.0186829
-0.0185185 -0.190257 0.296056
0.215893 0.251637 0.0274962
-0.0608407 -0.125788 0.297813
0.163022 -0.0499491 0.288687
0.13967 -0.0403933 0.278724
0.209358 0.245101 0.0055218
-0.0508938 0.276739 0.00690869
-0.198629 0.0184859 0.0147257
0.205142 0.186194 0.351281
0.075344 0.207183 0.36949
-0.0547104 0.300384 0.589555
-0.145424 0.269691 0.547794
0.0460676 -0.280227 0.28539
0.0441365 0.184896 0.3279
-0.106143 0.266864 0.547049
0.217752 -0.235382 0.307543
0.123223 -0.0665378 0.290412
-0.0957011 -0.289251 0.20606
-0.222192 0.282587 0.542137
0.0189025 -0.0637524 0.290031
0.107279 0.169022 0.281661
0.0129856 0.166084 0.27545
0.218345 -0.232595 0.00763193
0.145006 -0.115396 0.287265
-0.119769 0.0103605 0.273259
-0.0277048 -0.0644031 0.281349
-0.193855 -0.284799 0.238097
0.0454025 0.32684 0.62701
0.1682 -0.320644 0.211913
0.089428 0.292329 0.0111319
-0.0486751 -0.0583425 0.289558
0.152133 -0.0085375 0.283658
-0.0963206 0.293566 0.0140711
-0.185353 0.0536497 0.276714
0.141664 -0.0277496 0.285808
0.162282 -0.271839 0.291231
0.0731782 0.215226 0.390744
-0.194266 0.0843786 0.244352
-0.0497116 0.218621 0.415969
-0.219517 0.0361506 0.253616
-0.110332 0.277072 0.00677216
-0.221077 0.134717 0.248225
0.0443865 0.232921 0.436319
-0.105897 -0.158023 0.292323
-0.088765 0.205613 0.384282
-0.0978442 0.0177106 0.28025
0.0457517 -0.0486527 0.27959
0.145824 -0.206043 0.307609
0.123591 0.139022 0.263086
0.180896 -0.0941253 0.294126
0.220497 0.248856 0.450903
-0.203626 -0.154861 0.27115
0.117944 0.164016 0.287567
-0.0225104 0.174263 0.298918
0.0365525 0.229525 0.443933
0.216611 -0.0661957 0.263776
-0.0457054 0.285549 0.0304415
-0.181014 -0.0115134 0.262153
-0.0611707 0.328521 0.632222
-0.0227935 -0.173529 0.303656
-0.0106405 0.327076 0.625887
-0.186396 0.20407 0.396398
0.116976 -0.180272 0.294718
0.197288 -0.251897 0.01882
-0.0166815 -0.170528 0.293715
0.196904 0.197197 0.378812
0.162385 0.0148898 0.272566
-0.175432 0.0218581 0.262535
0.0358617 0.316896 0.600158
0.0904571 -0.00667101 0.2747
0.0394417 0.0303272 0.278407
0.129336 0.213542 0.392826
-0.109954 0.158469 0.281432
-0.163776 -0.210738 0.29766
-0.0165463 0.241719 0.458006
-0.143086 0.246185 0.48455
-0.137507 0.209438 0.403435
0.0122249 -0.243326 0.300255
-0.0135264 -0.301703 0.278141
-0.154341 -0.129106 0.289004
-0.0909914 0.243965 0.468112
0.2165 0.0866338 0.246704
0.165964 0.281645 0.57542
-0.163891 -0.0669457 0.281222
0.094823 -0.31947 0.228247
0.0231726 0.310051 0.595092
0.0180437 -0.00246046 0.282458
0.180646 0.031081 0.257515
0.0423127 0.231288 0.431857
0.1402 0.0952154 0.271247
-0.0702913 0.178562 0.312793
-0.0685853 -0.285404 0.29441
-0.0940075 0.0574286 0.275389
-0.0979894 0.179888 0.298946
0.00396425 0.131702 0.259954
-0.22392 0.2557 0.483717
0.178766 0.251183 0.518472
-0.205793 0.24971 0.444602
-0.0966404 0.18518 0.332389
0.121939 0.00672719 0.281553
0.209316 0.283941 0.61178
-0.214587 0.164334 0.29299
0.0712656 0.0968417 0.262699
-0.146435 0.0324345 0.278749
-0.193261 -0.00012771 0.253808
0.19854 0.199661 0.015081
-0.191521 -0.288698 0.214623
-0.200313 0.229838 0.467019
-0.197836 -0.0800247 0.0166589
0.0292125 0.243107 0.462573
0.197913 -0.189526 0.0203262
-0.217094 -0.160988 0.299733
-0.206181 -0.0702268 0.26172
-0.168523 0.255441 0.499474
-0.178942 -0.291701 0.223089
-0.218377 -0.183784 0.301895
-0.0295007 0.235528 0.458972
-0.0312884 -0.29986 0.280217
-0.0258416 0.251571 0.500659
0.203228 0.298553 0.576136
0.0834597 0.290091 0.604078
-0.0808659 0.291437 0.00895785
0.133723 0.304334 0.644557
0.204885 -0.16964 0.0295962
0.177933 -0.320288 0.216919
0.224103 0.0279458 0.0178593
0.131042 -0.288727 0.277127
0.223253 -0.0858356 0.2843
0.222101 -0.231365 0.285207
0.0778994 0.14488 0.263643
-0.206278 0.250561 0.523042
0.0392875 0.0752245 0.26508
-0.128338 -0.117351 0.296781
-0.213681 0.026535 0.0307653
-0.0724627 0.194421 0.354219
-0.173141 0.273736 0.578483
0.0947332 -0.0889301 0.293141
0.201035 0.205617 0.323965
0.158226 0.27979 0.577073
-0.0680384 0.00457351 0.281858
0.100628 0.255008 0.498794
0.117866 0.304475 0.594512
-0.0510935 -0.2688 0.304254
-0.204948 -0.306426 0.206114
-0.114059 0.268624 0.0195294
0.1211 0.118035 0.268318
0.0360026 0.210753 0.394915
-0.204333 -0.263168 0.272256
0.162738 -0.0947051 0.293994
-0.128129 -0.294579 0.269839
-0.00774762 -0.316177 0.248142
0.192635 0.189223 0.35675
-0.137785 -0.262212 0.296024
0.185634 -0.31985 0.223061
0.0757343 -0.0551377 0.280311
0.0363256 0.31794 0.602842
-0.185098 0.301359 0.591169
-0.0129526 0.237897 0.464351
-0.195555 0.204669 0.320685
-0.205323 0.205524 0.403071
-0.222753 0.231443 0.444413
-0.00631436 0.152105 0.27404
-0.224251 0.111325 0.0183782
-0.209278 0.0469181 0.248712
-0.187146 -0.232687 0.281972
0.0533572 0.276121 0.007163
-0.217839 0.0890174 0.0290315
0.147807 0.152318 0.269752
0.0658576 -0.26694 0.293765
0.126479 0.249851 0.504855
-0.0623956 -0.288707 0.216368
-0.18385 0.275409 0.585003
0.149317 0.259539 0.520807
0.184502 0.266278 0.497748
0.146583 -0.134238 0.289413
0.211696 0.119858 0.241612
-0.224327 0.104907 0.258078
0.0589598 0.0130771 0.280538
-0.18602 -0.0144486 0.258657
0.121608 0.274948 0.556533
-0.153153 0.29228 0.622741
0.018139 0.294251 0.611723
-0.217509 -0.075288 0.00764494
0.0329628 -0.218192 0.29918
0.207763 0.0353009 0.279151
-0.215956 -0.0549291 0.287666
-0.0522434 0.147745 0.272557
-0.169064 -0.0649253 0.277143
0.0263362 0.196084 0.356089
0.19822 -0.318713 0.0815442
-0.177706 0.181699 0.335587
0.161709 0.0539815 0.268278
0.221617 -0.282408 0.0299147
0.199055 -0.301995 0.205812
-0.188793 0.0626062 0.275697
-0.154211 0.23789 0.463796
0.214552 -0.322357 0.147194
-0.169833 0.261953 0.514504
0.197996 -0.303847 0.196775
0.0201928 0.286995 0.577981
0.0345024 0.24077 0.473162
-0.222975 -0.309577 0.191977
-0.15171 0.225988 0.4313
0.115489 0.207532 0.374852
-0.033698 0.310314 0.595417
0.210552 0.215859 0.431193
-0.198849 -0.258029 0.014225
0.207773 -0.076654 0.030785
-0.197541 -0.263186 0.0174791
-0.0505254 0.204018 0.377984
0.0387167 -0.172897 0.303516
-0.120959 0.236763 0.455226
-0.154951 0.31654 0.615007
0.033552 -0.105195 0.286133
-0.0735775 -0.044477 0.279375
-0.209577 -0.212949 0.308527
0.0656239 0.123023 0.259613
0.214406 0.190966 0.290097
0.198027 -0.0238102 0.0205808
-0.204543 0.266675 0.00473753
-0.11908 0.289687 0.028724
0.0167543 -0.215618 0.298899
0.0784967 -0.0819348 0.283402
0.200743 -0.285241 0.0340406
0.0623182 0.185293 0.329962
-0.0672375 0.226628 0.420518
0.0280249 0.263529 0.532187
0.198809 0.0998969 0.0144032
-0.110901 0.325173 0.636854
0.180383 -0.149053 0.300642
0.203002 -0.285433 0.012779
0.183483 0.215997 0.36382
-0.169225 0.14802 0.262755
-0.0218951 -0.27672 0.288133
-0.143438 -0.304102 0.205957
0.1732 -0.259657 0.288725
-0.106635 -0.307991 0.206218
0.195863 0.245969 0.432289
0.201858 0.263855 0.55689
-0.201814 -0.0789176 0.00850498
0.11548 -0.18346 0.295087
0.217034 -0.321519 0.145005
0.0469901 0.0501543 0.268046
0.0480628 0.22693 0.420584
-0.0253579 0.316402 0.640121
-0.105995 0.250929 0.48974
-0.0562015 0.282831 0.583709
0.209772 -0.0326832 0.0316054
0.0949906 -0.00538005 0.274547
-0.082774 -0.186357 0.305227
-0.0236021 0.135176 0.267964
-0.137312 -0.12336 0.28837
0.00774345 0.21406 0.383978
0.0779234 0.0544033 0.275593
-0.174529 0.171926 0.276043
-0.0921047 0.0373099 0.269886
0.0472713 0.197468 0.360883
-0.178728 -0.22376 0.309805
0.20551 0.131358 0.271293
0.198612 -0.0539403 0.28959
-0.118989 0.270496 0.0128153
0.0869472 0.0768248 0.265064
0.0394874 -0.294182 0.286619
-0.125016 -0.177542 0.304148
0.207802 0.222832 0.371668
-0.218643 -0.210398 0.00810891
-0.124617 0.167438 0.292689
-0.217815 0.287592 0.623279
0.0308997 0.274885 0.547111
-0.025771 0.0718529 0.265413
-0.163512 0.139138 0.272197
-0.213566 0.219311 0.363872
0.197099 0.260853 0.547936
0.129104 0.269273 0.556292
0.18013 0.287938 0.0249905
-0.146699 0.132806 0.262111
0.0915429 0.0842952 0.272043
0.0857022 0.307176 0.594322
0.212319 -0.104726 0.29508
0.0822452 -0.29746 0.205504
0.204576 -0.294431 0.00504848
0.100926 0.271467 0.557421
0.166055 -0.318423 0.20691
0.177185 0.316052 0.640214
-0.215503 0.013607 0.00681926
-0.0998955 0.0625822 0.266974
0.0208639 -0.115522 0.287293
0.0646405 -0.0195026 0.284563
0.186852 -0.264405 0.27462
-0.101979 -0.18093 0.294918
-0.223048 -0.285264 0.259614
-0.214743 0.155838 0.252734
-0.208666 0.12814 0.270561
-0.118108 0.236043 0.469198
-0.142625 -0.306643 0.206128
-0.10953 0.205661 0.388336
0.224177 0.231774 0.440708
0.00143222 -0.163717 0.302382
-0.06704 0.00989065 0.272878
0.180515 0.289467 0.0156342
-0.222719 0.17852 0.283571
0.211001 -0.277628 0.257807
-0.156959 0.172582 0.290409
-0.0031442 0.136684 0.260403
-0.0177193 0.224825 0.43047
0.213256 -0.303766 0.0780471
0.0125845 0.282028 0.0319033
0.159519 0.187394 0.347012
-0.132108 0.222604 0.419277
0.0775704 -0.0921064 0.284578
-0.0364453 0.322291 0.614397
0.0494602 -0.0781928 0.282999
0.204571 -0.224225 0.00736274
-0.212077 0.0360122 0.278525
-0.0572943 -0.288865 0.212134
-0.223081 -0.142598 0.278436
-0.0724514 0.163703 0.284751
-0.198185 0.163628 0.293713
0.125395 -0.303919 0.274589
0.0518072 0.231287 0.432346
0.0898682 -0.176444 0.294303
0.122365 0.184403 0.31442
0.103349 -0.0314759 0.277551
0.0627972 0.0915684 0.263277
-0.213515 0.114099 0.268693
0.165518 0.289896 0.00847705
-0.102354 -0.185981 0.305181
0.0958492 -0.277886 0.299675
-0.0439636 -0.252451 0.298748
0.0434027 0.0400595 0.277204
-0.0585717 -0.294678 0.26968
-0.171806 0.322525 0.634456
-0.068245 0.202483 0.374979
-0.200919 0.203945 0.319526
0.223668 0.21244 0.0167753
-0.0888743 -0.08749 0.28436
0.135048 0.165564 0.279866
0.151469 0.204224 0.389671
-0.00676848 0.272058 0.0277779
0.22299 0.289614 0.583351
-0.121195 -0.217245 0.299008
-0.00862915 -0.225575 0.300061
0.139931 0.05187 0.26829
-0.188949 -0.202545 0.27753
-0.156523 -0.119402 0.297032
0.200605 0.0455404 0.0267616
0.0102015 0.301002 0.628918
-0.0745927 0.0501628 0.276278
0.0439206 0.0140438 0.272253
-0.151737 0.246357 0.502853
-0.0984775 0.281457 0.0318673
-0.0394929 0.309985 0.595307
-0.219441 -0.232267 0.0283748
0.197824 0.191939 0.0200495
0.055913 -0.314532 0.252748
-0.0745983 0.27058 0.552687
-0.0173604 0.317273 0.600127
-0.149423 -0.206541 0.307698
0.00275154 -0.136398 0.299007
-0.0198267 0.247677 0.490206
0.0510601 0.19805 0.343848
0.147914 -0.317478 0.243294
0.104142 0.0206468 0.279791
0.137975 0.276659 0.577738
0.0576856 0.308867 0.594926
-0.0332327 0.252458 0.487424
-0.203989 -0.320996 0.148664
0.0556445 0.251237 0.485525
-0.197769 -0.308637 0.147429
-0.0823227 0.170062 0.293152
0.00570532 0.247838 0.48998
0.210095 0.0622704 0.275991
0.119889 0.27183 0.547754
-0.216321 0.182239 0.0296618
0.158068 -0.247404 0.309937
0.223371 0.179177 0.016064
-0.0153613 0.207555 0.366966
0.129181 -0.122804 0.28807
-0.0589126 0.276324 0.566861
-0.0318153 0.226874 0.419223
-0.0434666 0.26584 0.523566
-0.0146418 -0.294964 0.22952
0.0468624 -0.303061 0.252438
-0.157288 0.194189 0.346284
0.12557 0.236727 0.4542
0.0501064 -0.304192 0.274119
-0.170307 0.206573 0.400673
-0.0834888 0.182731 0.32439
0.0399839 -0.301905 0.277918
-0.177404 -0.19493 0.306277
-0.0871671 -0.225334 0.299957
-0.209084 0.164999 0.0313397
-0.0137965 -0.288868 0.217102
0.22416 -0.308563 0.163113
-0.115516 -0.16562 0.302689
-0.193336 0.0758253 0.245295
0.128621 0.0695822 0.274137
0.0367112 -0.258255 0.297131
-0.18147 -0.304233 0.274026
0.157087 0.129363 0.261875
0.163359 -0.101497 0.285437
-0.0205404 -0.0923384 0.284582
0.201993 -0.146156 0.270229
0.127631 -0.0330433 0.286385
-0.225063 -0.237757 0.297688
0.0862001 0.108172 0.261443
-0.00734184 0.286099 0.575391
0.188483 0.208654 0.334224
0.0747966 0.0840075 0.272002
-0.0073556 -0.289087 0.208708
0.223206 -0.256572 0.299575
-0.05142 -0.308523 0.266791
0.177866 0.257422 0.486743
0.197706 0.153384 0.248997
0.140731 -0.261716 0.306714
-0.0365356 0.198141 0.343098
-0.0185386 -0.303747 0.248778
-0.183858 0.247039 0.446836
0.21096 -0.236251 0.310393
0.063754 0.283876 0.0311335
0.217191 0.249707 0.010958
-0.220998 0.0153715 0.277211
0.220139 0.191876 0.0281107
-0.221652 -0.0514052 0.265278
0.0679022 0.297607 0.622893
0.141406 -0.0788078 0.283088
-0.205097 0.266255 0.489264
0.222637 0.152809 0.25919
-0.204505 0.265303 0.00747686
0.0893074 0.101409 0.262223
-0.0944133 0.260905 0.513824
-0.196481 0.237389 0.0168046
-0.0073059 0.195 0.352132
0.0534557 0.252117 0.487754
-0.089805 -0.303042 0.252482
-0.157158 -0.0954347 0.285192
0.197863 0.183776 0.0201466
0.0763774 -0.0935075 0.28474
0.0456708 0.183571 0.304976
0.0550567 -0.174615 0.303728
-0.0686671 0.185498 0.311345
0.223119 0.0239906 0.0154769
0.200746 -0.00965685 0.254991
0.163059 0.202627 0.367784
0.113328 -0.0734785 0.282391
-0.14291 -0.302212 0.256761
-0.178367 0.213753 0.420971
0.138631 0.161561 0.286367
0.10121 -0.297357 0.265109
-0.00392328 -0.0235232 0.285078
0.0478815 0.0755565 0.272901
0.139523 0.0199455 0.271897
-0.0120192 -0.255695 0.308343
-0.187686 -0.271072 0.303103
0.113395 0.0797177 0.272754
0.222853 -0.257438 0.0148974
0.042425 -0.0499382 0.288324
-0.221688 -0.0331804 0.0121854
0.104571 0.218199 0.419222
-0.186459 0.00841875 0.255755
0.156493 0.0608772 0.275505
0.179125 -0.0640485 0.290549
0.203306 -0.17942 0.304482
0.0822938 -0.130074 0.288957
-0.165955 -0.0974088 0.283151
0.0568882 0.226502 0.437167
-0.0393032 0.114253 0.260519
0.0309807 -0.0781095 0.282966
0.0218345 0.0643363 0.274205
-0.202179 -0.317165 0.183811
-0.219964 0.285915 0.61887
-0.218248 0.156104 0.0288596
-0.154607 0.0361287 0.27031
0.11311 -0.0450621 0.27911
0.0529629 0.0883262 0.271381
0.0666082 0.270516 0.537271
-0.175977 -0.266416 0.28295
0.208232 0.263909 0.483185
0.20389 -0.164894 0.302772
0.152736 0.210145 0.405274
0.0565875 -0.181357 0.304561
0.0810373 0.195696 0.339262
-0.19341 -0.300245 0.205695
-0.208802 -0.236859 0.0312153
0.0830683 0.194337 0.354676
0.0347141 0.194526 0.352498
-0.0327138 -0.220451 0.299458
-0.103718 -0.20321 0.297437
-0.0184943 -0.266242 0.29412
-0.208923 -0.326448 0.109847
-0.194899 0.00806814 0.252889
-0.200893 0.10877 0.0275805
0.106897 0.249089 0.483984
0.180142 -0.277802 0.26981
-0.030981 0.264405 0.51913
0.218368 -0.270098 0.270882
-0.212729 0.143905 0.275446
-0.223468 -0.0792815 0.272639
-0.0635767 -0.0653367 0.290414
-0.174916 -0.151224 0.282492
-0.0346625 -0.299521 0.238563
-0.0293676 -0.23789 0.310547
0.0580667 -0.205886 0.307591
-0.2176 -0.129415 0.0291378
-0.0160739 0.173004 0.282754
-0.211018 0.242793 0.426597
0.196275 0.0257784 0.250963
-0.219395 -0.054694 0.0283885
-0.0639127 -0.270579 0.291889
0.20875 0.00468065 0.282783
0.202032 0.222257 0.36911
0.0528138 0.180557 0.317065
-0.140533 -0.254027 0.308791
0.017797 -0.317442 0.243475
0.100417 0.224531 0.417815
0.104724 0.268454 0.535427
-0.108243 -0.215165 0.308753
-0.170058 0.188727 0.353153
-0.0917932 -0.274262 0.301498
0.174412 0.281764 0.030724
0.0727473 0.117365 0.260307
0.0505286 -0.0201656 0.276282
-0.133789 0.263056 0.527745
0.21702 0.195634 0.37315
0.103506 0.13411 0.26119
-0.207277 0.167948 0.258575
-0.102175 -0.107194 0.286576
-0.0300657 -0.0685069 0.290753
-0.223029 0.154674 0.271429
-0.0908728 -0.106433 0.295445
0.0232684 0.164154 0.274116
-0.0918932 0.290933 0.606857
0.185197 0.0778811 0.248883
-0.154919 0.149888 0.277155
-0.113608 0.0962783 0.263126
0.0574421 -0.294994 0.205336
-0.222691 0.091491 0.0221956
0.221314 -0.311318 0.0366237
-0.0791484 0.203895 0.360812
-0.222506 -0.280611 0.0174359
0.184494 0.285725 0.55033
-0.0790001 0.301338 0.590553
-0.131582 -0.0529456 0.288898
0.0010259 -0.288247 0.277665
-0.0986457 0.122041 0.267574
0.0185572 0.231764 0.43175
-0.0267497 0.177796 0.308359
0.0617656 -0.131717 0.289167
0.085116 -0.15158 0.291437
-0.0516981 -0.215852 0.298919
-0.11901 -0.311203 0.261998
0.0335611 -0.317199 0.245055
0.205852 -0.220181 0.0299972
-0.0015527 0.275563 0.0294429
-0.0594892 0.202514 0.374569
0.10457 0.223766 0.433719
0.052037 -0.188973 0.295787
-0.164379 -0.166899 0.292226
0.0120818 0.28703 0.00700206
-0.182083 -0.0482882 0.265463
-0.181025 -0.319555 0.226772
0.00601445 0.114474 0.260339
0.00891187 -0.211792 0.308322
0.161466 0.201173 0.365491
0.203967 0.274411 0.585365
0.205196 -0.308583 0.0272982
-0.138468 -0.210453 0.308176
0.101526 0.184684 0.312141
-0.200947 0.290314 0.553457
0.196186 0.178499 0.267464
0.145041 0.216282 0.403133
-0.0864758 -0.0118442 0.283867
0.221579 -0.316162 0.155858
-0.19079 0.310839 0.642159
0.220777 -0.00917187 0.0270109
0.22388 0.240801 0.478212
-0.056576 -0.0918786 0.284812
0.144582 -0.0274195 0.277308
0.218221 -0.296178 0.188438
0.0934646 -0.171805 0.30338
-0.216034 0.0579346 0.00704076
0.0528479 0.254111 0.49302
-0.094653 0.156209 0.269526
-0.103267 0.112373 0.268773
-0.131521 -0.318805 0.234547
-0.20457 -0.0937138 0.00735849
0.194462 0.0885203 0.272697
-0.214254 0.209289 0.338233
-0.0945805 -0.0928373 0.293781
-0.214787 0.27797 0.52274
-0.155998 0.159215 0.275414
0.174271 0.192833 0.319351
0.21326 -0.32631 0.108104
0.222335 0.212649 0.370063
-0.15558 -0.0873701 0.293112
0.101417 0.296864 0.623876
-0.16122 0.318646 0.621968
0.223768 -0.041905 0.269278
0.131483 0.138561 0.263215
0.089954 0.204161 0.380596
0.0163434 0.0418845 0.276979
0.00373405 0.00741936 0.272843
-0.188518 0.297019 0.64223
0.153593 -0.284762 0.294919
-0.0404601 0.123948 0.267022
-0.178695 0.271905 0.524126
0.0833568 0.173739 0.286065
-0.000737078 0.255537 0.50979
-0.137394 0.201501 0.363093
-0.200892 0.246543 0.511552
-0.202204 0.0137646 0.252316
0.193803 0.254323 0.00678977
0.0234186 0.277164 0.552793
0.213712 0.19356 0.00605218
0.203973 0.269444 0.497325
-0.186755 -0.0920751 0.293959
-0.0297119 0.0493439 0.268062
-0.0621818 0.105764 0.269366
0.190639 -0.202381 0.307156
0.197999 0.0456366 0.248759
0.219573 -0.161046 0.275577
-0.219462 -0.124646 0.00845071
0.0399417 0.199854 0.348009
-0.105588 -0.0806025 0.292283
-0.0276375 -0.251309 0.299067
0.199789 -0.320414 0.215195
-0.0933713 0.269222 0.0209667
-0.0847358 0.288716 0.600491
0.207376 0.0524576 0.248109
0.0901245 -0.234483 0.310436
-0.00215416 0.241795 0.457501
0.046369 -0.29664 0.266332
-0.205056 -0.162534 0.27201
-0.222878 -0.176879 0.01501
0.0712176 0.159949 0.271784
0.223936 0.257598 0.506765
0.0215496 -0.0373001 0.286763
-0.145291 0.207574 0.399629
-0.178687 0.315869 0.618037
-0.0347967 0.208295 0.369971
-0.0477172 -0.174187 0.303737
0.0362754 0.0199607 0.271526
-0.0117519 0.0487087 0.268054
0.153848 -0.0613011 0.281237
0.0934741 0.188152 0.320182
0.199663 0.1767 0.325021
-0.00271996 -0.32005 0.220043
0.0613671 0.202459 0.356185
0.121448 -0.319591 0.226597
-0.213888 0.188933 0.284526
0.207723 -0.262774 0
0.08044 0.28831 0.0292898
0.0462755 -0.126357 0.288563
-0.0754465 0.181782 0.321469
-0.20296 -0.0688992 0.261531
-0.0412097 -0.16532 0.302652
-0.0701284 -0.302304 0.256393
-0.0380935 0.0906459 0.263273
0.0637976 0.211088 0.397359
-0.0387551 -0.109068 0.295767
-0.129383 0.0663508 0.266825
0.215329 0.186922 0.351119
0.181728 0.196865 0.315602
-0.0736874 -0.23257 0.30039
-0.113968 0.0256608 0.271484
0.124398 0.215344 0.414679
0.128069 0.230669 0.455129
0.159036 0.27737 0.570999
0.0114709 0.154847 0.275707
-0.0614478 0.228741 0.425802
0.0604659 -0.108565 0.295567
0.157942 -0.09101 0.284641
-0.0753573 0.120357 0.259971
0.0874358 0.305657 0.642892
0.217389 0.248906 0.44739
-0.220959 -0.300574 0.165342
0.165887 0.186098 0.344566
-0.00531283 -0.0817787 0.292282
-0.126781 0.2116 0.407288
0.0325852 0.248205 0.492456
0.214628 0.219837 0.030404
-0.11374 -0.0475932 0.288243
-0.0287222 -0.118541 0.287686
-0.0710867 -0.169892 0.2937
-0.0453012 0.130762 0.260096
-0.181867 0.239974 0.431655
0.0592789 0.209502 0.392965
-0.082214 0.168952 0.291583
-0.223136 -0.1809 0.282643
0.194967 0.118382 0.240691
0.0461707 0.217267 0.39474
0.198643 0.245995 0.0286699
-0.0198627 0.295241 0.614329
-0.162684 -0.223713 0.3098
0.203698 -0.0040475 0.254399
-0.0127621 0.288133 0.595437
0.201176 -0.161369 0.302322
-0.219858 0.286746 0.621331
-0.2213 -0.0970398 0.269281
0.116379 0.0263251 0.270934
-0.154213 0.158866 0.28451
-0.15511 -0.108618 0.295712
-0.16435 -0.310112 0.264082
-0.209823 0.204207 0.321582
0.114673 0.283443 0.590956
-0.215039 -0.19817 0.0302058
0.0823749 -0.314423 0.206644
-0.197484 -0.0114417 0.0193728
0.216044 0.235751 0.410892
0.158615 0.215798 0.420856
-0.094173 0.191726 0.34894
-0.0571153 0.0362325 0.277934
0.153171 -0.23839 0.300503
0.174912 0.217538 0.384779
0.0293487 0.281215 0.57832
-0.0841893 0.198268 0.346151
0.219365 0.250837 0.522925
-0.223591 0.129368 0.259527
-0.0962168 0.24612 0.474925
0.210296 0.248779 0.518585
0.199131 -0.0553472 0.0232565
-0.0716999 0.277149 0.00673864
-0.093717 -0.0996493 0.285731
0.121521 0.0043222 0.281842
0.0431462 -0.0123914 0.275339
-0.00426837 -0.259793 0.307231
-0.208299 -0.18372 0.274386
-0.166313 -0.115578 0.296564
-0.208897 -0.235804 0.31048
0.192068 0.240808 0.417756
0.183077 -0.262504 0.27885
0.106317 0.315796 0.603027
-0.100472 -0.0386291 0.287146
0.0997272 -0.292268 0.20515
0.0892607 0.2788 0.560392
0.117537 0.0834081 0.264488
0.112681 -0.169206 0.293444
0.0164101 0.317482 0.600612
0.222826 -0.0160597 0.0220456
0.0897737 -0.0478776 0.288068
0.0605149 -0.25777 0.307782
0.138758 0.325009 0.635347
0.164474 -0.298808 0.237118
0.0911798 -0.0710887 0.290936
0.0556993 -0.184785 0.2953
-0.0303279 -0.156697 0.292216
-0.139319 -0.318109 0.239033
-0.146914 0.287203 0.585793
0.0310988 0.178128 0.309501
0.156425 -0.199819 0.30684
0.22159 -0.128514 0.0118104
-0.188523 0.18409 0.343552
0.17361 0.232061 0.426534
0.197823 0.126728 0.0200659
-0.0206707 -0.314136 0.253838
-0.115952 -0.262309 0.295997
0.0690501 -0.0211036 0.276388
-0.12115 -0.135008 0.298942
0.15197 0.211633 0.392052
-0.0840746 0.278365 0.00623193
0.214818 0.186679 0.281972
-0.0611396 -0.319589 0.226405
0.0713442 -0.0437369 0.278999
0.219385 -0.149266 0.274187
0.222923 -0.154622 0.0217889
0.210329 0.064703 0.246745
-0.079517 -0.109193 0.295782
0.0303742 -0.0850743 0.292665
0.213244 -0.321742 0.160429
0.200947 -0.0359377 0.0276078
-0.222684 -0.314396 0.145008
-0.144853 -0.294111 0.286688
0.162924 0.299288 0.642987
0.141732 -0.0388069 0.287145
-0.112502 -0.319852 0.222708
-0.12646 -0.250493 0.29929
0.00615108 0.313376 0.64124
0.0832136 0.321698 0.615211
0.13798 -0.228347 0.300163
0.0198058 0.210304 0.374675
-0.210376 -0.0381904 0.258204
-0.0718514 0.20786 0.370927
0.0583523 0.108967 0.261223
-0.21283 -0.123655 0.00571026
-0.03582 -0.136094 0.299075
-0.161321 0.0770289 0.273658
-0.157324 0.228521 0.457145
0.0897799 0.0419949 0.277146
0.223326 0.207358 0.362439
0.149344 0.0324452 0.270585
0.187057 0.227106 0.456227
0.0125927 0.110373 0.268535
0.214689 0.254036 0.457731
0.052444 0.261724 0.528684
0.225068 -0.17045 0.290285
0.148911 -0.152859 0.291544
-0.0656004 0.0668122 0.266185
-0.214636 0.210118 0.0303635
0.0134209 -0.101918 0.294746
-0.132964 0.303366 0.59487
-0.199431 0.247884 0.00755562
0.0489318 -0.0880145 0.293028
-0.158257 0.274117 0.576468
-0.133684 0.194164 0.342741
0.222833 -0.189254 0.298037
0.0319351 0.263718 0.517503
-0.121542 0.00673506 0.273667
-0.138614 -0.222992 0.309711
-0.0332624 0.323346 0.637545
0.104196 -0.0728024 0.282322
-0.0356948 0.268171 0.0184371
0.215881 -0.0859466 0.265672
-0.144775 -0.183493 0.304877
0.211402 0.0592095 0.247633
-0.0476141 -0.194878 0.30627
-0.0992218 0.285407 0.593947
-0.00354859 -0.043329 0.278775
-0.19834 -0.117792 0.0154417
-0.21677 -0.138307 0.297186
0.11453 0.0144995 0.272253
-0.198694 0.0781822 0.0222927
-0.0125688 0.207819 0.38584
0.0546026 -0.254252 0.298247
-0.0537082 -0.00495105 0.274519
0.113291 0.109636 0.261477
-0.221535 0.237998 0.014063
-0.153575 0.197095 0.372975
0.18221 0.282485 0.546023
0.174799 -0.288729 0.21465
-0.0552525 -0.148418 0.300583
0.0679263 0.241243 0.459585
0.221295 -0.301145 0.168529
0.0904891 0.182548 0.304866
0.0220868 -0.155711 0.291977
0.22289 0.179502 0.308728
-0.0915869 0.0944722 0.263118
-0.217395 -0.275292 0.264997
0.0270029 0.270173 0.549448
0.0768401 0.15457 0.276929
0.195882 0.251486 0.00234206
-0.063513 0.294787 0.0197915
-0.0438932 0.0441643 0.268733
-0.0297508 0.325779 0.623369
-0.168097 0.208112 0.40444
0.185648 -0.290181 0.227715
-0.207998 0.271099 0.0186002
0.158832 0.258655 0.534213
-0.170297 -0.252392 0.309233
-0.0057811 0.2299 0.443134
0.13732 0.182477 0.330967
0.097663 -0.155837 0.301407
-0.134248 0.186503 0.341931
-0.126045 0.284225 0.58127
0.0480644 -0.292229 0.288821
-0.113258 -0.258611 0.307549
0.100279 -0.0780082 0.282927
0.0376873 -0.320429 0.214802
-0.158318 -0.180163 0.304469
0.109792 0.190345 0.347439
-0.209547 -0.325283 0.126169
0.152692 -0.134541 0.289511
-0.177989 0.112264 0.269695
0.011261 0.227368 0.419622
0.170134 0.0824575 0.273119
-0.133908 0.242346 0.488804
-0.146747 0.19089 0.335825
-0.132642 0.200201 0.378139
-0.210713 0.145735 0.00484428
0.210568 -0.328642 0.060634
0.183093 0.116298 0.269275
-0.220007 -0.24833 0.282252
0.0903055 -0.209471 0.298116
0.216984 0.232783 0.0292192
-0.222902 -0.189193 0.28296
0.177075 0.263053 0.549654
0.163815 0.278418 0.570886
-0.209868 0.127012 0.241959
-0.17527 0.257159 0.490987
0.178797 0.183493 0.339667
-0.219297 -0.322822 0.11899
0.0812859 0.281929 0.582713
-0.154956 0.290063 0.0285689
0.117174 0.229657 0.450902
0.210393 -0.316614 0.246958
-0.209224 0.239317 0.493562
-0.122576 0.19041 0.330971
0.192812 0.059839 0.247102
-0.207452 0.246768 0.0317888
0.168119 -0.294133 0.205277
-0.139164 0.00213437 0.274171
-0.0337075 -0.0732914 0.282416
0.183963 0.144475 0.275557
-0.223779 0.267745 0.522955
0.200764 0.203583 0.396568
-0.0269345 0.129153 0.259836
-0.207666 0.259153 0.00739712
0.0821929 0.215269 0.391304
-0.196047 0.194718 0.293722
-0.0544423 0.276306 0.00708956
0.0280574 -0.289011 0.209934
-0.133822 0.29494 0.589726
0.22012 -0.307054 0.0280348
0.0129833 -0.0880049 0.28404
-0.211017 -0.293046 0.287689
-0.206757 -0.303365 0.0889212
-0.182297 0.210609 0.413189
0.096201 0.300232 0.631746
-0.122015 -0.177402 0.2945
0.149667 0.204033 0.371047
-0.127035 0.238892 0.478421
-0.122841 -0.313764 0.206602
-0.0978118 0.0974926 0.262824
-0.19825 -0.0151406 0.0212128
-0.140958 -0.267821 0.304746
-0.0849985 0.24306 0.465181
-0.124565 -0.264447 0.305967
-0.163781 -0.132278 0.288733
-0.174989 -0.254292 0.288784
0.180304 0.19866 0.323242
-0.158379 0.225155 0.430034
0.185055 0.308556 0.64299
0.223398 0.312843 0.63244
0.0437948 0.223569 0.411386
-0.20898 0.207427 0.00551376
0.0653205 0.237468 0.466141
0.0584063 0.277119 0.56907
-0.139377 -0.294798 0.269463
-0.22242 0.220087 0.383129
-0.073116 0.242424 0.462814
0.22444 0.160861 0.27005
0.0740642 -0.151482 0.300869
0.0352075 -0.29182 0.273579
0.183373 0.179271 0.329339
0.0967495 -0.135491 0.298893
-0.0224532 0.253039 0.488443
-0.172059 0.229334 0.42213
-0.195541 0.180951 0.336239
-0.099521 0.244667 0.471756
0.0159128 0.285552 0.58896
-0.164737 -0.299644 0.280452
-0.133173 -0.0625498 0.281495
0.200123 0.288232 0.547499
-0.0575546 0.318213 0.604618
-0.0454469 -0.279321 0.298946
-0.053459 0.170157 0.292322
-0.205744 -0.187195 0.00687295
0.111345 -0.303198 0.251737
0.0443473 0.250822 0.483863
0.0292435 0.265239 0.536707
-0.0385907 -0.0966947 0.294252
-0.0665577 -0.319391 0.229168
-0.158863 0.279742 0.00555207
-0.136347 0.166459 0.292328
0.106517 0.0481375 0.276479
0.0299344 0.0163769 0.271916
-0.205255 -0.302753 0.103023
-0.0159943 0.176006 0.303094
-0.0114125 0.294113 0.0154007
-0.212099 -0.296607 0.002848
-0.207811 0.315153 0.622046
0.0506238 0.268189 0.530302
-0.147238 -0.277686 0.299765
0.124534 0.243546 0.488148
0.196685 0.255857 0.459148
0.0185519 0.261184 0.525534
-0.135276 -0.123801 0.297571
-0.0281229 0.0590562 0.274984
-0.189747 0.304518 0.644491
0.159106 0.208408 0.384858
-0.131812 0.197918 0.352599
-0.11762 0.200741 0.377155
-0.0263652 -0.24362 0.310338
0.0303137 -0.215857 0.308824
-0.02468 -0.16823 0.303008
-0.0873839 0.211983 0.382766
0.188988 0.214842 0.424048
0.217623 0.13693 0.246554
0.163737 0.301152 0.595467
0.106112 -0.191139 0.305769
0.0916065 0.254961 0.513073
0.196171 0.292201 0.631014
-0.207974 0.106859 0.0308813
-0.131593 -0.0430128 0.279286
0.100684 -0.15912 0.292292
-0.100383 0.28571 0.579969
-0.216895 0.30149 0.6456
-0.222561 0.070125 0.0225151
0.00537985 -0.108781 0.286434
0.0900962 -0.157108 0.29207
0.0926183 -0.245882 0.299967
-0.22355 -0.057559 0.020147
0.141993 -0.0408143 0.287389
-0.200863 -0.0279888 0.0274922
-0.11097 -0.208069 0.29798
-0.205943 0.237844 0.412387
0.164359 -0.130901 0.288152
0.202711 0.139851 0.273986
-0.13517 0.160897 0.285365
-0.0361188 0.221527 0.405196
0.206371 0.206697 0.405996
0.00143713 0.174704 0.284644
0.134066 -0.289199 0.207102
-0.165913 0.026429 0.279696
-0.164287 0.255936 0.509051
0.00467446 0.188464 0.334983
0.210109 -0.320857 0.179728
-0.213447 -0.303851 0.0691723
0.122295 0.238179 0.473844
0.200715 0.275077 0.0248733
0.204505 0.169397 0.306708
0.207446 -0.304148 0.0742574
0.224196 0.189005 0.326567
-0.082386 -0.0138865 0.284117
-0.188528 -0.118181 0.268383
-0.165054 -0.130669 0.287603
-0.00451242 -0.207367 0.307795
0.135099 -0.31445 0.25299
-0.0301164 0.0961138 0.262597
0.224621 0.187959 0.318026
-0.138386 -0.29152 0.2051
0.0166442 -0.272496 0.302392
-0.183077 0.182498 0.33851
-0.200496 0.181265 0.337809
-0.100044 0.181038 0.322289
0.0268693 0.270467 0.0239723
0.222733 -0.310547 0.0416572
0.208762 0.0944853 0.243419
0.202317 -0.243975 0
0.193952 -0.0797313 0.262759
0.21185 0.247738 0.00399628
0.0322156 0.250028 0.497194
-0.0182168 -0.186979 0.295677
-0.13909 0.176415 0.315806
0.204794 0.0207863 0.0295514
-0.117126 0.16592 0.27897
0.187417 -0.23401 0.281791
0.0240823 0.0521101 0.275716
0.0563614 -0.301929 0.205808
-0.212747 0.258519 0.469586
0.218699 -0.0247298 0.0287121
-0.0635289 0.287224 0.0297458
-0.153549 0.100923 0.262978
0.216159 0.225968 0.38506
0.137733 0.222129 0.434296
0.199996 -0.0830134 0.293044
0.217682 0.0130985 0.0291349
-0.165433 -0.154416 0.290022
-0.199688 -0.18096 0.0121812
-0.134221 0.323628 0.629649
-0.0812565 0.198953 0.347805
-0.114863 0.294672 0.0200822
0.20363 0.26924 0.00846803
0.174157 -0.272039 0.281077
0.197153 -0.315143 0.0625288
0.171444 0.00530887 0.267262
0.160536 0.312052 0.641706
0.221817 0.0541979 0.0245051
0.176412 0.273949 0.53425
-0.171956 0.256298 0.495111
0.162581 0.119957 0.26868
-0.0572548 0.0932148 0.270894
-0.035068 0.0745513 0.26514
0.0654782 0.289723 0.602242
0.00535853 -0.147333 0.300358
0.191316 -0.150848 0.300959
-0.0445249 0.313677 0.641127
-0.0375867 -0.295494 0.285136
0.0633853 -0.155607 0.291923
-0.188702 0.262978 0.480404
-0.0279214 -0.295234 0.28543
-0.220006 -0.212017 0.304556
-0.147509 0.257132 0.530061
0.0139975 0.232143 0.449493
-0.177645 0.23729 0.432693
0.0950835 0.284616 0.590813
0.0672705 -0.295097 0.28559
0.0841676 0.120662 0.267615
0.0637517 -0.00114764 0.274089
-0.140396 0.0606948 0.267544
0.153273 0.230282 0.457799
0.137516 0.0519917 0.268251
0.150915 -0.303772 0.248717
-0.133339 0.261214 0.522758
-0.217438 0.307649 0.603753
0.216286 -0.0905559 0.266354
-0.212425 -0.328204 0.0898977
-0.208914 -0.298205 0.0534271
-0.207221 0.215155 0.0305734
0.131142 0.0226806 0.279713
-0.105723 0.213965 0.409194
0.222828 0.086146 0.0220547
0.0328035 0.163331 0.283261
-0.186957 -0.0302607 0.259716
-0.0512621 0.189427 0.340023
-0.215787 0.00310314 0.280873
-0.180371 0.170708 0.30674
0.20067 -0.305161 0.10737
-0.207301 -0.322883 0.142915
0.138491 -0.130793 0.288984
0.0246875 0.255158 0.510154
0.114596 -0.307245 0.268966
0.0462972 -0.242875 0.300307
-0.204846 0.151865 0.00723622
-0.0450738 -0.157496 0.292323
0.147777 -0.30277 0.244977
-0.198099 -0.15817 0.0160301
-0.0251346 0.262437 0.513603
-0.0472914 0.0757336 0.273009
0.0640181 -0.010943 0.27522
0.0388553 0.228887 0.425264
-0.093948 -0.278671 0.299271
-0.0751832 0.274941 0.549361
-0.212048 0.0928131 0.244192
-0.0223937 0.315013 0.598169
0.136987 0.00665088 0.281679
0.0409547 0.263075 0.531641
0.0808671 0.200451 0.35188
0.0925038 0.315889 0.600576
0.127268 0.188621 0.326334
0.183761 0.237956 0.422635
0.206526 -0.29197 0.0434551
-0.085457 0.281503 0.567342
0.0288429 0.22568 0.433465
-0.00749873 0.154875 0.267234
0.0723719 0.18971 0.322871
0.214123 0.119675 0.242603
-0.189836 0.298663 0.575012
0.0518398 0.181767 0.320168
0.0915167 -0.0412092 0.278687
-0.041503 -0.308512 0.266812
-0.132058 -0.257122 0.297443
0.197492 0.204579 0.320622
0.125889 0.244925 0.491939
-0.0768822 -0.317272 0.244503
-0.115633 0.285108 0.030627
-0.221344 0.206272 0.395357
-0.129483 -0.0998345 0.285717
0.2041 -0.320253 0.217446
0.0230172 0.207709 0.38624
-0.177115 -0.114703 0.276713
-0.148511 0.286709 0.585594
-0.0563186 -0.0163995 0.284425
0.012193 0.290726 0.602254
-0.187299 -0.220493 0.309406
0.0598675 -0.104367 0.286011
-0.0600243 0.261713 0.513389
0.0662704 0.181213 0.319538
-0.133441 0.225946 0.428497
0.0753347 -0.270239 0.303532
0.14219 -0.0983985 0.294348
0.0433644 -0.275786 0.288874
0.205311 0.248064 0.439602
0.0768185 -0.132461 0.298519
-0.219545 0.273093 0.583477
0.0962792 0.180897 0.320863
0.203917 0.0803168 0.244946
0.177856 -0.173704 0.2827
0.0941272 -0.213513 0.298579
0.0358601 0.170158 0.291738
-0.199281 0.174417 0.0237143
0.221953 0.262745 0.551711
0.222774 -0.0366861 0.279423
0.22425 -0.307743 0.178129
-0.218188 -0.317597 0.210615
0.0516895 0.272031 0.555491
0.0939747 -0.224411 0.30988
-0.170273 -0.0618397 0.275892
0.0587325 0.179637 0.295256
-0.221188 0.237076 0.481327
-0.0207077 -0.289297 0.20542
-0.0884292 -0.144387 0.290797
0.0167506 0.175534 0.301921
0.162192 -0.0792388 0.283299
0.21896 -0.266106 0.274324
-0.202565 -0.0990389 0.00819307
0.108881 -0.158819 0.292249
-0.0338664 -0.231479 0.300376
-0.202454 0.277193 0.0186603
0.0590985 0.181286 0.319324
-0.196878 0.0949592 0.243206
-0.0234368 -0.0432894 0.278862
0.0701834 -0.288831 0.212817
-0.0386446 -0.230588 0.31031
0.0577931 -0.0173511 0.275966
0.0123001 -0.0605036 0.28963
0.165708 0.236288 0.453449
-0.0424689 0.0269465 0.270739
-0.214577 0.170755 0.0064426
-0.216861 -0.111369 0.0294446
-0.196461 0.0997285 0.24267
0.21316 -0.0422829 0.259672
0.0278845 -0.165774 0.293133
0.0466977 -0.260854 0.296406
-0.174021 0.157834 0.264104
-0.0712903 0.107722 0.261429
-0.211939 0.223466 0.451788
-0.106247 0.148995 0.266274
-0.00239366 0.258519 0.502049
-0.118394 -0.0538868 0.289013
-0.112933 -0.17313 0.303608
-0.222523 -0.00775184 0.262745
-0.223457 0.128461 0.253004
-0.200384 0.203645 0.0263683
-0.199188 0.205477 0.023493
-0.211644 -0.101736 0.265684
0.176957 -0.289021 0.210005
-0.113133 -0.269607 0.292387
-0.198274 -0.305954 0.164168
0.0385627 -0.128292 0.288794
-0.0214182 -0.0602425 0.280834
0.161956 0.232309 0.449172
0.151196 -0.140081 0.299459
0.130253 0.314004 0.640991
-0.19032 0.146185 0.245985
0.130744 0.0648292 0.266728
-0.128693 0.0562798 0.26801
-0.172967 -0.314069 0.253974
0.0660855 0.171766 0.282786
0.111665 0.107696 0.269425
-0.0570564 0.257144 0.501076
-0.116973 -0.318072 0.239285
0.179224 0.26847 0.0290393
-0.222688 -0.15816 0.022258
0.213819 0.17911 0.331356
-0.0220907 0.18363 0.30373
-0.122658 0.209995 0.402274
0.136615 -0.083157 0.292481
-0.0576595 0.192778 0.330055
0.221221 0.309878 0.642487
0.00940581 0.267784 0.527144
0.0711673 -0.130412 0.298266
0.188948 -0.186406 0.305194
-0.0288754 0.188297 0.316513
-0.193192 0.0941214 0.272024
0.0276499 -0.204153 0.307378
0.198351 -0.313693 0.142635
-0.181144 0.291357 0.571865
-0.120436 0.272124 0.563636
-0.0448444 -0.0417037 0.278775
0.220988 -0.300764 0.164393
-0.0271481 0.194572 0.352073
-0.166348 0.275724 0.0299493
0.0358915 -0.275809 0.288855
-0.020554 0.175878 0.286977
-0.195782 -0.160038 0.27173
0.19577 0.0649598 0.246566
0.0683127 0.27151 0.554945
-0.173033 -0.0806142 0.275973
0.0237274 0.251895 0.485659
0.0576412 -0.104179 0.285991
-0.188608 -0.287096 0.231654
0.126824 0.252159 0.496123
-0.0648247 -0.0931536 0.293819
0.161918 0.202334 0.386273
0.20013 -0.0650701 0.0256606
-0.201302 0.087772 0.0281332
-0.129221 0.269512 0.0151984
0.143453 -0.225807 0.310051
0.133829 0.282459 0.005118
-0.224162 -0.201334 0.0180894
0.186119 0.179669 0.272699
-0.076782 0.0906368 0.2713
0.183143 -0.24761 0.28418
-0.223853 0.194506 0.339685
-0.209163 0.138974 0.0313718
0.190486 -0.0370985 0.287501
0.222538 0.217873 0.385971
-0.121686 0.233314 0.446215
-0.113277 0.263963 0.52588
-0.147484 -0.251822 0.309389
0.0639055 0.262422 0.531061
-0.116196 -0.219252 0.309253
0.117399 -0.169974 0.293528
-0.097728 -0.0069378 0.283267
0.0244797 -0.289083 0.208803
-0.213102 0.0558341 0.031006
0.0578486 0.0269333 0.278826
-0.140748 0.228291 0.45358
-0.137253 0.266683 0.538101
-0.201842 -0.326271 0.0745173
0.023043 0.0667107 0.266001
-0.177888 0.18141 0.284578
0.198495 0.229587 0.388392
-0.181172 0.27421 0.525528
-0.127721 -0.0463619 0.279669
-0.125362 -0.254541 0.298162
-0.00303006 -0.272483 0.290913
0.12902 0.251722 0.510099
-0.21539 -0.280563 0.256333
-0.0102248 0.296409 0.616911
-0.00296377 0.0909081 0.263081
