0.176348 -0.230891 0.0517591
0.171434 0.129038 0.457509
0.175402 0.169309 0.502004
0.19826 -0.1259 0.444768
-0.188713 -0.127713 0.0280465
0.175764 -0.159425 0.000870002
-0.0317518 0.201382 0.801907
-0.00366096 0.181012 0.508721
-0.196418 0.0957433 0.437476
-0.153842 0.178017 0.459876
-0.092331 -0.227418 0.425062
0.0334365 0.178684 0.564687
0.172556 0.0440258 0.457255
-0.144911 0.188344 0.537843
-0.181498 0.00212829 0.00685918
0.175331 0.049606 0.0248579
0.053985 0.180063 0.505747
0.0835246 -0.0709912 0.456867
-0.178033 -0.213232 0.0506137
-0.141568 -0.0814211 0.440147
-0.0209896 -0.126409 0.456759
0.0243206 -0.0247966 0.456945
-0.147301 0.195135 0.606916
-0.169716 0.214927 0.782514
-0.0957853 -0.217431 0.382824
0.0417745 0.1719 0.470873
0.0153786 0.193865 0.659205
-0.191423 0.179055 0.628302
-0.140206 -0.200281 0.449435
-0.106184 -0.150086 0.446169
-0.195923 0.176805 0.563169
0.0132842 0.218717 0.0113445
0.00556036 0.154804 0.46395
0.18216 -0.127269 0.0281591
0.166454 0.211107 0.720025
-0.176953 0.189941 0.00197019
-0.186763 -0.0113591 0.430562
0.0810015 -0.238397 0.396268
0.104624 0.167327 0.480047
-0.0238481 0.180623 0.584338
-0.0578461 0.2168 0.0186921
0.1797 0.107397 0.00669749
0.17456 -0.221373 0.228495
-0.197435 -0.202629 0.00447484
-0.00125074 0.197405 0.697533
0.0789318 0.193946 0.669118
-0.0649963 -0.0353877 0.457001
0.181239 0.178822 0.615304
-0.0106156 -0.181889 0.455065
0.132061 0.184368 0.556758
0.154368 0.0991316 0.433007
0.193483 -0.234067 0.15231
0.188372 -0.0485862 0.455567
0.079236 -0.144518 0.456701
-0.0766302 0.210931 0.762556
0.0236298 0.190465 0.621215
0.145594 0.198313 0.813387
-0.193698 0.146575 0.458987
-0.129916 -0.211704 0.369666
0.0332801 -0.158616 0.456669
0.0739156 0.159518 0.46817
-0.175952 0.0377473 0.0212323
0.194998 -0.219871 0.123115
0.0733341 -0.211108 0.369224
-0.116445 -0.0207252 0.447589
-0.00597444 -0.203843 0.433335
-0.134647 0.118407 0.457397
0.175736 0.219185 0.00747701
0.157263 0.196297 0.522055
-0.0475978 -0.219037 0.386083
-0.107614 -0.113337 0.446572
0.0287744 0.20233 0.750511
0.128328 -0.233127 0.414417
0.196714 -0.223984 0.195513
-0.17871 -0.21117 0.388205
0.183614 0.206818 0.675797
-0.141415 -0.166593 0.439052
0.047444 0.115429 0.457235
0.174536 -0.058331 0.429702
0.122017 -0.240111 0.376005
0.142047 0.184917 0.653461
0.141041 -0.148263 0.456692
0.109851 0.0732397 0.448646
0.170191 0.192487 0.48497
-0.16479 0.181008 0.648801
0.14762 -0.125476 0.435513
-0.159682 -0.0444584 0.457023
-0.0124175 -0.0409695 0.447337
-0.176716 0.0986508 0.0225066
0.00532292 0.220014 0.772257
-0.146919 0.175332 0.573311
-0.178652 0.162205 0.00829598
0.127946 0.189145 0.692003
0.187666 0.201735 0.61037
0.179452 0.160075 0.00674149
0.195427 -0.0948649 0.0134967
0.0417715 -0.211172 0.362832
0.00674962 -0.130297 0.456726
0.0883951 0.172995 0.513062
-0.0636315 -0.172152 0.456362
-0.178284 -0.235669 0.11573
-0.0917542 0.220885 0.814614
0.0688707 0.104972 0.457242
0.177554 -0.137749 0.428762
-0.0209773 0.103658 0.448856
0.194378 0.211226 0.764186
0.0721811 0.209084 0.759684
0.114669 0.230531 0.0285643
0.196685 -0.195847 0.00116341
0.131115 0.172962 0.525177
-0.00370261 0.0715287 0.448496
0.162311 0.0361806 0.430777
0.0784477 -0.0252364 0.447559
0.12332 -0.214746 0.438495
-0.0467686 -0.231339 0.418277
-0.0794709 -0.0119393 0.447691
0.173139 -0.224829 0.301154
0.135863 0.199305 0.716952
-0.141023 0.103543 0.443015
0.0562049 0.183092 0.613722
0.0512174 0.223676 0.805621
-0.130448 0.0194495 0.44805
-0.183324 0.0420943 0.457283
0.196295 -0.227714 0.266309
-0.172335 -0.0795387 0.429438
0.0531849 -0.240312 0.375681
0.036887 -0.219816 0.415293
-0.175917 0.17555 0.588945
0.155516 0.191765 0.745096
0.17233 0.200361 0.584332
-0.158702 0.209894 0.0123503
-0.177516 0.0684509 0.0246871
-0.11865 0.18967 0.708905
-0.180806 -0.216173 0.218795
0.0736497 0.17826 0.565829
-0.0570835 -0.120264 0.456794
-0.186055 0.206827 0.688419
-0.189615 0.126781 0.433213
-0.0214073 -0.225954 0.399279
-0.150296 0.128359 0.457451
0.146986 0.0562936 0.457227
0.10563 0.196229 0.707424
-0.103277 0.198578 0.735429
-0.0286089 0.186964 0.65124
-0.0868434 0.182044 0.538854
0.0924496 -0.190976 0.441094
0.0816865 -0.117759 0.456761
0.187036 0.193563 0.792882
-0.115937 -0.229154 0.422271
0.186509 -0.209044 0.397167
0.156259 0.184549 0.661202
-0.180076 -0.216469 0.304698
-0.196158 -0.229983 0.163837
-0.194626 0.21119 0.758913
-0.0399468 -0.0414301 0.447373
0.171689 0.160706 0.440364
0.177699 -0.234503 0.0820326
0.0905568 0.194918 0.740775
-0.105213 0.191815 0.655765
-0.0476852 0.17153 0.494706
-0.0364287 0.0530742 0.457103
-0.12891 -0.0547472 0.447224
-0.197042 -0.227895 0.253682
-0.176417 0.0935596 0.457438
-0.177607 0.193751 0.0268514
0.150633 0.176977 0.573321
-0.0326618 0.00641665 0.44786
-0.0906627 -0.0911989 0.456881
0.0809402 0.0240505 0.457083
-0.190409 -0.164583 0
0.0599715 -0.211017 0.441553
-0.0764256 -0.199292 0.437121
0.179576 -0.189296 0.0301803
0.113782 0.177293 0.564342
-0.0825071 -0.0690324 0.456948
-0.146892 0.0747304 0.438755
-0.174472 -0.229406 0.187667
-0.139369 0.166486 0.482568
0.133844 0.16336 0.458304
0.192218 -0.0551418 0.0260894
-0.190852 0.188176 0.479393
-0.0197209 0.212165 0.814534
0.135176 -0.0593664 0.456893
-0.195059 -0.0350138 0.0091873
0.0504359 -0.177237 0.444786
0.173201 0.0862434 0.0141321
0.146685 0.196877 0.602701
-0.0606605 0.185995 0.578401
-0.188093 0.187777 0.739737
-0.0700943 0.197731 0.715421
-0.0950773 0.216082 0.0169882
0.0190677 0.117365 0.457203
-0.04852 0.0300052 0.44813
-0.140134 -0.0971316 0.456864
-0.144522 0.0437527 0.4399
-0.134197 -0.237307 0.405851
0.0112174 0.178822 0.563046
-0.045953 0.188278 0.601347
-0.196806 -0.179565 0.434016
-0.187143 0.194541 0.526078
0.0534945 0.240056 0.0151274
-0.0428202 0.197374 0.705701
0.114663 -0.176144 0.45577
0.0241967 0.0810436 0.457142
-0.185078 0.139797 0.0285228
0.13869 -0.0180367 0.456987
-0.0508499 0.126244 0.449136
0.103395 -0.129749 0.446384
-0.118868 0.142468 0.451435
0.0902992 -0.165781 0.445987
-0.07898 -0.240723 0.370296
-0.178118 0.209055 0.71145
-0.077118 0.190445 0.633092
0.194218 0.098505 0.452217
0.0183967 -0.207759 0.444192
-0.192625 0.103866 0.00733383
-0.0983514 0.16255 0.460693
-0.185235 -0.100829 0.0289573
-0.163986 -0.124335 0.456782
0.18562 0.174307 0.566134
0.0774104 0.222061 0.790781
0.0562658 -0.0525767 0.447262
-0.196799 -0.107878 0.449798
-0.168267 -0.241016 0.363349
-0.156646 0.203103 0.637286
0.194239 0.182374 0.473925
0.155077 0.219902 0
0.0979638 -0.211016 0.3646
-0.0456485 0.232136 0.0276948
0.192898 -0.143527 0
-0.0510712 0.200851 0.746104
0.0295805 0.205055 0.814548
-0.118014 0.0849731 0.448765
0.195734 0.0629007 0.448923
0.106599 0.220579 0.784706
0.00197929 0.0323651 0.457024
-0.0763498 0.226178 0.00573884
0.17239 -0.234161 0.412468
0.193829 -0.233728 0.335711
0.158631 0.194985 0.785463
-0.0736263 0.179281 0.504244
0.1386 0.0841825 0.457289
-0.18771 -0.120664 0.00566998
0.193988 0.190545 0.749241
-0.0196802 0.209442 0.75935
0.000216044 -0.0565107 0.447158
-0.115864 -0.198389 0.450139
0.0317989 0.192743 0.710791
0.192653 0.131029 0.00849893
0.0774818 0.198432 0.775578
0.0346611 0.0444087 0.448259
0.114028 0.184368 0.637822
-0.0732599 -0.212027 0.372882
-0.180874 0.0530632 0.431015
-0.1976 -0.226578 0.338046
-0.175892 -0.0223238 0.0216294
0.151282 0.124033 0.435264
-0.0110629 0.183693 0.613894
-0.0586911 0.182012 0.532276
-0.106872 -0.240827 0.365178
-0.191556 -0.0601517 0.00715119
-0.189467 -0.213544 0.368269
-0.174844 0.199819 0.586891
-0.127354 -0.217734 0.436737
0.174636 -0.221189 0.194916
0.0301374 0.222989 0.794636
0.0954495 0.188034 0.603521
0.169032 -0.210849 0.373456
-0.195756 0.0182016 0.0237715
0.181913 -0.211948 0.054848
-0.0980605 0.197621 0.775342
-0.0979329 0.186823 0.596131
-0.0891535 -0.142188 0.446259
-0.0870312 0.0830944 0.448733
-0.17363 0.0613531 0.457341
0.144194 0.180754 0.610359
0.100935 -0.222295 0.410732
-0.021203 -0.152544 0.446161
-0.190621 -0.0781572 0.0273249
0.174946 -0.0190592 0.457071
0.0537202 -0.0115902 0.447701
-0.0382289 -0.216378 0.360251
-0.0884504 0.0318142 0.44817
-0.183691 -0.0700629 0.456946
-0.107979 0.201711 0.814353
-0.181357 0.216732 0.813147
-0.16805 0.183557 0.68057
-0.150426 -0.00719373 0.435289
0.125204 -0.0344532 0.447439
-0.178418 -0.0492871 0.429798
-0.0270284 0.175704 0.53389
-0.0581122 0.193903 0.668754
-0.194779 0.165431 0.475604
-0.182611 -0.160995 0.0279736
0.0809955 0.218325 0.0127885
-0.0414715 -0.205758 0.431898
-0.0949939 0.0511948 0.457201
-0.138352 -0.000262901 0.457156
0.0251672 -0.0664388 0.44709
0.173051 -0.0716594 0.456907
-0.183677 -0.215009 0.271941
-0.17447 -0.200029 0.027637
0.141676 -0.118706 0.456759
0.178804 -0.206191 0.445044
-0.0337494 0.147001 0.451788
0.174534 -0.159137 0.0214833
0.0576848 -0.128525 0.456737
0.185142 -0.213206 0.138687
0.137957 0.178087 0.474447
-0.128041 0.194873 0.770494
0.0242916 0.168884 0.466716
0.000204265 0.227082 0.0286442
-0.194189 0.214103 0.79181
-0.158392 0.189733 0.741841
-0.184437 -0.214701 0.11014
-0.0850154 0.195607 0.694056
-0.123712 0.179579 0.521582
-0.196222 0.134658 0.0104321
0.179232 -0.0122911 0.430246
0.109716 -0.200608 0.449025
0.196427 -0.223911 0.417319
-0.00900353 0.0094751 0.447857
-0.15693 0.0366873 0.457267
0.167146 0.177923 0.592828
-0.0951834 -0.0183418 0.457101
0.181992 -0.214459 0.10157
-0.0558688 -0.240617 0.379174
-0.0660285 0.198328 0.776562
0.131574 0.00231379 0.457033
-0.182283 -0.237357 0.0704346
-0.191144 -0.167287 0.454353
0.139112 -0.168164 0.440829
-0.106441 0.170197 0.49408
-0.167112 0.0933436 0.431448
0.195821 -0.155412 0.450962
0.183129 0.171569 0.531947
-0.10547 0.0317888 0.457199
-0.17501 -0.119746 0.428974
-0.0158748 0.17906 0.566573
0.0686201 0.186203 0.647601
0.132127 0.230857 0.0284491
0.0374611 0.217698 0.0201589
-0.0216713 0.170832 0.487563
0.181354 0.186806 0.708926
0.0338863 0.173204 0.507697
0.12663 0.204034 0.756979
0.0887838 0.124587 0.457303
-0.143133 0.151287 0.464123
-0.175263 -0.0785502 0.0135045
0.11104 0.203332 0.814698
0.148157 -0.012068 0.436125
-0.196357 0.118548 0.0232276
0.174545 -0.216287 0.0326611
0.0809645 0.190447 0.69318
0.13968 0.238273 0.0122501
-0.150923 0.194375 0.783918
-0.0299194 0.198976 0.776512
0.129569 0.042275 0.45714
0.0550517 0.187876 0.663242
-0.197232 -0.216236 0.403763
0.195495 -0.000749022 0.0143149
0.0100291 -0.0097356 0.44766
0.192019 0.195966 0.563551
-0.126511 0.186165 0.678944
-0.195851 -0.146837 0.0220228
-0.0790588 0.140504 0.450805
0.175932 -0.0996686 0.0252748
0.00235157 -0.225769 0.405296
0.0264088 -0.223268 0.394377
0.174314 0.209257 0.028613
-0.184514 0.189169 0.75467
-0.129895 0.186686 0.61677
0.0646192 -0.102303 0.456797
0.183645 -0.213765 0.288663
0.0430428 -0.205875 0.445606
0.0202864 -0.172853 0.456238
0.181666 0.208718 0.700476
0.0749335 0.00745735 0.457045
0.0472758 -0.237347 0.402687
-0.133524 0.0445908 0.457288
-0.128567 -0.0728165 0.456937
-0.181375 0.18523 0.706447
0.0308733 0.188716 0.602121
0.152558 0.211515 0.74538
-0.155696 0.209962 0.733117
0.15185 0.133658 0.458138
-0.0706249 -0.102133 0.446703
0.0903463 0.0446854 0.448332
-0.141784 0.220325 0.0265233
0.113037 0.0272384 0.448131
-0.195351 -0.231889 0.272336
0.192914 -0.216407 0.3247
0.105405 -0.237385 0.401514
-0.0256922 -0.0303302 0.456935
0.105596 0.161935 0.460124
0.185285 -0.0818443 0.429542
-0.0386702 -0.110549 0.446618
0.16409 0.0212631 0.457165
0.195278 0.136247 0.45041
0.106473 0.232789 0.00652701
-0.0540984 0.238144 0.0113303
0.00843287 0.182548 0.527436
0.10354 0.178474 0.496195
0.0436349 0.0261565 0.448082
0.195379 -0.220786 0.224387
0.135734 -0.232264 0.360251
-0.182673 0.0827211 0.431371
-0.182025 0.180903 0.655314
-0.0188066 -0.22275 0.432521
0.196291 0.0445337 0.0174992
-0.179615 0.0778155 0.00776268
-0.153267 0.191277 0.510929
-0.148505 -0.215653 0.379222
-0.186548 -0.140407 0.456373
0.190724 0.171188 0.497383
0.19654 -0.188896 0.445929
-0.125627 0.190444 0.65932
-0.11723 -0.105463 0.456839
-0.0781784 -0.220551 0.414603
0.0766549 -0.211385 0.427138
-0.165669 -0.188273 0.454104
0.175275 -0.231083 0.277996
-0.0566697 0.200414 0.796508
-0.0448062 0.0202892 0.457053
-0.0634557 0.173999 0.475462
0.0879352 -0.220905 0.390317
-0.149256 -0.139178 0.434214
-0.121122 -0.154498 0.456691
-0.0712357 -0.193585 0.451944
0.155952 -0.190535 0.452864
-0.160912 0.19092 0.479296
0.070719 -0.0835531 0.456839
-0.175703 -0.206228 0.00277711
-0.104816 -0.223893 0.409022
0.0771705 0.188966 0.611713
0.081482 0.176165 0.545101
-0.145658 0.205825 0.755902
0.182123 -0.207311 0.0102048
0.195172 -0.1134 0.0213665
-0.103628 -0.190483 0.441517
-0.0466426 0.163821 0.46098
0.017251 -0.211987 0.360251
-0.103572 0.177719 0.572721
0.173102 -0.0169391 0.0150943
-0.0732958 0.107401 0.45725
0.186981 0.211624 0.741731
-0.196523 -0.202712 0.0226594
0.158787 -0.0580067 0.456912
0.0447515 -0.0869697 0.446883
-0.117251 0.186955 0.604755
0.0761181 -0.0478125 0.45692
-0.18936 0.0275662 0.00611905
-8.17329e-06 0.121742 0.449016
-0.0121911 0.194944 0.731214
-0.00812686 0.193074 0.71098
-0.119393 -0.224904 0.360251
0.0245049 0.199236 0.722367
-0.125453 0.177323 0.496276
-0.0525707 -0.0295714 0.456978
0.0280246 0.200693 0.792781
0.143975 -0.207549 0.444065
0.16304 0.202304 0.603927
0.178111 0.120765 0.0267984
0.0916686 0.0893815 0.448805
0.0720576 -0.160153 0.456665
0.193836 0.200225 0.641242
-0.0996568 0.237718 0.0106315
-0.177896 0.203239 0.633989
0.141856 0.0310297 0.440664
0.0918538 -0.240195 0.376701
-0.143653 -0.22623 0.360251
0.177812 0.195582 0.522515
0.168298 0.0607409 0.431079
-0.0198097 -0.232058 0.416942
0.0247853 0.218695 0.770937
0.102587 -0.0857893 0.456834
0.188137 -0.236297 0.357699
0.191424 0.183617 0.669295
0.0740774 -0.0122592 0.457
0.153295 0.198573 0.573707
-0.0925365 0.00940074 0.447923
-0.188124 0.192687 0.507441
-0.194726 0.172883 0.526241
-0.0287648 -0.190789 0.441305
0.195514 -0.103108 0.451165
-0.0155105 0.157341 0.456486
0.0685497 0.180864 0.51724
-0.0668753 0.176527 0.550346
0.107523 0.18017 0.518935
-0.141006 0.189731 0.586
0.0977084 0.178649 0.573069
0.00691573 -0.0240886 0.447506
0.0573691 0.179892 0.580564
-0.093399 0.197285 0.715152
-0.0627179 0.0897425 0.457204
0.0499271 0.192313 0.708624
-0.00567785 -0.0760771 0.446961
-0.109804 0.113159 0.457327
-0.180777 -0.144056 0.428694
0.188461 0.176261 0.455589
0.148781 0.201231 0.642465
-0.137676 -0.0385871 0.443306
0.0178418 0.180969 0.586312
0.177768 -0.21623 0.353212
-0.191402 0.0235372 0.45506
0.178845 -0.234974 0.320047
0.0589386 0.170924 0.490247
-0.116211 0.182854 0.636237
0.17242 0.026687 0.016465
0.0134394 0.139004 0.450264
-0.164025 -0.0136498 0.457115
0.121923 -0.218448 0.417203
-0.00456581 0.172216 0.493243
0.164336 0.103831 0.457415
-0.185608 -0.214295 0.0706631
-0.0956173 -0.127138 0.456773
-0.1985 0.115426 0.446576
0.0495102 0.155416 0.464701
0.145432 0.190596 0.532522
-0.125761 -0.2408 0.385042
-0.161244 0.0990902 0.457436
0.0432295 -0.222949 0.431881
-0.00793274 0.193199 0.650335
-0.0685848 0.204417 0.814588
0.113152 0.186211 0.597406
0.147793 -0.214843 0.401849
0.109543 0.194093 0.686965
-0.141403 0.184071 0.669319
0.0655556 0.0836337 0.457198
-0.0149574 0.0564387 0.457083
-0.195515 -0.221375 0.229486
0.193339 -0.177561 0.00871594
-0.192968 -0.0717308 0.43249
-0.144654 0.199458 0.682426
-0.160453 0.167293 0.489122
0.175995 0.189642 0.7376
-0.193982 0.195064 0.0117126
0.192332 0.074286 0.0258727
0.0897307 0.166711 0.465136
0.0505535 0.0642655 0.448489
0.19251 0.194995 0.813756
-0.10003 -0.0337496 0.457054
0.195412 0.170766 0.0153341
-0.0382272 0.189751 0.682052
-0.079594 0.180595 0.520631
0.194762 -0.13938 0.0225323
-0.191725 -0.236055 0.144037
0.180016 0.0417583 0.0066402
0.143046 -0.0587453 0.439114
0.0223172 -0.232424 0.416122
-0.155423 0.218586 0.811112
0.0240859 0.186022 0.639781
0.0787836 -0.223882 0.408132
-0.080955 0.179325 0.582167
-0.0902815 -0.164334 0.446016
0.0099443 0.190232 0.681651
0.0312521 -0.00578663 0.447731
0.0920021 0.22623 0.0281857
0.110237 -0.106062 0.446645
0.00153366 -0.170457 0.445767
-0.109505 0.221463 0.802875
0.00928334 0.196387 0.745635
0.194654 -0.0228627 0.452416
0.0860021 -0.0455423 0.44733
-0.0758699 -0.0804971 0.456914
-0.1101 0.18154 0.53952
-0.0223638 0.226908 0.0286001
-0.158423 0.170685 0.523255
-0.0335379 0.186216 0.574955
0.167513 -0.239942 0.384733
-0.121552 0.218172 0.776196
0.0227874 0.0308074 0.457046
-0.0706277 0.223438 0.809997
-0.112817 -0.0934711 0.446789
0.190178 0.0891956 0.00735208
-0.0227817 -0.231343 0.360251
0.175649 -0.15795 0.428524
-0.0748515 0.0197116 0.44804
-0.179119 -0.173594 0.427675
-0.108591 0.227722 0.0290361
0.179106 -0.23508 0.180478
-0.0779657 0.160102 0.469496
-0.193417 -0.184911 0.00966272
-0.175139 0.018132 0.0194654
0.1294 0.0676162 0.457216
-0.0892576 0.195981 0.756587
0.0699811 0.0319073 0.448177
0.131631 0.193179 0.671653
0.182571 0.11284 0.457488
-0.0735214 0.221386 0.786925
0.117086 0.120898 0.457345
0.18725 -0.0375712 0.0281369
0.0420826 -0.0375996 0.447415
-0.0474791 0.186606 0.651063
0.0910184 0.183876 0.555178
-0.0654567 -0.0551173 0.456973
0.17354 0.201826 0
-0.0607792 -0.0211315 0.447595
-0.0640453 -0.148816 0.456708
0.123476 0.169695 0.490954
0.173315 0.142562 0.433966
0.0570762 0.196048 0.748268
0.0603852 0.210614 0.814582
0.0872447 0.192199 0.650211
0.142596 0.195898 0.621546
-0.197415 0.0466297 0.439343
0.131872 -0.0859966 0.456833
0.186908 -0.120063 0.429716
0.186429 -0.213736 0.242487
0.148727 -0.104747 0.434947
-0.178772 0.0572895 0.00808151
0.102685 0.183127 0.621181
-0.0575845 0.199134 0.729054
0.0211631 0.225214 0.0278559
-0.190615 -0.236503 0.0936463
-0.0274287 0.19602 0.745275
-0.0186421 0.196857 0.694773
-0.0998268 0.166307 0.478413
-0.164687 0.213644 0.761304
-0.182306 -0.237367 0.257575
-0.0525497 0.00776601 0.447904
0.152504 0.00650872 0.457091
0.175993 0.0205925 0.430635
0.0137424 -0.211684 0.427047
-0.0615144 0.145947 0.451726
0.0246307 -0.239117 0.393152
0.145598 0.219785 0.813888
-0.198401 -0.0898916 0.440229
-0.043352 0.0995488 0.448846
0.0370287 0.0752432 0.448584
-0.00495206 0.218713 0.0112227
-0.0921476 0.18504 0.643675
-0.196417 0.19843 0.624
0.160453 -0.121164 0.456753
0.144152 0.18719 0.68188
0.0320865 0.188397 0.665609
-0.0143555 0.200864 0.793239
-0.159403 0.207897 0.684358
-0.0180384 -0.207087 0.444801
0.168464 0.171539 0.52284
0.0988469 -0.183589 0.4548
-0.103913 0.182637 0.550037
0.0734536 0.151125 0.453251
0.0364809 -0.240361 0.375486
-0.125817 -0.00246839 0.447802
-0.00354069 0.0920543 0.448709
-0.126066 -0.199214 0.437296
0.014749 0.173886 0.51216
0.183879 0.21048 0.725064
-0.186443 -0.214649 0.18185
0.150214 0.213172 0.0186658
0.00797221 -0.094673 0.446771
0.0721431 0.194621 0.735365
-0.135081 -0.212406 0.423237
-0.0355878 -0.237242 0.404614
-0.13947 0.186546 0.556817
-0.0121692 -0.240464 0.384939
-0.111308 -0.00637682 0.457137
-0.118238 0.127451 0.449237
-0.0840019 0.188675 0.614307
-0.0244103 -0.0908619 0.456821
-0.158856 0.173595 0.558032
-0.0244004 0.0748052 0.44856
0.0750427 0.0542934 0.448418
0.195704 0.196485 0.70667
-0.179274 -0.0978867 0.429227
-0.198866 -0.0022155 0.442307
0.147915 0.171458 0.515165
0.187016 -0.236765 0.113498
0.0527967 -0.159935 0.456666
0.141179 -0.144042 0.439651
-0.180328 -0.230374 0.360251
0.175059 -0.17894 0.012071
0.090921 0.196927 0.761662
0.192286 -0.052734 0.00805736
0.151405 -0.172048 0.456293
-0.143151 -0.225025 0.429315
-0.00528931 0.16786 0.465061
0.195407 0.179666 0.528071
0.196502 -0.223697 0.0494068
-0.177733 -0.230975 0.0463105
-0.188657 -0.0476489 0.455894
-0.149881 0.179989 0.629989
0.108044 0.222173 0.804311
0.19203 0.198356 0.591763
-0.179274 0.148992 0.435382
0.131515 -0.0748023 0.446546
-0.190905 0.197279 0.576697
-0.128529 0.193028 0.695702
-0.0059357 0.195426 0.675643
-0.0918266 -0.152419 0.456697
0.122103 0.0993109 0.448932
0.17606 -0.135473 0.00183181
-0.188543 -0.215542 0.15346
0.186889 0.104311 0.432638
0.135549 -0.223893 0.429842
0.180683 -0.100664 0.00654349
0.19629 -0.0486637 0.438084
0.181441 0.158257 0.470568
-0.174353 -0.229111 0.273123
-0.142771 0.195659 0.648206
0.0537747 0.174256 0.521399
-0.0889367 -0.225863 0.398581
0.0605597 -0.147419 0.446203
0.194307 0.181422 0.601581
-0.18173 -0.221481 0.433936
0.165551 0.164971 0.479179
-0.0483238 0.202606 0.813553
-0.0280629 -0.191631 0.452649
0.0930449 0.0168453 0.448023
0.141951 0.189316 0.704911
-0.197972 -0.108136 0.0168176
0.0201232 0.197616 0.75987
-0.176097 0.216163 0
0.195611 -0.229383 0.169946
-0.0943294 0.193069 0.666989
0.188886 -0.160794 0
-0.194792 0.177493 0.588357
-0.180544 -0.236623 0.23579
-0.194389 -0.146059 3.3441e-05
0.122881 -0.179389 0.444456
0.168713 -0.167714 0.456648
-0.0259517 0.182359 0.602805
-0.10293 0.0774111 0.457259
-0.118278 0.193807 0.751504
0.10763 0.194275 0.738474
0.0448815 -0.0207587 0.456978
-0.171951 0.19636 0.540894
-0.0360069 -0.128574 0.456768
0.0140944 -0.190258 0.453131
0.0410327 0.183972 0.548904
0.00256883 0.0555489 0.44833
-0.0268728 0.173906 0.515214
-0.17423 0.146884 0.462304
-0.138195 -0.151762 0.4567
0.196329 -0.0903045 0.437127
-0.116555 -0.137267 0.456743
0.0671856 0.231156 0.00590555
0.173624 0.138502 0.0213993
-0.197374 0.193772 0.765251
0.156057 -0.21349 0.360251
0.000192708 0.180213 0.576011
0.194528 0.211768 0.782833
-0.0108703 0.201155 0.74281
0.174985 0.194167 0.502321
-0.00447244 0.202623 0.809689
-0.0611237 0.191404 0.640564
0.0568866 0.178142 0.562283
0.066752 0.195158 0.681361
-0.0358231 -0.0608264 0.447164
0.125662 -0.161624 0.456662
0.136524 -0.210612 0.423423
0.179374 -0.181878 0.425719
0.0409557 -0.188811 0.453659
0.0706065 -0.129674 0.446397
0.173373 -0.226518 0.143643
0.0938163 0.189067 0.68049
-0.176638 -0.218329 0.200916
-0.1917 0.0842306 0.455194
-0.0342503 0.109731 0.457206
-0.0847134 -0.0332931 0.447456
0.169181 -0.0430423 0.456984
0.0633888 -0.234639 0.360251
0.17004 0.0617319 0.457302
-0.0689963 0.129361 0.449195
-0.0102124 -0.14357 0.456707
0.0663325 -0.240035 0.387346
-0.197786 0.203541 0.742565
-0.0421684 0.221951 0.786741
0.0236544 -0.0894036 0.446849
0.15443 0.214271 0.766366
0.166622 -0.20926 0.392384
0.194028 0.0443917 0.453235
-0.177694 -0.0015325 0.457152
-0.000368308 -0.186877 0.442824
0.0983014 0.0591596 0.448493
0.160153 -0.143195 0.428697
0.0384972 -0.0560408 0.447217
-0.146126 0.217206 0.00910916
-0.0661427 -0.219937 0.387656
-0.136269 0.167161 0.463835
0.172558 -0.0802412 0.01728
-0.0919666 -0.206418 0.431493
0.0473045 0.213602 0.76495
0.134894 0.148649 0.461952
-0.191935 -0.161228 0.431112
-0.0755098 0.193783 0.67103
-0.150592 -0.176717 0.431754
-0.0560588 -0.196778 0.43896
-0.196338 -0.223413 0.305109
-0.165532 0.118623 0.457475
-0.172591 0.179349 0.632595
-0.0271736 -0.21651 0.38149
-0.113956 0.198594 0.797641
0.146263 0.0383034 0.457171
-0.159528 0.0490002 0.430922
-0.128916 0.0964502 0.457351
0.115409 0.190742 0.654569
0.0548372 -0.21401 0.377284
0.150631 -0.240017 0.378513
-0.186517 0.0861388 0.0291954
-0.0434962 -0.0846784 0.456876
0.0715028 -0.0691381 0.447072
-0.142839 -0.0504773 0.457004
-0.166083 -0.000120372 0.430355
-0.192641 0.178072 0.608197
0.0233647 -0.213908 0.376922
-0.0499783 0.193286 0.721063
0.129433 0.188596 0.628378
0.0354978 -0.228534 0.360251
-0.18745 0.0489897 0.0288535
0.0672542 0.122682 0.457273
0.174685 0.187476 0.468569
-0.143772 0.184232 0.493638
0.163334 0.0777682 0.431261
-0.17693 0.161398 0.475502
0.0899428 0.220854 0.778674
0.183536 -0.00804654 0.0288625
0.14536 0.00530329 0.438124
-0.0325774 0.040952 0.44822
-0.170015 -0.058789 0.45698
0.117304 0.184748 0.580041
-0.197397 0.065481 0.0202016
0.164054 0.196023 0.80222
-0.12354 0.0674508 0.448576
-0.0116728 0.14095 0.450603
0.0334416 0.060246 0.448423
-0.169428 0.185311 0.465009
0.0965403 -0.109246 0.456781
0.132629 -0.126963 0.44549
0.103909 -0.158242 0.45667
0.156539 -0.188733 0.423663
-0.167467 -0.240929 0.383727
-0.195059 -0.184478 0.450822
-0.0353232 0.0238766 0.448046
0.125655 -0.22477 0.397725
0.0880514 0.200829 0.801778
-0.176494 -0.168954 0.00967363
-0.0624905 0.187476 0.595804
-0.179005 0.173081 0.560991
-0.0531292 0.0508019 0.45712
-0.113535 0.173159 0.53247
0.0282608 -0.138137 0.446319
-0.166153 -0.184894 0.424925
-0.152089 -0.0932443 0.432972
-0.15296 0.177429 0.600946
-0.0486743 -0.226285 0.401458
0.196665 -0.226812 0.087955
-0.193007 0.204377 0.672707
0.14519 0.173487 0.535303
0.164794 0.216223 0.784579
0.0614311 0.197875 0.767772
-0.145534 0.180879 0.474808
-0.0389754 0.194061 0.666654
-0.0766083 0.0593067 0.457166
0.198028 -0.00856243 0.443308
0.0880316 -0.0627039 0.447137
0.137648 0.0512332 0.443621
0.169696 -0.120875 0.428962
0.0212601 0.199253 0.776993
-0.142952 0.120616 0.441972
0.169388 0.175947 0.571581
-0.17383 -0.227814 0.290266
0.185424 0.0592055 0.431442
-0.173766 -0.173275 0.456257
0.187205 0.191114 0.486856
-0.0587232 0.180355 0.513278
-0.0447987 0.139312 0.458541
-0.175178 -0.221779 0.128115
0.119257 -0.060663 0.447148
0.043852 0.130102 0.449166
-0.0497905 -0.162078 0.456668
0.13469 0.195448 0.770585
0.154668 0.158913 0.440266
0.189249 -0.0793098 0.455149
0.0668064 0.219139 0.772204
-0.182541 -0.0631623 0.0277947
-0.191926 0.0685826 0.433552
-0.000127748 0.240055 0.0155009
-0.168726 -0.0300304 0.457066
0.182539 0.034618 0.0285046
-0.133148 0.172389 0.532141
0.0622039 0.187609 0.594078
-0.146803 0.196152 0.623886
0.0992152 0.193404 0.668295
0.14493 -0.0736123 0.456861
-0.199037 0.136271 0.44666
-0.171042 0.0296389 0.457246
-0.103586 -0.180876 0.455234
0.0595068 -0.214934 0.360251
0.0144407 0.177194 0.546544
0.158019 -0.0170485 0.457034
-0.0294284 0.185155 0.632566
-0.188446 -0.0314075 0.0283099
0.000304474 0.191111 0.62508
0.189015 -0.214801 0.155054
0.180506 0.0930792 0.0277426
0.140131 0.168753 0.488778
0.154364 0.0901457 0.457348
0.155754 0.0706826 0.457293
0.194164 -0.217873 0.349815
-0.194993 0.100694 0.453902
0.120144 0.165345 0.476845
0.103269 0.12725 0.449217
0.175488 -0.219117 0.0883722
0.17316 0.0654482 0.0197969
-0.196726 -0.174722 0.014437
-0.0992166 0.149657 0.46208
0.185011 -0.213193 0.310278
0.195313 -0.197425 0.0177877
-0.134295 0.186902 0.600305
0.0210358 0.197233 0.698901
0.168226 0.208506 0.687848
-0.134912 -0.0192415 0.44539
0.193139 0.168468 0.47937
-0.0639702 0.235994 0.026055
0.152777 0.205423 0.665554
0.15404 0.190848 0.481055
-0.197392 0.170283 0.459911
0.137385 0.202356 0.744407
-0.131598 -0.141058 0.445817
-0.150234 -0.211191 0.441896
-0.176842 0.00214215 0.0236728
-0.103909 -0.211628 0.369538
0.122825 0.191451 0.714231
0.146693 0.204695 0.702931
0.186308 -0.126136 0.456283
0.0377355 0.229397 0.00522154
-0.0928834 -0.233479 0.360251
-0.188596 0.00872944 0.431534
0.0560612 0.155025 0.455438
0.0240899 -0.11754 0.44655
0.0586809 0.191251 0.635406
-0.0700447 0.178026 0.56653
-0.197544 0.147604 0.0206002
-0.186639 0.203747 0.647981
0.185138 -0.210812 0.37693
0.19209 0.149609 0.00820927
-0.194569 -0.219034 0.323761
-0.196785 -0.224521 0.35844
0.177124 0.0433031 0.430904
-0.0920708 -0.198399 0.450108
-0.133772 0.195277 0.710774
0.179715 -0.215414 0.119155
-0.0631786 -0.213068 0.440234
0.0904845 -0.0207359 0.456981
-0.044011 0.182918 0.539424
-0.0306222 -0.219874 0.415524
0.0370149 -0.126039 0.456743
-0.148925 -0.187397 0.454396
0.00115468 -0.118866 0.44651
0.185811 -0.213481 0.260057
-0.14354 0.0146955 0.440157
-0.173967 -0.0312396 0.429997
-0.187009 0.209441 0.0221255
-0.084648 -0.106504 0.456835
0.125971 -0.148113 0.44617
0.108306 0.00309695 0.457035
-0.102414 -0.214679 0.424767
0.173214 -0.224648 0.211175
-0.179432 0.144091 0.00794256
-0.112037 -0.236877 0.407897
-0.18926 -0.233047 0.412999
0.197375 -0.146359 0.43825
0.144555 0.188712 0.51543
0.033007 0.180374 0.582215
0.0249934 0.195408 0.737573
-0.119412 0.176494 0.572882
0.0875033 0.174451 0.528083
-0.0289872 0.184926 0.559152
0.179167 -0.00430824 0.00705031
-0.0627813 -0.223831 0.408923
-0.135542 0.145652 0.4497
-0.029008 0.0924284 0.457167
-0.0116667 0.0796992 0.457122
0.0182334 -0.156444 0.446118
-0.119454 0.192232 0.736126
-0.195237 -0.127652 0.432837
0.0605407 -0.195077 0.439498
-0.191223 -0.236257 0.127997
-0.192842 0.19361 0.542296
-0.195362 -0.215432 0.387859
0.187299 0.203184 0.00473667
0.188907 0.138322 0.435187
0.142745 0.196837 0.793681
-0.0845348 0.203053 0.814606
-0.139111 0.087698 0.444062
-0.182383 -0.237399 0.199032
0.111781 -0.207297 0.430309
-0.166086 0.227097 0.00829664
-0.188521 -0.215532 0.341569
0.154744 0.233545 0.00608674
-0.188969 -0.215723 0.24591
0.193902 -0.233549 0.314983
-0.161739 0.203052 0.622172
0.00845055 0.183005 0.606211
-0.163276 0.0818727 0.457403
0.0395075 0.191359 0.697414
-0.178171 -0.153936 0.456693
0.182357 -0.0335325 0.429995
-0.0812464 -0.0531381 0.456996
-0.124358 0.225726 0.0282398
0.186217 0.170454 0.0283149
0.187147 0.020543 0.00602988
-0.0309185 0.0587564 0.448403
-0.164953 0.18498 0.696092
0.16046 0.180932 0.622404
-0.0261594 -0.137483 0.446325
0.173002 -0.00333013 0.457113
-0.109082 0.0948863 0.457299
0.189635 -0.177015 0.453805
0.0145035 0.2234 0.797103
-0.142427 -0.112784 0.456817
0.0701605 -0.222466 0.393125
-0.181094 0.166902 0.49124
0.158902 0.19335 0.766534
-0.0538169 -0.10485 0.45684
0.179487 0.197091 0.54348
0.0761946 -0.240248 0.374973
-0.0705967 0.196638 0.759824
-0.0394527 0.176043 0.479396
0.0152234 -0.0591479 0.456869
-0.143637 0.0594741 0.440696
-0.192177 -0.0866715 0.45427
-0.186596 0.181117 0.0291822
0.0443524 0.171912 0.495702
-0.0489428 -0.211792 0.372268
0.192092 0.157034 0.44218
-0.197516 0.175668 0.492166
0.0436533 0.202012 0.808436
0.108536 0.218276 0.0210329
0.178466 -0.238207 0.395718
-0.0687675 0.189253 0.617568
0.0784035 -0.196452 0.438928
-0.101655 0.195841 0.700765
0.17092 0.183928 0.666367
-0.12965 -0.0916035 0.446815
-0.00630277 0.0192183 0.457003
-0.095933 0.0215994 0.457161
-0.145446 0.189081 0.724564
-0.182729 0.042373 0.00640827
0.176733 -0.0545447 0.02601
0.178319 -0.234758 0.100843
-0.162185 0.197656 0.552836
0.112565 -0.0264872 0.447532
-0.180215 0.205359 0.664083
-0.1637 -0.138832 0.428753
0.182317 0.0320844 0.457244
-0.142413 0.211202 0.814859
0.188404 -0.234974 0.0604585
0.0484472 0.00190319 0.457024
-0.0913034 0.199669 0.742151
-0.0260967 -0.00679046 0.456979
-0.0479394 0.0703335 0.448549
0.160696 0.203989 0.814972
0.195004 -0.125818 0.0122607
0.0933933 -0.235698 0.410286
0.0945521 -0.14587 0.456698
0.084461 -0.216943 0.360251
-0.0564884 -0.216473 0.421466
0.176467 -0.224574 0.428499
-0.0998188 -0.0681401 0.456951
0.191864 -0.180577 0.0272938
0.180628 -0.235704 0.264384
-0.149529 0.0282922 0.436385
0.15581 0.203592 0.620511
0.104956 0.0849468 0.45722
0.021179 -0.240408 0.374882
0.189111 -0.214841 0.170361
-0.184723 0.184898 0.46544
0.161953 -0.237701 0.398817
-0.173641 0.188561 0.742073
0.143399 0.175 0.550408
-0.1379 0.181782 0.507532
0.0412966 0.0970378 0.448817
-0.0586143 -0.180219 0.44442
0.132777 -0.238902 0.392602
-0.179023 0.115918 0.431752
0.00604843 0.0837167 0.457124
-0.0891683 0.170774 0.495107
-0.0513518 0.212068 0.763372
-0.0522047 0.189576 0.617624
-0.100593 0.204323 0.755023
-0.197911 -0.0705609 0.0163304
0.176052 0.146997 0.461857
0.0324667 0.219996 0.814551
-0.0224193 0.198252 0.711664
-0.163797 0.049741 0.457306
0.00126655 0.188295 0.660288
-0.146299 0.101861 0.457403
-0.0312272 0.239794 0.0189554
-0.195918 0.174688 0.00934196
0.128351 0.19855 0.801546
0.0989512 0.184694 0.636194
0.0887473 0.111878 0.449039
-0.185164 -0.203191 0.0417459
0.0925491 0.197913 0.716526
0.0716869 -0.0387904 0.44741
-0.133977 0.17516 0.565445
0.182685 -0.236548 0.137162
0.190657 -0.065083 0.431986
0.0669977 0.176773 0.549428
0.065845 -0.000342339 0.447832
-0.128255 -0.225078 0.396905
0.0619007 0.198479 0.718815
0.106371 0.239781 0.0199868
-0.0784986 -0.182522 0.444104
0.196768 -0.211561 0.407945
-0.00374025 -0.218303 0.418077
0.0328238 0.1599 0.458152
-0.0878564 -0.211561 0.36447
-0.128897 0.210281 0.765686
0.155095 0.194397 0.506311
0.167201 0.182887 0.65101
-0.130349 -0.0421051 0.45703
0.0736053 0.239793 0.0197189
-0.0119716 0.181945 0.521195
-0.0291062 -0.0455573 0.456911
-0.173929 -0.227388 0.0629327
0.0597439 -0.212124 0.42659
-0.112222 0.186849 0.674431
0.0596423 0.162507 0.471652
-0.178631 -0.235815 0.168313
-0.187474 0.206384 0.00437476
-0.00960607 0.220511 0.772965
-0.146227 0.191506 0.750342
-0.0759485 -0.131086 0.446384
0.17233 0.17326 0.448431
0.132091 -0.211987 0.373929
-0.155773 0.144342 0.460353
-0.0803615 -0.224732 0.360251
-0.0505651 -0.240522 0.360251
0.0602997 -0.175981 0.455813
-0.117615 -0.211982 0.427131
0.020771 -0.224556 0.429302
-0.155247 -0.240944 0.371549
0.185347 0.184454 0.684759
0.175274 0.121389 0.00881272
0.176119 -0.217582 0.270481
0.0435139 0.186 0.572703
0.183746 -0.202152 0.409979
-0.173492 -0.226975 0.227052
0.173363 0.193848 0.784629
0.0615012 0.0694174 0.457166
0.195434 0.196796 0.767201
0.182426 0.205315 0.65512
0.157223 0.175499 0.560183
0.173083 0.202603 0.614744
0.175299 -0.149069 0.0107157
-0.06998 0.177904 0.490017
-0.188204 -0.0383077 0.430873
0.100518 0.213649 0.814643
-0.194936 -0.219941 0.206582
-0.156078 -0.00124905 0.457153
-0.183243 -0.194245 0.011583
0.194142 0.0846987 0.436248
-0.083051 0.225909 0.028265
-0.197659 0.192948 0.685582
0.054155 -0.0923342 0.456819
-0.068988 -0.240629 0.38575
-0.117344 0.219762 0.790587
-0.193431 0.104538 0.026436
0.0698599 0.172494 0.505279
-0.0840733 0.172768 0.473395
-0.172369 0.20469 0.815023
-0.0825216 -0.237298 0.405063
-0.00195459 -0.0862109 0.456801
-0.120923 -0.0346264 0.447439
-0.0114776 -0.0633898 0.456856
0.0031274 0.184733 0.551853
-0.120741 0.175186 0.482632
-0.0945882 -0.00376214 0.457121
-0.197904 -0.126279 0.0168177
0.129756 0.174942 0.545268
0.19591 -0.232036 0.40239
0.0201764 0.0427979 0.448222
-0.16293 -0.102213 0.429176
0.194315 0.0882017 0.0220264
-0.0715541 -0.0639464 0.447122
0.116929 0.178613 0.501922
-0.00710681 -0.221468 0.390837
0.161098 0.118789 0.457451
-0.172386 0.170499 0.527325
-0.0387121 -0.240599 0.371353
-0.128166 -0.167164 0.456653
-0.139414 0.197563 0.697582
-0.161507 0.200764 0.592563
-0.10554 0.138266 0.458665
0.173041 -0.136067 0.0180395
-0.130272 -0.230277 0.42046
0.0116361 0.069658 0.457105
-0.117634 -0.0843031 0.456902
-0.135054 0.195543 0.783138
-0.111299 -0.122907 0.456786
-0.1982 0.183572 0.512392
0.184243 0.212555 0.0160367
-0.149255 0.178802 0.615596
-0.0636094 0.0204421 0.457078
-0.194379 -0.234185 0.107393
0.119895 0.154975 0.456269
-0.016002 0.180134 0.501305
0.18324 -0.236775 0.199753
-0.122296 0.0270108 0.457235
0.113453 -0.0952687 0.456812
-0.175998 -0.149184 0.0230156
-0.175204 -0.215125 0.0299718
-0.0286863 0.197464 0.760547
-0.00671791 -0.23694 0.405837
0.163061 0.170479 0.510038
0.189676 0.198122 0.577574
-0.134586 0.176867 0.586008
-0.19186 0.154212 0.439963
-0.177256 0.168951 0.511119
0.176002 -0.217867 0.178458
-0.0534365 -0.0539588 0.447236
-0.0972475 -0.103416 0.446683
-0.134524 0.130635 0.447834
-0.144109 0.0128638 0.457195
0.188203 -0.00123373 0.431805
0.105897 -0.171112 0.445621
0.0123395 -0.19574 0.439293
-0.0848892 0.0989923 0.457249
0.182262 -0.214345 0.204914
0.014321 0.000359595 0.456979
0.00214472 0.195445 0.734835
0.00667671 -0.240432 0.379314
0.183151 -0.112193 0.456811
0.12554 -0.0238004 0.456974
0.142996 -0.219312 0.360251
-0.0360301 0.22427 0.813166
-0.0109433 0.197664 0.759296
0.176467 -0.233944 0.166489
-0.197546 0.194808 0.789606
-0.155757 0.191604 0.495847
-0.0437566 0.199048 0.779865
-0.195663 -0.161778 0.0223427
0.139542 -0.0978114 0.456806
0.0867483 0.0997041 0.457254
0.134357 0.164482 0.476365
0.191923 -0.0999788 0.026272
-0.0184908 -0.168198 0.44599
-0.119247 -0.223573 0.409644
-0.126207 -0.217193 0.382214
0.153295 -0.234675 0.411702
-0.177028 0.106818 0.0109081
0.13514 -0.19039 0.438674
0.030416 0.119681 0.449038
0.121377 0.00592531 0.44789
-0.102159 -0.240757 0.378529
0.174086 -0.19432 0.0181415
-0.183065 0.190486 0.769673
-0.176996 0.186522 0.719834
0.122493 -0.19495 0.451195
0.144557 0.112373 0.4396
0.195447 -0.220948 0.210255
0.0726895 0.176013 0.479978
0.141553 0.189301 0.546032
-0.176112 -0.12379 0.0230612
-0.123607 -0.240852 0.371103
0.194904 -0.0260716 0.0214141
-0.158767 -0.202259 0.448691
0.0320993 -0.197271 0.438475
-0.11152 0.197032 0.779461
-0.162342 0.212577 0.745247
0.0178952 0.148915 0.460597
-0.0651166 0.200736 0.746883
-0.178105 0.213121 0.765464
-0.185149 -0.104385 0.456843
-0.156946 0.195568 0.537763
0.0473127 -0.0477173 0.45692
-0.181481 0.091705 0.00700574
-0.149386 -0.238948 0.396947
0.091859 -0.117581 0.446524
0.189033 -0.0844407 0.00667641
0.146759 0.0805469 0.437866
0.121511 0.179737 0.517578
-0.168914 0.199062 0.574241
0.127585 0.186033 0.659601
0.00733907 0.0110291 0.447872
0.139307 0.196933 0.660076
0.0725789 -0.11492 0.446561
0.102191 0.186291 0.653837
0.187795 0.170925 0.511035
0.134937 -0.0375933 0.456943
-0.176832 -0.211175 0.441969
-0.196927 -0.0235138 0.0205321
-0.185122 0.162689 0.0285053
-0.0886597 0.222334 0.801089
-0.0157868 0.188087 0.592916
-0.198331 0.193493 0.636888
0.159384 0.14242 0.433814
0.0333911 -0.236323 0.408628
0.11615 0.181606 0.539744
-0.170729 0.205274 0.00709093
-0.025816 0.014334 0.457018
0.181339 0.0987396 0.457443
0.198548 -0.172828 0.443996
-0.0797057 0.0728489 0.457194
0.0371824 0.182479 0.531067
0.121432 0.085442 0.448778
-0.0591678 0.216606 0.814578
0.0982471 -0.0770533 0.446974
0.125771 0.0256979 0.457086
-0.0967141 0.224902 0.00624782
0.181768 0.203644 0.815098
0.188588 -0.214626 0.0880202
0.0840135 -0.179633 0.455325
0.187546 -0.214196 0.337275
-0.0252159 -0.240546 0.374445
0.147581 -0.0258865 0.436383
0.146037 0.193382 0.563142
0.0336812 0.191204 0.631289
0.0943215 -0.128546 0.456737
0.0650425 0.222746 0.796901
-0.120325 -0.0617323 0.45697
-0.0150747 0.224499 0.810432
-0.0637499 0.0364904 0.44822
0.0943827 0.153755 0.464124
-0.195661 -0.0646997 0.452714
0.191982 0.208754 0.714054
-0.129286 0.195165 0.723792
0.10584 0.19262 0.720704
-0.175315 -0.231496 0.315725
0.195747 0.140814 0.0181212
0.0720162 -0.0955943 0.446777
-0.108961 0.195924 0.765895
-0.182317 -0.0436796 0.0276727
0.174524 0.172394 0.0102813
0.0688996 -0.219941 0.434567
-0.064935 -0.0887376 0.446851
0.154356 0.188913 0.710708
-0.175104 -0.0421737 0.45703
0.181713 -0.16889 0.0279206
0.0462519 0.197767 0.764731
-0.116917 -0.211639 0.362565
-0.0702134 -0.16609 0.446001
0.0447428 -0.100658 0.44673
0.159124 -0.226831 0.360251
-0.0337296 0.127185 0.44912
-0.180198 0.210414 0.731229
-0.0162034 -0.0549368 0.447197
0.17278 -0.0562281 0.456953
0.032827 0.187082 0.652026
-0.174809 -0.22265 0.175799
-0.16536 -0.210047 0.390862
0.0432573 0.193647 0.72162
0.0408248 0.202081 0.750388
0.161095 0.212572 0.734798
0.0047257 -0.0681164 0.45684
-0.0250482 -0.21293 0.360251
-0.0149765 0.175412 0.476621
-0.14889 -0.0206951 0.436123
-0.198684 -0.123112 0.445195
-0.0621455 -0.112823 0.446588
-0.0816614 0.0455095 0.448321
-0.138417 -0.063338 0.456966
-0.108891 -0.160442 0.456673
0.056694 -0.119622 0.446514
0.16419 0.189442 0.725248
-0.182942 -0.0403573 0.00619061
-0.130043 -0.0113776 0.457122
-0.151502 0.0985261 0.436035
-0.177883 0.12105 0.0250902
-0.0140141 -0.194495 0.451527
-0.160543 0.0804032 0.431285
-0.0568961 0.226138 0.00577985
0.187761 0.173275 0.544532
0.0299363 0.171817 0.492949
-0.152676 -0.0836192 0.456905
0.0462928 0.194924 0.675865
0.010009 0.209289 0.814526
0.0780736 0.0444326 0.457129
0.159118 0.0453182 0.457225
-0.127146 -0.186999 0.44293
0.146397 -0.0430699 0.437013
-0.0969314 0.172091 0.510317
-0.194247 -0.216895 0.0583638
0.183649 -0.0972135 0.429242
-0.198833 -0.228224 0.390267
-0.13234 -0.155757 0.445247
0.0291197 -0.0506884 0.456902
-0.0752696 -0.0939436 0.456873
0.154105 0.178114 0.586273
0.105742 0.179845 0.58815
0.175542 -0.231722 0.35647
0.0409368 -0.222052 0.392191
-0.00713381 0.0422479 0.457046
-0.194141 -0.234747 0.191488
-0.18288 -0.207952 0.0140025
-0.0752354 -0.213621 0.425724
-0.104177 -0.0954871 0.456869
0.174408 -0.0670982 0.0218496
0.0683291 0.187531 0.661341
-0.112457 0.214347 0.814695
0.0120297 0.184974 0.6272
-0.102618 -0.0102643 0.447704
-0.0392812 -0.0279353 0.447512
-0.00156365 0.108438 0.448877
-0.0625889 0.192735 0.65619
0.183771 -0.2399 0.383543
-0.124512 -0.129714 0.446388
-0.0790825 0.219095 0.772869
0.0945425 0.035501 0.457108
0.00909155 -0.0372856 0.447371
-0.098828 0.181298 0.532969
-0.140241 0.182517 0.652261
0.165768 0.199431 0.568975
-0.186429 0.184004 0.694142
0.194676 -0.231663 0.0749012
0.194754 -0.0652285 0.0120768
-0.0445884 0.217453 0.0201536
0.0683283 0.201724 0.808572
-0.0833424 -0.135102 0.456749
0.00925044 -0.16536 0.456654
0.111027 0.187305 0.610535
0.156801 0.210752 0.709181
-0.192689 0.195517 0.0249774
0.146876 -0.202606 0.420922
0.193258 0.192105 0.532327
0.0115258 0.186876 0.577893
-0.102967 0.183792 0.635209
0.187809 0.053204 0.0277996
0.181125 -0.21459 0.0678736
-0.17913 -0.236026 0.133541
-0.142014 0.157216 0.450901
-0.190069 -0.192142 0.00092543
0.0940641 0.22309 0.805063
-0.183167 0.0959884 0.431529
-0.127747 0.220224 0.805191
0.0405506 -0.161853 0.446049
-0.0690926 -0.217723 0.360251
0.0365815 -0.0765174 0.446998
0.0907255 0.198333 0.776219
-0.0919467 0.235525 0.0262168
-0.0747217 -0.226253 0.402617
-0.150899 0.19105 0.526339
-0.000797786 0.176769 0.540017
-0.133041 -0.220679 0.411764
0.119694 0.233274 0.00670962
0.118429 -0.108338 0.456782
-0.1751 -0.132786 0.0134019
-0.079666 -0.211276 0.44167
-0.0445981 -0.122361 0.446487
0.166726 0.201019 0.00976338
0.134679 0.072488 0.445776
-0.180135 -0.23645 0.348532
-0.0386012 -0.185181 0.443544
0.0486889 0.227302 0.0286759
0.178229 0.019564 0.457196
0.195936 -0.0396914 0.449492
0.0680142 0.23133 0.0281724
-0.191344 -0.0555306 0.43199
-0.116978 0.188175 0.619922
0.173397 -0.111403 0.0190806
0.155558 0.0638083 0.43191
-0.181065 0.176472 0.602217
0.116254 -0.197529 0.438072
-0.0308781 -0.213865 0.439539
0.042469 0.0386437 0.457085
-0.182805 0.179776 0.642268
0.116238 -0.236048 0.408785
-0.196235 -0.221935 0.423519
-0.054908 0.177388 0.485463
-0.0544888 0.19794 0.770352
-0.105016 0.187778 0.60938
-0.000545271 -0.000532404 0.447741
-0.062716 -0.240684 0.368003
-0.129582 -0.115352 0.456809
-0.09366 0.200108 0.800286
-0.134534 0.21671 0.0151715
0.111507 -0.224867 0.428331
0.0205048 0.181855 0.521288
0.158511 0.179973 0.609514
0.0957922 0.00684902 0.457044
0.0707701 0.221821 0.814593
-0.122511 0.183559 0.648672
-0.0620225 0.222751 0.800213
-0.0383631 0.181439 0.521215
0.0294331 0.167937 0.478666
0.153152 -0.103701 0.456793
-0.196533 0.183691 0.64827
-0.176252 0.207346 0.0291369
0.132558 0.188899 0.610305
0.144239 -0.240087 0.366151
0.181905 0.177644 0.602075
0.126563 0.055931 0.448446
-0.043039 0.220423 0.773892
-0.141417 -0.0759548 0.456928
0.0689194 0.191052 0.697944
0.104965 -0.210378 0.441948
0.0797807 0.22225 0.0265742
0.0190737 0.2376 0.024697
0.0728637 -0.167419 0.445975
0.00112285 -0.0992188 0.456777
0.133187 -0.0220832 0.445986
-0.0289162 0.191879 0.702457
-0.0787815 -0.218641 0.385172
-0.198877 0.069831 0.445489
0.0303092 0.132644 0.457287
-0.0519242 0.180249 0.585979
-0.15304 -0.0968572 0.456865
-0.131349 0.0323245 0.448008
-0.00249612 0.175513 0.527134
-0.141661 0.172881 0.541818
-0.190455 0.0293279 0.0275641
0.066862 -0.201462 0.448744
0.144276 0.0946071 0.439628
0.14476 -0.0921773 0.437695
-0.104364 0.197467 0.72263
0.0248243 0.18363 0.542455
-0.121512 0.15412 0.45625
-0.193363 -0.21759 0.263856
0.0415735 0.182517 0.605713
0.0985738 -0.0483232 0.447294
0.194615 0.202731 0.736412
0.094431 0.174673 0.477368
-0.196611 -0.216862 0.0355732
0.0745295 -0.0614461 0.456889
-0.195576 -0.15538 0.45256
-0.0802332 0.152718 0.454534
0.147635 0.196449 0.589924
0.0476719 0.175486 0.53336
0.195776 -0.012587 0.0191856
-0.0938977 -0.177651 0.444796
0.159481 -0.201984 0.448373
0.0637061 -0.0197501 0.456984
0.194655 0.211782 0.795911
-0.152658 0.227726 0.00596605
0.027337 -0.145525 0.456699
-0.183293 -0.140091 0.0282214
0.0486801 -0.152076 0.446155
-0.0886641 -0.220087 0.434813
-0.0705768 0.216684 0.0185055
-0.19456 -0.219011 0.170087
0.0825261 0.0866365 0.457224
0.0752647 0.190122 0.624718
0.181956 -0.114549 0.0280913
-0.0829418 -0.076918 0.446977
0.174843 0.108788 0.0240983
0.194201 -0.217963 0.101364
-0.172456 0.181962 0.663596
0.194468 -0.23217 0.218834
0.0716459 0.0157447 0.448008
0.181706 0.188268 0.726348
-0.0797578 0.00431535 0.457095
0.185154 -0.122394 0.00503524
0.194919 -0.147417 0.0119045
-0.17081 0.195426 0.528301
-0.108426 0.0193896 0.457189
-0.100045 0.0389363 0.448245
0.193849 0.189146 0.517435
-0.160226 -0.0842285 0.429384
0.134254 0.0200983 0.445625
0.189589 -0.222867 0.427917
0.142955 -0.0493851 0.456916
0.127687 -0.176306 0.455744
-0.0674974 0.0583399 0.448453
-0.173109 0.19408 0.512074
-0.0252321 -0.200238 0.436251
0.0584751 0.126762 0.449151
-0.147011 0.176589 0.588285
-0.187709 -0.237676 0.246159
-0.181942 -0.215712 0.0826674
-0.0905441 0.220977 0.785842
0.0321637 0.0208839 0.44801
-0.0411452 -0.152879 0.456695
-0.15817 -0.063458 0.429791
-0.174919 0.191801 0.487322
-0.140798 0.136566 0.458692
0.182965 -0.139852 0.0284753
0.0714626 0.195837 0.7479
0.189782 0.0720734 0.455203
-0.19213 0.18538 0.713067
0.031334 0.18346 0.614113
-0.125849 0.199062 0.812157
-0.180815 0.135792 0.43295
-0.0179055 0.0396835 0.448185
-0.0291081 0.151786 0.462463
-0.198129 -0.192048 0.433205
-0.155212 -0.214731 0.360251
-0.161987 0.192596 0.774451
0.0814358 0.199062 0.728192
-0.0713726 0.116718 0.449067
0.023558 0.224032 0.805736
0.15366 0.216513 0.77866
-0.186397 -0.0795508 0.00506964
0.0585354 0.222271 0.00754083
-0.196183 -0.138388 0.0128102
-0.0224314 -0.238363 0.398136
-0.0123649 0.199719 0.78095
-0.086115 0.17412 0.529213
-0.177422 0.119265 0.0100608
0.00207131 -0.0488955 0.456872
-0.170189 0.208824 0.701819
-0.0411531 0.0427887 0.45709
0.00460306 0.096458 0.457146
0.150709 0.0381483 0.434884
0.111892 -0.0183929 0.456986
-0.137201 0.180461 0.628471
-0.186184 0.19961 0.81508
-0.0567544 0.194685 0.736898
0.179797 -0.0873542 0.027234
-0.0523092 0.176389 0.546018
-0.166661 -0.0533759 0.42974
-0.13197 0.0569303 0.457302
-0.0941728 0.177287 0.563661
0.196989 0.108536 0.445419
0.115576 0.0534436 0.457149
-0.0592661 0.17174 0.499187
0.0888387 0.149224 0.452372
-0.112963 0.216541 0.015739
-0.0458809 0.0837368 0.448685
0.146411 0.155168 0.466027
0.112628 0.0357838 0.457109
-0.077396 -0.0362148 0.457031
-0.132306 0.0782406 0.448282
0.0886137 0.210231 0.814613
0.186883 -0.23682 0.0900083
-0.0927084 0.189273 0.623091
0.184151 0.1922 0
-0.0386767 -0.0900678 0.446843
-0.165264 -0.11204 0.456819
0.184984 -0.213204 0.230225
-0.0476479 0.0010291 0.457021
-0.0843957 0.199063 0.787659
0.155843 0.186952 0.466891
-0.0183912 -0.219018 0.416928
-0.0105331 -0.0287764 0.447461
-0.0446172 0.174991 0.529992
0.0523568 -0.114316 0.456769
0.169714 -0.215524 0.437781
-0.0888909 0.211596 0.763688
-0.195396 -0.22108 0.0738553
-0.0891075 -0.125454 0.446443
-0.196168 -0.0128874 0.0116363
0.048284 -0.217423 0.419324
0.189107 -0.15071 0.430224
0.0689354 -0.223643 0.360251
-0.0584161 -0.137863 0.456741
0.0465568 0.169808 0.483787
0.0857597 0.171004 0.492599
-0.13518 -0.189808 0.453476
0.117849 0.19842 0.74507
0.164621 0.213304 0.746937
0.180284 -0.147576 0
0.0246904 0.100947 0.448834
-0.187472 -0.103459 0.00554619
0.0975416 -0.213529 0.376616
-0.150834 0.228496 0.0280013
0.133013 -0.158102 0.444976
0.0829102 -0.0948099 0.456813
0.198053 -0.159394 0.439567
-0.0902166 0.145495 0.451779
-0.0389162 -0.215334 0.423324
-0.00399537 0.061882 0.457079
0.0365274 0.220652 0.773735
-0.0873831 0.23828 0.0118851
-0.0437508 0.190695 0.69292
-0.132504 -0.219064 0.360251
0.191717 -0.215914 0.298805
-0.195408 -0.189529 0.025338
0.174147 0.167872 0.489945
-0.0863451 0.128504 0.449212
-0.194664 -0.233512 0.350466
-0.158205 0.0349869 0.431028
-0.172349 0.189825 0.754133
-0.174378 -0.223669 0.26222
0.18187 0.0588308 0.457324
-0.104172 -0.201163 0.435697
-0.197945 0.197165 0.725936
0.112305 -0.22446 0.406974
0.108169 -0.239465 0.389851
0.173374 -0.0843062 0.429395
-0.00802628 -0.230554 0.419403
0.133585 -0.218838 0.413896
-0.151528 0.217588 0.796749
-0.14446 0.134078 0.441819
-0.0411407 0.153334 0.463521
-0.122398 -0.162678 0.446027
-0.0699287 -0.160407 0.456673
0.134973 0.183914 0.528551
0.128885 0.157853 0.467843
-0.0333719 0.176563 0.54406
1.90589e-05 0.197339 0.754259
0.127766 -0.240141 0.364716
0.133169 -0.240059 0.380599
