-0.0646695 -0.179755 0.437018
-0.0713454 0.226714 0.752341
-0.0172686 0.207988 0.711966
-0.193426 0.0203046 0.436354
0.0493507 0.122515 0.417732
0.228415 0.169446 0.0139676
-0.160364 -0.172267 0.444043
-0.043791 -0.0553249 0.423948
0.00866782 -0.182633 0.43543
-0.209727 -0.242686 0.258491
0.0122623 -0.234666 0.426374
0.195053 0.121207 0.578355
0.0342499 -0.137728 0.428428
-0.0200193 0.220233 0.729951
-8.7878e-05 0.0568315 0.419049
-0.00252906 0.163336 0.605684
-0.0409425 0.203856 0.707511
-0.147015 -0.101959 0.433989
-0.080521 0.239335 0.771093
0.193126 0.119123 0.523429
0.191944 0.157767 0.680137
0.147478 -0.141123 0.440813
-0.0229566 0.165264 0.625226
0.078611 0.089885 0.424893
-0.220389 0.157982 0.251156
-0.213168 -0.240688 0.0634935
-0.147121 -0.118934 0.435014
0.0437267 0.241373 0.76231
-0.123019 -0.234864 0.442767
0.0302784 -0.101424 0.426242
0.0128356 0.15753 0.54205
-0.191304 -0.248502 0.426374
-0.102561 0.223946 0.75274
-0.0480684 0.138984 0.421916
0.0490792 -0.182202 0.436367
0.162008 -0.169054 0.439718
-0.239364 0.195794 0.0157728
0.219834 0.152925 0.314867
0.234223 0.195663 0.0220771
0.221268 0.171327 0.217799
0.209179 0.117026 0.570958
0.175687 0.10981 0.425708
-0.0719947 -0.172134 0.436949
-0.152332 0.20645 0.739353
-0.0549743 0.151241 0.562963
0.222802 0.132613 0.629444
0.14591 -0.173479 0.442618
-0.0460449 0.113835 0.422831
0.14634 0.209431 0.733618
-0.00231076 0.153291 0.41995
-0.183581 -0.186537 0.442787
-0.208176 -0.101411 0.438
-0.0555131 0.155497 0.413313
-0.188597 0.121154 0.564239
-0.145846 -0.0484143 0.43068
-0.02937 0.157596 0.559614
0.0403412 -0.0805759 0.430063
0.0257648 0.13623 0.416774
-0.180702 -0.0197346 0.433047
-0.170693 -0.189245 0.441714
0.207239 0.148418 0.668887
0.147524 -0.236005 0.426374
-0.19998 0.194035 0.727676
-0.101285 0.161168 0.639793
-0.116991 0.161952 0.649872
-0.150371 0.133538 0.589022
0.0461126 -0.234721 0.431756
0.124987 0.210477 0.730768
0.217657 0.133983 0.554031
-0.0894843 0.155607 0.517551
-0.159899 0.183036 0.710129
-0.10251 -0.238873 0.426374
-0.00948309 -0.0335217 0.42717
0.0874994 0.220143 0.744507
0.0189688 0.188347 0.681915
0.00595569 0.1352 0.421426
-0.0891432 -0.202644 0.435416
-0.0947351 0.0691803 0.415562
-0.151594 0.14591 0.622625
0.0182079 0.161446 0.597049
0.230086 0.18924 0.147418
-0.222968 0.12378 0.412546
-0.00592081 -0.0782941 0.429223
-0.202027 -0.238319 0.240533
-0.103443 -0.178395 0.434826
0.0293066 0.0366812 0.420174
0.0945028 0.109495 0.424911
-0.127311 0.136598 0.539149
-0.168266 -0.244008 0.439932
-0.227775 -0.182741 0.000395039
0.18599 0.130401 0.613008
-0.205049 -0.247993 0.100877
0.146747 0.0878912 0.424532
-0.0956036 0.152466 0.62712
-0.129188 -0.24399 0.426374
-0.0660052 -0.140132 0.429884
-0.203427 0.12289 0.567554
-0.164454 0.0630318 0.427331
-0.213323 0.179343 0.711417
-0.15023 -0.0710686 0.437128
0.174662 -0.100602 0.441368
0.223178 0.123772 0.517754
0.0474829 0.192812 0.700498
0.129909 0.196282 0.712651
-0.0399718 -0.0418769 0.428048
0.0724734 0.165353 0.657449
-0.0646646 0.246532 0.777558
-0.0482854 0.0122382 0.426153
-0.201901 -0.240283 0.209021
-0.101457 0.203763 0.72531
-0.223414 0.1243 0.495851
-0.206728 0.116109 0.561106
0.203593 0.188451 0.720622
-0.0510026 0.114218 0.418098
-0.216599 0.117727 0.492937
0.0883236 -0.129702 0.435182
-0.0326554 0.0657673 0.424068
-0.0920898 0.228275 0.756871
0.0549848 0.16527 0.633852
-0.236262 -0.183876 0.0146403
-0.181965 -0.204041 0.443531
0.190204 0.121002 0.563527
0.201045 -0.240635 0.231187
-0.142028 -0.0717708 0.431712
-0.113453 0.17347 0.67349
-0.028717 -0.234609 0.430573
0.16532 -0.101518 0.440403
-0.222095 0.127965 0.4601
-0.193449 -0.145339 0.441272
0.199491 -0.0723023 0.441599
0.0503996 -0.0623722 0.429229
-0.227433 -0.202463 0.0146804
0.100795 0.150177 0.590039
0.146873 -0.241088 0.439005
0.199907 -0.243535 0.256711
0.190562 0.139521 0.628698
-0.207355 0.059578 0.431184
0.102986 0.146512 0.598321
0.229604 0.160811 0.244634
0.165045 -0.108487 0.436376
-0.221931 0.118435 0.515371
0.0516837 -0.171003 0.431051
0.118443 -0.107342 0.436177
0.0723618 0.149191 0.571377
-0.0574658 0.153952 0.541528
-0.227346 0.183287 0.126385
-0.231964 -0.0465589 0.0168166
-0.0186609 0.250797 0.778166
0.116772 -0.119184 0.432169
0.149321 0.0528349 0.426241
0.118219 0.125604 0.425724
-0.188213 0.10838 0.426422
0.150936 0.174005 0.684536
-0.215152 0.128954 0.456802
-0.142291 -0.0783586 0.436757
0.232483 0.132028 0.00778953
0.11582 0.153781 0.643454
0.064693 -0.0510881 0.429321
-0.131371 -0.122168 0.438252
-0.191768 -0.0316826 0.43911
0.165099 0.196788 0.729463
-0.20184 -0.241973 0.181456
0.000860374 -0.116952 0.431237
-0.0766963 0.160505 0.517561
-0.0161573 0.158275 0.410335
0.155905 -0.0703244 0.433113
0.0768275 0.0161429 0.422514
0.192469 -0.0482148 0.435621
0.232594 -0.00583498 0.0169398
0.237931 -0.0960306 0.0124728
0.234096 0.157775 0.00615758
-0.204028 -0.248243 0.204092
0.212618 0.121358 0.53042
0.187187 -0.15156 0.441113
-0.0725444 -0.0808884 0.426812
0.19794 -0.00389904 0.431762
0.164918 -0.0837489 0.434931
-0.227174 -0.0783892 0.011055
-0.0031493 -0.0787754 0.424453
-0.163969 -0.0737971 0.43418
0.207263 0.0754524 0.420465
-0.207611 -0.121066 0.43259
0.0238375 0.100178 0.418105
0.157856 -0.0822148 0.43404
0.124802 0.0122178 0.425894
0.0491081 0.188579 0.694352
-0.11145 0.0521478 0.427841
0.179967 0.134361 0.622377
0.0558208 0.174003 0.658635
-0.137363 0.0421756 0.430451
0.159545 0.0790198 0.430897
-0.018407 0.185473 0.686558
-0.233507 -0.0570172 0.00591039
0.112321 0.126309 0.420414
0.0726643 0.00678195 0.427549
-0.164609 0.0965011 0.42086
-0.0878302 0.214084 0.728645
-0.225472 0.147025 0.292756
-0.229923 0.10209 0.0154493
0.141523 0.140604 0.416372
-0.0704563 -0.0429264 0.429285
-0.117639 0.178144 0.692771
-0.130623 -0.0783911 0.435687
-0.202143 -0.235368 0.350796
0.151443 0.132617 0.518243
-0.0573878 0.197072 0.708315
0.206827 0.199618 0.736338
-0.228616 0.193355 0.124872
-0.0562396 -0.229417 0.426374
0.0677575 0.058207 0.425377
-0.185795 0.107355 0.426374
0.125517 -0.181741 0.437025
0.223867 0.133308 0.364235
-0.169996 0.11666 0.424855
-0.0578632 0.157461 0.626721
-0.0618495 -0.231932 0.429187
-0.0822864 0.00664227 0.427887
-0.157429 -0.0935448 0.439199
-0.12386 -0.154788 0.435046
0.217174 0.196409 0.741979
-0.157407 0.13521 0.581951
-0.0727231 -0.129169 0.429605
-0.202062 -0.24486 0.400201
-0.202723 -0.246702 0.166745
0.0198998 0.0440955 0.419765
0.14236 -0.013594 0.42869
-0.232392 -0.00723815 0.016772
0.143773 0.13724 0.558387
0.141298 -0.0966477 0.437692
0.169629 0.106146 0.418792
-0.226829 0.158592 0.238274
0.103236 -0.054962 0.431737
0.195892 -0.235409 0.420396
-0.0317148 0.164621 0.62433
0.235428 -0.157553 0.0158934
-0.119602 -0.0578025 0.428745
0.18383 -0.0995471 0.437833
-0.0636863 -0.0446166 0.424252
-0.167803 -0.122679 0.437489
-0.207738 -0.238937 0.310388
-0.0398039 0.0912014 0.423413
-0.0806661 0.201357 0.709835
0.206522 0.122907 0.542395
0.175268 0.147408 0.641
0.17856 0.0824762 0.432194
0.211431 -0.240206 0.215183
0.156383 -0.0461885 0.436425
-0.0821997 -0.235122 0.426374
0.194168 -0.014864 0.433883
-0.0941001 -0.205089 0.440399
-0.0761378 0.147206 0.545862
-0.23822 0.207813 0.0248208
0.121121 -0.0225356 0.427095
0.0412856 0.239176 0.766966
0.218457 0.202337 0.748415
0.228816 0.11565 0.0150444
0.0761548 0.23586 0.757572
0.179148 0.126753 0.529289
0.200479 -0.188627 0.434861
-0.223008 0.136726 0.383955
-0.021655 0.15559 0.586936
0.0174203 0.159057 0.619774
-0.164406 0.134056 0.609727
-0.159346 0.140108 0.62773
-0.111435 -0.156365 0.434031
0.0236035 0.0645902 0.405086
-0.194897 0.0579584 0.434343
-0.237751 -0.0013351 0.00871234
-0.17557 0.0409033 0.429385
0.0247137 0.156066 0.529703
-0.0552595 0.0733069 0.424284
0.122312 0.167989 0.664439
-0.0819564 0.146354 0.551708
0.145778 -0.055135 0.43109
0.136125 0.214305 0.73778
0.0478111 0.193332 0.70131
0.0416276 -0.215433 0.438209
0.196432 0.131915 0.610569
-0.167641 -0.168351 0.440114
-0.131509 -0.143926 0.439568
0.176289 0.210713 0.749822
0.047649 0.0385641 0.420408
0.0952166 0.160112 0.632109
0.112227 0.00186257 0.430134
0.2142 0.12239 0.414602
0.112434 0.151398 0.61233
-0.0623745 -0.0222194 0.423332
-0.124966 0.211373 0.732006
0.0932386 0.240359 0.773471
-0.222654 -0.220575 0.00692785
0.145522 0.132411 0.554399
0.14736 -0.0972075 0.438299
-0.146533 0.00897092 0.427993
-0.0365379 0.161254 0.634233
0.206205 0.149062 0.658602
0.0381614 0.214352 0.722686
-0.117026 0.149644 0.606817
0.00161345 0.165715 0.623292
0.127872 0.0676117 0.428853
-0.207215 -0.243525 0.319786
0.0188154 0.162839 0.609992
-0.150875 0.184962 0.710526
0.193131 0.126136 0.60172
0.0774151 0.0964228 0.419784
0.187224 -0.19666 0.443612
-0.208357 0.0816971 0.425518
-0.237195 0.18952 0.0171155
0.0128415 -0.221082 0.426374
0.0172986 0.0753892 0.418758
-0.187692 0.124267 0.535981
0.220359 0.1142 0.518444
0.192142 0.190509 0.728101
-0.0951866 0.0702992 0.416192
0.116537 0.157774 0.654311
0.175456 -0.247791 0.426374
0.204953 0.165667 0.697211
-0.190364 0.124176 0.552368
-0.186735 0.179848 0.712684
-0.0584422 0.10658 0.423412
0.100095 -0.153915 0.432911
-0.00663549 -0.187725 0.435702
-0.233355 -0.214504 0.014788
0.049535 0.176543 0.662709
-0.199567 -0.237903 0.298639
0.0673123 -0.15126 0.430684
0.240746 -0.178344 0.00943232
0.0723622 -0.170639 0.432277
-0.0979181 0.0128174 0.423746
0.236305 0.194861 0.0905747
0.0368575 0.170289 0.647438
0.0627051 -0.160603 0.431017
0.0965082 0.0516794 0.42216
-0.134337 0.178508 0.687779
-0.00174902 -0.222944 0.426374
0.197879 -0.244371 0.399331
0.158346 0.0938353 0.42524
-0.169797 0.151531 0.660976
0.117154 -0.216703 0.43823
0.0346008 0.167548 0.654353
-0.0900393 0.0639447 0.42618
0.110456 0.181425 0.6858
-0.113544 0.139959 0.55386
-0.206365 -0.248898 0.0806455
-0.164194 -0.189688 0.441104
-0.130125 0.135522 0.412248
-0.0107535 0.169344 0.655875
-0.0345289 0.231532 0.755745
-0.186039 0.138541 0.624387
-0.201029 0.216715 0.762701
-0.114688 0.164125 0.653886
0.0601172 0.153743 0.542091
-0.0948225 0.180416 0.680134
0.127031 0.165563 0.66078
-0.0947593 -0.0364705 0.430348
0.0179775 -0.136748 0.4327
0.0434353 0.0870951 0.423609
-0.0856904 0.206672 0.726362
-0.217165 0.131975 0.411499
-0.206551 0.122434 0.556215
-0.0542111 0.156845 0.576944
0.0185277 0.239202 0.758106
0.104814 -0.184923 0.435383
-0.13671 -0.194093 0.44312
-0.216152 0.138744 0.344747
0.0216966 -0.0304974 0.422522
0.199525 -0.0244439 0.438939
0.15025 0.140929 0.601327
0.220424 0.183044 0.724831
-0.0855487 -0.158439 0.436849
0.202098 -0.00189853 0.437399
0.101522 -0.160557 0.437929
0.190309 0.219821 0.757262
-0.0778867 0.15107 0.550481
0.0960258 0.240795 0.767251
-0.199062 -0.149563 0.435878
0.149636 0.144714 0.617334
0.0747717 -0.0793202 0.431526
0.00285861 0.0612477 0.415222
0.090018 0.0835091 0.425599
-0.0272806 0.161447 0.633202
0.169149 -0.232413 0.448018
-0.0997309 0.153997 0.611546
-0.114218 0.156205 0.650528
0.0963061 -0.00343006 0.424319
-0.138824 0.0500259 0.425559
0.235899 0.166999 0.015857
0.0587803 0.239583 0.761073
-0.140415 0.141688 0.619211
-0.06579 -0.233536 0.436928
-0.199887 0.131938 0.522318
0.177228 0.116873 0.430125
0.201127 -0.0390412 0.426469
-0.140554 0.0606208 0.429925
-0.0773289 0.0962477 0.419813
-0.166929 -0.240044 0.446129
0.179875 -0.163395 0.445363
-0.203193 -0.248407 0.426374
0.0442104 0.128878 0.422252
-0.00379263 0.24696 0.7767
0.164992 0.231721 0.767126
-0.235845 0.189355 0.108389
-0.0184768 -0.161958 0.429655
-0.0787069 0.153305 0.58243
-0.129049 -0.240052 0.437401
-0.197995 -0.237488 0.338377
0.0971159 -0.113311 0.430126
0.0416478 0.179929 0.668948
0.136336 0.189582 0.704699
0.136398 0.159359 0.650679
-0.145031 0.224915 0.754058
0.183382 0.197708 0.727255
-0.227657 -0.125692 0.0144611
0.164203 0.123774 0.423196
-0.0828264 -0.0875169 0.42779
0.218814 0.152312 0.281426
-0.0723992 0.15332 0.523091
0.0785821 -0.0173394 0.423919
-0.0984664 0.0251339 0.427996
0.199428 0.123292 0.518273
-0.0216204 0.19996 0.700359
-0.192932 0.11754 0.417385
0.236698 0.177401 0.0155153
-0.0355174 0.131575 0.422007
0.124982 0.143641 0.419673
0.151909 0.131278 0.561287
-0.0217814 0.0165526 0.420812
0.00188652 -0.21361 0.437107
0.14137 0.0583454 0.425343
-0.00533272 0.154038 0.419732
0.158559 -0.156036 0.442752
0.100327 -0.0708747 0.43246
-0.0987759 0.099075 0.425408
0.00517918 0.155881 0.577117
-0.189211 -0.236634 0.434619
-0.120071 0.117959 0.42603
-0.0124697 0.219344 0.728298
-0.100254 0.147373 0.551707
-0.0341818 0.097218 0.418359
0.0208022 0.177697 0.662386
-0.0933338 -0.175987 0.433998
-0.0551109 0.223664 0.745695
-0.146859 -0.23542 0.445495
0.131051 0.0128134 0.431301
0.174193 0.0641491 0.428005
-0.0683969 0.0439434 0.425815
0.0601329 -0.0314095 0.423506
0.0949933 0.19349 0.709499
0.0340951 0.0682419 0.409164
0.0147142 0.139053 0.421414
-0.0969024 0.166503 0.652405
-0.179426 0.205895 0.737264
0.123276 0.166694 0.675147
-0.0479961 0.243607 0.77368
-0.0772668 0.177586 0.671863
-0.00789857 0.00456751 0.425752
-0.0623349 0.157286 0.594407
0.0435409 0.155151 0.532176
0.0752058 0.0820838 0.42013
-0.21668 0.144546 0.340328
0.0862028 -0.165452 0.432807
-0.239422 0.162092 0.000692376
0.134035 0.196479 0.722029
-0.030523 0.241851 0.770489
-0.0606906 0.18799 0.695772
0.191267 0.0713353 0.433383
-0.189051 0.193517 0.723953
-0.142399 0.0670168 0.42508
0.236398 -0.0166087 0.0155447
0.2319 0.15099 0.0165931
0.035365 0.0312712 0.425238
0.159501 0.146603 0.645161
0.142671 0.195144 0.722104
-0.17436 -0.218597 0.443425
-0.204882 -0.0461997 0.439358
0.0804224 -0.164735 0.436958
-0.151584 0.117157 0.42349
-0.00405234 0.154378 0.554468
-0.20275 0.118105 0.412963
0.183972 -0.246588 0.428678
0.131018 -0.239786 0.437606
0.0514332 -0.138558 0.433562
-0.142643 -0.123115 0.439338
-0.125758 0.0705948 0.42825
-0.237304 0.0946489 0.00783443
0.190605 0.126633 0.581631
0.221605 0.120402 0.469324
-0.216277 -0.245505 0.0668195
-0.113728 0.143606 0.599248
0.00104549 0.157132 0.590756
-0.225462 0.191692 0.111687
-0.0425123 0.158345 0.579459
0.202252 -0.248212 0.427287
-0.0036743 -0.210717 0.432253
-0.13271 0.196556 0.71394
0.0477955 -0.227743 0.438422
-0.124427 -0.109958 0.43692
-0.19818 -0.245073 0.366894
0.169188 0.13254 0.424753
0.0379048 -0.032028 0.427665
0.117364 0.162891 0.665645
0.150101 0.101564 0.428983
-0.220955 0.156862 0.294771
0.0240739 -0.180664 0.430958
0.148576 0.144764 0.517712
-0.186994 -0.124422 0.439538
0.0311285 0.194427 0.701537
0.00342186 0.126897 0.421702
0.186101 -0.0780157 0.441209
-0.187759 0.014469 0.436355
-0.234448 -0.105842 0.00633215
0.183794 0.160132 0.671651
-0.0449801 0.0215782 0.425738
0.201606 -0.234028 0.403482
-0.123172 0.110786 0.426589
0.201021 0.149759 0.657592
0.176248 -0.228655 0.443529
-0.0675259 0.203959 0.719917
0.180444 0.230328 0.76822
-0.141421 0.133206 0.553885
-0.237716 -0.11891 0.0113553
-0.200843 0.219217 0.764632
-0.205425 0.116022 0.557029
-0.164534 -0.048117 0.432755
-0.204904 -0.246472 0.311163
-0.102398 0.148153 0.613932
-0.0181708 0.228411 0.750397
-0.18871 -0.0328933 0.43445
0.119181 -0.0641998 0.433762
-0.208472 -0.08214 0.43299
0.0946133 0.197863 0.715508
-0.111327 0.0773883 0.422312
0.0849983 0.226776 0.753572
-0.0911881 -0.036943 0.42547
0.0202907 0.151617 0.406798
0.126724 0.20179 0.727439
0.118614 0.145245 0.611683
0.208449 -0.238272 0.426374
0.113325 -0.200131 0.437057
-0.0308741 0.194421 0.701491
-0.0469767 -0.22881 0.4316
-0.135153 0.134681 0.528839
-0.162794 -0.0914674 0.439669
-0.198763 -0.129181 0.435816
-0.169006 0.0678419 0.431957
-0.0569722 0.150212 0.545146
-0.227814 0.0661632 0.0114868
-0.23999 -0.195864 0.010122
0.148453 0.194124 0.722153
0.12978 0.202167 0.728533
-0.109807 -0.169412 0.439265
0.0430043 0.0760291 0.419157
0.0535333 -0.00433084 0.42693
-0.0371005 0.0673612 0.419331
-0.228992 0.183181 0.122034
0.101851 0.143536 0.409507
0.0534584 0.220737 0.733161
-0.113004 -0.189351 0.440854
-0.0393526 0.156226 0.548326
-0.0986337 0.158735 0.520199
0.110357 -0.0327017 0.431384
0.0308654 -0.112658 0.431672
-0.216442 0.129198 0.617876
0.020034 -0.0948986 0.43046
0.0159234 0.112829 0.422399
-0.129395 0.133838 0.414675
-0.122988 0.202959 0.720733
-0.0886662 -0.0862938 0.432663
-0.0313133 0.0871647 0.418626
0.0817209 0.190831 0.694794
-0.127391 0.195276 0.719331
-0.137611 -0.117879 0.434048
-0.0230167 0.0708517 0.423758
-0.154804 -0.103332 0.434919
-0.0682291 0.0426828 0.4211
-0.118684 -0.0433484 0.427871
-0.153032 -0.19333 0.44456
0.073718 0.214094 0.73483
-0.204784 -0.248353 0.154199
0.206529 0.159804 0.688132
-0.206017 0.161024 0.690724
0.0996621 0.0546167 0.426994
0.232665 0.174565 0.191795
-0.181864 -0.141983 0.440093
0.223687 0.132377 0.57805
0.127033 0.0170915 0.430765
-0.234763 0.185209 0.125458
0.0923786 0.0156013 0.423309
-0.235253 -0.0792893 0.0162591
-0.197278 0.103557 0.431662
-0.10515 0.0280096 0.423603
0.0882736 -0.22562 0.435799
0.0945979 0.117649 0.424601
-0.200591 -0.236462 0.304161
-0.200526 0.0270928 0.435948
0.131815 0.167977 0.679351
0.224655 0.17985 0.715345
0.20319 0.140111 0.637465
-0.0208237 0.102443 0.422778
0.128847 -0.0694808 0.434975
0.136247 0.0897859 0.419341
-0.0808026 -0.162414 0.43683
-0.224551 0.182759 0.140907
-0.0850402 -0.227721 0.426374
-0.212712 -0.247227 0.146292
0.0643168 0.0666762 0.416263
0.0631059 0.0319113 0.426049
0.231956 0.194052 0.0734194
-0.0596305 -0.0133716 0.427552
0.205639 -0.24824 0.151254
-0.184755 -0.203626 0.447916
-0.194589 -0.228918 0.435629
-0.143237 0.0529766 0.425742
0.130126 0.0559971 0.424501
0.0276736 -0.230734 0.436547
0.0919557 0.150568 0.613208
-0.234345 0.181063 0.155968
-0.131641 -0.238424 0.427564
0.0382168 0.195964 0.704285
0.122316 0.148927 0.610147
0.141744 0.0119896 0.432237
0.105464 0.147326 0.608197
-0.141699 0.192174 0.718166
0.238398 -0.0413473 0.0114466
0.196433 0.120449 0.428361
0.0408246 0.176408 0.661162
0.163955 0.129078 0.57386
-0.0137512 -0.1369 0.432618
0.189284 0.148602 0.649944
0.209846 0.116748 0.518257
-0.0419613 0.17874 0.666525
0.0406616 0.192745 0.699734
-0.197978 0.0473176 0.428967
-0.202221 -0.0200236 0.438424
0.00284671 0.198312 0.696594
0.112154 0.209037 0.733992
-0.118656 0.128808 0.420699
-0.164306 0.175836 0.701314
0.16779 0.156058 0.656436
-0.0803869 0.151565 0.412067
0.158105 -0.18685 0.440353
0.215266 -0.245589 0.111398
-0.0874611 -0.123984 0.434791
-0.0879151 0.206897 0.718989
-0.215174 0.112998 0.524061
-0.229797 0.162199 0.257864
0.199962 0.128925 0.601596
-0.219942 0.127255 0.51821
0.148888 0.139108 0.418077
-0.0648239 0.194774 0.706218
-0.0879014 -0.229419 0.426374
0.108867 0.141086 0.526034
0.120675 0.142412 0.542144
-0.032408 0.0683385 0.410459
-0.11255 -0.0891614 0.429961
0.0406414 0.0578487 0.42445
-0.15107 0.14222 0.517805
0.200195 -0.0121082 0.425417
0.032905 -0.0375552 0.427774
0.0875377 -0.115109 0.429647
0.0825635 -0.0537306 0.430472
0.100186 0.156538 0.644547
-0.141787 0.0936827 0.423892
0.233827 0.183009 0.141074
0.0741986 0.0240736 0.422089
0.0901169 -0.0482543 0.425843
0.170066 -0.00883827 0.436119
-0.19958 0.172197 0.705557
-0.189909 -0.233089 0.426374
-0.0065138 0.249564 0.778129
-0.0601344 -0.0721149 0.430252
-0.0185889 -0.176416 0.435246
0.207192 -0.237816 0.177689
-0.0482271 0.162139 0.616442
0.180501 0.216246 0.750339
-0.0303774 0.200332 0.701559
-0.0238393 -0.158441 0.429556
0.117176 -0.225389 0.443236
-0.0284963 0.0149432 0.420982
-0.0326842 0.151912 0.529004
-0.101053 -0.0918159 0.433712
0.0356274 -0.22416 0.426374
-0.18214 0.225478 0.762944
0.0735507 0.212806 0.72497
-0.032347 -0.139317 0.428493
0.140753 -0.229528 0.426374
0.0382962 0.148849 0.407679
0.134778 -0.204576 0.439149
-0.207196 0.122435 0.526244
-0.206372 -0.248942 0.0843755
-0.107809 -0.13149 0.436625
-0.00230211 0.190684 0.693518
-0.106545 -0.205585 0.436762
-0.122263 0.119847 0.421387
0.228206 -0.0214753 0.00869389
-0.2287 0.205488 0.0579861
-0.0232799 -0.119565 0.431849
-0.0544558 0.152587 0.419634
-0.168112 0.13032 0.56015
0.0304121 0.167355 0.520478
0.122417 -0.236885 0.429265
-0.143036 0.148275 0.642034
0.0474542 0.0593836 0.408398
0.227024 0.129591 0.577635
-0.162796 -0.0604945 0.437904
-0.0978685 0.137615 0.423907
0.230623 0.0393686 0.0066265
-0.208947 0.127338 0.539235
0.139849 0.0132987 0.432017
0.124247 0.144126 0.415198
0.142677 0.138908 0.574869
-0.00216849 -0.0769763 0.424332
-0.00262708 -0.0884924 0.429718
-0.199681 0.0534085 0.434515
-0.0684366 0.229723 0.756314
-0.231211 0.188705 0.0170473
0.131696 0.139508 0.533442
0.196935 -0.239367 0.350896
-0.197224 0.00721991 0.437296
0.216891 0.149507 0.673922
-0.0689038 -0.183054 0.437485
0.147209 0.186301 0.711066
-0.157127 0.13647 0.590277
-0.0608911 0.182484 0.686972
0.143733 -0.175344 0.438216
-0.225086 0.174782 0.211564
0.0484758 0.143713 0.416114
0.140267 0.0825539 0.412696
0.0343263 -0.0549143 0.423736
-0.190874 -0.00865636 0.433271
0.193074 0.147371 0.649082
-0.146861 0.0875169 0.409238
0.154339 -0.218264 0.441521
-0.100152 0.0753382 0.421517
-0.232762 -0.178984 0.0166018
-0.218409 0.198592 0.739487
0.109272 0.1048 0.425948
-0.221562 0.137479 0.336094
0.176562 0.151615 0.650845
0.0547235 0.0107192 0.426427
0.0640669 -0.0171251 0.42799
0.0763136 0.237211 0.767404
-0.145285 0.154874 0.644841
0.165772 0.113027 0.424765
0.0252056 0.208755 0.713709
-0.0535943 -0.23514 0.426374
0.18983 0.0401785 0.435064
0.121565 0.185359 0.695474
0.146937 -0.19082 0.439466
0.185837 0.0646178 0.433515
-0.162589 0.234638 0.771537
0.0566993 0.240843 0.762764
0.12312 -0.0516135 0.428723
0.103377 0.0717511 0.421844
-0.00734051 0.175881 0.669454
-0.141343 0.0319941 0.426459
-0.181171 0.165099 0.689383
0.212451 0.125524 0.425742
0.215392 -0.239927 0.0119493
0.00253702 0.251167 0.775947
0.183241 0.135856 0.52233
0.0360982 -0.112817 0.427032
-0.0896099 0.162306 0.637399
0.0188874 0.0613285 0.423993
-0.198884 -0.0376091 0.430745
-0.218545 -0.240689 0.0113284
-0.12091 -0.034061 0.427694
-0.224362 0.127211 0.617269
-0.0906589 -8.92058e-05 0.423938
0.22739 0.132772 0.0117011
0.112946 -0.203853 0.441693
0.110842 0.140799 0.552037
-0.11411 -0.195395 0.436905
0.02588 -0.1755 0.435394
0.103175 -0.197522 0.440477
-0.0681572 -0.0652946 0.425625
-0.0712254 0.193765 0.705912
0.0281273 -0.0289445 0.422584
0.01409 0.165943 0.648949
0.0913818 0.149177 0.551782
-0.169351 -0.112755 0.441521
0.173289 0.0266704 0.429837
0.059705 0.153924 0.54423
-0.196164 0.0393951 0.430008
-0.222134 0.188314 0.726927
-0.144373 0.0828977 0.429286
0.0780689 0.157281 0.63516
-0.161193 0.232134 0.767346
0.099425 -0.224339 0.426374
-0.0112385 0.210146 0.714813
0.0749308 -0.100469 0.427993
-0.187876 0.0171573 0.431595
-0.198899 0.052239 0.425946
0.141642 0.0836641 0.41195
-0.139682 -0.241794 0.434793
-0.19791 0.0471696 0.43508
0.0696125 0.0479798 0.425776
0.198215 -0.123626 0.438528
-0.0427971 0.157545 0.618487
-0.116618 -0.201186 0.441871
-0.204975 -0.218017 0.448342
0.146449 0.164426 0.665651
0.147869 0.133514 0.576767
-0.0783235 0.149464 0.590696
-0.00245697 0.0551945 0.419137
-0.0510828 0.182327 0.684871
-0.0220772 -0.198222 0.436759
0.0218446 0.202702 0.704554
-0.177589 -0.147751 0.444323
0.0807536 0.117695 0.424018
-0.197604 0.122731 0.54658
0.200767 0.114195 0.424416
-0.203622 0.0496273 0.420576
-0.0317778 0.190542 0.686291
-0.0913979 0.15987 0.629844
0.0600249 0.175937 0.676295
-0.148838 -0.0389957 0.435222
-0.224281 0.18021 0.149393
0.178392 0.0846465 0.427355
-0.130429 -0.069968 0.435176
0.0464035 -0.177062 0.43597
-0.199059 -0.111375 0.433936
0.152688 -0.136802 0.436697
0.0291912 0.206195 0.718633
0.00160627 0.065722 0.406023
-0.133849 0.144123 0.598602
-0.174527 -0.0713022 0.439796
0.152054 -0.0454805 0.431211
-0.0403466 0.0110042 0.426052
0.0666605 0.0113498 0.427056
0.236785 0.155374 0.00721673
-0.0982097 0.222179 0.749347
-0.190599 -0.0617567 0.440626
0.0324967 0.196045 0.695317
0.142057 0.138602 0.569572
0.0175109 -0.00372212 0.426253
0.0850728 0.236139 0.76683
0.104504 0.0403135 0.423024
-0.0560697 -0.00564387 0.422359
0.0582441 0.145348 0.421803
-0.153807 -0.0682231 0.432714
-0.176029 0.158413 0.665834
-0.229998 0.12628 0.00705064
0.118564 0.143635 0.5619
-0.207101 0.0526793 0.432182
-0.0263131 0.118208 0.417547
0.235427 0.201513 0.0302705
0.236677 0.197146 0.088726
-0.176547 0.00660182 0.435839
0.191671 -0.0690335 0.441118
0.0430696 0.156737 0.558439
0.0692096 -0.16945 0.432004
-0.183519 -0.226753 0.448984
-0.143894 0.0331354 0.426617
-0.0257569 0.0821442 0.418694
-0.20802 -0.238034 0.225336
0.0713323 0.246453 0.772921
-0.117431 0.138942 0.532657
-0.0545304 0.155215 0.555805
-0.187369 -0.00938793 0.433069
-0.228363 0.0973928 0.0140957
0.227493 0.19302 0.085476
-0.137958 0.146122 0.612205
-0.175187 0.136952 0.61214
-0.0581999 0.152195 0.585115
-0.0441148 -0.203606 0.432934
-0.16923 0.128965 0.4275
0.186132 0.121045 0.523505
0.175375 -0.208908 0.443113
0.206882 0.0717807 0.430601
-0.156721 0.130282 0.571704
0.0268523 0.0990237 0.418188
0.22696 0.133716 0.00129857
0.152728 -0.052716 0.431707
-0.222374 0.17359 0.18991
0.217155 0.121419 0.592138
0.237853 -0.129179 0.0101152
0.147538 -0.244193 0.426374
-0.187949 -0.0823759 0.441556
-0.238339 -0.00713865 0.012494
0.00549204 0.011317 0.420708
0.0631869 0.0974736 0.419129
0.140382 0.0891992 0.428809
-0.0504238 -0.0326685 0.427893
-0.15676 -0.198882 0.445207
-0.199426 -0.245911 0.345862
-0.0431679 0.151677 0.406773
-0.034641 -0.193116 0.432078
0.163361 0.163149 0.680294
0.199277 -0.24388 0.298734
-0.0257941 0.16536 0.648876
-0.116903 0.217291 0.738267
0.0362047 -0.115184 0.431929
-0.165756 -0.156786 0.443663
0.177354 0.171414 0.697947
0.0275834 0.0522577 0.419639
-0.0174572 0.179475 0.665823
-0.0876009 0.145364 0.544765
0.0691092 -0.236247 0.426374
-0.228513 0.0849576 0.00888585
-0.178838 0.192576 0.720023
0.0364391 0.163042 0.617766
0.123699 0.227303 0.760805
0.137379 0.140099 0.422756
-0.00926652 0.231181 0.75415
0.0186447 -0.0369322 0.427486
0.148952 0.00828754 0.433066
-0.001431 0.150463 0.408352
0.167712 0.134981 0.614075
0.225068 0.141788 0.661058
-0.0883551 -0.232071 0.426374
0.106764 -0.238394 0.432934
-0.17554 -0.19489 0.442544
0.207108 -0.247739 0.227426
0.0387577 -0.215822 0.433437
0.170886 -0.174506 0.445037
0.105563 0.209013 0.732704
0.207666 0.025551 0.432697
-0.103753 -0.0639631 0.427614
-0.195765 -0.24295 0.372613
0.0692328 -0.214066 0.439404
-0.129392 -0.0617645 0.4346
-0.200024 -0.246182 0.324335
0.205619 -0.247381 0.11976
-0.0337581 0.0370049 0.424984
-0.18448 -0.234179 0.426374
-0.0461653 0.162431 0.641624
0.199057 -0.0190931 0.429332
0.136176 -0.172116 0.441644
0.157912 -0.217373 0.446235
0.121033 0.147055 0.599774
0.0359269 0.155787 0.597009
-0.113385 0.146583 0.585474
0.0967675 -0.160005 0.437612
0.237285 -0.0500869 0.014249
-0.0788802 -0.173166 0.432908
-0.0101067 0.0675778 0.423654
-0.146095 -0.229309 0.440507
0.201647 -0.235221 0.325263
-0.215284 -0.242344 0.0546061
0.105352 -0.0351478 0.426233
0.0344008 -0.148653 0.433839
0.199501 -0.244808 0.327467
0.147261 -0.0786364 0.432628
0.0654873 0.0698375 0.415635
-0.00818321 0.174294 0.653912
0.194706 -0.236688 0.421809
-0.118805 0.171271 0.671146
0.00623728 -0.200978 0.431792
0.103816 0.0572158 0.427162
0.157526 0.0869654 0.425465
-0.194568 -0.0852526 0.437817
-0.141302 0.170268 0.675734
0.215763 0.131982 0.412345
0.0734559 0.0497878 0.421117
0.0939566 -0.0269853 0.429973
0.202672 -0.23436 0.386042
-0.0101355 0.0909855 0.422954
-0.174615 0.124263 0.416631
-0.192811 0.135978 0.635616
-0.110059 0.0456209 0.423292
-0.0944106 -0.10208 0.433921
-0.178497 -0.22352 0.444038
0.232189 -0.0600356 0.0168061
0.19553 -0.12978 0.440181
-0.0859303 0.074917 0.425608
0.102485 0.188222 0.703766
0.226491 0.159746 0.691208
0.0882592 -0.0393175 0.430151
0.0317039 0.053507 0.424434
0.0843948 -0.230584 0.43365
0.0324451 0.162043 0.636196
0.200548 -0.234445 0.371741
-0.228334 0.113077 0.534153
-0.0564055 0.133424 0.422358
-0.169802 0.125285 0.546639
0.212605 0.15356 0.679519
-0.00723696 0.105121 0.422486
0.206962 -0.22996 0.448098
-0.0375559 0.228297 0.751082
-0.0548719 0.153995 0.598941
-0.0119315 -0.0581532 0.428237
-0.220581 0.1673 0.228061
-0.184666 0.126683 0.571172
0.00149535 -0.119928 0.426661
0.17791 0.127305 0.542942
-0.0846133 -0.0820736 0.432179
0.185656 0.0479953 0.434381
0.102804 -0.0682513 0.427788
-0.115591 -0.177455 0.435822
-0.128048 0.0925433 0.427658
-0.227989 0.136845 0.651035
0.161957 0.134623 0.586459
-0.227454 0.0253475 0.0100303
-0.0106658 0.156636 0.526697
-0.0507818 0.235065 0.753535
-0.0663973 0.153661 0.611854
0.145478 -0.172086 0.438164
0.185481 -0.107 0.442739
0.11548 -0.128417 0.432596
0.174565 -0.0167437 0.436964
0.102787 0.0031179 0.42919
0.121337 -0.0280287 0.427377
0.0830345 0.0320706 0.427004
0.0237055 0.0377763 0.420042
0.0774693 0.17238 0.660175
0.0529449 -0.0373723 0.428146
0.130065 0.14374 0.617069
0.126999 -0.0130504 0.427203
0.0665165 0.0477746 0.420852
-0.200947 -0.245802 0.223912
-0.0420842 -0.0487574 0.428347
0.00139752 -0.0383375 0.422454
0.0085403 0.0536874 0.424053
0.0755044 0.201564 0.717669
-0.208098 -0.0968213 0.432581
0.0653694 0.152551 0.535009
-0.196901 -0.227219 0.444227
-0.158543 0.032598 0.432801
-0.237299 -0.103623 0.0136425
-0.0429982 -0.219364 0.438462
0.227089 0.163242 0.219255
-0.167677 0.130763 0.563759
-0.127839 -0.169825 0.440912
0.190514 0.0397042 0.43513
-0.134987 0.0884484 0.418168
-0.0420794 -0.120353 0.432311
0.226977 0.177467 0.20388
0.227598 0.197621 0.10484
-0.218186 0.122148 0.609412
-0.084014 0.0112514 0.427796
-0.178328 0.153383 0.65628
0.218398 0.158546 0.688959
0.208557 -0.184215 0.442359
-0.0456646 -0.0295544 0.427686
0.150185 0.141258 0.517847
0.151966 0.134737 0.54881
0.118367 -0.114457 0.432038
0.0142123 -0.014126 0.426571
-0.0473783 -0.129976 0.428296
0.00727311 -0.206454 0.432108
-0.0588923 -0.0251096 0.423251
0.0516453 0.16558 0.652786
-0.225403 0.153729 0.00630174
-0.0405245 0.237362 0.756241
0.010758 0.155307 0.573565
-0.0492492 0.246724 0.771046
0.189706 0.11663 0.418045
-0.0547869 0.122158 0.42272
0.203988 0.120104 0.587689
-0.216881 0.144869 0.339942
0.197474 0.216853 0.755443
0.109622 -0.125497 0.436423
0.206958 0.197111 0.733108
-0.0469337 -0.0285162 0.427671
0.0644984 0.173783 0.660232
0.0480934 0.233974 0.751507
0.0460393 -0.186958 0.431957
0.078676 0.215191 0.736868
-0.240779 0.157896 0.00198142
0.00744212 0.158811 0.611885
0.0158657 0.232897 0.756884
-0.176321 0.0623031 0.428323
0.207367 -0.0326935 0.426482
0.126716 0.154634 0.633718
-0.0357265 0.157968 0.569331
-0.145805 0.138907 0.611668
0.0891173 -0.106665 0.433917
0.0319256 0.0489608 0.424574
0.0309576 -0.231574 0.426374
0.0485062 0.152937 0.572136
0.0659994 0.169793 0.651679
-0.190421 -0.0140743 0.433548
0.14978 0.135229 0.413176
0.0131672 -0.128497 0.427389
0.197995 -0.24158 0.314829
0.0209409 0.214708 0.722188
-0.00658031 0.0307752 0.424772
-0.0719739 -0.0152734 0.428221
-0.0206989 0.221383 0.740057
-0.142297 0.138558 0.572783
0.0354683 0.212886 0.728715
-0.208654 0.123611 0.592613
0.068638 0.105089 0.419132
0.230066 0.148857 0.0158726
0.234462 -0.031937 0.0163782
-0.109311 -0.10038 0.430334
0.0517487 -0.0204009 0.422703
0.232247 0.0562672 0.0167741
-0.238717 0.134107 0.0129802
0.0888611 0.0751985 0.415703
0.202639 -0.238767 0.220801
0.184034 -0.0557296 0.439852
-0.23221 -0.183447 0.0113803
0.218989 0.158575 0.280432
0.161123 0.0903858 0.416208
-0.00384437 0.198902 0.706107
-0.124656 -0.216069 0.438828
0.0977711 0.147958 0.5473
0.0928551 0.172413 0.663824
-0.0790518 0.211299 0.723647
0.0568928 -0.069877 0.425212
-0.181047 -0.0682962 0.440305
0.131104 0.159146 0.648276
0.0229572 0.17015 0.645774
0.0414584 0.154857 0.52547
-0.23778 0.199887 0.0584627
0.00746974 -0.173049 0.434788
0.0409904 -0.159863 0.434722
0.20731 0.125239 0.548145
-0.230577 0.142127 0.0113803
0.0862188 0.146536 0.564168
0.0591542 -0.206844 0.433742
-0.156658 0.129671 0.563271
-0.196586 0.105277 0.426584
0.101256 0.233113 0.764741
0.007929 0.157879 0.543204
0.156986 -0.0808566 0.438369
0.112174 0.153008 0.638221
-0.205419 0.193957 0.729067
0.10567 -0.234169 0.440595
0.225426 0.188843 0.113716
-0.046937 0.0464035 0.424885
-0.199896 -0.0446261 0.42806
-0.210344 -0.239258 0.154902
-0.053144 0.0776993 0.419289
0.207603 -0.238008 0.321463
-0.224061 0.131169 0.398701
0.2059 -0.167939 0.445545
-0.168172 0.193515 0.718584
0.210871 0.151529 0.665728
0.153279 -0.0394157 0.435767
-0.19032 0.122533 0.583577
-0.205947 -0.241023 0.367701
-0.140309 -0.0906403 0.432676
0.0644118 0.20778 0.724721
0.067381 0.172558 0.671814
-0.0401596 0.173478 0.667828
0.155356 -0.071658 0.437678
0.152677 0.234685 0.768726
0.129486 -0.185196 0.441858
0.200892 0.152789 0.663725
0.172012 -0.0143327 0.436593
0.0887178 0.127995 0.41909
0.0933837 0.205634 0.717823
0.00391725 -0.0976625 0.430252
0.00229041 0.0402825 0.419597
-0.20355 -0.23727 0.252636
0.222494 0.176905 0.195314
0.0744105 -0.0176681 0.423702
-0.0959036 0.175584 0.683027
-0.224065 0.165355 0.694836
-0.195881 0.141534 0.638289
-0.146021 0.144589 0.522197
0.0752631 0.151537 0.545433
-0.174356 0.143566 0.630555
0.0399572 0.248162 0.772586
0.203606 -0.247226 0.214986
0.058888 0.0857149 0.424116
0.116532 -0.235261 0.432354
0.0163657 -0.118148 0.426872
-0.0028116 0.168257 0.634425
-0.0346774 -0.0377832 0.427795
0.0612493 0.168999 0.662584
0.204933 -0.238502 0.185946
-0.137515 0.137666 0.530497
-0.0257701 0.16174 0.517619
-0.0459257 0.0979309 0.418523
0.142099 0.196185 0.723305
-0.222538 0.112665 0.559769
-0.183245 -0.0463071 0.434694
-0.044145 -0.0340809 0.423091
0.0521745 0.151981 0.566254
0.117116 -0.103699 0.43128
-0.204169 -0.244369 0.112225
0.202008 0.135963 0.639405
-0.0637951 -0.201772 0.438407
-0.0414273 -0.184923 0.436356
-0.226503 0.197165 0.0863972
0.0233948 -0.0220786 0.427032
0.222431 -0.240012 0.0144773
-0.0546059 0.055253 0.420056
-0.187167 0.00615802 0.432171
0.081794 0.231952 0.760602
0.0342571 -0.0873365 0.425528
0.184585 -0.19235 0.447319
-0.177514 0.178809 0.708788
-0.227154 0.155107 0.679435
0.225483 0.153654 0.309461
-0.196097 -0.17977 0.447351
0.126334 0.222768 0.747444
-0.144673 0.144977 0.632759
-0.000972835 -0.132822 0.43211
0.197603 0.110277 0.431103
-0.000482178 0.0328411 0.419838
-0.210902 0.130203 0.583166
-0.199346 0.205231 0.74193
0.139759 0.133813 0.526843
0.0919466 0.147099 0.421418
-0.168431 -0.237784 0.440647
0.214067 0.145355 0.654762
0.225142 -0.210258 0.010838
-0.23308 0.174293 0.186931
-0.108422 -0.010856 0.425539
0.17136 -0.180424 0.441287
-0.177352 0.213897 0.754592
0.0033402 0.237243 0.75457
0.168118 0.00649529 0.430281
-0.104886 0.161511 0.658745
-0.187511 0.132837 0.51829
-0.160196 0.196085 0.727886
0.166649 -0.121451 0.441671
-0.096681 0.148276 0.604748
0.228348 0.181634 0.18341
0.193528 0.197743 0.730107
0.0473835 0.156979 0.615717
-0.0133947 0.158587 0.411827
0.14568 -0.0584664 0.435941
0.153472 0.15955 0.671094
0.208154 0.041987 0.429345
0.0538608 0.139959 0.417109
0.00280397 0.113069 0.422186
0.121761 0.201632 0.726248
-0.131476 0.192919 0.716964
-0.23552 -0.182361 0.0113803
-0.227777 0.0245057 0.0122689
-0.204819 0.122474 0.565186
-0.115166 0.200827 0.716071
-0.157099 -0.0608005 0.437296
0.0883902 -0.045446 0.425631
0.209294 0.116159 0.562909
-0.13195 0.0918241 0.427963
-0.193518 0.134254 0.61754
-0.0166403 0.194401 0.691367
-0.218956 0.145747 0.305237
0.0806217 0.24016 0.771899
-0.118759 0.0844531 0.409212
0.208097 -0.0229519 0.428061
-0.235175 -0.0631047 0.00673566
0.12705 -0.23643 0.432305
0.0983432 -0.150426 0.432564
-0.132841 0.13761 0.586184
0.133394 -0.0156431 0.427935
-0.204219 0.00205534 0.436947
-0.0690033 -0.187773 0.43325
-0.21751 0.127048 0.38549
-0.190468 0.158933 0.682219
-0.0283713 -0.0988937 0.426147
0.15694 -0.243615 0.432145
-0.210653 -0.249879 0.124194
-0.175884 -0.00148006 0.431601
-0.234011 0.184844 0.121657
-0.0110013 -0.171904 0.430096
-0.206161 -0.126947 0.431359
-0.237932 -0.0745558 0.0116212
0.0241831 0.21414 0.729949
0.178781 -0.084283 0.436476
-0.225416 0.162355 0.00733561
-0.113765 -0.0209928 0.42647
-0.0603917 -0.22493 0.434103
0.162191 -0.236634 0.44015
0.220886 0.170663 0.215379
0.208369 0.00632642 0.430232
0.213159 0.123918 0.610258
0.231561 0.195382 0.0679256
-0.0543881 0.169567 0.648647
-0.224156 0.127027 0.401904
-0.174373 0.126897 0.415392
-0.0864311 -0.184733 0.434153
0.220482 0.130363 0.633248
0.115569 -0.172398 0.439859
-0.0836968 -0.00370068 0.428383
-0.222918 0.167472 0.204635
0.211981 -0.24083 0.211035
0.0376944 -0.192554 0.432106
0.12231 0.114392 0.42648
-0.216607 0.140526 0.334721
-0.24026 0.160069 0.0103325
-0.212851 0.12367 0.506483
0.0265142 -0.0349538 0.42756
0.177022 0.143425 0.631232
0.126597 -0.198283 0.43812
0.17575 0.136814 0.61108
-0.00879473 -0.0446818 0.422827
-0.140834 0.152262 0.634479
-0.114676 0.175253 0.687353
-0.119113 0.227252 0.752126
-0.0746285 0.138868 0.417784
-0.170523 -0.157207 0.444181
-0.0356965 0.00727221 0.42139
-0.201503 0.0274052 0.422593
0.0428871 -0.168385 0.435323
-0.223676 0.17679 0.164524
0.0465586 -0.0825164 0.430292
-0.040238 0.163353 0.517467
-0.0739738 0.0143312 0.427194
0.22261 0.132788 0.56397
0.197371 0.221733 0.761317
-0.161047 -0.0393885 0.431938
-0.185138 0.104666 0.426511
0.205484 -0.238934 0.398865
0.21534 0.126092 0.583611
0.0813429 0.157367 0.614069
-0.0410738 -0.164787 0.435027
0.00550181 -0.203021 0.431881
-0.0845817 0.238127 0.76206
0.205311 0.216163 0.762047
-0.0250087 0.163526 0.617579
0.227939 0.204375 0.0712962
-0.0733545 0.148236 0.561796
-0.00943329 0.0661165 0.413017
-0.204846 0.150503 0.673091
0.160786 0.127679 0.416053
-0.051041 0.174988 0.65978
0.146304 0.087437 0.419883
0.0474957 -0.029762 0.422977
0.233359 0.19606 0.0662631
0.00539207 -0.21326 0.432417
0.148417 -0.217055 0.445379
0.200262 0.170751 0.69473
-0.231053 0.201047 0.0290255
0.0820089 0.16245 0.634923
0.135961 0.212782 0.743521
0.101388 0.114905 0.420186
-0.174028 0.10551 0.430489
0.12712 0.141172 0.598322
0.0650651 0.0477441 0.420783
0.143878 0.217693 0.743782
0.173437 0.214729 0.754232
-0.121726 -0.0311046 0.432288
-0.00949906 0.222241 0.740799
-0.0298394 -0.0502756 0.428178
0.162827 0.102554 0.415637
-0.0292384 -0.092966 0.425826
-0.166429 0.130354 0.55264
-0.153707 0.128446 0.427457
-0.0940953 0.0262401 0.423002
0.0285921 0.16426 0.645371
-0.0105823 -0.171729 0.430074
0.139302 -0.0114837 0.433128
-0.0507732 -0.00919966 0.42701
0.0413528 0.173238 0.654244
0.0909671 -0.189224 0.434716
0.18006 0.0675345 0.433095
-0.12775 0.167732 0.6666
0.0299005 0.165009 0.625786
-0.141562 -0.171654 0.437771
0.0119309 0.157475 0.407336
0.0264317 0.154038 0.406733
-0.202766 -0.22914 0.428771
-0.203853 0.0806487 0.418696
0.014355 -0.209497 0.437203
0.209833 -0.246013 0.230208
-0.165754 -0.139312 0.438239
-0.232505 -0.0840144 0.00605599
0.0297747 0.223394 0.743361
0.205879 0.120561 0.591336
0.0110897 -0.223131 0.437855
0.149695 0.131674 0.558932
0.162738 0.0951866 0.430297
-0.207918 -0.121965 0.439885
0.0103926 -0.173513 0.434889
-0.189772 -0.247549 0.431731
0.232733 -0.167265 0.00576817
-0.12052 -0.166637 0.435519
0.00461137 -0.113776 0.426385
0.037566 -0.009883 0.42683
0.0715937 0.148889 0.565168
0.134422 0.151583 0.646347
0.1465 0.14775 0.518512
0.207638 -0.160362 0.444005
-0.209514 0.155038 0.672796
0.166057 -0.0780113 0.439196
-0.237691 0.142042 0.0144426
-0.0413494 -0.0750138 0.429733
-0.179122 0.141322 0.642173
0.162262 0.176688 0.701528
-0.0613069 -0.0857346 0.431087
-0.134037 -0.0843792 0.431705
0.20763 0.0726299 0.42881
-0.151144 0.149149 0.648772
0.0463276 -0.0710793 0.429642
-0.0678183 -0.00802825 0.423094
-0.10189 -0.0593173 0.431865
-0.115686 -0.0129672 0.426316
-0.0823158 0.157653 0.616721
-0.038528 0.208877 0.714687
-0.0438783 0.125681 0.417494
-0.179411 -0.138827 0.439697
0.0359572 0.00815741 0.42133
0.21135 0.152857 0.668621
0.0801934 0.19272 0.697393
-0.221376 0.14823 0.664994
0.148703 -0.0693302 0.432238
-0.00443821 -0.106103 0.425983
0.208986 -0.234555 0.442861
-0.115945 0.0412153 0.428691
0.110042 -0.177802 0.439753
0.196248 0.186152 0.715349
-0.181581 -0.245413 0.440961
-0.128486 0.0778628 0.415027
-0.194796 -0.147638 0.441292
-0.0873691 0.147994 0.409264
-0.221096 0.142605 0.363038
-0.0322717 0.191149 0.696758
-0.0436854 0.0767344 0.419144
-0.00327876 -0.206977 0.436794
-0.223963 0.156279 0.680155
0.233337 0.194501 0.0741303
0.196241 -0.0139391 0.433153
0.126748 0.151595 0.641686
-0.152593 0.057002 0.431071
0.149503 -0.0663861 0.432154
0.020875 0.15266 0.532822
0.166749 0.134468 0.522948
-0.160882 -0.181201 0.444618
-0.123622 -0.238905 0.426374
-0.1037 -0.122251 0.431127
0.224924 0.144723 0.347167
-0.200484 -0.176572 0.433668
0.0401588 0.140365 0.416825
-0.0559163 -0.131984 0.428742
-0.00403894 0.0583855 0.423834
-0.0562144 0.216873 0.736184
-0.232866 0.193069 0.124421
0.12848 0.139047 0.588386
-0.045798 0.161972 0.639381
0.0905205 0.155958 0.63645
0.154831 0.132367 0.585769
0.116147 -0.0883292 0.434861
-0.226663 -0.189506 0.0105896
-0.0823025 -0.201143 0.434907
0.181923 0.209221 0.749232
-0.180251 -0.104924 0.442222
0.131937 -0.229433 0.439111
0.0163077 -0.234473 0.42967
-0.161533 0.110875 0.429249
-0.151881 0.21066 0.744661
0.022533 -0.0949779 0.425703
0.0147242 0.214714 0.721828
-0.153263 0.162872 0.666052
0.0797364 -0.163793 0.432284
-0.142952 -0.135985 0.4401
0.0239569 0.00668224 0.421182
-0.139045 0.202647 0.723579
-0.0777618 -0.0459839 0.425075
0.144071 -0.0774055 0.436863
0.14844 -0.138352 0.440739
0.111192 0.141779 0.568739
0.190919 -0.0677151 0.436612
0.0273162 -0.0128572 0.421962
-0.162685 0.127262 0.532695
-0.179571 -0.0618347 0.435252
0.126244 0.068425 0.423646
0.138935 0.0903381 0.410509
-0.174185 0.127816 0.534086
-0.0724216 0.166249 0.644789
0.200414 0.174751 0.700499
-0.217108 0.119269 0.598014
0.211772 -0.250345 0.0826201
0.0288284 -0.170241 0.430394
0.0540862 -0.145759 0.434155
0.0576036 0.205718 0.720795
-0.164319 0.0304435 0.428748
0.104314 0.154856 0.620205
-0.162073 -0.120345 0.436726
-0.10197 -0.0378493 0.426057
0.139714 -0.222976 0.440348
0.056186 0.0591503 0.424787
0.225407 -0.234519 0.0140254
0.162203 -0.168447 0.443808
-0.00666504 0.179751 0.676575
-0.190499 0.165689 0.693342
0.0398731 0.0528145 0.424588
-0.0523365 0.11651 0.418021
0.118774 0.138745 0.521565
-0.0140346 -0.12384 0.431886
0.179928 0.152477 0.65406
0.187523 0.115606 0.420053
0.160264 -0.21124 0.441784
0.0282339 0.187256 0.680738
0.0865465 0.14627 0.561012
0.146937 0.163392 0.663593
-0.150298 0.168689 0.675964
0.0472226 -0.206405 0.433157
0.181019 0.136288 0.614067
0.0942145 -0.0329342 0.430231
0.00736877 0.168263 0.635543
-0.126143 -0.227812 0.426374
0.0751897 0.19882 0.70543
0.154424 -0.101122 0.439252
0.111647 0.141794 0.410137
0.237044 0.169084 0.00950663
-0.22939 0.119833 0.546561
-0.15185 -0.00699498 0.434012
-0.130256 -0.0740315 0.435397
0.227704 0.128354 0.0104229
0.0665896 -0.140424 0.429922
0.171654 0.00596159 0.435497
-0.0968923 0.154917 0.613539
0.0814479 0.0495559 0.421509
0.149705 -0.0611564 0.436498
-0.0116072 0.149697 0.408884
-0.13138 0.160093 0.651214
-0.226922 -0.231585 0.0121637
-0.116044 0.111669 0.421311
-0.0647775 -0.235337 0.426374
0.110634 -0.103642 0.43066
0.123143 0.0467642 0.429159
0.0424694 -0.128031 0.43277
0.121926 0.1874 0.706849
0.201461 -0.241748 0.215192
-0.20705 -0.00113795 0.424518
0.0846561 0.145874 0.542837
-0.0018349 -0.222228 0.437583
0.204356 0.186665 0.72622
0.0378459 0.104039 0.423009
-0.0306293 0.152637 0.549635
0.237187 0.0852579 0.00798543
0.0863001 0.0199903 0.422824
-0.0504104 0.165326 0.631615
0.241074 0.146496 0.0040186
-0.0736902 0.147494 0.537874
-0.119278 0.16522 0.658115
-0.226239 0.165109 0.206788
-0.15158 -0.033197 0.430569
-0.136293 -0.0926203 0.432412
-0.215039 0.133488 0.640586
0.0473944 -0.213083 0.43352
-0.108662 -0.0133285 0.430345
0.0377823 -0.0447091 0.423359
-0.167361 0.131074 0.599927
0.0961195 0.23578 0.759763
0.195981 0.00960568 0.437098
-0.180588 0.130023 0.523069
-0.213254 0.127552 0.416927
-0.207216 -0.070168 0.439268
0.160443 0.134556 0.580925
0.0746334 0.153573 0.57637
-0.163033 0.145304 0.62814
0.223252 0.124087 0.460154
-0.15434 0.130974 0.572021
0.129619 0.0794551 0.410098
0.21243 0.123325 0.517546
-0.160905 -0.191356 0.440886
-0.155252 0.133009 0.525768
-0.18106 0.127769 0.598935
-0.212355 0.144177 0.652631
-0.010188 0.0592573 0.414243
-0.0268878 0.153623 0.406625
0.232906 0.0784685 0.00572519
0.125733 -0.221883 0.443736
-0.0176906 0.101823 0.422748
-0.174036 -0.0740592 0.439895
0.108742 -0.192389 0.440603
0.0651805 -0.15362 0.435328
-0.0524675 0.150373 0.523821
-0.219618 -0.226098 0.0153756
0.186363 0.13417 0.610377
0.087763 -0.135487 0.435476
0.0517968 0.0495219 0.420122
-0.140842 0.154484 0.640961
-0.01723 -0.208317 0.432485
-0.117267 0.14569 0.616347
0.0364518 -0.0315622 0.427621
0.214104 0.199075 0.744712
0.228265 0.196276 0.0700179
0.207837 0.0277684 0.431942
0.0195639 0.233284 0.757598
-0.141074 0.157139 0.648225
0.0726555 0.190676 0.692767
-0.138531 -0.157333 0.436585
0.17245 -0.00505787 0.431372
-0.1343 0.134916 0.545271
0.0308074 0.163318 0.641507
-0.0918685 -0.0847968 0.428135
-0.158806 -0.0556995 0.437193
-0.164623 0.130448 0.530501
0.198408 -0.243413 0.324394
0.208331 -0.161604 0.435869
-0.0359422 0.0412267 0.420112
0.0300576 0.241682 0.762283
0.0502888 0.0203285 0.425894
-0.0480221 0.0126546 0.421389
-0.0724268 -0.09045 0.427363
-0.168545 0.128022 0.581997
-0.219359 0.114171 0.570059
0.189823 0.174496 0.705533
-0.226356 -0.193599 0.000973057
0.0413764 0.079382 0.42381
-0.156217 0.227296 0.767186
0.0145468 0.0392528 0.424597
0.118296 0.0246304 0.42968
-0.172711 0.146331 0.651354
-0.199777 0.0492731 0.423346
-0.231003 0.174317 0.0064646
0.230765 0.179177 0.189684
0.130594 -0.144427 0.435082
0.223016 0.153848 0.313057
-0.195323 -0.24231 0.381975
-0.132461 0.152392 0.62993
-0.230389 0.106435 0.0157718
-0.0283413 -0.0455514 0.423221
0.197428 0.200921 0.742883
0.208776 -0.243126 0.297247
0.120056 0.169234 0.66644
0.0602926 0.159917 0.613013
-0.220636 0.146688 0.296009
0.124747 0.0687663 0.428551
-0.217422 0.117445 0.500045
-0.0980307 -0.138621 0.431758
0.100768 -0.11403 0.434996
-0.169922 0.0860919 0.426561
-0.0665162 0.153464 0.416594
-0.0461316 -0.227518 0.438439
0.0461739 -0.038652 0.428058
-0.0976775 0.14377 0.549587
0.174127 0.146376 0.651316
0.239061 0.200136 0.0183095
-0.173888 0.147537 0.641429
-0.235482 0.141861 0.0163636
0.178596 -0.039427 0.433898
0.0066624 0.0708634 0.423509
0.0936166 0.144908 0.55723
0.0905435 -0.236186 0.435876
-0.117806 0.139011 0.555822
-0.0622063 0.189317 0.698148
-0.162828 0.151043 0.657248
0.102884 0.143448 0.56492
-0.184263 0.142756 0.648544
0.0269019 -0.154487 0.429325
-0.122877 -0.18883 0.441647
0.0805514 0.1507 0.600999
0.113871 -0.154577 0.438547
0.0566972 0.163888 0.650348
0.0321649 0.0660968 0.405835
-0.22099 0.15636 0.297192
-0.210917 0.186401 0.72816
-0.140506 0.211756 0.743426
0.065339 0.191021 0.691905
0.1157 0.141304 0.577613
-0.103376 0.00196232 0.424524
-0.232372 0.0219207 0.0167938
-0.149034 -0.075261 0.437235
-0.233625 0.0825502 0.00598017
0.0859386 0.149887 0.547482
0.0175165 0.175822 0.658089
-0.234632 0.0292099 0.0164302
0.0789873 -0.214305 0.435382
-0.0604539 0.194034 0.696006
0.176925 0.0522758 0.433651
0.0159934 0.165027 0.64636
-0.212515 0.12223 0.518308
0.132396 0.14913 0.619818
0.222678 0.127053 0.460537
0.0550981 -0.21565 0.438644
0.120503 0.103181 0.422009
0.142229 0.04982 0.425778
-0.0712187 0.180522 0.675583
-0.0587675 -0.0679416 0.425238
0.062772 -0.0258662 0.428249
-0.126113 -0.100825 0.436554
-0.216466 0.129308 0.417465
0.130727 0.170588 0.683335
-0.153752 -0.071987 0.432932
-0.236316 -0.0495217 0.0153004
0.181806 -0.14405 0.444489
-0.205996 0.0462646 0.433291
0.00382749 0.157916 0.540238
-0.122229 0.137838 0.544128
-0.209316 0.154144 0.671221
-0.13627 -0.0187653 0.433083
-0.104271 0.0491724 0.427422
-0.0418276 -0.00174498 0.426562
-0.152522 0.0593319 0.430965
-0.0248006 0.0907377 0.418412
0.189045 -0.230568 0.449473
0.00757073 0.212317 0.717887
-0.22811 0.113782 0.561947
0.0309708 0.0395228 0.424854
0.00414503 0.165154 0.621344
0.22003 0.127381 0.52373
0.194243 0.120788 0.572487
-0.100123 0.176916 0.686263
0.0394522 -0.220628 0.438442
0.110703 -0.238247 0.435272
0.0930925 0.166586 0.665453
0.0172145 0.167511 0.634199
-0.0929815 -0.22576 0.436203
-0.232816 -0.118817 0.00598317
-0.0277485 0.00183591 0.426172
-0.0967158 0.0685827 0.426345
-0.175152 0.172878 0.690841
