0.00656518 -0.0986021 0.430362
-0.0515162 -0.125193 0.432794
-0.137807 0.0569207 0.425191
-0.208055 -0.235737 0.444829
0.23307 0.179628 0.172568
-0.182397 0.149011 0.648799
0.0633139 -0.0732758 0.425768
0.208209 -0.201093 0.437264
0.0816643 -0.224111 0.440713
-0.227189 -0.135968 0.0125048
-0.198939 -0.234793 0.391288
0.112128 0.142489 0.583365
-0.225278 -0.209247 0.0108375
0.138315 0.200862 0.728543
-0.134075 -0.0645537 0.435204
-0.234636 0.182714 0.00587994
-0.210566 -0.240564 0.228099
-0.228052 -0.0537625 0.0145432
-0.0992789 0.238489 0.772203
-0.105055 0.101612 0.420954
0.200286 -0.244664 0.391584
-0.198779 -0.238278 0.308297
-0.0104672 0.203402 0.704652
-0.199322 0.0257352 0.426039
-0.164518 0.130035 0.414248
-0.0462052 0.120341 0.417759
0.228471 0.126056 0.528238
-0.0827007 0.152617 0.581854
-0.0240901 0.0129243 0.420986
0.0592926 0.20153 0.706652
-0.0128045 0.165068 0.646053
0.045205 -0.164245 0.430432
0.102089 0.179101 0.689907
-0.22389 0.129198 0.386274
0.179977 0.110927 0.415051
-0.144545 0.184931 0.700528
-0.213178 -0.241612 0.148982
-0.187665 0.125947 0.426686
0.175442 0.18906 0.721989
0.122464 -0.0565374 0.428957
-0.0286787 0.156479 0.60137
0.0297543 0.158517 0.571106
0.0568807 0.0981309 0.423643
-0.0482349 -0.0634274 0.429231
0.115251 0.140235 0.424152
0.221597 0.120957 0.453935
0.122754 0.153371 0.646121
-0.176456 -0.0253491 0.432937
-0.235539 0.192887 0.0839423
0.231491 0.171897 0.0164225
-0.0684426 0.222694 0.737759
-0.09185 -0.0111903 0.424459
-0.065331 -0.196104 0.433569
-0.0914577 0.19564 0.712019
-0.22005 0.151875 0.318074
0.100665 0.0085142 0.424062
-0.0330012 0.0671424 0.406393
0.128577 -0.104083 0.436917
0.0510848 0.154957 0.539139
-0.0885605 0.148584 0.420582
0.225332 -0.221969 0.00590085
-0.0969586 -0.144782 0.432109
0.0237719 0.047891 0.424473
-0.133171 -0.105194 0.43745
0.214829 0.204466 0.751183
0.0112011 -0.234837 0.42716
0.101217 0.0440751 0.422646
0.201539 -0.240526 0.21811
-0.00257848 0.0778178 0.418447
-0.224026 0.159894 0.231659
0.180842 0.163246 0.685572
-0.0933485 0.152462 0.625385
0.144481 0.0077863 0.432663
0.228265 0.125215 0.612774
-0.167295 0.13314 0.608594
-0.0195139 0.161894 0.517637
0.0636972 0.151204 0.420143
0.130782 0.103606 0.422726
-0.0855076 0.145697 0.544729
-0.177247 0.228483 0.765669
-0.106204 -0.22563 0.426374
0.0490149 0.15449 0.593612
0.0674787 -0.137056 0.434375
0.2272 -0.175362 0.000818235
-0.133384 0.140441 0.605163
0.203289 -0.167623 0.432683
-0.0533211 0.189068 0.696042
0.0127214 0.154175 0.559115
-0.0450164 0.166158 0.63309
0.165672 0.130491 0.528483
0.041938 0.0123888 0.426059
-0.160436 -0.175492 0.439842
-0.129894 0.164958 0.674437
0.0201128 0.226276 0.747164
0.139116 -0.160221 0.436864
-0.220608 0.132691 0.533536
0.184358 0.130057 0.610016
0.102966 0.142685 0.551751
-0.0577634 0.0871701 0.419217
-0.0957825 0.162711 0.658266
0.186347 -0.109875 0.438647
-0.00952872 -0.185586 0.430935
-0.201031 -0.16795 0.433086
-0.129141 0.198185 0.715431
-0.203916 -0.0429406 0.439529
-0.0124898 0.119409 0.417284
0.0951321 -0.0280171 0.425278
0.0114495 -0.134874 0.432452
-0.07849 -0.0812323 0.427167
-0.119933 0.00882845 0.430375
0.186737 -0.0495853 0.4352
-0.0280689 -0.153856 0.429354
0.0927938 0.224076 0.750713
-0.0902781 0.14754 0.518025
-0.230242 0.173962 0.166825
0.047087 0.164676 0.649689
0.206047 -0.247203 0.0932106
0.0375055 0.190176 0.686157
0.209987 0.130749 0.576401
-0.20778 -0.210134 0.444747
-0.0169815 0.247149 0.770244
0.10934 -0.18194 0.435609
-0.0973253 0.0599436 0.426669
-0.165857 0.189377 0.720477
-0.096408 -0.0319538 0.430251
0.208315 -0.224664 0.445686
0.165819 0.103017 0.43014
-0.0382055 0.155408 0.53323
0.138042 -0.244508 0.426374
-0.168712 -0.240246 0.446285
0.194164 0.151685 0.658506
-0.206389 0.129878 0.627068
-0.0607679 0.0195549 0.426359
0.126514 -0.12992 0.433724
0.0716707 0.248495 0.777096
0.177739 0.0104307 0.431148
-0.156211 0.143563 0.517718
0.182887 -0.0687324 0.435971
-0.101672 -0.178059 0.439096
0.00261135 -0.0684561 0.423861
0.227484 -0.0687363 0.0103844
-0.183578 0.10332 0.431249
-0.155111 0.131043 0.575852
-0.0549463 0.151195 0.562197
-0.133486 0.113449 0.422431
0.209252 0.129304 0.559333
0.0755799 -0.207391 0.439409
0.22962 0.159394 0.257365
-0.175729 -0.120369 0.438213
-0.0521245 0.148821 0.421072
0.0695408 0.072418 0.408605
-0.11986 0.22193 0.745042
0.0589478 0.124308 0.422839
-0.0397713 0.22758 0.750108
0.125117 0.222758 0.74718
-0.226515 0.12987 0.57089
0.128639 0.056062 0.429312
0.115137 0.190165 0.709187
-0.0330207 0.159097 0.623945
0.107019 0.147466 0.611558
0.10316 -0.0904666 0.433794
0.208606 0.167963 0.692877
-0.0185189 0.219825 0.729283
-0.151403 -0.0465281 0.431186
0.161332 0.0423871 0.432675
-0.19151 0.133794 0.628888
-0.1353 -0.173424 0.441753
0.181797 0.0710058 0.428277
0.00868725 0.0206687 0.425198
0.209429 -0.249049 0.155188
-0.207421 0.0543839 0.431467
-0.156077 0.165649 0.672686
-0.188544 0.120117 0.55314
0.0449396 -0.0191958 0.427302
0.030081 0.0871285 0.418603
-0.209766 0.116876 0.57567
-0.0187392 -0.221646 0.437977
-0.131303 -0.224128 0.439604
0.226104 0.196038 0.105441
0.20848 -0.102382 0.437107
0.141652 -0.229499 0.445466
0.227014 0.138267 0.646848
0.171819 0.146394 0.636296
-0.209038 0.165807 0.699258
0.205341 -0.236098 0.282886
-0.0155011 0.058839 0.405178
-0.110318 0.203128 0.726312
-0.0797064 0.0883004 0.424889
-0.0138427 -0.121536 0.42705
0.0215394 -0.0993377 0.430736
-0.013859 -0.00381735 0.421427
-0.212798 0.125298 0.475115
0.0474451 0.158803 0.625901
-0.188849 0.185293 0.712652
-0.0763288 -0.0398049 0.424763
-0.0233253 0.182703 0.682568
-0.0707359 0.165937 0.658468
0.133901 0.159816 0.66449
-0.0714997 0.18055 0.675681
0.00636051 0.197184 0.703809
0.0790763 0.182159 0.679732
0.233665 0.0808302 0.0167827
-0.00819314 0.160505 0.579931
0.204669 0.0326361 0.421835
0.0206268 0.062523 0.404398
0.223233 0.128588 0.3898
0.106009 0.0704162 0.411576
-0.0164716 0.0276938 0.420304
-0.00518091 0.153661 0.534913
0.155387 0.136417 0.586097
-0.160307 0.0389951 0.427947
0.161923 0.213482 0.742514
0.0507417 0.212537 0.729378
0.171348 0.125231 0.553948
-0.111668 -0.0511132 0.432305
0.191677 -0.233911 0.435764
-0.0610213 -0.223453 0.434367
0.0573622 -0.193142 0.432843
-0.0905943 -0.211494 0.43597
-0.18566 -0.14959 0.445036
-0.232015 0.118732 0.0169049
-0.112378 -0.122998 0.436559
0.0599536 -0.234368 0.426374
0.0355263 -0.075809 0.424905
-0.196055 0.15218 0.672911
-0.186119 0.0129124 0.436347
-0.134325 0.0835894 0.428415
0.113096 0.0188191 0.429515
-0.180295 -0.210892 0.448016
0.0168251 -0.177152 0.430535
0.00833505 0.126112 0.416939
0.15574 -0.00323843 0.434351
-0.0659193 0.0720476 0.411041
-0.154916 -0.0104306 0.42986
0.0982291 0.11235 0.424962
0.0138024 0.167489 0.633434
-0.2381 0.02622 0.0132436
0.126501 0.136939 0.528725
-0.137341 -0.191279 0.443003
-0.206231 0.113956 0.414812
-0.215622 0.201151 0.748165
-0.165327 0.215651 0.746478
0.0373382 0.139252 0.421753
0.185846 -0.246091 0.437726
0.208013 0.0633936 0.428064
0.142264 0.0938828 0.413082
-0.231358 -0.0302306 0.00627687
-0.216492 -0.232372 0.00891768
0.145013 -0.0496512 0.435379
0.0691909 -0.0987033 0.427555
-0.0378844 -0.0378661 0.423117
0.137227 0.140783 0.581706
-0.0735939 0.232582 0.760926
0.148897 0.146452 0.638448
0.145926 -0.191766 0.443721
-0.167742 -0.0640713 0.438651
0.101952 -0.238209 0.431675
0.184738 -0.205764 0.443782
-0.20477 -0.11375 0.430003
-0.0696397 0.202536 0.709683
0.229314 0.16942 0.192717
-0.161695 0.140604 0.630961
-0.134501 0.134866 0.544405
0.0979881 0.155941 0.640883
0.0492398 -0.137933 0.433472
0.205878 0.102067 0.425808
0.218278 0.154536 0.300486
0.0440909 0.233769 0.759247
-0.109344 0.151124 0.606226
0.161529 -0.101905 0.440032
0.196667 0.200099 0.734001
0.156632 -0.159298 0.442746
-0.113268 0.159828 0.64226
0.208445 -0.0484953 0.433584
-0.205014 -0.236633 0.331574
0.184781 -0.0140059 0.43304
0.133798 0.185112 0.706271
0.0919537 -0.124077 0.435079
-0.106262 -0.0212326 0.425767
-0.171118 0.0904299 0.431111
-0.103148 0.143217 0.566269
-0.0778449 0.151572 0.60792
-0.23 0.162845 0.253646
-0.238144 0.0703897 0.00942594
-0.138129 0.0251897 0.431229
-0.0467353 -0.0951558 0.43099
-0.0321877 0.100064 0.41824
-0.131973 -0.239944 0.438771
0.110277 -0.226826 0.442754
0.0799503 0.0296084 0.422157
0.204537 0.188297 0.728437
0.214729 0.113504 0.524924
0.0272382 -0.213574 0.43301
-0.0442518 0.214455 0.731405
-0.144999 -0.121673 0.439472
0.0780216 0.151452 0.554398
-0.114259 -0.0914396 0.430259
-0.193045 -0.0650028 0.440976
-0.183908 0.0339953 0.430376
0.101802 -0.0548956 0.431613
-0.0167945 0.149159 0.409585
0.238318 0.0307563 0.0118643
-0.207082 0.143544 0.648952
-0.12315 0.240482 0.771816
0.0861199 0.149977 0.602022
0.0289827 -0.183106 0.43125
-0.174037 -0.248157 0.426374
-0.099177 0.128892 0.424307
-0.0434518 0.158787 0.585769
0.161215 -0.23036 0.426374
-0.0697718 -0.14462 0.435014
0.120074 0.168352 0.677028
-0.0755699 0.0458729 0.426096
-0.0263193 0.205483 0.708804
-0.0561185 0.160963 0.615412
0.196322 -0.240946 0.364681
-0.204676 0.122385 0.599653
0.20055 0.134489 0.521423
0.18973 0.172798 0.703137
0.218812 0.137114 0.342662
0.12355 0.241411 0.772887
-0.237616 -0.186839 0.0123851
-0.184725 -0.00552508 0.432634
-0.0372088 -0.17319 0.430853
-0.228141 -0.0741099 0.0146638
-0.166442 0.202429 0.729713
-0.064046 0.126813 0.418076
0.191034 -0.133349 0.440404
0.0331335 0.173851 0.667835
0.240454 -0.164933 0.00798455
0.11545 0.0988588 0.426638
0.205012 -0.237837 0.449286
0.00861157 -0.0185079 0.421849
0.0999516 0.148986 0.413627
-0.23433 0.183315 0.152388
0.110238 0.1666 0.656946
0.156861 0.162754 0.677783
-0.194563 -0.237458 0.409769
0.127022 -0.0840059 0.431041
-0.232822 0.2073 0.0206235
-0.205986 -0.24234 0.089104
0.129888 0.142824 0.415125
-0.23431 0.153431 0.0165619
-0.230847 -0.159141 0.0168462
-0.0459576 0.0604747 0.424443
0.08189 0.156551 0.522564
0.00466304 0.214015 0.728625
0.080978 -0.0305673 0.424602
0.200526 -0.235896 0.322105
-0.189842 0.081336 0.4328
-0.208457 -0.0669961 0.432577
0.0508504 0.152336 0.568535
-0.0376596 -0.0147682 0.426978
0.0456088 0.201278 0.712445
-0.190306 -0.101003 0.442736
-0.14879 0.223613 0.753177
0.161625 -0.0574452 0.437593
-0.0835396 -0.186741 0.434103
-0.140545 0.133297 0.426162
0.077054 0.200716 0.708394
-0.109069 0.141202 0.410229
-0.0200396 -0.0640054 0.423985
-0.225116 0.133909 0.366837
-0.227945 0.111829 0.528425
-0.122805 0.137766 0.555271
-0.200996 -0.242557 0.207188
0.0754007 -0.161083 0.431833
0.199004 -0.0112027 0.429008
0.142652 -0.137095 0.435723
0.0737191 0.111246 0.423958
-0.19905 -0.245705 0.371138
-0.0769154 -0.237796 0.427402
-0.206354 -0.245584 0.0476712
0.172851 0.132511 0.416138
-0.202152 0.0985087 0.421593
-0.199619 -0.242627 0.24976
0.135484 0.0740519 0.42418
-0.0858742 0.108987 0.424528
-0.214667 0.12483 0.403631
-0.121198 0.184441 0.694221
-0.160663 0.0625022 0.431479
-0.165607 0.11438 0.424677
-0.168058 0.179558 0.699109
0.202909 -0.182579 0.447203
-0.068395 -0.111002 0.428298
-0.212488 -0.245941 0.172318
-0.121732 0.152032 0.622566
0.0457272 0.149027 0.407632
0.0284883 0.156677 0.601355
-0.114686 0.0440786 0.428461
0.228168 0.19781 0.0637822
0.190883 -0.153772 0.445657
0.204006 -0.235794 0.410347
0.138775 -0.0273175 0.429002
-0.155363 0.15003 0.65224
0.00811384 0.234534 0.759077
-0.205499 -0.248672 0.127983
0.0449539 0.250335 0.778102
0.203364 0.2207 0.763865
0.000776432 0.0567941 0.412003
0.227879 0.15219 0.0100518
-0.0832734 0.184209 0.694173
0.0918102 0.195352 0.703031
0.164577 0.178396 0.696105
-0.141161 0.147726 0.621444
0.160777 0.137181 0.617622
-0.117293 0.0795022 0.417889
-0.00624504 0.165462 0.622796
-0.227826 0.173848 0.217688
-0.0652571 0.148879 0.541868
-0.0405849 -0.203716 0.432848
-0.206758 -0.237644 0.288699
0.184602 0.138906 0.520282
0.154916 0.194412 0.715954
0.160181 -0.217074 0.446419
-0.0828221 0.0127117 0.427683
-0.120333 -0.161391 0.435147
0.0789266 -0.237435 0.426374
0.213342 0.122832 0.44127
0.234559 -0.122734 0.0064667
0.115775 0.154604 0.627267
-0.204978 0.122716 0.518294
-0.103612 0.2306 0.754013
-0.167135 -0.229158 0.426374
-0.100776 -0.234616 0.439974
0.124104 0.0376166 0.42478
-0.104251 0.00564024 0.429185
-0.222346 0.145312 0.29912
0.0425165 0.0383025 0.425088
-0.00786793 -0.0874909 0.425042
0.090943 0.167852 0.667475
0.169179 0.225604 0.766796
-0.0314704 0.129303 0.422032
0.0644926 0.186121 0.693408
-0.0269268 0.175759 0.658561
-0.162216 0.127396 0.52697
0.0574207 0.0667151 0.424618
-0.0266324 0.0553963 0.419527
-0.0402843 0.0349668 0.420419
0.228979 0.122878 0.550292
-0.23686 -0.120121 0.0141615
-0.142384 0.135086 0.582196
-0.229687 0.196946 0.108349
0.118098 0.207174 0.732677
0.206738 0.124189 0.606802
0.19862 -0.0670482 0.441397
0.0589597 0.0237432 0.42137
0.00566856 0.168297 0.653214
0.0383913 -0.234428 0.432184
0.18803 -0.0884195 0.437556
0.0311798 -0.145971 0.433591
0.042145 0.225473 0.738647
-0.194505 0.125511 0.581685
0.0971337 -0.0070203 0.429301
-0.0322817 -0.111663 0.431603
0.0501953 -0.056467 0.428892
0.0214808 0.152974 0.543266
0.175238 -0.165628 0.445004
0.060273 -0.174626 0.436411
-0.146909 0.00496997 0.428216
-0.0940118 -0.081722 0.43271
0.232302 -0.0191311 0.0168315
0.0041608 0.107126 0.417581
-0.0119015 0.179892 0.666211
0.0688585 0.212425 0.731956
0.179409 -0.0350169 0.433755
0.135128 -0.180713 0.4378
0.106144 0.063387 0.427151
0.0131835 -0.0538129 0.428026
-0.0102756 -0.23421 0.426374
-0.149867 -0.0978272 0.434053
-0.173536 0.129413 0.567361
-0.0514624 0.00353892 0.426541
0.106823 0.141635 0.53456
-0.107132 0.168384 0.674236
-0.107243 -0.15699 0.438211
-0.00964093 0.162987 0.605607
-0.0591804 0.147262 0.408174
0.134077 0.151716 0.628845
-0.202771 -0.235867 0.425719
0.145328 -0.117546 0.439258
0.059813 -0.119305 0.428207
-0.112542 -0.0734521 0.429013
-0.201219 0.186426 0.725522
-0.215288 0.150864 0.66744
-0.132634 0.0873246 0.408872
-0.0253936 0.237596 0.75596
-0.0640822 0.154629 0.56873
-0.224973 0.114104 0.581683
0.0566219 0.240619 0.762411
0.188245 0.128416 0.417138
0.228705 0.19135 0.0101357
-0.0867375 0.20629 0.726007
-0.228672 0.125655 0.619708
-0.0851969 0.170064 0.671229
0.124062 -0.151127 0.434918
0.114271 -0.0289509 0.426749
-0.0660678 -0.0590596 0.425131
0.0535394 -0.0405231 0.428297
-0.1556 0.0898671 0.429895
0.208574 0.127853 0.538086
0.126257 0.125898 0.426213
-0.167418 0.152635 0.662331
-0.05427 0.165461 0.518173
0.215457 0.129018 0.475185
-0.0567743 -0.0323932 0.42341
0.035955 0.0637231 0.424198
-0.170759 -0.165531 0.444669
0.158965 0.144565 0.521009
-0.199964 0.00290779 0.425297
-0.0979133 0.0804049 0.426001
0.112767 -0.114574 0.436077
-0.0518962 0.069727 0.412
0.186623 0.0966857 0.427108
-0.139516 0.177246 0.687062
0.207094 0.146927 0.665815
0.0931876 0.149985 0.56845
0.030842 0.122659 0.417441
0.0144565 0.0682547 0.423714
0.0221432 0.18106 0.679873
-0.18332 0.216139 0.75139
0.0963367 -0.168968 0.433689
0.0657257 0.157129 0.598286
0.121653 0.142375 0.551031
0.0892975 0.217755 0.733648
-0.0544397 -0.148559 0.429726
-0.0107181 -0.0496102 0.427799
-0.17377 -0.191376 0.44636
-0.00441169 0.159195 0.560011
-0.12364 0.097134 0.427184
0.0635925 0.0812025 0.42448
0.157439 0.134131 0.565992
0.220803 0.127484 0.512106
0.0144974 0.156445 0.591529
0.226612 -0.196922 0.00107235
-0.213084 0.132179 0.559014
-0.0653352 0.158634 0.636295
-0.114123 -0.137884 0.437581
0.0271021 0.0218763 0.420679
0.00115734 0.161908 0.517713
-0.122777 0.0621481 0.4238
-0.151845 0.141618 0.606986
-0.192728 -0.176438 0.44694
0.223609 0.185011 0.148342
-0.153179 -0.243783 0.429239
0.210192 0.1243 0.594505
-0.231245 0.195458 0.0646762
0.0248613 0.193303 0.699389
0.181682 0.115698 0.430459
0.0791276 0.0491131 0.421412
-0.0707698 0.108143 0.423899
-0.134958 -0.0474364 0.434303
0.127398 -0.0427265 0.428652
0.0382338 0.167013 0.518567
-0.109675 -0.209644 0.437237
0.213022 -0.235783 0.0185567
0.0687369 0.148361 0.543924
-0.183937 -0.0843956 0.436953
0.024217 0.21631 0.733108
-0.145806 -0.0771972 0.437012
0.176476 0.132658 0.59524
0.155895 0.133571 0.545373
0.000188835 0.249281 0.772888
0.0290873 0.163639 0.61965
0.0813011 -0.0123332 0.428751
-0.0617253 0.208606 0.725436
-0.103804 0.14906 0.587789
-0.175232 0.123751 0.544592
0.201581 -0.146127 0.431991
0.041611 -0.0946822 0.426123
-0.00146176 -0.222206 0.437573
-0.128967 -0.2066 0.443222
0.113188 -0.165137 0.439184
-0.0428478 -0.139537 0.433429
0.154945 0.0286176 0.427917
-0.00813574 0.0971202 0.417948
0.0616364 0.168304 0.647308
0.113007 0.230845 0.756012
-0.075719 -0.00721212 0.428095
0.163682 0.092071 0.418811
0.175328 0.205282 0.735045
0.0232623 -0.115103 0.431636
-0.0430547 0.0824828 0.42373
0.2121 0.141797 0.646755
0.00511094 0.0473217 0.424187
-0.174676 -0.135547 0.438993
0.196639 -0.215719 0.449243
0.108822 0.219568 0.739534
0.203939 -0.11902 0.443726
0.0934143 -0.203836 0.440272
0.144067 0.217242 0.751063
-0.131947 -0.00567384 0.42748
0.223248 0.168585 0.242788
0.143164 0.154135 0.655621
0.128508 -0.239968 0.43576
0.0344244 0.0987901 0.423114
0.0885728 0.0764831 0.410984
-0.132476 0.155656 0.65564
-0.0350869 0.192916 0.690472
-0.0039059 0.190573 0.693471
-0.0717834 0.160396 0.522126
-0.0506652 -0.184217 0.436533
0.186067 0.140294 0.628026
0.204479 -0.247811 0.200226
0.0748742 -0.0448892 0.424861
0.0865746 0.240458 0.765574
0.192254 0.140293 0.645594
-0.173115 0.135737 0.62364
-0.155319 0.176898 0.691423
0.117281 0.0767165 0.427647
0.17938 0.157304 0.663913
-0.00997099 0.233442 0.757588
-0.199961 -0.151431 0.433048
-0.116435 0.131721 0.420151
-0.175681 0.0503938 0.428896
-0.126108 -0.121071 0.433161
0.0800842 0.151637 0.411748
0.137902 0.16584 0.677426
0.00132915 0.22884 0.741769
0.211149 -0.23884 0.140166
-0.193904 -0.121524 0.439967
0.122418 0.181858 0.689763
-0.125394 -0.225315 0.426374
-0.0470978 -0.223759 0.426374
-0.0438204 0.155987 0.604311
0.093009 0.059406 0.426545
-0.224156 0.168633 0.706071
0.148923 -0.0670213 0.436749
-0.00719169 0.0114156 0.420746
-0.149145 0.19084 0.718198
0.129625 0.00765686 0.426488
0.227624 0.13151 0.62942
-0.0608685 -0.0760833 0.430517
-0.0343403 0.2488 0.778107
-0.056545 0.180702 0.673194
0.0163891 0.092525 0.42302
-0.0902499 -0.119409 0.430113
-0.107313 0.144932 0.523568
0.0413261 -0.00330373 0.421863
-0.196065 0.166371 0.686924
-0.141748 0.133909 0.564879
0.193873 -0.1694 0.44669
0.23317 0.0679928 0.00583369
-0.10665 0.192092 0.710412
0.0224601 -0.160615 0.434354
0.236399 -0.178273 0.0154605
0.0228592 -0.037517 0.422809
0.176675 0.0321691 0.434608
-0.0389529 0.166101 0.517932
-0.0012636 -0.164568 0.42937
0.231105 0.164688 0
-0.0211387 -0.020559 0.426892
-0.0717651 -0.212051 0.439459
0.0191185 -0.0803954 0.429642
0.0478459 0.156543 0.612075
0.0985015 0.0245572 0.423274
-0.0258576 -0.125955 0.432268
-0.158642 -0.192272 0.445018
-0.0181718 0.0729373 0.423619
-0.223266 0.125716 0.489711
-0.198229 -0.0234837 0.431998
0.199161 0.15415 0.676531
-0.137883 -0.157756 0.441021
-0.171952 0.127474 0.585807
0.219193 0.131144 0.429463
0.0582816 0.154801 0.557837
0.139596 0.0461698 0.425713
0.121482 0.141871 0.595116
-0.18574 -0.24253 0.447417
0.14617 0.13223 0.519145
-0.00767977 0.208311 0.720411
-0.00804146 -0.208023 0.436966
-0.0341134 -0.0569294 0.428595
0.138112 -0.210385 0.444156
-0.050953 0.172357 0.65398
-0.034815 0.164413 0.647648
0.116392 0.147832 0.522842
-0.144669 0.163604 0.663887
0.201743 0.0500544 0.421167
-0.161061 0.229748 0.763982
0.01398 0.143586 0.416258
-0.041769 0.156395 0.553534
-0.221379 0.126591 0.51362
-0.112689 -0.106732 0.435649
-0.207233 0.0127503 0.434612
0.109556 -0.193879 0.440769
0.0903918 0.148595 0.533435
0.201695 -0.234497 0.373054
0.0792283 0.205418 0.723622
0.214013 -0.240785 0.110929
0.0731867 0.0704485 0.425271
0.0381826 0.166943 0.634957
0.157747 0.134978 0.602162
0.238144 -0.0833376 0.0106606
-0.232385 -0.175637 0.0166655
-0.191156 -0.222353 0.449237
-0.11557 0.232778 0.75934
-0.0418908 0.239562 0.767672
-0.0846678 -0.131915 0.430491
-0.182255 0.191628 0.727379
0.16052 0.126182 0.428193
0.199732 0.117542 0.548775
-0.0134036 0.152795 0.523095
-0.164595 -0.106554 0.436177
-0.171582 -0.224749 0.443412
-0.074899 0.0703929 0.425229
-0.0830829 0.0746818 0.4136
0.22732 0.143809 0.663723
0.179841 -0.236678 0.426374
0.200087 -0.0915193 0.430449
0.171713 -0.20411 0.44257
-0.227122 0.167092 0.010037
-0.0358689 -0.220895 0.438368
-0.0908845 -0.167869 0.437786
0.141918 0.109441 0.428023
-0.193857 -0.229635 0.436166
0.0452773 0.0820522 0.42379
-0.120898 0.166298 0.661041
-0.237273 -0.190848 5.69783e-06
0.221941 0.173268 0.704901
-0.0719326 0.192302 0.695488
0.171466 0.0852572 0.426694
-0.0744497 0.147824 0.558192
-0.155894 -0.231437 0.441353
-0.0943912 -0.0495398 0.426151
0.174323 -0.222432 0.447983
0.22987 0.1951 0.122488
-0.0733419 0.141957 0.422658
-0.111719 0.116829 0.425536
-0.0519305 0.231672 0.757093
-0.0841018 0.166973 0.649838
0.23044 0.202825 0.034834
-0.0147851 -0.14481 0.43314
-0.216969 0.133129 0.640468
0.0843779 0.0139411 0.42296
0.241526 -0.190309 0.00738257
0.115312 0.115302 0.425947
0.0429973 -0.20235 0.43751
0.15425 0.0904787 0.429884
-0.0708426 -0.175997 0.437135
-0.149041 -0.0241808 0.434546
-0.117243 0.0256489 0.424758
-0.010158 0.134499 0.416581
0.139546 0.0896508 0.42873
0.0608955 0.16226 0.517412
0.0932951 -0.0450241 0.425884
0.0571004 0.219878 0.740624
0.031346 0.232522 0.748617
0.0556784 -0.088193 0.426193
-0.170372 0.158141 0.674757
-0.19962 0.131298 0.612924
-0.14779 0.10947 0.428353
0.0528219 0.138533 0.417126
0.0719485 -0.222177 0.426374
0.186608 0.223083 0.766418
0.226722 0.116661 0.590799
-0.0220733 0.152911 0.541145
-0.231137 0.180184 0.182075
-0.235678 0.101629 0.0163059
0.19364 0.124618 0.56401
-0.0323475 0.153603 0.567827
-0.191347 -0.195613 0.44391
-0.0749369 0.0283985 0.426708
-0.199612 -0.0546032 0.429424
-0.194674 0.11974 0.565588
0.160257 0.0617645 0.426767
-0.0631076 0.241453 0.764498
-0.150287 -0.0623049 0.431977
-0.147617 0.072429 0.430008
-0.21816 0.140414 0.329366
-0.216609 0.12613 0.608834
-0.0398926 0.18446 0.676969
-0.152171 -0.164819 0.442746
0.176666 -0.14186 0.439603
0.0574194 -0.220384 0.439048
0.144695 0.061811 0.430287
-0.00351035 -0.113545 0.431104
0.0549309 0.00310684 0.426726
-0.0239438 -0.219885 0.426374
-0.167685 -0.00172095 0.435302
-0.119459 -0.0113324 0.426606
-0.126723 -0.0854854 0.431076
-0.0972239 0.0463031 0.422381
0.00353762 -0.218558 0.426374
0.0827381 -0.137053 0.430696
0.127665 0.229261 0.764017
-0.044758 -0.160053 0.434806
-0.198716 0.116967 0.428763
0.206046 0.0888563 0.430049
0.07603 -0.0863935 0.432008
0.0849562 0.230404 0.750738
0.174611 -0.0969863 0.436755
0.191837 0.0815812 0.432868
0.198589 0.182802 0.711299
0.0718749 0.131272 0.418239
-0.0453778 -0.0792381 0.430061
-0.22237 0.160126 0.693174
-0.143905 -0.239734 0.441809
0.0370982 -0.0357348 0.427785
0.213892 -0.249563 0.0790354
-0.127761 0.137647 0.571229
-0.189189 0.119851 0.525276
0.218114 0.155655 0.68424
0.140514 0.237928 0.77067
-0.0737906 0.0111748 0.422661
-0.218729 0.190714 0.735596
0.19948 -0.0394192 0.429292
-0.088845 0.235669 0.758894
0.15317 -0.245941 0.426374
0.13909 -0.0926172 0.437255
0.171456 0.0538219 0.428271
-0.0194756 0.166211 0.628369
-0.1089 0.154748 0.622933
0.191635 -0.19273 0.447773
-0.184437 0.130053 0.611916
0.0618414 -0.0142764 0.422942
-0.22696 0.129173 0.551325
0.0723942 0.0939127 0.424489
-0.0339982 0.220683 0.739641
0.146945 -0.22654 0.426374
-0.141535 -0.211772 0.440062
0.0928372 0.152303 0.623619
-0.0614624 -0.236257 0.429352
-0.0945224 -0.238475 0.426374
0.100282 -0.216379 0.436815
-0.118642 0.146994 0.595345
0.0174429 0.0357483 0.420013
-0.118808 -0.17914 0.440721
0.0387579 0.198843 0.69998
0.161768 -0.179481 0.444432
-0.0238262 -0.167631 0.434801
0.208359 0.0196631 0.429223
0.175688 0.178304 0.707121
0.222319 0.130741 0.411934
-0.205805 -0.249242 0.15897
-0.1357 0.134548 0.528524
-0.0247859 0.159998 0.586557
-0.0304302 0.11379 0.422589
0.129239 -0.0156926 0.432467
-0.0202631 0.193595 0.690345
-0.101772 0.21633 0.742038
0.0990182 -0.136428 0.431662
-0.00434462 -0.133227 0.42747
-0.189443 0.0509837 0.434484
0.171423 0.147754 0.65319
0.191859 -0.230201 0.449621
-0.0953587 -0.19184 0.435191
0.160815 -0.195479 0.441106
0.0580392 0.0600301 0.410744
-0.155372 0.133268 0.540751
0.227103 0.204825 0.0500215
0.164978 0.019295 0.429359
0.228296 0.124538 0.00890793
0.0351037 0.152414 0.549868
0.225728 0.111613 0.520351
0.178773 -0.124124 0.443096
-0.00349523 -0.0201089 0.42183
-0.184621 -0.233326 0.426374
0.177457 0.12859 0.566886
0.0829666 -0.108018 0.42894
-0.0421932 0.14864 0.407718
0.229305 0.0902414 0.00722185
-0.0513718 -0.233168 0.435384
-0.0641765 -0.0888781 0.42677
-0.213009 0.113722 0.53649
0.197611 0.11476 0.424796
-0.198258 0.122506 0.544238
0.0755795 0.159922 0.644878
-0.183018 -0.0592112 0.439948
0.00373029 0.155692 0.57326
-0.239023 0.195757 0.0128553
-0.0364231 0.00398012 0.426245
0.158992 -0.145307 0.437918
-0.123152 0.137479 0.519186
-0.20768 -0.178508 0.443468
0.0228305 -0.229597 0.42923
-0.200126 0.0399343 0.422789
-0.0827164 -0.229166 0.440572
-0.145705 0.0440385 0.426299
-0.0437522 0.106264 0.423022
0.122584 -0.180828 0.440996
0.116239 -0.240093 0.426752
0.0682367 -0.0589513 0.425224
-0.0300501 0.214517 0.722429
-0.128954 0.0356347 0.425254
0.0188736 -0.0672677 0.424112
-0.0875125 0.0384537 0.422177
0.125922 0.091638 0.422792
-0.165535 0.14935 0.641463
0.0379271 0.213412 0.721292
-0.0996835 -0.130851 0.431345
-0.097641 0.148019 0.553373
-0.00137048 0.0308135 0.419929
0.187992 -0.182753 0.442929
0.173536 -0.00586038 0.436296
0.211858 0.115982 0.565825
-0.0187051 0.158614 0.616511
0.1962 0.20982 0.746342
0.130145 0.194128 0.71792
0.092326 -0.2316 0.433361
0.0843038 0.148403 0.587407
0.201778 0.120049 0.582929
-0.226152 0.144197 0.00943632
0.0902141 0.188038 0.691778
0.212729 0.198048 0.736183
-0.212053 -0.237323 0.02123
0.151329 0.204836 0.736609
0.0810385 0.147769 0.570399
-0.0849046 0.0545885 0.421532
-0.208558 0.181822 0.713437
-0.222248 0.127801 0.46134
0.0153437 0.152913 0.531145
0.0872188 0.103738 0.419986
-0.15254 0.13791 0.418778
0.112525 -0.211647 0.437586
0.123111 0.139359 0.573951
-0.238396 0.166348 0.000485617
-0.108964 -0.239598 0.430351
-0.0782071 0.240169 0.772011
0.165997 0.128935 0.579078
-0.22889 0.116128 0.566115
0.206541 -0.236926 0.233447
0.221685 0.17387 0.204504
-0.228617 0.130718 0.633515
-0.19428 0.144387 0.656125
-0.00902096 0.18201 0.680335
0.158858 0.183106 0.709602
-0.143434 0.140972 0.594506
0.0143355 0.193642 0.690052
-0.228898 -0.01172 0.0150328
0.00792354 -0.0401802 0.427406
-0.0115484 0.157862 0.546862
0.18951 0.1253 0.518241
0.114588 0.00436423 0.425365
-0.0260942 0.175889 0.671508
-0.124132 0.20435 0.730791
-0.158881 0.132705 0.596703
-0.124707 0.172641 0.685679
0.216738 -0.248512 0.0545086
-0.162286 0.0984544 0.420243
-0.102676 0.142655 0.423214
-0.22936 0.122032 0.538886
-0.227825 0.0371296 0.0122567
-0.214536 0.134441 0.376773
0.0299817 0.0669209 0.413021
-0.0768047 0.153863 0.622194
0.23109 0.177045 0.157862
0.0315491 0.238074 0.765089
0.224346 0.132017 0.575057
0.207704 -0.0210741 0.426793
-0.0938505 0.15739 0.64496
-0.121322 -0.0614829 0.429129
0.169826 -0.0458177 0.433243
-0.0716009 0.150893 0.594335
0.0235557 -0.196466 0.43199
0.012264 0.159829 0.622129
-0.156222 -0.0323429 0.431055
0.121259 0.149597 0.612224
0.106036 0.0873765 0.421504
-0.0887363 0.18231 0.681986
-0.127027 0.228626 0.755557
-0.0215417 -0.207675 0.437277
-0.227584 -0.222269 0.0164004
-0.141911 0.095572 0.428553
0.20839 0.131392 0.617646
0.149482 0.14706 0.624146
-0.0216036 -0.0416578 0.422954
-0.203637 -0.247228 0.142365
-0.026247 0.038151 0.420069
-0.135851 -0.239651 0.426374
-0.231496 -0.10715 0.0168544
-0.158427 0.128381 0.427642
-0.218693 0.12062 0.416806
0.191251 -0.0788212 0.44162
-0.0110814 0.0567012 0.423994
0.155292 0.112272 0.424025
-0.219553 0.150303 0.284898
-0.0929029 0.155289 0.61145
0.226771 0.181383 0.185482
0.230917 -0.0287418 0.00646267
-0.00360974 0.163274 0.635927
0.22745 -0.16171 0.0126551
0.222584 0.148925 0.335107
0.0482343 0.174185 0.670544
0.145689 -0.10439 0.43401
0.100137 0.234918 0.759288
-0.0797945 0.147684 0.568899
-0.22898 0.016824 0.00787028
0.22788 -0.190725 0.0137312
-0.151619 0.0201566 0.428025
-0.166446 0.165564 0.685815
-0.080052 -0.154243 0.43625
-0.21039 0.129757 0.54408
-0.196623 -0.243297 0.344345
-0.122814 0.14896 0.60982
-0.231652 0.0805355 0.0167513
-0.184492 0.143401 0.636438
0.0372447 0.155795 0.53671
0.0726385 -0.190392 0.438177
-0.19946 -0.100316 0.432084
0.139143 0.0818144 0.413051
-0.234066 -0.0412343 0.0164774
-0.233347 0.131317 0.00462262
-0.0634815 0.0618334 0.424988
-0.217889 0.126033 0.5836
0.205343 -0.245019 0.331576
-0.00687261 0.15703 0.59325
-0.0494762 0.151229 0.540378
0.0393023 0.152956 0.419793
0.174623 0.138549 0.616428
-0.137853 -0.0165857 0.43313
0.212919 0.128931 0.401803
-0.0868734 0.1591 0.52189
0.191202 0.192994 0.723341
-0.0134488 -0.100214 0.425871
0.0292454 0.202557 0.704863
0.206233 -0.139537 0.443825
0.00392007 -0.0811025 0.429347
0.0892518 0.145343 0.551841
0.0976161 0.127587 0.424326
0.135942 0.156332 0.643176
0.0130297 -0.151921 0.433572
0.130772 0.13993 0.541533
-0.129782 0.184403 0.704862
-0.0865599 0.126932 0.41902
0.047698 0.116288 0.422784
0.20691 -0.239053 0.35937
0.116852 -0.139751 0.437923
-0.183937 0.157068 0.677037
0.0553242 0.228786 0.752985
0.0596147 0.151352 0.574184
0.219447 0.185767 0.728466
0.0708854 -0.232331 0.438276
-0.231561 -0.198518 0.0167608
-0.173344 -0.0133398 0.431986
-0.201588 -0.156141 0.445872
0.0449422 -0.150559 0.429519
-0.190444 -0.0288396 0.438866
-0.0527574 0.156971 0.57552
0.164208 0.006799 0.429877
-0.0754879 0.147123 0.533341
0.108849 -0.0656518 0.432874
0.0430059 -0.193118 0.432284
-0.0549329 0.220009 0.732245
-0.124739 -0.0364369 0.432823
-0.0929412 0.144322 0.52998
0.222408 0.113089 0.557183
-0.0205309 0.0944687 0.423012
0.225569 0.158602 0.287923
-0.0186837 0.158806 0.566401
-0.196891 0.0706943 0.428142
0.146924 0.188542 0.705746
0.226794 0.192168 0.0924452
-0.234451 0.207699 0.0598037
0.10532 0.143315 0.571677
-0.146895 0.135923 0.551512
-0.118708 -0.221329 0.438604
-0.0637892 0.181978 0.686715
-0.204561 -0.0827456 0.441526
-0.181367 0.17615 0.706084
-0.198817 -0.24457 0.280237
-0.0532511 0.0991975 0.423411
-0.237521 -0.0797789 0.00918542
-0.0360899 0.195634 0.703654
0.0632317 -0.208309 0.434077
0.0181906 0.0118969 0.420896
-0.225775 -0.198748 0.00242968
0.23841 0.160547 0.0106147
-0.235577 0.0591165 0.0162951
0.00563941 0.00739167 0.420854
0.111675 0.0511686 0.428035
-0.151859 0.130341 0.520108
0.0162311 0.164865 0.645667
-0.161619 0.0784537 0.426295
0.110442 -0.228023 0.426374
0.0620427 -0.16119 0.431015
-0.120819 -0.234695 0.434739
-0.162629 -0.122732 0.436929
0.0674167 0.202321 0.717519
-0.131847 0.211253 0.741148
-0.0631871 0.230063 0.747568
0.188964 0.125051 0.593312
-0.202373 -0.24442 0.401489
-0.176995 -0.177261 0.445884
-0.213733 -0.248892 0.0977468
-0.169037 0.0264043 0.434105
0.137154 -0.00213975 0.42765
0.0876729 0.142923 0.409699
0.212275 0.124937 0.462934
0.0275536 0.152049 0.524026
-0.205624 0.0834346 0.43108
-0.206008 -0.248332 0.218332
0.128454 0.0875113 0.4106
-0.207621 -0.240701 0.317898
-0.0281578 -0.0070897 0.421809
0.164648 -0.0800464 0.434681
-0.193901 -0.208609 0.444627
0.215792 0.130668 0.375969
-0.209026 0.157674 0.676931
-0.158647 -0.0772283 0.433778
-0.226316 0.145301 0.33857
-0.00931653 -0.17297 0.434818
0.193512 -0.241698 0.426374
-0.121628 0.150596 0.637929
0.21877 0.157707 0.264654
-0.175823 0.12215 0.421703
-0.159376 0.142283 0.617774
-0.237697 -0.143858 0.0118437
-0.157047 0.159729 0.66099
0.0280427 0.159615 0.583655
0.0705669 0.151324 0.527136
0.171542 0.221142 0.754682
0.228535 0.126291 0.562952
-0.220122 0.164606 0.243254
0.0719413 0.0227678 0.426853
0.00804138 -0.1235 0.426984
0.135538 -0.0570354 0.430232
-0.0810574 0.199871 0.716142
0.110845 0.149068 0.597526
0.22083 0.144443 0.357628
0.208829 -0.229682 0.433635
-0.0376948 0.205115 0.717552
0.0863594 0.000315789 0.428477
-0.192702 0.1075 0.421411
0.200085 -0.115418 0.431799
0.170666 -0.240166 0.431867
0.184112 -0.000882015 0.432291
-0.0997337 -0.111803 0.434801
0.0573251 -0.148087 0.4345
0.226141 0.145135 0.309127
-0.051599 -0.107202 0.431779
-0.0493513 0.0257509 0.425661
0.0645301 0.154975 0.618521
-0.23018 -0.0652288 0.00644641
0.00350082 0.0909469 0.422858
-0.0181873 0.106139 0.417831
0.0974488 0.16782 0.655096
0.212356 -0.248448 0.131554
0.0714176 0.0392211 0.421385
0.221146 0.13313 0.53624
-0.18799 -0.162293 0.445866
-0.153424 0.211607 0.746291
0.0706593 -0.123584 0.433799
0.194068 -0.0994181 0.438712
0.000525826 0.14012 0.421156
0.145297 0.133611 0.569091
0.00947962 -0.186425 0.435692
0.195701 -0.236519 0.400483
-0.0408513 0.162383 0.614228
0.146068 -0.171011 0.438148
0.104678 -0.0436602 0.431299
0.130239 -0.168642 0.44089
-0.167335 0.137091 0.517902
-0.0977834 0.201479 0.721488
0.0902826 -0.189614 0.439174
-0.0219232 0.19537 0.702182
-0.0815597 -0.106016 0.428814
-0.196607 0.141268 0.63801
-0.180255 0.124407 0.576503
0.19865 -0.0457593 0.440226
-0.00561387 0.222789 0.733043
0.122068 -0.0673266 0.434212
0.237884 0.0986767 0.0131738
-0.0251106 -0.0978576 0.430663
-0.140768 0.1323 0.413387
0.0657042 0.0558144 0.420539
-0.107249 -0.0376849 0.426549
0.0401614 0.025741 0.425525
0.211275 0.128256 0.518377
-0.216978 0.116525 0.52389
-0.0359673 0.139992 0.416757
0.207487 0.173883 0.709446
-0.117088 0.144575 0.570849
0.222432 0.119291 0.537145
0.131354 0.175784 0.681874
0.132231 0.213038 0.74315
-0.220026 0.135445 0.396629
0.098466 0.152447 0.600397
-0.0724432 0.160615 0.647078
0.153806 0.133854 0.53141
0.237883 0.0444615 0.00971629
0.119403 0.200709 0.716566
-0.204772 -0.139784 0.43145
-0.0697429 0.153214 0.411646
-0.131016 0.013407 0.426489
-0.0122158 -0.15712 0.43387
0.199156 0.161177 0.688047
0.198599 0.117635 0.529272
0.0822834 -0.149601 0.431498
0.0333357 -0.222351 0.426374
0.20168 -0.233743 0.422532
0.0569781 0.24748 0.77294
0.220459 0.13346 0.555443
0.14255 0.196641 0.715908
-0.192906 0.126041 0.603547
-0.0633101 -0.123818 0.428724
-0.201166 0.207354 0.752384
0.159059 0.19645 0.727615
-0.185233 -0.238652 0.434995
0.0433755 0.152615 0.56201
0.0133434 0.222527 0.733226
0.021506 -0.223456 0.438138
-0.125183 -0.0733447 0.434879
0.0709873 0.22037 0.742888
0.168575 -0.0202622 0.431742
-0.206805 -0.237241 0.241076
-0.106755 -0.221669 0.442217
0.0778463 0.176232 0.668814
-0.127109 0.0768183 0.412683
0.0331998 -0.0150351 0.426954
0.224964 0.140969 0.00460973
0.112266 0.177638 0.679863
-0.0854403 -0.200209 0.435056
-0.0437768 -0.050815 0.423699
-0.010962 0.174308 0.654161
-0.0637823 -0.00273035 0.422672
0.129895 -0.225678 0.44429
0.113944 0.234675 0.768848
0.214586 -0.240708 0.0371477
0.0872329 0.120813 0.424172
0.00723726 0.190067 0.683765
-0.195912 -0.00568463 0.437936
0.113047 -0.12693 0.436821
-0.20927 -0.241435 0.0363329
0.168486 0.163261 0.681957
0.0978876 -0.0647217 0.427251
-0.147564 -0.184358 0.443453
-0.0519379 0.0383507 0.425231
-0.2062 -0.114168 0.442244
-0.0380542 0.0510269 0.424602
-0.155766 0.0511018 0.426974
-0.175198 0.01161 0.430831
-0.178309 0.127012 0.555427
0.103165 0.185595 0.700285
0.0366809 -0.126395 0.432552
-0.163773 0.218994 0.758199
0.0467621 0.194041 0.693241
-0.0662731 -0.0245965 0.423636
-0.103497 0.159357 0.63485
0.167452 0.113576 0.424862
-0.174433 0.127654 0.527897
-0.110237 0.0905443 0.42177
0.00647109 -0.00480604 0.421313
0.127887 -0.191524 0.437845
0.0342468 -0.159916 0.434573
0.163769 0.14477 0.627236
-0.0600951 0.175393 0.662769
-0.110614 -0.170862 0.434941
-0.120514 -0.147426 0.434268
0.139381 0.129294 0.421017
-0.222317 0.142343 0.662374
-0.0567718 0.0761743 0.424262
-0.145033 0.122564 0.422705
0.00397529 -0.0296668 0.42218
-0.203941 -0.237086 0.25965
-0.172959 -0.0749445 0.439832
-0.104641 -0.0643639 0.427722
0.0410025 -0.0628752 0.424302
0.172587 0.169649 0.693679
-0.0283463 0.15602 0.523463
-0.202147 -0.245495 0.178581
-0.0690827 -0.227895 0.426374
0.0386784 0.180088 0.679585
0.0709635 0.168104 0.663078
-0.224132 0.175725 0.206351
0.203178 -0.2407 0.172443
0.132579 0.143251 0.61704
0.196485 0.0312043 0.430432
-0.216521 0.119163 0.455238
0.154831 -0.207716 0.441086
-0.215 0.211163 0.754788
0.212592 -0.243572 0.192003
0.227157 0.174145 0.21791
-0.094931 0.184413 0.696985
-0.202603 -0.235042 0.375292
-0.227023 -0.0875013 0.0103424
-0.0937762 -0.155184 0.437122
-0.0887431 0.0961572 0.425042
0.0517828 0.160803 0.636876
0.171119 -0.0645718 0.439024
0.21868 0.125055 0.605637
0.0461377 -0.226151 0.426374
0.00969684 0.206881 0.709939
0.0462398 0.0596186 0.419718
-0.225522 0.187324 0.145397
-0.0821071 -0.143557 0.43111
0.00461337 0.158606 0.551564
0.192687 -0.0228538 0.434205
0.160406 0.169336 0.689575
0.123078 -0.00153476 0.4313
0.179315 -0.0840598 0.440983
-0.139934 0.0819848 0.416617
0.200278 -0.246302 0.442397
0.195717 -0.241398 0.381121
0.0562654 -0.0987678 0.431552
-0.108942 -0.00455443 0.425325
-0.229208 0.180402 0.135438
-0.139956 -0.0914578 0.432691
0.110442 0.201829 0.724254
-0.237183 0.13903 0.0151275
-0.211245 0.159226 0.689233
0.204694 -0.246775 0.277828
-0.0198683 0.066533 0.41303
0.171814 0.102942 0.411966
0.0176277 0.0577482 0.419305
0.0163897 -0.0901716 0.42532
0.203909 -0.190659 0.433743
-0.0443211 0.0643439 0.404455
0.153251 0.177714 0.700712
-0.131582 0.0700109 0.424191
0.195666 0.0704419 0.433661
-0.204467 -0.245561 0.10645
0.0861792 -0.0556802 0.426046
-0.111018 0.0618671 0.422817
0.00465604 0.157069 0.527889
0.154013 -0.22583 0.441472
0.0949846 -0.0820199 0.432811
-0.0914686 0.11812 0.419604
-0.036672 -0.124673 0.427755
0.186979 0.184763 0.710784
-0.0918498 0.145433 0.563768
0.0115567 0.078442 0.418574
0.156218 0.0993421 0.413344
-0.0352908 0.014583 0.421107
0.0468399 0.126764 0.417513
0.129894 0.11476 0.427002
-0.0734059 0.207413 0.725554
0.208415 -0.238892 0.313951
-0.196937 -0.237675 0.35694
0.0523156 -0.203721 0.433149
0.0639765 0.145587 0.409866
-0.149765 0.227291 0.765827
-0.0289822 -0.0737631 0.429417
-0.0943827 0.175901 0.672351
-0.207061 0.123246 0.588235
-0.19423 -0.0898046 0.438159
-0.0986023 0.0912084 0.420906
-0.225301 0.142067 0.35493
-0.109951 0.189821 0.699436
-0.149623 0.148669 0.629445
0.0210378 -0.0131811 0.426663
-0.00474206 -0.0586166 0.423379
-0.182034 0.125666 0.537668
0.152685 -0.0144987 0.43454
0.0102943 -0.166045 0.429668
-0.163859 -0.240242 0.43227
0.234782 -0.0347846 0.0162375
-0.11036 0.16138 0.660322
0.0192163 0.162708 0.609106
0.114175 -0.0867865 0.434591
-0.0339575 0.0631521 0.424168
0.0983189 -0.180673 0.439062
0.219343 0.139924 0.655642
0.227468 0.202961 0.0741669
-0.154151 0.180713 0.705494
-0.213872 -0.243072 0.133706
-0.0518644 0.211688 0.720195
-0.20603 -0.238904 0.164166
-0.223832 0.180262 0.156181
0.0885486 0.201818 0.711687
-0.112448 0.176573 0.6889
0.0116226 0.240726 0.768178
-0.204119 -0.248233 0.195833
-0.153201 0.196843 0.72719
0.21787 0.116421 0.583402
0.124818 0.16634 0.661664
-0.144633 -0.0379058 0.43477
-0.0895305 0.147595 0.589667
-0.227232 0.196285 0.0767271
0.04865 -0.235503 0.428719
-0.0864237 0.0215643 0.422831
-0.173067 -0.0480542 0.433717
0.198659 -0.244104 0.341393
-0.239189 -0.201037 0.00495945
0.236348 -0.129578 0.015508
-0.0452737 -0.0233419 0.427444
0.198776 -0.158394 0.43873
-0.0590496 0.163094 0.626297
-0.163314 -0.136607 0.437818
0.00157275 0.161347 0.585888
-0.159099 0.10616 0.429321
-0.0193195 0.149224 0.420761
-0.17209 0.140287 0.63575
0.231095 0.177574 0.00649388
-0.00190453 0.0664033 0.418785
-0.0432477 0.152708 0.564488
-0.00555462 0.110891 0.422287
0.0537549 0.0359723 0.42542
-0.147105 0.170427 0.677872
-0.0497363 -0.00772873 0.426935
0.0444237 -0.105969 0.426837
-0.102201 0.113426 0.420262
-0.0614351 0.156144 0.58309
-0.156186 -0.232087 0.426374
0.107806 0.157455 0.650598
0.160253 0.135485 0.41513
0.235432 0.195559 0.0213112
0.213275 0.121391 0.485796
0.186186 0.154396 0.672564
0.237988 -0.0643599 0.0102521
-0.142506 -0.224204 0.440592
0.159892 -0.0414453 0.436591
0.23385 -0.0532607 0.00615623
0.0578391 0.208269 0.716182
-0.229698 0.112991 0.00739413
0.19834 -0.206252 0.443223
-0.175715 -0.156315 0.4403
0.0760085 0.236411 0.766272
-0.095351 -0.224801 0.441592
-0.221024 0.118552 0.481237
0.0819828 -0.0975004 0.432986
0.112933 0.140583 0.558008
-0.0366971 0.237273 0.755931
0.0265021 0.13603 0.42171
0.0247255 0.190411 0.685673
0.0224576 0.157734 0.554616
-0.0362016 -0.220808 0.426374
-0.1232 0.159896 0.647624
-0.121025 0.194533 0.70849
-0.0403382 -0.193177 0.43687
0.0446325 0.170041 0.660691
-0.237736 -0.0152138 0.00896119
0.216657 0.129122 0.628359
0.16902 0.0661925 0.432307
0.209186 -0.244835 0.265756
0.0897618 -0.21528 0.440702
0.106736 0.137234 0.417422
0.189571 -0.0391634 0.439337
0.232693 0.0663918 0.0169449
-0.137468 0.1382 0.518051
0.0419186 -0.173631 0.435644
-0.0699607 0.149785 0.576975
0.0701456 0.196226 0.700777
0.148297 0.085963 0.418219
0.237329 -0.00414748 0.0142765
0.054106 0.087123 0.423841
-0.230073 -0.180215 0.00639083
-0.0207092 0.0448142 0.42451
0.0823186 -0.167994 0.437284
0.0189799 -0.142064 0.42834
0.235092 -0.183258 0
-0.0432559 0.0924475 0.41865
0.066694 0.149505 0.562966
-0.0789973 0.151264 0.52318
0.014543 -0.220388 0.426374
0.196885 0.127472 0.610919
0.176617 0.0995822 0.431131
-0.103904 0.153692 0.517541
0.0930312 0.156877 0.522154
0.03374 0.0458273 0.419939
0.0243963 0.174834 0.656482
-0.09621 -0.000250168 0.42421
0.166429 0.127656 0.565626
-0.0321845 0.245026 0.767596
0.0861344 0.219952 0.744086
0.169187 -0.133728 0.438303
0.0328422 0.149522 0.407462
-0.0752053 -0.22185 0.435478
-0.208368 -0.00116497 0.431338
0.0157811 -0.0252643 0.427007
-0.222086 0.131318 0.408781
-0.183947 -0.0713884 0.440676
-0.194439 0.136288 0.519254
0.053414 0.186926 0.682836
0.114352 0.129217 0.4253
-0.223656 -0.232625 0.0173128
0.224845 0.184256 0.166705
0.0941635 -0.227722 0.441509
0.166206 0.0303198 0.428958
0.206223 -0.0574973 0.427489
0.222935 -0.23091 0.0175616
0.219567 0.130306 0.448331
-0.212995 -0.250455 0.08629
0.00950539 -0.223796 0.437837
0.23438 0.18721 0.116142
-0.0497586 0.230097 0.746029
-0.217119 -0.247848 0.0463711
0.163966 0.145418 0.64404
-0.198977 -0.0726955 0.432281
0.0746053 0.15046 0.592313
-0.23911 0.203168 0.0287185
-0.20589 -0.244257 0.0586226
-0.189848 -0.139384 0.444795
0.150448 0.0438107 0.431557
0.180063 0.121826 0.421433
-0.219281 -0.244778 0.0175176
0.000247301 -0.180432 0.435084
-0.2294 0.12042 0.521681
0.236577 0.204619 0.0658327
-0.0595228 0.118103 0.42307
0.0452877 0.0970328 0.423337
0.129617 0.205775 0.733158
0.165976 0.130039 0.590023
-0.0677732 0.0398766 0.421175
0.185644 0.0556034 0.429293
-0.231586 0.142397 0
-0.0233568 0.222437 0.741722
0.23687 -0.116341 0.015102
0.179724 0.122845 0.530289
-0.0414181 0.059589 0.413917
-0.0961664 0.139461 0.414972
0.0345468 0.157468 0.561286
-0.0599251 0.00886818 0.422022
-0.207629 -0.167543 0.443081
-0.0197572 -0.0774168 0.424749
-0.0766236 0.116054 0.419065
-0.0673838 -0.0443572 0.429176
0.0149526 0.216384 0.724296
-0.057681 0.0604382 0.412449
0.197001 -0.0579904 0.43547
0.233907 0.186295 0.144867
-0.152727 0.031111 0.427568
-0.0720536 0.161975 0.628332
-0.0668369 0.148263 0.526411
-0.0733612 -0.165744 0.432066
-0.0757838 -0.0540486 0.425376
0.0679257 -0.15198 0.430769
-0.0624629 -0.136547 0.434057
0.112358 0.0402676 0.428462
0.107735 -0.00566203 0.425207
-0.0256392 0.170032 0.645836
-0.237303 -0.132016 0.013481
-0.126898 0.13669 0.534584
0.162209 0.131027 0.518166
0.0447756 0.047688 0.420063
-0.166689 0.153404 0.651508
-0.199693 -0.04376 0.428632
0.203321 -0.247243 0.232311
0.204997 -0.0142672 0.437539
0.0432505 -0.0834277 0.425517
-0.219417 0.161543 0.255714
-0.0317169 0.147991 0.410498
-0.101883 0.210377 0.726129
-0.170569 0.0756058 0.431706
-0.0946762 -0.0923225 0.428747
0.131948 0.141555 0.606355
0.235025 -0.107063 0.00664293
0.0962335 0.144165 0.543395
0.12037 0.188612 0.699839
0.0239645 0.232469 0.756524
-0.153662 0.132383 0.586488
-0.0298204 0.166495 0.631511
-0.0480316 0.150718 0.519287
-0.237415 0.090295 0.0145424
0.152194 0.15033 0.651065
-0.1132 0.140356 0.559479
-0.0588658 0.22109 0.742478
-0.236561 -0.156771 0.00800079
-0.233579 -0.114055 0.00586229
-0.230806 -0.0266642 0.0164446
-0.232135 -0.102369 0.00610455
0.14426 -0.150746 0.436719
-0.227545 0.154281 0.259706
0.105147 0.0733067 0.421919
-0.227752 0.14943 0.310963
-0.183434 0.122377 0.563668
-0.0295041 -0.213561 0.433087
0.217253 0.149728 0.32053
-0.234176 -0.0516459 0.00598268
-0.0468653 -0.0409198 0.428139
-0.0358537 0.169906 0.659639
0.0402013 0.154587 0.587495
0.199207 0.0907566 0.422019
-0.234317 0.198253 0.0987758
-0.21782 0.12131 0.593215
-0.174681 0.211484 0.743332
-0.158537 -0.0895408 0.439092
-0.0602295 0.154351 0.416436
0.217029 -0.243673 0.0689266
-0.0322897 -0.14496 0.43354
-0.124029 -0.106639 0.432094
0.197632 -0.244218 0.40876
-0.22305 0.173953 0.178935
-0.117129 0.14541 0.415817
0.208551 -0.240386 0.0800998
0.237176 0.150941 0.0151331
-0.147388 0.155971 0.64843
-0.0811741 0.172917 0.662442
0.138831 -0.233892 0.426374
0.0303444 0.0764947 0.418934
0.164884 -0.165318 0.439787
0.074763 0.142757 0.414156
-0.228625 0.0614467 0.00860315
-0.131727 0.145024 0.625516
-0.204684 -0.0279227 0.425258
0.196082 0.0536114 0.429397
-0.126734 -0.238019 0.426604
0.217206 -0.234039 0.00899283
-0.195397 0.0096751 0.432029
-0.106131 0.03787 0.428006
-0.228003 0.171339 0.227965
-0.0419259 -0.149266 0.42938
0.199583 -0.244623 0.314962
-0.0177881 0.206319 0.718079
0.14763 -0.215434 0.440736
0.212262 0.132152 0.529182
0.0683233 0.0620305 0.41199
0.225775 0.14702 0.298758
0.0468343 -0.0316947 0.427806
-0.190044 -0.112314 0.443334
0.237629 0.140431 0.00885579
-0.11805 0.142828 0.547352
-0.13397 0.141298 0.58098
0.0406991 0.246102 0.769453
0.0507352 0.153986 0.517987
0.220201 0.13316 0.520989
0.220129 -0.242885 0.0154576
-0.138372 0.227063 0.763376
-0.155232 -0.000799078 0.434047
0.147601 -0.0282762 0.434622
-0.214875 0.127677 0.39145
-0.207371 0.124162 0.568505
-0.208149 0.0182621 0.425728
0.222499 0.127228 0.467615
-0.0740065 0.182194 0.689077
-0.0618865 0.105906 0.418815
0.183701 0.0244619 0.435582
0.206089 0.0284914 0.43438
-0.21661 0.128999 0.629183
-0.183743 0.102194 0.42034
-0.0170432 -0.111591 0.426579
-0.0816727 -0.172812 0.437566
-0.0196956 0.16871 0.655405
-0.121333 0.116345 0.421483
-0.0711032 -0.185683 0.433244
-0.151367 -0.223194 0.446009
-0.221991 0.174677 0.195663
-0.0585875 -0.114521 0.427902
-0.179358 0.200987 0.730947
-0.22813 0.0522755 0.013754
-0.0312706 -0.0483622 0.423378
-0.165178 -0.203116 0.446213
-0.226421 -0.229285 0.00783429
-0.228727 0.151117 0.293286
0.120874 0.011967 0.430487
0.141289 0.142779 0.599576
0.177293 0.195146 0.730218
0.0522279 0.151096 0.550244
-0.0214118 0.126689 0.421978
0.118766 0.216443 0.737332
0.209154 -0.23934 0.437438
-0.0873862 0.149777 0.604236
0.167591 0.185258 0.71477
0.208576 -0.0672616 0.433158
-0.120664 0.0880727 0.422648
-0.200705 -0.185042 0.447466
0.00106169 -0.20808 0.432031
0.0021207 0.119526 0.421962
-0.126168 0.107691 0.426952
0.199325 -0.225631 0.440648
0.104941 0.191912 0.709432
0.194459 0.120853 0.573611
-0.216617 0.134994 0.356255
-0.126957 -0.155032 0.439884
0.043256 -0.0508494 0.423693
0.0665445 0.15707 0.628429
0.0837623 0.0399098 0.421951
0.178631 -0.246929 0.426374
0.102447 0.0801867 0.414722
-0.11024 0.234064 0.768076
-0.23474 0.0163657 0.0164044
-0.118449 -0.00065513 0.426064
-0.136551 0.168271 0.681552
-0.0650544 0.0520402 0.420657
-0.237456 -0.167435 0.013075
-0.0546494 -0.0842585 0.430634
0.18249 0.142945 0.647239
-0.199934 -0.211559 0.436886
0.0784898 0.0679703 0.406358
0.175722 0.142396 0.627712
0.174674 0.13751 0.522364
-0.000606487 -0.0480268 0.427556
0.171838 -0.10571 0.441335
-0.0804278 0.13529 0.418404
0.0426155 0.0697737 0.419344
0.128801 0.133084 0.418023
0.0651911 -0.0902099 0.431594
-0.143494 -0.00336312 0.433042
0.0752845 -0.018939 0.423804
0.165453 -0.00354973 0.430499
-0.0643648 0.149461 0.55866
0.236882 0.201449 0.0465403
0.123676 -0.0250934 0.42746
-0.218077 0.178552 0.711851
0.149696 0.138164 0.609675
0.0894932 0.208563 0.729278
0.0491235 -0.125505 0.428068
0.101037 0.143467 0.423097
-0.138109 -0.200696 0.439245
0.236478 0.195161 0.0916729
0.0635791 0.110711 0.42354
-0.168521 0.0416703 0.43329
0.153831 -0.0353664 0.430874
0.198176 0.00310004 0.430616
