-0.0310258 -0.0624784 0.435853
-0.0953115 -0.0182434 0.375561
-0.168796 0.0257178 0.589673
0.0562162 0.160547 0.486288
0.249362 0.0134013 0.598423
0.00125403 -0.137142 0.350632
0.144027 0.180631 0.31971
-0.13244 0.0740168 0.434364
-0.00239875 0.0969765 0.273919
-0.0120539 0.0274093 0.202365
0.241615 0.0702763 0.592721
0.0105994 -0.0536782 0.326009
-0.124473 0.183462 0.504182
0.0962251 0.0309747 0.43594
0.127418 0.207785 0.0918831
-0.0879095 0.235403 0.348373
-0.0974955 -0.111913 0.358027
-0.0852595 -0.0829885 0.375206
-0.204261 0.165638 0.582458
0.160457 0.0811749 0.370384
-0.0797254 0.164593 0.560264
0.0344662 0.0198581 0.144364
0.0970716 -0.0197657 0.375701
-0.0959516 0.208194 0.508819
-0.152772 0.191028 0.708098
-0.0732328 -0.0903666 0.306077
-0.190651 0.0778645 0.583505
0.0734019 0.100037 0.37553
-0.0220843 0.196417 0.50686
0.147948 -0.0092306 0.131862
0.0463191 -0.090664 0.350668
0.0663047 0.0133907 0.309465
0.0934885 0.0560384 0.277505
-0.0657116 -0.134823 0.350634
0.0587274 -0.210889 0.404404
0.128473 0.191858 0.532204
-0.111936 0.0107849 0.291176
0.0284985 0.164317 0.333039
0.1042 0.165141 0.33462
0.209889 0.145 0.406038
0.0843119 0.236124 0.689808
-0.198897 0.128243 0.329937
0.105102 0.172351 0.469836
0.141332 -0.0823439 0.376863
0.0487933 0.0350763 0.434572
0.0447624 0.0338102 0.13832
-0.182517 0.028739 0.439572
-0.00263786 0.125103 0.374963
-0.00028497 0.162688 0.476312
-0.109936 0.0358851 0.364143
0.192814 -0.098033 0.598335
-0.00623921 0.0739305 0.323084
0.056263 -0.0664953 0.43572
0.185036 0.0835533 0.434689
0.0677069 -0.0911406 0.325086
0.0304403 -0.109367 0.350654
0.0225811 0.0585745 0.168505
0.207182 -0.0872083 0.419335
0.044586 0.0461915 0.375029
-0.068284 0.226617 0.639068
0.0153911 0.0615998 0.277209
-0.0874147 0.135566 0.427415
-0.0429692 -0.179855 0.374727
0.0326984 -0.0288751 0.315766
0.186102 0.165174 0.638168
-0.0637364 -0.0466677 0.437551
-0.0694562 -0.126732 0.35064
-0.186977 -0.0162938 0.39098
0.00603937 -0.173317 0.0918396
-0.112667 -0.0196031 0.37603
-0.0254885 -0.0343638 0.373603
-0.0245216 0.103837 0.429038
0.0348588 0.0166484 0.374043
-0.10292 -0.0570183 0.375729
-0.000492183 -0.238209 0.0445177
0.0778405 -0.10953 0.343281
0.111059 0.11922 0.430171
-0.00852577 -0.11191 0.119466
-0.00184152 0.141649 0.323134
0.0272982 0.250172 0.762432
-0.0742441 0.00788609 0.150154
-0.190231 0.00522572 0.395053
0.0595483 -0.0843557 0.434405
-0.0633199 0.174975 0.60948
0.0901452 0.215947 0.745304
0.0645222 0.00811432 0.436874
-0.00601988 0.148454 0.38106
-0.10368 0.167985 0.592734
-0.206196 0.146884 0.338315
-0.175029 0.152419 0.51758
-0.142513 0.226438 0.701436
0.211918 -0.0324624 0.431044
-0.16734 -0.0841736 0.318605
-0.0920077 0.217609 0.608594
-0.0864188 -0.13423 0.353375
-0.0537907 -0.121322 0.350644
0.0394167 0.101429 0.35082
-0.108492 0.149164 0.402245
0.0523793 0.0776635 0.375003
-0.105666 -0.14837 0.431536
-0.0567051 -0.0977776 0.375144
-0.0203247 -0.105561 0.350657
0.142909 0.235982 0.043956
-0.101222 0.233682 0.602732
-0.000344463 0.031424 0.37504
-0.0837745 0.00311974 0.134046
-0.0347435 0.212899 0.568331
0.102155 0.215077 0.605659
-0.136214 0.174573 0.312785
0.139665 -0.00654164 0.103518
0.196082 0.172201 0.345207
0.0432615 0.243936 0.719667
-0.0948155 0.208877 0.73119
0.199382 0.0274956 0.568208
0.0455953 -0.103096 0.375149
0.0175612 0.103497 0.37576
-0.0132294 -0.126292 0.373981
0.155653 0.209092 0.629576
-0.115131 -0.00636896 0.12859
-0.150855 0.260567 0.0184785
-0.250615 -0.0817006 0.033405
0.0204998 -0.075031 0.373371
0.028119 0.234417 0.771541
-0.087116 0.102181 0.313352
0.151863 -0.133737 0.435459
0.0118894 0.065046 0.125921
-0.157562 0.0690495 0.378284
0.101725 0.23182 0.530802
-0.265832 -0.0401277 0.073124
0.0869239 0.234388 0.615738
-0.000148443 0.224734 0.755127
0.00774763 0.00927969 0.16518
-0.102293 0.125773 0.379043
-0.201771 -0.0179208 0.441532
-0.0173271 0.0325911 0.0476835
-0.240346 -0.0735782 0.0382003
0.193593 -0.0425996 0.44181
-0.208635 0.15864 0.381487
-0.10883 0.208659 0.552841
-0.0787048 -0.19243 0.380951
0.109701 0.216964 0.398436
0.115728 0.203922 0.114932
-0.0263491 0.241922 0.703479
-0.160861 0.0759478 0.435597
0.125915 0.0285657 0.437599
0.17292 0.045211 0.596549
0.107871 0.119932 0.31977
0.0871957 0.235251 0.686521
-0.0965559 0.203709 0.553968
0.0151727 0.0772644 0.150254
-0.0266653 -0.0557631 0.373564
0.18777 -0.0637599 0.599774
-0.202596 -0.092245 0.434914
-0.034355 0.237561 0.682217
0.202167 0.00532166 0.600262
0.176551 -0.113738 0.438152
0.0130154 0.0112437 0.436268
0.110212 0.177438 0.63476
0.0337556 0.0753688 0.130675
0.0127957 0.0516841 0.0354713
-0.0766575 0.25023 0.658785
0.0828136 0.216603 0.399366
-0.0544351 -0.0941163 0.321722
0.00462131 0.0812498 0.306392
-0.0940436 0.160569 0.539836
0.186069 -0.0308925 0.390535
0.0289799 0.244794 0.719986
-0.0606911 0.0430753 0.374473
0.156017 0.159926 0.593107
0.0729522 -0.0986601 0.32053
-0.00107484 -0.125577 0.375167
0.00708632 0.202659 0.698869
-0.189278 -0.0362068 0.393405
0.18796 0.0695141 0.436721
-0.0149053 -0.0559023 0.373243
-0.0681556 0.129086 0.146726
0.0987109 0.0779437 0.281739
0.164489 0.177981 0.529158
0.0711207 -0.133375 0.351591
-0.0654094 0.0420861 0.350774
-0.0153138 0.084065 0.325084
0.192912 -0.00271897 0.572654
0.0183178 -0.0159402 0.350728
0.101142 0.168046 0.470079
0.196462 -0.091594 0.583362
0.00588396 -0.215098 0.402113
0.100465 0.159771 0.485071
-0.249132 -0.0570036 0.59619
-0.129792 0.000489447 0.10787
-0.108229 0.0978957 0.4315
0.239511 -0.0871901 0.597783
-0.197332 0.0794685 0.428509
0.10675 0.162032 0.554706
0.00338616 0.173017 0.449861
0.0837518 -0.0553872 0.375111
-0.204821 0.056533 0.418247
-0.0461592 -0.118037 0.350647
-0.0951238 0.162922 0.469252
-0.013301 0.00507874 0.280705
-0.065463 0.230476 0.566326
-0.195333 -0.0826929 0.402457
0.253639 -0.0490062 0.0660614
0.0284481 0.1377 0.303782
-0.0705539 -0.0154954 0.287345
0.195329 -0.0315926 0.103907
-0.22186 -0.026086 0.100642
0.123992 0.00395678 0.438913
-0.0896133 0.157656 0.352345
0.0123381 -0.0633066 0.324433
0.0300034 0.077058 0.126615
-0.19311 -0.0878131 0.400793
0.0782618 0.16149 0.474154
-0.0709718 0.164171 0.552778
0.114178 0.131299 0.385755
-0.19496 0.157186 0.549116
0.0985589 -0.138144 0.358333
-0.0445178 0.0231051 0.375047
-0.0913745 0.194747 0.69291
-0.205778 0.0776615 0.598558
-0.219271 -0.0274392 0.0866973
-0.00499711 0.10178 0.276966
0.179718 0.0317108 0.576214
0.0035749 0.0497936 0.24935
-0.0397517 0.21389 0.575622
-0.167107 0.257599 0.0443613
0.165776 -0.00914959 0.123328
-0.10975 0.186472 0.121351
0.00709293 0.228867 0.632241
0.0508229 0.156318 0.420978
-0.176393 -0.0464156 0.382453
-0.175749 -0.136786 0.397088
-0.0952284 0.231299 0.560479
-0.0528613 0.126646 0.132162
-0.0800944 0.214086 0.587627
-0.0263743 -0.146078 0.374825
0.0779474 0.158652 0.108529
0.0961426 0.200991 0.544747
0.209521 0.0590808 0.512062
-0.179998 0.206986 0.7135
0.0446564 0.161134 0.505749
0.0295512 0.0395043 0.148338
-0.113878 -0.167297 0.430686
-0.0533571 0.19541 0.686755
0.0105679 0.194914 0.673736
-0.17322 -0.0611842 0.381458
0.110564 0.0855894 0.432645
0.209078 0.0666584 0.513733
0.177045 -0.0356199 0.382723
-0.0857732 0.192809 0.508284
0.0277675 0.0452024 0.30469
-0.126721 0.216319 0.109395
0.153817 0.24081 0.0116721
0.162875 0.200557 0.604934
-0.0680843 0.00820379 0.141385
-0.0880609 -0.170244 0.375075
-0.0162454 0.183796 0.318384
-0.0774553 0.0553063 0.350784
-0.00459032 0.248209 0.730724
-0.0347772 -0.145924 0.375183
-0.242561 -0.0417523 0.0663236
-0.110973 0.188582 0.509213
0.235587 0.000572404 0.600262
0.0178782 0.0953399 0.299707
-0.0965024 0.183479 0.344688
0.120632 0.158731 0.304817
0.21163 -0.049914 0.42895
-0.073637 0.232735 0.669746
-0.0909635 -0.0274348 0.355155
-0.0236583 0.0547121 0.375022
0.00526306 0.059922 0.375017
-0.010426 0.1015 0.32588
-0.10672 0.163708 0.568207
0.175876 0.166396 0.353194
0.0715434 0.22981 0.652574
-0.0227116 0.0303449 0.434757
0.00682717 0.0613649 0.0803265
-0.193619 -0.113589 0.406594
0.119164 0.126075 0.429503
-0.204268 -0.000916713 0.570221
-0.196458 0.185917 0.703911
0.0016766 0.0505736 0.2258
0.032276 0.0906074 0.124173
0.0553788 -0.131574 0.430776
-0.213915 0.0412296 0.514399
0.0917865 0.209178 0.474758
0.0145094 0.0598541 0.108514
0.11243 0.0714744 0.355623
0.151929 -0.0904448 0.377145
0.00638425 0.204625 0.532919
-0.0522963 0.215968 0.546324
0.0527048 0.00659396 0.310473
0.115131 0.191229 0.689244
0.0690437 0.162568 0.466145
-0.0402072 0.0639335 0.350791
-0.0772317 -0.108047 0.330841
-0.0855906 0.234671 0.684386
0.125032 0.00101213 0.376463
-0.105556 0.251956 0.670027
0.00500265 -0.160915 0.0937539
-0.0136333 -0.0810111 0.373125
-0.134565 0.183857 0.513032
-0.0568771 0.161179 0.402983
-0.0535842 -0.207939 0.417597
-0.18806 -0.141256 0.426593
-0.15873 0.129734 0.313575
-0.0568684 0.228605 0.644595
0.102234 0.212907 0.596252
0.0809903 0.0358308 0.375885
-0.0313532 -0.100829 0.432968
-0.193702 -0.0828854 0.440001
0.073834 0.214677 0.740075
-0.0733499 -0.118995 0.32834
0.0647866 -0.126867 0.351591
-0.112504 0.2167 0.465986
-0.221528 -0.111916 0.587049
0.0695599 0.155791 0.420455
-0.0913548 0.0902375 0.278036
0.182576 0.13093 0.345774
0.00548427 0.0843916 0.347442
-0.211077 0.0556867 0.504396
0.161998 0.224883 0.0241959
-0.229839 -0.0292625 0.0803501
-0.18685 0.150615 0.569611
-0.0864055 0.152772 0.360428
-0.0594167 -0.134783 0.344301
-0.230214 0.0909097 0.431757
-0.210426 0.0938009 0.436461
0.0146264 -0.105556 0.432452
0.139156 0.188349 0.529972
-0.205043 0.160273 0.378904
-0.110239 0.141016 0.358317
0.0816334 0.211282 0.492288
-0.0976014 0.133332 0.317696
-0.168332 0.00301677 0.589605
0.109306 0.0485677 0.368652
0.00869198 -0.0315583 0.137669
0.0996969 0.219573 0.623124
-0.179757 0.0617227 0.597754
0.0686664 0.21596 0.591363
-0.0181804 0.036427 0.0398568
-0.0789945 0.154615 0.399577
-0.219724 0.0398868 0.539396
0.169891 0.193471 0.587078
0.074147 -0.145503 0.371446
0.238108 0.0508689 0.599735
0.136581 0.187203 0.688227
-0.0439988 0.219464 0.747401
-0.167974 -0.0555701 0.317791
-0.215153 0.0961471 0.493154
-0.0770046 -0.194289 0.382912
-0.22739 -0.0355651 0.102219
0.0119482 -0.100638 0.346239
-0.153747 0.0923264 0.37976
0.224048 -0.04104 0.0908856
-0.15447 0.262491 0.0828754
-0.00806703 0.0400894 0.305439
-0.0190202 0.0351116 0.0571836
0.0947919 0.208826 0.509583
-0.0877033 -0.0215577 0.353806
0.199331 0.189663 0.672745
0.0641713 -0.0646961 0.295531
-0.211772 -0.00388798 0.570027
0.0369436 0.0856145 0.374997
-0.0846619 0.0689251 0.368105
-0.0543818 -0.0956161 0.325353
-0.0508264 -0.12167 0.323399
-0.129891 -0.00258844 0.439679
-0.161362 0.163548 0.617582
0.108391 0.231649 0.610482
0.0553919 -0.119126 0.373876
-0.0187612 -0.0586867 0.375113
0.102786 -0.094927 0.375712
-0.12246 -0.170217 0.43076
-0.0750975 -0.198241 0.387989
-0.0785748 0.224146 0.758145
-0.037955 -0.172284 0.375504
0.0143974 0.0728864 0.13616
-0.256611 0.00244963 0.591894
-0.106351 -0.0659345 0.375119
0.110858 0.0229023 0.376435
-0.0733262 -0.113434 0.350617
0.0949101 0.159275 0.488921
0.196644 0.160854 0.557855
-0.110143 0.108958 0.366712
-0.199837 -0.04081 0.440903
0.00376066 0.220812 0.596224
-0.110425 0.165043 0.473296
0.0169573 0.0412524 0.276575
0.189979 -0.0607537 0.395325
-0.0060613 -0.242903 0.0105751
0.149857 0.077222 0.355623
-0.0331085 0.204842 0.539873
-0.117934 -0.0108492 0.43977
-0.110224 0.140872 0.373316
-0.167147 -0.0530376 0.379415
-0.0577116 -0.124416 0.351591
-0.103129 0.194439 0.112076
0.11183 0.209611 0.735428
0.103849 -0.0739146 0.360686
0.185022 -0.0185241 0.092708
0.126814 -0.021871 0.312883
0.194964 -0.0745802 0.317326
0.0119835 -0.116632 0.351931
0.0835362 0.0312072 0.375041
0.0415002 0.0595849 0.432592
0.0604731 -0.0354349 0.37468
0.0481113 -0.0474127 0.374276
-0.037631 0.05099 0.303799
0.024073 -0.25644 0.00834377
0.207416 -0.0636406 0.600262
-0.0475968 -0.102616 0.375148
-0.0814282 0.159402 0.522449
0.09608 0.232346 0.571681
0.175507 0.153522 0.313389
-0.19887 0.00755464 0.600262
-0.0584811 0.136048 0.378517
0.00957547 -0.200448 0.378513
-0.0264347 0.165584 0.30505
-0.00160247 0.236818 0.774247
-0.075061 0.223506 0.62736
-0.0959348 0.0493351 0.304023
0.105115 0.064777 0.281799
-0.0201817 0.142196 0.300857
0.0464587 0.15247 0.361544
0.149154 0.141011 0.305579
-0.155744 0.179271 0.673941
-0.201912 0.0427535 0.564082
0.167826 -0.0477563 0.316764
0.155106 -0.0049719 0.102712
-0.127806 0.140404 0.304366
0.0577624 0.175988 0.459602
-0.111789 0.223325 0.472323
0.209298 0.102927 0.447796
-0.123848 -0.0541687 0.304857
0.0268534 0.0746931 0.284852
0.0363116 -0.191119 0.425853
-0.117833 0.0635573 0.368151
-0.00469944 0.216666 0.578058
0.213079 0.158973 0.608809
-0.226612 -0.0334943 0.0778428
-0.127192 0.178989 0.656399
0.109852 0.198862 0.0947345
-0.208589 0.0373722 0.537368
-0.0339659 0.161028 0.303205
0.109275 0.0599672 0.368762
0.210585 0.0815513 0.463117
-0.0798645 -0.131439 0.375172
0.00328953 -0.23669 0.0283512
-0.0724152 0.00768141 0.375023
-0.163296 0.163336 0.618232
0.0266343 0.0118766 0.280011
0.0515605 0.17741 0.310307
-0.238441 -0.078557 0.0148957
-0.233048 -0.0594402 0.578822
-0.177665 0.207785 0.679556
-0.023903 -0.239012 0.0306913
0.153065 0.0581216 0.436768
0.0879853 0.167116 0.579984
-0.0478632 0.229241 0.568006
0.0845142 0.159307 0.504912
-0.21403 0.0703685 0.456049
-0.0361404 -0.199089 0.379342
0.238786 0.0159196 0.573992
-0.0684662 0.20928 0.564216
0.134184 -0.109731 0.435728
0.123712 0.189081 0.687053
-0.091989 -0.0237287 0.375085
-0.202936 0.0252709 0.436885
-0.111775 0.0251393 0.305755
-0.0617339 0.113555 0.375707
0.0931134 0.132694 0.374956
0.00718896 -0.0676318 0.118427
0.211469 0.0898852 0.415752
-0.109892 -0.00321104 0.13993
-0.0727586 0.124254 0.12758
0.0318321 -0.0108402 0.438032
-0.141814 0.21702 0.750149
0.22138 0.141569 0.370763
0.0337558 -0.0981086 0.373594
0.226984 0.068265 0.490294
-0.0282537 -0.0283675 0.314911
-0.112926 0.0017332 0.438782
-0.0601468 0.161072 0.476248
-0.0865219 -0.0740657 0.375246
-0.158398 0.201007 0.600376
0.0871184 -0.176513 0.37648
-0.0217791 0.0723027 0.431477
0.229365 0.121888 0.424576
-0.0698089 0.128517 0.112807
-0.0838141 0.22042 0.3819
-0.186047 -0.0751918 0.581625
0.108471 0.190714 0.513614
-0.0875891 0.23061 0.599444
0.0108551 -0.110731 0.350653
-0.00154174 -0.0792041 0.319853
0.217805 0.0492514 0.498339
0.165572 -0.0137935 0.0965733
-0.143981 0.224373 0.692691
-0.0104514 -0.0900358 0.373028
-0.0775869 -0.118075 0.317893
-0.00537234 0.00244836 0.375064
0.125947 -0.15695 0.432113
0.0143712 0.0906961 0.308674
0.021951 0.0374234 0.193652
0.0113886 0.0175546 0.171049
0.139519 0.186645 0.688064
-0.0298184 0.161899 0.509367
0.0162037 0.100053 0.28011
0.0554085 -0.118559 0.323744
-0.000802855 -0.0220508 0.121252
-0.167316 -0.0306572 0.379506
-0.0665348 -0.109979 0.433097
-0.176593 -0.125247 0.437293
0.103741 0.134528 0.307356
-0.033583 -0.205237 0.421408
0.0142599 0.199998 0.517877
-0.0891344 0.254407 0.658097
-0.064295 0.0913318 0.350813
-0.206101 -0.0809006 0.58083
0.110925 0.222373 0.418535
-0.133666 -0.0195538 0.312421
0.108849 0.226438 0.339456
0.0826785 0.184629 0.320599
-0.0290715 0.0926033 0.350814
0.0510901 -0.105922 0.347401
0.106434 0.223186 0.331371
-0.0207675 -0.205777 0.387894
-0.0720528 -0.0667175 0.350688
0.141305 -0.18467 0.403571
-0.204034 0.0649528 0.568587
-0.24632 -0.0456499 0.0405266
-0.00870974 0.167019 0.411914
-0.0775113 -0.124931 0.344102
-0.139401 0.230566 0.736549
0.0207024 -0.0668294 0.435431
-0.0466646 0.214491 0.546925
0.0724206 0.23309 0.66977
-0.110637 0.199519 0.325938
-0.151841 -0.0952937 0.438253
0.0457324 0.0932232 0.158411
0.191623 0.0937848 0.41962
0.128388 -0.0452136 0.312909
-0.017721 -0.233128 0.00693608
-0.214449 0.0296269 0.540083
0.197628 -0.0520121 0.577086
-0.0540958 0.105448 0.120186
0.0219644 0.0200046 0.350756
-0.0982192 0.207881 0.536257
-0.104615 0.0994336 0.312345
-0.170836 -0.0106294 0.595158
-0.215668 0.118462 0.452752
0.0563931 0.148656 0.300544
0.0990537 -0.189209 0.426802
-0.163187 0.0221668 0.43932
-0.200276 0.149159 0.562756
0.171065 -0.141803 0.395137
0.037296 -0.0220581 0.350723
-0.0467854 -0.00970854 0.350733
-0.164922 0.0106278 0.44008
-0.210378 0.0817632 0.495155
-0.0213759 -0.100851 0.375147
-0.00479372 -0.0463399 0.313972
0.0455273 0.165032 0.548431
-0.0160018 0.195126 0.676069
0.237935 0.0701872 0.596797
0.229327 -0.0813994 0.582222
-0.0941021 0.213602 0.598347
0.0858004 -0.0546875 0.297974
0.00393201 0.062537 0.106142
0.109874 0.144113 0.328796
0.0430942 -0.0897242 0.375138
-0.0674521 -0.0443772 0.375101
0.231246 0.106478 0.421974
0.0792468 -0.0847836 0.350673
-0.18617 -0.137571 0.409252
0.257208 -0.0816138 0.0226953
0.236704 0.0183448 0.573192
-0.095382 0.158009 0.108621
0.21587 0.0736013 0.442687
0.104284 0.025796 0.291128
0.0254755 -0.0410369 0.375099
-0.0844451 -0.029577 0.438953
-0.192032 0.185417 0.610358
-0.0342975 0.184799 0.326114
0.129794 -0.0408371 0.312255
0.123864 0.233232 0.709684
-0.0977073 0.203749 0.554842
-0.0809277 0.171368 0.599743
-0.215416 0.161201 0.62492
-0.00335338 -0.0185725 0.295355
-0.212844 -0.0215204 0.0999183
-0.127959 0.0451477 0.43628
0.170165 0.176781 0.535598
0.104625 -0.116439 0.360943
0.259679 -0.0418026 0.0536146
-0.0559072 0.185037 0.329414
-0.22274 0.0492952 0.507823
0.0792908 0.184794 0.48321
0.0445007 0.097785 0.37641
0.0843982 0.159286 0.50402
-0.000322305 0.1313 0.350844
0.233789 -0.0437892 0.082816
0.067104 0.233889 0.772506
0.115388 -0.0969661 0.376074
-0.0410458 0.175831 0.605634
0.0224615 0.226296 0.62488
-0.14092 -0.0252243 0.441095
-0.0878668 0.0688354 0.432998
-0.182015 -0.0075753 0.441771
0.0434611 0.0324546 0.374685
0.26573 -0.0651395 0.0327921
0.0837764 0.12261 0.428856
0.2305 0.0659878 0.574323
-0.0329933 0.0045846 0.310735
0.201684 0.187052 0.666507
-0.0320117 0.177146 0.337033
-0.0320265 -0.0278332 0.375088
0.20326 0.0577917 0.563888
0.183661 -0.0788072 0.317954
0.195012 -0.105946 0.593058
0.216351 0.158322 0.62762
-0.256459 -0.0358149 0.073109
0.131541 -0.0890267 0.437043
0.0640697 0.00394524 0.437194
-0.128738 -0.0463022 0.439796
0.00804863 0.162823 0.473744
0.210904 -0.108775 0.585262
0.0071325 -0.237533 0.0675075
-0.00868391 -0.0344481 0.139093
-0.150775 0.23233 0.0241242
0.0112899 -0.124533 0.373484
0.0781846 0.00225219 0.437504
0.0789953 0.188258 0.491986
0.0426152 0.212919 0.566137
-0.178687 0.0709158 0.368003
-0.0898238 0.159421 0.335156
-0.167299 0.213879 0.684621
0.178971 0.0772862 0.39425
0.0357342 0.0378439 0.434264
0.183548 0.238783 0.00839034
0.0545347 0.0430287 0.375031
0.0186127 -0.210185 0.419052
-0.0241937 0.1841 0.469551
-0.0613181 -0.205446 0.420104
0.0628015 0.114878 0.123346
0.0845127 0.21088 0.573163
-0.177166 0.0114086 0.598679
0.0826837 0.206046 0.722411
-0.16753 -0.00801558 0.103526
0.133138 0.181659 0.504552
-0.00874808 0.194527 0.496915
-0.216361 -0.0678043 0.600262
0.0161789 -0.194716 0.425377
0.0894266 0.088843 0.354876
0.171276 0.25019 0.00521207
0.176996 -0.15931 0.420409
0.0508273 -0.211952 0.409479
0.213141 0.0958181 0.393496
-0.127102 -0.174926 0.381391
0.121692 0.19819 0.713542
-0.188285 0.195352 0.711307
-0.00564709 0.0175711 0.104408
-0.0647753 0.225763 0.63437
-0.0806277 -0.173536 0.428722
0.104529 0.0762108 0.375617
-0.104954 -0.0949327 0.375775
0.0531715 -0.0622345 0.320762
0.0393246 -0.0014584 0.311672
-0.207967 -0.0820685 0.600262
0.121084 -0.0267071 0.313607
-0.0462626 0.266994 0.679906
-0.0227073 0.0415391 0.0897768
-0.0397955 -0.00367028 0.283875
0.14191 0.16515 0.605248
-0.0136356 0.0263745 0.0585297
0.169162 0.249065 0.0452022
0.120126 -0.0042927 0.310216
0.109522 0.229326 0.429694
-0.0925115 0.177568 0.630754
0.199315 0.07241 0.572861
-0.15444 0.261091 0.0501722
-0.00159286 0.241001 0.689963
-0.0708387 -0.0348722 0.291018
0.0824165 0.22659 0.442716
0.0623417 0.155805 0.350863
0.124254 0.176118 0.48618
-0.00786445 0.164488 0.458196
0.17991 0.108892 0.415763
-0.139996 -0.180536 0.427587
-0.0523699 -0.0440152 0.350706
-0.163809 0.188602 0.562722
0.0127913 0.101668 0.350821
0.209642 0.120383 0.429527
-0.00840699 0.184746 0.469864
-0.0911521 0.14751 0.33138
0.060934 -0.21051 0.411544
0.0190111 0.168056 0.555774
0.151073 0.119232 0.394858
0.0822984 0.107909 0.295052
-0.0546786 -0.108861 0.329324
0.169189 0.0505372 0.356369
0.222064 0.111675 0.377152
-0.0757749 -0.169668 0.374261
0.143912 0.18024 0.669331
0.116779 -0.000604542 0.142763
0.043758 0.163016 0.402788
-0.0902027 -0.0814444 0.375131
0.0636978 0.026811 0.127649
-0.131949 0.230738 0.710239
0.110674 0.221155 0.38815
-0.0639669 0.230399 0.654386
-0.13132 0.16135 0.580044
-0.0572194 0.130761 0.124826
0.132486 0.00645728 0.376666
-0.114418 -0.15497 0.43163
-0.242686 -0.0526861 0.0453163
0.212356 0.069187 0.467665
0.147042 0.217982 0.66463
0.0760837 -0.0653165 0.350688
-0.0505352 0.198686 0.696627
0.0653399 0.145147 0.426032
0.162035 0.127509 0.415575
-0.0383372 -0.109695 0.374256
-0.0472286 -0.132175 0.375051
-0.229358 0.0811524 0.480615
0.0881319 0.159487 0.341398
-0.0448553 -0.00780246 0.28493
0.0229471 -0.0268779 0.438496
0.0548945 0.213715 0.578092
0.0737992 -0.0834981 0.323946
-0.156023 -0.153063 0.38508
-0.0656042 0.0273326 0.139027
0.0148568 0.0243342 0.307802
-0.224291 0.0541662 0.508729
0.0926281 -0.0832421 0.355932
0.138211 0.0639403 0.3767
0.130806 0.16672 0.482243
-0.0759192 0.225831 0.637748
-0.0103705 -0.0674553 0.333469
-0.215893 0.0743279 0.439361
0.0455144 0.163409 0.4605
0.136421 0.0590445 0.37661
0.0437995 0.150522 0.326969
0.110973 0.219699 0.346616
0.00100446 0.145309 0.324736
0.013322 0.0199764 0.176214
-0.103004 0.074965 0.363933
0.0498925 0.235153 0.774226
-6.63566e-05 -0.0308213 0.163659
-0.0643024 0.246093 0.768634
0.125712 -0.0167624 0.30152
-0.0192153 0.216358 0.580725
-0.163449 0.109522 0.397833
-0.210733 -0.0379057 0.0972221
0.088987 0.218618 0.617891
0.170327 0.0508551 0.437903
-0.102083 0.0694039 0.27757
0.191095 0.185781 0.701663
-0.0906442 0.00377193 0.355011
-0.121338 0.194642 0.111811
0.162535 0.152783 0.548543
-0.0570756 0.019684 0.350756
-0.0070394 0.087371 0.347928
-0.0306145 0.178068 0.611839
0.116068 -0.152116 0.431732
0.20782 0.17652 0.638887
-0.110035 0.209897 0.567914
-0.256341 -0.00571928 0.590317
0.0628706 -0.0716154 0.374624
0.144051 -0.0317831 0.37696
0.163443 -0.0714553 0.378733
-0.252696 -0.0615661 0.0464906
-0.109139 0.0695397 0.375494
-0.0801469 0.100319 0.35082
-0.11249 0.21728 0.349277
0.272952 -0.0753244 0.0351472
-0.158993 0.152091 0.544149
-0.1918 -0.102258 0.596528
0.0436748 0.158065 0.30191
-0.101566 0.187762 0.346389
0.24945 -0.0440846 0.0294922
-0.0763484 0.217976 0.603572
0.086425 0.112536 0.353657
0.037811 -0.145654 0.429551
0.0456874 -0.136049 0.373492
0.0472342 0.24514 0.727932
-0.0653014 0.16693 0.305643
-0.0640916 0.0108636 0.281199
0.0518964 -0.0207418 0.288298
0.0226314 0.0417877 0.103983
0.00708135 -0.00234695 0.133093
-0.108193 -0.0833489 0.375873
-0.112495 0.215655 0.511103
0.0177138 0.0754257 0.132104
-0.0998425 0.0868916 0.276352
-0.164524 0.111747 0.400474
0.0969563 -0.000176352 0.130011
-0.0383584 0.0854564 0.374997
0.137081 -0.0291862 0.439218
0.148729 0.0580429 0.436572
-0.0469165 -0.0347813 0.374186
0.0560045 0.13826 0.350849
-0.203206 0.0487964 0.562261
-0.15855 -0.0956275 0.378014
-0.143558 0.098781 0.377706
-0.189536 0.168303 0.361145
-0.149866 0.118237 0.393357
-0.0541504 0.257546 0.679885
-0.0898035 0.00323102 0.354664
0.0544624 0.0343521 0.4347
0.184103 -0.0620599 0.599035
-0.0387424 -0.0961803 0.350664
-0.11772 -0.0662056 0.376156
0.00842586 -0.201187 0.379289
-0.172253 -0.0889793 0.381891
-0.00790876 -0.214345 0.0820654
-0.0366367 0.217268 0.57342
-0.105705 0.0478198 0.304245
0.112794 0.204924 0.113292
0.0115765 -0.227178 0.02662
-0.0503871 -0.0973959 0.318941
0.151106 0.0634543 0.436294
0.202526 0.0876972 0.588805
0.227781 0.0877663 0.485845
-0.0255897 0.0787676 0.126616
-0.0971578 0.0556755 0.277478
-0.116566 0.0935754 0.432199
-0.0111877 0.0899033 0.286064
0.0310179 0.1844 0.319681
-0.0757789 0.216115 0.595293
-0.0679488 0.070482 0.43244
0.154991 -0.163136 0.392915
-0.213806 0.077524 0.433946
0.139075 0.131641 0.398575
-0.0181237 -0.107155 0.432425
0.149731 -0.145796 0.380406
-0.0319517 0.16304 0.466525
-0.251877 -0.0302145 0.596907
0.179845 0.150924 0.557327
-0.0143829 0.0215213 0.0815039
-0.109205 0.169753 0.308478
0.0764496 0.159797 0.513694
-0.0652678 -0.157736 0.375691
0.0696649 0.0296676 0.375389
-0.23017 0.0823277 0.473473
0.0631371 0.103482 0.429572
-0.204409 0.000498001 0.408732
0.240362 0.0747367 0.587506
0.0572588 -0.15594 0.428993
0.111748 0.0727195 0.290745
-0.0505117 0.234648 0.672064
-0.104545 0.213844 0.600535
-0.160485 0.171025 0.647732
0.21961 0.140478 0.365598
0.0174543 -0.171838 0.427443
-0.070093 0.156367 0.419643
0.0736762 -0.128171 0.341526
0.045231 0.267262 0.680107
0.08756 0.195896 0.51942
-0.161165 -0.129691 0.381473
0.0207924 0.0648556 0.126441
0.0998886 0.208662 0.519414
-0.1046 -0.194212 0.423927
-0.117571 0.228577 0.687167
-0.0912157 -0.0274533 0.302416
0.0566656 0.0293305 0.277485
0.0234395 0.201243 0.697564
0.178219 0.151716 0.561442
0.0343205 0.101716 0.133041
-0.092931 0.230888 0.558711
-0.0572784 0.150848 0.300623
0.0565073 -0.0689118 0.43554
0.127508 0.161094 0.567675
-0.0646411 0.233812 0.772857
-0.111186 0.145088 0.423025
0.0170398 0.0107989 0.280093
0.176373 -0.0557883 0.597372
0.00898977 0.0363923 0.375036
-0.0919616 -0.136621 0.376377
0.146575 0.190239 0.546892
-0.156228 0.102087 0.433158
-0.123934 0.00501619 0.13861
-0.108558 0.0208278 0.37591
-0.0877364 0.0641253 0.289084
0.199018 -0.0702097 0.440202
0.0116922 -0.0339372 0.375093
-0.112516 0.219255 0.586342
-0.127309 -0.0559004 0.317866
-0.0167628 -0.0626753 0.373271
-0.0248799 0.060514 0.374112
0.0184843 0.0316839 0.202357
-0.181131 0.16287 0.52799
-0.0974972 0.191024 0.508689
-0.158372 0.171645 0.506328
0.111617 0.0452921 0.284451
-0.102987 0.0293892 0.360133
0.049164 -0.142537 0.358927
-0.0721515 0.160633 0.530504
0.0347348 -0.0479525 0.373882
-0.0759615 0.192056 0.681216
-0.175987 0.146396 0.344722
-0.105721 0.157934 0.530052
-0.101652 0.191183 0.511899
-0.114099 0.224284 0.55108
-0.123851 0.207682 0.594322
0.0056668 0.00427436 0.132547
0.0518676 -0.136776 0.373461
-0.113948 0.236421 0.722068
-0.0528519 0.125406 0.376676
-0.0744534 -0.0413565 0.291986
0.0723821 -0.135808 0.350341
0.0912009 -0.0639098 0.375481
0.212828 0.0465172 0.505578
0.00124165 0.0795146 0.29939
-0.0437566 0.109852 0.428666
-0.0755125 0.178192 0.33722
-0.108576 0.0126638 0.125884
-0.017077 0.111193 0.292709
-0.11277 0.151125 0.407773
0.074011 0.181139 0.472364
-0.0331659 -0.0681078 0.3737
0.0497628 0.0845759 0.350807
-0.116463 -0.199362 0.412895
0.0662841 0.240496 0.70802
0.0554075 -0.110255 0.32612
0.011336 0.0173643 0.145395
0.107774 0.214563 0.328321
-0.0465738 -0.184746 0.426626
-0.0422114 0.00438938 0.310761
-0.176156 -0.0932568 0.384522
-0.0574353 0.0476955 0.277536
-0.14509 0.116868 0.388045
-0.031818 0.0198961 0.153217
0.0673341 0.0242941 0.375046
-0.199409 0.0526139 0.600262
-0.117629 0.215881 0.624425
-0.198328 0.0239319 0.40403
-0.0159047 0.114379 0.375505
-0.0501004 0.153127 0.328227
0.165452 -0.0371732 0.379158
-0.206937 -0.107318 0.59728
0.146314 -0.0295594 0.377022
-0.0478829 0.129003 0.427198
-0.148071 0.102257 0.380376
-0.0641747 -0.047322 0.374615
-0.231827 0.00313666 0.600262
-0.131289 -0.0350847 0.314752
-0.155767 0.251836 0.0592691
-0.147101 0.159299 0.584243
0.215093 -0.0655553 0.578016
0.0845867 -0.0476519 0.293532
0.0566578 -0.0790181 0.434775
0.0731109 -0.100683 0.329598
-0.0918188 0.0675352 0.301304
-0.0217182 0.0848663 0.374997
0.0714285 0.17036 0.590787
-0.000178248 -0.086327 0.37274
0.0855223 0.0743337 0.432409
0.0852027 0.158189 0.413491
-0.0764526 -0.0189999 0.288277
0.0778716 -0.106504 0.338007
0.0125829 0.0260543 0.0544248
-0.139195 0.0742148 0.368747
-0.237911 -0.0646976 0.0399792
-0.0860349 0.213385 0.592368
-0.180001 -0.113556 0.438161
-0.142998 -0.140343 0.434503
0.0621774 0.207834 0.723843
0.247419 -0.0389265 0.010976
-0.0307987 -0.0212834 0.438825
-0.110722 -0.100449 0.375999
-0.0906214 0.239242 0.632952
0.159237 0.15663 0.572601
-0.0857474 0.172797 0.607621
-0.00328545 0.218356 0.585045
-0.0268093 -0.174622 0.427317
0.0206845 0.238764 0.684336
-0.101349 0.183314 0.311008
0.241807 0.0712778 0.591928
0.0258488 -0.143139 0.361135
-0.241804 0.0132495 0.574991
0.0180329 0.0117251 0.436244
-0.224065 0.141472 0.39908
0.153109 0.245533 0.0670542
0.0911641 0.0151288 0.151021
-0.192026 -0.0101575 0.573338
-0.0421568 0.0441524 0.433767
0.171177 0.0591823 0.437397
0.156367 -0.0145458 0.377629
0.166357 0.155862 0.505366
0.00404873 0.0878791 0.277705
0.016577 0.214231 0.732442
-0.0128496 0.085373 0.306524
-0.238499 -0.0385477 0.0218737
0.111724 -0.0379987 0.439545
0.01013 0.169174 0.558853
0.147311 -0.0521024 0.377038
-0.0806805 -0.161112 0.429679
-0.0288884 0.0369693 0.43426
-0.180082 -0.0555971 0.317792
-0.143334 0.124223 0.393454
-0.0541238 0.154741 0.32894
0.165231 0.173064 0.655559
0.145146 0.00251055 0.438747
0.054699 0.204621 0.715382
-0.0831386 0.221103 0.608963
-0.129768 0.156159 0.496544
-0.067722 0.0803802 0.368082
-0.126145 -0.0530623 0.306148
-0.0810726 -0.0208417 0.351067
-0.100574 0.0838172 0.432184
-0.107666 0.197569 0.0981166
0.173407 0.107735 0.405473
0.0168843 0.0532284 0.0658185
0.172789 -0.0219738 0.11867
0.0914925 0.0937664 0.375245
0.096123 -0.0114155 0.375679
-0.124798 0.0287117 0.437343
-0.183246 0.252598 0.00160375
0.0465906 0.22705 0.634241
-0.195482 0.0858739 0.418396
-0.0101548 -0.103089 0.350659
0.141181 0.210916 0.622112
-0.061809 0.0753152 0.3508
-0.0776949 0.170005 0.592699
0.105317 -0.0998727 0.434823
0.0379341 0.219019 0.596989
0.00684653 -0.24209 0.0455152
0.00707616 0.00691914 0.169592
0.221927 0.0578268 0.566689
0.131978 -0.0288992 0.376636
0.0817083 0.158362 0.321394
0.123018 0.203816 0.576706
-0.0319068 -0.133942 0.350634
-0.00397566 0.0793021 0.430874
-0.136421 0.157685 0.488537
-0.0408027 0.0212408 0.308242
0.0923975 -0.155543 0.430337
0.0672246 0.218515 0.602157
0.178121 -0.0633352 0.5839
0.05463 -0.0953624 0.312769
0.0819064 0.102825 0.307292
0.00961894 -0.0608962 0.315897
0.104105 0.204038 0.562189
-0.212026 -0.0382956 0.430247
-0.0159655 0.186175 0.474142
0.0219149 0.144849 0.379141
-0.0551106 -0.120581 0.341516
0.271642 -0.0433325 0.0256651
-0.202459 0.107983 0.366223
-0.0348436 0.0207382 0.135464
-0.00481469 0.161951 0.482612
-0.00953357 -0.155691 0.374603
-0.251175 0.023171 0.58048
-0.0797948 -0.0262242 0.375087
0.221023 -0.0903829 0.60025
-0.122586 -0.150842 0.432448
-0.240136 0.0163946 0.574338
-0.0338249 0.11322 0.374974
0.09996 0.15946 0.531948
0.155156 0.260318 0.0537193
0.109135 0.184684 0.66407
-0.0148037 0.048523 0.0206457
0.118947 0.181919 0.660538
-0.143551 0.143926 0.328928
-0.0490391 0.196861 0.514646
0.113146 -0.0319378 0.439462
0.0628251 0.078067 0.431403
0.137822 0.267369 0.0259957
-0.227425 0.131423 0.410832
-0.0932889 0.146148 0.325219
-0.00231271 -0.0858265 0.323534
-0.210332 0.172648 0.665965
0.184233 -0.0284739 0.105312
0.197002 0.115035 0.360177
-0.139595 -0.185193 0.402454
0.131594 0.190009 0.529861
-0.232254 0.0317586 0.571248
-0.129896 0.166957 0.606826
0.0896836 0.251168 0.676571
-0.163378 0.188583 0.705855
0.158356 0.130601 0.416458
-0.000500165 0.00401841 0.375063
-0.199269 0.161112 0.562623
0.0553826 -0.0988466 0.350662
0.0748697 -0.0923868 0.374903
-0.0542088 -0.0450241 0.375102
-0.00570983 -0.0261651 0.35072
0.181647 0.168874 0.649723
0.0332176 0.242167 0.707043
0.0104513 -0.0732146 0.373083
0.0611718 0.108536 0.375533
-0.179746 -0.0262003 0.111529
0.017469 0.0219718 0.142363
-0.0905433 0.149491 0.115672
0.0283276 0.0655411 0.161252
-0.0827227 0.0947623 0.292459
0.0964253 0.0794941 0.374396
-0.0527738 -0.035641 0.350712
0.176614 -0.055825 0.317976
-0.194167 -0.0800213 0.400959
0.0282783 0.0380813 0.134755
-0.0222057 0.0125372 0.35075
0.112062 0.0660711 0.289053
-0.0227326 -0.0574647 0.375112
-0.0175741 -0.1454 0.369952
-0.0400855 0.244579 0.77732
-0.0549588 0.163785 0.543017
-0.0285991 0.226831 0.629038
-0.210817 -0.0563998 0.576575
0.0559475 0.161814 0.474573
-0.0662437 0.160067 0.516404
0.19258 -0.0212121 0.0908102
0.163808 -0.149751 0.391996
0.180819 -0.0792231 0.318015
-0.00987348 0.0342457 0.262063
-0.00377221 0.107902 0.374978
0.0663624 0.00374287 0.283599
-0.0647396 0.0393369 0.305528
-0.220512 0.0485592 0.503107
0.271708 -0.0668392 0.0343768
0.114754 0.189012 0.117022
-0.208242 0.151636 0.574977
0.0434869 -0.0222034 0.374229
0.0873559 0.231102 0.584608
-0.168042 0.258192 0.0442089
0.233227 -0.0928933 0.584253
0.0822422 0.220101 0.386653
0.0551349 -0.0378315 0.374516
-0.0776341 0.245415 0.660526
-0.178675 0.26267 0.00747263
-0.145107 -0.0427094 0.440502
0.0767063 0.0987022 0.374986
0.109445 0.0168771 0.374887
0.0561535 0.197202 0.516484
-0.0140184 0.185106 0.471219
-0.0644428 -0.0667309 0.375119
-0.215257 -0.0272947 0.0872562
-0.05023 -0.0938997 0.32919
0.0223932 0.0496844 0.16084
-0.220199 0.0593955 0.548833
0.21533 -0.0824282 0.600262
0.0733881 -0.111325 0.323693
-0.110283 0.234318 0.405708
0.035876 0.104425 0.42909
0.190827 -0.0727268 0.440435
0.186561 0.136805 0.353468
0.0866029 -0.0345771 0.316001
-0.00911688 -0.03894 0.139405
0.129651 -0.00460955 0.376585
0.259724 -0.0620516 0.0341101
0.155124 -0.0573246 0.439417
0.123046 -0.19394 0.419856
-0.105898 0.208677 0.471888
0.162126 0.177439 0.524019
-0.0209155 0.0369666 0.375036
0.0108523 0.0379603 0.246006
-0.197918 0.073843 0.412389
-0.177707 0.0437471 0.385818
-0.0741499 0.186119 0.661165
0.0981025 0.0219513 0.375048
-0.114759 -0.0351788 0.439791
-0.00465752 -0.184697 0.088553
0.000809527 0.108917 0.318747
0.155499 -0.164144 0.432569
0.175584 0.096171 0.433941
-0.112313 0.12211 0.302649
-0.0121077 0.0689442 0.139077
0.109241 0.0186512 0.376277
0.179628 0.192026 0.713382
-0.173572 -0.0849085 0.382177
0.263867 -0.0700263 0.0186159
-0.122197 -0.00778188 0.130771
-0.0264694 0.0417934 0.169406
-0.0359675 -0.00549214 0.350736
-0.0825871 0.243751 0.743701
-0.082255 0.16099 0.47327
0.0873915 0.230875 0.48356
0.16918 0.213321 0.686643
-0.149336 -0.128293 0.378985
0.174183 0.114446 0.413791
-0.0973919 0.00368549 0.437926
0.0135194 -0.102034 0.372914
-0.0156765 0.24482 0.715794
-0.0969666 -0.0219577 0.312809
-0.0923219 -0.020688 0.294123
-0.23114 0.113595 0.409888
-0.10588 -0.136362 0.432401
0.18605 -0.114387 0.438135
-0.0132866 -0.263353 0.0412699
-0.164558 0.195328 0.72075
0.119344 0.0928845 0.375953
0.0985122 0.0282988 0.375043
0.110909 0.233981 0.640058
-0.0627337 0.113819 0.148144
0.0573089 0.155348 0.356848
-0.0151061 0.182709 0.465077
-0.210936 0.0968521 0.46709
-0.0854869 0.244146 0.752773
0.0384186 0.242627 0.777441
0.0974386 0.0493863 0.357154
0.110629 -0.00313366 0.117352
0.111365 0.0688326 0.296152
0.143659 -0.00320071 0.438832
0.0868502 0.230742 0.475302
-0.124863 0.135766 0.307151
-0.176421 -0.072138 0.32027
0.131648 0.00536724 0.113222
-0.185381 -0.0504717 0.599637
-0.0527778 -0.0970991 0.335744
-0.178191 0.0684326 0.590321
-0.00219274 0.269096 0.682604
0.0746022 0.228064 0.645718
-0.136593 0.0258094 0.376592
-0.19853 0.153271 0.33001
0.191127 -0.0245112 0.574643
-0.0893698 0.0735302 0.363938
-0.174296 -0.155183 0.407516
-0.154145 0.157895 0.583047
-0.118901 0.236374 0.752239
-0.20533 0.0545993 0.425962
-0.229196 0.0157761 0.570759
0.0421318 0.0202519 0.27828
-0.14513 0.245769 0.000415467
-0.0827282 0.0641366 0.351719
0.205654 0.0518451 0.548659
7.14987e-05 0.205187 0.533636
0.0339442 0.0963804 0.376061
0.103864 -0.026993 0.43948
0.19186 -0.0436679 0.576455
-0.103426 0.210207 0.322971
-0.221676 0.143725 0.400101
-0.149808 0.00464259 0.377121
0.0322782 0.223883 0.61681
0.0152461 0.203428 0.530445
-0.144808 0.0940103 0.377405
0.203159 0.120799 0.341526
-0.0860337 0.21611 0.610618
0.254185 -0.0262024 0.592399
0.101749 -0.00100328 0.124734
-0.153993 0.22881 0.0361282
0.145438 0.125473 0.396225
0.0697133 0.0102237 0.374978
-0.2282 0.0733041 0.49095
-0.0457624 0.0259276 0.171381
0.0121319 0.0894138 0.350811
-0.0624942 0.0135876 0.159857
-0.193081 0.149475 0.548161
-0.0458788 0.162341 0.468874
-0.132791 0.163293 0.593197
0.0619716 -0.0335947 0.316488
0.0255549 0.0598465 0.152598
-0.0588666 0.0935797 0.350814
-0.184486 0.186067 0.592781
0.0862954 0.214634 0.599635
0.0128314 -0.00337382 0.373396
-0.0315128 0.158434 0.395561
-0.230878 -0.0459141 0.576613
0.0853685 -0.0110565 0.287529
0.0629162 0.00288469 0.311032
0.0187431 0.250428 0.764925
-0.0966072 0.19657 0.528183
0.0788604 0.237809 0.697284
-0.105892 0.172836 0.119207
-0.111704 0.00347121 0.108677
-0.0075895 0.219581 0.744338
0.00909043 0.185219 0.329389
-0.255205 0.0225812 0.59531
-0.0575805 -0.0608623 0.294907
-0.25676 0.0109264 0.591498
0.0112492 0.034583 0.0137313
-0.152435 -0.041656 0.312196
-0.166147 -0.171891 0.417282
-0.102459 -0.036006 0.375095
0.163622 0.259153 0.0536146
0.094703 0.0209154 0.375905
-0.0136897 0.212945 0.55596
-0.0557705 -0.129508 0.37517
0.239297 -0.0337722 0.577203
0.0423146 -0.0907483 0.350668
0.116681 0.179447 0.488025
-0.128942 0.087221 0.376411
0.0126983 0.0726701 0.158099
0.134866 -0.000669369 0.135666
-0.0123968 0.0785513 0.320141
0.105019 0.213514 0.420228
-0.0980964 0.207906 0.571909
0.0117641 0.110718 0.350828
0.00391369 -0.0871772 0.375136
0.0160151 0.201473 0.523558
-0.184801 0.261844 0.0328613
-0.064092 -0.196086 0.381473
0.0320266 0.157761 0.352752
0.107616 0.0432952 0.362363
0.240108 0.0463648 0.599458
-0.0789851 0.132399 0.127082
0.0240098 0.160183 0.420042
-0.00386611 0.159764 0.331082
0.0598319 -0.126782 0.375168
0.0726642 -0.0797766 0.350677
0.193959 0.168935 0.363992
-0.102574 0.0716312 0.302319
0.11168 0.00669946 0.110584
0.0938638 0.236041 0.611338
-0.0920649 0.164451 0.100885
-0.11879 -0.151526 0.432155
-0.115143 0.173848 0.624881
-0.0302283 -0.0618501 0.435898
0.110943 -0.00419765 0.124556
-0.0880748 -0.195543 0.424293
-0.195546 0.151905 0.373659
0.00167275 -0.160913 0.11535
-0.117163 0.1706 0.612351
-0.073474 0.0978225 0.375071
-0.0775209 0.0481108 0.434351
-0.0672596 0.156259 0.420161
0.0511101 0.0412899 0.375141
-0.211017 0.083369 0.469517
0.267824 -0.0461773 0.0424153
0.0902656 -0.0179968 0.313023
-0.0105597 -0.0872367 0.342712
0.0435377 -0.0580207 0.375113
-0.210562 0.0969543 0.456191
0.0569623 0.230737 0.554479
-0.133432 0.123157 0.386183
0.0972279 0.171295 0.603021
0.024882 0.0452318 0.277146
0.132161 -0.164018 0.379345
0.09255 0.150798 0.300608
-0.0894018 0.221048 0.621222
-0.0346954 0.030077 0.375041
-0.046167 0.0323953 0.165556
0.0917421 0.0642309 0.376544
0.00281701 0.177169 0.454017
-0.00323879 0.0787542 0.350803
-0.0101987 0.16124 0.39742
-0.0355091 -0.0492586 0.436858
0.199858 0.0250854 0.568317
0.045895 0.257423 0.678667
0.0537817 0.212747 0.56468
-0.18215 -0.0323704 0.314318
0.0499184 -0.0477278 0.437067
0.154569 0.259416 0.0160582
-0.0631043 0.118985 0.374968
0.236673 -0.00423414 0.600262
-0.113602 0.0412362 0.286611
-0.136777 0.0414764 0.436954
-0.00115442 0.0979334 0.375082
-0.231664 0.101406 0.436509
-0.017283 0.055172 0.0819333
0.171985 0.206471 0.649071
-0.0213803 0.218936 0.74362
0.0352291 0.252802 0.665947
0.0287456 0.0676108 0.167002
-0.180265 0.108275 0.423199
-0.109378 0.232554 0.698711
0.112913 0.132121 0.316843
-0.0186198 0.253348 0.667918
-0.0850886 0.0287104 0.435827
-0.0818417 0.153815 0.300719
0.021896 0.0271289 0.27668
-0.0546807 -0.10008 0.303843
-0.0769709 0.00405468 0.375135
-0.0170403 0.212619 0.564093
-0.164765 0.2681 0.0321891
0.0530357 -0.2069 0.396637
-0.144004 0.096028 0.377509
0.116774 -0.134031 0.433047
0.18033 -0.0305706 0.578704
-0.0217493 0.0615883 0.131172
-0.0136966 0.229882 0.557097
-0.0481647 0.247314 0.748374
-0.00100424 0.246285 0.718857
0.090418 0.135351 0.334921
0.0145711 -0.00702754 0.312491
0.155496 0.029331 0.438317
0.100583 0.168666 0.103699
0.20883 0.105305 0.424733
0.0854691 0.13057 0.374958
0.0614542 0.0137505 0.280786
0.169027 -0.0601703 0.315163
-0.0320998 -0.041699 0.300963
-0.108129 0.228795 0.522906
0.0276155 0.0812076 0.124659
-0.00757813 -0.246465 0.0450372
-0.000317089 0.0569117 0.0174377
0.0777179 0.059333 0.278228
-0.189004 0.194108 0.711726
0.0202548 0.0951163 0.374989
-0.0224785 0.0833483 0.161112
-0.0902878 0.133879 0.374955
0.139012 0.156325 0.49944
0.0785434 0.0228876 0.280921
-0.268709 -0.054156 0.0337706
-0.0197387 0.10582 0.291216
-0.141926 0.20077 0.581562
-0.248639 -0.0606145 0.585279
-0.0304192 0.218533 0.593316
-0.122233 -0.143159 0.376764
-0.00723619 0.0710654 0.330304
-0.17235 0.0216539 0.581978
-0.0832621 0.165082 0.128723
-0.0984269 0.195253 0.524573
-0.0799544 0.158947 0.404486
0.0691983 0.0439405 0.434138
-0.212247 0.0987549 0.484336
-0.0457942 0.204332 0.713322
0.015075 -0.0779125 0.375129
-0.212017 0.0868121 0.428859
-0.0369209 -0.0326095 0.350715
-0.224478 0.0784944 0.435132
0.212701 -0.0252089 0.42096
-0.0330717 -0.0225114 0.288527
-0.124323 0.214916 0.626321
-0.124901 -0.0703112 0.438304
-0.146463 -0.128622 0.435557
0.110049 0.145237 0.306639
0.135184 0.230794 0.7166
0.209771 -0.00279413 0.414083
0.00341769 -0.0124517 0.313298
0.0736454 -0.117205 0.337936
0.0782196 0.212517 0.575761
-0.147974 -0.139602 0.434857
-0.150667 -0.0438593 0.440641
0.233614 -0.0845235 0.598934
-0.0842536 0.226127 0.454563
0.17662 -0.0606849 0.439272
0.0774819 -0.143278 0.375181
-0.0433865 -0.060151 0.306307
-0.118895 -0.0305813 0.310624
-0.14214 -0.176546 0.429407
0.0895872 0.199705 0.534801
0.11024 0.217562 0.336513
0.250997 -0.0494425 0.0743409
-0.170337 0.138579 0.33629
-0.112191 0.0849744 0.297399
0.271722 -0.0719379 0.023057
-0.0191319 0.204518 0.535405
-0.0607363 -0.182577 0.375787
0.0833412 0.158736 0.408089
-0.00779764 -0.0828958 0.135087
0.226424 -0.0358016 0.0782731
0.0180866 0.080311 0.14469
-0.167282 0.206161 0.63863
-0.0718378 -0.159612 0.375154
0.230516 0.0684111 0.599216
0.100105 0.167942 0.338739
0.201796 0.187053 0.655305
-0.0920133 0.239961 0.663041
0.00526502 0.02059 0.0620645
-0.218737 0.126663 0.357605
-0.184965 -0.0330081 0.314412
-0.0778302 -0.20164 0.394116
0.0570213 0.115256 0.374972
-0.0580453 0.0247603 0.375046
0.0969422 0.132718 0.313221
0.0630097 0.149034 0.300555
0.00753834 0.239482 0.684045
0.0455774 0.0887308 0.35081
0.119748 0.0861399 0.375946
-0.173839 -0.052317 0.593717
0.0162192 -0.143971 0.375182
-0.0462744 0.23482 0.671521
0.017198 0.0359894 0.202365
-0.227087 0.0675604 0.468629
0.136667 0.081684 0.434234
0.0438283 0.230511 0.556336
0.110024 -0.124727 0.43333
-0.180123 0.0437507 0.438592
0.0742201 -0.0139198 0.2877
0.191126 0.181914 0.693695
-0.226665 0.0890359 0.415245
-0.180425 0.174473 0.549459
0.1547 -0.108368 0.377899
0.206044 0.140038 0.403667
-0.0622692 -0.0227479 0.350722
0.198649 -0.119059 0.428743
0.0729771 0.103476 0.375391
-0.0375482 0.196752 0.511618
-0.207847 0.103571 0.395889
-0.109399 0.216538 0.612755
0.174313 -0.100835 0.383842
0.23764 -0.0419247 0.0306618
0.137042 0.230592 0.0221896
0.00798919 -0.0622725 0.136714
0.143583 0.228348 0.717803
-0.0389316 0.204367 0.53954
0.0768567 0.147045 0.325403
-0.112498 0.216169 0.538307
-0.050786 0.0860525 0.350809
0.177881 0.0325982 0.598745
0.194931 0.190535 0.644563
0.173972 0.226778 0.0254285
0.21597 0.0999513 0.49073
0.111331 0.0422529 0.435866
0.00910825 -0.0914833 0.43352
0.22299 0.0191605 0.568956
-0.101046 0.112606 0.283824
0.0730308 -0.082688 0.350675
0.188051 0.182507 0.588365
-0.00728773 0.0307943 0.0137242
-0.235921 0.0310281 0.572639
0.164881 0.213468 0.673388
-0.184695 -0.0320495 0.388883
-0.204075 0.0630002 0.42253
-0.0809633 0.202477 0.542426
0.0447493 0.0358543 0.375037
-0.138624 0.259762 0.0328498
0.181335 -0.0275807 0.599209
-0.125997 0.208243 0.737156
0.184159 -0.0320377 0.314423
0.139475 -0.140057 0.434114
0.0946827 0.259235 0.667615
0.206426 0.00169653 0.411014
0.0638826 -0.0291157 0.350717
0.183833 0.2636 0.0211127
0.0242948 -0.17429 0.374601
-0.133329 0.22519 0.683367
-0.0570007 0.130276 0.124035
-0.0138372 -0.22744 0.0332604
-0.168544 -0.0627261 0.315402
-0.0895883 -0.134416 0.354716
-0.19698 0.0508556 0.570245
0.0340942 0.21301 0.56567
0.234291 0.0607462 0.575294
0.097092 0.208478 0.534362
-0.0916243 0.104592 0.314257
0.150334 -0.0456661 0.312988
-0.0594977 0.0822817 0.374999
-0.0430592 0.134849 0.350847
0.0654672 0.0592616 0.350787
0.0356726 -0.0616663 0.373862
0.00744804 -0.104645 0.125245
-0.063814 -0.00166965 0.375067
0.0403861 -0.0512416 0.317352
0.183062 -0.0579888 0.318303
-0.125985 0.0602762 0.363925
-0.196155 0.189206 0.697187
0.0992951 0.0300353 0.436162
0.211443 0.100711 0.483931
-0.134566 0.166988 0.610764
-0.0954097 0.198716 0.535183
-0.0652791 -0.0702646 0.296308
0.128873 0.213757 0.089123
0.0473906 -0.104076 0.432765
-0.217496 0.136036 0.355768
-0.154603 -0.067949 0.316186
-0.0596548 0.0626423 0.375015
-0.0873361 0.0470737 0.375128
-0.0546169 -0.0968379 0.317373
-0.0518768 -0.0677151 0.350687
-0.146742 0.153255 0.539387
0.0803484 -0.0759245 0.320244
0.00610353 0.227627 0.57036
0.13435 0.163183 0.591287
0.0678944 -0.148105 0.373741
0.214991 0.0683597 0.454659
0.137946 0.2329 0.0787337
0.109155 0.09519 0.36607
-0.005751 0.224898 0.614289
-0.150792 0.238556 0.00747611
-0.267319 -0.0453046 0.0858501
0.0817893 -0.0644421 0.296431
0.0913793 0.161558 0.331752
-0.0190724 0.033362 0.202359
-0.208492 0.101422 0.397213
-0.202736 -0.0496808 0.439783
0.0838372 0.218668 0.386682
-0.16134 -0.176064 0.418827
-0.193894 -0.118958 0.408778
0.0182261 0.18366 0.632021
-0.087734 0.0632975 0.286884
0.0578519 -0.150156 0.373741
-0.107471 0.156716 0.353775
-0.000391467 0.213498 0.568421
0.220824 -0.106405 0.596148
0.0517412 0.15469 0.421789
-0.182031 0.0367533 0.575562
-0.0810256 0.03454 0.280031
0.155959 -0.0137625 0.12746
-0.071922 -0.131486 0.351591
0.0841287 0.198259 0.323018
-0.0326816 -0.0577926 0.350695
-0.0134257 -0.1075 0.432367
-0.156606 0.124516 0.404356
0.232137 -0.0431476 0.0831115
0.163788 0.0808095 0.371697
-0.10632 0.0868661 0.374995
-0.159428 0.135076 0.32904
0.0420185 -0.125016 0.373367
0.171331 -0.00419298 0.438603
0.0224077 0.136672 0.374953
0.109732 -0.0910447 0.364701
0.176078 0.164597 0.628406
0.211085 0.0676099 0.547751
-0.0810294 0.222936 0.756295
-0.0355943 0.229889 0.764976
0.0158742 0.0559361 0.0820111
0.173411 -0.0632222 0.381639
0.0542078 0.14441 0.30041
-0.0372288 -0.0400729 0.437554
-0.0663201 0.154464 0.421102
0.163108 -0.00597822 0.102589
0.102534 0.00470617 0.148691
-0.00802002 -0.149727 0.109776
-0.00827854 0.0242804 0.070443
0.139872 0.161158 0.582917
-0.0624156 -0.0669885 0.374547
-0.0970018 0.242828 0.355567
0.0893108 0.0671183 0.300626
-0.106701 -0.178958 0.429096
-0.0985134 0.0534214 0.375361
-0.0951504 0.0417581 0.435026
-0.174502 0.0538719 0.384162
0.0212217 0.160121 0.396056
0.216596 -0.0235946 0.600262
-0.0149437 -0.110952 0.432113
-0.0845377 0.149798 0.307016
-0.0920606 0.00609784 0.307489
0.0616946 0.22738 0.639482
-0.149418 -0.182507 0.407751
0.126247 0.0988733 0.432452
0.180419 0.00223068 0.575681
0.0818996 0.0769084 0.28974
-0.143083 0.106475 0.379946
-0.0900664 0.242988 0.377121
-0.0982486 0.218943 0.381858
0.0777444 0.0298552 0.375634
0.113711 0.211695 0.740562
0.0620545 0.0140389 0.375055
0.0889523 -0.0500986 0.354442
0.075762 0.100721 0.35082
0.0621293 0.147983 0.350857
0.200752 -0.0904296 0.408839
0.0124305 -0.00204602 0.283396
0.082155 0.223438 0.480577
-0.00501571 0.112498 0.28335
0.210665 0.139527 0.415392
0.0406185 0.0920323 0.376146
0.0339793 -0.177381 0.3746
-0.16467 0.181156 0.334304
-0.0617802 0.16177 0.533305
0.130755 0.155918 0.304526
-0.0253811 0.0684721 0.30033
0.106793 0.247165 0.668615
0.258454 -0.0374309 0.0416781
-0.241701 -0.0928401 0.589911
-0.0938938 0.0357929 0.306048
-0.138039 0.0857351 0.376814
-0.0874138 0.134306 0.427575
0.177549 0.16063 0.613562
-0.109722 -0.0362827 0.370558
-0.0921567 0.243854 0.369309
0.0626594 0.246673 0.765443
-0.100802 0.233412 0.481028
0.0896847 0.0860111 0.284588
0.174039 0.158153 0.601004
-0.164179 -0.123273 0.38174
0.0443534 0.157859 0.301826
-0.0338957 0.0843796 0.374728
0.1654 0.0263812 0.438268
-0.111469 0.203377 0.330187
-0.0376835 0.244219 0.777519
-0.191037 -0.0898473 0.599394
0.0922846 -0.113318 0.375157
0.053697 0.0386132 0.375148
0.0155515 0.0494023 0.0524499
0.239903 -0.0803202 0.584488
0.0585365 0.0631849 0.375929
-0.0401576 -0.053757 0.312209
