-0.0560787 -0.288652 0.0849115
-0.131681 0.0798227 0.361576
0.109969 0.122225 0.365585
-0.0228683 0.149274 0.091615
0.150814 0.081957 0.10864
-0.0336213 -0.0434193 0.332796
-0.0470057 0.168881 0.672039
-0.0537213 -0.167602 0.357337
0.0839771 -0.010542 0.327614
0.0023369 -0.0726838 0.121182
0.0276974 0.00793785 0.317832
-0.0716838 -0.250254 0.0334488
0.100478 0.169577 0.551139
-0.00742353 0.174653 0.563981
-0.0476641 -0.154197 0.353674
0.107951 0.169678 0.641385
0.0863475 -0.117079 0.355479
0.241198 0.167777 0.0648741
-0.168616 -0.0178773 0.0989593
0.0132571 0.170611 0.554625
0.219824 0.110731 0.404811
0.0508499 0.0212322 0.320914
-0.155692 -0.128248 0.357121
-0.0479855 -0.242025 0.0892969
0.0614853 0.114398 0.344303
0.0154821 0.0540591 0.325121
0.139263 0.0964136 0.361126
-0.0966285 0.155285 0.633232
-0.0505212 0.128798 0.367571
-0.133364 0.138891 0.427942
-0.264023 -0.0216959 0.0369204
0.161435 0.102074 0.373205
0.135531 -0.0567679 0.351638
-0.0949338 0.137535 0.404666
-0.181786 0.00490757 0.369021
-0.115464 0.148133 0.545732
-0.151103 0.133664 0.434927
0.174726 -0.121801 0.0850981
-0.0983854 0.00664165 0.347599
0.25476 0.192708 0.0445519
0.0221419 0.00609013 0.148988
0.0737113 0.17371 0.453565
0.00949513 0.161545 0.411162
0.0652382 0.171674 0.713698
0.0849664 -0.130827 0.357209
0.0922813 -0.0537055 0.0770021
0.0910662 0.162367 0.59616
-0.145406 -0.00835028 0.345576
0.0639615 0.167158 0.56011
-0.268882 -0.0230723 0.0347568
0.0385454 -0.0209867 0.334927
0.0342009 0.151017 0.390408
0.0481655 0.133941 0.365523
0.0487114 0.145049 0.371384
0.0669321 -0.0336448 0.12847
0.127111 0.156327 0.534962
-0.0367691 -0.151614 0.352772
-0.0773778 0.158513 0.463123
-0.0301489 0.156587 0.397839
-0.114008 -0.00791281 0.351603
-0.190568 0.0614882 0.377399
-0.124348 0.0261318 0.354513
0.081507 0.123432 0.357093
0.0607312 0.17505 0.585265
0.0515574 -0.0385276 0.339178
-0.123525 0.0890701 0.371274
0.222303 -0.00527404 0.366191
0.039972 0.00019248 0.226691
0.0145444 -0.00269019 0.269735
-0.0424126 0.285573 0.0169696
-0.0661436 0.289828 0.0200602
0.0315938 0.0622583 0.324132
0.143307 0.162674 0.579586
-0.155354 0.14036 0.491773
0.256445 -0.137341 0.0255859
0.215119 -0.108296 0.36386
0.0391702 0.176571 0.582453
0.0686444 -0.0337627 0.119466
0.0291439 -0.0279961 0.164701
-0.133763 0.0462036 0.352819
0.0341389 -0.0265656 0.128109
0.154289 -0.109039 0.359423
0.255004 0.16535 0.018562
-0.150309 0.0979667 0.389451
0.0599287 -0.131909 0.356986
0.170101 0.0552521 0.357917
0.0224578 0.103045 0.33339
0.271946 -0.14863 0.0201514
0.181557 -0.00482 0.348556
0.128252 -0.00483019 0.335133
0.110159 0.160447 0.637213
0.0402949 -0.0390764 0.0917267
0.0109762 0.175317 0.445336
0.266568 -0.170325 0.0134282
0.0106418 -0.00205613 0.105643
0.130807 0.155897 0.581538
0.146737 0.0150738 0.339184
0.160324 0.0950066 0.104155
-0.10944 0.149799 0.533493
-0.125004 0.10171 0.37117
-0.137185 -0.14164 0.357319
0.0164938 -0.0603208 0.0796098
0.157661 0.157 0.476451
-0.00713511 0.174813 0.552314
0.0145965 0.0405444 0.116839
0.20914 0.131778 0.0629295
0.0386045 -0.033673 0.327543
-0.0791244 0.297308 0.036939
-0.00521663 -0.0107645 0.325211
-0.140177 -0.0143478 0.344123
-0.112352 -0.14911 0.356675
-0.190486 -0.0813248 0.355189
0.167843 0.162038 0.607375
-0.0141487 0.17086 0.513514
0.270384 -0.137584 0.0273247
-0.0904401 0.157289 0.660103
0.255886 -0.175677 0.0432543
-0.187032 -0.0417513 0.362173
-0.0230881 0.111519 0.0836181
-0.000879776 -0.0695983 0.082713
-0.159939 -0.106563 0.363309
-0.143749 -0.0581256 0.359035
0.0298092 -0.0276135 0.307089
-0.0495921 0.168193 0.659884
-0.00747778 0.174086 0.646014
0.116479 -0.0185698 0.343568
-0.0775842 0.274764 0.070648
0.179378 -0.0888976 0.360112
-0.036398 -0.19553 0.0818747
0.0134072 -0.0223979 0.133682
-0.0496024 0.198284 0.09185
0.163568 0.15312 0.602136
0.0424526 0.123296 0.354686
0.220047 0.129448 0.0815574
0.0155802 0.00747971 0.0763983
0.16633 0.147827 0.535795
0.123974 0.165518 0.53318
-0.00384164 0.0773569 0.0756709
-0.085492 0.277352 0.000257161
0.00387607 0.174191 0.4357
-0.0432907 -0.279657 0.0609609
-0.161071 0.021837 0.366
-0.182612 -0.00812437 0.0758516
0.0426409 -0.0170825 0.116197
-0.0952406 -0.0060628 0.347583
0.11427 -0.0974984 0.336901
0.00699891 -0.00931215 0.322413
0.0353286 0.102831 0.333825
-0.143723 0.147859 0.547952
-0.134765 0.14555 0.453132
0.100589 0.169765 0.537061
-0.114561 -0.0443997 0.354973
0.0815016 0.169796 0.476458
0.181083 -0.144543 0.359076
-0.00668593 0.0136893 0.321642
0.0570564 0.175067 0.634133
0.0032129 -0.0338544 0.297001
0.0451037 0.17079 0.525135
-0.00333762 -0.0989792 0.35028
0.0176877 0.166129 0.721407
0.0804346 -0.0563948 0.105405
0.00446632 0.166515 0.665767
0.0110207 0.0962234 0.332289
-0.167502 0.121479 0.421875
0.00316171 -0.0766244 0.0778184
-0.251044 0.00370382 0.00812926
-0.175045 0.107424 0.407379
-0.044281 -0.221231 0.0753207
-0.135595 0.059167 0.355921
-0.245535 -0.0145102 0.0457666
0.116787 0.158418 0.615737
-0.0446877 0.164002 0.558941
0.243406 -0.18225 0.0121732
-0.0625739 0.161165 0.666411
-0.151368 0.0492211 0.360066
-0.0333782 0.147386 0.385678
-0.178002 0.0602327 0.373887
0.0260281 0.166802 0.675585
0.246705 -0.18008 0.00968993
-0.183015 -0.0316404 0.365114
0.0162907 -0.0177703 0.27054
0.0226444 0.166587 0.686273
0.0132589 0.0274194 0.0805221
-0.0569364 -0.284757 0.027622
0.0133276 0.0921107 0.330774
-0.0673784 0.106469 0.357731
0.1759 -0.122915 0.0824153
0.111871 -0.0795557 0.0876553
0.0150705 0.112187 0.338184
0.0809484 -0.0733873 0.337373
-0.0747005 -0.0179355 0.105999
-0.264678 -0.0317977 0.0608983
0.105782 -0.0723359 0.113047
0.0147881 0.176758 0.58871
-0.079254 0.258512 0.039089
-0.0275433 0.123344 0.0783708
0.268562 -0.181892 0.0511828
-0.246388 -0.00974496 0.0591782
0.0682623 0.174616 0.577806
0.142062 0.148016 0.411439
0.0587829 0.06333 0.320825
-0.256399 -0.00319502 0.0578371
-0.132795 -0.0388616 0.347954
-0.00202815 0.0250411 0.304437
-0.0527619 -0.257057 0.0444492
0.106786 0.13519 0.379016
-0.1532 -0.117398 0.363254
0.134347 0.154079 0.442566
0.221071 0.0836993 0.383472
0.0505008 -0.0309692 0.317844
0.0789402 0.0529925 0.323726
0.00317176 -0.148051 0.351544
-0.150134 0.11823 0.413116
0.100542 0.169776 0.612562
-0.100309 0.159391 0.490786
-0.00223746 -0.00222872 0.0823735
0.203947 0.131226 0.068807
0.0764613 0.118865 0.35096
0.123627 0.157335 0.551578
0.088584 0.171648 0.663456
-0.0571376 -0.0548977 0.337358
-0.0490329 0.167897 0.589602
0.19401 -0.106068 0.362666
0.00693332 -0.0973235 0.0962353
0.194838 0.129721 0.443628
0.00780655 0.167211 0.643555
-0.042472 -0.109657 0.354896
-0.0398167 0.162939 0.424194
0.0128842 -0.00860228 0.135119
-0.104352 0.151244 0.51408
-0.0424003 0.166676 0.0702169
0.156889 -0.105589 0.349928
-0.0247726 0.153597 0.0934431
-0.157832 -0.0523888 0.352906
-0.237625 0.0110084 0.0330686
0.0594004 0.0643787 0.327256
0.0776344 -0.00554491 0.335165
0.0755239 0.129906 0.359413
-0.280871 -0.00995725 0.00236893
-0.0584013 -0.0183836 0.102957
-0.0808093 0.168129 0.713848
-0.054138 0.230163 0.060887
0.0886781 0.0920912 0.337325
-0.024384 -0.0368829 0.340198
0.257954 0.178516 0.0730959
0.0663158 0.10422 0.337128
0.180385 -0.124251 0.354843
0.2492 0.150378 0.0833211
-0.0658855 0.157778 0.432399
0.26911 -0.176194 0.044814
0.145674 -0.0812302 0.354805
0.0121663 0.0432058 0.326382
0.108443 -0.0731711 0.118738
-0.162992 0.114916 0.418703
0.0940476 -0.0656075 0.104338
-0.2454 -0.023201 0.0374658
0.248189 -0.181709 0.074089
0.0212835 -0.0194753 0.0827805
0.181789 0.0704933 0.364775
-0.0883772 -0.0464423 0.350781
-0.104421 0.118571 0.385168
0.164252 -0.101033 0.0927293
0.100319 0.143817 0.386395
0.0990274 0.165848 0.713162
0.153448 0.15548 0.444424
-0.0556388 -0.0849175 0.352053
-0.129787 0.140501 0.428133
0.208571 0.117062 0.410091
0.0709799 0.174806 0.541312
-0.0864879 0.166389 0.692422
0.0327672 -0.0267591 0.304714
-0.023203 -0.153609 0.0950697
0.0172821 0.00451053 0.310865
-0.149494 0.148365 0.534244
-0.277814 -0.0219771 0.0131008
-0.00777121 0.174304 0.597462
0.174519 -0.119796 0.096982
-0.168592 -0.0178179 0.0995394
-0.160553 -0.0290574 0.362439
0.00378895 0.0284093 0.0895181
-0.0872211 0.294181 0.042055
0.244011 0.168992 0.0849115
0.0713746 -0.0398259 0.330847
0.00271102 -0.0682002 0.0785467
0.123029 0.166859 0.463127
-0.0110304 0.0902199 0.118099
0.0661468 0.167827 0.539581
0.146705 0.150026 0.450346
0.277675 -0.16128 0.0466983
0.0656329 0.111118 0.343
-0.0658349 0.253507 0.0287531
-0.186804 -0.00721032 0.0653082
-0.0953753 0.074594 0.345637
-0.0789554 -0.00818087 0.115453
0.175736 0.129709 0.419836
-0.0549051 0.214053 0.0888389
-0.0288022 0.0407968 0.323653
-0.0148631 0.110993 0.0724181
0.268191 0.166486 0.0161779
-0.236861 -0.00474717 0.0268366
0.23324 -0.0302168 0.358441
0.0939389 0.0489391 0.0936018
-0.271972 -0.00414143 0.080247
-0.246486 0.0249124 0.0257131
0.0717187 0.174803 0.535664
0.0291119 -0.0181032 0.135119
-0.157604 0.0600714 0.370864
0.0341498 -0.162349 0.361685
-0.12654 0.073538 0.355847
-0.0790942 0.0825143 0.349505
0.168216 -0.0398325 0.355613
-0.0340313 -0.290634 0.0189777
-0.04633 -0.287782 0.0129998
0.232532 -0.0398207 0.356817
-0.0516124 0.165999 0.477524
0.132925 0.150292 0.428645
0.0741433 0.173424 0.624175
0.248575 -0.173757 0.0433973
0.190679 0.141669 0.500169
-0.045977 0.0123364 0.336856
-0.0400343 0.169648 0.564858
0.00397465 0.0293477 0.0940085
-0.0480664 -0.0284103 0.33213
-0.0274637 -0.20906 0.0726674
0.0175213 -0.0333248 0.337003
-0.0802955 0.266137 0.0570383
-0.0784305 0.156703 0.442317
-0.0592418 0.0111157 0.330401
-0.0490819 0.0428222 0.327723
-0.186414 0.00666008 0.367397
-0.0127444 0.174724 0.523022
-0.0773046 0.300667 0.0276035
-0.0342157 -0.165093 0.360452
-0.0456752 0.137467 0.378311
0.0551472 0.173687 0.697625
-0.0427148 -0.0646477 0.346968
0.0267385 -0.0722977 0.343933
-0.0601809 0.161796 0.429524
0.271027 -0.165291 0.0469059
0.0318323 -0.0392712 0.325155
0.126016 0.0539921 0.0761508
-0.0641943 0.277049 0.0717076
0.0238609 0.00567516 0.0827805
-0.0560822 0.264755 0.0414679
-0.0352517 -0.0331854 0.331311
0.128589 0.164711 0.539934
-0.08449 0.162306 0.464862
0.00842359 0.167921 0.61555
-0.0336435 -0.255855 0.0206945
-0.15618 0.0736605 0.368797
0.205569 0.0623368 0.365538
0.0104481 -0.0176099 0.301463
0.052406 0.168441 0.55668
0.233539 0.156383 0.0216665
0.232032 0.164458 0.0335364
0.0767631 -0.00953067 0.335745
0.116173 0.170718 0.676283
-0.131337 -0.0731749 0.349165
-0.13789 0.0193272 0.34987
0.04162 -0.0341886 0.134554
-0.0703941 0.159241 0.601162
-0.134212 -0.0152005 0.357011
0.097003 0.00831698 0.328047
0.174575 0.111677 0.388876
0.0196676 0.028951 0.10968
-0.165109 -0.104534 0.356286
0.0193704 -0.0266838 0.308301
0.11793 -0.0919419 0.338732
0.0860395 -0.157139 0.36126
-0.248796 0.023527 0.0318219
-0.155629 0.0450943 0.36088
0.131549 -0.107733 0.347891
-0.166135 0.0579797 0.373531
-0.0267985 0.171856 0.61499
0.177761 0.102943 0.380327
-0.264861 -0.0209307 0.0564848
0.14009 0.150059 0.436369
-0.065517 -0.260334 0.0448076
-0.00179243 -0.102732 0.120375
-0.0985475 0.160647 0.619466
0.0907465 0.0681325 0.334297
0.159577 0.159401 0.584462
-0.128769 0.0305059 0.348087
-0.0179933 -0.00348782 0.324684
-0.0423723 0.00185011 0.32741
-0.00178823 -0.13013 0.0771865
0.256685 -0.161117 0.0369081
-0.0411803 -0.256331 0.0439516
0.168692 -0.0721316 0.347886
0.102651 0.154311 0.401289
-0.0127187 0.174077 0.563303
-0.0539452 -0.251874 0.06542
-0.056582 0.267133 0.0566227
-0.0819558 0.144296 0.409517
-0.0691822 -0.00919394 0.331822
0.180116 0.146035 0.466442
-0.0177935 0.173588 0.556961
-0.122307 -0.0117287 0.344785
0.0104706 -0.0184055 0.143848
-0.00557906 -0.0843997 0.0776736
-0.00396335 -0.0340909 0.325427
-0.0689179 0.167388 0.671232
0.0169711 -0.0581172 0.124479
-0.0822701 0.257388 0.079149
0.0410326 -0.0125823 0.135119
0.0542127 0.173199 0.433217
-0.0414504 -0.255527 0.06194
0.00903119 -0.0794807 0.335821
-0.100819 -0.0243193 0.350196
-0.0306578 -0.161955 0.354871
0.265317 0.163975 0.0454915
-0.0434777 -0.0886794 0.334942
0.119316 0.158282 0.617675
-0.164841 -0.0622359 0.36194
-0.033841 0.170405 0.44758
0.02726 0.164672 0.418016
-0.00178632 0.0510153 0.0780213
-0.237143 -0.00685809 0.0368417
0.0916886 0.170335 0.441126
0.016241 -0.0552857 0.341222
-0.0330711 -0.156078 0.353646
0.113105 0.163499 0.690965
-0.25905 0.0246593 0.0271198
0.00519006 0.00774531 0.123271
0.107325 0.16855 0.444249
-0.172062 0.0866921 0.381939
0.221285 -0.0994244 0.360208
0.181576 0.0624353 0.356257
-0.0560763 0.273392 0.00102434
0.268772 -0.175795 0.0849115
-0.020421 0.166322 0.620655
-0.0384709 -0.265967 0.0450733
-0.257563 -8.54322e-05 0.00994577
-0.0423889 0.16303 0.64803
-0.0391921 0.130564 0.367016
0.130925 0.0632751 0.345526
-0.143375 -0.10238 0.362156
0.220674 0.143921 0.0643344
-0.0452357 -0.289281 0.0380108
-0.106218 0.156946 0.523799
0.124744 0.0250033 0.342326
0.00540867 -0.0567316 0.0796271
0.265418 -0.138149 0.0290276
-0.247536 -0.0239813 0.061351
0.0103854 -0.00307566 0.243207
0.0654822 -0.0309223 0.115522
-0.0467411 0.168633 0.541526
-0.00208292 -0.000620661 0.0824103
-0.0440505 0.164784 0.542348
-0.0999439 0.160919 0.628567
-0.0150302 0.0682404 0.321018
-0.0378951 0.171597 0.737454
0.039926 -0.0225338 0.325776
0.0235125 0.178354 0.512478
-0.0420907 -0.224883 0.0948059
0.0326998 -0.0682463 0.332879
-0.0530811 0.252579 0.0309009
0.160032 -0.0261055 0.344076
-0.0766738 -0.265451 0.0477359
-0.0155155 0.145976 0.377087
-0.00848798 0.0164461 0.321693
0.0642632 -0.0429516 0.126929
-0.162848 0.0818092 0.380954
0.100891 0.150231 0.396834
-0.0181875 -0.169791 0.104594
-0.0592039 0.0108121 0.339458
-0.0537047 0.127306 0.366715
0.0936629 0.0272928 0.327255
0.0831741 -0.0047031 0.335724
-0.0784445 0.252651 0.0327569
0.113144 0.169921 0.481057
0.268588 0.165211 0.0393187
-0.107843 0.156626 0.477937
-0.0423026 -0.122515 0.347244
-0.0992046 0.15252 0.53113
-0.213672 -0.0206287 0.0724586
0.0931944 0.0139396 0.336367
0.0129601 -0.10236 0.350576
-0.0833619 0.157636 0.478711
-0.0513152 -0.165768 0.359718
-0.0411457 -0.100883 0.34172
0.157505 0.0954859 0.0687272
0.00938239 -0.0145901 0.176608
0.106503 0.16863 0.562871
0.00839436 0.175111 0.447912
-0.0112997 0.115322 0.100762
-0.00482427 0.0539654 0.084457
0.0751889 0.0163666 0.0953328
0.0767498 0.0651101 0.329605
0.251359 0.154377 0.0294481
-0.247224 -0.023581 0.06174
0.00945532 -0.00677455 0.0759958
-0.0156827 0.172445 0.450794
-0.17886 -0.109163 0.356844
0.24515 0.168342 0.0420935
-0.135988 -0.0030006 0.348879
0.00890846 -0.0129284 0.207177
0.161417 0.157121 0.530418
0.12309 -0.164048 0.354621
0.178675 0.102359 0.380303
-0.0765587 -0.0939419 0.35467
0.0231239 0.176908 0.655656
0.181493 -0.0452672 0.348624
-0.0393532 -0.0227969 0.330083
0.007289 -0.0521308 0.113363
-0.184544 0.0125256 0.368483
0.258386 0.18472 0.0477842
-0.0268122 -0.169167 0.099747
0.112936 -0.0814414 0.0781276
0.13753 0.165572 0.62269
-0.0497518 0.296766 0.037948
0.142398 0.122448 0.373093
-0.11745 -0.114812 0.351576
0.154686 0.0762594 0.0699972
0.11323 0.0451855 0.0747591
0.241303 0.143029 0.0608441
0.197315 0.0810311 0.368716
0.0514381 -0.0256863 0.336915
-0.0324823 0.178762 0.079926
0.250584 -0.162528 0.0477041
0.0808521 -0.124206 0.34668
-0.0103279 -0.0187024 0.113934
0.121436 0.120546 0.368683
-0.0840366 -0.271706 0.0263082
-0.0706792 -0.252237 0.0372487
0.204059 0.131137 0.447751
-0.0901686 0.140421 0.407619
0.128091 -0.0126863 0.345116
0.0686382 0.0988892 0.33482
-0.0818921 -0.137993 0.360987
0.147318 0.160701 0.480289
-0.0778821 0.252546 0.0260874
0.0883216 0.171501 0.582956
0.0484577 -0.11005 0.352423
-0.100344 -0.0543777 0.344304
-0.0872957 -0.00682039 0.100308
-0.107653 0.16374 0.660983
-0.0649748 0.162158 0.515601
0.0303183 0.168231 0.610655
0.0449696 0.169781 0.542547
0.0529489 0.10239 0.3361
0.128583 -0.0875623 0.354081
0.00369075 0.175105 0.478688
-0.260236 -0.0228616 0.0480623
-0.0646976 0.0529385 0.338155
0.0904725 0.162622 0.664849
-0.16131 -0.138138 0.356319
0.0991294 0.0763123 0.333307
-0.0943972 0.163521 0.694779
-0.251121 0.00815233 0.0433968
-0.0199377 -0.0644613 0.327056
-0.0200893 -0.168398 0.354438
0.127887 0.158639 0.636844
-0.14216 -0.0184168 0.0687341
-0.0400751 -0.242364 0.0834643
0.0141802 -0.023143 0.256763
-0.028659 -0.0853714 0.349428
-0.157869 -0.0102671 0.101706
0.101298 -0.00768206 0.339469
0.218348 -0.000297287 0.360393
-0.15586 0.0252031 0.364789
0.237072 -0.169498 0.031638
-0.0993553 -0.155431 0.363235
-0.0349025 -0.200431 0.0659135
-0.0432404 0.167751 0.474274
-0.0747687 0.129149 0.381417
0.0770839 0.0208084 0.0787609
-0.030244 -0.0115983 0.336321
-0.095403 -0.131876 0.35275
-0.0445339 -0.292673 0.0134262
-0.02379 -0.00832922 0.0796286
-0.0662631 0.162702 0.47988
-0.0793601 0.299696 0.0309299
0.0455413 -0.0243003 0.323795
0.0418171 0.12689 0.351129
-0.0105292 0.165315 0.685387
0.103275 0.0456569 0.329096
-0.017056 0.169658 0.527631
0.165682 0.155361 0.495031
0.150072 0.151502 0.549646
0.121014 0.157537 0.575869
-0.0812003 0.0295435 0.3346
0.186156 0.106541 0.100087
-0.110848 0.149825 0.494277
-0.166507 0.10706 0.39991
-0.00942397 0.174764 0.533844
0.269288 -0.173843 0.0539029
-0.0834382 -0.0129586 0.345636
-0.0222358 0.0900585 0.334943
-0.0449854 0.163528 0.60658
0.00630155 -0.154224 0.352918
0.117812 0.154903 0.424152
-0.000721216 -0.0780276 0.346224
-0.140641 0.0591298 0.357959
-0.265832 -0.000745582 0.068479
0.104348 -0.0166056 0.331853
0.0515063 0.170777 0.722692
0.11984 -0.113751 0.357176
0.0760674 -0.0669209 0.345464
0.0533604 0.17376 0.741443
0.0539265 0.168438 0.427756
0.239035 0.154931 0.0809629
0.141101 0.0250942 0.346058
0.0402784 -0.0288531 0.305776
-0.251257 0.0159726 0.0128473
0.232344 0.168214 0.00773814
-0.144372 0.00717048 0.351588
0.204069 0.061408 0.370478
-0.259813 -0.00167632 0.0477259
0.094223 0.121482 0.357469
-0.0628345 0.0510337 0.3379
-0.105352 -0.0108043 0.341936
0.0912903 0.0481661 0.0847277
0.00304108 0.161564 0.411716
0.0338511 0.00525037 0.225846
0.26498 -0.137586 0.0332612
0.00170698 0.176588 0.514583
-0.0180643 0.0114785 0.331723
0.0169623 0.176176 0.465894
0.0535135 0.175396 0.611755
0.0999834 0.161039 0.560956
0.118134 0.16824 0.464913
0.114373 -0.106957 0.346412
0.0556483 -0.0126989 0.107113
0.112721 0.162135 0.493681
-0.0902138 0.149491 0.433739
0.0925134 0.0222633 0.335924
-0.094792 0.157182 0.667928
0.107537 0.0421899 0.0974922
-0.117622 0.154824 0.501646
0.0941498 0.163246 0.531312
-0.072435 0.263655 0.0550858
0.0649539 0.0689424 0.327823
0.0745866 -0.164236 0.359978
0.158906 -0.108067 0.106608
0.281712 0.171425 0.0382862
0.141721 0.0515075 0.347037
-0.0935368 0.267654 0.0165929
-0.171246 0.0629845 0.371895
0.0194398 0.142877 0.378505
0.0151489 0.00376758 0.321029
-0.110146 0.138395 0.42403
0.0247306 -0.164937 0.360115
0.197399 0.138904 0.4792
-0.268868 -0.0101476 0.033188
0.0848394 0.152152 0.395051
0.06533 0.0676738 0.327734
-0.123609 0.00947509 0.35408
0.0566762 -0.0179087 0.323721
0.137684 0.163589 0.578909
-0.0637106 0.165138 0.589188
0.0789299 0.0630064 0.330239
0.0284462 -0.0383887 0.337378
0.124006 0.147406 0.407865
-0.0550359 0.218112 0.0912073
0.048131 0.166846 0.604772
-0.0857901 0.152278 0.436772
0.215821 0.0841261 0.378253
-0.0832335 -0.120356 0.349725
-0.258416 0.00506623 0.0113221
0.115265 0.168678 0.464829
0.242582 0.161881 0.0827604
-0.0917526 0.00696784 0.346195
-0.0962157 0.157667 0.671319
0.0474475 0.0110069 0.31836
0.00955041 -0.00711119 0.305034
0.0239411 -0.155816 0.353263
-0.271779 0.00598658 0.0348113
-0.158847 0.0205125 0.35832
-0.0527432 0.260128 0.0381379
0.15482 -0.102005 0.108167
0.13761 -0.080078 0.0828708
0.0600501 -0.0412149 0.118224
-0.0752821 -0.265683 0.0461314
-0.00764399 0.171599 0.740049
0.26641 -0.161603 0.0723518
-0.0129973 -0.163926 0.0767928
-0.130799 -0.0348191 0.347512
-0.0681553 -0.277112 0.0466696
0.049283 0.145359 0.381974
0.0128115 0.0285107 0.327684
-0.0767761 0.160151 0.685229
-0.168476 0.0410547 0.364369
0.265627 -0.161299 0.0714874
-0.0743397 -0.166 0.356007
0.0940435 0.170702 0.624028
0.129129 -0.138482 0.352801
-0.251207 0.0130074 0.010329
0.203639 -0.139057 0.0955029
0.0134259 0.0653352 0.318357
0.122428 0.157317 0.591675
-0.10196 0.0147679 0.347993
0.00931764 -0.168851 0.354324
-0.0188807 -0.117884 0.354601
-0.0575751 -0.117353 0.347438
-0.105316 -0.148721 0.356188
0.196656 0.0722899 0.371141
0.160263 -0.112335 0.351202
-0.0950936 0.158921 0.541387
-0.0455845 0.0182808 0.327559
0.123499 0.0279028 0.333453
0.00359973 0.172437 0.509678
-0.109812 0.0412564 0.342928
0.224633 -0.150306 0.0912875
0.179821 0.107863 0.37701
0.169625 -0.120444 0.0685208
0.187834 0.132711 0.443521
-0.0700798 -0.252077 0.0371055
0.160811 -0.0922639 0.357882
-0.0607632 0.171597 0.729185
-0.159683 -0.0177935 0.100499
0.172663 -0.101935 0.360383
0.172067 0.089422 0.363208
0.108458 0.168323 0.567488
-0.0517286 -0.13914 0.350834
-0.121214 -0.117798 0.352307
-0.00168915 0.0419865 0.0790503
-0.0621977 0.154167 0.409308
-0.130838 0.0964002 0.376913
0.105467 -0.00393726 0.339822
0.241375 0.165746 0.0668609
-0.0610974 0.237644 0.0600285
0.129668 0.165819 0.693323
0.167812 0.0417068 0.346873
-0.110584 -0.127967 0.361937
0.0544406 0.16583 0.643366
0.0477538 -0.144812 0.35899
0.163868 0.156572 0.556172
0.0280152 0.166166 0.701136
0.0396763 -0.0237524 0.135119
0.0331866 -0.0266399 0.301501
-0.0730978 0.123547 0.367452
0.0566799 0.107307 0.33807
0.056513 -0.00558164 0.101856
-0.0817047 0.146283 0.415002
-0.153697 0.12798 0.423613
-0.0148317 0.173785 0.568721
0.0325075 0.173629 0.506534
-0.0934054 0.154416 0.571237
0.0795362 0.163869 0.681075
0.085345 0.172011 0.589717
0.176931 -0.11912 0.06718
0.0848507 -0.118436 0.345892
0.120951 0.0561695 0.34041
-0.00622972 -0.088984 0.348553
0.00421807 -0.128531 0.356064
-0.10025 0.154694 0.630492
0.159789 0.157625 0.511396
0.212495 -0.145853 0.0891426
0.00442012 -0.0596961 0.10639
0.0121942 -0.0858651 0.0830286
-0.0521463 0.256042 0.0362675
0.0333561 -0.0412592 0.325973
0.0247888 0.045517 0.325173
0.0134517 -0.0693259 0.0787365
0.0380067 -0.0232002 0.269735
0.280144 0.175749 0.0444609
0.0353863 0.175201 0.438814
-0.0531588 0.167435 0.536197
-0.0196298 -0.0530204 0.332826
-0.00475511 0.0856153 0.119373
0.20992 0.0248188 0.360717
0.0196285 -0.0269619 0.170525
0.124937 0.0631958 0.34351
0.0189977 0.176196 0.453927
-0.0824234 -0.283937 0.00913343
-0.0870305 0.151424 0.418366
0.274389 0.160602 0.037718
0.175465 0.152609 0.531982
-0.0224405 -0.188682 0.0856015
-0.0800476 0.017953 0.343191
-0.00514418 0.173628 0.449201
-0.155745 -0.0190163 0.0889129
0.0757325 0.166728 0.534057
-0.0209326 0.149332 0.0738446
0.205082 0.115947 0.0725234
-0.237757 -0.0164171 0.0159295
0.204155 -0.10347 0.355517
0.0267022 0.0217386 0.101754
0.274678 -0.185173 0.0781876
0.00287705 0.166739 0.6532
0.00957977 0.0600021 0.096921
0.142503 0.15283 0.531523
-0.0537136 -0.062287 0.347666
0.0856624 0.171334 0.702405
-0.0997328 0.155293 0.641821
0.193598 -0.0751245 0.360565
0.251563 -0.154569 0.0460207
-0.0674533 -0.260304 0.0173437
0.218927 0.0104467 0.367609
0.171411 -0.0776035 0.34877
0.0743041 0.174256 0.542093
-0.128982 0.149534 0.48134
-0.0221987 -0.05183 0.328567
5.61923e-05 -0.124065 0.0784517
-0.0229109 0.168163 0.552851
-0.0663874 0.0111397 0.331815
-0.00408148 0.0594519 0.107515
0.108024 0.16906 0.451781
-0.0351911 -0.101283 0.353082
-0.143197 -0.0202571 0.0792417
0.113261 -0.0623234 0.0847735
0.178861 -0.0016805 0.347801
0.0741623 0.173452 0.621095
-0.0577035 0.164226 0.504233
-0.119062 0.15404 0.518654
0.0837278 -0.0734499 0.337728
0.115594 0.0770234 0.344428
0.0229377 -0.0232996 0.325092
-0.237307 -0.00949736 0.0105843
-0.035945 -0.15449 0.353382
0.0309834 0.00596395 0.100072
-0.260615 -0.0202848 0.0849115
0.0478241 -0.0949897 0.339175
0.0185691 0.16799 0.633315
0.0196206 -0.0545426 0.111061
-0.254591 -0.0292867 0.0586809
-0.0553751 -0.265776 0.0353639
0.00902025 -0.0133203 0.117209
-0.0161579 0.16511 0.422789
-0.244803 0.00238703 0.0458223
-0.105622 0.15707 0.52361
-0.149413 -0.0161411 0.352662
-0.257473 -0.0146855 0.0539029
0.210081 -0.14501 0.0845138
-0.0376766 0.019042 0.325978
0.0574598 0.165471 0.675278
-0.13515 0.137414 0.425995
0.108977 0.018914 0.339364
0.185764 -0.0502794 0.349562
0.146102 0.151999 0.529608
0.0277445 0.167862 0.6298
-0.0795586 0.269977 0.0111255
-0.0458178 -0.270657 0.0603883
-0.0595713 0.30159 0.0316321
-0.0370566 0.169468 0.441897
0.240341 0.154352 0.0317157
0.23475 0.152441 0.0737776
0.0714955 0.155932 0.397724
-0.0609698 -0.0121267 0.330467
0.0723565 -0.120221 0.35521
0.0257811 0.1773 0.607456
-0.0771463 -0.13117 0.359846
0.180627 -0.107628 0.361915
-0.131747 0.119354 0.402566
0.241575 0.181817 0.00119505
-0.0627333 0.161127 0.558921
0.0920231 0.164994 0.516331
0.25629 0.162284 0.0849115
-0.0707459 0.166113 0.472176
-0.00169861 0.0850615 0.114683
-0.0242278 0.173048 0.54155
-0.0295272 -0.176694 0.0948406
-0.0591507 0.16132 0.619379
-0.00146017 0.0193292 0.321029
-0.11334 0.143653 0.441521
0.214254 -0.142459 0.093873
-0.0216087 0.172103 0.671077
0.0872598 0.0351285 0.333934
0.114008 -0.0788224 0.105153
0.11894 0.161205 0.483326
0.00266425 -0.112065 0.0901793
-0.0134295 0.0503428 0.321276
0.137308 -0.0956936 0.0943876
-0.12261 -0.0675519 0.357064
0.0667717 0.166677 0.564864
0.25807 0.168692 0.0455447
0.0423352 -0.0541323 0.341327
-0.20323 -0.0181287 0.0937087
-0.137211 0.130415 0.409994
0.237196 0.145708 0.0600993
0.063568 0.0228174 0.128827
-0.0367551 -0.201183 0.0905233
-0.128921 0.0882469 0.372523
-0.0154944 0.126542 0.100632
-0.105341 0.154689 0.644194
0.108268 0.115671 0.360115
-0.0670035 -0.0829468 0.343026
0.154442 0.134211 0.406889
-0.0814612 -0.0938537 0.345701
-0.132638 0.143115 0.509581
0.0960952 0.0234451 0.32778
0.0650024 0.174226 0.658172
-0.0710382 0.249823 0.0567689
-0.0533724 -0.0785036 0.341131
0.207136 -0.133139 0.0958948
0.110442 0.169864 0.498074
-0.0147947 -0.0617635 0.33395
0.106618 -0.0785707 0.335316
-0.250435 -0.0243363 0.0353702
0.147554 0.165685 0.644641
0.0986252 -0.0613569 0.337359
0.171937 0.0898906 0.0679769
0.151157 0.0841025 0.0698227
0.0565006 0.0238923 0.314434
-0.0549974 -0.0187849 0.0993258
-0.0541836 0.255425 0.0380055
0.274616 -0.176798 0.00954048
-0.054509 -0.0169217 0.341048
-0.263495 -0.0308569 0.078292
-0.04843 -0.299562 0.0586029
0.211514 -0.0587233 0.354654
0.0292893 -0.0304361 0.135119
0.0427696 0.0281269 0.328144
0.213278 -0.0469469 0.362696
-0.157452 -0.0634327 0.360703
0.0241341 0.006662 0.124073
-0.000136055 0.0815269 0.112962
0.0867475 0.173443 0.47122
-0.0526033 0.256311 0.0588938
-0.0797838 0.282994 0.00711149
0.000884699 0.00190069 0.121759
-0.068033 0.155858 0.416265
-0.238982 -0.0159821 0.00886154
0.0857934 0.172457 0.45751
0.119486 0.13263 0.374483
0.128635 0.169148 0.665182
0.249025 -0.143482 0.0412704
-0.0669711 -0.285517 0.0213127
0.000280624 0.143765 0.380787
0.0249462 0.17832 0.528769
0.214222 0.014977 0.360845
-0.0223929 0.131822 0.109543
0.00412398 -0.147836 0.351501
0.0648773 0.082003 0.331684
0.0250762 -0.0281282 0.288859
-0.131792 -0.104908 0.352348
-0.16172 0.111687 0.402044
0.23715 -0.17388 0.0201418
-0.288378 -0.000963151 0.0299538
0.0244051 0.178291 0.493102
-0.0679754 -0.0159517 0.0755555
0.0172449 -0.0611398 0.11264
0.061985 0.164986 0.685113
0.074717 -0.0329416 0.331522
-0.00811658 -0.151427 0.0716838
-0.0485866 -0.237119 0.0753014
0.00440609 0.0329421 0.1086
-0.0800062 0.301002 0.0262434
4.12166e-05 0.0611088 0.326176
0.201239 0.128841 0.43111
0.0876129 -0.0228806 0.339225
-0.103887 0.148744 0.451223
0.153108 0.0012615 0.349666
0.0724293 0.0334174 0.0949072
-0.154442 0.123088 0.412091
0.164275 0.147488 0.501287
0.148791 -0.096929 0.35721
0.245227 0.164285 0.0252076
0.0642518 0.166003 0.707398
-0.0152101 -0.0208626 0.0823209
0.0194762 0.00532489 0.203351
0.0575763 0.000174764 0.104808
0.055568 0.176361 0.522218
0.00558679 0.162194 0.413128
0.0490452 0.0011152 0.134669
-0.0726485 -0.293287 0.0389413
-0.118771 0.0624457 0.357467
-0.10983 0.158872 0.625145
0.0091234 0.0332185 0.319702
-0.0441413 -0.0194883 0.0933564
-0.0715149 0.277107 0.0704078
0.0406826 0.0954325 0.33039
-0.0712077 -0.155124 0.355004
0.0982326 0.0391427 0.328094
0.108021 -0.0657862 0.0751802
0.224238 0.133643 0.086364
0.0445009 0.173035 0.440443
0.0607097 -0.00126538 0.323952
-0.055997 0.260183 0.0100516
0.0154723 -0.0133894 0.325188
0.0137425 -0.0227211 0.215197
-0.0540596 0.14005 0.385984
-0.0248801 0.16463 0.664266
-0.00369204 -0.0446097 0.303693
-0.192778 0.00789341 0.363651
0.101083 0.161159 0.642824
-0.019055 0.102137 0.336432
-0.00569021 -0.0491418 0.321798
-0.0100964 0.109519 0.108258
-0.0357831 0.170505 0.563667
-0.136425 -0.105631 0.353094
-0.00980711 -0.14981 0.0888814
0.0762917 -0.0146139 0.327295
-0.0638624 0.165395 0.625276
-0.0565784 0.293094 0.0370946
0.0585033 -0.026201 0.327848
0.14828 0.0828483 0.356453
0.0217484 -0.0291334 0.324257
0.0541576 0.161785 0.398389
-0.0814148 0.126345 0.381519
-0.0963579 0.0665093 0.343215
0.167725 -0.0875075 0.349158
0.0461754 -0.0191386 0.0827805
-0.0739638 0.284297 0.0120856
-0.135903 0.125422 0.415799
-0.0450713 0.274614 0.000889139
0.217977 -0.0267708 0.357752
0.0160499 0.170978 0.550491
0.0161368 0.00365146 0.175382
-0.10778 -0.0135244 0.3415
0.00852225 0.025705 0.125656
0.253468 0.172976 0.0849115
-0.0617326 0.301515 0.0317638
0.0363261 0.00371251 0.103727
-0.0698053 0.166681 0.491294
0.106289 0.170901 0.49045
-0.125595 0.127589 0.410532
-0.0706103 0.159255 0.595095
0.02734 0.00687056 0.204174
-0.0455443 0.16092 0.423511
-0.121074 0.0408569 0.355312
-0.0602182 -0.0172837 0.113518
0.256362 -0.18169 0.0849115
0.14728 0.0287963 0.347642
0.0990672 0.088141 0.342668
0.0801139 0.0239801 0.123844
0.270112 0.163109 0.0403733
0.064023 -0.0112923 0.325876
0.17025 0.105941 0.371339
0.108657 0.168289 0.546568
0.0428628 0.174857 0.466965
-0.038618 0.169264 0.480312
0.0668266 -0.169753 0.355573
0.149767 -0.156787 0.355634
0.0918339 -0.136625 0.358327
-0.0808753 0.158885 0.667211
-0.130647 0.141688 0.432412
0.00334746 0.0733329 0.108822
0.0885553 0.167501 0.451576
-0.00404448 0.173979 0.682438
0.0396103 -0.0219903 0.14898
0.0480436 -0.129954 0.347173
-0.11681 0.0237029 0.343908
0.147777 0.0755918 0.107001
-0.212769 -0.0112907 0.0622572
0.0891227 0.165591 0.712194
-0.0826081 -0.118643 0.358732
-0.0397086 -0.209016 0.0844873
0.00569618 0.175063 0.462334
0.150839 0.163528 0.646082
-0.110888 0.0341837 0.350792
0.0475748 0.018171 0.0961602
-0.258495 -0.000577919 0.0589714
0.00923167 -0.00766399 0.0950858
0.106023 0.168376 0.440076
-0.04905 -0.017887 0.108549
0.210152 0.120595 0.418677
-0.0381089 0.171432 0.467771
0.0588499 -0.0409713 0.303096
-0.156744 0.0755531 0.375934
-0.00342526 -0.0243761 0.0908428
-0.147996 -0.0441645 0.359175
0.00042486 0.175678 0.549456
0.0154712 0.0642759 0.324322
-0.225226 -0.0193567 0.081351
0.101752 -0.052138 0.336309
-0.00313462 -0.0138039 0.324963
-0.0192914 0.16831 0.556193
-0.136933 -0.00856047 0.357671
0.0783563 0.0259311 0.332486
-0.0795008 0.267041 0.00563188
0.0440062 -0.0101119 0.278835
0.0581397 0.160952 0.397265
-0.0728595 0.258134 0.0386188
0.245294 0.154935 0.0318169
0.107396 0.175243 0.72418
-0.00181301 0.00375268 0.322293
-0.0386739 -0.030287 0.331229
0.164876 0.141124 0.415246
0.0537851 0.170714 0.424218
0.269562 -0.190107 0.058636
0.00179242 -0.169796 0.356471
0.104985 -0.0928913 0.353238
0.113915 -0.0421979 0.345797
-0.078931 -0.0088238 0.338126
0.0847614 0.17207 0.58473
-0.0906353 0.166033 0.693344
0.0422149 0.173152 0.501214
0.28826 -0.154349 0.033664
-0.133565 -0.0807695 0.359141
0.187879 -0.0430107 0.349687
-0.011878 -0.0307361 0.338317
-0.0201767 0.0832369 0.327668
0.149564 0.161022 0.570268
0.0853761 0.171766 0.696664
0.151121 -0.0914651 0.0938212
0.100584 0.170375 0.516481
0.0551886 0.00038437 0.123555
-0.172211 0.0439787 0.365889
-0.114001 0.155081 0.52957
-0.129906 0.13781 0.442855
-0.139677 -0.00734985 0.0850442
-0.0926741 0.262244 0.0317659
0.199445 0.125214 0.0860877
-0.0563759 -0.26791 0.0837948
-0.00821349 0.172484 0.696662
0.170836 -0.0110123 0.345221
-0.147702 0.0952317 0.376082
0.0572806 -0.144001 0.358918
0.0165603 -0.0699339 0.0918556
0.123152 0.159029 0.460323
0.0369056 0.003153 0.181365
0.0398712 -0.0558964 0.331266
0.117783 0.068662 0.0745912
0.148017 0.160711 0.649516
0.0569607 0.165592 0.657221
0.212546 0.111661 0.409641
0.0155064 0.00582225 0.0827805
-0.014924 0.173568 0.587562
0.216685 -0.138856 0.0853828
-0.153269 0.106341 0.39193
0.0381083 0.171557 0.713446
-0.0317544 0.0656432 0.323634
0.211536 0.123612 0.0875241
-0.109561 0.157511 0.604534
-0.0042304 0.165429 0.690477
0.111102 -0.079265 0.0742376
-0.147222 0.14757 0.537765
-0.0787417 -0.0175497 0.109427
0.162243 0.144403 0.453663
0.109841 0.120324 0.364035
0.165889 -0.00634241 0.352861
0.194337 0.131695 0.428845
-0.13861 -0.0993052 0.352753
-0.039427 0.168664 0.494742
0.0594051 0.170481 0.724829
0.170719 0.106288 0.0671598
0.161172 -0.0848868 0.347996
0.00491675 -0.111482 0.352675
0.221976 -0.153822 0.0779635
-0.123496 0.0333687 0.355175
0.0938315 0.171003 0.53286
-0.0347419 -0.0182634 0.328816
-0.0487627 -0.283335 0.030803
0.112646 -0.038868 0.33588
-0.269374 -0.013467 0.0516483
0.156449 0.156384 0.465304
-0.0879808 -0.137916 0.353246
0.280633 0.194154 0.0133846
0.0215723 0.00592661 0.0688563
-0.0557024 0.0177294 0.329572
-0.274883 -0.00863581 0.0829167
0.112143 0.167785 0.535228
-0.0550623 0.278701 0.0491676
-0.0501575 -0.0854526 0.342103
-0.0553784 0.271984 0.0640862
0.160358 0.0373314 0.343562
0.195773 0.135041 0.472044
-0.05594 0.209869 0.0711925
0.270991 0.166383 0.0031601
0.229462 0.00794778 0.36143
-0.199216 -0.0101255 0.0852179
-0.0682846 0.091868 0.343233
0.0351944 0.037626 0.31903
-0.0411208 -0.0994399 0.339335
0.031237 -0.00895291 0.135119
-0.274581 0.0124478 0.0361613
0.146011 0.166215 0.648666
0.0329624 0.167342 0.636711
-0.0761793 0.153458 0.413909
-0.117788 -0.0191633 0.0905562
-0.112606 -0.00979183 0.342525
0.130988 0.164898 0.68936
0.0354928 0.166007 0.720284
-0.0552815 0.166826 0.606039
-0.0495061 0.159064 0.421746
0.245073 -0.147753 0.00574206
-0.0701274 -0.264559 0.0124913
-0.0843121 0.283252 0.0462022
-0.0817004 0.0119084 0.335062
-0.00811029 -0.102655 0.102204
0.178054 0.143348 0.508871
0.0978521 0.161156 0.632682
0.206185 -0.131893 0.0916414
-0.0566796 -0.0364051 0.334623
-0.260087 -0.011364 0.0318172
-0.00459064 0.0555356 0.0775445
0.00425364 0.0134784 0.0908166
-0.0450854 0.150742 0.397369
0.03703 0.176109 0.666086
0.0703172 0.171198 0.716751
0.200352 -0.140738 0.0701631
0.0507835 0.175637 0.600337
-0.140284 0.137517 0.432357
0.123045 0.160972 0.665233
0.0171404 0.167543 0.648682
0.256421 0.172073 0.0480857
0.162265 0.0112473 0.351865
0.277304 0.194509 0.00796403
0.00934124 -0.0627608 0.332636
-0.258491 0.00538529 0.0353475
-0.113233 0.00661146 0.351161
0.175812 0.0317563 0.348042
0.0404418 0.170903 0.719638
0.246593 0.157085 0.0369365
0.173168 -0.117844 0.0675306
0.179728 -0.145681 0.358075
0.188759 -0.132767 0.363729
-0.0720227 -0.294277 0.0656666
0.180765 0.139323 0.478333
0.00981682 -0.0161133 0.219866
0.0999675 0.0412421 0.121587
0.0112388 0.0502268 0.1148
0.141513 0.149224 0.414236
-0.0441958 0.0542625 0.333671
0.0740759 0.173533 0.614098
0.0452613 0.00855705 0.309485
-0.161134 0.00133306 0.35651
-0.0592489 -0.269135 0.0105143
-0.0178835 -0.134812 0.095364
0.213371 0.0145847 0.360468
-0.124498 0.0412012 0.356577
0.0272998 0.167125 0.733758
0.00480787 -0.104878 0.0925573
-0.0320486 0.170905 0.689121
0.0175656 0.00477643 0.0674412
0.047173 0.166692 0.615544
-0.0655634 -0.154452 0.361743
0.248581 -0.180075 0.0834002
0.164933 -0.0630426 0.356073
-0.00796368 -0.017392 0.130945
0.0522829 0.176598 0.478852
0.00520829 -0.047661 0.0819247
-0.0695695 0.15893 0.425333
-0.275343 -0.0130349 0.0849115
0.0441485 -0.0110722 0.265578
-0.0732497 -0.256047 0.00792769
-0.030568 0.034106 0.332275
0.224081 -0.0196232 0.359167
0.0642816 0.174185 0.667389
-0.126741 0.158037 0.61499
0.0806452 0.151544 0.393281
-0.042184 -0.00529887 0.103069
0.00843186 0.176365 0.564607
-0.239546 -0.0113932 0.0437567
-0.0760863 -0.0678292 0.351125
-0.0711617 -0.0240368 0.344854
-0.057549 -0.0199904 0.332757
-0.14414 -0.126096 0.355648
0.216809 0.0177465 0.367697
-0.0429925 0.164015 0.573171
0.173875 0.15468 0.563172
-0.0569738 -0.00736238 0.117414
0.0363068 0.177248 0.549702
0.00296956 -0.15977 0.354125
0.247091 0.189779 0.0176008
0.0280887 0.049862 0.324927
0.0267247 0.0922173 0.327562
0.099718 0.161973 0.534048
0.0370487 0.00771654 0.317434
0.0154129 0.125151 0.348444
0.0957104 0.170294 0.637698
0.061689 0.13631 0.361706
-0.00359284 0.0586561 0.109726
-0.132157 -0.0473759 0.357346
0.0774585 -0.140719 0.35018
0.00972271 -0.033178 0.299302
-0.133355 0.141387 0.485333
0.209454 -0.11507 0.363766
-0.072564 -0.293644 0.0152846
0.148936 -0.103235 0.358121
-0.0106401 -0.102099 0.0769056
0.137025 0.0729284 0.350096
-0.0150176 -0.169326 0.078368
0.189162 0.103206 0.0712221
0.0235431 0.0227161 0.114902
0.134593 0.14199 0.404947
-0.0164632 0.00810045 0.322636
0.012271 0.176537 0.583591
0.0449979 -0.010194 0.324125
0.0237791 0.00656009 0.218115
-0.165491 -0.00800332 0.0813475
0.136474 0.0755028 0.0713763
0.183962 0.0571717 0.356251
-0.0462497 0.170579 0.4924
-0.022104 0.132796 0.109379
-0.139811 -0.00255926 0.350035
0.107112 0.0558644 0.113286
-0.106716 0.163344 0.668413
-0.0653051 -0.299893 0.0805679
0.0339808 0.0968227 0.330605
0.262928 0.196131 0.0391267
-0.288345 -0.002835 0.0285925
-0.0610979 1.28336e-05 0.340362
-0.0628056 0.144909 0.396651
0.213566 -0.115244 0.357276
-0.0672411 -0.0198726 0.087745
-0.0169599 0.00417768 0.323346
-0.167169 0.108574 0.409352
-0.121826 0.106958 0.373042
0.133889 -0.049181 0.350466
-0.0555642 -0.270647 0.0853237
0.0128346 -0.048113 0.13161
-0.140255 0.132826 0.440262
-0.126633 -0.0112726 0.109088
0.178632 0.116078 0.397605
0.0548279 -0.0393675 0.080578
0.155391 -0.0069696 0.341409
0.107117 0.168535 0.574655
0.0489302 0.166661 0.73008
-0.0798061 0.0207331 0.334457
-0.133641 -0.00956073 0.105431
-0.0818602 0.168894 0.713439
-0.0342109 0.16622 0.552016
0.0670017 0.165355 0.612662
0.0754375 0.174506 0.73799
0.0231871 0.178282 0.539631
0.0554108 -0.0773068 0.336109
0.0486016 0.120381 0.351939
0.176955 0.098306 0.369386
0.0364487 -0.000110515 0.330781
0.122362 -0.0967846 0.345544
-0.0197111 0.0823846 0.327208
-0.179515 -0.0790444 0.356401
-0.168007 0.0776718 0.380769
-0.0418944 0.110184 0.347546
0.0595801 0.152829 0.393069
-0.114318 0.0560036 0.354926
-0.0455844 0.0475435 0.326895
0.0822166 0.164764 0.548344
0.21095 0.122147 0.0817032
0.058374 0.127373 0.359135
0.195138 0.119785 0.0970754
-0.048945 -0.00369233 0.0847742
0.0902603 0.125807 0.361406
0.14274 -0.0148381 0.348312
-0.102248 0.142034 0.425824
0.00923349 0.167337 0.641187
0.0811804 0.144793 0.383477
0.0303919 0.167476 0.425155
-0.0288531 0.0915219 0.337272
0.16406 -0.0878296 0.348672
-0.0698796 0.0648693 0.334316
0.110286 0.130467 0.374133
0.172683 0.15086 0.480683
-0.106381 0.0234679 0.34094
0.1499 0.157323 0.451269
-0.0578595 0.250827 0.0813866
0.135419 0.165508 0.681627
-0.0129188 0.165184 0.685978
0.142555 0.154729 0.598139
0.0152762 0.0473662 0.0875692
0.0901894 -0.0551675 0.124036
0.0607811 -0.0470966 0.34116
0.149493 0.149948 0.462335
0.00179374 0.0762022 0.07594
0.0497543 0.00495413 0.0823195
0.147504 0.152536 0.564247
-0.029582 -0.0795728 0.33866
0.275825 -0.170567 0.00247686
-0.115387 0.140156 0.413393
-0.069342 0.164167 0.589973
-0.0429443 0.174621 0.0843533
0.159321 0.119053 0.378099
-0.116821 -0.00651615 0.0858302
0.128771 -0.160651 0.355168
-0.0439533 -0.281983 0.0847333
0.0325814 0.165913 0.717081
-0.0774466 0.0153366 0.342779
0.0551253 0.114517 0.343367
-0.170315 -0.0588858 0.362978
0.0428143 -0.0443268 0.329646
-0.00173353 0.0496331 0.100505
0.0901282 0.17121 0.580953
0.0662161 -0.0116195 0.326073
0.104118 0.119964 0.361699
-0.0847349 0.161552 0.589989
-0.0721376 0.264409 0.0539365
-0.0222719 0.0643027 0.322699
0.103325 -0.0143175 0.331407
-0.115576 0.00375345 0.351819
0.149361 0.14025 0.419022
0.0231272 0.00637296 0.215723
0.173297 0.0366763 0.356483
0.163832 -0.115716 0.0755154
0.00105208 0.033778 0.0800703
-0.0466144 -0.017077 0.116631
0.160494 -0.0561342 0.345851
0.0728583 -0.0323804 0.329733
-0.0160032 -0.0178253 0.111826
0.0404454 -0.0211253 0.179808
0.161312 0.164803 0.62214
0.0785503 0.159489 0.403292
0.0409709 0.147458 0.37326
0.269598 -0.162279 0.0683627
0.187021 0.0390489 0.354057
0.0848927 0.163265 0.5822
-0.0656924 0.256567 0.0369987
0.106991 0.16914 0.629626
0.0104471 -0.0215111 0.301395
-0.0388214 0.164353 0.427482
0.0536056 -0.152717 0.35275
0.0403848 -0.000206049 0.230445
0.0245143 0.177844 0.564507
0.0695574 -0.147509 0.359478
0.0354974 -0.079944 0.33549
0.281619 0.162314 0.0172118
0.0990884 -0.049975 0.335641
0.00638217 0.0227793 0.101094
-0.0299301 0.163846 0.693683
-0.274238 -0.0185179 0.0401302
0.0667569 -0.0465365 0.111354
0.00521431 -0.0103759 0.328388
0.128998 0.165009 0.564442
0.0787411 0.173631 0.736177
-0.0944941 0.154762 0.493114
-0.000293612 0.174932 0.63887
0.0258775 0.175859 0.683077
0.0728836 -0.0216985 0.3375
0.0867528 0.17134 0.650288
0.0112559 -0.0306428 0.323213
-0.261751 0.00558407 0.0352789
-0.153996 -0.133673 0.363965
-0.00655159 0.1625 0.402655
-0.000196256 0.16073 0.395352
0.00728057 0.168547 0.59168
0.226716 -0.00518637 0.363989
0.0324256 -0.0307061 0.0763983
0.0338947 0.175309 0.69165
-0.165542 -0.00107824 0.364507
0.0868225 -0.0531124 0.330803
-0.00871677 -0.0964407 0.0800267
0.00305664 0.0270245 0.320402
0.196516 -0.131561 0.0650494
0.00170749 0.0822805 0.0935663
0.140838 0.0667758 0.341733
-0.104925 0.158576 0.603995
-0.0315084 -0.216261 0.0844203
-0.143978 -0.019259 0.0875031
-0.0604468 0.26776 0.047157
0.0479912 -0.0381852 0.0979572
-0.0134078 -0.0736091 0.346032
0.220031 -0.0510915 0.357092
0.0558833 -0.0447214 0.330581
-0.115762 0.0784458 0.363041
-0.0198346 0.108438 0.104864
-0.0565032 0.294144 0.0383596
0.0384835 0.0828612 0.328325
-0.07015 -0.263239 0.0421212
0.00237588 0.172964 0.502257
-0.115947 0.0420483 0.345375
0.146574 0.168092 0.661033
0.247542 -0.158545 0.0458193
0.0625217 0.0907574 0.330229
-0.0221771 -0.132095 0.348017
0.276937 -0.180541 0.0578903
0.147916 0.0171376 0.339465
-0.101572 0.157877 0.469752
-0.0067321 0.173452 0.691796
-0.0488211 0.0506055 0.334936
0.18538 0.128391 0.407799
0.0692855 0.174232 0.609652
-0.112648 -0.0136797 0.342611
0.0830568 -0.0486377 0.343093
-0.0910002 0.0632 0.34027
0.0038747 0.0955465 0.330947
-0.0761736 0.30109 0.0261716
-0.0538397 -0.137051 0.359061
-0.0612582 -0.0175095 0.111235
0.171526 -0.116555 0.352988
-0.106314 0.0488271 0.351117
-0.0635464 0.115557 0.362779
-0.0886333 0.156611 0.638725
-0.0738533 0.122106 0.371627
-0.0273232 0.172395 0.547577
0.0908611 0.169891 0.719916
-0.0709064 -0.252564 0.0354417
-0.111078 0.155882 0.527663
-0.0434768 -0.271548 0.0466139
-0.113549 0.0461775 0.345227
-0.036312 0.166684 0.531834
0.123626 0.167748 0.488833
0.062058 -0.0322375 0.0804095
-0.0519221 -0.0823031 0.351195
0.081871 0.163769 0.586996
0.114275 -0.0933039 0.336647
0.266166 -0.149617 0.0168522
0.0940436 -0.0290285 0.340988
-0.0562671 0.163615 0.459112
0.156353 0.15569 0.45743
-0.0319199 -0.102519 0.352985
0.0307982 -0.013849 0.0666254
-0.000951804 0.00416088 0.082655
0.0944882 -0.0716166 0.34838
-0.0976257 0.153446 0.582694
-0.143502 0.0503284 0.364145
0.0393557 0.170467 0.723296
-0.0189983 0.169997 0.71097
0.179098 -0.109473 0.352842
-0.073511 -0.249482 0.030573
0.0853546 0.163742 0.556769
-0.0390937 -0.0470307 0.334011
-0.0569251 -0.156972 0.354568
0.0626577 0.0106954 0.127657
0.189595 0.0786886 0.364224
0.187005 -0.107131 0.353674
0.0289631 -0.0456478 0.328745
-0.00411605 0.168517 0.430491
0.149396 -0.0499753 0.344025
0.282111 0.191849 0.0213465
-0.125534 0.152343 0.578744
0.0269816 -0.110259 0.341887
0.142126 0.0634553 0.341173
-0.0610158 -0.297026 0.0243345
0.237649 0.154332 0.0239919
0.0780399 0.163212 0.413941
-0.0620737 -0.270309 0.0598214
0.00765265 -0.0923339 0.104977
-0.0422647 0.277039 0.0193019
0.058141 0.092477 0.333867
-0.0221962 0.173908 0.51601
-0.00114175 -0.0940358 0.0761724
-0.0828233 -0.261287 0.0375694
-0.150677 -0.0179888 0.0993266
0.247756 -0.184054 0.0277928
-0.120155 0.115865 0.391145
-0.119955 0.124678 0.401641
0.00766126 0.128056 0.359855
-0.196013 -0.0187666 0.088083
0.244598 0.199535 0.0272718
0.185255 -0.123024 0.362916
0.143764 0.161367 0.503194
-0.0344641 0.119478 0.35477
-0.00899945 0.174046 0.625102
-0.0075754 -0.00184467 0.081446
0.00416732 0.0297057 0.320221
0.1719 0.146985 0.55087
0.262052 0.19015 0.0447407
0.101117 0.164489 0.458797
0.103952 0.170788 0.498983
-0.0449395 0.171148 0.482774
-0.123692 0.128054 0.409851
-0.0623876 0.165515 0.609789
-0.256283 0.0112486 0.0287005
0.260822 0.17775 0.0716356
0.239605 -0.154199 0.0445149
0.0285008 0.17701 0.624756
0.192511 0.052804 0.36477
0.210418 0.120897 0.0768891
-0.13799 0.140861 0.495953
-0.121146 0.146646 0.541034
-0.178683 -0.021216 0.0700335
0.0371413 -0.00968237 0.0666254
-0.0150287 -0.128069 0.356318
0.234915 0.189423 0.0431198
-0.0969854 0.161428 0.629569
-0.129977 0.149857 0.488891
-0.0117986 0.170163 0.525911
0.0303089 0.0460161 0.31834
0.189346 0.0761495 0.363049
-0.115509 -0.0215136 0.07138
0.0932005 0.0405767 0.0764845
0.13048 0.144912 0.408632
-0.0104653 -0.114105 0.110151
-0.0696391 -0.0652929 0.340484
-0.0609221 0.15267 0.40468
-0.0573701 -0.285303 0.0440323
-0.011847 -0.155458 0.0704863
-0.175108 -0.0179739 0.0974938
0.187721 -0.00117045 0.358874
0.174957 0.0927174 0.0767816
-0.113715 0.137783 0.405207
0.134893 -0.135512 0.360933
0.0691514 0.163254 0.414304
-0.0288088 0.169357 0.73626
-0.0591109 0.27392 0.0470529
0.0545328 0.162462 0.400381
0.106417 0.155744 0.416615
0.0449141 0.17617 0.582847
-0.0504013 -0.280682 0.0456765
-0.046837 0.219906 0.0710576
-0.139967 0.0963819 0.373554
0.0282693 0.0150309 0.317679
0.0867828 -0.0721901 0.337871
0.268341 0.179048 0.00650198
-0.0683401 0.0956529 0.344541
0.268469 0.173398 0.0680004
-0.181074 0.00246112 0.363497
-0.118991 0.147299 0.525932
0.0406712 0.06903 0.318784
-0.139173 0.00353561 0.358224
0.0403433 0.157315 0.399794
-0.140306 0.146576 0.493878
-0.0409969 -0.208841 0.0738322
-0.0737884 0.164768 0.457438
0.050117 0.0188969 0.0809761
0.17124 0.153695 0.584583
-0.248276 -0.00678236 0.0631889
-0.00303083 -0.0271047 0.327603
-0.119556 -0.00751438 0.094493
-0.0476101 -0.0197101 0.0909163
0.0926615 0.166916 0.470049
0.14275 0.154106 0.588375
-0.105032 -0.105046 0.349177
0.128055 0.163574 0.682952
0.0547429 0.165467 0.695896
-0.127743 0.104328 0.381706
-0.0542253 0.135358 0.377702
-0.0355428 0.0775258 0.335284
-0.280446 0.0206074 0.0339418
0.215924 -0.117731 0.361169
0.00326434 -0.115151 0.0767594
0.0981694 0.0942028 0.340029
0.144426 0.15041 0.444447
-0.0664758 0.160376 0.575659
-0.0464827 0.131699 0.37022
-0.0888715 0.103338 0.359298
-0.139004 0.131441 0.414753
0.111556 0.16848 0.52051
0.116191 0.151874 0.413393
0.172162 -0.0523011 0.347417
0.282275 0.184789 0.016854
-0.0411216 -0.286782 0.00640882
-0.00186303 -0.0368282 0.325891
-0.0445135 0.210113 0.0809647
-0.183713 0.0237553 0.365701
0.254706 -0.169774 0.0126649
-0.0363883 -0.26236 0.00267786
0.0191775 0.0374701 0.0798261
-0.106643 -0.143631 0.355477
0.0397734 0.177705 0.512177
0.14097 -0.146104 0.355237
0.0953422 0.161658 0.590259
0.0732884 0.16442 0.686281
0.170224 0.147088 0.538678
0.189322 -0.12043 0.0995056
-0.0495544 -0.127501 0.357712
0.00870969 -0.00973983 0.198268
0.0666326 0.165832 0.584983
0.133995 0.0377659 0.335953
0.219937 -0.10365 0.35606
-0.0593796 -0.269052 0.0105371
0.178106 -0.125502 0.073378
-0.177622 0.104963 0.404801
0.0583854 0.174711 0.462175
0.0563395 0.175154 0.624763
0.169042 0.154273 0.503444
-0.12387 0.153047 0.611267
-0.0765339 -0.0278094 0.337084
0.137256 0.0829765 0.346104
0.189863 0.145383 0.514878
-0.0566181 0.110823 0.356609
-0.00600593 0.166365 0.650298
-0.0531012 0.259733 0.0797153
0.13843 0.113818 0.371744
0.0947698 0.02761 0.336136
0.0141707 -0.0738171 0.101926
-0.151513 0.143068 0.509582
-0.143753 -0.145254 0.358832
-0.00822113 0.0197635 0.317288
0.0469586 -0.0289907 0.294214
0.183365 0.0957465 0.377244
-0.0764952 0.264549 0.0286645
-0.00910596 0.173892 0.478069
0.00995776 -0.0244719 0.0826126
0.11485 0.162816 0.685474
