0.208123 0.135851 0.452919
-0.124957 0.158432 0.617455
0.0936045 0.132758 0.369166
0.0940755 -0.05773 0.0766549
0.123794 -0.0188241 0.335774
-0.0804261 -0.0270647 0.346891
-0.0549088 -0.0181228 0.105778
-0.0288439 0.147085 0.388213
0.0228681 0.168086 0.636407
0.0403637 -0.000185693 0.162159
-0.0396121 -0.20575 0.0786831
0.111621 0.167827 0.577645
0.278932 -0.175132 0.0594966
-0.0310777 0.0550579 0.313367
0.0629519 -0.0799345 0.347115
-0.0561427 0.258288 0.0849115
0.0962573 0.166353 0.477573
-0.120557 0.146929 0.509422
-0.247899 -0.0196295 0.0849534
0.00112977 0.0780563 0.113124
-0.0439735 -0.281126 0.0777977
0.222058 0.106319 0.401856
0.0296137 0.17562 0.462906
0.117566 0.047802 0.0798394
0.233833 0.149609 0.0873292
-0.181063 0.0447584 0.373471
0.117566 0.166965 0.598558
-0.102874 -0.155849 0.361098
0.0202517 -0.0491738 0.124246
0.228522 -0.0849398 0.354768
-0.0345706 -0.094164 0.351679
-0.0840333 -0.271888 0.0346299
0.0604012 0.0420853 0.314659
0.0778577 -0.17147 0.353954
0.164733 0.0676865 0.357952
-0.0397352 0.169642 0.617492
0.0483122 0.16579 0.707753
-0.219367 -0.0116029 0.0888116
-0.0599934 0.16732 0.459107
0.203178 -0.0230482 0.361603
0.0778634 0.0207957 0.113071
0.216711 -0.147246 0.0929264
-0.0242075 0.00543871 0.323783
-0.237394 -0.0168766 0.0221071
-0.196198 -0.0220051 0.360594
0.250746 -0.149006 0.00668575
-0.0937017 0.276764 0.0282006
-0.0697116 0.0471537 0.339638
-0.0776099 0.1584 0.551924
0.170809 0.131081 0.399067
0.168016 0.155029 0.513626
-0.0785261 0.159562 0.675717
0.0218252 -0.0275085 0.100226
-0.119728 -0.0831857 0.348541
0.110612 0.0475374 0.117981
0.250752 0.196543 0.0385264
-0.275038 -0.00881954 0.0826029
-0.0328167 -0.0392304 0.341469
0.0182173 0.114248 0.339272
-0.0753639 0.114266 0.360733
0.123966 -0.0943158 0.345309
-0.00603611 0.0552681 0.0780341
-0.141223 -0.00772617 0.358695
0.0374962 -0.02418 0.215826
0.0420695 0.176467 0.575925
-0.00739544 0.169466 0.548522
0.0859556 0.17157 0.642431
0.0344944 -0.0268223 0.335693
0.0337016 -0.124557 0.345308
-0.0222859 -0.148573 0.0708105
0.0364926 0.14752 0.385186
0.0739815 -0.0383026 0.124128
-0.0717854 0.153155 0.4103
-0.161421 0.137991 0.462113
0.120345 0.07076 0.336576
-0.119802 -0.0161467 0.110428
-0.0152973 0.164952 0.6908
-0.041188 0.203017 0.0765545
-0.0425422 0.267194 0.0343962
0.171715 -0.0608448 0.347645
0.150841 0.165793 0.648584
0.098433 0.164301 0.426563
0.15242 0.15649 0.451563
-0.00155086 -0.0719919 0.082735
-0.0229624 0.128006 0.110223
-0.150306 -0.0204391 0.0774726
0.0191358 0.00288013 0.0666254
0.191154 0.10598 0.0803848
-0.0832135 -0.135717 0.36082
-0.0157429 -0.0209957 0.0809819
0.064278 0.168766 0.526728
0.00815965 0.0212026 0.120705
0.18192 0.0866589 0.365255
0.270303 0.153729 0.0322186
-0.0643402 0.162061 0.521554
-0.239843 0.0163276 0.00929251
0.124401 -0.0841081 0.115163
-0.111934 0.153379 0.449827
0.0555748 0.173898 0.740738
-0.0689607 -0.292472 0.0567621
-0.184149 0.0974851 0.397545
0.15494 0.0126439 0.349711
0.163298 0.165274 0.620646
-0.0285148 0.111709 0.345641
-0.0387513 -0.289484 0.00919267
-0.147702 -0.0607252 0.351186
0.0103151 0.000100959 0.306881
0.0750682 -0.11948 0.345424
0.0746778 -0.0256042 0.338268
0.125938 0.0570903 0.0731679
-0.15503 -0.143139 0.355174
-0.120987 0.152902 0.565242
-0.0794013 -0.00736255 0.0745197
0.0174006 0.0641539 0.318003
0.0174503 0.00474334 0.24294
0.20753 -0.04325 0.361635
0.121606 0.166457 0.520151
-0.060992 0.0858517 0.339663
0.231057 0.171638 0.0260966
-0.000207707 0.0904026 0.0746461
-0.0423565 -0.252878 0.0747242
-0.0849486 0.156525 0.622613
0.229095 0.0654087 0.374944
0.161879 0.155288 0.473519
0.0898872 0.0325547 0.334701
-0.0516786 0.258596 0.0600559
0.00673953 0.165372 0.421163
0.142511 0.110609 0.366272
0.00657714 -0.0689137 0.333952
0.255535 -0.186426 0.0849115
0.120133 -0.140746 0.360395
-0.0665906 -0.0853052 0.352739
0.0151534 -0.0821781 0.336066
-0.115947 0.0226481 0.351929
-0.0841636 0.166711 0.711825
0.188063 -0.108665 0.362395
-0.0165195 0.173201 0.478615
0.0123532 -0.0213819 0.175294
-0.0287164 0.0976357 0.339021
-0.283153 -0.0202232 0.0364299
-0.265768 0.0115431 0.0443961
0.251317 -0.180994 0.0288785
-0.110751 0.124644 0.396202
-0.0391092 -0.136682 0.358171
0.12748 0.14235 0.391434
0.000368349 -0.0412591 0.300918
0.0989771 -0.0632367 0.337706
0.0105788 0.169875 0.734726
0.243057 -0.152591 0.0441437
0.261108 0.178081 0.0659975
0.193948 0.0283403 0.362285
-0.142702 0.102549 0.379063
-0.0138209 -0.00635144 0.124387
0.0584219 0.081252 0.330578
0.186549 0.151393 0.539749
0.147283 0.0839819 0.108959
0.0744516 0.0129748 0.332423
0.0744046 0.172983 0.674844
0.0546847 -0.00759505 0.116495
0.235263 -0.148647 0.0617006
-0.0239204 -0.160207 0.10312
-0.0120557 0.166904 0.613296
0.213867 0.113423 0.412053
-0.0631189 0.299704 0.0319231
0.0946963 -0.0508145 0.344763
-0.0167196 0.173036 0.649636
0.0041035 0.0255367 0.0804115
-0.120885 -0.0204669 0.0789316
0.00653871 0.142458 0.378516
0.058859 0.165502 0.410566
0.0414595 -0.148212 0.351603
-0.0432372 0.212612 0.0638021
0.201416 0.143319 0.484741
-0.0930656 0.0772463 0.345758
0.0586363 -0.0401609 0.302715
0.07735 0.0291248 0.0782814
0.110515 0.161757 0.665717
-0.0518548 -0.00329391 0.338853
0.183408 -0.11144 0.0681413
-0.00754079 -0.131025 0.347741
0.0350951 -0.0298825 0.135119
-0.0408979 0.164444 0.565434
-6.41886e-05 0.033665 0.328226
0.0893309 0.0451876 0.0972651
0.0466973 0.166797 0.611035
0.288586 -0.173221 0.0275164
0.0481152 0.118741 0.350062
0.144166 0.036863 0.34682
0.00183067 -0.0298243 0.337467
0.0254013 0.178279 0.512724
0.171694 -0.0246259 0.346334
-0.0701204 -0.264853 0.0037126
0.129677 -0.0736799 0.0731334
0.0352011 0.166395 0.678871
0.00465348 0.175745 0.581093
0.0240489 0.00663755 0.201588
0.271957 0.160172 0.00939348
-0.113326 -0.0456878 0.345657
-0.190147 -0.0505816 0.357515
0.151228 0.151192 0.548142
-0.135449 0.142464 0.535003
0.108697 0.167091 0.437618
-0.143948 -0.103714 0.362339
0.0830182 0.165643 0.709359
-0.0318651 0.168631 0.433269
-0.0858686 0.163047 0.489574
-0.113447 0.161814 0.651489
0.0290411 0.0187867 0.11558
-0.0958916 0.00071807 0.347376
-0.0447463 0.255616 0.0179516
0.0531838 -0.0411935 0.0812702
0.0438302 0.0051844 0.291892
-0.0112473 -0.105174 0.0793338
0.0890296 0.0657454 0.325736
0.20674 0.13266 0.0722543
0.0389907 0.0179768 0.328718
-0.064764 0.12972 0.372202
-0.0505853 0.162236 0.692212
-0.082702 0.263342 0.0745795
-0.125022 0.0375091 0.356271
-0.220222 -0.0211563 0.0681273
0.0677191 0.1721 0.450962
0.112067 0.00241467 0.331212
-0.0917084 0.289671 0.00710858
-0.273289 -0.0278036 0.0612122
0.145824 -0.114618 0.359466
0.0607694 0.176702 0.499626
-0.0355978 -0.188305 0.0702671
0.127363 0.167068 0.6293
0.0924466 -0.100682 0.343891
-0.0429633 0.171044 0.493925
-0.0322384 0.182232 0.0659691
-0.0519562 0.16778 0.655051
0.183348 0.133394 0.417889
-0.137083 0.139342 0.477316
0.0895067 0.163408 0.546471
-0.148721 -0.0377005 0.359403
0.139566 -0.00246805 0.337501
-0.0350876 -0.273116 0.00120829
0.002549 0.0784288 0.322538
0.184401 -0.117008 0.101198
-0.0611216 -0.16778 0.354641
-0.274095 -0.0150623 0.0196404
0.00389059 0.0427447 0.12799
-0.120011 -0.117564 0.352179
0.117214 0.0988289 0.345534
-0.0156884 -0.0729366 0.331727
0.0606662 0.00294618 0.0811517
-0.0995628 0.158135 0.533893
0.26902 0.153744 0.0703118
-0.0798756 0.157442 0.585517
-0.0315978 0.0220783 0.324688
0.0782729 -0.0619667 0.318136
-0.0127153 0.126652 0.0754031
0.275002 -0.135747 0.0273176
0.0715456 0.165253 0.590521
0.134204 -0.0575131 0.342073
0.112187 0.141174 0.389748
-0.173778 0.00889839 0.36205
-0.183104 -0.00931996 0.0649866
-0.0418156 0.183664 0.0985397
0.0481539 -0.00696976 0.333078
-0.155805 0.0705442 0.373547
-0.0676765 -0.116851 0.348028
0.0613856 -0.0432958 0.340545
-0.000470676 -0.100603 0.340514
0.131486 0.15717 0.482477
0.011123 -0.00155013 0.139362
0.00844468 -0.0107937 0.0928494
-0.0204418 0.142406 0.0927709
0.0490747 0.175509 0.648616
0.0879829 0.171645 0.597207
-0.10649 0.145832 0.420842
0.194204 -0.0739309 0.352149
0.258934 0.175875 0.0365508
-0.096366 -0.0681731 0.344336
-0.0710863 -0.298049 0.0275226
0.154615 -0.0869638 0.356553
0.0959682 -0.0645802 0.121513
-0.00485362 0.0980711 0.100157
0.090217 0.165837 0.510832
0.0382741 0.170357 0.544455
-0.184281 -0.0186704 0.0899693
0.213246 -0.130791 0.355396
-0.0614188 -0.25977 0.0278598
0.0192965 -0.0579266 0.103622
0.119167 0.158083 0.549066
-0.0769572 0.253321 0.0350395
0.149671 0.15366 0.58945
-0.0527681 0.0174094 0.337898
0.281957 0.181637 0.0377632
0.0305835 0.169697 0.430834
-0.249267 -0.00179917 0.0493159
0.0289645 -0.0280475 0.0745851
0.241063 0.19502 0.00901915
-0.162934 -0.0177387 0.363829
-0.0381521 -0.279986 0.0444755
-0.112432 0.0918939 0.369233
0.0410552 -0.0609262 0.332134
0.193984 -0.00521752 0.35253
0.189388 0.0621531 0.364975
-0.0791454 -0.0616759 0.341745
0.0235559 -0.0279392 0.252308
-0.0539888 -0.0361028 0.343394
0.207207 -0.00725247 0.363696
-0.0576861 -0.265098 0.0651082
0.0127043 -0.146967 0.359231
-0.0757347 0.153871 0.430243
0.0424467 -0.00399344 0.256778
0.18221 0.0993208 0.0667013
0.0768446 -0.0363358 0.0920959
0.00501142 0.155872 0.386025
0.24574 0.157864 0.056863
-0.0368711 0.166444 0.534115
-0.00479135 -0.0214414 0.106909
0.00651822 -0.0433651 0.089768
-0.00610692 -0.00117906 0.0816699
-0.0531892 0.0536809 0.328287
0.212071 -0.132802 0.0693839
-0.0103875 0.165268 0.731129
0.0614237 0.174849 0.61768
-0.0976344 0.0481666 0.347937
-0.288545 0.00896973 0.0320185
0.00692976 0.175375 0.667101
0.109541 0.0600351 0.0939434
-0.0878858 -0.0176407 0.107801
-0.0475086 -0.00840996 0.0774488
-0.0667339 -0.27458 0.0819624
-0.0409153 -0.0722447 0.348193
0.238953 -0.181508 0.0240504
-0.00411984 0.172382 0.502269
-0.0966199 -0.103057 0.357501
0.125693 0.111755 0.364626
-0.00641924 -0.136477 0.0987237
0.018329 0.0361618 0.0975402
0.0100214 -0.0168305 0.21927
-0.00251629 0.172764 0.448923
0.198983 0.0923175 0.383467
0.129655 0.154637 0.41716
0.0809936 0.153519 0.391981
0.0434571 -0.00753165 0.0990068
-0.0551943 0.233731 0.0882625
0.100319 0.169857 0.62263
-0.158593 0.0337912 0.360406
0.0197566 0.173745 0.704958
0.113498 -0.0817133 0.352196
0.0665632 0.131823 0.363729
0.137317 0.0650278 0.0923203
-0.13557 0.140193 0.434129
-0.0934413 0.160446 0.475194
0.190787 0.112314 0.09866
0.00698949 -0.0970802 0.0964672
-0.0818599 0.266627 0.00274633
0.0651397 -0.10826 0.342641
0.0216114 0.000590749 0.33016
-0.0436705 -0.222407 0.0637462
-0.157873 0.144842 0.499616
0.0313512 0.0330813 0.318834
0.179712 0.145095 0.451273
0.1177 -0.112306 0.347419
-0.00918407 -0.0258699 0.325036
0.233603 -0.0600289 0.355359
0.0169006 -0.00322781 0.271054
-0.0934634 0.0107494 0.337762
-0.122957 -0.152164 0.35617
-0.0194509 -0.178617 0.0890482
0.132639 0.163087 0.67815
0.1563 -0.0918315 0.0705459
0.108567 -0.076481 0.0947093
-0.172222 -0.0167622 0.100005
0.169036 0.10778 0.380381
0.0296756 0.0936962 0.33034
0.0240574 0.164805 0.397765
0.143222 0.0830299 0.348151
0.0233643 -0.0527083 0.0804635
-0.161558 0.114322 0.404644
0.156651 0.139591 0.425539
0.189288 -0.0522543 0.358898
-0.0596297 0.161293 0.602767
0.0185592 0.168953 0.600117
-0.0997349 0.103229 0.370681
0.103462 -0.0268029 0.332811
0.0963517 -0.130081 0.357662
-0.00344853 -0.134899 0.0776932
0.0146807 0.176092 0.478677
-0.0859243 -0.0894431 0.354712
0.0137732 -0.0282575 0.314894
0.0396919 0.000462975 0.225838
0.0243162 0.170638 0.56376
0.119205 0.167889 0.461631
0.189679 0.144689 0.512984
0.154896 0.149685 0.500256
-0.0689141 0.276055 0.0575742
0.0360126 -0.0986075 0.349671
-0.0778697 0.249052 0.0591713
-0.0852159 0.127607 0.385398
-0.0293356 -0.162307 0.361795
-0.0121733 0.126462 0.359147
0.035096 0.00490008 0.134
0.108627 0.170475 0.491826
-0.0439221 0.155874 0.406801
0.15029 -0.0368278 0.352352
-0.111258 0.149988 0.588006
-0.10666 -0.064807 0.354898
-0.0918617 0.159957 0.517887
0.117244 0.0285836 0.33215
0.277998 -0.155288 0.047995
0.123133 0.160371 0.656119
-0.131701 -0.0576689 0.357753
-0.08554 0.1575 0.649218
-0.0237544 0.114158 0.0851751
0.229361 -0.0250057 0.358393
-0.0271699 0.166314 0.586911
0.0429579 -0.00579686 0.0677652
0.210141 0.0435516 0.368203
-0.120026 -0.0154687 0.344325
0.170958 0.105005 0.085056
0.0646424 0.171459 0.715616
-0.0639513 -0.300286 0.0808702
0.09648 0.175087 0.730414
0.046728 0.0581238 0.319607
0.0581678 0.147473 0.385167
-0.288228 -0.00926158 0.019264
0.151905 0.127186 0.384052
0.0606973 0.173214 0.477414
0.275204 -0.168414 0.0797895
-0.172726 0.128252 0.439256
0.0730586 0.174102 0.566513
0.144455 0.05867 0.341153
-0.143931 0.016426 0.351629
0.00369769 -0.0665052 0.117627
-0.121389 0.114599 0.390345
0.266938 -0.15185 0.0323873
0.176714 -0.127218 0.354954
-0.0337116 -0.00499356 0.103396
0.0199058 -0.0439718 0.328864
0.247434 -0.175556 0.0744762
0.15282 0.142586 0.407342
0.168638 0.159862 0.594693
0.0820379 0.163428 0.615951
0.140582 -0.159009 0.356388
0.139579 0.163153 0.565972
-0.100231 0.167867 0.687503
0.0355409 0.13525 0.36699
0.100016 0.161031 0.561288
-0.0439592 0.167643 0.475157
0.139154 -0.142444 0.362092
0.0515018 0.0171477 0.115264
0.274719 -0.182766 0.0239649
-0.109517 0.157181 0.599613
-0.0577944 0.271668 0.0356013
0.177972 0.0168495 0.356592
0.107105 -0.160563 0.355425
-0.0567041 0.161664 0.630256
0.0920865 0.163711 0.688964
-0.0320107 -0.0190222 0.328628
-0.147143 0.0489718 0.36494
-0.169538 -0.0782061 0.362621
0.0429165 -0.0159698 0.191028
-0.0280176 -0.201803 0.0966032
-0.00596271 0.0103261 0.321698
-0.166656 -0.118544 0.363406
0.0435967 -0.171731 0.353985
0.118735 -0.0579706 0.348663
0.0607445 -0.128669 0.347278
0.242906 0.154498 0.0366944
0.0542283 0.0210382 0.0900209
-0.0611023 0.11545 0.357408
-0.0799325 0.291464 0.027311
0.0423588 -0.0174179 0.316412
0.0649101 0.175172 0.548736
-0.0728688 0.0636762 0.334525
0.0471701 -0.0375441 0.10219
0.0312935 0.176561 0.658272
0.271806 0.187181 0.00249603
-0.0994012 0.138808 0.399347
0.0924685 0.0355432 0.12346
-0.0304561 0.17061 0.669861
0.128464 0.0690022 0.113739
-0.0612473 0.166567 0.713036
0.135128 0.163896 0.500558
0.130769 0.155322 0.441161
0.0666887 -0.148369 0.359605
-0.00617628 0.174318 0.632763
0.236434 0.169575 0.00222266
0.151773 -0.0951461 0.109446
-0.150292 0.143042 0.512883
0.0348297 0.166366 0.729988
0.0146698 0.177354 0.539791
-0.0348557 -0.252296 0.0196119
0.199978 0.122501 0.430957
-0.0532381 -0.0997232 0.336263
0.226549 0.148478 0.0621547
-0.26093 0.0125205 0.023101
-0.126319 0.137104 0.414691
0.0156801 0.00317763 0.168859
0.100314 0.080859 0.341114
0.0819829 -0.0741604 0.347453
0.18679 -0.130559 0.0793427
0.0658134 0.0617993 0.328179
0.108054 0.0480071 0.337868
-0.0821072 -0.284665 0.00847732
0.0527788 -0.0228806 0.134314
0.0156509 -0.0245607 0.139552
-0.110976 -0.00698441 0.0926732
-0.133206 -0.132308 0.355531
0.0114174 -0.171775 0.354035
-0.0610081 -0.256084 0.0433788
-0.0364225 0.12825 0.36409
0.224488 0.0874886 0.386329
-0.017794 0.0481136 0.329005
-0.052143 -0.245243 0.0615112
-0.0019966 -0.00327707 0.332651
0.0974095 0.170568 0.527279
0.0036226 -0.093691 0.12241
-0.168762 0.090124 0.38367
0.25311 -0.189798 0.0608644
-0.251927 -0.0163055 0.0418737
-0.0797795 0.0937521 0.346878
-0.120551 0.00540104 0.344617
-0.0231408 -0.125011 0.346481
-0.0333509 0.170582 0.635509
-0.00378227 0.165341 0.710668
-0.27676 -0.003668 0.0489632
0.0775112 -0.0558369 0.0941191
-0.00267112 0.100038 0.33389
-0.121053 0.153392 0.492318
-0.272893 0.0245488 0.0266575
0.191837 0.116361 0.396888
0.0218242 -0.0273009 0.303439
-0.0349934 -0.226333 0.0853458
0.138593 -0.0817885 0.0905676
0.177944 0.148078 0.476175
-0.197697 -0.0199892 0.0781641
-0.0130429 -0.14047 0.112546
-0.0113904 -0.0512945 0.341909
-0.109189 -0.130945 0.362171
-0.114365 -0.0172954 0.352152
0.0373209 -0.0243616 0.17109
-0.0639643 0.267282 0.0144426
-0.0544509 -0.133209 0.358652
0.12934 0.167826 0.644057
0.166044 0.099505 0.100864
0.0115389 0.166285 0.683728
-0.0332108 0.164644 0.102673
0.0732898 0.168976 0.429854
0.0840698 -0.0725172 0.327585
0.175808 -0.0808048 0.358932
-0.182346 0.07013 0.378101
-0.140701 0.148198 0.557032
0.0802538 0.0506728 0.313943
-0.250073 -0.0107721 0.00265553
0.167914 0.15525 0.548151
0.230773 -0.00549848 0.361958
0.0304734 0.0122205 0.0826126
-0.140839 -0.0862309 0.351716
0.249665 0.167226 0.0849115
0.0723983 0.0291062 0.127416
0.0175179 -0.0263604 0.122077
0.147225 0.155335 0.608986
-0.0506035 0.102632 0.348303
-0.165756 -0.0547133 0.35474
-0.0623561 0.161062 0.572373
-0.0164881 0.16121 0.402886
0.00613592 0.0714296 0.08977
0.0629083 0.0392862 0.329327
-0.00997018 0.0312592 0.310485
0.0960907 0.161772 0.651319
0.0498591 0.166 0.673232
-0.0160193 -0.123739 0.0835823
0.282319 -0.179155 0.00944487
-0.00361836 -0.000184378 0.104925
-0.032773 -0.0846936 0.33335
0.064747 0.104347 0.337072
-0.0537859 0.168489 0.6784
0.00530382 -0.122777 0.345293
-0.0832841 -0.255426 0.0222718
0.0145236 0.0204924 0.3197
0.018194 0.0436559 0.325865
-0.10238 0.151715 0.553294
0.0903721 -0.0027022 0.336846
-0.0503285 0.141548 0.386189
0.166148 0.0450982 0.346882
0.129841 -0.0369375 0.348248
0.145323 0.152098 0.522997
0.0985861 0.155604 0.409225
-0.136666 -0.00685935 0.0814373
-0.0889142 0.160355 0.452606
0.0458061 0.171252 0.519093
0.236889 -0.159064 0.0203688
0.03337 -0.0698492 0.343583
0.246217 -0.174127 0.00373732
0.134404 0.0238871 0.344573
-0.132156 -0.0303714 0.347512
0.240602 0.176117 0.0463329
-0.0418217 -0.065733 0.334524
-0.0474154 0.288441 0.04367
0.0657197 0.164855 0.655399
-0.247261 0.0222557 0.0364378
-0.138288 0.114594 0.401336
0.275243 0.198663 0.0370737
0.0605503 0.0192309 0.321827
0.0592579 -0.0202777 0.0962728
0.0328871 0.177953 0.49324
0.251937 -0.138295 0.0287095
-0.0556406 0.166748 0.551697
0.255447 0.174679 0.0105146
0.188024 0.118228 0.0652291
0.108168 -0.116598 0.356825
-0.15853 -0.01034 0.102008
0.229488 0.0435492 0.366814
0.0148746 0.126677 0.357911
0.0511031 -0.00886642 0.0827805
0.000823773 0.0428355 0.104332
-0.0861584 0.285021 0.0444384
-0.0680339 0.162079 0.50051
-0.0359685 0.0789187 0.330214
-0.000842487 0.0560105 0.319939
-0.177764 -0.032079 0.365744
-0.264207 0.000766378 0.0102037
0.0501289 0.172517 0.438466
0.21978 -0.10107 0.361219
0.167537 -0.100241 0.359524
-0.265039 -0.0305162 0.0765289
0.0678036 -0.0137936 0.326521
-0.117234 0.154226 0.530436
0.139196 0.15416 0.467307
-0.069631 0.1427 0.391453
0.106466 -0.0982196 0.344586
0.018994 0.00500254 0.290519
-0.0012369 -0.0480142 0.327329
-0.0252945 0.170071 0.51255
0.255008 -0.163598 0.0578884
0.027232 -0.0285436 0.191215
-0.051549 0.235691 0.0617602
0.0376078 0.17657 0.594639
-0.0873751 -0.0208527 0.0779352
0.142106 -0.0819881 0.345195
-0.0407657 0.164492 0.0769792
-0.0331831 0.171093 0.4548
-0.136495 0.0818352 0.371983
-0.121166 0.11128 0.375715
0.144071 0.131249 0.394568
-0.00658534 -0.0989383 0.106718
0.172531 0.000161139 0.354771
0.250805 0.148895 0.0754364
-0.0573148 0.160404 0.424561
0.125766 -0.088664 0.0889606
-0.0471776 0.299325 0.0185842
-0.0732058 -0.011649 0.331809
-0.0784039 -0.156479 0.362782
0.188431 0.137946 0.437397
0.206791 0.0713965 0.374815
0.137355 0.162821 0.538802
0.0429987 -0.0156593 0.238661
0.0559351 0.165366 0.692044
-0.0998641 -0.0312209 0.350903
0.0116862 -0.077693 0.112894
0.0221789 0.169544 0.411306
0.161298 0.0840103 0.0925294
0.188774 -0.141196 0.356365
0.150745 -0.0148475 0.349924
-0.12517 0.141996 0.458417
-0.1331 0.153986 0.584761
0.02994 0.176955 0.617507
0.110059 0.0448307 0.102467
-0.0746161 -0.00665983 0.103687
-0.0690126 0.166537 0.474557
-0.18447 0.022161 0.369141
0.153621 -0.0623117 0.354434
-0.104314 0.15437 0.634638
0.0782112 0.174449 0.510732
0.0933499 0.0377676 0.0766289
-0.0469674 -0.285404 0.0222016
0.0354401 0.0714149 0.318183
-0.0378865 0.171088 0.515402
-0.162218 -0.00645681 0.0675508
-0.0833686 -0.116702 0.3492
0.0932068 -0.151897 0.353285
-0.0506816 0.190941 0.0659259
-0.0921833 0.0635692 0.348963
-0.0329448 0.169263 0.708039
-0.069914 0.275322 0.0849115
0.0197093 0.00539182 0.223672
0.107846 0.170384 0.690626
0.0377581 -0.00700479 0.275278
0.0833748 -0.04085 0.341805
0.15569 -0.131947 0.354165
0.208272 0.121233 0.0889785
-0.0461284 -0.170799 0.354278
-0.064094 0.00915807 0.340475
-0.117713 -0.137225 0.355154
0.0390957 0.11177 0.338564
-0.0615862 -0.276466 0.0468049
-0.0137004 -0.0880703 0.348756
0.224836 0.13197 0.0737425
0.0747259 0.175899 0.485649
0.0100076 -0.0167821 0.0669067
0.264915 0.158697 0.0564911
0.054714 -0.0238317 0.33684
0.0688677 0.116964 0.347491
-0.252019 -0.00349853 0.0669016
0.135659 -0.0925993 0.355427
-0.0664445 -0.04595 0.33751
-0.0481579 -0.24073 0.0855011
0.0337348 0.00510129 0.311171
-0.0472647 -0.00935929 0.124873
0.0134477 0.0541235 0.0814403
0.232263 -0.159758 0.0829072
0.209828 -0.0794715 0.362857
0.0529238 -0.0410726 0.323397
0.168605 -0.042067 0.355758
0.0179653 -0.106606 0.341331
-0.0914938 -0.0476351 0.342305
-0.0180965 0.0707983 0.321545
-0.0851173 0.0277571 0.343756
0.131262 0.0467644 0.335242
-0.104489 0.0383119 0.340689
0.181056 0.149203 0.497884
-0.0467332 0.163323 0.586282
0.00814944 0.16806 0.610217
-0.192133 -0.000979632 0.364332
0.0400016 -0.0434864 0.339328
0.042405 0.175037 0.691844
-0.0600922 -0.0656431 0.348907
-0.245333 -0.0224414 0.0632832
-0.0128965 0.0829353 0.0944776
-0.0279562 -0.00280004 0.0842614
-0.0120021 0.114767 0.107612
0.130784 0.156562 0.608576
0.0787512 -0.0546662 0.110314
0.0502994 -0.0933682 0.338905
-0.0354722 -0.112144 0.345226
-0.0852187 0.161503 0.56689
-0.00947212 0.14365 0.372464
0.118021 0.169119 0.480193
0.178485 0.15665 0.57174
-0.108748 0.149379 0.479158
0.106596 -0.0829047 0.334688
-0.0591437 0.161947 0.438843
-0.0217045 0.163147 0.418198
0.0223063 0.0149403 0.134634
-0.0324837 -0.277525 0.0255063
-0.0183157 0.173305 0.577479
0.094071 -0.0851321 0.350816
-0.267877 -0.0276946 0.0244681
0.062404 0.174709 0.635371
0.0932364 -0.120137 0.346806
-0.0549418 0.163038 0.535541
0.00866107 -0.012061 0.256063
0.214795 -0.115189 0.357021
-0.17285 0.117421 0.421795
-0.179032 -0.0681599 0.357096
0.0785196 0.0840989 0.330231
-0.129258 0.000254028 0.355666
0.0427253 -0.0214866 0.301806
-0.0746635 0.167165 0.690704
0.0902659 0.171187 0.576361
0.145993 0.153109 0.429242
0.108852 0.160062 0.536137
-0.0250607 -0.0632687 0.325914
0.0749996 0.172433 0.733242
0.0796069 -0.139068 0.349904
-0.138702 0.147733 0.500797
-0.0915842 0.257019 0.0218265
0.130839 0.0980242 0.357614
0.04906 -0.0354214 0.124535
0.036344 -0.0253734 0.115643
-0.0289072 -0.168453 0.0688852
-0.163012 -0.0303986 0.355297
-0.100575 0.158808 0.500344
0.146421 0.0863224 0.0942909
0.0710222 0.165409 0.698279
-0.0915926 -0.00689756 0.0993849
-0.062062 -0.280451 0.0128291
0.00693084 0.17688 0.523367
-0.0195952 0.0981586 0.0733916
0.0484445 0.0212862 0.310931
-0.0541274 -0.293418 0.0385077
0.113651 -0.0612661 0.0760538
0.245305 0.159831 0.0184061
0.123098 0.13041 0.372536
0.0570432 -0.0608276 0.343297
-0.0106045 -0.0471637 0.315346
-0.000530006 0.041955 0.0891306
0.0213343 7.14064e-05 0.0827805
0.264113 -0.171921 0.045243
0.0882087 0.163105 0.673818
0.00619777 0.00936808 0.329968
0.10583 0.165423 0.707393
-0.0488509 0.213504 0.0924757
-0.0923755 -0.0128959 0.338184
0.140398 0.168173 0.663597
0.104079 0.169624 0.452134
-0.0451549 0.18108 0.0831662
0.0396292 0.1762 0.637963
0.103254 0.0193766 0.338194
0.116596 0.156016 0.426499
0.0764306 -0.0901825 0.339951
0.127124 -0.120332 0.358529
0.0554519 -0.111858 0.352998
-0.0669479 0.0258436 0.331642
0.027753 -0.0100855 0.322643
-0.147722 -0.00970961 0.343382
-0.178159 -0.0150561 0.367178
0.00694726 0.176204 0.564626
0.258641 0.153211 0.024847
-0.237439 -0.00276327 0.0386886
0.190878 -0.129842 0.0655646
-0.125153 -0.10432 0.360567
-0.0300976 0.130337 0.0759332
-0.00545323 0.171691 0.428098
0.239826 0.157501 0.0717473
-0.0569422 0.253754 0.0353366
0.0420521 -0.00262837 0.202999
0.0165666 0.167379 0.653475
-0.0181847 0.0253564 0.330717
0.0194421 0.0371949 0.0798579
-0.261602 -0.00688421 0.0355294
-0.140741 0.143246 0.453894
0.208473 0.0136485 0.365006
0.00136211 -0.0911237 0.0764957
-0.0543113 -0.152139 0.360905
-0.00936413 0.15142 0.392664
0.190411 -0.0265593 0.35004
0.264987 0.154763 0.0849115
-0.026371 -0.0191706 0.097889
0.273837 -0.151703 0.0143991
-0.206495 -0.00853271 0.0705189
0.0112492 -0.025274 0.0826126
0.160518 0.15738 0.531538
0.0482005 0.00235079 0.319253
0.149782 0.0968989 0.367253
0.0826401 0.169303 0.469652
0.167308 -0.116314 0.0892356
-0.0281503 0.0366647 0.317099
-0.096578 0.148182 0.436687
-0.0248069 0.172888 0.547902
0.0596227 0.175048 0.598816
-0.0939021 0.163808 0.662618
0.241123 0.200881 0.0292699
0.201418 0.105044 0.390782
0.0203896 0.173249 0.442711
-0.013633 -0.122324 0.102306
-0.122015 0.0554868 0.350099
0.00513851 0.175573 0.629573
-0.0423199 -0.0208389 0.339421
0.121432 -0.0699226 0.34164
0.0635732 0.00767456 0.0990027
-0.00760245 -0.150258 0.351984
-0.169571 0.0254686 0.368468
0.0745771 0.167019 0.532751
0.0417872 0.175116 0.477439
0.0118701 0.0497117 0.110771
0.052991 0.16845 0.555148
-0.0441246 0.267777 0.00512445
-0.0593757 0.169784 0.727852
-0.0463215 0.0720886 0.337099
0.163538 0.099059 0.0680867
0.0129343 0.000328988 0.121438
-0.0715844 0.159146 0.63564
-0.0635504 0.234136 0.0717174
-0.0614882 -0.101744 0.354838
0.00521814 0.0649886 0.119784
0.105134 -0.141872 0.35958
0.139319 0.125196 0.374793
0.0771888 0.0326973 0.32114
0.125726 0.0154444 0.342897
-0.000578772 -0.0757759 0.101916
-0.00597247 0.0922659 0.118044
0.121361 -0.00086848 0.342586
0.0118194 -0.0509764 0.340686
0.0242939 0.00670787 0.261354
-0.268284 -0.0207366 0.0442599
0.264933 -0.172409 0.0154787
0.153963 0.081096 0.358271
0.288257 -0.154161 0.0293115
0.172028 0.135403 0.431606
0.064515 -0.0260095 0.0825919
0.282572 0.16794 0.0250075
-0.00236419 0.164287 0.40602
-0.128001 0.125461 0.407337
-0.0195217 0.172591 0.455766
0.0569323 0.166993 0.578022
0.0803617 0.160873 0.409032
-0.0175614 -0.00701127 0.325229
-0.07456 -0.286747 0.0409907
-0.0338454 -0.0039961 0.335803
-0.0772253 0.282392 0.0111748
0.0102457 -0.00363128 0.193276
0.243868 -0.169677 0.0467779
0.204534 -0.132988 0.0965366
0.11458 0.0842297 0.339997
0.191822 0.141237 0.468392
0.112308 0.161305 0.507782
0.0219622 0.00603852 0.103409
0.185525 0.101949 0.385132
0.230742 0.189875 0.0208584
-0.0468589 -0.257916 0.00605509
-0.0505846 -0.0792427 0.335663
0.147626 0.160641 0.480846
0.0525446 0.142722 0.368871
0.222846 0.133209 0.090386
-0.0864235 0.1615 0.696102
0.0428244 0.163002 0.398376
0.204369 0.059636 0.363977
0.00409425 -0.0110779 0.321413
0.109712 0.110692 0.357131
-0.0312025 -0.183928 0.0969004
-0.000890059 -0.108918 0.352259
0.0786655 -0.0558848 0.334028
0.169116 0.0879006 0.0752179
-0.113007 -0.00492991 0.0718573
-0.0895048 0.144433 0.418516
0.0479678 0.174232 0.459191
-6.49113e-05 -0.0769138 0.345982
-0.102723 0.157984 0.574251
-0.0793864 0.158168 0.467601
0.0389342 -0.0226906 0.0853577
0.125423 0.156789 0.583702
0.0231319 0.167135 0.667874
0.0686585 0.0304338 0.0972201
-0.00164521 -0.021064 0.125291
0.270194 0.17741 0.0493877
-0.0443981 -0.054415 0.345329
-0.0544229 -0.302178 0.065487
0.0615705 -0.162581 0.35483
0.224257 -0.0427664 0.357261
0.186084 0.0475403 0.355294
0.259636 -0.147601 0.0453824
0.0878523 -0.0189244 0.329403
-0.0753997 0.163058 0.532869
0.110318 -0.036055 0.344417
0.140516 -0.0979644 0.0933309
-0.00964398 0.167621 0.589999
0.0510272 -0.00408367 0.134833
0.0917464 0.095622 0.339192
-0.154088 0.141726 0.482855
0.00110788 -0.113618 0.0997457
-0.157613 -0.00423397 0.36261
-0.285442 -0.0137934 0.00406353
-0.147986 -0.13012 0.363527
0.00617554 0.0151248 0.103936
-0.0754859 0.158117 0.60713
0.146946 0.164566 0.630839
-0.107525 0.113629 0.381039
-0.0933676 -0.120403 0.359792
-0.0262831 0.164545 0.718995
-0.0747398 0.166307 0.660032
-0.0311574 -0.0594216 0.344871
-0.0935559 0.15444 0.604563
-0.104522 0.157416 0.516019
-0.102108 -0.0199913 0.0837653
0.047137 0.0967439 0.331603
0.0486819 0.132277 0.356475
0.206684 -0.0617142 0.3537
-0.0347325 0.142013 0.0692077
0.0160379 -0.0752541 0.080506
-0.0247671 -0.202496 0.0690324
0.155627 -0.107896 0.35014
0.166926 -0.118589 0.0689565
-0.0528808 0.167328 0.614293
0.270694 0.169372 0.0770873
0.122839 0.164198 0.689036
0.00971587 -0.0157593 0.153743
0.105046 0.060617 0.329275
-0.11963 0.145488 0.477346
0.0086105 -0.0101343 0.110704
0.285436 -0.142783 0.0106208
0.0835353 0.16871 0.447268
-0.0132255 -0.117301 0.354295
0.0317479 0.125272 0.355996
-0.0188517 0.171792 0.495304
0.121008 0.166309 0.562552
-0.0730631 -0.289662 0.0730566
0.259456 -0.176958 0.0564808
0.162813 0.143716 0.447895
-0.033812 0.165256 0.601127
-0.0812962 -0.102105 0.346898
-0.171116 0.0608228 0.376403
-0.0761374 0.0759675 0.346844
0.115182 0.159582 0.631685
0.140231 -0.0994124 0.0709822
-0.0345575 0.163944 0.648302
0.112674 -0.0647748 0.107406
-0.0106676 0.165851 0.662308
-0.105168 -0.0891068 0.356658
-0.287666 -0.0101397 0.0364996
0.0292968 -0.0168891 0.0666254
-0.0809787 0.26331 0.0574693
-0.0284748 -0.0790895 0.348227
0.0291624 0.178074 0.529235
-0.072203 -0.25015 0.0330433
-0.0183946 -0.0433425 0.327115
0.269127 -0.190731 0.0651585
-0.0477051 -0.267434 0.0483741
-0.0721515 0.247932 0.0738198
0.199228 0.122478 0.411857
-0.0290552 -0.145114 0.359162
-0.164233 0.047707 0.369461
0.164787 -0.111637 0.105445
0.0817432 0.143245 0.378017
-0.0370187 -0.240926 0.0650491
0.0886915 0.0465318 0.325926
-0.18184 0.0852304 0.385237
-0.0461605 -0.272156 0.0613221
0.263287 -0.160454 0.0697284
-0.0123536 -0.156322 0.0922973
0.00865854 -0.0106913 0.283656
0.118438 -0.128645 0.350195
0.180358 -0.06482 0.358302
0.182341 -0.0957868 0.352131
-0.0313215 -0.0163276 0.125166
0.105706 0.0595973 0.0772103
0.0236745 0.156725 0.382896
0.0408811 -0.0204001 0.286603
0.0237182 -0.0279796 0.163927
-0.285038 0.020141 0.0174892
-0.0790326 -0.000467986 0.3347
-0.098658 0.158326 0.67593
-0.0757848 -0.00886551 0.343744
0.068656 -0.0324073 0.108766
0.256396 -0.166703 0.0357463
-0.0441039 0.115728 0.355458
0.136518 0.161997 0.452399
0.25721 0.159208 0.0410768
-0.0258871 0.169915 0.73733
-0.16002 0.0146841 0.364716
0.0952206 -0.0499048 0.0919738
0.103188 0.160503 0.605516
-0.094425 0.0964121 0.356734
0.00913748 -0.0420787 0.116325
0.24589 0.174116 0.0687199
0.122351 0.0534849 0.0944153
0.1887 -0.125798 0.355828
-0.122268 0.146304 0.549454
0.0214008 0.171089 0.720452
0.0463963 0.0376173 0.320422
0.0100376 -0.0161853 0.297965
-0.152323 0.107348 0.392454
0.0276029 -0.0450268 0.0951251
-0.037055 -0.0211352 0.0786666
0.233884 0.191348 0.0411587
0.2162 0.122592 0.425349
0.203741 -0.0892347 0.355058
-0.0432672 0.0438224 0.334259
0.150274 0.073497 0.0788419
0.0731146 0.0737819 0.323645
0.108461 0.124773 0.367075
-0.253156 0.00534362 0.0353837
-0.0664029 0.26488 0.0292258
-0.00976367 -0.154198 0.0768546
0.146644 -0.0209775 0.340732
0.183572 -0.0382632 0.357643
0.204236 0.115512 0.074307
0.00711614 0.174845 0.464797
-0.057228 0.0330281 0.337964
0.241186 0.143539 0.0643808
0.0126805 0.0945822 0.331584
0.186268 -0.0156933 0.35833
0.0203337 -0.0271374 0.227748
0.0433661 0.16397 0.416059
-0.112103 0.141168 0.433532
0.133129 0.164395 0.592358
0.0312054 0.0540205 0.324829
0.136247 0.141222 0.404737
-0.0795636 0.27067 0.0422267
0.0203841 0.0789661 0.320721
0.216001 0.0306578 0.363252
-0.0724415 0.164797 0.452134
0.0860898 0.171926 0.560673
0.124576 -0.156781 0.362516
0.180252 0.122599 0.406334
0.202213 -0.125488 0.363704
-0.0288906 0.166953 0.0866323
0.239053 -0.160309 0.00262152
0.0445375 0.175927 0.625877
-0.0355964 -0.293766 0.0282102
0.111589 0.152127 0.410081
-0.018199 0.165131 0.674305
0.122184 0.0710452 0.0792637
0.0088635 0.138614 0.361225
-0.0131526 0.11256 0.0723332
-0.0682094 -0.0300403 0.335862
-0.0466503 0.0859148 0.341102
0.0623512 0.159873 0.39553
-0.194026 0.0357809 0.368032
0.154682 0.158931 0.511509
0.170082 -0.134516 0.363148
0.00140137 0.17316 0.698109
0.0421893 -0.00376374 0.303483
0.238366 -0.143789 0.017368
-0.102706 0.157077 0.463344
-0.108014 0.0852525 0.355156
0.0156607 -0.0199625 0.269735
-0.125823 -0.0379212 0.356117
0.251873 0.170183 0.0564898
-0.203586 -0.0121437 0.0937869
0.170936 0.09268 0.37168
0.140223 0.158442 0.644428
0.0067912 -0.131816 0.356605
-0.124249 0.150052 0.603301
0.136847 -0.0822801 0.104548
0.0436334 -0.0130753 0.123753
-0.173162 -0.021198 0.0704816
0.199259 0.0822432 0.370179
0.110148 0.172799 0.71897
0.187239 -0.117044 0.085023
0.0600895 -0.0591104 0.328798
-0.140377 -0.145552 0.360608
-0.159605 0.127448 0.446319
-0.0483976 0.198553 0.095314
0.125049 0.0703623 0.099861
-0.107339 -0.0105689 0.335631
-0.0592038 0.287752 0.0152814
0.199232 -0.138305 0.0821006
0.00542939 0.11777 0.348946
-0.0602889 0.275847 0.0718058
-0.0672296 0.261808 0.0443248
-0.0962248 0.15962 0.588519
0.197268 -0.0422588 0.351393
0.0218498 -0.159375 0.35412
-0.0835797 0.142476 0.406082
-0.0190837 0.173042 0.604694
0.138184 0.0694608 0.349571
-0.125857 0.0834745 0.361893
0.160103 0.107228 0.375217
0.0763836 -0.0530044 0.0782361
0.262104 -0.182423 0.0366914
-0.240459 0.0110514 0.0433343
-0.0635505 -0.00934071 0.0759731
0.0404065 0.169139 0.564961
0.0664188 0.00153678 0.323964
-0.00190292 0.174664 0.650138
0.0480158 0.0763266 0.321613
-0.0132137 0.0056416 0.331843
-0.248908 0.00579062 0.00182293
0.0381376 0.00209434 0.330505
-0.00158379 -0.120176 0.0738631
0.0688813 0.16488 0.624972
0.221202 -0.0707739 0.356238
0.154114 -0.0927287 0.0863768
0.110089 -0.0131951 0.341752
-0.0202998 -0.18678 0.0745421
0.0819382 0.0383508 0.109636
-0.0323373 0.147151 0.102272
-0.0673684 0.100993 0.35377
0.0362048 -0.0381707 0.32503
0.0358384 -0.0258972 0.150511
-0.274281 -0.00511421 0.0614344
-0.100727 -0.138038 0.354249
-0.0172745 0.164885 0.706576
0.133716 -0.0230688 0.347438
0.095996 0.150793 0.395302
-0.135848 -0.100012 0.352426
-0.0889973 0.115746 0.36868
-0.103959 -0.0181608 0.101436
-0.101418 -0.0495056 0.353507
0.0444064 0.176845 0.532733
0.219434 0.0777546 0.376806
0.0632918 -0.0954451 0.349998
0.0808781 -0.151223 0.360182
0.0557039 -0.137871 0.35795
0.0894966 0.162217 0.629774
0.0879201 -0.0331021 0.331623
-0.0917957 0.267646 0.0408928
0.0413295 0.166656 0.657864
0.26057 0.188726 0.0312311
0.0406321 -0.0815222 0.336005
-0.136988 -0.0711076 0.349956
0.0303031 0.148404 0.372532
-0.0381134 0.169731 0.694315
-0.132483 0.0514811 0.360794
0.233771 0.165226 0.0423257
-0.10601 -0.00917536 0.11284
0.0388458 0.00127985 0.242733
0.100808 0.169873 0.637971
0.0295434 0.00269284 0.277734
0.0395179 0.000630968 0.110028
0.0648263 0.0115343 0.120972
0.155236 -0.0729957 0.346073
0.0214349 0.169553 0.585139
0.00537138 0.175716 0.59766
-0.0298339 -0.050211 0.330925
0.0342829 0.00514292 0.0892141
-0.126333 -0.00741117 0.0908446
-0.15887 0.128501 0.431151
-0.0493904 0.223097 0.080508
-0.0472327 0.165604 0.452852
-0.0360924 0.162563 0.419886
0.0343515 0.165875 0.714636
-0.164975 -0.00810857 0.0825749
0.100617 0.0360447 0.0922796
-0.0529345 -0.291493 0.0849115
0.132222 0.164234 0.549804
0.0223223 -0.0291286 0.326138
0.00634245 0.174391 0.489779
0.145155 0.0167238 0.338788
0.139763 0.162052 0.513816
-0.0572252 -0.29454 0.0498145
-0.0515777 -0.270379 0.0366148
-0.0277611 0.129078 0.0917372
0.151395 0.0550186 0.351058
-0.0747034 -0.265466 0.0448163
-0.0635971 0.24552 0.0592767
-0.0563131 0.245161 0.0724407
0.163843 0.0221617 0.3441
0.000967301 0.00785279 0.0917199
-0.0166889 0.0470045 0.313976
0.251322 -0.181369 0.0153871
-0.165228 -0.132528 0.357297
0.171776 0.143628 0.487088
-0.121791 -0.0622868 0.347435
-0.0302819 -0.21469 0.0647848
0.0457173 0.0118008 0.0821695
-0.113858 0.132327 0.411099
0.0416437 -0.00142145 0.144367
-0.00882972 0.173879 0.465961
-0.142404 -0.0208805 0.350468
-0.0511684 0.168225 0.522918
-0.105286 -0.117147 0.350971
0.118231 0.158355 0.617078
0.152041 -0.108541 0.0699204
-0.000201466 0.0165642 0.311038
-0.0453996 0.134438 0.374007
0.0265405 -0.063818 0.331769
-0.275323 -0.000253036 0.000309828
-0.0726263 -0.252475 0.011475
0.0379021 0.177781 0.513108
-0.0289274 0.0385874 0.331587
0.158669 -0.0540866 0.345515
-0.0640696 0.160666 0.587069
0.0722448 0.0131192 0.0882698
0.0293366 0.00637375 0.15469
0.132376 -0.111752 0.348541
0.0732253 -0.0448615 0.331761
-0.0760689 -0.016833 0.116622
0.274436 -0.166229 0.00719219
-0.107778 0.0116689 0.341109
0.190352 0.00942946 0.359668
0.153121 -0.146387 0.356131
0.0753217 0.173428 0.607464
-0.0725897 0.169225 0.721707
-0.281046 0.0111746 0.0444932
-0.080032 0.297147 0.0139515
-0.112172 -0.0311748 0.344111
0.00843812 -0.0349769 0.328174
-0.0315918 0.170904 0.482205
-0.0450296 -0.0419328 0.333857
0.110256 -0.0793629 0.0804831
0.282325 0.182071 0.0218659
0.128626 0.0828281 0.343117
-0.25997 -0.0278123 0.0567926
-0.112246 0.151787 0.619742
-0.140741 0.00363347 0.350431
-0.0365752 0.163303 0.662522
0.170474 -0.117677 0.361952
0.231198 0.181018 0.00931685
0.281163 0.170968 0.00673605
-0.15669 0.0596917 0.363965
0.182852 0.155518 0.558079
-0.0530229 -0.0204786 0.0829964
0.280462 -0.183848 0.036066
0.0441173 -0.00978865 0.215227
0.0843211 0.0773973 0.335011
-0.128047 0.093451 0.367693
0.0273751 0.105253 0.334603
0.00863554 0.012174 0.132695
0.0620024 0.0242314 0.108731
0.242878 -0.156311 0.0740456
-0.0453003 -0.00416877 0.0908389
0.0529064 0.175163 0.662103
-0.0384266 -0.125837 0.347583
-0.274377 0.00940199 0.0313586
0.0761981 0.107288 0.340254
-0.201116 -0.0194699 0.0633145
0.0113477 -0.0741011 0.126584
0.0114802 0.0136618 0.0824244
-0.0569257 0.273277 0.0485493
0.10796 0.170118 0.470364
-0.245713 -0.0246659 0.0304276
-0.148097 -0.0100481 0.0682024
0.27638 -0.182257 0.0820857
-0.131775 0.144751 0.569094
-0.0446565 0.165705 0.437522
0.0065338 0.170465 0.549328
-0.063685 0.166412 0.642182
0.103892 0.16244 0.518843
-0.0519735 -0.270201 0.0101966
0.0104761 -0.0412677 0.130258
-0.136879 -0.0481767 0.348979
0.121856 0.146865 0.403337
0.0794527 0.163184 0.653895
0.159721 0.160994 0.606703
0.149233 -0.0964404 0.347915
0.0713909 0.173526 0.64614
-0.0675411 0.159637 0.621804
0.0885532 -0.162794 0.360605
0.00518612 0.0299206 0.106979
0.0228172 -0.00692411 0.135119
0.16617 0.115853 0.38859
-0.156179 -0.108634 0.363182
-0.158697 -0.0697215 0.361112
0.282944 -0.145672 0.0395601
0.0725851 -0.127507 0.35642
0.218896 -0.0299589 0.364494
0.264726 0.164979 0.044179
-0.0460492 -0.101547 0.353921
-0.0655364 -0.0766645 0.342011
0.15312 0.145466 0.438216
-0.0822167 0.0500753 0.334589
0.0782935 0.173502 0.546109
0.121603 0.167899 0.495704
0.104683 0.0455067 0.0753689
0.21037 0.0927064 0.391141
0.0274054 0.0144489 0.319067
-0.160573 -0.0187333 0.0912773
0.147737 0.152716 0.571917
0.00664394 0.174635 0.438895
-0.00350037 -0.162035 0.361524
-0.0654649 0.262782 0.0564788
0.0826857 0.172097 0.695389
0.17542 -0.122877 0.0801303
0.0784468 0.172768 0.630903
0.130406 0.155431 0.521391
0.194465 0.14629 0.497213
-0.263868 -0.00101667 0.0809097
-0.0298484 0.171705 0.56176
-0.0633518 0.161182 0.685793
0.0313875 0.177526 0.553876
0.171183 0.0576617 0.351213
-0.0124828 0.170591 0.519095
0.15631 -0.000935316 0.350477
-0.105141 -0.00902632 0.349804
-0.05906 0.284739 0.0344959
-0.135096 0.0264606 0.34975
0.0556139 -0.0210676 0.323516
0.125983 0.156774 0.570927
0.124907 0.0593706 0.342494
0.108549 0.168306 0.546976
0.0283895 0.176255 0.480502
0.144062 -0.0482049 0.343188
-0.0542032 0.125351 0.364831
-0.0624859 0.150514 0.400739
-0.0176215 0.0982418 0.0954873
-0.121273 0.148738 0.441117
-0.0725614 -0.0194704 0.0751283
-0.0574419 0.164104 0.508759
0.0951412 0.161696 0.591369
-0.0271289 -0.166167 0.0913711
0.057818 -0.0427244 0.0939203
-0.12572 -0.00931589 0.0702599
-0.0943537 -0.0772383 0.354183
0.024952 -0.0180515 0.0827805
0.0926125 -0.0753001 0.339172
0.0958861 0.166144 0.716528
-0.0569802 0.164825 0.493235
-0.0424076 0.163562 0.628367
0.0952149 0.171138 0.660999
0.182818 0.101871 0.0956423
0.0170601 0.00459225 0.317642
-0.0202733 -0.00450969 0.10392
0.00917455 -0.00789113 0.180561
0.258962 -0.173429 0.0849115
0.085827 0.167636 0.434069
0.140303 0.0791918 0.0708911
-0.00459263 0.174869 0.571407
-0.104776 0.0247331 0.340508
0.0312462 0.0203536 0.0931989
0.179491 0.0277884 0.348985
0.140712 0.0694756 0.1045
0.0680361 0.172304 0.466237
0.165025 -0.0907971 0.349079
-0.0158445 -0.174384 0.0722288
-0.0353105 -0.264973 0.0443454
0.157711 -0.0295286 0.343972
-0.155488 0.0947868 0.389197
0.0470044 0.156736 0.387358
0.0848838 0.169853 0.724662
-0.015623 0.168248 0.565432
0.107381 -0.128525 0.349348
0.0488729 -0.119884 0.344634
0.0361155 -0.0256101 0.248504
0.0258494 0.0241503 0.327056
-0.0651024 -0.273712 0.0581599
0.0078101 -0.00230736 0.0826126
-0.12711 -0.122579 0.362256
0.0194156 0.178081 0.527796
-0.0804373 -0.044887 0.34916
-0.175621 0.11118 0.410387
0.190328 0.136511 0.482011
0.0487964 0.17585 0.5875
-0.220155 -0.00963927 0.0615812
0.120862 0.055211 0.114582
0.0483128 0.172551 0.501385
0.205622 -0.144371 0.069214
-0.278355 0.0132221 0.0061431
0.192939 -0.0849113 0.361353
0.0973611 -0.109176 0.355066
0.0526013 0.175045 0.682472
0.0121717 0.161067 0.40973
0.0252472 -0.0173872 0.333358
-0.0921772 0.0418246 0.337259
0.233242 0.159521 0.0130416
-0.169404 0.0724665 0.374483
0.201615 -0.136995 0.356151
0.0262338 -0.0900003 0.347681
0.0760356 0.164714 0.575256
0.168146 -0.0142774 0.353664
-0.0424025 0.284772 0.0119601
0.0281141 0.175728 0.684841
-0.082262 0.100022 0.360125
-0.26114 -0.0134655 0.018381
0.278413 -0.173026 0.0465654
-0.00550507 0.0655785 0.112276
-0.0318114 0.153939 0.398977
0.26895 -0.173045 0.0305812
0.00785081 -0.0466456 0.104121
-0.16375 0.0809239 0.374999
-0.0585594 -0.0516354 0.346275
0.00731676 -0.0917027 0.110019
0.165858 0.151108 0.585396
0.012371 0.0324731 0.32243
-0.0745231 0.0125875 0.333415
0.0424973 -0.106424 0.341485
0.219208 0.0518521 0.37255
-0.0516871 -0.253223 0.0844446
0.00738386 0.00948952 0.294299
0.143133 0.156431 0.621283
0.0603681 0.175342 0.563957
-0.0796072 0.255064 0.0171794
0.122229 -0.0846498 0.102369
-0.138807 -0.00845495 0.0951886
-0.00410756 -0.0852471 0.0937769
-0.0921218 0.263794 0.0107837
-0.0529288 0.262284 0.0445406
0.199081 -0.125343 0.0822372
-0.2621 -0.00354578 0.0489279
0.109246 -0.0716589 0.340548
0.0197208 0.00539511 0.142998
0.0945729 0.171572 0.460697
-0.251342 0.0210699 0.0215319
0.0351355 0.165972 0.697507
0.0672518 0.0585461 0.316469
-0.261601 0.0213391 0.0325222
0.018231 0.0291375 0.122179
0.184497 0.145382 0.52852
0.00963232 -0.161385 0.361467
0.0608847 0.0294734 0.312006
-0.0385777 0.156185 0.0677811
0.14123 -0.0654281 0.352795
-0.0071959 -0.0835888 0.337589
-0.0702315 -0.284506 0.00352889
0.0857084 0.165364 0.526128
-0.241189 -0.0108456 0.0596467
-0.0792584 -0.294478 0.0182909
-0.156602 -0.122611 0.356567
0.00977825 -0.00549032 0.242177
0.288155 -0.163931 0.0375954
-0.00206981 0.0777733 0.0756878
0.164438 -0.100212 0.0852122
-0.100652 0.162069 0.651139
0.165551 0.130807 0.410732
0.0961196 -0.0382538 0.342787
-0.0274288 0.12335 0.357246
-0.0839637 -0.27576 0.0174635
-0.0563179 -0.109648 0.346229
-0.104008 0.0674231 0.346121
0.0927596 0.173073 0.487834
0.00136663 -0.030262 0.0889447
0.0476615 0.166322 0.637388
0.221747 -0.0136139 0.365843
-0.0778027 0.159101 0.508127
-0.050862 0.0257464 0.328459
-0.00504012 0.0876773 0.331954
-0.00613708 -0.0627552 0.343661
0.131486 0.0761586 0.0903326
0.26815 0.18979 0.0407164
-0.0588182 -0.284809 0.0564747
-0.0262209 -0.201571 0.0816237
0.0166289 -0.0605878 0.120022
0.0153977 0.15188 0.392128
0.158353 0.129046 0.400433
0.110159 -0.0489672 0.346175
-0.0597108 0.0733749 0.341519
-0.021492 -0.112673 0.344101
-0.0341452 0.0607898 0.324241
0.244877 0.155328 0.0849269
0.0883394 0.0251617 0.0831769
0.0731525 -0.00586693 0.334809
-0.018053 -0.136707 0.0719672
0.197468 0.124249 0.0831348
-0.0992354 0.15302 0.486122
-0.0231268 0.120766 0.0713214
0.0924407 0.143816 0.384705
0.143411 0.153554 0.490404
-0.0400121 0.169946 0.681839
-0.0165917 0.171718 0.434034
0.111806 0.161053 0.650603
0.0623839 0.172398 0.435195
0.00864416 -0.0100004 0.13125
-0.0633521 -0.0077579 0.341425
0.10832 0.0571233 0.110137
0.0211641 0.166413 0.694813
0.0576754 -0.00432536 0.0925176
-0.00348371 0.0463908 0.327627
0.0317591 0.177067 0.583504
-0.0848341 0.295868 0.0382217
0.146779 0.162004 0.580329
-0.0122247 0.0850139 0.10685
-0.149594 0.00993133 0.360766
-0.0439282 0.164461 0.550982
-0.117469 0.135514 0.423698
0.00670961 0.0645243 0.325224
-0.133273 0.128066 0.419924
-0.160337 -0.0425486 0.353697
-0.0450245 -0.145647 0.351705
0.0809566 0.174376 0.498569
-0.118927 0.152572 0.467041
-0.166052 0.105012 0.397575
-0.0224742 -0.169664 0.354359
-0.10142 -0.0211083 0.340875
-0.0351469 -0.194605 0.0892662
0.062145 -0.0697311 0.336145
0.0566574 0.0031243 0.125329
0.118733 0.0420505 0.340479
0.0369077 -0.0364366 0.121433
-0.0141287 -0.0757903 0.346477
-0.0816472 -0.0196265 0.0889734
-0.0833207 0.163813 0.638669
-0.0838212 -0.283579 0.0302617
0.00823842 0.107168 0.336816
-0.00970325 0.112547 0.095551
-0.0916145 0.297563 0.0185659
-0.014046 -0.0581948 0.322992
-0.129995 0.149459 0.484563
0.262457 -0.138226 0.0353931
-0.177255 -0.0508335 0.357545
-0.192225 0.0114712 0.364027
-0.113613 0.04553 0.345133
-0.0421901 0.272932 0.0162879
0.12745 0.157966 0.468859
0.0368052 0.0826927 0.323252
0.056943 -0.00831041 0.323937
0.0650237 0.0270887 0.330381
-0.0275177 -0.107051 0.353394
0.0971431 0.171856 0.681076
-0.270903 -0.0165718 0.0564901
-0.0484265 0.171038 0.733558
-0.0014791 0.0526038 0.111613
0.111811 0.170934 0.673949
-0.155059 0.134026 0.47198
-0.146921 -0.0909702 0.361403
0.0894426 0.0469436 0.08396
0.0847296 -0.0430311 0.0988918
-0.039994 0.169587 0.576648
0.204124 0.12885 0.443538
0.0097144 -0.00574422 0.205449
-0.076292 0.2611 0.0849115
-0.251194 0.0121427 0.0129664
0.250768 -0.178213 0.0409117
-0.0812602 -0.0365617 0.339041
0.0176005 0.00478645 0.188034
-0.0639873 -0.140917 0.36009
-0.0587469 0.0631845 0.330312
0.0345555 -0.0262224 0.322642
0.240597 -0.167567 0.0680171
-0.0681745 -0.157706 0.355232
0.0407565 0.174827 0.450098
0.105164 0.0966827 0.346626
0.0839485 0.16363 0.42045
-0.00734838 -0.143554 0.0854834
-0.23308 -0.0216689 0.0635514
0.163933 0.153411 0.46156
0.038648 0.00178295 0.0763983
-0.250663 -0.017922 0.0126095
0.132125 -0.0751102 0.343292
-0.0104943 0.0370248 0.321302
0.0987929 -0.070636 0.348679
-0.0230303 -0.088634 0.339662
0.0289491 0.176944 0.630523
0.0952092 -0.140247 0.350799
-0.261886 -0.0221986 0.0849115
0.111443 0.16816 0.526705
-0.116427 -0.0521175 0.355566
-0.0571034 0.164382 0.472944
0.153788 -0.119928 0.351886
-0.0851683 0.152942 0.437935
0.0616604 0.0928321 0.334454
0.0109295 -0.10478 0.35113
0.0353979 0.167123 0.644923
0.256393 0.16502 0.0268972
-0.151175 0.138873 0.449368
-0.00599904 0.0593967 0.0894901
-0.042561 -0.290747 0.0408676
0.141063 -0.125787 0.360351
-0.140825 0.140667 0.524244
0.0717 -0.0680087 0.345406
-0.0750713 -0.0861594 0.344075
-0.14683 0.022756 0.36159
0.264028 -0.148525 0.0210675
-0.286818 -0.018916 0.0265021
0.0151022 0.0393234 0.116345
0.133926 0.164201 0.579238
0.10056 -0.000930473 0.329406
0.154883 0.0446441 0.342474
0.0148203 -0.0602908 0.3319
-0.126963 0.151553 0.537108
0.0449872 -0.0171207 0.0763983
-0.0293041 0.160686 0.408684
-0.0205127 0.109278 0.101018
0.157671 0.148982 0.488517
-0.0731015 0.0356242 0.340865
0.130799 0.0305936 0.3352
0.0106455 -0.00204546 0.159214
-0.0425765 -0.246017 0.026435
0.170148 0.153721 0.500348
0.156002 0.0925443 0.0992051
-0.0585367 -0.124685 0.348697
0.267235 -0.190112 0.0820072
0.066382 0.165571 0.601942
0.111948 -0.105236 0.35545
0.00260341 -0.105526 0.110889
0.25368 0.175831 0.0473887
0.12273 -0.0727393 0.111572
-0.239701 -0.0155406 0.00645061
0.0944514 0.16476 0.703551
0.129879 -0.0761172 0.0966085
0.245495 0.165936 0.0448978
-0.0195174 0.0600266 0.316398
-0.274093 -0.0154977 0.0316357
-0.0370667 -0.235618 0.078035
-0.00550953 0.174516 0.606739
0.0493629 -0.132392 0.34784
0.00851821 -0.0105013 0.229337
0.0180482 0.175232 0.492215
-0.11321 -0.0977989 0.358485
-0.0349937 -0.258427 0.00759574
-0.0582215 -0.0249225 0.342711
-0.0221149 0.172326 0.468073
-0.0850734 -0.108145 0.357382
0.107784 -0.0584415 0.0860864
0.129569 -0.163937 0.354358
0.2012 0.045583 0.360553
-0.012345 -0.135891 0.357517
0.0298342 0.176128 0.671926
0.179981 0.0641837 0.35592
0.127602 0.169091 0.662906
-0.0630255 -0.0957837 0.344642
0.0634213 0.0235874 0.121883
-0.134461 0.149123 0.546941
-0.0823531 0.161839 0.523305
-0.0206966 0.138521 0.10517
