0.224785 -0.151339 0.0130276
-0.154427 0.28824 0.523279
-0.0147815 -0.18252 0.264671
0.213348 0.0487469 0
-0.0369606 -0.212822 0.270881
-0.224785 0.00959599 0.00271806
0.0844501 -0.266268 0.266537
0.0275454 -0.224825 0.273341
0.194723 -0.149041 0.0149861
0.224785 -0.193393 0.02086
-0.171943 0.0603042 0.214901
-0.0122684 -0.0535896 0.268836
-0.156948 0.21191 0.425837
-0.00767894 -0.315054 0.306771
0.11676 0.116335 0.20104
-0.113517 0.154043 0.348268
0.148396 0.121436 0.345974
0.20686 -0.173542 0.0208501
0.129927 0.290287 0.526841
0.170741 -0.178345 0.291631
-0.163065 -0.00789461 0.228879
0.191602 0.0776917 0.0149861
-0.186067 -0.195363 0.0192316
0.178954 0.309248 0.576336
-0.159325 0.201323 0.413117
0.1681 0.244117 0.441114
0.0420646 0.314651 0.681391
-0.0154256 -0.111438 0.250101
-0.190324 -0.0137911 0.367839
-0.121473 -0.0996217 0.247679
-0.0339494 0.0646769 0.214005
0.0159533 0.248595 0.469912
0.118153 0.0216002 0.222834
-0.0340742 -0.311282 0.308945
0.112276 -0.165761 0.291826
-0.183439 0.179638 0
-0.123996 -0.0416173 0.266382
-0.191252 0.0727798 0.373162
-0.136096 0.329637 0.666629
0.13075 -0.215991 0.302121
0.0138232 0.0225452 0.22264
-0.118297 0.267815 0.469587
-0.0274951 0.115752 0.218237
-0.0933799 -0.295131 0.314077
-0.177427 0.040787 0.203605
0.110825 -0.0976905 0.247284
-0.168023 -0.133655 0.283718
0.111598 -0.145542 0.257091
0.0534234 0.15817 0.408123
-0.0928928 0.106377 0.21317
-0.00910471 -0.153812 0.258786
0.142815 0.32592 0.584629
0.163717 0.150528 0.398273
0.0810473 0.293727 0.532827
-0.0261505 0.0509663 0.201519
-0.0276248 0.0488541 0.201952
0.13854 0.325696 0.583351
0.0865304 -0.214071 0.271137
0.0708125 -0.122337 0.282926
-0.209582 0.124937 0
-0.0119957 0.307975 0.570046
-0.0430171 0.299155 0.5457
0.160704 0.125735 0.20698
0.0117523 0.220794 0.48337
-0.0732474 -0.282532 0.281365
-0.209628 -0.15003 0.374465
-0.21681 -0.215646 0.117669
-0.14846 -0.0249968 0.217088
-0.207425 -0.190423 0.0378953
-0.206483 -0.0663868 0.364605
0.195138 -0.20116 0.125142
0.0495389 0.310936 0.534238
-0.145298 0.0807738 0.241297
-0.179827 -0.199651 0.0545835
0.214748 -0.10836 0.362025
0.117596 -0.129617 0.284418
0.00505975 0.241325 0.0109222
0.0590536 0.0172895 0.223717
-0.0758982 0.130985 0.36858
-0.108875 -0.0292021 0.263837
0.163652 -0.00542289 0.213076
0.132672 0.148392 0.332117
-0.154077 0.313013 0.59779
-0.1775 0.0386182 0.219346
-0.172483 -0.217877 0.271917
-0.162727 -0.220327 0.257121
-0.134221 0.302787 0.518528
0.0537047 0.15836 0.356173
-0.166079 0.329637 0.641337
0.0637132 0.306331 0.524697
0.123472 0.0563837 0.215704
-0.0548115 0.255298 0.526109
0.0894401 -0.171812 0.247178
0.018461 0.000321031 0.211899
0.00845204 0.149582 0.335639
-0.207189 0.169546 0
-0.00187801 0.202019 0.413953
0.132515 0.280054 0.509036
-0.124395 -0.261722 0.265605
0.179827 0.18395 0.38794
0.0494622 -0.0128342 0.229891
-0.16919 0.137906 0.21958
-0.0682542 0.14786 0.330542
0.0218076 0.13018 0.367106
0.18976 -0.0479701 0
-0.165324 0.228813 0.446146
-0.0477268 0.0125428 0.255281
-0.100411 0.314651 0.655724
0.216978 -0.0213371 0
-0.164795 0.025375 0.22206
0.0328126 0.269143 0.550861
-0.0712047 0.0507657 0.216856
0.138852 -0.124922 0.252865
-0.0745796 0.139518 0.285781
0.00147624 -0.050457 0.237603
-0.177249 0.0806895 0.21073
0.0741785 -0.0526839 0.238059
-0.00661129 0.201302 0.389674
0.146501 0.048858 0.217247
-0.0865763 0.29561 0.536104
-0.179827 -0.207886 0.26416
0.210619 -0.203149 0.153077
0.0324663 -0.180914 0.294932
-0.178378 -0.0646547 0.225216
-0.0990497 -0.313373 0.30774
0.086448 -0.213139 0.270946
0.0918118 0.257507 0.529955
-0.224421 0.132625 0.0149861
0.0391901 -0.0720774 0.242034
0.114984 -0.0524432 0.23801
-9.64701e-05 0.116306 0.218644
0.160516 0.079276 0.211012
0.21552 0.0599978 0.0149861
-0.125436 0.114743 0.321987
0.164872 -0.117698 0.236087
0.0449839 0.314651 0.630532
0.0920441 -0.279965 0.284643
0.0881499 0.294623 0.670693
0.00643069 0.195375 0.452827
-0.166689 -0.189945 0.266192
-0.181847 0.0994656 0.0149861
0.0482861 0.118786 0.338123
0.115296 0.314651 0.679194
0.145636 0.100918 0.245312
0.0489264 -0.11715 0.235975
-0.0715817 -0.0961994 0.246978
-0.15929 -0.177934 0.26373
0.137377 0.137756 0.274281
-0.210052 0.240372 0.0149861
0.0931451 0.120736 0.22255
-0.195184 0.0944471 0.389511
-0.146592 0.217941 0.409665
-0.110423 -0.187046 0.265598
0.130183 -0.00614387 0.213224
0.0529473 -0.151052 0.242923
0.123594 -0.219031 0.302744
-0.129398 -0.182379 0.264642
0.0207275 -0.195375 0.252007
-0.0330954 -0.119766 0.251808
-0.0392144 0.263859 0.488251
-0.179827 0.16295 0.0029894
0.164269 -0.0859973 0.275051
0.141918 -0.236136 0.30625
0.0372983 -0.135188 0.28556
0.0993959 0.253737 0.452673
-0.0867629 -0.148622 0.257723
-0.0408487 0.284679 0.625858
-0.187557 0.11019 0
0.159681 0.314651 0.607757
0.00386095 -0.157205 0.244184
-0.0657766 0.0668132 0.198271
-0.0640455 -0.00648892 0.213295
-0.075127 0.255634 0.478369
0.121094 -0.281532 0.269665
-0.180405 -0.0376275 0
-0.150459 -0.198033 0.26785
0.181164 0.00331092 0.36889
0.0369915 0.237737 0.43345
-0.054916 0.229259 0.49354
0.117221 0.152944 0.345595
-0.0226654 -0.146311 0.28784
-0.210959 -0.191741 0.0401853
0.136441 0.207419 0.420441
0.0929101 -0.310703 0.290941
-0.224012 -0.198757 0.0913925
0.179827 -0.241334 0.280857
0.183987 -0.0410944 0
-0.129765 0.251302 0.473164
-0.179827 0.17845 0.403171
0.191925 -0.22737 0.282178
0.13223 0.228717 0.492889
-0.0414433 0.0722827 0.243037
0.0604824 -0.24904 0.263006
0.102894 0.236719 0.455644
0.0877098 0.0997917 0.195743
0.0251867 0.189834 0.399314
-0.0143718 0.312524 0.538619
-0.11019 0.233437 0.428283
-0.0931993 -0.171169 0.292935
0.102814 0.13596 0.262557
-0.0905797 0.166274 0.338243
0.179827 0.229213 0.430868
-0.164787 0.134895 0.255605
-0.014087 -0.0401737 0.235495
-0.161802 -0.183386 0.264848
-0.00194468 0.12311 0.350932
-0.019588 0.0245126 0.222237
-0.049851 0.0584494 0.215281
-0.22059 -0.22481 0.246258
0.0352985 0.241325 0.0035049
-0.0582033 -0.202242 0.268713
0.1784 0.329637 0.655681
-0.0613321 -0.219647 0.27228
0.114683 -0.28177 0.269714
0.150065 0.231918 0.449876
-0.130777 0.329637 0.616673
-0.080082 0.0140294 0.209089
-0.0446986 -0.322972 0.301232
0.0230181 0.16017 0.359488
0.179827 0.0777823 0.202528
-0.211749 -0.159646 0.358844
0.150315 0.10821 0.213888
0.172967 0.119047 0.320827
0.0813726 0.189343 0.398724
0.198897 -0.211783 0.0634583
-0.129511 0.273731 0.500084
0.206391 -0.215925 0.121578
0.0949959 0.206719 0.4196
0.218658 -0.228228 0.294208
-0.16586 -0.134487 0.239528
-0.152747 0.115849 0.200783
-0.162114 -0.189413 0.250785
-0.167193 0.0740119 0.212091
-0.0011632 0.136854 0.379323
0.0164213 0.281445 0.511456
0.135386 -0.189475 0.296687
-0.179827 0.152551 0.298551
0.020126 0.231283 0.425695
-0.201227 0.05086 0
0.0448328 0.314651 0.686282
0.10019 0.0681403 0.243886
-0.157299 -0.216169 0.271567
0.191413 0.256437 0.47503
-0.161136 0.214129 0.428503
-0.00416423 0.154752 0.286299
0.0769157 0.128096 0.232042
0.0245235 0.162222 0.326229
-0.159921 0.261328 0.461792
0.130881 0.281178 0.510991
0.0377593 0.145811 0.234794
0.156398 0.148262 0.331731
0.0313069 0.262688 0.486844
-0.0996733 -0.170788 0.292857
0.130399 0.0809416 0.195505
-0.0702617 0.0878943 0.194814
0.0447161 0.323599 0.571396
-0.0869492 -0.250274 0.278557
0.179827 0.0738413 0.00244439
-0.136565 -0.0876345 0.229925
0.0776898 -0.260232 0.280598
0.158678 0.0706054 0.212789
0.0472639 0.123991 0.353539
0.147347 0.293517 0.502393
-0.114158 0.0971453 0.195214
0.00056079 -0.135418 0.255016
0.179735 -0.00100717 0.239645
-0.0650397 0.313631 0.601317
-0.134243 0.314651 0.654973
-0.17768 -0.276178 0.303998
0.216489 0.0923485 0.0149861
-0.169657 0.191008 0.400724
-0.129112 -0.0678634 0.271761
-0.123753 -0.115019 0.235538
0.179827 0.159765 0.345503
-0.0900408 0.321897 0.564469
-0.108352 -0.262876 0.28114
0.223616 -0.126464 0.375916
-0.135414 0.211768 0.425667
0.0506032 -0.206933 0.254376
0.116531 -0.198076 0.298449
-0.221969 -0.227588 0.285244
0.116159 -0.211639 0.270639
0.224785 0.185411 0.0132476
0.179827 0.151036 0.352283
0.179827 -0.0650698 0.225885
0.0493139 0.165124 0.334833
-0.158343 0.329637 0.627588
-0.118147 0.255698 0.526806
0.159714 -0.0198783 0.231335
-0.00610597 -0.067908 0.241179
-0.0953115 -0.0684707 0.241295
-0.0360897 0.136315 0.378336
-0.0428263 0.314651 0.634877
-0.129446 -0.277257 0.284088
0.0147018 0.179395 0.386772
0.0154711 -0.105835 0.248953
-0.218073 -0.179768 0.369577
-0.207345 -0.2042 0.33134
0.0528601 -0.32559 0.293991
-0.199036 -0.213583 0.300365
-0.0955218 -0.0665332 0.225601
-0.146319 -0.025033 0.232392
0.104582 -0.276296 0.268592
0.0281188 -0.049036 0.222015
-0.0839843 0.147798 0.330358
0.147646 0.241325 0.00113303
-0.0568785 0.19374 0.380589
0.0781812 0.0836138 0.21025
-0.179827 0.215126 0.413112
-0.0521047 0.195092 0.405632
-0.179061 0.207516 0.420558
-0.0772742 -0.148164 0.257629
-0.104412 -0.194833 0.267194
0.138816 0.0513509 0.247327
0.0587539 0.210311 0.400498
0.179827 0.223911 0.432206
-0.129774 0.133162 0.244276
-0.125978 0.1043 0.253799
-0.19039 -0.0791957 0.0149861
-0.135755 0.134589 0.215433
0.179827 0.17041 0.372359
0.00479418 0.217647 0
-0.147398 0.25238 0.474459
-0.169297 0.244347 0.464808
-0.000569105 -0.0655586 0.240698
0.0234042 0.188719 0.374557
-0.0030161 0.104892 0.212588
0.0100999 0.314651 0.659273
-0.117229 -0.250289 0.263262
0.137619 0.147579 0.329708
-0.0296789 0.149558 0.25239
-0.141988 -0.232944 0.259707
0.151999 -0.251407 0.30938
0.00672849 -0.251326 0.278773
-0.172257 -0.0918153 0.230782
0.0674685 0.282538 0.513358
-0.0325863 0.00972128 0.25586
-0.160603 0.284679 0.612222
0.160019 0.280123 0.583746
0.114805 -0.140626 0.286675
-0.212465 -0.201911 0.0278148
0.0584738 0.314651 0.61321
-0.0412037 0.0719567 0.197217
-0.0414865 0.314651 0.647083
0.0976962 -0.00380445 0.228041
0.224785 -0.21504 0.178795
0.0698031 -0.164144 0.260904
-0.0602843 0.285457 0.518436
0.128884 0.292057 0.666253
-0.179827 0.28092 0.489457
-0.168727 0.221346 0.437174
-0.220085 -0.00273022 0.368519
-0.0619317 0.145138 0.322479
-0.135044 0.0149359 0.2242
-0.150632 0.329637 0.625094
0.124645 0.00421244 0.226397
0.0336545 -0.100374 0.247834
0.0819026 -0.034168 0.234264
-0.212248 0.127334 0.0149861
0.082613 0.159499 0.317253
-0.158563 0.14562 0.323908
-0.00502004 -0.307103 0.310697
-0.0773068 -0.0683699 0.241274
-0.104722 0.283971 0.6057
-0.0628718 -0.153094 0.258639
0.220689 -0.0488569 0.365683
-0.129122 0.314651 0.677277
0.0628836 0.0589157 0.215185
-0.0449967 -0.0827633 0.244224
0.172335 -0.269155 0.308995
0.115045 0.323384 0.570174
-0.0397715 -0.289406 0.286578
-0.093991 -0.198901 0.268028
0.0701627 0.118232 0.336484
0.0579899 0.152436 0.271181
0.178099 -0.143512 0.256675
0.186652 -0.217811 0.148045
0.0227679 0.326449 0.587645
0.00619422 0.191703 0.448415
0.0220635 0.0687404 0.243763
0.0173641 -0.122163 0.237002
0.0609302 0.295794 0.536424
0.0432159 0.164367 0.332589
-0.0568703 0.136965 0.26912
-0.088979 -0.0224042 0.231853
0.0701202 -0.223184 0.273005
-0.179827 0.318055 0.616735
-0.0986884 0.0314808 0.2514
-0.0603402 0.329637 0.650435
0.135062 0.268913 0.550228
0.0721824 -0.0720173 0.242022
-0.132893 0.034387 0.250804
-0.100221 0.00125849 0.227003
-0.138252 0.267199 0.492259
-0.104062 0.141089 0.296041
-0.179179 0.229518 0.472184
0.146158 -0.17182 0.247179
0.188479 0.237669 0.433369
0.199686 0.229703 0.447225
-0.151172 0.296359 0.673149
-0.0499251 0.247596 0.515552
0.000937447 0.314651 0.662329
-0.106635 0.303032 0.68076
-0.0941959 -0.169438 0.261989
-0.122163 0.21553 0.406769
-0.102937 0.13507 0.256745
0.0885082 0.0680391 0.19802
-0.063293 -0.246173 0.277717
-0.187905 0.250629 0.472366
-0.179827 -0.220888 0.228783
0.113597 0.235078 0.453672
0.0282899 -0.218904 0.272128
-0.0825793 0.108404 0.213964
0.149333 0.314651 0.676258
-0.118778 0.0682704 0.213268
-0.179827 0.31854 0.57994
0.0323454 0.127468 0.362142
0.18984 -0.0779911 0.0149861
-0.183936 0.176419 0.0149861
-0.104277 0.146337 0.236352
0.0377192 0.21386 0
0.0669872 0.276973 0.503967
-0.0351702 0.157282 0.354199
-0.131286 0.310158 0.581521
0.0984045 0.15203 0.342888
0.0462313 0.136513 0.378699
0.168959 -0.0819016 0.272713
-0.175901 0.244105 0.464518
-0.0205074 0.00890172 0.256028
0.156082 0.155939 0.294052
-0.130054 0.157002 0.300987
-0.0307932 0.0307299 0.251554
-0.132509 0.108579 0.214033
-0.110992 0.139492 0.285616
0.195263 -0.206927 0.206144
-0.179499 0.19083 0.421977
-0.211194 -0.0718069 0
-0.0540754 0.23985 0.0149861
-0.179827 0.0156547 0.379761
-0.2055 0.101948 0.374955
-0.129967 -0.328346 0.296355
0.145711 0.149129 0.397081
-0.0764706 0.0452831 0.202684
0.224785 -0.0276483 0.372578
-0.0744624 0.234557 0.499906
0.17256 0.167059 0.340569
-0.17023 -0.260968 0.265451
-0.00271712 -0.244826 0.308031
0.14597 0.16599 0.3374
-0.207339 -0.1626 0.373649
0.198749 -0.093229 0.0149861
0.0253606 0.283071 0.600565
-0.184679 -0.21336 0.0855796
0.12298 0.0273685 0.221651
-0.136301 0.314651 0.649579
-0.0516697 0.244615 0.46513
-0.179248 -0.066108 0.256766
-0.0426852 -0.169971 0.292689
0.181612 0.210136 0.423716
-0.212079 -0.00150681 0.368594
-0.214676 0.138719 0
-0.0888707 0.151958 0.26806
-0.16733 0.149707 0.336009
-0.0109377 0.276444 0.479954
-0.105006 -0.236744 0.306375
0.00203945 -0.112545 0.280919
0.0133883 0.251241 0.519913
-0.179827 0.0422935 0.00771653
-0.0890458 0.0121571 0.255361
0.162389 0.0307596 0.251373
0.13285 0.10744 0.274299
0.098781 0.241325 0.0123367
-0.187291 0.0743826 0.388276
0.124113 0.22694 0
-0.114544 0.184151 0.392486
-0.149471 0.102291 0.196243
0.129909 0.113856 0.316193
-0.111313 0.196425 0.407233
0.179827 -0.16977 0.00966925
-0.0504965 0.11343 0.216821
0.192149 -0.180296 0.369339
-0.0321235 0.103926 0.251363
-0.164796 -0.257525 0.264745
-0.111988 0.0540869 0.216175
-0.111599 0.17855 0.385757
-0.0132637 -0.0696804 0.226246
-0.05469 0.217012 0.478825
-0.110371 0.149517 0.252118
0.076808 0.142302 0.303959
0.0258434 0.243496 0.463786
-0.0904113 0.138603 0.279812
0.20031 -0.212888 0.0789635
-0.101528 -0.0716718 0.272542
0.0338477 0.240563 0.0149861
-0.107037 -0.088232 0.245345
0.000841737 -0.209985 0.2703
0.0895736 -0.120944 0.282641
-0.016405 0.284743 0.517196
0.0314472 -0.296594 0.313819
0.130247 0.263664 0.488017
-0.135627 0.29714 0.540139
-0.0341546 0.314407 0.605736
0.154785 -0.313752 0.307521
-0.0771207 0.126807 0.360932
0.14091 0.2799 0.508768
-0.126484 -0.155684 0.289761
-0.171686 0.174538 0.380866
-0.16991 -0.0277207 0.232942
0.0602279 0.316068 0.674822
0.224677 0.0476734 0.371618
-0.000481486 -0.181774 0.264517
-0.154728 0.0383065 0.250001
-0.0577616 0.228328 0.492422
-0.217225 0.0976234 0.0149861
-0.124359 0.0557466 0.215835
0.119557 -0.256407 0.310405
-0.224785 -0.160073 0.0111893
0.0756222 0.158543 0.311037
-0.158288 0.314651 0.640506
-0.155547 0.157903 0.306872
-0.160648 -0.140587 0.256076
-0.132082 0.145908 0.32476
-0.0181679 0.131392 0.238954
-0.133083 0.099193 0.210905
0.0135275 -0.197213 0.252384
0.138427 0.0941085 0.194947
-0.132021 0.15365 0.347549
0.0653247 0.141255 0.387262
0.00714812 0.234769 0
0.0785868 0.258418 0.481714
0.199644 -0.00430012 0.383434
-0.0534649 0.113244 0.199764
-0.133411 0.00912139 0.255983
0.179827 -0.216141 0.223902
-0.0764533 0.185451 0.394048
0.0907559 0.320508 0.560637
-0.0401106 -0.0567978 0.223605
-0.00847109 0.198802 0.0149861
0.0361723 0.130964 0.237688
0.173071 0.136278 0.264633
-0.07263 -0.279155 0.314988
0.0817904 0.149357 0.251076
-0.108234 -0.128191 0.284126
0.0944545 0.000369132 0.257777
0.179053 -0.291732 0.300908
-0.0281294 0.30974 0.530939
0.200783 0.20523 0.0149861
0.110112 0.060615 0.245429
-0.12402 0.309204 0.529697
-0.112542 0.0474838 0.202233
0.110886 0.177802 0.384857
0.0762239 0.240613 0.507184
0.108424 -0.174449 0.263016
0.0230751 0.038165 0.204143
0.16476 0.184531 0.369373
-0.179827 0.0139934 0.372559
0.0143706 0.124826 0.227224
-0.0782091 0.301281 0.551569
-0.0802381 0.249964 0.518385
0.0308858 0.22512 0.441709
-0.0309175 0.00060755 0.257728
-0.0787254 -0.127336 0.283951
0.202488 -0.189188 0.0134842
0.132223 0.0156271 0.208762
-0.223702 -0.195726 0.341753
0.0680563 0.241578 0.461482
-0.179827 -0.00631429 0.00540234
-0.12074 0.00470454 0.226297
-0.181329 0.0571938 0.372203
-0.108153 0.329637 0.624049
-0.179827 0.312863 0.547926
0.144692 -0.234468 0.275318
-0.0199798 -0.247341 0.277956
-0.0559771 0.329637 0.607561
0.179827 0.216346 0.00532318
-0.111676 0.183056 0.391171
-0.0369006 0.276763 0.571876
-0.199996 -0.207936 0.220311
-0.151866 0.258966 0.482372
-0.179827 0.111866 0.220485
-0.0434047 -0.175516 0.247937
0.112108 -0.170148 0.292725
0.140211 0.125755 0.358764
0.0405942 0.283852 0.488828
-0.0882162 -0.0931219 0.276938
0.0100794 -0.0954889 0.231535
0.183874 0.223944 0
-0.179827 0.148336 0.29203
0.0689064 0.293538 0.50243
0.0240699 0.0622243 0.199212
0.149174 -0.0926134 0.230946
-0.0574076 -0.217652 0.302462
-0.077077 0.296778 0.508069
0.173897 -0.146557 0.282642
0.221182 -0.212103 0.0679507
-0.051184 0.32926 0.603673
-0.0413582 -0.0173557 0.215522
0.0231701 -0.284716 0.270701
-0.0713061 0.155468 0.404877
0.121855 0.103173 0.249072
0.211824 -0.012396 0
0.162623 -0.0941387 0.231258
-0.0467067 0.173901 0.427025
0.172624 0.167186 0.41244
-0.14378 0.193756 0.450882
-0.0616908 0.314651 0.669554
0.20168 0.0722062 0.373126
-0.012313 0.165284 0.416671
-0.125378 0.284679 0.628391
0.0588597 -0.207918 0.254578
0.144783 0.137056 0.269709
-0.097009 0.206519 0.466217
0.0607398 0.112556 0.216288
0.0766583 0.144324 0.317162
-0.12711 0.262026 0.462631
-0.110186 0.229079 0.446464
0.11818 0.238122 0.50419
-0.0558709 0.27017 0.553695
0.043886 0.241325 0.00792961
-0.221215 -0.142935 0
0.214816 0.113455 0.375663
0.189745 0.219453 0.41148
0.173375 -0.0254259 0.232472
-0.0205643 0.220739 0.436444
0.0384545 0.075501 0.211786
0.0394365 0.116055 0.330034
0.134367 -0.162203 0.245208
-0.00835814 0.326896 0.674822
-0.00827979 0.133384 0.245732
-0.123048 0.268679 0.494033
-0.0948536 -0.218901 0.302718
0.0169434 -0.227785 0.25865
0.0312299 0.288207 0.494042
-0.177308 -0.0557445 0.238686
-0.179827 0.202369 0.40982
0.128393 0.177282 0.384233
-0.00441544 0.141133 0.296328
0.110871 0.143539 0.312036
0.117304 0.257837 0.457598
0.00976829 -0.00150388 0.227569
0.178444 -0.158511 0.244452
-0.18252 -0.211468 0.0590402
-0.179827 0.293733 0.511171
-0.120915 0.205908 0.465483
0.0375203 -0.148638 0.257726
0.117367 0.134779 0.25485
-0.00011614 -0.1391 0.255771
0.113605 0.00233349 0.257374
0.19475 -0.210917 0.0533366
0.00448832 -0.320802 0.303055
-0.00545168 0.119259 0.339524
-0.21879 0.238825 0.0149861
-0.075406 0.154269 0.283146
0.133746 -0.257481 0.310625
0.0777862 0.0226833 0.222612
0.147578 0.0726003 0.212381
-0.0036642 0.223879 0.487076
-0.13807 0.310658 0.58437
-0.167777 -0.000578761 0.212083
0.175389 -0.0522956 0.261578
-0.0261357 -0.23114 0.274636
0.0141112 0.184457 0.439709
0.21701 0.0861661 0.0149861
-0.19365 -0.128482 0.360787
0.224785 -0.209975 0.0732324
-0.0854458 0.14835 0.396109
0.0680524 0.314651 0.61906
0.043657 0.279507 0.58023
0.0890057 0.12488 0.20625
-0.01368 0.22629 0.443113
0.0544579 -0.136372 0.239914
-0.122924 0.144132 0.31591
-0.0256077 0.112133 0.216031
0.179827 0.264955 0.504552
0.172233 0.0516428 0.20138
-0.182524 -0.116933 0
-0.192796 0.112226 0.390605
-0.148314 0.188932 0.445086
-0.170605 0.274622 0.558276
-0.173493 0.188874 0.0029116
-0.168662 0.0585746 0.215255
-0.158965 -0.138289 0.255605
-0.173579 -0.0357277 0.260173
0.0767012 -0.0636553 0.240308
0.198827 -0.218696 0.160459
0.0415956 0.153891 0.280678
0.161638 0.172177 0.350213
-0.0286083 0.124706 0.355657
-0.200713 -0.207541 0.0393969
0.135773 0.280896 0.5105
0.11366 -0.18046 0.264248
-0.0259897 -0.150874 0.288775
0.165655 0.254169 0.476609
0.17922 0.229391 0.0149861
-0.179827 -0.203253 0.0633262
-0.113236 -0.188309 0.296448
0.110903 0.284003 0.605885
0.0832964 0.109935 0.29059
0.179827 -0.103273 0.2466
-0.00614861 -0.190525 0.251013
0.0616294 0.302991 0.518883
-0.0784862 0.314651 0.611146
-0.206461 -0.202236 0.33407
-0.152407 -0.158546 0.290348
-0.0655047 0.0388746 0.203997
-0.0718004 -0.154161 0.258858
-0.0557101 -0.162729 0.245316
-0.0768918 0.0554832 0.246481
0.0942117 -0.281016 0.269559
0.169561 -0.287742 0.286236
-0.0738945 -0.170278 0.262161
0.20136 -0.200697 0.118645
-0.0909702 -0.0244358 0.232269
-0.0747948 -0.296393 0.313855
-0.0494733 -0.179271 0.264005
0.158984 0.139525 0.285829
0.173078 0.0965249 0.210372
0.0585935 0.136846 0.26834
0.187191 -0.199771 0.105641
-0.0786743 0.133762 0.373663
-0.0318778 0.154122 0.282185
0.131539 0.171542 0.37713
-0.0840177 0.157326 0.303101
0.0795351 0.155632 0.405073
0.224785 -0.0609279 0.0137377
0.221204 -0.162819 0.358611
-0.148661 0.241325 0.00634391
-0.00150746 0.319061 0.674822
0.0763495 0.144269 0.316806
0.187225 -0.098663 0.377627
-0.0107874 0.113506 0.313901
-0.191865 -0.125535 0
-0.178097 0.284061 0.559007
0.0918219 0.134334 0.251943
-0.147264 0.119405 0.339956
-0.114065 -0.042261 0.220626
0.0441132 0.0821891 0.210483
0.0541731 0.301085 0.515565
-0.173746 0.104504 0.212436
-0.0989821 0.218238 0
-0.0735363 -0.0671065 0.241015
0.199206 -0.166745 0.00178888
-0.110676 0.0826428 0.210409
0.00313449 0.246483 0.443957
0.00236174 0.288646 0.523986
0.00587311 0.0390875 0.249841
-0.0907288 0.134212 0.251145
0.0823924 -0.31484 0.306894
-0.198945 0.198132 0.392202
0.176028 -0.189642 0.26613
-0.175284 0.138638 0.220496
-0.0159307 -0.0503955 0.23759
-0.193841 -0.219614 0.173342
0.151634 0.102209 0.247168
0.033828 0.070237 0.243457
0.168338 0.0927965 0.238534
-0.0753499 0.0846518 0.194898
-0.140313 -0.117696 0.281975
-0.224785 -0.208833 0.0791264
0.01713 0.15263 0.344664
-0.0696311 -0.149229 0.288438
-0.0301207 0.267605 0.469334
0.113777 -0.228258 0.258746
-0.00964515 -0.139141 0.28637
-0.100662 0.113814 0.315915
0.183649 -0.070818 0.0149861
-0.0477117 0.271817 0.558235
-0.0180492 0.261012 0.536057
0.116579 0.134794 0.215689
-0.224785 -0.191861 0.0181046
-0.139314 0.159347 0.357982
0.0882893 0.196652 0.454361
-0.112716 -0.0452884 0.236543
0.224785 -0.0206419 0.372187
-0.0287925 -0.0211481 0.216299
-0.0938234 0.250851 0.519447
-0.141568 0.241325 0.0117579
-0.00433306 -0.311645 0.291134
0.00422898 0.171534 0.349037
-0.224785 -0.150016 0.00225967
0.0427785 0.139994 0.288891
-0.0608035 -0.109797 0.249765
0.140702 0.168123 0.420083
-0.0507914 0.284954 0.517561
0.134134 0.164649 0.367691
0.0258284 0.170618 0.347359
0.205839 -0.00879042 0
0.0303558 -0.251297 0.278767
0.150718 0.142552 0.305592
0.0802625 0.234697 0.0149861
-0.212221 -0.205225 0.18224
0.149463 0.270745 0.473107
-0.0911054 0.314651 0.680117
-0.0935809 0.146996 0.238303
0.179684 -0.296035 0.295949
0.101324 -0.0786287 0.243377
-0.0294652 0.274482 0.565584
-0.0464288 0.104523 0.196689
0.0741337 -0.037286 0.219606
-0.0427859 0.135551 0.259887
0.179827 0.297358 0.563872
-0.0268536 -0.207577 0.300397
-0.0266033 0.284059 0.606205
-0.157313 0.275524 0.568459
0.0332914 0.0899828 0.239831
-0.0826968 0.329637 0.656424
0.00389691 0.160607 0.360288
0.0635901 -0.236632 0.260463
-0.0944688 0.0343032 0.250822
-0.044382 -0.268268 0.266947
-0.10535 0.206205 0.465839
0.19291 0.236813 0.455767
-0.16882 0.276219 0.503065
-0.179827 -0.0239941 0.220625
-0.205423 -0.159278 0.373887
-0.00943655 0.279375 0.507854
0.0155967 0.145948 0.324879
-0.182546 -0.0728479 0.0149861
-0.00818062 0.261057 0.484884
-0.15411 0.144971 0.23231
-0.169244 0.271199 0.550637
0.000923961 0.0859157 0.240243
-0.0922814 0.0557151 0.200546
-0.167151 -0.0992403 0.277031
0.128082 0.0538244 0.216229
-0.125774 0.19051 0.0149861
-0.144719 0.165053 0.36843
-0.224785 -0.0319851 0.014763
-0.0519888 0.239561 0.459058
0.127001 0.310846 0.585444
-0.207341 0.241325 0.00772689
-0.200793 -0.160923 0.373769
-0.181959 -0.206053 0.328145
0.119404 0.132403 0.371175
-0.179234 -0.276659 0.283965
-0.0558461 0.313128 0.59845
0.0972281 0.174731 0.354889
0.111454 -0.0993638 0.247627
-0.0249271 -0.107943 0.249385
0.166321 0.114999 0.217778
0.104591 0.283436 0.602648
0.141133 -0.140284 0.256014
-0.00976764 0.129728 0.23503
0.179827 0.226558 0.42057
-0.179827 0.304026 0.542035
-0.0132041 0.296031 0.537077
-0.0409472 -0.32606 0.298635
-0.0624992 -0.180947 0.24905
0.100466 0.141935 0.301561
-0.167539 0.0825639 0.210422
-0.100606 -0.0158459 0.230509
0.10991 0.293617 0.668954
0.0582314 -0.165705 0.261224
-0.123857 0.152985 0.401887
-0.188344 -0.202309 0.356268
-0.0763426 -0.0347043 0.234374
0.0664271 -0.00304338 0.227885
-0.0989888 0.0838141 0.240674
-0.104757 0.0325927 0.251172
0.065588 -0.0407869 0.235621
0.125094 0.329637 0.642017
0.121951 0.2238 0.486981
-0.147674 0.137363 0.271718
-0.141343 0.194492 0.0149861
0.0255125 0.284679 0.63899
0.0820272 0.251876 0.450437
-0.0120275 0.178069 0.385178
-0.215202 -0.145894 0.0149861
0.146565 0.00628436 0.256564
-0.180306 0.13844 0.0149861
-0.183156 -0.105865 0.0149861
-0.0231857 0.23184 0.496642
0.0561508 -0.0906345 0.245837
0.051502 0.108624 0.282026
-0.101044 0.191316 0
0.140062 0.251521 0.473427
-0.107227 0.314651 0.684422
-0.0780704 0.0672268 0.198186
0.0847427 0.11422 0.217303
-0.132627 -0.200573 0.298961
0.179827 -0.0811258 0.24177
0.107123 -0.15949 0.25995
-0.188674 0.054748 0.0149861
-0.173679 -0.268379 0.282268
0.167039 0.162218 0.363239
0.159643 -0.0801533 0.228392
0.125307 -0.138497 0.24035
-0.0675177 0.202121 0.414076
-0.0375527 0.159594 0.358434
0.179827 -0.135862 0.369017
-0.121449 0.110114 0.198539
0.0524851 0.209176 0.46941
0.0402133 -0.203085 0.268886
-0.139393 -0.277036 0.314633
-0.088049 0.27211 0.498143
0.100053 0.314651 0.626996
0.224785 -0.204817 0.0719463
-0.175589 -0.280596 0.284772
0.0615904 -0.0757445 0.242786
-0.168763 0.00344861 0.255302
0.0692247 0.279692 0.581284
-0.224785 0.139565 0.386694
-0.0697196 0.157129 0.353919
-0.191398 0.0140295 0.0149861
0.0587215 0.0898632 0.209843
-0.167444 0.329149 0.603042
-0.179827 -0.180561 0.265748
0.00735481 -0.133227 0.254567
-0.0684774 0.143159 0.309555
0.00969127 0.15632 0.4059
0.114798 0.0604605 0.24546
0.0967424 -0.310345 0.290867
-0.216214 0.202413 0.0149861
-0.180216 0.157418 0
0.160033 -0.284087 0.314983
0.222631 -0.100532 0
0.0818091 0.284679 0.639743
-0.179827 -0.215638 0.220317
0.0412553 -0.308199 0.290428
-0.144151 0.312653 0.59574
-0.15246 0.180958 0.364916
0.152647 0.265476 0.490193
0.174123 0.0328536 0.220527
0.143099 -0.159301 0.259911
-0.0909376 -0.268443 0.266983
-0.0717917 0.266385 0.545412
-0.133405 -0.110575 0.280516
0.160627 0.164925 0.41624
0.0894039 0.12096 0.222748
-0.0888837 0.0420113 0.21865
0.204386 0.183457 0.0149861
-0.0784729 -0.13748 0.240141
-0.025358 0.00905359 0.255997
0.119338 -0.227849 0.304552
-0.179827 -0.211784 0.279533
0.162882 0.132592 0.242499
-0.0315873 0.0240197 0.207042
-0.224785 -0.220472 0.246667
0.14839 0.153353 0.346805
0.176519 0.0562153 0.237832
-0.195299 0.051852 0.0149861
0.0518171 0.0153831 0.208812
-0.21362 -0.209175 0.237713
-0.0641888 -0.248496 0.308783
0.17797 0.132082 0.343289
-0.121743 0.290851 0.527823
-0.039791 0.108576 0.214031
-0.208044 0.0391879 0
-0.0104318 0.247054 0.444643
0.088404 -0.028562 0.233115
-0.175177 0.148373 0.244639
-0.021654 -0.157093 0.244161
-0.0382669 0.134232 0.251278
-0.155484 0.254481 0.524687
-0.167694 0.279854 0.576398
0.0646091 0.316918 0.674822
0.207666 0.182694 0.0149861
-0.131343 -0.114443 0.250717
-0.202907 -0.124376 0.376044
-0.173413 -0.111576 0.234832
-0.168206 -0.0770117 0.243045
-0.209104 -0.0511466 0
0.146455 0.205667 0.0149861
0.100432 0.228677 0.492841
0.22005 0.149644 0
-0.150022 0.284679 0.630762
0.0702848 0.145641 0.234291
0.0868136 -0.119755 0.282397
-0.165886 -0.0969632 0.247135
0.101278 0.296581 0.538594
0.126906 -0.0356897 0.219279
-0.166183 0.307572 0.683633
-0.144947 0.169545 0.374639
0.102879 -0.00883442 0.229072
-0.161588 0.314651 0.655072
-0.0332265 0.00166079 0.211624
0.0830134 0.166273 0.338239
-0.206924 -0.00215112 0.383566
0.0103996 0.299979 0.547973
-0.139045 0.169639 0.374757
0.1116 -0.204539 0.269184
0.186099 0.228922 0.446286
-0.213563 -0.113443 0.361712
-0.154744 0.215831 0.40713
-0.196572 0.0570746 0.372196
0.176389 -0.133756 0.239378
0.184923 0.220426 0
0.139673 0.307321 0.568242
-0.0147091 0.225778 0.489359
-0.06925 -0.00955567 0.229219
-0.0995972 -0.132307 0.239081
-0.185697 0.00566432 0.0149861
-0.0499065 0.323277 0.569559
-0.0534958 0.152986 0.34572
-0.044329 0.208552 0.421802
0.119253 -0.136025 0.285732
0.0882734 0.11011 0.291731
0.0466421 0.0660558 0.213722
0.00775053 0.132245 0.241474
-0.0340352 0.26675 0.468307
-0.209398 -0.209798 0.32024
0.161132 0.137781 0.274444
-0.0424306 0.213143 0
0.183217 -0.187413 0.033098
0.170179 0.121423 0.223156
-0.14834 -0.218775 0.272101
0.186691 0.257746 0.473941
0.0132983 0.329637 0.629217
0.0804756 0.217881 0.433011
-0.146068 -0.03367 0.234162
-0.156478 -0.118619 0.236276
0.0172949 0.329637 0.651575
0.224785 -0.0707766 0.374805
-0.163846 0.200531 0.0149861
-0.173597 0.270655 0.472999
0.0166451 0.031697 0.220764
0.102143 0.217583 0.432653
-0.0992279 0.231314 0.496009
0.117166 0.137752 0.219388
-0.116393 0.0587798 0.215213
0.201783 -0.116952 0.0149861
0.074468 -0.135748 0.285675
0.009359 0.188874 0.0144591
0.068878 0.0885908 0.209816
0.179827 -0.206969 0.0827346
0.119854 -0.221906 0.257445
-0.146941 0.314651 0.638339
-0.152419 0.233859 0.452208
-0.109606 0.162238 0.363275
-0.179827 0.184613 0.00676471
-0.0522752 -0.160904 0.244942
0.173113 -0.00634506 0.213265
0.104167 -0.0261947 0.23263
-0.132521 -0.226682 0.258423
-0.202033 -0.0200986 0
0.0335332 0.16314 0.364927
-0.201786 -0.162131 0.373683
0.176463 -0.150337 0.280242
-0.190092 0.173932 0.0149861
0.0790608 0.276057 0.569927
0.0934924 0.316136 0.548581
0.0171396 -0.144199 0.256816
-0.0571764 0.206461 0
0.133619 0.289933 0.662422
-0.171985 0.314651 0.639561
0.159792 0.26794 0.548118
0.146001 0.151205 0.340446
0.152402 0.138683 0.382671
0.164011 0.329637 0.652033
0.159645 0.176386 0.430011
0.0278703 0.243574 0.440462
-0.173849 0.306692 0.566503
-0.185131 -0.205476 0.185768
0.170617 0.094726 0.237975
-0.204133 0.0574094 0.0149861
-0.0285494 0.199856 0.0149861
0.0461337 0.30333 0.557223
-0.00121899 0.19321 0.0149861
-0.0948625 0.107589 0.213645
0.14852 0.314651 0.607368
0.107302 0.314651 0.634381
0.218767 0.0490924 0.38672
-0.17722 0.28659 0.571884
0.0464131 -0.249213 0.308931
0.00243108 0.156276 0.352358
0.179827 0.233906 0.451362
-0.00695594 -0.213772 0.271076
-0.179827 -0.193788 0.355733
-0.0504546 0.316316 0.549077
-0.0306978 -0.0259173 0.263164
0.0340262 0.314651 0.685535
-0.0680135 0.273512 0.499821
-0.19143 -0.164601 0.373506
0.033817 0.205682 0.418355
0.0200271 0.182496 0.390497
-0.174603 -0.133096 0.279185
-0.0140271 0.29372 0.532815
0.0747265 0.314651 0.631098
-0.181595 0.0844504 0.0149861
0.179827 0.10742 0.205906
-0.17392 -0.164516 0.286303
0.00240198 0.110341 0.214938
-0.191029 -0.00795555 0
-0.176181 -0.101204 0.232707
-0.0480606 0.220814 0
-0.13876 0.134837 0.255228
0.146945 -0.142481 0.287055
0.179827 -0.0824374 0.24823
-0.00793432 -0.281754 0.269711
0.026064 0.325043 0.579634
-0.193062 -0.208488 0.22807
0.011318 0.155822 0.293285
-0.159002 0.284679 0.642664
0.145805 -0.0407155 0.266197
-0.221172 -0.162798 0.00108734
0.179827 0.261221 0.487162
0.115546 0.0931589 0.240264
-0.212118 -0.214836 0.10629
-0.12758 -0.290911 0.314822
0.14654 0.13074 0.237027
-0.172175 0.207045 0.419992
-0.161892 0.314651 0.6122
-0.0806191 -0.126593 0.283799
0.0954508 -0.0543885 0.269
0.163317 0.00984931 0.225242
-0.178466 -0.0716261 0.26014
0.0404005 0.295417 0.5057
-0.0812483 0.185337 0.440766
-0.190392 -0.211532 0.0599346
0.161455 0.146299 0.325918
0.0676787 -0.277198 0.284076
0.17126 -0.134701 0.282279
0.212961 -0.201373 0.128137
-0.179827 -0.23263 0.269122
0.178121 0.254485 0.506155
0.146824 0.280769 0.587434
0.182327 0.174362 0.381274
-0.141087 0.123561 0.225641
-0.110424 -0.0169702 0.230739
-0.0269233 0.168705 0.343857
-0.20809 -0.0558997 0.380258
0.0243528 0.112077 0.304575
0.224785 0.0921576 0.38751
-0.085619 0.314651 0.638465
-0.0328558 -0.219447 0.30283
-0.194287 -0.0551841 0.380302
0.0135915 0.0607499 0.214809
-0.173153 -0.109598 0.275647
0.116468 0.076755 0.242121
-0.179827 0.241063 0.458469
-0.104232 0.167744 0.342099
-0.137614 -0.183613 0.264894
0.0432366 0.197217 0.384767
-0.00308464 0.272977 0.561433
-0.142639 -0.060573 0.239676
-0.179827 0.18473 0.400392
-0.0690317 -0.000142425 0.257881
-0.0542826 0.314651 0.647915
-0.0300158 -0.0328416 0.264583
-0.0413154 0.314651 0.661756
0.179827 0.210633 0.423345
-0.0128549 0.0813389 0.210623
-0.0356538 -0.0928677 0.276886
-0.0767579 -0.107826 0.234064
-0.0991643 0.0551438 0.24655
0.179827 -0.223715 0.259702
-0.179827 -0.169681 0.363904
-0.159378 -0.0857876 0.275435
-0.0738212 -0.266313 0.312435
-0.092559 -0.153067 0.289225
0.140938 0.220618 0
0.017155 0.0465907 0.217712
-0.168921 0.267488 0.469193
0.0413578 -0.0733406 0.242293
-0.0395224 -0.133697 0.285255
-0.0256087 0.0819809 0.24105
-0.0306138 0.211626 0.425496
-0.179827 -0.141453 0.00197165
-0.209128 -0.177478 0.0232082
0.148949 -0.191561 0.297114
-0.113573 0.286539 0.52032
-0.00254899 0.2166 0.0149861
0.163136 0.277871 0.505237
-0.0823108 0.115265 0.3254
-0.122567 0.140284 0.223083
-0.179827 0.00702891 0.214977
-0.129679 0.107808 0.213731
0.114507 0.153916 0.280843
0.179827 0.211157 0.00805907
0.0693334 0.329637 0.623639
0.100364 0.153865 0.347943
-0.0714217 -0.308591 0.290512
0.0650725 -0.00184155 0.227638
-0.106144 -0.182376 0.295232
-0.0621661 0.307379 0.684445
0.0120772 0.279407 0.579661
0.179827 0.192351 0.408288
-0.158168 0.175744 0.42924
0.159767 0.143074 0.308999
-0.0913793 0.314651 0.659287
-0.147711 0.142812 0.307285
0.179827 0.263559 0.495359
0.164143 -0.0713416 0.241883
-0.0102942 -0.199286 0.268107
0.218465 0.000571832 0.368722
0.115297 0.309483 0.577673
0.0772255 0.283521 0.515068
0.123431 0.313 0.688393
0.0347539 0.0753216 0.196527
0.0643023 0.292523 0.530732
0.153217 0.24542 0.466098
-0.00719908 -0.226133 0.258311
-0.0463485 0.0370321 0.250262
-0.142047 0.300036 0.548131
0.183579 -0.077589 0.0149861
-0.025122 0.0927318 0.209905
0.206716 0.0696873 0.0149861
0.0522688 0.00859112 0.210204
0.10766 0.11762 0.219802
0.0573822 0.221807 0.437728
-0.0527327 0.329637 0.645651
-0.00945678 0.329637 0.630895
0.182982 -0.117188 0.0149861
0.0542593 -0.00132757 0.258124
0.109649 -0.189291 0.25076
-0.163595 0.0670446 0.213519
0.175387 -0.0926899 0.26986
0.224785 -0.168895 0.361208
-0.0708455 0.314651 0.62144
0.0997544 -0.216243 0.302173
-0.224785 -0.207817 0.0532419
-0.0723551 0.315057 0.545603
-0.224785 0.227057 0.428914
-0.047955 -0.238351 0.276114
-0.114795 0.284679 0.637284
-0.0535693 -0.272303 0.267774
-0.0486158 0.312575 0.595296
-0.16084 -0.0477749 0.267644
0.0154102 0.0805564 0.210751
0.160416 0.295922 0.536774
-0.0862123 0.134736 0.375447
0.124646 0.160864 0.41136
0.114939 -0.123421 0.283148
0.0488774 -0.167059 0.261502
0.129068 0.329637 0.647828
-0.179827 0.117368 0.218428
0.116588 -0.268925 0.312971
-0.0780188 -0.0692712 0.241459
-0.0720135 0.276788 0.571944
-0.116082 -0.100845 0.232633
-0.126305 -0.0768747 0.22772
-0.224785 -0.186006 0.0129849
-0.168613 0.141276 0.383779
0.01478 -0.231968 0.274805
0.0758847 -0.00279543 0.258425
-0.113059 0.0413883 0.203482
-0.115993 0.138817 0.281209
0.0872111 0.249289 0.447329
-0.103808 0.0661277 0.244299
-0.0454104 0.179148 0.386475
-0.168124 -0.0765529 0.227654
-0.137264 -0.058917 0.22404
0.120976 -0.20055 0.253068
-0.0129726 0.318716 0.555695
-0.102279 -0.177007 0.248243
0.163744 -0.0153502 0.230407
-0.0711239 0.273687 0.476642
-0.137667 0.112638 0.308233
-0.0433931 -0.215173 0.256065
0.0323228 0.137661 0.273664
-0.139499 0.2135 0.427748
-0.0112418 -0.0793117 0.22822
-0.117086 0.143324 0.310629
-0.0282215 0.231967 0.426517
-0.189906 -0.208664 0.0424894
-0.191264 0.179254 0.383074
-0.0973918 0.0502223 0.201671
0.0091918 0.272644 0.498782
0.061607 -0.185261 0.295823
0.156219 -0.062375 0.270636
0.0404292 -0.260748 0.265405
-0.224785 -0.173298 0.00793274
-0.224785 -0.207346 0.333572
-0.0163491 0.241197 0.461024
0.141649 -0.0637563 0.225032
-0.216815 -0.124669 0.0149861
-0.184035 -0.199917 0.107694
0.0908639 0.259902 0.46008
-0.219864 -0.204461 0.171506
-0.165079 -0.0922761 0.276229
0.0979108 -0.0318307 0.233785
-0.0724963 0.139725 0.287135
-0.118836 -0.28508 0.314982
0.175205 -0.216215 0.271577
0.208958 -0.0607211 0
-0.123606 0.302266 0.517621
0.151738 0.216344 0
-0.0403197 0.303581 0.681225
-0.0641486 0.152917 0.274321
0.0444346 0.232278 0.42689
-0.0387277 0.298926 0.545067
-0.154796 0.15247 0.34419
0.169224 0.134473 0.252848
0.0889148 0.0223622 0.222677
-0.107081 0.0577921 0.215416
0.115147 -0.199564 0.268164
-0.224785 -0.205991 0.0676961
0.0195732 0.310507 0.583512
-0.0355786 -0.124996 0.237583
-0.0235063 0.0323726 0.220626
-0.122759 0.108744 0.28281
-0.088474 0.185201 0.370208
0.103311 -0.213815 0.301675
-0.107197 0.222029 0.484853
-0.0993669 -0.276745 0.268684
-0.218361 -0.205225 0.182245
-0.181145 -0.121288 0.0149861
0.222956 -0.200645 0.117916
0.169576 0.0806911 0.210729
-0.010393 0.281234 0.511089
-0.00966121 0.166831 0.371254
-0.00773862 0.134638 0.253926
-0.176009 -0.140022 0.25596
0.0565489 0.196531 0.40736
0.211177 -0.0144154 0
-0.0236619 0.269304 0.471375
0.174683 0.0290572 0.245843
0.0577436 0.202486 0.391097
0.172662 -0.0615327 0.239873
-0.0717837 0.210979 0.401301
0.121298 -0.262155 0.280993
0.223794 0.0235995 0.0149861
-0.0459148 0.269767 0.471932
0.184381 0.0142255 0.0149861
0.0651174 0.152114 0.269073
0.0177834 -0.00142083 0.212256
-0.025351 0.247143 0.515009
0.126994 0.107255 0.197421
0.0700613 -0.0863977 0.229672
0.177995 -0.143119 0.275954
0.122548 0.323778 0.572419
0.178879 -0.262696 0.298281
-0.0544472 0.113602 0.314529
0.142141 0.152288 0.270213
0.00904933 -0.254671 0.310049
0.224785 -0.141558 0.00600419
0.0320637 0.246253 0.44368
-0.224785 -0.172898 0.361082
-0.152752 0.222508 0.0149861
0.102251 0.300955 0.550668
-0.0689798 0.0107862 0.22505
-0.179827 0.0917451 0.00365242
-0.0102737 0.218555 0.433821
0.125145 0.250267 0.448504
0.149956 0.0773168 0.196118
0.0982817 0.063584 0.24482
-0.170747 0.116968 0.318504
0.222296 -0.215295 0.112735
0.0916068 0.329637 0.664244
-0.113106 0.204504 0.463796
0.179671 -0.198471 0.280614
-0.172224 -0.172355 0.289239
0.122903 0.048611 0.202002
-0.181669 0.00709002 0.0149861
0.144207 0.144708 0.391568
-0.0511786 0.137034 0.269568
-0.0309987 -0.226538 0.258394
0.0808105 -0.199054 0.29865
-0.0249182 0.260184 0.483836
0.0703872 0.256448 0.455929
0.161884 0.18755 0.443263
-0.125362 0.144862 0.231987
-0.160754 0.115872 0.329372
-0.179827 -0.206466 0.329852
0.0431617 0.0774028 0.241988
-0.0182686 0.152709 0.272963
0.179827 0.316135 0.636173
-0.0350296 0.141252 0.297106
0.0835259 0.306835 0.683983
0.221013 -0.141566 0.0149861
-0.214407 -0.124937 0.37601
-0.0127376 0.188874 0.00443561
-0.11861 -0.0378575 0.23502
-0.198182 0.26498 0.466188
-0.000308037 0.126122 0.359678
-0.0191036 -0.0496864 0.222148
-0.0999984 0.00457034 0.226324
-0.113293 0.301625 0.552517
0.195262 -0.216261 0.126295
-0.0237285 0.0482543 0.217371
-0.124896 -0.130696 0.238751
0.192949 0.187146 0.385976
0.0338274 0.239746 0.506141
0.0420527 0.10622 0.266331
0.179827 0.203076 0.00134512
0.0477961 0.2843 0.516423
-0.0840223 -0.201675 0.268597
-0.0325463 0.292274 0.666629
-0.131158 -0.218585 0.302653
0.0184857 0.0910545 0.194882
-0.045422 0.21621 0
-0.183362 0.230367 0
0.0558011 0.153276 0.346579
0.00713336 -0.178277 0.263801
-0.162874 -0.285059 0.285685
-0.0965536 0.257997 0.530808
0.00661777 0.152735 0.401577
-0.134009 0.116625 0.201217
0.110386 -0.174333 0.293583
-0.0140334 0.329637 0.662805
0.0366945 0.153434 0.277694
-0.044061 -0.104944 0.279361
0.179827 -0.155566 0.0129715
-0.0367487 0.314651 0.623668
0.0204667 -0.265595 0.266399
0.111507 -0.0282217 0.217749
-0.191313 -0.205605 0.187576
-0.179827 0.144852 0.260635
0.104488 0.329637 0.635874
-0.0186078 -0.195461 0.297914
-0.00159854 -0.134908 0.285503
0.0304503 0.227734 0.444848
0.150298 -0.0887864 0.27605
-0.101271 0.105752 0.212925
0.0668471 0.18879 0.444915
0.223149 -0.206945 0.351749
-0.0103795 0.314651 0.666548
-0.179827 0.183754 0.374763
0.124006 0.271673 0.497619
0.130728 0.329637 0.625043
0.212402 0.0275681 0.385395
-0.125638 0.156453 0.297407
-0.179827 0.311239 0.545597
0.0928597 -0.239631 0.276376
0.166335 0.138357 0.278203
0.0108254 -0.248061 0.262805
-0.131554 0.152835 0.27378
-0.173067 0.314651 0.656516
0.214321 0.207021 0.419973
-0.0289868 -0.109726 0.249751
0.125666 0.28412 0.516111
-0.12511 0.024971 0.222143
0.0570805 0.141726 0.300199
0.106234 -0.235372 0.260204
0.104395 0.12331 0.351523
-0.128837 -0.218624 0.302661
-0.126199 0.155385 0.290433
0.094529 0.000776052 0.257693
0.0589484 -0.314932 0.291807
0.00915661 0.179692 0.387128
-0.216401 0.161755 0.378796
-0.00604101 0.289205 0.495238
0.0889854 0.214596 0.405647
-0.0240291 -0.0117292 0.229665
-0.13068 0.0880713 0.239892
-0.0978291 -0.301653 0.289092
0.0963006 0.115489 0.200642
0.0589374 -0.270453 0.282693
0.0180179 0.323319 0.5698
-0.190302 0.0462869 0.0149861
0.199127 -0.0399281 0.381241
-0.19302 -0.195584 0.0194958
-0.0451846 0.131978 0.240685
0.0325765 0.183936 0.439082
0.0970972 0.108491 0.281158
0.0595756 0.314651 0.670867
0.0830067 -0.0597309 0.239503
0.136537 -0.174265 0.24768
-0.0738187 0.272456 0.498557
-0.048618 -0.00222647 0.227717
0.101275 0.139636 0.286555
-0.179827 0.157492 0.36103
0.186015 -0.198205 0.08365
-0.151521 0.248096 0.51615
0.179827 0.0965505 0.219647
0.0132908 0.111405 0.300182
0.0644602 -0.15159 0.288922
0.0228615 0.193212 0.403372
0.139941 -0.0840591 0.24449
0.160367 -0.177897 0.263723
0.0543717 -0.124166 0.237413
-0.213711 0.176441 0.382039
0.0290762 0.141969 0.388153
-0.0823342 -0.224825 0.273341
-0.120086 0.166555 0.339074
0.174422 -0.0558141 0.263586
-0.139994 0.181551 0.389363
0.211707 -0.0764052 0
-0.0352394 0.133953 0.249454
0.0428534 0.320948 0.674822
-0.096524 0.141902 0.226045
0.0689027 0.227222 0.0149861
-0.131523 0.134398 0.252361
-0.115147 0.00560355 0.226112
-0.0936967 0.282307 0.596208
0.16056 0.152499 0.344278
-0.0368581 0.126076 0.228789
0.179827 0.207357 0.404506
0.188208 0.127183 0
0.179827 -0.0763374 0.247064
-0.136653 -0.284513 0.271692
0.146712 -0.256979 0.279932
0.214591 -0.166011 0.00165837
-0.048736 0.0816569 0.210571
-0.184505 0.178418 0.382766
-0.160511 -0.22323 0.257716
-0.17423 -0.15443 0.258913
0.178409 0.11406 0.243819
0.157795 -0.0127623 0.21458
0.0203728 -0.223104 0.272989
0.184004 -0.0877867 0.378296
-0.129967 0.109452 0.214396
-0.0110034 0.299445 0.67683
0.155092 -0.221776 0.257418
0.102045 -0.284142 0.273504
-0.0547617 0.202165 0.414129
0.147071 0.200998 0.412726
0.140492 0.0188528 0.223397
0.217904 -0.19715 0.0688341
-0.109149 -0.147509 0.242197
-0.135951 0.238267 0.457504
0.0755949 0.263891 0.488289
-0.0465001 0.162422 0.363612
-0.00127977 0.215691 0.406962
0.0221274 -0.142093 0.241087
0.110274 -0.262709 0.281106
-0.11253 0.260205 0.534651
0.134784 -0.0992856 0.247611
-0.171617 -0.2987 0.288485
-0.136253 -0.299658 0.288682
-0.182543 0.165517 0.39469
0.224785 -0.220238 0.326197
-0.0866848 -0.322427 0.293343
-0.161755 0.0471599 0.248098
-0.0264239 -0.305945 0.311118
-0.15403 0.240585 0.460288
0.0786767 0.297365 0.540759
-0.155141 0.138859 0.281484
-0.0755447 0.284679 0.63177
0.0879225 0.208136 0.421303
-0.163144 0.120704 0.342971
0.124336 0.329637 0.623857
-0.0516101 -0.124456 0.252769
0.113287 0.242548 0.509508
0.0151995 0.287002 0.4926
0.156985 0.0442747 0.248778
0.00163117 0.141958 0.301711
0.152171 -0.316842 0.30574
-0.0295064 -0.245158 0.26221
0.0601122 0.262113 0.486154
-0.0597202 0.217305 0.0149861
0.111252 0.0555229 0.215881
0.0206738 0.155668 0.292277
0.182832 -0.0354608 0
-0.151149 0.291419 0.498742
-0.224785 -0.212811 0.102079
-0.172012 -0.0134676 0.256837
-0.0616165 0.143691 0.313027
0.173098 -0.0246835 0.23232
-0.106305 -0.282372 0.28215
0.190169 -0.0384058 0.366326
0.0388633 -0.0231069 0.2167
-0.190913 -0.0376754 0.0149861
0.0862521 -0.196584 0.252255
0.0913503 0.00175542 0.226901
-0.224785 -0.218809 0.284618
0.0799866 0.0664372 0.213644
0.0961614 -0.00168979 0.227607
0.140695 0.314651 0.677996
0.0858665 0.140523 0.292348
-0.098641 0.25713 0.529299
-0.0941719 0.225393 0.0149861
-0.0752744 0.110824 0.296394
0.215006 -0.0453804 0.0149861
0.0353197 0.221804 0.0149861
0.131588 0.123915 0.226084
0.0521401 -0.162094 0.260484
0.00766177 -0.326396 0.294156
-0.0369173 0.314651 0.648233
0.204763 0.25176 0.473725
0.19573 -0.220392 0.184262
0.0590151 -0.266308 0.266545
0.179827 -0.200666 0.110656
0.17672 0.150521 0.33842
-0.0144195 0.307362 0.568354
0.0215401 0.275874 0.569424
0.171613 -0.0424707 0.263096
0.0964806 0.304653 0.560876
-0.179827 0.196846 0.40952
0.0831155 0.00839138 0.210245
-0.0151241 0.280938 0.588394
0.0307233 0.174271 0.42747
0.220982 0.102068 0.38998
0.139336 -0.0193391 0.215928
0.176872 0.234685 0.429783
-0.0900828 -0.076293 0.242898
-0.105394 0.0142722 0.224336
0.00717908 0.238113 0.504179
0.187924 0.129732 0.376663
-0.0131516 -0.262574 0.311669
0.198091 0.0379624 0.0149861
0.112628 0.00370821 0.257092
0.105225 -0.159096 0.244572
0.0117929 -0.32893 0.29566
-0.0953729 0.0962809 0.210324
0.0968293 -0.288304 0.286353
-0.113826 -0.114162 0.25066
0.072246 0.217636 0
-0.0832195 -0.168946 0.261888
0.204749 -0.0354755 0.381515
0.0821412 -0.203454 0.268961
-0.135863 -0.104174 0.233315
0.0969937 -0.193617 0.297536
0.166416 -0.276275 0.313626
-0.0189499 0.309188 0.575994
0.0879763 0.241325 0.00775933
-0.0450969 0.303388 0.557384
-0.0862581 0.20732 0.396905
-0.0448026 0.000602961 0.227137
-0.0735773 0.270308 0.554075
-0.16315 -0.133344 0.284906
0.0116924 0.314651 0.671206
0.183726 -0.19677 0.0634916
0.105878 0.0681913 0.213284
0.120502 0.312569 0.595261
-0.0310063 -0.32714 0.297727
0.123954 0.324767 0.578055
0.201849 -0.0383193 0.38134
-0.176926 0.247784 0.445521
0.201562 0.179626 0
-0.100773 0.128103 0.232055
-0.0910791 -0.251992 0.263611
0.213824 -0.217169 0.13904
0.152772 -0.24998 0.309088
-0.0632745 0.0277985 0.252155
-0.123804 -0.0135558 0.230039
-0.197084 0.0971575 0.0149861
-0.0145187 0.284679 0.632253
0.146068 -0.230801 0.259268
-0.15176 0.0224155 0.253258
0.167008 0.314651 0.65196
-0.118099 -0.0381354 0.219781
0.213155 -0.0819964 0
-0.00717713 0.208567 0
-0.00729367 0.313674 0.60156
-0.00495562 0.188089 0.397217
0.106846 -0.130805 0.284662
0.0973512 0.165034 0.41637
0.185711 -0.14684 0
0.110588 0.201289 0.413076
0.100888 0.309199 0.576059
0.0683885 -0.276295 0.283891
0.0162527 0.186631 0.442321
0.00104052 -0.045743 0.267228
-0.0418641 -0.290163 0.314954
0.135725 0.142186 0.303199
-0.170971 0.0769845 0.239112
-0.0267424 0.254385 0.453451
-0.0803955 -0.297116 0.313727
-0.174349 -0.0616013 0.239887
-0.0293438 -0.0328717 0.233998
-0.178137 -0.0713755 0.226593
0.059308 0.190898 0.447447
-0.0719303 0.0207417 0.22301
-0.0142181 0.0333759 0.251012
0.222624 -0.150778 0.359417
0.0271285 -0.0696771 0.241542
-0.194279 -0.200318 0.113327
-0.161082 -0.104772 0.279326
-0.0766493 0.314651 0.673289
0.183187 -0.121211 0
-0.155276 0.291971 0.529771
-0.00985764 0.251431 0.473319
-0.0596716 0.0633721 0.214272
-0.040984 0.100334 0.211133
0.175337 0.17241 0.378213
0.0316564 -0.159711 0.259995
0.115343 0.285582 0.647764
0.159624 0.237052 0.456044
-0.0807127 -0.231073 0.274622
0.00782238 0.0435824 0.218328
-0.084896 0.278669 0.482622
0.129028 0.21824 0
-0.172649 -0.000671238 0.253715
-0.174463 0.182362 0.390337
-0.011163 -0.185712 0.265325
-0.21358 0.168759 0.38005
-0.179827 0.12983 0.29044
-0.0613662 -0.14894 0.288379
0.0855532 0.039402 0.219185
-0.0628456 0.304973 0.561758
-0.0905687 0.121405 0.223141
-0.0606721 0.203804 0.416098
0.0122523 0.133765 0.24823
-0.206248 0.0821338 0.388753
-0.141753 -0.20914 0.270126
-0.109323 0.193317 0.380081
-0.0444541 0.0730125 0.242888
0.179827 -0.1926 0.263632
-0.133828 -0.325563 0.293985
-0.0279056 -0.0254597 0.217183
-0.0481563 0.149193 0.334489
-0.148466 0.157641 0.305158
0.179827 0.212055 0.431572
0.0667048 0.296995 0.539737
-0.18871 0.0186099 0.0149861
0.0815522 0.297608 0.541429
0.0370416 0.211113 0.42488
-0.130148 0.187778 0.396844
-0.105634 0.0303575 0.205743
-0.20575 0.227681 0.0149861
-0.0460318 0.314134 0.604183
-0.0083092 -0.284402 0.272233
0.0432714 0.268461 0.470363
-0.107138 -0.0974289 0.231933
0.0409787 -0.202782 0.268823
0.000885025 0.296941 0.539589
0.0779569 0.281014 0.588826
-0.186866 0.123855 0.376302
