0.247802 -0.227204 0.5154
0.00506014 -0.155578 0.376623
0.214818 -0.194366 0.38046
0.14866 -0.082303 0.370212
0.101456 0.0321656 0.371546
-0.228213 0.0230781 0.355851
-0.130251 0.224616 0.624603
-0.241729 -0.255484 0.451728
0.259915 -0.247547 0.0725753
0.0110048 -0.00860631 0.375113
-0.23552 0.22648 0.622138
0.259702 -0.00733209 0.0125854
-0.241597 -0.0261357 0.0196021
0.021675 0.262054 0.704898
-0.240785 -0.0432174 0.526605
-0.193739 -0.039573 0.377822
-0.227209 -0.196972 0.37483
-0.164076 0.212415 0.598435
-0.259939 -0.247454 0.0685759
-0.0937746 -0.0578635 0.379422
0.135007 0.196329 0.590698
-0.13076 0.224566 0.0217407
0.229894 0.204542 0.613762
-0.256723 0.190958 0.00953307
0.244053 -0.233851 0.476037
-0.191348 0.191246 0.553033
0.23258 -0.0136458 0.378873
-0.215325 0.171129 0.50876
-0.12344 0.0453034 0.370396
0.259379 0.132687 0.0137967
0.166521 0.220049 0.614808
-0.246759 -0.174198 0.0220796
0.252713 -0.236818 0.234382
0.237707 -0.246034 0.4022
-0.222749 -0.242761 0.400334
0.217804 0.164792 0.433687
-0.033137 0.258388 0.697035
-0.259518 0.00774691 0.509772
-0.0636057 0.217299 0.00833194
0.201831 0.0762965 0.358463
0.202954 -0.092251 0.371082
-0.0249107 0.212347 0.598289
-0.146776 0.201068 0.574099
0.243557 0.21736 0.00864053
-0.205048 0.207438 0.587761
-0.141733 2.44379e-06 0.363011
-0.209123 -0.0878916 0.370701
-0.143979 0.264438 0.710012
0.103698 0.226916 0.629536
0.138654 -0.232467 0.38335
0.184242 0.00948402 0.362181
-0.0337312 -0.2061 0.392391
0.136137 0.186097 0.54199
-0.192876 -0.173056 0.378152
-0.166104 0.22701 0.656487
0.0146043 0.216826 0.607896
-0.130012 -0.24499 0.395793
-0.179703 -0.255222 0.396689
0.0731843 -0.170819 0.389304
-0.23654 0.0626349 0.366529
0.214326 0.0206248 0.361207
-0.0258821 0.189221 0.575456
-0.163199 0.190584 0.551613
-0.210129 0.218007 0.610429
0.156928 0.231068 0.000874775
-0.248039 -0.205529 0.0240206
-0.218563 0.256466 0.682122
0.259793 -0.24612 0.294221
-0.236619 -0.255208 0.387924
0.121587 -0.206761 0.392449
0.244905 0.0594004 0.00103179
0.218041 0.100775 0.373569
0.2023 -0.171317 0.378
-0.227136 0.19559 0.544095
0.20706 0.21831 0.637832
0.239272 -0.0945757 0.505775
0.229995 0.193034 0.589022
-0.159316 -0.198965 0.380419
0.0855097 0.0770214 0.366758
0.238432 -0.243336 0.112328
0.134539 0.263301 0.707574
-0.0848781 -0.192341 0.379839
0.194513 -0.0730467 0.369402
0.0839177 -0.0885138 0.382104
0.145126 0.246903 0.699143
-0.245805 0.140571 0.0218232
0.216095 -0.121456 0.374512
-0.200336 -0.106877 0.38371
-0.141946 -0.145942 0.387128
-0.0526615 0.228085 0.632043
0.0492878 -0.00673845 0.374949
-0.104549 0.208716 0.617258
-0.0294258 0.21773 0.0067317
-0.0462456 -0.0142363 0.375605
-0.150865 0.0286461 0.360505
-0.256539 -0.0749748 0.00366461
0.233952 0.0438332 0.517391
-0.238428 0.0793531 0.0150111
-0.235241 0.240887 0.68233
-0.0616159 -0.0918325 0.382394
0.100195 0.219571 0.00410507
-0.0386206 0.0154609 0.361658
0.219127 0.20307 0.566282
-0.259176 -0.243806 0.382448
-0.0933389 0.034117 0.371375
-0.258027 -0.0532331 0.505587
0.00270657 0.2426 0.689916
0.156343 0.25523 0.715062
0.256917 -0.170326 0.00404091
-0.0913441 -0.00780526 0.375043
-0.0910267 0.170341 0.521598
0.189432 0.169985 0.534208
0.137174 0.218002 0.610418
0.0890539 0.206973 0.613521
-0.251537 -0.0985575 0.526605
0.0611096 -0.0521612 0.378923
-0.0966652 0.245368 0.669112
-0.128141 0.232757 0.66881
-0.215784 0.11355 0.365076
0.140903 -0.107104 0.372382
0.205675 0.237889 0.653071
0.252358 0.15163 0.522081
-0.0264368 -0.146957 0.375868
-0.240949 -0.239408 0.250832
0.0502743 0.189164 0.548568
-0.0379386 -0.125747 0.374013
0.189509 0.242675 0.663336
-0.00752981 0.0218534 0.361099
-0.0808179 -0.13586 0.386246
-0.0668534 0.203091 0.605197
0.218613 -0.24365 0.397931
0.0740706 0.0350078 0.371297
0.171555 -0.190677 0.379693
0.255394 -0.255839 0.209382
-0.120748 -0.0525217 0.367606
-0.0124144 -0.203822 0.392192
-0.234884 0.190132 0.0109949
0.189665 -0.0249079 0.376539
0.241446 -0.238911 0.356055
-0.222284 -0.120333 0.368874
0.0331261 -0.270386 0.391393
0.237327 0.162961 0.442089
-0.249608 -0.235982 0.43311
0.0969766 0.195149 0.588168
0.136756 -0.166136 0.377546
-0.0433315 0.233127 0.642858
0.244176 -0.13452 0.0213854
0.221527 -0.0152894 0.359889
0.00317019 -0.10183 0.37192
-0.233212 0.170814 0.440461
0.224195 -0.072336 0.385812
-0.0750421 0.193169 0.557158
-0.195438 0.0431388 0.359237
-0.222177 0.0157689 0.377563
-0.00802024 -0.24703 0.395972
0.152379 -0.215725 0.381885
-0.0607298 0.0487854 0.358743
0.00929868 -0.219134 0.393531
-0.224908 -0.248456 0.379373
-0.252261 -0.257415 0.234088
-0.202045 -0.134965 0.386168
0.0967683 -0.122838 0.385107
-0.23777 0.00624843 0.0100424
0.146034 0.0681977 0.357044
-0.246955 0.179721 0.522573
0.251191 -0.049 0.000658994
0.257992 0.162283 0.0175004
-0.235566 0.121671 0.520018
0.0310972 0.204897 0.58231
0.241021 -0.0557655 0.523054
0.238815 -0.241914 0.337345
-0.238275 -0.108537 0.00816556
-0.0145469 0.237637 0.00577341
0.0638322 0.216704 0.0120589
0.2543 0.0249999 0.526605
-0.121224 0.192053 0.581528
0.134761 -0.0416534 0.378004
0.230694 0.228195 0.616284
-0.161405 0.238036 0.00726507
-0.0954564 0.241733 0.688057
-0.253201 -0.257162 0.327423
-0.192824 0.220846 0.643269
0.233117 0.167328 0.504337
-0.157376 -0.104231 0.37213
0.0403765 -0.0795018 0.369967
-0.200888 0.175313 0.519279
0.0214064 0.224102 0.000997146
-0.00684039 0.211932 0.624154
0.193203 -0.193095 0.379905
0.222266 0.262648 0.689716
-0.232357 -0.154013 0.372892
-0.256176 0.0240473 0.00330304
-0.209405 -0.0627507 0.37985
0.18824 0.191848 0.581089
0.0899682 0.169499 0.533165
-0.0868387 -0.03015 0.376998
0.117889 0.227767 0.65811
-0.187831 0.0767498 0.36365
0.198359 0.251751 0.682802
0.237418 0.148314 0.396887
0.151856 -0.00175211 0.374513
-0.0168228 -0.0260856 0.365293
0.240971 -0.20263 0.50325
0.250608 -0.208983 0.0246358
-0.0738425 -0.0502232 0.367405
0.0730021 0.214668 0.603268
0.259306 -0.244294 0.1551
0.105004 0.00219455 0.362819
0.0988602 -0.0579989 0.379434
-0.255609 -0.0556245 0.0198758
0.0611974 0.234592 0.00264319
0.253382 0.132838 0.525369
0.24553 -0.236613 0.188035
0.255194 -0.0791761 0.0202897
-0.258697 -0.242006 0.102186
0.233749 -0.0160605 0.520611
0.167795 -0.0959193 0.371403
0.0657185 -0.144843 0.375683
0.0952002 0.194711 0.560464
-0.229074 0.12177 0.386838
-0.255182 -0.213746 0.00611003
-0.222178 0.154664 0.469328
0.130702 -0.177067 0.389851
-0.256217 -0.255019 0.209644
0.180351 -0.0533039 0.367675
0.214899 -0.221753 0.388359
-0.121457 0.0693217 0.356946
0.216944 0.172031 0.478426
-0.0226666 -0.26021 0.385777
0.0752255 -0.0224402 0.376323
0.23994 -0.247735 0.036535
-0.0362062 0.183251 0.535885
-0.0503609 -0.228293 0.394333
0.230945 -0.271169 0.38814
0.258462 -0.00644343 0.526605
-0.111912 -0.0741073 0.369495
0.172792 -0.270353 0.391768
-0.210169 -0.190476 0.391024
-0.180347 -0.0112446 0.363995
-0.231775 -0.167131 0.517379
-0.232403 -0.121642 0.51487
0.145205 0.230057 0.02201
-0.250361 0.0252926 0.500873
0.0239431 0.0497437 0.358659
-0.230688 -0.0126542 0.359649
0.160699 -0.118889 0.384761
-0.238591 -0.242747 0.342881
0.0466806 -0.16941 0.377833
0.0251904 -0.131715 0.385883
-0.0561119 0.00361887 0.374043
-0.16542 -0.231519 0.383267
0.126361 -0.258443 0.39697
0.00281832 0.194164 0.559292
0.0408728 0.233862 0.671179
0.139542 0.242138 0.662184
0.227492 -0.246887 0.379274
-0.229171 0.143677 0.413643
0.242582 0.00625762 0.0205871
0.100895 0.187781 0.545603
-0.259915 -0.153634 0.0108171
-0.238216 -0.0564047 0.508826
0.0573572 0.0653644 0.368641
-0.249428 0.00899698 0.0224288
-0.212362 -0.147556 0.375921
-0.041077 0.204352 0.581143
0.237415 0.0378943 0.36528
0.254894 -0.0401332 0.0205884
0.108087 -0.0827961 0.370255
-0.255988 -0.187325 0.503548
0.0153894 0.222154 0.646073
-0.253538 -0.0466499 0.00129095
-0.179944 -0.193823 0.391317
-0.209708 0.250415 0.706674
0.145005 0.165244 0.524041
-0.209014 -0.0194297 0.364711
-0.0205695 0.0251697 0.372158
0.24182 0.0639645 0.503219
-0.0706921 0.238269 0.014467
-0.121811 -0.226395 0.382818
0.260003 -0.115248 0.0114539
-0.118826 -0.20944 0.392683
0.183825 0.0384545 0.359647
0.175275 -0.134935 0.374816
-0.082178 -0.154177 0.3765
-0.258843 -0.237561 0.482886
0.0799494 0.241375 0.687289
-0.259458 -0.0242868 0.523054
-0.252449 0.164315 0.000997715
-0.196951 0.246676 0.698656
-0.242603 -0.256357 0.291061
0.0963882 -0.161918 0.377177
-0.104126 0.198951 0.59632
-0.151734 0.212252 0.624841
-0.0888908 -0.244229 0.384379
0.24986 0.0227226 0.500739
0.0425992 0.203437 0.60594
-0.155521 0.257929 0.696051
-0.114028 -0.187371 0.379404
0.248608 -0.258325 0.133687
0.235869 0.125563 0.383959
0.202912 0.26397 0.71099
-0.092903 -0.111114 0.384081
0.257199 -0.168373 0.504759
-0.206364 0.182771 0.561625
-0.237626 -0.242086 0.0429362
0.23972 -0.115383 0.526605
-0.0277458 0.239641 0.683572
0.051293 -0.0966586 0.371468
0.137652 0.0497277 0.370009
-0.0515989 0.180207 0.556126
-0.206243 -0.0386448 0.366392
0.0959021 -0.255301 0.385347
-0.0718045 -0.0107551 0.375301
-0.245937 -0.236503 0.37667
0.183138 0.0615389 0.357627
0.149999 0.217693 0.636509
0.144891 0.185466 0.567403
-0.182544 -0.12723 0.374142
-0.0861239 0.217879 0.610154
0.0709905 -0.0638103 0.368594
0.0245365 -0.164887 0.388785
0.0444947 0.167711 0.522825
0.212503 0.184187 0.537894
0.0533125 0.188307 0.573496
0.250002 -0.236088 0.0942558
0.180295 0.23806 0.015253
0.108058 0.225031 0.0218657
-0.00997385 -0.183996 0.379109
-0.248195 -0.235897 0.280906
-0.112219 -0.110325 0.372663
0.224154 -0.0455702 0.38346
0.258679 -0.0974322 0.506628
-0.259479 -0.0792214 0.513862
0.12307 0.238743 0.0126887
-0.0622471 -0.0775964 0.3698
-0.2428 0.0703245 0.502237
-0.0148477 0.205042 0.582623
-0.0661748 -0.225966 0.382781
0.00216106 0.174331 0.543526
0.23372 -0.131469 0.517013
0.0815235 -0.204985 0.380945
-0.170301 -0.0816971 0.370159
0.112255 -0.176029 0.38976
0.218067 0.154419 0.392667
0.167631 -0.245141 0.384458
0.147582 -0.0317597 0.36579
0.114174 0.048677 0.358752
0.25939 0.0817017 0.509292
-0.180423 0.251091 0.681386
0.20139 0.0401139 0.370851
-0.258013 -0.122937 0.505573
-0.0268103 0.211665 0.623582
-0.139798 0.248951 0.676796
0.164972 -0.155094 0.37658
0.249835 -0.236043 0.393245
-0.0198312 -0.0559728 0.367908
0.259491 -0.0556001 0.509668
-0.257985 0.0362971 0.526605
0.247866 -0.235985 0.446636
-0.238751 -0.226079 0.495916
-0.215286 0.0391029 0.366983
-0.0476787 0.167434 0.522955
-0.0778149 0.17225 0.539065
-0.259544 0.0750679 0.523054
-0.0568703 -0.170956 0.377968
-0.0557814 -0.192208 0.391176
0.22839 -0.201747 0.397046
0.206757 0.198754 0.595897
-0.00833355 0.232673 0.668629
-0.185393 0.0538297 0.358301
0.225898 0.223658 0.656997
-0.175864 0.209717 0.619405
0.235358 -0.119373 0.372859
-0.0727439 0.0544371 0.369597
0.238141 0.17251 0.0139408
-0.226795 0.248478 0.657305
0.0491297 -0.257944 0.396927
-0.236185 0.173065 0.505359
-0.125162 -0.00491735 0.37479
0.159583 0.202596 0.604136
0.231321 0.165904 0.417071
-0.139622 -0.0176611 0.364556
0.199789 -0.12484 0.385282
-0.245166 -0.00279671 0.501394
0.146998 -0.178147 0.378597
-0.0758738 0.189802 0.576702
-0.248824 -0.25834 0.0886545
-0.20679 0.232021 0.667231
0.225454 -0.0862565 0.365035
-0.229981 0.220573 0.599487
0.121173 0.204985 0.582499
0.149769 -0.150054 0.387488
-0.105786 0.0505179 0.358591
-0.222556 0.209922 0.576459
-0.248254 -0.0807891 0.0224813
-0.0736203 -0.267372 0.386403
0.0454473 0.255837 0.691565
-0.0742215 0.233186 0.642984
-0.0495823 0.246117 0.697457
0.243177 0.131404 0.001496
0.234703 0.202734 0.0201555
-0.184085 0.228869 0.0223294
0.122363 0.213497 0.627512
0.0256056 0.232854 0.642271
-0.159011 -0.00772437 0.375036
0.0810434 -0.225216 0.382715
0.258932 -0.242889 0.254293
0.120749 -0.240568 0.395407
-0.0405896 -0.247299 0.395995
-0.252637 0.0836898 0.00104835
-0.198025 0.190144 0.577435
-0.132987 -0.270718 0.387596
0.210285 -0.102689 0.383344
-0.03662 0.258266 0.713648
-0.225283 0.187598 0.526849
-0.21873 -0.22488 0.380258
-0.205641 0.00762734 0.362344
0.17333 0.174446 0.543774
0.0289398 0.175561 0.546164
-0.23783 0.0511637 0.51026
0.236484 0.203992 0.579832
-0.15274 0.217357 0.0144895
-0.255452 -0.252639 0.0470613
0.0663395 -0.206052 0.392387
-0.105003 -0.0342343 0.366006
0.221124 0.246722 0.703429
0.120994 -0.0917967 0.382391
0.194567 0.218196 0.610834
0.238629 0.179575 0.5162
0.000272259 -0.199572 0.380472
-0.251751 -0.25624 0.469159
0.238135 -0.249676 0.159597
-0.228586 -0.270327 0.397776
-0.129888 -0.136994 0.374997
-0.134827 -0.0685454 0.369008
-0.245945 0.0643356 0.0218608
-0.236271 -0.181801 0.388927
-0.060089 -0.0407201 0.377922
-0.00344893 -0.053228 0.379017
0.248054 -0.218884 0.494621
0.0896805 -0.0430991 0.366782
-0.154537 0.243254 0.664577
-0.200333 0.171307 0.537042
0.0114234 0.0204934 0.372567
0.0332767 -0.188627 0.390862
0.0201592 0.239027 0.682255
-0.147236 -0.0371253 0.366259
0.253687 -0.23708 0.130077
-0.200002 -0.0656287 0.368753
-0.240136 0.112442 0.504908
0.0875312 0.0235747 0.360949
-0.0179875 -0.0980092 0.382934
-0.156376 -0.155896 0.37665
-0.230298 0.161288 0.517968
0.0654007 -0.00511 0.363458
0.0179288 -0.0532092 0.379015
-0.228813 -0.0950374 0.366348
-0.238542 -0.242927 0.406456
-0.0379651 -0.161841 0.388519
-0.144323 0.201393 0.601557
-0.234671 -0.087714 0.51856
0.242477 -0.179141 0.502561
0.248063 -0.176132 0.0224302
0.081693 0.227431 0.630641
0.180843 0.227023 0.656515
0.0130813 0.0347417 0.359971
-0.225384 0.0778539 0.351412
-0.00941858 0.250304 0.679698
-0.129613 -0.10725 0.372394
0.183735 -0.153906 0.387825
0.0744473 -0.113049 0.38425
0.0756908 -0.249671 0.384855
0.19337 0.183642 0.536725
0.0496696 0.0109566 0.373401
0.00587082 -0.140807 0.386679
-0.0347843 0.0764494 0.360213
-0.121646 0.178927 0.553383
0.101649 0.244896 0.694839
0.238237 0.0807397 0.00830854
0.0503672 -0.0377882 0.377666
0.25816 -0.172428 0.526605
0.0171156 -0.0836882 0.381682
-0.142739 0.0501202 0.358626
0.247129 -0.257928 0.353678
0.259754 -0.245873 0.472751
-0.0895869 -0.217909 0.393424
-0.123253 -0.153704 0.387807
-0.114598 -0.168665 0.389116
0.217397 -0.140332 0.38767
-0.247555 -0.258042 0.435279
0.247115 0.111617 0.500875
-0.198406 -0.252315 0.385086
-0.180839 -0.0520749 0.367567
-0.217508 -0.174657 0.377088
-0.0654353 0.23311 0.669567
0.0411559 -0.114837 0.384407
-0.0603054 -0.134167 0.374749
-0.237547 0.0161325 0.512171
0.259784 -0.111823 0.526605
0.243445 -0.237173 0.310559
-0.0500987 -0.050316 0.367413
0.237543 -0.0905106 0.526605
0.209988 0.210998 0.622151
0.183854 -0.170029 0.377887
0.246346 0.0595653 0.523054
-0.237999 0.115457 0.0134136
-0.0779882 0.249671 0.705079
0.0327759 -0.014715 0.364298
0.215658 0.245293 0.669411
0.12687 -0.00254011 0.374582
0.235034 0.170886 0.462154
-0.236492 0.100067 0.521526
-0.238111 -0.204909 0.0102064
0.227996 -0.226774 0.399342
-0.237066 -0.138894 0.526011
-0.241833 -0.238524 0.460087
0.130798 -0.12157 0.384996
-0.0835805 0.0769704 0.366175
-0.199789 0.236832 0.650805
0.179252 0.184327 0.564961
0.218141 0.233157 0.633137
0.102604 0.238083 0.00744161
0.258066 0.0238758 0.0174266
0.24161 -0.00829966 0.00299797
0.243258 0.10172 0.526605
0.242531 0.135272 0.0205362
0.103076 0.074368 0.356505
0.0427918 -0.13223 0.37458
-0.25489 0.0318267 0.020593
0.112288 -0.0228443 0.376359
-0.248141 0.138469 0.522892
0.215793 0.00201005 0.37212
0.105709 -0.138983 0.375171
0.179844 -0.0105512 0.363934
0.190262 0.212911 0.626254
-0.221604 -0.0730156 0.364919
-0.102028 0.237783 0.0162922
-0.186674 0.197178 0.592518
-0.123404 0.205771 0.610945
0.237598 -0.247682 0.294992
-0.224707 -0.218858 0.398769
-0.0288649 0.221573 0.644829
-0.0164349 0.0722761 0.368037
-0.150066 -0.242086 0.395539
-0.231775 -0.103739 0.514792
0.0385473 -0.20573 0.392359
0.0851658 0.182679 0.53466
0.122339 0.249906 0.705583
-0.239245 -0.00796498 0.0172503
0.257482 -0.250741 0.0475242
-0.106595 0.170145 0.534551
0.0412274 -0.0935574 0.382545
-0.258493 -0.054755 0.526605
0.0679002 0.216452 0.633847
-0.248094 -0.258187 0.134199
-0.0475714 0.233432 0.670258
-0.255114 -0.00225818 0.526605
-0.0415402 -0.197537 0.380294
0.239998 -0.0802636 0.00460941
0.0581869 -0.217671 0.382055
-0.128401 -0.190283 0.391007
-0.04368 0.0592108 0.357831
0.232167 -0.0368617 0.518036
-0.0351573 0.226815 0.0223448
0.032852 -0.248309 0.396084
-0.239067 -0.24129 0.169812
0.185608 -0.256212 0.385427
0.177626 0.224804 0.000808454
-0.237019 0.144163 0.394314
0.0833516 -0.237823 0.395166
0.134918 -0.0661099 0.368795
-0.184002 0.230915 0.664861
-0.179281 0.225072 0.625581
-0.203492 -0.160269 0.388381
0.20345 -0.0581858 0.37945
-0.233554 -0.19922 0.394132
-0.09449 -0.178507 0.389977
-0.0884363 0.0132581 0.3732
0.243447 -0.237172 0.427539
-0.0644475 0.214293 0.629218
-0.237669 -0.246178 0.11402
-0.259343 -0.232808 0.0307533
0.085535 -0.152562 0.387707
0.0142367 0.21989 0.0188268
-0.247333 -0.158894 0.526605
0.238702 0.0408082 0.00658157
-0.207961 0.221388 0.0213703
-0.2332 -0.0236859 0.519717
0.239354 -0.253109 0.196714
-0.18994 -0.0869979 0.381971
0.121442 0.174583 0.544068
-0.00965618 0.180768 0.530561
0.215718 0.170781 0.497527
0.219341 -0.26393 0.400437
0.216482 0.0694881 0.368394
-0.190056 -0.0207743 0.376177
0.248964 -0.235808 0.377034
0.243155 -0.139437 0.50193
0.230898 0.20561 0.00313715
-0.138819 0.0230243 0.372346
0.234876 -0.180086 0.377689
-0.174264 0.220111 0.641694
-0.0642813 0.207215 0.587282
-0.226219 0.0983008 0.376979
0.217482 0.19383 0.550364
0.0769756 0.183853 0.563946
0.259952 0.0765667 0.526605
0.0842452 0.264675 0.710521
-0.246819 0.204555 0.0213838
-0.0435735 0.216346 0.633621
-0.249717 0.0961283 0.526605
0.255922 -0.238798 0.202128
0.0399581 0.0262084 0.372067
0.126224 0.196204 0.563666
-0.0995202 0.00680926 0.362415
-0.250419 0.052624 0.523054
0.172316 -0.208788 0.392626
-0.058502 -0.242981 0.384269
-0.236235 0.0457821 0.360147
0.251303 -0.0796564 0.501124
0.154439 -0.00814903 0.363724
0.0516387 -0.141292 0.386721
-0.0242831 -0.18901 0.390896
0.0666562 0.189418 0.549112
-0.162587 -0.258282 0.396956
0.216568 -0.0224225 0.376522
0.0601023 0.241033 0.686557
-0.119981 0.253447 0.713176
-0.238139 -0.249691 0.218768
-0.213339 0.200766 0.600213
0.0665929 0.0658711 0.357248
-0.254614 0.0857234 0.0208674
-0.240813 -0.0871116 0.00379511
-0.146773 -0.0866943 0.370596
0.259566 0.0691217 0.00951062
-0.205573 -0.229858 0.383121
-0.0715064 -0.0576468 0.379403
0.231775 0.0832038 0.517252
0.214818 -0.17753 0.388996
-0.192105 -0.152542 0.376357
-0.207993 0.0770578 0.367175
-0.216276 0.218058 0.631216
0.228889 0.226715 0.00257015
0.227523 0.245501 0.651385
-0.21696 0.172331 0.481667
-0.154654 -0.178223 0.378604
-0.255947 -0.207168 0.517945
-0.215361 0.158143 0.418049
0.0364897 0.0544177 0.369599
0.180445 -0.0856327 0.381852
-0.179486 0.176441 0.548051
0.249452 -0.258171 0.261727
0.0355453 0.216864 0.00994845
0.00756891 0.06228 0.357562
-0.148218 0.217657 0.609678
-0.180776 -0.212016 0.38156
-0.249232 0.207262 0.00357374
-0.223347 0.242516 0.695821
-0.207728 0.0553016 0.369522
0.0920099 0.241071 0.659895
-0.180991 0.0318623 0.371572
0.254494 0.103144 0.00162608
0.0143685 0.238712 0.00979998
-0.138714 0.169803 0.533817
0.00564906 -0.175945 0.378404
0.259653 -0.138257 0.00983724
0.14893 0.217303 0.00831953
-0.0783955 -0.115367 0.373105
-0.238463 -0.250894 0.309814
0.0659729 -0.186141 0.379297
-0.238576 -0.182821 0.50749
0.225412 0.184828 0.573421
-0.215105 -0.103366 0.376628
-0.243306 -0.0215388 0.00146134
-0.087982 -0.258089 0.396939
-0.254211 -0.210008 0.499106
-0.217094 0.168621 0.437742
-0.259343 -0.135152 0.0139326
-0.217914 0.200925 0.564555
0.138508 0.0330679 0.360118
0.226897 -0.0344755 0.36053
0.141971 0.0096435 0.362167
0.21613 0.0904985 0.35975
-0.130594 -0.0343393 0.366015
0.237937 0.149656 0.513625
-0.234306 -0.0410056 0.379538
0.253439 0.174131 0.00126456
-0.0465578 0.252644 0.684716
-0.00276862 0.0768389 0.364669
-0.139473 -0.200046 0.380513
-0.257452 -0.151292 0.523054
-0.00535406 0.21381 0.601428
-0.0870992 0.0447491 0.359096
0.259508 -0.249069 0.314452
-0.0817229 0.256038 0.691997
-0.236774 0.160734 0.423912
-0.238173 -0.249817 0.0628263
-0.160594 0.254762 0.715281
-0.183909 -0.0323247 0.365839
-0.0430629 0.0346244 0.359982
0.146549 0.203941 0.580262
0.0741215 -0.0830731 0.370279
-0.192187 0.0199894 0.361262
-0.164162 -0.126848 0.374109
0.233305 0.0901576 0.372584
0.248419 -0.0805083 0.523054
0.238895 -0.164044 0.00586556
-0.258894 0.17351 0.507434
0.224661 -0.118808 0.390003
-0.248653 -0.150837 0.0225886
0.101703 0.234662 0.646149
-0.232579 -0.00712892 0.378304
-0.23819 -0.0480688 0.0141235
-0.221442 0.233197 0.0132085
0.244104 0.0417319 0.501677
0.237798 -0.000978678 0.513107
-0.259682 -0.245702 0.138888
0.258767 -0.209927 0.00928976
0.238546 -0.241114 0.493256
0.0528695 -0.0692832 0.380421
0.180324 -0.225746 0.382762
0.110479 -0.0416941 0.378008
0.116102 0.218243 0.610935
0.0806129 0.220093 0.00358282
-0.0479794 -0.214389 0.381768
-0.102943 -0.22992 0.383127
0.0629353 -0.0333083 0.365925
-0.0812431 0.218446 0.0173828
-0.147135 0.186582 0.54303
0.210175 0.22976 0.0214466
0.250706 0.0445297 0.526605
-0.214818 0.193991 0.582831
-0.247124 -0.167968 0.500873
-0.156436 0.0455206 0.370377
-0.0314976 -0.225125 0.394055
-0.1101 -0.0885368 0.370757
0.145584 0.233875 0.644463
0.25934 -0.0920233 0.00866379
0.0675519 0.180647 0.530302
-0.00173894 0.2193 0.639955
0.237087 0.256991 0.698829
0.134498 0.210833 0.595042
-0.216297 -0.0346538 0.37721
-0.24885 0.0153122 0.526605
-0.0283765 -0.0949252 0.371316
0.100407 -0.205287 0.380972
0.259386 -0.244591 0.362429
0.229535 0.0524365 0.353641
0.0702037 0.0491845 0.358708
-0.25724 -0.253999 0.351467
-0.224584 0.239642 0.638909
-0.104838 0.0639717 0.368763
0.150142 0.235521 0.674737
-0.00864393 -0.21642 0.381946
0.186957 0.240308 0.685003
-0.00596122 -0.00135207 0.363129
-0.0181912 0.248454 0.702469
0.229921 0.0244178 0.376848
-0.0889147 0.17785 0.551072
0.21114 0.18372 0.563661
-0.250774 0.18556 0.0216879
-0.240465 -0.113267 0.526605
0.0977863 0.01491 0.373056
-0.0279027 -0.081317 0.381474
0.258281 -0.207536 0.515519
-0.25808 -0.0198078 0.0174119
0.259708 0.132135 0.510483
0.0480265 0.0753032 0.356423
0.254075 -0.256578 0.392346
0.23388 0.0863572 0.356265
-0.240125 -0.222251 0.025933
-0.223004 -0.145206 0.391868
0.185944 0.188744 0.547667
-0.0782245 0.240683 0.659064
0.237491 0.0225774 0.0110761
0.185399 -0.178844 0.390006
-0.247887 -0.148445 0.000230193
-0.195214 0.239026 0.0116252
-0.256792 0.167324 0.0186962
-0.00387865 -0.0214958 0.376241
-0.221537 -0.0307116 0.361236
0.169874 0.00149634 0.374229
0.246713 -0.0379828 0.500982
-0.150377 -0.0610503 0.368352
-0.2525 -0.257351 0.395415
-0.0609899 0.187503 0.545004
-0.254592 -0.256639 0.372704
-0.0331974 0.0044775 0.373968
0.249326 0.112803 0.0224565
0.25925 0.155948 0.508766
-0.258782 -0.242326 0.335105
-0.227314 0.0807849 0.373599
-0.160843 -0.0941607 0.382598
0.03755 0.238582 0.654557
0.121076 -0.216325 0.381937
-0.16107 -0.211419 0.392856
-0.205319 0.260096 0.700699
0.0292027 0.209879 0.619752
-0.259451 0.149748 0.00907991
0.0742325 0.00694853 0.373752
-0.208398 0.0268293 0.372013
0.169338 0.211142 0.595704
0.211794 0.204613 0.581702
-0.175594 0.257952 0.696102
-0.0689679 -0.184098 0.379118
0.259394 -0.123208 0.509307
-0.0276599 -0.120728 0.384922
0.236904 0.13234 0.525747
0.143757 -0.016948 0.375843
0.0507928 -0.0558291 0.367896
0.225058 0.189238 0.53051
0.0431795 0.199376 0.57047
-0.19338 -0.191979 0.379807
0.250387 -0.236192 0.171198
-0.115641 0.0274994 0.371954
0.260044 0.0967854 0.525496
-0.234398 0.0626736 0.521667
0.132581 -0.153822 0.387817
0.242076 -0.255831 0.100441
-0.118134 0.233963 0.644651
0.152069 -0.0943019 0.38261
-0.175817 -0.168799 0.377779
-0.219744 0.157703 0.490447
0.13496 -0.218065 0.393438
0.00579785 0.251758 0.709555
-0.249165 -0.0675008 0.500553
-0.198186 -0.117867 0.373323
0.0593526 0.204581 0.608392
-0.170879 -0.248093 0.384717
0.232002 -0.00506535 0.359506
-0.00202224 0.0362353 0.37119
0 0.229 0.00144047
-0.0797842 -0.0996432 0.383077
0.0590438 0.250364 0.706564
0.164873 0.260068 0.70064
-0.218165 -0.0731083 0.382561
0.008808 -0.242505 0.395576
-0.217708 0.267582 0.708822
0.220748 0.21597 0.0201335
0.18747 0.217054 0.0133633
-0.231775 -0.0382175 0.515086
-0.197162 0.260923 0.71241
0.242189 -0.238168 0.254176
0.216007 0.136069 0.39115
0.259716 -0.0245132 0.0100735
0.247061 -0.223316 0.032501
-0.16679 0.227674 0.0225758
-0.215903 -0.207124 0.390827
0.0800089 0.207972 0.588907
-0.0229023 0.228696 0.660102
-0.124415 0.258087 0.69639
0.243363 -0.233827 0.0462413
0.118193 -0.115158 0.384435
-1.79559e-05 0.236484 0.650059
-0.2155 0.171595 0.524755
0.217917 -0.211353 0.379889
0.237956 -0.249012 0.43997
-0.0390825 -0.143314 0.386898
-0.23797 -0.0271786 0.526605
0.22833 -0.135116 0.369723
0.140248 0.234796 0.0028468
-0.194327 0.244497 0.667243
-0.131515 0.205627 0.583876
-0.103849 0.256141 0.692217
0.238468 -0.0410639 0.00744876
-0.177987 0.235118 0.647128
-0.00209397 -0.0891121 0.382156
-0.142766 0.238265 0.00812275
-0.0744654 0.223676 0.622588
0.236919 0.176061 0.532878
-0.237581 -0.247619 0.0958453
0.234307 0.0532792 0.371288
-0.228503 0.0489318 0.375085
-0.235263 -0.151747 0.523075
0.00781104 -0.112769 0.384226
0.227259 -0.184273 0.395822
-0.257828 -0.240699 0.248558
0.0393395 0.18268 0.534661
-0.0820824 -0.0455711 0.378347
0.208568 0.172448 0.539489
-0.104844 -0.123182 0.385137
0.228789 0.153625 0.461417
0.059725 0.0237405 0.372283
0.0771923 -0.0398628 0.377847
-0.238523 0.130194 0.507687
0.195272 0.0496989 0.358663
0.238641 0.0293713 0.526605
-0.0457275 0.220646 0.00303016
0.237459 0.0154512 0.511845
-0.214818 -0.00869936 0.371157
0.201816 0.231323 0.665736
-0.237989 -0.135057 0.509669
0.258812 0.00478089 0.516366
-0.107504 0.215753 0.632348
-0.163339 0.0282204 0.371891
-0.108301 -0.003892 0.3747
0.147435 0.180693 0.5304
0.0560027 -0.0182687 0.364609
0.240367 0.185112 0.00295582
0.0374518 0.186393 0.569392
-0.224632 -0.271253 0.381442
0.0138281 0.00652039 0.362441
-0.259782 -0.178372 0.0122835
0.256984 -0.254254 0.237787
0.236119 0.198155 0.564078
-0.118199 -0.0169754 0.364496
0.245051 -0.0247977 0.526605
-0.106804 0.232103 0.667409
-0.00463569 0.181299 0.558469
0.259557 0.11707 0.00947706
-0.108906 -0.0571787 0.379362
-0.0138247 0.038923 0.359606
0.110198 0.260249 0.701028
0.0955198 -0.00734675 0.375003
0.0580414 -0.185006 0.390546
-0.00950854 -0.143536 0.386917
-0.202519 0.251797 0.6829
0.0297841 0.252527 0.684466
-0.258647 0.0695343 0.506511
-0.0563899 0.208574 0.616954
-0.138571 0.237983 0.653273
-0.112145 0.213945 0.601718
-0.0568767 0.0147603 0.36172
-0.0717403 0.00983971 0.373499
0.164403 0.221387 0.644428
-0.234673 0.107883 0.360835
-0.255934 -0.120975 0.00306135
-0.066011 -0.104595 0.372162
0.256864 -0.153484 0.00398898
0.0120012 0.0485839 0.370109
0.115421 0.227679 3.59117e-05
0.217673 -0.0719253 0.367935
0.235591 0.107194 0.373356
-0.0269075 0.194388 0.559772
0.0990846 -0.193742 0.39131
0.0052993 0.187675 0.57214
0.0463885 -0.0229446 0.376367
-0.122788 -0.0675372 0.380269
-0.0984574 0.201934 0.575957
0.200865 0.188383 0.546892
-0.224484 0.00434259 0.357372
-0.0123085 0.199738 0.598008
-0.154778 -0.111127 0.384082
0.206686 -0.159248 0.388292
0.163596 0.0100539 0.362131
-0.0632611 -0.252879 0.396484
0.248506 -0.258298 0.224089
-0.236539 0.193283 0.557359
0.148162 0.210798 0.621723
-0.0944442 0.186511 0.569645
0.219962 0.159792 0.508921
0.112238 -0.25658 0.385459
0.242057 -0.0413972 0.526605
-0.145231 -0.180037 0.390111
0.00422724 -0.257142 0.385508
-0.243651 0.0404784 0.501798
0.122271 -0.043008 0.366774
-0.0117385 -0.227001 0.39422
-0.163523 -0.0361228 0.366171
0.200127 -0.0205453 0.364809
-0.130977 0.0634539 0.368809
-0.23756 -0.247542 0.273648
0.232791 -0.102827 0.519052
-0.184053 -0.114004 0.384334
-0.0447324 0.186445 0.569504
0.0961407 0.177775 0.52414
-0.0774157 0.035876 0.371221
0.220951 0.0663964 0.352899
0.116831 -0.224858 0.394032
0.21809 0.267171 0.706199
0.00758615 -0.231585 0.383272
-0.236558 0.210853 0.610685
-0.122041 0.218795 0.638871
0.105455 0.20996 0.619927
-0.241304 -0.255059 0.178048
0.0927461 0.21258 0.598789
-0.238025 -0.249269 0.325916
0.159086 0.188749 0.574443
-0.246572 -0.257778 0.249228
-0.0251334 0.171628 0.537732
-0.0577105 -0.0139887 0.364235
0.257136 -0.224095 0.0108279
-0.0133622 -0.0687463 0.380374
0.2116 0.241563 0.687692
-0.00428458 0.0118435 0.373324
0.0159135 -0.0243387 0.36514
0.00926004 -0.04668 0.367095
-0.0812902 0.23103 0.000864646
0.0369673 0.192989 0.556772
0.231775 -0.0844789 0.514389
0.231876 0.17587 0.483024
0.151658 -0.0414135 0.377983
0.0458102 0.230373 0.000688032
0.250731 -0.257827 0.0643736
0.226236 0.174151 0.445095
-0.230778 0.17696 0.491254
0.0110108 0.180369 0.529706
0.253808 -0.126022 0.00136378
0.104294 -0.0924322 0.382447
-0.259523 -0.249014 0.271172
0.243424 -0.195158 0.0211833
0.0266028 0.212387 0.598375
0.20095 -0.248767 0.384776
0.119012 0.0151649 0.373033
0.215688 0.155855 0.408326
-0.20213 0.211934 0.62416
-0.243751 -0.234143 0.475251
-0.143525 -0.161696 0.388506
0.240934 -0.00945501 0.0189398
0.102206 -0.0327388 0.365875
-0.248835 0.00672291 2.43854e-05
-0.236403 -0.167885 0.379471
0.153645 -0.237057 0.395099
-0.0110242 -0.0407858 0.366579
-0.0561265 -0.0568742 0.379336
-0.246067 -0.236468 0.215165
-0.240095 -0.187992 0.0181009
-0.169436 0.0764356 0.360055
0.0245897 -0.000528783 0.374406
0.0850273 -0.256364 0.396788
-0.258614 0.128126 0.517107
0.176342 0.246376 0.671274
-0.186576 -0.140983 0.386694
0.0164819 -0.270363 0.391657
0.244979 -0.141205 0.522042
-0.216231 0.127761 0.371974
0.248069 -0.2541 0.479491
0.230285 0.214434 0.634727
0.0564677 -0.261875 0.385922
0.175393 -0.0682122 0.368979
0.244537 0.166138 0.521923
0.192255 0.230298 0.0219452
-0.245968 -0.236495 0.18483
0.25901 0.0337729 0.50787
0.165423 0.235235 0.0193278
-0.238043 -0.249333 0.153478
-0.00320235 0.258992 0.698332
0.0932026 0.221566 0.644814
0.237407 -0.257235 0.391251
0.0250739 0.0310696 0.371642
0.186402 -0.0612652 0.37972
-0.221699 0.0464943 0.354437
-0.25496 -0.240064 0.50123
-0.255761 -0.121364 0.526605
-0.255946 -0.238823 0.396898
0.158132 -0.264199 0.386126
0.259045 0.147001 0.00755892
0.0463521 -0.227944 0.394302
0.12788 0.236337 0.649742
-0.133873 -0.156309 0.376687
0.123471 -0.156981 0.376745
0.251514 0.0640558 0.021867
-0.177239 -0.270225 0.393237
-0.219522 0.228864 0.662469
0.148043 0.046118 0.358976
0.247451 -0.159655 0.523054
-0.040776 0.189543 0.549382
0.248629 -0.258331 0.116446
0.198859 0.201569 0.575174
0.260044 -0.056899 0.525157
-0.0254342 -0.0313886 0.377106
0.207297 -0.0731864 0.380763
-0.169576 0.206275 0.585266
0.179722 0.0252184 0.372154
0.0709556 0.25746 0.714023
0.046716 -0.155949 0.388003
0.0571339 0.175487 0.546006
0.234904 -0.0216202 0.363853
-0.177106 -0.17864 0.389989
0.123402 0.222929 0.0213007
-0.0144726 0.23378 0.0207821
-0.00860803 0.0605146 0.357717
0.171793 0.198607 0.56882
0.258148 -0.138861 0.505708
0.20566 0.0155971 0.372995
0.0919416 -0.0826908 0.370246
-0.0931204 0.181484 0.532096
-0.0285744 -0.00704408 0.363627
0.260012 -0.0556933 0.0114206
0.229022 0.168542 0.521946
0.146261 0.252724 0.684888
-0.248466 0.184627 0.000235847
-0.161824 0.221353 0.617604
-0.0106015 0.189998 0.577122
-0.00449076 -0.158796 0.388253
-0.0611484 -0.270071 0.394997
0.238178 -0.0208207 0.508967
-0.23885 0.149232 0.51702
0.249869 -0.258059 0.407055
-0.25025 -0.0385632 0.0222076
-0.163856 -0.072575 0.380709
-0.222948 0.218045 0.021551
-0.0108132 0.18742 0.544826
0.00323054 0.207031 0.613645
0.163988 -0.230297 0.38316
-0.0766848 -0.209655 0.392702
0.13441 -0.247141 0.384633
-0.237258 -0.231482 0.388255
0.0339153 -0.0497659 0.378714
-0.246978 -0.112235 0.0221386
-0.244593 -0.235867 0.0550763
-0.245968 -0.257616 0.0734555
-0.136153 -0.237701 0.383808
0.0824201 -0.180717 0.378822
-0.236958 0.165636 0.456785
0.219354 0.126971 0.367005
-0.135839 0.216997 0.00945344
0.25729 -0.240163 0.346236
0.194898 0.258298 0.696843
-0.214818 -0.0499583 0.375296
0.133932 0.169677 0.533548
0.259186 -0.250275 0.192628
0.0941389 0.219156 0.0180926
0.0313731 0.176411 0.521215
0.251411 0.0818594 0.000718181
0.18112 -0.0314462 0.365762
0.0808251 0.212897 0.626225
0.238417 0.120282 0.0149713
0.117161 -0.27065 0.388376
-0.160427 0.189694 0.576469
0.238676 -0.215544 0.512098
0.0126343 -0.202004 0.392033
0.112468 -0.0137608 0.364215
0.181843 -0.193527 0.391291
-0.16916 0.241325 0.660441
-0.0397437 0.240132 0.657882
-0.0882099 -0.0736846 0.369458
0.170241 0.0489382 0.358729
-0.0655419 -0.164822 0.38878
-0.111453 -0.217293 0.382022
0.0883641 0.232924 0.00137344
-0.147809 -0.124408 0.373895
-0.0447949 -0.0251395 0.365211
0.0619652 -0.159445 0.376961
-0.0547507 0.173304 0.541324
-0.116053 0.185299 0.567045
0.146725 -0.199286 0.380447
-0.242882 -0.178614 0.521328
0.23745 -0.247132 0.368063
0.176503 0.209639 0.619239
0.157419 -0.18404 0.390461
0.142129 -0.0720019 0.380659
0.0221225 0.232471 0.0213613
0.149488 -0.165052 0.3888
-0.214818 -0.120219 0.38195
-0.224552 0.232715 0.675569
0.00613432 0.248897 0.676681
0.123033 0.0601153 0.369101
-0.12197 0.185007 0.539652
0.030156 -0.0904633 0.370926
-0.0939355 -0.024152 0.365124
-0.0707393 -0.193258 0.391268
0.00634445 0.233905 0.671271
0.0138181 -0.180356 0.390139
-0.0978897 0.0245241 0.360865
0.195583 -0.0848888 0.381787
-0.0821492 0.203868 0.606863
-0.130674 -0.255668 0.385379
-0.054189 0.220521 0.0194584
-0.0564086 0.0410752 0.370766
0.238334 -0.217946 0.0128715
-0.12488 0.249066 0.677042
0.236636 0.151115 0.412865
-0.0786425 -0.168587 0.377761
-0.231775 0.0884046 0.516591
-0.155925 -0.13922 0.375191
0.115524 0.230747 0.637753
0.240232 -0.120513 0.018238
0.184214 0.0724407 0.368022
-0.209498 -0.174507 0.389627
0.255672 -0.153352 0.503232
0.0138423 0.20685 0.5865
-0.151102 0.242837 0.690424
-0.172738 0.243292 0.6914
0.0719241 -0.123273 0.373796
0.219729 -0.176584 0.375032
0.259415 -0.244702 0.223762
-0.0552983 0.0576402 0.369317
-0.137738 -0.0994582 0.383061
0.0754139 -0.141781 0.386764
-0.178628 -0.0418121 0.378018
-0.246989 0.0700099 0.000471675
0.131681 0.244286 0.693532
-0.236186 -0.149117 0.386388
-0.224851 0.169496 0.423979
-0.106166 -0.0426472 0.378091
0.0605524 -0.097574 0.382896
0.109185 0.197055 0.565493
-0.0658045 0.185244 0.566928
0.245499 0.198713 0.000453303
0.127392 -0.0715037 0.380616
0.0585118 -0.167234 0.388991
0.235278 -0.0722395 0.51955
0.260022 -0.247144 0.173181
-0.179849 0.203275 0.605591
-0.0873466 0.238043 0.0153164
0.23605 0.232847 0.662358
0.253496 -0.248712 0.029366
-0.0306962 -0.270254 0.392907
-0.0373153 0.0257148 0.37211
-0.144743 -0.0245052 0.376504
0.194095 -0.133251 0.374669
0.072744 -0.00802636 0.375062
0.0428946 0.19724 0.592651
0.257833 -0.192169 0.505393
-0.201175 0.0141183 0.373125
0.188868 0.235258 0.647429
-0.0472169 -0.0975971 0.37155
-0.0503905 0.19399 0.585682
0.142859 0.204642 0.608524
-0.0147692 -0.264106 0.397466
0.0295416 0.226344 0.655058
-0.115468 -0.124527 0.373906
-0.217082 0.157354 0.455897
0.124131 0.233349 0.670079
0.109069 0.244436 0.667113
0.107248 0.0240207 0.360909
0.234154 0.213609 0.591309
-0.246668 -0.236307 0.353189
0.24739 0.0970369 0.500802
-0.0815539 -0.223386 0.382555
-0.14988 0.180532 0.530054
-0.161671 0.174936 0.544824
0.12596 -0.111242 0.372744
0.110403 -0.189523 0.379592
-0.239407 -0.24095 0.299208
0.211874 -0.148109 0.375969
0.186011 -0.209184 0.381313
-0.198247 0.227964 0.631785
0.0548211 0.182269 0.560549
0.218499 0.254576 0.67822
0.152655 0.0559838 0.369462
-0.231775 -0.0750798 0.514389
0.016369 0.256334 0.69263
0.168314 0.0654881 0.357281
0.158386 -0.222126 0.393793
0.0776476 0.240165 0.657951
-0.136924 0.251755 0.709548
0.0690886 0.209133 0.618153
0.209447 0.204782 0.608823
-0.258488 -0.241357 0.223113
0.21687 0.158983 0.472083
0.247564 -0.236066 0.0788991
0.156602 -0.129134 0.374309
0.25965 -0.248536 0.123493
0.213607 0.190951 0.579165
-0.171654 0.0166347 0.361556
0.129296 0.189539 0.576137
0.196235 0.226013 0.627599
0.19159 0.0593964 0.369164
0.249896 -0.258052 0.160374
0.0715393 0.200662 0.59999
-0.0904344 0.253198 0.712641
0.215779 0.234896 0.662958
0.182888 -0.101434 0.371885
-0.250372 -0.236187 0.144486
0.25977 -0.00916877 0.512768
0.124529 -0.134403 0.386119
0.0729778 0.235395 0.674467
-0.184943 0.219228 0.613048
-0.198158 -0.0103402 0.363916
0.123357 0.00638103 0.362453
-0.0356576 0.0641237 0.36875
0.234383 -0.0553386 0.380714
0.00530925 0.18811 0.546308
-0.163365 0.205908 0.611238
-0.218621 0.130684 0.391066
-0.214309 0.229332 0.00134915
0.257731 -0.193137 0.00485281
-0.215867 0.180956 0.548058
-0.0803594 0.187145 0.544238
0.092428 -0.16881 0.389129
0.152468 0.238918 0.0120332
0.0692527 -0.0496168 0.367352
0.259785 -0.229075 0.498299
0.219476 -0.232391 0.380168
-0.191632 0.0025408 0.362789
-0.229111 0.17697 0.518013
-0.192228 0.0640948 0.368752
-0.0354498 0.222644 0.620374
-0.175035 0.235547 0.00359734
-0.184133 0.18354 0.536506
0.172168 0.259753 0.712955
-0.179521 -0.220061 0.393612
0.259279 -0.244192 0.382335
0.0875593 -0.0631914 0.36854
-0.0928612 -0.141269 0.375371
0.0811355 0.0531723 0.369708
-0.0802578 -0.0140166 0.364237
-0.237762 0.0270119 0.0125309
0.202714 0.028913 0.360481
-0.101361 -0.0545716 0.367786
-0.122833 0.22682 0.656079
-0.08525 -0.053698 0.367709
0.0809838 -0.0298985 0.365627
0.161235 -0.0277045 0.365435
-0.255859 0.0831579 0.503419
-0.211288 -0.246278 0.384558
0.184039 -0.139788 0.38659
0.122276 -0.176123 0.37842
-0.103531 -0.0751218 0.380932
0.225374 0.138449 0.401574
-0.008145 0.225034 0.65225
-0.218127 0.100894 0.359069
-0.0292605 0.198966 0.596352
0.185851 0.178255 0.525172
0.214818 0.0355781 0.370254
0.135485 -0.056611 0.379313
-0.0689448 0.0336557 0.360067
-0.245851 -0.250525 0.0324388
0.24672 0.0309968 0.0220691
-0.259645 -0.0370995 0.00980455
-0.195958 -0.0819409 0.37018
0.0142764 0.215971 0.632815
0.24508 -0.0109703 0.526605
0.240841 0.115411 0.523054
-0.249341 -0.23591 0.161714
-0.23845 0.0934952 0.0150942
0.0945946 0.189266 0.575551
-0.236895 -0.0232186 0.372706
-0.0997061 -0.196937 0.391589
-0.115104 0.239067 0.0111298
0.240976 -0.25473 0.331848
-0.252378 -0.257383 0.301176
-0.253783 -0.161607 0.00135713
0.190992 -0.0415611 0.366647
-0.0188451 0.254728 0.689186
0.200941 -0.195354 0.391451
-0.0214256 0.219194 0.612974
0.0432655 0.21007 0.620163
0.233667 -0.17379 0.516927
0.256441 0.00802314 0.0190463
-0.215361 0.166841 0.467752
-0.257102 -0.239975 0.115983
-0.219289 0.205574 0.611976
0.233108 0.0564947 0.519566
0.246433 -0.23637 0.286293
0.107449 0.210969 0.595335
-0.217029 -0.25864 0.384916
0.198057 -0.110987 0.38407
0.105236 -0.0642459 0.368632
0.238042 -0.249331 0.423173
-0.185387 -0.24723 0.384641
0.191545 0.222882 0.00132504
0.236587 -0.239007 0.386385
0.0370498 0.0667933 0.357167
0.098953 -0.0172785 0.364523
-0.259718 -0.0927795 0.510519
-0.258572 -0.187779 0.517264
0.0754319 -0.218282 0.393457
-0.234084 0.215517 0.63066
-0.138008 0.00825036 0.373638
-0.142954 -0.0684994 0.380353
-0.143615 0.18764 0.572065
0.0910505 0.177241 0.549766
-0.0309074 0.238053 0.0152796
0.213975 0.223886 0.649787
-0.0561765 0.251302 0.708577
0.0680678 0.223277 0.621732
0.107955 -0.209377 0.392678
-0.187051 0.1696 0.533382
0.259286 0.175691 0.0141447
-0.0585214 0.234553 0.020009
0.113155 0.0417241 0.37071
-0.25971 -0.00574072 0.512995
0.189641 -0.262133 0.397293
-0.0344535 0.206787 0.613122
-0.212964 0.240165 0.657951
0.173228 0.23963 0.683549
-0.0936292 0.0502521 0.369964
0.0348725 -0.14154 0.386743
0.143213 -0.246066 0.395888
0.131627 0.218634 0.638526
0.259581 0.0631384 0.510006
-0.115297 0.227318 0.630398
-0.255129 -0.0602987 0.00225847
-0.249887 0.097167 0.000307869
-0.214818 0.18001 0.534356
-0.25041 -0.198861 0.000448672
-0.259689 -0.0955853 0.00997122
-0.0885309 -0.148605 0.387361
0.0552491 0.175715 0.519723
-0.244018 -0.237019 0.331611
0.139767 0.0645059 0.368717
0.0494643 0.170663 0.535662
-0.0454231 0.239134 0.682484
-0.214818 0.188433 0.570858
0.0785831 -0.0610308 0.379699
0.24122 -0.239137 0.204111
0.219462 0.173384 0.465004
-0.133832 0.036382 0.371177
0.259461 0.0614475 0.526605
0.201543 0.232363 0.641218
0.196117 0.195872 0.562954
0.257437 -0.24031 0.324795
0.0252662 -0.20908 0.392652
0.083498 0.188425 0.546982
0.0599865 -0.116592 0.373212
0.253279 -0.0926866 0.0213919
-0.235775 -0.0838979 0.370172
-0.258761 -0.2014 0.0166083
-0.105334 -0.105457 0.383586
-0.243596 -0.0798995 0.501813
0.259742 -0.110043 0.512873
0.000779539 0.221983 0.618957
0.0494418 0.0175725 0.361474
-0.0734878 0.227911 0.658418
0.0560554 -0.0771676 0.369762
0.196584 -0.235901 0.38365
0.221746 -0.214786 0.397617
0.131614 -0.141941 0.375429
-0.220389 -0.107742 0.387826
-0.204515 0.0323314 0.360182
-0.238076 0.0306177 0.509346
-0.0769443 0.179347 0.527514
-0.257842 -0.0478626 0.51809
0.25546 -0.238338 0.405385
0.0243662 -0.0140489 0.375589
0.259756 -0.178974 0.512824
0.0780758 0.248094 0.701697
-0.064981 0.238123 0.653573
-0.0324641 -0.0510914 0.367481
-0.0172603 0.19885 0.569341
0.236796 -0.105663 0.375506
-0.162749 -0.0150809 0.36433
0.0453558 0.222122 0.646006
-0.186669 -0.156564 0.388057
-0.220629 0.158107 0.503925
-0.199112 0.074825 0.356465
0.219409 0.1239 0.386367
0.214818 -0.0870019 0.374856
-0.110405 0.226236 0.000423844
0.0944869 0.0351049 0.35994
0.258628 -0.182148 0.0166136
0.0492313 0.224257 0.0216576
0.237942 -0.194612 0.513643
0.170645 0.0355321 0.359902
-0.00420646 -0.0372071 0.377615
0.154613 0.240537 0.65875
0.185656 0.213074 0.599849
0.182364 0.233038 0.669412
0.0469047 0.239946 0.684225
-0.0623083 -0.0693603 0.380428
0.111807 -0.126945 0.385466
-0.0276206 -0.203148 0.380784
0.117263 0.191824 0.554273
-0.114783 -0.260354 0.385789
0.134069 -0.00445497 0.363401
-0.013823 0.240908 0.659545
0.039054 -0.259744 0.385736
-0.175236 0.048432 0.370123
-0.0693979 0.194809 0.587439
-0.0690666 -0.151354 0.376253
-0.101369 -0.137922 0.386426
-0.128554 -0.121641 0.373653
0.0674952 -0.199963 0.380506
-0.167455 -0.0525268 0.367607
0.0334348 0.169055 0.532214
0.0796768 0.0127755 0.361893
-0.090703 0.194978 0.587801
-0.183376 -0.227275 0.382895
-0.0533934 -0.134915 0.386163
-0.110141 0.22082 0.616462
0.0674781 0.225005 0.0218585
0.178588 -0.245938 0.395876
0.242034 0.0538906 0.0200395
-0.2534 -0.257108 0.183303
-0.13256 0.0187785 0.361368
0.198677 -0.0428434 0.378108
0.134839 0.210893 0.621927
-0.0492773 -0.0745583 0.369534
0.15047 -0.159083 0.376929
0.256255 0.121145 0.519673
-0.158079 -0.27023 0.393176
-0.241244 0.0228489 0.523054
0.240486 -0.0458554 0.0184911
-0.227419 0.248447 0.709485
-0.129942 -0.0935323 0.371194
-0.154244 0.221664 0.00201159
-0.222692 0.217922 0.642669
-0.23688 0.250019 0.691818
0.135577 -0.0801246 0.370021
-0.1082 0.0695014 0.35693
-0.149886 -0.134863 0.386159
-0.244384 0.15179 0.00117169
-0.100671 -0.182565 0.378984
0.022322 0.0685879 0.35701
-0.0811284 -0.256514 0.385453
0.110058 -0.0716147 0.380625
0.0866567 -0.101403 0.383231
-0.243577 -0.0164823 0.501818
-0.0293608 0.228932 0.633861
-0.25884 0.0192391 0.51626
-0.207875 0.241146 0.686799
-0.2363 0.1928 0.574264
-0.259864 0.178368 0.0119747
-0.110092 -0.0169215 0.37584
-0.0268103 -0.253833 0.396567
-0.0127317 -0.125517 0.373993
0.0254761 -0.118571 0.384733
-0.0502477 0.259212 0.698804
-0.0309172 0.245439 0.696003
-0.177873 -0.14444 0.375648
-0.035016 -0.255625 0.385376
0.251653 8.08239e-05 0.000783405
0.111955 -0.196457 0.391547
0.238129 -0.0679038 0.00870777
0.0989886 0.070042 0.368232
0.241019 -0.254773 0.143809
0.238733 -0.183946 0.00646412
0.0511021 0.194864 0.560792
0.237921 -0.0454312 0.509922
-0.211448 -0.225741 0.394109
0.0873151 -0.19952 0.391815
-0.137961 0.194686 0.587174
-0.00664079 -0.104542 0.383506
-0.170258 0.198625 0.568859
-0.179097 -0.0985738 0.382984
-0.0288486 -0.0654334 0.368736
-0.190989 0.0489904 0.370074
-0.219339 0.150857 0.428176
-0.243564 0.111436 0.521662
-0.238444 -0.224323 0.508885
0.0805297 0.0353609 0.359917
0.238795 0.0800208 0.506676
0.195223 0.206879 0.586562
0.259477 0.167985 0.513871
-0.0367489 0.177104 0.549473
-0.0272342 0.235048 0.00309903
0.212173 0.255608 0.714886
-0.216075 0.24831 0.672215
-0.00866935 -0.191352 0.391101
0.14809 -0.11548 0.384463
-0.181205 0.181915 0.559789
0.174988 0.202282 0.603462
-0.239816 -0.253571 0.235057
0.0334685 -0.0248141 0.376531
0.191823 0.0200604 0.361256
0.171451 -0.258467 0.396972
-0.091868 0.2595 0.699422
-0.0580156 0.221478 0.617873
-0.144375 -0.105193 0.372214
-0.236093 0.233603 0.639859
-0.0595546 0.244509 0.667269
0.163964 -0.168512 0.377754
0.215901 -0.202679 0.390429
0.0783912 0.248961 0.676818
0.133154 -0.211477 0.381513
-0.194527 -0.0538593 0.367723
0.125986 -0.096863 0.371486
-0.137669 0.241285 0.687097
-0.259055 -0.225028 0.498603
0.0299464 0.221706 0.020643
-0.237471 0.00313446 0.511889
0.10945 0.166139 0.523559
-0.166087 0.250972 0.681132
-0.17342 -0.08624 0.381905
-0.224628 -0.107292 0.367099
0.222519 -0.0592123 0.384214
-0.254407 -0.108974 0.523054
0.090224 -0.00488174 0.363438
-0.258917 -0.162028 0.515972
0.0250632 -0.152005 0.387658
-0.0771232 -0.250707 0.396294
-0.153463 0.00391257 0.374018
0.0270603 -0.259824 0.397091
-0.167134 -0.223742 0.393934
0.166572 0.196972 0.592077
-0.101953 -0.129696 0.374358
-0.247949 0.126098 0.526605
0.177879 -0.0809471 0.370093
0.141837 0.240625 0.685682
-0.231338 0.166875 0.532078
-0.164294 -0.194281 0.391357
0.121719 -0.186268 0.390656
0.202962 -0.0250237 0.376549
-0.248698 0.0648841 0.526605
-0.0734513 0.0468206 0.358915
0.055602 -0.269983 0.396013
-0.0729753 0.257448 0.714029
-0.242128 -0.238229 0.417884
0.0993474 -0.104257 0.383481
-0.051325 -0.167425 0.389008
-0.252874 -0.103141 0.501544
-0.251649 -0.246719 0.058794
-0.0548575 -0.0809528 0.381442
0.239684 -0.240673 0.41385
-0.0886276 0.196089 0.563421
0.0372368 0.00154012 0.374225
0.173782 0.169034 0.532169
0.228904 0.116158 0.358702
-0.204392 -0.250655 0.396289
0.214818 0.222185 0.627422
-0.20485 -0.0826851 0.381594
-0.00242075 -0.166038 0.377538
0.130652 0.184158 0.564599
-0.196811 -0.205249 0.392317
0.251022 -0.0853871 0.000613606
-0.164204 0.262422 0.705688
-0.11708 0.0573488 0.357994
-0.0346395 0.226559 0.655519
-0.240534 0.086399 0.00407348
-0.0754633 0.214915 0.603797
0.224891 -0.159549 0.39363
-0.254568 -0.221168 0.0286544
0.212534 -0.109112 0.372557
0.107792 0.204368 0.607936
0.126799 0.221174 0.617221
-0.258771 -0.165185 0.016079
-0.0211755 0.00866526 0.373602
-0.0903018 0.226027 0.0221332
0.00996532 -0.168268 0.389081
-0.215592 -0.135359 0.377608
-0.256642 -0.0662557 0.526605
-0.214818 -0.154582 0.387227
0.24698 -0.124947 0.526605
0.159106 0.230597 0.637431
-0.241953 -0.0744961 0.00265452
-0.197657 0.202846 0.577912
-0.0340365 -0.235043 0.383575
0.100889 0.183975 0.564206
0.259775 -0.248071 0.26587
0.139823 -0.0909353 0.382316
-0.121427 -0.231152 0.394583
0.259956 -0.247393 0.08526
-0.17006 0.217138 0.608565
-0.256536 -0.0682323 0.0189518
0.0771186 -0.000311226 0.363038
0.241913 0.0865093 0.526605
0.162438 0.236826 0.677535
-0.250201 -0.236141 0.294656
-0.250262 -0.0373005 0.526605
0.250638 0.117294 0.000510078
0.039344 -0.110469 0.372676
-0.0310575 -0.107233 0.372393
-0.145403 0.0560637 0.369455
-0.131548 -0.00745055 0.363663
0.0497492 0.00434965 0.36263
-0.257181 -0.233551 0.0183341
0.254046 0.141428 0.0211853
0.236297 0.215852 0.623723
-0.0818909 0.218879 0.00479738
0.250273 -0.101168 0.523054
-0.238496 -0.251016 0.130284
0.165961 -0.197946 0.391678
-0.125876 0.264334 0.71082
-0.065984 -0.134523 0.386129
-0.0279887 -0.177009 0.389846
-0.238001 0.0709672 0.513862
0.182143 -0.145957 0.375781
-0.23761 -0.247728 0.442721
0.237902 -0.150543 0.526605
-0.0679399 0.24648 0.698236
0.00490559 0.21774 0.00669483
0.0832513 0.196354 0.563989
-0.108833 0.244926 0.694905
-0.17195 0.214757 0.630212
-0.0921346 0.200655 0.599974
-0.126809 0.196573 0.564458
-0.00764991 -0.0589654 0.36817
-0.24845 -0.129293 0.500519
-0.133712 -0.222439 0.382472
-0.153875 0.249884 0.705535
0.108566 -0.217193 0.382013
-0.241435 -0.0923993 0.526605
-0.0255356 0.188429 0.546991
-0.000780031 0.20181 0.60245
-0.241252 -0.0424578 0.00335536
-0.109219 -0.0928341 0.382482
-0.0432519 -0.125557 0.385345
-0.259569 -0.215431 0.50928
0.0703245 0.174484 0.519665
-0.257894 -0.0214466 0.00501525
0.0680081 0.187735 0.572269
-0.102941 -0.20934 0.392675
-0.240264 -0.254019 0.164849
-0.0794018 0.201733 0.575525
-0.0028831 0.227345 0.0224874
0.0317312 -0.126458 0.374075
-0.15648 -0.0040777 0.363368
