-0.249238 -0.252623 0.46426
-0.0826025 -0.09265 0.371117
0.215502 0.178506 0.5396
0.237671 -0.0297753 0.0121932
-0.0396016 0.2205 0.0194365
0.0132735 0.222056 0.645865
0.23761 0.0304725 0.0119673
0.103467 0.235174 0.673994
0.214818 -0.177482 0.388431
0.0120603 -0.0487557 0.378625
0.150593 0.208773 0.617382
0.0334975 0.226352 0.655077
-0.237414 0.200572 0.580751
-0.0986438 -0.00113547 0.36311
0.216453 -0.12497 0.385379
0.236196 -0.233436 0.393728
0.19325 0.253212 0.685935
0.219184 0.141314 0.379251
0.0918266 0.0150644 0.373042
-0.181791 0.228303 0.659259
-0.222257 0.150405 0.384655
-0.212819 -0.224543 0.394005
0.00179619 0.174845 0.544629
0.0573067 0.21141 0.59628
-0.246229 0.0970054 0.526605
0.238614 -0.144262 0.507347
0.226001 -0.161557 0.394103
-0.235712 -0.0883453 0.523807
-0.151618 -0.0811172 0.370108
0.1173 0.0732014 0.367956
-0.219361 0.151444 0.387528
0.0817628 0.238305 0.0143312
0.00168229 0.238746 0.00992716
-0.234016 0.205396 0.609117
0.2334 -0.04239 0.380566
-0.208028 -0.0504242 0.378771
-0.259625 -0.248633 0.126612
0.182706 0.00137818 0.36289
-0.153658 -0.270577 0.389208
-0.0518722 0.222376 0.646551
0.0944345 -0.0374566 0.377637
-0.0408724 0.233566 0.00161732
-0.236445 -0.125412 0.383341
0.0388575 0.261977 0.704734
0.172571 -0.0967874 0.371479
-0.16524 -0.0672739 0.368897
0.247005 -0.257895 0.328592
0.167304 -0.0223296 0.364965
0.017517 -0.0206437 0.376166
-0.240085 -0.240272 0.331491
-0.104733 0.0540807 0.35828
0.237817 0.136258 0.510306
0.215098 -0.000355065 0.367642
-0.24055 -0.239807 0.153128
-0.0279697 0.0755775 0.356399
0.000341788 -0.0350239 0.366075
0.107914 -0.195629 0.391475
-0.0780066 -0.024895 0.376538
0.173476 -0.037479 0.36629
0.183889 -0.0587802 0.379502
-0.236542 0.117027 0.3738
-0.215422 0.197642 0.569302
-0.0549807 -0.0564044 0.379295
-0.0552819 0.212428 0.625219
0.0294535 -0.0150613 0.364329
0.168118 0.00132331 0.374244
-0.232799 0.221187 0.604358
0.250616 -0.23246 0.478409
0.120386 -0.198989 0.380421
-0.225464 -0.175648 0.395192
0.114372 0.00522447 0.373903
0.162776 -0.215569 0.393219
-0.0968228 -0.23076 0.3832
0.172843 -0.141198 0.375364
-0.255743 -0.23862 0.378928
0.0869612 -0.140963 0.386692
-0.219971 0.247743 0.66008
-0.0422685 0.246301 0.671113
0.0648098 0.223675 0.622586
0.00467333 0.00880209 0.37359
-0.0577278 0.231646 0.666428
0.109898 0.191574 0.553737
-0.00253646 0.200455 0.599545
-0.0805909 0.034124 0.360026
0.248675 -0.15369 0.523054
-0.238737 0.104369 0.00645051
-0.221643 -0.131303 0.370008
0.0138552 0.230263 0.636715
0.228146 -0.12377 0.36868
0.0575169 0.00227383 0.362812
-0.105806 0.177974 0.551339
0.0327173 0.0589004 0.369207
0.229923 -0.0101512 0.379871
-0.237692 -0.24609 0.211306
-0.246158 0.136879 0.0219181
0.0677404 0.229421 0.661656
0.258564 -0.241507 0.397689
-0.254225 0.12019 0.523054
0.125025 0.0133559 0.373191
0.2423 0.033072 0.502738
0.257933 -0.158106 0.00505413
-0.0985841 0.221 0.616847
0.249655 -0.122846 0.523054
-0.240913 0.0260763 0.523054
-0.159518 0.203782 0.606679
-0.251181 0.100397 0.000656245
0.0371409 -0.00629032 0.37491
-0.259289 -0.24989 0.196468
-0.214818 -0.217916 0.387718
-0.246295 0.161174 0.000658162
-0.258759 -0.007782 0.516563
-0.228628 0.161628 0.4033
-0.259219 0.146529 0.50865
-0.237478 -0.206508 0.0129881
-0.153269 -0.189656 0.390952
-0.109187 -0.121396 0.384981
0.176 -0.0315593 0.377121
0.258501 -0.24137 0.297359
0.248993 -0.258295 0.301597
0.131699 0.0175009 0.36148
0.129534 0.175311 0.545629
0.193772 0.235291 0.647499
0.127015 0.226749 0.629178
-0.256558 -0.237636 0.0520999
-0.256735 -0.019866 0.0187533
0.229126 0.0538719 0.353405
-0.142603 -0.133151 0.386009
-0.116464 0.235706 0.648389
0.0720533 -0.136836 0.374983
0.21335 -0.0624408 0.379823
0.0222366 0.0584046 0.36925
0.109664 0.23791 0.653116
0.151485 -0.0120625 0.375415
-0.112446 0.225488 0.626473
0.162876 -0.112914 0.384238
0.227216 0.252558 0.666324
0.143669 -0.0822395 0.381555
0.239574 -0.0844685 0.0175798
0.236269 0.0371614 0.36978
0.238058 -0.187528 0.0136325
0.238529 -0.242977 0.0751615
0.126398 -0.0134951 0.375541
-0.0734546 -0.194429 0.39137
-0.208709 -0.255701 0.39673
-0.138873 -0.0669053 0.368865
0.238599 -0.146058 0.00696322
0.238945 -0.0277227 0.506118
0.230964 0.219122 0.0218963
0.0623872 0.0751579 0.356435
-0.115477 0.00905553 0.362219
0.238343 -0.25045 0.370685
-0.25822 -0.253022 0.12518
0.236382 0.19906 0.00320093
-0.0853122 -0.253184 0.385162
0.227583 0.24555 0.65153
0.0939996 0.178233 0.525123
0.199551 0.0494188 0.358687
-0.153994 -0.158799 0.376904
0.235138 -0.127592 0.519321
0.118101 -0.177538 0.378544
-0.259822 -0.196062 0.510908
0.0309951 0.207454 0.614553
0.260044 -0.0752101 0.525712
0.161653 0.222755 0.0013591
0.100065 -0.0370511 0.377601
-0.241282 -0.20568 0.518091
0.214818 -0.240233 0.388184
-0.179174 0.2475 0.700423
-0.0434147 0.0329185 0.37148
-0.226741 -0.255172 0.402164
-0.115976 -0.0181893 0.375951
-0.117946 -0.115879 0.384498
0.236872 -0.120737 0.522145
-0.259353 -0.249649 0.0998759
0.0146723 0.202056 0.576219
-0.0520913 0.234049 0.0205135
0.258567 -0.130589 0.517285
0.0975901 0.17688 0.522223
0.198041 0.0291534 0.371809
-0.0363203 -0.0409028 0.36659
-0.148238 0.237393 0.00544359
0.251617 -0.161294 0.523054
-0.235328 0.21599 0.599187
0.124667 -0.135973 0.386256
-0.258343 -0.252899 0.171917
-0.0216503 0.052709 0.369749
-0.0692009 -0.270277 0.392648
0.229554 0.223948 0.606455
-0.249376 0.0892593 0.526605
-0.0506177 0.178193 0.551808
0.130601 -0.0696589 0.369106
0.237034 0.137603 0.388738
0.240846 -0.208785 0.0213242
0.140064 0.209477 0.592135
0.0586455 0.0085324 0.373613
-0.183004 -0.161579 0.388496
0.233644 -0.141909 0.373118
-0.218428 -0.135277 0.372721
0.150664 0.0709575 0.368152
0.000668511 0.0766054 0.361998
-0.237671 -0.195794 0.0104108
0.214818 -0.1322 0.384699
-0.117761 0.203448 0.579203
-0.244371 -0.236924 0.122065
-0.255702 0.114147 0.503262
0.227526 0.0836093 0.374042
0.0827184 -0.037388 0.366282
0.153862 0.179787 0.555227
0.178726 -0.223165 0.393884
0.0446943 0.209888 0.619772
0.0477066 0.000595331 0.362959
-0.0807598 0.19881 0.569255
-0.0595109 -0.0288789 0.376886
-0.0289066 0.0178689 0.372797
0.167313 -0.16562 0.38885
0.11623 -0.126397 0.37407
0.215117 -0.195001 0.3846
-0.130509 0.0512995 0.369872
0.241945 0.125743 0.526605
-0.191135 0.01924 0.372677
-0.196437 0.223072 0.621292
0.254236 -0.0449099 0.501908
0.0297149 -0.071976 0.380657
-0.242643 0.0328391 0.0206477
-0.0402934 -0.145125 0.375708
-0.240514 -0.170364 0.0185192
0.256921 0.0376186 0.519008
-0.243546 -0.0892269 0.501826
-0.0432414 -0.170015 0.389234
-0.185263 0.210142 0.593561
-0.18392 -0.166453 0.377574
-0.218928 0.0130758 0.359242
-0.239566 -0.248273 0.483117
-0.231107 0.193696 0.542564
0.243427 0.134886 0.0211841
-0.240123 0.150094 0.504921
-0.175084 -0.086998 0.370623
0.00682698 -0.110778 0.372703
0.1295 0.1865 0.542853
0.0769509 0.237727 0.652724
0.14116 0.178217 0.52509
-0.109543 -0.0710749 0.380578
-0.237425 0.16466 0.465735
0.157989 0.0355531 0.359901
-0.217734 -0.0407906 0.36515
-0.120194 0.0263985 0.37205
0.213532 0.0504286 0.369948
0.0128964 0.228265 0.0224917
-0.168138 0.0269849 0.36065
0.117074 -0.0698002 0.369118
-0.245558 0.0431595 0.522198
-0.208772 -0.236482 0.395049
0.0235354 0.221782 0.0207186
-0.259178 -0.240862 0.475267
0.141054 0.191082 0.552682
-0.146427 -0.1233 0.385147
0.215778 -0.26653 0.395556
0.0773877 0.207704 0.615089
0.0316133 -0.128349 0.37424
-0.0819001 0.205853 0.611119
0.226619 0.237587 0.686704
0.236338 -0.186883 0.389121
0.246286 -0.150218 0.501096
-0.145114 0.0768968 0.365332
0.0371753 -0.0640679 0.379965
0.19311 0.0603114 0.357734
-0.246717 -0.190983 0.522509
-0.205387 -0.157756 0.388162
-0.10328 0.24932 0.704326
-0.25684 -0.254397 0.384344
0.0145162 0.0284775 0.371869
-0.185098 -0.163141 0.377284
-0.0832944 -0.00741276 0.375008
-0.0835845 0.231135 0.665331
-0.0171745 -0.146361 0.387165
-0.0298269 0.179864 0.555391
0.0369258 0.216751 0.0122357
0.00860485 0.254887 0.715222
0.208759 -0.202419 0.380721
0.0853127 0.210191 0.593666
0.0854517 0.00813663 0.373648
-0.16439 -0.21459 0.381786
0.0817269 0.218351 0.611166
0.149936 -0.156226 0.376679
0.249245 0.0378596 0.523054
-0.222536 0.112769 0.358321
-0.238917 -0.0295247 0.0168315
-0.257784 0.00042519 0.518148
0.231775 -0.0198263 0.517007
0.0233532 -0.0846885 0.381769
0.16942 0.205515 0.610394
-0.116095 -0.245413 0.39583
-0.225302 0.109772 0.357065
0.171278 -0.109758 0.383962
0.114877 -0.151696 0.387631
0.0624435 0.222647 0.620381
-0.204595 0.0573789 0.357991
-0.130205 0.0667916 0.357167
-0.146432 -0.153118 0.387756
0.189333 -0.185837 0.390618
0.0802062 0.212125 0.597813
-0.238763 0.0737571 0.506796
-0.0311756 -0.186586 0.390684
0.237091 -0.246636 0.391513
-0.105631 0.230543 0.664062
-0.15187 0.25188 0.683078
0.212764 -0.0428328 0.366758
0.133491 -0.176944 0.38984
-0.238149 0.0779564 0.514412
0.246552 0.0991228 0.523054
-0.258253 -0.167691 0.0172401
-0.157361 0.233084 0.642766
-0.229274 0.230796 0.00826563
-0.177769 0.0254851 0.360781
0.233616 0.175327 0.496714
-0.234365 0.229713 0.660438
-0.251164 -0.25771 0.437088
-0.0321174 0.0749026 0.367807
0.13829 -0.109084 0.383903
-0.024753 -0.227613 0.382925
-0.211521 -0.255741 0.396734
-0.00314361 0.197536 0.593285
0.0763189 0.174385 0.543642
-0.137838 0.191462 0.553496
-0.259122 -0.250515 0.322752
-0.235949 -0.0578669 0.379299
-0.0723161 -0.118425 0.384721
0.0933202 0.244208 0.693366
-0.0447219 0.0424395 0.370647
0.204061 -0.016284 0.375785
0.0555135 -0.0611846 0.368364
0.176494 0.202136 0.60315
-0.0500788 -0.156153 0.388021
-0.174614 -0.0860455 0.370539
-0.241534 -0.238823 0.0841202
0.00778356 -0.120353 0.384889
-0.201277 -0.101712 0.37191
-0.255781 -0.0619993 0.523054
0.234751 0.0543511 0.518692
-0.0579835 0.197702 0.56688
0.10195 -0.214911 0.381814
-0.173343 0.262199 0.70521
-0.0859366 -0.0365664 0.377559
-0.259544 -0.248936 0.179923
0.220326 0.223685 0.607648
0.0727614 -0.122332 0.373714
-0.250577 -0.257868 0.230567
0.253682 0.15731 0.0212833
0.116523 0.236278 0.649617
0.220502 0.0697517 0.352727
0.252073 -0.0545435 0.522157
-0.205241 -0.151152 0.387584
-0.21637 0.214973 0.00464727
0.159684 0.214449 0.629552
0.209616 0.224166 0.650389
-0.229543 0.169757 0.426312
0.241615 -0.199568 0.517024
0.0612635 -0.108928 0.38389
-0.180144 -0.0708039 0.369206
0.0650524 0.248016 0.67479
-0.0906395 0.23277 0.668839
0.247992 0.178273 0.500641
-0.0973252 0.215816 0.632484
0.216085 0.12021 0.366323
-0.24329 -0.237215 0.4073
-0.0242601 -0.0689165 0.380389
0.0249265 0.00346434 0.362708
-0.142135 -0.0878292 0.370695
0.0558598 -0.112695 0.372871
0.180223 -0.114081 0.384341
-0.248857 0.0494972 0.523024
0.127071 -0.0626376 0.368491
0.00413594 0.174004 0.542826
-0.0212054 0.0770504 0.36709
0.179508 0.0150735 0.361692
0.127156 0.227154 0.656796
-0.245087 -0.212005 0.0249649
-0.246143 -0.257663 0.375028
-0.201309 -0.219651 0.393577
-0.0858538 -0.017625 0.375902
-0.155791 0.240301 0.658244
0.231775 0.0432226 0.515022
0.249616 -0.0291621 0.526605
-0.101491 0.00616711 0.362471
0.0334152 0.264585 0.710327
0.200322 0.196455 0.590968
-0.241674 -0.0059582 0.0196794
-0.0326412 -0.15529 0.376597
-0.215463 0.116677 0.372329
0.258666 -0.202023 0.0171324
0.0652893 -0.18807 0.379465
-0.193107 -0.0368402 0.377583
0.236408 0.172853 0.507751
-0.19484 -0.18211 0.390292
-0.122944 0.251023 0.681241
0.20125 0.227461 0.00560285
-0.255544 -0.188991 0.0026727
0.0606353 -0.218658 0.382141
0.152415 0.0758787 0.356372
-0.153281 -0.0709572 0.369219
-0.258564 -0.0213916 0.0168559
0.246691 -0.25781 0.284864
0.252335 -0.236716 0.163619
-0.0783523 0.254129 0.687902
-0.199422 -0.233002 0.394745
-0.189434 0.186714 0.570079
0.212202 0.171001 0.536387
0.152756 -0.131622 0.385875
0.104893 -0.00708157 0.374979
-0.246107 -0.190026 0.000708739
-0.0123936 -0.247312 0.395997
-0.231867 -0.0473218 0.517547
-0.234233 0.206863 0.577029
-0.167133 -0.0573976 0.379382
0.240371 0.131235 0.018376
0.00351408 0.201213 0.60117
-0.138261 -0.232829 0.383381
0.256414 0.113231 0.503974
-0.0846599 0.074724 0.356473
-0.240552 0.186144 0.0024943
0.173855 0.200371 0.599364
0.214818 0.216718 0.614173
0.0356457 0.0388424 0.359613
0.247871 -0.20146 0.0228853
-0.23883 -0.248454 0.478469
-0.144534 -0.0128922 0.364139
-0.207094 0.247797 0.701061
-0.235517 0.1644 0.423825
-0.0197232 0.191142 0.552811
0.245685 -0.236571 0.141399
-0.00307816 -0.0202445 0.376131
-0.132328 -0.0479246 0.367204
0.122177 -0.0329178 0.365891
0.201192 -0.00727245 0.374996
-0.237675 -0.246153 0.325218
0.242869 0.0543646 0.521315
0.0292329 -0.0448658 0.378285
-0.245036 -0.236746 0.0954551
0.186608 -0.0499961 0.378734
-0.214232 0.213951 0.00784336
0.0530066 -0.238076 0.38384
0.0465734 0.000836432 0.374287
0.247147 0.133872 0.0221839
0.208228 -0.0168822 0.364488
-0.18242 0.0214586 0.361134
0.17539 0.167136 0.528099
0.233884 0.163217 0.433827
0.253296 -0.0663389 0.523054
0.0976499 0.0160854 0.372953
0.24887 -0.211419 0.519846
-0.238484 -0.250972 0.167617
-0.215656 0.168372 0.517502
-0.206514 -0.26153 0.385892
-0.00368646 0.231032 0.000864982
-0.215086 0.213373 0.610711
0.0921369 -0.183372 0.379054
0.254137 -0.130597 0.501881
0.257456 -0.0481189 0.505016
-0.00188293 -0.221104 0.382355
0.0704667 0.244969 0.694996
-0.158349 -0.266368 0.386316
-0.169091 0.0767941 0.364157
0.238921 -0.241519 0.168157
0.0556562 0.238415 0.654199
-0.187672 0.0332808 0.371448
0.189714 0.216349 0.606873
-0.253314 -0.0239578 0.521823
0.228589 -0.0693345 0.385408
0.236811 -0.0744696 0.377504
0.209979 0.0355945 0.371246
0.22269 -0.149377 0.371306
0.150317 0.247841 0.701155
0.186191 0.198065 0.594419
-0.041254 -0.150553 0.387531
0.106411 -0.262574 0.385984
0.0872335 0.229192 0.661165
-0.214845 -0.0318268 0.371539
0.195642 0.255595 0.691045
0.0302336 -0.179321 0.3787
-0.131242 0.253476 0.713238
-0.256916 -0.187608 0.504476
0.0982462 0.230647 0.637538
-0.073678 0.178375 0.5522
-0.153515 0.167038 0.527888
-0.217081 -0.0680053 0.368185
-0.0119005 0.034357 0.371354
0.233818 0.031342 0.358135
-0.0698526 -0.114103 0.372994
0.205745 0.214876 0.630468
-0.237815 -0.213702 0.509388
-0.209517 -0.246243 0.384555
0.0342283 -0.160552 0.377058
-0.147647 -0.171212 0.37799
-0.12187 0.19001 0.550383
0.0124358 0.175714 0.519721
0.252019 0.130258 0.523054
0.252762 -0.158202 0.00108208
0.246963 -0.257883 0.238873
0.0390085 0.070501 0.368192
-0.243283 0.0860579 0.523054
0.198658 0.264656 0.710479
0.10176 0.251506 0.682277
0.24454 -0.0975998 0.0011299
-0.224151 -0.0183526 0.359447
0.0535442 0.064319 0.357384
-0.0766704 0.18074 0.530501
0.180578 0.171415 0.537275
-0.243646 -0.0618431 0.526605
-0.0443829 0.0123119 0.373283
0.25926 -0.241727 0.049871
-0.164865 0.0450304 0.359071
0.0259959 -0.160555 0.388406
-0.0514565 -0.240152 0.384022
-0.196793 -0.207015 0.381123
0.174397 0.233993 0.671461
0.231775 -0.0886535 0.517171
-0.229649 0.232264 0.624347
-0.251861 -0.236588 0.243464
0.259908 -0.247572 0.3221
0.242596 0.0660678 0.523054
-0.256699 -0.199568 0.0106379
0.233115 0.117145 0.519579
0.258714 -0.0880191 0.00632081
0.0842139 -0.237355 0.395125
-0.199644 0.221889 0.618754
-0.258593 -0.141394 0.506307
-0.206827 0.0134419 0.361835
-0.0551566 0.0487547 0.370095
-0.155954 0.16937 0.532889
-0.0983708 -0.0899892 0.382233
0.169418 0.180613 0.530228
0.216052 -0.241985 0.394433
0.0565921 0.00989929 0.362145
-0.233157 0.0249048 0.516096
-0.239141 -0.241216 0.264001
-0.136127 -0.0142405 0.364257
-0.131594 -0.158402 0.37687
0.232528 0.175601 0.487432
-0.0601019 0.210868 0.595117
-0.220901 0.269276 0.704795
0.047144 0.240446 0.685297
-0.238715 -0.195042 0.516518
-0.241088 -0.1889 0.00352012
0.25894 -0.251195 0.20121
0.0590427 0.216081 0.606297
0.209528 0.239994 0.684328
0.0189007 0.0699278 0.356893
-0.0966292 -0.216524 0.393303
0.14017 0.211901 0.624088
-0.027393 0.0534479 0.358335
-0.148237 0.213085 0.626628
-0.214818 0.0202011 0.364179
-0.172202 0.167569 0.529027
-0.215091 0.0658247 0.363916
0.00338963 -0.215429 0.381859
-0.074303 0.0243482 0.360881
0.232846 -0.262908 0.382907
-0.202768 0.205876 0.611169
0.237443 0.132838 0.523382
-0.259361 0.0356827 0.0138656
0.214818 -0.21242 0.38971
-0.195813 -0.0201846 0.376126
0.178932 0.0506943 0.369925
0.00582874 0.254454 0.715336
-0.217639 -0.265902 0.3989
0.252233 -0.114651 0.526605
0.247372 -0.0385542 0.500807
-0.208207 0.199349 0.570412
-0.135481 0.259305 0.699004
-0.252523 0.0279784 0.50145
0.200967 0.226852 0.629399
0.13057 0.0389709 0.359601
0.239939 -0.253693 0.131504
-0.0357065 -0.0467124 0.378447
-0.241023 -0.254777 0.189149
-0.0145619 -0.0186883 0.375995
0.238108 -0.072767 0.0138187
0.0502786 -0.232871 0.394733
0.252369 -0.236725 0.314778
0.256503 -0.238399 0.467916
-0.125421 -0.210396 0.392767
0.0268579 -0.217674 0.393404
0.236199 0.153295 0.423485
-0.238824 -0.243909 0.49187
0.184797 -0.132356 0.385939
0.215878 -0.21173 0.383222
-0.228491 -0.0757451 0.385996
0.147984 0.259778 0.700018
0.11821 0.198569 0.595501
-0.255116 -0.0604188 0.00224611
0.070892 0.261068 0.702785
0.15418 0.0430404 0.359245
0.190904 -0.0522207 0.36758
-0.114905 -0.165157 0.377461
0.214818 -0.0347505 0.373546
-0.0358522 0.0103484 0.373455
-0.211112 -0.202548 0.39208
-0.255616 -0.091062 0.00274458
0.258798 0.0117857 0.00663272
-0.0251121 0.0606749 0.369052
0.23893 -0.252626 0.178394
-0.0947402 -0.0566177 0.379313
-0.12405 0.0213455 0.361144
0.217329 0.198001 0.55967
0.068774 0.0618574 0.357599
0.197424 0.182668 0.561403
0.257339 0.100843 0.00446208
0.0255892 0.0499572 0.35864
-0.237272 -0.136446 0.379995
-0.241562 -0.238576 0.465073
-0.171475 -0.183597 0.390422
0.187576 -0.180722 0.390171
-0.063372 0.201147 0.574268
-0.227042 -0.127468 0.368704
0.0816324 -0.0233731 0.376405
-0.131964 0.260107 0.71279
0.122388 0.243849 0.692595
0.185664 0.221624 0.0205611
-0.249687 -0.0390629 0.0223592
0.245241 -0.051043 0.000941268
-0.0656527 0.25795 0.696097
-0.259189 -0.250266 0.165081
-0.255108 -0.212185 0.517436
0.196468 -0.00510406 0.374806
-0.0709171 0.211492 0.596455
-0.258539 -0.244441 0.491977
0.215816 0.212179 0.614566
-0.24317 -0.256864 0.379173
0.208922 -0.270407 0.391156
-0.249801 0.0447313 0.526605
-0.0425551 -0.0730857 0.380754
0.0506586 0.174181 0.543205
-0.168154 0.228358 0.632629
-0.258547 0.0211491 0.517361
0.0240662 0.0518861 0.369821
0.156691 0.190175 0.550737
-0.169922 0.0322709 0.360188
0.185722 0.252314 0.68401
0.179942 0.191603 0.5538
0.24003 -0.0918691 0.0180353
0.142291 -0.238016 0.395183
-0.237177 -0.136838 0.379669
-0.0840099 -0.209698 0.392706
-0.172072 -0.0117654 0.375389
0.0595876 -0.0513493 0.367504
-0.00218263 0.0763607 0.359197
0.239957 -0.173132 0.0179623
-0.00696023 0.0390736 0.359592
0.0486148 0.223244 0.621661
0.145853 0.218432 0.638094
-0.223361 -0.263787 0.381133
0.00581372 -0.171496 0.389364
0.249043 -0.165712 0.523054
-0.0704181 -0.0471025 0.367132
-0.105984 0.213861 0.628291
-0.0236394 -0.159127 0.388281
-0.259188 -0.24385 0.415503
-0.15367 -0.0765453 0.369708
0.183598 0.206181 0.585065
-0.113852 0.0272949 0.371972
0.0769872 0.207398 0.587675
0.24604 -0.0951448 0.523054
0.238683 -0.251709 0.396944
-0.00892553 -0.228871 0.383035
0.110289 -0.0489682 0.378644
-0.115599 0.214792 0.603533
0.181198 -0.149808 0.387466
-0.214818 -0.0418825 0.371919
-0.225578 -0.0529587 0.362089
0.0470205 0.209069 0.618015
-0.116969 -0.0382363 0.366356
0.00147629 -0.116992 0.384595
0.255398 0.100704 0.00252709
-0.214818 -0.256247 0.393859
-0.11975 -0.228557 0.394356
-0.241268 -0.0243846 0.0192736
-0.251498 -0.128046 0.522312
-0.00603242 -0.0860216 0.370537
0.144094 -0.250715 0.384946
0.0548295 0.182087 0.533389
0.0627885 0.235307 0.0192559
0.247951 -0.211619 0.519614
0.160943 -0.101977 0.371933
0.251567 -0.116137 0.000760357
0.132871 -0.0489668 0.367295
-0.214818 0.0347528 0.365764
-0.0936479 0.247499 0.673682
-0.0467728 -0.183601 0.390423
-0.0749436 0.23243 0.668108
-0.2586 -0.158334 0.506333
0.16451 0.233653 0.670732
-0.0510787 0.21871 0.00496604
-0.190192 0.233048 0.642688
-0.247981 -0.258157 0.177147
0.202741 -0.0533001 0.379023
-0.139451 -0.028438 0.365499
0.239089 -0.068807 0.526605
-0.204147 0.179192 0.55395
0.236388 0.0473925 0.360583
-0.105527 0.246208 0.697653
0.234223 0.209042 0.616446
0.209054 0.0316781 0.36024
0.00768268 -0.258454 0.396971
-0.0111625 -0.0976415 0.382902
-0.222331 -0.213939 0.377051
0.0308759 -0.17915 0.378685
0.0729532 -0.207384 0.392503
0.109199 0.0764868 0.360641
-0.238345 0.157936 0.515142
0.232112 0.153738 0.449669
-0.216885 0.169902 0.454774
-0.214818 -0.0292756 0.373337
-0.161876 -0.00934619 0.363829
-0.244355 -0.236928 0.139218
0.0264502 0.223076 0.00127291
0.246213 -0.00946549 0.526605
-0.190756 0.252873 0.685208
-0.160503 0.225003 0.652183
0.207848 -0.267711 0.397781
0.239507 -0.189489 0.505539
0.243183 -0.0158262 0.501923
-0.259221 -0.140388 0.508657
0.168446 -0.0917995 0.382391
-0.120246 -0.249144 0.384809
0.242769 -0.237588 0.259558
-0.142529 -0.14012 0.37527
-0.236822 0.192777 0.558781
0.244203 0.0965868 0.521834
0.239704 -0.174902 0.505342
0.151695 -0.0598379 0.368246
0.208143 0.178793 0.526325
0.178657 0.182361 0.560747
-0.103617 0.181922 0.533037
0.241005 0.128272 0.00360313
0.0632705 -0.0444136 0.366897
-0.0721316 -0.0174669 0.364539
0.237854 -0.248634 0.436063
-0.145739 -0.0603431 0.36829
-0.0018838 0.216425 0.633789
0.114773 0.196182 0.590381
-0.0169071 0.253363 0.686258
-0.0540897 0.190146 0.550673
-0.231187 0.0637266 0.353102
-0.125573 0.254707 0.689142
-0.0811209 -0.249506 0.38484
-0.0552265 0.191741 0.580859
-0.163082 -0.00577414 0.363516
-0.174293 0.188268 0.546647
0.137609 -0.225105 0.394054
-0.249817 -0.236038 0.268492
0.148254 0.229771 0.635661
0.172389 0.220571 0.642681
-0.20125 0.219253 0.0150238
0.118234 0.0579977 0.369286
0.230959 0.225094 0.609802
0.199832 0.217172 0.608639
-0.149444 -0.093327 0.371176
-0.179716 -0.0233349 0.365053
-0.0016931 -0.204531 0.392254
-0.248469 0.136987 0.52298
0.259232 -0.0394591 0.523054
-0.169625 0.00558296 0.373872
-0.164841 0.261654 0.704041
-0.228486 -0.193876 0.374906
0.249847 -0.258065 0.43267
0.188176 0.0434239 0.359212
-0.23003 0.246177 0.702958
-0.146277 0.1692 0.522131
0.214818 -0.0943841 0.382419
0.237835 0.120274 0.523054
0.257246 -0.240118 0.205793
0.19131 0.227178 0.630099
0.166344 0.237955 0.00696515
-0.258404 0.0499545 0.523054
0.158835 -0.176453 0.378449
0.232143 -0.206151 0.37724
0.0698398 0.249732 0.70521
-0.242742 0.12763 0.00186588
-0.114176 -0.186016 0.379286
-0.247095 -0.172219 0.522611
0.014721 0.254476 0.688646
0.218243 0.0962303 0.372965
0.139993 0.218653 0.611815
0.224782 0.116969 0.358471
-0.236894 -0.266821 0.389978
0.00841548 0.0630272 0.368846
-0.194856 -0.0202356 0.364781
-0.147822 -0.123937 0.373854
0.2445 0.216321 0.00837632
0.235327 -0.11786 0.385238
-0.0981053 -0.266036 0.386287
0.00106299 -0.00664508 0.363592
0.219544 0.226256 0.0217134
0.244039 0.0600228 0.00126435
-0.219856 0.189608 0.579084
-0.143367 -0.0374339 0.366286
0.0210376 0.0765342 0.361183
0.225848 -0.270774 0.392598
-0.152578 0.23384 0.671133
0.0325681 -0.0487162 0.367273
0.177782 0.207044 0.613673
0.251183 -0.236406 0.0904394
0.239308 -0.250886 0.472393
-0.149208 -0.129649 0.374354
-0.234443 -0.126079 0.372532
-0.214818 0.17812 0.543768
0.175642 -0.0560403 0.379263
-0.0538485 0.00674677 0.362421
0.0586987 0.200691 0.600051
0.159133 0.20936 0.618641
-0.0985176 0.222665 0.620418
0.0324922 -0.127055 0.374127
0.0873818 -0.153232 0.387766
-0.215441 0.0895781 0.366643
0.158654 0.243661 0.692191
-0.0476974 0.221839 0.00183691
0.244989 -0.120474 0.526605
0.259329 -0.24974 0.416461
-0.242619 -0.237738 0.0680917
-0.248526 -0.171933 0.526605
-0.0441598 -0.225418 0.394081
0.0385088 -0.0928033 0.382479
0.0903019 -0.251062 0.384977
-0.145281 -0.230954 0.394565
0.246547 0.191889 0.0223693
0.246621 -0.257791 0.355341
-0.239329 0.182914 0.0180304
0.244463 -0.257211 0.0612438
-0.0138854 0.206838 0.613233
0.259956 -0.24673 0.370546
0.259682 -0.131002 0.513101
0.189648 0.00173286 0.374208
0.254638 -0.237519 0.222394
-0.248674 -0.235768 0.198229
-0.0510373 -0.178549 0.389981
0.2487 -0.235761 0.418924
-0.232872 0.173617 0.468651
0.237121 -0.219702 0.389042
-0.237584 -0.186064 0.0107325
-0.144881 0.179709 0.528289
-0.196161 -0.242437 0.39557
0.255777 0.0497366 0.503337
0.0991525 0.24556 0.669523
0.0823487 -0.0536945 0.367709
-0.14023 0.246851 0.699031
0.248853 -0.258333 0.178104
0.0689936 -0.267898 0.386449
-0.254513 -0.208523 0.00404362
-0.233708 -0.157258 0.374525
0.047011 0.256046 0.692013
-0.116985 0.169341 0.522065
0.0937497 -0.0176928 0.375908
-0.144073 0.218079 0.637337
0.214548 0.229636 0.63537
-0.077587 0.0175878 0.361472
0.237023 0.097384 0.522389
0.133708 -0.213727 0.38171
0.236883 -0.056326 0.375647
0.0841951 0.00218627 0.36282
0.177381 -0.171496 0.389364
-0.241879 -0.0347553 0.503161
-0.259817 -0.247912 0.336329
0.251122 0.0375002 0.522414
0.0462732 0.220679 0.0196158
-0.239913 -0.240444 0.358203
0.026084 0.17897 0.526705
0.130579 -0.154422 0.376521
0.173941 -0.112256 0.384181
0.115053 -0.0691238 0.369059
-0.212249 0.173513 0.541773
-0.232806 0.174997 0.483697
0.194025 -0.110768 0.384051
0.202833 0.199323 0.570356
-0.0278139 -0.16331 0.388647
-0.237781 0.132838 0.524371
0.113903 0.256403 0.692779
0.197211 0.251657 0.682599
0.0406017 -0.116754 0.384574
0.133251 -0.178143 0.389945
-0.178499 0.217019 0.635063
-0.106502 -0.214084 0.381741
-0.251501 -0.16697 0.523054
0.223031 -0.180343 0.373922
0.241275 0.0831462 0.526605
-0.132413 -0.201434 0.391983
0.120472 -0.0955517 0.382719
-0.19808 -0.14882 0.376031
-0.258838 0.005702 0.523054
-0.0475972 -0.0600457 0.368264
0.229261 -0.265886 0.402423
0.224065 0.0478301 0.35368
0 0.22993 0.0101546
-0.0836332 0.22543 0.62635
-0.0159301 0.0450857 0.359066
-0.235065 -0.00161996 0.362264
0.127184 -0.137051 0.38635
-0.124709 -0.263343 0.397399
-0.0644043 0.0206089 0.372557
-0.172408 -0.193848 0.379971
0.213253 -0.0158482 0.375746
-0.184221 -0.0566727 0.367969
-0.215955 0.131232 0.386849
0.25947 -0.244908 0.111857
0.25712 -0.131708 0.523054
0.131627 0.245454 0.669295
-0.217467 -0.0356505 0.378582
0.0648998 -0.0211654 0.376212
0.0581237 0.230586 0.664155
-0.0264573 0.0723354 0.356682
-0.0443874 -0.0841232 0.38172
0.0585222 0.212071 0.624454
-0.252128 0.110114 0.523054
0.235685 0.0944755 0.371019
0.236298 0.226399 0.62624
0.118734 0.248792 0.676456
0.167407 0.227431 0.630641
0.259218 -0.0411717 0.0143994
-0.112158 -0.168335 0.389087
0.189525 -0.149264 0.37607
-0.239095 0.0371119 0.517541
-0.250032 -0.0184815 0.000346953
0.176401 -0.251854 0.385046
-0.0983173 0.243769 0.665683
0.0581208 -0.0761506 0.369673
-0.243944 -0.257072 0.225277
-0.236538 0.258164 0.712321
-0.195093 -0.143661 0.37558
-0.238068 -0.244693 0.43759
0.20756 0.233601 0.00334392
-0.237607 -0.247714 0.0999445
0.0206062 -0.00191671 0.363179
-0.132893 0.0248502 0.372186
0.259064 -0.167114 0.0149775
-0.242847 -0.118532 0.00176101
-0.252102 -0.0171301 0.526605
0.253971 0.201316 0.0129861
0.259267 -0.249972 0.416612
-0.260015 -0.204617 0.51028
-0.259813 -0.238339 0.0315089
0.147174 -0.0290083 0.376898
0.0535191 0.221036 0.0199734
0.215174 -0.101271 0.376184
-0.111225 0.238283 0.68066
0.238964 -0.108448 0.523054
0.023653 0.242396 0.662737
-0.181003 0.170497 0.535305
-0.237454 0.0909778 0.511828
0.249081 0.123643 0.500531
0.199234 0.0449451 0.370428
0.233038 0.243597 0.693338
-0.203783 -0.270579 0.389184
-0.235822 -0.0755156 0.381038
-0.0128615 0.16776 0.529436
-0.076296 -0.0930007 0.371148
-0.138061 -0.248563 0.396106
-0.236994 0.155849 0.412814
0.237481 0.0405053 0.511929
0.241011 -0.184136 0.519457
0.259217 -0.243957 0.22808
-0.148008 0.228423 0.0224492
-0.109072 0.0603389 0.369081
-0.182134 0.0412086 0.359406
-0.16034 -0.140311 0.386635
0.0770507 0.06835 0.36838
-0.188096 -0.0549455 0.367818
-0.252225 -0.130507 0.522117
-0.142655 0.251012 0.681216
-0.257332 -0.240205 0.0933244
-0.204526 -0.219596 0.393572
0.189176 0.220099 0.0190354
-0.215203 -0.181495 0.383095
-0.243261 -0.256888 0.369631
-0.237815 -0.248489 0.0660828
0.244939 -0.236771 0.415148
-0.161788 0.193525 0.557921
0.255333 0.180319 0.00843498
-0.03323 -0.116966 0.373244
-0.251996 0.162372 0.0217372
-0.18672 0.232622 0.66852
0.0515161 0.169289 0.532714
0.00683296 0.0390052 0.359598
-0.214818 0.0468601 0.363145
0.174106 -0.254904 0.396661
-0.234217 -0.124268 0.521372
-0.214818 0.230955 0.664204
0.0197773 -0.0149786 0.364322
0.238662 0.19149 0.00295197
0.258793 -0.24561 0.487185
-0.254889 0.194755 0.016132
0.0897203 0.0761078 0.356352
-0.236323 0.217889 0.00155201
-0.20125 0.235238 0.00904932
-0.132257 0.0709612 0.356803
0.230041 -0.102255 0.367312
0.0239783 0.231985 0.667154
-0.19722 0.197794 0.593839
-0.259239 -0.250077 0.33074
-0.240291 0.162411 0.00431636
0.20902 -0.128737 0.385623
0.200778 0.200678 0.573263
-0.143301 0.190578 0.5516
-0.115537 0.231136 0.638587
0.128648 0.0336755 0.371414
0.0393301 0.181788 0.559518
-0.217684 0.212863 0.0141649
0.25119 -0.236408 0.207847
-0.174762 0.17061 0.535547
0.109319 0.254199 0.714789
0.248454 -0.155759 7.79764e-05
-0.110138 0.217018 0.63506
-0.169947 0.197589 0.593398
-0.245665 0.0316604 0.0217857
-0.157795 0.242851 0.663712
0.216616 0.229973 0.629921
-0.242792 -0.0457184 0.502245
0.215812 0.0464928 0.360877
-0.251491 0.00795284 0.522314
0.0477023 -0.161498 0.388489
-0.248811 -0.0993086 0.500459
0.0375413 -0.24198 0.39553
-0.243829 0.170135 0.00132097
0.231775 -0.00363849 0.515299
-0.177856 -0.198341 0.391712
-0.142667 -0.0458624 0.367024
0.0511103 -0.14932 0.376075
0.113133 0.224984 0.000760039
-0.0228963 0.199682 0.597887
-0.186537 0.179945 0.555565
-0.178925 -0.236466 0.383699
-0.110532 0.00823048 0.362291
0.257414 -0.0751656 0.518517
-0.108684 0.170112 0.534479
0.144207 0.0609919 0.369024
-0.259224 -0.0492445 0.514817
0.238893 -0.25249 0.164253
-0.214811 -0.127237 0.385492
0.250157 -0.223891 0.0331739
-0.00449371 -0.185301 0.390571
0.0999732 -0.151825 0.376294
0.243906 -0.254401 0.0488611
0.196149 0.0132202 0.373203
0 0.222168 0.019232
-0.148623 0.205276 0.583124
-0.0913337 0.0308318 0.360314
-0.176826 -0.0566011 0.379312
-0.106757 0.203123 0.578506
-0.0876176 -0.0908535 0.382308
0.0922822 0.0512067 0.358531
-0.241688 -0.205261 0.00444416
-0.164674 0.212526 0.598673
0.211229 0.192955 0.583463
-0.239767 -0.24827 0.058794
-0.0788215 -0.245765 0.395861
0.230933 -0.031085 0.361328
-0.225731 0.15505 0.48464
-0.25076 -0.236292 0.0738764
0.113443 0.187032 0.570762
-0.204298 -0.0290481 0.376901
-0.0312055 0.0703516 0.368205
-0.109165 0.234493 0.00254366
0.122712 -0.037287 0.377622
0.184375 0.213965 0.601759
0.237541 -0.0536335 0.0108915
-0.114424 -0.214597 0.393134
-0.214079 0.263219 0.71134
-0.0404675 0.18007 0.529064
0.2327 -0.150572 0.390731
0.0765673 -0.0608503 0.368335
-0.239112 -0.0145923 0.00549538
0.148739 0.187247 0.571224
0.236385 -0.177539 0.388127
-0.216417 -0.268643 0.386404
0.0169381 0.22651 0.655415
-0.152131 0.238108 0.680284
-0.237274 0.258509 0.70653
-0.0517892 -0.136804 0.386329
-0.105939 0.238833 0.655097
-0.0496064 0.264465 0.710069
-0.052868 -0.140363 0.375291
0.215412 -0.0500773 0.370818
0.130033 0.223176 0.648265
-0.229227 0.208276 0.0202039
-0.148073 0.0257941 0.360754
-0.00604942 -0.0654532 0.368738
-0.245426 -0.00911194 0.526605
-0.243196 -0.1702 0.523054
0.159766 0.237861 0.679755
0.215388 -0.11595 0.380926
0.181022 -0.0919943 0.37106
0.0995565 0.0677505 0.368433
-0.0398244 -0.270328 0.39206
0.250393 0.037284 0.52261
0.0572263 0.262763 0.711552
0.0242509 0.21095 0.595294
-0.0699675 0.237264 0.0172988
-0.14955 -0.249035 0.384799
-0.0197316 -0.21925 0.393542
0.236881 -0.267588 0.389993
0.259544 -0.122685 0.509869
0.227031 0.10382 0.356033
-0.0994986 -0.0284168 0.365497
-0.218412 0.162407 0.512778
0.231571 -0.160768 0.372846
0.216 0.199428 0.568051
0.0237783 -0.0785351 0.381231
-0.144805 0.0491625 0.370059
0.0309115 0.194271 0.586285
0.238522 -0.155412 0.0153613
-0.18566 -0.123391 0.385155
-0.250342 -0.194445 0.522624
0.0190593 0.21653 0.0114124
0.236569 -0.0897475 0.379754
-0.233235 0.0365738 0.373823
-0.24284 -0.0560009 0.526605
-0.229501 0.151506 0.435011
-0.239046 -0.252801 0.424205
0.235263 -0.0124388 0.363408
-0.0128913 0.256889 0.69382
0.218868 0.226586 0.0216733
0.0200195 0.214878 0.630471
-0.13815 0.0643032 0.357385
-0.0344334 0.228221 0.0225034
0.173726 -0.155117 0.387931
-0.0580238 0.226514 0.000349112
-0.258983 -0.251035 0.363004
0.12475 0.219722 0.00395439
0.254018 0.159299 0.501849
0.230511 -0.00297356 0.358754
-0.125367 -0.060194 0.379626
-0.107644 -0.132543 0.385956
-0.204666 0.181003 0.531064
0.0575825 -0.202001 0.392032
-0.0918647 0.18614 0.568849
-0.20445 0.260177 0.700874
-0.0013561 0.197161 0.592481
-0.164955 -0.223066 0.382527
0.129126 -0.0756834 0.369633
0.237538 -0.213073 0.508526
-0.12231 -0.095053 0.382676
-0.235767 0.138831 0.395217
0.25117 -0.257709 0.0967158
0.235876 0.227036 0.651129
-0.0955257 -0.01254 0.375457
0.248461 0.0379368 7.59929e-05
-0.23446 -0.170313 0.518218
-0.0614638 -0.0134953 0.375541
-0.258506 -0.0247366 0.526605
0.24149 0.0591383 0.00311798
0.111442 0.256134 0.692201
-0.0505609 0.201423 0.57486
0.125181 0.054933 0.369554
-0.194673 0.2197 0.61406
0.214818 0.177218 0.53459
-0.237722 -0.243259 0.482468
0.234768 0.223856 0.00477872
-0.0883787 -0.118379 0.384717
0.128489 -0.118333 0.373364
-0.242987 -0.0711162 0.0209918
0.0817199 0.252095 0.68354
-0.0226101 -0.105096 0.383555
-0.210706 -0.0358186 0.377494
0.249383 0.0385766 0.526605
-0.214818 0.208363 0.59136
-0.239365 -0.0332185 0.00524256
-0.0564344 0.205355 0.610052
-0.000965998 0.175639 0.51956
-0.0465556 0.255708 0.691289
0.214818 0.219574 0.619527
0.124547 0.17189 0.538293
-0.24215 -0.238207 0.363818
-0.237134 -0.120117 0.380281
0.125808 -0.123533 0.385168
0.236948 0.0373971 0.363566
0.0290856 0.0276512 0.371941
-0.207643 -0.10337 0.383403
0.144444 -0.239651 0.395326
0.187282 0.244976 0.695011
0.0564824 0.183086 0.535531
-0.057003 0.196231 0.563725
0.184906 0.0426213 0.359282
-0.237503 0.117652 0.0110331
0.029448 -0.213122 0.381657
-0.191759 0.070487 0.368193
0.111373 -0.152581 0.387709
-0.00176342 -0.010011 0.363887
-0.0596415 -0.216015 0.393258
-0.0523033 0.190356 0.577889
0.195052 -0.0227004 0.376346
-0.222478 0.221969 0.602343
-0.242093 -0.255847 0.374003
0.254688 0.102691 0.0207937
0.211851 0.243382 0.664852
0.111965 0.246204 0.670905
-0.240855 -0.248705 0.486313
-0.0287792 0.229167 0.634364
-0.234556 0.116292 0.518374
-0.211858 0.195065 0.561224
-0.0590639 -0.139547 0.386569
0.214984 0.163339 0.457967
-0.238684 -0.242401 0.226332
0.24245 -0.253911 0.392346
0.214818 0.201459 0.575692
0.239615 0.125466 0.526605
-0.101111 0.200153 0.572137
0.220426 0.173459 0.503796
0.145497 0.21701 0.0131998
-0.259534 -0.248971 0.353557
0.165394 -0.264463 0.386149
0.0316968 -0.21586 0.393245
0.091829 -0.0985883 0.371637
0.0678491 0.201675 0.575402
0.0359724 0.194666 0.587132
0.238362 -0.25052 0.339787
0.225448 0.0369191 0.35426
-0.179739 0.168146 0.530264
0.121439 -0.105406 0.372233
-0.199253 0.00822553 0.362291
0.259298 -0.249856 0.370158
-0.00166216 -0.0441363 0.378221
0.258385 -0.241255 0.269786
-0.23764 -0.247836 0.308553
-0.237346 0.227543 0.639493
0.240355 -0.240002 0.102526
0.116569 -0.00451824 0.374755
0.2347 0.0286416 0.37305
0.237882 -0.15676 0.00962717
0.0782934 -0.20207 0.392038
0.0693609 0.0526266 0.369756
-0.212951 0.191193 0.579684
0.166196 -0.255104 0.396678
0.0460998 -0.0609141 0.36834
-0.0969414 -0.247982 0.396055
-0.239227 0.0905715 0.517673
-0.258429 0.148471 0.00554877
0.233305 0.172778 0.464002
-0.0209222 0.197444 0.593087
0.154474 0.181218 0.531525
0.12474 0.25204 0.710158
-0.0577272 -0.0327055 0.365872
0.234557 0.255589 0.682285
0.0331367 0.220911 0.00276556
0.249392 0.142739 0.000174477
-0.241106 -0.0849158 0.019111
0.191473 -0.138623 0.375139
-0.219123 0.240106 0.685634
-0.0672592 -0.046444 0.367074
-0.231915 0.0525999 0.373743
-0.237219 0.166508 0.496254
0.0240188 -0.223252 0.382543
-0.186777 -0.170899 0.377963
-0.160566 0.252881 0.685225
-0.0436954 0.18838 0.546887
-0.19038 -0.175342 0.378352
-0.00412729 -0.0872408 0.370644
-0.239168 0.0449113 0.526605
-0.0516079 -0.107389 0.372407
-0.219201 -0.000968158 0.360197
0.0789994 0.237991 0.0155107
-0.0190967 0.0272368 0.360628
0.185936 -0.164495 0.388751
-0.0280159 0.221914 0.645559
0.221303 0.252442 0.668437
-0.220133 0.224177 0.0222295
-0.217956 0.225274 0.651066
0.244251 -0.108081 0.521847
0.137208 -0.0115967 0.364026
-0.205745 -0.102279 0.371959
0.21643 0.227136 0.651446
0.250459 -0.0175882 0.523054
0.236478 0.205304 0.5995
-0.116668 0.180789 0.557375
-0.214818 -0.181638 0.379154
-0.234648 0.174517 0.499225
-0.0178272 0.247185 0.673007
0.123306 -0.111254 0.384093
0.0702923 0.0587153 0.369223
0.134188 -0.190318 0.379662
0.0466931 0.170316 0.52161
-0.217543 0.212453 0.622593
0.114261 -0.151668 0.376281
-0.0582629 0.000743806 0.374295
-0.241126 -0.254881 0.295366
0.230958 0.255679 0.675389
-0.103138 0.00253084 0.36279
0.259496 -0.169616 0.513797
0.243047 -0.145799 0.0210521
-0.237779 9.7841e-05 0.0100093
0.115016 0.242419 0.689528
-0.188012 -0.0673963 0.368908
0.0489078 -0.0392029 0.37779
-0.238114 -0.249599 0.251803
-0.147193 0.215122 0.604241
0.0168214 -0.00707382 0.374979
-0.132294 0.197321 0.592824
-0.237504 -0.200072 0.511334
-0.235331 -0.0101098 0.375807
0.236717 0.095075 0.367971
-0.0449902 0.216452 0.607093
0.10357 -0.193484 0.391287
-0.23371 -0.22279 0.396038
0.215264 -0.0611068 0.372335
0.230773 -0.270167 0.399611
0.216852 0.0986832 0.372032
-0.255571 -0.238448 0.343391
0.248217 -0.235891 0.124354
-0.259368 -0.244523 0.0605919
-0.0808142 0.221722 0.645147
-0.257466 -0.240338 0.277889
0.108927 -0.0321071 0.377169
0.186828 0.209501 0.592187
-0.214818 -0.153315 0.383951
-0.0351329 0.259962 0.712858
0.0543208 -0.200626 0.380564
0.106594 -0.218893 0.382162
-0.057899 0.175458 0.545943
0.238597 -0.188782 0.00697174
-0.0865758 0.253655 0.686884
0.0122267 -0.114821 0.373057
-0.198935 -0.114648 0.38439
-0.122752 0.217852 0.63685
0.044966 -0.0226741 0.376344
-0.235922 0.159839 0.475783
-0.255562 -0.255425 0.46518
0.238714 -0.0398065 0.516516
0.223437 0.0712732 0.373045
-0.19187 0.178606 0.525923
-0.257444 -0.253795 0.206766
0.119349 0.210013 0.62004
-0.0537299 0.0553025 0.369522
-0.0388486 -0.187057 0.379377
0.107945 -0.151922 0.387651
-0.161955 0.229511 0.635102
0.198076 0.0770615 0.367216
-0.0742366 0.213211 0.626898
-0.225877 0.0956065 0.354413
-0.20086 0.22042 0.642356
-0.234701 -0.167899 0.518609
-0.256083 -0.228398 0.0338198
-0.150703 -0.0438336 0.378195
-0.215338 0.132327 0.37999
-0.0758949 0.232676 0.668636
0.242384 0.0614789 0.00222384
0.118123 0.2197 0.00397612
0.0141527 -0.270421 0.390996
0.238774 -0.208095 0.504469
-0.101277 -0.252939 0.385141
0.240357 -0.254112 0.0817207
-0.169403 -0.0152393 0.375693
-0.0668642 0.196374 0.564032
0.0400506 0.229945 0.636033
-0.215526 -0.236215 0.386679
0.0224971 0.189205 0.575421
-0.186128 -0.106401 0.37232
0.116771 0.221722 0.618396
-0.15746 -0.0112585 0.375345
0.215983 -0.112766 0.38287
-0.0474967 -0.16993 0.389227
0.247755 0.125209 0.000265738
0.0400066 -0.189975 0.39098
-0.255741 -0.235183 0.477069
-0.157109 0.229275 0.000392994
0.200091 -0.261968 0.385931
0.237436 -0.244306 0.47461
0.249919 0.0307039 0.522738
0.19568 -0.13038 0.374418
0.00811076 -0.168902 0.389137
-0.214818 0.2572 0.69508
-0.194638 0.22869 0.633341
-0.185578 0.215872 0.632603
0.194115 -0.232487 0.383351
0.0775405 -0.00728422 0.363648
0.180012 0.217226 0.00860573
0.227806 -0.218472 0.398667
0.232724 -0.119005 0.370196
-0.257234 -0.185389 0.518696
0.0713243 -0.269674 0.386605
-0.258572 -0.241539 0.189805
-0.116541 0.0120353 0.361958
0.228228 -0.193854 0.396399
-0.19441 0.0671112 0.368489
0.224939 0.127021 0.391836
0.259198 0.0230466 0.508572
-0.212676 -0.00354314 0.37467
-0.238044 0.154844 0.509466
-0.257184 -0.0937632 0.526605
0.250836 0.125937 0.0220496
0.0662789 -0.140974 0.386693
0.211117 0.0686858 0.368351
-0.238325 0.114917 0.00798217
-0.23474 0.190306 0.575046
-0.0786903 -0.2467 0.384595
-0.25513 0.0401125 0.520794
-0.204006 -0.0572208 0.379366
0.195497 0.19493 0.560935
0.0467811 0.242703 0.690137
-0.105409 0.174042 0.542907
0.0451657 0.258193 0.713682
0.0680167 0.174687 0.54429
0.123886 0.221749 0.618454
-0.175211 0.181746 0.559427
-0.00752571 -0.140887 0.386686
-0.259661 -0.100694 0.513177
-0.240338 0.174118 0.0183436
-0.256433 0.180319 0.512158
-0.23834 0.0703137 0.515125
-0.0413356 -0.0582052 0.379452
0.248732 0.0476281 3.10356e-06
-0.0155991 0.21445 0.629555
-0.137848 -0.17154 0.378019
-0.0354451 0.0305623 0.371686
-0.064251 -0.227543 0.382919
-0.210255 -0.0907629 0.370952
0.236026 0.224968 0.620751
-0.0109263 0.182919 0.535174
-0.0732625 -0.0600454 0.379613
0.254581 0.131876 0.00171256
-0.0478372 0.170525 0.535366
0.199012 0.014141 0.361774
0.259449 0.0621552 0.00907373
-0.242907 -0.23745 0.0912159
-0.101162 -0.0518927 0.367551
0.0693569 -0.0320715 0.365817
0.253459 -0.0970641 0.00126974
0.179202 0.230837 0.664693
0.230661 0.17052 0.521024
0.0989143 0.211745 0.596998
0.251416 -0.0568132 0.0218936
0.244986 0.213224 0.00447571
-0.25854 0.106798 0.506109
-0.187914 -0.176602 0.378462
0.247454 -0.164692 0.0222665
0.2493 -0.258212 0.300749
-0.127893 -0.122909 0.385113
-0.0107479 -0.00378853 0.363342
0.189742 0.225585 0.65343
0.183637 0.250471 0.706795
-0.258512 -0.252731 0.182047
0.115758 0.2236 0.622425
0.0370634 -0.141965 0.375432
-0.251789 -0.0161313 0.523054
-0.245688 -0.23657 0.255108
-0.251897 -0.0454381 0.526605
0.186159 0.231519 0.639408
0.106959 -0.225194 0.394062
-0.138273 -0.209083 0.392652
0.199762 -0.101216 0.371866
0.116933 -0.000863224 0.374435
-0.219044 0.125962 0.366549
-0.119832 -0.225899 0.382775
0.201254 0.22619 0.0221774
-0.215958 0.0832346 0.359096
0.202286 -0.109107 0.383905
0.259627 -0.248625 0.272451
-0.233539 0.197111 0.0135668
-0.152015 0.219749 0.0186858
-0.226562 -0.195864 0.397023
-0.184225 -0.101932 0.383278
-0.0546475 -0.0116485 0.375379
-0.0580626 -0.2509 0.39631
0.174081 0.249237 0.67741
0.144248 0.248027 0.701553
0.259728 -0.245876 0.20335
0.0834632 0.0748873 0.356459
-0.24143 -0.209751 0.500882
-0.0840148 0.232196 0.00117784
0.179386 0.00190043 0.374194
-0.237933 -0.245195 0.209659
0.23522 0.0844327 0.3697
0.0369031 -0.250648 0.38494
0.172468 0.231372 0.000956553
0.187846 0.224688 0.651508
0.00579843 0.22553 0.000613492
-0.238013 -0.0446149 0.513908
-0.191661 0.173545 0.520104
-0.123948 0.041464 0.370732
-0.177342 0.1933 0.557439
-0.244396 0.131187 0.523054
0.0502576 0.199375 0.570467
-0.249126 0.0733306 0.0225102
-0.199886 0.215322 0.60467
-0.16999 0.188037 0.54615
0.213309 0.254566 0.715372
-0.140721 0.198487 0.595324
0.152929 -0.171496 0.389364
0.244992 -0.15791 0.523054
0.259246 -0.198026 0.508754
-0.250962 -0.068516 0.000597308
0.101113 -0.0853919 0.370482
-0.156894 0.235501 0.64795
-0.245713 -0.0748156 0.0217985
-0.189308 -0.112739 0.384223
0.0457104 -0.0072996 0.36365
-0.185944 0.169535 0.521974
0.220187 -0.193881 0.376086
0.156062 0.200549 0.572985
-0.14047 0.0197693 0.361281
-0.193903 0.226686 0.655792
-0.135755 -0.102595 0.371987
0.241888 0.167486 0.0198932
-0.104573 0.235681 0.67508
-0.162497 -0.203799 0.380841
0.14008 -0.0493791 0.37868
0.131062 0.180135 0.529203
0.015838 0.173848 0.519962
0.257458 0.00803596 0.518473
-0.235989 0.199285 0.565344
0.133916 0.242153 0.688959
-0.123 -0.0744433 0.369524
-0.170571 0.187995 0.54606
0.0499351 0.234069 0.00211966
-0.146636 0.215707 0.605495
-0.0638505 0.238615 0.00943708
0.22322 0.191206 0.585713
0.099475 -0.265453 0.397584
-0.122499 0.181075 0.557987
-0.239438 -0.234574 0.485737
0.216656 0.0176648 0.373103
-0.252042 0.0298663 0.0217248
0.254913 -0.252269 0.043673
0.0878679 -0.238826 0.395254
0.219688 -0.124661 0.388601
0.0692036 -0.0414599 0.377987
-0.118824 0.0272618 0.360626
0.240917 -0.0212521 0.504126
0.243996 -0.0730472 0.00127596
-0.251838 -0.217922 0.496352
0.256009 0.00818035 0.519918
-0.0630064 -0.168161 0.377723
0.256257 0.172007 0.503817
0.0484861 -0.152792 0.387727
0.0689116 -0.0932991 0.371174
-0.0363394 0.195318 0.561768
0.176455 -0.0786642 0.369893
0.217165 0.248551 0.699109
0.202161 0.0588515 0.357862
0.236807 0.194307 0.0185647
-0.247677 0.212284 0.0165812
0.147447 -0.0834829 0.370315
0.21618 -0.162666 0.387969
0.238692 0.0241303 0.50706
0.0938149 0.249194 0.677317
0.0799858 0.197338 0.5661
0.058702 0.177188 0.549653
0.207345 -0.0546358 0.37914
0.259284 -0.107215 0.00845515
-0.135576 -0.16804 0.377713
0.11236 0.221791 0.618545
0.122465 0.22162 0.644929
-0.259155 0.0814909 0.0146355
-0.0942069 0.242622 0.689963
0.123614 -0.0394898 0.377815
0.256677 -0.239551 0.250714
-0.0204301 0.25588 0.714759
-0.164454 0.0165194 0.372915
0.241451 -0.100596 0.0194567
-0.0632277 0.181885 0.559725
0.228721 0.186508 0.575834
0.104358 0.22474 0.62487
-0.158158 0.264322 0.709764
-0.183201 0.238693 0.00972881
0.214818 0.223398 0.639053
0.11262 0.0583903 0.357902
-0.246496 -0.0665304 0.0220091
-0.240177 -0.0414895 0.504867
-0.0312051 0.24786 0.701195
-0.069653 0.0292534 0.360452
-0.0144444 0.199551 0.597605
-0.234089 0.169395 0.434267
0.236351 0.260958 0.700814
0.170935 0.0363101 0.359834
-0.255739 -0.0199221 0.520186
-0.234453 0.158802 0.480738
0.214818 0.194089 0.563248
0.183851 -0.0596833 0.368233
0.154291 -0.202326 0.392061
0.085902 -0.0502322 0.367406
-0.237258 0.166558 0.480258
-0.208618 0.195232 0.588345
-0.217447 0.234355 0.00973028
0.018826 -0.0930641 0.382502
0.242761 -0.219124 0.496644
-0.243226 -0.113537 0.521571
-0.0330285 -0.175644 0.378378
-0.134954 -0.251369 0.396351
-0.0588759 0.182191 0.560381
0.0678565 -0.263927 0.386102
-0.242905 0.112841 0.502132
-0.249133 -0.141907 0.500545
0.0320958 -0.167826 0.389043
0.2361 0.0599094 0.520887
-0.0185457 0.0106437 0.373429
0.132375 0.220243 0.615225
0.101828 0.200587 0.599828
0.242364 -0.0558776 0.502674
-0.12595 -0.251087 0.396327
0.248941 0.0825377 0.523054
0.252208 0.162817 0.501366
-0.138432 -0.176698 0.37847
-0.222704 -0.0375637 0.38237
-0.232132 0.099837 0.375442
-0.244192 -0.219868 0.0280046
-0.155375 -0.225248 0.394066
0.136725 -0.253203 0.385164
-0.00924887 -0.0366085 0.377563
0.236322 -0.12749 0.375633
0.0608163 -0.0435027 0.366817
0.143706 -0.076857 0.381084
0.236081 -0.0693614 0.36964
0.236572 -0.0506211 0.369848
0.237832 0.0341726 0.513234
0.19308 0.255023 0.689819
-0.0563347 0.0765129 0.360939
0.105992 0.221514 0.617952
-0.00445455 -0.149366 0.387428
-0.0335754 0.0402813 0.359487
0.234417 0.0302936 0.521698
0.259615 -0.22805 0.0202019
-0.228885 -0.117626 0.368343
0.085613 0.171449 0.521082
-0.242105 -0.0279258 0.00250271
0.214966 0.214329 0.00569494
-0.25514 -0.10055 0.00226996
-0.259776 -0.248067 0.445442
0.158847 0.230705 0.637664
-0.0178231 0.252223 0.710552
-0.028916 -0.258245 0.385605
-0.202326 0.170269 0.534817
-0.254013 -0.256943 0.326636
-0.229564 0.261384 0.686741
0.246167 -0.236442 0.235181
-0.240244 -0.0462982 0.523054
0.187679 0.198203 0.567955
0.211769 -0.173108 0.389505
0.0382741 -0.153587 0.376448
-0.178691 -0.0133144 0.375525
-0.209025 0.211923 0.624135
0.213545 0.00456709 0.362611
0.257479 0.0462354 0.0180118
0.0209626 0.198777 0.569184
0.0610414 -0.188441 0.379498
0.246186 0.0561104 0.522367
0.0768922 0.1667 0.527165
-0.252462 -0.0491605 0.0216118
-0.0267319 0.200526 0.599698
0.204098 -0.0819209 0.381527
0.259227 -0.250122 0.299781
-0.228621 0.20338 0.0140524
-0.0174006 -0.169707 0.389207
0.093378 -0.0126293 0.364116
0.249212 -0.189281 0.522928
-0.160476 0.193068 0.583704
0.0693708 0.0756039 0.367746
-0.180113 -0.0262242 0.365305
-0.235216 0.0338178 0.522998
-0.251713 0.0945719 0.501234
-0.189329 -0.0109949 0.363973
0.241857 -0.0357086 0.503182
0.188976 -0.0309923 0.365723
-0.153412 -0.122869 0.385109
0.017912 0.00682688 0.362414
-0.084616 0.00979012 0.373503
-0.107933 0.20852 0.590081
0.194491 0.233905 0.644527
0.0789178 0.191311 0.579938
-0.180392 -0.183253 0.390392
0.116261 -0.270175 0.393812
0.23704 0.0676777 0.364205
-0.251281 -0.247062 0.496149
-0.00371833 -0.226771 0.382851
0.0692181 -0.186845 0.390706
0.249023 -0.110884 0.0225378
-0.0559586 0.225557 0.000606285
0.235161 -0.14906 0.375259
-0.252738 -0.237802 0.392346
0.16291 -0.150269 0.376158
-0.110391 -0.229109 0.383056
-0.0658292 -0.0158936 0.364402
-0.115433 0.0456731 0.359015
-0.25219 -0.249552 0.392346
0.167075 0.256716 0.693451
0.0512829 0.193562 0.584764
0.153783 -0.0483326 0.36724
0.192379 -0.156619 0.388062
-0.121246 0.0752515 0.356427
