0.100233 0.0892755 0.34359
-0.0127923 0.151844 0.34359
-0.045252 0.2599 0.500443
0.108897 -0.150483 0.34359
-0.201575 0.0897827 0.0170624
-0.0128768 0.270472 0.560405
-0.168797 -0.0971876 0.348532
0.214354 0.221136 0.353162
0.00193042 -0.156843 0.348532
-0.221567 -0.175738 0.420215
0.0550771 0.27285 0.573894
-0.158766 0.0430214 0.348532
-0.0553947 -0.0179866 0.348532
0.15183 0.122489 0.34359
-0.110198 0.274273 0.581966
0.11665 0.189052 0.34359
-0.216043 0.182063 0.0153193
-0.0995885 0.262807 0.516935
-0.203739 0.228343 0.353367
0.0539385 0.237986 0.00839528
-0.200623 0.263321 0.370454
0.0481283 0.268085 0.546869
-0.03529 -0.133062 0.348532
-0.198557 -0.216335 0.331249
0.165145 0.273647 0.578416
-0.0273377 0.272 0.569073
-0.19982 0.00264931 0.0153079
-0.198271 -0.147442 0.00900212
-0.159204 0.035258 0.34359
0.0610884 0.256217 0.00554695
-0.200758 -0.209123 0.34149
0.198639 -0.252242 0.325852
-0.137382 0.256785 0.0121407
0.141046 0.0974445 0.348532
-0.149899 0.228343 0.348329
0.0874381 -0.0796193 0.34359
-0.174819 0.00466762 0.34359
-0.191424 -0.0128555 0.34359
0.139947 0.047286 0.34359
-0.209522 -0.275485 0.068424
-0.0196013 0.263471 0.520698
-0.209707 -0.306883 0.253205
0.129787 0.273783 0.550694
-0.0980416 0.0440679 0.34359
0.234167 0.224473 0.501179
-0.2216 0.13864 0.486702
0.0450586 0.120076 0.348532
0.00144686 -0.131158 0.348532
0.21624 0.143283 0.340839
0.110111 -0.029495 0.348532
-0.213362 0.263367 0.453072
-0.00752741 0.205534 0.34359
-0.202918 -0.238566 0.0201964
0.157989 0.264699 0.499167
0.213479 0.0527106 0.00192886
-0.0144149 0.125003 0.34359
-0.198211 -0.207965 0.0211791
-0.133932 0.271394 0.565635
0.0634228 0.268745 0.522117
-0.198322 -0.262197 0.0436766
0.212123 0.260238 0.36948
0.2103 0.0413726 0.33679
0.19803 -0.0951856 0.347689
0.124134 0.212166 0.34359
0.229493 0.0257405 0.503522
-0.14354 0.00937589 0.34359
-0.200484 -0.32554 0.114569
0.201419 -0.310552 0.274981
0.208537 0.238513 0.35912
-0.12444 -0.0513534 0.34359
0.135431 0.271795 0.539421
-0.0863116 0.261826 0.511371
-0.00620331 0.00489718 0.34359
-0.0653731 0.32747 0.48771
0.0838757 -0.140788 0.348532
-0.0248395 0.273176 0.575745
-0.0244425 -0.153536 0.348532
-0.198148 -0.175802 0.344505
0.0108976 0.255907 0.477173
-0.207866 0.133984 0.355944
0.0101328 -0.0841712 0.34359
0.168189 -0.00231841 0.34359
0.152201 0.0291705 0.34359
0.156586 0.0750408 0.348532
0.216857 -0.118664 0.0135615
0.0781894 -0.117659 0.348532
0.00943182 0.280302 0.593199
0.173055 0.198463 0.348532
-0.135993 0.101387 0.348532
-0.228507 0.0489568 0.503788
-0.222565 -0.106002 0.502439
-0.0259521 0.253126 0.0177808
-0.199127 0.182646 0.341983
0.216878 -0.243702 0.322292
-0.217159 0.221539 0.34353
-0.0776166 -0.0279641 0.348532
0.0743696 0.271689 0.538819
-0.225589 -0.103093 0.484764
0.174961 0.0981977 0.348532
-0.0315459 0.273591 0.549605
-0.146182 0.275279 0.559181
0.0422537 -0.148554 0.348532
-0.176859 0.103016 0.348532
-0.0234751 0.139453 0.348532
-0.118783 0.13446 0.348532
-0.0666213 0.261943 0.483539
-0.213723 -0.286124 0.055556
0.0878381 0.343981 0.492067
-0.136186 0.103013 0.34359
-0.199349 -0.108104 0.00500342
-0.217619 -0.319425 0.244594
0.17934 -0.0734071 0.348532
-0.0390301 0.0723217 0.34359
-0.00588655 -0.103998 0.348532
0.171922 -0.153587 0.34359
-0.128691 0.267816 0.516849
-0.0360548 0.0889875 0.34359
-0.198521 0.271591 0.542003
-0.213843 -0.221026 0.324341
0.0608318 -0.0212207 0.34359
-0.235288 -0.162412 0.433205
0.185822 0.340057 0.502176
-0.0306224 0.325988 0.489342
-0.0229824 -0.117182 0.348532
-0.126761 0.245548 0.0192826
-0.190143 0.266574 0.509804
-0.0871575 -0.00483362 0.348532
0.202855 0.186194 0.354502
0.198525 -0.263622 0.314855
0.0673281 0.0771022 0.348532
-0.1668 0.328906 0.486269
0.00393094 0.159805 0.348532
-0.216969 -0.262372 0.046801
0.142716 0.266043 0.506792
-0.194814 0.261263 0.508178
-0.201494 0.088537 0.0169817
-0.217791 -0.248575 0.031551
-0.00627644 0.0495235 0.348532
0.236214 0.0353589 0.489052
-0.168998 -0.0176413 0.34359
-0.19946 0.254168 0.38337
-0.208061 -0.305243 0.284197
-0.0939576 -0.018048 0.34359
-0.0832159 0.265018 0.500981
-0.0118087 0.255922 0.477886
-0.157374 -0.0106551 0.348532
-0.211752 0.162677 0.354935
-0.00481398 0.0358725 0.34359
0.217078 -0.119902 0.00706444
-0.098355 0.189517 0.34359
-0.098376 0.27654 0.566336
0.13228 0.250674 0.000858599
0.0591744 0.271215 0.53613
0.217517 -0.0562238 0.344867
0.19803 0.044531 0.348221
0.186933 0.0969176 0.34359
0.0334644 0.0360544 0.34359
-0.20259 -0.179549 0.00471674
-0.211613 0.269571 0.390311
-0.19873 0.1117 0.00729924
0.0991651 0.332376 0.503392
-0.0247328 0.0574979 0.34359
0.0344212 0.340909 0.486853
0.12555 0.131929 0.348532
-0.202304 -0.0950224 0.338162
0.0182284 -0.164814 0.348532
0.051175 0.00840311 0.348532
-0.216863 0.164931 0.00625998
-0.200651 0.196537 0.33982
0.0483147 0.250005 0.0191249
-0.0680185 0.214199 0.348532
0.0932328 0.0293116 0.348532
-0.0703149 -0.126593 0.348532
-0.210061 0.143321 0.000572275
0.101551 0.241275 0.00259183
-0.0602125 0.341675 0.609158
0.198081 -0.319166 0.241833
0.00523993 0.260198 0.502136
0.167694 0.0379842 0.348532
-0.00546467 0.0611252 0.34359
-0.0129546 -0.0861709 0.348532
-0.00123994 0.33035 0.502847
-0.0493501 0.165433 0.348532
-0.21515 0.11803 0.0162092
0.160879 -0.14233 0.348532
-0.0412149 -0.154699 0.34359
-0.0436923 0.269006 0.552094
0.120524 0.262085 0.484341
0.21692 -0.101541 0.342634
-0.11859 0.245531 0.000525573
0.150394 0.211812 0.34359
-0.198429 -0.0229173 0.34754
-0.0857645 0.199409 0.34359
0.139144 0.26809 0.518403
0.192427 -0.0378364 0.34359
-0.21754 -0.337487 0.177688
0.0432982 0.266279 0.536624
-0.141478 -0.122127 0.34359
-0.147938 0.068729 0.34359
0.198152 -0.233036 0.0276799
-0.237186 -0.166701 0.402608
0.234137 -0.12637 0.486968
-0.213675 -0.22178 0.0319873
0.152277 0.27207 0.540977
-0.196802 0.198969 0.34359
0.198031 -0.243883 0.325832
-0.237039 0.24926 0.496334
-0.0823361 0.0278491 0.34359
0.217744 0.155908 0.0102329
0.0789186 0.00166512 0.348532
0.154096 0.270381 0.531398
0.218139 0.199159 0.492953
-0.198664 -0.119775 0.00754481
-0.0825463 0.253159 0.0177472
0.208479 0.24687 0.34137
-0.216554 0.219546 0.350859
-0.16565 0.219069 0.348532
-0.0692924 0.223967 0.348532
0.199647 0.128762 0.00466836
0.0911559 -0.104396 0.34359
-0.036274 0.226151 0.34359
-0.166669 -0.158829 0.348532
0.0306548 0.0299232 0.34359
0.0640982 0.0994654 0.348532
0.0288532 0.273396 0.5485
-0.205703 0.0587852 0.00060103
-0.0496988 0.327791 0.50079
-0.198317 -0.0751006 0.347123
-0.200882 -0.328843 0.1737
0.198161 -0.106984 0.0103841
-0.138613 0.334717 0.626895
-0.179602 0.13412 0.34359
-0.213111 0.0311743 0.354401
-0.146114 0.262586 0.487181
-0.236197 -0.126986 0.499149
0.175909 -0.0239185 0.348532
-0.204229 0.111941 0.337148
-0.209204 0.154186 0.000341281
0.010557 0.267321 0.542535
-0.165368 0.132466 0.348532
0.0675853 0.0620348 0.34359
0.19803 0.103226 0.346121
0.0793766 -0.0715957 0.348532
-0.0396709 0.177951 0.34359
0.0482038 -0.149047 0.348532
-0.217257 0.0622022 0.348221
0.198582 0.191214 0.348109
0.0142989 0.0106939 0.34359
0.00152257 0.255828 0.0150789
0.198515 0.0549166 0.0116983
0.00592229 0.0601099 0.348532
-0.186373 -0.0916922 0.34359
0.122718 0.240204 0.0036589
-0.0551031 -0.0665053 0.34359
-0.0501841 0.105267 0.34359
-0.0574509 0.0201927 0.348532
-0.00467253 -0.168383 0.343886
-0.0342601 0.278152 0.575478
0.0686911 -0.0532215 0.34359
0.178893 0.335821 0.610842
-0.0958429 0.0174746 0.34359
0.123175 0.175603 0.348532
0.0770877 0.339591 0.626525
-0.219352 -0.163244 0.372294
0.0612492 -0.0149916 0.348532
-0.217815 0.0211978 0.346125
-0.206746 0.120886 0.355643
0.0394209 0.0636401 0.348532
0.217356 -0.166397 0.347851
-0.157171 0.340264 0.608581
-0.19803 0.14003 0.346034
0.205748 0.214836 0.336743
0.162114 0.275079 0.586538
-0.234323 -0.169985 0.465041
-0.155498 0.0403497 0.348532
0.190102 0.158229 0.348532
0.20087 0.135087 0.0163578
-0.0640458 0.26853 0.54939
0.0887461 0.10059 0.348532
-0.204885 0.331125 0.611277
-0.177987 0.0857286 0.34359
0.171218 0.134783 0.348532
0.205285 -0.260598 0.327926
-0.165386 0.198458 0.34359
0.00105755 0.0437678 0.34359
0.00879622 0.269592 0.555419
0.21083 0.192487 0.000779472
0.163497 0.0531201 0.348532
0.209927 0.185809 0.336691
-0.0507479 0.27168 0.567261
-0.144585 0.23793 0.00860593
-0.0126971 0.257341 0.485929
-0.198178 -0.333057 0.167311
0.0979405 0.27022 0.558975
-0.147477 0.252788 0.0181192
-0.0463939 0.0163966 0.348532
0.0887447 0.0956889 0.34359
0.212429 -0.168383 0.348927
0.129057 0.0897123 0.348532
-0.193755 -0.0710721 0.348532
-0.117657 0.267405 0.514518
-0.0159368 0.277108 0.569555
0.214182 0.265923 0.462861
-0.161501 0.223223 0.34359
0.0744331 0.327326 0.620332
0.118491 0.041801 0.34359
0.0374986 0.188284 0.34359
0.164777 -0.0630807 0.348532
-0.0962597 0.0471039 0.34359
-0.201168 0.0183952 0.00314791
-0.0883846 0.271465 0.537548
-0.00916906 0.331187 0.609211
0.198658 0.169483 0.0122305
0.0375824 0.178861 0.34359
-0.0416153 0.276517 0.566206
-0.228392 -0.178106 0.354801
0.202957 0.0536255 0.0184444
-0.0516156 0.339399 0.626576
0.127177 0.261451 0.509245
0.235247 0.0511974 0.488082
-0.206516 -0.0413466 0.336538
-0.145451 0.210928 0.34359
-0.0946936 -0.061229 0.34359
0.201054 -0.251233 0.0254568
-0.23544 -0.162564 0.457541
0.145029 0.273455 0.577324
0.116218 -0.0809742 0.34359
0.216739 0.252779 0.370487
-0.218925 0.207293 0.490039
-0.163487 0.151739 0.34359
0.0428664 -0.0359733 0.34359
-0.204979 0.1759 0.019008
0.0805943 0.208904 0.34359
-0.081742 0.274379 0.582564
-0.089313 0.00765058 0.34359
-0.164172 -0.0509335 0.348532
-0.234906 -0.0709968 0.487737
-0.149743 -0.149278 0.34359
0.200465 0.296531 0.620937
0.197718 0.333376 0.50366
0.213117 0.0472183 0.0182354
-0.138307 -0.0983933 0.34359
0.219236 0.3295 0.503048
0.113975 0.344345 0.494754
0.172117 0.015863 0.34359
0.148944 0.0223534 0.34359
0.232416 -0.176567 0.46677
0.0160944 -0.0574508 0.348532
0.00314599 0.0997248 0.348532
0.0482271 -0.0270134 0.34359
0.233058 0.205242 0.502288
-0.0467271 0.184561 0.348532
0.18209 0.142677 0.34359
0.230294 0.0479826 0.503306
-0.124616 0.0507443 0.34359
0.0661855 0.275315 0.559384
-0.00858179 0.0550993 0.348532
-0.123259 0.0320352 0.34359
-0.00274408 0.266912 0.511722
0.230586 -0.103029 0.48495
-0.212584 -0.0862142 0.354711
0.00842166 -0.108749 0.34359
-0.0116239 0.103514 0.348532
-0.211921 0.253006 0.398591
0.157987 0.254628 0.00352458
-0.00863762 0.0211592 0.348532
-0.00471652 -0.00462322 0.34359
0.0669067 -0.111382 0.348532
0.163976 0.180507 0.34359
-0.0939141 -0.100788 0.34359
0.0502181 -0.165056 0.348532
-0.220312 0.102805 0.487994
-0.0015244 0.275057 0.557924
0.172892 0.073067 0.348532
0.00924796 -0.0324277 0.34359
0.00573133 0.242666 0.00129771
-0.00793222 -0.154373 0.348532
0.0385764 0.191053 0.34359
0.0396178 0.0193039 0.34359
-0.0532071 0.043806 0.34359
-0.0976274 -0.00840011 0.348532
0.0194984 -0.129539 0.34359
-0.0671234 0.254601 0.00349774
-0.0760577 0.209476 0.348532
0.0126212 0.078014 0.348532
-0.202934 0.268983 0.38923
-0.21107 0.327228 0.620761
0.217377 -0.199561 0.339416
-0.148131 0.115348 0.348532
-0.135889 0.0509419 0.348532
0.192224 -0.160822 0.348532
-0.0150696 -0.110217 0.34359
-0.234681 0.194973 0.500668
0.058121 -0.0156802 0.34359
-0.214986 -0.0847588 0.352532
0.141259 0.256148 0.479164
0.207758 -0.173876 0.0212271
-0.0249229 0.266236 0.536383
0.212535 -0.0787491 0.00123899
0.0554411 0.253373 0.00226968
-0.19144 0.0961846 0.34359
-0.000258163 0.0860682 0.34359
-0.11277 -0.0395555 0.348532
0.134747 0.0791729 0.348532
0.128409 -0.123564 0.348532
-0.0335167 0.0861412 0.34359
0.172179 0.280568 0.593153
0.199187 0.172135 0.0141985
-0.216389 0.137886 0.351133
0.223084 -0.0219298 0.502742
-0.236555 0.177176 0.498141
-0.134289 -0.0243335 0.34359
0.0788437 0.257051 0.00864227
0.0558099 -0.0537638 0.34359
0.145282 0.192764 0.34359
0.102672 -0.119917 0.348532
0.017155 0.262596 0.487239
-0.141885 -0.00846131 0.348532
0.199352 0.269402 0.469015
-0.00399414 -0.115578 0.348532
-0.217691 -0.196996 0.337856
-0.08435 0.271646 0.538576
-0.134813 0.255798 0.00469499
0.206452 -0.199665 0.0277862
-0.213508 -0.15674 0.338108
-0.211396 -0.135814 0.355031
-0.219477 0.043022 0.488832
-0.225987 0.23713 0.503522
0.179889 -0.131249 0.348532
0.201409 0.130962 0.353056
-0.183377 -0.0340864 0.34359
0.0261089 0.339561 0.608392
0.2177 0.218389 0.0103989
-0.0289354 -0.0070411 0.34359
-0.210576 -0.323 0.162056
-0.120728 0.262214 0.485073
0.170157 0.172545 0.34359
0.212698 -0.12921 0.00128289
0.137412 0.271432 0.537358
-0.0395951 0.0146013 0.348532
-0.199676 0.327055 0.500317
0.202978 0.0150747 0.337486
0.219334 0.0444063 0.488975
0.202769 -0.147832 0.354416
-0.0479294 0.0766388 0.34359
-0.0321113 0.209406 0.348532
0.0659072 0.206538 0.34359
0.00714163 0.106288 0.34359
0.0033322 0.243069 0.0186145
-0.0261718 -0.0937122 0.348532
0.20101 0.30764 0.610804
0.198335 -0.261886 0.312529
-0.0706218 -0.0975102 0.348532
-0.168433 -0.026268 0.348532
0.199599 0.306951 0.612163
0.0234702 0.265777 0.505281
-0.0637861 0.183278 0.348532
-0.00636971 0.00226364 0.34359
-0.00180228 0.277034 0.569135
0.0907262 0.112002 0.348532
-0.150688 0.181788 0.34359
0.126199 -0.119712 0.348532
-0.202714 -0.320222 0.148363
0.200433 -0.324008 0.201982
0.0207393 0.00494778 0.348532
-0.115494 0.238667 0.0139551
0.0461451 0.271239 0.536263
0.128397 0.186878 0.348532
-0.125264 0.104367 0.348532
0.0746197 0.34302 0.488971
-0.143281 0.266635 0.538645
0.139069 0.266855 0.539892
0.19874 -0.0531619 0.343419
-0.198349 0.125884 0.344871
-0.161612 0.0160751 0.34359
-0.0402787 -0.0382753 0.348532
0.110782 0.149119 0.348532
-0.168294 -0.0519677 0.34359
0.141722 0.11548 0.348532
-0.120984 0.192144 0.34359
-0.105149 0.203227 0.348532
-0.0575125 0.27108 0.535362
-0.0568895 0.202167 0.348532
0.195848 -0.0465432 0.348532
-0.192131 0.017648 0.34359
-0.168136 -0.121279 0.34359
-0.0822178 0.224294 0.34359
0.0926891 0.187547 0.348532
0.213826 0.228343 0.347758
-0.124946 0.136049 0.34359
0.156186 0.257446 0.4769
0.218091 0.156967 0.495041
-0.163237 -0.118685 0.348532
-0.142965 -0.108968 0.348532
-0.190672 0.26177 0.511051
0.215689 0.315048 0.495543
-0.212158 -0.271101 0.316844
-0.235083 0.0376407 0.487913
-0.22144 0.0250973 0.501314
-0.103419 -0.0395961 0.348532
-0.199372 0.228343 0.34885
0.000518441 -0.135963 0.34359
-0.0159796 0.324961 0.493189
-0.19453 0.102017 0.348532
-0.205237 0.00173037 0.0190774
0.19803 -0.0180164 0.347409
-0.205269 0.030708 0.0190859
-0.198938 -0.151983 0.349432
0.0279489 -0.0632176 0.348532
0.0772563 0.26327 0.519557
-0.0994484 0.137006 0.34359
0.117734 0.112077 0.34359
-0.0884918 0.178682 0.348532
-0.0902195 -0.0761788 0.348532
0.199054 0.0236416 0.0137055
-0.201633 0.281239 0.466235
-0.0906813 0.127748 0.34359
-0.000347331 0.174255 0.348532
-0.191333 -0.0223009 0.34359
0.219038 -0.172861 0.379419
-0.208478 -0.188871 0.0251486
0.0265972 0.132158 0.34359
-0.011355 0.3401 0.486041
-0.213408 0.090697 0.354104
0.223906 0.112756 0.502963
-0.214083 -0.168383 0.01635
0.199649 -0.0495033 0.015137
-0.235162 0.0360181 0.487992
-0.135266 -0.116859 0.34359
-0.0408732 0.325509 0.491136
0.00646719 0.345498 0.614234
0.0248954 0.343831 0.491509
-0.207377 -0.0605908 0.336309
-0.205646 -0.152428 0.33677
-0.0115757 -0.0191677 0.348532
0.103738 0.0790908 0.34359
0.109781 0.121908 0.34359
-0.22622 0.196836 0.503585
-0.045836 0.275486 0.588847
0.166938 0.27398 0.551815
0.0661807 -0.0840038 0.34359
0.191875 0.0126393 0.34359
-0.0640185 0.146078 0.348532
-0.130404 -0.111463 0.348532
0.16423 0.0672524 0.34359
-0.0158566 0.0766755 0.34359
-0.198352 -0.123441 0.00870152
-0.109979 0.274979 0.557483
-0.20347 0.0343129 0.0186024
-0.15103 0.175926 0.348532
-0.150273 0.098514 0.348532
0.20396 0.137095 0.00106961
-0.212376 0.259111 0.432493
0.198613 -0.0907807 0.0120642
0.163487 0.333191 0.48457
-0.155159 0.263678 0.493376
-0.190881 0.268516 0.520822
0.214508 -0.319903 0.142111
0.0961159 0.160661 0.348532
0.0245374 -0.131853 0.34359
0.0568471 0.143788 0.348532
-0.0917902 0.0988966 0.348532
0.199187 0.00705943 0.00560373
0.124814 0.274553 0.583552
0.217277 -0.274801 0.304012
-0.0559298 -0.0920898 0.348532
-0.0464981 -0.0361136 0.348532
-0.0256269 0.241839 0.017774
0.0664214 0.26127 0.508215
-0.202618 -0.335534 0.212077
0.158363 0.339612 0.502621
-0.122464 0.239956 0.0158977
-0.166353 0.26966 0.527312
0.135134 -0.0565367 0.34359
0.222292 -0.0166129 0.502166
-0.217159 -0.109551 0.00736725
-0.0975413 -0.0105649 0.348532
-0.0547355 -0.163198 0.348532
-0.220711 -0.0561674 0.500585
-0.236558 -0.1724 0.351865
-0.0793589 -0.0581429 0.34359
0.0364584 0.110732 0.34359
-0.20753 -0.194478 0.348862
-0.199923 0.0950432 0.0154112
0.204086 0.251406 0.38974
0.00781846 -0.0279169 0.348532
-0.209451 0.0562036 0.000407679
-0.0261916 -0.00971307 0.34359
-0.15115 0.0920882 0.348532
-0.102571 0.195903 0.34359
-0.0130917 0.0154151 0.348532
0.0563681 0.223973 0.348532
-0.173503 0.059472 0.348532
-0.234487 0.0835896 0.500859
0.178782 -0.0829723 0.34359
0.199276 -0.172731 0.0156944
-0.112851 0.340245 0.486186
-0.217178 0.184766 0.348515
-0.152852 0.326604 0.617647
-0.143897 0.0408807 0.348532
-0.147232 -0.00476962 0.34359
-0.193797 0.127488 0.34359
0.198733 0.270837 0.463902
-0.0211057 0.331291 0.485076
-0.0326093 0.174888 0.348532
-0.117063 0.109711 0.348532
-0.00770856 0.036224 0.34359
-0.0898414 0.333964 0.484364
-0.106632 0.0315214 0.348532
0.152539 0.0316629 0.34359
0.237364 0.129745 0.495104
-0.216873 -0.275637 0.305249
0.129104 0.346348 0.617422
0.218474 -0.128387 0.496468
0.161032 0.237683 0.00953
0.0666792 0.278321 0.576435
0.0334953 0.27537 0.5597
-0.00411245 0.210592 0.348532
0.234511 -0.00328444 0.487343
-0.105475 0.218807 0.34359
-0.020479 0.246523 0.0195454
0.0785784 0.268958 0.523329
-0.0613927 -0.0676276 0.348532
0.0650484 0.327636 0.487543
-0.224588 0.14241 0.503146
0.0313498 -0.0586185 0.348532
0.0599612 0.272779 0.545002
0.0907698 0.166548 0.34359
-0.198358 -0.324272 0.228015
0.193143 0.231074 0.0118912
0.198696 0.32596 0.497733
-0.200926 0.265706 0.556662
-0.104537 0.269666 0.527343
0.0929809 0.23842 0.00676879
0.0616817 0.274719 0.584492
-0.215973 -0.237522 0.022939
0.210902 -0.289257 0.0816877
0.00942875 0.261327 0.508542
-0.125182 -0.108883 0.348532
-0.225258 -0.159144 0.423825
0.170492 0.162987 0.348532
0.121428 -0.143074 0.34359
0.210897 -0.0910657 0.33695
0.236948 -0.0428866 0.496652
0.0942462 0.0753257 0.348532
0.214209 -0.258044 0.327826
0.19803 -0.112623 0.345549
0.0743374 0.115436 0.34359
0.0423295 0.274612 0.555399
0.105831 0.136335 0.34359
0.230874 0.131135 0.485027
-0.135295 0.274334 0.553824
-0.133396 0.240021 0.0159616
0.0508301 -0.157128 0.348532
-0.099831 0.109695 0.34359
-0.142752 0.0597791 0.34359
-0.0316265 -0.0500476 0.348532
-0.223992 0.0959627 0.502986
0.167793 -0.129748 0.348532
0.175795 -0.0126591 0.348532
-0.192665 0.113456 0.34359
0.22979 0.293003 0.503442
0.0597987 0.134984 0.348532
0.0660618 0.270029 0.557895
-0.0780317 -0.00288415 0.348532
-0.23679 0.069947 0.490934
-0.204891 -0.328346 0.242166
-0.0708686 0.268811 0.550984
-0.0291495 0.272707 0.573081
0.161687 0.00659795 0.348532
-0.121701 0.226864 0.348532
-0.216635 -0.129301 0.00540834
0.195005 0.0765137 0.348532
-0.158892 -0.133383 0.34359
0.206051 0.279269 0.541955
-0.0294033 0.260694 0.504951
-0.220683 -0.132056 0.487622
-0.215875 -0.299002 0.0866264
0.220088 0.100842 0.488219
-0.187143 0.252856 0.00396131
0.108372 -0.0935565 0.34359
-0.0768514 0.0683388 0.348532
0.017135 0.329711 0.610686
0.026647 -0.102593 0.348532
-0.173676 0.0130395 0.348532
-0.18773 0.330831 0.485199
-0.199293 0.121365 0.0145916
0.150241 0.255332 0.0155749
0.158856 -0.104183 0.348532
0.0825365 0.0887652 0.34359
-0.198594 0.194085 0.0119935
-0.220687 0.0773219 0.487618
0.093241 0.326743 0.616764
-0.108674 -0.0807641 0.34359
0.105859 -0.109459 0.348532
-0.213527 0.251975 0.370936
-0.0162964 0.131142 0.348532
-0.176218 0.279775 0.584686
0.236301 -0.163425 0.360326
-0.0594077 -0.0931267 0.34359
-0.160152 -0.115594 0.348532
0.236918 0.146343 0.496764
0.207957 -0.319492 0.269983
0.186774 -0.107033 0.348532
0.198929 -0.19442 0.335739
-0.209667 -0.192319 0.00687724
0.0484908 -0.0872924 0.34359
-0.0202132 -0.0403534 0.34359
0.0803348 0.257501 0.486839
-0.161233 0.335843 0.484517
-0.0114421 0.342656 0.610136
-0.218014 -0.169051 0.345591
0.215401 -0.289931 0.277762
0.114789 -0.100226 0.348532
0.129841 0.261125 0.478899
-0.154737 0.268151 0.518751
0.0186016 0.343034 0.610513
-0.0340067 0.088903 0.34359
-0.010868 0.198639 0.348532
-0.149764 -0.0324907 0.348532
-0.237254 0.119391 0.495527
-0.217258 -0.0909771 0.0120589
0.165179 0.272075 0.541007
0.0333904 0.0635325 0.34359
0.194414 0.262411 0.514687
0.199726 -0.222173 0.336961
0.198387 0.25632 0.374159
-0.215986 -0.0588318 0.00442732
-0.169835 0.330023 0.485414
-0.146986 0.277808 0.593636
-0.201164 -0.286042 0.299145
-0.00302841 0.0545243 0.34359
-0.223468 -0.0245976 0.485329
-0.0924247 0.0210464 0.348532
-0.163246 0.225693 0.34359
-0.215934 0.16898 0.015428
-0.202931 -0.309575 0.109435
0.21635 0.234234 0.342344
0.171706 0.0475911 0.34359
0.1991 -0.0915548 0.00592454
0.212725 0.00255045 0.0185135
0.167864 0.274515 0.583338
-0.222437 0.114274 0.485863
-0.218983 0.0860004 0.498358
0.0682469 -0.0394139 0.34359
-0.19959 0.244306 0.345024
-0.0113199 0.260918 0.506219
0.176302 0.0607297 0.348532
-0.212316 -0.120997 0.354783
-0.0907781 0.0947012 0.34359
-0.206108 -0.294888 0.0877377
0.141423 -0.147094 0.348532
-0.20252 -0.184405 0.00608788
0.234714 0.0159557 0.500632
-0.0344508 0.326003 0.498896
-0.132601 -0.0788015 0.348532
-0.211524 0.147999 0.0188372
0.0491601 0.260971 0.506521
0.218185 0.172098 0.492783
0.172163 0.326609 0.488574
-0.12578 0.267808 0.516805
0.195326 0.232461 0.0166766
-0.200223 -0.099354 0.0157111
0.0979043 0.110464 0.34359
0.200814 -0.0102125 0.0163013
-0.0803876 0.334486 0.626833
0.204119 -0.0871132 0.354936
-0.153333 0.272791 0.54507
-0.0986056 0.269536 0.526608
-0.0596583 -0.147573 0.348532
-0.112602 -0.14025 0.348532
0.201517 -0.0544411 0.338952
0.216864 0.144107 0.0135362
-0.0779072 0.261703 0.510672
0.118885 0.0367145 0.348532
-0.0844362 -0.0160319 0.34359
-0.235018 0.177862 0.487845
0.217971 -0.168893 0.406364
0.201738 -0.320466 0.0909444
-0.217243 -0.140495 0.0121155
-0.162717 -0.135813 0.34359
-0.138342 0.0583511 0.34359
-0.063014 -0.0131177 0.34359
-0.0222834 0.173406 0.348532
0.128737 0.263545 0.52112
0.0742176 -0.124376 0.34359
0.0529434 -0.0923652 0.348532
-0.102165 0.228343 0.345242
-0.20001 -0.284601 0.0722415
-0.201307 -0.0795621 0.00300853
-0.181002 -0.154838 0.34359
-0.212868 -0.308628 0.249852
0.148537 0.281116 0.592289
-0.216717 0.265859 0.495857
-0.153327 0.130823 0.34359
0.199001 0.166989 0.349666
0.207631 -0.308446 0.280926
0.119075 0.172057 0.348532
-0.19227 -0.136982 0.348532
-0.0452919 0.276129 0.592493
-0.217438 0.152639 0.34754
0.187187 -0.119454 0.348532
-0.111324 0.0239446 0.34359
0.197204 0.118501 0.348532
-0.151443 0.134112 0.34359
0.014092 -0.110226 0.34359
0.192624 0.235018 0.00323712
0.224081 0.32283 0.484771
-0.203226 -0.288007 0.299759
-0.0161458 0.269405 0.554356
0.213613 -0.26954 0.0602488
-0.0397762 0.25864 0.493301
0.0347282 -0.125731 0.348532
0.216574 -0.101744 0.00517791
-0.100716 -0.0663139 0.34359
-0.19803 0.0829042 0.348142
-0.096667 0.262382 0.514526
0.153996 0.150122 0.348532
-0.19807 0.0355805 0.345907
-0.216938 -0.175733 0.34745
0.057252 0.261411 0.509013
-0.130737 0.186337 0.34359
0.202185 -0.124746 0.00213129
-0.213541 -0.213814 0.341803
-0.211311 -0.016565 0.0188946
-0.224736 0.19598 0.503186
-0.124193 0.0970491 0.34359
0.00261876 0.255894 0.477725
-0.1973 -0.157517 0.348532
-0.230997 0.305572 0.494632
-0.203092 -0.166227 0.00130281
0.0387353 0.325954 0.498715
0.214603 -0.0286309 0.352913
-0.0297297 0.108024 0.348532
-0.151203 -0.0122042 0.34359
-0.200899 -0.196484 0.0239181
0.214193 0.105712 0.338792
0.214222 -0.226214 0.0326304
-0.18751 0.326099 0.622941
-0.202591 -0.194326 0.330926
-0.0916146 0.155383 0.348532
0.157777 0.343313 0.489588
0.197654 -0.0374401 0.34359
-0.0434491 -0.0028093 0.348532
0.213075 -0.190994 0.331619
0.164203 -0.0756603 0.34359
0.095439 -0.129962 0.34359
0.0432021 -0.0155138 0.34359
-0.0765842 0.054265 0.348532
0.193921 0.193979 0.34359
-0.0788325 -0.0460061 0.348532
0.066582 0.173541 0.34359
-0.153286 -0.0504891 0.348532
0.151707 0.122547 0.348532
0.115084 -0.12006 0.34359
-0.129941 0.105334 0.348532
-0.10846 0.116023 0.348532
-0.198843 0.22462 0.34304
-0.0072203 0.278081 0.575075
-0.199366 -0.300768 0.268436
-0.0220698 -0.0771277 0.348532
0.213283 0.0217241 0.00173361
0.0882148 0.25634 0.480254
-0.206753 -0.224373 0.0153212
0.0441854 0.243912 0.0188417
-0.185257 0.269762 0.556383
0.0626883 0.206735 0.348532
0.198187 -0.21607 0.332697
-0.0565675 0.121753 0.348532
-0.214576 -0.30738 0.0967738
-0.0604153 -0.0240388 0.34359
0.156173 0.0923622 0.34359
0.209554 0.24848 0.343085
-0.191283 0.0878027 0.348532
0.217004 0.260611 0.508178
0.236593 0.298637 0.490209
0.142357 -0.0662514 0.34359
-0.21684 -0.216454 0.0265096
-0.202038 -0.0413462 0.0175254
-0.199522 0.258854 0.509717
-0.17822 0.0276419 0.348532
-0.00970674 0.022837 0.34359
-0.201692 0.256831 0.510727
0.0455225 0.164341 0.34359
-0.126984 0.00824505 0.34359
0.211509 -0.333964 0.22067
-0.0103615 0.326915 0.618802
0.170592 0.0136581 0.348532
-0.205042 -0.040908 0.0190251
0.178893 0.340023 0.617735
0.237553 -0.0269896 0.494401
-0.15088 -0.0611171 0.34359
-0.0906467 0.267281 0.513815
-0.168338 -0.100952 0.348532
0.173779 0.271198 0.564524
0.198522 -0.317275 0.11318
-0.217516 -0.147263 0.344865
-0.20969 0.0147328 0.0193315
-0.114757 0.188702 0.34359
0.205096 0.241548 0.360906
-0.170086 -0.163731 0.34359
-0.201256 0.141273 0.339213
-0.051572 0.332641 0.484717
0.236262 -0.149992 0.486238
0.0267849 0.179373 0.34359
0.195433 0.0169681 0.348532
0.105093 0.25571 0.00460698
0.153444 0.183464 0.34359
-0.103741 0.261468 0.509341
0.21319 -0.323692 0.256476
-0.187865 0.167252 0.34359
0.0781438 0.252124 0.0185554
0.213458 -0.23278 0.320809
0.207494 0.237374 0.0176618
0.174865 -0.0462486 0.348532
0.203811 -0.123371 0.354853
-0.00165075 0.28026 0.593207
0.204481 0.24435 0.00525822
-0.00401452 0.181973 0.348532
0.0913286 0.326681 0.617934
-0.230601 0.133468 0.484954
-0.214076 -0.0817695 0.338676
0.106427 0.105129 0.348532
0.204998 0.278974 0.541907
-0.21471 0.25608 0.404009
0.228206 -0.158601 0.385726
-0.0478421 -0.0636589 0.348532
-0.141361 0.119949 0.34359
-0.00877872 0.216843 0.34359
-0.224164 0.255531 0.503032
-0.0585323 0.272472 0.571751
-0.189341 0.0344782 0.34359
-0.15694 -0.147816 0.34359
0.137394 0.261572 0.481432
-0.198264 -0.0424516 0.0107655
-0.162285 0.106183 0.348532
0.0671495 0.257529 0.487
0.00285739 -0.0669423 0.34359
-0.211553 0.182657 0.337125
0.174892 0.0165631 0.34359
-0.0960563 -0.0491733 0.348532
-0.236045 -0.017656 0.488879
0.222004 0.19375 0.486297
-0.176867 -0.153458 0.348532
-0.214312 -0.325298 0.246304
0.0607418 0.0572309 0.348532
-0.145749 -0.0299848 0.34359
0.12137 0.2733 0.547954
0.112312 0.194263 0.348532
-0.0236127 0.0479394 0.348532
0.229639 -0.0719166 0.484697
0.182697 0.34412 0.612888
-0.08034 -0.0861008 0.34359
-0.210372 0.162033 0.0191477
-0.23575 -0.0799091 0.488585
0.00970156 0.256664 0.482092
0.0720919 0.27231 0.570831
-0.20744 -0.037078 0.000133877
0.0569933 0.256183 0.0143829
0.237552 0.229012 0.493767
0.229608 -0.164399 0.34359
-0.0852098 0.239793 0.00406908
-0.194772 0.0965931 0.348532
0.217039 0.116682 0.00692094
-0.0426861 -0.0201071 0.34359
-0.199229 0.0998703 0.0143536
-0.109703 0.260319 0.502824
-0.054302 0.272238 0.570422
0.066097 -0.0142622 0.348532
-0.138611 0.0413811 0.348532
0.21155 0.0443635 0.354989
-0.235898 0.156692 0.488727
-0.16779 -0.150093 0.34359
0.21589 0.14721 0.0154714
-0.198932 0.27374 0.445983
0.206073 0.164276 0.0193022
0.0428831 0.0529864 0.348532
0.198198 0.213702 0.345433
0.193648 0.252405 0.0137415
-0.0821617 0.267432 0.543166
-0.212022 0.326105 0.502848
-0.211952 -0.0209804 0.00108187
-0.214665 0.25137 0.377563
-0.202965 -0.0863632 0.00135049
0.0422821 0.343119 0.624331
-0.155357 -0.141898 0.34359
-0.0365233 0.341251 0.500982
-0.0258118 -0.0826507 0.34359
0.218185 -0.168787 0.468412
0.0669799 0.139354 0.34359
0.137803 0.326648 0.617809
0.215324 0.271733 0.477474
-0.155295 0.213766 0.348532
0.203422 0.247101 0.00989419
-0.089891 0.25693 0.00819416
0.23683 0.222204 0.491087
0.234812 0.235106 0.487645
-0.193008 -0.0289862 0.348532
0.168349 0.0591748 0.34359
0.0908483 -0.156498 0.34359
0.217963 -0.155514 0.489199
0.206006 0.186195 0.00051939
-0.217111 -0.154846 0.00718886
-0.119515 0.148668 0.34359
-0.16694 0.0237118 0.348532
-0.216237 -0.164969 0.00467737
-0.233698 0.235182 0.486524
-0.0303234 -0.120418 0.348532
-0.0376355 0.263478 0.520741
-0.145268 0.0888312 0.34359
0.0488738 0.101279 0.34359
-0.180405 0.330606 0.485259
-0.11181 0.0840156 0.348532
-0.210694 -0.341814 0.163763
-0.051713 0.256727 0.00743883
0.180103 -0.107174 0.348532
-0.101683 0.0782609 0.34359
-0.186599 -0.147138 0.34359
0.157411 -0.114897 0.348532
-0.189876 -0.0190843 0.34359
-0.210751 0.165121 0.0190454
-0.217193 0.271337 0.437853
-0.00988515 -0.0336131 0.34359
0.211918 -0.318075 0.142322
0.167312 -0.029937 0.34359
0.138866 -0.0225364 0.34359
-0.131404 0.193205 0.348532
-0.18251 -0.0572297 0.34359
0.003857 0.0601561 0.348532
-0.226876 0.0714951 0.503761
-0.224587 -0.159324 0.448483
0.0607307 -0.00548434 0.348532
0.237482 0.156188 0.494666
-0.218284 0.14588 0.495758
-0.217766 -0.0486626 0.0101494
-0.0707578 0.173513 0.34359
-0.20486 0.129133 0.355135
-0.0493945 0.262167 0.484809
-0.21363 -0.198972 0.02592
-0.203207 -0.192421 0.0249727
0.160632 0.00624856 0.34359
-0.0218659 0.329355 0.485819
0.133338 -0.0297692 0.348532
-0.00131562 -0.137199 0.34359
0.230922 0.150183 0.503137
-0.154244 0.193436 0.34359
-0.224923 0.261047 0.503236
0.167085 0.167814 0.34359
0.166625 0.245066 0.000650809
-0.0971092 -0.0313247 0.348532
0.0101776 0.343931 0.496295
0.167121 -0.0281534 0.34359
-0.151621 0.269859 0.528438
-0.0601245 0.15179 0.34359
0.139794 0.0502112 0.348532
0.176154 0.327834 0.612708
0.0451029 0.270272 0.55927
0.114981 -0.121174 0.34359
0.210393 -0.221339 0.341113
-0.225349 0.0100282 0.484828
0.230729 -0.0616338 0.503189
-0.234743 -0.0438912 0.487574
-0.100051 -0.140984 0.348532
-0.203569 0.218436 0.00491622
0.0522948 0.328939 0.486236
-0.143692 0.217394 0.348532
0.12848 0.0946028 0.34359
0.215854 0.106821 0.340453
0.15974 -0.0417455 0.34359
-0.215906 -0.300935 0.0733494
0.122884 0.267953 0.54612
0.21048 -0.345448 0.17884
0.19803 0.274742 0.566334
0.03514 0.21203 0.34359
-0.209624 -0.0269641 0.355509
-0.223391 0.214658 0.502824
0.208998 -0.0727027 0.000285723
0.00948794 0.276837 0.568019
-0.0581664 -0.0315041 0.348532
-0.0414899 0.273703 0.550245
0.0835127 0.21406 0.34359
-0.217167 -0.297517 0.0809251
-0.144517 0.256278 0.0057741
-0.211039 -0.249513 0.0225694
0.216733 0.0287036 0.014027
-0.0273797 -0.0219411 0.348532
-0.113209 0.274305 0.553656
-0.0267902 0.258918 0.494876
-0.203648 0.0962343 0.0011535
0.112834 0.271594 0.566771
-0.21802 0.273505 0.493394
0.11834 0.249369 0.0192961
0.0615669 0.218642 0.34359
0.199691 -0.0774467 0.340783
-0.14067 0.0659377 0.34359
-0.0605723 0.103169 0.34359
0.088703 -0.136984 0.34359
-0.167142 -0.00522797 0.34359
0.21585 0.284027 0.592542
-0.136953 0.189476 0.34359
-0.19878 -0.314745 0.26502
-0.152484 0.26397 0.495032
-0.235334 0.20595 0.500017
0.212558 -0.308265 0.279527
-0.044708 0.329563 0.502562
0.205734 0.277616 0.533065
-0.0932241 0.195228 0.348532
-0.0528438 0.345827 0.619462
0.20539 -0.168383 0.346421
0.217592 -0.140085 0.34515
-0.200642 0.262184 0.369137
0.178202 0.329449 0.485725
-0.0952528 0.280739 0.590151
0.0751918 -0.0162251 0.34359
0.0192308 0.0985582 0.34359
0.224809 0.0678099 0.503205
0.198849 -0.247755 0.321748
-0.17946 0.047708 0.34359
-0.199442 0.208085 0.0149296
-0.00483266 0.260788 0.476983
-0.0686799 -0.00635187 0.348532
-0.0668727 0.334852 0.484253
0.0833748 -0.00952789 0.34359
0.0364751 -0.109411 0.348532
-0.19617 -0.158479 0.34359
-0.234338 0.168165 0.50101
0.19803 0.171119 0.346472
-0.0774627 0.167086 0.348532
-0.0486932 0.345976 0.618901
0.180842 0.245868 0.0195099
0.232915 -0.160039 0.411987
0.213635 -0.30828 0.10199
0.204016 -0.0416162 0.018749
0.0382438 0.252967 0.00186434
-0.198315 0.263876 0.403276
0.154974 0.339591 0.626525
-0.0717103 -0.0171546 0.34359
-0.0346024 -0.0265554 0.348532
-0.0228623 0.208258 0.348532
0.214951 -0.318097 0.222224
0.224146 0.330091 0.488104
0.0161251 -0.0434154 0.348532
-0.0258916 0.00255679 0.348532
-0.218297 -0.0121912 0.492369
-0.216508 0.30777 0.622085
-0.131657 0.250803 0.0189104
-0.186531 -0.0273546 0.348532
0.218388 -0.0793458 0.496147
0.131877 0.256259 0.479796
0.202959 -0.109629 0.337506
-0.0434787 -0.00714751 0.34359
-0.217634 -0.241625 0.325683
-0.0993609 0.263068 0.489917
-0.1573 0.114488 0.348532
-0.237058 0.0102074 0.496257
0.061395 0.325825 0.49823
-0.156862 -0.0494801 0.348532
0.217538 0.270949 0.542471
-0.122727 0.262971 0.517865
0.2233 -0.15967 0.420563
-0.134936 0.271007 0.563441
-0.0200273 0.148786 0.34359
-0.189161 -0.0517062 0.34359
-0.0845078 0.262342 0.514298
-0.105369 0.260695 0.476458
-0.0934845 0.154134 0.34359
0.14324 0.265525 0.503856
-0.219024 -0.0945858 0.498512
-0.00284767 -0.121166 0.34359
-0.199065 0.109726 0.349904
0.175828 0.268643 0.550033
0.221557 0.232272 0.486745
-0.208774 0.147483 0.336382
0.215706 0.160531 0.00414865
-0.201553 -0.322708 0.202658
-0.0474082 -0.162813 0.348532
0.212976 0.195555 0.337576
0.198154 -0.312561 0.0931786
0.0650146 0.237592 0.00986969
0.200557 -0.165809 0.00375867
-0.110564 -0.0241212 0.348532
0.196246 0.0284763 0.34359
-0.167467 0.0588527 0.348532
0.210674 0.030739 0.33689
-0.21162 0.170403 0.000992405
-0.216703 0.223645 0.341821
0.221024 -0.161572 0.356121
-0.201597 -0.298414 0.267738
-0.057705 0.33761 0.627054
0.0514453 0.0396259 0.34359
-0.18318 0.259372 0.49745
0.0990053 0.2257 0.348532
-0.110307 -0.0583881 0.348532
0.014772 0.0197023 0.348532
-0.199728 0.186914 0.351375
0.201098 -0.33389 0.212542
0.154866 0.243876 0.000971567
-0.0678487 0.102688 0.34359
-0.217526 -0.178687 0.344449
0.199271 -0.0189223 0.341449
0.105601 0.265271 0.530909
0.219959 0.0846924 0.488348
-0.0692855 0.280982 0.59153
-0.233216 0.202795 0.50213
0.217706 -0.276666 0.29864
-0.211969 -0.303767 0.0958065
-0.150417 0.133977 0.348532
-0.0352581 0.341096 0.48704
-0.00428656 0.261208 0.507866
0.221717 -0.09854 0.486585
0.0428588 -0.0103474 0.34359
0.170421 0.269175 0.52456
-0.16224 0.274326 0.582264
-0.0787659 0.263065 0.489903
0.189611 0.14838 0.34359
0.2348 -0.174843 0.376627
-0.0601345 -0.0393294 0.34359
-0.145667 0.134476 0.348532
-0.195628 -0.0547148 0.348532
0.0704461 -0.164783 0.34359
-0.198338 -0.230562 0.0254172
-0.21683 0.259394 0.50504
0.208131 0.341642 0.492784
-0.171264 0.020319 0.34359
0.0174343 -0.0117227 0.34359
0.0480187 0.265471 0.532041
-0.172772 -0.0665851 0.34359
-0.211232 0.210334 0.33704
-0.137634 0.343103 0.49913
0.190727 0.270092 0.558251
0.171793 -0.0621814 0.34359
-0.0409897 -0.0721743 0.348532
0.218229 -0.164885 0.47262
0.201229 -0.106278 0.33924
-0.0506826 0.210022 0.348532
0.0041261 0.275345 0.559555
0.19832 -0.0126744 0.00882093
0.0796166 0.248904 0.00038264
0.19803 -0.0750682 0.344375
-0.179148 0.200207 0.348532
-0.0490209 0.228343 0.343772
0.0449931 -0.0209658 0.34359
-0.209694 0.250832 0.37114
-0.0888734 -0.0191195 0.348532
-0.213186 0.0805029 0.337786
-0.213967 0.122756 0.353548
0.217206 -0.276983 0.0537598
0.21659 0.156524 0.00523962
-0.066222 -0.0616677 0.348532
-0.0970271 0.343704 0.623749
0.0148925 0.214106 0.348532
0.203814 0.099329 0.0186948
0.0772157 0.200881 0.34359
0.200046 -0.142752 0.351693
-0.140458 0.210437 0.348532
0.0919746 0.343582 0.497594
0.23228 0.28899 0.485402
-0.19867 0.0357426 0.0075211
0.034053 0.338421 0.485204
0.220329 0.112903 0.500203
-0.023007 -0.085291 0.34359
-0.0394973 0.0130374 0.34359
0.200245 -0.068089 0.351892
0.182461 0.331994 0.484889
-0.128921 0.344736 0.612208
-0.136701 0.228343 0.343804
-0.171548 0.256657 0.0126181
-0.0856837 -0.102958 0.34359
0.0776357 0.210459 0.348532
-0.234057 -0.175586 0.356545
-0.0561614 0.331117 0.485123
-0.197434 0.184902 0.348532
-0.213555 -0.183861 0.334006
0.161998 0.013505 0.34359
-0.0608539 0.170922 0.34359
-0.0488602 0.0797089 0.348532
-0.19803 0.265479 0.517904
-0.211592 -0.330436 0.1222
-0.212456 0.0580885 0.337367
-0.159307 0.326804 0.61839
-0.158196 0.345847 0.619384
-0.224526 -0.159341 0.444551
0.233845 -0.100169 0.501501
0.201012 0.26113 0.363546
0.218086 -0.167447 0.420477
0.213898 -0.331539 0.224554
-0.206369 -0.332685 0.12851
-0.202798 0.310892 0.608689
-0.20457 0.109783 0.355057
0.21407 -0.171931 0.00346854
-0.136874 0.336376 0.503521
0.055393 0.014677 0.348532
0.0771963 0.0298097 0.348532
0.19803 0.158205 0.347141
-0.0744248 -0.139462 0.34359
-0.217415 0.278768 0.584149
-0.215769 0.241475 0.343477
-0.157868 0.203375 0.348532
-0.0943171 0.163037 0.348532
-0.20411 -0.183718 0.00513828
0.0573216 -0.000817001 0.34359
0.146039 0.264139 0.495994
0.217776 -0.308734 0.266933
-0.225043 -0.0226881 0.484909
0.188561 0.182222 0.348532
0.01212 0.149185 0.348532
0.224531 0.0217153 0.485046
-0.210036 -0.0575686 0.355397
0.20078 -0.0521763 0.352427
0.0365722 -0.0498094 0.348532
-0.0683782 0.345155 0.612944
-0.200661 0.303817 0.622862
-0.214481 -0.340939 0.187319
0.204486 -0.246264 0.0217915
0.208664 0.217088 0.0196079
0.0704606 -0.121417 0.348532
-0.223514 0.305572 0.489269
-0.0819979 -0.162423 0.34359
-0.137027 0.0298617 0.348532
-0.169877 0.279916 0.585483
-0.134582 0.1611 0.34359
0.0714605 0.251882 0.0186203
0.100751 0.276255 0.56472
0.0972535 -0.0771005 0.348532
0.0908022 -0.0461278 0.34359
-0.0704873 0.166862 0.348532
0.0374433 0.00479984 0.34359
-0.131277 0.341727 0.60921
0.157154 0.343037 0.624414
0.0522803 0.051428 0.348532
-0.156903 0.124283 0.34359
-0.156545 0.0937933 0.348532
-0.21727 -0.227586 0.0236505
0.213361 -0.204534 0.0114949
0.0345981 0.272601 0.543989
0.0332801 0.267481 0.543443
-0.13119 0.140906 0.34359
-0.100293 0.0261496 0.34359
-0.120615 0.149772 0.34359
-0.161796 0.223376 0.34359
0.213398 -0.227794 0.0338744
-0.121322 0.269421 0.554448
-0.22916 -0.147602 0.482354
-0.133961 0.083472 0.348532
-0.200312 0.085108 0.34016
0.115179 0.339297 0.485437
-0.218169 0.245781 0.495334
-0.184302 0.260684 0.504894
0.0199002 -0.00655459 0.348532
0.163743 0.0835214 0.34359
-0.0647893 -0.0679044 0.348532
-0.200235 0.00495122 0.0157227
0.13576 0.0684345 0.348532
0.156126 0.252784 0.00168105
0.216867 0.206463 0.0135239
-0.11172 -0.0117999 0.348532
-0.042986 -0.101486 0.348532
-0.168902 0.274458 0.554524
0.102989 -0.0921927 0.34359
0.0918142 -0.049759 0.34359
-0.199595 -0.124025 0.351242
-0.153944 0.240077 0.00378596
-0.174715 -0.00935309 0.34359
-0.0357484 0.340169 0.62637
0.069977 0.135013 0.348532
-0.0138445 0.124493 0.348532
-0.148167 0.0718819 0.348532
0.205628 0.262769 0.456538
-0.0294534 0.32512 0.492592
0.211278 -0.154358 0.000900232
-0.0307916 -0.109672 0.34359
0.0169529 0.0523351 0.34359
0.204737 -0.342299 0.189944
0.186587 0.258292 0.491324
0.221854 -0.160742 0.449779
-0.0493173 0.0125904 0.34359
-0.112784 -0.0496618 0.348532
0.211026 0.267676 0.478069
-0.203887 -0.276318 0.0442698
0.16973 0.255884 0.00478119
0.067379 0.0330409 0.348532
-0.201555 -0.0996786 0.338914
0.155396 -0.147074 0.348532
-0.21269 0.0752926 0.00128083
0.19441 0.0392855 0.34359
0.198443 -0.0100707 0.00836243
-0.0350034 0.335148 0.503851
0.111843 -0.161451 0.348532
-0.216725 0.117301 0.350217
0.120124 -0.0216851 0.348532
-0.151926 -0.141301 0.348532
-0.0202034 0.264593 0.527062
0.21902 -0.163974 0.409293
-0.209499 -0.303878 0.285036
0.118701 0.268947 0.551755
0.169975 0.334459 0.608096
-0.0263232 -0.0665176 0.34359
0.0493474 0.115791 0.34359
0.00978744 0.182151 0.34359
-0.0317498 -0.150391 0.34359
-0.200809 0.0160017 0.00350735
0.1627 0.228325 0.34359
0.101608 0.21275 0.348532
0.210283 0.267645 0.476741
0.199818 -0.325763 0.238077
-0.104232 0.0709268 0.34359
0.237529 0.269193 0.49368
-0.142956 -0.134341 0.34359
0.0788216 0.238562 0.0062392
0.0491008 0.080435 0.34359
0.0775948 0.0375744 0.348532
0.199804 0.228343 0.346785
0.1633 0.000175551 0.348532
0.0801404 0.115942 0.34359
-0.0659819 -0.0248131 0.348532
-0.153054 0.207171 0.348532
0.15484 0.0173558 0.34359
-0.00329126 0.239127 0.00473233
-0.0758303 0.134536 0.34359
0.0685563 0.257434 0.486459
0.217898 -0.168145 0.363692
0.0911487 -0.0153442 0.348532
-0.209324 -0.144303 0.000373539
-0.150483 -0.00127046 0.34359
0.0989728 0.264981 0.529262
0.20046 0.26473 0.379381
-0.0744891 -0.0131501 0.34359
0.198995 0.278208 0.469979
0.212309 0.270921 0.498461
-0.121587 0.241646 0.00222238
0.0296032 -0.133863 0.34359
-0.203216 -0.128903 0.0185342
0.200223 0.26865 0.502344
-0.115351 0.256931 0.483609
-0.197358 0.252136 0.0110144
0.0894712 -0.168383 0.347048
-0.234367 -0.161491 0.403627
0.0752299 0.331773 0.503229
0.11788 0.00820796 0.348532
0.180566 0.042898 0.34359
-0.0115536 -0.0929147 0.34359
0.113187 0.254941 0.0159658
-0.203384 0.176398 0.354739
-0.0276104 0.0713456 0.348532
-0.0098017 -0.115708 0.348532
-0.0241487 -0.00447181 0.34359
-0.177796 -0.131078 0.34359
-0.0920675 0.123323 0.34359
-0.0582394 0.161496 0.34359
0.179738 0.272204 0.541741
-0.154753 0.0186197 0.348532
0.133854 0.153631 0.348532
0.0827116 0.066679 0.348532
0.12448 0.0244658 0.34359
-0.208481 -0.0928428 0.355817
0.0647405 0.052691 0.348532
0.0437714 -0.0573503 0.348532
0.161101 0.330263 0.610135
0.16858 0.184486 0.348532
0.182179 -0.0636751 0.348532
0.120088 0.260285 0.502627
0.169296 0.243555 0.0187455
-0.0559683 0.275425 0.560008
0.216087 -0.185492 0.0198597
0.213716 -0.09081 0.338316
-0.19894 0.0616063 0.0132801
0.19962 -0.198629 0.0127993
0.15002 0.149452 0.348532
-0.158961 0.27073 0.53338
0.200235 0.255098 0.393116
-0.0202057 0.272604 0.544006
0.121818 0.0752692 0.34359
-0.0464654 -0.0547649 0.34359
0.210646 0.180266 0.336883
0.0543239 0.268517 0.549317
0.040849 0.237693 0.0103025
-0.214364 0.26713 0.568071
-0.0776584 0.27092 0.562946
0.0172587 0.112578 0.34359
0.213216 -0.00164273 0.00166689
-0.0361134 0.259575 0.4986
-0.181142 0.19623 0.348532
0.109271 0.127847 0.34359
0.00303188 0.331 0.485154
0.201952 -0.22526 0.323283
-0.0757197 -0.150174 0.34359
-0.00811398 0.261036 0.478391
-0.0855882 0.24058 0.00328434
-0.159144 0.0589346 0.348532
-0.206693 0.165646 0.000334694
-0.108075 0.0924669 0.34359
-0.0668254 0.278676 0.57845
0.213196 -0.228528 0.0342725
0.0848126 -0.132151 0.348532
0.103506 0.214814 0.348532
0.180036 0.243839 0.000898961
-0.208322 -0.310766 0.0773841
-0.191676 0.236984 0.0173141
-0.153036 -0.133898 0.348532
-0.19847 0.256067 0.374504
0.199205 -0.234395 0.0319577
-0.221195 -0.139338 0.492436
0.217173 0.27434 0.553802
-0.0454777 0.202783 0.348532
0.0128969 0.116104 0.348532
-0.221646 0.135592 0.50152
-0.151492 0.27098 0.56329
0.0365662 -0.144509 0.348532
-0.220822 -0.0153544 0.500696
0.0923949 0.272797 0.573593
-0.140019 0.175376 0.348532
-0.209936 0.0418083 0.000538582
0.198203 -0.316115 0.256327
0.214266 0.277783 0.546214
-0.149545 0.0830854 0.348532
-0.215681 -0.305382 0.0932699
-0.236605 0.0508432 0.490246
0.191238 0.066195 0.348532
0.0261085 -0.0632585 0.34359
0.000256509 0.151954 0.348532
-0.0431013 0.00422791 0.348532
-0.00746302 0.166598 0.34359
0.127929 0.0770599 0.34359
0.0461356 0.156959 0.34359
-0.215593 0.269787 0.476687
0.130554 0.273976 0.58028
0.15038 0.194481 0.34359
-0.2056 0.188443 0.336782
0.212865 0.199951 0.00132789
0.0670357 0.106275 0.34359
-0.207822 0.250841 0.491655
-0.219551 0.237299 0.499425
-0.236324 -0.173033 0.465041
-0.0976345 -0.153621 0.34359
0.0698018 0.215862 0.348532
-0.193026 0.319529 0.617202
0.138568 0.174438 0.34359
-0.108271 0.152497 0.34359
0.0479649 0.140585 0.348532
-0.203631 -0.228284 0.0172041
0.144785 0.274549 0.555041
0.213784 0.127095 0.338383
-0.0515071 -0.166707 0.34359
0.208966 0.331642 0.503934
-0.0101951 0.336598 0.484718
-0.0827284 0.128405 0.348532
0.194607 0.256879 0.477
-0.196901 -0.000651076 0.34359
0.0286702 0.272212 0.570278
-0.207264 -0.252317 0.0226708
-0.167326 -0.0473998 0.34359
0.151483 0.256525 0.481303
-0.0649902 -0.159979 0.34359
0.075256 0.257339 0.485918
-0.212972 0.28109 0.458147
0.201504 -0.23737 0.0354783
0.0408268 -0.160132 0.34359
-0.19803 0.226851 0.345075
-0.13805 0.0936909 0.348532
0.202666 -0.192905 0.0247249
0.0716278 -0.140649 0.34359
-0.156154 -0.0708617 0.34359
0.204144 -0.315585 0.133221
-0.140399 -0.138831 0.34359
-0.153392 0.00570619 0.348532
0.169391 -0.156875 0.348532
0.2158 -0.042845 0.0155615
-0.198983 -0.20203 0.0153766
-0.23565 0.0676479 0.488481
0.209689 -0.156025 0.336627
0.0923384 -0.00228551 0.348532
-0.130595 0.227737 0.348532
0.217174 -0.263605 0.31574
-0.000559017 0.32907 0.502069
0.202928 0.0860747 0.0184153
0.234435 0.215769 0.487266
-0.234236 -0.0134323 0.487064
0.103075 0.277841 0.573713
-0.207139 -0.0588325 0.336372
-0.109582 -0.0016432 0.348532
0.0978564 0.246556 0.000249185
-0.203187 0.284001 0.573216
-0.199046 -0.295329 0.0701768
-0.0983543 0.108778 0.34359
0.0406976 -0.0340822 0.348532
0.0122258 0.265786 0.505334
0.143285 0.0386318 0.348532
-0.19863 0.144821 0.00766983
0.149087 0.0618637 0.348532
0.216567 0.173509 0.0146524
-0.198672 -0.0300279 0.348442
-0.169654 0.265936 0.506183
0.217627 -0.0651111 0.346833
0.00489102 0.155764 0.348532
-0.217244 0.268707 0.424052
0.0231077 -0.0853465 0.34359
-0.23679 -0.0568278 0.497246
-0.123909 0.0101 0.34359
-0.0587141 0.16849 0.348532
-0.105594 0.179202 0.348532
0.0370629 -0.0251488 0.34359
0.00208023 0.262068 0.512743
-0.107013 0.225646 0.348532
0.199252 -0.163043 0.350599
-0.057255 -0.164473 0.348532
-0.108769 0.340507 0.62628
-0.186272 0.261136 0.478957
-0.218566 0.104303 0.49137
0.0165921 -0.0122094 0.34359
0.119245 0.00688128 0.348532
0.0419236 0.261337 0.480098
-0.212895 -0.183458 0.0224956
-0.198381 -0.324468 0.21788
0.0270097 0.268794 0.55089
0.0362344 0.275688 0.589991
0.0608916 0.150221 0.34359
-0.143707 0.278965 0.58009
-0.165655 0.0091579 0.348532
0.228153 0.0566338 0.4843
-0.209384 0.269606 0.486472
-0.150467 0.212713 0.348532
-0.189021 0.33092 0.626606
-0.0376864 0.180058 0.348532
0.195552 0.0512504 0.348532
-0.235368 -0.174275 0.446076
0.234423 0.190771 0.487254
-0.0998466 0.271445 0.537435
-0.00952639 0.257315 0.0101712
0.099034 -0.0694341 0.34359
0.0786513 0.343979 0.623475
0.0357199 0.333743 0.608288
0.199284 -0.0362051 0.0145581
-0.149885 0.155795 0.348532
-0.216601 0.260478 0.516128
-0.23736 -0.0330873 0.493055
0.198696 0.330184 0.501541
0.0538879 -0.0181385 0.34359
-0.0698443 0.264802 0.499755
-0.169779 0.263324 0.519867
0.0419073 -0.141328 0.348532
-0.102937 0.074467 0.348532
0.16261 0.169842 0.348532
-0.180189 0.261721 0.482277
-0.18737 0.269056 0.523885
0.21722 -0.0695548 0.348358
-0.00418086 0.228343 0.345467
-0.104359 0.0393215 0.348532
-0.154752 -0.0992275 0.34359
-0.205034 0.178245 0.336933
0.0505289 -0.0850057 0.34359
0.108274 0.0602483 0.34359
-0.129236 0.0498101 0.34359
0.00169635 -0.104006 0.348532
0.0803819 0.16632 0.34359
-0.00912675 0.22505 0.34359
0.0231708 -0.0984979 0.348532
-0.218923 0.0720213 0.498136
0.230183 0.261175 0.484842
0.121954 -0.0835728 0.34359
-0.0324427 0.0623083 0.34359
-0.0188045 -0.0516047 0.348532
0.106214 -0.091708 0.348532
0.0330837 0.0381981 0.348532
0.199979 -0.322516 0.146707
-0.163947 0.342677 0.488626
-0.0272177 0.253665 0.0172413
-0.136834 0.273648 0.549931
0.201755 -0.314726 0.271265
0.0728728 0.17716 0.34359
-0.121554 -0.0869816 0.34359
-0.218862 0.30548 0.497908
0.168411 0.26616 0.507458
-0.217437 0.0241779 0.0113868
-0.0390088 -0.146904 0.348532
-0.236497 0.255635 0.489822
-0.0965962 0.0184634 0.348532
0.118131 0.0208573 0.34359
-0.0913996 0.276231 0.59307
-0.0307264 0.0658406 0.34359
-0.198977 -0.0607699 0.0134165
0.228924 0.305744 0.484518
0.217434 -0.325261 0.141765
-0.00871848 0.267804 0.545273
0.198635 -0.0992329 0.348304
-0.126254 0.227526 0.34359
-0.128801 0.326659 0.488524
0.00417492 0.260046 0.501273
0.210076 0.109712 0.0192273
0.0674278 -0.130099 0.348532
0.198775 0.264593 0.429383
0.111223 0.0865031 0.34359
0.201642 -0.318353 0.137385
-0.0637266 -0.128901 0.348532
0.0868824 0.204641 0.348532
-0.174375 -0.117274 0.348532
