0.00196949 0.172173 0.387835
0.0363178 0.18882 0.730307
-0.181402 0.173504 0.0709531
-0.0238484 0.204124 0.741421
0.00674532 -0.0691959 0.387835
-0.189301 0.204124 0.694404
0.204124 0.183411 0.225211
-0.173504 -0.180863 0.215776
0.173504 -0.161724 0.206319
-0.202271 -0.204124 0.0349397
0.202226 0.204124 0.717691
0.00678481 -0.139556 0.408248
-0.203511 0.204124 0.592463
0.156342 0.18882 0.639656
0.177117 0.069232 0.204124
-0.177494 0.173504 0.77542
0.203283 0.173504 0.438705
0.0928696 -0.0884189 0.408248
-0.173504 -0.191106 0.121981
-0.204124 0.195186 0.253634
-0.0440211 0.037393 0.387835
-0.173504 0.0700814 0.225833
0.137456 -0.0960407 0.387835
0.200633 -0.173504 0.356615
-0.104195 -0.103323 0.408248
0.173504 0.144412 0.250312
-0.0798363 0.0823557 0.387835
-0.179796 0.173504 0.510892
0.168331 -0.139544 0.408248
0.135928 0.204124 0.775175
0.0709431 -0.198154 0.387835
0.18882 -0.0722035 0.250586
-0.173504 0.178552 0.583459
-0.136332 -0.0340399 0.387835
-0.131465 0.204124 0.785751
-0.151488 -0.140458 0.408248
0.16782 0.128267 0.387835
-0.116002 0.135908 0.387835
-0.190472 0.204124 0.150398
0.173504 0.201572 0.262627
-0.204124 0.182416 0.117329
-0.18882 0.153763 0.230895
-0.173504 0.193424 0.320358
-0.0460036 0.204124 0.639207
0.173504 0.175265 0.369835
0.153841 -0.00975919 0.408248
0.202515 -0.173504 0.322125
-0.0607665 -0.107511 0.387835
0.173504 0.181549 0.619659
0.173504 0.0483452 0.253267
-0.204047 0.204124 0.468438
0.0612279 0.204124 0.621744
0.173504 0.195265 0.460123
0.124294 -0.130847 0.408248
-0.0679821 0.0788838 0.408248
0.176742 -0.173504 0.0208125
-0.0792056 0.18882 0.73379
-0.037265 -0.189563 0.408248
0.0872971 -0.0408238 0.387835
0.173504 -0.0452312 0.252638
-0.157834 0.17722 0.408248
-0.125276 -0.188752 0.387835
0.000688925 0.00905323 0.387835
-0.0441334 0.18882 0.785647
-0.204124 0.196694 0.29483
0.160419 -0.0201399 0.387835
0.164188 0.074057 0.408248
-0.144809 0.0416276 0.387835
0.179124 0.173504 0.137945
-0.152217 0.177273 0.387835
-0.166833 0.0119952 0.408248
-0.0929091 0.204124 0.679065
0.184323 0.137097 0.408248
0.173899 0.137124 0.204124
-0.204124 -0.185296 0.119523
0.124792 0.18882 0.673908
-0.19553 0.173504 0.378319
0.0205009 0.18882 0.76969
-0.0351356 0.18882 0.688124
0.0958771 0.204124 0.404132
0.0544527 0.0519979 0.387835
-0.196493 0.0929832 0.408248
-0.173983 -0.157365 0.255158
0.204124 0.196976 0.502055
-0.111629 -0.0799794 0.387835
0.136822 -0.147743 0.387835
0.173504 0.180224 0.557875
-0.173504 0.202886 0.24032
-0.204124 -0.0781362 0.397333
-0.183996 0.11988 0.255158
-0.204124 0.174278 0.230049
0.187965 -0.0911597 0.204124
-0.204124 -0.202895 0.295691
0.00835454 0.143708 0.408248
-0.179813 0.0126472 0.255158
-0.046516 0.148151 0.387835
-0.0938036 0.135758 0.408248
0.041488 -0.108556 0.408248
-0.170035 -0.0281768 0.408248
0.189389 0.173504 0.0800651
0.204124 -0.191582 0.200729
-0.0347213 -0.0851225 0.408248
-0.181657 0.204124 0.0354221
0.105058 0.204124 0.66291
0.145033 0.176789 0.387835
-0.196576 0.204124 0.420942
-0.0703481 -0.151469 0.408248
-0.0190199 0.00312722 0.408248
-0.0117261 0.204124 0.726846
0.201772 0.173504 0.780456
0.0681622 0.0883722 0.408248
-0.155415 0.204124 0.756761
0.173504 -0.200568 0.110771
0.162467 -0.166986 0.387835
-0.0747134 -0.0120885 0.408248
-0.0993421 0.18882 0.753115
-0.180134 0.204124 0.794754
-0.18652 0.204124 0.639023
-0.168901 0.084235 0.387835
-0.0349874 0.204124 0.399173
0.0246308 0.204124 0.686248
0.204124 -0.19216 0.386666
-0.204124 0.196287 0.707635
0.0711289 0.204124 0.715393
0.151956 0.0368303 0.387835
-0.200385 -0.175599 0.387835
0.0981723 -0.0191601 0.408248
0.169889 0.0928226 0.408248
-0.176232 0.178623 0.816497
-0.179735 -0.0382925 0.204124
0.18882 0.0228421 0.221032
0.202008 0.204124 0.267571
0.193091 -0.100747 0.408248
-0.173504 -0.200869 0.175012
-0.0675219 0.151982 0.387835
-0.204124 0.174426 0.465634
0.168119 0.204124 0.678739
-0.145868 0.18882 0.704047
-0.174153 0.0655364 0.408248
0.183704 -0.173504 0.245111
0.10253 -0.179891 0.408248
-0.180547 -0.140321 0.204124
-0.17635 -0.173504 0.384593
-0.173504 0.1956 0.0975449
-0.137466 0.18882 0.657734
-0.173504 0.202916 0.19266
0.173504 0.0909201 0.22528
-0.02726 0.0847966 0.387835
0.173504 0.202788 0.0148606
0.140052 0.0860563 0.387835
-0.173504 -0.188679 0.346201
-0.173504 0.20312 0.584503
0.0450234 0.151846 0.387835
-0.140171 0.204124 0.408101
0.188193 0.173504 0.33716
0.20182 0.173504 0.193313
-0.18882 -0.159281 0.238202
-0.179089 -0.105998 0.408248
0.046912 -0.0819026 0.387835
0.0897301 0.122048 0.387835
-0.0404506 0.117509 0.408248
0.00455812 -0.0494438 0.408248
-0.195677 0.173504 0.614154
0.18882 0.0517683 0.240501
-0.175208 -0.0823518 0.387835
-0.0759839 -0.076826 0.408248
0.0896762 0.00984028 0.387835
-0.0575045 -0.00086613 0.387835
0.182001 0.204124 0.134909
-0.176906 -0.204124 0.24603
0.173504 -0.189001 0.35628
0.164655 -0.089551 0.387835
0.176843 0.162265 0.408248
0.189672 -0.204124 0.320723
0.110764 -0.0523714 0.387835
-0.189938 0.117205 0.408248
-0.13079 0.0487922 0.408248
-0.204124 -0.189584 0.20735
0.0773334 0.18882 0.686116
-0.200627 0.173504 0.0334628
0.107683 0.18882 0.75475
0.0258464 0.0203069 0.408248
-0.0586019 0.18882 0.732489
0.033823 0.18882 0.749239
-0.0498237 0.18882 0.764094
0.0895439 -0.0479075 0.408248
0.116981 0.0683317 0.408248
-0.173504 0.0467258 0.2151
-0.15911 0.204124 0.664518
-0.0091204 0.204124 0.758508
-0.0332975 0.18882 0.636899
-0.19696 0.156315 0.408248
-0.0123616 -0.0342889 0.387835
0.185671 0.204124 0.789681
0.173504 -0.157975 0.235357
0.204124 0.183172 0.702828
0.160198 0.18882 0.686183
0.204124 -0.182753 0.276721
0.179825 -0.204124 0.280348
0.0443599 0.032278 0.387835
0.194551 0.173504 0.745357
0.180627 0.204124 0.813948
0.0868479 0.194567 0.387835
-0.188961 -0.173504 0.00955349
-0.149227 0.128868 0.387835
0.204124 -0.182473 0.157866
-0.145685 -0.156076 0.387835
0.173504 -0.174939 0.144235
0.0373282 0.115341 0.408248
0.18882 -0.0255743 0.224314
-0.10285 0.18882 0.707708
0.0955434 -0.156014 0.387835
-0.124767 0.0716234 0.387835
0.0604571 -0.180906 0.408248
0.177437 -0.173504 0.0615088
0.0237743 -0.0328816 0.387835
0.177598 -0.0378219 0.408248
-0.00372174 0.111308 0.408248
0.167762 0.0808584 0.387835
-0.173504 -0.176702 0.169156
0.0572248 0.187216 0.408248
0.204124 -0.201895 0.0919306
0.18618 0.173504 0.658376
-0.173504 -0.0732836 0.23845
-0.1803 0.173504 0.28308
0.0738678 0.127563 0.408248
0.18455 0.204124 0.351788
0.185247 -0.126531 0.204124
-0.0649104 0.195247 0.408248
0.184956 0.204124 0.752092
-0.173504 -0.196677 0.0822245
-0.152436 -0.0990922 0.387835
-0.0694983 0.18882 0.660043
0.0501584 -0.130412 0.387835
0.204124 0.176312 0.532627
0.166111 -0.204124 0.392165
0.173504 -0.0598715 0.220928
0.198781 0.152756 0.387835
0.124645 0.191697 0.387835
0.202559 0.0548605 0.408248
0.173504 0.197109 0.309131
-0.181677 0.00671053 0.387835
0.190404 0.173504 0.037632
-0.188153 -0.0648244 0.408248
-0.173504 0.185089 0.542193
0.173504 0.198349 0.529767
0.204124 0.200328 0.20271
0.151308 0.18882 0.753995
0.185362 0.204124 0.0690087
0.19634 -0.204124 0.0288553
0.0930709 0.0760186 0.387835
-0.126042 -0.0646551 0.408248
0.204124 0.186495 0.370386
0.204124 -0.180869 0.229618
0.00464961 0.204124 0.40352
-0.179176 0.173504 0.425558
-0.103056 -0.194025 0.408248
-0.0877316 0.0446911 0.387835
0.16511 0.0111729 0.387835
-0.0912575 -0.13231 0.387835
-0.145982 0.204124 0.389374
-0.18882 -0.0811134 0.249597
0.18882 0.144925 0.222757
0.199961 0.173504 0.581379
-0.0140519 -0.171852 0.387835
-0.188543 0.173504 0.724066
0.187514 0.109302 0.204124
0.201969 0.204124 0.115024
-0.0116141 0.204124 0.678172
-0.184102 0.204124 0.496213
-0.173504 -0.0188466 0.231715
-0.0146061 0.13819 0.387835
-0.0679076 0.204124 0.715709
0.0651547 0.204124 0.757355
0.0299791 -0.179516 0.387835
-0.187654 0.0855653 0.255158
0.19518 0.204124 0.608437
0.0441449 0.0595911 0.408248
0.0476023 0.18882 0.656807
0.127949 0.177068 0.408248
-0.0600949 0.118935 0.408248
0.0127108 -0.102865 0.387835
0.142428 -0.0402484 0.387835
0.194309 0.204124 0.431936
-0.12405 -0.0451362 0.408248
-0.183431 0.167884 0.204124
0.158168 0.204124 0.733825
0.18882 0.0368358 0.204818
-0.054596 -0.0726052 0.387835
-0.198623 0.204124 0.196063
-0.201932 0.173504 0.784629
-0.0446856 0.0205839 0.408248
-0.109388 0.204124 0.651822
-0.17061 -0.0368249 0.387835
0.185716 0.173504 0.104393
-0.127358 0.152533 0.408248
-0.133603 -0.127876 0.408248
-0.173504 0.134927 0.229576
-0.0454768 0.187146 0.387835
-0.118454 -0.0167883 0.387835
-0.097776 0.0909496 0.408248
0.0528705 -0.0727492 0.408248
-0.0927856 -0.174724 0.387835
0.173504 0.16802 0.235108
0.178368 -0.11357 0.408248
0.204124 0.200524 0.163632
-0.147828 0.142687 0.408248
-0.18882 -0.05667 0.238109
0.109723 0.18882 0.780423
0.00679748 0.18882 0.665046
-0.0265912 0.0880637 0.408248
0.0367483 0.0777549 0.387835
0.0403522 -0.157333 0.408248
0.176999 0.204124 0.229445
0.0503345 0.18882 0.779209
0.149735 0.168815 0.408248
-0.0580443 0.204124 0.684808
-0.173504 0.174182 0.376942
-0.188815 -0.204124 0.146438
-0.0015713 0.0459911 0.387835
0.110173 0.18882 0.708361
-0.204124 -0.18574 0.190366
0.0779731 0.18882 0.638871
0.146656 -0.15382 0.408248
0.19244 0.204124 0.0112649
0.200131 -0.15732 0.408248
-0.200676 0.173504 0.572468
0.0263815 0.204124 0.621433
0.165448 -0.11326 0.387835
-0.19647 -0.173504 0.0519418
-0.20121 -0.00298636 0.408248
0.0509041 -0.0508889 0.387835
-0.173504 0.185744 0.478936
0.0951796 0.0121991 0.408248
-0.204124 0.189522 0.512893
-0.182835 -0.173504 0.361457
0.199692 0.084996 0.408248
-0.173504 0.178135 0.1486
-0.0164314 -0.128379 0.408248
-0.136789 -0.0534643 0.387835
-0.103364 0.00212766 0.408248
-0.0997285 0.204124 0.728361
-0.187824 -0.173504 0.0978653
0.0959586 -0.123983 0.408248
-0.173504 0.151931 0.253692
0.01898 0.174545 0.408248
-0.19481 -0.173504 0.269744
-0.173504 -0.107121 0.218701
-0.204124 0.196275 0.345949
0.141716 -0.190778 0.408248
-0.0727938 0.204124 0.756611
0.188915 -0.173504 0.0914733
-0.18882 -0.144264 0.224634
0.0178155 0.204124 0.71415
-0.0659883 0.204124 0.619258
-0.204124 -0.184681 0.326953
0.18882 0.00983983 0.255063
-0.199145 0.173504 0.0784281
0.185421 0.0385457 0.387835
0.173504 -0.0972012 0.244042
0.0385279 -0.204124 0.400538
-0.204124 -0.180516 0.231964
-0.183857 0.173504 0.740996
-0.0360829 0.068194 0.408248
-0.183152 -0.204124 0.388498
0.187949 -0.173504 0.190083
0.173504 0.163074 0.212254
0.173504 0.115352 0.230989
-0.188335 -0.173504 0.132094
-0.0776234 -0.184621 0.408248
0.193111 -0.163607 0.387835
-0.152995 0.00317077 0.387835
0.173504 0.194995 0.398494
0.204124 0.180546 0.417775
-0.0111417 0.18882 0.703594
-0.0932195 0.18882 0.782592
0.173504 -0.0148077 0.233029
0.0269495 0.181719 0.387835
0.00982466 0.120367 0.387835
-0.0992891 -0.133423 0.408248
-0.0519225 -0.144087 0.387835
0.177503 -0.00125492 0.204124
0.173504 -0.203117 0.203803
-0.104461 0.0638349 0.408248
0.123479 0.0196649 0.387835
-0.173504 0.19983 0.722353
-0.147943 0.0965427 0.387835
0.147528 0.118961 0.387835
-0.139489 0.204124 0.721845
0.0635856 0.18882 0.722874
-0.204124 0.187017 0.403732
0.0707908 0.111992 0.387835
0.0946808 0.204124 0.626755
0.0355579 -0.0561805 0.408248
0.204124 0.178235 0.480455
-0.18882 0.0840974 0.208042
-0.173504 -0.173768 0.0693815
-0.153164 -0.0159253 0.408248
0.112279 -0.110613 0.387835
0.176749 0.204124 0.489517
-0.0657243 0.0196449 0.408248
-0.108377 0.0999174 0.387835
-0.173504 0.185243 0.0273414
0.178095 0.0179834 0.408248
0.204124 0.18898 0.0761471
0.193827 -0.204124 0.161088
-0.155971 0.18882 0.646799
0.11684 0.18882 0.638849
0.12581 0.124335 0.387835
0.1405 -0.110325 0.408248
-0.173504 0.175086 0.639851
0.0890666 -0.0170221 0.387835
0.20386 0.119552 0.387835
-0.0648897 -0.0607564 0.408248
0.173504 0.201576 0.592711
-0.172491 -0.128723 0.387835
-0.151273 -0.174635 0.408248
-0.18882 -0.128384 0.253857
0.0627294 0.204124 0.682422
-0.170894 0.204124 0.764562
-0.204124 0.199 0.32767
0.190501 -0.00759853 0.387835
-0.0165237 -0.103317 0.387835
-0.173504 -0.186048 0.31301
0.150433 0.18882 0.714427
-0.0542946 0.155761 0.408248
-0.180493 -0.204124 0.354346
0.204124 0.183269 0.316368
-0.18882 0.11484 0.236501
0.204124 -0.201867 0.293181
-0.203238 0.0683327 0.387835
0.0614395 0.204124 0.733503
0.18882 -0.071123 0.219645
0.0800957 0.0422093 0.387835
0.00408885 0.18882 0.7412
0.173504 0.199895 0.155099
0.0349578 0.147445 0.408248
-0.0819137 -0.116129 0.408248
-0.0389501 -0.159381 0.408248
-0.181463 0.0364982 0.255158
-0.173504 -0.195867 0.281822
0.201851 0.173504 0.639464
-0.204124 0.178296 0.816302
-0.0226185 0.18882 0.761347
-0.0387984 -0.0510963 0.408248
0.0965188 -0.204124 0.395787
0.18882 0.0843366 0.254042
-0.179675 -0.204124 0.214138
0.204124 -0.183238 0.00985952
-0.203635 0.173504 0.34563
-0.0289444 0.0139426 0.387835
-0.109698 0.165487 0.387835
-0.176864 0.204124 0.128419
-0.116015 0.201996 0.387835
0.174045 0.173504 0.440243
0.0648519 0.0802015 0.387835
-0.0300468 0.0464664 0.408248
-0.173504 0.199601 0.462025
-0.134003 -0.0950328 0.408248
0.166532 -0.0538319 0.387835
0.127398 -0.170114 0.387835
-0.0965909 -0.0396677 0.408248
-0.173504 0.204092 0.289448
-0.177825 0.173504 0.106866
0.150019 0.0588039 0.387835
0.0945683 0.204124 0.693196
-0.18882 0.00494131 0.223688
0.193628 0.173504 0.604064
-0.204124 0.202558 0.651163
0.150763 0.0195767 0.408248
0.164064 -0.0887786 0.408248
0.202051 0.204124 0.302684
-0.204124 0.202683 0.0587421
-0.11679 0.204124 0.754278
0.167146 -0.140573 0.387835
0.149885 0.18882 0.786975
0.0796367 0.18882 0.735893
0.173504 -0.176095 0.273413
0.173515 0.204124 0.648425
-0.0329382 -0.198887 0.387835
0.10958 -0.0640801 0.408248
-0.0138953 -0.204124 0.398576
-0.1591 0.18882 0.73821
0.204124 0.202241 0.456167
-0.0166732 0.176847 0.408248
0.173504 -0.130206 0.225117
0.201738 0.204124 0.686929
-0.173504 0.186262 0.617341
0.133854 0.204124 0.646019
0.173504 -0.135189 0.25467
-0.185525 -0.204124 0.0599001
-0.050219 0.081666 0.387835
0.195652 -0.0530544 0.408248
-0.188047 -0.161638 0.204124
0.0945647 0.146977 0.408248
-0.173504 0.0941553 0.233702
-0.139746 -0.204124 0.407688
-0.173504 0.202352 0.403255
-0.0241889 0.199669 0.619184
-0.0459903 -0.0445416 0.387835
0.197035 0.173504 0.250954
0.118047 -0.00112486 0.408248
0.0710785 0.00245298 0.408248
0.122229 0.154424 0.387835
0.0216044 0.000745848 0.387835
-0.18882 -0.0156121 0.252122
-0.204124 -0.191789 0.00197785
-0.11199 -0.148337 0.387835
0.0740244 -0.0690537 0.387835
-0.11832 0.118523 0.408248
0.173504 0.0526486 0.225235
0.173504 -0.195504 0.144831
0.151629 0.199439 0.619184
0.173504 -0.173744 0.333284
-0.203435 0.204124 0.00828473
-0.119381 0.204124 0.627074
0.0386712 0.204124 0.64287
-0.100223 -0.0385723 0.387835
0.0918948 0.0848149 0.408248
-0.173719 0.204124 0.350985
-0.143203 0.0751233 0.408248
-0.0977026 0.201374 0.408248
-0.148509 0.18882 0.771897
-0.0448339 0.204124 0.670151
0.0989426 0.176134 0.408248
0.0388411 0.204124 0.710402
-0.156071 -0.1945 0.387835
-0.193062 -0.204124 0.108036
-0.0846419 -0.0907037 0.387835
-0.190262 -0.151611 0.387835
0.190114 -0.204124 0.227274
-0.195903 -0.168478 0.408248
-0.193493 0.173504 0.257022
0.194629 0.204124 0.234583
0.090252 0.204124 0.774154
-0.00604352 0.0646249 0.387835
-0.18882 -0.0287363 0.234573
-0.0251581 0.204124 0.777947
0.042 0.0847098 0.408248
0.18882 -0.0993135 0.227037
0.18882 -0.154924 0.226576
-0.173504 0.200621 0.0707404
0.13026 -0.0613547 0.387835
-0.113351 0.0461026 0.387835
-0.127774 0.18882 0.712193
-0.0814862 0.18882 0.690644
-0.197974 -0.031228 0.408248
-0.0327633 -0.128874 0.387835
-0.135456 0.0203587 0.408248
0.121676 0.203779 0.408248
0.0391024 0.173423 0.408248
-0.173504 0.170592 0.231958
-0.157191 0.204124 0.689886
0.192975 0.173504 0.49826
0.173504 0.177597 0.81397
0.142049 0.204124 0.695198
-0.173504 0.195599 0.216966
-0.18882 -0.0968127 0.22233
-0.125437 -0.165757 0.408248
-0.181382 0.204124 0.514926
0.0312285 0.204124 0.787764
-0.0403046 -0.114135 0.408248
0.0547122 0.178503 0.387835
-0.204124 0.197402 0.22283
0.00331752 0.190398 0.619184
-0.176718 0.204124 0.16571
0.127212 -0.175372 0.408248
-0.105365 0.18882 0.667711
-0.00247943 -0.0119639 0.408248
-0.180471 -0.130722 0.408248
-0.191812 0.101176 0.387835
0.187754 0.204124 0.174086
0.0789388 0.204124 0.659499
-0.204124 0.181405 0.434276
0.148711 0.150005 0.387835
0.199084 -0.124338 0.408248
-0.10651 0.204124 0.779286
-0.177522 0.0334346 0.387835
-0.175866 0.0389129 0.408248
0.170302 0.18882 0.732142
-0.0477769 -0.0208445 0.387835
-0.180746 0.202498 0.816497
-0.126916 0.18882 0.771775
0.173504 0.179021 0.0186539
0.0181506 0.204124 0.741087
-0.0106277 -0.179378 0.408248
-0.173504 -0.133494 0.238372
0.00859256 0.18882 0.693534
0.179768 0.204124 0.699461
0.201667 0.204124 0.528726
0.150215 0.144934 0.408248
0.173504 -0.175527 0.115013
-0.0371626 0.204124 0.722748
-0.198944 0.204124 0.394133
0.195022 -0.204124 0.345348
-0.195489 -0.204124 0.275547
-0.0599693 -0.0979529 0.408248
0.202346 0.173504 0.720321
0.0348887 -0.00475478 0.408248
-0.200155 0.0504035 0.408248
-0.18882 0.136815 0.212968
-0.181609 -0.204124 0.310754
-0.0638569 0.18882 0.634829
0.180699 0.173504 0.180973
0.0878437 -0.177856 0.387835
-0.169306 0.0893288 0.408248
0.0759827 0.0621819 0.408248
0.166314 0.0475532 0.408248
-0.0120599 -0.0718873 0.408248
-0.0744816 0.0454478 0.408248
-0.173504 -0.0648945 0.212627
-0.135104 0.204124 0.749507
-0.0198457 0.18882 0.660278
0.113049 -0.088614 0.387835
-0.175304 -0.173086 0.408248
0.191318 0.109424 0.408248
0.18651 -0.0579143 0.204124
-0.0155867 -0.0839081 0.387835
0.191095 -0.107051 0.387835
-0.173621 0.204124 0.004221
-0.0788857 0.133224 0.387835
-0.204124 -0.174877 0.341564
0.18882 0.100807 0.229231
0.122236 0.204124 0.761049
-0.174827 0.0581779 0.387835
-0.00188778 0.0972235 0.387835
0.115501 -0.105611 0.408248
0.072262 -0.115118 0.408248
0.180401 0.103078 0.387835
-0.155112 0.18882 0.715736
-0.204124 -0.112566 0.403716
0.160882 0.204124 0.769934
0.0396264 -0.130878 0.408248
-0.0803474 -0.0227004 0.387835
-0.20383 0.173504 0.19521
0.173504 0.188888 0.339258
0.186836 0.173504 0.392073
0.18882 0.131903 0.244004
0.173504 0.177802 0.58436
-0.0495231 -0.204124 0.392181
0.173504 -0.18788 0.261409
0.0631097 -0.107636 0.387835
-0.204124 0.175801 0.546914
0.173504 -0.175275 0.374288
-0.187739 -0.0540011 0.387835
-0.0801629 0.18882 0.76696
-0.156887 -0.0564624 0.387835
0.159483 0.203902 0.387835
0.186947 -0.153329 0.255158
-0.0706622 0.197425 0.387835
-0.204124 -0.173578 0.030852
0.174806 0.173504 0.683761
0.0995514 0.118716 0.408248
0.0728539 -0.0259674 0.408248
-0.199399 -0.204124 0.375217
0.0887869 0.18882 0.715359
0.181036 0.173504 0.161347
0.161821 -0.186528 0.387835
-0.175199 -0.101629 0.255158
-0.149366 -0.0462942 0.408248
-0.0817807 0.204124 0.654293
-0.168655 0.18882 0.690342
0.193336 0.0655235 0.387835
-0.193915 0.173504 0.704545
-0.0651824 0.0555649 0.387835
0.201545 0.173504 0.558977
0.0124364 0.0687486 0.387835
0.204124 -0.189213 0.134848
-0.0769237 0.0103292 0.387835
-0.000921547 -0.185353 0.387835
-0.19438 0.173504 0.528125
0.0885129 0.101029 0.387835
0.147599 0.204124 0.664796
-0.18882 0.0396375 0.238452
0.204124 0.173757 0.0575144
-0.202795 0.142891 0.387835
0.0481457 0.18882 0.629749
0.203781 -0.204124 0.184666
-0.194954 -0.098714 0.387835
0.0646425 0.204124 0.390526
0.000992343 0.204124 0.69589
0.173504 0.0347792 0.217777
0.097298 -0.129297 0.387835
0.137378 -0.127543 0.387835
-0.0926196 0.155154 0.387835
-0.158448 0.191165 0.789282
0.117267 -0.0290587 0.387835
-0.195793 0.173504 0.759891
0.136006 0.18882 0.733791
0.204124 0.183423 0.278092
-0.0254701 0.162315 0.387835
-0.0588785 -0.0375702 0.408248
0.00129214 -0.110401 0.408248
-0.179475 0.204124 0.612877
0.175351 0.204124 0.411906
0.0505538 0.00687462 0.387835
-0.178729 0.204124 0.559834
0.18434 0.173504 0.474789
0.0572362 0.204124 0.646078
-0.110395 -0.204124 0.390501
-0.190756 -0.204124 0.191936
-0.204124 0.17368 0.304668
0.173504 0.182752 0.0670648
0.204124 0.177687 0.671386
-0.201579 0.173504 0.642433
0.204124 0.161406 0.406125
0.173504 0.17943 0.28548
0.0658658 -0.04724 0.408248
0.204124 0.192852 0.768419
0.0693573 -0.161193 0.387835
0.204124 0.184088 0.124904
-0.149361 0.157637 0.387835
0.0106987 0.0258899 0.387835
-0.0732854 -0.139242 0.387835
-0.204124 0.122368 0.393739
-0.185449 -0.0124143 0.387835
0.173504 0.200554 0.371218
-0.136758 0.18882 0.686951
-0.0470468 -0.00485958 0.408248
0.204124 0.201425 0.800545
0.0275097 -0.0333743 0.408248
-0.193335 -0.189157 0.408248
-0.173504 0.147647 0.20458
-0.12307 -0.102184 0.387835
-0.0151957 -0.152363 0.408248
-0.152615 -0.126943 0.387835
-0.0140315 -0.0583177 0.387835
-0.144133 0.204124 0.642713
-0.204124 -0.195879 0.0636189
-0.204124 0.186812 0.159838
0.174806 0.204124 0.106937
-0.0183822 0.201498 0.387835
-0.173504 0.190945 0.0475993
-0.173504 -0.184733 0.145463
0.157887 0.113545 0.408248
-0.184638 0.173504 0.486466
0.112749 0.104013 0.387835
-0.021102 0.128905 0.408248
-0.18882 -0.118586 0.205458
0.173504 -0.108068 0.232305
-0.105684 -0.0674179 0.408248
-0.155409 -0.106095 0.408248
-0.173504 0.181295 0.302935
-0.173504 -0.15665 0.216216
0.0878232 0.204124 0.749806
-0.0211175 0.0338345 0.387835
-0.196366 -0.204124 0.332505
-0.204124 0.184166 0.273158
0.0236227 0.158888 0.387835
-0.0163838 -0.0518075 0.408248
-0.189671 0.173504 0.0169718
-0.128528 0.176341 0.408248
-0.0546229 -0.1765 0.408248
-0.204124 0.197872 0.491509
0.173504 -0.0369899 0.223504
0.168119 0.18882 0.665651
-0.0344763 0.109775 0.387835
0.10487 0.18882 0.686296
0.184619 -0.173504 0.168416
0.204124 -0.175963 0.29712
0.116573 0.204124 0.788161
-0.204124 0.196693 0.571706
0.182231 0.204124 0.04491
-0.103403 0.0812906 0.387835
0.148811 -0.0790927 0.387835
-0.0857118 0.204124 0.699712
-0.173547 -0.173504 0.27849
0.0986101 0.18882 0.653251
-0.173504 -0.181052 0.247367
0.084524 -0.170696 0.408248
0.202461 -0.204124 0.269234
-0.202574 -0.204124 0.177245
-0.0114751 -0.0966617 0.408248
0.173504 -0.0927875 0.218488
0.0633152 -0.204124 0.405785
0.0651463 -0.0928137 0.408248
-0.0602394 0.174394 0.387835
-0.182332 0.204124 0.664856
0.197264 -0.193176 0.408248
-0.0551364 0.0999695 0.408248
0.173504 0.190273 0.789993
-0.173504 0.202095 0.74127
-0.194554 0.204124 0.727534
-0.18882 0.0303532 0.208372
-0.204124 0.181814 0.738041
-0.173504 0.188212 0.658627
0.173504 0.187626 0.247764
0.18882 -0.054098 0.236
0.173504 -0.0825131 0.233918
0.18882 0.167249 0.223848
-0.00177152 0.0175341 0.408248
-0.187132 0.173504 0.399489
0.177137 -0.173504 0.220452
0.204124 0.198399 0.341148
0.0267545 -0.0772414 0.408248
-0.0373098 0.18882 0.74066
-0.176031 0.173504 0.254489
0.18882 -0.0167663 0.244728
0.173504 -0.202588 0.37483
-0.184081 0.151739 0.387835
-0.204124 0.00872368 0.392115
-0.137751 0.204124 0.66931
-0.195799 -0.173504 0.17314
-0.178703 0.142209 0.408248
0.0450183 -0.150262 0.387835
0.173504 0.095434 0.248865
-0.153343 -0.0183839 0.387835
0.187744 -0.204124 0.133104
0.18882 -0.0161497 0.207638
0.204124 0.197308 0.739646
-0.173504 0.180672 0.707713
0.173611 -0.204124 0.0223026
-0.167466 -0.150507 0.408248
0.0332253 0.204124 0.765089
0.0715958 -0.140112 0.387835
-0.195631 -0.173504 0.290625
-0.18882 0.137522 0.242708
-0.0772978 0.151595 0.408248
0.204124 0.17902 0.171592
-0.0920834 -0.165888 0.408248
0.175366 0.204124 0.439588
-0.114974 0.192389 0.408248
0.0764056 0.204124 0.403179
-0.173504 -0.174104 0.327595
0.0657183 -0.179157 0.387835
-0.095487 0.117651 0.387835
0.103558 0.149351 0.387835
-0.181889 -0.0196801 0.204124
-0.186565 0.204124 0.334211
-0.0422978 -0.112929 0.387835
0.108172 0.18955 0.619184
0.108207 -0.140633 0.408248
-0.204124 0.195209 0.031262
0.176577 0.0261831 0.255158
0.141953 0.0548974 0.408248
0.103502 0.179505 0.387835
-0.171745 -0.084659 0.408248
0.204124 0.189682 0.0983835
0.0513072 0.129408 0.387835
0.200934 -0.173504 0.253096
0.173504 -0.00586462 0.253243
0.0605485 0.166688 0.408248
0.204124 0.182031 0.389694
0.175274 0.204124 0.505631
0.011842 0.204124 0.38832
-0.00522465 0.203377 0.789282
0.120157 -0.042728 0.408248
0.193478 0.204124 0.668515
-0.18882 0.086982 0.230588
-0.115878 0.204124 0.713109
0.196979 0.204124 0.477035
0.173504 0.187078 0.124763
-0.0648062 0.18882 0.676151
0.0411426 -0.109999 0.387835
0.191489 -0.173504 0.129015
0.189674 -0.204124 0.385282
-0.179834 -0.173504 0.230539
-0.185249 0.0188451 0.408248
0.186861 -0.173504 0.0397961
-0.0757001 -0.0744476 0.387835
0.0152929 0.138665 0.387835
0.173504 0.173979 0.738597
-0.0838212 0.106287 0.408248
-0.0327948 -0.153681 0.387835
0.197109 -0.173504 0.0693124
0.164852 0.18882 0.770594
0.0987781 0.030642 0.387835
-0.0827059 0.0633635 0.408248
-0.144476 0.0644231 0.387835
0.173504 -0.181991 0.19829
0.178061 0.204124 0.719735
0.173504 -0.147377 0.217733
0.175663 0.0693503 0.255158
-0.0579356 0.0596465 0.408248
0.199952 -0.173504 0.214421
-0.0192522 0.190667 0.789282
-0.176011 0.0700968 0.204124
-0.204124 0.183643 0.592896
0.18882 0.0733408 0.217404
0.173504 -0.185432 0.236421
-0.0938225 0.18882 0.649847
0.204124 -0.00566061 0.399592
0.0272088 0.18882 0.700681
0.173504 0.178873 0.520147
-0.0427052 0.0612099 0.387835
-0.173504 -0.186922 0.188002
0.0969983 -0.0692178 0.387835
0.185439 0.173504 0.207568
0.204124 -0.0920507 0.39446
0.198817 0.173504 0.358075
0.0744434 -0.0709815 0.408248
0.171548 0.20374 0.619184
-0.100775 -0.104819 0.387835
-0.173049 0.180235 0.408248
-0.113633 -0.0862002 0.408248
0.204124 -0.19259 0.312649
0.0363698 0.198569 0.408248
-0.173504 -0.191452 0.265882
0.0730597 0.18882 0.664479
0.111329 -0.202764 0.408248
0.0224192 -0.0810731 0.387835
-0.204124 0.197344 0.673057
0.158505 0.101024 0.387835
-0.204124 0.200144 0.630167
-0.204124 -0.175031 0.363026
-0.0912465 -0.0637803 0.387835
0.175025 0.163156 0.255158
-0.171447 -0.104329 0.387835
0.135662 0.0787179 0.408248
0.199102 0.204124 0.367608
0.190073 -0.204124 0.0485827
-0.116207 0.18882 0.692116
-0.0456874 0.175148 0.408248
0.0652065 0.144777 0.387835
-0.173504 0.0184876 0.210366
0.204124 -0.180798 0.0305717
-0.11922 0.182243 0.387835
0.182521 0.173504 0.308894
0.0430254 0.0400741 0.408248
0.117222 -0.152702 0.387835
-0.204124 0.178174 0.492047
0.0525733 0.18882 0.747994
-0.147659 -0.0733252 0.387835
-0.18882 0.0646287 0.253915
-0.185434 -0.204124 0.125431
-0.191961 -0.204124 0.0800941
0.114409 0.156518 0.408248
0.11291 -0.00136995 0.387835
0.180257 0.204124 0.293049
-0.126167 -0.163914 0.387835
-0.00768061 -0.152025 0.387835
-0.20343 -0.204124 0.221572
0.173504 0.0229844 0.235004
0.00105181 0.0346622 0.408248
0.184411 -0.204124 0.0998646
-0.0499836 0.204124 0.739712
0.183389 0.173504 0.00369641
-0.186247 0.173504 0.125968
-0.130006 0.164972 0.387835
0.114778 0.0648966 0.387835
-0.173504 -0.0928872 0.238427
-0.128638 -0.186962 0.408248
0.177923 -0.0340338 0.387835
-0.204124 0.204043 0.448381
0.184456 0.0575715 0.408248
-0.204124 -0.184169 0.138752
0.204124 0.180761 0.513671
-0.173504 0.0324761 0.230029
0.156986 -0.0368195 0.408248
-0.187089 -0.0558573 0.204124
0.0297198 0.0463578 0.387835
-0.173504 -0.126316 0.217628
0.0164851 0.107292 0.408248
-0.173504 -0.20339 0.10197
0.187831 -0.177038 0.387835
0.173504 -0.187997 0.050121
0.173504 0.124645 0.254937
-0.173504 0.184745 0.167983
-0.204124 0.173575 0.0605445
0.135458 0.18882 0.702802
-0.173504 -0.191224 0.379019
-0.204124 -0.189234 0.282199
0.024187 0.061132 0.408248
-0.204124 -0.188889 0.260813
-0.042785 0.126554 0.387835
0.0999674 0.18882 0.737799
0.0014033 0.18467 0.408248
0.173504 -0.179339 0.0799287
-0.173325 0.18882 0.76047
0.173504 0.18071 0.322953
-0.196884 -0.173504 0.0729931
-0.180971 0.173504 0.0501801
-0.197703 -0.173504 0.215164
0.0660847 0.189959 0.704233
-0.119295 0.18882 0.643241
0.128182 0.0163113 0.408248
0.184696 0.204124 0.204985
0.173664 -0.193899 0.408248
0.158354 0.204124 0.704337
-0.192898 0.173504 0.14907
-0.00126807 -0.119124 0.387835
-0.176536 0.204124 0.534235
-0.104263 0.18882 0.723002
-0.118948 0.0339299 0.408248
0.203768 0.00985865 0.387835
0.105693 -0.160616 0.408248
0.0526447 0.204124 0.788646
-0.204124 -0.150598 0.405995
-0.166296 0.204124 0.648928
0.18882 -0.14857 0.208286
0.18882 0.125186 0.22648
0.138694 0.105773 0.408248
-0.0939343 0.000284821 0.387835
0.127996 -0.150331 0.408248
-0.11706 -0.0532908 0.387835
0.189797 0.173504 0.694756
0.204124 0.204118 0.0856697
0.070959 -0.0122793 0.387835
0.0641044 -0.0915374 0.387835
-0.0692795 0.18882 0.704483
-0.173504 0.183736 0.790711
-0.0336885 -0.131238 0.408248
0.204124 0.201839 0.144693
0.176588 -0.109642 0.204124
0.104459 0.200362 0.387835
0.12813 0.18882 0.755436
-0.132183 -0.00260846 0.408248
0.0273392 -0.160135 0.387835
-0.204124 0.189578 0.454859
0.0781791 0.0606061 0.387835
-0.116765 0.0874264 0.408248
0.191464 -0.0159016 0.408248
-0.00226957 -0.0101161 0.387835
-0.176748 -0.173504 0.117424
-0.0281892 -0.18054 0.387835
-0.0239518 0.18882 0.72785
-0.204124 0.199103 0.376208
-0.188384 -0.173504 0.156712
-0.00218824 0.090363 0.408248
0.173675 0.204124 0.573748
-0.0883388 -0.0594128 0.408248
0.0494099 -0.198021 0.387835
0.15903 0.186063 0.408248
0.173504 -0.0760939 0.210731
0.153084 -0.124131 0.408248
0.0962875 0.0654285 0.408248
-0.177602 0.204124 0.444041
0.0553762 0.199743 0.704233
0.173504 0.0167273 0.213626
-0.0150443 0.11937 0.387835
-0.173504 0.17827 0.564463
-0.127187 -0.108399 0.408248
0.182079 0.138093 0.387835
-0.063508 0.0236782 0.387835
0.00727119 -0.0353206 0.387835
-0.0434966 0.18882 0.65283
-0.0838604 0.06397 0.387835
-0.165801 0.139003 0.387835
0.022076 -0.0950442 0.408248
0.0586756 0.0194599 0.408248
0.173504 0.139222 0.232638
-0.176399 -0.0500866 0.408248
0.18882 0.0234315 0.242017
0.118201 -0.134027 0.387835
-0.18882 -0.121849 0.224253
0.0664559 0.18882 0.624908
-0.076231 -0.16605 0.387835
0.0597554 0.204124 0.663993
-0.196196 0.173504 0.447951
-0.056831 -0.19788 0.408248
0.188625 0.15615 0.204124
-0.187357 -0.186635 0
-0.0839396 -0.202088 0.408248
-0.046172 -0.0703838 0.408248
0.189208 0.173504 0.62565
-0.17268 0.203482 0.704233
0.0837243 0.143493 0.387835
0.204124 0.183875 0.457842
0.18882 0.0567025 0.209514
-0.204124 0.189877 0.612571
0.188369 -0.034592 0.255158
0.113641 0.0864604 0.408248
0.173504 0.176946 0.459682
0.0156471 -0.193288 0.387835
-0.174668 0.204124 0.683314
-0.143414 -0.114391 0.387835
-0.173504 0.189263 0.391663
-0.101715 0.110811 0.408248
-0.18882 0.166746 0.218051
0.18882 -0.0420004 0.216679
-0.128418 -0.0727346 0.387835
-0.191041 0.204124 0.762275
0.105812 -0.174507 0.387835
-0.143134 0.18882 0.746857
-0.08825 0.0123862 0.408248
0.169502 0.18882 0.755275
-0.159694 0.196203 0.408248
-0.0162265 0.0730815 0.408248
-0.122067 0.204124 0.406314
-0.0638318 0.204124 0.644608
-0.090208 0.204124 0.761751
-0.176341 -0.0889909 0.204124
-0.16579 0.18882 0.675033
-0.185873 0.204124 0.053066
-0.173504 0.17382 0.00877266
-0.18882 -0.0735207 0.221945
-0.0752525 0.204124 0.677068
0.0117947 0.204124 0.773943
-0.202048 0.173504 0.415595
-0.0298992 -0.0235595 0.387835
0.0720442 0.00584394 0.387835
-0.0785868 -0.0380345 0.408248
0.11586 0.204124 0.648419
-0.108415 0.0634827 0.387835
-0.00860506 -0.0289558 0.408248
0.185509 -0.0740575 0.387835
0.0345106 -0.0579694 0.387835
-0.163132 0.152258 0.408248
-0.0703157 0.168229 0.408248
-0.18882 0.0496345 0.206034
0.173504 0.188369 0.0983127
0.0297965 0.18882 0.659483
-0.173776 -0.0665982 0.255158
0.175675 0.049092 0.204124
0.18882 -0.121851 0.229416
0.00831336 0.18882 0.723735
0.173504 -0.197567 0.316466
0.0298737 -0.131512 0.387835
-0.0519806 0.18882 0.693879
0.204124 0.186309 0.298695
0.173504 -0.18944 0.297162
-0.173504 0.185381 0.244064
0.190884 0.184821 0.816497
0.142297 0.189582 0.408248
0.173504 -0.185722 0.129865
0.0793471 0.198927 0.619184
-0.204124 0.181809 0.365051
0.0295808 -0.174735 0.408248
-0.0519392 0.203787 0.387835
-0.197541 -0.191895 0.387835
-0.0259585 0.196381 0.704233
0.167224 -0.0523055 0.408248
0.0473318 -0.0884459 0.408248
0.204124 -0.19271 0.255678
-0.204124 0.177706 0.328358
-0.0430186 0.204124 0.62168
0.204124 0.197348 0.411969
0.18882 -0.00778273 0.227386
-0.18538 -0.204124 0.0124485
0.204124 0.184783 0.0375544
-0.152941 0.204124 0.710285
0.146899 -0.176945 0.387835
-0.0371159 0.204124 0.764858
0.0415978 0.204124 0.744824
0.136232 0.18882 0.629762
-0.182965 0.204124 0.274477
0.191245 0.173504 0.544437
0.204124 0.188536 0.259475
0.190906 -0.173504 0.111333
-0.149483 0.0085512 0.408248
0.204124 0.196197 0.0219175
0.045219 0.204124 0.691197
0.106686 0.204124 0.763545
0.20134 0.141825 0.408248
0.173504 0.186694 0.382707
-0.192393 0.204124 0.17996
0.18882 0.129649 0.209614
0.18882 -0.136275 0.219063
0.204124 -0.200631 0.237247
0.173504 0.0751523 0.232972
-0.0392367 0.18882 0.71443
-0.182093 0.204124 0.476634
0.188403 -0.173504 0.266317
-0.136571 -0.00290212 0.387835
-0.18882 -0.0327932 0.25356
-0.0946281 -0.150482 0.387835
0.166485 -0.158311 0.408248
-0.0183042 0.0510384 0.387835
0.165468 0.00590318 0.408248
-0.155584 0.18882 0.629345
-0.000473693 0.204124 0.660857
-0.204124 0.179156 0.213291
0.195112 -0.174004 0.408248
-0.173504 -0.20055 0.0504945
0.204124 0.192702 0.540858
-0.0981991 -0.190608 0.387835
-0.141214 0.035932 0.408248
0.191066 0.204124 0.251601
-0.18738 -0.204124 0.29437
-0.18882 0.0997849 0.215487
-0.188298 0.173504 0.237136
-0.173504 0.158931 0.220741
-0.0770421 -0.11352 0.387835
-0.189036 -0.0859688 0.408248
0.173504 0.187583 0.00157788
0.17675 -0.0855107 0.255158
0.204124 -0.180541 0.187383
0.20191 0.0332995 0.387835
0.18882 0.149033 0.241831
0.189397 -0.204124 0.197096
0.203164 0.204124 0.181892
-0.114791 -0.204124 0.407203
-0.204124 0.140831 0.40558
0.136709 0.204124 0.751803
0.173504 -0.202741 0.246429
-0.173504 0.131748 0.250458
-0.173504 -0.201565 0.153812
-0.173504 0.174908 0.605122
0.00999421 0.204124 0.756882
-0.131025 -0.149546 0.408248
0.203209 0.173504 0.0893102
-0.0134308 0.204124 0.709346
0.17679 0.173504 0.755383
-0.105045 0.158472 0.408248
0.189786 0.173504 0.519501
-0.191321 0.065034 0.408248
0.143025 -0.0934426 0.408248
-0.204124 0.173207 0.393729
-0.115201 0.204124 0.736616
-0.204124 0.106484 0.398725
0.167011 0.0585942 0.387835
-0.0797996 -0.0992895 0.408248
0.155807 -0.171502 0.408248
-0.118507 0.138097 0.408248
0.181879 -0.204124 0.297875
0.196499 -0.173504 0.373749
-0.00826143 0.187959 0.387835
-0.0122693 0.18882 0.747989
-0.187049 0.173504 0.363707
0.010084 -0.172544 0.387835
-0.105562 0.204124 0.691081
-0.0419247 0.204124 0.690284
-0.0254104 0.193599 0.408248
-0.173504 0.195731 0.151428
0.1938 -0.173504 0.145711
-0.137151 0.117138 0.387835
0.173504 -0.0675505 0.245467
-0.18882 -0.012064 0.230387
0.173504 -0.017126 0.214467
-0.188723 -0.125376 0.387835
0.173504 0.1792 0.197393
-0.173504 -0.135127 0.254844
-0.173504 0.191126 0.34092
-0.198402 -0.173504 0.315861
0.1415 0.18882 0.771276
0.163738 0.129202 0.408248
-0.0401439 0.170312 0.387835
-0.134348 0.13647 0.387835
-0.0367917 0.137334 0.408248
0.00751324 0.204124 0.680862
-0.173504 0.0971989 0.250123
-0.0493771 -0.161775 0.387835
-0.187687 0.173504 0.548565
0.187505 0.204124 0.385868
-0.173504 0.182025 0.724106
0.18882 0.0927762 0.214621
0.173504 0.183795 0.537869
-0.122018 0.18882 0.667622
-0.0722497 0.18882 0.750074
0.0833905 -0.102078 0.408248
-0.0556936 0.13921 0.408248
0.140552 0.102656 0.387835
-0.0299505 -0.101011 0.408248
-0.0278065 -0.0666688 0.408248
0.18882 -0.112326 0.214993
-0.160656 0.0680446 0.387835
0.173504 0.187553 0.175897
0.204124 0.10334 0.39824
0.0408029 0.0586596 0.387835
0.204124 -0.196949 0.149484
0.134018 0.0493838 0.387835
0.204124 -0.0314183 0.390218
-0.173504 0.18831 0.507103
-0.173504 -0.0780544 0.222636
-0.11941 0.193408 0.789282
-0.190628 0.204124 0.0806562
-0.0572776 -0.0914081 0.387835
-0.0919054 0.0998177 0.387835
-0.204124 0.179505 0.629871
0.0734194 0.204124 0.643025
0.0565899 -0.120177 0.408248
-0.111806 0.119828 0.387835
-0.19756 0.204124 0.517963
-0.120787 0.204124 0.770242
-0.137192 -0.0275583 0.408248
-0.0101651 0.0214165 0.387835
0.0598102 0.0651517 0.408248
0.186675 0.204124 0.552869
0.204124 -0.20314 0.212388
-0.204124 -0.198235 0.31769
0.130675 0.15873 0.408248
-0.177894 -0.013766 0.408248
-0.18882 0.129091 0.228367
-0.0840315 0.18128 0.387835
0.0214079 0.15669 0.408248
0.173504 -0.112557 0.251578
-0.121951 0.087775 0.387835
-0.0658031 0.18882 0.774847
0.147845 -0.116604 0.387835
0.189354 -0.204124 0.364723
-0.204124 0.0307129 0.405134
-0.204124 0.190923 0.17566
-0.146344 0.0537986 0.408248
-0.18882 -0.0994655 0.205358
0.204124 0.191945 0.632623
-0.0291819 0.188032 0.387835
-0.0952212 -0.0799413 0.408248
0.129525 0.204124 0.677013
-0.202466 -0.134526 0.408248
-0.173504 -0.00324148 0.226988
0.181737 0.204124 0.631897
-0.164656 0.130766 0.408248
-0.204124 -0.0444697 0.401041
0.0962547 -0.107729 0.387835
-0.18703 0.173504 0.298331
0.201015 0.200843 0.816497
0.172881 0.0282205 0.387835
0.173504 -0.0285129 0.241695
-0.186519 -0.173504 0.245641
-0.188744 0.045124 0.387835
0.173504 0.113554 0.211065
0.18302 0.204124 0.470011
0.188328 0.204124 0.496072
0.203703 -0.141547 0.408248
0.185122 0.204124 0.734179
0.0316408 0.204124 0.728146
0.18865 0.173504 0.120266
0.191559 -0.173504 0.00724088
0.00696623 -0.0330269 0.408248
0.152569 0.18882 0.664475
-0.0265999 0.0647858 0.387835
-0.15426 -0.122109 0.408248
0.204124 -0.0770518 0.400163
0.203401 -0.173504 0.0845802
-0.102541 -0.120907 0.387835
0.180953 0.173504 0.418926
-0.18882 -0.136082 0.239788
-0.173504 -0.191617 0.235905
-0.174189 -0.173504 0.0293005
-0.185429 0.173504 0.804422
0.149096 0.0108357 0.387835
0.143758 -0.137153 0.408248
0.0642399 0.0962022 0.387835
0.0946993 0.18882 0.772608
0.0986533 0.204124 0.648244
-0.173504 0.184253 0.0621341
-0.201791 -0.204124 0.137098
0.173504 -0.186263 0.0298821
-0.173545 -0.114075 0.204124
0.0376896 -0.0419153 0.387835
-0.00667365 0.18882 0.76295
0.131125 0.168937 0.387835
-0.125759 -0.204124 0.394849
-0.0611112 -0.113871 0.408248
-0.0210533 0.204124 0.664607
-0.0819117 0.204124 0.737357
0.18575 -0.204124 0.00236674
0.154893 0.204124 0.714171
-0.173504 0.174145 0.468028
-0.204124 0.184169 0.651641
-0.0905976 -0.0133124 0.408248
-0.139316 0.204124 0.764869
-0.173504 -0.0275647 0.215127
-0.0533276 0.204124 0.761453
0.183661 0.204124 0.682134
-0.0477265 0.0362077 0.408248
0.173504 0.177289 0.404191
-0.18691 0.204124 0.216371
0.173504 0.182211 0.488982
0.104392 0.128076 0.387835
-0.18882 0.0175425 0.243068
-0.115808 -0.0356838 0.387835
0.204124 -0.194513 0.358684
-0.196967 0.204124 0.357703
-0.0814356 0.204124 0.622764
-0.0731199 0.114313 0.387835
0.126848 -0.204124 0.405452
0.0217324 0.204124 0.405999
0.173504 0.198005 0.0605205
-0.0785688 0.18882 0.629064
-0.204124 0.200544 0.311953
-0.173504 -0.113344 0.236116
0.204124 0.0681692 0.39993
-0.185956 0.173504 0.179105
0.0702029 -0.12441 0.387835
-0.00306334 -0.162426 0.408248
0.112446 0.0170317 0.408248
-0.115204 -0.177732 0.408248
-0.127894 -0.142163 0.387835
-0.187957 0.204124 0.572582
-0.113334 -0.116134 0.408248
0.204124 0.194257 0.600055
-0.198831 0.204124 0.608496
-0.0831212 -0.142297 0.408248
-0.00665747 0.164781 0.408248
0.18882 -0.0349073 0.239489
-0.178617 0.173504 0.759785
-0.191574 -0.204124 0.231825
0.0973659 0.192606 0.789282
0.0492169 0.140968 0.408248
-0.0647254 -0.0220468 0.387835
-0.0811284 0.165921 0.387835
-0.138553 0.204124 0.706258
-0.18882 -0.109242 0.254748
0.043226 0.167937 0.387835
0.204124 -0.146723 0.390697
-0.0176582 0.00318015 0.387835
-0.173504 -0.145861 0.227474
0.16898 0.18882 0.648783
0.00321582 -0.0540126 0.387835
0.179042 -0.0930952 0.408248
0.186433 0.173504 0.641627
-0.140057 0.0173762 0.387835
-0.0819892 0.121739 0.408248
-0.0490332 -0.126943 0.387835
0.138051 0.0687255 0.387835
0.15221 0.204124 0.785548
-0.0847473 -0.200437 0.387835
-0.19496 0.204124 0.119825
-0.0203585 -0.119517 0.387835
0.0479616 -0.0395219 0.408248
-0.173504 -0.198599 0.201002
-0.173504 0.203484 0.778065
-0.0184978 -0.193836 0.387835
0.111309 -0.204124 0.391093
-0.100794 0.18882 0.693898
-0.173504 0.105606 0.222015
0.18882 0.0623924 0.228389
0.173504 0.202744 0.544864
-0.204124 0.176325 0.715824
-0.173504 -0.191095 0.327636
0.204124 0.196305 0.00480553
-0.204124 0.181071 0.00409771
-0.00693804 0.18882 0.726289
0.114581 0.168726 0.387835
-0.173504 0.189369 0.44213
0.14791 -0.0546737 0.387835
0.158924 0.188481 0.387835
0.185762 0.173504 0.0523456
-0.0425641 0.204124 0.78456
-0.19349 0.173504 0.1106
-0.107256 0.0170402 0.408248
-0.117733 0.18882 0.626335
-0.173504 0.189218 0.130372
-0.192752 -0.068556 0.387835
-0.173504 0.113343 0.236891
-0.173504 -0.199003 0.0679915
-0.0585039 -0.0222101 0.408248
-0.0874916 0.18882 0.720853
0.148991 -0.137583 0.387835
0.0282617 0.0145906 0.387835
0.196067 0.127203 0.408248
0.176619 0.204124 0.0298248
0.0779193 0.10021 0.408248
0.189831 0.204124 0.18947
-0.173504 -0.169534 0.205442
-0.144 0.18882 0.673436
0.174439 -0.000986814 0.387835
-0.173504 0.204049 0.387629
-0.17485 -0.173504 0.344652
0.105077 0.202982 0.704233
0.124034 -0.0152766 0.387835
0.173504 0.188977 0.438414
0.0957408 0.0456391 0.387835
-0.0203574 0.10388 0.387835
-0.204124 -0.194531 0.0170272
-0.197796 -0.173504 0.19698
0.204124 0.183301 0.65718
-0.047951 0.190251 0.408248
-0.0451165 0.0988256 0.387835
-0.188917 0.173504 0.690126
0.18882 -0.13366 0.251076
-0.173504 -0.198175 0.296902
-0.0216267 -0.114037 0.408248
0.175678 0.173504 0.0336643
-0.0690264 -0.181151 0.387835
-0.124325 0.102835 0.387835
-0.204124 0.189986 0.194559
0.173504 0.18337 0.301574
0.179835 -0.0608503 0.408248
-0.173504 0.18933 0.000592326
0.133326 -0.0762668 0.387835
-0.181092 -0.204124 0.269542
-0.174387 -0.173504 0.00523244
0.103545 0.19062 0.408248
0.193514 0.173504 0.372317
-0.18882 -0.0444515 0.229074
0.204124 -0.174587 0.170852
0.134333 0.198722 0.789282
-0.154621 -0.204124 0.404657
0.18882 0.0862966 0.233589
0.204124 -0.11428 0.390574
-0.137664 0.191564 0.387835
-0.148606 -0.189537 0.408248
-0.0254139 -0.198976 0.408248
-0.197759 -0.204124 0.207566
0.0673068 0.18882 0.744692
-0.18882 -0.00779104 0.215599
0.00223972 0.204124 0.628831
0.0824903 0.192592 0.408248
-0.204124 0.180486 0.250339
0.18384 0.0831938 0.204124
0.0428227 0.198138 0.619184
0.0136353 0.0537378 0.387835
-0.108105 -0.0493727 0.408248
0.0291784 0.144487 0.387835
0.0704534 0.127045 0.387835
0.204124 0.18231 0.610302
0.173504 -0.150435 0.248384
0.0817912 -0.0548265 0.387835
-0.129125 0.204124 0.643786
0.204124 0.182444 0.737392
0.0333919 -0.0913377 0.387835
0.0738199 0.204124 0.742015
0.089439 -0.187252 0.408248
-0.197363 0.158745 0.387835
-0.153349 0.0861893 0.408248
0.0593623 -0.0658371 0.387835
-0.173504 -0.189712 0.0954177
0.127512 0.0942831 0.387835
-0.0351156 0.18882 0.665266
0.154031 0.204124 0.756609
0.125912 0.139921 0.387835
-0.0228511 0.059584 0.408248
0.186581 0.196252 0
-0.0170906 0.204124 0.647369
0.189306 0.173504 0.43348
0.17927 0.204124 0.276143
0.204124 0.191615 0.676706
0.183091 -0.127693 0.408248
-0.00240305 -0.204124 0.389106
0.119203 0.18882 0.718971
0.176563 0.173504 0.607527
0.175489 0.204124 0.334901
-0.173504 0.183333 0.208574
-0.159074 0.18882 0.753072
0.123893 0.18882 0.784893
-0.174166 -0.0288472 0.255158
-0.143887 -0.18601 0.387835
-0.165178 0.198416 0.619184
0.055741 -0.0257424 0.387835
0.187847 0.204124 0.159265
-0.0304656 0.0247583 0.408248
-0.204124 -0.179242 0.00986448
-0.0764783 0.0934144 0.408248
-0.198242 0.173504 0.0932163
-0.0430374 0.204124 0.655446
-0.197488 -0.204124 0.00677835
0.0534346 0.204124 0.766402
-0.204124 -0.0136424 0.398391
0.124103 -0.0613223 0.408248
-0.10045 0.142623 0.387835
0.194401 -0.188388 0
-0.173504 0.184178 0.366063
-0.186813 0.204124 0.455589
0.0255833 -0.157251 0.408248
0.181647 -0.0197543 0.387835
0.173504 0.184758 0.145656
0.0437528 0.18882 0.76601
0.021322 -0.0183407 0.387835
0.194997 -0.204124 0.0138435
-0.0989458 0.203188 0.704233
0.0272044 0.0760284 0.408248
0.0867472 0.000118226 0.408248
-0.198648 0.173504 0.133914
-0.177866 0.173504 0.623259
0.13918 -0.011034 0.408248
0.163883 0.204124 0.631729
0.168828 -0.075453 0.387835
0.121667 -0.188984 0.408248
-0.173504 -0.203201 0.133958
-0.0308298 0.13508 0.387835
-0.0406167 0.0924098 0.408248
-0.18563 0.0208336 0.387835
-0.029221 0.169269 0.408248
-0.080828 0.0317632 0.387835
0.136187 0.204124 0.406309
-0.127953 0.0471368 0.387835
-0.0782947 0.18882 0.648345
0.173504 0.179821 0.662974
-0.107382 -0.00542264 0.387835
-0.0252187 -0.178943 0.408248
0.173504 -0.187859 0.28204
0.0890755 0.18882 0.700784
-0.13386 -0.0804628 0.408248
-0.109865 -0.181908 0.387835
0.187976 0.173504 0.235117
0.0182042 0.18882 0.674081
0.18882 0.0476793 0.220923
0.18882 0.0665033 0.249686
0.204124 0.192327 0.483987
-0.173504 0.197025 0.112002
0.204124 0.187287 0.141046
-0.129695 0.0804597 0.408248
-0.204124 -0.201745 0.0893009
0.191223 0.204124 0.31235
0.193395 0.204124 0.516825
-0.0641954 0.0352376 0.408248
0.0517857 0.193276 0.387835
-0.159318 0.204124 0.739246
-0.204124 0.194478 0.237002
0.194572 0.173504 0.273664
-0.201385 0.173504 0.679826
-0.194433 0.204124 0.165647
-0.113286 0.18882 0.766965
0.173504 0.201218 0.761522
-0.184671 0.173504 0.0305133
-0.141316 0.194183 0.789282
-0.18639 -0.173504 0.0835067
-0.179228 0.173504 0.216962
-0.188487 0.204124 0.287789
0.185143 0.173504 0.259095
0.160039 0.111832 0.387835
-0.173504 -0.00477175 0.20954
0.178647 0.0707425 0.408248
-0.174922 0.173504 0.654085
0.108078 0.204124 0.621505
0.17379 0.00838855 0.255158
-0.125323 0.0101498 0.408248
0.18882 0.111991 0.238265
0.128633 0.18882 0.687744
-0.189519 -0.204124 0.171283
-0.204124 -0.184973 0.0480104
0.186114 -0.204124 0.116593
-0.0611518 -0.00229377 0.408248
-0.173504 0.186286 0.456731
-0.100068 0.176094 0.387835
0.055756 0.0955306 0.408248
0.173504 0.190476 0.608469
-0.204124 0.179049 0.286511
0.164614 0.18882 0.716223
-0.104969 -0.167267 0.387835
0.138682 0.0316022 0.387835
-0.0886628 0.190338 0.408248
-0.204124 0.178956 0.696209
0.199901 -0.204124 0.330641
-0.204124 0.193438 0.42665
-0.0427881 -0.145662 0.408248
-0.190655 -0.173504 0.337138
0.189397 0.173504 0.406084
-0.170967 -0.0544325 0.387835
-0.204124 0.199127 0.764771
0.141014 -0.204124 0.403376
-0.204124 0.197836 0.736429
-0.204124 -0.156473 0.393055
0.0458058 0.204124 0.729282
0.189989 0.204124 0.581833
0.195153 -0.173504 0.0223178
-0.173504 0.187802 0.0856712
0.173504 0.19023 0.503326
-0.184785 0.204124 0.0215779
-0.173504 0.200625 0.634586
0.136549 0.204124 0.632091
-0.00813325 0.198769 0.619184
0.173504 0.196651 0.689511
0.173504 -0.178488 0.250777
0.0886759 0.127788 0.408248
-0.0220512 0.18882 0.674264
-0.0930773 -0.0793472 0.387835
-0.14299 0.18882 0.635776
-0.18211 -0.00129488 0.255158
0.204124 0.197763 0.439849
0.0677696 0.204124 0.699657
-0.0907567 0.155835 0.408248
0.033326 -0.188339 0.408248
0.056289 0.153247 0.408248
-0.173504 0.185626 0.493028
-0.188257 0.204124 0.432314
-0.173504 0.158594 0.241295
-0.164363 0.18882 0.771307
-0.0606924 0.204124 0.698619
-0.19048 0.204124 0.785242
-0.199264 0.0178083 0.408248
0.192395 0.204124 0.415686
-0.160186 0.0640832 0.408248
0.202358 0.204124 0.129059
0.15441 0.099945 0.408248
-0.204124 -0.18999 0.301206
-0.18882 0.100876 0.235123
-0.0639528 0.204124 0.738402
0.173504 0.203962 0.385015
0.204124 0.139867 0.389277
0.186584 -0.204124 0.210836
0.173504 0.200777 0.775036
0.204124 -0.18615 0.327949
0.177709 0.104443 0.408248
-0.131322 0.204124 0.733222
-0.163331 -0.115725 0.387835
-0.0530084 0.194679 0.619184
0.0205504 -0.0583778 0.387835
-0.00349982 0.00367646 0.408248
0.0536039 -0.133817 0.408248
0.173504 0.180643 0.695684
-0.058168 -0.0377275 0.387835
0.179156 -0.0597781 0.387835
0.0167805 0.18882 0.622474
-0.182616 -0.173504 0.0535478
0.18882 -0.104734 0.249218
0.185175 0.204124 0.367862
0.173504 -0.174389 0.290555
0.204124 0.197546 0.787176
-0.161986 -0.137855 0.387835
0.198459 0.204124 0.755468
-0.204124 -0.190354 0.0342365
0.147958 0.0332032 0.408248
-0.180544 0.173504 0.529434
0.190167 0.173504 0.015822
-0.183453 -0.173504 0.261746
0.15672 0.16134 0.387835
0.18882 -0.0819185 0.240675
0.0602111 0.18882 0.669683
0.173504 0.0624523 0.238499
0.174011 -0.12414 0.387835
-0.173285 0.18882 0.737352
0.185306 0.173504 0.323565
-0.179849 -0.173504 0.181034
0.073281 0.204124 0.672129
0.126997 -0.183944 0.387835
0.100978 -0.0240618 0.387835
-0.164852 0.0486048 0.387835
-0.204124 0.190323 0.0966257
