0.0391687 -0.0876276 0.387835
-0.0444437 0.201406 0.408248
0.105234 -0.199505 0.408248
0.173551 0.204124 0.353577
-0.100444 -0.00558499 0.387835
-0.196573 0.204124 0.208982
0.182971 0.173504 0.400444
-0.204124 0.17504 0.013854
-0.173504 0.19075 0.624219
0.173504 0.0449663 0.205914
0.179238 0.204124 0.137355
0.00981919 0.173804 0.387835
0.201389 0.173504 0.662932
-0.201396 0.173504 0.714435
-0.160591 0.165491 0.408248
-0.186281 -0.0544666 0.387835
-0.157897 0.204124 0.719126
-0.18882 0.108959 0.219609
0.145066 0.18882 0.66769
0.0912744 0.0959933 0.387835
-0.204124 -0.180752 0.345833
0.178755 0.204124 0.705207
-0.18882 0.172527 0.218203
0.106457 0.0907728 0.387835
0.185158 -0.173504 0.213805
-0.00767401 -0.137284 0.408248
-0.130246 -0.111459 0.408248
0.0461434 0.196112 0.704233
0.0300194 -0.0795634 0.408248
0.173504 0.195978 0.661882
-0.0476045 0.161429 0.387835
-0.00299327 -0.026408 0.408248
-0.0937706 0.18882 0.669592
0.140957 0.0203866 0.387835
0.0512577 0.184637 0.387835
-0.0826914 -0.013636 0.387835
-0.114246 0.126165 0.387835
0.184909 0.204124 0.14357
0.0463711 -0.114892 0.387835
0.202796 -0.204124 0.190223
0.156207 -0.194428 0.408248
0.060165 0.173593 0.387835
0.11138 -0.00520726 0.408248
0.173504 0.180181 0.340036
-0.204124 -0.18485 0.138424
0.188655 0.173504 0.179777
-0.198069 0.0636631 0.408248
0.204124 0.192307 0.458472
-0.185911 0.125891 0.255158
-0.0941249 0.18882 0.74504
-0.174643 -0.105306 0.408248
-0.173504 0.198441 0.405778
0.194977 -0.173504 0.238581
-0.0618781 -0.185424 0.387835
0.18882 -0.137619 0.209568
-0.0190737 -0.194974 0.408248
-0.173504 -0.202451 0.179864
0.163916 -0.204124 0.39927
0.166197 -0.194692 0.387835
0.204124 0.186805 0.0683727
-0.202583 -0.204124 0.364098
0.167511 -0.0383133 0.387835
0.099158 0.0612147 0.408248
0.180981 -0.204124 0.0109056
0.185459 -0.0808168 0.408248
-0.204124 -0.1979 0.00626905
-0.177213 0.173504 0.241361
-0.195813 0.204124 0.214705
0.0179597 -0.195608 0.408248
-0.0649333 -0.0075236 0.408248
-0.0775049 0.0231398 0.387835
-0.107603 -0.0112569 0.387835
-0.173504 0.191085 0.0239628
0.189307 -0.204124 0.124073
0.185885 -0.116655 0.204124
0.0977829 -0.0520511 0.387835
0.180346 0.0340216 0.408248
-0.153239 0.204124 0.782697
0.0405533 -0.112243 0.408248
-0.0321639 0.0670909 0.387835
-0.195493 0.173504 0.494879
0.086603 0.18882 0.62058
0.173504 0.201955 0.755859
0.174854 -0.173504 0.301428
0.173504 -0.017466 0.219317
-0.091805 0.204124 0.759574
-0.153389 0.0744056 0.387835
0.116249 0.117725 0.387835
-0.173504 -0.175945 0.0161889
0.20088 -0.183449 0.387835
-0.204124 -0.136034 0.390126
-0.0400115 0.204124 0.407971
-0.0899038 0.0106391 0.387835
-0.202328 -0.173504 0.0115735
-0.019498 0.204124 0.776317
0.122982 0.195225 0.619184
-0.159775 0.0994417 0.387835
0.173504 0.196742 0.566759
0.111275 -0.157188 0.387835
-0.18882 -0.0722427 0.226068
0.198295 -0.204124 0.176659
0.204124 -0.160202 0.402894
-0.18882 -0.112513 0.234669
0.187505 0.173504 0.141743
0.176238 0.00128804 0.387835
0.11505 -0.129904 0.408248
-0.173504 0.183669 0.806933
0.173504 0.183841 0.563505
0.0694076 0.147074 0.387835
0.0321643 0.0796444 0.387835
-0.157737 -0.197266 0.408248
0.18882 0.0856934 0.233795
-0.123357 -0.0263446 0.408248
-0.202348 0.173504 0.403024
-0.187938 0.137711 0.255158
-0.0236506 -0.0317023 0.387835
-0.204124 0.177875 0.0977499
-0.117103 0.204124 0.389447
0.197194 0.173504 0.121101
0.18882 0.129472 0.226057
-0.146621 0.204124 0.745076
-0.00368293 0.134779 0.408248
-0.115486 -0.105235 0.387835
-0.0976931 0.140919 0.387835
0.204124 0.00169882 0.405113
0.175128 -0.204124 0.0497725
0.187438 -0.204124 0.135649
0.0792287 0.133575 0.387835
-0.00822107 0.204124 0.697255
0.143576 0.00622228 0.387835
0.143726 0.080199 0.387835
0.201575 0.173504 0.31392
-0.173504 0.184644 0.507346
0.180394 0.0821006 0.387835
-0.162103 0.204124 0.633237
0.156745 0.204124 0.778158
-0.175559 0.0647542 0.387835
-0.199857 -0.173504 0.150491
0.0597825 0.125501 0.387835
0.14784 0.0767811 0.408248
-0.0820713 -0.0550422 0.387835
0.0839125 0.204124 0.674729
-0.0803469 -0.099437 0.387835
0.0715611 -0.00765832 0.387835
-0.151496 -0.030172 0.387835
-0.183596 0.173504 0.433952
0.12094 0.204124 0.407993
0.18882 0.0566862 0.204435
0.0554684 0.0742559 0.387835
-0.00920466 -0.0277058 0.408248
0.0768465 0.201631 0.704233
-0.152234 0.00148068 0.387835
0.0856944 0.18882 0.661258
0.204124 0.192984 0.617167
0.158373 0.01001 0.387835
-0.0708773 -4.2662e-05 0.387835
-0.173504 0.117733 0.206352
-0.173504 0.182465 0.559991
0.078395 -0.0202719 0.408248
-0.16632 -0.0143999 0.408248
-0.204124 0.178964 0.291644
-0.13503 0.204124 0.666475
-0.0614261 -0.101083 0.387835
0.133631 0.18882 0.698765
-0.184303 0.173504 0.287415
-0.00370672 0.0690029 0.387835
-0.173504 0.100134 0.221065
-0.0479219 0.18882 0.742639
0.173504 -0.099647 0.231708
-0.00581646 -0.0456031 0.387835
-0.0777295 -0.158221 0.408248
-0.0485919 -0.158807 0.408248
0.00705612 0.18882 0.743075
0.173504 0.19866 0.188168
-0.16608 0.186844 0.387835
0.173504 0.00217277 0.222603
-0.183892 0.173504 0.215178
-0.187328 0.170038 0.408248
-0.173504 0.181291 0.0938836
-0.181393 -0.180892 0
-0.146632 -0.0141116 0.387835
-0.175799 0.173504 0.0182298
0.130654 -0.139216 0.408248
-0.173504 -0.13765 0.221863
-0.0519398 0.194049 0.619184
-0.164946 0.204124 0.727005
0.0837377 -0.0867719 0.408248
-0.0402009 0.0950694 0.408248
-0.173504 0.138032 0.223474
-0.204124 0.176043 0.75481
0.173504 0.182023 0.46317
0.164836 0.204124 0.656532
0.173504 -0.178237 0.339781
-0.17794 0.100292 0.255158
0.160808 0.0752562 0.408248
0.158117 -0.00344531 0.387835
0.192119 0.173504 0.0852771
-0.18882 -0.0537483 0.239118
-0.175826 -0.204124 0.345993
-0.184295 0.144759 0.255158
0.0910495 0.204124 0.622975
0.204124 0.176179 0.518211
-0.173504 0.191134 0.0809997
0.204124 0.173783 0.347615
0.184033 0.173504 0.381935
0.173504 -0.195463 0.210063
0.167425 0.0539487 0.387835
0.114178 0.18882 0.703264
0.173504 0.128038 0.211395
-0.18882 0.0482671 0.243814
0.204124 0.185704 0.272962
0.186448 -0.0819212 0.204124
0.173504 -0.0494909 0.236669
-0.195493 0.204124 0.184611
-0.149783 -0.0824552 0.387835
0.0468698 -0.134268 0.387835
-0.202804 0.173504 0.540391
-0.203475 -0.173504 0.120708
-0.0752802 0.142418 0.408248
0.173504 -0.120222 0.251868
-0.173504 -0.0602566 0.222279
-0.0710163 0.162444 0.408248
-0.173504 0.197159 0.129625
0.173504 -0.189829 0.175594
0.0593759 0.167425 0.387835
0.0679461 0.0479696 0.387835
-0.185662 -0.165252 0.408248
-0.193372 0.167721 0.387835
0.181829 -0.173504 0.144998
-0.0362664 0.18882 0.683183
0.173504 0.133123 0.217963
0.199634 0.173504 0.218761
0.176815 -0.204124 0.146424
0.0366533 -0.035065 0.408248
-0.162351 0.204124 0.756263
-0.173504 0.184163 0.349954
-0.183152 -0.0333594 0.204124
0.03791 -0.119649 0.387835
0.0181099 0.163815 0.387835
0.0640341 -0.0146441 0.408248
0.0714189 0.136002 0.408248
-0.204124 0.204029 0.264817
0.204124 0.104644 0.391896
0.126121 0.18882 0.641788
0.178034 0.204124 0.181449
0.171874 0.0277931 0.408248
-0.00693923 0.00291421 0.408248
-0.14244 0.0472483 0.408248
-0.0630498 -0.0507079 0.408248
-0.204124 0.203067 0.698949
0.105851 0.200226 0.619184
0.184947 0.101231 0.255158
0.195878 -0.173504 0.223583
0.173504 -0.0595866 0.222431
-0.194493 -0.173504 0.2167
0.18882 -0.152347 0.229828
0.0495875 0.204124 0.696647
0.175761 0.204124 0.657127
0.152655 0.204124 0.747975
-0.180463 0.137071 0.408248
-0.186682 0.0921634 0.387835
-0.0680927 -0.124851 0.408248
-0.175902 0.173504 0.0388441
-0.204124 0.176021 0.731105
-0.171175 -0.002141 0.408248
-0.173504 0.185407 0.324932
-0.0212289 0.182138 0.408248
0.173504 -0.181094 0.178847
0.191232 0.204124 0.43905
-0.0320757 0.18882 0.746093
0.173504 -0.104756 0.206824
-0.18882 0.14834 0.22551
-0.0458767 0.0460985 0.387835
-0.204124 0.175339 0.238954
0.188846 0.173504 0.225647
0.0680902 0.202797 0.408248
0.127696 0.201373 0.704233
-0.201419 0.204124 0.146347
0.091353 0.195003 0.619184
0.188103 0.173504 0.0621829
-0.195293 -0.204124 0.374864
-0.0561161 0.136861 0.387835
-0.0203247 -0.0773771 0.408248
0.0303994 0.192051 0.704233
-0.0645616 0.18882 0.696578
0.173504 0.201305 0.163156
0.177 -0.106679 0.204124
0.173504 -0.19643 0.0139144
0.201176 0.204124 0.308117
-0.204124 -0.179117 0.32483
0.0107516 -0.19293 0.387835
-0.074858 -0.0209924 0.387835
-0.173504 0.0110145 0.212054
-0.18882 0.126331 0.222813
-0.173504 0.188748 0.508883
-0.173504 0.203696 0.21985
-0.190512 0.204124 0.791203
-0.173504 -0.1816 0.161934
-0.204124 -0.193699 0.277194
-0.187366 0.173504 0.485738
-0.204124 -0.195538 0.307633
-0.173504 0.196827 0.658016
0.181876 -0.0729914 0.204124
0.0998557 0.204124 0.705618
-0.199367 0.138712 0.387835
-0.18882 0.0790426 0.207718
-0.173504 0.174794 0.405678
0.138768 -0.163624 0.387835
-0.186492 0.142136 0.408248
-0.185828 0.173504 0.651306
0.204124 0.20085 0.0945379
0.204124 0.186135 0.811994
0.065214 0.204124 0.651067
0.182403 0.110617 0.408248
0.19203 -0.146961 0.387835
-0.0365795 -0.111546 0.408248
-0.117917 -0.174752 0.408248
-0.131574 -0.0964765 0.387835
0.204124 0.185132 0.152761
-0.0827196 0.151258 0.387835
-0.204124 0.199589 0.306614
-0.173504 -0.202557 0.28007
0.18882 0.116114 0.220035
0.204124 0.186537 0.474411
-0.173504 0.178943 0.390704
0.0522791 0.00480051 0.387835
-0.204124 -0.185698 0.0407319
0.112146 0.167077 0.387835
-0.199169 -0.0297458 0.408248
-0.202497 -0.103412 0.408248
-0.204124 0.178149 0.304568
0.183246 0.173504 0.448213
-0.0692091 0.0554101 0.387835
0.204124 -0.197891 0.130578
-0.177912 0.0888109 0.255158
-0.12756 -0.0435301 0.408248
0.133548 -0.145911 0.408248
0.0824302 -0.0934277 0.387835
-0.204124 0.203634 0.207493
-0.0319831 0.204124 0.662272
-0.173504 0.196535 0.699219
0.140512 -0.0294013 0.387835
-0.0505735 0.204124 0.392764
-0.190808 -0.173504 0.0646228
-0.0476272 0.131697 0.387835
-0.193245 -0.204124 0.059592
-0.18882 -0.131878 0.229558
-0.174684 -0.173504 0.124424
0.0423257 0.101395 0.408248
0.166961 0.18882 0.66837
0.204124 0.192424 0.785845
0.204124 0.192584 0.30796
0.185111 0.204124 0.19842
-0.101015 0.191162 0.619184
-0.0946603 0.0130511 0.408248
-0.159302 0.0949796 0.387835
0.0896736 0.160931 0.387835
0.11843 0.0641799 0.387835
-0.160647 -0.0475767 0.408248
-0.176193 0.0687466 0.387835
-0.159086 0.203215 0.789282
-0.173504 -0.18779 0.286923
-0.0611404 -0.0908045 0.408248
0.139594 -0.0607612 0.408248
0.0280003 0.032654 0.408248
0.196197 0.204124 0.680211
-0.0877129 0.160771 0.387835
-0.0214604 0.204124 0.722382
0.199191 -0.173504 0.276456
-0.072245 -0.132829 0.408248
0.18882 -0.00941823 0.211801
0.178466 -0.192342 0.408248
0.135986 0.18882 0.681247
-0.18151 0.173504 0.237105
-0.173504 0.183222 0.160067
-0.173504 0.173309 0.226268
0.0970024 0.18882 0.706628
0.0657617 0.0823429 0.408248
0.197571 0.204124 0.373255
-0.18882 0.16171 0.245457
0.173504 0.183413 0.690565
-0.0166736 0.146924 0.387835
-0.182487 0.173504 0.37623
0.0277282 0.184927 0.387835
-0.0301328 0.18882 0.77659
-0.108682 -0.101688 0.408248
-0.204124 0.198093 0.687587
0.173504 -0.16826 0.241517
-0.0155597 0.00279473 0.408248
0.112181 -0.177616 0.408248
-0.173504 0.198242 0.310663
0.00590695 -0.0297937 0.408248
-0.0507959 -0.147783 0.387835
0.180092 -0.139804 0.387835
-0.106478 -0.073743 0.387835
0.141197 -0.038671 0.387835
0.181876 0.138106 0.387835
0.173504 0.198026 0.148186
0.0715991 -0.0551478 0.387835
0.140487 0.185441 0.408248
0.0317028 0.0140346 0.408248
0.165934 -0.0314461 0.387835
0.0919577 0.113065 0.408248
0.173504 0.186688 0.463718
0.137093 0.0348356 0.387835
0.115908 0.18882 0.777573
0.20326 0.0706029 0.387835
-0.173504 0.113981 0.245788
0.173504 0.199038 0.568437
-0.0086806 -0.151559 0.387835
0.0963332 0.204124 0.687637
-0.177163 0.173504 0.180386
-0.188479 0.204124 0.0923609
0.173504 0.203504 0.704382
-0.181767 0.0851163 0.204124
0.176397 0.135572 0.387835
-0.140716 -0.060305 0.408248
0.173504 0.203814 0.672709
-0.175087 0.164586 0.204124
0.0979776 0.0632822 0.387835
-0.00507185 -0.144071 0.408248
-0.204098 -0.0197564 0.408248
-0.173504 0.194696 0.707747
-0.0466022 0.204124 0.682776
-0.195199 0.173504 0.600009
-0.204124 0.197663 0.51507
0.112364 -0.0333567 0.387835
0.0258892 -0.0250543 0.408248
-0.00111693 -0.0881009 0.408248
0.204124 0.201861 0.520182
0.173504 0.140263 0.249651
0.170624 0.204124 0.734605
-0.204124 0.196797 0.579568
-0.0409631 -0.00612992 0.387835
-0.13445 0.18882 0.682558
0.204124 -0.173576 0.227428
-0.182444 0.173504 0.212665
-0.0571069 0.198305 0.704233
0.157944 -0.196306 0.387835
0.123605 0.112417 0.408248
0.0876327 0.204124 0.769615
0.043795 -0.108798 0.387835
-0.173504 -0.188554 0.32413
-0.00802773 -0.0716716 0.408248
-0.0727512 0.204124 0.403722
-0.0993888 0.204124 0.394524
-0.194598 0.150707 0.387835
-0.173504 0.146048 0.242393
-0.0827931 -0.171607 0.408248
-0.0747712 0.204124 0.714209
0.173504 0.178381 0.346283
0.0779083 -0.163078 0.387835
-0.177008 0.173504 0.523356
-0.204124 -0.104209 0.391909
-0.141823 -0.105177 0.387835
0.0508688 -0.0652194 0.408248
0.0972577 0.18882 0.634481
-0.0703978 -0.0274485 0.387835
0.18882 0.0272746 0.212194
-0.199636 -0.173504 0.28699
0.187232 0.204124 0.665261
0.0848056 0.114019 0.387835
0.181472 0.0651764 0.408248
0.0493399 0.199853 0.408248
0.0852303 -0.188767 0.387835
-0.0271747 0.0139731 0.387835
0.105508 -0.14737 0.408248
-0.204124 0.163078 0.389482
-0.0769001 0.191214 0.789282
0.173504 -0.0799775 0.212992
0.173504 0.17896 0.172044
-0.180858 -0.0599043 0.387835
0.18882 0.0976633 0.220095
0.173504 0.199463 0.779455
-0.173504 0.190406 0.492295
0.188212 0.204124 0.308604
-0.0572316 0.204124 0.725304
-0.204124 -0.178715 0.134635
-0.163479 0.197757 0.704233
-0.0895467 -0.178578 0.408248
-0.197811 0.204124 0.376698
-0.12938 0.00785851 0.387835
-0.106895 -0.0461326 0.387835
-0.0713977 0.190751 0.704233
0.179613 -0.170412 0.387835
-0.173504 -0.116787 0.233455
0.186071 0.173504 0.759252
0.0824635 0.0560136 0.408248
0.173504 -0.186894 0.0800414
0.177025 -0.0494308 0.387835
0.125395 0.204124 0.672229
0.203193 -0.144962 0.408248
-0.0669155 -0.204124 0.404348
-0.0818823 -0.170426 0.387835
-0.17148 -0.0847714 0.387835
-0.204124 -0.19253 0.271875
0.049406 0.0177913 0.387835
0.173504 -0.194128 0.317288
0.134541 -0.0506396 0.387835
-0.146622 0.0844763 0.408248
-0.0817257 0.003805 0.387835
-0.18882 -0.0187415 0.214384
-0.0802946 0.186765 0.408248
-0.0170964 0.204124 0.724043
0.192823 -0.0935619 0.408248
0.204124 -0.17831 0.0148185
0.0168065 0.204124 0.737065
-0.178617 -0.204124 0.188314
0.170229 0.18882 0.764305
0.173504 0.14213 0.250745
-0.204124 0.193765 0.00553695
-0.173504 0.101381 0.225272
-0.204124 0.179947 0.794322
-0.173504 0.189698 0.647446
0.18882 -0.12588 0.243561
-0.173504 0.187967 0.486375
0.125531 -0.16951 0.408248
0.204124 -0.182453 0.39769
-0.197286 -0.173504 0.028254
-0.182749 -0.144683 0.408248
0.119176 -0.134188 0.408248
0.173504 0.201346 0.642867
0.156371 -0.0966965 0.408248
-0.204124 0.178036 0.579833
0.17355 0.173504 0.543177
-0.202245 0.173504 0.100439
0.140727 -0.105773 0.408248
0.183515 -0.173504 0.0799376
0.0145406 -0.147178 0.387835
-0.173504 -0.188031 0.0150717
-0.0568707 0.18882 0.63192
0.0578241 0.204124 0.686474
-0.194912 -0.173504 0.337196
0.0984209 -0.114136 0.387835
-0.158324 0.20096 0.387835
0.173504 0.184938 0.697302
-0.00696541 -0.0117941 0.387835
-0.18882 0.0777072 0.225974
-0.0897001 -0.109051 0.387835
0.139267 0.18882 0.77502
-0.174236 0.111009 0.255158
0.201601 0.173504 0.0884438
0.00160494 0.204124 0.766406
-0.18383 0.204124 0.723552
0.173504 0.17808 0.10704
-0.00458494 0.0869275 0.387835
0.055452 0.18882 0.729034
-0.201872 0.204124 0.186563
0.0092317 0.18882 0.759345
0.0936174 -0.0455078 0.387835
-0.023925 0.0391248 0.408248
-0.135661 0.118615 0.387835
0.0430176 0.075246 0.387835
-0.188575 0.0903294 0.408248
0.184823 -0.204124 0.119537
0.173504 0.196207 0.692681
0.0868849 -0.131671 0.387835
0.18882 0.011855 0.238512
-0.183737 0.204124 0.0685705
0.179504 0.142452 0.204124
0.0363089 -0.10233 0.408248
-0.0404171 0.204124 0.682933
0.18384 0.204124 0.769051
-0.0281866 -0.106565 0.408248
0.122508 0.194906 0.408248
-0.195415 -0.204124 0.373583
0.0350575 -0.183845 0.408248
0.173504 0.00339408 0.252485
-0.016589 -0.0590276 0.387835
-0.183061 -0.0945565 0.387835
0.0212336 0.133357 0.408248
0.0489525 0.0636922 0.408248
-0.186001 -0.173504 0.3265
0.192666 -0.191636 0.387835
-0.0702487 0.204124 0.711512
-0.204124 -0.118997 0.407059
-0.174075 0.173504 0.608508
0.173504 -0.182906 0.174657
-0.0419953 0.0544322 0.387835
-0.18882 -0.0524298 0.236534
0.204124 0.196789 0.790959
0.134181 0.197713 0.408248
0.187529 0.0686543 0.255158
0.0200719 0.18882 0.684101
0.0373279 -0.0530467 0.408248
0.040143 0.202612 0.619184
0.0414514 -0.127844 0.387835
-0.0322292 -0.0264073 0.387835
0.173504 0.116007 0.234055
0.0184135 0.204124 0.706176
-0.173504 0.073613 0.211011
-0.184366 -0.204124 0.320982
-0.179949 0.0729032 0.387835
-0.176505 -0.204124 0.0187166
-0.0315837 0.204124 0.680072
-0.0422082 -0.0226158 0.387835
-0.0443698 0.18882 0.624977
0.17011 0.18882 0.78653
-0.0567273 0.200938 0.704233
0.0913514 -0.0338493 0.387835
0.18882 -0.0623123 0.242444
0.135399 0.204124 0.65722
0.18882 0.150456 0.245629
-0.0876114 -0.152338 0.408248
-0.173537 0.124762 0.387835
-0.125582 0.204124 0.398578
0.125144 0.204124 0.620047
0.175489 0.204124 0.640483
-0.114105 0.204124 0.748543
0.180859 0.0919228 0.204124
0.190197 -0.190119 0.387835
-0.0629148 -0.165912 0.408248
-0.204124 0.19216 0.0498451
-0.106254 0.204124 0.636476
-0.182808 0.204124 0.767985
-0.116683 -0.0830855 0.408248
0.183882 0.204124 0.230194
-0.0832834 -0.177945 0.408248
0.191234 -0.204124 0.320942
-0.100814 0.0845212 0.408248
0.147954 -0.0561728 0.387835
-0.173504 0.175075 0.0823533
-0.182088 0.173504 0.10104
0.131454 0.18882 0.701647
0.0525154 -0.0626381 0.387835
0.204124 0.177941 0.295748
-0.0212704 0.0308158 0.387835
0.0345931 -0.0315462 0.408248
0.118181 0.204124 0.631025
0.194603 0.204124 0.13884
-0.194063 -0.0489506 0.408248
0.18442 0.173504 0.180013
-0.193469 -0.173504 0.152116
0.173504 0.188354 0.339969
-0.192585 0.173504 0.540025
0.173008 -0.127945 0.387835
-0.204124 0.192042 0.477965
-0.0618423 0.119083 0.387835
0.0131106 -0.118375 0.387835
-0.105727 0.177265 0.387835
-0.173504 0.179254 0.488581
0.185376 0.0187175 0.204124
0.100342 0.0306073 0.408248
0.173504 -0.0744066 0.212869
0.204057 0.173504 0.619923
0.035694 0.18882 0.65701
0.0733909 0.00803208 0.387835
-0.0220342 0.204124 0.657477
0.00950027 0.18882 0.760705
-0.137176 0.177897 0.387835
-0.173504 0.178719 0.676213
-0.173504 -0.190596 0.0767784
-0.0924024 0.18882 0.724755
0.0448892 -0.0175387 0.387835
0.051825 -0.114561 0.408248
0.0797488 -0.172716 0.387835
-0.204124 0.190136 0.0121403
-0.173504 -0.174297 0.277026
0.0048098 0.17202 0.408248
-0.00449634 0.139224 0.387835
0.187222 0.173504 0.632295
0.0553801 0.18882 0.688816
-0.183814 0.173504 0.142907
0.18882 0.117086 0.208672
0.173504 -0.194633 0.0471112
0.177118 0.204124 0.330263
-0.145475 0.18882 0.68583
0.0464387 0.1639 0.387835
-0.166571 0.185214 0.408248
0.125869 0.0329865 0.408248
-0.173504 -0.173596 0.180677
-0.204124 0.189265 0.0947171
-0.0684437 -0.119545 0.408248
0.140739 0.0231902 0.387835
0.197065 0.173504 0.397143
0.184327 -0.0987124 0.408248
0.204124 -0.177272 0.0180368
0.135609 0.0929907 0.387835
-0.173504 -0.197139 0.0363867
-0.178251 0.0615841 0.387835
-0.140893 0.156335 0.408248
0.198655 -0.176092 0
-0.110008 0.18882 0.786925
0.173504 0.195738 0.409564
-0.204124 -0.127404 0.392494
-0.187217 0.204124 0.393846
0.1553 -0.0531838 0.408248
0.176183 0.204124 0.464353
-0.177865 0.204124 0.807371
-0.173504 -0.192061 0.10439
-0.173504 0.184256 0.502488
0.198317 0.157245 0.408248
0.149937 0.204124 0.647185
0.173504 -0.175493 0.264985
-0.173504 0.177501 0.297372
0.191973 -0.204124 0.354061
0.0808022 0.18882 0.66146
-0.143614 0.204124 0.769286
0.173839 0.091034 0.387835
-0.0989109 -0.115346 0.387835
-0.188726 -0.204124 0.218437
-0.181683 0.173504 0.786115
-0.176027 0.204124 0.798132
0.173504 0.191339 0.254207
-0.00908943 0.0615518 0.387835
-0.164811 0.204124 0.742458
0.188182 0.0677936 0.387835
-0.19736 -0.173504 0.0976959
0.0388448 0.204124 0.649752
0.170745 -0.101061 0.387835
-0.199786 -0.073048 0.408248
0.0487643 0.204124 0.699433
0.196279 0.173504 0.56232
0.143033 -0.122016 0.387835
0.173504 0.0788505 0.254078
0.173504 0.203062 0.28069
0.18882 -0.166098 0.231334
0.173504 -0.0350792 0.239696
0.170054 0.204124 0.724302
-0.112791 0.18882 0.78331
0.0660798 0.18882 0.629741
0.043766 0.0547853 0.387835
0.173504 -0.202569 0.0971257
0.173504 0.197267 0.775483
0.173504 0.196473 0.805251
-0.104956 0.18882 0.758065
-0.204124 0.0138688 0.393148
0.02679 -0.0252869 0.408248
-0.0893928 -0.172211 0.408248
0.0732555 -0.040119 0.387835
-0.0863624 0.18882 0.692095
0.193077 0.0196488 0.408248
0.195171 0.173504 0.288349
0.132596 0.10486 0.387835
-0.0549112 0.0921894 0.408248
0.204124 0.182138 0.319311
0.0940504 -0.194938 0.387835
0.204124 0.174957 0.434807
0.204124 0.173617 0.283739
-0.19455 -0.171912 0.387835
-0.0333967 0.0599165 0.408248
0.196921 -0.0129084 0.408248
0.173504 -0.203763 0.152708
-0.204124 -0.193876 0.0187499
0.204124 -0.200999 0.175885
-0.0548076 -0.14167 0.387835
0.00433695 -0.0742726 0.408248
0.192316 0.204124 0.693649
0.14473 0.0599858 0.387835
-0.204124 -0.0266826 0.40507
0.204124 0.20082 0.300236
-0.173504 -0.113577 0.227677
0.047433 -0.129496 0.408248
0.202931 -0.173504 0.356028
0.18483 -0.13703 0.387835
-0.132496 -0.034968 0.387835
-0.0500588 0.129366 0.408248
-0.174258 -0.165082 0.408248
-0.095804 0.0148563 0.408248
-0.186526 -0.0468929 0.204124
0.0918538 -0.0962596 0.387835
0.0533669 0.15498 0.408248
-0.204124 0.203889 0.76321
-0.173504 0.0513178 0.205641
0.0285679 -0.0716453 0.387835
0.0879927 -0.0807056 0.387835
0.139316 0.18882 0.739602
-0.18882 0.111177 0.212914
0.173504 -0.195445 0.373957
0.0627348 0.096029 0.387835
0.0553696 0.0125497 0.387835
0.00331095 0.204124 0.709103
-0.197957 -0.204124 0.266899
-0.134042 0.18882 0.654453
0.1813 0.204124 0.0958832
-0.0248314 0.0850275 0.387835
-0.158588 -0.139708 0.408248
-0.167251 0.188824 0.619184
-0.0739316 0.204124 0.784853
0.139954 0.204124 0.743381
-0.173504 0.138039 0.210746
0.173504 0.201412 0.0469919
-0.143563 0.0469927 0.387835
0.0924712 0.18882 0.632918
0.181461 -0.173504 0.195658
0.186819 -0.0710075 0.255158
-0.204124 0.123112 0.394426
-0.204124 0.19035 0.6966
0.116144 -0.134007 0.387835
-0.204124 0.185743 0.236219
0.178994 0.204124 0.535852
-0.19492 0.204124 0.249361
0.135551 0.20048 0.619184
-0.016619 -0.0268327 0.387835
-0.204124 0.175947 0.0810992
-0.173504 0.188415 0.173535
0.189573 -0.0333531 0.387835
0.149689 0.0512719 0.387835
0.144976 0.0745011 0.408248
0.173504 0.193036 0.016356
0.0341591 0.18882 0.700193
-0.199262 0.204124 0.214172
-0.15559 -0.147304 0.387835
-0.173504 -0.0896174 0.245357
-0.191922 -0.0804317 0.387835
0.204124 0.198004 0.313035
-0.0568788 0.204124 0.397561
-0.173504 0.195721 0.789208
-0.0591702 0.0372781 0.387835
-0.173504 -0.0130669 0.219083
0.186491 -0.186803 0.387835
0.173504 0.180761 0.430476
-0.126402 0.0425184 0.387835
0.188107 0.204124 0.469689
0.194228 0.173504 0.296999
-0.173504 0.189673 0.339688
0.173504 0.200429 0.517604
0.000220537 0.18882 0.72612
-0.18986 0.204124 0.0425161
-0.192295 0.00299059 0.408248
-0.185915 0.173504 0.0101415
0.183593 0.204124 0.594135
0.0941767 -0.0710716 0.387835
0.00902136 0.113189 0.387835
0.143382 0.204124 0.736777
-0.0483324 0.156888 0.408248
0.173504 -0.180775 0.34772
0.114548 -0.0456361 0.408248
0.173504 -0.180806 0.367215
-0.0369464 0.128634 0.408248
-0.18882 0.0692339 0.229717
-0.195213 -0.0569159 0.387835
-0.204124 -0.0264706 0.403741
0.179119 -0.204124 0.0580952
-0.0841066 -0.0971999 0.408248
0.0511928 -0.0244258 0.387835
0.181053 0.204124 0.323116
-0.106329 0.204124 0.658645
-0.177799 -0.190409 0
0.153473 -0.201885 0.408248
-0.204124 0.196992 0.555469
0.0598069 -0.152316 0.387835
0.173504 0.203755 0.720457
0.183441 0.204124 0.414461
-0.173504 0.062369 0.211613
0.0524312 -0.164924 0.387835
0.173504 0.194238 0.557884
0.203939 0.204124 0.574995
-0.109591 -0.0585547 0.408248
-0.146527 0.0333429 0.408248
-0.173504 0.1987 0.433106
0.167229 -0.0215129 0.387835
0.173504 0.1826 0.638399
-0.0924119 0.193635 0.619184
0.18882 0.0551762 0.231548
-0.0961878 0.10484 0.387835
-0.173504 0.177464 0.0322117
-0.196497 0.204124 0.301923
-0.173504 -0.0370639 0.205384
-0.084962 0.18882 0.62773
-0.0388107 -0.157023 0.387835
0.173504 -0.179803 0.0563224
-0.0498734 -0.00025554 0.408248
-0.0380445 0.00922255 0.408248
-0.11112 -0.204124 0.395448
-0.204124 0.179834 0.545344
-0.183809 -0.204124 0.371975
0.165107 0.0367373 0.387835
-0.194079 0.11543 0.408248
-0.122778 0.204124 0.778114
-0.195984 0.173504 0.684012
0.116258 -0.0136528 0.387835
0.204124 0.182025 0.613129
-0.200177 -0.122569 0.408248
-0.126425 -0.156591 0.408248
-0.204124 0.193191 0.664614
-0.173504 -0.173531 0.268963
-0.156403 0.190257 0.704233
0.162673 -0.122816 0.387835
0.18882 -0.0306793 0.207167
-0.024262 0.18882 0.651107
0.204124 -0.181886 0.0133505
-0.204124 -0.183442 0.266541
-0.18882 0.0344343 0.238571
-0.19721 -0.184617 0.387835
-0.0437118 0.0721062 0.387835
0.197385 0.204124 0.5022
0.14266 -0.149528 0.408248
-0.204124 -0.185413 0.189957
0.0415944 -0.142054 0.387835
-0.0389393 0.169249 0.387835
-0.0303868 0.0578203 0.387835
-0.10121 0.204124 0.675944
0.204124 0.188896 0.35771
-0.176156 -0.0836288 0.204124
-0.0700362 -0.156351 0.408248
0.1721 0.0597426 0.387835
-0.0949487 0.0535185 0.387835
0.173504 -0.174104 0.0479786
0.197783 0.173504 0.280674
-0.204124 0.192166 0.323078
0.0457488 0.0917476 0.387835
-0.0651913 0.177307 0.408248
-0.189531 -0.0173834 0.387835
-0.141747 -0.182326 0.408248
-0.186725 0.0767294 0.204124
0.0171139 -0.0463173 0.408248
-0.177843 -0.0373548 0.387835
-0.155359 0.196193 0.704233
0.0642147 0.0169037 0.408248
-0.204124 0.190472 0.389018
0.0151346 0.175298 0.387835
0.118259 0.127819 0.408248
0.173504 0.0838828 0.216021
-0.173504 0.0216093 0.217341
-0.0158999 -0.0829501 0.408248
0.192288 -0.166205 0.387835
-0.201123 0.173504 0.413284
0.123044 -0.0416374 0.387835
0.0584581 0.204124 0.647771
0.173504 0.174773 0.174681
-0.124687 0.114184 0.408248
-0.040166 0.195266 0.704233
-0.173504 -0.158652 0.252818
-0.191346 0.173504 0.722621
-0.148233 0.18882 0.631324
-0.0155647 -0.0188745 0.387835
0.03426 0.197643 0.789282
-0.175244 -0.204124 0.0840609
0.135264 0.103833 0.387835
-0.198273 0.204124 0.547529
-0.173504 0.199104 0.475919
-0.0997022 0.0774133 0.408248
-0.0312809 -0.0415898 0.408248
0.0305809 -0.0529147 0.408248
0.0869276 0.204124 0.765487
-0.0134967 0.0108139 0.387835
0.0954447 0.0260274 0.408248
0.174784 0.0376174 0.408248
-0.204124 0.185504 0.234989
0.204124 0.173565 0.293916
0.180421 -0.110065 0.387835
0.0165615 -0.0377869 0.408248
-0.190872 0.204124 0.764657
0.179003 -0.109596 0.204124
0.20144 0.173504 0.208235
0.13716 0.204124 0.640775
0.202067 0.162768 0.387835
0.197508 -0.196439 0.387835
0.149476 0.195941 0.408248
-0.179702 0.204124 0.476768
0.18882 0.130514 0.21404
-0.173504 0.194031 0.402512
0.179659 0.173504 0.464893
-0.0447556 -0.185394 0.387835
-0.00174984 -0.161903 0.408248
0.20324 0.173504 0.545518
0.204124 0.187331 0.353667
-0.0794087 0.18882 0.704882
0.176802 0.204124 0.023414
0.204124 -0.202417 0.245559
0.173504 0.0506226 0.250059
-0.173504 -0.180011 0.259518
0.0394664 0.204124 0.774892
-0.204124 -0.179719 0.0962904
0.115207 0.152675 0.408248
0.0571308 0.18882 0.704302
-0.173504 -0.174096 0.374098
-0.173504 0.192417 0.722769
-0.187897 -0.0728841 0.204124
-0.187455 -0.00380987 0.408248
0.0484604 -0.168533 0.387835
-0.0955864 0.18882 0.76876
0.0467529 0.18882 0.720332
-0.202447 0.18592 0
0.202469 -0.173504 0.301607
-0.173504 -0.188915 0.0380781
-0.204124 0.190973 0.185902
0.128856 -0.0655501 0.408248
0.138659 0.0876053 0.387835
-0.0671608 0.18882 0.672095
0.173504 -0.157305 0.241678
0.0630275 -0.11694 0.387835
-0.173504 0.0255365 0.224707
0.0850375 0.169263 0.408248
-0.0186757 -0.169422 0.387835
0.0967607 0.0137839 0.408248
-0.173504 0.184021 0.813153
-0.204124 -0.0963523 0.394573
-0.173504 0.194538 0.610891
-0.173504 0.190251 0.195722
0.0528833 -0.0315002 0.387835
-0.182532 -0.127976 0.408248
0.173504 0.187332 0.41285
-0.17566 0.173504 0.802828
0.173504 -0.156787 0.24695
0.182864 0.173504 0.395558
-0.0337121 -0.143537 0.387835
-0.163826 0.204124 0.733124
0.202668 0.181909 0
-0.0808788 0.0971904 0.408248
0.0742141 0.174663 0.408248
0.0365926 0.197217 0.704233
0.0854069 0.18882 0.710877
-0.0207731 -0.0389762 0.408248
0.0832483 0.0322352 0.387835
0.183161 -0.0622966 0.408248
-0.199794 -0.0755307 0.408248
-0.204124 -0.188796 0.353165
0.11271 0.196844 0.704233
-0.0308182 -0.0703473 0.408248
0.102716 0.160573 0.408248
0.15005 0.18882 0.724847
0.18049 0.173504 0.659214
-0.185197 0.177562 0.816497
-0.190317 0.204124 0.372342
0.104546 0.204124 0.722785
0.173504 0.190931 0.322309
-0.196225 -0.0121746 0.408248
0.204124 -0.032181 0.396599
0.173504 0.184889 0.624054
0.150875 0.0799188 0.387835
0.0164073 -0.174142 0.387835
-0.159017 0.204124 0.731774
-0.201989 -0.204124 0.169792
0.0591881 -0.137133 0.387835
0.15708 0.0516142 0.408248
0.021255 -0.0781284 0.387835
-0.188643 0.173504 0.687979
-0.0326215 0.18882 0.76203
0.18882 -0.12248 0.226968
-0.00288215 -0.145017 0.408248
-0.175621 0.0509839 0.204124
-0.177141 0.204124 0.246197
-0.187103 0.204124 0.765939
-0.173504 0.0885716 0.239375
-0.204124 0.189464 0.112235
-0.0866519 -0.138707 0.387835
-0.186661 -0.146776 0.204124
-0.18882 -0.0648195 0.232257
0.0653893 0.17481 0.408248
0.173504 0.1926 0.404327
0.0248799 -0.0829109 0.408248
0.192362 -0.0865141 0.387835
-0.0516279 0.198269 0.789282
-0.00696106 0.204124 0.64342
-0.167627 0.188976 0.408248
0.179866 0.204124 0.609827
0.173504 -0.166973 0.248587
0.0284731 -0.0455485 0.408248
-0.173504 0.194424 0.724358
0.204124 0.17518 0.748883
-0.14355 0.0391367 0.387835
-0.0167887 0.18882 0.642388
0.204124 -0.129052 0.391467
0.0586068 0.204124 0.73859
-0.18882 0.0276174 0.225025
0.0154099 0.204124 0.390115
0.157122 -0.122342 0.387835
-0.173504 -0.181454 0.0390139
-0.18882 -0.0694753 0.244818
-0.0333423 -0.124632 0.408248
0.166573 0.0933602 0.408248
-0.155138 0.18882 0.667909
0.0126718 -0.0413251 0.408248
0.0370391 0.18882 0.668966
0.144612 0.00526917 0.387835
0.173504 0.0905231 0.240598
-0.204124 -0.183994 0.395623
0.0729189 -0.107257 0.387835
-0.184862 -0.204124 0.258068
-0.173504 0.0365064 0.227971
0.0920103 0.114728 0.387835
0.184753 -0.173504 0.0157426
-0.1985 0.173504 0.136403
-0.177375 0.173504 0.688506
-0.198807 0.173504 0.397265
0.204124 0.203817 0.514855
0.0892311 0.0823002 0.387835
0.200905 0.204124 0.47709
0.0642497 -0.151804 0.408248
-0.173504 -0.183504 0.178233
0.00150263 -0.164706 0.408248
0.137739 -0.135319 0.387835
-0.0506667 0.180753 0.408248
-0.139551 0.0895536 0.408248
-0.0599339 0.0375007 0.408248
-0.188444 0.173504 0.651479
0.118809 -0.119147 0.408248
0.00730379 -0.0917121 0.387835
-0.0191923 0.18882 0.725741
0.181781 0.00843024 0.387835
0.173504 0.190696 0.771258
-0.173504 0.200893 0.101343
0.111687 -0.181331 0.387835
-0.196737 -0.145388 0.408248
-0.173504 0.0540184 0.229049
-0.178034 0.173504 0.0543212
0.176563 -0.159081 0.204124
-0.146523 0.204124 0.650288
0.127579 0.204124 0.700918
0.0427101 -0.198671 0.387835
0.171 0.204124 0.715727
0.0924963 0.125617 0.408248
-0.204124 0.169393 0.405201
0.0285051 0.000746712 0.408248
-0.148172 0.204124 0.743508
-0.0058756 0.0181149 0.387835
-0.167401 0.0367827 0.387835
0.192068 0.173504 0.723623
0.173504 0.0866143 0.244454
0.173504 0.0554383 0.235411
0.173504 -0.173728 0.0440094
0.204124 0.184239 0.653774
0.187108 0.00500579 0.387835
0.184522 -0.0349469 0.408248
-0.204124 -0.137881 0.404174
-0.204124 0.163062 0.40806
0.173504 -0.193742 0.340405
0.0498902 0.18882 0.761365
0.189886 -0.00903478 0.387835
0.114245 0.136647 0.387835
0.202184 0.197698 0
-0.198769 0.113548 0.408248
-0.0387094 0.0281488 0.408248
0.204124 0.177516 0.340932
0.160402 0.204124 0.770535
0.186969 0.153993 0.387835
0.16008 0.100133 0.408248
0.173504 -0.191546 0.019251
0.198987 0.204124 0.321781
-0.173504 0.144993 0.225408
0.204124 0.1902 0.410892
-0.18882 0.14931 0.250939
0.204124 0.198751 0.491472
-0.053582 -0.0745831 0.387835
-0.10601 0.04564 0.387835
0.0842752 -0.129093 0.408248
-0.157858 -0.0776648 0.408248
0.158932 -0.191212 0.408248
-0.115642 -0.125094 0.408248
0.125659 0.165961 0.387835
-0.16174 0.204124 0.647002
-0.0375579 0.0148755 0.387835
-0.0299532 0.204124 0.754274
-0.204124 0.193449 0.716025
0.203571 0.173504 0.454492
0.107845 -0.0306543 0.387835
-0.18882 0.13857 0.223561
0.199272 -0.10817 0.387835
0.173504 0.192749 0.105987
-0.179229 0.173504 0.770386
0.173504 0.189707 0.424115
-0.18882 -0.0695371 0.25374
0.0846988 0.000935867 0.387835
0.0351509 0.0634974 0.387835
-0.189096 -0.0121478 0.387835
-0.0871978 -0.132921 0.387835
0.173504 -0.185962 0.258461
0.18297 0.0710566 0.408248
0.173504 0.13645 0.213895
-0.173504 0.201991 0.756617
-0.0440813 0.20137 0.387835
0.0178236 0.204124 0.647541
0.0250366 0.204124 0.779379
-0.158345 0.124711 0.408248
0.101086 0.106713 0.408248
-0.174203 0.191961 0
0.173504 0.176048 0.604945
0.18882 0.053175 0.222414
0.186389 0.173504 0.773084
0.188259 0.204124 0.591053
-0.0983413 0.18882 0.627371
-0.0648198 0.124179 0.387835
0.204066 0.173504 0.687738
0.173504 0.195056 0.5459
0.0274271 0.101159 0.387835
0.0868803 -0.177814 0.408248
0.182451 0.158431 0.204124
-0.193407 0.18599 0
-0.142006 0.0884673 0.387835
-0.0427523 0.050081 0.408248
-0.169399 0.118091 0.387835
-0.178532 -0.173504 0.263315
0.112869 0.192322 0.704233
0.173504 0.19007 0.306851
0.204124 0.20289 0.178944
0.173504 0.194587 0.167422
-0.169536 0.18882 0.772521
0.182118 -0.0401642 0.387835
0.173504 -0.0776985 0.23451
-0.204124 0.0191155 0.396959
0.13796 -0.111146 0.387835
-0.173504 0.176417 0.620423
0.101306 0.204124 0.405685
-0.00810245 0.18882 0.636016
-0.0783802 0.135952 0.387835
0.192502 -0.170885 0.408248
-0.173504 -0.1515 0.220883
-0.0838527 -0.0933196 0.408248
-0.176601 0.173504 0.281861
-0.192212 -0.173504 0.0260713
-0.02146 0.00670031 0.387835
-0.173504 0.202056 0.55137
0.204124 0.187396 0.114879
0.136742 0.0780293 0.408248
0.18882 0.0956208 0.204159
4.42564e-06 0.203015 0.704233
0.166955 0.179646 0.408248
0.1552 -0.114575 0.387835
-0.0293675 0.18882 0.665914
0.173504 0.183132 0.531719
0.00840533 -0.0642076 0.408248
-0.173504 0.181969 0.149416
0.0277688 0.18882 0.633986
-0.0786099 0.18882 0.70493
0.045684 0.0243402 0.387835
0.173504 0.182987 0.388861
-0.093399 0.18882 0.740319
0.204124 -0.201078 0.0315482
0.133555 0.106231 0.387835
0.112608 -0.204124 0.39896
-0.0266513 0.18882 0.786445
0.204124 -0.0965156 0.391222
0.173504 -0.0542201 0.226952
-0.107907 -0.0705107 0.408248
0.173504 -0.0230689 0.23521
-0.173504 -0.190629 0.0351215
-0.173504 0.189293 0.701135
0.173504 -0.185707 0.0164541
0.0913702 0.204124 0.683719
-0.0523603 0.18882 0.731141
-0.173504 -0.201704 0.321178
-0.0348453 -0.168468 0.408248
0.127593 -0.0556861 0.387835
-0.177006 -0.146202 0.387835
0.173504 0.185528 0.554278
-0.0540385 -0.0843715 0.408248
0.204124 0.182389 0.738304
-0.204124 -0.136463 0.397236
-0.150486 -0.170263 0.408248
0.203793 -0.173504 0.0409365
-0.173504 -0.0770468 0.238606
0.0679425 0.192473 0.704233
0.18334 0.204124 0.596401
0.173504 0.10316 0.211171
-0.173504 0.0477364 0.2257
0.0326096 0.18882 0.65605
0.179742 -0.0576225 0.204124
0.173504 0.154322 0.222145
0.173556 -0.204124 0.20093
0.0176881 0.185404 0.387835
0.159474 0.00255364 0.387835
-0.18882 -0.141854 0.243598
0.204124 0.203454 0.49812
-0.173504 0.102852 0.217437
0.0635784 0.179745 0.408248
0.0859371 0.0150091 0.387835
-0.174968 0.173504 0.127671
0.173504 0.182982 0.19264
0.204124 0.183651 0.211656
0.195529 -0.176506 0.408248
0.204124 0.178341 0.0109729
-0.0948741 0.0706156 0.408248
0.186343 0.187356 0
0.173504 0.199039 0.646849
0.194975 -0.204124 0.238547
-0.180455 -0.0448327 0.204124
0.130702 0.13382 0.387835
-0.0182762 0.088771 0.408248
-0.204124 0.110717 0.390567
-0.189503 0.204124 0.322059
0.0766686 0.204124 0.708532
-0.046579 -0.0515541 0.408248
0.00983606 0.18882 0.626428
-0.1167 0.0187384 0.387835
0.0560363 0.204124 0.75505
0.188536 0.204124 0.685769
-0.173614 0.198431 0.816497
-0.173504 0.189761 0.198333
-0.204124 0.183742 0.308868
0.0281887 0.204124 0.711902
-0.0502341 0.204124 0.662229
0.204124 0.177034 0.715004
-0.204124 0.198874 0.0343913
-0.174801 0.0639476 0.387835
-0.173504 -0.0107468 0.210063
0.0376382 0.18882 0.716754
0.107464 0.18882 0.755891
-0.147961 0.0963728 0.387835
-0.173504 0.179126 0.789861
0.173504 0.189616 0.446483
-0.121587 0.151723 0.387835
-0.193402 0.173504 0.468452
-0.104472 0.127138 0.387835
-0.18882 0.128865 0.224076
-0.00249892 -0.0989169 0.408248
0.150284 -0.0143895 0.387835
0.173504 0.19057 0.741322
-0.0390313 -0.102222 0.387835
-0.196452 0.173504 0.740102
-0.173504 0.199222 0.243785
-0.187994 -0.15379 0.204124
0.204124 -0.175845 0.0565364
-0.197851 -0.0791186 0.408248
0.0881152 0.18882 0.637207
-0.063009 0.204124 0.623214
-0.204124 0.0928113 0.399484
-0.19976 -0.204124 0.233393
-0.173504 0.198842 0.681504
-0.0434983 0.18882 0.722379
0.191588 -0.0390801 0.387835
0.0564862 0.204124 0.774933
-0.00802015 -0.0194467 0.387835
0.123558 -0.0707716 0.387835
0.179086 -0.105289 0.408248
-0.0392562 0.0194597 0.387835
0.184093 0.204124 0.576509
-0.0850006 -0.00788544 0.387835
0.134151 0.185556 0.387835
0.204124 0.181256 0.583346
-0.140458 0.127364 0.408248
-0.198265 0.173504 0.576565
-0.0822365 0.18882 0.63738
-0.173504 -0.0660611 0.246406
-0.0482245 0.0504194 0.387835
0.00772765 -0.0981573 0.408248
0.173504 0.197997 0.595139
-0.202492 0.173504 0.505876
0.169713 0.18882 0.652631
0.135707 0.0160607 0.387835
0.173504 0.177724 0.641434
-0.115255 -0.104301 0.387835
0.0357888 -0.0825646 0.408248
-0.115345 0.103697 0.408248
-0.197033 0.173504 0.208944
-0.185796 0.204124 0.479863
-0.173504 0.191461 0.574422
-0.173504 -0.198094 0.0578742
0.173504 -0.194339 0.32982
0.0546281 0.134452 0.408248
-0.173504 0.181011 0.620729
0.0639278 -0.184717 0.408248
-0.0223777 0.167634 0.387835
0.173504 0.0641685 0.211397
-0.195602 -0.204124 0.0265999
0.0830136 -0.1609 0.387835
-0.196843 0.198008 0.816497
0.138881 0.0670916 0.408248
-0.173504 0.194269 0.0691035
0.173504 -0.175974 0.296619
-0.18882 0.0635036 0.249508
0.200331 -0.0528492 0.408248
-0.0192476 -0.0448719 0.387835
0.0401354 0.0795303 0.387835
-0.126265 0.204124 0.679664
0.0950007 0.193173 0.387835
0.173504 0.182483 0.480842
-0.176008 0.204124 0.661454
0.104556 -0.146421 0.387835
-0.0571374 -0.0377867 0.387835
0.0251489 0.028255 0.408248
-0.07209 -0.0862014 0.387835
0.102249 -0.132958 0.387835
0.19632 0.204124 0.341087
0.167187 0.204124 0.69527
-0.0750028 0.186018 0.408248
-0.191263 0.204124 0.799727
-0.123301 0.0722561 0.408248
-0.183623 0.0401903 0.408248
0.143963 0.0848595 0.408248
0.0272215 0.199791 0.789282
0.0764873 -0.193954 0.408248
-0.103089 0.142158 0.387835
-0.203533 -0.204124 0.0852479
-0.204124 0.175792 0.628037
-0.0835948 0.194368 0.789282
-0.18414 -0.204124 0.138629
-0.136791 -0.108606 0.387835
-0.204124 0.200934 0.616041
0.171792 0.143521 0.408248
0.130978 0.18882 0.703411
0.194592 0.157589 0.387835
-0.157684 0.0864115 0.387835
-0.0594247 0.190956 0.619184
-0.147077 0.146481 0.408248
-0.0458314 0.18882 0.681502
0.173504 -0.132183 0.223082
-0.173504 0.133993 0.236634
0.193345 0.204124 0.785358
-0.20284 -0.204124 0.143596
0.0638207 -0.0726295 0.387835
-0.173514 -0.102859 0.408248
0.0288569 0.18882 0.675179
-0.172457 0.0848614 0.408248
0.0431261 -0.155037 0.387835
-0.0935393 0.204124 0.657513
-0.0480199 -0.0325835 0.387835
-0.183896 0.204124 0.49765
0.0871963 0.100637 0.387835
0.193307 0.195671 0
-0.177257 -0.101422 0.204124
-0.187507 0.102225 0.387835
-0.0245356 0.18882 0.654446
0.187782 -0.00597925 0.255158
0.204124 0.189341 0.35827
-0.186677 -0.173504 0.248664
0.116365 0.0843809 0.408248
0.058718 -0.0681649 0.408248
0.204124 0.18227 0.300941
0.0026876 -0.0638078 0.387835
0.145517 -0.0345831 0.408248
-0.173504 -0.00809433 0.246238
0.173504 -0.0376952 0.247873
-0.198008 0.173504 0.099816
0.0579368 -0.154061 0.387835
0.193087 -0.204124 0.0012696
0.187097 0.0468515 0.255158
0.0173397 0.204124 0.641668
-0.142724 -0.0258711 0.387835
-0.173504 -0.183829 0.0233362
-0.127964 -0.0307817 0.408248
0.204124 0.190022 0.421512
-0.134542 0.18882 0.746906
-0.150775 0.18882 0.628003
0.0135541 -0.0034446 0.387835
-0.181256 0.204124 0.420811
-0.177367 0.204124 0.144989
-0.137452 0.18882 0.703148
-0.0911926 0.192363 0.408248
0.035731 -0.104406 0.387835
0.197282 -0.0338493 0.408248
-0.00741926 0.18882 0.721788
0.151048 -0.0457654 0.387835
-0.18842 0.204124 0.509393
-0.124941 0.0920609 0.408248
0.189726 0.173504 0.804688
0.0723789 0.18882 0.767099
-0.176716 0.173504 0.0210919
-0.173504 0.18255 0.587441
0.201719 -0.16979 0.408248
-0.181995 0.173504 0.253965
0.0358592 0.204124 0.760049
-0.0285591 0.18882 0.622862
0.0674271 0.0395474 0.387835
0.204124 0.201417 0.117204
-0.181917 0.173504 0.191516
0.200199 -0.173504 0.147608
0.0649546 0.07007 0.408248
-0.0643171 0.192112 0.704233
0.119246 -0.164768 0.408248
-0.0808626 0.204124 0.642832
-0.177231 0.204124 0.462756
-0.061966 -0.18381 0.387835
-0.18882 -0.0476927 0.212759
0.173504 -0.200491 0.318604
-0.200313 0.0175686 0.387835
0.00381871 0.20377 0.704233
0.0787752 0.0344596 0.387835
-0.192437 0.173504 0.485846
0.172748 -0.0938442 0.408248
0.00479092 -0.150928 0.408248
-0.098011 -0.204124 0.396259
0.204124 0.13304 0.407667
0.00599752 -0.0794042 0.408248
-0.186588 0.204124 0.787641
0.125499 0.142616 0.408248
0.173504 0.179006 0.645582
-0.173504 -0.183018 0.233425
-0.200078 -0.181277 0.387835
-0.0704177 0.204124 0.77699
0.204124 -0.0369704 0.389962
-0.199778 0.204124 0.61949
0.173504 0.137347 0.228825
-0.031537 0.18882 0.768052
-0.184196 0.204124 0.199285
-0.125645 0.18882 0.645729
-0.00568321 0.204124 0.674139
0.204124 -0.0634868 0.396433
0.168762 -0.149678 0.387835
-0.186862 0.112257 0.408248
0.191223 0.173504 0.450509
0.0100151 -0.130107 0.387835
0.0330846 0.18882 0.73488
-0.127416 0.204124 0.730805
-0.153236 -0.0121816 0.408248
-0.173504 0.197015 0.458997
0.0422558 0.18882 0.756575
-0.112585 0.141272 0.408248
-0.0731805 -0.0838276 0.387835
0.185396 0.173504 0.263106
0.0311721 -0.124916 0.408248
0.173504 0.17396 0.632687
0.200529 -0.185059 0.387835
-0.11472 0.0920044 0.387835
-0.0864074 0.18882 0.789078
0.182348 0.158856 0.255158
0.101119 0.18882 0.787727
0.15882 0.18882 0.657027
-0.204124 -0.182637 0.202006
0.102565 0.18882 0.660697
0.0597891 0.03637 0.387835
-0.204124 -0.199601 0.344372
-0.00313647 0.00873885 0.408248
0.0858129 0.142546 0.387835
0.0393111 0.204124 0.751258
0.0219807 0.12929 0.408248
0.196592 0.173504 0.708035
-0.204124 -0.184492 0.369482
-0.181065 -0.173504 0.166327
-0.18882 0.115176 0.220853
0.18882 -0.161591 0.218005
-0.183128 0.113241 0.387835
-0.0402005 0.150946 0.408248
-0.162401 -0.173402 0.387835
-0.0299014 0.204124 0.68313
0.0148532 -0.0276097 0.387835
-0.204124 -0.0852693 0.403684
0.183361 0.0638675 0.255158
0.0644566 -0.0502986 0.408248
0.195815 -0.173504 0.158921
-0.185258 -0.0472157 0.387835
0.153378 0.16701 0.387835
-0.182029 -0.192059 0.387835
0.198291 0.173504 0.453721
-0.204124 0.187222 0.237746
0.00469479 0.18882 0.766093
-0.204124 0.141039 0.406711
-0.153297 -0.107411 0.408248
-0.0642986 0.158894 0.387835
-0.204124 -0.17698 0.0828846
-0.186314 -0.00218773 0.255158
-0.204124 -0.102705 0.402021
-0.0337328 0.189807 0.408248
0.18882 -0.141026 0.223097
0.0607565 0.117689 0.408248
0.1226 0.134121 0.387835
0.175061 -0.100729 0.204124
0.0733179 -0.183997 0.408248
0.0631988 0.128652 0.387835
0.173504 0.200786 0.758565
-0.173504 0.186331 0.210686
-0.057234 -0.185977 0.408248
0.204124 0.19856 0.393272
0.0766558 0.18882 0.773088
-0.18882 0.152671 0.219519
0.165193 0.204124 0.718382
0.173504 0.197136 0.289966
-0.181488 0.0334742 0.255158
0.0734218 0.18882 0.624907
-0.0614925 0.16975 0.387835
-0.184085 0.0643982 0.255158
-0.0697638 0.112634 0.408248
0.173504 0.191045 0.654695
0.173504 0.196672 0.667687
-0.204124 -0.193659 0.197051
0.00520541 0.18882 0.624816
0.0867361 0.0115689 0.387835
0.173504 0.0309912 0.228351
0.204124 0.0255348 0.400029
0.0415791 0.18882 0.627002
-0.0770589 0.202449 0.789282
0.173504 0.202561 0.235878
6.4224e-06 0.166114 0.408248
-0.19193 -0.119053 0.387835
-0.173504 0.179976 0.677449
0.126772 -0.148873 0.408248
-0.16498 -0.0206466 0.387835
0.0285022 -0.187678 0.408248
0.173504 0.17677 0.368561
0.137112 0.00787233 0.387835
0.076128 0.204124 0.644995
0.126624 0.0318792 0.408248
0.0358967 0.18882 0.623766
0.0393173 0.184574 0.387835
0.09225 0.0522886 0.387835
0.0070733 -0.0495404 0.408248
-0.18882 0.105867 0.204393
0.174023 -0.0367674 0.408248
-0.173504 0.186694 0.382265
0.103875 -0.153322 0.408248
-0.104024 0.204124 0.391501
-0.173504 0.186065 0.763271
-0.179999 0.204124 0.0356166
-0.195816 0.173504 0.189397
0.18882 -0.146949 0.243522
-0.0922728 0.0713026 0.408248
0.106588 0.165144 0.387835
-0.0181633 -0.0265825 0.408248
-0.199349 0.173504 0.152883
-0.18473 0.204124 0.528241
-0.179816 0.173504 0.0216616
0.174425 0.173504 0.38479
0.204124 -0.183558 0.0965073
0.191836 0.173504 0.703922
0.138323 0.0488354 0.387835
0.191059 0.173504 0.313722
-0.204124 -0.18753 0.285503
0.0129036 0.204124 0.745282
0.0338028 0.12011 0.387835
-0.173504 -0.180916 0.367842
-0.163888 0.0867616 0.408248
0.204124 0.0814607 0.39842
0.159999 -0.0501926 0.408248
-0.20126 0.204124 0.228865
0.113159 0.204124 0.735579
0.196465 -0.00594139 0.408248
0.204124 -0.00132747 0.40207
0.164265 0.193575 0.408248
0.173504 0.179542 0.321962
-0.0537426 -0.118483 0.408248
-0.141843 0.18882 0.656977
0.173504 0.187747 0.234176
-0.173504 0.199451 0.0645304
-0.114608 0.0479583 0.408248
-0.17447 0.159927 0.387835
0.172257 -0.204124 0.401567
0.173504 0.188799 0.601335
-0.189488 0.204124 0.0847721
-0.0916053 0.18882 0.649318
-0.204124 -0.179234 0.383231
0.0191123 -0.14506 0.408248
0.183416 -0.204124 0.248615
0.0646244 0.201779 0.704233
-0.202756 0.204124 0.567633
-0.133917 -0.114966 0.408248
0.129654 0.138342 0.387835
-0.188112 0.204124 0.178804
-0.153174 0.101676 0.387835
-0.169352 -0.0609269 0.387835
0.106503 0.0573652 0.408248
0.0877031 0.164151 0.408248
0.114151 -0.160073 0.387835
0.18275 0.0228225 0.387835
-0.173504 0.190265 0.639749
0.12397 0.18882 0.789203
-0.204124 0.197422 0.506833
0.0697182 0.204124 0.678564
-0.173504 -0.19645 0.312013
-0.0237397 -0.158529 0.408248
0.180655 0.173504 0.0372925
0.0696662 0.204124 0.742833
0.204124 -0.182909 0.28532
0.188735 -0.173504 0.0728569
-0.012227 0.204124 0.632086
0.0300464 -0.12032 0.387835
-0.168949 0.18882 0.76405
-0.0799115 0.146193 0.408248
-0.0924505 0.0550795 0.408248
0.173504 0.19438 0.706314
-0.173504 0.194062 0.260298
-0.176099 0.0112381 0.408248
0.116932 0.204124 0.731703
-0.162342 0.204124 0.755578
-0.173504 -0.177332 0.336731
0.173504 -0.198809 0.242003
-0.18882 0.0226969 0.230575
0.186657 0.204124 0.750433
0.173504 0.200607 0.750847
0.144988 0.204124 0.698369
0.185348 0.173504 0.479152
0.183462 -0.173504 0.015307
0.197213 -0.204124 0.360854
-0.136509 0.203545 0.387835
-0.122139 -0.18678 0.408248
0.127777 0.204124 0.748359
-0.173504 0.194023 0.493917
0.197087 -0.173504 0.0282937
-0.0340231 -0.0659745 0.408248
-0.204124 0.197717 0.194591
-0.173504 -0.189448 0.0238714
0.178424 0.204124 0.56762
0.197524 -0.204124 0.0509125
0.0942862 -0.159048 0.387835
0.110155 -0.004298 0.408248
0.00998771 0.190538 0.387835
-0.0136283 -0.149072 0.408248
-0.204124 0.199265 0.739192
-0.0549896 0.204124 0.689401
0.157894 0.18882 0.62865
0.0873623 0.18882 0.655051
0.18882 0.173504 0.399549
-0.00813468 0.204124 0.677852
-0.127502 0.117654 0.387835
0.182077 0.147759 0.387835
0.112932 0.114095 0.387835
0.166828 0.125409 0.387835
0.145854 0.12449 0.387835
-0.173504 0.183744 0.254933
-0.17852 -0.110291 0.204124
0.204124 0.200256 0.649488
-0.190749 0.204124 0.58083
-0.0505925 -0.0563026 0.408248
0.204124 0.0278237 0.404712
0.157789 0.204124 0.71136
-0.168743 0.084661 0.387835
-0.151785 0.076404 0.408248
0.204124 0.125674 0.407787
0.0758081 0.178389 0.387835
0.113944 -0.126944 0.408248
0.18882 0.0565787 0.207487
0.18361 -0.0369744 0.204124
0.204124 0.178256 0.108873
-0.111174 0.057157 0.387835
