-0.0905444 0.0734281 0.381652
-0.207446 0.141555 0.400308
-0.240413 -0.238798 0.0834467
-0.113198 -0.0413044 0.381017
0.141696 0.0867555 0.387897
0.149207 -0.234705 0.408665
-0.082635 -0.209736 0.38876
0.198039 -0.115791 0.399709
-0.215694 0.176347 0.659679
-0.00162858 -0.0440635 0.377513
0.0152523 0.164503 0.390478
-0.244486 -0.241141 0.0334804
-0.0140069 -0.197333 0.382398
0.236575 -0.213411 0.174854
0.207504 0.141981 0.40844
-0.0352574 0.22245 0.627033
-0.205259 0.206034 0.699551
0.207781 -0.183966 0.413039
0.215859 0.180623 0.628352
0.233219 -0.241946 0.0356229
-0.014481 0.209622 0.590536
-0.133528 -0.108561 0.394352
0.116194 0.012349 0.383817
0.0695838 0.221244 0.614679
-0.0347739 0.143878 0.386164
0.0497091 0.239579 0.674836
-0.132234 -0.24376 0.397078
-0.243321 0.158387 0.621872
0.135163 0.233413 0.707221
-0.105096 0.209186 0.612795
-0.0806482 -0.232863 0.408288
-0.224297 0.224848 0.133549
0.0590399 -0.14682 0.397283
0.0647452 0.0771266 0.369964
-0.0174654 0.243542 0.649715
0.024573 -0.0432162 0.377547
-0.137655 0.136442 0.394444
-0.147801 -0.0692513 0.388576
-0.234666 0.184025 0.684603
0.0146595 -0.192507 0.388437
-0.0114637 -0.24944 0.404888
0.142355 -0.204285 0.382432
-0.0444704 -0.177889 0.409994
0.0275578 0.225848 0.607791
-0.242539 0.227086 0.0892431
0.227188 -0.22131 0.242978
-0.0579874 0.144375 0.377549
-0.125141 0.0424859 0.383574
-0.0624246 -0.0577167 0.391554
0.0086709 0.0609684 0.367085
0.183132 0.0391759 0.390637
-0.172181 -0.242827 0.407588
0.143848 0.142678 0.396524
0.0922681 -0.0546418 0.392449
0.166184 0.184869 0.64716
0.179281 0.118619 0.388059
0.0938378 -0.24151 0.40713
0.0502803 -0.249999 0.404762
0.166745 -0.0236049 0.392427
-0.073233 0.24007 0.66404
0.055398 0.130808 0.384993
0.207656 -0.0418275 0.3995
0.0870753 0.170642 0.390058
-0.0515157 -0.217909 0.399702
-0.229409 0.205619 0.289803
-0.192554 -0.0389277 0.387693
-0.17017 -0.139708 0.410427
-0.226708 0.181665 0.410142
-0.1849 -0.263353 0.390685
-0.13185 0.174034 0.58267
-0.228583 0.203629 0.193507
0.00346432 0.254387 0.700298
-0.171242 0.086533 0.392009
0.0812088 -0.192559 0.388174
0.106467 -0.11066 0.393487
0.222879 0.224009 0.0974751
-0.00162219 0.00823209 0.368872
0.169948 -0.17674 0.403117
0.0407762 0.203426 0.572245
-0.171158 0.199767 0.690399
0.137741 0.0294938 0.374972
0.00857948 -0.152039 0.407415
0.212297 0.166413 0.569917
-0.186401 0.162109 0.60626
-0.147409 0.220715 0.713169
-0.222068 0.211808 0.25037
-0.237333 -0.205046 0.367577
-0.0712576 -0.264994 0.3965
-0.228915 -0.230055 0.147773
0.207809 -0.225479 0.405576
-0.0442477 0.0883662 0.369547
0.174538 -0.0732215 0.401537
-0.131423 0.0155859 0.374781
-0.120559 -0.264068 0.40039
0.0535013 -0.110647 0.391595
-0.121572 0.0789926 0.375017
-0.155403 0.0417111 0.37668
0.126423 0.204424 0.624648
0.167924 0.169308 0.582398
-0.069523 0.0336065 0.369268
0.0680564 -0.0894543 0.398279
-0.0201517 0.0646124 0.377333
-0.0471509 0.0120741 0.379364
0.0567258 -0.0212089 0.374248
0.0039108 0.110448 0.370622
0.15109 0.107454 0.391575
-0.153442 -0.0965745 0.403625
-0.239938 -0.224978 0.205664
-0.0784426 0.250492 0.693453
0.235448 0.190775 0.671832
0.107298 -0.168232 0.410647
-0.0881628 0.224785 0.635368
0.0683455 0.244116 0.698047
-0.0784695 0.197807 0.573884
0.118995 0.106843 0.387617
0.216047 0.171305 0.422988
0.220185 0.176558 0.473365
-0.139356 -0.154041 0.410631
-0.100864 -0.0905318 0.399819
0.232169 0.151325 0.58775
-0.00448788 -0.104396 0.389773
0.107227 0.203466 0.600304
0.0226884 0.25283 0.674262
-0.118666 -0.209317 0.386563
0.22981 0.210852 0.145551
-0.12843 0.230124 0.690901
0.209047 0.16573 0.59994
0.108914 0.231645 0.672758
-0.0830702 0.140008 0.388838
0.103866 -0.26458 0.390159
-0.186625 0.0324614 0.381034
-0.0154619 0.0178826 0.367963
0.0883451 0.012791 0.381686
-0.000717134 0.164898 0.380459
-0.0217823 -0.0834868 0.395911
0.0172441 -0.232958 0.407956
0.089336 0.0571585 0.380866
0.167756 -0.104363 0.395871
0.234755 -0.217246 0.302324
-0.0850615 0.0463122 0.3802
-0.190136 0.121495 0.400541
-0.241165 -0.213844 0.247145
-0.189759 -0.204016 0.382245
-0.214914 0.173449 0.525748
-0.066238 -0.132807 0.395411
-0.0494496 -0.0328028 0.386046
0.208607 0.151965 0.558653
-0.149195 -0.190309 0.412326
0.164557 -0.199177 0.397166
-0.104314 0.15628 0.394791
-0.144489 0.204585 0.643956
-0.176881 -0.182631 0.403378
-0.210891 0.164602 0.475247
-0.0680239 -0.163017 0.399264
0.22706 0.19004 0.320026
0.218365 0.164183 0.514167
0.0939371 0.118797 0.386617
-0.105003 -0.214061 0.400518
0.237182 0.196837 0.716066
-0.0286803 -0.233281 0.397942
-0.022714 0.250609 0.694839
-0.185818 -0.0928485 0.40563
-0.189616 -0.124562 0.409979
0.193576 0.183252 0.663086
-0.0990181 -0.181855 0.411084
0.0423789 0.016511 0.36882
0.0866078 0.0951404 0.3732
0.182106 0.202767 0.70439
0.122437 -0.0653007 0.396251
0.0614054 -0.0680455 0.393728
0.131347 -0.155639 0.400558
-0.213664 0.193949 0.351245
-0.218331 0.168998 0.436594
-0.0248824 -0.198794 0.410322
0.0801216 -0.145837 0.407655
0.221517 0.178288 0.383852
0.159867 0.172016 0.608013
-0.227376 0.174146 0.627975
-0.0997364 0.102658 0.385065
0.152436 0.208058 0.661401
0.216815 -0.200977 0.392835
-0.0489615 0.237484 0.642013
0.221684 0.190096 0.695253
0.192223 -0.0990196 0.397083
0.147995 -0.0407342 0.383471
0.238589 -0.205053 0.31184
-0.202517 0.184027 0.643471
0.00456934 -0.194594 0.410179
-0.181366 -0.0729606 0.392017
0.21896 0.193104 0.274654
-0.224145 -0.210835 0.345073
0.00416051 0.219873 0.614071
0.228913 -0.196554 0.346682
-0.133973 -0.193768 0.393465
-0.0435408 -0.0782033 0.395206
0.0391423 -0.140093 0.405961
-0.0343546 -0.263283 0.390595
0.105967 -0.202796 0.41127
0.185172 -0.233513 0.409399
0.241523 -0.220966 0.115279
-0.23995 0.229089 0.0165212
0.18564 0.0168098 0.381077
-0.178005 0.17471 0.632242
0.00209462 0.239043 0.635292
-0.184022 0.197386 0.665566
-0.0826403 -0.0486344 0.380606
0.250033 0.176651 0.658137
-0.22806 0.22595 0.0655842
0.123213 0.218554 0.684113
0.192005 0.136806 0.394072
-0.209567 0.149726 0.571899
0.15001 0.170692 0.403065
0.159216 -0.144459 0.400394
0.0271385 -0.0676186 0.39272
0.0641174 0.0401568 0.368772
0.110575 -0.0451179 0.381633
-0.109353 0.227353 0.662932
0.00467537 -0.0118373 0.371483
-0.0373441 0.219977 0.594957
-0.060007 0.170515 0.392741
-0.0469569 0.0527702 0.37797
0.239117 0.22629 0.0589719
-0.199602 0.0754236 0.395921
-0.0153678 0.134783 0.373948
-0.169516 0.165765 0.58337
0.220842 0.219514 0.194343
0.0444439 0.118683 0.382736
-0.207346 0.0239621 0.390975
0.0926348 -0.208061 0.385122
0.0427344 0.232694 0.654297
0.00787587 0.0859623 0.378387
0.229443 0.199699 0.236657
0.0376947 0.231746 0.624749
0.156404 0.06583 0.377957
-0.110678 -0.117151 0.404593
-0.156496 0.192319 0.625312
0.0217656 -0.0990814 0.388931
-0.178665 -0.222265 0.401214
-0.0625151 0.228069 0.654111
-0.182933 -0.161675 0.413113
0.194256 -0.0554824 0.390605
0.100473 0.194874 0.5748
0.0756551 0.237341 0.68574
0.238771 -0.210449 0.225916
-0.113919 0.202412 0.633889
-0.144646 0.0771376 0.387408
0.151544 -0.0115565 0.389249
0.234038 -0.231329 0.164751
-0.240353 -0.216726 0.163839
-0.0642574 -0.200243 0.410696
0.145867 0.185527 0.62636
-0.223331 0.165153 0.603972
-0.25004 0.185159 0.675553
0.214978 -0.200128 0.375083
-0.135974 -0.0250403 0.379731
-0.066374 -0.107738 0.401387
0.244388 -0.230193 0.024953
0.0771965 0.140331 0.378453
-0.134484 -0.0863096 0.390798
0.1797 0.196942 0.659359
0.061781 -0.208631 0.385689
0.129754 -0.210838 0.40114
-0.147881 0.0977446 0.38995
-0.0951542 0.0059379 0.372662
-0.102543 -0.192734 0.388136
-0.0980518 -0.0215757 0.376478
0.125975 -0.0915361 0.391313
-0.21762 0.156992 0.535482
-0.0204445 -0.217079 0.399583
0.0782533 -0.0614654 0.393081
0.181712 0.0691318 0.392201
-0.155419 0.00920866 0.38754
-0.108649 -0.15084 0.409152
-0.0226571 -0.0370714 0.376254
-0.14743 -0.120891 0.406805
0.0967564 -0.223448 0.409791
0.0782912 0.221721 0.648321
-0.170644 -0.0362148 0.394734
-0.0950304 0.197382 0.600482
-0.0309114 -0.1516 0.407479
-0.180801 -0.0157985 0.392956
-0.219033 0.19946 0.718685
0.207743 -0.14778 0.413254
0.0623704 0.199756 0.583217
-0.0657041 0.0901397 0.370918
0.0205499 0.116063 0.371504
-0.146154 -0.234088 0.39874
-0.106394 0.0627051 0.382367
-0.167258 -0.022557 0.382235
-0.145653 0.177715 0.607187
0.103965 0.0295682 0.372038
-0.0366698 -0.128206 0.404073
-0.176767 0.049908 0.379981
0.20759 0.0433726 0.386588
-0.227218 0.195888 0.247855
0.119008 0.133996 0.391695
-0.219987 0.177287 0.486711
-0.0684673 -0.179384 0.400433
0.201097 0.193858 0.694566
0.0415793 0.078456 0.37882
0.0768675 -0.0389861 0.378516
-0.207286 -0.0406691 0.390737
-0.193823 0.0573126 0.383191
0.155636 0.118026 0.383819
-0.124033 0.119852 0.389934
-0.102012 0.128557 0.378631
-0.243958 -0.231251 0.110634
0.242835 0.240143 0.0173775
-0.177241 0.0147643 0.389862
-0.156385 0.195711 0.6641
-0.114653 -0.230767 0.408908
-0.205562 -0.213762 0.402728
0.155802 -0.254743 0.40356
0.217043 0.160219 0.539684
-0.0485637 0.254815 0.685117
0.0688206 0.0565008 0.379306
-0.156527 -0.220423 0.4009
0.0605912 -0.183331 0.400392
0.00756124 0.205355 0.578456
0.116587 -0.257672 0.402463
-0.231661 0.227649 0.0357819
0.0236944 -0.247823 0.405399
0.171632 0.184648 0.620954
0.201993 0.172486 0.641658
0.113412 -0.0276723 0.378597
-0.1247 -0.207392 0.411301
0.0356486 -0.024624 0.374072
0.0129802 0.248546 0.661434
0.127849 -0.185188 0.4018
-0.0571207 0.211573 0.609374
0.0536527 -0.209362 0.410175
-0.00982329 -0.0894223 0.387042
-0.0591242 -0.204931 0.382596
0.164778 0.0293146 0.378023
0.198221 -0.0266697 0.386646
-0.0462277 0.125025 0.373501
-0.230908 0.200787 0.218309
0.0265662 -0.208848 0.400007
-0.0681603 0.123064 0.384694
0.0716372 -0.0126108 0.373581
0.227655 0.229363 0.137537
-0.0105533 0.227461 0.608013
-0.135509 0.207483 0.670383
0.227166 0.226803 0.155501
-0.236567 0.211873 0.149757
0.185695 0.216379 0.713687
-0.235992 -0.226505 0.0431879
-0.108913 -0.0621191 0.384754
-0.209481 0.155844 0.60582
0.189744 0.0879772 0.385554
0.190106 -0.18599 0.403887
0.0511178 -0.125715 0.403973
0.0455102 -0.0533911 0.380153
0.109861 -0.129561 0.406429
-0.0112333 0.0612631 0.367098
0.196597 0.165001 0.412881
-0.230492 -0.218503 0.300282
0.213823 0.187081 0.43415
0.228437 -0.22062 0.26692
-0.00935777 -0.264942 0.39587
0.18537 0.171147 0.60015
-0.0301799 0.0410103 0.367253
-0.000290154 -0.139086 0.395502
0.0149321 -0.217241 0.39956
0.0872315 -0.110404 0.402649
-0.164582 -0.205802 0.40226
0.190658 -0.00785371 0.383407
-0.121904 0.187557 0.605532
0.0989103 0.232381 0.663161
0.139831 0.211702 0.65821
-0.0281584 0.211545 0.571914
-0.0831638 -0.0922572 0.389315
0.010851 0.0433534 0.366946
0.162197 -0.224494 0.400516
0.127929 0.0701488 0.375022
-0.072121 0.236379 0.681066
-0.131004 -0.169423 0.40136
-0.228912 -0.233322 0.0592977
0.0597955 0.220715 0.634037
-0.227825 0.221776 0.0871781
0.0949257 0.203201 0.614818
-0.148692 0.114416 0.392242
0.0113323 -0.168332 0.399011
0.0779238 -0.166817 0.39979
0.135222 0.00724646 0.375818
0.229976 -0.228085 0.187571
-0.159495 0.141256 0.398581
0.0828499 0.212892 0.602578
0.154535 -0.0763393 0.39039
-0.0257692 0.251931 0.672463
0.0577138 0.209106 0.603658
-0.0483951 0.226615 0.614456
-0.235686 -0.221512 0.0922341
-0.231917 0.179706 0.643572
0.0822001 -0.080392 0.387047
0.0399175 0.0291646 0.368103
0.155675 0.084792 0.379482
-0.191999 0.188486 0.675939
0.243954 -0.22545 0.0869319
0.157214 -0.12483 0.40792
0.107616 -0.00502953 0.374732
-0.210848 0.179392 0.401401
0.223813 0.230783 0.0708472
-0.0887666 0.224217 0.661319
-0.212717 0.16548 0.580005
0.0504386 0.147994 0.377792
-0.176835 0.141438 0.391858
0.191312 -0.198907 0.397082
0.0689777 0.159626 0.392137
-0.0195275 -0.159836 0.408378
0.16995 -0.0630731 0.389382
-0.237827 0.212986 0.178846
-0.0589751 -0.0740703 0.394805
0.132237 -0.0390045 0.391977
0.154063 -0.177329 0.402524
-0.174391 -0.205157 0.382641
0.116187 0.23691 0.694258
0.0311452 0.0053931 0.37955
-0.137893 -0.0474073 0.38382
-0.227533 0.185267 0.339272
-0.16785 0.170879 0.614714
0.08111 0.0809803 0.381419
-0.179996 0.101314 0.395418
-0.116852 0.114558 0.378374
-0.0509649 -0.00358552 0.371069
-0.205217 -0.194318 0.404247
-0.219061 -0.210398 0.378588
0.109239 0.205503 0.636197
-0.238351 -0.224178 0.225565
0.130757 -0.241015 0.397471
0.243786 -0.228255 0.04393
0.227843 -0.228144 0.139176
-0.0201444 -0.236179 0.407537
0.125348 -0.00832407 0.38654
0.237604 -0.245859 0.0131975
-0.0844474 0.219025 0.618577
0.213774 0.174051 0.404214
-0.0372305 -0.20973 0.388916
0.228879 0.167782 0.641929
0.203716 0.172253 0.479593
-0.0800085 -0.0065628 0.372991
0.0163107 0.223836 0.626554
-0.183184 -0.198719 0.396914
0.0319699 -0.117088 0.392215
-0.243324 -0.229462 0.133206
0.203747 0.165437 0.625164
0.217091 0.195554 0.374718
-0.025747 0.219234 0.616972
-0.0706352 -0.194876 0.394715
-0.228561 -0.203279 0.288346
-0.196809 0.108769 0.399825
-0.09024 0.194145 0.587106
-0.189382 -0.0515976 0.389315
-0.22678 0.19295 0.367985
-0.238041 0.246387 0.0153316
0.228643 0.19374 0.300076
0.0146431 0.0217613 0.377758
0.128666 0.199816 0.643169
0.170213 -0.164533 0.41267
-0.236882 -0.228575 0.0206904
-0.169251 -0.084747 0.40288
-0.187812 -0.141299 0.401684
0.11668 -0.0783089 0.388386
0.188961 -0.0849544 0.404793
-0.0134298 -0.101211 0.399225
0.00230642 -0.242822 0.396642
-0.217173 0.193469 0.291396
-0.000779589 -0.0266215 0.383981
0.188061 0.185579 0.638822
-0.250046 0.192812 0.697199
-0.189534 0.176369 0.618514
0.111216 0.185036 0.587131
0.170039 -0.00973729 0.381036
-0.0856989 0.0966586 0.383143
0.0698316 -0.230652 0.398514
-0.163157 0.182499 0.638569
0.181855 0.147405 0.404369
-0.14984 0.210305 0.663624
-0.23142 0.198007 0.307239
0.144597 0.0414792 0.385447
-0.084681 -0.172671 0.400314
0.233424 0.201341 0.697564
-0.0604757 -0.238346 0.397383
0.0353574 -0.235541 0.397663
0.025024 -0.180172 0.409926
0.0206103 0.249614 0.691971
-0.219232 0.159242 0.557272
-0.230949 0.188817 0.666011
0.16318 0.162932 0.395067
-0.100426 -0.135107 0.396832
0.0579862 0.0203926 0.379218
-0.205643 0.170982 0.511087
-0.0915944 -0.262683 0.400818
-0.0305789 -0.184938 0.400055
0.201331 0.158985 0.60743
0.228837 -0.231458 0.120377
-0.133924 0.227754 0.711082
0.218337 0.212455 0.242565
0.0848726 0.224678 0.633413
0.207713 -0.107717 0.408247
-0.193212 -0.230265 0.410132
-0.0762931 -0.0747702 0.385603
0.132047 -0.22266 0.410336
-0.201634 -0.0182654 0.396015
-0.214327 0.18503 0.680921
0.162897 -0.19302 0.412745
0.20254 0.16876 0.502644
0.204965 0.194248 0.669887
0.0178039 0.0804807 0.368143
0.105225 0.154858 0.394618
0.238301 0.22828 0.0314576
0.110529 0.123641 0.378988
0.113597 -0.209413 0.387983
0.207842 -0.264703 0.394402
-0.118622 -0.0988674 0.402051
0.211306 0.194902 0.349083
-0.00935054 0.116564 0.381378
-0.0426375 0.157899 0.379742
-0.0754337 0.0472385 0.369508
0.207553 0.0853209 0.398402
0.0575205 -0.264885 0.398722
0.182535 -0.0119244 0.392866
0.0823182 0.0237375 0.370535
0.239653 -0.213823 0.281744
-0.207222 -0.121652 0.401556
0.197988 -0.135799 0.401902
0.11237 -0.151629 0.409429
0.240525 -0.241274 0.0561318
-0.189495 0.197925 0.697899
-0.0303545 0.0599468 0.367444
0.211705 0.153943 0.580442
0.233621 -0.212724 0.34879
0.0662235 0.249569 0.683339
-0.0498691 0.0686547 0.368557
-0.146327 0.0254355 0.385852
-0.0101336 -0.187305 0.400017
0.151851 -0.0998568 0.394103
0.226451 -0.203019 0.296938
0.0923036 0.231417 0.682589
-0.11687 0.0112407 0.373874
0.00491638 0.243509 0.673382
0.2078 -0.20521 0.410236
-0.0147608 -0.0582129 0.380538
-0.0180941 -0.149215 0.397027
-0.240869 0.227452 0.109751
0.0377906 0.162493 0.380772
-0.107622 -0.166695 0.400506
-0.238155 -0.206721 0.270716
0.149034 0.16729 0.582994
-0.19292 0.159 0.58537
0.086519 0.130939 0.387591
-0.134858 -0.138119 0.398537
-0.236651 0.214724 0.124379
0.233588 0.231293 0.117833
-0.140297 -0.20896 0.392956
0.16232 0.203149 0.68864
-0.242434 -0.219095 0.187631
0.14583 0.0207684 0.38588
-0.017868 0.00270137 0.369538
0.169926 -0.139932 0.410534
-0.104979 0.0780161 0.38328
0.233075 0.214375 0.209183
0.0155295 -0.0534703 0.389547
0.229005 -0.21816 0.153389
-0.217856 0.187646 0.316507
-0.0591826 0.0228563 0.369097
0.0615526 0.23096 0.660798
-0.1633 0.209744 0.706865
-0.0126009 0.149749 0.376592
0.117786 0.0951031 0.376236
0.0289375 -0.158645 0.408365
0.180991 -0.106698 0.407221
-0.030388 0.231286 0.648111
0.233575 0.1525 0.604562
-0.225343 -0.213784 0.321835
0.212993 0.170663 0.613665
-0.18743 0.164486 0.400522
-0.199884 -0.258813 0.402353
0.148891 -0.211273 0.401476
-0.234118 0.237406 0.0783809
-0.0891965 0.237608 0.668111
-0.119381 -0.196188 0.39608
-0.0705283 0.233337 0.645461
0.236293 -0.200616 0.330811
0.220961 0.154721 0.606482
0.221444 0.201313 0.333669
0.164279 0.193496 0.636148
0.158412 -0.0471607 0.395444
-0.119098 -0.0265686 0.38873
0.119163 -0.103043 0.402841
-0.0694376 -0.0381256 0.3879
0.051788 0.212603 0.581242
0.147811 0.223382 0.695385
-0.00973189 0.204905 0.571796
-0.150478 0.170441 0.398345
-0.106467 -0.203532 0.411229
0.22392 0.200354 0.219168
-0.100195 -0.0735197 0.396501
0.238181 -0.207273 0.262951
-0.246848 0.198107 0.719848
-0.225698 0.209744 0.272522
-0.136427 -0.264049 0.400406
0.190223 0.120791 0.400547
-0.227437 -0.196621 0.355746
0.1026 -0.0332212 0.388943
-0.168346 -0.124576 0.398471
-0.0810148 -0.21554 0.410121
-0.153151 -0.041361 0.383923
-0.244138 -0.244271 0.0104228
0.123859 -0.133599 0.397549
0.171726 0.132534 0.389071
-0.0482271 -0.11263 0.401769
0.0494645 -0.00779581 0.381759
0.207515 0.125635 0.397244
-0.166796 0.131873 0.397897
-0.120918 0.218384 0.681546
-0.184442 0.181023 0.652278
-0.0639257 -0.0278793 0.375629
0.134037 0.152901 0.387582
-0.086518 0.121076 0.386042
-0.106648 -0.261356 0.391262
0.0725517 0.210926 0.590824
0.105224 -0.0649806 0.385209
-0.0315106 -0.167355 0.399045
-0.13262 -0.00125328 0.386209
-0.202576 -0.0781711 0.405006
-0.000304431 -0.209303 0.386977
0.216535 0.185878 0.652982
0.0460953 -0.20637 0.395586
-0.101223 0.0489743 0.371562
-0.199612 -0.160802 0.404025
-0.0100629 0.260883 0.69154
0.100055 0.0632715 0.371918
0.249297 0.148326 0.595822
0.135831 -0.0750682 0.388884
0.160392 -0.201851 0.381601
-0.0326176 -0.0417338 0.387364
-0.0590982 0.0379761 0.378532
0.0910941 -0.161606 0.409779
0.0370798 -0.252324 0.394014
-0.224152 0.173239 0.454299
-0.17931 -0.00093138 0.381098
0.129756 0.211428 0.673419
-0.215291 0.178023 0.635436
0.165338 -0.25133 0.394795
-0.00405455 0.0964031 0.379271
-0.123289 -0.154681 0.400141
0.050141 0.247543 0.695045
0.00264004 0.234404 0.650115
-0.176184 0.176257 0.604859
0.207676 -0.0640781 0.399095
-0.194817 -0.192222 0.413887
-0.0985341 0.215006 0.64843
-0.0854944 0.0859233 0.372079
-0.0484127 -0.169289 0.399389
-0.0403671 -0.20585 0.410224
-0.19885 0.208741 0.716708
-0.0596717 0.202338 0.587908
-0.139964 0.216464 0.697787
-0.207607 0.172243 0.615877
0.134625 0.0529498 0.37486
-0.244883 0.239019 0.0283727
0.0883642 -0.124672 0.394913
-0.0963594 0.236205 0.699058
-0.152054 -0.14065 0.409575
-0.0113128 -0.0111171 0.381386
0.0809982 0.252127 0.7039
-0.0370544 -0.0306486 0.375255
-0.166493 -0.177913 0.41299
0.168956 -0.0828171 0.392671
-0.00166871 0.234371 0.623422
-0.112845 -0.0859592 0.389545
-0.0504907 -0.0623653 0.382119
0.0765672 -0.248666 0.405268
0.0815493 0.00294428 0.37209
0.218028 0.19785 0.713388
-0.166185 -0.193211 0.392475
-0.221115 0.172233 0.503874
-0.144895 -0.172228 0.411948
-0.00728742 -0.067205 0.392431
0.116978 -0.034984 0.390195
-0.152775 0.128776 0.384974
-0.0615794 0.107896 0.372351
0.0306087 0.209186 0.592908
0.185683 -0.0767195 0.3932
0.0187629 -0.0290789 0.384598
-0.208678 0.171128 0.597267
-0.0384647 0.104042 0.370719
0.198151 -0.0449205 0.389377
-0.232313 0.218004 0.207022
-0.214056 0.190776 0.664643
-0.183612 0.0814178 0.383588
-0.0232924 0.23649 0.633303
0.207641 -0.0248773 0.397421
-0.0905766 0.155923 0.383138
0.0195113 0.132583 0.373672
0.191202 0.175607 0.616828
0.0775244 0.0645086 0.370114
0.0357976 0.0452113 0.377513
0.142091 -0.194601 0.394608
-0.0133129 -0.14737 0.406741
0.102497 -0.100154 0.401592
0.214581 0.204521 0.266852
-0.161963 0.210283 0.675721
0.119958 0.195983 0.596132
0.117829 -0.188855 0.41159
-0.224558 0.196934 0.683949
0.0784679 0.0390851 0.369752
-0.20923 0.181165 0.440721
0.0597856 -0.164717 0.39927
0.191302 0.0562224 0.382779
0.0808148 -0.206182 0.39571
0.140846 -0.141091 0.399177
0.158693 0.124969 0.395304
-0.0855325 -0.244239 0.396702
0.0193835 -0.0033861 0.370195
-0.216982 0.192983 0.388553
-0.129586 0.20729 0.63507
0.217908 0.184705 0.680448
-0.0947276 -0.202742 0.40107
0.0452705 0.255377 0.685532
0.041756 -0.0976388 0.399014
-0.0826832 0.0253898 0.370425
0.217209 0.199206 0.686568
-0.0643859 -0.148208 0.407546
-0.220045 0.202279 0.230665
0.199251 -0.23936 0.398532
-0.0328276 0.261476 0.697842
0.120669 0.0343727 0.383309
0.127152 -0.194066 0.384875
-0.0914787 -0.00225593 0.383145
-0.042064 0.17053 0.391715
-0.235333 -0.223307 0.07591
0.107399 0.0471723 0.372162
-0.246704 0.174232 0.635363
-0.06384 0.246058 0.699966
-0.226324 -0.195184 0.381005
0.189894 -0.174538 0.413928
0.225392 0.224301 0.173034
0.135295 0.101396 0.388843
0.0891009 -0.257521 0.402459
0.148936 0.197106 0.658729
-0.0325714 -0.115687 0.391983
-0.0676606 -0.0141989 0.383528
0.0730695 0.203319 0.572287
-0.0143957 -0.116476 0.391922
0.242335 -0.218712 0.160331
-0.0889106 -0.0339027 0.37811
-0.2308 0.225981 0.158563
0.0606007 -0.245578 0.396183
-0.0914578 0.243379 0.684001
0.0806865 0.210196 0.620998
-0.120331 0.169236 0.400417
0.218228 0.183025 0.452723
-0.235377 0.16349 0.633339
0.229323 -0.224649 0.224571
-0.13521 0.201378 0.654785
0.0628518 -0.192793 0.387651
0.0711725 -0.106599 0.401409
0.116999 0.193842 0.615482
0.23503 0.236194 0.0841766
0.0680635 0.0335371 0.379274
0.15125 -0.0251905 0.38106
-0.0253433 -0.0717832 0.383539
0.236808 0.219476 0.107336
-0.0315773 0.011487 0.368922
0.229786 -0.216185 0.320987
0.214987 0.16658 0.555067
-0.117843 -0.220273 0.400321
0.054619 0.227473 0.620341
0.112723 0.0668986 0.383312
0.243053 0.183446 0.683504
0.167388 0.208038 0.706477
-0.0859604 0.20448 0.610141
-0.0434763 -0.156588 0.408361
-0.193233 0.148745 0.407003
-0.113087 0.236191 0.689159
-0.153981 0.0588419 0.377193
-0.0884815 -0.102311 0.401241
-0.0668463 0.158595 0.381561
0.0858877 -0.0915634 0.399387
0.227092 0.167415 0.610461
0.182887 -0.0253555 0.384533
0.0228007 -0.155755 0.398027
-0.193673 0.174237 0.641393
-0.172586 0.17042 0.408402
-0.0697373 0.0200455 0.379792
-0.160884 -0.23281 0.409139
0.206921 -0.124458 0.411341
0.137275 -0.0561795 0.385478
0.223799 0.207287 0.290855
0.188328 -0.198608 0.413494
0.0968691 0.225716 0.644147
-0.105726 0.0909881 0.374464
0.14518 0.131441 0.384401
-0.232681 -0.222864 0.258821
-0.109569 -0.10266 0.39224
-0.158726 -0.245378 0.396895
0.198864 -0.162235 0.414056
-0.246203 0.241112 0.00615864
-0.0556374 -0.0146548 0.383057
-0.0231034 0.238598 0.664867
0.155402 0.187391 0.612474
-0.015245 0.0480974 0.377008
0.194213 0.208062 0.700704
0.227543 -0.195097 0.363489
-0.0956589 0.116471 0.376349
-0.0383994 -0.0885953 0.387225
-0.0523476 -0.20068 0.397482
-0.0567736 -0.185835 0.410351
0.00168596 0.0247101 0.367553
-0.164297 0.102917 0.392895
0.0802859 -0.139641 0.396813
0.181243 0.190698 0.673621
0.204217 -0.0921552 0.40731
0.223414 0.184846 0.336325
-0.139972 0.0907334 0.378159
-0.135534 0.0694714 0.375775
0.0273303 0.0903456 0.379129
0.137794 0.196343 0.617432
0.0727045 0.125583 0.375489
-0.032453 -0.224362 0.409154
0.0520563 0.243104 0.657763
-0.0849904 -0.128993 0.395377
0.168915 -0.237111 0.408512
0.187503 0.00406405 0.39205
0.108217 -0.240233 0.39742
0.0657153 -0.0232016 0.384952
-0.141186 -0.0313755 0.391237
-0.0844417 0.059986 0.370407
0.117508 0.164892 0.388879
0.216941 0.210651 0.209056
-0.116538 -0.248768 0.395445
0.0547305 0.21514 0.616862
0.019547 -0.209317 0.387128
-0.227183 -0.200256 0.321415
0.180456 0.182691 0.653069
0.177228 -0.134526 0.400373
0.104054 0.104125 0.37578
0.109609 0.224304 0.683663
0.174551 0.0602873 0.380279
0.235112 -0.220508 0.100012
0.0544765 0.0521107 0.37842
-0.198258 0.162332 0.614641
-0.102235 -0.0448308 0.390985
-0.138694 0.0516052 0.3852
0.204991 -0.209311 0.386417
-0.0347513 -0.243657 0.406575
-0.151251 0.192158 0.649521
0.205124 0.171717 0.46148
-0.229487 -0.234024 0.100811
0.116531 -0.213727 0.410744
0.154643 -0.106925 0.405323
0.0492661 0.0861031 0.369646
-0.153117 0.169576 0.595111
-0.125114 -0.0639558 0.386085
-0.1372 -0.202406 0.381707
0.0951924 -0.172632 0.400598
0.0422055 -0.0753703 0.394653
0.114866 0.236163 0.708643
-0.0259406 -0.263042 0.400666
-0.132003 0.189414 0.59303
-0.24332 -0.222748 0.148581
-0.212328 0.187179 0.415487
0.044748 -0.0376539 0.376927
0.0602741 0.102262 0.381806
-0.0705179 0.211684 0.618252
0.118947 0.0243218 0.373393
0.225923 0.237581 0.0366125
-0.0528823 0.156329 0.389933
0.230154 0.205014 0.271407
0.237256 -0.212179 0.190868
0.022269 0.23517 0.629975
0.0260255 0.20614 0.571436
0.142328 -0.114054 0.395656
0.123167 -0.170399 0.411212
0.166444 0.111043 0.394536
-0.220001 0.160375 0.590779
0.0909714 -0.102955 0.391551
0.177634 0.160025 0.585155
-0.2348 -0.209964 0.211597
-0.17941 -0.191858 0.4133
0.22427 0.204024 0.193412
-0.120362 0.0234082 0.383467
-0.0992844 -0.227311 0.409259
-0.0699268 -0.209831 0.40029
-0.132307 -0.125705 0.406754
0.0535949 -0.231819 0.39825
-0.178205 0.15986 0.595228
-0.0454878 0.112659 0.381984
0.0099264 0.153547 0.377572
0.175242 -0.192787 0.387442
-0.187231 -0.106341 0.397543
-0.181808 0.204824 0.710082
-0.21859 0.162739 0.488898
0.205792 0.173903 0.517177
-0.203838 0.165204 0.539273
-0.151665 0.15494 0.400705
-0.0656936 0.249797 0.683542
-0.0333958 -0.14318 0.396293
0.0248774 -0.0828411 0.395839
0.0462287 0.226235 0.639224
0.0153613 -0.181793 0.399902
-0.207437 0.125945 0.400683
-0.235032 0.209573 0.230926
0.237008 0.185205 0.658438
-0.170664 0.191648 0.669764
0.170533 0.0136148 0.379195
-0.112317 0.197767 0.620501
0.0879223 0.114201 0.375439
-0.213942 0.171892 0.42248
0.114278 0.224178 0.660203
-0.0730983 0.0806501 0.380709
0.148244 -0.249045 0.395474
0.103606 0.169706 0.398544
-0.0647343 0.204678 0.571848
-0.153565 -0.110726 0.395759
-0.163298 -0.070935 0.400027
-0.13006 0.221818 0.671926
0.0206877 -0.192076 0.410167
0.201718 0.158109 0.545072
-0.0982232 0.170064 0.397878
-0.203571 0.0079311 0.394132
0.212197 0.197942 0.320178
-0.118334 0.205267 0.645893
0.00560725 0.125597 0.372411
-0.204684 -0.160383 0.414326
0.0569458 -0.0806049 0.386136
0.0131993 -0.251389 0.394278
-0.228078 0.235438 0.0485697
-0.204641 -0.207535 0.383198
0.0651434 -0.206682 0.400422
0.0281243 0.123631 0.38261
-0.0136262 0.0327278 0.367276
-0.227569 -0.215741 0.18898
0.00352182 -0.263453 0.390531
-0.20944 0.17051 0.451242
0.103627 0.0932448 0.384624
0.0682683 0.144828 0.388508
-0.21581 0.16204 0.623922
-0.0844378 -0.192465 0.388741
0.0131157 0.213459 0.599909
0.121766 0.155324 0.39671
0.124943 -0.222492 0.400253
0.0374543 0.250594 0.671867
0.0268676 0.247077 0.660771
0.231081 -0.206653 0.243945
-0.151118 -0.153121 0.400976
0.0101892 -0.0962525 0.398327
0.172474 0.165089 0.603781
0.155028 -0.061145 0.387704
0.199551 0.155632 0.574853
0.208608 0.187269 0.39025
-0.18684 -0.246474 0.406783
-0.189976 0.0148184 0.381701
0.168159 0.203869 0.665783
-0.143941 0.194068 0.617104
-0.204641 0.162415 0.524813
-0.169587 -0.0510834 0.397123
-0.21645 0.180357 0.36432
0.00940807 0.228969 0.637943
-0.0896302 0.250841 0.701497
0.0254445 0.150622 0.377142
-0.216571 0.16918 0.54628
-0.195554 -0.178569 0.404293
0.0038164 -0.127111 0.403635
0.221536 0.210441 0.166335
0.192875 -0.048436 0.39929
-0.220809 0.213582 0.185382
-0.118536 0.183082 0.590625
0.0455292 -0.16232 0.408855
0.0128438 0.0119972 0.368556
-0.207456 0.155686 0.405274
0.165013 0.0976091 0.382486
-0.123071 0.0639481 0.384062
-0.0506039 -0.0474241 0.389
-0.233157 0.207098 0.25921
0.249623 0.1883 0.671686
-0.0532575 -0.231177 0.408323
0.214625 0.162649 0.487112
-0.183407 -0.0606109 0.400149
-0.21053 0.179519 0.475429
0.0192675 0.0581004 0.377186
0.22342 0.184008 0.412642
-0.225457 -0.208942 0.263084
0.238574 -0.238961 0.0837649
-0.23867 -0.207614 0.345444
0.0871672 -0.227404 0.399123
-0.115428 0.134513 0.3813
0.207479 0.184124 0.415063
0.200625 0.164476 0.558641
-0.000743046 -0.198238 0.396803
-0.175152 -0.114394 0.407695
-0.0419688 -0.0192605 0.383331
-0.230187 0.240735 0.0286586
-0.103843 -0.00807206 0.374815
0.0448526 -0.0131607 0.37248
-0.0112482 -0.204033 0.410178
0.0935852 0.0739507 0.382074
-0.158573 0.0197455 0.37721
-0.144484 0.181143 0.585319
0.0945465 0.196476 0.597567
-0.0608553 0.0569986 0.36873
-0.159062 0.094319 0.381027
0.0160744 -0.134278 0.394836
0.244015 0.239732 0.00274219
0.191049 0.192262 0.683975
-0.236988 0.164319 0.606953
0.0324496 -0.264906 0.391554
0.0308451 -0.059543 0.381066
0.20758 0.0580209 0.38677
-0.168062 0.0386897 0.388294
-0.108562 -0.0162656 0.386388
-0.195528 0.166413 0.596808
0.250017 0.197801 0.710679
0.00695578 -0.0693323 0.382881
-0.158734 -0.0885002 0.392696
0.140182 0.169497 0.393186
-0.217156 0.203254 0.262654
-0.107723 -0.133159 0.406814
-0.245009 0.175763 0.665631
0.134504 -0.253515 0.403905
-0.105521 0.116223 0.387341
0.0976741 -0.19085 0.411165
-0.13471 0.170457 0.402201
0.0353365 -0.209735 0.389237
0.222122 -0.207239 0.357627
-0.233461 0.239455 0.0640173
0.237923 0.17653 0.637053
-0.224573 0.199119 0.343219
0.176067 -0.192739 0.403183
-0.00232075 -0.161528 0.40846
-0.0825198 0.00764191 0.371643
0.224721 -0.210687 0.257052
-0.0527509 0.234928 0.665002
0.000926901 0.224876 0.599583
0.0854004 -0.0276941 0.37682
0.103856 0.00884476 0.373177
0.219131 0.18029 0.359953
-0.00428314 -0.178442 0.409791
-0.0101054 0.0777792 0.36791
-0.244114 -0.232434 0.00048971
0.0378887 -0.217606 0.399643
-0.231292 -0.21783 0.140537
-0.188046 0.0423606 0.391388
0.243961 -0.232818 0.102633
0.163683 0.180635 0.6338
-0.181452 0.119266 0.388423
0.0253427 0.261945 0.697647
0.108134 -0.218868 0.400277
-0.242381 0.225299 0.0752457
-0.249956 0.15602 0.593731
0.198172 0.209852 0.716478
-0.0760112 0.219181 0.640536
-0.156067 0.0684337 0.388069
-0.0433116 0.0379709 0.36781
-0.14348 -0.252249 0.394433
0.072461 -0.20048 0.410831
-0.13504 -0.197704 0.411957
-0.116243 0.198394 0.598103
-0.0629863 -0.0495193 0.379874
-0.0338249 0.0855981 0.378872
-0.122873 0.200815 0.611471
0.116151 -0.0497123 0.392857
0.0851978 0.247637 0.691079
-0.0571267 -0.264982 0.398041
-0.127502 -0.225769 0.40984
0.120707 -0.203816 0.401468
-0.0937058 0.0342078 0.370957
0.046358 0.109874 0.371767
0.143616 -0.186936 0.4022
-0.191896 0.200295 0.680231
0.071297 -0.130981 0.405316
0.0208171 -0.107324 0.400411
0.135322 0.11223 0.380234
0.224974 -0.201677 0.319894
-0.0413529 0.226281 0.637908
0.1373 -0.20981 0.411374
-0.220952 0.205262 0.301198
0.087006 0.146226 0.390533
0.151227 0.0327758 0.376327
0.0574103 -0.061089 0.382155
-0.154809 -0.0278818 0.391777
0.0360485 0.24036 0.645952
0.109055 0.219155 0.641658
0.169523 0.075995 0.390852
-0.11928 0.0879989 0.385557
0.075975 0.0926656 0.382033
0.0559456 0.122283 0.373849
-0.116208 0.103409 0.386877
0.221734 0.191956 0.388759
-0.193174 -0.0180192 0.384842
0.133831 0.0837098 0.376707
-0.169858 -0.202091 0.412744
-0.103284 0.0153414 0.372452
0.139752 -0.230427 0.399234
0.195498 -0.211432 0.412654
0.193601 0.159395 0.400414
0.153407 0.212454 0.702083
-0.166087 0.164653 0.597187
-0.202507 0.0885074 0.388047
0.242133 -0.224099 0.181957
0.150856 0.160303 0.39218
0.0999649 -0.205025 0.396603
0.236552 -0.221599 0.255616
-0.101222 0.208921 0.636173
0.221543 0.217781 0.131041
0.0838918 -0.05073 0.381184
-0.15925 0.178023 0.623042
0.228601 -0.199217 0.382961
-0.142222 -0.0977383 0.393133
-0.00902679 0.229165 0.638286
0.0853924 0.2416 0.676099
-0.195782 -0.144786 0.412531
0.203972 0.160376 0.519794
0.156433 -0.152726 0.411209
-0.100115 -0.12217 0.394889
-0.0215964 0.123907 0.382438
0.223419 0.219433 0.110947
-0.0554596 0.0892473 0.380212
-0.21797 0.19114 0.403126
0.207767 -0.170762 0.40775
-0.233877 -0.232048 0.160542
-0.191348 -0.0858482 0.395062
0.0493301 0.0670084 0.378509
0.107422 0.03371 0.382208
0.0949839 0.212476 0.638098
-0.147341 -0.0844107 0.401234
0.099463 -0.120629 0.404712
-0.15884 0.149508 0.390229
0.11426 -0.122292 0.395547
0.124274 0.189465 0.584754
-0.131779 0.0822105 0.386357
-0.223339 0.221901 0.146979
-0.207675 0.154273 0.54669
-0.18275 0.209263 0.694004
0.0771762 -0.188692 0.400743
-0.0677085 -0.119301 0.393324
-0.0955621 -0.155023 0.409298
0.0262278 -0.135484 0.405121
-0.0496574 0.132083 0.384771
-0.176362 0.148876 0.403393
-0.141288 -0.0163409 0.388918
0.230193 -0.220099 0.127952
0.234071 -0.227819 0.0336701
-0.0819023 0.234558 0.655807
0.240481 -0.218766 0.240817
-0.112627 -0.173811 0.411088
-0.0510712 0.219772 0.626006
0.0448186 0.00584411 0.379968
-0.0262822 0.206145 0.584333
-0.0144299 -0.0258829 0.383882
-0.176268 0.188077 0.634512
0.240689 -0.23107 0.145564
-0.105049 0.137564 0.39069
0.228267 0.197272 0.251632
0.0344634 0.0668623 0.377863
0.233286 0.248194 0.004313
-0.126041 -0.204287 0.396889
0.172151 6.60692e-05 0.39023
-0.237196 0.227079 0.137244
-0.189145 0.0671872 0.393129
-0.137382 0.129189 0.382956
0.214435 0.19473 0.287362
0.148549 -0.129958 0.398146
-0.221357 0.204918 0.209598
0.217081 0.163996 0.58571
0.0572152 -0.0427903 0.378383
-0.144962 0.187281 0.630344
-0.020008 -0.179382 0.409874
-0.073656 -0.169342 0.409833
0.228067 0.161417 0.595791
-0.0348379 0.226048 0.609617
0.209407 0.204312 0.696623
-0.0225084 0.106052 0.370378
0.216467 0.205008 0.229239
-0.236782 0.169354 0.619476
0.202278 0.0976406 0.399343
-0.191635 -0.00772057 0.393414
-0.187479 0.131373 0.391811
0.108915 -0.0891653 0.390027
0.219917 0.170052 0.455744
-0.0569643 0.224999 0.642865
-0.00464442 0.0188451 0.377827
0.151213 0.182291 0.595745
0.150586 -0.264806 0.390898
0.0323058 -0.0770901 0.384751
0.00730203 0.255767 0.678276
-0.112903 0.0478596 0.382578
-0.0384203 0.250028 0.69671
-0.204028 0.065594 0.38572
-0.195425 -0.205042 0.40327
0.108305 -0.200919 0.381734
-0.231141 -0.228064 0.196068
-0.0408528 -0.238266 0.397308
-0.19933 0.0359954 0.383131
-0.0709443 -0.18769 0.410588
-0.100548 -0.190835 0.401188
-0.136593 -0.224421 0.400172
0.225594 0.227526 0.0580452
-0.0169391 -0.209378 0.387277
-0.136889 0.177597 0.597168
-0.240989 -0.213273 0.233851
0.224858 0.180455 0.642317
0.0348355 0.219656 0.620003
0.180019 0.16842 0.61707
-0.167258 0.203337 0.663654
-0.205407 -0.248374 0.396283
0.0454697 0.0933185 0.380124
-0.0143252 0.245084 0.67924
0.107732 0.137353 0.381073
0.121473 -0.0226448 0.38834
-0.0240516 0.0807158 0.3683
0.177993 0.135223 0.400873
0.241481 -0.239455 0.0708497
0.118239 0.0597736 0.373468
0.0400365 0.205057 0.584565
0.161115 0.163726 0.404878
-0.0921375 -0.0729285 0.385976
-0.232408 -0.215008 0.335629
-0.170095 -0.0038005 0.390131
0.179266 -0.225537 0.400676
0.193107 0.0411569 0.382209
0.037555 -0.199462 0.397226
0.196117 0.0246968 0.382587
-0.0588756 -0.136356 0.405767
0.196452 -0.069876 0.393157
-0.201655 -0.0292247 0.387414
0.0112121 0.104894 0.380079
-0.23064 -0.232882 0.134194
-0.052122 0.22018 0.600746
0.101888 -0.25454 0.403461
-0.174463 -0.25579 0.393355
0.131483 0.140375 0.384452
0.138934 0.221487 0.68168
-0.23729 -0.219179 0.275919
-0.1484 -0.203437 0.412064
0.0538601 -0.19969 0.40059
-0.00459895 0.140155 0.384825
-0.0939458 0.058685 0.381162
0.169237 0.189689 0.662596
0.143871 0.0624002 0.376123
-0.239899 -0.241724 0.0566753
0.204381 0.17834 0.622458
0.215051 0.205628 0.253812
-0.123432 -0.193768 0.3857
-0.113264 -0.235103 0.398246
-0.0505644 -0.197652 0.410496
0.0930933 0.000686424 0.383094
0.237462 -0.200949 0.357309
-0.0275546 0.149673 0.376944
0.0328909 -0.0427431 0.387601
0.222911 0.190033 0.665603
0.0552515 -0.091983 0.398346
-0.00935074 0.00354887 0.379387
0.131021 -0.0517938 0.39421
0.142182 -0.0905676 0.392051
-0.0429534 0.204358 0.583391
-0.216034 0.208545 0.709835
0.0946288 0.105886 0.385021
0.230611 -0.235635 0.0172252
0.241323 0.177299 0.667847
-0.220276 0.212227 0.198654
0.230959 0.245403 0.0180701
-0.109185 -0.252269 0.404263
-0.135476 0.0346758 0.384624
-0.157543 0.202973 0.653009
-0.0946591 -0.207516 0.384394
0.242412 -0.219376 0.200359
0.142198 0.199318 0.629842
0.250034 0.174105 0.645418
0.126138 0.22073 0.665142
-0.206817 -0.226562 0.401137
-0.0646532 -0.0677985 0.383727
0.176572 -0.24732 0.406274
-0.220838 -0.201951 0.390595
0.127137 0.230702 0.691249
0.129665 -0.0825654 0.39988
0.130709 0.185104 0.608576
-0.1038 0.19078 0.593638
0.0128134 0.22584 0.604575
-0.171884 -0.218102 0.411402
0.203284 0.150667 0.399846
-0.0380852 0.0739426 0.368358
0.0508812 -0.135463 0.395502
-0.160177 0.0276095 0.38731
-0.142346 -0.16328 0.401401
-0.0166373 0.216116 0.607243
-0.0699282 -0.0865884 0.387706
0.0585712 0.215243 0.592353
0.152885 -0.192528 0.388102
-0.237615 0.224537 0.0467638
-0.242324 -0.221987 0.119412
-0.221098 0.166738 0.637547
0.0787359 -0.120325 0.403887
0.00630631 -0.20733 0.410022
0.241407 -0.2341 0.115161
-0.190073 -0.0248837 0.39525
0.0566709 0.083893 0.379899
-0.103508 0.195268 0.576237
-0.224471 0.194492 0.708174
0.193704 -0.150462 0.413018
-0.0361447 -0.0155001 0.372539
0.154634 -0.204732 0.412112
0.153895 0.199338 0.640953
0.107146 0.237422 0.685195
-0.056923 -0.112534 0.391971
-0.207139 -0.049583 0.401129
-0.0985813 0.215629 0.621729
-0.19191 0.134397 0.403428
-0.102575 0.151187 0.383186
0.211839 0.151349 0.571054
-0.180537 0.0579776 0.390983
0.185419 -0.21417 0.402123
0.124631 -0.209605 0.388967
0.239837 0.226515 0.0743536
-0.0164508 0.170552 0.384645
-0.112914 -0.0515744 0.392933
0.123897 0.210049 0.635839
0.0318549 -0.0060903 0.370893
0.151685 -0.184974 0.412477
-0.241649 0.225329 0.0624972
-0.131253 -0.098124 0.402585
-0.235126 0.209359 0.163427
0.22752 -0.226347 0.174513
0.00020811 0.0886499 0.368567
0.151281 0.072014 0.387851
0.144529 -0.0136756 0.378835
-0.218316 0.158883 0.522909
-0.0866657 0.206316 0.588203
0.0775326 -0.203066 0.381995
0.0393454 -0.120976 0.402984
0.00968307 -0.22914 0.398459
0.187484 -0.0292769 0.39573
-0.127066 0.164411 0.389937
-0.0230147 -0.0466787 0.388204
0.107268 0.220368 0.671257
0.196614 -0.253139 0.394352
-0.145411 0.105952 0.380588
-0.12307 0.225362 0.701373
-0.160003 0.00153223 0.378539
0.245532 -0.239426 0.0381915
-0.114357 0.218211 0.645584
-0.198008 -0.263398 0.390688
-0.0727185 -0.222177 0.399664
-0.239995 -0.225472 0.0558304
-0.0691634 -0.23814 0.407462
0.148261 -0.139457 0.409308
0.0530507 0.257496 0.702304
0.154981 -0.00541416 0.378734
0.0228324 -0.237287 0.397396
-0.219408 0.188801 0.69215
0.022525 0.0971254 0.369603
0.166502 0.0441198 0.378318
-0.0793591 0.150731 0.380576
0.0608269 -0.156337 0.40865
-0.228523 0.212826 0.133844
0.16627 0.209709 0.678617
0.0683045 0.255795 0.702811
0.204062 -0.192231 0.404273
0.0264018 0.110137 0.380969
-0.00283962 -0.21498 0.399656
-0.237852 -0.216896 0.290174
-0.183563 -0.149121 0.412186
0.0907774 -0.0318626 0.387957
-0.159999 -0.121333 0.407551
0.0339613 -0.0304319 0.385161
0.00328071 0.0742615 0.377683
-0.0741749 0.217263 0.607583
0.108981 -0.15939 0.400143
-0.205627 0.170576 0.640132
-0.249762 0.164122 0.61274
0.141489 0.0954984 0.378884
0.0561101 -0.224245 0.409297
-0.0266694 -0.24554 0.39612
-0.16205 0.194957 0.637477
0.121856 0.0753741 0.384848
0.0298447 0.0169291 0.368365
-0.14525 0.227251 0.701407
0.163725 0.174998 0.61974
-0.234401 0.206615 0.246751
-0.142964 -0.198084 0.402137
0.053474 0.0335982 0.368491
-0.178965 0.169865 0.620755
0.209821 0.182221 0.641482
0.0681201 0.230125 0.635938
0.231924 -0.214853 0.333175
-0.112838 0.161413 0.387241
-0.140031 0.00879177 0.386077
-0.134441 0.112968 0.390222
0.0475584 -0.258772 0.391996
0.218637 -0.209977 0.384403
0.164112 0.178395 0.598191
-0.0314578 -0.196779 0.396303
0.170936 0.219813 0.708325
-0.241854 -0.228118 0.0323417
-0.09811 0.229 0.654654
0.0106338 0.261316 0.692885
-0.195317 0.0183638 0.392344
0.10991 0.150563 0.383943
-0.0473862 0.261205 0.700349
-0.0759519 0.0360227 0.379612
0.0634633 0.0691809 0.379414
-0.00123103 0.0686075 0.367363
-0.18395 -0.0362657 0.396225
0.129314 -0.11097 0.404566
0.0297834 0.240861 0.672003
-0.142984 -0.127804 0.39753
0.185135 0.208044 0.692291
-0.0777872 0.137652 0.377898
0.0365242 0.0229224 0.378227
0.0631836 0.158356 0.381285
0.0865575 0.0509805 0.370519
-0.152062 -0.215266 0.411214
0.0063798 0.238155 0.66029
-0.0511496 -0.253707 0.39361
-0.143478 0.125584 0.393155
0.245401 -0.229944 0.0567656
0.0880674 -0.0745161 0.396187
0.242633 0.191261 0.70299
0.0704406 -0.0768323 0.385857
0.137141 -0.172897 0.411762
-0.230593 0.192039 0.32549
-0.228438 -0.230631 0.083051
0.175858 -0.0853028 0.403649
0.00857308 -0.123087 0.392994
0.0330579 0.0586807 0.367535
0.0678366 0.209554 0.611217
0.144079 -0.220062 0.4107
0.0894065 0.20023 0.575236
0.0190187 0.219187 0.61549
-0.0158152 -0.138249 0.395418
-0.160431 -0.0432061 0.394865
0.0569906 0.149704 0.388554
-0.0156949 0.0816292 0.378151
0.216971 0.197286 0.362556
-0.128934 -0.0350263 0.380963
-0.140806 0.0652065 0.386012
0.106193 0.19961 0.618122
0.0815257 -0.233419 0.408204
-0.190827 -0.220751 0.401629
-0.0976234 -0.0983841 0.390978
0.00776266 -0.0166821 0.38231
0.0208587 0.205865 0.582539
-0.0239593 -0.141377 0.405941
-0.152759 -0.183955 0.402487
-0.132204 0.213092 0.680749
0.164562 -0.209772 0.389948
-0.0871597 -0.178844 0.410797
-0.0339193 0.166616 0.381602
0.015805 0.120447 0.381887
0.15485 -0.237643 0.398237
-0.216615 0.199806 0.274355
0.0933564 0.157565 0.394021
-0.0771583 0.19708 0.585977
-0.197632 -0.0614652 0.391849
0.00400052 -0.0945163 0.387985
0.237896 0.164099 0.605936
-0.04328 -0.217655 0.409654
0.0240431 -0.197456 0.396547
0.190959 0.197933 0.67249
-0.233512 0.202623 0.718513
0.159389 0.19126 0.655648
0.145496 -0.260825 0.40144
-0.203295 -0.208107 0.413236
0.0583532 0.0582799 0.368705
0.209212 0.17184 0.541069
0.0495513 0.239401 0.646834
-0.0218859 -0.119326 0.402451
-0.221615 0.167299 0.470274
-0.0639325 0.244886 0.670128
-0.128532 -0.214604 0.400869
0.0137046 -0.173981 0.409456
0.0958991 -0.19662 0.382887
0.130005 0.0999811 0.378055
-0.102638 0.217769 0.659865
-0.0213457 -0.0584887 0.390682
0.088432 0.242981 0.706613
0.193309 0.0821089 0.395496
0.103733 0.142486 0.391633
0.133532 -0.192469 0.411958
0.0908277 0.0804158 0.372262
0.176373 -0.0456005 0.387002
0.232799 0.238822 0.0712058
0.12863 0.215106 0.653915
-0.0889945 -0.0873014 0.398631
0.0162642 0.239494 0.639493
0.154567 -0.0889878 0.402587
-0.128474 -0.265043 0.39135
-0.167166 0.182761 0.612094
-0.0444084 0.000202096 0.380444
0.183226 -0.0892333 0.394962
-0.0359959 0.131368 0.373976
-0.24203 -0.226077 0.177823
0.222277 0.206006 0.705351
-0.0773402 0.22886 0.665604
0.152121 0.0536613 0.376833
-0.218713 0.157849 0.569213
0.0592778 -0.198739 0.410633
-0.193111 -0.106099 0.408029
0.0956052 -0.215597 0.400313
-0.0492369 0.232965 0.630884
0.0222837 0.0262401 0.367713
0.0459255 -0.0651326 0.382625
0.204973 -0.155048 0.404111
0.195249 0.0517945 0.393214
-0.11236 -0.216954 0.410463
-0.108647 -0.0324439 0.389078
0.0974959 0.191079 0.587279
0.0191721 0.238171 0.663032
0.0387138 -0.242638 0.406718
-0.0349998 0.052147 0.377512
-0.177711 0.124493 0.398532
-0.163713 -0.0150134 0.390833
0.0225549 0.0458483 0.367154
-0.0145134 -0.231305 0.398174
0.222912 0.227695 0.124492
0.00267514 -0.0549752 0.379807
-0.117216 0.0600825 0.373313
-0.0367271 -0.090681 0.397621
-0.112381 0.214601 0.634374
-0.23704 0.216375 0.112026
0.238056 -0.216613 0.143688
-0.126003 0.207898 0.660925
0.208147 0.180818 0.46857
0.222662 -0.208776 0.306669
-0.242121 0.196366 0.689046
-0.056738 -0.0821715 0.386365
-0.0454346 0.214221 0.608595
0.10728 -0.0692167 0.396145
-0.036927 -0.194454 0.410305
-0.116804 -0.0625684 0.395313
0.208573 0.159166 0.508885
0.206056 0.18972 0.658937
0.00511423 -0.00367147 0.380119
0.100683 -0.0289574 0.378012
0.0102536 0.233346 0.622805
-0.0439088 0.231189 0.650732
-0.175422 -0.0571695 0.388753
-0.125903 -0.18014 0.401752
-0.0781384 -0.253093 0.393884
-0.171205 -0.0927987 0.394373
0.0034698 -0.251998 0.404087
-0.0469154 -0.0661217 0.392797
0.031478 0.224754 0.632052
-0.0906189 -0.162418 0.399768
0.147319 0.220721 0.713241
0.176334 -0.112368 0.397607
-0.0852703 -0.0184112 0.385179
-0.0982726 -0.148776 0.398553
-0.0626396 0.0452797 0.368657
-0.138719 -0.178395 0.402079
-0.223888 0.183939 0.651185
-0.079464 0.126083 0.376019
-0.0496901 0.248246 0.669405
0.241838 0.239576 0.0314464
-0.213911 0.192588 0.372723
-0.207264 -0.0705111 0.395594
-0.208953 0.176873 0.490952
-0.231623 -0.216107 0.155884
-0.237035 0.218376 0.0950441
-0.0797195 0.0960709 0.372565
-0.203262 0.190454 0.65983
-0.0235862 0.161165 0.379829
-0.0243686 0.217631 0.586341
-0.0967353 -0.17641 0.400849
-0.235875 -0.220238 0.103978
-0.0797275 0.237981 0.689955
-0.150395 0.0463968 0.38629
0.12152 0.18429 0.596511
0.0406161 -0.261657 0.401091
-0.207172 -0.182351 0.405084
-0.0993551 -0.106709 0.402453
-0.100718 0.246833 0.702139
0.114447 0.204523 0.611204
0.184123 -0.174158 0.403662
0.194264 0.156884 0.597538
-0.075532 0.101895 0.382798
0.0980276 -0.0118546 0.375095
-0.113386 0.218087 0.672505
0.228504 0.185263 0.685536
0.163353 -0.058389 0.397926
-0.157052 0.22522 0.708155
-0.223679 -0.206087 0.311815
0.0889364 -0.156572 0.399367
-0.101469 0.202498 0.59207
0.0129624 -0.0414555 0.377034
0.17904 0.185981 0.631297
-0.0937818 -0.253144 0.393919
-0.0903254 0.143282 0.380198
0.236423 0.217273 0.152831
-0.225862 0.179274 0.670592
-0.199602 -0.11839 0.410066
-0.180939 -0.171632 0.403359
0.113904 -0.184423 0.401471
-0.089955 0.200036 0.574599
-0.0625605 0.13371 0.375905
-0.101855 -0.0386271 0.379787
0.0246329 -0.253844 0.393528
0.193299 0.146102 0.406487
-0.0773978 -0.111531 0.40241
-0.0487047 -0.209026 0.386004
0.132409 0.191592 0.62667
0.112467 -0.136686 0.397522
-0.0187117 0.148759 0.386516
0.0516636 0.00948248 0.369879
-0.225684 0.222908 0.0986101
-0.0605695 -0.0862222 0.397301
-0.107169 0.230914 0.697735
-0.198145 0.177802 0.626274
0.233044 -0.209011 0.21584
-0.0885412 0.0242898 0.38088
-0.00710607 -0.081807 0.39546
0.045047 0.21406 0.608154
0.124364 -0.264828 0.397516
-0.00436702 0.240953 0.666796
-0.231065 0.232375 0.113716
-0.218862 0.170395 0.613386
0.133192 -0.160991 0.410986
-0.201775 0.188438 0.682277
-0.00283735 -0.0755133 0.384142
-0.02536 -0.0906237 0.387429
0.139708 0.205983 0.670751
-0.243427 -0.243589 0.0220292
-0.0412432 0.0629174 0.377871
0.0299146 0.0363289 0.367457
-0.00836018 -0.034745 0.375653
0.212123 0.176933 0.658985
0.00550012 -0.0289206 0.374468
-0.119267 0.230309 0.68126
-0.236042 0.192266 0.67653
0.130652 0.191822 0.597944
-0.0175834 0.247884 0.660604
0.077154 0.223301 0.624851
-0.16025 0.0834411 0.389913
0.182001 0.0495223 0.380948
-0.0358198 0.235758 0.634123
-0.215069 0.197713 0.311445
0.12707 0.225337 0.705301
-0.15217 -0.256754 0.402902
0.107583 0.108546 0.386649
-0.0165911 -0.0157778 0.372196
-0.0725105 0.0138073 0.370451
-0.0500724 -0.13526 0.395421
-0.206472 0.0937502 0.399623
0.181452 -0.0499399 0.398289
-0.172222 0.181612 0.64569
0.098462 -0.130175 0.396099
0.190831 0.162873 0.610276
-0.00536534 0.207667 0.583715
-0.236088 0.207677 0.210557
0.193987 -0.0120025 0.394348
0.08434 -0.134338 0.406224
-0.165112 0.218849 0.713715
-0.149367 -0.209483 0.401602
0.17306 -0.187591 0.413184
-0.03128 -0.0697921 0.39322
-0.170015 0.0521009 0.389064
0.0894008 0.125521 0.377033
0.12871 0.16753 0.39102
-0.1213 -0.105871 0.393311
0.146869 -0.0716077 0.39896
0.182209 0.159307 0.595695
-0.207055 -0.152994 0.404051
0.0744048 0.202975 0.598931
0.0503421 0.0979748 0.370801
-0.0440144 -0.264971 0.39661
0.170467 0.170711 0.399279
0.23453 -0.204045 0.273357
0.192503 0.169093 0.626941
0.0389567 -0.0140774 0.382446
0.0858157 0.230387 0.648324
0.11912 0.231092 0.683051
-0.166451 0.0648707 0.379232
0.0639519 -0.115421 0.402647
-0.0775695 -0.0671904 0.394139
0.148778 -0.159388 0.40146
-0.0180899 0.0363293 0.377181
-0.231359 0.196266 0.262432
-0.213739 0.183185 0.645531
0.206532 0.161556 0.586618
-0.00711581 -0.0441181 0.387545
0.00378537 0.211749 0.569765
-0.156799 0.208884 0.697504
-0.109751 0.127242 0.389289
0.0721169 0.0455582 0.379355
0.207601 0.0290221 0.392171
-0.24066 -0.234441 0.121087
-0.0665311 0.0787851 0.370108
0.143351 0.05282 0.385727
-0.0127201 0.12221 0.372064
0.125863 0.0375998 0.373689
-0.13728 -0.0651362 0.387093
