0.154026 0.173212 0.467871
-0.21676 0.121986 0.337601
-0.0716846 0.227644 0.685386
0.0818232 0.0529281 0.439664
0.112119 -0.0366637 0.447335
0.0325746 0.177006 0.490506
-0.215642 0.193688 0.0100121
-0.0590375 0.149612 0.449077
0.0608025 0.146584 0.447261
-0.147531 -0.219605 0.454152
0.218859 0.0598082 0.500521
0.210247 0.112927 0.404982
0.015095 0.147805 0.447993
0.150602 0.262241 0.732921
0.170102 -0.19419 0.460824
-0.213876 0.113837 0.324147
0.0610466 0.162035 0.454672
0.0921065 0.178998 0.49877
-0.125606 0.217828 0.651171
-0.0896929 -0.245226 0.445378
-0.106561 0.129346 0.436926
0.0402372 0.0281382 0.441787
0.0820353 0.148159 0.44207
0.204309 0.172534 0.152304
0.127686 -0.268303 0.429417
0.189772 -0.227266 0.218671
-0.147882 0.22444 0.665959
-0.154042 0.217215 0.649798
-0.12352 0.247151 0.707972
-0.14912 0.185152 0.508634
-0.0913304 0.0147342 0.442934
-0.19615 0.132483 0.645224
0.0326646 -0.0656888 0.444571
-0.201637 0.146004 0.212008
0.221704 0.108173 0.672812
0.112237 0.148871 0.448633
0.094313 0.0111461 0.443242
0.0387383 0.104088 0.435283
-0.0884982 0.0242044 0.436871
0.139705 0.256072 0.722723
0.190331 -0.255673 0.0550678
0.00267076 0.185745 0.515989
0.144294 -0.184228 0.454724
-0.1309 0.161583 0.454154
-0.0698747 0.191457 0.576305
0.0885647 0.197229 0.595599
0.164362 0.185605 0.514254
-0.203365 0.13654 0.239456
0.0218332 0.133659 0.43337
0.17591 -0.233377 0.201663
-0.155087 -0.0994099 0.447459
0.0825328 0.247633 0.718425
0.117497 0.263571 0.74402
-0.0217893 -0.134426 0.455706
0.152835 0.229041 0.676251
0.202177 0.0543988 0.623826
0.205342 0.0543874 0.561606
0.139834 -0.0729863 0.445196
0.0601326 0.136618 0.441286
-0.0549049 0.185279 0.510206
0.210382 0.046618 0.607088
-0.00620091 0.188402 0.584382
-0.0182894 0.254392 0.719944
0.0171583 0.256261 0.723034
0.0498019 -0.217367 0.454918
0.122861 0.214185 0.64302
0.214892 0.160395 0.199963
-0.156743 -0.105093 0.453195
0.153638 0.0792973 0.432152
0.183187 -0.248472 0.073885
-0.150296 0.0970834 0.430628
0.0244081 -0.262529 0.435068
-0.143903 -0.230779 0.450325
0.189827 -0.254712 0.0248191
-0.0726091 -0.0382285 0.447469
0.0566785 0.224957 0.679705
-0.131509 0.179958 0.548584
0.0288311 0.184291 0.541927
-0.154035 0.185063 0.546836
-0.105671 0.0459821 0.440259
0.0272119 -0.199476 0.461045
0.0731612 -0.140301 0.450962
0.0322366 -0.223496 0.447275
-0.170197 -0.180272 0.459632
-0.187835 -0.246158 0.110727
-0.133126 -0.14662 0.45675
-0.0584798 0.0688528 0.4383
0.13566 0.154111 0.445641
0.214021 0.0760627 0.491823
0.00373907 0.196038 0.591618
-0.00434084 0.180673 0.521187
0.13064 0.247441 0.718108
0.0742403 0.231811 0.682446
-0.0440662 0.0615176 0.438928
0.0179841 0.178208 0.479678
-0.191088 -0.207162 0.310968
-0.204931 0.0859728 0.453028
0.19615 0.0483283 0.58892
-0.0968848 0.18303 0.491073
0.107647 0.0500164 0.439913
-0.0892766 0.180496 0.551997
0.110041 -0.0574659 0.443866
0.184165 -0.152188 0.420392
-0.125641 0.250117 0.712877
0.0606147 -0.0704272 0.444976
0.0406741 -0.244277 0.445703
-0.0247154 0.0705119 0.432904
0.189581 -0.265224 0.0594712
-0.00269043 -0.198982 0.460719
-0.00337003 -0.256623 0.440848
0.081359 -0.0147079 0.440204
0.0432806 0.256363 0.723204
0.207639 0.142874 0.200229
0.175135 -0.203588 0.320291
0.123088 0.185351 0.524538
-0.204488 0.0863351 0.436877
-0.166015 0.199499 0.621485
0.000473067 -0.0516211 0.448616
-0.0369882 -0.0244455 0.441038
0.0494235 0.0645712 0.433413
0.0392011 -0.151805 0.457194
0.174359 0.054728 0.434298
0.021193 0.122237 0.434614
-0.167173 0.0600958 0.433797
-0.21149 0.188428 0.014523
0.19615 0.0370318 0.595113
0.100638 0.0850516 0.436913
0.222311 0.0826979 0.670816
-0.144847 -0.238045 0.442295
0.140435 0.210199 0.646688
-0.0288348 0.0769681 0.432351
-0.119736 0.185461 0.574548
0.0173795 0.175063 0.472244
0.117609 -0.216266 0.455295
-0.140406 0.244962 0.71401
-0.156682 -0.212241 0.456674
-0.172052 -0.0979606 0.452584
0.00110562 -0.205934 0.453287
0.0290866 0.0974174 0.435855
-0.0779668 -0.225295 0.446659
-0.110298 0.268435 0.742387
-0.146802 -0.152142 0.457223
-0.101421 0.246758 0.716979
0.111654 0.116962 0.428926
-0.200896 0.168334 0.12576
-0.0493246 0.134887 0.434107
0.0353753 0.0233524 0.436944
0.0525401 0.242047 0.699535
0.168104 -0.0141459 0.445407
-0.0681019 -0.129717 0.450055
0.159983 -0.198896 0.455697
-0.0804576 0.117152 0.428909
0.1671 -0.17294 0.459004
0.0710973 0.171632 0.477811
0.218571 0.0189543 0.627133
-0.068809 0.180144 0.51303
-0.16036 -0.153745 0.45736
0.175923 -0.235456 0.192716
0.0980294 0.0840294 0.437001
0.148327 0.185031 0.573109
0.0531617 0.180872 0.534463
-0.143003 0.188421 0.566161
0.061393 0.147864 0.448029
-0.190172 -0.169673 0.41696
0.154508 -0.00706904 0.444801
-0.164509 0.254773 0.720575
-0.100555 -0.0349381 0.447188
-0.0883727 0.25303 0.717693
0.103545 0.176799 0.490015
0.101137 -0.0728594 0.450435
0.188248 -0.210205 0.325904
0.217286 0.0538123 0.603686
0.140711 -0.14935 0.456984
-0.0777019 -0.175458 0.45922
-0.215085 0.0631143 0.63909
-0.0308901 0.0132007 0.437813
0.0677289 0.19862 0.600249
-0.19615 0.103039 0.64243
-0.212572 0.0750429 0.476744
-0.0278362 -0.197584 0.461114
-0.169887 -0.0573703 0.449108
0.077889 -0.0931601 0.452173
0.203159 0.170071 0.10409
-0.0604673 -0.12023 0.454491
-0.164005 -0.276071 0.421814
0.191159 -0.240575 0.192624
0.201554 0.0246999 0.609327
-0.0413068 -0.179806 0.454345
0.0903883 0.148356 0.442188
-0.168596 0.221516 0.659419
-0.111214 0.0395446 0.44081
-0.0812101 -0.106665 0.453329
-0.0454577 0.181969 0.561349
-0.0414322 0.178697 0.529257
0.0817541 0.230073 0.678559
-0.0822584 0.267061 0.740618
-0.0849063 0.259309 0.737723
0.0100672 0.243477 0.701898
-0.0603785 -0.0316944 0.441659
0.206274 0.127727 0.339828
0.125062 -0.125544 0.449698
0.15235 0.18558 0.55012
0.154997 0.229189 0.676581
0.0347026 0.184634 0.502198
-0.0460565 0.217901 0.651334
-0.215727 0.0655757 0.482646
0.135547 0.0739555 0.432609
0.00730075 0.233044 0.694312
-0.105985 -0.0412246 0.447726
0.174761 -0.22931 0.244819
-0.174948 -0.179428 0.385324
-0.0586701 0.115869 0.429019
0.0425769 -0.244524 0.445618
-0.151678 -0.118972 0.454383
-0.0442159 -0.256175 0.43389
-0.110401 0.0568145 0.434078
-0.0139685 0.180385 0.516039
-0.19615 0.0317665 0.60634
-0.00224805 0.256493 0.733069
-0.222311 0.111409 0.667794
0.0471827 0.218782 0.665891
0.00828105 0.0657141 0.433315
0.0618811 0.20592 0.624535
0.0498874 0.0725141 0.432733
-0.0945251 0.157642 0.449638
0.216763 0.0789199 0.485101
0.137718 0.00532523 0.44374
0.157059 -0.112487 0.448579
-0.210125 0.0893031 0.418612
0.160878 0.175299 0.472802
0.174359 0.076281 0.435322
0.167189 0.24442 0.713114
-0.110464 -0.23813 0.442266
0.122762 0.0939894 0.430893
0.219159 0.152827 0.667174
-0.0865837 0.188779 0.567356
-0.216686 0.122687 0.306178
-0.0202762 0.26924 0.751318
0.021154 0.177687 0.534169
-0.159943 0.187971 0.564656
-0.18596 -0.236991 0.167157
-0.206736 0.0810815 0.531124
-0.00142266 0.0926051 0.436267
0.19615 0.0721781 0.488302
-0.100653 0.209479 0.632494
0.204312 0.160866 0.134178
0.155401 0.14522 0.446443
-0.0325362 -0.191798 0.460619
-0.212409 0.195498 0.063018
0.205237 0.0480847 0.601346
0.203476 0.109928 0.40546
-0.132099 -0.0654822 0.449803
-0.151104 0.173827 0.482996
-0.129524 0.242393 0.700106
-0.0444189 0.276913 0.75379
0.189421 -0.166527 0.426701
-0.222311 0.0544788 0.575089
0.160716 0.0842997 0.431723
0.113268 -0.264608 0.42563
-0.181464 -0.20503 0.347571
0.19615 0.024886 0.615577
-0.19615 0.174059 0.6475
-0.0374447 0.249509 0.711872
-0.0958135 0.154655 0.454271
0.0648552 0.0254446 0.442017
0.0189339 0.0908809 0.43116
-0.0860845 0.213248 0.640926
-0.0187692 0.229016 0.687654
-0.140002 0.0836378 0.437034
-0.161911 0.273163 0.748472
-0.0947933 0.139057 0.442748
0.0617316 -0.237831 0.447911
-0.196919 0.0314713 0.588341
0.154021 0.193889 0.584435
-0.15298 0.258574 0.726859
0.124557 0.193434 0.582915
0.201829 0.161281 0.148493
-0.222311 0.0767772 0.673566
-0.173865 0.190385 0.572723
-0.154792 -0.191624 0.460604
-0.168978 0.0927517 0.431
-0.13993 -0.181462 0.454487
-0.0746662 -0.0204299 0.445945
-0.211673 0.114552 0.63909
0.087453 -0.112113 0.448547
-0.00225611 -0.157704 0.4577
0.222311 0.0748386 0.45714
-0.0405395 0.275347 0.754391
0.19615 0.17453 0.647944
-0.0550611 -0.254326 0.435701
-0.0951035 0.00704058 0.438341
-0.107143 -0.125609 0.454951
-0.0215454 0.221523 0.672023
0.165756 -0.161521 0.458026
-0.174359 -0.123409 0.451841
0.0502268 -0.252516 0.437341
0.0935958 0.20663 0.626122
0.206463 0.0427232 0.55347
-0.202383 0.0752126 0.54362
0.222311 0.0845177 0.452578
-0.00612724 0.19313 0.600191
-0.0952837 -0.0457407 0.448113
-0.202192 0.072635 0.549836
-0.115266 0.160038 0.460442
-0.0162007 -0.157336 0.457668
0.147049 -0.120128 0.454482
0.188463 -0.258382 0.131374
-0.0753098 0.00349361 0.438645
0.00849164 -0.200603 0.455112
0.0825254 0.208647 0.630635
-0.152575 0.178718 0.495282
0.129266 0.190107 0.571794
0.13457 0.0512422 0.434555
0.00512457 0.26244 0.733251
0.134817 -0.178832 0.454262
-0.0401361 -0.151523 0.45717
0.0841566 -0.00898957 0.439714
-0.0104253 -0.112753 0.448602
0.198641 0.123396 0.63909
0.0661349 0.271695 0.746582
-0.0296194 0.185435 0.51214
0.188929 -0.208913 0.326459
-0.174359 -0.191193 0.459657
-0.129341 0.177148 0.477172
-0.160763 0.178961 0.498305
-0.159506 -0.082789 0.446035
0.126012 -0.199378 0.455532
0.109582 0.20227 0.612447
0.0580737 0.146248 0.440923
-0.202564 0.0396401 0.634404
-0.0745074 0.0184199 0.437366
0.129368 -0.0278653 0.446582
0.127027 0.0313887 0.441508
0.185561 -0.250218 0.0666271
-0.0980775 0.0192604 0.442547
-0.0424688 -0.23906 0.441947
0.121172 -0.26805 0.422259
-0.0788461 0.0844812 0.436962
-0.222311 0.0587761 0.668267
0.205778 0.0142046 0.664394
0.041039 -0.219299 0.448712
-0.202125 0.0178376 0.630594
-0.152488 -0.164779 0.453058
-0.0124507 -0.0604839 0.444125
0.00566094 0.184442 0.499817
0.0818367 -0.108397 0.453478
0.174359 0.0706473 0.436877
-0.00270963 -0.24378 0.440331
0.155458 -0.165159 0.453091
0.19615 0.0444648 0.673416
0.118199 0.223105 0.675562
0.0804822 -0.157104 0.457648
0.132922 -0.141259 0.451044
-0.0172716 0.162155 0.45481
-0.212572 0.184914 0.663122
-0.141164 -0.234507 0.443506
-0.045774 0.106013 0.429864
0.0236873 0.179182 0.501062
0.163659 -0.188736 0.45511
-0.101266 -0.254243 0.435782
-0.0722223 0.174336 0.484198
-0.143546 0.0552502 0.434212
-0.19615 0.0351409 0.585713
0.218869 0.136632 0.669219
-0.143273 0.183916 0.493285
0.165446 0.0693011 0.433008
0.0881778 0.202267 0.628944
0.222311 0.108754 0.666578
-0.0230301 -0.00928767 0.43974
-0.221746 0.0320097 0.679823
-0.074175 0.169092 0.462761
0.0680665 0.155653 0.455416
0.00519924 0.226012 0.669476
-0.114669 -0.187004 0.454962
0.108554 0.237626 0.692225
-0.147713 0.262083 0.742105
0.0858948 -0.0726874 0.44517
-0.206726 0.19625 0.661691
0.0593374 0.116364 0.428977
0.120287 -0.137227 0.450698
0.072282 -0.176649 0.459322
-0.215481 0.0618801 0.600106
-0.0419888 0.183525 0.531982
0.219753 0.0806975 0.450785
0.202888 0.110308 0.402458
-0.127601 0.104061 0.430031
-0.0513333 -0.199363 0.456489
-0.0375951 -0.18173 0.45451
0.174359 0.252779 0.71743
-0.0429151 -0.0475724 0.443019
-0.203381 0.0853382 0.455513
0.0714651 0.178761 0.540985
-0.137106 0.00626634 0.443659
0.0670217 0.134159 0.43367
0.0875703 -0.19139 0.455337
-0.12661 0.0969279 0.435896
0.0385412 -0.272472 0.425336
-0.0173317 0.20083 0.607635
0.215059 0.186626 0.662906
0.201089 0.17277 0.106435
0.222311 0.0441024 0.661967
-0.0906964 0.198868 0.601077
-0.222311 0.0644739 0.658352
-0.0636518 0.181478 0.558232
-0.201889 0.0574623 0.571335
-0.19615 0.023951 0.635315
-0.154522 -0.187923 0.45504
-0.15986 0.0393877 0.440823
-0.0899099 -0.147111 0.451545
0.108963 -0.0183514 0.440516
-0.215066 0.165505 0.178702
0.015839 0.05365 0.434349
-0.174359 -0.114153 0.449567
-0.0410625 0.132098 0.432434
0.189732 -0.209617 0.283835
0.0128276 -0.0147233 0.445457
-0.201538 0.0739385 0.529826
-0.124158 -0.0357605 0.447258
0.0894792 0.182671 0.533261
0.207318 0.169674 0.171411
-0.113818 0.185693 0.515351
0.0999413 0.22846 0.686735
0.0855431 -0.0765163 0.450748
0.0755716 0.219443 0.654783
-0.145423 0.190042 0.571577
-0.0769163 -0.13114 0.450177
0.206581 0.092468 0.484324
-0.0511382 0.24054 0.706701
0.19615 0.0576547 0.510867
0.198048 0.0474207 0.603945
0.109229 0.035853 0.441126
-0.0362818 0.181467 0.53336
0.128908 0.182416 0.489621
0.093497 0.109533 0.429562
0.211582 0.0757946 0.450977
0.0578304 0.251168 0.714614
0.175476 -0.25126 0.113391
-0.163618 0.188874 0.567673
-0.222311 0.0902286 0.670702
-0.168888 -0.155867 0.457542
-0.0897373 -0.212297 0.451109
0.1811 -0.18938 0.334353
0.0137963 0.0773668 0.432317
-0.106139 0.0992471 0.435698
-0.0759261 0.180037 0.511702
0.202209 0.148552 0.240725
-0.0356821 0.179503 0.545693
0.103596 0.247983 0.719003
-0.168058 0.168806 0.471137
-0.127284 0.212955 0.652855
0.0922827 -0.175794 0.459248
-0.22054 0.0582969 0.505204
0.0654348 0.0813387 0.437231
0.222311 0.0246839 0.630365
-0.174359 -0.153661 0.453755
0.125582 0.178884 0.497347
0.19615 0.036853 0.650666
-0.0950135 0.0305731 0.436325
0.217716 0.132426 0.273546
-0.0253101 -0.0438174 0.447948
-0.11888 0.250738 0.713904
-0.0701149 0.212002 0.650722
0.00650726 0.0440388 0.440425
-0.118763 0.269234 0.75131
-0.0787067 -0.156104 0.457562
-0.0396622 0.208782 0.643517
0.134639 0.155674 0.455439
0.222311 0.0691845 0.640307
0.0331003 -0.13088 0.450155
-0.0938275 0.00515735 0.438502
-0.0521866 0.0673101 0.438432
-0.150346 -0.149659 0.451763
0.169915 -0.217792 0.449228
-0.0171036 0.253303 0.727797
0.109818 0.254197 0.719622
0.169012 -0.00389327 0.439278
-0.19615 0.0343392 0.67636
0.0382636 0.037191 0.441011
0.167522 0.126228 0.435552
-0.222311 0.18511 0.646565
0.0392542 0.146387 0.441007
-0.10734 0.0311498 0.441529
0.189811 -0.265228 0.0519268
-0.19615 0.100341 0.648696
0.0788841 0.228353 0.686559
-0.149066 -0.214536 0.455888
-0.189289 -0.267556 0.0196534
-0.0713623 -0.0901234 0.451913
0.112488 0.198472 0.599755
-0.207159 0.1368 0.63909
0.206704 0.0461987 0.63909
-0.19615 0.112955 0.647222
0.0300853 0.10859 0.429643
0.00262539 -0.277078 0.420828
0.0604821 0.00138101 0.438826
-0.0788471 -0.125178 0.454914
0.191143 -0.234408 0.217889
0.216179 0.204937 0.012505
0.125304 -0.180348 0.459638
-0.0669222 0.197178 0.613725
0.043611 -0.117271 0.448989
-0.0602087 0.191308 0.575808
-0.059709 -0.186309 0.460149
0.0771775 -0.0515071 0.443356
0.151087 -0.0800191 0.451048
0.165825 0.177321 0.47758
0.136638 0.208233 0.642289
-0.107007 0.204316 0.633527
-0.155856 0.260412 0.739548
0.0345731 -0.17906 0.459528
0.121772 -0.0917622 0.446804
0.0935218 -0.215281 0.455633
0.222311 0.195957 0.658873
-0.174359 0.116894 0.431895
-0.174911 -0.199066 0.337167
-0.0712583 0.0581403 0.433964
0.201142 0.120296 0.331946
0.105006 0.130167 0.431275
-0.0225127 -0.17825 0.459459
-0.1538 0.216026 0.647139
0.0095531 -0.261816 0.435766
-0.131706 0.188972 0.586286
0.0457496 -0.100653 0.452814
-0.104634 0.0521008 0.439735
-0.0796756 0.190021 0.589794
0.184843 -0.264142 0.00219765
-0.111179 0.180181 0.513495
0.0564741 -0.022256 0.44085
0.102641 -0.272748 0.417658
-0.0115286 -0.269137 0.421195
0.0522469 0.179441 0.482591
-0.210345 0.189716 0.091707
0.055334 0.179452 0.504426
0.217043 0.134817 0.259037
-0.0587661 -0.198799 0.460108
0.0240939 0.0386045 0.435637
0.10579 -0.174829 0.453919
0.127261 0.183063 0.534127
0.171157 -0.192108 0.460645
-0.164868 -0.184324 0.454732
0.175514 -0.248362 0.132256
-0.217189 0.0750951 0.503437
0.155176 -0.197462 0.461104
-0.136966 0.207497 0.628061
-0.187453 -0.148767 0.432658
0.128821 0.120876 0.432441
0.0195594 0.261985 0.732499
-0.0747163 0.258024 0.735599
0.112761 0.200081 0.605133
-0.206072 0.188899 0.63909
-0.217373 0.0503354 0.615923
-0.0861951 -0.00886384 0.439703
0.176667 -0.234113 0.24278
0.130726 -0.219018 0.454353
0.175989 -0.24065 0.168327
-0.144737 0.222653 0.674551
0.113801 -0.273898 0.417465
-0.0883751 0.235993 0.699185
0.163137 0.00303499 0.438684
0.0739829 0.208058 0.641899
-0.0262198 -0.20098 0.454983
0.151832 0.162466 0.455166
0.0275291 0.166117 0.459352
0.178742 -0.193137 0.375271
-0.101787 0.192331 0.579228
0.19615 0.0660828 0.666266
-0.00807524 0.178898 0.49753
-0.204524 0.0559944 0.627919
0.0745113 0.0962455 0.4307
-0.184683 -0.271187 0.0219192
0.0216641 0.238608 0.693849
0.160672 0.12605 0.430127
0.0881241 0.219434 0.667349
-0.0336293 0.264196 0.744824
-0.213482 0.0796085 0.477942
-0.0189381 0.00610837 0.438421
-0.069455 -0.1106 0.448417
-0.025309 -0.0682966 0.450044
0.00426558 0.0451256 0.440332
-0.129042 -0.0113056 0.439912
0.109173 0.0981285 0.430539
0.19615 0.0558987 0.651761
0.222311 0.125314 0.664607
-0.222311 0.0680201 0.503229
0.171199 0.265997 0.747143
-0.019364 -0.135163 0.450521
0.12589 0.0128776 0.443093
-0.116896 0.183217 0.491514
0.11628 0.185417 0.574401
-0.0137324 -0.261344 0.436227
0.0317481 -0.142103 0.451116
0.157286 0.0710566 0.438112
0.0989312 0.232174 0.68321
0.174359 -0.118726 0.449762
-0.129628 -0.216751 0.455129
-0.0728562 0.185091 0.507874
0.0118603 0.201382 0.626961
0.203134 0.198805 0.0423035
0.222311 0.148644 0.663055
0.19615 0.163119 0.661083
0.19615 0.157991 0.646975
-0.133006 0.244555 0.713337
0.215234 0.153829 0.169874
-0.0875926 0.185712 0.515579
-0.210989 0.195017 0.0684993
-0.0517687 -0.0324386 0.441723
-0.110911 0.259856 0.738628
0.217368 0.174341 0.110498
0.0749145 0.00813974 0.443499
0.0369803 0.155012 0.446623
-0.174359 -0.0359947 0.445248
-0.174359 0.0705263 0.433409
-0.217586 0.127749 0.291347
-0.0655679 0.0437774 0.435194
-0.0625572 0.18584 0.517176
-0.158187 0.0960109 0.43072
-0.208769 0.19414 0.63909
-0.213627 0.213206 0.63909
0.0611168 -0.110061 0.448371
0.119454 0.104138 0.435279
0.0896287 0.11995 0.42867
0.0476646 -0.0220809 0.446087
0.0602147 0.171332 0.477103
-0.159097 0.223837 0.6772
-0.214788 0.109683 0.406954
-0.146999 0.249224 0.7114
0.115444 0.247094 0.717534
-0.13102 0.0695145 0.43299
-0.0537642 -0.163194 0.452922
-0.0318102 0.180908 0.554612
-0.151643 -0.125836 0.454971
-0.19615 0.138403 0.648559
0.160137 0.0421987 0.440583
-0.175175 -0.255699 0.0937037
-0.204371 0.208472 0.00595953
0.182347 -0.165746 0.437951
-0.175987 -0.154685 0.426616
0.085818 0.170851 0.475967
0.222311 0.0488453 0.641438
0.0132505 0.200586 0.606821
0.119207 0.0978485 0.435818
-0.201249 0.197426 0.00488827
-0.157882 -0.245145 0.439864
-0.106433 -0.0739226 0.445276
-0.171534 0.178281 0.47985
-0.218232 0.0586842 0.504004
-0.00225341 0.20173 0.610645
-0.0314154 0.185665 0.550659
0.205895 0.196321 0.0592618
-0.04616 -0.260895 0.429267
-0.186673 -0.249643 0.195466
-0.121916 -0.271811 0.425983
0.174944 -0.24618 0.181345
0.16861 0.200947 0.608027
0.173532 0.263957 0.735758
0.146965 0.0344644 0.435992
0.0923123 0.19632 0.59256
0.215062 0.137112 0.236909
-0.136795 0.137835 0.435876
-0.187862 -0.267856 0.0596336
-0.118779 0.186129 0.520754
-0.0646153 0.180333 0.4847
0.141734 -0.163748 0.45297
0.205123 0.186677 0.63909
0.00343895 0.168217 0.469815
-0.152277 0.210229 0.646755
0.101845 0.122119 0.429205
0.222311 0.0327675 0.671154
-0.118153 -0.25246 0.43736
0.171638 0.212277 0.638753
0.0299862 0.0940874 0.430885
0.202269 0.18827 0.0356371
0.0650782 0.216638 0.661094
-0.211119 0.0911689 0.411006
0.14752 0.000312239 0.444169
-0.208629 0.187907 0.0166481
-0.0502583 0.242654 0.710196
0.222311 0.0477251 0.674483
-0.0319262 0.19185 0.59591
0.00150792 -0.25712 0.440361
-0.0427249 -0.169993 0.453505
-0.0608851 -0.147789 0.45685
-0.0398444 -0.0750235 0.45062
-0.125327 0.18098 0.5334
0.00506687 0.272515 0.755479
-0.0199412 -0.231476 0.450087
0.220472 0.1721 0.63909
0.0441124 -0.0953504 0.447111
0.126616 -0.0504936 0.44852
-0.0576258 0.163531 0.456387
-0.169922 0.180664 0.51951
-0.0662188 -0.156942 0.452387
0.058267 -0.0311544 0.446864
-0.0764006 0.168704 0.470895
0.0685057 0.112482 0.429309
-0.155401 0.168656 0.462261
0.088023 0.218028 0.664205
0.0917814 -0.25861 0.438903
0.156884 -0.134963 0.450504
0.216427 0.17157 0.10524
-0.0255104 0.0341628 0.441271
0.0919044 -0.0133385 0.440087
0.0209651 0.162756 0.455499
0.0444198 0.208392 0.630063
-0.0198754 -0.260738 0.436821
0.106791 0.181161 0.556219
-0.103317 -0.145534 0.45141
-0.161961 0.0144182 0.442961
0.128119 0.138144 0.436061
0.0435042 0.0484145 0.434797
0.0406395 0.225935 0.681895
0.00129521 0.21965 0.667832
-0.120609 -0.125807 0.454968
0.15032 0.20494 0.621372
-0.147735 -0.165133 0.458336
-0.0405695 0.253929 0.71918
0.175564 -0.181628 0.372466
0.19615 0.0481464 0.641804
0.152735 -0.264767 0.425475
-0.1485 0.179813 0.508914
-0.0278006 0.0759481 0.437693
-0.20793 0.0948465 0.396014
0.144709 -0.250293 0.443643
-0.213082 0.0363292 0.573286
-0.0761005 -0.259336 0.430794
-0.164056 -0.0062862 0.444734
0.0634211 -0.126945 0.449817
-0.222311 0.153368 0.655375
0.0133732 -0.101171 0.44761
-0.173348 0.183604 0.537566
-0.11917 0.193992 0.584781
0.19615 0.209431 0.639129
0.0540977 0.088907 0.431329
-0.205028 0.187178 0.0223013
-0.0608501 -0.142335 0.451136
0.125581 -0.131277 0.450189
-0.00384215 0.185473 0.54944
0.0683502 0.213724 0.64199
-0.196316 0.0498767 0.594331
-0.0816235 -0.0153849 0.445513
-0.180909 -0.20244 0.296615
0.125385 -0.0375926 0.447415
-0.0396425 -0.186294 0.454901
-0.133661 -0.165299 0.45835
0.222311 0.0362141 0.623263
-0.0268869 0.059892 0.433814
0.0395059 0.177935 0.479032
-0.0662619 0.166289 0.467606
-0.178161 -0.218504 0.302926
-0.186755 -0.253685 0.00817379
0.0265619 -0.095737 0.447144
0.0731335 0.158833 0.45906
-0.0361388 0.126063 0.435513
0.19615 0.132677 0.655043
-0.213779 0.181473 0.63909
0.00187668 -0.232472 0.449746
0.115785 0.183284 0.532962
-0.113093 0.248577 0.71033
0.0855286 -0.10979 0.453597
-0.018323 -0.118451 0.454338
-0.0665389 0.221699 0.672417
-0.197849 0.0543508 0.576817
0.0133242 0.0809747 0.437262
-0.138622 0.244938 0.704313
0.171242 -0.234939 0.448901
0.0766238 -0.120344 0.4545
0.219426 0.213137 0.63909
0.175122 -0.186659 0.36705
-0.208217 0.0664653 0.594375
0.0340667 0.216054 0.647202
-0.102297 0.161474 0.462087
-0.0778832 0.0774577 0.437564
-0.164327 0.240726 0.69735
-0.0317702 0.131818 0.432265
0.176352 -0.224236 0.277659
-0.0923522 -0.247049 0.444754
0.177274 -0.249342 0.0927693
0.182533 -0.258447 0.148366
-0.0158698 0.193481 0.583073
-0.146394 -0.0887889 0.451799
0.0254153 -0.0710455 0.450279
0.20131 0.0851464 0.47901
-0.19615 0.0442713 0.643521
-0.175764 -0.240715 0.174504
-0.114203 0.173462 0.482133
-0.0592118 -0.0133912 0.445343
-0.153267 0.178489 0.539256
0.0157 0.249405 0.7117
-0.00548671 0.256287 0.732729
0.056565 -0.253557 0.436454
-0.0291021 0.016872 0.437499
-0.10535 0.253294 0.71813
0.153253 0.0602335 0.439038
0.190022 -0.25572 0.0190528
-0.218078 0.0479966 0.537127
0.0453809 -0.139513 0.456142
-0.203228 0.162874 0.189012
-0.0610757 0.270884 0.753433
0.174359 -0.183865 0.458029
-0.179771 -0.221356 0.299955
-0.123921 0.242375 0.709735
-0.218689 0.0301214 0.592525
0.144476 0.143552 0.445444
-0.0125477 -0.208937 0.452259
0.128235 0.163689 0.464626
0.115271 0.0821265 0.43191
-0.0690092 -0.0882766 0.451755
0.0306234 0.21416 0.655551
0.00158425 0.188991 0.586349
-0.147188 -0.249741 0.438291
-0.19615 0.0358479 0.6683
-0.107039 -0.0455039 0.442842
-0.213407 0.160639 0.130327
-0.103804 0.207725 0.628572
-0.0714856 0.0792419 0.432157
0.075031 0.0551646 0.434219
-0.113687 0.188741 0.567228
-0.208757 0.151435 0.66735
0.0511716 0.0752444 0.432499
0.125008 0.162113 0.462819
0.130228 0.262815 0.733871
0.0266319 0.265165 0.737756
-0.100568 0.186137 0.520855
-0.131643 0.178002 0.532098
-0.101338 -0.203678 0.45406
-0.124223 -0.0955761 0.447131
0.211256 0.099036 0.378935
-0.00121637 -0.0544656 0.44886
-0.17551 -0.210884 0.292827
0.197329 0.192761 0.662131
0.205257 0.0650955 0.678252
-0.169617 0.270224 0.744689
0.012715 0.154165 0.453709
-0.144974 0.222047 0.660607
-0.0210653 0.220539 0.669821
-0.137231 0.179343 0.544677
0.174359 0.263652 0.737658
0.0230819 0.185984 0.552681
-0.0965717 0.229372 0.688243
-0.128371 -0.251956 0.437532
-0.119726 0.223898 0.664746
-0.0726422 0.233437 0.685299
-0.0924314 -0.0471468 0.448233
-0.113917 0.212844 0.652606
0.0198875 0.183136 0.53459
0.0562813 -0.00344746 0.444491
0.152068 -0.241709 0.446582
0.100361 0.231984 0.682833
0.0923018 -0.00786962 0.44487
0.211942 0.0454321 0.545075
0.0396583 0.240125 0.696357
0.222311 0.0668588 0.509566
0.0125974 0.185703 0.515476
0.0799114 0.201386 0.626971
0.174359 -0.244133 0.444893
-0.203562 0.101933 0.37926
0.00853813 0.180513 0.517631
0.20892 0.103334 0.445816
-0.19615 0.12874 0.649582
0.0656065 -0.110527 0.45366
-0.0261588 0.0255308 0.44201
0.0830018 -0.0795164 0.445755
-0.222311 0.101143 0.654732
-0.104041 -0.0961794 0.452431
-0.0401395 0.189526 0.569852
-0.0298262 0.177963 0.53592
-0.12927 -0.198421 0.461186
0.0468685 -0.133187 0.4556
0.0477403 0.229406 0.677067
-0.174359 -0.208898 0.453386
-0.0619131 0.186376 0.555173
-0.154891 0.152907 0.444919
0.103918 0.201055 0.608389
-0.0427827 1.25021e-05 0.438943
0.15757 -0.255684 0.434371
0.0464732 0.0948877 0.436071
-0.206602 0.14804 0.179167
0.172541 -0.182454 0.459819
0.00181688 -0.15105 0.45713
-0.0604529 0.151436 0.444036
0.0922677 0.149386 0.442806
-0.163326 0.101729 0.430231
-0.0196613 -0.064315 0.449703
-0.021243 -0.273695 0.417267
-0.159555 0.178648 0.494416
-0.0048075 -0.00834487 0.44491
0.166155 -0.169482 0.453461
-0.0932107 0.0156559 0.437603
0.00952572 0.0373316 0.440999
-0.135913 -0.140094 0.450944
0.0159021 -0.144272 0.456549
0.0297676 0.231724 0.69213
-0.202702 0.0692272 0.47133
0.136479 -0.248578 0.438689
0.109108 -0.151586 0.457176
0.21566 0.0995831 0.63909
0.0838936 0.180623 0.53343
-0.201081 0.194146 0.0193429
0.102185 0.0596106 0.439092
0.174207 0.270913 0.753472
0.0311751 0.18458 0.543763
0.209028 0.14301 0.284343
0.0314181 -0.198481 0.457505
-0.0822368 0.221105 0.658499
0.222311 0.137952 0.664929
0.214342 0.0706037 0.63909
-0.0810534 0.13845 0.442385
0.199717 0.115595 0.671875
-0.19615 0.145909 0.659144
-0.176508 -0.262123 0.0923309
0.151785 0.18242 0.564216
-0.191053 -0.167626 0.409442
0.0165829 0.120129 0.429385
-0.104169 0.0763763 0.432402
0.190598 -0.204982 0.309263
0.0298126 0.25786 0.735329
0.202146 0.205472 0.00727554
-0.191387 -0.223793 0.271459
0.106878 -0.0550835 0.443662
0.133637 0.0851659 0.431649
-0.167192 0.103753 0.435312
0.0527338 0.239972 0.696103
-0.201924 0.124383 0.298303
0.0376277 -0.213038 0.456401
-0.200984 0.142651 0.237264
-0.186846 -0.223289 0.294319
-0.15942 0.0194191 0.437281
-0.0534761 0.158169 0.458299
0.169487 0.220289 0.656673
0.0789124 -0.0248563 0.441073
0.175356 -0.159937 0.423175
0.071359 -0.276846 0.421055
-0.0643644 -0.265115 0.432537
0.161392 -0.17377 0.459075
0.00369686 0.0996364 0.435665
0.11242 -0.0549022 0.448897
0.0599195 -0.073624 0.4505
-0.153149 0.173536 0.468637
0.212551 0.159836 0.208042
0.213019 0.0429791 0.552677
0.190777 -0.227417 0.238561
-0.213507 0.0450633 0.680781
-0.146282 0.214494 0.656296
0.189554 -0.239859 0.218459
-0.0788417 -0.114596 0.454008
0.0255549 0.178477 0.539184
-0.108184 -0.260732 0.436827
0.222311 0.0835331 0.664841
-0.146056 0.106591 0.429814
-0.167136 -0.111489 0.453742
0.201399 0.098072 0.428311
-0.169995 0.133761 0.439573
-0.19615 0.0938831 0.654359
-0.0137777 0.248552 0.710288
-0.181048 -0.16317 0.397417
-0.197464 0.0314866 0.679695
-0.120279 0.170356 0.46421
0.19615 0.105848 0.658254
-0.190234 -0.203894 0.306435
-0.164614 0.17849 0.480345
0.0364116 -0.0770562 0.450794
-0.0893236 -0.249995 0.443745
0.0159841 -0.00952666 0.445012
-0.222311 0.191648 0.65584
-0.190609 -0.241822 0.174877
-0.0985095 -0.0368008 0.442096
-0.119242 -0.221347 0.453555
0.222311 0.0698163 0.640081
-0.0804761 -0.269918 0.427836
-0.211567 0.148084 0.17899
-0.15095 -0.271786 0.4186
0.174359 0.0758231 0.433192
0.19615 0.199757 0.644544
0.169064 0.196137 0.591949
0.0282639 -0.156635 0.452361
0.222311 0.0329185 0.61913
0.171704 0.213632 0.654369
-0.157955 0.0292445 0.441692
0.0526914 0.215577 0.646135
-0.00904848 -0.144148 0.456539
-0.102168 0.141767 0.438235
-0.119788 0.179557 0.505727
0.134008 -0.131198 0.450182
0.144114 -0.155933 0.457548
0.0472322 0.219006 0.653805
-0.0693412 0.111282 0.429412
-0.212979 0.117719 0.302772
-0.222311 0.0466945 0.587754
-0.16947 -0.265355 0.424899
-0.145889 0.276683 0.753878
0.171622 -0.0916195 0.446792
-0.11761 -0.0619321 0.444249
0.16462 0.0374998 0.435732
0.202847 0.0806358 0.473921
-0.118916 0.0800318 0.437343
0.0554917 0.17942 0.545171
0.200746 0.100086 0.63909
0.190027 -0.182719 0.362739
0.09877 -0.261338 0.428833
0.0587897 -0.216557 0.449651
0.158624 0.205617 0.623635
0.119777 0.222877 0.662463
0.100534 0.156459 0.456339
0.132138 0.0330077 0.436117
-0.191417 -0.257716 0.0960969
-0.213162 0.0998916 0.450897
-0.117907 -0.0575125 0.44387
-0.0958915 0.248029 0.71908
0.152853 0.185253 0.509882
-0.208784 0.169635 0.665052
0.201695 0.0577543 0.571395
-0.00649457 0.231336 0.691489
0.107416 0.185324 0.574087
-0.0322801 0.255713 0.731779
-0.0487093 -0.0134443 0.445347
0.104289 -0.216489 0.455219
-0.121225 0.228648 0.687046
0.0109023 0.0284656 0.441759
0.131468 0.26443 0.736541
-0.155947 0.0539395 0.434324
-0.0249786 0.206465 0.638335
0.12647 0.184979 0.506481
0.130428 0.228606 0.675279
-0.0132401 -0.202885 0.454331
-0.200907 0.140667 0.63909
-0.133258 0.234345 0.696461
0.126874 -0.15184 0.45195
0.152301 0.184661 0.544279
0.159086 0.158078 0.450137
-0.063774 -0.174195 0.459112
-0.0390082 0.184211 0.496946
0.102863 -0.045487 0.448091
-0.157905 0.267797 0.741565
-0.0981886 0.173057 0.481177
0.222311 0.044644 0.603356
0.00295995 -0.150763 0.457105
-0.1747 -0.210335 0.307776
0.185149 -0.184078 0.35
-0.126415 0.156684 0.448539
-0.0595524 0.015782 0.437592
-0.19615 0.0504679 0.578373
0.155659 -0.120267 0.449246
-0.201819 0.0753816 0.530245
0.120192 0.0402963 0.435493
0.173001 0.175759 0.473889
-0.0220405 0.0278978 0.436555
0.222311 0.0554232 0.537924
-0.0121622 0.179428 0.534124
0.0787893 0.247107 0.717556
0.161583 -0.199184 0.458482
-0.211866 0.110241 0.63909
-0.141769 0.185987 0.552705
0.216541 0.149724 0.229451
-0.199654 0.032817 0.58417
0.106878 0.191346 0.594225
-0.0437827 0.271001 0.753585
-0.0628687 -0.273665 0.424169
-0.112546 0.151415 0.444023
-0.0390934 0.120506 0.433667
-0.190071 -0.171273 0.413792
-0.0342159 -0.0874018 0.45168
0.09952 0.146313 0.447099
-0.202587 0.0659565 0.531385
-0.143483 0.228481 0.674997
0.119754 -0.261941 0.428243
0.0545466 0.186712 0.57873
-0.162515 0.217386 0.650181
-0.173706 0.179279 0.502265
-0.0625575 0.169328 0.463032
0.0650319 -0.274439 0.417994
-0.0969706 0.100403 0.435599
-0.208927 0.167773 0.0987277
0.0344649 -0.233367 0.443896
-0.046886 0.123699 0.429575
-0.0334572 -0.133076 0.455591
-0.154687 0.120369 0.432114
-0.0592823 0.0807965 0.432024
0.103318 -0.14401 0.451279
0.213913 0.0477549 0.680441
-0.0270769 -0.277075 0.420571
-0.163156 0.228167 0.674296
-0.0635111 -0.0209629 0.445991
0.0609695 0.136593 0.43513
-0.0163688 -0.219457 0.448658
-0.164396 -0.270016 0.420334
0.0765235 0.204277 0.619157
-0.00278795 0.230702 0.679967
0.0714191 -0.0728342 0.450432
-0.00709306 0.0161584 0.442812
0.213685 0.0420695 0.681114
0.0481158 0.210242 0.634201
-0.123657 -0.0800923 0.445804
0.103239 0.265958 0.739067
-0.19615 0.147938 0.666188
-0.212937 0.125624 0.670609
-0.0330235 0.0444607 0.440389
0.0612476 0.189662 0.588593
-0.217217 0.211859 0.65067
0.144555 0.140792 0.43765
-0.082073 0.253296 0.718132
-0.0714337 -0.0752087 0.445386
-0.174359 -0.0324442 0.444222
0.00847222 0.274981 0.75081
0.0762502 -0.174724 0.45391
0.103197 0.180432 0.516621
0.0621248 -0.0247753 0.441066
-0.203684 0.155968 0.158196
-0.131479 -0.157005 0.452392
-0.0360876 0.177639 0.533863
-0.174359 0.242252 0.705669
-0.00733449 0.227817 0.685672
0.0446561 0.171494 0.477485
-0.176572 -0.226366 0.272483
0.0645237 0.116563 0.434215
-0.13272 0.131275 0.43194
-0.143823 0.146832 0.441274
-0.0457675 -0.202008 0.454631
0.0553083 0.0195757 0.437267
0.0720958 -0.0337962 0.441839
-0.0555095 0.0405264 0.440726
-0.20556 0.039225 0.564311
0.222311 0.0578101 0.550619
-0.112067 0.120505 0.433658
0.0722571 -0.166784 0.458477
-0.222311 0.068451 0.66982
-0.110143 0.235494 0.6887
-0.013247 0.139433 0.442974
-0.0148322 0.245083 0.71421
-0.0444999 0.199562 0.621696
-0.119359 0.0353862 0.441166
0.0373764 0.0827985 0.437106
-0.0611542 -0.133239 0.455605
-0.176412 -0.238677 0.171139
0.179462 -0.165404 0.394742
0.0199968 0.219088 0.666574
-0.0143459 -0.028201 0.446611
-0.222311 0.079969 0.649262
-0.107826 -0.081726 0.445944
-0.217148 0.153569 0.18327
0.0691377 -0.227744 0.451365
-0.102675 0.254596 0.720281
0.0538187 -0.198954 0.461032
0.164051 0.244638 0.713475
0.0292447 -0.0363264 0.447306
-0.0737325 -0.00845148 0.44492
0.211034 0.191473 0.00211155
-0.168786 0.1716 0.465636
0.222311 0.149284 0.646088
0.134832 0.163019 0.4558
-0.201704 0.107216 0.63909
0.0279577 0.0233662 0.442195
-0.140678 0.190626 0.573529
0.0253777 0.1842 0.570331
-0.222311 0.106886 0.643532
-0.0429099 0.246991 0.717364
0.108088 0.102873 0.435387
-0.202261 0.0515557 0.587758
-0.203009 0.204421 0.0190993
-0.179109 -0.222315 0.296295
-0.148192 -0.0215328 0.44604
0.217278 0.0486681 0.624843
-0.0865972 0.243324 0.711303
-0.0990948 0.244791 0.704071
0.216892 0.0786461 0.511299
-0.0947899 0.256162 0.732522
0.216756 0.0399956 0.633012
0.0366796 0.184208 0.496907
-0.0974918 -0.135879 0.450583
-0.0314357 -0.094781 0.447062
-0.157069 -0.150492 0.451834
0.0848961 0.25623 0.732635
0.125191 0.187683 0.563475
0.0774829 0.0297617 0.441648
-0.222311 0.0581583 0.653466
0.144038 -0.0720257 0.445113
0.168787 0.195238 0.607236
0.113849 -0.20327 0.454199
0.0417419 0.215798 0.659216
-0.222311 0.0501539 0.639407
0.162466 0.182395 0.564056
0.123262 0.179075 0.499725
0.177288 -0.14725 0.438034
-0.0426302 0.2283 0.674593
-0.184277 -0.196119 0.313298
-0.13015 -0.0783113 0.445652
-0.127822 0.192209 0.59711
0.157006 -0.0180776 0.445744
-0.0951699 0.171652 0.465695
-0.202417 0.0796939 0.526092
0.0869502 -0.0580216 0.449164
0.0519743 0.2021 0.61188
-0.117902 0.0856927 0.431604
0.0695105 0.184492 0.528038
-0.127705 -0.0933442 0.446939
0.207061 0.157453 0.140795
-0.202256 0.195637 0.0498482
0.203882 0.117761 0.312673
0.139565 -0.274991 0.418534
0.166106 0.076131 0.437677
-0.0596467 0.122269 0.42924
-0.187143 -0.269101 0.0566621
-0.222311 0.0867354 0.642942
-0.0957474 -0.0776206 0.445593
-0.0826215 -0.233491 0.449397
0.0944859 -0.185961 0.460119
0.0498798 0.25185 0.715742
-0.0855008 -0.0234385 0.446203
-0.222311 0.0799445 0.648455
-0.0972776 -0.091666 0.452045
0.0550281 0.228028 0.673984
-0.175643 -0.185668 0.362492
0.0732955 0.0580466 0.433972
0.203156 0.147523 0.196026
0.221687 0.0793518 0.478947
-0.206687 0.105659 0.63909
0.213891 0.108159 0.347396
0.217571 0.122721 0.316369
-0.0874196 -0.198614 0.455793
-0.119778 0.107428 0.434997
-0.0167592 0.183484 0.536806
-0.0773849 0.152297 0.451569
-0.0874197 -0.116956 0.448962
0.0283125 0.205549 0.623407
0.202076 0.069568 0.559739
-0.136772 0.128505 0.436421
-0.156802 0.171407 0.465415
-0.19615 0.111533 0.647713
-0.0623774 0.0563662 0.43937
0.145312 -0.0704217 0.450226
-0.174359 0.146429 0.443294
-0.0211049 0.188231 0.565524
0.0873125 0.178654 0.529436
0.171522 0.00145349 0.444072
-0.187102 -0.245721 0.110727
-0.0764098 0.0129955 0.443083
0.217712 0.147459 0.212374
0.200877 0.193381 0.0237736
-0.0131759 0.116139 0.428996
-0.136258 0.223923 0.677393
-0.0496994 0.144781 0.440043
-0.0415154 -0.157958 0.457721
0.13546 -0.25786 0.43224
-0.036975 0.174824 0.48535
0.0352225 0.180185 0.513548
-0.222311 0.036692 0.576765
0.220083 0.0987947 0.63909
0.202394 0.112502 0.343703
-0.0231481 -0.19857 0.458237
0.0886819 0.200073 0.605105
-0.0698266 -0.11096 0.448448
0.218393 0.0458599 0.68068
-0.103251 0.0248312 0.44207
0.222311 0.0854461 0.658905
0.152932 0.0293408 0.436431
0.216657 0.135402 0.254159
-0.199888 0.172089 0.664742
-0.0846502 0.108037 0.434945
0.0179837 -0.0879821 0.44648
0.0628329 -0.176139 0.454031
-0.0413362 0.00924581 0.438152
-0.139167 0.0767685 0.437623
0.0250241 -0.188887 0.455123
-0.00610127 -0.234452 0.443524
-0.0873493 -0.142637 0.456409
0.222311 0.0505082 0.533206
0.0413124 0.184995 0.506682
-0.170225 0.185082 0.546956
-0.0395803 -0.272123 0.425677
-0.0337192 0.0952607 0.430785
-0.00453244 0.216171 0.660049
0.108046 0.0437163 0.4352
-0.0128044 -0.0437254 0.44794
0.162746 0.113715 0.429204
0.0470367 0.0514075 0.434541
0.0793192 0.159682 0.460033
-0.135433 0.178967 0.542291
0.00391237 0.141764 0.438233
-0.12613 -0.161441 0.45802
-0.0996443 -0.127586 0.455121
-0.191384 -0.157218 0.440036
0.149594 -0.241905 0.446516
-0.154365 0.225781 0.681548
-0.0301558 0.175759 0.473891
-0.0421086 0.178136 0.537016
0.0949627 -0.189593 0.46043
0.201765 0.203251 0.00776725
-0.0383765 0.179059 0.527782
-0.0966896 0.217067 0.662053
-0.0135187 -0.245118 0.439873
0.0414616 0.185562 0.550001
-0.132034 0.189384 0.587662
0.118945 0.195229 0.607207
0.0295284 -0.0516382 0.443367
0.0891803 -0.198605 0.458526
-0.0498339 0.179734 0.507933
-0.205808 0.0569524 0.509371
0.185969 -0.222425 0.229214
0.201 0.0632729 0.553378
-0.0282106 -0.17002 0.453507
-0.159988 0.115239 0.429073
-0.0757432 -0.0647113 0.449737
-0.222311 0.0458468 0.66101
-0.00178121 0.176909 0.476608
0.177563 -0.233026 0.253181
0.126811 0.196868 0.612687
0.152858 0.24645 0.706814
-0.0199421 0.261858 0.732289
0.061431 0.183823 0.538955
-0.130113 0.130868 0.437838
-0.135724 0.24693 0.717264
-0.14321 -0.202503 0.460009
0.189071 -0.238952 0.166406
-0.0476062 0.251206 0.72433
0.21027 0.146344 0.186082
-0.111411 0.182639 0.565109
-0.129167 0.251374 0.714955
0.125966 0.0894977 0.431278
-0.117533 0.0250034 0.436802
-0.0634644 0.0985927 0.430499
-0.174172 -0.138214 0.450783
0.0695381 0.205363 0.635869
0.222311 0.200701 0.654078
0.139244 0.030295 0.441602
-0.166442 -0.271169 0.419205
-0.20312 0.174038 0.143234
-0.137126 0.0578982 0.439238
-0.215361 0.071573 0.506008
-0.0404558 0.194278 0.604029
-0.118645 0.258799 0.736881
0.189903 -0.237261 0.177694
0.211544 0.184498 0.110002
-0.174359 0.117779 0.431046
-0.148781 0.243599 0.702099
0.117163 0.0582538 0.433954
-0.0699476 0.177321 0.491248
0.0426312 0.222886 0.662484
0.0953473 0.213699 0.654518
-0.0997426 0.213246 0.640921
0.126634 -0.123374 0.449512
0.0998396 0.0263531 0.441939
-0.0132383 0.0300787 0.436368
-0.0533351 0.197951 0.616309
0.116346 -0.113688 0.448682
0.0548932 0.175831 0.47406
-0.0825592 -0.192249 0.460657
0.0256994 -0.0889887 0.446566
0.133407 0.252554 0.716906
0.0193912 -0.089811 0.446637
-0.137378 -0.0735702 0.445246
0.0261321 0.0207729 0.437165
0.00361976 0.249437 0.711753
-0.0492678 0.135243 0.440462
0.0398856 0.0977338 0.435827
0.0314599 0.255464 0.731368
-0.217119 0.0576367 0.507251
-0.108846 0.210886 0.648226
0.0236693 0.0165681 0.442777
-0.0860139 0.185806 0.516749
-0.0381946 0.0984473 0.435766
-0.0253245 -0.126852 0.455058
0.158377 -0.250522 0.438023
0.0902912 -0.225572 0.452109
0.176497 -0.236013 0.233769
0.0165682 0.0267937 0.436649
-0.0140374 -0.0143543 0.440174
-0.214353 0.16634 0.11319
0.128704 -0.142449 0.456393
0.067609 -0.153657 0.457353
0.0110905 0.237358 0.701442
-0.0654232 0.166148 0.467444
0.216576 0.0944223 0.454098
-0.215276 0.0554953 0.63909
0.135485 0.249978 0.712646
0.0814226 0.236743 0.690764
0.0482512 0.171953 0.478569
-0.075303 -0.239456 0.447354
0.00338775 -0.250326 0.443632
0.102649 0.18562 0.514436
-0.154619 0.190404 0.591074
0.0865085 -0.146193 0.456714
-0.0604567 0.0311844 0.441526
-0.107184 -0.198413 0.456951
0.0433207 0.257744 0.735138
-0.0403224 -0.254379 0.442244
0.0422476 -0.236769 0.448274
0.0524607 -0.0133903 0.440091
-0.175127 -0.21809 0.278134
-0.00993375 0.0942835 0.436123
0.209645 0.1873 0.019124
0.19615 0.0532543 0.580801
0.187109 -0.263808 0.108048
0.15833 0.0340851 0.441277
0.116613 0.16864 0.470743
0.0196946 0.168913 0.47139
0.138854 0.197709 0.597204
0.185593 -0.177024 0.367451
-0.17558 -0.215459 0.278345
0.0501401 0.204443 0.633811
0.155528 0.25087 0.723775
0.144076 -0.25284 0.437156
-0.146422 0.113897 0.429188
-0.0700039 0.201768 0.61077
0.0370643 -0.116793 0.454196
0.0423744 0.0814775 0.431965
0.119611 -0.128004 0.455156
0.016365 0.118984 0.428753
0.0109241 0.178325 0.49362
-0.0320774 0.184343 0.542257
0.216693 0.173556 0.128879
0.121405 0.0284104 0.441763
0.112847 -0.0284005 0.446628
-0.0203089 0.129188 0.430863
-0.16208 -0.268965 0.421363
-0.220995 0.0416389 0.55683
-0.0476534 -0.0183789 0.44577
0.0821905 -0.273114 0.424708
-0.19615 0.177393 0.641151
-0.155621 0.169843 0.463622
0.115919 -0.0989645 0.45267
0.00364865 -0.249791 0.443815
0.19615 0.0552296 0.524876
0.0124307 0.260163 0.739135
-0.0626339 0.180411 0.522261
0.0075866 0.00102048 0.444109
-0.183489 -0.267365 0.085874
0.150152 0.259516 0.738066
-0.0751724 -0.150723 0.451854
0.140352 0.178776 0.48102
0.212869 0.0738089 0.500646
-0.204856 0.0766601 0.489484
-0.0706479 -0.110778 0.448433
0.201034 0.0626042 0.564714
-0.147246 0.23509 0.697694
-0.215915 0.15566 0.166794
0.222311 0.0220641 0.67095
0.075387 0.186097 0.553401
-0.146237 0.228395 0.686628
0.218207 0.0325713 0.584932
-0.147159 -0.167546 0.458542
0.105938 -0.195883 0.460969
0.19615 0.0546329 0.640478
0.0445631 -0.272221 0.418174
-0.123053 0.0631061 0.433539
0.20441 0.0971416 0.393321
0.119315 0.200839 0.607665
-0.057513 0.16131 0.461899
-0.0623723 -0.102826 0.453
0.04468 0.198041 0.61661
-0.13331 0.133773 0.43958
0.215279 0.0731799 0.498935
-0.13749 0.243518 0.701966
-0.072294 -0.226611 0.446209
0.145361 -0.0521027 0.443407
-0.0101451 -0.165521 0.458369
-0.222311 0.106495 0.664571
-0.188531 -0.241521 0.146143
-0.152214 0.024691 0.436829
0.0743122 0.183878 0.539305
0.222311 0.146246 0.658961
-0.156228 0.194273 0.604012
0.00485742 -0.0849117 0.451467
-0.116128 -0.181687 0.454506
-0.0892529 -0.137597 0.455978
0.211588 0.182985 0.116064
-0.158227 -0.00286573 0.43919
0.159956 0.276225 0.752412
-0.0933936 -0.205305 0.453503
0.143287 0.193933 0.584583
0.0967247 0.273289 0.748633
0.155261 0.0582983 0.439204
0.0738454 -0.0492147 0.44316
-0.125922 -0.00507748 0.444631
-0.102444 -0.0396028 0.447587
0.0568384 0.228468 0.674968
0.17792 -0.167078 0.429904
-0.213042 0.175364 0.0679479
0.00556128 0.0578035 0.433993
-0.138503 0.185407 0.511791
-0.00574988 -0.0255915 0.446387
-0.00776969 0.210446 0.64724
-0.00433992 -0.271841 0.418547
-0.0500349 0.221422 0.659209
0.115048 -0.119101 0.454394
-0.00572474 -0.23021 0.45052
-0.201231 0.0673336 0.535336
0.190994 -0.227365 0.260948
0.211727 0.1627 0.119405
0.0434065 -0.17198 0.458922
0.00870407 0.00720322 0.438327
0.153644 0.25172 0.715527
-0.11739 0.121825 0.434517
0.101439 0.268143 0.749906
0.0572417 0.0483464 0.434803
-0.0578062 0.238935 0.694388
0.217503 0.11296 0.3511
0.0908908 0.244615 0.713437
0.119956 -0.0668925 0.449924
0.222311 0.196618 0.653045
0.19615 0.115206 0.645253
0.151649 -0.131106 0.450174
0.158829 -0.030984 0.446849
0.222311 0.034877 0.639078
0.125724 -0.0197066 0.440632
-0.130787 0.223423 0.676274
0.0476318 -0.0477117 0.448281
0.0462717 0.179134 0.500465
-0.167773 0.178316 0.53816
-0.158913 -0.176061 0.459271
0.0514206 -0.251611 0.43765
-0.21765 0.139223 0.244988
-0.0632601 0.0334397 0.441333
-0.21727 0.117688 0.34366
0.0124233 0.162134 0.462843
-0.189878 -0.19483 0.362348
0.140166 0.222327 0.661233
0.114405 0.199268 0.620712
-0.0837128 0.0588406 0.439158
0.200857 0.054176 0.591383
0.0566495 -0.0161276 0.445577
-0.175671 -0.246587 0.138744
-0.115126 0.109649 0.434807
0.100788 0.236814 0.690883
0.0344479 0.180464 0.48501
0.20994 0.0797217 0.477499
0.17167 -0.0409401 0.442451
0.220686 0.123566 0.63909
-0.201664 0.0409257 0.55904
0.124201 0.240794 0.697463
-0.129364 -0.0444357 0.44275
-0.190123 -0.191671 0.340255
-0.044311 0.180619 0.51895
-0.0491994 0.0439519 0.440433
-0.142188 -0.226294 0.451861
-0.135908 -0.189236 0.455153
-0.109217 0.192263 0.579
0.046277 -0.000672624 0.439002
-0.147083 -0.234651 0.443456
0.0369781 -0.265443 0.424813
-0.135613 0.178485 0.480331
0.222311 0.0481085 0.6778
0.212511 0.202714 0.660875
0.104498 0.219403 0.654693
-0.16092 -0.255079 0.434964
0.174359 0.064832 0.436177
-0.124997 0.155542 0.455288
0.176602 -0.225 0.227538
0.201908 0.142883 0.257072
0.158599 -0.113025 0.448625
-0.0376403 0.12043 0.433825
-0.110405 0.208673 0.643275
-0.000530332 0.0152187 0.437641
0.0894108 0.224067 0.665125
-0.165832 0.230028 0.678458
-0.100786 0.260368 0.739474
0.159511 -0.13569 0.450567
-0.12761 -0.0375435 0.447411
0.211658 0.0390176 0.564954
0.116407 0.0291932 0.441696
-0.167775 0.159016 0.45927
-0.0831251 0.272302 0.747364
-0.106731 0.266131 0.739352
-0.105763 0.0781536 0.437504
0.203617 0.138717 0.288452
0.00102678 0.186751 0.578861
-0.178154 -0.257895 0.139865
-0.203243 0.0441024 0.549195
0.11811 0.0571473 0.434049
-0.0706451 -0.237686 0.442418
-0.161038 0.140639 0.437558
-0.199751 0.171976 0.63909
0.133621 0.181956 0.488535
-0.184764 -0.155585 0.436496
-0.207423 0.0914173 0.490692
0.0495261 -0.238915 0.447539
0.0259194 -0.111522 0.448496
0.0226952 -0.0514897 0.443354
0.12379 -0.203413 0.45415
-0.119925 0.195089 0.588447
-0.112084 0.185326 0.510785
-0.12974 0.125099 0.429904
-0.142546 0.0696057 0.438236
0.174359 0.189463 0.585646
-0.141914 0.203638 0.617022
-0.164572 -0.0490762 0.448398
-0.222311 0.0824122 0.641304
-0.0534024 0.059958 0.439062
0.160134 -0.0712365 0.445046
0.201494 0.0582408 0.570705
-0.176149 -0.229278 0.213223
-0.0735346 -0.181875 0.459769
-0.174359 -0.0398176 0.44688
0.0199813 -0.160787 0.452716
0.155881 0.235505 0.698379
-0.222311 0.132705 0.652085
-0.222311 0.196111 0.640018
-0.0138202 -0.0435649 0.442676
-0.208316 0.0748779 0.496461
0.0364668 0.206404 0.625618
-0.0487153 -0.27197 0.41842
-0.174359 0.0881737 0.433319
0.0254892 0.151395 0.450535
-0.0812972 -0.140195 0.450952
-0.222311 0.186894 0.658115
0.0534216 -0.257932 0.432169
0.0126698 -0.196354 0.455763
-0.118503 0.231482 0.69173
-0.00385809 0.204206 0.63328
0.0968907 0.184638 0.502254
-0.172653 0.171818 0.47825
-0.0506035 -0.12622 0.455004
0.101722 -0.212855 0.450918
0.16431 0.0387341 0.435626
0.108136 0.207115 0.639789
-0.172092 -0.150522 0.457085
-0.047436 -0.0445304 0.442758
0.153033 0.181345 0.534573
0.0610137 0.107125 0.429768
-0.0734462 0.252753 0.717235
-0.125986 -0.21395 0.450543
-0.114613 -0.16584 0.453149
0.188257 -0.186501 0.386801
0.107419 0.177709 0.533722
-0.020272 0.183836 0.569113
-0.164882 0.150829 0.443672
-0.0531647 -0.16888 0.453409
-0.187211 -0.225605 0.285882
-0.0629309 0.11672 0.428947
0.222311 0.0359989 0.612007
0.142131 -0.257877 0.439621
0.0351299 0.121636 0.43008
-0.170299 0.164783 0.457822
0.126651 -0.0497219 0.448453
-0.146977 0.179144 0.500591
-0.0909618 -0.0026582 0.439172
0.146984 0.269596 0.751776
-0.222311 0.104619 0.669632
-0.148522 0.177868 0.492541
0.202247 0.0530509 0.521463
0.111566 0.193771 0.58404
0.201894 0.176746 0.118725
-0.0692158 -0.013368 0.445341
-0.0245656 0.186137 0.553656
-0.0289925 -0.141354 0.4563
-0.214043 0.131819 0.31856
-0.132761 0.0941057 0.430884
0.148702 -0.057545 0.443873
0.0250348 0.227234 0.672209
-0.196546 0.193141 0.63909
0.157437 0.0240016 0.436888
0.183911 -0.210595 0.33134
-0.0406208 0.199322 0.620895
-0.126131 -0.12618 0.455
-0.215768 0.0731144 0.63909
-0.0607969 0.246941 0.717282
0.00565483 -0.263043 0.434564
-0.0775062 0.0788001 0.437449
-0.0446452 0.250795 0.723652
0.206165 0.146564 0.262768
0.0775447 0.226673 0.683544
-0.178502 -0.169839 0.425953
-0.19615 0.049682 0.650626
-0.0366743 0.186117 0.520605
-0.0720316 0.245308 0.704925
0.133928 0.145602 0.446672
0.0185802 -0.260065 0.437479
0.0862107 0.179893 0.48366
0.172892 0.245691 0.715216
-0.211016 0.0971835 0.386487
-0.131245 0.146211 0.447038
-0.174359 0.196268 0.603081
-0.109503 0.0753372 0.437745
0.0505364 0.0979802 0.430552
-0.19844 0.055505 0.63909
-0.211616 0.163482 0.195497
0.128886 0.172318 0.466458
-0.0261958 0.24409 0.712569
-0.00887954 0.212634 0.652136
-0.0781857 -0.217624 0.45483
-0.167174 -0.0700597 0.444945
0.0274173 0.223627 0.664142
0.201522 0.175131 0.116956
0.141964 -0.104844 0.447924
0.100157 -0.267205 0.430492
-0.133367 0.18594 0.518407
0.0693487 0.249019 0.711061
0.209384 0.108965 0.423271
0.0503863 0.0840143 0.437002
-0.0635535 0.216168 0.647456
-0.107264 0.220639 0.657458
-0.087892 0.180763 0.520744
0.160912 0.212051 0.650833
-0.153034 0.264012 0.735849
-0.153181 0.256421 0.732951
0.0436363 -0.260709 0.42945
-0.0619163 0.162844 0.4556
0.168328 -0.0948201 0.452315
-0.21641 0.183234 0.0957937
0.155632 -0.0498763 0.448467
