0.147128 0.171989 0.225917
0.00505281 -0.190764 0.457709
-0.0985081 -0.123448 0.460312
0.0765906 0.154493 0.451452
0.219317 0.113811 0.821903
0.16697 -0.189927 0.281502
-0.147163 0.160079 0.231701
0.0134929 0.0839741 0.45614
-0.0327727 -0.226162 0.429467
0.139774 0.150365 0.528342
0.10343 0.191965 0.795497
0.0146905 -0.0803754 0.456093
0.171877 -0.204928 0.346498
-0.171671 -0.187852 0.137889
-0.130937 0.176895 0.357992
0.108417 -0.1574 0.45827
-0.072908 0.0752103 0.456815
0.172838 -0.0665403 0.4591
0.119451 0.138866 0.451322
0.045298 -0.0273263 0.452613
0.0853293 0.0705071 0.460539
-0.130813 0.147361 0.581391
-0.0401823 -0.00298502 0.456456
-0.15788 -0.177497 0.4509
-0.137155 0.15338 0.181777
0.132248 0.149815 0.598671
0.0183731 0.0332142 0.453782
0.232689 0.0802519 0.703337
0.0489195 -0.0866396 0.457307
-0.0489905 -0.118501 0.4585
-0.137188 0.180957 0.136641
0.130124 0.158588 0.67865
-0.0836538 0.128364 0.434067
0.0994752 -0.190398 0.445676
-0.12618 0.166762 0.675641
-0.187031 -0.185462 0.419705
-0.0506014 0.139361 0.46268
0.0148168 0.170462 0.450551
-0.124852 0.150877 0.503733
0.0316042 -0.218082 0.43944
-0.135435 0.0990703 0.460126
-0.166346 -0.199078 0.379075
0.1701 -0.196214 0.0739381
0.14685 0.00889537 0.458013
0.089395 0.00578369 0.458802
-0.119321 0.160037 0.555697
0.115697 -0.0692048 0.456333
0.197283 -0.00265196 0.431932
-0.155651 -0.131465 0.435492
0.107442 -0.189032 0.432366
-0.203333 0.140457 0.705524
0.0516198 0.145837 0.45126
0.188281 -0.185655 0.392783
-0.235227 0.097507 0.783434
-0.0983339 -0.213193 0.452169
0.1423 0.155464 0.138185
0.086863 -0.100916 0.455655
-0.0897785 0.204592 0.788324
0.0275679 0.24462 0.804802
0.156952 0.143903 0.697603
0.138793 0.0649445 0.458833
-0.079859 -0.164314 0.457639
-0.122092 0.145995 0.451604
-0.0266059 0.0375776 0.454099
0.137665 0.153373 0.635809
0.175914 -0.182369 0.226075
-0.147075 -0.0282556 0.457716
0.137713 0.173807 0.506556
0.142041 0.153711 0.325942
-0.153363 0.167205 0.814645
-0.194873 -0.0675386 0.452356
-0.123546 0.171312 0.436293
-0.148295 0.175691 0.0710639
-0.0497861 -0.204136 0.458734
0.149907 -0.153584 0.428834
-0.183531 0.172597 0.803972
0.228798 0.112128 0.711833
0.144494 0.157674 0.0657899
0.13155 0.15664 0.0778636
0.145252 0.171391 0.343722
0.110295 0.182627 0.709328
-0.172507 -0.20535 0.0806999
-0.124493 0.20439 0.704217
0.171982 -0.120225 0.4285
0.127255 -0.159554 0.462554
-0.139893 0.0313773 0.458071
0.000927147 -0.0121102 0.455056
0.189689 -0.0950381 0.450676
-0.154453 -0.00568891 0.458202
-0.0702656 0.223659 0.68716
-0.0721209 -0.0522779 0.453999
0.0484412 -0.122378 0.458636
-0.149363 0.165313 0.119315
-0.0763249 0.191107 0.695987
0.0502717 -0.214635 0.443534
0.182504 -0.208409 0.218529
-0.179223 -0.209257 0.164163
0.140737 0.170363 0.58704
0.0435362 0.1279 0.458517
-0.144538 0.156155 0.432689
0.159876 -0.123513 0.448644
-0.167995 0.175341 0.698061
-0.128212 0.077121 0.45874
0.120533 -0.200221 0.451956
0.132468 0.176348 0.807457
-0.0217051 0.124468 0.45812
0.132446 0.178371 0.279198
-0.0361643 0.156723 0.428553
-0.00156573 0.143876 0.462501
-0.183765 -0.208453 0.196208
0.129936 0.176399 0.374815
-0.0422201 -0.242599 0.444128
-0.151496 -0.142138 0.463
0.155293 -0.0470754 0.458137
-0.0869987 -0.0155211 0.454793
-0.166542 0.0820049 0.445812
0.163207 -0.152352 0.451671
-0.240232 0.072945 0.71137
0.179446 -0.207538 0.274956
-0.190766 -0.195199 0.341174
-0.127901 0.122268 0.451956
0.123937 0.164802 0.640982
-0.0383228 0.075455 0.456009
0.127332 0.176926 0.156947
0.214865 0.138782 0.804839
0.00892533 0.22776 0.783981
0.138083 0.1506 0.408411
0.1863 0.113899 0.704883
0.109333 -0.0327907 0.4558
0.160333 -0.00577667 0.458487
0.145479 0.109612 0.442793
0.233865 0.0880812 0.740131
0.0519202 -0.18767 0.46154
-0.185963 0.0308719 0.451227
0.0202492 -0.228683 0.462847
0.165906 -0.199527 0.414031
0.139913 0.206853 0.801982
0.184414 -0.0109241 0.454526
0.169119 -0.194425 0.137465
0.175997 -0.208676 0.0972752
0.179395 0.174199 0.811702
-0.17731 0.138229 0.717489
-0.130561 -0.190925 0.45244
-0.125157 0.167263 0.0314065
-0.18258 -0.181074 0.293519
-0.128714 0.155096 0.212913
0.0655462 0.151171 0.428561
-0.100075 0.200284 0.813082
0.228524 0.0654334 0.785189
0.184957 0.144213 0.688356
-0.139009 -0.0615149 0.460927
0.171231 -0.199517 0.0112905
-0.14193 0.168095 0.597079
-0.180021 -0.0298583 0.448597
0.0689793 -0.0495295 0.453811
-0.169821 -0.0920009 0.434896
-0.175999 -0.183107 0.191429
-0.14618 -0.098254 0.458227
-0.221541 0.08859 0.695824
-0.226935 0.0626286 0.742486
-0.0732955 0.124395 0.458886
-0.142976 0.0745861 0.446771
-0.137043 0.173376 0.541354
-0.0246409 -0.0652289 0.455721
-0.0449391 0.213498 0.807715
-0.135313 0.151871 0.629904
-0.142165 0.17527 0.332241
-0.217547 0.127208 0.81988
0.00956151 -0.222299 0.443944
-0.132453 0.179336 0.205961
0.0189163 -0.0350714 0.451247
0.129663 0.202488 0.693803
0.0884674 0.217482 0.81506
-0.16656 0.0463957 0.45847
0.148094 0.162263 0.190923
0.180843 0.158858 0.710763
0.124813 0.172882 0.421127
-0.114308 0.0404735 0.457145
0.209679 0.086113 0.712086
-0.0224653 -0.14063 0.455422
0.144885 0.16299 0.538173
0.123364 0.160563 0.2652
0.180766 0.0573507 0.445445
0.121138 0.155915 0.501405
0.144078 0.0707504 0.438603
-0.141423 0.15586 0.0818025
0.246387 0.0935456 0.799458
-0.0694345 -0.0713847 0.454171
-0.143963 0.155297 0.517167
0.201414 0.112133 0.798969
-0.216801 0.127642 0.795187
0.134409 0.152944 0.221809
-0.0553898 0.16402 0.433286
-0.143496 0.154597 0.562641
-0.0731148 -0.205403 0.43991
0.0300199 0.157665 0.428585
-0.0675342 -0.219001 0.461727
0.156189 0.186789 0.703419
-0.128327 -0.129703 0.458164
0.0976942 0.0412588 0.460033
-0.104789 0.117506 0.43216
0.0963303 0.148399 0.440379
-0.176668 -0.186824 0.02486
0.0999885 0.228603 0.801013
-0.166298 0.146847 0.800045
-0.160687 -0.185414 0.420138
-0.129737 0.185115 0.714141
-0.173946 0.136202 0.689789
-0.16619 -0.197604 0.325512
0.115078 0.127172 0.436395
-0.125383 0.17388 0.0856422
-0.0987431 0.14628 0.437585
-0.122047 0.155519 0.461137
-0.102345 0.184415 0.688623
-0.144345 0.155866 0.487834
0.0551633 -0.00337191 0.457061
-0.0440115 0.207955 0.705696
0.0261935 -0.177609 0.46074
0.140096 -0.154552 0.450676
0.198807 0.130073 0.689408
-0.147029 0.163706 0.359005
0.132136 -0.0502794 0.456987
0.125055 0.149786 0.540778
-0.218764 0.0809627 0.792242
0.122437 0.151771 0.57611
-0.118295 -0.176361 0.438399
0.189167 -0.18639 0.339773
0.199939 -0.0489115 0.435428
-0.0988375 -0.0916291 0.455928
-0.0492816 0.0196489 0.453966
-0.113547 -0.152584 0.458289
0.172378 -0.205493 0.303701
-0.163529 0.191892 0.796133
-0.119774 0.163514 0.524251
0.133052 0.182024 0.0164361
-0.13218 0.152749 0.24442
0.117755 -0.134113 0.457848
-0.153349 0.172359 0.715327
0.0335159 0.0988764 0.457036
0.0931385 -0.205914 0.462155
-0.055857 0.216056 0.786457
0.0835107 0.222258 0.698647
-0.200608 -0.00757188 0.445358
-0.18476 0.0479305 0.439697
0.162473 0.0355754 0.459188
0.177371 0.0140456 0.429881
-0.0594087 0.0810748 0.46025
0.13914 0.174469 0.443802
0.145141 0.158541 0.0186891
-0.0736683 0.0323388 0.458829
0.186126 -0.184498 0.0546438
-0.0737479 0.142843 0.461527
0.122489 0.169023 0.329679
0.0173683 -0.133361 0.458579
-0.0181082 -0.246437 0.445724
0.195787 -0.193169 0.0217721
0.171802 -0.186762 0.165385
-0.0474935 -0.0906992 0.457394
0.132168 0.148872 0.468695
0.0198854 0.0694247 0.459046
-0.0319712 0.150507 0.452301
0.255015 0.0675665 0.744152
0.186927 -0.199276 0.413854
0.147344 0.161797 0.284467
0.0241475 0.111541 0.461057
0.12584 0.174732 0.0493035
0.15553 -0.177164 0.425571
0.179977 -0.210568 0.054253
0.122772 0.170169 0.458077
0.188519 -0.204401 0.24733
-0.135552 0.175034 0.487285
0.10462 0.204665 0.684656
-0.106718 0.0719251 0.457796
-0.245193 0.0613664 0.782477
0.124241 0.168205 0.0992351
-0.148971 0.176709 0.00893915
-0.0140837 -0.19706 0.458051
-0.00810935 -0.227308 0.431332
-0.163503 -0.164467 0.433304
-0.0339696 0.119862 0.458018
0.084524 0.023951 0.455458
-0.124787 0.166653 0.637157
-0.0774663 0.235809 0.8063
-0.173789 0.00840557 0.447706
0.000738948 0.24121 0.812247
-0.189677 -0.210535 0.000273079
-0.0997144 -0.191168 0.449424
-0.121002 0.160301 0.416982
0.067727 -0.236345 0.447931
-0.143803 0.174621 0.29382
-0.170304 -0.197193 0.055078
0.211026 0.0954809 0.812745
0.0411915 0.212062 0.803455
0.142638 0.183225 0.684421
0.081355 0.154298 0.43358
-0.0179876 0.217302 0.791116
0.111296 0.0986496 0.45887
0.171618 -0.0881804 0.46283
-0.149183 0.166357 0.165518
0.139686 0.175058 0.404273
-0.136071 0.182405 0.0509914
0.17193 0.13044 0.695625
-0.124083 0.16993 0.128481
0.112449 0.0566696 0.461063
-0.137097 0.186314 0.684161
-0.12472 0.171562 0.697224
-0.172944 -0.0768114 0.462754
0.0247896 -0.239061 0.430192
-0.0249733 0.0953749 0.460313
0.166804 0.152947 0.79282
0.18242 -0.101477 0.429156
0.0912383 0.0964867 0.458185
-0.0689363 -0.178022 0.461477
-0.121294 0.165631 0.379029
0.224368 0.0662678 0.735356
-0.171197 -0.181814 0.342704
-0.198772 0.116956 0.817698
0.0842446 0.125705 0.446446
-0.178962 -0.205202 0.411842
0.121901 0.164621 0.314128
0.172564 0.181207 0.795458
0.0607601 0.0808177 0.460267
0.0196588 -0.202041 0.458314
-0.0854127 0.201798 0.682407
-0.0727418 -0.141258 0.460076
0.175799 -0.0705127 0.438796
0.0381575 0.0450611 0.458236
0.215101 0.125032 0.71323
-0.137315 0.173307 0.797828
-0.24852 0.0852342 0.72739
-0.13405 0.15012 0.386327
0.0658002 -0.0636341 0.453847
-0.146096 0.176153 0.152056
-0.116953 -0.0638751 0.459882
0.179842 -0.206132 0.366108
-0.00159936 0.175528 0.4353
-0.00946765 -0.08319 0.452579
-0.103788 -0.016195 0.455602
0.0336428 0.15226 0.454345
-0.0941504 0.0253893 0.455895
0.0587344 0.199449 0.691275
-0.141283 0.108143 0.450884
0.19519 -0.0035159 0.452175
-0.0124691 -0.22994 0.462659
-0.0361489 -0.0277761 0.452162
0.0651271 0.139228 0.462895
-0.144381 0.168338 0.674122
0.130711 0.174422 0.540415
-0.162318 0.186758 0.814836
0.00510735 0.00726205 0.455998
-0.142812 0.176262 0.27204
-0.127354 0.156127 0.657141
-0.190121 -0.186262 0.12612
-0.131858 0.178636 0.246168
0.160543 -0.140578 0.428805
0.184445 0.127929 0.811925
0.0648118 -0.0969916 0.458221
-0.027205 -0.121217 0.458145
0.0903246 0.193769 0.710828
-0.137476 0.00524854 0.457511
0.20132 0.147932 0.816249
-0.182915 0.15647 0.790119
0.241092 0.0867694 0.757993
0.0796643 -0.202221 0.445329
-0.19201 -0.0805824 0.430239
0.0113229 0.216413 0.798319
0.0695688 0.00177081 0.454253
0.12662 0.169405 0.664945
0.169205 -0.167869 0.436872
0.129041 0.172422 0.707315
0.131344 0.150517 0.378075
-0.202953 0.0981607 0.699843
0.181411 -0.0468683 0.462984
-0.173589 -0.20624 0.272704
0.162854 0.081432 0.45074
0.165848 -0.187736 0.363855
0.0602939 -0.22679 0.428574
0.139742 0.156451 0.00223136
-0.0340443 0.237966 0.811145
-0.175131 -0.185705 0.104807
0.0642702 -0.16633 0.457322
-0.0728014 0.143956 0.428977
0.133465 0.0197153 0.461086
-0.255072 0.0773683 0.752423
0.149038 0.171776 0.126078
-0.172992 0.0153853 0.432599
-0.175572 -0.0583446 0.446446
0.217917 0.0874478 0.697055
0.146514 0.171732 0.265937
0.0132003 -0.101321 0.457042
-0.165102 -0.130644 0.453681
-0.0986368 0.207435 0.711139
0.187006 -0.183838 0.168585
0.193907 -0.201257 0.131291
0.131101 0.0866527 0.443039
0.0282675 -0.241195 0.450685
-0.172131 -0.190246 0.0696646
0.171768 -0.204968 0.328708
-0.0483489 -0.223095 0.45308
-0.125635 0.167682 0.608938
-0.190398 -0.0305778 0.428766
0.248977 0.0678008 0.788646
0.232568 0.0960261 0.816279
0.00478055 -0.167087 0.460124
0.122943 -0.089901 0.456994
-0.180211 -0.208156 0.235504
-0.035017 -0.160876 0.460081
-0.169493 -0.023002 0.458864
0.000637235 0.0441139 0.45417
-0.156998 -0.0789037 0.462008
0.16942 -0.197999 0.115174
0.134415 -0.116616 0.458063
-0.117954 0.105708 0.450905
0.146796 0.0933284 0.429098
0.0711863 0.117069 0.458521
0.124939 0.160427 0.181953
0.126457 0.156363 0.245627
-0.00495958 0.0945524 0.460163
-0.132936 -0.159885 0.435353
-0.162236 0.161832 0.685974
-0.186719 0.124279 0.810322
-0.14063 -0.172612 0.446128
0.134659 0.150646 0.35313
-0.128271 0.156775 0.162291
-0.124634 0.172602 0.148162
0.0448159 0.241696 0.793122
-0.118617 0.213751 0.790679
-0.191066 -0.18765 0.204988
0.167594 -0.110579 0.462992
-0.123589 0.0286925 0.460819
0.0999978 -0.126265 0.46046
0.242228 0.0550791 0.762044
0.170603 -0.203431 0.17614
-0.161792 -0.107766 0.446682
0.0960261 -0.0155821 0.455231
-0.132614 0.149655 0.420786
-0.0442526 -0.0528765 0.452648
-0.154151 0.0673261 0.463042
0.0315098 0.0163148 0.453293
-0.0538951 -0.225889 0.428703
0.243987 0.0710115 0.71731
0.0279406 -0.152236 0.456033
0.187556 -0.183988 0.214162
-0.172359 -0.20392 0.00997323
-0.0304394 -0.0979991 0.453617
0.123788 0.171572 0.233758
0.0675889 0.221833 0.78387
0.155576 0.0560971 0.438115
0.102308 0.133361 0.453636
0.148298 0.176425 0.0528866
-0.190247 -0.196064 0.359674
-0.0920031 0.139964 0.45358
0.0842482 0.201844 0.796284
0.113195 0.146661 0.434698
0.147002 0.0494291 0.458763
-0.0548911 -0.0628779 0.453333
0.145189 0.157724 0.449777
-0.078555 -0.120542 0.459506
-0.130832 0.179118 0.188085
-0.19387 -0.189618 0.0153237
-0.172066 -0.20525 0.130333
-0.081928 -0.221361 0.429642
-0.0684511 0.224448 0.7064
-0.176698 -0.17447 0.433515
0.188881 -0.0777737 0.453794
-0.177682 0.0209702 0.462157
0.105881 -0.100064 0.456421
0.0577397 -0.0345564 0.4532
-0.116985 -0.0870649 0.456664
-0.194156 -0.196296 0.163855
0.119244 0.162484 0.592589
-0.128387 0.154137 0.264509
0.17742 -0.180396 0.303755
0.134074 0.194242 0.817006
0.13634 0.181606 0.104021
-0.00864448 -0.036102 0.454314
-0.187798 -0.204861 0.252848
0.0511744 -0.222415 0.462795
-0.188771 -0.185236 0.311329
-0.12665 0.173906 0.458823
0.12562 0.166036 0.00713944
0.127791 0.198335 0.786415
0.199504 -0.0654617 0.448049
0.168777 -0.182284 0.396507
-0.201255 -0.0561825 0.441176
0.0579392 0.0598206 0.459332
-0.167555 -0.196846 0.225744
-0.114282 -0.0444499 0.456065
0.0145211 0.242796 0.78727
0.17703 -0.184918 0.0917053
0.058145 -0.137901 0.459524
-0.183899 -0.181853 0.261844
0.19733 0.119369 0.719226
0.0752023 -0.152519 0.457038
0.127977 0.000523757 0.456989
0.0819184 0.137389 0.462508
0.068052 0.222442 0.814451
-0.0661682 0.100676 0.457698
-0.0882796 0.19005 0.70723
-0.00975408 -0.128728 0.458315
0.113458 0.189783 0.811015
-0.191062 -0.207144 0.0859666
-0.170875 -0.1805 0.397373
0.180933 -0.0303532 0.452095
0.147536 -0.154586 0.462419
0.134869 0.154774 0.113776
-0.0162305 0.165993 0.429472
-0.148407 0.16407 0.214007
-0.0397711 0.0590603 0.458878
0.150508 0.175441 0.816447
-0.231172 0.0614889 0.725984
-0.208 0.143679 0.799403
0.18478 -0.0660839 0.429162
-0.188069 -0.184459 0.147029
0.181702 -0.123587 0.448486
0.0678562 -0.203495 0.46256
-0.193354 -0.202927 0.116856
-0.0679729 -0.0185824 0.457396
0.147739 0.171444 0.20565
0.0486755 0.236334 0.69692
-0.0742011 0.202509 0.711205
-0.142245 -0.186974 0.439216
-0.174263 -0.0938859 0.46303
0.145467 0.166963 0.681399
0.169698 -0.202398 0.213058
0.0688366 0.196803 0.705224
-0.14977 -0.042316 0.461385
-0.243618 0.0890534 0.770429
0.16977 -0.203213 0.258378
0.153313 0.0723889 0.462489
0.0730841 -0.113537 0.459075
0.13036 -0.183719 0.45393
0.135468 0.153135 0.205191
-0.150462 0.16994 0.0370131
-0.182346 0.031659 0.429595
0.148441 0.171204 0.17293
0.145636 0.15781 0.240412
-0.0488415 0.150608 0.462432
-0.0303212 -0.182523 0.457474
-0.173115 -0.0605894 0.462627
-0.219075 0.106314 0.791231
-0.152728 -0.124576 0.4626
0.182573 0.157685 0.819511
-0.0415366 -0.222633 0.463023
-0.0917781 0.0824546 0.461193
0.03678 0.167139 0.449725
0.107341 -0.194961 0.462436
0.0113069 -0.119046 0.454294
-0.07143 0.208915 0.791039
0.0962256 -0.172168 0.461964
-0.228327 0.0940316 0.817307
-0.127878 0.0906684 0.44149
0.0952715 -0.0654202 0.45529
0.117807 0.101459 0.447936
-0.125841 0.127541 0.433714
0.179012 -0.209474 0.137431
-0.15514 -0.157038 0.444176
-0.142923 0.16904 0.528165
-0.19703 0.130925 0.68901
0.0350789 0.0602981 0.458832
-0.101928 -0.109909 0.456526
-0.023893 0.053607 0.454803
-0.195277 -0.192729 0.0493582
-0.224737 0.084579 0.736704
-0.0960375 -0.156455 0.461342
-0.142379 -0.147445 0.448665
0.000531226 0.153835 0.449728
0.239473 0.0972149 0.712111
-0.0207462 -0.00199807 0.452259
0.153912 -0.122015 0.462602
-0.187751 -0.200107 0.391425
0.129098 0.152209 0.337719
0.137748 0.153065 0.617291
-0.139407 0.181189 0.111547
0.195516 -0.201635 0.0523864
-0.177491 -0.0134312 0.447294
0.130587 0.180344 0.0329112
0.102009 -0.0822595 0.459438
-0.123615 0.159304 0.282301
-0.0799643 -0.0319241 0.454328
0.131351 0.1473 0.433619
0.0472983 -0.104928 0.454352
0.00194458 0.124164 0.461562
0.148444 0.16275 0.157385
-0.115383 -0.20863 0.447191
0.176404 -0.0238156 0.462745
0.122029 0.166302 0.294565
0.194729 -0.199886 0.105988
0.187851 0.0357187 0.436073
0.0149905 0.157812 0.461748
0.0274205 -0.0670389 0.452303
0.0456686 0.147598 0.431029
-0.15785 0.0788111 0.42902
-0.0264153 -0.0490022 0.45533
0.216287 0.0844958 0.798211
0.152951 0.0248425 0.462076
-0.140035 0.155027 0.115235
-0.0348875 0.217819 0.787337
0.0423157 0.0115463 0.457013
0.120531 -0.0431895 0.459928
0.121622 0.167596 0.404207
0.192735 -0.189285 0.122138
-0.0644904 -0.0886235 0.454391
-0.0586507 -0.232508 0.452626
0.176799 -0.205614 0.399699
-0.192806 0.0121201 0.450912
-0.147253 0.040948 0.458602
-0.129513 0.159606 0.438873
-0.185555 -0.0389956 0.462643
-0.0773413 -0.209652 0.459493
-0.12155 0.165777 0.346619
0.139237 0.169022 0.645456
0.134793 0.151964 0.276352
0.17921 -0.210464 0.032724
0.169712 0.0252615 0.450218
-0.174685 0.160991 0.713548
-0.12521 0.156086 0.302593
0.119551 0.157213 0.556902
0.164432 0.0295468 0.442897
-0.116727 0.215527 0.81025
0.149016 0.173953 0.0739692
-0.148869 0.162898 0.100993
-0.154805 0.0590439 0.446917
-0.139194 0.175856 0.378315
-0.0854691 0.220673 0.701388
-0.231508 0.0583516 0.757657
-0.146357 0.159058 0.327817
-0.229046 0.121912 0.807324
0.173343 -0.206352 0.238534
0.00917732 0.106225 0.457189
-0.121585 0.168381 0.473077
0.113749 -0.00735111 0.456198
-0.122963 -0.0106885 0.456605
0.0550186 0.162331 0.451266
-0.143474 0.154563 0.469808
-0.172528 -0.185902 0.172482
-0.0810165 0.108517 0.461906
-0.168792 -0.187785 0.249647
-0.12581 -0.175769 0.459517
-0.059027 0.0341562 0.458372
-0.130305 0.172524 0.659711
0.165534 -0.191493 0.33963
0.0584357 -0.017661 0.456946
0.11014 0.0282912 0.4602
-0.224972 0.11062 0.820273
-0.0905896 -0.178759 0.458519
-0.0969049 0.117245 0.446446
0.165403 0.0661444 0.453987
0.0344322 -0.0442843 0.452062
-0.0253905 0.111961 0.461086
0.0868464 0.0543251 0.460041
-0.14992 0.0923295 0.452837
0.152225 -0.0190484 0.458013
0.0387423 0.228385 0.814125
-0.046148 0.0903324 0.460371
-0.122716 0.167853 0.252509
-0.141432 0.152207 0.452046
0.123283 0.154972 0.41544
-0.0831822 -0.0845245 0.458629
-0.122468 0.168845 0.326967
-0.195826 -0.19798 0.0669399
-0.033594 0.139368 0.458921
0.142043 0.170096 0.523414
-0.165481 0.134706 0.703448
-0.0565533 -0.000632908 0.453623
-0.0627887 -0.112803 0.455124
-0.16547 -0.188857 0.364302
0.124656 0.168346 0.0644516
-0.0622961 -0.161076 0.457051
0.218838 0.120111 0.695705
0.145466 0.171613 0.326495
0.0876412 -0.224552 0.448356
0.182069 -0.196524 0.42919
0.0109636 0.165612 0.429084
0.225873 0.101255 0.724265
0.0704596 0.0952798 0.457554
0.141877 -0.0362529 0.460968
0.187349 -0.202666 0.336855
0.138613 0.167244 0.60232
-0.124367 0.159754 0.229972
-0.0600227 0.210914 0.681843
-0.121179 0.088127 0.462403
-0.00983359 0.23051 0.783255
0.0567535 0.149078 0.461998
0.0100114 -0.229802 0.429776
-0.177738 -0.181688 0.225563
0.235787 0.110737 0.809569
0.184559 -0.0485226 0.429202
-0.147592 0.170136 0.245841
-0.169841 -0.202549 0.204477
-0.119944 0.0568645 0.461376
-0.166617 0.00665129 0.458948
-0.179194 0.122265 0.698055
-0.0307932 -0.230172 0.461233
0.00732462 -0.0662252 0.455343
-0.130608 0.180039 0.0701117
-0.0111393 -0.149939 0.459333
0.191998 -0.200062 0.229761
-0.150106 0.171682 0.0541286
0.138307 -0.171685 0.42849
0.189497 -0.204844 0.205106
0.137962 -0.192056 0.444021
0.130325 0.100569 0.45648
0.164888 0.164734 0.715472
0.174979 0.00631247 0.450971
0.127791 0.120689 0.430082
0.0832836 -0.0478929 0.458087
-0.00117266 -0.235842 0.453987
0.163952 -0.135489 0.453769
0.227253 0.101968 0.695754
-0.112713 0.133721 0.450684
0.13247 0.181996 0.000254035
0.103958 0.117308 0.432861
-0.123278 0.17091 0.499666
-0.12653 0.157648 0.196518
0.0476265 -0.170845 0.460714
-0.130794 0.155818 0.132668
0.138459 0.176648 0.358462
-0.160423 -0.148267 0.428947
-0.193259 0.161153 0.809722
0.101397 0.206992 0.815412
0.171515 -0.192042 0.0556305
-0.143542 0.154666 0.543226
0.121515 0.15441 0.517519
-0.125953 0.164979 0.0148315
-0.169668 0.0241966 0.447628
-0.113837 -0.192842 0.456797
0.0323757 -0.215772 0.462586
-0.191583 -0.195976 0.294155
-0.128894 -0.0489241 0.456818
-0.0552631 0.121911 0.458393
-0.229771 0.0712298 0.799498
-0.144165 0.15787 0.0121006
-0.182482 -0.12502 0.446091
-0.146649 0.0182646 0.45812
-0.0725635 0.132524 0.448478
0.141438 0.153409 0.309083
0.126789 0.159284 0.127834
-0.154957 -0.0610233 0.458179
0.0665432 0.141622 0.451153
-0.139639 -0.111541 0.458198
0.118309 0.206129 0.70564
0.191816 -0.19137 0.274194
-0.227401 0.0778675 0.762166
0.249864 0.0863375 0.772202
0.140194 0.151052 0.482818
-0.142391 -0.0140582 0.45754
-0.119374 0.158371 0.57232
0.0650152 -0.20911 0.448102
0.15374 -0.0825644 0.461895
-0.15362 0.174978 0.685598
-0.012812 0.0830326 0.459647
-0.065008 -0.199284 0.462317
-0.127174 0.160442 0.0715791
-0.138736 0.11802 0.440552
0.12575 0.0735576 0.462073
-0.221734 0.0705125 0.715713
0.202347 0.10982 0.815375
0.166282 0.1802 0.816312
-0.0122009 0.0366393 0.453862
0.165194 0.00766334 0.46243
0.13517 -0.144917 0.458866
-0.120547 0.166828 0.540756
0.153409 0.0939832 0.450173
0.0682149 0.228266 0.698838
-0.0296927 0.0181179 0.453315
-0.0821887 -0.0633111 0.458191
-0.135459 0.151239 0.314292
-0.0529451 -0.18908 0.458075
0.0030649 -0.0263458 0.45081
-0.0164792 0.153729 0.453936
-0.189616 -0.0975892 0.432902
-0.137665 0.155326 0.666425
0.0688088 0.164062 0.437751
0.138205 -0.101651 0.461476
0.197658 0.102449 0.704628
0.0860525 0.211954 0.785397
-0.177384 -0.2088 0.145132
-0.12587 0.174764 0.286794
0.162093 0.0439479 0.448951
-0.0243422 -0.239849 0.430579
-0.1303 0.147512 0.556711
0.185594 -0.210226 0.0844061
-0.125713 0.150881 0.475174
-0.187974 0.144105 0.689505
-0.0620816 0.146653 0.452766
-0.149372 0.168064 0.138531
-0.237893 0.0873022 0.704505
0.0884764 -0.116765 0.456174
0.131077 -0.163927 0.449974
0.113859 -0.185421 0.450386
0.0561809 0.117995 0.458241
-0.117129 0.205847 0.69003
-0.0889067 -0.000671444 0.455087
0.0860707 0.203546 0.808839
0.0805705 0.102649 0.461663
0.121168 0.154717 0.449815
-0.112289 -0.137506 0.461277
-0.137397 0.151032 0.36067
-0.189165 -0.187472 0.403998
0.0544397 0.213845 0.788065
0.139475 0.151276 0.392568
-0.177939 -0.209966 0.0358661
-0.171517 -0.190564 0.0864901
-0.0102297 0.0594676 0.458512
-0.24371 0.0547183 0.74855
0.242317 0.0583364 0.777741
-0.0878849 0.203121 0.809399
-0.078806 0.0467245 0.455942
-0.015249 0.247527 0.801677
-0.165864 0.160037 0.789861
0.146767 0.159501 0.0502621
0.142518 0.0341518 0.46179
-0.128831 -0.186186 0.428784
-0.144955 0.168005 0.443094
0.0269106 -0.0945057 0.456961
-0.175389 0.0641064 0.43248
-0.123406 0.157061 0.620972
-0.200417 -0.0214278 0.436766
0.0412769 -0.0744806 0.45305
0.190461 -0.18654 0.0988261
-0.188364 -0.184758 0.327061
-0.149893 0.196215 0.813325
-0.148996 -0.156338 0.457133
0.195071 0.125535 0.793909
-0.168027 -0.196392 0.189143
0.149812 -0.136641 0.43951
0.0391627 -0.227154 0.454564
-0.13015 0.173957 0.588613
-0.143769 0.170941 0.427745
0.0689437 -0.178795 0.461511
-0.0473326 0.230261 0.813711
-0.136893 0.15324 0.646231
0.144317 0.157298 0.571861
-0.14559 0.180372 0.817012
0.223662 0.126684 0.80063
0.0597286 0.0389748 0.458565
0.102373 0.114178 0.462742
0.18839 0.167093 0.801226
-0.110288 0.201659 0.785812
0.173246 -0.184169 0.208295
0.139709 -0.00188804 0.461078
-0.171196 0.156786 0.819302
-0.075107 0.0903575 0.457476
0.0235122 0.172508 0.437976
0.195666 -0.193422 0.0402094
0.150476 -0.184666 0.432667
0.190576 -0.192495 0.369734
-0.161663 0.153144 0.715974
-0.199125 -0.079947 0.442248
0.0143623 -0.217699 0.459042
0.13094 -0.0672576 0.457051
0.0481933 -0.235695 0.451938
-0.105335 0.0195746 0.459805
-0.0126206 0.173633 0.446989
0.167501 -0.19652 0.226704
-0.13096 -0.167766 0.462963
0.17598 -0.100831 0.454516
-0.182209 -0.197614 0.427781
0.0433453 0.144986 0.462846
-0.113457 0.116246 0.457992
-0.14829 0.18639 0.711843
0.19744 -0.0230993 0.432121
0.102862 0.101662 0.458725
-0.225078 0.0866484 0.779711
0.0362574 -0.131665 0.458772
0.14576 0.15432 0.698516
0.00461037 0.0702738 0.459003
0.199084 -0.0425929 0.448554
0.0229683 -0.0215256 0.455239
0.163032 -0.109451 0.445862
0.0697867 -0.0105473 0.457584
-0.139256 0.177143 0.31748
0.0323293 0.145067 0.437911
0.123852 0.156225 0.622777
0.195012 0.148105 0.699156
0.143892 0.197477 0.789638
-0.213856 0.129624 0.707191
0.129594 0.173722 0.679826
-0.0816638 -0.204691 0.450368
0.189657 0.138984 0.821018
-0.070364 0.0624551 0.459793
0.176661 0.125717 0.709893
0.0718359 0.0286338 0.458638
-0.149573 0.174745 0.0239565
-0.0921688 -0.198846 0.462894
-0.00923824 -0.242372 0.430434
-0.115939 -0.122965 0.461013
-0.0864577 0.0683335 0.460502
0.164891 -0.0563767 0.462199
-0.182555 -0.0440596 0.451162
-0.134598 0.156152 0.0352172
0.121688 0.109375 0.458089
0.14589 0.0810921 0.4527
-0.0959948 -0.0286965 0.458708
-0.15636 -0.122958 0.447888
-0.1451 0.156995 0.416776
-0.106412 0.13352 0.439595
0.194038 -0.195801 0.174329
-0.123087 0.106722 0.46298
-0.13446 0.173969 0.55452
-0.126876 0.174413 0.417646
-0.192278 0.139153 0.717166
-0.0409454 0.144139 0.446446
0.176276 -0.179321 0.373403
0.120908 -0.020514 0.456433
-0.13975 0.150557 0.502159
0.122244 0.166726 0.278767
0.0609863 -0.0777929 0.457515
0.0890187 0.208788 0.711901
0.168146 0.145154 0.687805
0.141194 0.152753 0.366491
0.121411 0.165837 0.36864
-0.143464 0.166455 0.58235
-0.0705413 0.161278 0.434023
-0.183228 -0.0756433 0.453514
0.251767 0.0847789 0.788702
-0.0599488 0.231498 0.694455
0.150527 0.172173 0.0162486
0.174248 0.0250276 0.463038
-0.10829 -0.076603 0.45962
0.0774389 0.126975 0.462624
-0.157882 0.0445567 0.447223
0.0742683 0.0616096 0.456317
-0.0599475 0.20256 0.707196
-0.0173059 -0.210879 0.462268
0.165052 -0.181799 0.416083
-0.123158 0.168457 0.209839
-0.0235031 0.154357 0.462991
-0.143752 0.154979 0.376325
0.172703 -0.185502 0.180556
-0.252172 0.0845175 0.781548
0.174005 0.137774 0.80864
0.181777 -0.183884 0.0778105
-0.178635 -0.180841 0.275537
-0.140614 0.154013 0.203939
-0.0241559 -0.082758 0.452818
-0.100929 0.0384087 0.456535
-0.143831 0.177345 0.194604
-0.176305 0.170726 0.816576
0.0957289 -0.203318 0.428994
0.166502 -0.189681 0.306768
-0.222959 0.0826262 0.809855
-0.00603492 -0.0678129 0.455399
0.116127 0.184818 0.796856
0.17579 -0.13891 0.449147
0.219351 0.128013 0.818389
-0.0552268 0.165396 0.447845
-0.179503 0.00706091 0.462925
0.181763 -0.0631519 0.451953
-0.150014 0.168185 0.0853836
0.0727086 0.214808 0.682413
0.144375 -0.0541313 0.461164
-0.173768 0.181047 0.797271
0.0219788 0.0956624 0.456738
0.199239 0.00630353 0.443209
0.212138 0.0981183 0.795412
0.0805686 0.18978 0.700385
0.137409 0.180365 0.170039
0.104359 -0.143801 0.461208
0.101131 -0.217513 0.446581
0.177615 0.0551931 0.431489
-0.197337 0.130775 0.821705
-0.126932 0.136006 0.445383
-0.192883 -0.192915 0.219501
0.121926 0.155094 0.478175
0.133552 0.175128 0.492807
-0.183174 -0.209043 0.178031
-0.15549 0.158185 0.799701
0.126638 0.154008 0.323659
-0.168834 -0.19941 0.169187
0.243098 0.0548038 0.747689
-0.0367485 -0.194685 0.461668
-0.0664931 0.232867 0.786873
-0.00957918 -0.222858 0.446707
0.152091 -0.0702749 0.458119
0.176588 0.166847 0.699641
-0.129503 0.151204 0.60294
0.177201 -0.186872 0.00821888
0.115482 0.175308 0.698171
-0.00260773 0.218151 0.801124
0.0538604 0.224182 0.814199
-0.000590017 -0.218014 0.458997
-0.197013 -0.0428909 0.431615
0.0113713 0.0211371 0.456702
-0.189053 -0.185509 0.0683026
0.124763 0.0494471 0.46137
-0.11226 -0.190341 0.429871
0.177491 0.0362655 0.453848
-0.193173 -0.198798 0.191716
0.104868 0.114232 0.446655
0.15117 -0.144056 0.451348
0.132874 0.148212 0.503096
0.139445 0.17487 0.418408
0.128097 0.173389 0.587386
0.0390407 -0.145977 0.455895
-0.19621 -0.202506 0.0101141
0.138695 0.153737 0.184792
0.022163 -0.0476149 0.455109
0.0523655 -0.0451474 0.456531
0.130005 0.177932 0.260643
0.185865 -0.182502 0.291524
0.121911 0.16888 0.50674
-0.135238 0.183387 0.788277
-0.124978 0.160332 0.182216
-0.170109 -0.105251 0.430451
0.147633 0.165897 0.804216
-0.180804 -0.205901 0.362581
-0.133653 0.180325 0.15675
0.0120888 0.248569 0.799717
0.141735 0.151974 0.546079
0.0126767 0.132461 0.458464
0.175547 -0.184213 0.149087
-0.166579 -0.200431 0.415975
0.178378 0.159958 0.789667
0.178602 -0.181155 0.254589
0.120401 0.166624 0.574408
0.155401 0.067381 0.430063
0.126682 0.176015 0.117384
-0.171447 -0.201984 0.0236622
-0.00909634 0.133186 0.458483
0.177041 -0.0187193 0.446036
-0.0085939 -0.0231042 0.454659
-0.213237 0.138771 0.81366
0.00176515 0.0310465 0.457119
0.0771758 -0.0362714 0.45417
-0.154694 -0.18999 0.434084
0.124964 0.173446 0.357706
0.11495 0.212345 0.787926
-0.0526723 0.217157 0.711604
-0.0476536 0.0404887 0.454714
-0.0587709 -0.239454 0.43829
-0.168564 -0.183086 0.376417
-0.0380831 -0.21689 0.443573
-0.124896 0.154919 0.356449
0.0587613 0.00945342 0.45756
0.0549737 -0.206486 0.46245
0.0874154 -0.163199 0.457813
-0.139978 0.166986 0.63673
-0.169219 -0.19576 0.120839
0.047778 0.209007 0.70815
-0.127954 0.151284 0.406008
-0.186986 -0.0565223 0.453883
0.13462 -0.130027 0.461974
-0.137987 0.0830863 0.433001
-0.175812 -0.105222 0.455832
0.167424 -0.190541 0.25387
0.138613 0.0780295 0.462724
-0.191928 0.0273135 0.439497
0.166094 -0.196439 0.319718
0.194141 -0.0366961 0.429866
-0.155732 0.0798226 0.45381
-0.226263 0.077122 0.74862
0.215058 0.0912217 0.724286
0.0426653 -0.232273 0.428947
-0.114648 0.203507 0.816255
-0.158989 0.184281 0.702943
-0.177876 0.140119 0.794283
-0.224927 0.0696869 0.786904
-0.169635 -0.173629 0.44531
-0.0087085 0.15974 0.457273
0.118341 0.218187 0.803806
0.0785582 -0.0655259 0.458042
0.0190846 0.151708 0.449604
-0.179285 -0.0449804 0.432937
0.14937 -0.161719 0.446438
-0.208986 0.106469 0.818808
0.142335 0.15381 0.339996
0.0353544 -0.0338813 0.455658
0.146261 0.175017 0.186894
0.175955 -0.206969 0.290774
-0.193347 -0.0287087 0.453245
-0.0379761 -0.0424086 0.455801
0.210681 0.13288 0.70321
0.14022 0.150804 0.514892
-0.123657 0.18571 0.683837
0.186234 -0.116115 0.438253
-0.147958 0.163849 0.272312
0.172117 -0.205275 0.148167
0.235453 0.0962824 0.72653
0.188387 -0.200577 0.357376
0.0150098 -0.159807 0.456267
-0.0917925 -0.101291 0.459426
0.118954 -0.0565094 0.459905
-0.186048 -0.182684 0.341604
0.176287 -0.0776591 0.449425
-0.165918 -0.194312 0.306578
-0.130199 0.179474 0.102033
-0.22357 0.0780184 0.70372
0.111617 0.210386 0.694462
-0.129623 0.176812 0.336501
0.00396542 -0.0923817 0.456556
0.17345 -0.18667 0.12147
-0.224549 0.106522 0.694739
0.123902 0.170872 0.190284
-0.106319 0.0538153 0.460733
-0.130946 0.179848 0.122922
0.0344085 -0.105022 0.454008
0.126744 0.150041 0.490937
-0.113752 0.178163 0.691096
-0.00428152 0.160322 0.428936
0.0970703 0.0249394 0.459559
-0.119931 -0.0767746 0.456634
-0.0205696 -0.223016 0.433437
0.134297 0.177885 0.329721
0.0279012 0.243919 0.791617
-0.0170104 -0.161678 0.459919
-0.188216 -0.184588 0.162915
0.104014 0.21945 0.812267
0.0812579 0.230908 0.787577
0.161375 0.184433 0.789449
-0.127005 0.173531 0.528618
0.0759143 0.212277 0.811963
0.175659 -0.181342 0.276844
0.159846 0.143748 0.71035
0.129225 0.177176 0.293721
-0.192506 -0.000686325 0.453485
0.133853 0.149547 0.420852
0.0378967 -0.115857 0.454556
0.061992 -0.153899 0.460283
-0.255398 0.0778275 0.765422
-0.142731 0.153453 0.582432
-0.106512 -0.164526 0.461987
-0.0665354 -0.0319387 0.453653
0.188882 -0.187164 0.409539
-0.165447 -0.190534 0.351409
0.0452919 0.113395 0.46141
0.124154 0.160339 0.227222
-0.168219 -0.200197 0.240392
0.17302 -0.180371 0.44408
0.224666 0.0731688 0.746364
0.188796 0.00791909 0.429046
0.0851684 0.0369178 0.455843
0.00465836 -0.0384634 0.454128
0.0167397 -0.246089 0.447295
-0.0931946 0.0108908 0.459078
-0.196195 -0.200642 0.0264318
-0.0377993 0.170299 0.443539
-0.0382318 0.00838357 0.453189
0.141347 0.170131 0.548379
0.11946 0.162865 0.545257
0.144375 0.174319 0.283221
0.140193 0.182338 0.0413303
0.120957 -0.175234 0.447848
0.101907 -0.200797 0.453837
0.166679 -0.195328 0.268132
0.0129049 -0.233195 0.453906
0.0118624 0.144651 0.462583
-0.0509242 0.230485 0.78428
0.244891 0.0751806 0.799596
-0.144184 0.108106 0.434413
-0.128323 0.175866 0.370549
0.165518 0.167511 0.818957
0.17579 0.0717976 0.440104
-0.0651354 -0.209922 0.448857
0.132478 0.157504 0.0170514
-0.239679 0.0773448 0.804821
-0.124163 0.156792 0.316615
0.178232 -0.0415516 0.446654
-0.103675 -0.214552 0.433993
0.220042 0.0713543 0.724452
-0.0522981 0.062252 0.455724
-0.0872173 -0.129458 0.456562
-0.00113276 0.221605 0.788893
0.168855 -0.193868 0.155188
0.0412049 0.145726 0.450285
0.0744409 -0.234183 0.437301
0.101054 0.0623906 0.460818
-0.0802068 0.203468 0.799231
-0.140814 0.182967 0.00141776
0.179532 -0.00479047 0.462981
-0.121711 0.192922 0.815774
-0.190922 -0.0674231 0.42886
-0.221025 0.12157 0.700444
-0.172812 -0.190273 0.0429796
0.131343 -0.033817 0.460452
0.108547 -0.0203889 0.45937
-0.0193043 -0.235963 0.453809
0.1696 -0.202011 0.200364
0.174011 -0.206939 0.0804085
-0.123479 0.168595 0.167435
-0.0891756 -0.148734 0.457293
0.0255576 0.150938 0.462943
-0.0612695 -0.127889 0.455663
0.179244 0.0300419 0.428735
0.12769 0.175928 0.308523
0.171485 -0.202246 0.425036
-0.144145 0.180847 0.0361409
-0.177885 -0.115818 0.45342
-0.0650026 0.158733 0.452225
0.119055 0.0194262 0.460426
-0.132767 0.178646 0.264649
-0.16855 -0.200389 0.428419
-0.08276 0.0180032 0.458781
0.175318 -0.207632 0.187037
-0.0564868 -0.0989889 0.454428
-0.158944 -0.0277859 0.461857
0.135634 -0.158273 0.433806
-0.153398 -0.107721 0.462289
-0.084896 0.21763 0.687567
0.256346 0.0748964 0.75951
-0.141689 0.161807 0.7088
0.196178 -0.202392 0.0132458
-0.134688 0.149269 0.436355
0.0649092 -0.224929 0.454129
-0.0871266 0.124017 0.44727
-0.0317605 0.225892 0.813723
0.130381 0.155818 0.142104
0.0799007 -0.204535 0.459324
0.0680977 0.209803 0.79055
-0.0493015 0.0736845 0.459715
-0.0183747 -0.0972864 0.456923
-0.157149 0.0336883 0.462446
-0.178275 -0.0196787 0.434152
-0.212876 0.100306 0.692524
-0.17437 -0.0761956 0.437362
0.154597 -0.144343 0.462319
0.186509 -0.00820504 0.428855
-0.196267 -0.00805248 0.431106
0.146205 0.158661 0.126748
0.0373121 0.0326031 0.457678
0.126914 -0.107091 0.461073
0.195825 -0.0597799 0.430846
-0.171128 0.0373804 0.453664
-0.0897632 0.0337993 0.459503
0.0886257 0.140835 0.428899
-0.126243 0.179048 0.798166
-0.179424 -0.0909141 0.453766
0.144509 0.173756 0.298462
0.0126971 -0.176713 0.460618
-0.135602 0.195486 0.710454
0.191209 -0.207745 0.0623614
0.194413 -0.202272 0.0904153
-0.210428 0.128845 0.695248
-0.0772309 0.217809 0.784543
-0.144878 0.173153 0.306132
0.0166734 0.0473679 0.454419
0.145297 0.169587 0.385413
0.0235638 0.214296 0.797876
0.127854 0.170324 0.651401
0.157862 0.0902893 0.433854
0.127262 0.157658 0.168592
-0.0249136 -0.171371 0.456884
0.0694064 -0.127499 0.455883
0.116554 0.193226 0.787621
0.132098 0.178949 0.228251
-0.248971 0.0848345 0.744629
-0.175544 -0.205695 0.394983
0.105211 0.20284 0.712295
0.239958 0.102154 0.793282
-0.0565475 -0.21386 0.459275
0.183072 0.045654 0.448743
0.154214 -0.16488 0.431448
-0.211158 0.121163 0.718296
-0.123471 0.151737 0.52481
0.0781704 -0.17098 0.461398
-0.140731 -0.166023 0.455643
-0.179105 0.13207 0.803562
-0.116653 0.176532 0.705124
-0.163314 -0.0926375 0.458945
0.13225 0.168324 0.696139
0.147904 0.0697543 0.450793
-0.173762 -0.0345406 0.45903
0.223556 0.0869957 0.733475
0.114677 0.0700176 0.458015
-0.13585 0.148441 0.523393
0.222066 0.0825091 0.782808
0.125207 0.171438 0.0181795
0.0964779 0.213179 0.688176
-0.170077 -0.203504 0.285953
-0.123485 0.150669 0.592242
0.104996 0.219697 0.788828
0.08159 -0.12458 0.45975
-0.139944 0.16779 0.688162
0.156375 0.0589327 0.451799
-0.14216 0.170714 0.496638
0.112911 0.0389229 0.457044
0.0887776 0.126607 0.432738
-0.107663 0.212062 0.695151
-0.222421 0.0696975 0.733616
-0.192204 -0.196332 0.260385
0.131443 0.142349 0.444768
0.223174 0.0814245 0.808959
-0.0740212 0.206125 0.682096
-0.255321 0.0721716 0.776687
-0.107947 0.191613 0.792254
-0.130193 -0.17412 0.429362
-0.00190072 -0.119463 0.457839
0.251231 0.0819895 0.734761
0.173453 -0.206406 0.0426241
0.193126 -0.0972174 0.439231
-0.130701 0.211448 0.804444
0.190321 -0.201721 0.259012
0.14286 -0.165129 0.458705
0.129456 0.1507 0.399347
0.0556224 0.208052 0.683348
0.147636 0.163521 0.306672
-0.178445 -0.189775 0.437492
-0.118688 -0.180596 0.449726
-0.140211 -0.127523 0.458594
-0.0358799 0.146094 0.434299
-0.144161 0.175857 0.235764
0.185831 -0.209191 0.127084
0.117194 -0.145539 0.461722
0.12798 0.147883 0.58754
0.187796 -0.203938 0.282903
-0.190102 -0.187203 0.284169
-0.135397 0.087094 0.450224
-0.149468 -0.141602 0.433365
0.169853 -0.0131703 0.458923
0.0555037 0.0911867 0.457056
-0.175383 0.00371528 0.434483
-0.18471 0.130889 0.688702
0.0337062 0.0804754 0.459737
0.166082 -0.193978 0.292805
-0.0725933 -0.21292 0.430543
-0.193611 -0.197668 0.179444
-0.249317 0.0573555 0.75884
-0.0972343 0.20385 0.682922
-0.0331875 -0.13161 0.458705
-0.0602183 -0.0508471 0.453401
-0.208448 0.0884772 0.704327
-0.0778971 -0.00772381 0.454446
-0.0350677 0.0450172 0.458169
-0.163078 -0.0130177 0.462125
-0.165871 -0.185038 0.409349
0.0528764 0.209733 0.802287
-0.172124 0.0748758 0.436559
0.10715 0.14172 0.443763
0.18729 -0.200706 0.396718
-0.193045 -0.189698 0.111248
0.143948 0.181268 0.0212603
-0.145286 0.174094 0.256865
-0.19705 0.103522 0.708722
-0.0351559 -0.0851208 0.456792
0.187228 0.00516859 0.454028
0.218775 0.100517 0.820281
-0.136099 0.196979 0.689397
-0.236796 0.0644962 0.792625
-0.0407441 0.127124 0.461986
0.0736062 0.133103 0.446774
0.147994 0.177486 0.0324981
0.0595212 0.128747 0.462322
-0.159626 0.054709 0.459448
0.0988526 -0.108993 0.459927
0.158087 -0.0927123 0.458691
0.145865 0.165805 0.43921
-0.159566 0.0891676 0.4346
0.165208 0.164129 0.789115
-0.109544 -0.200689 0.453875
-0.125722 -0.166689 0.441899
-0.107908 0.218748 0.7895
-0.198265 0.146377 0.793192
-0.111398 -0.00804109 0.45963
0.0580543 -0.239894 0.442069
-0.102728 0.140093 0.450349
0.192112 -0.200515 0.21581
-0.132495 0.176092 0.442392
0.228407 0.0628351 0.768001
0.00846137 -0.203436 0.461874
-0.109981 -0.0543296 0.459448
-0.0331232 0.212671 0.797832
-0.126836 0.0400394 0.461197
-0.0598529 0.010692 0.454072
0.120463 0.166396 0.530538
-0.18124 -0.207744 0.262209
-0.193485 -0.203534 0.099009
-0.0381695 -0.116007 0.454568
0.0971335 0.195699 0.683133
0.0497977 0.202175 0.698445
-0.134395 0.148862 0.46085
0.186158 -0.206657 0.236037
-0.0202657 -0.0376833 0.454897
0.0271379 0.00585052 0.456329
-0.151755 0.186253 0.68957
0.137908 0.18488 0.714551
-0.125582 -0.0376786 0.456605
0.115368 0.108321 0.434998
0.0987471 -0.0267994 0.458854
-0.0924943 -0.0762833 0.455325
0.17971 -0.0199401 0.432432
0.0511958 0.046184 0.455041
-0.0570794 -0.0198443 0.453281
-0.202381 0.152296 0.804997
-0.172887 -0.205463 0.330999
0.232281 0.0619321 0.724633
-0.222486 0.0960991 0.78671
-0.226527 0.118324 0.796503
-0.175624 -0.186803 0.0552408
-0.144629 0.157628 0.529928
0.181411 0.155034 0.690903
-0.133277 -0.143283 0.458743
0.176515 -0.0393337 0.438077
-0.0703234 -0.153359 0.460481
-0.108189 0.129189 0.428926
-0.147181 0.168154 0.316391
-0.186977 -0.203094 0.333506
-0.128063 0.0973309 0.451027
-0.0935287 0.191323 0.685483
-0.0992626 0.0630614 0.460777
-0.1789 -0.177203 0.420682
0.0904512 -0.00518476 0.455089
-0.179644 -0.178981 0.404835
0.120694 0.16276 0.425044
-0.0584371 -0.0733825 0.457289
0.121619 0.163746 0.343084
-0.188649 0.120297 0.691627
0.194234 -0.193814 0.140176
0.0327168 -0.168845 0.456869
0.129894 0.152435 0.309332
-0.0934588 -0.16669 0.458126
-0.0673598 -0.000447448 0.457674
-0.146393 0.166988 0.801121
-0.121774 0.167181 0.366695
-0.0436317 0.204377 0.694734
0.182307 -0.211447 0.0216551
-0.105138 -0.099369 0.459927
-0.0508936 0.146805 0.451718
0.0753773 -0.101771 0.455204
0.19574 -0.204079 0.00130299
-0.199943 -0.0706915 0.435456
0.173358 -0.206365 0.22562
-0.169309 -0.183818 0.331532
-0.162924 0.140478 0.693834
0.0896285 -0.204531 0.451882
0.145559 0.157959 0.403712
-0.173985 -0.0736597 0.448543
-0.127761 -0.0875093 0.457166
0.168009 -0.201666 0.373031
0.0922313 -0.214722 0.45321
0.144757 -0.167473 0.437694
0.186908 -0.0557508 0.458123
-0.139318 0.153479 0.216839
0.0654701 -0.193085 0.458516
-0.0982601 -0.054486 0.458863
-0.207289 0.133597 0.793091
-0.139247 0.152784 0.267734
-0.180354 0.0529213 0.448955
-0.144855 0.159759 0.573175
-0.161166 -0.166013 0.447796
0.156855 -0.128629 0.435512
-0.182081 -0.183033 0.133512
-0.0625192 0.110725 0.461603
-0.178544 -0.18032 0.309227
0.00928974 0.175368 0.438589
-0.188437 -0.185306 0.352412
-0.121012 0.017897 0.456933
-0.0268476 -0.110604 0.454091
0.148221 0.161674 0.00771075
0.204445 0.120205 0.689493
-0.124345 0.158614 0.646471
0.112109 -0.18482 0.462917
-0.185963 -0.0660865 0.459229
-0.127832 0.156432 0.451425
-0.133368 0.178397 0.296133
0.138923 0.155414 0.658706
-0.135507 0.175378 0.67396
-0.155081 0.198364 0.799959
-0.0911356 -0.198402 0.450162
-0.0868449 0.187011 0.695658
-0.105932 0.112235 0.442513
0.0956281 -0.0915702 0.459337
-7.95533e-05 -0.108621 0.457314
0.143677 -0.144756 0.444341
-0.0857088 -0.210795 0.428784
0.177441 -0.0571824 0.43551
0.130347 -0.0823115 0.460759
0.142406 -0.0645801 0.457576
0.186866 0.122268 0.716296
-0.107216 0.19369 0.71334
0.213463 0.115894 0.71957
0.168608 0.188646 0.802889
-0.142994 0.0685535 0.462644
-0.171657 0.172635 0.790143
0.189922 -0.209366 0.0464833
-0.107928 0.0296446 0.456582
0.0897302 -0.195365 0.443243
-0.0809998 0.0576988 0.456394
-0.147258 0.172588 0.204143
-0.138922 -0.039627 0.460832
0.0128057 -0.0524121 0.451283
-0.0676203 0.0192817 0.458195
0.0761644 0.0856665 0.457322
0.190956 -0.186976 0.15807
0.1817 -0.0774244 0.462346
-0.0159893 -0.0594474 0.451652
-0.16418 0.164127 0.715687
-0.125553 0.166669 0.00314623
0.130213 0.179554 0.0949219
-0.12439 0.172573 0.387202
0.124486 0.170468 0.0883142
0.132226 -0.169518 0.463042
-0.172598 0.183227 0.808138
0.122392 0.0958274 0.462707
0.0228981 -0.117235 0.454339
0.185712 -0.184438 0.0435159
0.186451 -0.019912 0.460766
0.157834 -0.191198 0.427467
0.137989 0.155492 0.0557993
-0.184212 -0.0279949 0.462918
-0.186661 -0.198541 0.416321
0.13999 0.180214 0.159223
0.227428 0.0720657 0.708699
0.0694663 0.201617 0.684335
-0.0373259 -0.150034 0.459609
0.170641 -0.202333 0.10504
0.0142532 0.236399 0.813103
-0.0749612 0.225646 0.69752
-0.128597 0.178863 0.0185202
-0.0529793 0.209613 0.801178
0.14938 0.102499 0.435265
0.0350612 -0.223724 0.430571
-0.124116 -0.204935 0.441159
-0.121482 0.168143 0.446686
-0.150023 0.00836187 0.461704
0.0400399 -0.178174 0.457398
0.0968041 -0.193818 0.459293
0.18767 0.165612 0.812156
0.165431 -0.100008 0.440105
-0.14453 0.164685 0.54777
0.113465 -0.120532 0.460844
0.14792 0.173217 0.152269
0.175364 -0.181198 0.288443
-0.00708672 0.225728 0.811841
-0.0363035 -0.017425 0.455919
-0.0148527 0.0993764 0.460436
-0.167184 0.146875 0.811015
-0.00873749 -0.0489659 0.451028
0.0921743 0.131844 0.457619
0.128507 0.175517 0.411124
-0.177574 -0.0511278 0.459274
0.183414 -0.180584 0.384343
-0.147167 0.163669 0.348024
0.000446059 -0.225089 0.45067
-0.0311815 -0.00776177 0.452387
0.148304 0.174086 0.10984
-0.104958 -0.0395911 0.459135
0.105608 -0.0562336 0.459237
-0.125587 0.172923 0.483286
-0.118976 0.12431 0.441598
-0.137052 0.155295 0.071788
0.00977801 0.0388518 0.457526
0.117976 0.195879 0.683698
0.208428 0.0909171 0.701217
-0.0387786 0.0241607 0.453813
-0.182276 0.0151976 0.454104
-0.126209 0.175293 0.197208
0.172313 -0.188357 0.102926
0.171177 -0.204449 0.359696
-0.0598715 -0.214618 0.434732
-0.134296 0.154129 0.153595
0.146869 0.159653 0.229741
-0.180179 -0.206806 0.323011
0.0543737 -0.220079 0.452037
-0.0718591 -0.12837 0.455988
0.127572 0.148202 0.557155
-0.0138343 -0.183075 0.460926
-0.161241 0.159301 0.815717
0.119367 0.00713778 0.456652
0.0968233 -0.137111 0.457165
0.145943 0.157396 0.708927
0.142549 0.177343 0.234178
0.123703 0.171559 0.266765
0.179661 -0.208576 0.207697
-0.239372 0.0967427 0.810799
-0.214064 0.0896394 0.796708
-0.168065 -0.200296 0.263457
-0.022321 0.147065 0.44812
0.0191829 -0.221393 0.448791
-0.0437767 0.155255 0.454089
-0.165679 -0.190574 0.3396
0.254784 0.0739139 0.779647
0.0797527 -0.00649796 0.454552
0.169302 0.157367 0.686662
-0.0889385 0.115178 0.458856
0.24036 0.0909811 0.774334
-0.177403 -0.207927 0.245914
0.159855 -0.163978 0.445321
-0.111723 0.0977277 0.458854
-0.00888301 -0.24897 0.440777
-0.0040891 0.0031305 0.452218
0.0654637 0.162743 0.44871
0.135963 0.174164 0.667347
0.145421 0.159606 0.486704
0.0739411 -0.0884165 0.458339
0.106771 0.138162 0.432809
0.0267812 -0.194674 0.461538
0.192697 0.109719 0.697336
0.131228 0.157657 0.0381374
0.196098 -0.193493 0.0072495
0.130041 -0.0100055 0.456958
-0.163413 0.0324634 0.440021
-0.187716 -0.185158 0.0501415
-0.0182826 0.173439 0.437884
-0.0305442 0.0870688 0.456447
-0.179789 -0.181204 0.251962
0.192402 -0.190471 0.225001
-0.211631 0.118829 0.822937
-0.183561 -0.184954 0.00910747
0.1165 -0.0989541 0.456884
0.126364 0.175451 0.249009
0.178948 -0.0335964 0.459295
-0.0195422 0.135389 0.458634
-0.0667598 0.21984 0.784328
-0.144298 0.171342 0.810629
-0.188919 0.0213158 0.431224
-0.168011 0.142944 0.715306
-0.1691 -0.0992296 0.450143
-0.145341 0.161884 0.508921
0.103023 -0.0715085 0.459302
0.150462 0.168549 0.0460766
0.119077 -0.207596 0.444447
-0.00509042 0.0147528 0.45278
-0.145612 0.167571 0.417574
-0.136728 -0.0934456 0.457697
-0.128898 0.175395 0.428017
-0.106098 -0.190619 0.462972
0.13661 0.152397 0.241749
-0.149659 0.165185 0.070609
0.123571 0.171363 0.394488
-0.146683 -0.076511 0.461478
-0.146802 -0.0543399 0.461287
-0.188657 0.142892 0.790403
0.0577692 -0.118715 0.4552
-0.120102 -0.144636 0.461795
0.132012 0.147257 0.576342
-0.129786 0.175037 0.47379
0.146697 0.102167 0.450312
-0.086334 -0.213436 0.454064
0.245735 0.0811006 0.714666
0.13773 0.172575 0.565806
-0.11749 -0.0965848 0.460432
0.183469 -0.0868405 0.454172
0.123499 0.180169 0.803384
-0.141677 0.152877 0.393098
0.00462953 -0.136568 0.458667
-0.148413 0.171189 0.174878
0.141647 0.152208 0.471945
-0.17004 -0.193807 0.0964317
0.238065 0.0883137 0.811618
0.0490419 -0.0150031 0.452973
0.169199 -0.110186 0.430014
0.0586364 -0.217061 0.432225
0.0161396 0.220807 0.787186
0.15676 0.170762 0.685657
-0.180798 -0.211212 0.0179941
0.126305 0.152529 0.389493
-0.256234 0.0669378 0.752039
0.0840461 -0.0158626 0.458208
-0.0688789 0.164308 0.444221
-0.17608 -0.208726 0.0967416
-0.146816 0.0557126 0.458909
0.11386 0.120024 0.428847
0.130064 0.183832 0.814366
0.129796 0.175507 0.439207
0.0957165 0.118928 0.444739
-0.254529 0.076367 0.742009
-0.186416 0.114489 0.700031
0.188427 0.0342587 0.446405
-0.178112 -0.208465 0.215276
-0.0175012 0.0244484 0.453363
0.224061 0.0732542 0.77844
-0.17129 0.150929 0.791854
0.0910305 0.233265 0.798437
0.0285917 0.161352 0.453736
0.250974 0.0584632 0.757538
0.0575241 -0.17976 0.457765
-0.145378 0.157817 0.125324
-0.136546 0.205219 0.792513
0.202611 0.110423 0.718796
0.00237467 -0.181203 0.460787
-0.121387 0.0987663 0.442034
0.123802 0.180118 0.711924
0.244302 0.086657 0.748115
-0.144995 -0.159922 0.428811
-0.169044 -0.197888 0.138075
-0.14631 0.176875 0.117976
0.171802 0.144394 0.795885
0.178117 -0.20796 0.247599
0.167278 -0.0266681 0.458737
0.161488 0.189103 0.814055
0.0897141 -0.0760193 0.455192
0.182255 -0.206709 0.300872
-0.122415 0.157777 0.385652
0.202889 0.135091 0.821481
0.0349634 0.113121 0.461264
-0.145929 0.15891 0.385625
0.132742 0.0308934 0.46128
0.0687975 -0.0311619 0.457339
-0.168331 -0.191256 0.202438
-0.152182 0.0614328 0.43724
0.0274695 0.223354 0.784567
0.171317 -0.112919 0.453688
0.00300367 -0.0755534 0.455749
0.0473898 0.0292108 0.457828
-0.128948 -0.000425302 0.457025
