-0.0783388 0.0920849 0.461185
0.14372 0.156245 0.169346
0.0775364 0.216159 0.683957
0.186429 -0.208861 0.131711
-0.0999773 0.209625 0.815471
-0.0827564 0.136411 0.45345
-0.056346 0.102194 0.457555
-0.160559 0.0536933 0.431601
0.0918389 0.231717 0.805262
-0.111469 0.206228 0.785615
-0.0727356 0.102192 0.457904
0.099133 0.20469 0.683552
0.0199981 -0.221726 0.435178
0.00506702 0.0639635 0.458704
-0.00115223 -0.152898 0.455874
-0.216222 0.12154 0.71567
0.00307039 0.162429 0.42862
-0.0386309 -0.0228498 0.452345
-0.126423 0.160695 0.0938924
0.0291495 -0.117827 0.458021
-0.13766 0.178783 0.259689
-0.153953 0.0874435 0.429867
-0.1916 -0.19868 0.270735
0.124809 0.163752 0.107707
-0.0473882 -0.227054 0.453943
0.183589 -0.101542 0.429617
0.147293 0.167262 0.312983
-0.0748156 -0.124531 0.459508
0.0588192 0.0900647 0.457078
-0.058186 0.00303501 0.457361
0.151575 -0.0261094 0.457951
0.0267315 -0.148031 0.459379
0.186801 -0.184026 0.414615
-0.0410553 0.231058 0.783895
-0.19205 -0.188924 0.173984
-0.0465136 -0.197374 0.461919
-0.125098 0.14988 0.535265
-0.115608 0.219876 0.799053
0.189191 -0.187347 0.39535
-0.167388 -0.118903 0.45693
0.192631 -0.195855 0.243663
0.131408 -0.0651008 0.457047
0.221259 0.108451 0.720825
-0.239554 0.0713026 0.799903
-0.00836801 -0.0165216 0.454932
0.153134 0.0891707 0.430117
-0.137677 -0.16033 0.452209
0.0632217 -0.0628605 0.453713
0.0202277 -0.132162 0.454998
0.13371 0.0908551 0.459404
-0.147635 0.166771 0.288881
-0.058626 0.166158 0.438317
-0.18022 -0.0694179 0.450947
-0.175075 -0.188329 0.0214109
-0.128604 0.169649 0.599563
-0.180509 0.172737 0.796263
-0.077957 0.208092 0.790664
-0.16766 -0.198826 0.241082
0.176293 -0.179478 0.363193
-0.156114 0.143813 0.700022
-0.0885338 0.0283309 0.459302
-0.116288 -0.182 0.448613
0.0629712 -0.235283 0.432527
-0.128679 0.152032 0.629698
-0.0656049 0.0159068 0.458019
0.227427 0.0937098 0.817477
-0.171896 0.00894619 0.444361
-0.0939656 0.186764 0.706371
-0.183543 -0.203889 0.405502
0.126769 0.149487 0.515931
0.0250101 0.215032 0.803732
0.0867105 -0.0380752 0.454653
0.0746463 0.140012 0.462841
0.141124 0.152635 0.374539
0.0261451 0.171775 0.445323
-0.144061 0.17816 0.156542
-0.063054 0.217828 0.68178
-0.183365 -0.184518 0.0373618
0.18511 -0.0156762 0.454822
-0.188895 0.126649 0.689062
0.178283 -0.185769 0.0316548
-0.0182138 0.0345303 0.453841
-0.100387 -0.217529 0.447567
-0.124325 -0.0742218 0.456816
-0.106987 0.22367 0.795165
0.0472811 0.16855 0.441121
-0.142942 0.0119889 0.457861
-0.168906 -0.191395 0.172742
0.191116 -0.202109 0.220284
-0.124096 0.196676 0.712271
0.0418598 -0.0802107 0.453266
-0.146474 0.163417 0.406202
-0.0959644 0.0359541 0.456262
-0.15894 0.0858492 0.451078
-0.177979 -0.0992275 0.456488
0.0196776 0.120553 0.461468
-0.113652 -0.182605 0.447464
-0.0806651 0.149449 0.429958
-0.136307 0.182097 0.0754779
0.0673521 0.0311174 0.455002
-0.0618486 0.16586 0.439741
-0.164946 -0.0525665 0.458645
0.115938 0.126542 0.432915
0.00462268 -0.107103 0.453691
0.102716 0.115193 0.445877
0.118864 0.0528095 0.46122
-0.177894 -0.209283 0.112138
0.119393 -0.157092 0.458651
0.0637273 -0.140652 0.456238
-0.121042 0.153627 0.581798
0.113178 -0.194978 0.428669
0.132272 -0.0376542 0.460491
-0.0260009 0.0436542 0.454368
-0.164794 -0.101823 0.443547
-0.15192 -0.172989 0.44682
0.170205 -0.124034 0.454149
0.0668094 0.0808709 0.460413
-0.226389 0.113735 0.713306
-0.00921466 -0.238776 0.45365
-0.0694254 0.0234797 0.454821
0.0539767 -0.211339 0.462662
-0.017107 -0.130951 0.454901
-0.129491 0.173772 0.565592
0.145216 0.07394 0.448243
0.0536149 0.116179 0.461651
-0.178529 -0.0633865 0.451407
0.138522 0.175669 0.40228
0.195117 -0.194091 0.0843138
0.137584 0.162623 0.701823
-0.0998276 -0.189258 0.443044
0.199784 -0.0756531 0.445742
0.111619 -0.0453556 0.455935
0.129618 0.153426 0.269798
-0.160442 0.168048 0.818293
0.0873675 0.220282 0.694315
-0.190494 -0.18659 0.169532
-0.230433 0.0619296 0.77737
-0.122634 0.153978 0.475659
-0.114118 0.11235 0.453382
-0.189729 -0.206924 0.131017
0.0901213 -0.195129 0.442667
-0.178612 -0.184651 0.0766712
0.0172544 -0.198719 0.461688
-0.094172 -0.0243985 0.458635
0.161391 -0.117481 0.450225
0.215561 0.0879016 0.808817
0.226745 0.0756052 0.764569
-0.038927 0.125782 0.458359
0.145921 0.172834 0.271576
-0.119811 0.173656 0.699471
0.148382 0.164666 0.239462
0.127664 0.179916 0.809024
0.170097 -0.195134 0.0830827
-0.0848016 -0.227464 0.446384
0.180442 -0.181505 0.231941
0.0713407 -0.215273 0.462743
0.158122 0.177797 0.787726
-0.142453 0.153507 0.385669
0.137416 0.151516 0.325185
-0.135612 0.0326594 0.461446
-0.185297 -0.0615754 0.453583
0.064475 0.0949295 0.460959
-0.0236568 -0.0952202 0.456923
-0.141016 0.158932 0.605774
0.124623 0.163418 0.126083
0.153402 -0.0562318 0.45808
-0.177984 -0.181616 0.225298
-0.139844 0.151054 0.450662
0.122413 -0.144323 0.461866
-0.122036 0.169054 0.465984
-0.133409 0.147233 0.593398
0.140906 0.176085 0.684011
-0.122715 0.187884 0.7891
-0.183998 0.127071 0.809872
-0.163845 -0.137586 0.45397
0.126493 -0.166701 0.459232
0.18188 -0.0754599 0.462525
0.127773 -0.188207 0.428859
-0.0844886 0.124876 0.446901
-0.015062 -0.00924606 0.45539
0.0972223 0.22773 0.792418
0.0446017 0.132776 0.458758
-0.0436593 -0.22772 0.459773
-0.0044483 -0.0353719 0.454112
-0.0194727 -0.172525 0.460447
0.180071 -0.205231 0.405317
-0.134293 0.176547 0.406594
0.135537 0.180787 0.15557
-0.179717 0.00714103 0.452745
0.144101 -0.131629 0.462407
-0.151462 -0.0387784 0.461455
-0.177469 -0.184691 0.0945345
0.157567 0.00073944 0.461975
-0.0551823 -0.0606534 0.453301
0.122983 0.172585 0.701873
0.149242 -0.00463736 0.461505
0.185563 0.119496 0.69411
0.053632 0.152377 0.453911
0.0326156 -0.221297 0.450126
0.174203 -0.18431 0.176506
-0.180347 0.175523 0.800171
-0.00966904 -0.00173884 0.455621
0.144942 0.171472 0.358779
-0.144501 0.156378 0.501361
-0.12774 0.171057 0.694935
-0.106302 0.10409 0.458921
-0.0625965 -0.147172 0.460016
0.00475903 -0.225436 0.462908
-0.108969 0.0257369 0.456542
0.104507 -0.0833079 0.456017
-0.238592 0.0867458 0.761739
-0.0699935 -0.0673859 0.457683
0.0825393 0.234454 0.791828
-0.139606 0.154571 0.140582
0.199746 -0.04016 0.447758
0.107279 -0.054712 0.455756
0.161295 -0.182525 0.4204
0.00568788 0.176226 0.443236
-0.185473 -0.182179 0.338829
-0.135917 0.120397 0.445501
-0.13763 0.149932 0.44863
0.151189 0.0220669 0.461939
0.179582 -0.136176 0.439363
-0.0834128 -0.212387 0.428754
-0.170705 -0.115338 0.428924
0.136055 0.173665 0.550474
0.239112 0.0757072 0.803898
-0.0270112 -0.0484058 0.455345
-0.185245 -0.0408834 0.4572
0.0089028 -0.229731 0.45581
0.120777 0.167186 0.567298
-0.183365 -0.207098 0.264346
0.230564 0.0588 0.746322
-0.00774473 -0.236491 0.428574
-0.0118282 -0.00157681 0.455657
-0.173917 -0.0777911 0.449496
0.0340994 0.0119687 0.456769
0.0499214 -0.0445159 0.456406
0.000413176 -0.155474 0.455994
-0.194586 0.0196699 0.440453
0.0718268 -0.0754786 0.45793
-0.180492 -0.0277039 0.459397
-0.0652534 0.228751 0.701109
-0.235023 0.0881654 0.769726
-0.187323 -0.203399 0.313755
-0.0123057 0.113782 0.457565
0.142489 0.177139 0.244958
-0.0636416 -0.180184 0.461459
-0.11719 0.137289 0.431156
0.0750552 -0.213227 0.455888
-0.215829 0.112378 0.690605
0.193593 -0.195601 0.198093
-0.0580018 -0.218592 0.451551
0.25216 0.0795858 0.733414
-0.154319 0.146069 0.698504
-0.126004 0.104362 0.453033
0.165222 -0.196231 0.37565
-0.139403 -0.156556 0.451057
-0.158508 -0.160083 0.433659
0.147781 0.166674 0.27718
-0.105231 0.122131 0.4628
-0.180188 -0.207624 0.27001
-0.086825 -0.115569 0.456075
0.18003 0.00765074 0.456499
-0.171317 -0.203482 0.0983952
0.18399 -0.205131 0.342355
-0.180837 -0.21091 0.0542498
0.163917 0.0774381 0.45192
-0.145258 0.171068 0.351356
-0.00828593 -0.223613 0.446763
0.180594 0.130283 0.804709
-0.225701 0.0645466 0.740348
-0.033306 -0.221941 0.431993
-0.154678 -0.0298845 0.461635
-0.221294 0.104421 0.821207
-0.187448 0.146131 0.820987
0.201262 -0.0734674 0.442664
-0.107351 0.202051 0.785964
0.189029 0.154201 0.698852
-0.141371 0.0975565 0.428822
0.122355 0.169545 0.479544
-0.187868 -0.204425 0.265001
0.0980938 -0.0102373 0.458959
0.103349 0.11917 0.462966
-0.172112 0.0276517 0.450834
-0.178233 -0.0674102 0.451447
0.186439 -0.0243045 0.455487
-0.170829 -0.202896 0.11665
-0.0474144 0.12438 0.458404
0.0239119 -0.0507457 0.45167
0.188329 -0.184667 0.266562
0.185752 -0.182793 0.233441
0.193969 -0.204087 0.0690345
0.0836257 0.211316 0.813164
0.15878 0.0561077 0.45268
-0.0318801 0.168942 0.448708
0.1281 -0.200288 0.434486
0.149008 0.0220805 0.461841
0.0322385 -0.118443 0.458113
-0.0729033 0.140108 0.452528
0.0885899 -0.0786961 0.455196
-0.0727201 -0.212745 0.463042
-0.0590389 0.142569 0.449344
0.133553 0.148247 0.497445
0.113533 -0.00434941 0.459779
0.166268 -0.196576 0.309691
-0.0870655 -0.0222418 0.458289
-0.138096 -0.0893775 0.457676
-0.165077 -0.192484 0.353502
0.0962286 -0.220524 0.436178
0.146722 0.0983267 0.452122
0.0236828 -0.189594 0.457734
0.165659 -0.100981 0.459173
-0.115458 -0.208494 0.435254
0.128625 0.17853 0.0780655
0.237317 0.089917 0.703836
0.189911 0.0331299 0.441913
-0.0783074 -0.213632 0.454971
0.10848 0.189249 0.795647
-0.140744 -0.0385515 0.460918
-0.17115 0.139419 0.689342
0.187251 -0.185342 0.00715473
0.0846028 -0.10589 0.455699
-0.0225185 0.0759469 0.455825
0.135565 0.0874335 0.459353
-0.10434 -0.122625 0.460527
0.178041 -0.184862 0.0768328
0.175327 -0.186855 0.0620676
-0.115123 0.0948556 0.458877
0.136417 -0.162553 0.450173
0.148061 0.189134 0.688699
0.019213 0.171734 0.448195
-0.139216 0.0809365 0.449196
0.0937705 -0.191291 0.462643
-0.0500016 0.0529245 0.455273
0.116415 0.0165523 0.460247
0.0112064 0.0979292 0.4568
0.175707 -0.1803 0.323084
0.159633 -0.152936 0.429596
0.0568834 -0.0213092 0.453253
-0.128106 0.177522 0.152362
0.0837736 0.0638241 0.456702
-0.0245275 0.172275 0.437856
0.139887 -0.12331 0.462006
0.131458 0.17536 0.485435
0.0927575 0.0569676 0.46034
-0.099186 -0.0806064 0.455719
0.114146 -0.0610561 0.459711
0.000579106 -0.19426 0.461402
0.166839 -0.194421 0.250518
0.179892 -0.18114 0.25558
0.161115 -0.128441 0.430964
0.169956 0.0136612 0.442474
-0.173584 -0.180624 0.345146
-0.115449 -0.184375 0.453123
0.137525 0.165732 0.708124
0.252164 0.0824609 0.761482
-0.145336 0.16941 0.387709
0.0365597 -0.0410108 0.452145
0.181276 -0.206159 0.342602
0.152833 -0.185319 0.429847
0.182046 -0.0556743 0.463042
0.0705994 0.073052 0.460215
-0.0833679 -0.045272 0.454515
-0.0279364 0.147356 0.434531
-0.0921135 0.203564 0.71298
0.0842797 -0.0201304 0.458167
-0.224905 0.0708827 0.746877
0.181316 -0.0177867 0.45948
0.102561 0.211675 0.70619
0.190215 -0.202842 0.239351
-0.186328 -0.184886 0.020793
-0.010944 0.0529836 0.454641
-0.13922 0.176204 0.361671
0.114366 -0.000604846 0.459866
-0.0592087 0.147675 0.462445
0.0643521 0.136491 0.446446
0.151006 -0.0653608 0.461549
0.184594 -0.205337 0.322623
0.01623 -0.0696207 0.455654
0.125817 0.150447 0.493066
0.170135 -0.0932752 0.459285
0.106715 0.139999 0.437288
-0.0643012 0.197752 0.703337
0.117081 0.135857 0.442968
-0.119093 -0.048075 0.456322
-0.121601 0.20292 0.708153
-0.126176 0.175244 0.14127
-0.108112 0.1422 0.445183
0.133798 -0.00401191 0.460765
-0.0470061 -0.0188602 0.452802
-0.150632 0.168184 0.0350839
0.0335569 -0.221972 0.450745
0.14512 0.157846 0.464643
0.139955 0.150638 0.511588
-0.23621 0.108748 0.797407
-0.167355 -0.193431 0.232665
0.186442 -0.0211489 0.453785
0.184351 -0.0438335 0.453413
-0.0394588 -0.128465 0.45514
0.197224 -0.0611669 0.450791
-0.135467 0.115283 0.45097
-0.127306 0.175323 0.346215
0.0751967 -0.214215 0.462402
0.039845 0.124779 0.461866
0.137716 0.180191 0.178423
0.192805 -0.192996 0.226428
-0.150454 -0.174812 0.450795
0.129122 0.158739 0.0594765
-0.149131 0.16302 0.0396137
-0.0416271 -0.196227 0.458259
0.147896 -0.0941445 0.461764
0.0710149 -0.207151 0.444645
0.038609 0.0613774 0.455394
-0.170895 -0.190561 0.110397
-0.0464752 -0.2416 0.444686
-0.0255572 -0.219238 0.446446
-0.0500191 0.083593 0.456608
-0.192089 -0.191176 0.252988
-0.179684 -0.106834 0.429011
-0.123145 0.168621 0.217882
0.0457232 -0.113374 0.45464
-0.0889896 -0.218558 0.430347
-0.180429 -0.182358 0.177251
-0.180343 -0.183579 0.0981438
-0.131442 0.180927 0.0368709
0.18677 -0.209705 0.0876794
-0.0571205 -0.0701646 0.457154
0.00415386 0.154644 0.463026
-0.142115 0.155875 0.0953287
-0.164246 0.176441 0.692899
-0.0950405 -0.13243 0.460493
0.086533 0.0782903 0.460879
-0.17941 -0.0728935 0.463019
0.0126642 0.0745842 0.455686
0.190025 -0.208267 0.0791505
0.0255397 -0.182207 0.457397
0.0783093 0.146341 0.428792
0.176265 0.0182062 0.452502
0.144923 0.162941 0.535439
0.186811 -0.183333 0.265316
0.0202425 0.135281 0.462173
0.170653 -0.0849864 0.443442
-0.171612 -0.201001 0.00158152
-0.137037 0.179199 0.714215
-0.189563 -0.0544868 0.428618
0.096481 0.223926 0.811694
-0.164782 0.036474 0.447564
-0.145677 -0.0364206 0.461158
-0.130312 0.178767 0
0.162022 -0.191729 0.44205
0.107011 0.0625799 0.457488
-0.104679 0.107768 0.459019
0.0965116 -0.191266 0.440756
-0.0918352 -0.0686912 0.458725
0.0284125 0.0446407 0.458011
0.0470249 -0.00778273 0.456605
-0.123267 0.158043 0.332319
0.064274 -0.183558 0.458074
-0.0674185 0.00327565 0.457752
0.173823 -0.206773 0.0839823
0.124273 0.167678 0.100175
0.115391 -0.135682 0.457794
0.143605 0.178633 0.150778
-0.145275 0.157255 0.252144
-0.166305 -0.191985 0.296779
-0.125688 0.172335 0.585152
-0.168212 -0.196776 0.181113
-5.57309e-05 -0.160121 0.459771
-0.0493863 -0.0361701 0.452774
0.0257868 0.137849 0.462319
-0.145437 0.158678 0.691649
-0.177662 0.133546 0.805747
-0.196129 -0.200004 0.0349989
-0.05979 -0.0734106 0.453776
-0.0019212 -0.156031 0.456028
0.0487938 0.153386 0.45393
-0.209181 0.134591 0.705483
-0.173715 -0.174085 0.42412
-0.0533045 -0.205947 0.462403
-0.078235 -0.0939781 0.458668
0.0781045 0.139569 0.454253
-0.10044 0.202732 0.683043
0.0932326 -0.0016981 0.458829
0.16479 0.161841 0.716088
-0.0414154 -0.198172 0.461889
0.116642 0.205827 0.70684
0.240343 0.0872162 0.762155
-0.0124674 0.160342 0.428679
0.0701039 0.161967 0.434444
-0.0655434 0.151538 0.428507
0.159486 -0.192396 0.439645
0.182489 -0.0605132 0.430319
0.196473 -0.0677533 0.431223
-0.192102 -0.194343 0.282047
0.0644168 0.119611 0.458487
0.100485 0.196691 0.790674
0.0598419 0.136431 0.459127
0.184131 0.117665 0.69768
-0.168309 0.0390526 0.452573
-0.136079 0.149467 0.450808
0.197322 -0.0835677 0.437662
-0.0365791 0.0591938 0.455256
-0.193008 -0.195238 0.22962
0.147967 0.161355 0.175251
0.123005 0.0801586 0.462198
0.105512 -0.18635 0.446446
-0.0163185 0.156118 0.456685
-0.0625526 -0.215152 0.459418
0.12131 0.158081 0.438888
0.108083 -0.196001 0.461415
0.222488 0.116384 0.715284
-0.10089 -0.194464 0.459437
-0.205833 0.0926199 0.712341
-0.16894 -0.197052 0.135581
0.136435 0.0774341 0.462618
0.0170488 0.149706 0.448506
-0.0991651 -0.0433644 0.455301
-0.167957 -0.114456 0.452774
0.122972 0.159354 0.316348
-0.206901 0.100527 0.801382
0.143646 0.15637 0.14783
-0.0672299 0.222592 0.81444
0.0270937 0.221167 0.785875
0.105326 -0.177607 0.4589
-0.0173919 0.0646614 0.458794
0.131745 0.15785 0.679507
0.100807 0.116736 0.446548
0.138505 0.152632 0.264093
0.238867 0.100723 0.810749
0.0205262 0.242359 0.809548
-0.234934 0.09542 0.727928
0.0889176 0.230109 0.809624
-0.176757 -0.143163 0.438081
0.183961 -0.210794 0.0639343
-0.0709181 0.0294424 0.458634
0.156443 0.0721243 0.457825
-0.050223 0.163978 0.432159
0.0345182 0.0732827 0.455858
-0.0434453 0.00407038 0.4568
-0.167418 -0.193269 0.230916
-0.120228 0.165879 0.546723
-0.142824 0.154331 0.319356
-0.183654 0.157605 0.695352
-0.198093 0.00333694 0.448388
0.105657 -0.123047 0.457043
0.224963 0.126205 0.801837
-0.142155 -0.17071 0.4291
-0.165101 -0.15846 0.440547
-0.0425303 -0.219178 0.433193
-0.171876 -0.181179 0.349447
0.100764 0.0428471 0.460203
-0.0938122 0.204136 0.712727
0.189741 0.165113 0.800516
-0.136734 -0.15322 0.44402
0.107394 0.0522745 0.457185
0.125435 0.160055 0.163747
0.106578 -0.0875679 0.459754
0.221981 0.111961 0.694025
-0.110674 0.202944 0.685168
0.126653 0.17597 0.0354864
-0.101564 0.117281 0.434323
0.062815 -0.163957 0.460737
0.140022 0.178337 0.245212
-0.190747 -0.194972 0.344011
0.0602331 -0.218478 0.454661
0.127603 0.176183 0.27011
-0.137374 0.149891 0.446302
0.189688 -0.188103 0.379632
0.154659 0.0652697 0.431149
-0.0266812 -0.12122 0.458138
0.129599 0.0995751 0.454982
-0.185284 -0.206686 0.249961
0.133791 0.151276 0.624004
0.0398277 -0.216563 0.44202
0.0332828 0.0475825 0.458242
0.192176 0.0238578 0.446058
-0.176116 -0.0919699 0.459218
0.144131 -0.0335794 0.461092
-0.0920017 -0.078398 0.458906
-0.137453 0.17831 0.790713
-0.0716433 -0.13718 0.459884
-0.187433 0.00147529 0.454169
0.00135945 -0.140956 0.455302
-0.108426 -0.186018 0.434769
0.0683291 -0.10706 0.455125
0.123722 0.17133 0.511596
-0.134438 0.158621 0
0.229495 0.0906602 0.778482
-0.0865333 0.130258 0.451674
0.132111 -0.176137 0.428796
-0.113825 0.129379 0.451219
0.0758586 -0.12933 0.456153
-0.135859 -0.189705 0.432849
0.135808 0.0293314 0.461387
-0.128008 0.175889 0.340021
-0.124911 0.173353 0.299527
0.179648 -0.0367471 0.432507
0.138198 0.151806 0.319906
0.140242 0.1801 0.158791
0.0560336 0.00140206 0.453657
-0.130347 0.192774 0.816816
0.204125 0.108197 0.718701
0.107463 -0.173602 0.458804
-0.0182493 -0.230903 0.428964
0.0795092 -0.194857 0.462432
0.0852372 0.187514 0.696105
0.185067 -0.18207 0.286282
-0.155962 0.0858883 0.452445
0.0453301 -0.0267924 0.452622
0.183604 -0.0592435 0.462739
-0.147048 0.183643 0.713755
0.164574 0.148466 0.808957
-0.180838 -0.179473 0.400671
-0.174214 -0.207137 0.0429837
-0.0532763 0.161736 0.430885
0.191965 -0.189933 0.24667
-0.146746 0.16233 0.391409
0.174739 -0.0753094 0.462822
0.019541 0.164746 0.429204
0.00647576 0.0578953 0.45842
-0.153327 -0.188789 0.438852
-0.176143 -0.0310239 0.440349
-0.250892 0.0662895 0.782639
-0.145643 -0.0639207 0.461272
0.172634 -0.141579 0.431334
-0.124138 0.10831 0.453279
-0.144172 -0.0330793 0.45755
-0.193669 -0.207252 0.0082387
0.00831151 -0.095913 0.45317
0.0414117 -0.130098 0.455253
-0.135969 0.182875 0.0133574
0.143632 0.177526 0.195618
0.08995 -0.116097 0.456204
-0.124909 0.168156 0.0454999
-0.10811 -0.186689 0.44836
0.0252115 -0.0689763 0.452295
-0.203854 0.102461 0.694627
0.172669 -0.00725593 0.45909
-0.121533 0.164106 0.347931
-0.0304224 -0.13185 0.455117
0.0428155 -0.106039 0.454267
0.104958 -0.159134 0.458206
0.119682 0.0616399 0.457952
-0.119446 0.157505 0.566735
0.0806357 0.195919 0.685452
0.176148 -0.021748 0.441837
0.138181 0.178078 0.297994
-0.158736 0.0523781 0.45936
0.195976 -0.0849232 0.447267
0.153379 0.150385 0.709939
0.114347 -0.183331 0.462923
-0.148954 0.172047 0
0.20791 0.0892859 0.704079
0.137997 0.15415 0.138881
0.0669813 -0.0756675 0.454146
-0.123844 0.171758 0.285684
-0.135234 0.178511 0.288195
0.0204999 -0.151979 0.459481
-0.0484359 -0.152929 0.459953
0.185211 -0.182744 0.21551
-0.126571 0.211158 0.792556
0.17014 -0.0367323 0.462379
-0.0318158 0.220718 0.785711
-0.0107561 -0.134702 0.455043
-0.131039 0.157187 0.675274
0.0100798 -0.195806 0.457973
0.0545694 0.0841125 0.456727
-0.179091 -0.208982 0.18199
0.109019 -0.20864 0.451253
0.0150568 -0.0545292 0.451435
0.0925655 -0.221352 0.434073
-0.0795844 0.215821 0.813886
-0.00725901 -0.224356 0.459331
0.178451 -0.0780279 0.431068
0.144927 -0.0874566 0.461529
-0.148679 0.177459 0.00664094
0.120552 0.159815 0.456702
-0.24319 0.0916757 0.777108
-0.179142 -0.0457944 0.433108
0.186206 -0.18287 0.244488
-0.136654 0.154173 0.138634
0.127141 -0.0550398 0.460307
0.0363866 -0.140555 0.455602
0.125979 0.159345 0.156226
0.0421909 -0.216127 0.440105
-0.0538881 -0.0777224 0.453651
0.119366 0.0304049 0.457112
0.0677786 0.0733847 0.460147
-0.123592 0.170804 0.234623
-0.109599 0.114744 0.462973
0.11677 -0.179901 0.435634
-0.00733083 0.00448408 0.455879
-0.0846269 -0.0566381 0.454662
0.194762 -0.191575 0.0377959
-0.147982 0.161303 0.163877
0.180065 -0.0658202 0.450646
-0.0247581 -0.230187 0.453769
-0.140268 0.00359059 0.461173
-0.0873417 -0.226842 0.444291
-0.154749 -0.155189 0.440417
0.155311 0.157813 0.806637
0.05351 -0.0473412 0.456604
-0.139843 0.172957 0.497626
0.154863 0.198771 0.804184
0.173583 -0.0765593 0.439572
-0.167944 0.175676 0.701138
0.166448 -0.191627 0.293222
-0.068424 -0.129942 0.455951
-0.101991 -0.199904 0.454902
-0.145537 0.0699861 0.446446
-0.0360948 0.145626 0.446446
-0.166258 0.146458 0.808813
0.138215 0.154675 0.103901
0.177819 -0.181336 0.242855
0.172451 -0.187526 0.122158
-0.190482 -0.203978 0.204783
-0.118866 0.127802 0.430653
0.141656 0.153684 0.295242
-0.104659 -0.189667 0.451081
0.146215 0.158675 0.13222
0.145635 -0.143488 0.446517
0.17118 0.0246205 0.451825
-0.000570647 0.240985 0.784473
0.178461 -0.184302 0.0949181
-0.181461 -0.207298 0.288098
-0.119634 -0.151773 0.458479
0.0516885 0.0609972 0.455657
-0.0264146 -0.208431 0.462191
-0.0144033 0.0777567 0.459403
-0.0424605 -0.124564 0.455033
0.169462 -0.202943 0.334161
-0.158638 -0.166282 0.438681
-0.141186 0.15159 0.504444
-0.0506086 -0.216984 0.450804
0.106534 -0.014615 0.455755
-0.0340249 -0.0977521 0.453685
0.00767089 -0.0214735 0.451117
0.0867265 0.0394545 0.459533
-0.179943 -0.207816 0.257561
0.202902 0.151857 0.806284
-0.168878 -0.202412 0.302423
0.126578 0.173054 0.555859
0.181444 -0.206247 0.335728
0.189663 -0.18766 0.36241
0.228019 0.0625062 0.754876
-0.119032 -0.083409 0.460236
0.240535 0.0558241 0.768589
-0.154139 0.0102747 0.458385
-0.185825 -0.20772 0.193894
-0.225554 0.0727298 0.769893
0.190188 -0.197502 0.35117
0.128309 -0.0983867 0.457412
0.0550699 -0.102742 0.45807
0.126561 0.174356 0.397923
0.244541 0.0978592 0.797024
0.025157 0.149854 0.448373
0.114871 -0.190888 0.42912
-0.144489 0.157076 0.529802
0.0750821 -0.207476 0.450933
0.161255 -0.060974 0.462036
-0.192897 -0.190864 0.195443
0.051296 0.235188 0.786436
0.185507 -0.211717 0.00413808
-0.0527476 0.138299 0.462659
0.136376 0.0277528 0.461381
0.154656 -0.16747 0.433741
0.175833 -0.0721198 0.437252
0.131511 0.15251 0.450685
-0.126494 0.168929 0.642369
0.158542 0.0465055 0.462768
-0.132128 0.147405 0.553184
0.155789 -0.146488 0.45833
0.18782 -0.200779 0.374874
0.215076 0.127379 0.699732
-0.0535109 0.154326 0.42851
0.00855225 -0.228637 0.452091
-0.0612288 0.0356177 0.458499
0.186852 0.0363101 0.434509
-0.196419 -0.200406 0.0172601
0.129394 0.179549 0.0233442
0.0729831 -0.187643 0.458438
-0.245194 0.0960255 0.800077
0.1291 0.15723 0.114674
0.148126 0.178068 0.00654566
-0.0115564 0.148262 0.446446
0.0401491 -0.119657 0.458333
0.171069 -0.0972624 0.451204
0.215033 0.0915388 0.812812
0.167969 -0.18294 0.398244
-0.0963056 -0.128909 0.456868
0.0823386 0.106787 0.458334
-0.188498 -0.185777 0.374461
-0.085231 0.132422 0.430315
0.0262329 -0.109049 0.457578
-0.0718299 -0.142425 0.460095
0.193592 -0.0848888 0.450252
0.0228928 -0.229804 0.454454
-0.115551 0.187338 0.809995
-0.0236467 -0.211677 0.462334
0.157323 0.093769 0.437273
0.115259 0.0897993 0.46225
0.134022 0.181789 0.0547269
-0.168801 0.160083 0.789472
0.148711 0.163107 0.13141
-0.147355 0.160365 0.170032
0.0795537 0.21466 0.785277
-0.12634 0.175489 0.214082
-0.0136301 -0.22549 0.450566
0.10792 -0.0920304 0.456351
0.229693 0.0890321 0.777092
0.156265 0.0913907 0.433196
-0.0388989 0.0793545 0.456198
0.0247664 -0.220466 0.462758
0.0545653 0.219212 0.711612
0.148009 0.167653 0.252012
0.12474 0.0560023 0.458005
-0.0653557 0.104965 0.457868
-0.0940297 0.0407473 0.456315
-0.181191 -0.0764015 0.457589
-0.107483 0.136433 0.449042
-0.167253 -0.191294 0.255569
-0.0223615 0.15462 0.429539
0.143981 0.189539 0.817293
-0.0969107 0.028582 0.456098
0.183968 -0.210557 0.0793525
-0.179785 -0.180238 0.314579
0.139463 0.179013 0.226563
-0.0782937 -0.133666 0.459941
0.0951089 -0.099093 0.455945
-0.146421 0.171856 0.268113
-0.139699 0.0787691 0.44804
0.101085 -0.042455 0.458953
-0.181944 0.0474328 0.433337
0.139393 0.153975 0.181561
0.186806 0.124016 0.809623
-0.00645024 -0.224028 0.462848
-0.11343 0.128376 0.443391
-0.222999 0.0677468 0.72491
0.144339 0.197466 0.699344
0.104732 -0.0801335 0.455963
0.144114 0.0903211 0.45942
-0.123828 0.148984 0.431086
0.13781 0.180944 0.134492
0.0936384 0.149856 0.438703
0.168734 -0.152713 0.437012
-0.205876 0.135877 0.69791
-0.165065 0.0384306 0.450147
-0.142561 0.155406 0.166989
-0.177087 0.0341365 0.454039
0.0888774 0.127103 0.448031
-0.133985 0.0514729 0.461805
-0.147474 0.16895 0.281389
-0.0823876 -0.157645 0.457449
-0.216564 0.0869845 0.697848
-0.16678 -0.0961118 0.441822
0.120077 0.0144128 0.456819
-0.023212 0.220733 0.786543
-0.165254 0.0433084 0.463009
-0.147376 -0.0647256 0.461366
0.139943 0.150483 0.529034
0.233256 0.106169 0.816176
0.142162 0.152612 0.581326
-0.231612 0.0923856 0.778546
0.146293 0.16011 0.376495
-0.10443 -0.188849 0.448297
-0.176688 -0.207453 0.268977
0.125495 0.167723 0.659885
-0.0734523 -0.198814 0.458936
0.143687 -0.0128789 0.461156
-0.0873007 -0.0671022 0.458486
-0.111117 0.131247 0.431207
0.155139 -0.0172419 0.458167
0.17683 -0.0864867 0.454441
-0.188992 -0.20527 0.205642
-0.179116 -0.0015722 0.432341
-0.194113 -0.194021 0.14971
0.164994 -0.193114 0.355722
-0.130884 0.150182 0.399465
-0.124893 0.173325 0.351134
0.0158362 -0.0868182 0.456406
-0.195976 -0.19759 0.0627958
-0.0967527 -0.186171 0.462528
-0.120627 0.182747 0.795901
-0.100099 0.0975439 0.458483
0.126877 0.163251 0.00621951
0.155091 0.147956 0.709206
0.124726 0.172801 0.423107
0.140631 0.151408 0.478537
0.176838 -0.186114 0.0431118
0.121821 -0.119038 0.461146
0.181535 -0.210376 0.0910646
-0.085025 -0.173017 0.458132
0.254899 0.0791624 0.771064
-0.125758 -0.0943092 0.460762
-0.198335 -0.0802964 0.437351
0.133846 0.173952 0.664508
-0.190225 -0.188575 0.348219
0.111558 -0.187207 0.450947
-0.113963 0.10857 0.436364
-0.170832 -0.200985 0.0534703
0.00588641 0.0705505 0.459021
-0.0502204 -0.0013278 0.456914
-0.22727 0.0767321 0.75514
0.0156093 -0.16253 0.4564
0.18009 0.016485 0.460837
-0.199196 0.129196 0.821885
0.17521 -0.193728 0.437642
-0.031256 -0.224464 0.452102
0.0400249 -0.228961 0.458505
0.193592 -0.195166 0.198319
-0.0263016 0.167617 0.451273
-0.0158683 -0.228395 0.46299
-0.00858926 -0.11572 0.457689
0.146219 0.0853167 0.461488
0.0984519 -0.163862 0.461702
0.189408 -0.188597 0.40388
-0.150995 -0.180124 0.448733
0.0616889 -0.0730562 0.453851
0.113344 0.0133676 0.460043
0.147008 -0.0925561 0.458149
0.182517 0.0172208 0.428537
0.170436 -0.19204 0.097045
-0.0781753 -0.196102 0.458919
0.125982 -0.00104764 0.456872
0.0419026 -0.162463 0.456692
0.126307 0.168054 0.672813
0.143295 0.154308 0.493086
-0.16897 -0.18402 0.334634
0.14497 0.167677 0.450155
-0.105208 -0.0267127 0.455619
-0.171062 -0.190601 0.103148
0.0837789 -0.155638 0.460957
0.0226849 -0.242524 0.432305
0.0735906 0.0643857 0.459961
-0.143509 0.155837 0.19875
-0.144535 0.202657 0.808801
-0.0863654 -0.0275642 0.458232
0.121869 0.160719 0.343606
-0.0479657 0.120034 0.461752
0.049943 -0.0662095 0.453175
-0.0346668 -0.221075 0.462861
0.144012 -0.110678 0.461922
0.140607 -0.042938 0.460929
-0.0486549 0.0732359 0.459682
0.212356 0.0911176 0.807213
-0.124039 -0.0273106 0.456562
0.15852 0.000834484 0.462022
-0.131609 0.18087 0.0583953
-0.193266 -0.194015 0.206277
-0.141277 0.173025 0.446669
0.130272 0.148 0.52902
0.163727 -0.0650435 0.462177
-0.138496 0.17753 0.316704
-0.173916 -0.182966 0.233654
0.0419165 -0.190628 0.458003
-0.127685 0.148711 0.530917
-0.0998638 0.0346047 0.45994
-0.204084 0.100428 0.716115
0.0448285 -0.0616102 0.456422
-0.141247 0.0872721 0.45493
-0.134764 0.177335 0.358621
-0.106926 -0.186772 0.462845
-0.215353 0.083177 0.701819
-0.126366 0.175527 0.225062
0.120024 0.160676 0.493791
-0.0189305 -0.0256736 0.454963
0.194862 0.120727 0.796901
-0.00877771 0.0591156 0.454926
0.167645 0.174205 0.70716
0.113176 -0.0855103 0.456458
-0.137014 0.173697 0.807329
-0.0472337 -0.215813 0.462781
-0.0154076 -0.223432 0.447758
-0.124841 0.16814 0.0511521
0.17027 -0.200608 0.0877645
-0.0452648 -0.021743 0.456257
0.00312517 0.230557 0.783437
0.0392328 0.0140738 0.453428
0.137022 0.1875 0.786933
-0.14214 0.181067 0.0711954
0.20094 -0.00394737 0.444449
0.104211 0.190756 0.80378
-0.13007 0.148741 0.486948
-0.225995 0.0679527 0.775101
-0.0116647 0.132107 0.458442
0.119717 0.160407 0.520639
0.0690654 -0.186095 0.458287
0.170619 -0.106058 0.463038
-0.106311 -0.174387 0.462341
0.0618836 0.223991 0.78389
-0.169984 0.0438881 0.428936
0.19975 -0.0432525 0.434904
-0.093769 -0.222124 0.446203
-0.161083 0.0488882 0.432897
-0.176511 -0.208007 0.197886
0.0349644 0.0862948 0.460022
0.0298321 0.157152 0.455861
-0.169068 0.183318 0.812651
-0.238098 0.0951175 0.726683
0.134906 0.151533 0.300627
-0.121242 0.157461 0.457873
-0.058008 -0.184189 0.457969
-0.137395 0.170019 0.64149
-0.171558 -0.204611 0.140488
0.0835267 0.20587 0.809529
0.137718 0.153551 0.639087
-0.142177 0.179273 0.153219
-0.169786 0.0172779 0.436242
0.0341635 0.0285291 0.453865
-0.188836 0.128253 0.795353
0.178536 -0.180884 0.272107
-0.148824 0.164201 0.157055
-0.191106 -0.20671 0.0987464
0.17389 -0.206832 0.0488864
-0.0753355 0.0627593 0.456394
0.0810701 0.100182 0.458037
-0.145701 0.177973 0.10139
0.193493 0.111455 0.694891
-0.201256 -0.0404363 0.439323
-0.187855 -0.0479298 0.454038
0.23826 0.0860885 0.751398
-0.144436 0.157295 0.105088
-0.139136 -0.159389 0.452604
0.145859 -0.162141 0.454175
0.0612466 -0.121293 0.458962
-0.243552 0.0726876 0.798771
0.140722 0.171482 0.665586
-0.24506 0.0579041 0.737999
0.0908041 0.0874945 0.461363
0.065821 -0.214326 0.459451
0.0883104 -0.00391979 0.455001
-0.0245595 -0.0627761 0.455635
0.142058 0.15387 0.308272
-0.17535 -0.180509 0.319973
-0.0713713 -0.204795 0.447059
0.188559 0.012783 0.45325
0.0632538 0.229668 0.692053
-0.159722 0.00562144 0.458599
0.185743 -0.211249 0.0344633
0.177871 -0.206378 0.350155
-0.195647 -0.0639995 0.451906
0.150126 0.0379525 0.462213
-0.122655 0.131969 0.437912
0.137094 -0.19341 0.442494
0.147264 0.160243 0.0686011
-0.0462895 -0.121809 0.454995
-0.077554 0.192804 0.689929
-0.140892 0.168382 0
0.157811 0.152557 0.714284
-0.131981 0.152187 0.277944
0.145074 0.169753 0.680731
0.137638 0.118807 0.438092
0.204228 0.0960392 0.713362
0.0491992 0.142869 0.447128
0.193245 -0.194003 0.208373
-0.17757 0.00386181 0.450227
-0.174818 -0.19284 0.43863
0.144837 -0.142591 0.459202
-0.0399299 0.24181 0.806203
-0.141673 0.175523 0.337823
0.131069 0.152618 0.274398
-0.156367 -0.15689 0.441721
0.0544935 0.157887 0.453516
-0.220534 0.0779795 0.788883
0.0714452 -0.0553129 0.457571
-0.0986925 0.0691537 0.457415
0.178244 0.0657666 0.44439
0.00480518 -0.127443 0.458232
-0.142141 0.159088 0.673202
0.12023 0.195014 0.713227
0.170515 -0.203364 0.181764
0.171473 -0.194775 0.0178909
0.136039 0.18968 0.817073
-0.00958748 0.164674 0.453767
0.128756 0.150065 0.444447
0.14345 0.154539 0.442339
0.165696 0.0478654 0.452972
-0.173608 -0.186948 0.107882
0.1885 -0.186073 0.394051
-0.178306 -0.182022 0.200702
0.176637 0.134929 0.808661
-0.121707 0.161755 0.349713
-0.167045 -0.0967247 0.437847
0.168028 -0.192532 0.207321
0.060291 -0.237948 0.447559
0.0401853 0.0547494 0.4587
-0.0879459 -0.0111762 0.454893
0.027732 -0.0834498 0.456513
-0.10902 -0.0392704 0.459337
-0.0477654 0.153843 0.428676
-0.114224 -0.0370689 0.459587
0.19837 -0.00206511 0.449412
-0.169646 -0.186689 0.240118
-0.127652 0.0108366 0.460652
-0.187515 -0.20946 0.0861209
-0.133382 0.151461 0.312474
0.177817 -0.185337 0.0592266
-0.197839 0.0103112 0.442277
0.0656234 0.0895935 0.460751
0.103172 -0.149308 0.457807
0.120892 0.153962 0.58938
0.0693557 -0.103747 0.455049
0.0462261 -0.132188 0.455446
0.143185 0.157044 0.0303881
-0.131587 0.209397 0.79457
0.0168564 -0.166485 0.456595
0.121079 0.125839 0.452302
-0.152197 -0.179881 0.427792
0.168115 0.0435199 0.453313
0.044682 0.223508 0.813886
-0.0468978 0.150534 0.456609
-0.167778 -0.197827 0.221953
0.130087 0.201933 0.815469
0.160629 0.16887 0.818386
0.128586 0.173933 0.532253
-0.107866 -0.0340231 0.459279
0.242098 0.089965 0.808803
0.178212 -0.205753 0.390692
-0.171017 -0.184331 0.26635
0.172934 -0.205993 0.112723
-0.140695 0.157048 0.630684
-0.122457 0.152347 0.541068
0.140901 0.152825 0.332003
-0.149494 -0.161553 0.436673
0.0345367 0.127883 0.461941
0.161441 -0.12968 0.459163
-0.00980521 -0.142911 0.455433
0.157828 -0.148399 0.428607
-0.0347916 0.145029 0.462738
-0.114759 -0.16554 0.462314
-0.165846 -0.0280832 0.4622
-0.0599376 -0.128944 0.455666
0.15819 0.143614 0.707514
0.105129 -0.205781 0.453519
-0.0200096 0.0664201 0.458909
-0.114809 0.192619 0.813877
-0.161072 -0.147854 0.453662
-0.114622 0.118216 0.455704
-0.123159 0.170497 0.287181
0.175274 -0.183515 0.185332
-0.0367286 0.128896 0.462016
-0.178628 -0.20748 0.279286
-0.0362263 -0.210249 0.458842
0.216997 0.0836165 0.796525
-0.0403778 -0.141188 0.455715
0.167697 -0.141932 0.429259
0.150944 -0.00636023 0.458022
0.189275 -0.196808 0.402205
0.0362836 -0.19786 0.461808
-0.0776325 0.0619108 0.456427
0.0089944 -0.0883293 0.452812
-0.0041254 0.0608571 0.454989
-0.00793712 -0.196838 0.461557
0.164985 0.171791 0.818913
0.0693716 0.203276 0.683304
-0.0388383 -0.175767 0.457271
-0.158102 0.0380275 0.459039
-0.19029 -0.18641 0.0736451
-0.124764 0.173133 0.237145
-0.150178 0.191667 0.788908
-0.127705 0.127698 0.435115
0.167521 -0.183881 0.381197
0.112927 -0.00951797 0.459686
-0.000962719 0.160984 0.453725
-0.124603 0.155322 0.630659
0.147357 0.160383 0.194164
-0.201255 -0.0569081 0.443279
-0.117302 0.155883 0.437384
0.0303523 -0.227661 0.45862
0.138319 0.151998 0.307992
-0.149344 0.166145 0.153763
-0.123204 0.163553 0.21565
0.000836856 0.137592 0.462198
-0.10557 0.183509 0.688215
0.128158 0.0263349 0.460979
0.143834 0.155409 0.593542
0.225426 0.0748405 0.747642
-0.181984 -0.00900336 0.452042
-0.111172 0.109068 0.441668
-0.106496 0.0364531 0.456711
-0.110177 -0.196332 0.453916
0.153903 -0.0918619 0.462018
0.0556236 -0.147248 0.456304
0.156416 -0.0761069 0.458403
-0.133387 0.0770753 0.462483
0.0864222 -0.136291 0.456766
-0.0791425 -0.212775 0.462132
0.151865 -0.139015 0.433072
-0.149309 0.164526 0.0974599
-0.183056 -0.0426625 0.429986
-0.123997 0.166638 0.130073
-0.122803 -0.173012 0.447623
-0.141237 -0.158163 0.43014
0.14351 0.167563 0.533235
-0.141995 0.155309 0.135414
-0.153531 -0.187143 0.430556
-0.143454 0.154534 0.49259
0.0864283 0.187126 0.695828
-0.096916 0.192591 0.683921
-0.161658 0.181808 0.699052
0.176323 0.180492 0.805548
0.188224 0.123362 0.811497
-0.16331 -0.0344222 0.458506
0.14897 0.0112827 0.461689
0.142528 0.153395 0.406825
0.0836712 -0.168843 0.461472
0.18967 -0.185846 0.225632
0.142065 -0.180144 0.4315
0.0675835 0.143694 0.458052
0.115925 0.184092 0.800991
-0.158165 0.161525 0.792388
-0.14063 -0.0469241 0.4574
-0.180364 -0.185375 0.0138131
-0.146968 0.170959 0.259999
0.158242 0.035909 0.46254
0.194533 0.118028 0.799776
0.109592 -0.0365789 0.459354
0.0627066 -0.220444 0.454469
0.12026 0.162766 0.460364
0.119089 0.103525 0.446771
-0.0972777 0.0262348 0.456048
0.173513 -0.182224 0.273949
-0.133756 0.156566 0.0312997
-0.178314 -0.00196228 0.449251
-0.0435685 0.156353 0.428542
-0.0689596 -0.177276 0.461445
0.157556 0.148606 0.690647
0.0701914 0.212389 0.787491
-0.164888 -0.191659 0.369727
-0.093572 0.208481 0.814616
-0.191845 -0.19821 0.262519
0.0486186 0.233155 0.785258
0.187816 -0.20583 0.221013
0.173368 -0.0778463 0.438486
-0.145518 0.176165 0.173437
-0.226813 0.0664125 0.77067
-0.141179 -0.0869783 0.457796
0.125635 0.159735 0.160602
0.170999 -0.202766 0.421553
-0.00402549 0.112988 0.461038
-0.0043309 0.243289 0.785968
-0.106785 0.121195 0.462742
0.0567773 0.0831248 0.460283
-0.177231 -0.0738283 0.449071
-0.131629 0.151731 0.306128
0.171995 -0.138655 0.430332
0.150435 -0.171776 0.433032
-0.187919 -0.0642785 0.428603
-0.148402 0.161931 0.119363
-0.109359 0.1945 0.788881
0.136328 0.155707 0.0521991
-0.235164 0.0997008 0.722011
-0.0571251 0.145738 0.463042
-0.175648 0.00351676 0.462885
-0.0346763 0.0545362 0.458574
0.122523 0.169796 0.37305
-0.148408 0.161939 0.0497046
0.0286767 0.074681 0.459404
-0.183022 -0.080447 0.453759
-0.176142 -0.0506139 0.443171
-0.0720493 -0.0170513 0.457613
-0.159075 -0.179946 0.449993
0.0163806 -0.126546 0.454687
0.162888 0.13737 0.699573
0.124589 -0.136797 0.458205
0.140168 0.180716 0.131997
-0.1838 0.024236 0.453492
-0.122903 0.17035 0.385945
0.185032 -0.073781 0.428945
-0.0159221 0.2198 0.808681
-0.00513038 -0.249661 0.443564
0.148337 0.0419323 0.458672
-0.000398125 0.00155443 0.452126
0.0575461 -0.213102 0.449022
-0.219671 0.0899934 0.72832
-0.0595109 -0.221437 0.4533
0.0687941 -0.115251 0.455421
0.0950158 0.0679136 0.460791
0.170539 -0.194298 0.0681431
0.110233 -0.177937 0.462593
-0.0853968 -0.165843 0.457859
0.0366218 0.00507943 0.456592
-0.11994 0.163413 0.495765
0.164565 -0.102499 0.443426
-0.100935 -0.191909 0.433413
-0.171817 -0.111215 0.453674
-0.163246 0.174328 0.711381
0.176007 -0.174607 0.435879
0.127488 0.175573 0.333347
-0.14092 0.172005 0.496912
-0.148157 0.0693432 0.448138
0.134129 0.153172 0.210141
-0.0560422 -0.00630219 0.457042
-0.0685814 0.0888098 0.457231
0.168809 0.163715 0.714653
0.121118 0.162001 0.395713
0.0540153 -0.119498 0.458683
0.00560118 0.142712 0.462463
-0.0865663 0.223971 0.813932
0.174611 0.13699 0.807249
0.0603838 0.100568 0.45757
-0.0962324 0.0635046 0.457135
0.00258091 0.144093 0.462516
-0.147223 0.166167 0.326485
0.173324 0.0368367 0.453864
0.191099 -0.0941652 0.433227
-0.0516821 0.204464 0.687559
0.00327612 -0.0397824 0.450513
-0.140176 0.174961 0.397552
0.0905068 0.130326 0.452862
-0.0202745 -0.124042 0.458185
0.112689 -0.12651 0.460977
-0.18051 -0.205173 0.40055
-0.0378246 0.0196975 0.453609
-0.0960932 0.108224 0.462328
-0.123214 -0.144093 0.461892
-0.122615 0.169919 0.539018
-0.0530157 -0.190222 0.461672
-0.146265 0.171135 0.294356
-0.068992 0.206015 0.711611
0.0769984 0.135325 0.452762
0.159121 -0.123997 0.462879
0.0655894 0.158223 0.452446
0.256373 0.0693851 0.747987
-0.133296 0.0737112 0.462387
0.13075 -0.15857 0.459107
0.0298541 0.0429665 0.457969
0.17332 -0.180712 0.443832
-0.146717 0.174698 0.181086
-0.168609 -0.199566 0.185968
0.0750769 -0.179782 0.45814
-0.0637365 0.0109285 0.457806
0.130208 0.179302 0.712884
0.0362657 0.036716 0.454268
-0.181972 -0.181046 0.270189
0.102531 0.122575 0.452628
0.133894 0.181311 0.0880643
0.0977967 0.147512 0.440371
-0.197244 -0.0199706 0.431892
0.149558 -0.0638604 0.461464
0.139231 -0.133153 0.462249
0.155339 0.0708586 0.454828
0.106921 0.108794 0.446446
-0.193059 -0.192795 0.206396
-0.129099 0.175452 0.42795
-0.12243 0.0952527 0.44702
-0.103624 0.0153135 0.459641
0.131615 0.148566 0.489273
0.251954 0.0806893 0.736059
0.00649979 0.165629 0.428949
0.124944 0.156316 0.304369
0.0610784 0.0918288 0.460752
0.165356 -0.186163 0.408339
-0.0884364 -0.0549345 0.454827
-0.126165 -0.147729 0.458574
0.233464 0.0648023 0.718383
0.0554364 0.00361487 0.453694
0.136838 0.178941 0.255266
0.136576 0.173141 0.592506
-0.103473 -0.0147602 0.459163
0.178178 -0.18539 0.439039
0.245266 0.0555303 0.758968
0.194959 -0.192343 0.0629382
0.135475 0.173467 0.80174
0.0316788 0.0898058 0.45659
0.140756 0.151552 0.472274
-0.187615 0.0164779 0.429591
-0.143658 0.203824 0.796936
0.127404 0.151874 0.391384
0.138899 0.151059 0.391071
-0.127455 0.170385 0.657187
0.178085 0.141903 0.793305
0.156693 0.158522 0.810649
-0.16575 -0.191915 0.324875
0.0190149 -0.131577 0.458518
0.157835 0.14514 0.709314
0.131681 0.17352 0.597004
0.142871 0.181652 0.0278062
-0.172018 -0.186243 0.175927
-0.143105 0.157393 0.00174803
0.167466 0.0185778 0.446758
-0.159031 0.170598 0.686363
-0.00891171 -0.04842 0.454597
-0.107908 -0.00787366 0.459463
0.174998 -0.0853681 0.452401
-0.0713735 -0.0755025 0.454344
-0.12579 0.172999 0.49202
0.176528 0.0375223 0.428716
-0.125919 0.173911 0.00731158
-0.123056 0.154092 0.598382
0.135367 -0.194496 0.445379
-0.175385 -0.205888 0.382487
-0.0778699 0.00829225 0.454765
-0.154847 0.00359841 0.461879
0.109423 -0.144054 0.461396
0.117059 -0.132446 0.457773
-0.0937024 0.0721799 0.460889
0.167623 0.146044 0.798737
0.0220205 -0.246085 0.437887
-0.200352 -0.0554048 0.446064
-0.130383 0.157108 0.0823654
0.0373894 -0.217093 0.443768
-0.122929 -0.171578 0.446746
0.0580372 0.0391399 0.454961
-0.0780259 -0.0867239 0.454897
-0.161462 -0.0756006 0.458642
0.0720209 -0.214974 0.453476
-0.0172941 0.0788391 0.45591
-0.114171 0.215724 0.811578
0.176585 -0.00140747 0.447974
0.148522 0.162124 0.064467
-0.113414 0.208889 0.815262
0.0864903 -0.147303 0.460708
-0.183731 -0.0548736 0.458372
0.175826 -0.184858 0.115137
0.00928958 0.219716 0.789706
-0.147691 0.106847 0.442185
0.13769 0.198743 0.815247
0.0845565 -0.201396 0.449678
0.119182 0.0955091 0.462582
0.178103 -0.180381 0.304728
-0.121023 0.10306 0.433881
0.120923 -0.170789 0.446446
0.0497793 0.145803 0.459432
-0.0720765 -0.14615 0.456697
-0.117347 -0.0496883 0.459796
-0.169503 -0.187858 0.220874
-0.159089 0.0566578 0.459463
0.104567 0.0975634 0.458613
0.150259 0.197519 0.811528
0.0752425 0.14829 0.428806
-0.112509 -0.21195 0.44282
-0.184859 -0.184082 0.0655745
0.0754022 -0.208026 0.45938
0.146203 -0.164415 0.45388
0.122179 0.161056 0.31827
0.0674511 0.135519 0.446446
0.183929 0.146449 0.790292
0.149644 0.167913 0.117052
0.139031 0.150801 0.413294
0.130322 0.156211 0.125333
-0.141434 -0.00905095 0.461073
-0.185945 -0.207448 0.204106
0.186644 -0.0253767 0.428831
0.0547201 0.203941 0.706354
-0.0831802 0.131336 0.449287
0.128309 0.176117 0.340259
0.138829 0.166956 0.605994
0.096565 0.217283 0.814681
-0.133547 -0.0473653 0.460596
-0.00867483 0.122267 0.461501
-0.178768 -0.0690787 0.449093
-0.229503 0.118517 0.813032
-0.0354718 0.0245489 0.457302
0.169424 -0.195715 0.111594
0.168081 0.00771616 0.462571
0.0555461 -0.22101 0.462855
0.191357 -0.0164435 0.453716
0.184579 -0.0695472 0.461483
0.247291 0.0931089 0.789998
0.185643 -0.182307 0.288004
-0.195416 -0.193517 0.057
-0.252548 0.0827677 0.787522
-0.115648 -0.0501774 0.456158
-0.138463 0.153044 0.437815
-0.120104 0.165818 0.572139
-0.172807 -0.179695 0.400496
0.104027 -0.112861 0.456694
-0.168102 0.149664 0.686868
-0.0914758 0.011185 0.455446
-0.25055 0.0592156 0.744752
-0.0853692 0.0865591 0.46117
-0.106494 -0.108619 0.456679
-0.139049 0.154464 0.617842
0.0831551 0.0559758 0.459966
0.011863 0.11571 0.457656
0.004866 -0.018106 0.451217
-0.172556 0.132419 0.712354
0.123899 0.17134 0.525854
-0.163689 0.000671734 0.458731
0.135753 0.17826 0.30035
-0.110388 -0.014497 0.455945
0.172263 0.170945 0.704257
0.192439 -0.206968 0.0525057
0.184041 -0.207253 0.245539
0.186105 -0.205277 0.287667
-0.209388 0.136872 0.795282
-0.145415 0.157466 0.177404
-0.0814267 0.190335 0.702994
0.0599027 0.219523 0.784606
-0.123956 0.161121 0.219081
0.0272493 -0.100282 0.453649
-0.127804 0.156424 0.192574
-0.0727032 -0.0908791 0.454792
0.117591 -0.16501 0.462396
0.132274 0.174427 0.54009
0.241357 0.10188 0.796283
0.136085 0.169566 0.628299
0.134687 0.178976 0.26467
0.14908 0.15792 0.711843
0.114125 -0.0273297 0.456064
-0.0176779 -0.151326 0.459428
0.192089 -0.202711 0.170254
-0.149923 0.168172 0.0928895
-0.201404 0.141973 0.700705
-0.122539 0.167919 0.281209
0.0193262 -0.201154 0.461813
-0.197349 0.104392 0.698946
-0.227195 0.077119 0.762475
-0.169475 0.173995 0.699615
0.0748563 -0.207441 0.459343
-0.0380028 -0.0340103 0.455789
0.120301 0.0532314 0.457745
-0.129486 -0.0964867 0.460975
-0.177883 0.00758917 0.454089
0.173428 -0.190407 0.0168682
-0.112188 0.17859 0.69131
0.195558 -0.198479 0.0766002
-0.169865 -0.194781 0.096967
0.159997 0.195585 0.798929
-0.174511 0.00053919 0.443355
-0.0831757 0.101092 0.461677
-0.020739 0.139447 0.458834
-0.135856 -0.134724 0.458613
0.0475213 -0.126741 0.458797
0.147249 0.167558 0.314541
-0.165243 0.18471 0.791638
0.108573 0.118805 0.452571
-0.174874 0.160798 0.689834
0.156537 0.143828 0.704754
-0.186049 -0.204645 0.309659
-0.120811 0.155192 0.537129
-0.162133 -0.129812 0.462824
-0.0466435 -0.2409 0.44643
0.189544 -0.207411 0.120593
0.0459326 -0.215436 0.440628
0.139017 0.171948 0.56572
0.108995 -0.132693 0.457449
0.130745 -0.162916 0.462791
0.200136 0.14556 0.818498
-0.00331769 -0.191878 0.4613
0.167875 -0.199712 0.250803
-0.190763 -0.186826 0.00380161
0.0318748 -0.0100225 0.452343
0.101357 0.190041 0.684548
-0.0425424 0.153943 0.455636
-0.144585 -0.162492 0.460326
-0.135331 0.177732 0.332664
-0.211588 0.142231 0.803868
0.148747 0.163891 0.155794
-0.128009 -0.121297 0.457918
0.105581 -0.186507 0.459258
-0.150873 0.0693814 0.46299
-0.121177 0.162698 0.386523
-0.161858 0.0784052 0.430162
0.172049 0.0717018 0.449454
0.146849 -0.0242365 0.457721
-0.16665 -0.190964 0.288208
-0.103837 -0.123115 0.46052
0.0491446 0.230692 0.685064
-0.00588557 0.153933 0.450957
-0.147169 -0.0968638 0.461787
-0.139296 -0.086906 0.457703
0.119317 -0.0242105 0.459892
0.159122 0.144981 0.710644
0.178144 -0.185903 0.0280183
0.00275227 0.166407 0.428964
0.132898 0.176033 0.681284
-0.233717 0.0575984 0.766497
0.0707737 0.220567 0.814371
0.164785 -0.191756 0.374551
-0.0674202 0.0749013 0.456644
0.151394 0.195437 0.813356
0.144069 0.189554 0.712025
-0.159037 0.173317 0.818339
-0.0517746 -0.0411982 0.452911
-0.156158 -0.00173322 0.458334
-0.153333 0.159991 0.807076
0.00862978 0.0979325 0.456789
-0.143475 0.166431 0.583091
-0.053398 0.141692 0.446086
-0.193455 -0.00444546 0.42947
0.103015 -0.00166874 0.455745
0.0157305 0.0297628 0.457157
-0.0141374 -0.0400785 0.454607
-0.183483 -0.0845076 0.454072
-0.0232651 0.019737 0.456822
0.0269958 0.241434 0.809483
-0.123598 -0.0679393 0.456702
-0.18445 -0.196478 0.424993
-0.167423 0.0235191 0.447941
-0.142249 0.154845 0.206912
0.151476 -0.137666 0.450748
-0.034232 -0.242695 0.447722
0.182368 -0.18122 0.265924
0.171784 0.0174803 0.450647
-0.0691366 -0.0483707 0.457382
-0.0173565 -0.0575524 0.455203
0.0834372 0.0973636 0.461538
-0.0315343 -0.226688 0.463036
-0.136718 0.156258 0.0179071
-0.0555494 -0.13634 0.459388
0.178597 -0.0352246 0.448882
0.153975 -0.141828 0.452422
0.120696 0.163113 0.422493
-0.0774032 0.230599 0.786672
0.216683 0.125921 0.709592
-0.0834318 -0.189495 0.458742
-0.147372 -0.167617 0.451555
0.119214 -0.0834871 0.456693
-0.137399 0.148721 0.535077
-0.149609 0.175539 0.00255305
0.134662 0.151627 0.296523
0.12569 0.174103 0.0477378
0.0611372 0.0400189 0.455085
0.0122023 -0.0805523 0.452492
0.0694987 -0.223091 0.454141
0.208867 0.1222 0.718741
-0.142035 0.175511 0.813366
-0.249829 0.0614077 0.737507
-0.160906 0.19551 0.804377
-0.143704 0.165918 0.590411
-0.0744348 0.0415954 0.455611
-0.136935 0.172959 0.569283
0.199128 -0.0335492 0.434151
0.152418 -0.157917 0.439158
-0.166331 -0.0457204 0.462226
-0.124325 0.152235 0.474681
-0.120648 0.0158794 0.460426
0.128961 -0.183717 0.428531
-0.12389 0.123463 0.452626
-0.00392334 0.220076 0.790368
0.183346 -0.18133 0.296022
-0.250823 0.0862193 0.790796
0.193336 -0.195633 0.210571
-0.169302 0.0684502 0.452729
0.0777587 0.137189 0.452456
-0.123335 0.170995 0.494388
0.158689 -0.133811 0.431063
0.151197 0.181629 0.817767
0.105942 0.0724774 0.461333
0.173522 0.164919 0.819208
0.140342 -0.156654 0.46294
-0.124766 0.186671 0.814111
0.0157521 -0.0521252 0.451378
-0.111542 -0.189882 0.455185
-0.2365 0.098151 0.722915
0.171472 -0.190284 0.0944091
0.126992 0.161707 0.0376941
-0.00102358 -0.0235441 0.454511
0.0785374 0.132863 0.449982
0.171272 -0.203342 0.0968942
0.129997 0.199498 0.689226
-0.162928 0.175217 0.710787
0.135398 0.0966337 0.462236
0.0864069 -0.00701063 0.45487
0.0213993 0.239333 0.811473
-0.0163544 -0.192129 0.457824
-0.138045 0.156483 0.674863
-0.0582463 0.133137 0.458953
-0.150083 0.0221197 0.46189
-0.131766 0.15784 0.0173751
0.0334606 -0.234993 0.429118
0.165286 -0.192094 0.442152
-0.0819979 -0.117315 0.455962
0.17616 -0.18448 0.126457
-0.143574 0.157421 0.0140275
-0.121999 0.168999 0.579434
0.194358 -0.202664 0.0842094
-0.140571 -0.134858 0.458812
0.0610065 0.233931 0.811188
-0.0247155 -0.223413 0.45053
-0.117723 0.196664 0.816051
0.100456 0.116658 0.436549
-0.132425 0.182829 0.789407
-0.0701405 -0.0218643 0.453892
-0.188495 -0.185312 0.0664679
0.194522 0.135288 0.689342
0.0154696 0.109348 0.460914
-0.018346 0.147321 0.438763
-0.0510544 0.113968 0.457967
0.191761 0.151752 0.705209
-0.0316249 0.121645 0.461615
-0.138326 -0.168635 0.461078
0.123925 0.165866 0.140871
-0.185494 -0.182723 0.231897
-0.134266 0.0972147 0.454045
-0.177475 0.127414 0.712696
-0.0230789 -0.11461 0.457785
0.109742 0.048597 0.46073
