-0.158446 0.120175 0.315295
0.175327 0.146185 0.412358
0.172293 -0.160533 0.114526
-0.158979 0.164746 0.207743
0.161827 0.135204 0.463406
-0.164023 -0.0255809 0.404065
-0.128698 0.13329 0.378228
0.0882976 0.132681 0.404065
0.157623 0.0509443 0.404065
0.190819 -0.0110489 0.41448
0.0771895 -0.0830464 0.404065
0.162884 -0.117096 0.404065
-0.0857942 0.0908746 0.404065
0.185832 0.159014 0.631225
0.179764 -0.0625188 0.389988
0.0033809 0.218661 0.809423
0.189241 -0.129547 0.313585
0.124177 0.147621 0.31546
-0.127015 -0.187348 0.310871
0.145902 0.158103 0.539787
-0.0213531 -0.00777967 0.404065
-0.175197 -0.156456 0.369911
0.154166 -0.0616337 0.413293
0.128074 -0.176585 0.383871
0.137574 0.0056952 0.404065
0.163359 0.179363 0.113124
-0.144908 0.153325 0.578244
-0.161629 0.164842 0.11278
-0.14237 0.210113 0.786901
0.104293 0.212834 0.715781
0.101211 0.0452264 0.413293
-0.106026 0.00450901 0.413293
-0.0233246 0.152212 0.387228
-0.103551 0.210252 0.799865
0.0270476 -0.15619 0.413293
0.117809 -0.0656832 0.404065
0.171768 0.140376 0.518271
0.066736 -0.111372 0.413293
0.180671 -0.0795483 0.398959
-0.054566 0.211313 0.743221
-0.141979 0.143934 0.307959
0.187473 -0.165513 0.285367
0.164812 0.144679 0.208341
0.160712 0.133038 0.433724
0.199908 0.187353 0.751861
-0.190493 -0.0695652 0.391585
0.225644 -0.054811 0.310512
0.168224 -0.0334721 0.404065
-0.0913547 0.14447 0.406622
0.190208 0.000438601 0.383215
0.134685 0.101542 0.413293
-0.168893 0.141373 0.26109
-0.0801519 -0.155766 0.404065
0.198573 -0.156866 0.38201
-0.177541 -0.122923 0.310963
0.173807 0.19371 0.0623854
-0.0157724 -0.179435 0.378228
0.0383286 -0.184781 0.378228
-0.181236 0.0819249 0.310308
0.170291 0.100051 0.378228
-0.145748 0.120793 0.382736
0.0154969 -0.00419413 0.404065
-0.0389385 -0.0938272 0.404065
-0.177508 0.0459753 0.415133
-0.167233 0.161379 0.628854
0.069624 0.105932 0.404065
-0.0728808 0.221328 0.806406
-0.0451204 -0.139502 0.413293
-0.00152999 -0.215152 0.315292
0.0190971 0.120964 0.404065
-0.162417 0.132825 0.412516
0.0882656 0.157568 0.310394
-0.167187 -0.141206 0.299345
0.214034 0.0487226 0.298167
0.0441779 -0.0955516 0.404065
0.150428 0.144746 0.359538
-0.20907 -0.0882343 0.315803
-0.150343 0.146235 0.486971
-0.144666 -0.151998 0.404065
-0.139497 0.205312 0.697607
0.0470389 0.0980315 0.404065
-0.189176 -0.182389 0.3802
-0.115679 -0.188398 0.411372
-0.0134068 0.0928962 0.413293
0.188843 0.0261121 0.396412
0.212971 -0.000709806 0.309098
0.00727689 0.164415 0.406367
-0.0800212 -0.0213944 0.404065
0.0900296 0.0810362 0.413293
0.100939 0.163182 0.298623
0.183168 -0.176916 0.258256
-0.0267029 -0.131071 0.404065
-0.187202 -0.0248016 0.378228
-0.0242442 0.0665483 0.404065
0.178594 0.0510124 0.378228
0.125377 -0.111671 0.413293
0.195761 -0.103982 0.392118
0.177726 0.205901 0.0190422
-0.12856 0.0259464 0.413293
-0.0822643 -0.201702 0.297959
-0.111316 0.209756 0.724971
0.17283 0.203035 0.778744
0.11336 0.138461 0.410533
-0.171083 0.141945 0.321273
0.153943 0.177139 0.636121
-0.0218932 0.017236 0.413293
0.149008 0.120895 0.41191
-0.168869 0.18332 0.105271
0.161391 0.168122 0.173268
0.145839 -0.16454 0.404065
0.0726413 -0.176484 0.40043
-0.00691992 -0.0743923 0.404065
-0.174577 0.1682 0.126085
0.162924 0.158935 0.564932
0.179739 -0.175692 0.0290421
-0.128306 -0.067917 0.413293
-0.141637 0.150715 0.534675
0.176071 0.143032 0.31668
0.182866 0.15288 0.577252
-0.0683727 -0.0798826 0.413293
-0.0133403 0.174054 0.301167
-0.167024 -0.11934 0.404065
-0.176419 -0.158777 0.196146
0.160565 0.0252484 0.404065
0.17378 -0.176669 0.382207
0.149861 -0.169488 0.31503
-0.214836 0.0225621 0.315615
0.117445 -0.188825 0.405147
-0.162632 0.165303 0.59057
0.153183 0.149601 0.241463
0.0777204 -0.0130139 0.404065
-0.0525624 0.151336 0.389583
0.171849 -0.159575 0.218386
0.139772 0.0704322 0.413293
0.107676 -0.184691 0.299509
0.0447749 0.0306152 0.413293
0.0495358 -0.213117 0.298494
0.0394635 -0.188682 0.400503
-0.182845 0.190057 0.728068
-0.156114 0.13385 0.435961
0.109907 -0.167287 0.413293
0.00642091 -0.188621 0.395802
-0.0898657 -0.176186 0.382258
0.173273 0.161762 0.542072
0.163869 0.156154 0.471641
-0.178423 0.172153 0.615611
-0.0648736 0.164881 0.301424
0.182217 -0.1765 0.187562
-0.152398 0.178931 0.625017
-0.124577 -0.110751 0.413293
-0.0610583 0.0985795 0.413293
0.0932182 0.0639383 0.404065
-0.182708 0.0672105 0.414581
0.0359501 -0.217319 0.3136
0.054709 0.217208 0.806803
0.179271 0.171815 0.101774
0.0551856 0.205926 0.738902
-0.148658 -0.0351437 0.404065
-0.105797 -0.182851 0.302832
0.0456911 0.172172 0.315397
0.186776 -0.0508572 0.378228
0.176711 -0.183609 0.415133
0.0206596 -0.0546393 0.413293
0.173379 -0.17899 0.310761
-0.186869 0.205119 0.76251
0.121943 0.194831 0.713704
0.212422 -0.10184 0.302388
0.170486 0.1195 0.392888
-0.0626116 -0.0480942 0.413293
-0.153816 0.156484 0.274843
-0.0438216 0.11055 0.404065
0.19328 0.0820991 0.315565
0.184844 -0.171766 0.0787915
0.00824274 -0.0274191 0.413293
-0.0644027 0.0129 0.404065
-0.065712 0.213066 0.721244
-0.172302 0.164005 0.174955
-0.182491 -0.16586 0.0915302
0.0387856 0.152098 0.393467
-0.165745 0.0938065 0.390406
0.191698 -0.0855635 0.415133
0.0120175 -0.128703 0.413293
-0.232065 -0.0266344 0.303519
0.171329 -0.107634 0.413293
-0.201529 0.0552431 0.30196
-0.0149814 0.152196 0.41145
0.156834 0.152922 0.319792
-0.17851 0.185435 0.698485
0.126707 0.117546 0.404065
-0.120892 -0.156643 0.413293
0.174454 0.137605 0.362427
-0.102778 0.14882 0.310158
0.172469 0.0744376 0.414791
0.171943 0.113084 0.298242
0.176907 -0.122158 0.306986
0.187312 0.185354 0.67856
0.0435039 0.164184 0.383276
-0.170547 0.157221 0.229548
-0.171507 0.0526843 0.378228
-0.115625 -0.0845151 0.404065
0.144599 -0.0221444 0.413293
-0.180829 -0.171982 0.390815
-0.161581 0.189507 0.0736195
-0.00395407 0.221265 0.733174
-0.00260849 0.11887 0.413293
-0.170196 -0.142198 0.315558
-0.161738 0.198387 0.0219692
-0.171072 0.0291058 0.397318
0.158661 0.137197 0.282748
-0.0600206 0.210511 0.820949
0.123867 0.216169 0.813509
-0.170161 -0.176882 0.179169
0.0103488 -0.175215 0.413293
-0.163802 -0.15959 0.326058
0.207461 0.0239992 0.30895
-0.166434 -0.176972 0.314239
0.126386 -0.135024 0.413293
-0.0780071 0.13008 0.413293
-0.0483632 0.180645 0.312247
0.0688583 -0.188736 0.409959
-0.151894 0.0837691 0.404065
-0.0475196 0.055642 0.413293
-0.0544532 -0.157332 0.404065
-0.148345 0.136601 0.39146
-0.155639 0.156792 0.50586
0.0672307 0.0218853 0.413293
0.13552 0.131497 0.300152
0.0653135 0.137454 0.404065
0.198074 0.189977 0.704661
-0.177139 -0.0772901 0.380729
-0.16972 -0.0777061 0.404065
0.0864604 0.146315 0.388092
-0.164329 -0.16965 0.0343798
-0.00744981 0.0360724 0.413293
0.0927935 0.154287 0.415133
-0.169051 0.0645563 0.397535
-0.159523 -0.00395039 0.413293
0.183421 -0.131167 0.401556
0.117179 0.0541113 0.413293
-0.177164 0.182371 0.66915
0.0731837 -0.0578225 0.413293
-0.163879 0.161917 0.533778
-0.0334909 0.221092 0.740216
0.178843 -0.179409 0.342425
-0.180188 -0.130778 0.396575
-0.0772629 0.0462965 0.404065
0.164639 -0.168339 0.201416
0.0227304 0.210704 0.817074
0.147595 -0.104398 0.413293
0.0191933 0.182879 0.298459
0.149853 0.149824 0.567161
0.0298037 -0.012496 0.413293
-0.0858955 0.202224 0.719144
-0.097372 0.155932 0.40382
-0.0124863 0.210482 0.820736
0.154193 0.15088 0.423357
0.194184 -0.0743329 0.378461
-0.172179 -0.178246 0.415133
-0.100725 0.0611051 0.413293
-0.105967 -0.12704 0.413293
-0.0346538 -0.0318871 0.413293
-0.192371 -0.141568 0.415133
0.176916 -0.00904538 0.399681
0.0759479 -0.210945 0.300516
-0.12969 0.128942 0.404065
0.106722 -0.0170859 0.413293
-0.181322 -0.165446 0.0113145
0.164629 -0.158486 0.315162
-0.152474 0.206832 0.803438
0.09517 -0.0669412 0.404065
-0.0543746 0.0772112 0.404065
0.163605 -0.0766442 0.413293
-0.213997 -0.056392 0.315379
-0.0342329 -0.188547 0.413615
0.01545 -0.100356 0.404065
0.0754546 -0.188748 0.38363
0.178564 -0.039987 0.410244
-0.100564 -0.0335916 0.404065
0.163813 0.162692 0.620312
0.162549 0.169587 0.597156
0.0486777 -0.0451748 0.404065
0.17041 0.160575 0.229259
-0.0261269 0.185072 0.311346
-0.185964 0.19397 0.745625
0.0656139 0.0468487 0.413293
-0.165496 -0.174595 0.128603
0.0345457 0.0816604 0.404065
-0.0974818 0.126049 0.413293
-0.172955 0.16821 0.662902
0.108954 -0.0491765 0.413293
0.215484 -0.0268233 0.302678
0.0981337 -0.107988 0.413293
0.155963 0.132461 0.406949
0.136838 0.209557 0.790691
-0.157977 -0.164042 0.413293
-0.123917 -0.0516962 0.413293
-0.214684 0.059967 0.313186
-0.160364 0.127088 0.298159
0.0464898 0.142173 0.413293
0.186356 -0.164342 0.237968
-0.161155 0.154542 0.35945
-0.172665 -0.156104 0.34461
-0.0375228 0.0237857 0.404065
-0.0628578 -0.0940971 0.413293
-0.0129434 -0.0403221 0.413293
0.178411 0.178104 0.652675
-0.102837 0.140989 0.394464
0.152943 0.202375 0.70397
0.197335 -0.133572 0.39971
0.0837369 -0.129203 0.413293
-0.191545 -0.0880533 0.386609
-0.170292 0.155296 0.487497
-0.175969 -0.0567758 0.413061
0.178502 -0.15901 0.199698
0.150181 -0.129273 0.413293
0.154225 0.151234 0.401221
-0.166034 0.165211 0.565743
-0.158702 0.0365516 0.413293
0.155829 0.143418 0.48877
-0.181803 -0.175981 0.29394
-0.0854012 -0.0690513 0.404065
-0.0885938 -0.00766744 0.404065
-0.0157215 -0.026755 0.413293
-0.159014 0.131103 0.362326
0.131235 0.0223744 0.413293
-0.21155 -0.0956822 0.298217
-0.12972 0.136361 0.314139
0.0286172 0.0500179 0.413293
-0.172603 0.184453 0.0404893
0.0213554 0.142131 0.404065
0.0993861 -0.204557 0.308564
0.174145 -0.160905 0.0171387
0.176217 0.16193 0.184259
-0.134161 0.0706535 0.413293
0.169593 0.139086 0.261726
-0.0744157 -0.120007 0.413293
0.211052 0.0517284 0.315763
-0.172973 -0.156945 0.2561
0.00232708 -0.115025 0.404065
-0.0387769 -0.00527587 0.404065
0.0781294 -0.155517 0.413293
-0.163757 0.106707 0.415133
0.167664 -0.173337 0.132741
0.192569 -0.0439483 0.399537
0.0746702 0.203455 0.733209
0.0870334 0.0174736 0.404065
-0.0558829 0.1636 0.403147
0.174664 0.152663 0.604286
-0.0802945 0.0272318 0.413293
0.19478 -0.172598 0.415133
-0.172915 0.144794 0.453702
0.220088 -0.0765691 0.302
0.0426923 -0.13589 0.413293
-0.193753 -0.126844 0.392076
-0.182989 0.0622754 0.392364
0.0628618 0.00601004 0.413293
0.0475884 0.041059 0.404065
-0.171103 0.154545 0.611247
-0.194648 0.0911449 0.304597
-0.149862 -0.176077 0.386335
-0.217199 -0.0105612 0.300731
0.00515942 0.00387518 0.413293
-0.129829 -0.176113 0.406932
0.16689 0.197259 0.679295
-0.162529 -0.168803 0.149829
-0.180083 -0.116885 0.378228
0.173962 0.0464018 0.405569
0.159943 0.150148 0.185417
-0.116816 0.149451 0.378398
-0.0807054 -0.207667 0.314845
0.022215 0.152128 0.413101
-0.0575272 -0.188504 0.400209
0.0674994 -0.042249 0.404065
0.089597 0.117704 0.413293
-0.173435 -0.0123356 0.397571
0.184073 -0.161407 0.16891
-0.137718 -0.188358 0.400797
0.176349 -0.156615 0.347453
-0.173442 0.162448 0.152645
0.177041 0.181373 0.0487861
-0.107656 -0.171153 0.404065
-0.082664 -0.188459 0.38995
-0.149136 0.191918 0.684224
0.193552 0.198464 0.73892
-0.0693921 -0.176224 0.398422
0.172063 -0.159014 0.378228
0.181131 0.100919 0.315183
0.0930896 0.0978524 0.413293
-0.057015 -0.20011 0.306339
0.114335 -0.17656 0.381466
-0.0403762 -0.211314 0.29754
-0.161134 0.155121 0.322065
-0.173832 -0.157898 0.404065
-0.183174 -0.166795 0.11174
-0.00176537 0.0538122 0.413293
-0.158354 0.132095 0.340723
-0.114835 -0.0129049 0.413293
-0.129573 0.204725 0.716853
-0.0847878 0.0696171 0.404065
0.177344 0.143999 0.534293
0.15102 -0.0416781 0.413293
0.00575568 0.0864384 0.404065
-0.147825 -0.130643 0.404065
0.19129 -0.0199109 0.392758
-0.0706888 -0.0347745 0.413293
-0.185754 0.0136907 0.382226
-0.0386 0.16436 0.387028
0.159207 -0.146163 0.404065
-0.188906 -0.130882 0.30047
0.117102 0.0408592 0.404065
-0.165844 0.143535 0.54658
-0.168865 0.150914 0.375105
0.165784 0.157679 0.493251
-0.0435437 -0.176271 0.382958
-0.152883 0.171193 0.643938
-0.0522053 0.125912 0.404065
-0.15577 -0.108926 0.413293
-0.0409664 0.148335 0.404065
0.175211 -0.136145 0.413293
-0.18795 -0.0248782 0.402453
-0.156284 0.154223 0.412032
-0.179156 -0.175495 0.158179
0.0332388 -0.0729371 0.413293
0.15582 0.147041 0.504955
-0.0507265 -0.0357318 0.404065
0.00646086 -0.0677372 0.413293
0.10334 0.220937 0.815461
0.18516 -0.163832 0.388456
0.158513 0.161281 0.151837
-0.157528 0.211927 0.782812
-0.161242 -0.167048 0.378228
-0.152072 -0.168922 0.314413
-0.172938 0.156431 0.204254
0.207927 -0.0628518 0.311664
-0.0316548 -0.109479 0.404065
-0.036298 0.143609 0.413293
-0.179391 -0.161388 0.0547706
0.0247651 -0.188655 0.393005
-0.098253 -0.0844163 0.413293
0.123348 -0.00341185 0.404065
-0.174249 0.103124 0.378228
0.0996138 -0.176533 0.394761
0.143286 0.0874839 0.413293
0.164514 -0.170141 0.270088
-0.13243 0.0125173 0.404065
0.159753 0.131056 0.386406
-0.170568 -0.159169 0.133003
0.01941 0.220268 0.730464
0.160312 0.00149718 0.413293
0.155507 0.134979 0.321344
-0.169402 0.191055 0.684619
0.175146 -0.142286 0.315518
-0.166837 -0.176715 0.276704
0.1787 0.16748 0.122849
0.0510849 0.167496 0.300969
0.08142 0.0500143 0.404065
0.179154 0.16308 0.65276
0.161592 0.1574 0.270832
0.166852 0.128495 0.305939
0.159128 -0.1563 0.297985
-0.103506 -0.188304 0.378228
0.023369 0.0121738 0.413293
0.171668 0.0840252 0.39167
0.0926802 -0.171783 0.413293
0.194905 0.19509 0.777527
0.171938 0.151959 0.432043
0.113523 0.15177 0.402148
0.177808 -0.157942 0.274672
-0.164934 -0.0614188 0.404065
0.197014 -0.114231 0.298071
0.201 0.0774638 0.299607
0.164139 -0.165897 0.336491
-0.00719757 -0.168964 0.413293
-0.141853 0.0364076 0.404065
0.0252352 0.164382 0.393949
-0.165287 0.13885 0.504508
0.112667 -0.0922584 0.404065
-0.106828 -0.197952 0.300553
0.175328 -0.15981 0.0785232
0.0055078 0.213275 0.827578
0.0373952 -0.176419 0.41223
0.169324 -0.0195427 0.413293
0.121603 -0.155534 0.413293
-0.139837 -0.048242 0.404065
-0.214653 -0.0470054 0.29877
0.148081 -0.177713 0.378228
-0.161457 -0.168525 0.227232
0.0688051 0.0904264 0.413293
0.148128 -0.0815474 0.413293
0.160207 -0.165877 0.413293
-0.0411197 -0.0808525 0.413293
0.189749 0.00907138 0.408108
0.0719785 0.215077 0.805537
-0.0194324 0.0491915 0.413293
-0.00873311 0.0088168 0.404065
0.0412339 0.0853016 0.413293
-0.0424975 0.0767733 0.413293
0.0752984 0.00641543 0.404065
-0.194609 -0.17075 0.415133
-0.0481587 0.0398893 0.404065
-0.0348235 -0.176287 0.402836
0.00432339 0.0420798 0.404065
-0.180642 0.175357 0.632691
-0.227689 -0.0465745 0.309738
0.0426203 -0.15366 0.404065
0.159602 0.148798 0.535913
-0.0728103 -0.0127947 0.413293
0.065921 0.162999 0.307328
-0.0826134 -0.0873849 0.413293
-0.0151783 -0.141297 0.413293
-0.10913 0.157679 0.298212
-0.0917228 -0.130235 0.404065
-0.0323224 -0.151411 0.404065
0.0551384 -0.0854854 0.413293
-0.101601 0.208655 0.71033
-0.103912 -0.163525 0.413293
-0.146913 0.147118 0.370902
0.0360677 0.0163251 0.404065
-0.0232007 0.164471 0.395646
0.0870754 -0.0787914 0.413293
0.186164 -0.167574 0.0983793
-0.175549 0.0965533 0.314971
-0.038761 -0.0613227 0.413293
0.181616 -0.0972953 0.401381
0.00383354 -0.224294 0.301749
-0.0296716 0.116192 0.413293
0.0587999 0.156219 0.415133
-0.0518117 -0.0795022 0.404065
-0.195862 -0.163887 0.378798
-0.13201 -0.0810998 0.404065
-0.174822 -0.0366592 0.396544
0.172623 -0.0562714 0.404065
0.164904 0.167804 0.642128
-0.183801 -0.11652 0.415133
0.10431 0.024326 0.413293
-0.141405 -0.00203936 0.413293
0.0178865 -0.207317 0.308649
-0.00143709 0.152172 0.397861
-0.143485 0.0498078 0.413293
-0.172907 0.203166 0.776926
-0.134502 -0.0273477 0.413293
-0.0172487 0.122636 0.404065
0.177207 0.154432 0.206485
-0.126262 0.206028 0.796773
0.0986919 0.212838 0.730673
0.182747 0.0972378 0.388658
-0.0903414 0.207321 0.811179
0.192095 0.170849 0.644325
-0.190398 -0.0678972 0.408146
-0.173812 -0.188172 0.386099
-0.218214 0.0482672 0.30163
-0.195848 0.0762587 0.315904
0.163941 0.184226 0.0915671
-0.195523 0.192745 0.767376
-0.161809 -0.16303 0.35771
0.167729 0.151764 0.588544
0.0902442 0.158392 0.379298
0.0781265 0.144372 0.413293
0.0628511 -0.128226 0.413293
-0.162792 0.116051 0.378228
0.151787 -0.182541 0.415133
0.222537 0.0352431 0.308635
0.0609041 0.0601801 0.404065
0.186685 0.0666944 0.400667
-0.0991939 -0.0570573 0.404065
-0.179294 0.162347 0.580823
-0.133592 0.142222 0.412682
0.188822 0.178012 0.713499
-0.150702 -0.0737697 0.404065
-0.170367 -0.175234 0.0196422
0.0725793 -0.0950227 0.413293
-0.187629 -0.108267 0.30879
-0.177198 0.15554 0.547222
-0.212045 0.00450733 0.309774
0.164989 0.153955 0.369666
-0.186163 -0.00462054 0.378228
-0.167213 0.175724 0.139991
-0.176991 -0.177095 0.231784
-0.16858 0.138898 0.286859
0.181934 -0.159073 0.311519
0.129491 0.0681313 0.404065
0.182587 -0.11551 0.383878
0.131928 -0.169092 0.404065
0.116501 0.107935 0.413293
0.110634 0.152696 0.383304
-0.151388 -0.021229 0.413293
-0.182883 -0.175864 0.35495
0.0615148 0.121486 0.404065
-0.0146743 -0.0845581 0.413293
0.177669 0.162052 0.148612
-0.0337134 0.133064 0.404065
0.00269613 0.106713 0.404065
-0.18123 -0.149039 0.392742
-0.166959 -0.0395657 0.413293
-0.145449 0.121003 0.399358
-0.0875287 -0.143842 0.413293
0.144463 -0.065152 0.404065
0.150879 -0.152082 0.413293
-0.150762 0.116628 0.412343
0.177355 0.16332 0.56372
0.229982 0.000828587 0.309565
-0.0260399 -0.0955907 0.413293
-0.070616 0.0786307 0.404065
-0.114269 -0.0278272 0.413293
-0.0821442 -0.0541133 0.413293
0.178351 -0.157885 0.298541
-0.184104 0.0426887 0.401448
0.149971 0.143715 0.379471
0.206559 0.202533 0.755346
0.0598072 0.224307 0.819955
0.173424 0.056514 0.395614
0.178177 -0.179857 0.361362
0.190199 -0.177097 0.378228
0.0247301 -0.0893233 0.413293
-0.101896 0.024551 0.404065
0.167167 0.184296 0.688672
0.141954 0.0312217 0.404065
-0.192367 -0.102495 0.378865
-0.0627475 -0.105891 0.404065
0.184338 -0.148394 0.398393
0.0284906 0.0389833 0.404065
0.00191977 0.15599 0.415133
0.1586 0.0700076 0.413293
-0.148729 0.148452 0.433536
0.0884451 -0.014967 0.413293
-0.169342 -0.175839 0.110507
-0.141559 0.125779 0.309665
0.10741 -0.189627 0.315784
0.000649288 0.176552 0.312571
0.0790056 -0.144683 0.404065
-0.113593 0.196092 0.713401
0.13716 -0.188861 0.383811
0.198828 -0.161648 0.395629
0.173073 0.13598 0.448589
0.179725 0.0121382 0.378228
0.216516 0.0317067 0.297912
-0.114098 -0.145073 0.404065
-0.0133603 -0.176326 0.396033
-0.225321 0.0121733 0.300153
0.0191794 0.0699099 0.413293
0.0584352 0.0783518 0.404065
0.147857 0.10997 0.413293
0.0755162 0.127325 0.413293
-0.115681 0.136269 0.411583
-0.17189 0.0147651 0.399275
0.104734 0.0708955 0.413293
0.178094 0.174005 0.677125
-0.133827 0.102588 0.413293
-0.134427 0.141778 0.396706
0.154118 0.210584 0.784903
-0.116209 0.142376 0.301088
-0.0965985 0.0497534 0.404065
0.220416 -0.0105666 0.298199
-0.150003 0.154478 0.227468
-0.0032311 0.20775 0.741981
0.0877026 -0.111859 0.404065
-0.157159 0.178227 0.0874031
0.194966 -0.0890242 0.385769
-0.161059 0.181449 0.0577925
-0.0586562 0.0568391 0.404065
-0.158612 0.152368 0.566719
0.0568114 0.219891 0.735908
-0.197361 0.197603 0.730286
-0.168007 0.157677 0.250492
0.00191389 -0.188435 0.378228
0.070482 0.149371 0.39224
0.157052 -0.0270772 0.404065
-0.138946 0.218829 0.800701
0.0695849 -0.164114 0.413293
-0.163965 -0.170347 0.091166
0.175792 -0.15907 0.131177
0.114613 -0.175653 0.404065
0.180429 0.103318 0.404123
0.0529296 0.019722 0.404065
0.122163 -0.174171 0.301436
0.0327551 0.144148 0.413293
0.181007 0.196016 0.0449276
0.172779 0.14455 0.225771
0.0431924 -0.17643 0.39017
0.0460177 -0.202652 0.310095
-0.179891 -0.174215 0.0650901
-0.0627091 0.111909 0.404065
0.0079769 -0.0896384 0.413293
0.193549 -0.0623937 0.398805
0.0575631 -0.188132 0.378228
-0.118394 0.135198 0.391436
0.172629 0.210088 0
0.172016 -0.185197 0.378228
0.165879 -0.171826 0.221904
-0.159538 0.140657 0.24016
-0.0855781 -0.176194 0.4114
-0.177956 -0.0916243 0.404412
-0.141987 -0.163943 0.413293
0.108838 -0.132443 0.413293
-0.143094 0.197197 0.711255
0.0383082 -0.184808 0.415133
-0.175179 -0.0138955 0.415133
0.165684 -0.172205 0.252527
-0.0614678 -0.148283 0.413293
-0.0556984 0.217789 0.806395
-0.170547 0.164363 0.646897
0.165269 0.0796158 0.404065
-0.171229 0.146407 0.411343
0.190397 -0.00310652 0.398634
-0.0101766 0.226094 0.820848
-0.146029 0.168237 0.58606
0.104887 0.141289 0.390181
0.036486 0.224232 0.813004
0.169799 0.093238 0.411317
-0.175855 -0.177789 0.256864
-0.167673 0.0802651 0.413293
-0.0432739 0.211549 0.824055
0.181822 -0.174814 0.406137
0.0461049 -0.0213128 0.404065
0.0819507 0.0888841 0.404065
0.187619 0.0491184 0.39307
0.130299 -0.0318889 0.413293
-0.120187 -0.173929 0.303558
-0.17787 -0.157392 0.413293
-0.115256 0.0682369 0.413293
-0.103756 0.146624 0.415133
0.122889 0.134646 0.397954
-0.0741788 0.14835 0.400914
-0.0574952 -0.00141548 0.413293
-0.0221329 -0.213747 0.315802
-0.0801545 0.160783 0.308185
-0.0671891 0.222965 0.822158
-0.0510235 -0.05291 0.404065
0.170854 -0.161832 0.0426412
0.181221 0.180431 0.0730122
-0.158011 0.174881 0.660649
0.147051 -0.117508 0.404065
0.0358391 0.182098 0.300114
0.0307189 0.128453 0.413293
0.151977 0.145337 0.439694
0.145056 0.137292 0.314575
-0.0762645 -0.163852 0.413293
0.125628 -0.0470523 0.413293
-0.166945 0.152716 0.33782
0.16064 0.164815 0.125304
0.173519 0.135138 0.379263
-0.184259 -0.167493 0.17412
0.140778 0.126168 0.40474
0.130533 -0.0678459 0.413293
0.0480727 0.210896 0.725775
-0.171446 0.186522 0.0890745
-0.12577 -0.0918008 0.413293
0.176395 0.000730172 0.414957
-0.177725 0.174003 0.690948
-0.0100357 0.026362 0.404065
0.15371 0.00635018 0.404065
0.0043083 -0.188618 0.412565
-0.045134 0.0330174 0.413293
0.10221 0.199299 0.716937
0.16428 0.178526 0.623565
-0.152228 -0.155592 0.311285
0.163438 0.106126 0.392077
0.156357 0.147686 0.551797
-0.0185799 -0.156573 0.404065
0.0562392 -0.155941 0.413293
0.182182 -0.176016 0.141697
-0.181947 0.0805833 0.404802
-0.0413824 -0.12892 0.404065
-0.169386 -0.158105 0.272017
0.0497301 0.130686 0.404065
-0.19501 -0.172633 0.393063
0.123266 0.207623 0.722114
0.0419247 0.115439 0.404065
-0.174714 -0.0347669 0.378505
0.185253 -0.170464 0.062202
0.131038 0.14694 0.299722
-0.014157 -0.0609405 0.404065
0.0820947 -0.0714464 0.404065
0.123357 0.101736 0.404065
-0.171953 -0.156771 0.304402
0.178691 0.202516 0.794347
0.174905 0.143187 0.279594
-0.132992 -0.188366 0.385272
-0.0671523 0.204635 0.735835
-0.203118 -0.103716 0.315666
0.162795 0.130936 0.35231
0.167312 -0.16179 0.233848
0.169068 0.137511 0.496621
-0.113465 0.217533 0.814744
-0.180761 -0.140817 0.380428
0.103351 -0.0726474 0.413293
-0.15045 0.0729911 0.413293
0.00721199 0.164415 0.389936
-0.10452 -0.0739952 0.404065
0.171243 0.114665 0.314953
-0.111036 0.0284993 0.413293
0.174672 0.0330869 0.401229
0.167614 -0.173714 0.151221
-0.179286 0.0962643 0.401892
0.179731 0.0632408 0.415133
0.00134897 0.0280617 0.413293
0.179912 -0.176486 0.108328
-0.182478 0.0308965 0.415133
-0.169905 0.168294 0.0993983
-0.169697 0.153133 0.275001
-0.177401 -0.158963 0.212284
0.158423 0.0384035 0.413293
0.0168347 -0.0379692 0.404065
0.115857 -0.112386 0.404065
-0.152724 0.150821 0.522327
0.16467 -0.176652 0.405322
-0.014009 0.162026 0.378228
0.0307545 -0.0491452 0.404065
-0.135769 -0.185568 0.415133
-0.153023 0.0951267 0.413293
-0.0686132 0.123136 0.404065
-0.174875 -0.177486 0.195054
0.151497 0.171342 0.621506
-0.0226294 0.083984 0.404065
0.0799991 0.117862 0.404065
0.115115 0.0950094 0.404065
0.06343 -0.176467 0.411416
0.21633 0.0137815 0.297938
-0.0540606 0.146272 0.404065
0.135577 -0.152314 0.413293
-0.14469 -0.142653 0.413293
0.18444 -0.150314 0.380262
-0.123027 -0.0230483 0.404065
0.00881367 0.225634 0.822414
-0.158729 0.162216 0.617223
-0.185214 -0.136594 0.312264
-0.0117325 -0.224347 0.305932
0.168351 0.215633 0.789221
-0.132369 -0.179148 0.298172
-0.0958342 0.222129 0.806644
-0.0878142 -0.0284811 0.413293
0.191152 0.201877 0.760395
-0.169912 0.138108 0.430586
-0.156195 0.155396 0.307195
0.0475007 -0.107769 0.413293
0.117194 0.158743 0.306989
-0.168925 -0.15861 0.241112
-0.176557 -0.067085 0.398167
0.158983 -0.0486884 0.404065
0.173455 0.151208 0.303431
-0.197166 0.207649 0.773947
0.0498174 -0.122076 0.413293
0.17683 -0.00743459 0.384672
-0.0309058 -0.184075 0.378228
0.0981084 0.0106104 0.404065
0.0607861 -0.0661363 0.404065
0.132587 -0.185017 0.305377
-0.171833 -0.188295 0.407005
-0.133521 -0.100671 0.404065
-0.170861 0.0328082 0.378373
-0.0966624 0.208208 0.732012
0.161401 -0.176646 0.388778
0.164949 0.181399 0.0591367
0.176275 0.14139 0.39765
0.171202 -0.0917502 0.413293
-0.0206396 -0.074854 0.404065
0.174456 -0.158982 0.184706
0.158612 0.157362 0.253654
-0.194697 -0.143422 0.391998
-0.0900936 0.15779 0.4149
-0.0980122 -0.176171 0.39541
-0.204406 -0.0717011 0.306391
0.145443 0.159476 0.555073
0.138718 -0.006511 0.413293
-0.068314 0.0384789 0.413293
-0.166675 0.159131 0.135601
-0.0837014 0.146293 0.38607
-0.0597303 0.219886 0.731647
0.0853049 -0.188766 0.397434
0.0313953 0.209472 0.728917
-0.044064 -0.159548 0.413293
-0.191541 0.185169 0.685966
0.0867187 0.218649 0.803787
0.0330508 0.152108 0.379021
-0.167538 0.0512107 0.404065
0.129636 -0.188847 0.398136
0.0810061 -0.0551918 0.404065
-0.175152 0.191911 0.0187199
-0.163407 0.134507 0.447689
0.111142 -0.145548 0.404065
-0.171531 0.215366 0.78804
0.157047 0.152226 0.385977
0.03504 0.0992614 0.413293
-0.0259485 0.208663 0.744598
0.106461 -0.0330683 0.404065
-0.0434078 -0.0197277 0.404065
-0.181499 0.189638 0.712977
-0.15631 0.133476 0.325772
-0.070693 -0.213492 0.304136
-0.162876 0.11219 0.298998
0.172122 -0.157923 0.36192
0.174498 -0.122423 0.413293
-0.149755 0.13588 0.416622
0.213999 -0.0925159 0.314135
0.0425772 -0.0349398 0.413293
-0.166556 0.00224153 0.404065
0.100489 -0.100194 0.404065
0.154106 0.148292 0.463383
0.18774 -0.105042 0.415133
0.0724212 -0.0249101 0.413293
-0.193774 -0.127205 0.411081
-0.120674 0.219684 0.799367
-0.0548072 -0.118552 0.413293
0.15957 0.161598 0.218196
0.0147214 0.0531209 0.413293
-0.163548 -0.176052 0.407082
-0.169322 -0.102982 0.404065
-0.0262066 -0.118528 0.413293
0.109137 0.208184 0.815561
-0.148146 0.159292 0.605236
0.150269 0.149239 0.528582
0.0534313 -0.188707 0.396367
0.105735 -0.162863 0.404065
0.0833344 0.164747 0.298277
0.00916114 0.221748 0.741199
-0.0825157 0.102106 0.413293
0.178473 -0.0761258 0.413293
0.0232082 -0.187597 0.378228
0.115072 0.146938 0.298169
0.156435 0.114565 0.402228
-0.219297 0.039099 0.313292
0.106785 -0.188805 0.3904
0.177963 -0.0287033 0.39295
0.0236768 -0.176394 0.406519
-0.139095 0.125435 0.413903
-0.172847 -0.158147 0.149214
0.174575 -0.159873 0.0982804
-0.188507 -0.0346701 0.389232
-0.029064 0.178967 0.297807
-0.181673 -0.170601 0.404479
0.155939 0.132652 0.372592
-0.152496 0.149542 0.549256
-0.155885 -0.123578 0.413293
-0.00294431 -0.125269 0.413293
0.204171 0.039381 0.303912
-0.104237 -0.180994 0.415133
-0.0696335 -0.0571848 0.404065
-0.191297 -0.0836928 0.400129
0.174484 0.15281 0.259704
-0.181477 -0.17517 0.212711
0.163008 0.162135 0.579272
0.0439982 -0.00872055 0.413293
0.212478 -0.0767464 0.315934
-0.170388 0.0411074 0.391446
0.0794386 -0.177191 0.415133
0.0715356 -0.0718505 0.413293
0.138885 0.127114 0.390681
-0.182636 0.16169 0.640696
0.0786644 -0.164455 0.404065
-0.0941697 -0.191335 0.300616
-0.0761243 -0.196897 0.308287
0.162521 -0.168365 0.37446
0.169101 0.164193 0.108815
0.181367 0.0804707 0.306586
0.142041 -0.0946511 0.404065
0.0915848 0.0313088 0.413293
-0.0446949 0.0994059 0.413293
0.101107 0.122424 0.404065
0.0235356 -0.115846 0.413293
0.195304 0.206712 0.786167
-0.174935 -0.156929 0.317177
0.0211657 -0.146734 0.404065
0.192171 -0.0364687 0.387167
0.163685 -0.133148 0.404065
-0.168292 0.077867 0.388274
0.169471 0.133185 0.409999
-0.169353 -0.160838 0.0203352
-0.0848915 0.123897 0.404065
0.0965412 -0.0117421 0.404065
-0.164657 -0.160866 0.205821
-0.195922 0.0640801 0.311863
0.171107 -0.176071 0.119029
0.169867 0.152656 0.334699
-0.180788 -0.103293 0.415133
0.0613631 0.21005 0.820179
-0.0612121 0.180053 0.305939
-0.0175984 -0.188578 0.388858
-0.162911 0.0199461 0.413293
0.0373951 -0.171604 0.404065
0.0161621 0.174234 0.313297
0.187645 0.0264665 0.378228
-0.0834 0.159269 0.400656
-0.160852 0.200302 0.689032
-0.168207 -0.159489 0.184484
0.165248 0.1888 0.0726935
-0.0956102 0.108997 0.413293
-0.112556 0.158722 0.313294
-0.184265 -0.165432 0.254123
-0.206339 0.033155 0.31126
-0.107474 -0.0460413 0.404065
-0.163251 0.181906 0.635876
0.180614 -0.0784764 0.379627
-0.0537968 0.015057 0.413293
0.0884049 -0.204554 0.298034
-0.112786 0.127356 0.404065
0.146692 -0.158074 0.304883
0.151567 0.138588 0.395352
-0.160768 0.157417 0.477239
-0.0498298 0.177542 0.298519
-0.114237 -0.113579 0.404065
-0.154107 0.155542 0.292206
-0.175586 0.203053 0.0274025
-0.232112 -0.0124365 0.301939
-0.11918 0.0404435 0.404065
0.0393257 -0.163147 0.413293
0.0163288 0.222977 0.811595
0.186344 -0.127467 0.297956
0.0293138 -0.131549 0.413293
0.0793037 -0.00445245 0.413293
0.0581542 0.180056 0.310039
-0.0860892 0.0802897 0.413293
-0.143618 0.133917 0.378228
-0.112139 -0.193666 0.313826
-0.0221845 0.0314859 0.413293
0.118402 0.0280009 0.413293
-0.186904 -0.00651349 0.39491
-0.0120298 0.0561347 0.404065
0.152523 0.199985 0.688382
0.0615595 -0.0937968 0.404065
-0.0157421 0.152198 0.399356
0.145076 0.20304 0.800372
0.199478 0.0696048 0.315822
0.0473748 -0.0784734 0.404065
-0.136347 -0.176101 0.389705
-0.151821 0.156151 0.187138
-0.146769 0.145407 0.406226
0.224192 -0.0294548 0.315728
-0.0286299 0.0771878 0.413293
0.0880834 0.217402 0.822241
-0.148475 0.149527 0.321222
-0.159935 0.105797 0.400923
0.122642 0.136401 0.307475
-0.169818 0.0985412 0.301751
-0.152679 0.144078 0.501226
0.00220954 0.0961377 0.413293
-0.100061 0.112812 0.404065
0.16626 0.157874 0.530789
-0.0735492 0.00812989 0.413293
0.0838776 0.159826 0.396235
0.100862 0.138476 0.404065
0.008404 0.144887 0.413293
-0.0130907 0.103179 0.404065
-0.164081 0.18097 0.117995
-0.115866 0.145239 0.314575
-0.142485 -0.179105 0.307535
-0.186756 -0.167896 0.369273
-0.183945 -0.162155 0.354256
-0.172122 0.142853 0.481924
0.154237 0.134996 0.301822
0.0286857 -0.207547 0.300169
0.179609 -0.144596 0.301679
0.0621506 -0.0508461 0.413293
0.183157 -0.173636 0.0120319
-0.167504 0.152587 0.596315
-0.0788265 -0.124661 0.404065
0.1041 0.158908 0.315591
-0.188404 0.179051 0.661716
0.216805 0.0614751 0.308209
0.186191 -0.0149165 0.378228
-0.0178883 0.220415 0.730769
-0.108218 -0.176153 0.382048
0.160057 0.109774 0.303904
0.073043 0.0600966 0.413293
0.12208 0.209614 0.708747
0.177892 -0.0273767 0.408648
-0.0216493 -0.176311 0.405702
0.14659 0.122327 0.304967
-0.150749 0.154267 0.205404
0.133219 0.19203 0.706781
0.19949 0.179042 0.696844
0.12285 0.129245 0.413293
-0.169036 -0.175071 0.0498348
-0.122631 0.0134742 0.413293
-0.0961533 -0.188434 0.389796
-0.16487 0.135617 0.307588
0.18915 0.0983161 0.304654
0.0994103 0.220807 0.803568
0.081424 0.0704665 0.404065
-0.00730759 -0.0524567 0.413293
-0.0415853 0.207709 0.742951
0.184195 0.0836744 0.415133
0.186356 -0.186568 0.389763
0.152685 0.145104 0.273646
-0.0306176 0.0102769 0.404065
0.068519 -0.178575 0.378228
0.171705 0.084053 0.378228
-0.00761834 -0.000290535 0.413293
0.0122651 -0.165636 0.404065
0.157096 0.138214 0.476446
0.176575 0.142806 0.45962
-0.183952 0.0453524 0.380446
0.170898 0.179358 0.63893
0.0952183 -0.0803414 0.404065
0.0504404 -0.214801 0.313587
-0.160617 0.155699 0.154006
-0.120071 -0.176131 0.395384
-0.0674178 -0.158795 0.404065
-0.159888 -0.167673 0.339022
0.0689371 0.21568 0.739581
0.0107221 -0.138431 0.404065
-0.0356562 0.174133 0.315434
-0.162129 0.190461 0.0346916
0.0618343 -0.118668 0.404065
0.122268 -0.0925784 0.413293
-0.157074 0.21655 0.795578
0.0199931 -0.0167296 0.404065
-0.100078 0.147334 0.378228
-0.169306 -0.177852 0.298109
-0.16189 0.146682 0.533648
-0.16982 0.149064 0.398386
-0.153132 -0.187237 0.415133
-0.164884 -0.162589 0.121476
-0.153919 0.15384 0.335244
-0.156295 0.200991 0.79212
0.102633 0.0852681 0.413293
-0.168315 -0.176043 0.388903
0.168959 -0.147265 0.413293
0.00438169 0.211692 0.729284
-0.112627 -0.161393 0.404065
-0.146455 0.169206 0.618238
-0.135765 -0.11374 0.404065
0.146331 0.162361 0.572488
0.182619 0.185288 0.690943
0.188168 -0.170667 0.310122
0.0504394 0.163867 0.394516
0.174966 0.139228 0.430246
0.130019 -0.103451 0.404065
0.0699562 0.0356237 0.413293
-0.116555 -0.189021 0.298361
0.127396 0.030956 0.404065
0.17721 0.143673 0.504928
0.184438 -0.161085 0.211259
0.193537 -0.0621596 0.385673
0.0523625 0.063958 0.413293
0.135382 0.219152 0.799507
0.0930936 -0.0960586 0.413293
-0.199612 -0.101077 0.298143
-0.0131764 0.186758 0.312329
-0.185655 0.0841381 0.298172
-0.183572 -0.170029 0.188728
-0.155481 0.129352 0.380937
0.145219 0.0585367 0.413293
-0.0565224 0.0681902 0.413293
0.0315285 0.170017 0.302613
-0.183929 0.176432 0.706247
-0.0622058 0.162773 0.387231
-0.180063 -0.128587 0.41183
0.219499 0.0248366 0.315271
0.212346 0.0342631 0.315644
-0.0698504 0.209301 0.81247
0.162355 0.151997 0.172749
-0.168243 0.135595 0.332287
-0.175658 0.173008 0.11009
0.164194 -0.166598 0.304986
-0.152552 0.136646 0.453899
-0.0289998 -0.217452 0.299037
0.121376 -0.191652 0.30806
0.0399661 0.0723709 0.413293
0.0292121 -0.176404 0.380885
0.174528 0.035777 0.413921
-0.193518 -0.12616 0.311635
0.0218123 0.0822054 0.404065
0.19802 -0.146469 0.398752
-0.136973 -0.0651984 0.404065
-0.0649238 -0.0692508 0.404065
-0.171243 0.176388 0.651622
-0.0567134 -0.176247 0.396148
-0.105328 -0.147342 0.413293
-0.189379 -0.0739784 0.378228
-0.0937838 0.0951248 0.413293
0.0858359 0.0579088 0.413293
-0.0698489 -0.188482 0.39152
0.0394956 0.00715442 0.413293
0.166521 -0.175806 0.321219
-0.0883791 0.0534611 0.413293
0.087108 0.146173 0.404215
0.156644 0.165432 0.631444
-0.0703487 0.142279 0.413293
0.176297 -0.179545 0.268837
-0.182672 0.160193 0.613461
-0.0251833 0.143109 0.404065
-0.0465713 0.152154 0.378228
0.137766 -0.0544138 0.413293
-0.0151454 0.21826 0.808954
0.0579613 0.15108 0.389841
0.149671 0.0692904 0.404065
0.108579 0.0628204 0.404065
-0.178751 0.168877 0.599399
-0.00571461 -0.17634 0.385593
-0.153219 0.164337 0.170374
-0.116235 -0.0756143 0.413293
0.0860893 0.0064972 0.413293
-0.174419 -0.160728 0
-0.178145 -0.0344183 0.415133
-0.0674748 -0.176227 0.411098
-0.167831 0.163858 0.549952
-0.0265769 0.164477 0.382542
-0.147637 0.148268 0.38364
-0.0661068 0.168316 0.315325
0.191408 0.0693701 0.302014
-0.167927 0.117683 0.410095
-0.129798 -0.144114 0.413293
0.173698 0.148958 0.195492
0.122699 0.21987 0.801344
-0.119648 -0.176132 0.408144
0.216851 -0.062724 0.297776
0.0887798 -0.19831 0.315339
0.183363 0.194474 0.0197773
0.173334 0.161186 0.216593
-0.147593 0.144074 0.296506
-0.195414 -0.156026 0.388831
0.170778 0.152021 0.354255
0.140718 -0.171668 0.413293
-0.0610389 -0.00944261 0.404065
-0.180763 -0.176553 0.311074
-0.0515928 -0.0926956 0.404065
0.0749674 -0.103408 0.404065
-0.157121 0.154613 0.372032
0.189125 0.18477 0.729372
-0.17624 -0.174921 0.00462542
-0.175592 0.105834 0.41072
0.0306358 0.0230673 0.413293
-0.17479 -0.0479694 0.404065
0.126922 0.205055 0.800954
0.111151 -0.119623 0.413293
0.177312 0.155195 0.514313
0.167695 0.133542 0.324242
0.200979 0.0525707 0.308226
-0.212546 -0.0442327 0.3124
0.137487 -0.171697 0.315758
0.0649262 -0.0023186 0.404065
0.0110334 -0.215875 0.315854
-0.039318 -0.0435857 0.413293
0.183204 -0.127092 0.388798
-0.0995061 -0.0657281 0.413293
-0.0708491 0.11489 0.413293
0.183915 -0.140448 0.388057
-0.16266 -0.0118851 0.404065
0.177518 -0.113504 0.404065
0.0569285 -0.0142408 0.413293
0.0628957 0.0292062 0.404065
0.218659 0.0082811 0.315754
-0.117583 0.0955037 0.413293
-0.0743189 0.203376 0.725615
-0.15417 0.186837 0.673173
0.172325 -0.168945 0.413293
-0.0197353 -0.0508391 0.413293
0.15003 0.0818845 0.404065
0.0619016 -0.211278 0.298741
-0.0620863 0.080621 0.413293
-0.0248819 -0.0182501 0.413293
-0.224945 -0.0102643 0.315767
-0.116171 0.149721 0.413458
0.0958411 -0.052958 0.413293
-0.0367258 0.0657081 0.413293
-0.139549 0.0169688 0.413293
0.134762 0.19859 0.717274
0.0253203 -0.000859946 0.413293
0.164557 0.179695 0.677383
0.0429682 0.206174 0.738348
-0.163577 0.193359 0.060453
0.123535 -0.144278 0.404065
0.168659 0.166014 0.193273
0.0629693 0.204522 0.729095
0.0839777 0.201903 0.7248
-0.176218 0.104211 0.390466
0.116642 -0.00957887 0.413293
0.151458 0.140716 0.416728
-0.146512 0.188489 0.697198
-0.0862346 0.214607 0.718067
-0.140225 -0.165191 0.313935
0.188788 -0.170439 0.352355
-0.100137 0.0711609 0.404065
0.00924328 -0.210751 0.300443
-0.00884788 -0.146642 0.404065
0.165701 0.0526324 0.413293
-0.123326 0.078096 0.404065
-0.0629032 -0.0320523 0.404065
0.169148 -0.159866 0.283302
-0.125243 -0.188381 0.402976
-0.168095 0.207052 0.0158461
-0.15769 0.139156 0.25635
0.0528387 0.0473956 0.413293
0.151955 0.147528 0.334251
0.11958 0.14966 0.391581
-0.225478 -0.0355994 0.314972
-0.172135 0.010459 0.409599
0.0877213 -0.140899 0.413293
0.0799267 0.0219668 0.413293
0.111028 -0.185403 0.415133
0.0340864 -0.102672 0.404065
-0.176448 -0.0651774 0.378423
-0.169543 -0.157913 0.284363
0.174374 0.160807 0.638407
-0.153175 0.0284245 0.404065
0.0595618 0.129446 0.413293
0.177073 -0.177096 0.0686347
0.0922087 0.0394717 0.404065
-0.125931 -0.0597162 0.404065
0.0376558 0.0406765 0.413293
0.154779 0.138527 0.453862
0.160062 0.191593 0.702578
-0.165985 -0.0909934 0.413293
0.180079 0.180463 0.664634
0.194095 -0.180789 0.404645
-0.187715 0.0968135 0.313238
0.197964 -0.145402 0.386396
-0.144299 -0.104522 0.413293
-0.084265 0.0343062 0.404065
-0.156999 0.128259 0.402484
-0.121023 -0.18737 0.378228
-0.138698 0.208674 0.808087
0.157032 -0.158247 0.404065
-0.0887347 -0.0808664 0.404065
0.184355 -0.176237 0.235684
-0.182266 -0.186507 0.413216
-0.167894 0.134065 0.370249
-0.179118 -0.174203 0.0374929
-0.0425901 -0.119521 0.413293
0.0116544 -0.146435 0.413293
-0.0138681 0.0433641 0.404065
-0.163409 -0.170994 0.161849
0.178518 -0.176823 0.0923024
0.171873 -0.161591 0.0304497
-0.122797 -0.12926 0.413293
0.00755766 0.125676 0.413293
-0.173792 0.200248 0
-0.131912 -0.151852 0.404065
-0.0177029 0.0619075 0.413293
-0.114264 -0.0400534 0.413293
-0.15641 0.165708 0.632532
-0.0878866 -0.210643 0.305424
-0.148474 0.1341 0.315317
0.174482 -0.134064 0.298257
0.174673 0.146987 0.375507
0.188069 -0.168713 0.226711
0.20231 -0.101804 0.315833
0.0262861 -0.0425477 0.413293
-0.202262 0.203985 0.76351
0.164978 0.139988 0.238172
0.176289 0.00272921 0.39667
0.049335 -0.1887 0.411763
-0.175883 0.151705 0.522347
0.172848 -0.179021 0.331847
-0.141963 -0.0713423 0.413293
-0.170675 0.0360609 0.411265
-0.120896 0.00576548 0.404065
-0.183392 -0.166325 0.147743
0.0191978 -0.222662 0.309179
0.177847 0.169872 0.139339
-0.0408149 -0.105486 0.413293
0.158616 -0.147375 0.310096
-0.148543 -0.0138963 0.404065
-0.172001 0.0128102 0.385242
0.0945264 0.0874882 0.404065
0.164286 0.139015 0.508246
0.125666 0.08905 0.404065
0.216214 -0.0122334 0.310955
0.175315 0.18697 0.678824
0.121377 -0.174646 0.413293
-0.165917 0.178111 0.670449
0.157973 0.160331 0.553985
0.148003 0.217019 0.793099
0.206317 0.199617 0.770086
0.197058 0.180611 0.683879
0.159083 0.153334 0.356942
0.188161 -0.167308 0.273455
0.0448607 0.211819 0.811205
-0.0420963 -0.188533 0.378608
0.0487272 -0.17644 0.409228
-0.166022 0.152984 0.419982
-0.036389 0.218999 0.728722
0.183075 0.155325 0.612469
-0.0514936 0.0281561 0.404065
0.168344 0.139693 0.249708
-0.19349 0.0681367 0.300818
-0.166931 -0.175277 0.140511
0.182189 -0.16158 0.0882249
0.178339 0.167835 0.588594
0.0453969 0.217888 0.744141
0.213239 -0.0905074 0.298525
-0.0422851 0.164206 0.40149
-0.185006 -0.0409146 0.378228
0.133117 0.208226 0.810709
-0.184113 -0.0922611 0.378228
0.0388379 -0.116239 0.413293
0.0351943 -0.0611351 0.413293
-0.180914 0.159118 0.629141
0.0160066 -0.116954 0.404065
-0.185091 -0.167984 0.235617
0.169326 0.100839 0.313298
-0.188695 -0.037967 0.400721
0.17979 -0.177198 0.169986
0.160956 0.176868 0.100471
-0.179369 0.0880668 0.378228
-0.194999 0.193609 0.715226
-0.15248 0.133767 0.352738
-0.108379 -0.106334 0.413293
-0.0260111 0.152217 0.40795
-0.161969 0.161771 0.236419
0.0839919 -0.0664328 0.413293
0.0906886 0.173199 0.302239
-0.220043 0.0109126 0.315792
0.194106 0.08837 0.300477
0.0711469 -0.18874 0.394689
0.169256 0.196224 0.00944864
-0.0606942 -0.207218 0.297588
-0.0953416 0.169979 0.311795
0.0291978 0.0710798 0.404065
0.111033 0.221608 0.806469
0.078463 0.0972954 0.413293
0.167039 -0.00421655 0.404065
0.135609 0.128752 0.415007
0.180463 0.17705 0.0843233
0.172969 0.137549 0.301414
0.0470493 0.2252 0.820069
0.0084134 0.150119 0.404065
-0.0706956 0.0542325 0.413293
-0.0798828 -0.134838 0.413293
-0.0305492 0.00293472 0.413293
-0.0452278 -0.176268 0.406485
0.137899 0.0583194 0.404065
-0.0962643 -0.120359 0.413293
-0.128471 -0.169174 0.310436
0.13224 -0.0591917 0.404065
0.152206 -0.173145 0.304096
0.165749 0.154832 0.311547
-0.0247491 -0.148136 0.413293
-0.0436583 0.134437 0.413293
-0.136197 0.140836 0.385123
0.180265 -0.178443 0.30125
-0.0754216 0.105763 0.404065
0.192126 -0.03562 0.407812
0.0621493 0.169987 0.297906
0.104052 -0.0545439 0.404065
-0.0303592 -0.220331 0.310623
-0.145769 -0.188343 0.389093
-0.0188552 0.186306 0.302065
0.187104 -0.166927 0.200735
-0.00458191 -0.0865305 0.413293
0.193544 0.173566 0.655635
0.115978 -0.039905 0.404065
0.165392 0.14441 0.545096
-0.0607987 -0.160747 0.413293
-0.155068 0.163484 0.569442
-0.160145 0.0941155 0.404065
0.161465 0.122293 0.297615
-0.169385 -0.160049 0.0923143
0.0652489 0.014982 0.404065
-0.219217 -0.0668197 0.314527
-0.154395 0.00107398 0.404065
-0.00981653 0.08177 0.413293
-0.21374 0.0647144 0.302544
0.0950871 0.144296 0.395718
0.0189532 0.164393 0.406905
0.166921 -0.168393 0.0118178
-0.124204 0.110208 0.404065
-0.0791541 -0.178495 0.378228
0.180073 0.148307 0.547448
-0.0200137 0.104953 0.413293
-0.0819637 0.146118 0.413293
0.194191 -0.0744513 0.390121
-0.179746 0.185696 0.685016
0.188409 -0.16849 0.248666
0.0266978 -0.0291175 0.413293
-0.182827 -0.153564 0.378228
0.0936261 -0.128729 0.404065
-0.180375 -0.159721 0.242875
-0.00551573 0.146875 0.413293
-0.174078 0.146861 0.500853
0.172564 -0.177645 0.214364
0.169205 -0.177086 0.278156
0.164702 0.127482 0.399061
0.114051 -0.105542 0.413293
-0.0472394 0.0124103 0.404065
-0.153946 0.159365 0.544438
-0.165881 0.0734281 0.404065
-0.220028 -0.0216887 0.298932
0.175753 0.0127803 0.405524
-0.0180693 -0.0334053 0.404065
-0.0473498 -0.188523 0.405775
0.123076 0.0579313 0.404065
0.176822 0.151993 0.496859
0.146116 -0.0126355 0.404065
-0.193557 0.202727 0.745363
0.0940102 0.128423 0.413293
-0.0725219 0.161422 0.392321
0.0738447 0.114548 0.413293
-0.0330478 0.0291419 0.413293
-0.0743687 -0.0899662 0.404065
0.0395107 -0.0235696 0.413293
0.148481 -0.000338912 0.413293
-0.0620908 0.155557 0.378228
0.067664 -0.150689 0.413293
-0.061739 -0.087236 0.404065
-0.153741 -0.176069 0.397179
-0.153776 -0.0535745 0.404065
-0.143559 -0.0248197 0.404065
0.149774 -0.139561 0.404065
0.151905 0.151775 0.578322
-0.0426939 0.0691299 0.404065
-0.0590831 0.153088 0.415133
0.191554 -0.0248655 0.403726
0.0368956 0.0474922 0.404065
-0.211675 0.0200893 0.29951
-0.00311686 -0.18023 0.415133
0.0469577 0.0779117 0.404065
0.155974 0.151284 0.478414
-0.147577 0.143217 0.443683
0.130161 0.204005 0.69962
0.195654 -0.101976 0.403406
-0.0920786 -0.187382 0.378228
-0.105727 0.0940991 0.404065
-0.161097 0.177523 0.128503
-0.183453 -0.162553 0.298379
-0.15542 -0.0349896 0.413293
0.182317 0.180099 0.701134
0.0589787 -0.200863 0.302453
-0.182786 -0.16696 0.07344
0.111989 0.198194 0.722752
0.0231434 0.221209 0.741223
0.167706 -0.0659792 0.413293
-0.170475 -0.175832 0.0713307
-0.130746 0.115204 0.413293
0.0860287 0.0420053 0.413293
0.185882 0.0817956 0.383245
-0.131443 0.0369575 0.413293
-0.190801 0.182643 0.73142
-0.182383 -0.164612 0.130793
-0.169097 0.162229 0.213257
-0.182348 0.0735367 0.390894
-0.156056 0.166558 0.580972
-0.0351116 0.048545 0.404065
-0.158478 0.150962 0.179545
0.0118565 0.0421353 0.413293
0.154377 0.0275285 0.413293
-0.0844145 -0.0164826 0.413293
0.173033 0.188594 0.0248837
-0.113634 0.138574 0.378228
-0.14634 0.157264 0.594234
-0.202485 0.191255 0.738145
-0.0198264 -0.0977228 0.404065
-0.11407 0.0617856 0.404065
0.0313538 -0.145721 0.413293
0.0675989 -0.0544921 0.404065
-0.172357 -0.1448 0.404065
0.117885 -0.188825 0.393838
-0.135713 0.0901842 0.404065
-0.161721 -0.165362 0.276067
-0.0074947 -0.0227614 0.404065
0.168226 0.111161 0.378228
-0.0863573 0.145719 0.397037
-0.171805 0.154239 0.190073
0.0199958 0.18708 0.308907
-0.17608 -0.178477 0.328244
-0.106943 0.208331 0.814841
0.0746492 0.16145 0.382724
-0.0291454 0.122648 0.404065
0.181602 0.163849 0.574999
0.0361681 0.105757 0.404065
-0.0978681 0.137306 0.413293
0.0926804 0.223431 0.812061
0.181978 0.108494 0.306891
0.173288 0.184529 0.0361473
-0.164006 0.166136 0.197767
0.187947 -0.166159 0.299814
-0.150931 0.144821 0.537012
-0.066141 -0.024488 0.413293
-0.0446185 -0.151881 0.404065
-0.00542904 0.0875873 0.404065
-0.149363 -0.108576 0.404065
-0.00721858 0.127699 0.404065
0.179595 -0.0593486 0.412664
0.184078 -0.165121 0.0202429
0.00356989 -0.06203 0.404065
0.0324699 -0.159585 0.404065
-0.0269983 -0.176301 0.412665
0.180932 0.158086 0.55446
0.157847 -0.102267 0.404065
0.0449969 -0.05038 0.413293
0.167484 0.135876 0.479965
-0.161514 -0.16678 0.23912
0.174475 -0.157507 0.320428
-0.185768 -0.114925 0.299969
-0.106372 0.220931 0.80303
-0.0360535 0.106537 0.413293
-0.183494 0.053403 0.409258
-0.0281823 -0.137473 0.413293
0.170046 -0.178388 0.369554
-0.157808 0.15575 0.462639
-0.180555 0.0904991 0.392375
-0.168797 -0.0664514 0.413293
-0.111995 -0.12901 0.404065
0.153374 0.103954 0.404065
0.113056 0.00894712 0.413293
0.172522 -0.159811 0.17372
-0.157185 0.162274 0.223925
-0.00900398 0.159739 0.415133
0.0802506 0.164242 0.314401
-0.159272 -0.14891 0.301008
-0.109314 -0.0993777 0.404065
0.181294 -0.161454 0.0692353
0.0109451 -0.0401372 0.413293
0.158808 -0.180786 0.378228
0.0588088 -0.0803992 0.404065
0.167577 -0.164073 0.123994
-0.0960779 -0.136703 0.413293
-0.149664 0.201972 0.688985
-0.152426 0.1189 0.306014
0.00743754 0.0292804 0.404065
0.179508 0.102038 0.415133
0.20445 -0.11423 0.306342
-0.181384 -0.139839 0.415133
0.210311 0.0704725 0.307467
-0.118408 -0.140609 0.413293
-0.0892709 -0.198818 0.315478
-0.183614 0.051301 0.39403
0.159253 0.145423 0.523259
0.0212889 -0.159149 0.404065
-0.182655 -0.167403 0.0455397
-0.180756 -0.177172 0.368064
-0.0351847 -0.127805 0.413293
0.124406 -0.0216609 0.413293
0.120092 -0.0840096 0.404065
0.0101567 -0.159845 0.413293
0.0418148 0.15085 0.404065
-0.0417685 -0.0747377 0.404065
0.183705 -0.187609 0.407519
-0.0455076 0.214341 0.809
0.163612 -0.0705448 0.404065
0.184481 -0.159537 0.355969
0.193115 0.18141 0.670016
0.0148341 0.116634 0.413293
0.155893 0.158778 0.190999
0.0333124 0.0604077 0.404065
0.0682026 -0.212143 0.313228
0.179924 -0.0655136 0.37936
0.176228 0.00386637 0.384652
0.161635 -0.0386459 0.413293
0.189571 -0.0539154 0.415133
0.18622 -0.166108 0.159158
-0.101094 -0.0950801 0.413293
-0.155399 -0.134598 0.413293
-0.189809 0.191888 0.75798
-0.16393 -0.165048 0.302218
-4.66108e-05 -0.0122911 0.413293
-0.156563 0.0620296 0.413293
-0.0628032 -0.116906 0.404065
0.1565 0.160801 0.179884
0.165016 -0.163673 0.350041
-0.174739 0.167695 0.140086
-0.152524 0.138137 0.286208
0.185533 -0.175565 0.281369
-0.17412 -0.0243506 0.399904
-0.0528252 0.119979 0.413293
-0.121027 -0.176904 0.3141
0.0407339 -0.141509 0.404065
-0.0870457 -0.176191 0.395687
-0.155012 0.154395 0.582353
-0.122272 0.084916 0.413293
-0.0834758 0.0632552 0.413293
-0.163336 0.182121 0.682836
-0.17144 0.022648 0.407014
-0.0145227 -0.135477 0.404065
-0.0508464 -0.140708 0.404065
-0.0488453 -0.0731258 0.413293
0.00424582 0.0721098 0.413293
-0.0719092 0.0973106 0.413293
0.13083 -0.114339 0.404065
0.170753 -0.160812 0.140862
0.0043835 -0.0317798 0.404065
0.0548068 0.163668 0.408242
-0.0703131 -0.0405714 0.404065
-0.0400383 -0.163728 0.404065
0.1055 0.041321 0.404065
-0.17609 -0.176295 0.126718
0.174575 0.139032 0.3359
0.0227751 -0.0599911 0.404065
0.15263 0.149598 0.37072
-0.0043003 0.0124814 0.413293
0.136348 -0.0954461 0.413293
0.217828 -0.0607029 0.315591
0.182163 -0.10756 0.39127
-0.209239 0.0705957 0.311018
-0.0839837 0.0228604 0.404065
-0.0841457 -0.115191 0.413293
0.0918795 0.105659 0.404065
-0.0923553 -0.0178397 0.404065
-0.170038 -0.176841 0.378228
