-0.0262314 -0.248045 0.382139
-0.0957864 0.0955295 0.385763
0.0398863 -0.266839 0.375894
0.164118 0.0877508 0.385763
0.0729977 0.0627078 0.41148
-0.208457 -0.260002 0.417581
0.17264 -0.120946 0.385763
0.17835 0.246458 0.602312
0.104266 -0.215608 0.385763
0.03134 0.257794 0.712261
0.207048 -0.245661 0.396887
-0.0557946 0.261136 0.712599
-0.163647 0.110373 0.41148
-0.105618 0.239821 0.655126
-0.0162459 0.242472 0.385763
-0.116534 0.0345904 0.385763
0.0784746 0.057822 0.385763
-0.0074774 0.0774014 0.41148
0.185277 0.0502375 0.382634
-0.21489 -0.200841 0.492322
0.114451 -0.0969983 0.385763
0.0112662 0.0716998 0.41148
-0.197161 0.242379 0.463428
0.182635 0.122654 0.394836
0.197926 -0.260104 0.346996
0.178603 0.247557 0.353271
0.186265 0.0268414 0.398538
-0.165147 0.24836 0.675828
0.0381328 0.153605 0.41148
0.172552 0.25105 0.695821
-0.147662 -0.165306 0.385763
0.0234845 -0.248045 0.378189
-0.116945 0.182416 0.41148
-0.19557 0.248922 0.297032
-0.198879 0.0732388 0.540427
0.0782662 0.0781086 0.41148
0.0695923 0.267528 0.720766
-0.180788 0.0137528 0.41148
0.187074 0.00548315 0.388666
-0.0320561 -0.0357309 0.385763
-0.189207 0.236277 0.624252
-0.0676126 0.238503 0.644399
-0.152311 0.249338 0.603724
0.0441913 -0.0261501 0.41148
-0.0969251 -0.0664998 0.385763
0.102917 0.168067 0.385763
-9.34005e-05 -0.201703 0.41148
0.190736 0.234394 0.468285
0.165331 -0.203372 0.385763
-0.175078 0.256312 0.645822
-0.0792462 0.245889 0.704526
0.0364726 -0.267794 0.387955
-0.0172713 0.250625 0.385763
0.0612767 0.0185906 0.41148
0.0436564 0.0845134 0.385763
-0.216924 0.081833 0.546606
0.038516 0.0427411 0.41148
-0.199681 -0.263806 0.0165797
-0.20044 -0.251082 0.339374
0.0467961 -0.107119 0.385763
-0.199473 -0.252294 0.196954
0.0369089 0.264359 0.692964
0.0281511 0.253416 0.403467
0.215303 -0.252519 0.226228
0.0891553 -0.105532 0.385763
-0.197979 -0.255496 0.369434
0.19868 -0.111143 0.517043
-0.124674 0.244813 0.41148
0.0597272 0.0904744 0.41148
-0.040514 0.235304 0.618341
-0.046271 -0.00310507 0.385763
-0.0323325 0.240993 0.664661
-0.0446158 0.237078 0.63279
-0.108813 -0.0185869 0.385763
-0.214513 -0.190503 0.379737
0.0639313 0.237619 0.637198
0.184242 0.234459 0.246662
-0.0773129 -0.151668 0.385763
-0.030647 0.00432259 0.41148
-0.216759 -0.162743 0.500611
0.11283 -0.187471 0.385763
-0.133829 0.25654 0.629296
-0.114553 0.24722 0.603983
-0.203186 0.115902 0.543659
0.188407 0.00949597 0.385763
-0.0213978 0.165299 0.385763
0.192289 -0.204338 0.385763
-0.140915 0.242359 0.6758
0.0850527 0.113324 0.41148
0.0944351 0.0543268 0.41148
0.053033 0.234181 0.385763
-0.204753 -0.0969814 0.385763
-0.0455448 0.0793966 0.385763
0.196772 -0.226356 0.385763
-0.214288 -0.264589 0.127299
-0.185896 0.0365788 0.387027
0.0702427 -0.207818 0.41148
-0.133959 -0.0214624 0.41148
0.0012354 0.0266195 0.41148
0.129544 0.0473377 0.41148
0.20111 -0.265597 0.255909
-0.214154 -0.264758 0.192974
0.0915975 0.172981 0.41148
0.0219967 0.237056 0.385763
-0.020452 0.215949 0.41148
-0.197666 -0.248686 0.420298
0.204904 0.103488 0.541074
-0.209654 -0.233954 0.385763
0.0942589 0.263518 0.730044
0.214209 0.11273 0.545269
0.0449351 0.233975 0.41148
0.187963 -0.0179699 0.397074
0.141668 0.237707 0.637911
0.216894 -0.250979 0.376684
-0.180686 0.235243 0.385763
0.21704 -0.257354 0.2123
0.0312841 -0.174098 0.41148
0.202962 0.178747 0.55483
-0.0450997 -0.217217 0.385763
0.100907 0.00606447 0.385763
-0.192825 -0.21191 0.385763
0.0444536 0.256211 0.626609
-0.0778414 0.262185 0.675283
0.179946 0.237652 0.033192
0.195397 0.249145 0.471596
0.0195133 -0.0813248 0.385763
-0.0688242 -0.22102 0.385763
-0.084714 -0.134683 0.385763
0.210779 0.116517 0.562056
0.125339 -0.199728 0.41148
-0.0883438 0.0920234 0.385763
-0.136112 -0.264287 0.385763
-0.0542931 0.226538 0.41148
-0.126102 -0.133298 0.41148
0.13966 -0.185481 0.385763
0.0412093 -0.125574 0.41148
0.00901497 0.254036 0.712494
0.168662 -0.00681797 0.41148
0.0751309 -0.0242466 0.385763
0.137954 0.133308 0.41148
-0.0145296 -0.0590533 0.385763
-0.0843925 -0.0830914 0.41148
-0.200742 -0.116171 0.519004
-0.208461 -0.26754 0.0150317
0.214577 -0.251608 0.232924
0.0823177 -0.20486 0.41148
0.0676314 0.086101 0.385763
0.211138 0.127112 0.545573
0.0133234 0.257546 0.637459
-0.17973 0.043428 0.385763
0.180261 -0.267794 0.40319
0.0504176 0.244463 0.69291
-0.196483 0.247665 0.210146
-0.210131 -0.181379 0.375894
0.191067 -0.0968192 0.385114
0.129371 0.147357 0.41148
0.196558 0.247336 0.485646
0.12513 0.0504459 0.41148
0.0853735 -0.265734 0.385763
-0.0904822 -0.181678 0.385763
0.0487883 0.0613823 0.385763
0.185389 0.049975 0.406874
-0.0582071 0.238446 0.643929
0.121694 0.246441 0.375894
0.067056 0.0176463 0.41148
0.0720363 -0.0391672 0.385763
0.197949 0.171369 0.56532
-0.110025 -0.0817841 0.41148
-0.216798 -0.253857 0.3961
0.206277 0.125981 0.564294
0.14695 0.251131 0.385763
0.13115 0.256829 0.631651
0.147753 0.238978 0.375894
-0.105974 0.241374 0.667783
-0.148256 0.0712765 0.41148
0.171187 0.2368 0.385763
-0.175509 -0.0413659 0.385763
0.183082 0.252071 0.577074
-0.13796 -0.267794 0.397056
-0.0204633 -0.190863 0.41148
0.0164797 0.0879801 0.385763
-0.161524 -0.267794 0.39076
0.197128 0.242233 0.199217
0.216924 -0.0176084 0.529761
0.0315725 0.105691 0.41148
-0.144227 -0.0544351 0.41148
-0.216977 -0.258742 0.0275166
0.0659557 0.243989 0.689048
0.00262368 0.184048 0.385763
0.21305 -0.265833 0.0546064
-0.0884888 0.222506 0.385763
0.108409 -0.262357 0.385763
-0.0832706 0.265131 0.715276
-0.187253 0.253173 0.520536
0.192184 0.235088 0.376118
0.00227552 0.265627 0.703289
0.179874 0.195517 0.394412
-0.178625 -0.267794 0.385219
-0.128662 -0.0519707 0.41148
0.198465 0.0880849 0.543929
-0.19834 -0.155809 0.501177
-0.208549 0.173413 0.572604
-0.0471985 -0.251091 0.375894
-0.0470663 0.264858 0.697028
0.154173 0.0773354 0.41148
0.165829 -0.0501619 0.385763
0.0105758 0.255435 0.620303
0.189553 0.253173 0.244255
0.121647 0.151151 0.41148
-0.197878 -0.25594 0.232382
-0.182318 0.075418 0.41148
-0.0158952 -0.248045 0.381929
0.0280245 -0.200313 0.385763
0.136458 -0.0654052 0.41148
-0.0119687 0.0475973 0.41148
-0.180516 0.250155 0.281512
-0.036547 0.244336 0.691873
0.0239929 0.0362208 0.385763
0.0837842 0.164663 0.41148
-0.180096 -0.267794 0.393246
-0.115667 0.24402 0.41148
-0.117566 -0.244343 0.385763
0.100118 -0.0781944 0.385763
-0.173037 -0.194217 0.41148
0.216506 -0.260831 0.0389537
0.0620668 0.263546 0.686345
0.0756288 0.114209 0.385763
0.110425 0.266626 0.716051
0.213071 -0.231211 0.468339
0.114189 -0.225224 0.41148
0.00435427 0.138654 0.385763
-0.0654263 0.142871 0.385763
0.0837744 -0.159465 0.385763
0.216584 -0.196285 0.490747
0.121369 -0.228067 0.385763
0.0406983 0.0419556 0.385763
0.0403582 0.265585 0.702955
-0.213622 -0.135167 0.515833
0.083505 0.093726 0.41148
-0.103984 0.222831 0.385763
-0.179672 0.23799 0.399703
0.0133792 0.159752 0.385763
-0.108799 0.244224 0.690958
-0.198104 -0.254948 0.335496
-0.216591 -0.255406 0.089238
0.187943 -0.0174815 0.383271
0.0210126 0.262808 0.680344
0.14656 0.254897 0.615919
0.165 -0.231475 0.385763
0.194535 0.25023 0.417829
-0.0651833 0.0882844 0.41148
-0.181367 0.251227 0.447207
0.0935827 0.000711054 0.41148
0.0121343 0.150699 0.385763
0.175457 0.0393549 0.385763
0.178398 0.24042 0.00587722
0.208873 -0.248299 0.235836
0.0631757 -0.259793 0.41148
-0.214411 -0.250862 0.388053
-0.00811547 0.247316 0.385763
-0.12995 0.257297 0.635454
-0.00701025 0.25179 0.385763
-0.149359 0.241134 0.665838
0.0376778 -0.146489 0.41148
0.0895023 0.0329041 0.41148
0.0531192 0.0395214 0.41148
-0.0714723 0.254326 0.611267
0.055955 0.113153 0.41148
0.183725 0.135959 0.375894
0.0990937 0.233678 0.382467
0.187215 -0.267794 0.391743
0.186219 0.245234 0.634004
-0.126046 0.025926 0.41148
0.15558 -0.0912758 0.41148
-0.21226 -0.266212 0.102013
-0.196759 0.240624 0.480744
-0.0213417 -0.115494 0.41148
-0.216521 -0.214319 0.480768
0.204414 -0.267211 0.377007
-0.150669 0.223702 0.41148
-0.179536 0.238162 0.517074
-0.169503 0.157817 0.41148
-0.0706617 -0.108243 0.41148
0.189533 0.175148 0.385763
0.161044 0.257413 0.678996
-0.195222 -0.209546 0.406263
-0.215986 -0.253388 0.265768
-0.167123 0.23433 0.41148
0.184678 0.0687189 0.388254
0.0760509 0.174978 0.385763
-0.202118 -0.259457 0.413812
0.205501 0.22469 0.562307
0.021601 -0.199182 0.385763
-0.0093849 0.094633 0.385763
0.09775 0.244879 0.41148
0.177791 0.24403 0.315052
-0.178226 0.245919 0.323275
-0.126524 0.0473222 0.385763
0.154307 -0.19705 0.385763
-0.127819 0.0226647 0.385763
0.0247148 0.114783 0.41148
0.0449399 0.145806 0.41148
-0.188123 0.0254701 0.375894
0.156343 0.258797 0.688636
0.0238809 0.264025 0.690242
-0.0746667 -0.248045 0.379561
-0.183616 0.175341 0.385763
0.178137 0.231594 0.381733
0.189268 -0.0524224 0.410973
-0.176289 -0.238984 0.41148
-0.150669 0.016595 0.385763
-0.205907 -0.0682494 0.510557
0.132983 0.0030632 0.385763
-0.0537293 -0.103707 0.385763
-0.172201 0.250632 0.661092
0.180064 0.239771 0.623223
0.151736 0.236676 0.62951
0.201881 0.111415 0.543831
-0.0557579 0.188629 0.41148
-0.178401 0.246681 0.305255
-0.0718632 0.233678 0.37958
-0.216529 -0.108195 0.516273
0.0646022 0.201316 0.385763
0.159296 -0.00257733 0.385763
-0.0583944 -0.153179 0.385763
-0.178253 0.241049 0.10772
0.163525 -0.0718057 0.41148
0.184833 0.252918 0.252146
-0.1417 0.248076 0.714963
0.19069 0.252719 0.180946
0.0842732 0.182017 0.41148
-0.0110079 -0.26336 0.385763
0.031998 -0.194858 0.41148
-0.0304215 0.267163 0.724812
0.0513516 0.211355 0.41148
-0.0507118 0.186421 0.41148
0.025259 -0.204066 0.41148
0.109653 0.224053 0.385763
-0.00118838 -0.235731 0.385763
0.200742 -0.156337 0.375894
0.0201581 -0.0358691 0.385763
0.0923783 0.069784 0.385763
-0.00651337 0.248944 0.603772
0.216777 -0.222966 0.468802
-0.154243 0.252158 0.603379
-0.114332 -0.0397558 0.41148
-0.0162019 0.0346944 0.41148
0.194378 -0.187285 0.403501
0.186279 0.253173 0.0900931
-0.215165 -0.207059 0.376042
-0.126706 0.209419 0.41148
-0.216968 -0.257047 0.226843
-0.119027 -0.0171743 0.385763
0.197644 -0.256969 0.256704
-0.13768 0.263362 0.684843
-0.100046 0.253787 0.730441
0.196465 0.247741 0.475035
0.189272 0.182427 0.375894
-0.0492658 0.248451 0.41148
0.197584 -0.257233 0.160728
-0.133011 0.26277 0.680039
-0.0621248 0.00163397 0.41148
0.212212 -0.0315352 0.535256
-0.213119 -0.250039 0.107888
-0.116208 -0.214558 0.41148
0.188941 0.138478 0.385763
0.198553 -0.253448 0.121317
0.0764695 0.0647936 0.385763
-0.18793 -0.212131 0.41148
-0.181491 0.152828 0.39748
0.186004 0.0337439 0.390644
0.183123 0.258167 0.677337
0.204717 -0.267357 0.1705
-0.109919 -0.0404526 0.385763
-0.192931 -0.144176 0.376502
0.100104 0.240865 0.663635
0.0748954 -0.267739 0.385763
0.205775 -0.26754 0.222477
0.182838 0.251954 0.216236
-0.150179 0.253416 0.382784
0.144002 0.26092 0.717911
-0.0477423 0.253416 0.410811
0.103286 0.0654488 0.385763
0.137384 0.25885 0.70114
0.212396 0.118273 0.544775
-0.101182 0.156062 0.41148
-0.216783 -0.256241 0.145263
0.0961106 0.0880296 0.385763
0.00774452 -0.185587 0.385763
0.201466 0.201311 0.560018
-0.100156 0.255567 0.621365
-0.178347 0.240641 0.235763
-0.17768 0.238953 0.614123
-0.00576112 0.236173 0.62542
-0.185442 0.233921 0.233734
-0.195823 -0.0282409 0.375894
0.140936 0.265272 0.71498
0.178602 0.239527 0.351483
-0.193542 -0.165199 0.396358
0.202367 -0.21097 0.385763
0.177548 0.240556 0.385763
0.112202 -0.0342825 0.385763
0.0972055 -0.175018 0.385763
0.137759 0.243836 0.687799
0.131192 0.241873 0.41148
-0.204717 -0.21289 0.375894
-0.127625 0.233662 0.41148
0.183785 0.0922861 0.393585
-0.201671 -0.0869075 0.375894
0.187562 0.05024 0.385763
-0.0114634 0.254182 0.712476
0.150931 0.234835 0.614521
-0.162423 -0.225338 0.41148
-0.189342 0.233921 0.469607
0.0061456 -0.212561 0.41148
-0.201007 0.225799 0.564631
-0.208966 -0.0496176 0.382594
0.0638874 0.167623 0.385763
0.216665 -0.255705 0.272611
0.117127 0.220724 0.385763
-0.0702084 0.0655921 0.385763
0.0616935 -0.12228 0.385763
0.145212 0.263946 0.689593
0.168713 0.0418381 0.385763
0.181884 0.235592 0.503072
0.18619 0.233921 0.246384
-0.02542 -0.189212 0.385763
-0.0712065 -0.0654957 0.41148
-0.200586 0.109741 0.558713
0.118689 -0.0554771 0.385763
-0.0113205 0.0825938 0.41148
-0.129782 -0.267794 0.400019
-0.0986737 -0.0170217 0.385763
-0.21095 -0.176698 0.385763
-0.0323624 -0.250788 0.385763
0.128822 -0.158175 0.385763
0.0273558 -0.0629331 0.385763
-0.212795 -0.259551 0.412783
-0.179955 0.193375 0.393446
-0.00797012 -0.241334 0.41148
-0.145608 0.139365 0.41148
-0.187088 0.233921 0.106867
0.201394 -0.26576 0.211751
-0.215751 -0.221956 0.379085
-0.200498 -0.172533 0.490945
0.0319374 0.0811895 0.41148
-0.128287 -0.12204 0.41148
-0.0854188 0.0928306 0.41148
0.0837868 0.253416 0.381571
0.145732 -0.107988 0.385763
-0.140918 0.235622 0.385763
0.121142 0.212122 0.385763
0.112195 -0.243344 0.385763
-0.0655336 -0.0728583 0.385763
-0.183545 0.252298 0.408271
0.0589034 0.238833 0.647094
-0.199761 0.1842 0.377433
0.0870618 0.257397 0.71208
0.201248 -0.250149 0.270318
-0.104309 -0.0547208 0.385763
-0.168896 0.00363499 0.41148
0.00605018 -0.0256605 0.41148
-0.192098 -0.127784 0.385763
0.197956 -0.0729327 0.385763
-0.145049 -0.15651 0.41148
-0.0928956 0.211371 0.41148
0.201674 -0.249945 0.376539
-0.211128 -0.266757 0.0802743
-0.111908 -0.17866 0.41148
0.184765 0.24272 0
0.129591 0.253416 0.402703
-0.0827258 -0.255101 0.385763
-0.143448 -0.25363 0.385763
-0.0347245 0.249817 0.727066
-0.0154326 0.234366 0.610695
0.205967 0.00372644 0.542664
0.0496774 -0.154335 0.385763
-0.041759 -0.229947 0.41148
-0.00849889 -0.239759 0.385763
0.0678779 0.018845 0.41148
-0.107855 0.24025 0.658621
-0.0685554 0.0407825 0.385763
-0.150842 0.098419 0.385763
0.0562069 0.243213 0.682735
0.203218 -0.249203 0.286743
0.116655 0.168028 0.41148
0.0469029 0.260707 0.663207
0.188564 -0.264893 0.385763
0.036238 0.262184 0.675254
-0.211698 -0.249356 0.116236
0.0884447 -0.131524 0.41148
0.188555 0.245456 0.668599
-0.0453494 -0.112302 0.385763
-0.139254 -0.218542 0.385763
-0.100402 0.249618 0.385763
0.0452107 0.173975 0.41148
0.0248123 0.250632 0.715696
-0.155359 0.0981994 0.41148
0.102292 0.26246 0.712633
0.0939454 -0.0521693 0.385763
-0.0435376 -0.0462535 0.41148
0.179987 0.249483 0.19824
-0.127177 0.136035 0.385763
0.15797 0.24863 0.687619
0.0673603 0.254986 0.616647
-0.197041 0.0734252 0.375894
-0.216984 -0.257119 0.0382296
-0.215473 -0.241891 0.385763
0.0839271 0.23971 0.654238
0.198489 -0.130608 0.505317
0.209753 -0.0775489 0.385763
0.197012 0.245363 0.477467
-0.0266618 -0.102711 0.385763
0.195535 0.248971 0.53226
-0.120609 0.261072 0.666228
0.125533 0.244533 0.604312
0.0801482 -0.248045 0.377838
-0.206419 -0.26754 0.168521
-0.214963 -0.263739 0.109955
0.128016 -0.0595937 0.385763
-0.155829 0.105043 0.385763
0.0856866 0.233121 0.41148
-0.135985 -0.106564 0.41148
-0.0181964 0.204183 0.41148
0.0448012 0.255479 0.712316
0.208582 -0.0924331 0.385763
-0.0621568 0.0538177 0.41148
-0.114001 0.0732074 0.41148
0.07101 0.145374 0.41148
0.115525 0.100573 0.385763
-0.213673 -0.220718 0.457615
-0.0463791 0.0883052 0.385763
0.174222 -0.267794 0.396839
0.206774 -0.116669 0.521622
-0.185402 -0.25162 0.385763
-0.086749 0.241729 0.604655
-0.081607 0.0744036 0.41148
-0.0177473 0.262355 0.676661
-0.197173 0.24466 0.516272
-0.203628 -0.266833 0.0488351
-0.167724 -0.112498 0.41148
0.088267 0.245112 0.385763
0.179399 0.148292 0.41148
-0.194716 -0.0648864 0.385763
-0.0473708 0.240029 0.656809
-0.128228 0.258991 0.705968
0.135272 -0.199205 0.385763
0.199929 -0.251722 0.244128
-0.0448591 -0.0754613 0.385763
-0.115915 0.244896 0.385763
0.215276 -0.248708 0.443748
0.133237 0.244254 0.385763
0.216434 -0.261148 0.0896117
-0.201881 -0.265993 0.371996
-0.0948987 -0.264124 0.375894
0.0983654 0.0616007 0.385763
0.0420199 0.126296 0.385763
0.0828297 -0.0662025 0.385763
-0.149765 0.111683 0.41148
0.0109854 0.236465 0.627797
-0.0102091 0.258546 0.731687
0.186991 0.253173 0.45404
0.193734 0.251239 0.512686
0.124277 -0.10822 0.385763
-0.00154707 0.241804 0.671265
-0.0134572 -0.156664 0.385763
-0.0153491 0.233678 0.376298
0.144814 -0.0744594 0.385763
0.199088 0.115082 0.557793
0.216901 -0.256742 0.0292885
0.188073 -0.200822 0.41148
-0.0209613 -0.0375488 0.385763
-0.19273 0.0517212 0.385763
-0.214831 -0.251933 0.0135031
0.199716 0.0939593 0.555218
0.0298197 0.179265 0.385763
-0.215745 -0.221791 0.381952
-0.00608394 0.244854 0.696091
-0.173524 0.24447 0.685964
0.005365 -0.14259 0.385763
-0.0227858 -0.174959 0.385763
-0.2162 -0.253706 0.334565
0.0818362 0.0905779 0.41148
0.190331 0.2342 0.112097
-0.1248 0.116247 0.385763
-0.127727 0.00753629 0.41148
-0.150438 0.083506 0.385763
0.194898 0.193298 0.375894
0.196437 0.247835 0.0413244
0.19681 0.246239 0.0981924
-0.117968 0.0544565 0.41148
0.181813 -0.190886 0.41148
0.0396101 0.0273589 0.385763
0.141135 0.102692 0.385763
0.213272 -0.261284 0.4045
-0.098449 -0.0465311 0.41148
-0.20407 -0.124664 0.385763
0.0142539 0.253416 0.387138
0.198171 -0.126293 0.513302
0.0713148 0.24318 0.41148
0.211022 -0.266807 0.0109395
-0.139945 0.264413 0.717477
-0.0776183 -0.183657 0.385763
-0.022035 -0.0837214 0.385763
0.102492 -0.240935 0.41148
-0.194437 -0.182421 0.384688
-0.0520543 -0.124534 0.385763
0.211824 0.175334 0.572048
0.121484 0.233678 0.383579
-0.0305956 0.18288 0.385763
-0.03291 0.267709 0.722255
-0.121917 -0.0606922 0.41148
0.00053288 0.240696 0.662238
0.15606 0.0648065 0.385763
-0.177824 0.242919 0.121941
0.0116042 -0.0245294 0.385763
-0.196983 0.245486 0.319124
0.159836 0.253416 0.400607
0.187242 0.0372335 0.375894
0.100567 0.250262 0.385763
0.185108 0.253051 0.533669
-0.161839 -0.0252151 0.41148
0.0373423 -0.170963 0.41148
0.0332451 -0.253094 0.375894
0.0769037 -0.248045 0.384778
0.0427542 0.0744219 0.385763
-0.195676 0.24879 0.229995
-0.187106 0.00463736 0.410732
-0.177984 0.243176 0.612267
-0.204862 -0.267426 0.148204
-0.178495 0.239993 0.50825
0.173851 0.23971 0.654111
-0.18909 0.253173 0.0599088
-0.182627 0.242017 0.60462
-0.133343 -0.257029 0.385763
0.11394 0.201781 0.385763
-0.104007 -0.0596863 0.41148
0.0283222 -0.0501853 0.385763
0.0112786 -0.0739877 0.41148
0.0557477 -0.120421 0.41148
-0.0631374 0.245442 0.700886
0.178989 -0.267794 0.400195
0.131214 0.242433 0.676388
-0.214184 -0.251118 0.132111
-0.192511 -0.19348 0.41148
-0.148689 0.230101 0.41148
0.177967 0.242297 0.541852
0.0203905 0.253416 0.391819
-0.182836 0.235131 0.162447
-0.206839 -0.26754 0.239291
0.197629 -0.257034 0.198462
-0.02034 0.238757 0.41148
-0.197672 -0.0968028 0.5152
0.195514 0.248997 0.0152328
0.179676 0.192514 0.381826
0.197004 0.128883 0.385763
-0.0190521 0.138787 0.385763
0.0426932 0.257517 0.637228
-0.185747 0.0405222 0.397391
-0.072548 0.26557 0.702818
-0.178224 0.245909 0.105568
0.141115 0.183768 0.385763
-0.0815903 -0.107789 0.385763
-0.0588827 0.244529 0.375894
-0.0963428 -0.0565774 0.385763
-0.212476 0.183495 0.57295
0.0429177 -0.247243 0.41148
0.0737237 -0.216782 0.385763
0.197584 -0.258597 0.0455473
-0.118919 -0.224916 0.385763
0.210604 -0.0810508 0.508744
0.161956 0.222261 0.385763
-0.00221649 0.225957 0.41148
0.192815 0.0666604 0.375894
0.197672 0.0565893 0.543327
0.18194 -0.168797 0.41148
-0.0653336 -0.206288 0.41148
0.188159 0.253173 0.570746
0.132168 0.106039 0.41148
0.0486083 0.263154 0.683154
0.18361 0.0925949 0.384224
0.183239 0.234941 0.15654
0.0775768 -0.0947149 0.385763
-0.183213 0.233678 0.383006
-0.0806175 0.233678 0.37623
-0.195366 0.0791385 0.375894
-0.182242 0.12734 0.382885
-0.0821455 0.042416 0.385763
-0.0342719 0.0872326 0.385763
0.212948 -0.0841699 0.52538
0.0836307 -0.184819 0.385763
0.125858 0.253989 0.60853
-0.180949 0.250701 0.198111
-0.063594 0.119845 0.385763
-0.21435 -0.251328 0.378689
0.0489953 0.238435 0.643847
-0.0738809 -0.210539 0.385763
0.162788 0.108796 0.385763
-0.0554744 0.041694 0.385763
-0.202071 0.107225 0.559471
-0.0805 0.192598 0.385763
-0.200332 -0.236474 0.439957
-0.00275768 -0.254575 0.385763
0.181754 0.235654 0.338955
0.0437923 0.214855 0.41148
0.0901168 0.253416 0.402035
-0.119125 0.154217 0.41148
0.0044201 -0.227253 0.385763
0.183117 0.105118 0.379981
0.130325 0.212512 0.385763
0.172543 0.218304 0.41148
-0.201039 -0.179292 0.375894
-0.132636 0.0980477 0.385763
0.0391748 -0.153032 0.385763
-0.182616 0.252056 0.375894
-0.0119221 -0.0361747 0.385763
0.165217 0.261119 0.666536
0.158512 0.0462578 0.41148
-0.177843 0.244254 0.464471
-0.168475 0.157107 0.385763
-0.183634 0.239961 0.655779
-0.0541228 -0.0917561 0.385763
0.0878642 0.261282 0.66789
0.095487 0.258107 0.642025
-0.216339 -0.25431 0.00669932
0.0347521 0.0930587 0.385763
0.177946 0.244702 0.198053
-0.0558339 0.250607 0.712915
-0.172876 -0.185645 0.385763
-0.192808 0.121014 0.385763
-0.0527096 0.233761 0.605769
0.13468 0.0990855 0.385763
-0.208944 0.154676 0.569208
0.0505628 0.086207 0.385763
-0.117426 0.238973 0.648216
-0.141769 0.262107 0.674644
0.00261992 0.253416 0.376784
-0.178897 0.248117 0.12406
-0.189955 -0.0705537 0.393345
-0.0803223 0.053754 0.41148
0.18173 0.251418 0.0752058
0.0159311 0.236194 0.625586
0.102464 -0.267794 0.3931
-0.0767175 -0.176249 0.41148
-0.217094 -0.257595 0.246679
0.203667 0.166329 0.552442
0.151393 0.124717 0.41148
-0.216924 -0.057264 0.523678
-0.143092 0.187204 0.385763
-0.178217 0.241208 0.00109137
-0.153267 -0.178789 0.385763
-0.198583 -0.25341 0.101628
-0.0635767 0.240356 0.604823
0.200192 -0.2489 0.396279
-0.178218 0.245884 0.107729
0.197619 -0.0111379 0.385763
0.0914778 0.257725 0.712254
0.0401005 0.192295 0.385763
0.213767 -0.265246 0.25626
-0.20437 -0.0835088 0.508223
-0.207022 -0.000229269 0.382215
-0.0164391 -0.124078 0.385763
-0.205855 -0.244606 0.401336
0.196726 0.0174588 0.375894
0.0669006 0.193926 0.385763
-0.183706 0.0943834 0.407224
-0.216904 -0.158693 0.506017
-0.116613 -0.161011 0.41148
-0.180578 0.176936 0.400676
0.136975 0.239475 0.65232
0.0659273 0.00312209 0.41148
-0.0691474 0.238787 0.646703
-0.204615 -0.267532 0.385763
-0.184749 -0.117195 0.385763
-0.0556719 0.211049 0.41148
-0.211613 -0.262641 0.40215
-0.0277451 0.245758 0.604162
-0.0970911 0.237749 0.375894
0.214631 -0.248376 0.445366
-0.11561 0.242592 0.604549
-0.15803 0.239417 0.385763
0.188319 0.0253486 0.385763
0.0134826 0.2599 0.711773
0.0478217 0.0251889 0.385763
-0.0481464 0.26511 0.699074
-0.191859 -0.1208 0.406165
0.184469 -0.0437767 0.41148
-0.112481 0.0652629 0.41148
0.0970442 0.224479 0.385763
-0.0529914 0.173977 0.385763
-0.216562 -0.255282 0.317776
-0.20087 -0.0874948 0.524164
-0.067151 0.186147 0.385763
-0.0678789 -0.0898388 0.385763
0.0113016 0.127501 0.385763
0.194201 0.0425494 0.375894
0.124677 -0.191213 0.385763
0.195307 0.237825 0.157922
-0.181794 0.235631 0.527793
-0.134068 -0.137274 0.41148
0.0674505 0.265755 0.704345
-0.0627477 0.0942569 0.41148
-0.212764 -0.187108 0.483452
0.086927 -0.133374 0.385763
-0.195402 0.249133 0.392805
0.12118 0.26094 0.665092
-0.160563 -0.0799734 0.41148
-0.187607 -0.00892973 0.380235
-0.002194 0.24538 0.700367
0.0434607 -0.158501 0.385763
-0.178273 0.237759 0.40452
-0.0689045 0.0716406 0.41148
-0.090917 0.104114 0.385763
0.189359 0.0834257 0.385763
-0.187535 0.164075 0.375894
-0.0790018 0.0645935 0.41148
-0.0277671 0.173267 0.41148
-0.0540661 0.0732951 0.41148
0.216297 -0.211949 0.473526
0.199238 -0.2274 0.385763
-0.0910768 0.249754 0.726968
-0.179271 0.248589 0.269074
-0.097454 0.216787 0.385763
-0.0548047 -0.0906362 0.385763
-0.0947113 0.256581 0.731483
-0.212605 -0.266047 0.00900832
0.213895 0.134741 0.548896
-0.183021 -0.0517084 0.385763
0.0647871 -0.254563 0.41148
-0.187952 -0.0176905 0.408313
-0.045686 0.238803 0.385763
-0.0862939 0.0494393 0.41148
-0.141349 0.255268 0.698222
-0.148269 0.153694 0.385763
0.127053 0.0326755 0.385763
0.205697 -0.248299 0.304018
-0.203965 -0.236948 0.435795
0.048667 -0.0844299 0.385763
-0.0737112 0.243685 0.385763
-0.0593631 0.139167 0.41148
0.0905117 -0.24274 0.41148
-0.0997561 0.240904 0.663951
-0.0237063 0.00689006 0.41148
-0.0882041 0.245835 0.375894
-0.16968 -0.267794 0.389177
-0.2145 -0.190172 0.382061
0.144559 0.265892 0.705906
-0.188049 0.253973 0.610396
0.148572 0.112735 0.41148
-0.0338987 -0.258162 0.41148
0.0358146 0.237217 0.633927
0.160198 0.245704 0.700033
0.206947 -0.166415 0.375894
-0.158536 0.0430604 0.385763
0.0421589 -0.216509 0.385763
0.0418014 -0.0181111 0.41148
0.213018 -0.24999 0.34663
-0.16695 0.260334 0.677206
0.0737122 0.264712 0.695827
0.0389415 -0.252234 0.41148
0.181299 0.157894 0.405214
0.14378 0.249011 0.385763
0.012211 0.259678 0.654829
0.0352854 0.262345 0.676572
0.200333 -0.155107 0.498087
0.18181 0.235628 0.267601
-0.175362 0.149119 0.41148
0.0404625 0.246605 0.385763
-0.120787 -0.227847 0.41148
0.169578 -0.0842559 0.385763
0.200917 0.0278066 0.544525
0.197454 -0.199553 0.4865
0.19674 0.240539 0.330326
0.043316 -0.246581 0.385763
0.0974583 -0.248045 0.383878
-0.0453458 0.24598 0.41148
-0.17481 0.254957 0.616409
0.170768 0.101127 0.41148
0.0733073 0.233678 0.378007
0.113467 0.241638 0.669927
-0.145995 0.244828 0.385763
0.0447479 -0.0889771 0.41148
-0.0721208 -0.115749 0.41148
-0.180641 0.250313 0.093167
0.0463149 -0.186196 0.385763
-0.155123 -0.0225128 0.385763
-0.0406555 0.267402 0.719735
0.181866 -0.109155 0.385763
-0.166347 0.0657325 0.41148
0.144712 0.217197 0.385763
-0.0944125 0.232026 0.41148
-0.127991 0.137448 0.385763
-0.046747 -0.0660022 0.385763
-0.0591439 0.051429 0.385763
0.216634 -0.219342 0.466963
0.0261853 -0.076101 0.41148
-0.129081 -0.165969 0.41148
0.161999 -0.0186477 0.41148
-0.198797 -0.187258 0.486852
-0.012097 0.235785 0.622254
0.0694448 0.135101 0.41148
0.197672 0.154777 0.560156
0.0871179 0.264423 0.711217
-0.127296 0.04941 0.41148
-0.151798 0.0723613 0.41148
-0.108427 -0.146347 0.385763
0.186555 0.0192018 0.41121
0.213459 -0.194699 0.480539
-0.0354947 0.239234 0.650347
-0.191551 0.248684 0.662079
0.0904813 0.256945 0.632587
0.196333 0.239117 0.211495
0.205192 -0.00177015 0.385763
0.0356817 0.264905 0.728627
-0.0872012 0.124978 0.385763
0.047143 0.115298 0.385763
-0.0746242 0.236533 0.375894
0.130627 -0.0216358 0.385763
-0.196615 0.239997 0.204994
-0.0972265 -0.0601713 0.41148
-0.153161 0.197481 0.41148
0.171901 -0.251919 0.375894
0.0245243 0.23402 0.607878
0.126184 0.130816 0.385763
-0.165078 0.068434 0.385763
-0.0132384 -0.25067 0.385763
-0.183197 0.154522 0.375894
-0.0561826 0.182651 0.385763
-0.185857 0.037621 0.40556
0.134405 -0.0311053 0.41148
-0.073341 0.241584 0.604673
0.114931 0.234979 0.375894
0.000254288 -0.248045 0.383437
0.194616 0.240437 0.633137
0.194646 0.25009 0.0125199
0.161711 0.0456451 0.385763
0.185997 0.0339206 0.404373
-0.194751 -0.197106 0.41058
-0.216118 -0.253554 0.313995
-0.0580501 0.233678 0.382674
-0.214212 -0.246125 0.375894
0.00238758 0.183308 0.385763
0.205474 -0.159902 0.512886
0.195571 -0.211218 0.381031
0.0110407 0.239572 0.604919
-0.189883 0.253108 0.469485
0.0117177 0.257161 0.634324
0.0480579 0.198374 0.385763
0.040779 0.113886 0.41148
-0.188905 -0.00601053 0.375894
0.0447151 0.234566 0.612329
0.18535 0.253168 0.0487287
0.120426 -0.0935582 0.385763
0.0891834 0.259104 0.65013
-0.102013 0.125664 0.41148
0.192113 -0.0993334 0.375894
0.0079986 0.170304 0.41148
-0.161726 0.249054 0.375894
-0.131361 0.241004 0.41148
0.14551 0.234181 0.60919
-0.198134 -0.251758 0.398658
0.194198 0.249672 0.648544
-0.216425 0.224141 0.571589
0.186451 -0.178827 0.385763
-0.189599 -0.0611541 0.390161
0.216238 -0.253826 0.0224111
-0.18673 0.253173 0.5804
0.213684 -0.250488 0.106104
0.00410363 0.103411 0.41148
0.178304 0.246257 0.550878
0.207989 -0.26754 0.263835
0.194804 0.237192 0.00863443
-0.000271514 0.244259 0.385763
0.180602 0.176306 0.394736
-0.178061 0.245202 0.203236
-0.0233208 -0.15122 0.41148
-0.139455 0.0291058 0.385763
-0.16929 0.255033 0.617023
-0.0962249 -0.111015 0.385763
0.214457 -0.251458 0.090197
0.163953 -0.0532209 0.41148
0.151906 0.176579 0.385763
0.18584 -0.258581 0.41148
-0.0953861 -0.0686783 0.385763
-0.037025 -0.116711 0.41148
-0.195252 0.237762 0.393951
0.204153 0.0726365 0.378641
-0.151903 -0.192655 0.41148
0.0107502 0.0169938 0.385763
-0.207597 -0.26754 0.160158
-0.0303415 -0.0649906 0.385763
0.0582651 0.247816 0.713258
0.158829 0.132914 0.41148
0.216908 -0.256776 0.211184
0.193692 -0.169156 0.39569
0.21203 0.223871 0.573118
0.117668 -0.112741 0.41148
-0.206159 -0.178347 0.48556
0.0384821 0.0327847 0.41148
0.186355 -0.248045 0.38517
-0.177816 0.24414 0.160023
-0.124305 -0.0499996 0.385763
0.197837 0.101204 0.547564
0.100802 0.115597 0.41148
0.0891994 0.261788 0.67201
0.195974 -0.210107 0.375894
0.133031 -0.204146 0.385763
0.119996 0.265685 0.703745
0.148912 0.110892 0.41148
-0.0721528 0.255573 0.731378
-0.00374401 0.0975156 0.385763
0.195672 0.238284 0.335694
0.0496683 0.0265073 0.41148
0.182075 0.2355 0.602117
0.19968 0.112268 0.558417
-0.0843582 0.185874 0.385763
0.215404 0.00883433 0.539285
0.140348 -0.182348 0.41148
-0.209962 0.0628221 0.552776
-0.133863 0.0690787 0.41148
-0.211275 -0.1596 0.511175
-0.0299861 0.234201 0.609352
0.0408003 -0.233326 0.41148
-0.0447691 -0.0353772 0.41148
0.190953 0.0647692 0.385763
-0.177797 0.240231 0.378807
0.0391408 -0.0831624 0.385763
0.131561 0.0948324 0.41148
0.180983 0.236351 0.516682
0.184239 0.23446 0.233265
0.207193 -0.248299 0.316599
-0.00345542 0.253376 0.385763
0.126337 0.182149 0.41148
0.0718178 -0.123327 0.41148
-0.0815204 -0.0131251 0.385763
0.20161 -0.249975 0.071546
-0.182899 0.110641 0.384529
0.0496265 -0.0354382 0.385763
0.00601046 -0.0689121 0.385763
-0.0869552 -0.134807 0.41148
0.182768 0.235167 0.467101
-0.214433 -0.264406 0.290426
0.214169 -0.181761 0.383955
-0.105782 0.109715 0.385763
-0.1919 0.19259 0.385763
0.206676 0.0726693 0.535229
0.141386 0.101128 0.41148
0.0403364 0.257459 0.636755
0.0346622 -0.127256 0.41148
0.178063 -0.0581726 0.385763
-0.18923 0.216776 0.385763
0.0845008 -0.110023 0.385763
0.0170851 0.236681 0.629555
0.147099 0.0498964 0.385763
0.0117474 0.251593 0.603448
-0.187221 0.00160486 0.398148
0.198444 0.134909 0.559933
-0.127091 0.204993 0.41148
0.20408 -0.156692 0.513939
-0.156341 0.0749916 0.41148
0.124333 0.25851 0.726449
0.211836 -0.266416 0.366733
-0.191768 -0.248045 0.377192
-0.142222 0.238138 0.641413
0.139659 0.199924 0.385763
0.0431273 0.244657 0.41148
0.00589103 -0.0336271 0.41148
-0.212958 -0.0879491 0.524696
-0.165323 0.251165 0.6035
-0.212466 -0.0641221 0.529295
0.182139 0.235469 0.0872503
-0.199033 0.232198 0.565673
0.14218 -0.248045 0.382028
-0.00109586 -0.0965734 0.385763
-0.122297 -0.184857 0.385763
-0.213364 -0.199033 0.385763
0.213341 -0.079877 0.5106
-0.0821359 0.152542 0.385763
-0.175338 -0.0321942 0.41148
0.123685 -0.0051437 0.41148
-0.0242476 0.249711 0.375894
0.207692 -0.133281 0.375894
-0.215699 -0.118388 0.506613
0.00702593 -0.197999 0.385763
0.102639 -0.250886 0.375894
0.0122239 -0.115857 0.41148
-0.139006 -0.0298327 0.41148
-0.207753 -0.26754 0.240145
-0.216261 -0.261865 0.117306
0.166881 0.116837 0.41148
0.00103688 0.168272 0.385763
0.0858873 0.0491716 0.41148
0.185916 0.253173 0.1021
0.135253 0.242719 0.678716
0.0596005 0.266256 0.708415
0.110855 0.224353 0.41148
-0.027975 -0.106957 0.41148
-0.196164 0.238906 0.511024
-0.0658296 0.26775 0.722596
0.109127 -0.149056 0.41148
-0.204798 -0.0537009 0.375894
0.0449023 0.15708 0.41148
-0.188326 -0.0272034 0.378655
-0.196596 0.24717 0.0198338
0.206953 0.00151378 0.383255
0.198193 0.109824 0.385763
-0.0276967 -0.241173 0.41148
-0.0314566 -0.0275297 0.385763
-0.0903829 0.241559 0.385763
-0.196664 0.246875 0.0270275
-0.108303 -0.0521181 0.385763
0.206878 -0.248127 0.386487
-0.15491 0.260379 0.710422
0.20948 -0.26754 0.0804205
-0.142011 -0.132542 0.385763
0.216295 -0.254077 0.0102814
-0.025301 0.248175 0.7211
-0.0829238 -0.205378 0.41148
-0.189481 0.165134 0.385763
0.0135624 0.0200914 0.41148
0.21619 0.196475 0.563164
-0.041909 0.100964 0.41148
0.133173 0.234181 0.60919
0.096853 -0.0953598 0.385763
0.129308 0.204493 0.385763
0.0415542 0.253411 0.603818
-0.1982 -0.26131 0.0277103
-0.0452205 0.0257099 0.41148
0.0839425 0.246146 0.706602
-0.126739 -0.188591 0.385763
0.17768 0.248349 0.604522
-0.178011 0.242103 0.276421
0.121431 0.264105 0.690886
0.175095 0.258436 0.644714
0.0325259 -0.130485 0.41148
-0.00406905 -0.137335 0.41148
-0.0929592 -0.267794 0.406294
0.153031 0.253416 0.384072
-0.0177863 0.243558 0.68555
-0.0538674 -0.267794 0.389693
0.0766144 -0.156047 0.41148
0.095772 0.249997 0.727345
0.181411 0.235819 0.11921
0.137791 -0.264476 0.385763
-0.0721795 0.253416 0.38243
-0.199332 -0.25247 0.350635
0.160209 0.0242289 0.385763
0.14736 0.25621 0.716934
-0.0987174 0.252236 0.719206
0.00806393 0.238449 0.643965
0.193357 -0.0103373 0.375894
0.215825 -0.059483 0.526351
-0.143561 0.0127771 0.41148
0.173453 -0.25233 0.385763
-0.189831 0.253133 0.0934319
0.0138923 -0.00722083 0.41148
-0.197212 0.2426 0.00390331
0.194814 -0.109181 0.375894
-0.200476 0.166032 0.378122
0.110586 0.255504 0.62086
0.0784317 0.264847 0.696928
-0.184893 -0.263264 0.41148
-0.0216157 -0.262582 0.385763
0.180444 0.180469 0.401549
0.18409 0.0842358 0.40618
0.177921 0.248053 0.63254
-0.148212 -0.226662 0.41148
0.0762692 0.107547 0.41148
0.0548809 0.0684923 0.385763
-0.0472802 0.11289 0.41148
-0.0573256 -0.199544 0.41148
0.180391 0.249989 0.338497
0.191195 0.234614 0.46113
0.109158 -0.0678931 0.385763
0.179935 0.193906 0.390427
-0.161683 -0.14269 0.41148
0.190591 -0.0873362 0.388748
0.123484 -0.138883 0.41148
-0.215767 -0.253112 0.112902
-0.156292 0.141188 0.385763
-0.016491 0.255592 0.621567
-0.214096 -0.251008 0.350208
-0.177866 0.248518 0.386532
0.0508548 0.194188 0.385763
0.21483 -0.263914 0.0849074
0.182638 0.251857 0.196505
0.115513 0.240084 0.657284
0.0583334 -0.00640514 0.385763
0.195562 0.212826 0.375894
-0.0448446 0.068681 0.385763
-0.0922705 -0.0863305 0.385763
-0.126322 -0.232321 0.41148
-0.199424 0.113004 0.546285
-0.1974 -0.257687 0.381556
0.13798 0.106294 0.385763
-0.151668 0.233194 0.41148
-0.0508818 0.187409 0.41148
0.0452332 -0.0809455 0.41148
0.0423428 -0.151656 0.41148
-0.138319 0.0707554 0.41148
0.000648737 0.146164 0.385763
0.0134157 0.171439 0.41148
0.147584 -0.248277 0.385763
-0.165865 0.247834 0.672882
0.201584 0.0952061 0.556948
-0.0831184 0.234204 0.609378
0.0199029 -0.169199 0.385763
-0.100446 -0.115358 0.385763
0.0517574 0.159581 0.385763
-0.200327 -0.204003 0.385763
-0.143154 -0.22185 0.41148
-0.0626874 -0.0525613 0.385763
0.130719 0.0818323 0.41148
0.197306 -0.264535 0.407188
0.179219 0.248519 0.218684
-0.0126334 -0.0692101 0.41148
0.126868 -0.0878983 0.41148
0.18011 0.181482 0.37971
-0.10878 -0.0142095 0.385763
-0.1362 -0.177734 0.385763
0.176498 0.0289439 0.41148
0.186881 0.253173 0.191524
0.153248 -0.0503716 0.41148
0.0788247 0.23423 0.605572
-0.150886 0.254721 0.61448
0.160175 -0.129373 0.41148
-0.0834733 -0.247079 0.385763
0.0627742 -0.145691 0.41148
0.100727 0.187661 0.41148
0.00356157 0.121436 0.41148
0.128731 -0.249292 0.41148
0.175663 0.249244 0.643743
0.0590669 -0.0056273 0.41148
0.135749 0.241629 0.669858
-0.0373282 0.256311 0.627414
0.103389 -0.0623304 0.385763
0.113005 0.251989 0.385763
-0.216316 -0.254209 0.146732
0.12621 0.23188 0.41148
0.166515 -0.267794 0.380155
-0.00194798 -0.143832 0.385763
-0.134142 -0.243502 0.385763
0.0115717 0.0176995 0.41148
-0.0420594 -0.10672 0.41148
0.0130294 -0.229454 0.41148
0.131821 -0.177641 0.385763
0.199921 -0.264107 0.324573
-0.0634373 -0.0451137 0.41148
-0.166665 -0.267794 0.404299
0.18867 -0.0388718 0.41148
0.139076 0.26072 0.663293
0.089384 0.180523 0.385763
0.201353 -0.226792 0.385763
-0.188987 -0.117013 0.385763
0.196594 0.239905 0.502281
0.0485518 0.263498 0.685957
-0.176503 -0.073885 0.41148
-0.182428 0.102 0.385763
-0.104729 0.178556 0.41148
-0.182411 0.235335 0.238079
-0.188652 0.182726 0.375894
0.177778 0.24312 0.392305
0.100231 -0.10617 0.41148
0.216924 -0.0998875 0.514965
-0.0223141 0.249648 0.713033
0.179762 0.253426 0.633801
-0.178824 0.239057 0.53925
-0.156255 0.263646 0.694142
0.117619 0.0203993 0.385763
0.114345 0.265102 0.712745
-0.197482 -0.257683 0.106089
-0.0139491 0.26412 0.691041
0.159239 -0.164073 0.385763
0.198192 -0.261275 0.0430772
-0.116674 0.153578 0.41148
0.196736 0.246562 0.596702
0.193187 -0.0275926 0.385763
0.180065 0.0659875 0.385763
0.175595 0.0250612 0.385763
-0.145408 -0.146091 0.41148
-0.0239875 0.146661 0.385763
0.011366 0.0767825 0.41148
-0.0268415 0.196663 0.385763
-0.204328 -0.267169 0.272511
-0.185137 -0.22291 0.41148
-0.195112 0.249496 0.113449
0.0734762 0.082794 0.385763
-0.0121342 0.258291 0.712312
0.144185 0.0731992 0.41148
0.188731 -0.0382312 0.40566
0.115936 -0.0964735 0.41148
-0.059425 -0.202477 0.41148
0.191343 0.234685 0.547242
-0.141484 0.055769 0.385763
0.171612 0.0535356 0.385763
0.184534 -0.0590687 0.385763
0.0645557 0.250702 0.375894
-0.154453 0.253416 0.408566
-0.150748 -0.032688 0.41148
-0.0821632 0.0218366 0.385763
0.214035 -0.26491 0.245093
-0.209062 0.238096 0.566447
-0.201566 -0.230192 0.445595
-0.120511 0.0473073 0.41148
-0.181901 0.235579 0.584831
-0.00527444 -0.124853 0.385763
0.0761841 0.253416 0.398615
-0.204841 -0.227183 0.385763
0.0717029 0.25624 0.626855
0.0625144 0.262758 0.67993
0.0872969 0.0562949 0.41148
-0.0182091 -0.125103 0.41148
0.210491 -0.0987337 0.375894
-0.177834 0.0130939 0.41148
0.201248 -0.25015 0.168246
0.118325 -0.202487 0.385763
-0.0755922 0.1411 0.41148
-0.0618932 0.207361 0.385763
-0.197991 -0.231914 0.451792
0.055177 0.253416 0.386169
0.00256619 0.129581 0.385763
-0.198385 0.0895833 0.544353
0.195556 0.109043 0.385763
-0.141753 -0.204866 0.385763
0.196115 0.173594 0.385763
0.0742025 -0.177392 0.41148
0.10881 0.243183 0.604477
-0.187017 0.0069862 0.395521
0.0904343 -0.205595 0.385763
-0.170809 0.128483 0.41148
-0.172999 0.100679 0.385763
0.190551 0.233838 0.385763
0.175932 0.23011 0.41148
0.0224131 0.260604 0.662375
0.022682 0.207794 0.41148
-0.116181 -0.00566608 0.385763
-0.190975 -0.203468 0.41148
-0.159673 -0.185128 0.385763
-0.191227 0.252458 0.583379
-0.111395 0.244856 0.696106
-0.0470123 -0.267794 0.378626
0.197672 -0.0526465 0.52349
0.196607 0.23996 0.296842
-0.216924 -0.0903983 0.51672
0.129623 0.264697 0.722064
0.112949 0.183141 0.41148
-0.0712289 0.168643 0.385763
0.0983245 -0.267794 0.405361
0.158894 0.126842 0.41148
-0.194653 0.24008 0.604861
-0.0770341 -0.0585283 0.385763
-0.022832 0.23552 0.620093
0.100178 0.236545 0.628441
-0.0582086 -0.181004 0.385763
-0.112925 0.263148 0.683116
-0.0928144 -0.156388 0.41148
0.101736 -0.0436676 0.41148
0.18056 0.236881 0.130552
0.0146316 -0.200564 0.41148
0.161493 -0.199649 0.385763
-0.028391 0.191048 0.385763
0.0186916 0.233678 0.382227
-0.0195213 -0.257126 0.375894
0.125992 0.184357 0.385763
-0.0664266 0.174547 0.385763
0.025723 -0.263196 0.41148
-0.0764184 0.0584927 0.385763
-0.197017 0.241748 0.603072
-0.0266784 0.109957 0.385763
0.105443 0.0928043 0.41148
0.183119 0.252089 0.109347
-0.115091 0.0588587 0.41148
0.214681 -0.251738 0.176061
-0.17768 0.244954 0.629892
0.19 -0.0697151 0.377492
-0.0467393 -0.190926 0.41148
-0.103347 0.166237 0.41148
-0.0581469 0.265375 0.701227
-0.199468 0.016918 0.529249
-0.0947825 -0.168786 0.41148
-0.0582881 -0.267794 0.392713
0.18851 -0.0119397 0.385763
0.208542 -0.172294 0.375894
-0.0168849 0.143468 0.41148
0.189519 0.233921 0.195759
-0.184175 -0.257298 0.385763
0.136889 -0.172673 0.41148
0.19261 -0.171031 0.385763
0.0118053 0.181973 0.385763
0.0725207 0.264744 0.696093
-0.21246 0.15031 0.550483
0.0643834 0.227145 0.385763
0.18566 0.0428197 0.403082
-0.213129 0.148467 0.566245
0.11384 0.246556 0.709952
-0.158851 0.106101 0.41148
0.110388 0.236525 0.628276
-0.20326 0.1634 0.552018
-0.0709852 0.120253 0.41148
-0.0293272 0.253416 0.401644
0.190861 0.147499 0.385763
-0.175474 0.236176 0.625438
0.215824 -0.223804 0.380698
-0.0914616 -0.0303102 0.41148
0.21501 0.232246 0.570227
0.153991 0.0736218 0.385763
-0.198123 -0.231033 0.451963
-0.197003 0.241689 0.390524
0.0997087 0.0700389 0.385763
0.215329 -0.263288 0.180534
-0.196955 0.245609 0.581798
0.207042 -0.26754 0.025586
0.216075 -0.0775642 0.514591
-0.04831 0.266323 0.708955
-0.155417 -0.246766 0.385763
-0.172767 0.103071 0.385763
0.184282 0.234439 0.0539107
0.0311481 0.267321 0.719072
0.0452821 0.0776714 0.41148
-0.0788921 0.237109 0.633047
-0.0146258 0.241937 0.604629
0.197209 0.242587 0.428229
0.0130931 -0.180028 0.41148
0.0617216 -0.267794 0.377725
-0.211231 0.091844 0.539378
-0.0406885 0.2006 0.41148
-0.183937 0.0882844 0.397203
-0.0673512 -0.259818 0.385763
0.0541354 -0.267794 0.376872
-0.191784 0.252189 0.338223
0.146908 0.248506 0.698068
0.180535 0.170691 0.380811
0.102023 0.016671 0.385763
-0.178664 -0.267794 0.38002
-0.147434 0.248132 0.385763
0.197701 0.0416658 0.541928
0.197703 0.0771124 0.385763
-0.19681 0.232308 0.375894
-0.189588 0.233921 0.321124
-0.117959 0.253416 0.406103
0.208976 -0.049863 0.383997
-0.00949788 -0.170921 0.385763
0.108543 0.243798 0.604402
0.146557 0.249997 0.695067
-0.0229403 0.145979 0.41148
-0.0249781 0.0807792 0.41148
0.141669 -0.248045 0.37853
-0.198812 -0.253123 0.171875
0.189547 0.251993 0.671346
0.0847246 -0.00699142 0.41148
-0.187407 0.253173 0.0410218
0.159512 0.0361854 0.41148
0.187472 -0.00500906 0.408448
-0.117028 0.260989 0.665551
-0.0944492 -0.218341 0.41148
0.0840104 0.266197 0.707943
-0.0208223 0.170696 0.385763
0.188363 0.233921 0.447914
-0.125991 -0.267794 0.387921
0.0768036 -0.0563341 0.385763
0.0218613 -0.180427 0.385763
0.206417 -0.207867 0.375894
-0.186491 0.237372 0
0.183966 -0.0819272 0.385763
-0.130554 -0.0385238 0.385763
0.162453 -0.0792975 0.41148
-0.203599 -0.0116942 0.539398
0.109094 0.183414 0.385763
-0.122146 -0.187529 0.41148
0.200922 -0.265362 0.376914
0.0307226 0.0174223 0.385763
0.188071 0.0492212 0.375894
0.210939 -0.248992 0.308544
0.0251118 0.0897354 0.385763
-0.194272 0.173087 0.375894
0.158501 0.0880782 0.41148
0.184112 -0.267794 0.398985
-0.0269588 -0.264478 0.41148
0.18289 0.251979 0.405825
0.0335189 -0.182989 0.385763
0.0398884 0.257326 0.73156
-0.170323 0.253416 0.380887
0.036343 -0.0965051 0.41148
-0.0431535 0.242223 0.385763
0.167834 -0.0299233 0.41148
-0.128627 0.00230253 0.385763
0.187616 -0.0088228 0.40959
0.156732 -0.240373 0.41148
0.0120275 0.144632 0.41148
0.0560421 0.0945291 0.41148
0.198372 -0.262069 0.0237896
-0.216378 -0.261354 0.315606
0.0342286 0.0381278 0.385763
0.0855165 0.21632 0.385763
-0.0543706 0.116687 0.385763
0.213539 0.144955 0.5653
-0.0345722 -0.144388 0.41148
0.122912 0.253416 0.403074
0.139205 -0.189752 0.41148
0.199229 0.19773 0.378458
-0.0469468 0.0698022 0.41148
-0.093982 -0.254954 0.41148
0.0711017 -0.163234 0.385763
0.136413 0.264817 0.719591
0.0501958 -0.0815101 0.385763
0.21626 -0.261917 0.321634
0.177903 -0.116668 0.385763
0.0802927 0.187375 0.385763
0.0035308 -0.0199203 0.41148
-0.199959 -0.0356796 0.375894
-0.100536 0.213129 0.385763
-0.0188045 0.0993052 0.385763
0.0371774 0.0795169 0.385763
-0.131835 -0.226995 0.41148
-0.112058 0.109627 0.385763
0.196665 0.246871 0.105187
-0.131513 0.0718232 0.41148
-0.000472799 -0.0567221 0.41148
-0.13827 -0.0525616 0.385763
0.0733497 -0.267794 0.384668
-0.0631662 0.248495 0.385763
0.0715632 -0.248463 0.41148
0.202495 0.229579 0.582101
0.118059 0.0237575 0.41148
-0.15452 0.113072 0.385763
-0.0120134 0.245251 0.699317
-0.00569643 0.0698037 0.385763
-0.213511 -0.141345 0.499906
-0.150978 0.238599 0.375894
0.174602 -0.0123245 0.41148
-0.0149358 0.114661 0.385763
-0.178328 0.246364 0.448395
-0.192744 0.23279 0.57132
-0.208942 -0.146094 0.516173
0.0855424 0.0187379 0.41148
-0.0416112 -0.149609 0.385763
0.138363 -0.197524 0.41148
0.0414179 -0.0378022 0.41148
-0.174216 -0.240583 0.385763
0.203357 0.00986753 0.385763
0.201508 0.139835 0.378356
0.177278 0.130928 0.385763
-0.178345 0.242763 0.639014
-0.197672 0.0258078 0.538716
0.0050953 0.0422874 0.41148
-0.187953 -0.0177153 0.38189
0.197581 -0.242905 0.443453
-0.15106 0.0513518 0.41148
0.106693 0.114151 0.41148
-0.115107 0.158466 0.41148
-0.121477 0.253416 0.411306
-0.214924 0.10065 0.556362
0.125514 0.225118 0.385763
-0.0606304 -0.164642 0.41148
-0.21262 -0.26604 0.316279
0.0214887 0.248286 0.722018
-0.0468605 0.118359 0.385763
0.100937 -0.0690375 0.385763
0.0135756 -0.2459 0.385763
0.0101642 -0.093289 0.385763
0.00428192 -0.267794 0.38676
-0.182198 0.0102319 0.41148
0.165211 0.00166008 0.385763
-0.192744 0.0243493 0.375894
-0.200916 -0.265354 0.281188
0.0879261 0.157359 0.41148
0.0280626 0.0313577 0.41148
-0.215264 -0.252478 0.37879
0.0501409 -0.215449 0.41148
-0.147892 -0.172359 0.385763
-0.140654 0.259427 0.721048
-0.196872 0.241116 0.4834
0.208578 -0.172764 0.375894
-0.0429796 0.233678 0.384184
0.084138 -0.158407 0.41148
-0.133445 0.0765862 0.385763
-0.0598966 0.112497 0.385763
0.136048 0.0311832 0.385763
0.106726 0.263729 0.687827
0.120481 -0.0391136 0.41148
-0.0523445 0.0559472 0.41148
0.0574551 0.240545 0.375894
0.12103 0.115517 0.385763
0.147275 0.238043 0.41148
-0.183314 0.252186 0.129223
0.00257434 -0.189989 0.385763
0.0755256 0.266032 0.706595
-0.194129 0.236354 0.489621
-0.00890055 -0.0949094 0.41148
0.118722 0.252876 0.375894
-0.126122 -0.00823578 0.385763
0.0904865 0.239149 0.649664
0.080047 0.251714 0.603433
-0.187185 0.253173 0.373112
0.113468 0.256418 0.728797
-0.199576 -0.252165 0.179053
-0.023418 0.216354 0.41148
-0.211248 -0.208164 0.385763
-0.00509158 0.146794 0.41148
0.053455 -0.267794 0.396513
-0.0822077 -0.0525271 0.41148
0.215563 -0.252844 0.165644
0.0225957 0.208758 0.385763
-0.0549439 0.261859 0.71304
-0.192326 0.235159 0.587498
0.104511 -0.267794 0.406719
-0.211209 -0.249122 0.207784
0.109425 -0.228489 0.41148
-0.188318 0.0158581 0.385763
0.0239983 0.222152 0.41148
0.193653 -0.235787 0.385763
0.172992 -0.157608 0.41148
0.0346959 0.16711 0.385763
0.015929 -0.236576 0.385763
-0.0525964 0.250164 0.385763
-0.197667 -0.25687 0.0938118
0.158041 -0.202 0.385763
0.189774 -0.0657775 0.397398
-0.127726 0.26068 0.663031
0.1916 0.252281 0.142533
-0.0435634 -0.217303 0.385763
-0.213063 -0.0303795 0.534762
0.0638333 0.248383 0.385763
-0.192232 -0.0623372 0.375894
0.184094 0.0841384 0.401688
0.193282 -0.0613726 0.375894
-0.185805 0.038983 0.41067
0.167867 0.0844411 0.385763
-0.0592342 0.253416 0.405599
0.121692 -0.0851108 0.41148
-0.194889 0.249776 0.346293
0.173897 0.223312 0.41148
-0.197116 0.24218 0.203656
-0.0280832 0.264613 0.728925
-0.0326275 -0.148069 0.385763
-0.0954498 -0.016268 0.41148
0.19899 -0.118968 0.375894
0.148922 0.211658 0.385763
0.204656 0.0598764 0.378703
0.21626 -0.253924 0.150502
-0.19051 0.240988 0
0.216309 -0.183992 0.489316
-0.00377488 0.240892 0.663836
-0.139156 0.181908 0.385763
0.179683 0.0597862 0.41148
-0.105027 0.103877 0.385763
0.0206571 -0.0814529 0.41148
0.174515 0.0983523 0.385763
-0.151609 0.248908 0.385763
-0.0563909 0.239389 0.6516
-0.0109778 -0.25587 0.375894
0.18217 0.129173 0.382543
0.209692 -0.248393 0.120925
-0.104916 0.25029 0.714609
0.0483633 0.241839 0.604641
-0.0429941 0.075044 0.385763
0.197821 -0.181907 0.385763
-0.182261 0.251679 0.318568
0.183634 0.234751 0.464455
0.0173109 -0.184042 0.385763
-0.212167 -0.266257 0.153022
-0.0386334 0.0708008 0.385763
0.0688474 -0.147482 0.385763
0.201357 -0.265742 0.220877
0.134757 -0.017703 0.41148
-0.0177873 -0.0175044 0.41148
-0.00632165 0.0272597 0.41148
0.151576 -0.19174 0.41148
0.180464 0.250081 0.231193
0.17768 0.240189 0.610733
-0.0379098 0.0403306 0.41148
0.089755 -0.156727 0.385763
-0.114656 -0.241158 0.41148
-0.0490553 -0.16381 0.41148
-0.0514717 0.109883 0.385763
-0.119752 -0.162178 0.385763
-0.216924 0.116608 0.552092
-0.0927694 0.265815 0.704805
-0.198478 0.0614568 0.539197
-0.113962 -0.0110071 0.385763
-0.2087 -0.26754 0.0803832
0.0438243 -0.186161 0.385763
0.177526 -0.107329 0.41148
0.0195367 -0.0268499 0.41148
-0.145901 0.0421807 0.41148
-0.172212 0.233639 0.385763
0.0223357 0.162579 0.41148
-0.0823218 0.168181 0.41148
0.215528 0.0515842 0.546557
0.166613 0.0756756 0.41148
-0.206489 0.0690404 0.554303
-0.19778 0.169193 0.559672
-0.00113532 -0.0293826 0.41148
-0.192021 -0.267794 0.391377
-0.0725488 0.158685 0.385763
0.0508337 0.251502 0.72927
0.0251248 -0.041936 0.385763
0.215472 -0.25273 0.0354037
-0.200493 -0.264824 0.0219282
-0.216164 0.136431 0.560177
-0.119103 0.264171 0.691428
-0.197672 0.0216271 0.538297
-0.214949 -0.249198 0.397932
-0.140501 0.224737 0.385763
-0.201343 -0.0905684 0.508642
0.00557061 -0.177247 0.41148
-0.207102 -0.207585 0.375894
-0.106399 0.218365 0.385763
0.00488779 -0.115686 0.385763
0.0130727 0.237763 0.41148
