0.164827 0.0246891 0.416238
0.0489584 0.21312 0.717406
-0.0897239 -0.195161 0.438136
-0.145237 0.142643 0.266723
-0.167232 -0.144998 0.346364
-0.0102795 -0.0726343 0.416238
-0.014583 0.0358673 0.416238
-0.0104138 0.224449 0.845024
-0.130203 0.167503 0.438136
-0.032279 0.0304358 0.416238
-0.0770551 0.16334 0.416238
0.0576092 0.0373561 0.438136
-0.122082 -0.0135165 0.438136
0.145571 0.158444 0.0380106
-0.184032 -0.0549297 0.416238
-0.151905 -0.169597 0.0549474
0.145693 0.133848 0.654749
0.162658 0.0327282 0.438136
0.0728702 0.211469 0.858776
-0.142584 0.136237 0.0237363
-0.191395 -0.0923149 0.438136
0.0284812 0.221556 0.804206
0.124172 -0.173026 0.416238
0.142584 0.149698 0.0539208
0.156556 -0.143483 0.0761876
0.142584 -0.134241 0.396182
-0.154634 -0.114553 0.416238
-0.206743 0.0564011 0.416238
0.167232 -0.149727 0.180696
0.0122641 -0.172457 0.416238
-0.0180994 0.108192 0.416238
0.151969 0.110799 0.416238
-0.142584 -0.143362 0.23278
-0.0289985 -0.163832 0.438136
-0.0957579 -0.163933 0.416238
-0.105561 -0.129302 0.438136
0.167232 -0.136251 0.323686
0.0957321 -0.009299 0.438136
0.181078 -0.0752403 0.416238
-0.0901052 0.115537 0.416238
0.103949 -0.174515 0.438136
-0.124826 0.118404 0.438136
0.142584 -0.158634 0.0830354
0.134929 0.0640088 0.438136
-0.161602 0.133668 0.653281
0.153785 0.171476 0.855477
0.144445 0.138016 0.492403
0.146231 0.127593 0.603841
0.156302 0.139458 0.312832
-0.0394548 -0.108569 0.416238
-0.00342746 -0.0288962 0.438136
-0.176842 -0.0143768 0.416238
0.0421047 -0.0477461 0.438136
-0.0832363 0.129416 0.438136
-0.161852 -0.142784 0.0862942
0.167232 0.141147 0.222831
0.0978882 0.0986007 0.438136
0.185218 -0.120559 0.423772
-0.0421339 -0.167636 0.416238
0.142584 -0.156202 0.123897
0.0532648 -0.0376987 0.416238
0.162055 0.127558 0.128303
0.200546 0.0798376 0.436289
-0.0631593 0.19104 0.438136
0.120396 0.175289 0.419695
0.00339581 0.0605556 0.416238
0.0409473 -0.0992207 0.416238
-0.154082 -0.128213 0.29721
-0.073787 0.212762 0.862573
0.0120488 0.10747 0.416238
-0.0700143 0.0296548 0.416238
-0.142584 0.149164 0.64273
-0.00905871 0.220006 0.770047
-0.138768 0.172519 0.737261
-0.103022 -0.169672 0.438136
-0.167232 -0.136634 0.21212
0.0847398 -0.101567 0.438136
-0.0534578 0.142265 0.438136
-0.126612 0.164124 0.416238
0.0315472 0.0243593 0.438136
-0.167232 0.133034 0.301797
0.135171 0.181179 0.841215
0.0389305 0.0334841 0.416238
-0.0756925 0.212014 0.802365
-0.00431796 0.189601 0.416238
0.0294293 -0.114579 0.438136
-0.161075 -0.152945 0.421231
-0.167232 -0.13826 0.158941
-0.0915263 0.174023 0.438136
-0.158143 0.111785 0.35662
0.00994012 0.0938853 0.438136
-0.0824481 -0.0341317 0.416238
-0.129369 -0.142999 0.438136
0.0515364 -0.200784 0.416238
-0.0413216 0.199045 0.438136
0.0311501 -0.157449 0.438136
0.167232 0.152883 0.0869019
0.029593 -0.00270677 0.416238
-0.167232 0.157691 0.785989
0.0960304 0.202384 0.831207
0.167232 0.16148 0.761156
0.111711 0.121847 0.416238
-0.0594702 0.0261219 0.438136
-0.117713 0.19232 0.830993
0.205971 0.0579842 0.438136
-0.167168 0.0440731 0.438136
-0.0852956 0.208243 0.838258
-0.117259 -0.157104 0.416238
0.00439148 -0.0462639 0.438136
-0.167232 0.141226 0.105531
0.0658854 0.13548 0.438136
-0.0758487 -0.0538483 0.438136
0.172055 -0.0409855 0.416238
-0.156631 -0.150482 0.331651
-0.0665621 0.0485069 0.416238
0.204684 -0.0151277 0.438136
-0.149036 -0.145509 0.403628
-0.119206 0.186229 0.75199
-0.157699 0.00305027 0.438136
0.166674 -0.15153 0.316476
-0.167232 0.118223 0.500178
0.157527 0.150917 0.146959
-0.0181715 -0.122667 0.438136
0.102519 -0.0659326 0.416238
0.0840611 0.0805858 0.416238
0.166387 -0.147632 0.437231
0.0719434 -0.144284 0.416238
0.132596 -0.126086 0.438136
-0.0733068 -0.120738 0.438136
-0.167232 0.124029 0.544506
0.167232 0.167361 0.846046
0.161434 0.11888 0.532934
-0.0239799 0.21889 0.741625
-0.145089 -0.0784477 0.416238
0.167232 0.112374 0.365098
0.126217 -0.0140953 0.438136
0.0493768 0.104396 0.438136
0.071435 0.19948 0.436514
0.14918 0.147607 0.194869
0.157558 0.0959277 0.438136
-0.108079 0.00132694 0.416238
-0.0418817 0.168875 0.416238
0.174938 0.0557383 0.416238
0.151378 -0.159503 0.201066
-0.119033 0.0663208 0.438136
-0.0646823 0.00318685 0.438136
-0.150905 0.123002 0.194253
-0.159265 0.0937492 0.416238
-0.0713983 0.207183 0.740941
-0.0329191 0.222762 0.8327
0.154976 0.134211 0.0319965
-0.143157 0.140156 0.706085
-0.120566 -0.187507 0.42512
0.0451093 0.218644 0.839202
0.142584 0.116676 0.293462
-0.0992617 -0.132354 0.416238
0.0441525 -0.0150578 0.438136
0.167232 0.128395 0.160789
-0.142584 0.13014 0.141733
0.0142172 0.222628 0.832207
-0.14911 -0.0579647 0.438136
0.0631091 -0.0706337 0.438136
0.0880733 0.159974 0.416238
-0.0170144 0.000747245 0.438136
0.142584 0.131038 0.129833
0.115959 -0.0895314 0.438136
0.0250555 -0.131622 0.416238
0.0125184 0.218211 0.74904
-0.0390765 -0.0798792 0.438136
-0.128131 0.0529615 0.416238
0.167232 -0.13459 0.254853
0.153211 0.137269 0.682591
0.158066 -0.123217 0.36953
0.167232 0.11239 0.45705
0.152127 -0.155274 0.262284
0.103867 0.0291358 0.416238
-0.0246287 0.172232 0.438136
-0.167232 -0.13329 0.247902
-0.217153 0.00956886 0.438136
-0.0640362 0.0890779 0.438136
-0.143866 0.137639 0.339153
0.158018 -0.164943 0.122317
0.148501 -0.0563256 0.438136
-0.158612 0.161183 0.743796
0.143572 0.0694405 0.416238
-0.184026 0.0458156 0.416238
-0.0609315 -0.172032 0.438136
0.0852433 0.203398 0.776684
-0.145807 0.152363 0.805425
-0.142653 -0.141296 0.107837
-0.143496 0.17454 0.84853
0.111128 0.1742 0.438136
0.172816 0.127976 0.421296
0.142584 -0.154822 0.0235384
0.156277 0.165882 0.794786
-0.142584 0.127881 0.490691
0.107757 0.1135 0.438136
-0.14922 -0.121134 0.399675
-0.142584 -0.162408 0.119256
-0.110712 0.0138485 0.438136
0.166446 0.145754 0
-0.0171628 0.0640457 0.438136
0.150462 0.133914 0.393078
0.159186 -0.0831503 0.438136
0.0201969 -0.064694 0.416238
-0.167232 0.148582 0.0760827
0.0480132 0.0617076 0.416238
0.14991 -0.149567 0.344896
-0.144983 -0.149754 0
0.0667237 0.152278 0.416238
0.167232 0.135439 0.645822
0.0711445 -0.197335 0.438136
0.184585 0.0399829 0.438136
-0.154427 -0.162907 0.151793
-0.150222 0.110591 0.373905
0.167232 0.118198 0.328784
-0.0202669 -0.0526209 0.416238
-0.167232 0.147597 0.168805
0.0484152 -0.138755 0.438136
0.162711 0.137945 0.491638
0.0302067 0.163481 0.438136
-0.16682 0.143823 0.249643
-0.01682 -0.0553874 0.438136
-0.155935 0.11134 0.438136
0.142584 0.144423 0.239829
0.129914 0.0106048 0.416238
-0.152209 -0.151778 0.438136
-0.0590917 0.079151 0.416238
0.0285307 -0.193121 0.438136
-0.0431169 0.113639 0.416238
0.151949 0.160358 0.735188
-0.02411 -0.217648 0.438136
0.0264267 0.194767 0.438136
0.144691 0.157378 0.702501
0.154692 0.0367295 0.416238
-0.0145125 -0.207262 0.416238
0.111564 0.194101 0.833347
-0.0936483 -0.0778076 0.438136
-0.115336 0.109586 0.416238
0.180742 -0.0225993 0.416238
0.167232 0.124522 0.573783
-0.0408194 0.0640956 0.438136
-0.167232 -0.157318 0.0258693
-0.212057 -0.0592627 0.421789
-0.192053 0.0858811 0.416238
-0.145976 0.147496 0.595275
0.099306 0.195942 0.736712
-0.0490279 0.0990464 0.438136
-0.142584 -0.148079 0.0716951
0.103915 -0.041297 0.438136
0.161663 -0.139243 0.137548
0.167232 0.1387 0.101331
-0.00279696 -0.0958657 0.416238
0.169282 -0.0381587 0.438136
-0.164623 0.111933 0.476399
-0.144949 -0.019798 0.416238
-0.142584 -0.136418 0.351789
-0.141876 0.06049 0.438136
-0.167232 0.170971 0.856561
-0.208671 -0.0618351 0.438136
-0.028033 -0.147351 0.416238
-0.109917 0.0304808 0.416238
0.142584 -0.152236 0.22909
-0.167232 0.138071 0.0133315
0.165411 -0.169124 0.0617911
-0.147308 -0.158842 0.210626
0.142584 0.123623 0.519861
0.132007 0.177902 0.769281
0.0534397 0.201263 0.438136
0.143366 0.131125 0.0766705
0.0786226 0.171576 0.438136
0.213819 0.0404668 0.428024
-0.166096 0.148033 0.188712
0.142584 -0.141933 0.281223
0.0649429 -0.0142177 0.416238
0.0940817 0.203148 0.805717
0.151627 0.136422 0.468296
0.02725 -0.0552064 0.438136
-0.0264068 0.136849 0.416238
-0.0481283 -0.219812 0.428733
0.11435 0.152926 0.416238
0.0856352 -0.182003 0.438136
0.144083 0.00157965 0.438136
0.0113562 0.135124 0.416238
-0.167232 -0.129793 0.320391
-0.142584 0.144318 0.239402
0.148963 0.144905 0.744728
-0.0546105 0.00487441 0.416238
0.142584 0.112329 0.356864
-0.199218 0.0562762 0.438136
0.0862783 0.11743 0.438136
-0.142584 0.144396 0.154815
0.165001 -0.171551 0.0266634
-0.0265018 0.0536345 0.416238
0.0267566 -0.219619 0.438136
-0.15387 0.147834 0.41785
-0.0538077 -0.0867166 0.416238
0.209536 -0.0602292 0.438136
0.167232 0.1572 0.739482
0.0965958 -0.153595 0.416238
-0.17825 0.0182303 0.438136
0.133651 -0.0994106 0.416238
0.143051 0.152702 0.808182
0.0349297 -0.221298 0.417423
-0.100504 -0.186247 0.416238
0.00964063 0.034407 0.438136
-0.0159905 0.219488 0.717915
-0.167232 -0.157837 0.0665736
-0.0434112 -0.111047 0.438136
0.160141 -0.120515 0.416238
0.0394812 0.184878 0.416238
-0.0538969 0.216639 0.833748
0.111192 0.0750593 0.438136
0.142584 -0.152393 0.148658
-0.167232 0.132799 0.571234
0.117065 -0.0260145 0.416238
0.168904 -0.104581 0.416238
0.215862 -0.0346418 0.43245
0.0704852 0.0651193 0.438136
0.155747 0.154623 0.823817
-0.00925405 0.0803888 0.416238
0.151749 0.14063 0.295858
0.115464 0.0470663 0.438136
-0.0964755 0.0613949 0.438136
0.0509773 -0.129056 0.416238
-0.142584 -0.152578 0.161373
-0.142584 0.125779 0.283087
-0.0776965 0.187978 0.416238
-0.142676 -0.00347379 0.416238
0.13657 0.164939 0.438136
-0.142658 0.10864 0.402141
0.0324235 0.0828614 0.438136
-0.189517 -0.113721 0.431462
0.142584 -0.146446 0.0543486
-0.138506 0.00197116 0.438136
0.184229 -0.0975389 0.438136
-0.142584 -0.171154 0.021133
0.1515 0.148608 0.607342
-0.1608 0.167248 0.809602
-0.142584 0.115934 0.332624
0.157051 -0.121716 0.391256
0.116966 -0.189769 0.429345
0.0370178 0.111073 0.416238
-0.165 -0.12407 0.357175
0.0875352 0.0229004 0.438136
-0.0996181 -0.0236757 0.416238
-0.167232 -0.130856 0.272404
0.0763242 -0.209995 0.416238
-0.104696 0.199832 0.839363
-0.0205725 -0.181975 0.416238
0.00372417 -0.00239985 0.416238
0.0579691 0.211064 0.7724
-0.166185 -0.0849657 0.438136
0.00519171 0.152333 0.438136
0.146434 -0.145209 0.416238
-0.142584 -0.155403 0.256062
-0.209118 0.0265544 0.416238
-0.180076 0.0135442 0.416238
0.159681 0.120734 0.227077
-0.0856851 0.202711 0.716085
-0.0873058 0.144791 0.416238
-0.162564 0.136381 0.35737
0.0873388 -0.0613546 0.438136
0.0653079 0.210962 0.72958
-0.0232203 -0.104818 0.416238
-0.197922 -0.0393679 0.438136
-0.159087 0.138213 0.690272
0.149501 -0.164523 0.417954
0.0230042 0.114914 0.438136
-0.148369 -0.128151 0.438136
-0.14536 0.159203 0.0270306
0.154392 0.0733515 0.438136
-0.18268 0.0621671 0.438136
-0.0236924 0.14962 0.438136
0.0330781 0.218208 0.742495
-0.168048 -0.0290242 0.438136
0.167232 0.127874 0.274355
0.142584 0.137497 0.0154988
0.0715898 -0.0647241 0.416238
-0.142584 0.142746 0.118577
0.121086 0.183367 0.717801
-0.142584 0.12375 0.255673
-0.0800492 0.203787 0.773708
0.142584 0.132792 0.576379
0.194516 -0.0960797 0.416238
-0.167232 0.134496 0.0316949
-0.144098 0.0727313 0.416238
-0.152323 0.125923 0.590255
0.0829355 0.0402613 0.438136
0.157036 0.119936 0.438136
-0.158951 -0.147301 0.377692
-0.172982 0.0954815 0.438136
0.0970499 -0.0428855 0.416238
0.164586 0.124004 0.179743
-0.150028 0.165043 0.785674
0.0859304 0.0129294 0.416238
-0.142584 -0.150073 0.291776
-0.164876 0.133205 0.403348
0.161236 0.156662 0.694734
0.142584 0.116843 0.482386
0.158595 -0.162127 0.163083
-0.0106739 -0.0152809 0.416238
0.0768455 -0.11572 0.416238
0.143167 -0.0633384 0.416238
-0.152985 0.141172 0.288017
0.166984 -0.124747 0.34738
-0.0132372 0.107561 0.438136
0.165593 0.130788 0.0815504
0.156755 -0.142251 0.0940108
-0.218432 -0.01072 0.416238
-0.0310565 0.20941 0.422917
0.175167 0.00502734 0.416238
0.204544 0.0111945 0.416238
-0.167232 -0.15169 0.28709
0.217866 0.0045171 0.42798
-0.117189 -0.058438 0.416238
0.110342 0.105726 0.416238
-0.063508 -0.189339 0.416238
0.155898 0.152666 0.65137
-0.159016 0.119329 0.247419
-0.00105661 -0.158996 0.416238
-0.0845746 -0.127209 0.416238
0.164673 0.151488 0.798303
-0.146439 0.159273 0.723067
0.142584 0.131807 0.37563
0.167232 0.128607 0.513468
-0.101955 0.164619 0.416238
0.167232 -0.136128 0.389881
-0.000983608 0.224749 0.86396
-0.172161 -0.0736502 0.416238
0.109076 0.0580879 0.416238
-0.167232 0.122513 0.38048
-0.103605 -0.106703 0.416238
-0.0474984 0.215029 0.739513
0.157985 -0.135792 0.1875
-0.0663525 0.114052 0.438136
0.0193336 0.174435 0.416238
-0.0186994 0.188265 0.438136
0.102898 -0.0947435 0.416238
-0.104016 0.130334 0.438136
-0.0274044 0.221637 0.861713
0.200657 0.0677033 0.416238
-0.157761 0.130253 0.0892997
0.150298 0.169546 0.834544
0.167232 0.133407 0.368003
0.142584 0.15119 0.682292
-0.0325125 0.222793 0.80981
-0.158134 0.13712 0.482684
-0.214012 -0.0133903 0.438136
0.142584 0.140347 0.110617
-0.142584 0.144735 0.206241
0.119238 0.184434 0.754992
0.150535 -0.132281 0.238331
-0.0672678 -0.0156407 0.416238
0.115145 -0.0585341 0.438136
0.167232 -0.129435 0.301714
-0.167232 0.140186 0.603432
0.0959233 -0.152088 0.438136
-0.167232 0.121249 0.312963
0.167232 -0.16045 0.101838
0.167232 0.132549 0.597284
-0.0586304 -0.216284 0.416894
-0.104957 -0.0819011 0.416238
0.167232 0.119871 0.478267
-0.0314573 -0.0365454 0.438136
-0.164043 -0.159698 0.198233
-0.015573 0.172325 0.416238
0.167232 -0.152745 0.013544
0.142584 -0.159485 0.186843
-0.0242483 -0.1922 0.438136
0.0129485 0.211448 0.429882
0.139739 0.169772 0.723635
0.141741 0.131629 0.416238
-0.0748533 -0.100475 0.438136
-0.167232 0.129301 0.14489
0.165338 0.109631 0.387802
0.158557 0.143919 0.248251
0.15162 -0.030225 0.438136
-0.176974 -0.112233 0.416238
0.0785815 0.21088 0.834854
0.117345 -0.14836 0.416238
0.167232 -0.133686 0.223593
0.145369 0.154769 0.0912118
0.142584 0.133575 0.0434106
0.162255 0.157654 0.0494408
0.205199 -0.0774649 0.416238
0.00430739 0.0713859 0.438136
-0.146216 0.136422 0.460682
-0.168418 0.133286 0.422155
0.142584 0.142593 0.216799
0.038973 -0.172137 0.416238
0.0456951 0.0616594 0.438136
0.148506 0.164756 0.776329
-0.0592361 0.212349 0.752177
-0.140507 0.174961 0.826193
0.0214601 -0.0226352 0.438136
-0.205441 -0.0781711 0.421395
0.120858 0.148182 0.438136
0.167232 0.136525 0.339329
-0.0779806 -0.0314082 0.438136
0.133984 -0.103862 0.438136
0.110942 0.0124861 0.438136
0.142584 -0.144666 0.360267
0.167232 -0.147072 0.203215
0.159624 0.144664 0.564541
0.0624782 0.0441428 0.416238
-0.123139 0.187418 0.804302
0.149942 0.155873 0.0752276
0.0388848 -0.0539313 0.416238
0.142681 0.175187 0.809829
0.0795774 -0.0153575 0.438136
0.00794954 0.224634 0.810927
-0.064172 -0.166984 0.416238
0.142512 0.0232326 0.416238
0.0262699 0.217179 0.72106
-0.167232 0.120253 0.290376
0.0506867 0.21895 0.8071
0.137158 0.171831 0.748224
-0.167232 0.133579 0.0595036
-0.0747271 0.149535 0.438136
0.0821412 -0.0243726 0.416238
-0.0469509 -0.136339 0.416238
0.142584 0.133636 0.329012
0.133562 0.12044 0.438136
-0.0324545 -0.0721592 0.416238
0.149932 -0.109989 0.416238
-0.142584 0.131942 0.218241
-0.041601 0.147158 0.416238
0.163563 0.138141 0.424329
0.170309 0.0129885 0.438136
-0.142584 0.130568 0.104526
-0.0550729 -0.0372875 0.416238
0.0661476 -0.187431 0.416238
0.145467 -0.0297902 0.416238
0.142584 0.14866 0.165929
-0.0405208 0.000252462 0.438136
-0.142584 -0.139464 0.306619
-0.167232 0.147456 0.668857
-0.106143 0.193021 0.777704
-0.167232 -0.131757 0.408066
0.00530791 -0.205352 0.416238
0.142584 0.12293 0.226757
0.0867117 -0.176356 0.416238
0.051329 0.218803 0.863418
0.144327 0.136422 0.450573
0.0306841 -0.0841539 0.416238
-0.0700362 -0.0525104 0.416238
-0.0699519 -0.204634 0.438136
-0.112832 0.152515 0.416238
-0.0875961 0.0340876 0.416238
0.00231337 -0.166928 0.438136
-0.147477 0.154227 0.436989
-0.154465 0.119214 0.535654
0.167232 -0.154077 0.248824
-0.0428538 0.0378809 0.438136
0.129757 0.185368 0.861699
-0.133872 -0.149206 0.416238
-0.0683776 -0.0150452 0.438136
-0.130503 -0.0473976 0.438136
-0.167232 0.158797 0.0196264
-0.165828 0.161989 0.876284
-0.169972 -0.0450514 0.416238
0.148236 0.139704 0.510723
0.00605795 -0.123031 0.438136
6.40303e-05 0.0198697 0.416238
-0.158161 0.142567 0.725708
0.142584 0.120096 0.27176
0.0513386 -0.0874481 0.438136
-0.144817 0.165733 0.757305
0.14421 -0.140891 0.113695
0.059409 0.117383 0.416238
0.0299361 0.222986 0.825411
-0.10829 -0.0406827 0.438136
-0.138941 -0.0598066 0.416238
0.0599966 0.199236 0.416238
-0.126589 0.139546 0.438136
0.0135511 0.202596 0.416238
0.0101031 -0.100416 0.438136
0.144666 -0.152735 0.299035
0.142584 0.14354 0.626313
0.14654 -0.126178 0.326668
-0.145244 0.144895 0.567049
-0.200915 -0.0439608 0.416238
-0.144235 0.13031 0.625954
-0.16671 0.151903 0.643091
0.156676 0.15903 0.720431
-0.152296 -0.160851 0.181551
0.174751 -0.137212 0.425307
0.0673906 0.156411 0.438136
-0.167232 0.131389 0.189363
0.0286003 5.05373e-05 0.438136
-0.167232 0.134929 0.27714
-0.113032 0.0726623 0.416238
-0.167156 -0.166167 0.104604
0.167232 -0.137486 0.168246
-0.154768 0.0568689 0.416238
0.151041 0.0532138 0.438136
-0.143522 0.149834 0.784842
0.0492206 -0.200357 0.438136
0.150146 0.0848267 0.416238
-0.0856155 0.0953111 0.416238
0.0929293 0.205246 0.860888
0.0798237 -0.0808801 0.438136
0.0224361 0.0668869 0.416238
0.0196314 -0.0158086 0.416238
0.142584 0.130978 0.19444
-0.057412 -0.0668781 0.438136
0.0931855 0.200283 0.758379
-0.142584 0.145584 0.617985
-0.129485 -0.17172 0.416238
-0.156545 -0.122889 0.374269
0.158963 0.15908 0.860093
-0.167232 0.14766 0.119913
-0.159764 0.138956 0.3201
-0.00183517 0.015315 0.438136
0.076441 0.0921862 0.438136
0.10202 -0.103956 0.438136
-0.142584 0.122429 0.547374
0.167232 -0.129781 0.284858
-0.0356921 -0.0386292 0.416238
-0.116911 0.17748 0.425649
-0.0708469 0.115971 0.416238
-0.142584 0.121038 0.354539
0.0312843 -0.0944308 0.438136
-0.165611 -0.125188 0.340992
0.134117 0.104143 0.416238
0.14534 -0.142094 0.438136
0.167232 0.109049 0.405307
-0.160558 0.169716 0.836388
0.082048 0.140552 0.416238
-0.0284087 -0.144686 0.438136
0.186159 0.0938383 0.438136
0.176664 0.0540344 0.438136
-0.120673 -0.177278 0.438136
-0.0577991 0.163545 0.416238
-0.153162 -0.0974289 0.416238
0.0542273 -0.217531 0.416238
0.164363 -0.0645358 0.416238
0.142584 -0.168175 0.0640852
0.134469 -0.00813528 0.416238
0.142584 0.136907 0.536541
-0.145029 -0.134314 0.208899
0.156284 0.126429 0.144644
-0.0946489 0.198056 0.733553
0.142584 -0.132839 0.376403
-0.123937 0.183498 0.732015
0.0124511 0.218216 0.769381
0.045204 -0.0184123 0.416238
0.0864513 0.0373175 0.416238
0.0433216 0.215981 0.755479
0.167232 0.129502 0.546778
0.186736 0.0170333 0.416238
0.15101 0.150694 0.432381
0.112028 0.13667 0.438136
-0.167919 0.117724 0.416238
-0.0928074 0.205294 0.820036
-0.0701133 0.21255 0.84111
-0.0314574 -0.217136 0.416238
-0.157162 -0.132568 0.234176
0.101942 -0.19921 0.435431
0.167232 -0.148641 0.0640664
0.135687 0.178805 0.826146
-0.196936 -0.0755612 0.438136
-0.0802584 -0.151479 0.416238
-0.142584 0.137767 0.0490566
-0.176643 0.102611 0.416238
-0.0904796 0.11225 0.438136
-0.167232 0.151277 0.732292
0.0269736 -0.156415 0.416238
0.143654 -0.172222 0.0169569
0.157045 0.1604 0.00970219
0.192828 0.0961306 0.421718
-0.0151255 0.224096 0.826156
-0.069409 0.207964 0.719064
0.13259 -0.0774011 0.416238
0.142584 0.12732 0.309999
-0.0204309 0.198923 0.416238
-0.0483831 0.0417148 0.416238
-0.123089 -0.0171853 0.416238
0.0497328 -0.180869 0.438136
0.00846356 0.121004 0.438136
0.0564438 0.011792 0.438136
-0.142584 0.146519 0.0854568
0.142584 0.140949 0.594636
-0.00934355 0.0416503 0.438136
-0.170364 -0.00775753 0.438136
0.149772 -0.15659 0.243235
-0.167232 0.138393 0.633979
-0.160673 0.113041 0.338434
-0.0937061 -0.143506 0.438136
0.164765 0.146303 0.75611
-0.204108 0.0696574 0.427022
-0.133749 0.176522 0.756639
-0.120745 0.0290002 0.438136
0.148586 -0.137837 0.157913
-0.0408239 -0.18411 0.438136
0.05552 -0.0858104 0.416238
-0.149254 0.112069 0.416238
0.0489891 0.17164 0.416238
0.0920137 0.0994099 0.416238
0.0624214 -0.0194179 0.438136
0.0271362 0.0500369 0.416238
-0.142584 0.122314 0.441692
0.217992 -0.015724 0.427233
0.0921585 0.190291 0.438136
-0.00329565 0.211957 0.416238
-0.146919 0.172424 0.876284
-0.124599 0.131676 0.416238
0.0794036 0.204038 0.733678
0.142584 0.141033 0.696798
-0.144546 0.153769 0.663347
-0.107543 0.16808 0.438136
-0.167232 -0.143849 0.113231
-0.0347506 0.216365 0.725211
-0.167232 -0.146374 0.320132
-0.214312 -0.0436407 0.438136
0.0572421 -0.111634 0.416238
-0.146998 -0.173116 0.00401523
0.0538979 0.0810239 0.416238
0.0054089 0.164866 0.416238
-0.0672703 0.213586 0.818293
0.137905 0.0426614 0.438136
-0.0933932 -0.0522764 0.438136
-0.147921 -0.164911 0.416238
0.0302614 -0.138151 0.438136
0.167232 0.124535 0.309829
-0.0922396 -0.00467308 0.438136
-0.153892 -0.148489 0.360487
0.0104135 -0.111963 0.416238
-0.152925 -0.15714 0.235273
-0.15743 0.111774 0.460538
0.0541032 0.123698 0.438136
0.0977636 0.171788 0.416238
0.107956 0.0807737 0.416238
-0.145146 -0.134985 0.416238
0.164789 -0.150233 0.335253
0.161655 0.0700475 0.416238
0.167232 0.130875 0.238621
-0.145536 0.115456 0.50507
-0.160015 0.058722 0.438136
-0.142584 0.163949 0.834209
-0.179349 -0.12713 0.416238
0.00268532 0.225029 0.846129
0.0218759 0.14945 0.438136
-0.161794 -0.135187 0.196257
0.049957 -0.15816 0.438136
-0.0887944 0.206869 0.854092
0.13264 -0.179919 0.429043
-0.166151 -0.145787 0.399603
0.0631509 0.185754 0.438136
0.167232 0.144018 0.132828
-0.0563839 -0.108185 0.416238
0.142584 0.159432 0.787703
-0.142584 -0.146317 0.0899066
0.129507 0.125753 0.416238
-0.0280995 0.217043 0.759136
-0.0298567 -0.0955903 0.438136
0.167232 0.13793 0.204681
0.167232 0.120338 0.348119
0.145965 0.143534 0.552279
0.142584 0.149578 0.644389
-0.156169 -0.0639522 0.416238
-0.108547 -0.152137 0.438136
-0.130854 -0.0773156 0.438136
0.0460247 -0.105112 0.438136
-0.142584 0.133432 0.60642
0.106573 -0.0232226 0.438136
-0.160897 -0.0103198 0.416238
0.0906558 -0.0769267 0.416238
0.167232 0.1449 0.602463
0.175461 -0.128097 0.438136
-0.213686 0.0416447 0.422763
0.0312956 0.018035 0.416238
0.0395989 -0.145605 0.416238
0.153287 0.0179191 0.438136
-0.114703 -0.0829419 0.438136
0.0381342 0.0412112 0.438136
-0.142584 -0.160754 0.038625
0.152736 0.125213 0.584473
-0.148103 0.112811 0.483549
-0.199967 -0.025974 0.416238
0.167232 0.141826 0.703692
-0.00797424 0.132806 0.416238
0.142584 0.172051 0.864655
0.0261596 -0.0412952 0.416238
0.0168613 -0.177486 0.438136
-0.143574 0.154685 0.824324
0.127088 0.0633859 0.416238
0.0143593 -0.0751456 0.438136
-0.161336 0.137502 0.341149
-0.134614 0.148404 0.416238
-0.153955 -0.140069 0.125598
0.0650146 0.0696323 0.416238
0.10622 0.19195 0.71911
-0.161612 0.0840377 0.438136
0.126784 0.0886256 0.438136
-0.0852841 -0.171497 0.438136
-0.0807783 0.0836472 0.438136
-0.126647 0.00198541 0.416238
-0.133961 -0.0362156 0.416238
-0.189871 0.028344 0.416238
-0.155018 -0.171078 0.033507
-0.00369245 -0.0548555 0.416238
-0.145928 -0.0132274 0.438136
-0.154405 0.0202888 0.438136
-0.167232 0.132323 0.470428
-0.0343071 0.189496 0.416238
0.0304466 0.129069 0.416238
0.146105 0.160869 0.874649
-0.00796662 0.220088 0.733434
0.142584 -0.150009 0.21272
-0.145483 0.132327 0.642372
-0.00663015 -0.219182 0.438136
-0.076777 -0.0713359 0.438136
0.164615 0.172385 0.865349
0.163436 0.135606 0.669051
0.0460889 -0.0688562 0.438136
-0.0687747 -0.0741277 0.416238
0.156392 0.132798 0.0524627
-0.189292 -0.0716294 0.416238
-0.13326 0.180742 0.860239
-0.155059 0.146028 0.217727
-0.102962 -0.19857 0.428552
0.160807 -0.153214 0.418837
-0.116246 -0.132679 0.416238
-0.177401 0.066588 0.416238
-0.160199 0.144929 0.233644
-0.143895 -0.144922 0.0553454
-0.14712 0.151535 0.13801
0.0291658 0.195099 0.416238
-0.0322623 0.0957449 0.416238
-0.167232 -0.134085 0.371226
0.0547501 -0.0366129 0.438136
-0.0224348 -0.075551 0.438136
-0.165569 -0.136585 0.176034
0.142584 -0.160192 0.108113
0.16599 0.15312 0.11508
0.162515 0.141555 0.28248
-0.140088 0.104923 0.438136
0.144537 -0.0465914 0.416238
0.0689249 0.134685 0.416238
-0.0761237 0.13284 0.416238
0.142584 -0.141852 0.245916
0.0653275 0.110571 0.438136
0.164688 -0.14896 0.35367
-0.155351 0.144646 0.742622
-0.0123223 0.218226 0.753508
-0.144356 -0.138057 0.154724
0.127773 0.0051613 0.438136
-0.0765966 -0.177251 0.416238
0.142205 0.0506053 0.416238
-0.142584 0.133328 0.534909
-0.163308 -0.0659951 0.438136
0.111133 -0.188804 0.416238
-0.0376013 -0.0515533 0.438136
-0.0509853 -0.154683 0.416238
-0.00863256 -0.119841 0.416238
-0.187511 0.0423842 0.438136
-0.158084 0.131398 0.0727248
0.160464 0.149383 0.169164
-0.0352204 -0.129963 0.438136
-0.142584 0.137205 0.510175
0.142584 0.141961 0.150575
0.151808 -0.163302 0.146076
-0.0718461 0.0894794 0.416238
0.121235 0.188517 0.818906
-0.0763962 0.0998119 0.438136
-0.143917 0.138386 0.691676
0.164818 0.135979 0.475108
-0.200549 -0.0062456 0.416238
-0.146746 -0.12518 0.341121
-0.0152362 0.0660323 0.416238
0.104667 0.0134452 0.416238
-0.167232 -0.148134 0.0120171
-0.0535768 0.122083 0.438136
0.01217 0.0911564 0.416238
-0.150822 -0.131566 0.248681
0.0802371 0.21023 0.821994
0.133604 0.181338 0.802341
-0.15978 0.153379 0.813693
-0.193349 -0.107624 0.416643
0.147986 0.136399 0.000337485
-0.142584 -0.159208 0.0603679
-0.00628017 0.0923744 0.438136
-0.115854 -0.173305 0.416238
-0.0681096 0.0646961 0.416238
-0.127218 0.0363295 0.416238
0.101838 -0.122637 0.438136
0.134286 0.166561 0.423824
0.16311 -0.0672653 0.438136
0.170715 0.130989 0.436853
-0.142584 0.154475 0.709089
-0.067682 0.200793 0.417358
-0.126819 0.0520949 0.438136
-0.192671 -0.0238698 0.438136
0.0658688 0.215487 0.846685
0.124321 -0.169308 0.438136
-0.0381176 0.0152653 0.416238
0.120598 -0.148551 0.438136
-0.0594958 -0.112385 0.438136
-0.167232 -0.141998 0.143224
-0.167232 -0.147458 0.241825
-0.0328655 -0.123266 0.416238
-0.0287423 0.119739 0.416238
-0.163612 0.154701 0.0921964
-0.142584 -0.148088 0.275812
0.0926376 0.128566 0.416238
0.0468532 0.0140681 0.416238
0.167232 0.14516 0.0178193
-0.125681 -0.0743887 0.416238
-0.142584 -0.140346 0.389905
-0.0943932 -0.117837 0.438136
-0.142584 0.159938 0.771847
0.132421 -0.153652 0.416238
-0.158021 0.163795 0.772138
0.154231 -0.0106976 0.438136
-0.041125 0.0599118 0.416238
-0.167232 0.129018 0.521683
0.157389 0.126856 0.416238
-0.102396 -0.0413463 0.416238
-0.0200737 -0.0311407 0.416238
-0.131212 0.109821 0.416238
-0.167065 -0.144997 0.0542679
0.0931721 0.00806832 0.438136
-0.0662393 0.209179 0.766434
0.189106 0.0247802 0.438136
-0.0788677 0.0168591 0.438136
0.11264 0.0921642 0.438136
0.00669922 -0.0831801 0.416238
0.167232 0.135116 0.0412089
0.167232 -0.149154 0.126558
-0.049858 -0.160747 0.438136
0.106678 -0.1619 0.416238
-0.132443 -0.102179 0.416238
0.106957 0.1933 0.758531
0.145464 0.167173 0.756802
-0.152175 -0.163982 0.136234
0.162506 0.156483 0.0663986
0.0239485 0.179217 0.438136
0.0892277 -0.0445795 0.438136
-0.0077589 -0.221478 0.416238
-0.142584 0.136611 0.323521
0.0885146 -0.139602 0.416238
0.165077 -0.159883 0.195563
-0.0664308 0.0144111 0.416238
-0.166059 0.162447 0.75751
-0.0680535 -0.00255197 0.416238
0.0536202 0.218281 0.823974
0.142584 0.126981 0.503645
-0.126759 -0.158368 0.438136
0.110338 0.191347 0.74572
0.0690395 -0.212642 0.436187
0.142584 0.11471 0.451007
0.167232 -0.132339 0.239014
-0.0382742 -0.0870043 0.416238
0.176541 -0.0900941 0.416238
0.163604 -0.154282 0.276631
0.150434 0.114252 0.320903
-0.0998487 0.103465 0.416238
-0.0476561 -0.182133 0.416238
-0.0875992 0.174719 0.416238
0.0482556 -0.184565 0.416238
-0.111172 -0.00248998 0.438136
-0.0424751 0.216177 0.755793
0.142584 0.15347 0.666985
0.132818 -0.138187 0.416238
0.0984286 0.196449 0.772601
0.142584 0.123346 0.404302
-0.142584 0.136245 0.57957
0.0129877 0.224256 0.857387
0.199982 -0.0633515 0.416238
0.0666996 -0.0890233 0.438136
0.177161 0.104523 0.416238
0.210457 0.0498415 0.416238
0.176686 0.0345467 0.416238
0.133183 -0.058057 0.438136
-0.14949 -0.127139 0.312752
-0.0381604 0.179552 0.438136
0.156388 -0.146656 0.387025
-0.167232 -0.157631 0.145114
0.167232 -0.165423 0.0783826
0.142584 -0.143969 0.133172
0.00935266 0.219984 0.734497
0.117804 -0.0673073 0.416238
0.121458 0.0233992 0.416238
0.0546306 -0.00343299 0.438136
-0.153138 0.135889 0.00771663
-0.00996666 0.167788 0.438136
-0.00401829 -0.0637731 0.438136
0.167232 0.132343 0.626062
-0.0942241 -0.00937383 0.416238
0.18797 -0.112359 0.438136
-0.156645 0.148947 0.61102
-0.16513 0.110813 0.370689
0.0413923 0.216422 0.731149
-0.0751084 0.198194 0.431944
-0.152544 0.133956 0.0357
-0.0164823 -0.157288 0.416238
-0.108872 0.0873348 0.416238
0.142584 0.155764 0.726958
-0.105897 0.199139 0.823383
0.10938 -0.160349 0.438136
-0.0143515 -0.161848 0.438136
0.215399 0.0264287 0.433611
-0.167232 0.134252 0.495618
-0.167232 0.146266 0.153679
0.0634514 -0.140864 0.438136
0.0524035 0.103386 0.416238
-0.0433886 0.0227282 0.438136
-0.151804 0.143585 0.253096
0.0735262 -0.00195982 0.416238
0.158447 -0.145327 0.0494909
-0.149584 -0.16444 0.430278
0.0978827 0.0425732 0.438136
0.118902 -0.0837902 0.416238
-0.142584 0.129885 0.126442
-0.163356 -0.0509152 0.438136
-0.163656 0.130416 0.438136
-0.0327524 0.0490173 0.438136
0.154595 0.112533 0.345786
0.0154069 0.0205282 0.438136
0.167232 0.159591 0.78592
0.155084 0.122384 0.561455
-0.103332 -0.0669814 0.416238
-0.0429166 -0.012433 0.416238
-0.0134584 -0.0407754 0.438136
0.151318 0.153307 0.112371
-0.15113 -0.165953 0.107692
-0.00626084 -0.175504 0.416238
0.00207584 0.118633 0.416238
0.0742902 0.172157 0.416238
0.216775 -0.0265304 0.417086
0.0222117 -0.0369059 0.438136
-0.0269844 -0.168462 0.416238
0.0942683 0.0601672 0.416238
0.152654 -0.161369 0.43296
0.157588 0.134865 0.379309
0.167232 -0.147374 0.236773
0.156401 -0.130303 0.266953
0.147225 0.126349 0.438136
0.164243 -0.164012 0.135799
0.123321 0.141062 0.416238
0.142584 0.149992 0.0223504
0.0570849 0.0715675 0.438136
0.0957743 0.202485 0.845654
-0.0853331 0.201713 0.755464
-0.167232 0.134775 0.556516
0.162764 0.136649 0.353483
-0.0934552 0.159321 0.438136
-0.143505 0.143544 0.552388
-0.0602105 -0.215731 0.436886
0.118726 -0.0416342 0.438136
0.114665 -0.00483064 0.438136
-0.0506924 -0.0975887 0.438136
-0.142584 -0.140189 0.337311
-0.153112 0.160316 0.0109174
0.142584 0.163174 0.840104
-0.171282 -0.14273 0.418181
0.0933717 0.171407 0.438136
0.0314842 -0.202117 0.416238
-0.00439792 0.19172 0.438136
-0.167232 -0.160385 0.091077
-0.0845928 -0.0867077 0.416238
0.0243339 0.221868 0.841071
0.117396 -0.00809077 0.416238
0.0688945 -0.129915 0.416238
0.167232 0.158697 0.834201
-0.0562238 0.148327 0.416238
-0.161752 -0.0329052 0.416238
0.162541 0.118072 0.26561
0.142584 0.133479 0.0622232
0.0382212 0.0748574 0.416238
-0.214947 0.0304448 0.435683
-0.0256483 -0.177637 0.438136
0.14369 -0.147279 0.378011
-0.162991 -0.128405 0.438136
-0.142584 0.131361 0.476488
-0.00152373 -0.109253 0.438136
-0.167232 0.156991 0.800572
-0.167232 0.146264 0.209669
0.159075 0.116833 0.516283
-0.167232 -0.164775 0.0538782
-0.12184 0.184708 0.718331
0.156341 -0.161161 0.177069
-0.176971 0.0826205 0.416238
0.0649294 0.215702 0.832258
0.167232 0.131799 0.527656
-0.00440857 0.0570693 0.438136
0.169126 -0.0526848 0.438136
-0.170184 -0.0880358 0.416238
-0.152647 0.155094 0.677722
0.0159622 0.166244 0.438136
-0.0272322 0.202512 0.438136
0.156943 0.135362 0.438136
0.142584 -0.164156 0.000468556
-0.167232 0.123229 0.353446
-0.125113 0.012519 0.438136
-0.155507 -0.141752 0.10124
-0.167232 0.138592 0.045554
-0.167232 -0.158522 0.161227
-0.164269 -0.128919 0.286989
0.116902 0.191019 0.846063
0.142584 0.125622 0.471436
0.11541 -0.117754 0.438136
-0.128404 0.184378 0.825506
0.0902883 -0.205207 0.429456
-0.148648 -0.159896 0.195377
0.0111408 -0.151377 0.416238
-0.0618381 0.0748563 0.438136
-0.0838844 -0.18965 0.416238
-0.167232 0.125963 0.237665
-0.0294143 0.223025 0.847552
-0.144926 0.0945283 0.416238
0.0969049 0.0764521 0.438136
0.0605871 0.0299198 0.416238
-0.0123388 -0.017669 0.438136
-0.142584 0.146443 0.721812
0.126952 0.18175 0.747785
0.189234 0.0552048 0.416238
0.150507 0.129038 0.106883
-0.145452 0.130943 0.0793044
0.0194045 -0.223045 0.418058
0.00701848 0.148748 0.416238
-0.00505638 -0.179725 0.438136
0.0361211 0.15005 0.438136
-0.144774 0.124753 0.168903
-0.145866 -0.124014 0.35799
0.142584 -0.153915 0.0422161
0.196761 -0.102196 0.433256
-0.145776 -0.122086 0.3859
0.0296811 0.208619 0.438136
0.167232 0.155394 0.815467
0.145733 -0.162283 0.160826
0.103247 -0.0682945 0.438136
-0.142584 -0.165255 0.0806354
0.154183 0.112006 0.476997
0.182743 -0.107688 0.416238
-0.119058 0.191543 0.846236
-0.153079 -0.13351 0.220532
-0.151028 0.168534 0.820889
0.147696 -0.0914333 0.438136
0.0411012 -0.126633 0.438136
-0.0846951 0.186417 0.438136
0.112825 0.0610059 0.438136
0.00190713 0.105078 0.438136
-0.151467 0.1216 0.214549
0.11329 0.189642 0.732636
0.104306 0.0432494 0.416238
0.153229 0.167114 0.808152
-0.0967786 -0.201547 0.416238
0.153194 -0.147515 0.0178173
-0.142584 -0.149668 0.17515
-0.0798747 0.162994 0.438136
0.167232 0.129039 0.409102
-0.164486 0.0169064 0.416238
0.203149 -0.0326758 0.438136
0.143304 0.00632432 0.416238
0.151779 0.145234 0.229229
0.167232 -0.138575 0.152373
0.0579088 -0.00208667 0.416238
0.12391 0.186973 0.834616
-0.164787 0.16848 0.822975
0.0560779 0.0522636 0.438136
-0.163847 0.113981 0.32483
-0.159239 0.172782 0.869653
-0.164859 -0.172471 0.0133483
-0.0846087 0.201997 0.742167
0.156755 0.131711 0.637357
-0.167232 -0.130617 0.301249
-0.145346 0.1359 0.364331
-0.0319117 -0.190094 0.416238
0.173573 -0.0885434 0.438136
0.167232 -0.153055 0.09002
-0.156704 -0.147287 0.0211124
-0.165331 0.139733 0.702639
-0.14043 0.137958 0.438136
-0.178615 0.0827892 0.438136
-0.00180338 0.225095 0.828306
0.162354 0.128072 0.607741
-0.112148 -0.119456 0.416238
-0.206563 0.000655459 0.438136
-0.161664 0.145396 0.572489
-0.160374 0.136534 0.676605
0.0766681 -0.028874 0.438136
-0.0543193 0.0455994 0.438136
-0.0427112 0.219192 0.841758
-0.187785 -0.0396947 0.416238
0.0395091 -0.0366313 0.416238
0.0186213 0.00562656 0.416238
-0.0961114 -0.118264 0.416238
-0.0503077 0.219036 0.820665
-0.167232 0.130749 0.369444
-0.0328326 -0.0583975 0.416238
0.0175565 0.0174971 0.416238
-0.154923 0.150771 0.792469
0.144784 0.159132 0.860515
0.0823425 0.0720682 0.438136
0.156937 -0.133872 0.416238
0.155695 -0.125473 0.336872
-0.041279 -0.212545 0.438136
0.0197173 0.0777161 0.438136
-0.00157107 0.0401363 0.416238
-0.153028 0.133677 0.396502
0.167232 0.134608 0.145439
0.0884011 0.181573 0.416238
0.167232 0.137072 0.119947
0.167232 0.164729 0.802894
0.167771 -0.00988893 0.416238
0.167232 -0.158876 0.210049
0.167232 -0.158428 0.0535309
0.167232 0.133775 0.561459
-0.0425859 -0.0642337 0.438136
-0.167232 0.139866 0.0909995
0.16462 0.092762 0.416238
-0.179781 -0.0850047 0.438136
0.153901 -0.120805 0.404445
-0.156877 0.116369 0.5125
0.167232 0.143949 0.736478
-0.157321 -0.155983 0.25202
-0.0135823 -0.200603 0.438136
-0.142763 0.109809 0.385221
0.0350095 -0.205024 0.438136
-0.14955 0.049321 0.438136
0.151182 0.15134 0.797099
0.0119731 0.0776163 0.416238
0.167232 -0.126679 0.407644
-0.0805386 0.210111 0.826516
0.0021783 -0.208911 0.438136
-0.117478 0.107054 0.438136
0.213438 -0.0553161 0.426164
-0.12856 -0.0607639 0.438136
-0.115416 0.18664 0.764938
0.154577 0.146424 0.211993
0.167232 0.139646 0.268095
-0.216316 0.0182791 0.427905
0.207091 -0.0734536 0.437879
-0.0914729 -0.0910797 0.438136
0.142584 0.137144 0.639583
-0.0565873 0.0290902 0.416238
-0.000382699 0.219121 0.743903
0.144533 0.140889 0.523585
0.148338 -0.154019 0.280439
-0.14476 -0.0763872 0.438136
0.0898231 0.130344 0.438136
-0.153981 0.125527 0.157707
-0.142584 0.129767 0.24374
0.0564556 -0.141245 0.416238
-0.167232 -0.150647 0.100214
0.0138211 0.199146 0.438136
0.144163 0.135986 0.363079
0.163254 0.138359 0.691462
-0.15104 -0.161951 0.16562
0.120798 0.161497 0.438136
0.206651 -0.0472313 0.438136
-0.0405166 0.0774041 0.438136
0.167232 0.135475 0.172059
-0.0232103 0.0868523 0.416238
-0.142584 0.14877 0.0347927
0.165442 -0.122427 0.380969
0.0729629 0.206565 0.772719
0.156722 0.135118 0.0188686
0.147673 0.116005 0.509539
-0.142584 0.118777 0.319668
0.13208 -0.141768 0.438136
-0.00951916 -0.00168885 0.416238
-0.184775 0.00114257 0.416238
0.16321 -0.126976 0.315114
-0.155407 -0.0250538 0.438136
0.027271 0.218643 0.754377
0.167232 -0.135244 0.33933
-0.164137 0.121859 0.557181
0.146834 -0.107906 0.438136
-0.0338747 0.111814 0.438136
-0.0898313 0.159992 0.416238
-0.167232 0.150719 0.0630512
-0.156393 0.131075 0.632183
0.142584 -0.139524 0.22555
0.0136987 -0.138338 0.416238
-0.166508 0.109879 0.38421
0.138407 0.176635 0.852757
-0.0201182 -0.133104 0.416238
-0.115199 0.0504664 0.416238
0.142584 0.145288 0.582206
-0.0557274 0.0627987 0.438136
0.142584 0.146138 0.0801258
-0.0147257 -0.109986 0.438136
0.04539 0.213935 0.769931
0.0325358 0.173735 0.416238
-0.046764 -0.0249768 0.416238
-0.142584 -0.149798 0.201149
-0.0914475 -0.144642 0.416238
0.167232 0.129324 0.110493
0.075467 -0.160666 0.438136
-0.154334 -0.163032 0
0.167232 0.139839 0.57405
-0.143183 0.158521 0.425387
0.167232 0.126037 0.466718
-0.134743 0.151413 0.438136
-0.144677 0.150687 0.629896
-0.150896 0.152807 0.119601
0.130066 -0.024529 0.416238
0.152569 0.124359 0.174612
0.0166266 -0.211386 0.438136
0.0172691 0.223935 0.819967
-0.167232 0.118705 0.260409
0.186635 0.0679786 0.416238
0.167232 0.157152 0.0374082
-0.109579 0.07528 0.438136
-0.0306782 0.175517 0.416238
0.00389005 0.047032 0.438136
0.110045 0.196745 0.820686
0.146622 0.172042 0.821815
-0.198921 -0.0628644 0.416238
0.142584 0.131963 0.481027
0.0449784 0.121373 0.416238
-0.153036 0.155224 0.0846263
-0.080095 -0.0134469 0.416238
-0.058094 0.211038 0.734227
0.159287 0.115338 0.305192
0.160834 -0.0923033 0.416238
-0.155428 0.129307 0.102987
-0.167232 0.124303 0.211171
-0.155461 0.120504 0.230415
-0.0557724 0.0557064 0.416238
0.0234894 0.157418 0.416238
-0.164955 0.0425634 0.416238
0.144085 0.166286 0.799161
0.144075 -0.0736948 0.438136
-0.058984 0.215478 0.847068
0.114767 -0.0999336 0.416238
0.109695 0.166745 0.416238
-0.167232 0.154609 0.681357
0.191736 -0.0149847 0.438136
0.0729451 0.0320239 0.438136
0.167232 0.145228 0.654288
-0.125127 -0.0456723 0.416238
0.142584 0.154934 0.715033
0.142584 -0.15162 0.0939066
-0.152456 0.156484 0.0663821
-0.0159763 0.211107 0.421305
-0.142584 -0.14525 0.37795
0.132844 0.156205 0.416238
0.162167 0.0466673 0.438136
0.142584 0.124667 0.45921
0.0792182 0.21063 0.845989
-0.0419591 0.00240082 0.416238
0.0870601 -0.162266 0.416238
0.15119 0.123394 0.188577
0.16248 0.151331 0.636892
0.165615 0.111774 0.440592
-0.158936 -0.125984 0.329473
0.107651 0.198127 0.851898
-0.159516 -0.0959749 0.438136
0.142584 -0.131944 0.337466
-0.111593 0.118466 0.438136
0.0168643 -0.111956 0.438136
-0.155117 0.116495 0.288447
0.0889876 -0.19438 0.438136
0.154819 0.111774 0.448544
-0.150129 0.166387 0.800257
0.00722869 0.184093 0.416238
0.0180558 -0.0890569 0.416238
0.167232 -0.139892 0.266487
0.115296 0.123823 0.438136
-0.0951635 0.199507 0.776886
0.118104 0.00571812 0.416238
0.167232 0.156051 0.725194
0.167232 -0.163509 0.00210099
-0.142584 0.140032 0.280728
-0.148469 0.13862 0.498961
0.101804 0.150874 0.416238
0.161464 0.00120063 0.416238
0.167232 0.153008 0.102431
0.0392141 0.112028 0.438136
-0.142584 0.143261 0.104062
-0.0784128 0.0186097 0.416238
-0.167232 -0.143831 0.359005
0.0506324 0.187793 0.438136
0.160947 0.163966 0.773995
-0.0184799 0.0958163 0.438136
-0.0998157 0.0381305 0.416238
0.0455392 0.207779 0.420063
-0.0164615 -0.0941178 0.416238
0.112341 0.0926456 0.416238
-0.189845 -0.0650827 0.438136
0.142584 0.150339 0.12103
0.134124 0.0357821 0.416238
-0.142584 0.138416 0.29465
0.215548 -0.00868623 0.438136
0.144542 -0.121834 0.389548
-0.179429 -0.0267273 0.416238
-0.153787 0.148939 0.777561
0.156062 0.130218 0.089798
0.167232 0.117519 0.506684
0.167232 0.138117 0.613593
0.139925 0.171587 0.736137
-0.183727 -0.122932 0.437796
-0.163137 0.144143 0
0.105958 0.199104 0.804941
-0.142584 -0.162668 0.147587
0.193421 0.057464 0.438136
0.0102203 -0.0281557 0.438136
-0.145601 -0.151925 0.31076
0.167232 0.161907 0.875639
0.144722 -0.145704 0.400803
-0.167232 0.121602 0.399208
0.0651121 0.209433 0.742021
-0.0573181 -0.129316 0.416238
0.154923 0.147244 0.76377
0.155539 -0.0733795 0.416238
0.142584 -0.16085 0.135484
-0.10812 -0.112791 0.438136
-0.070372 -0.212176 0.417848
-0.0761825 0.0777887 0.416238
-0.153038 0.141083 0.713629
0.0178782 0.18982 0.416238
0.142584 0.13431 0.0307496
-0.0855696 -0.106816 0.438136
0.216491 -0.0215471 0.438136
0.0249266 0.114013 0.416238
0.153847 -0.15064 0.329354
-0.163616 0.142555 0.268005
-0.177475 0.0350522 0.438136
-0.173672 0.108473 0.438136
0.0747866 0.122092 0.438136
-0.155153 0.124091 0.575344
0.0359533 -0.185998 0.416238
0.0977261 -0.0535849 0.438136
0.171919 -0.0547268 0.416238
-0.0451716 -0.0767218 0.416238
-0.201364 -0.0898214 0.423649
0.142584 0.140811 0.202812
0.154905 -0.124308 0.353729
-0.167232 -0.14409 0.296824
0.167232 0.118055 0.396868
0.142584 -0.144317 0.184859
0.0953662 0.197775 0.719746
-0.167232 -0.141436 0.231062
0.0421972 -0.0272146 0.438136
0.214398 0.00326487 0.416238
-0.0613175 0.20302 0.436007
-0.189751 -0.0121281 0.416238
0.0527737 -0.0538404 0.438136
-0.0407805 0.0896775 0.438136
-0.164045 -0.12317 0.416238
-0.139442 0.00835877 0.416238
0.0446844 0.0831841 0.438136
-0.0472027 0.166456 0.438136
-0.164827 -0.144167 0.0662868
-0.167232 0.124544 0.460969
-0.173589 -0.0614983 0.416238
-0.166405 0.13504 0.66445
-0.0116835 0.151898 0.438136
0.153734 0.133102 0.404836
-0.217497 -0.0201164 0.423992
0.161363 -0.0468662 0.416238
-0.0460451 0.213788 0.728727
0.192801 0.00645012 0.416238
-0.205898 -0.0301392 0.438136
0.0142437 -0.215668 0.416238
0.191666 -0.110301 0.425735
0.142584 0.128578 0.564962
0.163432 0.140397 0.299236
-0.167232 0.14463 0.0249733
0.128413 -0.0930558 0.438136
0.0819917 0.0244313 0.416238
0.167232 0.139696 0.67985
0.152944 -0.133211 0.224862
0.157198 0.131393 0.0727959
-0.167232 -0.122474 0.395855
-0.160314 0.14139 0.426121
-0.160877 -0.154417 0.274681
-0.192597 -0.0523426 0.438136
-0.0700876 -0.0984717 0.416238
0.0196137 -0.119831 0.416238
0.155087 0.110311 0.377957
-0.154221 0.108393 0.405714
-0.120938 0.183636 0.777704
0.047915 0.218004 0.850942
0.153135 -0.141456 0.105514
0.146324 0.143709 0.251297
0.142584 0.140856 0.609864
0.141083 0.091463 0.438136
-0.0348673 0.145037 0.438136
-0.160163 -0.170233 0.0457491
-0.142584 -0.160677 0.01515
-0.135311 0.0856232 0.416238
-0.142584 0.13517 0.449276
-0.144463 -0.13227 0.23849
0.167369 0.0643033 0.438136
-0.126449 0.187277 0.840302
0.142584 0.125911 0.347458
-0.142584 0.133758 0.160422
0.151252 0.060203 0.416238
-0.217542 0.00739277 0.419395
-0.0572055 -0.00771255 0.416238
0.167232 0.130324 0.320345
0.163832 -0.125122 0.438136
-0.151311 0.117781 0.523996
0.100334 0.0715293 0.416238
0.0976412 -0.163938 0.438136
0.168995 -0.0248862 0.416238
0.167232 -0.162383 0.153568
-0.142584 -0.140637 0.221141
-0.167232 0.133155 0.28985
-0.0429163 0.208074 0.42325
0.0970173 0.0885741 0.416238
0.167232 0.134252 0.502048
-0.0820719 0.0446644 0.416238
-0.145065 0.149029 0.174298
0.0648372 -0.214112 0.425122
0.142584 0.144525 0.0387338
0.103311 0.164867 0.438136
0.0621329 0.210113 0.761297
-0.134937 -0.132492 0.438136
-0.163845 -0.107042 0.416238
-0.161235 0.111774 0.449284
0.100564 0.06515 0.438136
-0.132771 0.177302 0.727051
-0.160053 -0.13058 0.262949
-0.0654392 -0.0764159 0.438136
0.144257 -0.146457 0.0331364
0.0284683 -0.0118116 0.438136
-0.150541 0.0330212 0.438136
0.0537413 0.0261571 0.438136
-0.113734 0.194616 0.804049
0.167232 0.140635 0.542738
-0.0512837 -0.118872 0.416238
0.144205 0.173973 0.845105
0.151356 0.156754 0.0624744
-0.178005 0.0251731 0.416238
-0.164811 -0.158767 0.211713
-0.0104768 0.0299018 0.438136
-0.0107229 0.222891 0.85757
0.039478 0.099552 0.416238
0.167232 0.114803 0.317504
0.0816739 0.00428005 0.438136
-0.102924 0.110509 0.438136
0.0397212 0.208434 0.43145
0.142976 0.0761967 0.438136
-0.143341 -0.127882 0.301996
0.159878 -0.0218488 0.438136
0.081985 0.193784 0.438136
0.142584 0.128182 0.216256
0.077608 0.0507087 0.438136
-0.164333 -0.164017 0.135719
0.167232 -0.148236 0.076981
-0.0264922 0.221706 0.82297
0.0478607 0.0259247 0.416238
0.16627 0.135978 0.00641956
0.109067 -0.185028 0.438136
-0.152145 0.113885 0.32622
-0.0132843 0.0930244 0.416238
-0.111506 0.173145 0.416238
0.167232 -0.138126 0.293906
-0.16941 -0.144608 0.434735
0.034337 -0.0141454 0.416238
-0.0721838 -0.199217 0.416238
-0.0183395 -0.134336 0.438136
-0.167232 -0.144666 0.2677
-0.0769261 0.1031 0.416238
-0.150979 0.120329 0.475108
-0.0973677 0.150675 0.416238
0.208052 0.0342608 0.438136
0.178965 0.118192 0.419813
-0.134231 -0.024365 0.416238
0.142584 0.133806 0.235044
-0.142584 -0.135474 0.277384
-0.0456343 -0.124759 0.438136
-0.158577 0.13998 0.305278
0.0159475 0.139459 0.438136
-0.018891 0.0525571 0.438136
-0.166197 0.125297 0.161027
0.15709 0.154697 0.0922518
0.0238241 0.0106256 0.438136
0.1803 -0.0495749 0.438136
0.167232 0.117213 0.379234
0.142584 0.112343 0.368457
-0.000340525 0.219124 0.777629
0.21548 -0.0380359 0.416791
-0.186085 -9.91747e-05 0.438136
0.165606 -0.123821 0.360779
-0.0785466 0.210893 0.850552
-0.142584 -0.144169 0.258765
-0.100264 0.202365 0.855489
-0.0830498 0.204258 0.730951
-0.142584 0.135204 0.199725
0.0402979 0.19815 0.416238
0.0966958 -0.182144 0.416238
0.0378842 0.0458567 0.416238
0.0449892 -0.220165 0.431684
0.198245 0.0864138 0.424748
0.000828922 -0.0159256 0.416238
-0.160447 -0.157776 0.226066
0.192477 -0.0768798 0.416238
-0.0974838 -0.155327 0.438136
0.00449022 -0.223237 0.416238
0.150721 0.137699 0.338297
-0.164369 -0.0175724 0.438136
0.149623 0.140126 0.705844
-0.0862654 0.0413189 0.438136
0.146802 0.118376 0.261208
0.148574 -0.122771 0.37599
-0.167232 0.152547 0.1036
0.142584 0.152651 0.73801
-0.0947836 -0.0340076 0.438136
0.0857952 -0.112988 0.438136
0.150938 0.162808 0.748811
0.132323 0.148189 0.438136
0.0720498 0.208573 0.720623
-0.107896 -0.194998 0.416238
0.165918 0.134648 0.0256726
0.0814769 -0.170409 0.438136
-0.0892838 0.193234 0.42589
-0.0782809 0.209347 0.815324
0.14692 -0.130761 0.438136
-0.134166 0.18002 0.84459
-0.0459447 0.053376 0.438136
0.0946226 -0.0576709 0.416238
-0.0218451 0.210447 0.431932
-0.153242 0.126795 0.13935
0.208538 0.0569961 0.427058
0.167232 0.158656 0.00486609
0.0237782 -0.0301378 0.416238
0.189569 -0.029826 0.416238
-0.167232 0.13755 0.0789603
-0.21825 0.00110514 0.430579
0.139653 0.169846 0.76674
-0.103094 0.0521231 0.438136
-0.0128316 0.224268 0.813638
0.167232 -0.143669 0.190334
-0.0159688 0.183698 0.416238
-0.0650626 0.155532 0.438136
-0.149922 0.148095 0.187809
-0.135535 0.178927 0.813295
-0.0362583 -0.172575 0.438136
-0.152004 0.0667773 0.438136
-0.105058 -0.0137049 0.416238
0.195808 0.0238676 0.416238
0.142584 0.152527 0.655667
0.0818242 -0.0501977 0.416238
0.205104 -0.0791346 0.427471
0.145107 0.126291 0.146644
-0.15333 -0.164975 0.12186
-0.0322473 -0.0966232 0.416238
0.142924 0.151933 0.132256
-0.0413426 -0.146196 0.416238
0.140122 -0.0340117 0.438136
-0.0798737 -0.208851 0.434638
0.142584 -0.171269 0.0281948
-0.0887913 0.202006 0.766239
0.160249 0.145009 0.745576
-0.0322025 0.0244372 0.438136
0.115611 0.105355 0.438136
0.16027 -0.165869 0.108919
-0.167232 -0.14109 0.131965
-0.0570902 0.0671696 0.416238
-0.0961697 0.203973 0.833245
0.167232 -0.140437 0.304943
-0.13101 -0.160113 0.416238
-0.055287 0.211678 0.765505
0.074182 0.183453 0.438136
0.167232 0.127377 0.486662
-0.0768262 0.0575706 0.416238
0.0475095 -0.0063989 0.416238
-0.0711942 -0.033841 0.416238
0.109529 -0.146502 0.438136
-0.152277 0.132834 0.0519423
-0.00208796 0.22354 0.817166
-0.0899246 -0.0618005 0.416238
0.0675074 0.173299 0.438136
-0.167232 -0.147917 0.153179
0.142584 0.131328 0.272258
0.142584 0.130659 0.620988
0.0172968 -0.193522 0.438136
-0.148682 -0.155052 0.265496
-0.118247 -0.144585 0.438136
0.0994296 0.201051 0.815365
-0.156753 0.109496 0.389753
0.142584 0.11584 0.412649
-0.142584 0.132217 0.269911
-0.163042 0.165685 0.792645
0.00816104 0.00961909 0.416238
-0.149321 0.164104 0.738292
0.00973023 -0.045441 0.416238
-0.152302 0.11253 0.345832
-0.140737 0.170949 0.74815
0.167962 -0.146056 0.42456
0.166235 -0.161518 0.171894
0.167232 0.126094 0.2986
