0.141282 0.170505 0.7431
-0.101314 -0.0107309 0.438136
-0.162116 0.0731254 0.438136
-0.148075 -0.144518 0.0611968
-0.0305159 -0.208136 0.416238
0.163684 0.165006 0.785274
-0.183176 -0.123264 0.438136
-0.164205 0.145365 0.572146
0.117612 -0.0609881 0.438136
-0.167232 0.127174 0.474856
-0.16169 -0.165975 0.107381
0.00858372 -0.0315869 0.416238
0.0386494 -0.064849 0.416238
-0.0156706 0.172875 0.416238
-0.166575 0.109492 0.389811
-0.192214 0.0467184 0.416238
-0.0400352 0.221085 0.86396
0.155839 -0.0795039 0.438136
-0.0188254 0.0662232 0.438136
-0.113047 0.150344 0.416238
-0.179771 0.116909 0.422575
0.162501 -0.100808 0.416238
-0.12467 0.133859 0.438136
0.16709 -0.127248 0.311185
0.15374 0.147199 0.592047
0.0448265 0.214063 0.777694
-0.0609184 0.0669074 0.438136
-0.142584 0.127612 0.300303
0.0493565 -0.219017 0.438136
-0.0469788 0.0229872 0.438136
-0.0373357 0.0132724 0.438136
-0.0766209 0.20678 0.759183
0.167232 0.136176 0.268456
-0.146909 -0.148127 0.365738
-0.167054 0.110348 0.377411
-0.102619 -0.0587513 0.438136
-0.167232 -0.136095 0.251328
0.0561664 -0.217146 0.43635
-0.114904 -0.0273169 0.438136
0.189801 -0.0427594 0.438136
-0.127867 -0.000330744 0.438136
-0.0289172 0.204635 0.416238
0.167232 0.126692 0.404742
-0.123555 0.049339 0.416238
0.142584 -0.141558 0.166688
0.164724 0.125492 0.158203
0.145052 -0.0554866 0.438136
-0.143734 0.124517 0.578809
0.0456221 0.0474386 0.416238
-0.159109 0.11932 0.247554
-0.167232 -0.157272 0.167742
0.167232 0.130103 0.117904
-0.135948 0.148636 0.416238
-0.142584 -0.156386 0.116473
-0.127116 -0.14517 0.438136
0.0952868 -0.203393 0.417242
0.059639 0.216908 0.861944
0.142584 -0.15139 0.0434463
0.155961 0.145743 0.420294
-0.154654 0.140135 0.303031
0.100423 0.195298 0.770588
-0.0400496 0.221376 0.829851
-0.167232 0.164142 0.859351
-0.167232 -0.155916 0.0940613
0.0442211 0.134803 0.438136
0.159425 0.111322 0.363317
0.145883 0.0301693 0.416238
-0.142908 0.170394 0.843743
0.0971134 0.0335599 0.416238
-0.159972 -0.146404 0.0338948
0.165866 -0.123809 0.360952
-0.0209376 -0.164309 0.416238
0.143339 -0.13051 0.263965
-0.0953348 0.204301 0.851551
0.142584 0.15241 0.675981
-0.0694518 0.207947 0.763292
-0.16165 0.137681 0.488771
0.00546548 -0.0645646 0.416238
0.0627785 -0.0390602 0.416238
0.209185 -0.0265566 0.416238
0.188958 -0.0862618 0.416238
-0.022715 0.218985 0.767498
-0.0203738 0.0488385 0.416238
-0.0255269 -0.164197 0.438136
-0.111686 0.19403 0.810657
-0.0155922 0.0977558 0.416238
-0.099994 0.184267 0.416238
0.149622 0.161892 0.741903
-0.142584 -0.151398 0.145231
-0.00496349 -0.115779 0.438136
0.167232 0.152497 0.750758
-0.165333 0.132074 0.0629323
-0.206719 0.0291118 0.438136
0.0863101 0.152063 0.416238
0.0817586 -0.0617316 0.438136
-0.208333 -0.0699059 0.416362
0.0633378 0.0100238 0.438136
-0.167232 -0.137744 0.221489
0.142584 0.149913 0.711588
-0.0106027 0.211712 0.431836
-0.180206 -0.12215 0.416238
-0.142584 0.163449 0.798073
-0.126631 0.153413 0.438136
0.165042 0.158503 0.714707
0.159755 -0.157267 0.233433
0.142584 0.142662 0.624477
0.064362 -0.158628 0.416238
0.111945 -0.183198 0.416238
-0.103987 -0.138891 0.438136
-0.169488 0.0257729 0.438136
0.165535 0.142689 0.726699
-0.167232 0.149148 0.0559113
-0.0143493 -0.0312821 0.416238
-0.0611582 0.203075 0.429078
0.00717022 0.223158 0.830069
0.106526 -0.118062 0.416238
0.185335 -0.0395143 0.438136
0.108607 -0.0240998 0.438136
0.0343053 0.22111 0.825928
0.165609 -0.171807 0.0229626
0.152321 0.142035 0.721375
0.182953 0.032539 0.416238
-0.147317 -0.072385 0.438136
-0.167232 -0.140376 0.414023
-0.11821 -0.147317 0.438136
-0.0853591 -0.125981 0.438136
-0.167232 0.135585 0.452281
0.123518 0.168981 0.416238
-0.153942 0.11567 0.300382
-0.179698 0.0898316 0.416238
0.142584 0.158921 0.826696
-0.145404 0.154903 0.675652
0.0979233 0.167862 0.416238
0.152164 0.109342 0.391982
0.142584 0.116092 0.505851
0.017391 0.133006 0.438136
0.125608 0.159376 0.438136
-0.174671 -0.12496 0.416238
0.0506425 0.167253 0.416238
-0.0817145 0.118841 0.438136
-0.199778 -0.0641763 0.416238
-0.00173271 -0.0509595 0.416238
0.0670007 0.213648 0.858905
0.142584 -0.145446 0.126103
-0.070601 0.13756 0.416238
0.167232 0.141824 0.670067
-0.1363 -0.0585833 0.416238
-0.176384 0.114375 0.438136
-0.050527 0.217408 0.809168
-0.159108 -0.0217159 0.416238
0.140336 -0.110756 0.416238
0.161512 0.136422 0.462178
-0.0064404 0.109963 0.416238
-0.0545304 0.151361 0.416238
0.148249 -0.124441 0.351804
-0.0792756 0.149792 0.438136
-0.12969 -0.0743365 0.438136
-0.206856 -0.0741259 0.422951
0.142584 0.145403 0.0829367
0.0860323 -0.0377748 0.416238
-0.142584 0.130043 0.583332
0.025068 -0.222408 0.417159
0.218334 0.000359912 0.424071
-0.0342441 -0.0597782 0.416238
0.07926 -0.0520217 0.416238
-0.171553 0.0199141 0.416238
0.0359777 -0.0737419 0.438136
-0.153006 0.136288 0.00194365
-0.114984 -0.112319 0.438136
0.00800377 0.174337 0.438136
-0.152159 -0.161864 0.433306
0.12044 0.0444841 0.438136
-0.115429 -0.101975 0.416238
0.107363 0.0361451 0.438136
0.14336 0.136033 0.00562542
0.0167206 0.219433 0.748893
-0.0930076 -0.18719 0.416238
0.149782 0.150797 0.148704
-0.0819315 0.209564 0.820359
0.0708794 0.0137311 0.438136
0.0479543 0.158719 0.438136
-0.159804 -0.0548736 0.438136
0.217724 0.00577915 0.429677
-0.14383 -0.170196 0.42834
-0.196389 -0.00572176 0.438136
0.142584 0.147573 0.598048
0.163133 0.166416 0.800572
-0.163489 -0.088728 0.416238
-0.00714065 0.218614 0.731112
0.0206685 -0.111476 0.416238
0.161086 0.130868 0.080392
0.148302 -0.124844 0.345972
0.0910823 0.189566 0.416238
-0.12193 0.182879 0.731838
0.142584 0.111376 0.414927
0.147017 -0.00480191 0.416238
-0.103734 -0.129526 0.438136
0.0734411 0.0581491 0.416238
0.164323 0.0431198 0.416238
-0.117733 -0.100905 0.438136
-0.142584 0.141476 0.221604
0.124254 0.00948297 0.416238
-0.0295657 -0.162362 0.438136
0.152648 0.124794 0.581065
0.167232 -0.138074 0.234247
0.0421254 0.185557 0.416238
0.0928313 0.205284 0.84082
0.018465 0.217765 0.736896
-0.0632952 -0.110652 0.438136
0.15334 -0.171405 0.0287771
0.144118 -0.125962 0.3298
0.142584 -0.14431 0.0899987
-0.142584 0.159214 0.813695
-0.038158 0.0414723 0.416238
0.167232 0.134366 0.635546
-0.167435 -0.0776146 0.438136
-0.17603 0.0727338 0.416238
-0.15982 -0.140672 0.116873
0.203069 -0.0752476 0.416238
-0.142584 -0.141267 0.244662
0.161175 0.148079 0.77056
0.0703771 0.145076 0.416238
-0.072626 0.129381 0.438136
-0.153298 0.141264 0.286692
0.00671755 0.170411 0.416238
-0.0985656 -0.174201 0.438136
0.161184 0.147811 0.768383
-0.00817235 0.220073 0.732493
0.0204598 -0.0960102 0.416238
0.142584 0.137817 0.328211
-0.162444 -0.171741 0.0239171
0.162637 -0.0223516 0.438136
-0.0720313 0.213452 0.860214
-0.167232 0.152239 0.119166
-0.0615774 -0.125373 0.438136
0.142584 -0.162532 0.0896419
0.0657357 -0.0230051 0.438136
-0.0441603 -0.0625243 0.416238
-0.155014 -0.157985 0.438136
-0.109472 -0.0845481 0.416238
0.0759842 -0.210212 0.422805
0.0173939 0.0777637 0.438136
-0.102707 -0.0938638 0.416238
-0.171901 0.013449 0.438136
0.0968846 -0.106978 0.416238
-0.142584 -0.15359 0.0685815
-0.0501474 -0.0956622 0.438136
-0.0176856 0.14312 0.416238
-0.0723938 0.208438 0.729518
-0.167232 0.122924 0.258186
-0.203851 0.0703907 0.416785
-0.142584 0.140057 0.131416
0.0728746 0.18518 0.416238
0.158264 -0.0432282 0.438136
-0.15748 -0.0728196 0.438136
0.167232 -0.140406 0.287678
0.125843 0.0310783 0.438136
0.0611035 -0.215419 0.431615
0.167232 -0.145719 0.161705
0.144143 0.131713 0.068161
0.0363089 -0.0497293 0.438136
-0.163297 0.112224 0.438136
0.126457 -0.0609128 0.416238
0.051585 0.000499137 0.438136
-0.129355 -0.0522266 0.438136
0.167232 -0.134501 0.228069
-0.0860625 -0.109842 0.416238
-0.171584 0.0369474 0.438136
-0.071271 -0.166303 0.438136
-0.00809723 -0.0340126 0.438136
0.16086 0.130664 0.475108
-0.105069 0.0114387 0.416238
-0.153582 0.109691 0.38693
0.0576492 0.211137 0.75735
0.153374 -0.163465 0.14371
-0.143533 -0.13195 0.243115
0.141453 0.170369 0.748657
0.147928 0.0139572 0.438136
-0.00546931 0.223286 0.829999
-0.142584 -0.129171 0.38793
0.0133077 -0.0780251 0.438136
0.179157 -0.130118 0.416238
-0.0742616 -0.196092 0.438136
0.138809 -0.0367209 0.438136
-0.0331409 0.0853201 0.438136
0.0716324 0.207087 0.769767
0.146273 0.156922 0.060046
-0.119375 -0.0168131 0.438136
0.123695 -0.132197 0.438136
-0.142584 0.148058 0.695035
-0.0767273 0.211608 0.857251
-0.14187 0.175838 0.815944
-0.167232 0.139318 0.286092
0.149044 0.0176501 0.416238
0.106479 0.191801 0.763478
0.149927 -0.129487 0.438136
-0.0429078 0.219147 0.806361
0.0720191 0.0659466 0.416238
-0.0856774 0.208093 0.802567
-0.159176 0.155114 0.677933
-0.066921 0.022277 0.416238
0.15448 -0.169703 0.0534158
-0.109357 0.190139 0.761162
0.167232 0.136825 0.0690442
-0.0643459 0.215835 0.802669
-0.139106 0.170285 0.77258
-0.00638103 -0.21756 0.438136
-0.158183 0.135203 0.374421
-0.0990997 0.197838 0.750546
0.142584 -0.144639 0.0825577
-0.156822 0.112627 0.34443
0.0536774 0.17202 0.438136
0.0704532 -0.0239703 0.438136
-0.00847682 -0.155907 0.416238
0.137932 0.132477 0.416238
-0.0163215 0.0121409 0.438136
-0.0747354 0.21239 0.854885
-0.189216 0.101879 0.433005
-0.145797 0.143677 0.734736
0.069572 0.0711388 0.438136
-0.144003 0.0828507 0.438136
0.13032 -0.168765 0.416238
0.142584 -0.147389 0.157595
-0.10276 0.01894 0.438136
0.150377 -0.147724 0.0147909
-0.111009 -0.164917 0.438136
-0.179787 0.0130871 0.416238
0.0344142 0.218015 0.746307
-0.0600836 0.0605688 0.416238
-0.0457265 -0.0521832 0.416238
-0.0523535 0.21857 0.837767
0.154697 0.149017 0.174465
0.150275 0.110147 0.416238
0.155313 0.160104 0.732079
0.157654 0.142327 0.723751
-0.0168469 0.148033 0.438136
0.112031 0.176693 0.438136
0.142584 0.141786 0.611247
0.124307 0.181507 0.755455
-0.119905 -0.187922 0.429761
0.0711169 0.115118 0.416238
-0.0615751 0.214886 0.857379
-0.115267 -0.00781684 0.416238
-0.166607 -0.136282 0.18042
0.128932 0.0525976 0.416238
-0.167232 -0.152811 0.0637458
0.167232 0.114051 0.446963
-0.189375 -0.0982108 0.438136
-0.0963568 -0.20272 0.427513
0.171396 -0.0511983 0.438136
0.217593 -0.0192637 0.423498
-0.0938463 0.200023 0.755766
0.023984 0.129836 0.438136
0.218039 0.00298152 0.424091
-0.0463293 -0.145514 0.416238
0.0135071 0.120799 0.416238
-0.185485 -0.0447926 0.416238
-0.0326482 -0.182449 0.438136
-0.0866742 0.201187 0.751571
-0.0715308 -0.0142743 0.416238
0.154356 0.149455 0.616532
0.13912 0.0368696 0.438136
0.0325482 -0.12593 0.438136
-0.167232 0.156215 0.783674
0.112156 0.0432802 0.416238
0.00699744 0.00721255 0.438136
-0.159538 0.116685 0.438136
-0.158925 0.110932 0.438136
-0.068033 -0.10193 0.438136
0.133986 -0.0445683 0.438136
0.0312142 0.0503126 0.416238
0.0950337 -0.186684 0.438136
0.145617 -0.146799 0.0281812
-0.157735 -0.149654 0.343626
-0.0875125 0.0936316 0.416238
-0.154951 -0.120519 0.408579
-0.167232 0.136809 0.279251
0.148648 0.123652 0.438136
0.138216 -0.159746 0.438136
0.129811 0.16835 0.438136
-0.148954 -0.157747 0
-0.146041 0.151425 0.139608
-0.167232 -0.15019 0.0493018
-0.0550392 0.202866 0.438136
-0.120552 0.0121452 0.416238
0.142584 0.136802 0.584613
-0.160531 0.121966 0.55805
-0.208355 -0.014564 0.438136
-0.0197633 0.0139225 0.438136
0.152457 0.14963 0.783185
-0.162542 -0.108545 0.438136
0.147305 0.148146 0.602329
-0.167232 -0.146173 0.071932
-0.142584 -0.127218 0.350427
-0.142584 0.145304 0.0936132
0.145152 -0.125696 0.333644
0.109228 0.127999 0.416238
0.19323 0.0780688 0.416238
0.0752605 6.16573e-05 0.416238
0.0942679 0.199858 0.768432
0.0513852 -0.16809 0.438136
-0.0808586 0.208335 0.803619
-0.186386 0.103794 0.416238
-0.149117 -0.127435 0.308469
0.157549 0.107724 0.415403
-0.214566 0.0338257 0.436178
-0.0424606 -0.0118077 0.416238
0.143787 0.119961 0.23827
-0.001912 -0.196393 0.416238
-0.0955565 -0.0398815 0.416238
0.0859433 -0.153975 0.416238
-0.212285 0.0272268 0.438136
-0.167232 0.13288 0.548533
-0.167232 0.114167 0.323396
0.167232 0.144814 0.140576
-0.0616693 -0.130882 0.438136
0.167232 -0.136308 0.255517
-0.0277743 0.221609 0.858315
0.0754509 -0.153784 0.438136
0.160757 0.167106 0.808068
0.0856078 0.203255 0.720903
0.159407 0.0618925 0.438136
0.144946 0.173379 0.821519
0.0915438 0.0242789 0.416238
-0.167232 0.112708 0.409359
0.120941 -0.0345738 0.416238
-0.118937 -0.188531 0.421029
-0.142584 -0.134023 0.315145
-0.15336 0.138443 0.327521
0.142584 0.14567 0.0445685
-0.194653 0.0932259 0.437914
0.142584 0.138374 0.297137
0.025094 0.139532 0.416238
-0.167232 0.154954 0.0573372
0.142584 0.141935 0.251453
-0.167232 0.14634 0.0517941
-0.147691 0.134941 0.0214363
0.167232 -0.138394 0.273062
-0.144092 0.168274 0.741836
-0.0265353 0.137212 0.416238
-0.142584 0.142697 0.0790969
0.147184 0.16963 0.835076
-0.160219 0.111774 0.459008
-0.1469 -0.133339 0.223009
0.18005 0.0818076 0.416238
-0.112609 0.0469131 0.416238
0.144302 0.17193 0.831533
-0.144508 -0.162935 0.151388
-0.0519266 -0.109294 0.438136
0.18616 -0.0136251 0.416238
-0.192008 0.00400111 0.438136
-0.149958 -0.171005 0.0345619
0.0158644 -0.0286223 0.416238
0.0212172 0.0725113 0.416238
0.142584 -0.152322 0.185576
0.145668 0.148459 0.605727
-0.183833 -0.0220594 0.438136
0.167232 -0.135065 0.394863
0.150842 0.120107 0.236153
-0.150329 -0.127421 0.308682
-0.102001 0.0723726 0.438136
-0.143725 0.0279495 0.416238
-0.167232 -0.146911 0.293717
-0.137969 0.0663674 0.416238
-0.167232 0.13115 0.535489
0.144544 0.173702 0.841967
-0.216927 -0.0251812 0.416803
-0.0708453 -0.0636521 0.416238
0.156914 -0.166821 0.0951299
-0.161896 0.129679 0.097598
0.0136196 0.100486 0.438136
0.155476 0.160184 0.732949
0.0590756 -0.051114 0.416238
0.0131576 -0.223749 0.435408
-0.142584 0.153591 0.731802
-0.21785 -0.0169806 0.434181
0.125413 -0.142215 0.416238
-0.133523 -0.171166 0.416238
0.148432 0.140637 0.520844
-0.0666851 -0.103811 0.416238
-0.142584 0.119379 0.454974
0.148087 -0.134846 0.201194
0.14727 -0.150865 0.326098
0.00521237 -0.0379677 0.438136
-0.0165527 0.0515812 0.438136
-0.0234514 -0.154434 0.416238
0.185088 -0.120766 0.435649
0.127044 0.171112 0.431284
0.0625308 0.0901698 0.438136
-0.142584 -0.163852 0.0316151
0.15145 0.0294814 0.416238
0.167232 -0.150898 0.0345418
0.213622 -0.0545391 0.433575
0.170232 0.0714059 0.416238
-0.0629299 -0.0175696 0.416238
0.158638 -0.130001 0.271336
0.00366872 0.20325 0.416238
-0.0072719 0.0425747 0.438136
-0.172847 0.0675227 0.416238
-0.0990253 -0.18762 0.438136
0.0725637 -0.0126073 0.438136
0.142584 0.116821 0.447813
-0.167232 0.117262 0.380575
-0.0425275 0.219234 0.847497
-0.0213312 0.153319 0.438136
0.134891 -0.0359593 0.438136
-0.0339337 0.110996 0.416238
-0.0450348 0.214018 0.735663
-0.143008 0.153504 0.660472
0.14021 0.177161 0.860159
0.167232 0.129989 0.362168
0.114607 0.187108 0.728883
-0.00317346 -0.176321 0.416238
-0.0478193 0.207522 0.428367
0.167232 -0.173196 0.00210397
0.142584 0.153123 0.672108
0.147139 0.155383 0.83
0.0558422 -0.20358 0.416238
0.139478 0.169985 0.76776
0.0460687 -0.171827 0.438136
0.162605 0.1364 0.35709
0.173901 0.0549293 0.416238
-0.152959 -0.148083 0.00959188
-0.14601 0.138804 0.416238
0.0819786 -0.190165 0.416238
0.11952 -0.00925576 0.438136
0.151877 -0.0505403 0.416238
0.152756 0.142871 0.728176
0.202376 0.0568183 0.438136
0.0720329 -0.0437222 0.416238
0.146726 0.171962 0.845401
-0.201602 0.06072 0.438136
-0.0442412 -0.0795577 0.438136
-0.157503 -0.132311 0.237897
0.166008 -0.167775 0.0813216
0.152662 0.117619 0.272177
-0.0725136 0.213262 0.802974
0.142584 -0.148759 0.0321738
-0.144516 -0.147363 0.0200199
-0.022059 -0.00827966 0.416238
0.149191 0.135394 0.66733
0.157398 -0.156623 0.426881
-0.0267411 0.223225 0.839042
0.102825 0.185111 0.416238
0.142584 0.121604 0.455832
-0.0879844 0.191558 0.416238
0.167232 -0.147812 0.079078
-0.0732404 -0.143421 0.438136
0.011515 0.219822 0.763332
-0.103523 -0.0114069 0.416238
0.16235 0.135093 0.475108
0.0373167 0.0391655 0.438136
0.0155884 -0.223475 0.424296
0.155476 0.141891 0.720206
-0.194391 -0.0354289 0.416238
0.165037 -0.122657 0.377629
0.142584 -0.133571 0.289069
-0.0296663 0.0142701 0.416238
-0.0987353 0.130513 0.416238
0.16377 0.114799 0.499725
-0.0334618 0.145419 0.438136
-0.179088 -0.0201181 0.416238
-0.00381493 -0.224801 0.435238
-0.158917 -0.126905 0.316141
0.155542 -0.12654 0.321421
0.167232 -0.159339 0.191294
0.130022 -0.181565 0.435458
-0.148542 -0.0514715 0.438136
0.141814 0.0720532 0.438136
0.159359 0.135422 0.371244
0.146295 0.135936 0.475108
-0.0899931 -0.0845298 0.438136
0.0585971 -0.110596 0.416238
-0.0286372 0.221544 0.807835
-0.0805723 -0.15172 0.438136
0.105675 0.101024 0.438136
0.0635196 0.0442385 0.438136
0.0589466 0.212414 0.728523
-0.128136 0.122292 0.438136
-0.167232 0.132302 0.388788
-0.0620653 -0.07801 0.416238
0.0119252 0.219792 0.740075
-0.0045379 0.143492 0.416238
0.00560045 0.162211 0.438136
-0.0953117 0.197796 0.765436
0.00585873 0.00936404 0.416238
0.142584 0.130142 0.311455
-0.068903 0.022397 0.416238
0.0150547 -0.106869 0.438136
0.165822 0.141278 0.715214
-0.0582338 0.212578 0.750074
0.025652 0.0965463 0.438136
0.102618 0.0823808 0.416238
-0.175936 -0.00268061 0.416238
-0.142088 -0.0280692 0.416238
0.142584 0.162116 0.791898
0.111463 0.126399 0.416238
-0.167232 0.138475 0.565532
-0.0927045 0.200471 0.740616
-0.14254 -0.00109732 0.438136
-0.0113534 0.18736 0.438136
-0.0722741 -0.175662 0.438136
0.131386 0.178398 0.730906
-0.175619 0.0675907 0.416238
-0.116287 0.0951633 0.416238
-0.167232 0.126816 0.284485
0.141577 0.136102 0.416238
-0.142584 -0.143836 0.415257
-0.159939 -0.165274 0
-0.108992 -0.00176888 0.416238
0.0377101 0.220333 0.81832
0.142584 -0.13495 0.228202
-0.0697924 -0.14983 0.416238
-0.0352521 0.0786566 0.416238
-0.0390999 0.216947 0.742235
0.150924 -0.125026 0.343345
-0.147607 -0.152249 0.306073
-0.0677399 0.179198 0.438136
0.142584 -0.143433 0.300364
-0.142584 0.142137 0.064127
-0.167232 0.132009 0.625499
-0.167232 -0.150129 0.187012
-0.164318 0.128786 0.110528
-0.0906661 0.122658 0.438136
-0.143959 -0.130236 0.267933
-0.155211 0.104126 0.438136
0.167232 0.148929 0.172622
0.147491 0.151356 0.797227
-0.035942 -0.17457 0.416238
0.171019 -0.069287 0.416238
-0.153236 0.160266 0.869737
-0.198456 -0.0981324 0.419894
-0.149262 -0.0434826 0.416238
-0.148859 -0.129434 0.279537
-0.0196907 0.210689 0.423995
0.0405896 0.105165 0.438136
0.151169 -0.168014 0.0778595
-0.0838618 -0.088744 0.438136
-0.0782129 -0.0437028 0.438136
-0.150873 -0.165994 0.107101
0.0312561 0.221347 0.803635
0.115704 0.186475 0.748559
0.0839406 0.207126 0.848852
0.158163 0.123402 0.188463
0.101825 -0.0797502 0.438136
0.163755 -0.146077 0.395414
-0.119 -0.0852105 0.438136
-0.110048 -0.194116 0.418361
-0.167232 -0.143775 0.36722
0.104144 -0.0666017 0.416238
0.163092 0.10276 0.416238
-0.195768 -0.080655 0.416238
-0.21408 -0.0134542 0.438136
0.142584 0.150387 0.677029
0.0824415 0.204497 0.728384
0.0737092 0.212793 0.826701
0.143474 0.162066 0.753373
-0.169696 -0.0559144 0.416238
0.121864 0.188154 0.825731
-0.205504 -0.0281661 0.416238
-0.0611675 0.214979 0.821607
-0.0963531 -0.017709 0.416238
0.139075 -0.174086 0.416238
-0.167232 0.143714 0.248893
-0.159843 0.151105 0.144237
-0.0131902 0.195452 0.438136
-0.0272517 0.0312749 0.438136
0.0511808 -0.190236 0.416238
-0.0984194 -0.183123 0.416238
-0.00224364 -0.0631844 0.438136
-0.076409 0.211733 0.802654
-0.0455602 -0.162528 0.438136
-0.103647 -0.0732535 0.416238
0.201841 -0.0884579 0.432584
-0.130608 0.013483 0.438136
-0.126227 0.00108407 0.438136
-0.167232 -0.158939 0.0813401
-0.113022 0.0674444 0.416238
-0.032385 -0.074349 0.438136
-0.18058 -0.0201516 0.416238
0.12391 -0.0464724 0.416238
0.179985 -0.0108088 0.416238
0.162808 -0.0101905 0.416238
-0.0428606 -0.190282 0.416238
0.205942 0.0461502 0.438136
-0.143564 0.117957 0.475108
0.145852 0.119926 0.541449
0.10117 -0.15657 0.416238
0.142584 -0.161417 0.131713
0.0725506 -0.0161417 0.438136
0.0977619 -0.192166 0.416238
0.115236 -0.173876 0.416238
0.167232 0.125925 0.343859
-0.106753 0.198645 0.857433
0.142584 0.150246 0.628069
-0.154649 0.153774 0.816911
0.142584 0.123013 0.523891
-0.117399 -0.111482 0.416238
-0.130664 0.0205017 0.438136
0.00516013 -0.16271 0.438136
0.167232 0.149393 0.617801
-0.0366544 0.208779 0.425358
-0.149365 0.130788 0.0815546
0.0533213 -0.0311208 0.438136
0.213566 0.0426254 0.423177
-0.142584 0.150724 0.721791
0.167232 -0.160221 0.16564
0.0875126 0.202508 0.773785
0.0733125 -0.132277 0.438136
0.0186071 0.202108 0.416238
-0.177377 0.0700287 0.438136
-0.100531 -0.115567 0.416238
0.0958992 0.179496 0.416238
0.134709 0.105032 0.416238
0.0482804 0.109654 0.416238
-0.0637611 0.209744 0.725696
0.15557 0.141429 0.529438
0.167232 -0.148956 0.152246
0.12311 -0.181975 0.438136
-0.209976 0.0528852 0.422779
0.0265121 -0.209542 0.416238
-0.0842237 0.00795123 0.438136
0.153448 -0.131587 0.248372
-0.148149 0.137147 0
0.165058 -0.0181915 0.438136
0.0979627 -0.00127363 0.416238
0.167232 0.12115 0.263632
-0.165858 0.154566 0.0941479
0.0957804 0.180204 0.416238
-0.156639 0.152501 0.80655
-0.142584 -0.140313 0.213073
0.12566 0.103832 0.416238
0.167232 -0.149138 0.0994759
0.0589854 0.217057 0.823784
0.150132 -0.0846744 0.416238
-0.0977641 0.136184 0.416238
-0.0609898 -0.0830063 0.416238
-0.0226361 0.217452 0.769576
0.147376 0.146013 0.217942
-0.155977 0.146952 0.204353
-0.0829463 0.0787365 0.438136
0.0906804 0.0346749 0.416238
-0.138459 0.0174696 0.416238
0.128583 -0.154998 0.416238
-0.167232 -0.136366 0.320394
0.036577 0.145422 0.416238
0.15054 -0.156937 0.238212
-0.0696674 -0.0427309 0.416238
0.143952 -0.137441 0.163633
0.0960692 0.149926 0.438136
-0.118098 -0.0306677 0.438136
0.193994 -0.0377163 0.438136
-0.0659058 0.209255 0.773422
0.167232 -0.135879 0.330041
0.176934 -0.129142 0.416238
0.0378742 0.0236164 0.416238
0.0522093 0.157543 0.438136
0.167232 -0.151906 0.279758
0.0976265 0.0373031 0.416238
0.0523599 -0.0983312 0.416238
-0.151785 -0.116686 0.416238
0.143193 0.165469 0.790301
0.142584 0.145208 0.128627
0.142584 0.140839 0.244969
-0.110969 -0.133348 0.416238
-0.122703 0.18767 0.802385
-0.0687032 -0.0855847 0.438136
0.197996 -0.0303639 0.438136
-0.155046 0.14612 0.580346
0.142584 -0.149604 0.0622699
0.167232 0.142291 0.174622
0.0103916 0.211736 0.436303
-0.0417587 -0.215895 0.438136
-0.158149 0.160501 0.736387
0.0250342 -0.206877 0.438136
-0.167232 -0.162643 0.00253227
-0.167232 0.151219 0.0315027
-0.167232 0.154825 0.0156158
0.144838 0.136422 0.473166
-0.167232 0.148275 0.682798
-0.157839 -0.132065 0.241448
0.167232 -0.131213 0.264733
-0.0776106 0.0483161 0.416238
0.0449243 -0.00494997 0.416238
-0.100193 0.197207 0.776503
0.157303 0.143522 0.552154
0.143235 0.132125 0.0621958
-0.164465 -0.111842 0.416238
-0.155257 0.149424 0.781506
-0.142584 0.137942 0.135219
-0.167232 0.114437 0.447701
0.210538 -0.0191298 0.416238
-0.164225 -0.157716 0.226937
-0.135841 0.174853 0.719881
0.0601839 0.159217 0.438136
0.137809 0.144581 0.438136
0.142584 -0.142252 0.128703
0.0523427 0.0194121 0.438136
-0.154716 0.136422 0.458739
-0.00130217 -0.11544 0.438136
0.154606 0.137591 0.487795
-0.142584 -0.147445 0.119268
0.097933 -0.153823 0.438136
-0.151798 0.1378 0.686914
-0.0375172 0.215734 0.754562
0.212759 0.00285526 0.416238
0.167232 -0.16306 0.123065
0.0869236 0.202739 0.721542
-0.0197957 -0.0652558 0.438136
0.0386957 0.217038 0.776538
-0.0298485 0.0555993 0.416238
-0.160789 0.112613 0.416238
-0.167232 0.148818 0.0951668
0.0802026 0.0820723 0.438136
0.00757734 0.218582 0.760704
-0.150072 -0.149169 0.350647
-0.0552406 -0.0475445 0.438136
0.165782 0.108745 0.40062
-0.0839066 0.176846 0.438136
-0.167232 -0.130622 0.293
-0.0533359 0.00727348 0.416238
0.0720002 -0.0846276 0.438136
-0.0443751 0.19498 0.416238
-0.0702282 0.0751827 0.438136
0.0185696 0.0581611 0.438136
-0.142905 0.1081 0.438136
0.18611 0.0655408 0.438136
0.154654 -0.14649 0.389423
0.149496 -0.172991 0
0.0689049 0.0856701 0.438136
0.0347608 -0.1888 0.416238
-0.142584 0.138811 0.166362
-0.166453 0.126841 0.138683
0.139686 -0.0346382 0.438136
-0.142584 -0.14072 0.227939
0.0194592 -0.00537292 0.438136
0.153873 0.0198794 0.438136
-0.157779 -0.121063 0.400704
0.157349 0.0545347 0.438136
0.142584 0.140743 0.612363
0.155669 -0.121356 0.396472
-0.105865 0.192155 0.741568
-0.156468 0.148179 0.186602
-0.143882 0.135777 0.670446
0.152691 0.16141 0.745769
0.041289 -0.0495928 0.416238
-0.149472 0.136613 0.354007
0.165435 0.131053 0.632003
-0.142584 0.135684 0.451539
0.0579297 -0.00139095 0.416238
0.148756 0.163872 0.772975
-0.0425171 -0.028025 0.438136
-0.155594 0.118762 0.255629
0.0167906 0.124238 0.416238
-0.00792646 0.0311825 0.438136
0.154726 -0.137378 0.164555
-0.183915 -0.1182 0.416238
0.0766164 0.166899 0.438136
0.167232 -0.136566 0.327139
0.166482 0.168712 0.825493
-0.167232 0.134032 0.493263
0.208043 0.058411 0.421465
-0.205799 -0.0771469 0.426255
0.112652 -0.150321 0.416238
-0.204589 -0.0806045 0.41951
-0.182346 0.11281 0.423578
-0.166703 -0.137224 0.166785
0.113035 -0.152701 0.438136
0.115762 0.0768845 0.416238
0.142584 0.134352 0.313711
0.142584 0.151812 0.663309
-0.142584 0.148826 0.613527
0.14301 0.148626 0.607535
-0.0732736 -0.21116 0.430629
0.154667 -0.0964269 0.438136
0.00387308 0.220394 0.741315
-0.14714 0.111223 0.364749
-0.142584 0.142062 0.186266
0.0339503 0.0890026 0.416238
-0.0487529 -0.0864381 0.416238
-0.155026 0.0392813 0.416238
0.120418 -0.145474 0.438136
-0.150375 -0.140757 0.11564
0.0854018 0.0029051 0.416238
0.149603 0.0811855 0.438136
0.190314 -0.112452 0.437726
0.138904 -0.175123 0.426828
-0.150545 -0.126122 0.327479
0.151691 0.133516 0.042068
-0.0242999 0.0771133 0.438136
-0.167232 -0.143959 0.118758
0.105481 0.199379 0.827963
0.142584 0.131396 0.265359
0.167232 -0.161447 0.167538
-0.0389112 0.0146808 0.438136
-0.167232 0.122526 0.558705
-0.158881 -0.15514 0.419329
-0.0742415 -0.184712 0.416238
-0.0284818 0.221556 0.812951
0.136568 -0.109529 0.438136
-0.142584 0.12334 0.536959
-0.172205 -0.141263 0.42871
0.166094 -0.154326 0
0.139422 -0.0052551 0.438136
0.163453 0.136422 0.442641
0.164168 0.105216 0.438136
-0.0272835 -0.171134 0.416238
-0.150881 0.112419 0.480353
-0.068807 -0.177892 0.438136
-0.167232 0.154521 0.750768
0.0239355 0.0183073 0.438136
0.164491 -0.0995699 0.416238
0.173595 -0.0817415 0.416238
0.198519 0.0764017 0.438136
0.0541419 0.211937 0.734266
0.167232 0.147426 0.168199
-0.0757397 0.118689 0.438136
-0.0420557 0.214698 0.754722
0.134575 0.173891 0.746392
-0.0878379 -0.206064 0.422598
-0.00156657 -0.153212 0.438136
-0.160181 0.103931 0.416238
0.159473 -0.134066 0.21249
-0.0226966 0.0966783 0.416238
-0.059121 -0.0831537 0.438136
0.142584 -0.144238 0.411492
-0.0939576 0.156347 0.438136
-0.0642498 -0.173638 0.416238
0.193306 -0.0438506 0.416238
-0.159986 -0.154035 0.43437
0.15529 0.140927 0.523995
0.0634281 0.214463 0.805313
0.143535 0.153697 0.662559
0.0537717 0.106563 0.438136
-0.10249 0.194104 0.74622
0.0911704 -0.202767 0.416238
-0.166982 -0.145502 0.403732
0.142584 -0.145625 0.207376
0.127279 -0.083202 0.416238
0.149023 -0.035181 0.416238
0.164944 0.110287 0.416238
-0.0391115 0.128184 0.438136
0.0992501 -0.0621442 0.416238
0.0275648 -0.0883008 0.438136
-0.161863 0.149943 0.785734
-0.00195314 0.0411746 0.438136
-0.151843 -0.132836 0.230296
-0.0702637 -0.198831 0.438136
0.0801228 0.205406 0.742624
-0.136286 -0.0146558 0.416238
-0.0827173 -0.103825 0.416238
0.0718554 0.208649 0.751862
0.142584 0.131497 0.302046
0.140965 0.170758 0.75317
0.167232 -0.13279 0.345101
0.0554419 0.171157 0.416238
-0.146569 -0.127127 0.312933
0.155642 0.11866 0.416238
0.167232 -0.160085 0.156324
0.178848 -0.0193255 0.416238
0.157387 -0.00102955 0.416238
0.132628 -0.134573 0.416238
0.0118226 0.219799 0.739485
0.00597973 -0.00264644 0.416238
-0.167232 -0.142501 0.324484
0.104116 -0.0530376 0.416238
-0.150392 0.126076 0.14975
0.162487 -0.12005 0.415374
-0.162651 0.111774 0.45441
0.162843 0.141432 0.529469
-0.142584 -0.156047 0.0168775
0.175053 0.0881941 0.416238
0.20556 -0.0384554 0.416238
-0.00973848 0.219955 0.71731
-0.142584 0.12472 0.363652
0.212192 -0.0572298 0.438136
-0.162661 0.123256 0.475108
0.117518 0.185427 0.739992
-0.152817 0.147294 0.59308
0.152718 -0.143329 0.0784151
-0.0477851 0.15992 0.438136
0.0870504 0.0630092 0.416238
-0.167627 0.0970145 0.438136
0.142584 0.123343 0.241247
0.00556417 -0.0320628 0.438136
0.109787 -0.093415 0.416238
-0.152615 0.169406 0.833015
-0.149008 0.148437 0.605488
-0.162452 0.1597 0.865139
0.159268 0.162408 0.757088
0.153982 0.117395 0.275417
-0.113773 0.120772 0.416238
0.167232 0.138897 0.0804857
0.148995 -0.147319 0.0206598
-0.061071 0.21193 0.757141
-0.165192 0.14565 0.750796
0.167232 0.126055 0.586573
-0.142584 0.125999 0.336411
0.0541887 0.0787707 0.438136
0.152601 0.161478 0.728577
0.0233841 -0.21667 0.416238
0.142773 0.158309 0.0399723
0.0344309 0.216436 0.721373
-0.150904 0.161505 0.747283
-0.0658084 -0.203133 0.416238
-0.0701875 0.214176 0.804522
-0.177445 -0.0917793 0.438136
0.0635983 -0.0632236 0.438136
0.158816 0.1464 0.756894
-0.125716 -0.151423 0.438136
0.144045 -0.169981 0.428123
-0.0241316 0.13379 0.416238
0.146254 -0.139024 0.416238
0.0324554 0.222797 0.811913
-0.214027 -0.0306542 0.416238
0.0203893 -0.16246 0.416238
-0.1056 0.106441 0.438136
0.135112 -0.133957 0.438136
0.191587 0.0537066 0.438136
-0.102703 -0.175723 0.416238
0.118236 0.192018 0.849735
0.0243249 0.114596 0.438136
-0.14558 -0.13817 0.153089
-0.189462 0.0168674 0.416238
-0.0994219 0.0402605 0.438136
0.0288441 0.216986 0.741731
-0.0766494 0.210307 0.86396
-0.217095 0.0113615 0.426435
0.167232 0.127064 0.465749
-0.0404067 0.221294 0.821638
-0.142584 0.142698 0.718617
-0.0590728 -0.188198 0.416238
-0.167232 -0.150218 0.297408
0.0825065 -0.166035 0.416238
0.213669 0.0417939 0.418811
-0.158572 0.157212 0.844891
0.159389 0.162332 0.756258
-0.166172 0.151191 0.635364
-0.0779114 -0.0362205 0.416238
-0.072742 0.0147204 0.438136
0.0279335 0.176437 0.416238
-0.0389126 -0.212256 0.438136
-0.140606 0.171054 0.736792
-0.142584 0.151962 0.122264
-0.124983 0.124573 0.416238
0.0550224 -0.0514052 0.438136
0.167232 0.137026 0.181857
-0.0143061 0.00698592 0.438136
0.155809 0.160861 0.874581
-0.152142 0.123587 0.475108
-0.144765 -0.128161 0.29796
-0.0939668 0.00279337 0.416238
0.0502863 -0.125143 0.416238
0.0256688 0.218763 0.71756
0.0670884 -0.104717 0.438136
0.142584 0.146697 0.0599288
0.16726 0.115523 0.416238
0.143157 0.144427 0.74084
0.0877666 0.193765 0.429149
0.0243108 0.217326 0.739766
-0.0707344 0.00227559 0.416238
0.0549296 0.193688 0.438136
0.058384 0.15692 0.438136
-0.0234553 0.000119999 0.416238
0.152945 -0.124614 0.349306
0.18403 0.086921 0.438136
0.147529 -0.146217 0.0366103
-0.0130062 0.0942999 0.416238
-0.167232 0.126457 0.351138
-0.118526 0.0153377 0.438136
0.167232 0.144127 0.674609
0.142584 0.115733 0.478073
0.142584 -0.129417 0.359053
-0.0898489 -0.205361 0.425113
-0.0709978 -0.157155 0.438136
0.160181 -0.145262 0.407206
-0.167232 0.130589 0.605422
0.167232 -0.1363 0.180709
0.0853265 -0.140429 0.416238
0.16449 0.0545377 0.438136
-0.167232 0.133987 0.452948
-0.0906701 -0.089849 0.416238
0.156133 0.0416376 0.438136
0.142584 0.140479 0.549874
0.0718718 0.208643 0.773221
-0.0217946 0.183448 0.438136
-0.163434 0.1322 0.641334
-0.161582 -0.138101 0.154078
0.153497 -0.0646708 0.416238
-0.0348578 0.0624368 0.438136
-0.142584 0.108813 0.41547
-0.144262 0.144471 0.240272
0.106961 0.191522 0.724771
0.0875663 -0.0826953 0.438136
0.148146 0.142332 0
0.0699383 -0.20177 0.438136
0.186429 0.0870676 0.438136
-0.142584 0.118911 0.520704
0.142584 0.131538 0.544408
-0.167232 0.141682 0.637233
0.167232 -0.167396 0.04494
-0.212312 -0.058532 0.425385
0.15701 0.138488 0.326866
-0.161536 0.120121 0.235952
-0.167232 0.134628 0.0277397
-0.167232 0.147561 0.0117144
-0.142584 -0.130816 0.345273
0.156675 0.117522 0.521882
0.167232 -0.152978 0.0698888
0.186726 0.0531757 0.416238
0.145466 0.151251 0.796378
-0.157352 0.157819 0.707291
-0.104869 0.194507 0.733689
-0.0103575 0.224454 0.830647
0.161306 0.147917 0.190393
-0.190136 0.0168962 0.438136
0.0253513 -0.0364006 0.438136
-0.154052 0.136743 0.352128
0.167232 0.131276 0.170725
0.0650483 0.0849499 0.416238
-0.177776 0.020209 0.416238
-0.137674 0.177221 0.828922
0.145593 -0.14281 0.0859195
0.167232 0.13513 0.115931
0.0139745 0.218102 0.753074
-0.143787 0.0828404 0.438136
-0.159248 -0.168622 0.0690675
-0.142584 0.167346 0.835194
0.167232 0.154557 0.789757
0.144295 0.13342 0.400225
0.0944871 0.158664 0.438136
-0.142584 0.141619 0.14126
-0.149825 0.142047 0.536145
0.149411 0.164024 0.745673
0.0204396 -0.222483 0.416238
0.121142 0.188571 0.844021
-0.0870366 0.201044 0.719994
-0.026743 -0.0984379 0.438136
0.167232 0.1444 0.0662431
0.0892377 0.129428 0.416238
0.0253707 -0.156636 0.438136
0.142584 0.13641 0.531131
-0.142584 0.12101 0.485906
0.142584 0.135914 0.0128543
-0.117901 0.190442 0.812158
-0.167031 0.144656 0.237585
-0.110484 -0.138728 0.416238
-0.149818 -0.143523 0.0755966
-0.167232 -0.150449 0.277067
0.167232 -0.151744 0.160986
0.0284127 0.0570411 0.438136
0.131562 -0.128324 0.416238
-0.123573 0.187168 0.834343
-0.164843 0.149706 0.783805
-0.167232 0.146706 0.201886
-0.142086 0.0957559 0.438136
-0.066145 -0.049337 0.438136
0.218902 -0.00764089 0.422669
0.0603305 0.0852624 0.438136
0.126068 -0.0978904 0.438136
-0.15604 -0.164412 0.130005
-0.151974 0.14562 0.574922
0.170784 -0.0650488 0.416238
-0.142584 0.136347 0.163409
0.127599 0.00138208 0.438136
0.00777599 -0.125007 0.438136
0.0954229 0.0440427 0.416238
0.111519 -0.183856 0.438136
0.142584 -0.152548 0.147518
-0.155357 0.16914 0.830137
0.167232 -0.152226 0.235813
-0.0413605 0.214857 0.746805
-0.0664417 -0.209098 0.438136
-0.0761163 -0.0282428 0.438136
-0.0781222 0.167601 0.416238
0.0346672 -0.0922924 0.416238
-0.134415 0.17599 0.757115
0.156284 0.151412 0.1398
-0.000100061 0.151797 0.438136
-0.0974034 -0.0422881 0.438136
0.0209913 0.106138 0.438136
-0.0652804 0.214041 0.858887
0.0426816 -0.15206 0.438136
0.138747 0.176362 0.806931
-0.0102302 0.0638019 0.438136
-0.0924068 0.200588 0.736989
0.109983 0.0489655 0.416238
0.132998 0.104151 0.416238
0.0320123 -0.108681 0.416238
0.163992 -0.132353 0.23729
-0.0140957 -0.0923233 0.438136
0.159624 0.168859 0.82709
-0.128026 -0.035568 0.438136
0.131436 0.0760364 0.438136
-0.167232 -0.136099 0.413384
-0.116702 -0.0544423 0.416238
0.0756519 0.0493072 0.438136
0.0285572 0.223089 0.829819
-0.00690846 0.080295 0.438136
0.142584 0.16803 0.844015
0.153014 0.134365 0.386549
0.167232 0.12338 0.470222
-0.139747 -0.0935762 0.416238
-0.167232 -0.147218 0.130313
0.0951738 -0.0386968 0.438136
0.166695 0.158393 0.038749
0.0286197 0.119097 0.416238
-0.0118331 0.0064978 0.416238
0.186512 0.0863871 0.416238
0.165933 -0.10905 0.438136
0.0601213 0.0283816 0.438136
0.149935 0.160223 0.733379
-0.137133 0.173824 0.767606
0.147714 -0.140303 0.122206
-0.0319273 0.216755 0.757431
-0.0816871 0.203144 0.761807
0.17018 -0.0510304 0.416238
0.138593 -0.000265177 0.416238
0.00541198 -0.084789 0.416238
-0.144283 -0.133904 0.214838
-0.0243778 0.223403 0.805181
-0.00456262 0.1249 0.438136
0.177104 0.104129 0.416238
-0.151848 0.159158 0.860727
-0.10082 0.195068 0.716678
0.162657 -0.171734 0
-0.142584 0.169297 0.861565
-0.0878155 0.113826 0.438136
-0.0115832 -0.223926 0.436482
0.162276 0.0286206 0.416238
-0.166707 -0.160319 0.189257
0.149842 0.149381 0.169197
-0.175516 0.0878422 0.438136
0.167232 0.162607 0.784312
-0.142584 0.121591 0.266618
-0.167232 0.160164 0.734429
-0.142584 0.143688 0.00847922
0.167232 0.151581 0.136941
0.0416141 -0.0836476 0.438136
-0.150525 0.140549 0.297032
-0.16353 0.12367 0.18459
0.142584 0.159782 0.00983509
0.163901 -0.172293 0.0159155
-0.142584 -0.152428 0.0295128
-0.0815508 0.0163032 0.416238
0.0957719 -0.115004 0.416238
0.103017 -0.0742622 0.416238
0.139687 0.113138 0.438136
-0.173951 -0.0499695 0.438136
-0.145245 -0.129022 0.285497
-0.0372911 0.190194 0.416238
0.0589617 0.210837 0.756972
-0.0318926 0.2213 0.860074
-0.14903 0.169896 0.802341
-0.145428 -0.0357976 0.416238
0.0792934 0.077294 0.416238
-0.17081 -0.0920997 0.416238
-0.152643 0.144405 0.24122
0.15857 0.143134 0.425717
0.146902 0.158994 0.0300514
-0.148594 0.164684 0.73894
-0.0168407 0.223968 0.806945
0.156481 -0.16627 0.103102
0.00117698 -0.0423884 0.416238
-0.0321471 0.185082 0.416238
0.167232 0.137111 0.245527
0.142584 0.144467 0.00586504
0.145593 0.120663 0.228108
0.017864 0.137337 0.438136
-0.120592 0.183652 0.76138
-0.149191 0.136422 0.457351
0.167232 -0.137943 0.40925
0.142584 0.149512 0.710204
-0.142584 -0.168262 0.0222654
0.0633469 0.0680286 0.438136
-0.123535 0.111511 0.416238
-0.135989 0.174735 0.718771
-0.167232 0.127391 0.365774
0.141306 -0.121626 0.416238
0.124921 0.186389 0.851174
-0.151105 -0.17062 0.0401437
-0.0475889 -0.0214058 0.416238
-0.167232 0.118941 0.455652
-0.145617 0.115295 0.305804
0.0747827 0.00755743 0.416238
-0.189215 -0.0475157 0.438136
-0.167232 -0.145019 0.396687
-0.156206 -0.152022 0.309346
0.156648 0.121593 0.214642
-0.159588 -0.00916544 0.438136
0.160787 -0.146736 0.416238
0.142584 0.133248 0.262912
-0.00431043 0.220362 0.770038
-0.110924 -0.00507216 0.438136
0.142584 0.156951 0.729856
-0.0572125 -0.140242 0.438136
0.166885 0.157461 0.703401
0.142584 0.150177 0.0148006
-0.138337 -0.0784618 0.416238
-0.0677348 0.0808457 0.416238
0.0240373 0.202866 0.416238
0.0494617 0.206644 0.416238
0.144899 0.131636 0.636747
-0.142584 0.132795 0.136934
0.0961975 0.00884766 0.416238
-0.0343936 0.216447 0.73913
-0.144043 -0.150315 0.33406
-0.0431184 0.17175 0.438136
0.142584 -0.126918 0.3609
-0.140854 0.00736114 0.416238
0.155844 -0.167906 0.0794206
-0.142584 -0.122184 0.40694
-0.142584 0.124157 0.387798
0.209276 -0.0213134 0.416238
-0.0116743 -0.157958 0.416238
0.148985 0.136422 0.44759
0.167232 0.133462 0.646566
0.167232 0.122568 0.28332
-0.156886 -0.0205779 0.416238
-0.167232 -0.171577 0.0237765
-0.0796991 0.135729 0.416238
-0.147306 0.14374 0.735249
0.142584 0.148457 0.0235553
-0.0988032 0.112361 0.438136
0.197437 -0.101045 0.416827
0.202621 -0.065997 0.438136
-0.0756502 -0.183627 0.438136
-0.143964 -0.172686 0.0102305
0.000264991 0.223677 0.830896
-0.167232 0.129849 0.232336
0.121166 0.185093 0.725478
-0.151104 -0.104725 0.416238
-0.072239 0.208499 0.743553
-0.142584 0.14275 0.623369
-0.109174 -0.194666 0.424706
0.151489 0.0458748 0.438136
0.0334196 0.218183 0.743751
-0.167232 -0.13103 0.368061
-0.161616 0.157244 0.701054
-0.122886 0.182327 0.74626
0.0233274 -0.0600163 0.416238
-0.162691 0.121896 0.210268
0.0787553 -0.196175 0.416238
0.141482 0.0760916 0.416238
-0.00434078 -0.224741 0.432681
0.0390121 0.21539 0.717462
0.142584 0.147613 0.066216
-0.15234 0.148138 0.602239
-0.0711555 0.0064755 0.416238
0.127467 0.179562 0.772861
0.130971 -0.178758 0.438136
0.146307 0.149057 0.17389
0.0607356 0.212006 0.728242
-0.142584 0.116047 0.330294
0.0462492 -0.173585 0.438136
-0.142584 0.146514 0.0711473
-0.167232 0.136188 0.58569
-0.0472276 -0.178344 0.438136
-0.213171 0.0355382 0.438136
-0.151565 -0.138216 0.416238
-0.165687 0.157685 0.049003
0.133666 0.104131 0.416238
-0.101271 0.200043 0.805168
0.114567 -0.164431 0.438136
-0.0277039 -0.0601486 0.438136
0.160826 0.143195 0.258738
-0.0197771 -0.0880629 0.416238
-0.101338 0.200986 0.802341
-0.166752 -0.13619 0.18174
-0.102661 0.159823 0.438136
-0.158383 0.0377771 0.416238
-0.117965 -0.086766 0.416238
0.123045 -0.0811022 0.416238
-0.117046 0.187476 0.742477
-0.0120519 0.165166 0.438136
-0.164395 -0.0311077 0.416238
-0.162177 0.131443 0.0720638
-0.00827664 0.125025 0.438136
0.125878 -0.0856141 0.416238
0.161768 -0.153674 0.285435
-0.0280236 -0.0346885 0.416238
-0.148185 -0.172891 0.00725961
0.0530109 0.00299575 0.438136
0.145014 0.134897 0.0220737
-0.167232 -0.147412 0.0488915
-0.0768121 -0.209922 0.421049
0.167232 0.147015 0.188773
0.146181 0.118743 0.255905
0.0515257 -0.0455773 0.416238
0.0665282 0.135112 0.438136
0.145086 -0.148387 0.00519729
0.0508734 0.218907 0.843617
-0.151446 0.12507 0.164324
0.129243 0.185665 0.839569
-0.013071 -0.12451 0.416238
-0.107151 0.193189 0.733661
-0.022669 0.21745 0.775782
-0.163692 0.109806 0.385265
-0.0862132 0.207883 0.841639
-0.142584 0.150146 0.720612
0.0928361 0.0414022 0.438136
-0.0840552 -0.138751 0.438136
0.0744225 -0.0360336 0.438136
0.167232 -0.158226 0.126469
0.142584 -0.141361 0.141375
0.176765 -0.076867 0.438136
0.166684 0.137404 0.342559
-0.00498188 0.223323 0.860043
-0.058629 0.194461 0.416238
0.142584 0.128621 0.128379
-0.156594 0.0313733 0.416238
0.158798 -0.155272 0.262309
0.165757 -0.12155 0.393652
0.119407 -0.0550991 0.416238
-0.0811336 -0.0171318 0.438136
0.0841608 0.208689 0.818941
0.152765 0.108019 0.41113
-0.167232 0.148745 0.0564848
-0.140221 0.102221 0.438136
-0.149574 -0.148267 0.00693076
-0.167232 -0.14014 0.144732
-0.137249 -0.0291461 0.416238
-0.146377 0.150364 0.626399
-0.094455 0.199785 0.734426
0.167232 0.136086 0.0203192
0.138596 0.178446 0.817526
-0.0242773 0.0129765 0.438136
-0.162401 -0.163867 0.137893
-0.0778025 0.0811668 0.416238
0.0925936 0.0164417 0.416238
0.142584 0.128928 0.256394
0.167232 0.153398 0.798269
-0.00892252 -0.213594 0.416238
-0.161865 -0.14375 0.072316
-0.0269712 0.119844 0.416238
-0.00125554 0.180554 0.438136
0.167232 0.154706 0.684188
-0.156049 0.154423 0.0962119
0.147683 0.171816 0.859173
0.0249519 -0.213033 0.438136
-0.00915551 0.00524662 0.438136
0.139495 0.119068 0.416238
0.142584 0.129676 0.394435
0.147818 0.132339 0.415873
-0.102632 0.186453 0.430113
-0.101094 -0.165445 0.438136
-0.121663 -0.0540897 0.416238
-0.150215 -0.143292 0.0789434
0.107016 0.197373 0.802341
-0.112444 -0.153942 0.438136
0.142584 0.12011 0.364638
0.159497 -0.147949 0.0115388
-0.16163 0.137782 0.489861
-0.153061 0.154485 0.0953224
-0.142939 0.118307 0.262205
0.0978247 0.203323 0.832585
-0.00109941 0.219068 0.72399
-0.0088514 0.218486 0.718431
0.142584 -0.148511 0.0658229
-0.166338 -0.0926385 0.438136
0.163918 0.142724 0.726985
0.143876 0.125196 0.162502
-0.00820896 0.22007 0.733398
-0.108425 0.158772 0.438136
0.142584 -0.14534 0.247551
-0.12669 -0.1663 0.438136
0.142584 0.113414 0.476882
-0.0215619 0.0883929 0.438136
0.156877 0.126855 0.597839
-0.121935 0.123323 0.416238
0.0432552 0.220645 0.857247
0.0653837 -0.151207 0.438136
-0.164855 0.120784 0.226357
-0.212528 -0.0579174 0.428602
0.144122 0.156042 0.835369
-0.149141 0.165565 0.791341
0.186227 0.106635 0.429098
-0.157954 0.131783 0.637947
-0.142584 -0.144764 0.105395
-0.024114 0.21888 0.73686
-0.0659624 -0.162235 0.438136
-0.142584 0.129445 0.61745
-0.0896198 -0.0511661 0.438136
0.116555 0.0928327 0.416238
0.165369 -0.123413 0.366684
0.0310805 -0.0321816 0.416238
-0.167232 0.122044 0.256062
0.0123451 -0.142698 0.416238
0.142584 0.132416 0.219026
0.122863 0.0334434 0.416238
-0.167232 0.134148 0.377934
0.126323 0.171052 0.416238
0.150338 -0.0912874 0.438136
-0.167232 0.125498 0.356988
-0.125836 0.0732017 0.416238
-0.169127 -0.144891 0.418159
-0.167232 -0.136481 0.346772
-0.13196 -0.00510971 0.438136
0.0667219 -0.118837 0.438136
-0.156514 -0.149899 0.340084
-0.158739 0.14176 0.53303
-0.202306 0.0599787 0.416238
0.167232 0.134659 0.509549
0.161352 0.139692 0.309437
-0.143782 0.168521 0.726558
-0.08877 0.0977044 0.438136
-0.151224 0.133159 0.404
0.00700738 -0.161177 0.438136
0.0597608 0.210655 0.750845
0.0427448 0.214538 0.744418
0.00206384 0.168031 0.438136
0.159592 -0.147564 0.373882
-0.150261 0.125449 0.416238
0.0810643 0.205037 0.733831
-0.143692 -0.128082 0.299105
0.0472442 0.215086 0.720605
-0.148391 0.0800394 0.416238
0.101459 0.201701 0.831985
0.100953 -0.0196905 0.438136
0.142584 0.129119 0.26499
0.21252 0.0456149 0.418257
0.00283412 0.218937 0.722442
-0.0478186 0.214956 0.729597
0.167232 0.152503 0.0657541
-0.148895 0.0381629 0.438136
0.0945964 -0.0798171 0.438136
0.108126 0.00530015 0.416238
-0.0329717 0.216677 0.737055
-0.122271 0.154995 0.416238
-0.167232 -0.140603 0.182718
0.126216 0.10833 0.416238
0.167232 -0.136171 0.225365
0.160877 0.0470761 0.438136
-0.0521301 0.00876227 0.438136
0.147119 -0.0335714 0.438136
0.144414 -0.140707 0.116362
-0.14635 -0.161111 0.17778
0.133749 0.163237 0.416238
0.123267 0.0755974 0.416238
0.167232 -0.167816 0.0298672
-0.024658 0.221865 0.86396
0.167232 0.133695 0.166719
-0.160621 0.121158 0.220945
-0.0346639 0.221029 0.830911
-0.145329 -0.140933 0.113097
-0.155337 0.133174 0.047007
0.157037 0.149587 0.782832
0.0136463 -0.212966 0.416238
-0.166525 -0.148361 0.00556786
-0.178855 -0.0203875 0.438136
-0.0869546 0.0303739 0.416238
-0.170522 0.125627 0.438136
0.134426 0.146106 0.416238
0.156185 0.119025 0.534116
-0.165167 -0.148501 0.00354372
-0.167232 -0.148075 0.297493
-0.16889 0.0190483 0.416238
0.150755 0.147605 0.766706
0.112656 0.19347 0.816948
0.061114 0.211919 0.73451
0.136636 0.174211 0.720625
-0.128423 0.170245 0.41948
0.0897056 0.0845123 0.438136
0.202367 0.0474518 0.438136
0.0445107 -0.0447348 0.416238
-0.0894908 0.200081 0.775793
0.0734339 -0.195378 0.416238
0.164585 -0.164046 0.135303
0.0954606 -0.180161 0.416238
0.155947 0.142589 0.542029
-0.0284276 0.0458945 0.438136
-0.050922 0.218896 0.841875
-0.142584 -0.137573 0.399558
-0.183981 -0.0377122 0.416238
-0.0643599 0.215831 0.834281
0.157313 0.153206 0.65723
-0.142584 -0.136975 0.378349
-0.103613 0.200458 0.82128
0.144278 -0.0932357 0.416238
0.142584 0.155217 0.0795801
-0.140489 -0.0732704 0.416238
-0.15661 0.149427 0.168536
-0.166609 0.136422 0.442637
-0.162597 0.0211033 0.416238
0.0106535 0.122617 0.438136
-0.172031 0.065717 0.438136
-0.167232 -0.146606 0.331145
-0.0786021 -0.184318 0.416238
-0.155888 -0.0585759 0.416238
0.0170645 0.133746 0.438136
-0.0920377 -0.0584499 0.416238
-0.00826348 -0.13095 0.438136
0.142584 0.143776 0.0187315
0.148289 0.118027 0.475108
-0.0902845 0.204638 0.856679
-0.101855 0.0710553 0.416238
0.164687 0.137436 0.683947
0.167232 0.152827 0.028238
-0.142584 -0.148059 0.0340602
-0.0135336 0.116563 0.416238
0.106203 -0.176359 0.416238
0.142584 -0.164304 0.0646432
0.160416 -0.142603 0.0889145
0.148287 0.164924 0.759437
-0.167232 0.115084 0.486107
-0.150568 -0.126175 0.326712
-0.167232 0.129653 0.506447
-0.167232 -0.143903 0.354717
0.145068 0.163181 0.765474
0.0570799 0.191701 0.416238
0.167232 0.142802 0.5748
0.1503 0.162743 0.760987
0.123297 0.0527662 0.438136
0.154493 0.14051 0.708965
-0.161745 0.124291 0.175599
-0.167232 -0.156951 0.221017
-0.0484937 -0.186249 0.416238
0.142584 0.110983 0.392448
0.184995 0.108595 0.416684
-0.0891453 0.117082 0.438136
-0.0546755 0.211818 0.770299
0.151723 -0.125082 0.342536
-0.125786 0.18589 0.85727
0.166343 0.169891 0.838282
0.0235349 -0.0129245 0.438136
-0.154445 0.167692 0.876284
0.0178074 0.222358 0.818912
0.0848785 0.163194 0.438136
0.0962011 0.203961 0.804734
0.173945 0.061699 0.438136
-0.142584 -0.140034 0.146934
0.149153 -0.135604 0.190233
-0.16006 -0.129688 0.416238
0.0358602 0.150468 0.416238
-0.0525919 -0.0767587 0.416238
0.0173875 0.135938 0.438136
0.162364 0.148757 0.608956
-0.159239 0.126774 0.597181
0.0816346 0.203163 0.760397
-0.163753 -0.0878243 0.438136
-0.0129841 -0.0182469 0.416238
0.144669 0.136612 0.677244
0.0510029 -0.182447 0.438136
0.0292874 -0.116907 0.438136
0.087781 -0.0958567 0.416238
-0.166412 -0.154605 0.271966
-0.218977 -0.00697264 0.435936
-0.147427 0.110923 0.369096
0.166815 -0.158068 0.22183
0.146511 0.153903 0.817962
-0.102088 0.12155 0.438136
0.0847674 -0.136742 0.438136
0.152034 -0.159821 0.438136
0.159964 0.16826 0.820587
0.15908 0.159569 0.0217302
-0.142584 0.130639 0.603792
0.0584627 -0.131343 0.416238
0.167232 0.121181 0.375571
0.143791 0.152295 0.127015
0.0819544 -0.17906 0.416238
0.0979164 0.1469 0.438136
-0.142584 0.129682 0.144812
0.167232 0.142292 0.238337
0.141299 0.0566115 0.438136
-0.144839 0.139597 0.509566
-0.133279 0.138569 0.438136
-0.16123 0.0400248 0.438136
-0.165914 0.0758641 0.438136
0.154212 -0.14411 0.416238
-0.124534 -0.0588206 0.438136
-0.143003 0.135823 0.365441
0.151652 0.165586 0.79157
-0.167232 0.134939 0.0504295
-0.151883 0.132147 0.416238
-0.167232 0.144061 0.609019
-0.0568654 0.0581121 0.416238
-0.142906 -0.128946 0.286601
0.166405 0.111774 0.468637
-0.0678191 0.210232 0.723877
-0.142584 -0.138976 0.3493
0.0581628 0.204124 0.421292
0.149186 0.120108 0.542931
0.118939 -0.0777399 0.438136
0.0299053 0.218446 0.769157
-0.00962578 0.0444706 0.416238
-0.154055 0.169218 0.830976
0.132825 -0.136733 0.438136
0.167232 -0.138878 0.396691
0.179456 -0.0143069 0.416238
0.181666 0.0412894 0.416238
-0.167232 0.120639 0.264102
0.118548 -0.155117 0.438136
