-0.0177373 0.020936 0.360095
0.0406506 0.142199 0.602538
-0.0830088 0.136848 0.655365
-0.142606 -0.10186 0.439541
0.017768 0.13616 0.449805
0.147182 -0.194752 0.0259298
0.164643 0.113684 0.628794
0.127666 0.0715277 0.434068
-0.0949283 0.0881184 0.441788
-0.114745 -0.0384454 0.387604
0.166543 0.0908015 0.467508
0.0426676 0.0474781 0.387604
-0.0428821 0.136602 0.493362
0.0760057 -0.227102 0.392867
0.00330223 0.129721 0.414613
-0.0222266 -0.0828498 0.351543
-0.123343 0.145036 0.724248
0.0142024 -0.00408227 0.439541
-0.184764 0.0987572 0.646328
0.206826 0.104817 0.50725
-0.203562 0.0587154 0.0724236
-0.148556 0.111529 0.579264
-0.166017 -0.154806 0.414666
-0.0195542 0.0995341 0.384747
-0.0221992 -0.00221351 0.308047
-0.00122229 -0.0396717 0.272419
0.153739 0.158004 0.470501
-0.00720121 -0.17355 0.387604
0.0965296 -0.134229 0.387604
-0.14796 0.0127876 0.0973535
0.0874553 0.164222 0.446906
-0.0241327 0.0620799 0.427289
-0.0308426 -0.0481622 0.439541
-0.114814 0.129841 0.581083
0.0512344 -0.00946003 0.387604
-0.0970997 -0.171025 0.103773
0.134564 -0.0478293 0.387604
0.0662449 -0.123203 0.124358
-0.0687275 0.146723 0.717677
-0.208666 0.0776831 0.506856
-0.0458846 -0.000961332 0.439541
0.171013 0.0820641 0.434915
-0.050408 0.176161 0.822391
0.127213 0.107932 0.490871
-0.144738 0.105039 0.438499
-0.177566 -0.222593 0.0399584
0.012985 0.0211046 0.38037
-0.00140975 -0.134456 0.354729
0.141547 0.132863 0.672719
-0.178447 0.148757 0.477704
-0.0596821 -0.238671 0.408152
-0.0772998 0.0944147 0.414983
0.0661304 0.15495 0.787745
-0.176452 0.0814347 0.433543
-0.00393263 0.148516 0.628294
-0.124057 0.145769 0.799881
0.153648 0.122507 0.716475
-0.0594239 0.133214 0.462728
0.0342933 0.155601 0.705975
0.0570091 -0.0662337 0.387604
-0.0927031 0.0100861 0.439541
0.0182075 -0.00365019 0.337217
-0.206124 -0.0237793 0.399592
0.153096 0.157585 0.822391
0.000704797 -0.00213266 0.136587
-0.0314864 -0.170238 0.360356
-0.097306 -0.18001 0.387604
0.0387383 0.136 0.484983
-0.0535692 -0.0516742 0.387604
0.0970666 0.0184671 0.132766
0.200705 -0.00533239 0.413112
-0.0612861 -0.110533 0.387604
0.0900717 0.130255 0.510953
0.248241 0.0697202 0.0704101
-0.00467885 0.00786602 0.27238
-0.120649 0.13178 0.613693
0.104939 0.134876 0.621138
-0.0557526 0.128234 0.52119
0.0273529 -0.0345196 0.160677
0.0777347 0.127233 0.564051
-0.189546 -0.0140859 0.387604
0.0206029 -0.00269397 0.403119
0.0903607 0.101326 0.448023
-0.00306531 0.156556 0.427436
-0.1805 0.0621626 0.399619
0.0935535 0.0444556 0.439541
-0.0232543 0.0390085 0.439541
-0.193142 -0.0616342 0.435875
0.227891 0.0409736 0.0645682
0.121102 -0.0438031 0.439541
0.0652504 -0.0792609 0.133675
-0.0875801 0.0542895 0.387604
0.00824185 -0.213197 0.378451
0.200239 0.109481 0.675303
0.119472 -0.154546 0.0827671
0.164825 -0.10208 0.439541
-0.0210297 -0.218042 0.439541
-0.00730234 -0.0362434 0.229121
-0.0725533 -0.0424025 0.387604
-0.119065 -0.205972 0.0794713
0.114093 -0.161271 0.439541
0.145788 -0.0154755 0.439541
-0.10329 0.0355643 0.123726
0.121101 0.118344 0.573869
0.0303999 0.214112 0.0279902
0.18881 -0.0955738 0.418323
0.193224 0.0663645 0.0760741
0.00198881 0.0045456 0.192995
-0.0523886 0.141876 0.667889
-0.0631392 -0.155858 0.439541
0.191458 0.122698 0.779819
-0.124585 0.112374 0.509528
0.0136866 0.139095 0.625026
-0.0243808 -0.0495057 0.157914
0.246791 0.0817276 0.0274025
-0.118215 0.170558 0.442716
0.0764299 0.155224 0.736472
-0.0100101 -0.0387338 0.387604
-0.0329888 0.156526 0.777129
0.0164848 -0.00669118 0.229525
-0.0550022 0.189127 0.433182
0.019326 0.101243 0.420259
0.0395455 0.139877 0.562745
0.114559 -0.188173 0.387604
-0.0121532 0.227302 0.0114046
0.120269 -0.210968 0.00171942
-0.120037 -0.0244282 0.416048
-0.166963 -0.0574296 0.387604
0.0905293 -0.0726193 0.387604
-0.133457 0.136813 0.675398
-0.0135211 0.0747746 0.397314
-0.0374001 -0.146315 0.372198
-0.162324 0.128736 0.785233
0.0784389 -0.140521 0.116231
0.182024 0.0753866 0.496605
0.106007 0.0620132 0.387851
-0.208651 0.100138 0.66309
-0.0909645 0.151845 0.792859
0.0989476 -0.187019 0.439541
-0.00746713 0.189878 0.0753008
0.132713 -0.227879 0.0692422
-0.210768 0.0776699 0.0120631
-0.183334 0.109465 0.72798
-0.0203753 0.131952 0.109853
-0.247282 0.0624884 0.0454387
-0.0340193 0.150869 0.731072
-0.15173 -0.0117535 0.439541
-0.0179663 0.0333388 0.129197
0.0963382 0.139664 0.713783
-0.142767 -0.200705 0.0623345
-0.180105 0.0872835 0.488227
-0.155074 -0.18689 0.00475738
-0.0436459 -0.202554 0.439541
0.0202301 0.062055 0.40227
-0.0416539 -0.00562086 0.36849
0.125239 0.13779 0.747412
0.0150804 0.0716456 0.13759
-0.146859 -0.133518 0.387604
-0.0228359 -0.0736712 0.14827
0.0644456 0.0746939 0.445004
0.112655 -0.100391 0.439541
0.0229917 0.130444 0.509809
0.14693 0.129927 0.743984
0.125391 0.0956528 0.454845
0.203344 0.0683591 0.437572
0.0140515 0.228409 0.0568792
-0.185747 0.0917536 0.593049
0.142917 0.0127419 0.110453
-0.102041 -0.113765 0.387604
-0.06682 0.131132 0.579952
0.173495 0.0619728 0.412584
0.0304384 0.0074494 0.158399
0.192716 0.0791073 0.519217
0.127593 0.025368 0.387604
-0.0514075 -0.179603 0.387604
-0.0958187 0.0528851 0.439541
-0.157785 0.00828869 0.387604
-0.194021 0.0375686 0.437349
0.243838 0.0361472 0.0111329
0.00784906 0.189287 0.426875
0.150127 -0.16353 0.389716
0.0127871 -0.100145 0.387604
-0.0149429 0.00503391 0.253733
-0.0313707 0.0816056 0.448223
0.0151221 0.148291 0.0901351
0.114223 -0.205398 0.416127
-0.164985 0.106829 0.619809
-0.0155889 -0.0521215 0.355439
0.0699998 0.139992 0.603969
-0.019118 0.0634182 0.142841
-0.0344377 0.13 0.399122
-0.00948258 0.140755 0.521648
0.0094115 0.146519 0.683682
-0.0680667 -0.0214661 0.439541
0.0419531 -0.0129468 0.131191
0.0849034 -0.027522 0.439541
0.163259 0.138543 0.48163
-0.119065 -0.0698576 0.439541
0.0629148 0.146959 0.653737
-0.251098 0.0935912 0.03002
0.0998105 -0.187304 0.0795315
0.0653806 -0.104295 0.107706
0.0160743 -0.0679241 0.152844
0.0266865 -0.18297 0.387604
-0.178739 -0.0983873 0.437928
0.0264596 -0.156765 0.439541
-0.135662 -0.0907314 0.387604
0.167554 -0.0717699 0.387604
0.198653 -0.0273614 0.392073
0.0059513 -0.143312 0.387604
-0.162366 0.120302 0.717937
-0.19985 0.138061 0.822391
-0.0562984 0.0803191 0.402289
0.048776 -0.240798 0.415167
-0.135939 0.0717473 0.443578
-0.0202897 0.232732 0.0767715
0.0724369 -0.101952 0.439541
-0.181075 -0.0343601 0.439541
0.163509 -0.0245802 0.418074
-0.0165871 0.254147 0.0341419
0.188106 0.104987 0.705952
-0.00864778 0.168911 0.794177
-0.2061 0.0223656 0.418042
-0.0678541 -0.0800928 0.138601
-0.0115247 0.137683 0.456266
-0.096277 -0.00317931 0.137601
-0.214563 0.0723353 0.0476316
0.000653766 0.0924309 0.382237
0.150693 0.105626 0.560164
0.155504 0.0619825 0.422185
0.174467 0.0933066 0.572391
0.0197936 -0.0604277 0.129149
-0.00219079 0.143029 0.564517
-0.0415642 0.157801 0.431497
0.125501 -0.243438 0.0120806
0.140573 -0.202134 0.0692422
-0.0834974 0.128065 0.44583
0.0184943 0.091893 0.453057
-0.165205 0.108263 0.563195
0.143315 -0.166085 0.43544
-0.0782713 0.157816 0.820204
0.174244 -0.0104796 0.387604
-0.0978608 -0.116492 0.118889
-0.205398 0.075868 0.447259
-0.224021 0.0685165 0.0824583
0.0308815 0.0207047 0.439541
0.0240597 -0.157292 0.358317
-0.229943 0.0548547 0.00314858
0.148585 0.0384716 0.0908066
-0.00510374 -0.0395947 0.439541
0.0979093 0.13569 0.683851
-0.147776 -0.226646 0.037136
-0.109481 0.112255 0.466372
-0.0305401 0.144302 0.610056
0.159763 0.13043 0.808827
-0.0587916 0.0144707 0.439541
-0.172254 0.115846 0.659802
0.141471 0.0776822 0.407685
0.077155 -0.155678 0.387604
-0.00106037 0.010563 0.372224
0.0469734 0.0907506 0.411745
0.0384519 0.137572 0.627528
0.0315486 0.178704 0.822391
-0.161805 -0.129873 0.439528
-0.126908 -0.150608 0.439541
-0.0339441 0.146475 0.694769
0.224077 0.0763715 0.0692396
-0.0329262 0.148839 0.647733
-0.064789 -0.13135 0.120272
0.115205 0.109722 0.473879
-0.136907 0.16596 0.822391
-0.131176 -0.00399809 0.387604
0.0148468 -0.0213947 0.113923
0.0307864 -0.0245093 0.394946
0.0250588 -0.0696839 0.387604
-0.119363 -0.205674 0.408578
-0.0666061 0.136629 0.633121
0.200143 0.106341 0.650464
-0.147834 -0.180908 0.403963
0.0414599 -0.118567 0.439541
0.0671786 0.133301 0.488052
0.128469 -0.225166 0.0503936
0.00412124 -0.0937764 0.351543
0.0452397 -0.11211 0.127538
0.0327597 0.0167801 0.387604
-0.0127618 -0.103562 0.439541
-0.123968 0.00844361 0.439541
0.142928 0.114112 0.525221
0.0427275 0.0620434 0.424592
0.0039564 -0.00681385 0.0760029
0.0802808 0.0824044 0.404879
-0.0367098 0.0620855 0.407411
0.0233758 0.133623 0.418299
-0.0891233 0.00992337 0.115087
-0.0973404 0.062118 0.41503
-0.195008 0.0721788 0.424311
0.0103605 -0.0884414 0.439541
-0.212111 0.106566 0.512444
0.117064 -0.0762235 0.439541
0.0214179 0.116389 0.464538
-0.0884406 0.109761 0.42979
0.0362961 0.0801379 0.385112
0.0151347 0.171501 0.0846176
0.0363385 0.164506 0.434634
-0.0694118 0.00515718 0.122048
0.185283 0.0393307 0.0786968
-0.0221949 -0.0632712 0.371935
-0.0306919 -0.118086 0.387604
-0.0110046 -0.0352469 0.192772
0.223835 0.063865 0.00889637
-0.0321953 -0.144276 0.439541
-0.124746 -0.126663 0.439541
0.00426728 0.0499481 0.386898
0.143832 -0.00732902 0.387604
-0.17515 -0.207636 0.0172446
0.036241 -0.0213482 0.364016
0.0469067 0.150174 0.736648
0.0833571 -0.00141812 0.116406
-0.139398 0.118252 0.530325
0.141559 0.107037 0.461752
0.078024 -0.110716 0.387604
0.00510403 0.118255 0.121786
-0.0138223 -0.00136773 0.35659
0.02117 0.0417843 0.369122
-0.0291229 0.0655418 0.3758
0.122235 0.0410396 0.0991636
0.046941 0.143387 0.680669
-0.195784 0.128189 0.501778
-0.205249 0.0468044 0.0918872
0.00607972 0.143514 0.656862
-0.194287 0.0278664 0.0841091
0.00732013 -0.0399835 0.367298
-0.0721554 0.141389 0.675722
0.202228 0.0956817 0.62921
-0.187024 0.0801918 0.521885
0.121011 0.0620009 0.409923
-0.0967799 -0.0244404 0.389814
0.10976 -0.140595 0.0916918
-0.123582 0.0984806 0.422886
-0.16606 -0.213786 0.0693434
-0.0172355 -0.197365 0.366525
0.170912 0.115202 0.739116
-0.105792 -0.147095 0.387604
-0.0101106 0.0947068 0.108067
-0.114359 0.150557 0.753364
-0.1617 0.0893878 0.461641
0.0973654 0.0711458 0.433881
-0.0525404 -0.0552178 0.125065
0.100946 -0.00646644 0.439541
-0.126702 -0.174511 0.0960069
0.100404 0.0975521 0.420443
-0.0317204 0.116932 0.464779
-0.0270631 -0.240577 0.431238
-0.0273489 -0.0135789 0.387604
0.0824468 -0.152358 0.090863
-0.205201 0.0515048 0.394093
-0.0955498 0.12079 0.507927
0.184359 0.12073 0.50903
0.107175 0.147911 0.729104
-0.208075 0.0894862 0.580913
0.12218 0.120801 0.605076
-0.18417 0.119358 0.813523
0.203352 0.0801965 0.49809
0.169558 -0.0962448 0.387604
0.188205 -0.0395473 0.436775
-0.0993923 0.129729 0.626533
-0.071039 -0.193866 0.439541
-0.0652613 -0.0244575 0.412798
-0.00226641 0.0739453 0.444638
-0.0626828 0.130084 0.558485
-0.0386544 -0.0916061 0.141623
-0.157194 0.0541013 0.387604
0.10598 0.11653 0.509716
0.202463 0.0902852 0.587081
-0.0739804 -0.111567 0.105036
-0.169154 0.0109161 0.439541
-0.0317193 0.160482 0.809009
0.13618 -0.177001 0.0760925
0.0495388 -0.227802 0.436898
0.175431 0.0583498 0.439541
0.00214546 -0.0387722 0.299876
-0.0721672 0.0226204 0.387604
0.168577 -0.225217 0.0276852
-0.0203044 0.17722 0.44153
0.048707 -0.1948 0.387604
-0.00588416 -0.0244894 0.406508
0.0439324 0.134206 0.462143
-0.024816 0.00572712 0.155059
-0.0971496 0.141308 0.716593
0.0182553 0.250423 0.0469486
0.0678257 0.104022 0.458753
0.149226 -0.239257 0.0415781
-0.206112 -0.00121489 0.405748
0.0287711 -0.0328265 0.353174
-0.0533384 0.0779091 0.437014
-0.00233916 0.144257 0.593372
0.245307 0.0734775 0.0444739
0.128154 0.147581 0.819785
-0.167521 0.0621556 0.416776
0.0223756 -0.0680591 0.351543
0.0272179 -0.185612 0.439541
-0.00706688 0.0941305 0.413389
-0.048041 -0.139465 0.387604
0.183739 0.0984909 0.501886
0.0430003 -0.0215861 0.439541
0.00168498 -0.0362982 0.165968
-0.183315 0.122046 0.761714
-0.0657624 0.134727 0.501076
0.103738 -0.0245481 0.417683
-0.0255564 -0.00503432 0.439541
-0.126608 0.0199643 0.123781
0.184479 -0.0702922 0.436788
-0.208648 0.115288 0.722901
-0.108649 0.167012 0.458728
0.185422 0.0904348 0.539286
-0.00616979 0.00746781 0.329207
-0.222299 0.0852725 0.035372
-0.0231866 0.0461919 0.369625
0.0443724 -0.0669201 0.146775
-0.0111529 0.0264176 0.387604
-0.151214 0.127646 0.654705
-0.0332872 -0.0307567 0.353333
0.224931 0.0464525 0.037172
0.0821246 0.155678 0.818826
-0.154245 -0.206979 0.0233679
0.086616 0.123488 0.537136
-0.178081 0.0970805 0.539189
0.110294 0.145247 0.782224
-0.149809 0.145216 0.788626
-0.0976824 0.0817781 0.405425
0.197458 0.0333904 0.430047
0.0980907 -0.166108 0.387604
0.0361308 0.0486828 0.439541
0.0200767 -0.0479115 0.387604
-0.0197684 -0.0538028 0.132098
0.0138822 0.0441291 0.150238
0.076401 0.00384821 0.387604
-0.0572576 0.122411 0.439666
0.144415 0.0851249 0.440442
-0.0214929 -0.0264853 0.247672
0.146738 0.143574 0.782973
-0.096158 0.126548 0.469493
-0.0242552 -0.0161734 0.198723
-0.097017 -0.221639 0.404239
0.00986902 0.00469857 0.256734
0.147873 -0.136456 0.439541
-0.0469442 0.051192 0.439541
0.019333 0.15607 0.768518
0.0758434 0.0282922 0.13202
-0.0764425 -0.198742 0.387604
0.128214 -0.224501 0.0307749
0.129547 0.130359 0.625921
0.0176757 -0.024502 0.420768
-0.205237 -0.028382 0.423206
0.0153459 0.217434 0.00248118
0.00303082 -0.150594 0.439541
-0.0578602 -0.0661075 0.439541
0.150679 0.119562 0.609632
-0.0836768 0.0766 0.436394
0.0275529 0.128978 0.398386
0.0747065 0.155392 0.804201
0.0889324 0.124726 0.4476
-0.0739526 0.157196 0.73881
-0.0547226 -0.00984013 0.128455
0.00327498 0.125875 0.394847
0.148016 0.0544245 0.439541
-0.157415 0.106439 0.506978
0.0943839 -0.119407 0.118723
-0.00630452 0.110992 0.427471
-0.0108308 -0.0120416 0.387604
-0.120346 0.143309 0.705413
0.0134792 0.0773945 0.394795
-0.0708587 -0.0151328 0.387604
0.0303897 0.139404 0.535529
0.00911027 -0.231595 0.387604
-0.0751033 0.161444 0.77472
0.0744938 -0.0194062 0.387604
-0.0528218 0.0564484 0.387604
-0.0261353 0.137074 0.47168
0.059157 -0.129409 0.101967
0.0502792 -0.0305628 0.387604
-0.227075 0.0486155 0.0507179
-0.112761 -0.147023 0.107686
-0.0817267 -0.227714 0.394399
-0.0212745 -0.0205327 0.136587
0.0251727 -0.00952972 0.136323
0.0702917 0.159927 0.763878
0.147991 -0.21978 0.00463558
0.0477366 -0.169871 0.387604
0.000868374 0.242609 0.0233679
-0.00589374 -0.16075 0.358863
0.118986 0.140822 0.692047
-0.0195171 -0.00751192 0.0812164
-0.0373098 0.0258651 0.372747
-0.0473123 0.0156936 0.153232
-0.142752 0.143733 0.81549
0.18425 0.111277 0.75786
-0.0919849 0.125863 0.572458
0.0183533 0.11687 0.433296
-0.0502373 -0.226365 0.387604
0.205683 0.130236 0.499282
0.102337 0.0207538 0.387604
-0.0210327 -0.150273 0.387604
0.229309 0.0466151 0.00224677
-0.0916053 0.016023 0.137025
0.0729876 0.149798 0.687356
0.0427029 0.157796 0.796978
-0.0593603 0.14458 0.694378
-0.139493 0.0460636 0.439541
0.0164816 -0.00667921 0.173679
0.144267 -0.200123 0.0507711
-0.0486723 -0.109192 0.119369
0.11859 0.0279335 0.123785
-0.13854 -0.222415 0.0137174
-0.100264 -0.0154148 0.439541
0.0116507 -0.0345863 0.323394
0.133734 0.121307 0.553096
0.152385 0.0975018 0.440145
0.23852 0.0571217 0.0233679
0.133733 0.148673 0.463341
0.0896862 0.0208175 0.439541
-0.153504 -0.0371824 0.439541
0.089559 0.132772 0.64462
-0.0178923 0.108627 0.405836
-0.157329 0.0648188 0.440325
0.0458971 0.110902 0.429731
-0.00901445 0.140123 0.0924309
-0.195189 -0.093019 0.419647
-0.238617 0.0890558 0.0119771
0.108688 0.128704 0.555701
-0.0274708 0.100327 0.447523
-0.141636 -0.0583065 0.387604
-0.0164858 0.140884 0.419759
-0.0196401 0.231665 0.0411721
-0.0769362 -0.0877245 0.115246
0.0141327 -0.028555 0.218208
-0.142377 0.133141 0.730083
-0.1141 0.127547 0.53491
-0.0477979 0.133922 0.599503
-0.160142 -0.201429 0.0459275
0.0975962 -0.103165 0.387604
-0.131678 0.104862 0.461597
0.117899 0.129492 0.668822
-0.160918 0.140128 0.463408
0.0439795 0.186462 0.428348
-0.117335 0.144386 0.776856
-0.081568 -0.226457 0.42674
0.196887 -3.30694e-05 0.389576
-0.0617554 -0.130406 0.439541
0.154455 0.0080405 0.439541
0.20955 0.0455734 0.0700862
-0.0619526 0.170204 0.440509
0.0496475 0.0197956 0.139753
-0.2 0.101504 0.498835
-0.0781986 0.0256075 0.116992
0.011251 -0.0245257 0.387604
-0.128561 0.127776 0.594909
0.167645 0.111411 0.692428
0.0250836 0.160617 0.740667
0.00981174 -0.03287 0.245207
0.0178147 0.0225314 0.360349
-0.0129931 -0.129485 0.439541
0.159003 0.0569307 0.387604
0.0607503 0.139223 0.584308
0.0234384 -0.127769 0.387604
0.0318165 -0.197493 0.368308
-0.147751 0.062145 0.420992
0.145755 -0.0822826 0.387604
0.234025 0.033008 0.0350573
0.109407 -0.126087 0.439541
-0.113561 0.139124 0.660573
0.0629576 0.0500722 0.439541
-0.250954 0.052003 0.011832
-0.0310931 0.131186 0.526835
-0.0731396 -0.0882415 0.387604
-0.17823 0.0599601 0.086099
-0.12095 0.126905 0.642186
-0.179972 -0.0848924 0.387604
0.00382074 0.189727 0.0943515
-0.0148177 -0.00192881 0.119309
-0.0373541 -0.0637726 0.35664
0.160623 -0.0362635 0.387604
-0.175412 -0.0347189 0.387604
-0.15812 0.0332485 0.387604
-0.0721664 0.135897 0.53343
0.181708 0.0753926 0.461457
-0.164807 -0.222805 0.0236792
-0.0190414 -0.20082 0.387604
0.0939088 -0.213549 0.434795
-0.0584226 0.106331 0.425734
-0.0313219 0.0112748 0.387604
0.141315 0.112408 0.504148
-0.123032 -0.126917 0.387604
-0.0139681 -0.0618833 0.387604
0.130328 -0.16735 0.387604
-0.127963 0.153365 0.453904
-0.153242 0.132413 0.702436
-6.15856e-05 -0.0419564 0.345133
0.0267054 -0.159248 0.387604
-0.0373392 -0.0287178 0.373214
0.200079 0.0619598 0.412224
-0.015456 -0.246411 0.41267
0.0656932 -0.209419 0.439541
-0.143385 0.0621427 0.400104
0.0151555 0.209798 0.0700225
0.00103607 -0.238775 0.435691
-0.179163 0.057778 0.439541
0.201055 0.125779 0.804233
0.0694444 0.12212 0.46503
0.0010365 -0.196146 0.387604
0.170056 0.10726 0.603078
0.0150799 0.070746 0.118064
-0.0990398 -0.164739 0.0851562
0.0459845 0.0301417 0.387604
0.0827584 0.0802744 0.438155
-0.206059 0.0907462 0.527486
0.0406342 -0.0806172 0.119308
0.0160342 0.158396 0.717564
-0.214327 0.0408205 0.0708056
-0.0121361 0.191634 0.439101
0.0318799 -0.0820168 0.369443
0.06961 -0.0780209 0.439541
-0.115289 0.0863025 0.450404
-0.186046 0.10344 0.625769
-0.061513 0.141951 0.609247
0.0314363 -0.032665 0.136262
0.147489 0.127099 0.654779
-0.0335375 0.129905 0.51006
0.0772369 0.0620237 0.393039
-0.0336606 0.0862238 0.400336
-0.0351956 -0.0245435 0.439541
0.0872593 -0.198876 0.387604
-0.0237821 -0.00403222 0.284181
-0.170159 0.107375 0.581036
-0.0496628 0.156157 0.715994
0.0778717 -0.0496826 0.387604
-0.0415984 0.097539 0.390597
-0.139609 0.113232 0.559122
-0.154104 0.110362 0.597723
0.0449051 0.0758879 0.445559
-0.0930435 -0.0551253 0.387604
-0.147919 -0.208688 0.0806057
0.145863 0.0999224 0.479414
0.156878 -0.160101 0.416948
0.19231 0.105233 0.524522
-0.17983 0.0769723 0.472994
0.0513546 0.153115 0.69616
-0.0192619 -0.164109 0.439541
0.165547 0.139261 0.822391
-0.0245885 -0.0246431 0.294525
0.168923 0.0841359 0.486951
0.0447419 0.0620418 0.400345
0.0165308 0.12894 0.478105
0.121438 0.00577612 0.121139
0.0889387 0.0243638 0.111839
0.00598984 0.165592 0.819785
0.0429936 -0.019663 0.147152
-0.05003 -0.201852 0.387604
0.0150961 0.10055 0.116793
-0.082511 -0.155715 0.0980054
-0.196326 0.10581 0.711064
0.121626 0.0446166 0.387604
-0.228744 0.0748737 0.0592408
-0.00901294 0.0475416 0.148933
0.0097808 -0.0293593 0.0764654
-0.00351039 0.210946 0.0414494
0.0103692 0.130726 0.494573
-0.111974 0.141947 0.680498
0.164424 -0.14524 0.39072
0.122209 0.0851273 0.411665
0.0993185 0.132873 0.595771
-0.183545 -0.121361 0.393998
0.244361 0.0526151 0.0579309
0.00924216 0.231981 0.0781307
-0.0218652 0.133338 0.557291
-0.181293 0.118407 0.792181
-0.156734 -0.115612 0.387604
0.059587 0.158799 0.746476
-0.030209 -0.0435419 0.387604
-0.0239815 -0.195767 0.439541
-0.165865 0.0274243 0.0880986
0.0120536 0.134465 0.573981
-0.0502313 0.138343 0.537601
0.0344281 -0.0691634 0.439541
-0.187028 0.0736543 0.450824
-0.0785564 0.136205 0.557932
0.00330864 -0.0766388 0.387604
-0.0884668 -0.00748909 0.387604
-0.208675 0.0689272 0.399938
-0.134248 0.0894182 0.442388
-0.0318864 0.18372 0.821314
0.0197288 0.166648 0.415123
-0.0470009 0.139957 0.567361
0.0923135 0.11833 0.488238
-0.0192727 0.000247123 0.376859
-0.0997808 0.125434 0.592054
0.0035011 0.00933545 0.349743
-0.0827614 0.14116 0.625283
0.148301 -0.024572 0.400243
0.0109766 0.0620599 0.416597
0.0318304 -0.17228 0.370249
0.146369 0.124146 0.695077
0.216897 0.0618619 0.0838725
-0.0128908 0.151442 0.723132
0.0964461 -0.217347 0.39193
-0.160892 -0.229076 0.0650826
0.13796 0.137258 0.764315
-0.0153194 0.131207 0.503716
0.0589006 0.126072 0.504584
0.0112352 -0.0644483 0.439541
0.0254867 -0.0129806 0.154483
0.0673911 -0.0245278 0.426103
0.146154 -0.110536 0.439541
-0.0239445 -0.0270542 0.34008
0.01182 0.138061 0.114182
-0.0712344 0.177631 0.819785
0.0625009 -0.133799 0.387604
0.0793474 0.182554 0.436875
-0.154598 0.0806163 0.438259
-0.135109 -0.187913 0.389815
0.200723 0.0219415 0.413079
-0.13056 -0.0244221 0.39207
0.181722 0.0951684 0.620112
-0.255898 0.0647475 0.0585494
0.17789 0.126562 0.794516
0.0531336 0.144552 0.628721
0.050109 -0.0523748 0.439541
0.0848883 -0.157796 0.439541
0.00927239 -0.0261917 0.136587
-0.0506423 0.13948 0.647069
0.105397 0.177298 0.448043
0.0135637 0.109881 0.406325
0.180064 -0.024589 0.402185
-0.0310592 -0.0058118 0.135773
-0.153203 0.105654 0.548498
0.200787 0.0812623 0.532319
0.134067 -0.0617016 0.439541
0.103294 0.113537 0.456236
0.0986708 -0.165718 0.0838592
0.186624 0.0500867 0.387604
-0.048076 0.110424 0.461725
-0.0146899 0.132971 0.53903
-0.150889 -0.0244106 0.426672
-0.130328 -0.217823 0.0640391
-0.171812 0.0785003 0.411311
0.114899 0.0775496 0.446354
-0.0324122 -0.0700659 0.439541
0.049965 0.168487 0.822391
0.22706 0.0764965 0.0386096
-0.092297 0.149106 0.772553
0.178077 0.134129 0.470364
0.110038 0.0287852 0.439541
-0.105727 0.158596 0.803222
-0.177245 0.119146 0.70981
0.146965 -0.222667 0.0233679
-0.00508723 0.0436879 0.365086
0.142073 0.0386573 0.387604
-0.0143164 -0.0337824 0.167428
0.180269 0.10342 0.686088
-0.0415753 0.140619 0.418299
0.0772179 0.061898 0.439016
-0.0613882 -0.163231 0.387604
-0.108599 0.0488775 0.387604
0.100475 -0.00102185 0.128784
0.0319206 -0.0075327 0.380437
0.0602246 0.0203687 0.387604
0.209077 0.0662498 0.0183748
0.19804 -0.0245994 0.425353
0.031957 0.059144 0.376865
-0.139263 -0.198194 0.00146745
-0.170392 0.0897039 0.505714
-0.0782477 -0.104432 0.439541
-0.149287 -0.176398 0.42546
-0.197227 0.113778 0.776824
0.121249 -0.211114 0.0666444
0.10336 0.130844 0.575633
-0.0155108 0.0572426 0.387604
-0.117109 -0.106816 0.439541
0.0318782 -0.0847215 0.386791
0.0155996 0.24059 0.00873253
-0.0159597 0.000473079 0.175682
-0.206103 0.0176683 0.396623
0.0117136 0.00448688 0.377575
0.0305217 0.100257 0.405979
-0.105227 0.0701035 0.442815
-0.049747 0.159104 0.73962
-0.143473 -0.193873 0.0435444
-0.048614 -0.0736395 0.14495
-0.19932 -0.040731 0.389154
-0.154873 -0.0403153 0.387604
0.0124878 0.00207661 0.296314
0.170509 0.101491 0.556888
0.0316281 0.151497 0.671582
0.00560455 -0.00900543 0.35539
-0.0359893 -0.19462 0.365872
-0.0101066 0.219765 0.0650114
-0.081225 -0.176445 0.439541
0.0369696 0.164581 0.779383
0.0486448 -0.164609 0.439541
0.101738 0.140767 0.662934
0.197057 0.109422 0.490949
-0.049395 0.165192 0.788113
-0.0216321 -0.0162777 0.0978252
0.0641007 0.136719 0.543939
0.0426182 0.136877 0.507806
-0.0270727 -0.0794962 0.128631
0.156756 0.0753257 0.445324
-0.155236 -0.0826887 0.439541
0.114313 0.114127 0.437821
0.140816 0.120723 0.570804
0.008538 -0.116159 0.353276
-0.0770355 -0.0102974 0.134432
0.0559381 -0.237865 0.39676
-0.106887 0.124804 0.487158
0.0422882 0.132791 0.585399
-0.173783 0.117469 0.68002
0.170818 0.0562482 0.0816374
-0.0118032 0.113176 0.12374
0.065351 -0.0999295 0.13179
-0.240283 0.0835058 0.04199
-0.139943 0.0361654 0.116989
-0.0416865 -0.0720267 0.374417
0.0427771 -0.0482927 0.151973
0.148416 -0.128811 0.387604
0.172249 0.0858098 0.513398
0.00224947 -0.0603151 0.351543
0.0319053 -0.0355048 0.379478
-0.0106942 0.0759915 0.377159
0.0982884 0.0407634 0.387604
-0.0370005 0.0176551 0.439541
-0.0905855 0.098686 0.456213
0.231995 0.0598866 0.0519371
-0.103246 0.131211 0.561214
0.000407268 0.00496968 0.234829
-0.0228009 -0.0216026 0.228633
0.0301983 -0.0986565 0.439541
0.106815 -0.216557 0.0152281
-0.0907846 -0.196825 0.439541
0.181238 -0.113789 0.423788
0.115439 -0.17434 0.0780665
-0.0571056 0.0364551 0.387604
0.0697386 -0.0822401 0.387604
-0.0184412 0.211598 0.022877
0.00387537 0.149499 0.639233
0.158012 0.140308 0.463105
0.142817 0.139588 0.80176
-0.0764166 -0.00308733 0.439541
-0.000274148 0.175914 0.436559
-0.124482 0.11637 0.470676
0.163471 -0.121017 0.438433
0.169575 0.0975858 0.524555
0.183307 0.107697 0.661117
-0.131522 -0.216242 0.0353276
0.0542373 0.134122 0.479341
-0.0973314 0.175056 0.822391
0.0318687 -0.10221 0.377586
0.135139 0.166721 0.820405
-0.0179884 0.00874533 0.136587
-0.00838012 -0.0292058 0.373401
-0.192138 -0.0688121 0.387604
0.0175402 -0.028704 0.291923
-0.258572 0.0706261 0.0176406
0.129486 -0.207257 0.0340778
0.0383343 -0.202321 0.439541
0.102902 -0.136293 0.112027
0.149842 -0.196678 0.082685
0.0081927 -0.0309449 0.0978375
0.0940659 0.15251 0.744089
-0.0477259 -0.0207114 0.387604
0.228775 0.0503152 0.0809015
0.0765181 0.00593838 0.141753
0.083201 0.139054 0.618409
0.113575 -0.153941 0.387604
-0.206828 0.0730248 0.481019
-0.153038 -0.211434 0.00230605
0.0809593 -0.195659 0.439541
-0.157957 -0.222308 0.0519371
-0.08334 -0.120608 0.387604
-0.0701711 0.147387 0.657763
0.00418572 0.15867 0.780751
-0.0989975 0.131856 0.642848
0.0151452 0.190827 0.0802118
-0.171866 -0.14178 0.4284
-0.18702 0.0950097 0.575065
0.0678301 -0.129319 0.439541
0.101722 -0.0437312 0.439541
-0.11667 -0.0244286 0.436882
0.0103506 0.0042164 0.318968
0.054771 0.134482 0.611961
-0.0168668 -0.000434053 0.198916
0.180399 0.12078 0.822391
-0.122304 0.0521155 0.439541
0.197389 0.00372083 0.430175
0.130277 -0.0897214 0.439541
-0.00179983 0.0107619 0.411954
0.0118702 0.147429 0.404684
-0.255848 0.0578609 0.0298199
-0.0203479 0.18751 0.0898015
0.0841139 0.150832 0.783362
-0.166188 -0.133997 0.387604
-0.0822094 -0.157497 0.439541
-0.175641 0.0217976 0.10516
-0.181809 0.124279 0.48959
0.0963948 -0.0899104 0.439541
0.0041339 -0.000467621 0.387604
0.0176126 -0.0109128 0.201049
0.171273 0.0790674 0.41752
0.165492 0.11565 0.648529
-0.0115939 0.0542752 0.439541
-0.0293621 -0.167016 0.387604
-0.202599 0.0934135 0.511013
-0.173327 0.0946627 0.553183
-0.00441727 0.249836 0.0711012
0.0362211 -0.0615918 0.360896
0.112935 0.0620051 0.428269
0.1827 -0.0902471 0.435466
-0.128306 0.0621306 0.387621
-0.0271085 -0.0912339 0.439541
-0.247155 0.0475246 0.0519371
-0.149309 0.134021 0.76596
-0.000738601 0.13913 0.616537
-0.110082 -0.0532917 0.439541
-0.0904502 0.137867 0.676631
-0.0223412 -0.0159587 0.354491
0.0756459 -0.0438989 0.439541
0.027675 -0.207279 0.387604
-0.0492525 0.0319173 0.439541
0.194269 0.115309 0.721382
0.0270004 0.136592 0.612476
-0.00809362 -0.0461748 0.155609
-0.105549 -0.186384 0.0970963
-0.152559 0.116432 0.64055
-0.132109 0.137112 0.743639
-0.187025 0.0818583 0.505472
-0.0863229 0.123965 0.524935
-0.119921 -0.172945 0.0786427
-0.00402348 -0.106918 0.387604
0.000818133 -0.0218632 0.439541
0.13139 -0.190923 0.40116
-0.0794563 0.121656 0.467424
-0.199762 0.0669698 0.0887018
0.000814473 0.0260483 0.364526
-0.171156 -0.199429 0.0374534
-0.127603 0.148388 0.819785
-0.0211939 0.142057 0.572677
0.017683 0.155775 0.697574
0.0647445 -0.233859 0.421751
0.0431403 -0.0897186 0.139971
0.0231827 -0.00309137 0.356321
-0.125833 -0.146486 0.387604
0.00712238 0.132168 0.519284
-0.10845 0.0132268 0.13121
0.124305 0.119258 0.50866
0.144034 0.0308915 0.114146
-0.191926 0.108169 0.663278
-0.000117081 0.0285619 0.130838
0.261916 0.0373228 0.0151043
-0.18703 0.0637363 0.415564
0.0105954 -0.173814 0.387604
0.0939562 0.146693 0.697392
0.0281149 0.0845158 0.399771
-0.137543 -0.0687963 0.439541
-0.120652 0.0412162 0.120698
0.120967 -0.10694 0.387604
0.00677815 0.0358942 0.387604
-0.046342 0.133779 0.449289
0.130377 0.141089 0.782356
-0.012828 0.208003 0.0873398
-0.0459668 0.125931 0.472921
-0.00527967 -0.0373915 0.136587
0.0175338 0.0376115 0.439541
0.0960417 0.15188 0.811589
-0.12152 -0.199117 0.430461
-0.125513 0.0427987 0.100915
0.0824085 -0.000114601 0.439541
0.0629003 0.137948 0.563859
-0.00392701 0.0620679 0.405996
0.0212656 0.148783 0.643762
0.036313 0.120301 0.41188
0.046019 0.138643 0.545725
-0.0155497 0.112683 0.101879
-0.192663 0.0899303 0.534892
-0.0130582 0.141267 0.401834
-0.0685602 -0.181972 0.387604
-0.111507 -0.0139013 0.387604
0.185618 0.0748824 0.442412
-0.17504 0.0504644 0.387604
-0.167038 0.0970063 0.483617
0.133223 0.116828 0.591162
0.0473699 0.149333 0.66356
0.165296 0.127936 0.745838
0.174982 0.117396 0.707455
-0.0226541 -0.0355738 0.140662
0.00576456 0.161507 0.805117
-0.174574 -0.116043 0.436965
0.1113 0.158543 0.458021
-0.205416 0.0621747 0.432735
-0.141747 0.114157 0.503932
-0.207454 0.0901543 0.488003
-0.153243 0.159026 0.819785
0.105014 0.0820395 0.406981
0.0699894 0.091845 0.443573
-0.121595 0.074641 0.435468
-0.00648026 -0.0364647 0.252101
0.119271 -0.0574119 0.387604
-0.181823 0.0997625 0.507194
-0.177535 0.105429 0.601436
0.0388453 -0.102849 0.113476
0.019213 0.141136 0.557068
0.0954015 0.113936 0.434735
-0.164981 0.0923298 0.444202
0.0336796 0.16122 0.819731
-0.00895166 0.00183998 0.439541
-0.0733754 -0.215443 0.438317
0.0230478 0.221845 0.0424215
-0.075851 0.0228303 0.439541
-0.132687 -0.217503 0.081309
0.0445099 0.156852 0.722008
-0.239244 0.0584874 0.0607662
-0.0503578 0.0620928 0.419033
-0.184137 0.102964 0.678103
-0.0276235 -0.0229918 0.402239
0.0319409 0.0303035 0.363453
-0.0365924 0.000540167 0.158945
-0.0146729 0.124673 0.468411
-0.105434 -0.126903 0.100265
0.160024 -0.147766 0.432685
-0.0308711 0.00969165 0.358326
-0.00603566 0.158882 0.409987
0.0318441 -0.147317 0.374619
0.113551 0.135697 0.711229
-0.135622 0.16721 0.462449
-0.0795198 -0.0667197 0.387604
0.148251 0.138474 0.818603
0.0751556 -0.0929102 0.117285
-0.0304024 0.069403 0.392463
0.195264 0.0876423 0.571021
0.114073 -0.0184798 0.439541
-0.179966 0.132238 0.47127
-0.128945 0.151608 0.786195
0.194698 0.0850803 0.485257
-0.0372106 0.191664 0.436854
0.122372 -0.157974 0.0999616
0.0138403 0.152333 0.734342
0.13771 -0.205407 0.00293185
-0.0491984 -0.0244661 0.420329
-0.197788 0.109105 0.738256
-0.0299341 0.149187 0.714743
0.255977 0.0619399 0.0392784
0.11707 -0.211085 0.0838631
0.175893 0.0619714 0.395559
0.141303 0.109477 0.54566
-0.17322 -0.0184969 0.439541
-0.0837464 -0.099363 0.129031
-0.105489 0.150499 0.738051
0.07754 0.122738 0.495841
-0.0600922 -0.0926697 0.11311
-0.185964 0.0219986 0.439541
0.107079 -0.0616596 0.439541
0.00741144 0.105276 0.449852
-0.201151 0.118277 0.813946
0.0823531 -0.163249 0.104786
-0.212102 0.12092 0.502242
-0.215876 0.0619722 0.0180922
0.147942 -0.217372 0.0692422
-0.146053 0.00349434 0.439541
-0.0547853 0.135919 0.62017
-0.0100635 0.163672 0.821984
-0.00296237 0.146599 0.110908
0.0963445 -0.219484 0.411371
0.197302 0.0938126 0.521295
-0.0369222 -0.225182 0.439183
0.00643092 0.13191 0.462335
-0.0204082 0.0653791 0.123949
-0.0574435 0.0175211 0.124649
0.243026 0.0748038 0.00987474
-0.234407 0.0710451 0.0023343
-0.00193406 0.0813662 0.135948
0.0247891 -0.0510889 0.156108
0.0120134 -0.0367066 0.439541
-0.0217434 -0.00614033 0.242363
-0.117794 0.108994 0.451565
-0.0157291 0.249174 0.0128392
0.0352094 0.0966153 0.445803
-0.0573651 -0.0166999 0.144918
0.117895 0.141772 0.76706
-0.12103 -0.192068 0.0918372
0.148414 0.0893594 0.418403
-0.200907 -0.0484214 0.427856
-0.188444 -0.0243915 0.422196
0.132703 0.132409 0.647561
-0.0315422 -0.0673281 0.387604
-0.0899203 0.153202 0.733599
0.00412418 0.0618932 0.434574
-0.176492 0.016996 0.387604
-0.0828843 0.136627 0.58302
0.00882243 0.0779229 0.377759
-0.0975174 0.117684 0.455639
0.0234455 0.224472 0.0159566
-0.168544 0.114857 0.634339
-0.0616834 0.163306 0.819785
-0.121494 -0.19842 0.38952
-0.0199598 0.231233 0.0557488
0.0150032 0.174811 0.819785
-0.223478 0.0575303 0.0692422
0.0134004 0.237564 0.0366407
-0.192036 -0.101406 0.405001
-0.107401 -0.153723 0.439541
-0.0271559 0.0264938 0.382783
-0.060541 -0.127657 0.387604
0.164359 -0.0206085 0.439541
0.15033 -0.238456 0.0261515
-0.021164 -0.217786 0.387604
0.0578187 -0.222412 0.387604
-0.0888107 0.037323 0.439541
-0.0286883 0.112444 0.391158
0.0125469 0.150487 0.424194
-0.0106997 0.143198 0.6538
-0.0193648 -0.0358401 0.408755
-0.0359225 0.173274 0.43593
-0.15946 -0.0991966 0.439541
-0.162757 0.117945 0.700923
-0.086318 -0.024444 0.435762
0.221489 0.0573954 0.0233679
0.256539 0.060206 0.0203014
-0.219987 0.0396164 0.0873611
-0.0291501 0.1287 0.485953
-0.208669 0.0770041 0.463902
0.127056 0.044903 0.114992
-0.189711 0.118669 0.74635
-0.00938634 -0.211999 0.370016
0.00830282 0.0942618 0.130995
-0.0804533 -0.125058 0.121801
-0.156467 -0.14785 0.387604
-0.163067 0.130399 0.802049
0.131388 0.0167476 0.0987465
0.0167734 0.057718 0.368437
-0.240148 0.0499935 0.0233679
0.070042 -0.0597896 0.439541
-0.0324909 0.167345 0.795513
0.199766 0.115964 0.513787
0.244273 0.0473033 0.0728148
-0.193939 0.10433 0.518638
-0.0183195 0.175518 0.819785
-0.154266 0.0737236 0.405185
-0.0231486 0.0900738 0.410821
0.0576543 0.188217 0.437895
0.0199177 0.173584 0.437899
-0.0374207 -0.18632 0.380329
0.00695731 0.247298 0.0588657
-0.0052508 0.232548 0.0454348
-0.103738 0.0300565 0.387604
-0.0627007 -0.0681533 0.127801
0.19407 0.0899197 0.510453
0.113654 0.156987 0.822391
0.155793 -0.217898 0.0354773
-0.109361 0.0164481 0.439541
-0.0204249 0.0314535 0.145557
-0.070433 0.155327 0.78969
0.00301864 0.130861 0.444215
-0.151901 -0.116519 0.439541
0.0201071 0.0457349 0.387006
-0.243149 0.0781385 0.0574448
0.0477765 0.00708263 0.127156
-0.130663 -0.161589 0.0841523
-0.148562 -0.0249954 0.387604
0.0928446 0.132172 0.559084
0.0142482 -0.0245001 0.404561
0.0281365 -0.128869 0.439541
0.160179 0.00164975 0.387604
0.0188347 -0.0862184 0.351543
-0.136948 0.126012 0.663422
-0.110764 0.125401 0.503535
0.198344 0.111982 0.69508
0.0583778 -0.0498058 0.387604
-0.00339137 -0.0244903 0.423822
-0.121722 0.00424753 0.124685
0.12613 0.112384 0.527951
0.169879 0.0369355 0.0839959
0.0581834 0.157332 0.802565
-0.155577 -0.238587 0.0417424
0.200143 0.110798 0.753972
-0.0370908 0.162889 0.762543
0.154401 0.0537723 0.0893518
0.113444 -0.19378 0.0730527
0.118968 -0.139423 0.439541
-0.0167296 0.146382 0.61866
0.141883 -0.17823 0.391696
-0.161646 0.0502186 0.439541
-0.105032 0.145863 0.700199
0.109376 0.0486647 0.439541
-0.0732166 0.15226 0.698511
0.147545 0.0134379 0.387604
0.0807139 0.142138 0.705832
-0.0317332 -0.0448128 0.357513
-0.151424 0.0339413 0.0921322
0.0636994 -0.166358 0.387604
-0.158317 -0.00804561 0.387604
-0.230815 0.0633164 0.0472873
0.109591 0.102985 0.448804
0.116851 0.145812 0.797647
0.0138405 -0.00649926 0.120138
0.128138 -0.241488 0.0414057
0.0385987 0.116115 0.454936
0.040941 0.129309 0.52217
-0.21713 0.0581222 0.0394289
0.0463538 -0.180762 0.439541
-0.102982 0.120105 0.522431
0.0148535 -0.0102947 0.0876274
0.14571 -0.234286 0.0617575
0.0675853 -0.015289 0.439541
0.0214273 -0.0469543 0.356683
-0.0895907 0.0311045 0.132666
0.00611699 -0.0351098 0.180636
0.149329 0.119109 0.668824
0.1734 0.0918361 0.556088
-0.105144 0.134519 0.609635
-0.0314046 -0.128037 0.439541
-0.109635 -0.213893 0.39754
-0.0373781 -0.105756 0.366415
0.0751821 -0.211764 0.387604
0.118805 0.115104 0.458989
0.0631983 0.0908483 0.411842
0.105293 0.122653 0.479503
-0.0205561 -0.000572391 0.34243
-0.0128742 -0.0738272 0.363902
0.0787569 -0.116863 0.439541
-0.037175 -0.0232716 0.139726
-0.0667764 0.0621013 0.393513
-0.153751 -0.0766419 0.387604
0.00172608 -0.0580086 0.387604
0.0705777 -0.139594 0.0968198
-0.0550681 0.134787 0.482927
-0.163145 0.132124 0.746958
0.0129409 0.127332 0.0968301
-0.153743 0.103416 0.461562
0.0592846 0.0633198 0.431124
0.151421 0.0983204 0.494461
-0.0212813 -0.0175879 0.115965
-0.223108 0.0869512 0.0166772
0.139521 0.0619914 0.424234
-0.0539681 -0.190183 0.439541
-0.000340513 0.00517019 0.177077
-0.0364745 -0.144216 0.356267
0.011384 -0.109097 0.439541
-0.00373801 -0.188879 0.364498
0.188397 0.0977691 0.584981
0.0168637 -0.0235495 0.165959
0.26332 0.0366475 0.0310958
0.138406 0.00874451 0.439541
-0.00499656 0.0118653 0.150503
0.124856 -0.0164144 0.387604
-0.0210102 -0.155475 0.358035
0.00614001 -0.0567184 0.158565
-0.115908 -0.188054 0.0752483
0.180278 0.107487 0.719676
0.200735 0.0416322 0.401684
-0.0423443 0.0951104 0.445077
-0.132108 -0.184419 0.0729799
0.222939 0.0724337 0.0233679
0.00940804 0.175766 0.099709
0.134169 -0.17854 0.0918532
0.0180569 0.166366 0.782501
0.0528271 -0.154588 0.387604
-0.0088001 0.0433782 0.387604
-0.200084 0.00529904 0.388678
-0.0355034 -0.0644269 0.150771
-0.0373655 -0.085867 0.355268
0.104469 -0.20043 0.387604
0.0832731 0.144183 0.727347
-0.006376 -0.224117 0.439541
-0.0182153 0.143951 0.600086
0.133618 -0.2109 0.0490205
0.00203815 0.0945116 0.400427
-0.00716275 -0.0388833 0.28707
0.15082 0.0372403 0.439541
-0.0772559 0.134043 0.511933
-0.022204 -0.023831 0.212403
-0.0179808 -0.0188921 0.439541
0.0140394 -0.145249 0.356424
-0.0102412 0.124261 0.438787
-0.258517 0.070797 0.0381343
0.150726 0.061985 0.402239
-0.00986936 0.22494 0.0321341
0.00716922 -0.0291892 0.353457
0.188682 0.0275831 0.0885977
0.0973657 -0.167343 0.439541
-0.0405548 0.143963 0.67801
0.217003 0.041831 0.0107355
-0.0844583 0.0621129 0.430421
0.170588 -0.0509335 0.387604
0.194276 0.0999477 0.664387
-0.200489 0.117635 0.512334
-0.0399161 0.141119 0.582697
0.164842 -0.111158 0.387604
0.17981 0.0414394 0.439541
0.027426 -0.0203684 0.439541
0.00944124 -0.036793 0.260311
-0.104077 -0.00149571 0.119908
-0.133876 -0.210068 0.0519371
0.154406 0.0981843 0.454253
-0.0424443 -0.239337 0.429068
-0.0344569 -0.159693 0.439541
0.190625 0.104801 0.63824
-0.0405991 0.13867 0.63436
-0.139272 0.142555 0.799888
0.0990642 -0.125856 0.0968518
-0.0461538 -0.132933 0.439541
0.133684 -0.0245642 0.420476
-0.0929226 0.0263217 0.112096
0.000543471 -0.0366043 0.215721
-0.0147219 0.163345 0.753186
-0.0976165 0.14287 0.663837
0.138109 -0.193852 0.038437
-0.00772301 -0.0413279 0.363252
-0.0482597 -0.0361621 0.387604
0.0283173 0.0312896 0.387604
-0.0415946 0.103543 0.408315
0.16123 0.128485 0.730964
0.126555 -0.00204637 0.439541
0.0751416 0.0160526 0.117241
0.0150725 0.0570177 0.132751
-0.00964142 0.00663629 0.387604
0.168555 0.150571 0.467629
-0.205741 0.100027 0.598812
0.0256239 -0.244139 0.419247
-0.00806625 -0.191205 0.439541
0.0314877 -0.228754 0.43783
-0.0554202 -0.0978637 0.135895
-0.110313 0.062125 0.406843
-0.0574044 -0.209313 0.439541
0.0360338 0.126384 0.472683
-0.104283 0.164621 0.440483
-0.0818113 -0.135823 0.387604
0.0295076 0.133327 0.577049
0.217881 0.0535285 0.0600774
-0.149394 -0.227084 0.0233679
0.099775 -0.156821 0.106354
-0.170605 -0.0662422 0.439541
-0.147624 0.0864613 0.450473
-0.0202816 0.126183 0.395018
-0.152833 0.100146 0.493917
0.0389705 0.100767 0.420769
-0.0203898 0.10269 0.115878
0.0442309 0.00400504 0.387604
0.00544479 0.0620624 0.39407
-0.105646 -0.217264 0.41592
-0.135982 -0.0244192 0.423955
-0.0583932 0.0610429 0.438581
-0.042181 0.0339545 0.387604
0.0151069 0.120291 0.110641
0.191549 0.0796447 0.472095
0.0329592 -0.0653543 0.375061
0.219964 0.0327066 0.0409152
-0.0267204 -0.0149865 0.265011
0.023021 0.131327 0.463257
0.15059 0.151605 0.456473
-0.135304 0.121477 0.544454
-0.173453 0.0962136 0.56867
-0.158111 -0.166156 0.408761
-0.196437 0.0459963 0.0761114
0.0394305 0.0164818 0.150254
0.152869 0.13782 0.766008
-0.129709 0.130767 0.68862
-0.0598062 -0.0244606 0.395692
-0.147802 -0.190725 0.0172996
0.0550361 -0.112228 0.439541
0.133192 0.0218609 0.119174
-0.149959 0.0352899 0.439541
0.028115 0.145268 0.684734
0.00253619 -0.218152 0.387604
0.0843107 0.130027 0.483438
-0.105525 0.145605 0.766519
-0.138902 -0.0730071 0.387604
0.174303 -0.126756 0.428339
0.0832052 0.132361 0.524057
-0.0507803 0.139056 0.552509
0.0686442 0.073739 0.396423
-0.17849 -0.136902 0.415961
0.00164729 0.149238 0.701388
0.00796841 0.144808 0.604123
-0.0329791 0.129456 0.444312
-0.202863 0.0140664 0.429971
-0.0169558 -0.0666095 0.351543
0.153602 -0.203258 0.061903
-0.0235405 0.0239523 0.439541
-0.113152 0.135139 0.628011
-0.180551 -0.0546685 0.439541
-0.0129408 0.15366 0.087771
-0.024167 -0.182865 0.363065
0.0867234 -0.108851 0.106328
-0.0814057 0.12356 0.502402
-0.138122 -0.199482 0.0856768
-0.158359 0.114768 0.654127
-0.174802 0.131687 0.819785
-0.181822 -0.208564 0.0335819
0.000839353 -0.0509302 0.137697
0.118444 -0.225556 0.0160119
0.0713203 0.125208 0.512403
0.0366091 -0.234616 0.388189
0.172718 0.0789928 0.473706
-0.135592 0.139851 0.771731
0.0442811 0.0625935 0.439334
-0.0174672 -0.186222 0.387604
0.117923 0.173498 0.454673
-0.170904 0.091658 0.520238
0.0204057 0.0620557 0.387623
0.200705 0.0124444 0.396233
-0.0171058 0.078592 0.446814
0.00679066 0.218301 0.0488152
0.144603 -0.206031 0.0169711
0.160881 0.0613029 0.435773
-0.0388115 0.0763918 0.436307
-0.0445322 0.137691 0.515728
0.0528292 0.170422 0.438686
0.00179961 0.15374 0.0877405
0.083499 0.0165824 0.387604
0.0841764 -0.0776645 0.439541
0.129533 0.143995 0.734956
-0.0854366 -0.0800269 0.387604
-0.177134 -0.222908 0.0159434
-0.0549356 -0.223611 0.438403
0.236705 0.0424029 0.0458432
-0.205937 0.00141938 0.42264
-0.0226956 -0.00967801 0.185811
0.238175 0.0593194 0.0692422
-0.0731381 -0.0350707 0.439541
0.0543103 0.134932 0.494042
0.00478539 0.24792 0.0421706
0.198649 0.0353014 0.0747475
-0.139129 -0.229286 0.0519371
-0.181263 0.082016 0.461177
-0.0311506 0.142545 0.66067
-0.081362 -0.214917 0.387604
-0.106425 -0.132219 0.113711
-0.259912 0.0665068 0.00314802
-0.140354 0.131804 0.715799
0.0712965 0.165238 0.819785
-0.0106421 -0.244021 0.428945
-0.195126 0.0814626 0.482139
-0.140044 -0.231668 0.0707654
0.127201 0.113694 0.542683
-0.124206 0.122502 0.519836
-0.101481 0.144541 0.750748
0.110844 -0.147547 0.10674
0.0327499 0.0590462 0.392869
-0.0586595 -0.214639 0.387604
-0.0372989 0.0432204 0.36903
-0.0943799 -0.101254 0.439541
0.150409 0.095407 0.466483
-0.0750961 -0.16774 0.387604
0.023083 -0.019721 0.351144
-0.177291 0.111058 0.64532
0.160139 0.111945 0.661401
0.0479974 -0.0554862 0.138452
0.195401 -0.0137958 0.43452
0.0052416 0.0867732 0.450654
-0.202993 0.0621746 0.417701
0.145124 0.144499 0.471093
0.135431 0.0619932 0.410432
-0.0870672 -0.211093 0.437645
0.136994 0.110387 0.475097
0.0202589 -0.169737 0.439541
0.0849923 -0.0962482 0.387604
-0.016446 -0.0252736 0.387604
0.00952064 0.153039 0.670874
0.142624 0.0947302 0.450985
-0.201072 -0.0667626 0.411309
-0.201182 0.0793811 0.51961
0.133367 0.119421 0.613969
0.250512 0.0655057 0.0552205
0.024673 0.13755 0.487341
0.105869 -0.114873 0.387604
0.203374 0.123363 0.78776
-0.191857 0.0488357 0.0965348
-0.0416197 0.0631558 0.381755
-0.0161259 -0.0760262 0.387604
0.113407 0.11561 0.521908
0.0551582 -0.125777 0.115205
-0.0415906 0.118647 0.404056
0.0702761 0.0350438 0.439541
-0.197149 0.0874253 0.56844
0.0777803 0.112728 0.453363
-0.0415614 0.172411 0.42284
0.0215601 -0.0253974 0.376567
0.0799718 0.0934232 0.453789
0.0123744 0.232425 0.0233679
0.190522 -0.0245946 0.41323
-0.132897 -0.201565 0.0378616
0.176832 0.106347 0.627881
-0.0178036 0.160547 0.801204
-0.155768 -0.200476 0.0681581
0.103152 -0.152485 0.0866407
0.116124 -0.168374 0.387604
-0.198208 0.0690952 0.390283
-0.180066 0.0275272 0.0834385
0.0573052 0.0937863 0.453953
0.206203 0.0856573 0.517331
0.0993057 -0.148158 0.387604
-0.0625396 0.137497 0.544638
-0.144744 -0.21659 0.0692422
-0.184071 0.0685498 0.432598
0.0816395 -0.169145 0.387604
-0.169795 -0.194501 0.0176505
0.075472 -0.128044 0.387604
-0.0962695 0.131128 0.53206
0.175451 -0.0597385 0.439541
0.139419 -0.21012 0.0808608
0.185867 -0.0876235 0.388878
0.095917 0.00315612 0.111807
-0.123492 -0.0835502 0.387604
-0.166263 0.105256 0.542372
-0.02028 -0.0362403 0.352905
-0.0835047 0.0847456 0.406783
-0.0702996 0.0790133 0.401105
-0.170579 -0.0437805 0.439541
-0.129421 0.0191698 0.387604
0.0363288 0.140348 0.416343
0.131832 -0.0340153 0.387604
-0.202871 0.130402 0.483343
-0.199776 0.0501897 0.434939
0.00923403 0.221295 0.0644809
0.0976765 0.120511 0.528967
-0.0396266 0.000427905 0.387604
-0.0599418 -0.235963 0.390892
-0.157843 -0.200394 0.00949166
0.188265 0.0619658 0.419731
-0.0717253 0.122724 0.440503
0.103517 0.00727538 0.439541
0.0352754 0.15203 0.744887
0.249877 0.0381399 0.0401584
-0.113409 0.114273 0.495501
0.0695864 0.173625 0.432421
0.0911097 0.0527306 0.387604
-0.128053 0.0278861 0.439541
-0.0685871 0.165921 0.8051
0.0269596 0.0708103 0.393762
-0.0204155 0.0506111 0.137514
-0.113644 0.0621287 0.432406
-0.0167386 -0.0911313 0.387604
-0.0495606 0.148503 0.654712
0.0653519 -0.139823 0.109722
0.0188512 -0.0155493 0.216753
-0.0166796 -0.00407307 0.162561
0.190286 0.0223381 0.436666
0.00876353 0.109426 0.426563
0.16727 0.0869925 0.447341
0.016555 -0.0738449 0.37085
0.0278047 -0.14295 0.439541
0.0438048 -0.0646993 0.123102
0.0211176 -0.114093 0.387604
-0.208645 0.119918 0.781754
-0.146095 0.123299 0.595715
0.015785 -0.0137847 0.10237
-0.0566383 0.126296 0.49493
0.00885663 0.00529829 0.27098
0.0745025 -0.0080441 0.144145
0.0184148 -0.00420925 0.262986
0.15693 0.0275505 0.0892337
0.0269547 -0.024507 0.410511
-0.00901734 -0.233238 0.387604
-0.0114137 0.176692 0.42842
-0.145283 0.0247636 0.387604
0.0254269 0.131128 0.525646
-0.0125562 0.018106 0.160233
-0.03163 0.129783 0.461329
-0.0326132 -0.142764 0.387604
-0.115657 0.154652 0.788302
0.0363345 0.156437 0.423448
0.101396 0.0620115 0.419798
-0.0896888 0.14198 0.643443
0.177058 0.131908 0.496028
0.0924743 0.128901 0.617975
0.0152248 -0.00421032 0.189281
-0.175009 0.125387 0.749169
-0.161829 -0.22726 0.0371072
-0.00880429 0.134083 0.553087
0.109385 0.124074 0.60885
0.203376 0.124361 0.817679
-0.0441339 0.0620908 0.431254
0.0478286 0.0415263 0.439541
0.00966896 -0.160139 0.387604
-0.0155764 -0.0636906 0.142311
-0.196352 -0.0243872 0.409173
-0.0340075 0.01301 0.143933
0.0586397 -0.181945 0.387604
0.131688 -0.0147404 0.439541
-0.0717422 0.103982 0.42361
-0.0319924 0.170282 0.818717
0.0988906 0.169478 0.457195
0.137607 -0.232929 0.0360632
-0.179683 0.126653 0.781399
-0.115564 0.158071 0.447598
-0.0469319 -0.241834 0.411894
-0.0221112 -0.0965068 0.351741
0.0127451 0.13941 0.504841
0.188319 -0.0625195 0.387946
0.0252866 0.150612 0.727107
0.100888 0.113698 0.470193
0.0423005 0.130108 0.535712
-0.0844723 0.0830434 0.448887
0.12294 -0.171623 0.439541
-0.0907805 0.0950791 0.416773
-0.0521039 0.145818 0.634716
-0.0787112 0.128768 0.571895
-0.00191771 -0.0398574 0.331828
0.0272636 -0.0283084 0.148588
0.201245 0.0563255 0.0716642
0.0897159 0.139503 0.632833
0.0111215 0.00699009 0.410218
0.156317 0.140011 0.799855
-0.00311632 -0.0868585 0.439541
0.00300348 -0.118457 0.387604
0.103493 -0.180384 0.387604
0.224453 0.0466964 0.0506836
-0.0175707 0.093697 0.453896
-0.0677272 -0.176977 0.439541
-0.135094 -0.209974 0.00659346
0.0623986 0.13549 0.624919
0.0501871 0.122392 0.457881
0.144935 0.119978 0.585223
-0.0205395 -0.0199197 0.0760029
0.193728 0.102553 0.685889
-0.0227874 -0.0288674 0.315749
0.0559837 0.141466 0.670324
-0.102926 0.155076 0.822391
0.187312 0.121034 0.766644
0.0367097 -0.0187505 0.159213
0.0325923 -0.0734341 0.147408
-0.142154 -0.194835 0.0288154
-0.0416403 0.013949 0.379377
0.0277967 0.145357 0.620209
-0.109423 0.129294 0.549429
-0.115752 0.140768 0.744267
-0.0308069 -0.0413735 0.374362
0.161027 0.088967 0.429169
-0.148681 -0.132654 0.439541
0.0255326 0.145462 0.424229
0.132965 -0.188764 0.0705038
-0.095361 0.129218 0.492358
-0.0052062 0.171414 0.812196
0.19235 0.131022 0.497368
-0.143855 0.0533729 0.387604
-0.233095 0.0452517 0.0130609
0.0966162 0.160053 0.822391
0.0546403 -0.0127463 0.127014
0.0180837 0.154561 0.755304
-0.0768319 0.0101281 0.387604
0.0631403 0.116106 0.454939
-0.132974 0.153282 0.806332
-0.0332414 -0.172956 0.439541
-0.00738755 0.236015 0.0765869
-0.100174 0.105425 0.449895
-0.000217279 0.0747599 0.397065
-0.129674 0.17027 0.449471
-0.0649946 -0.142218 0.387604
-0.0371483 -0.197437 0.387604
-0.0734987 0.126363 0.522424
-0.00481746 0.166842 0.775402
0.0137607 0.00841697 0.35813
