0.152109 0.147177 0.819785
-0.238504 0.0704477 0.0483607
0.00921231 0.00520289 0.260866
0.133198 0.121839 0.633028
0.0397374 -0.00992175 0.439541
-0.164128 -0.0244045 0.416201
0.0191874 -0.066008 0.152737
0.0113895 -0.199547 0.367042
0.188626 -0.0443976 0.387604
-0.208646 0.118478 0.750863
-0.0879758 0.153289 0.731045
0.0914389 -0.147605 0.111097
-0.0228751 -0.0244802 0.399153
-0.177297 0.0167035 0.387604
-0.0448851 0.158386 0.73105
-0.1033 0.0167571 0.439541
0.0188714 -0.0482903 0.356238
-0.0174639 -0.00457503 0.115341
0.206828 0.111384 0.504327
0.00734524 0.168558 0.819785
-0.0777942 -0.138506 0.118227
0.00353126 -0.0280772 0.356998
-0.181835 0.0872163 0.54584
0.0150775 0.0663424 0.121302
0.172295 -0.0486452 0.387604
0.00223791 0.150313 0.424112
-0.0243842 0.152531 0.426235
0.0999454 0.0147909 0.13215
0.117931 0.145733 0.798813
0.147611 0.147607 0.474403
-0.0948238 0.0478233 0.387604
-0.108733 0.130943 0.577866
0.191055 -0.0896229 0.410866
-0.00015363 -0.0338432 0.136587
0.0694577 0.147381 0.728652
0.00938518 0.141379 0.545633
0.170823 0.0605464 0.439541
0.1419 0.0258918 0.387604
0.23565 0.0441688 0.0434282
0.0237415 0.0620517 0.437688
0.17549 -0.048525 0.439541
0.00470209 0.247942 0.0406932
0.014164 0.0953319 0.445197
-0.179221 0.0918259 0.512126
-0.065997 0.142313 0.679655
0.160769 0.0361849 0.387604
-0.0517717 0.166425 0.822391
0.195237 0.0788542 0.517688
-0.0579491 0.187044 0.432038
0.164602 0.0951371 0.536024
0.0324412 -0.0486291 0.129878
0.120609 -0.0170587 0.387604
0.022089 0.239721 0.0393073
0.014238 0.236066 0.0606756
0.0277455 0.146883 0.697839
-0.245095 0.0559554 0.0692422
0.0256145 -0.0133744 0.159181
0.156548 0.0155569 0.439541
-0.0615317 0.16984 0.822391
0.164246 -0.0245818 0.390514
0.0606193 -0.00170564 0.387604
0.00831148 0.00544452 0.310015
-0.0078875 0.143386 0.581282
0.167958 -0.029142 0.439541
0.0823521 0.0620217 0.438692
-0.00828596 0.14267 0.564993
0.137526 0.118881 0.544867
0.0129801 -0.0332585 0.340156
-0.00783846 0.132157 0.512072
0.127615 -0.222934 0.0270566
0.0802801 0.126655 0.563776
-0.128788 0.144171 0.72644
-0.0354962 -0.0951415 0.439541
0.0504846 0.00770888 0.439541
-0.143441 -0.160795 0.438462
0.191529 0.118057 0.813844
-0.0119586 -0.188313 0.364364
0.108551 0.0410842 0.439541
-0.14749 0.119247 0.567673
0.234799 0.0718083 0.0119261
0.00842539 -0.0342544 0.164643
0.132862 -0.228163 0.0467736
0.00162719 0.0118612 0.154246
-0.0151081 -0.0428748 0.352387
-0.15826 -0.2231 0.0569037
-0.0372459 0.0629165 0.375947
-0.148284 0.00483555 0.439541
-0.165089 0.131777 0.753374
0.135677 -0.0245657 0.394333
-0.2097 0.127269 0.502703
-0.0628004 -0.0100332 0.150635
-0.212118 0.0927326 0.514364
0.184289 0.0669756 0.445568
0.193585 0.0807866 0.479214
-0.12936 -0.0644441 0.439541
-0.00449166 0.215785 0.0361093
0.0144409 0.166482 0.7813
0.0189827 0.0849198 0.398013
0.0162471 0.00445597 0.361167
-0.0293247 0.0980861 0.417851
0.144649 -0.177614 0.418989
0.101968 -0.213218 0.426594
-0.111017 0.12156 0.57121
0.115222 -0.148541 0.105444
-0.205433 -0.0301802 0.418335
0.0158162 -0.186658 0.363966
0.057644 -0.0778612 0.439541
0.0256581 0.129765 0.504382
0.137394 -0.0245662 0.400262
-0.00582303 0.233153 0.0604008
0.172546 -0.137663 0.419283
-0.0953118 0.15731 0.775494
0.0177703 -0.0201685 0.182836
-0.0169103 -0.000477579 0.220014
0.21724 0.0573138 0.0027781
-0.0774151 0.133923 0.510296
0.0981838 -0.0806334 0.387604
0.0499019 0.104506 0.424145
-0.00947569 0.146793 0.617734
0.0129107 0.14989 0.647692
0.0575688 0.12122 0.457333
0.194708 0.101429 0.506488
-0.0112119 -0.217377 0.439541
0.0519791 0.160737 0.75749
0.179947 0.0853693 0.499093
0.0363372 0.163387 0.428254
-0.00583279 0.0560878 0.371459
-0.0199178 -0.0281811 0.169781
-0.0137621 0.0630283 0.431908
0.195689 -0.0402522 0.389861
0.0124456 0.139987 0.631631
0.00358775 -0.0247366 0.136587
-0.0905138 0.123903 0.538005
-0.102179 0.156502 0.780526
-0.0502605 -0.24135 0.413581
0.00909039 -0.0169875 0.387604
-0.0982571 0.0931504 0.444146
-0.0984602 0.147822 0.704862
-0.0324687 0.0158067 0.364782
0.0959194 0.00894916 0.134313
-0.0896892 0.133252 0.546155
0.182565 0.113494 0.776147
-0.12359 0.12604 0.639951
0.00163029 -0.0363129 0.233396
0.0619032 -0.0485325 0.387604
0.0391614 -0.115238 0.439541
0.0911165 0.0952933 0.417525
-0.0292302 -0.118211 0.387604
-0.0117605 0.0296421 0.365184
-0.0937182 -0.046926 0.387604
-0.0421625 -0.242527 0.41602
0.166941 0.122298 0.777804
-0.0221684 -0.10646 0.387604
-0.0372975 0.0484589 0.3739
-0.061918 0.139259 0.57649
-0.0764983 0.0417547 0.387604
-0.00602552 -0.00637678 0.355803
-0.0507851 0.150663 0.672704
-0.0335684 -0.0140334 0.354641
0.000980819 -0.0802026 0.387604
0.103479 0.151543 0.752012
0.0150663 0.0456179 0.131389
-0.0416982 0.142176 0.663952
-0.064926 0.158194 0.741163
-0.0545634 -0.154502 0.387604
0.170581 0.124732 0.814528
0.059322 0.105597 0.459491
0.00733749 0.00311137 0.173063
-0.0376452 0.0823532 0.448572
0.104722 0.158897 0.819785
-0.00958334 -0.0192989 0.387604
0.105707 0.123187 0.594861
0.0115995 0.007563 0.136587
0.0825256 -0.103066 0.112664
-0.0735113 -0.0478391 0.439541
-0.0673664 0.181312 0.448218
0.00679627 -0.0349276 0.179389
0.0412025 -0.227724 0.437688
0.0543531 0.15822 0.807564
-0.163315 -0.126093 0.387604
0.0186287 -0.0147164 0.190414
-0.208659 0.0948658 0.513958
0.015055 0.0249298 0.154892
-0.0681455 0.170371 0.434929
-0.0344538 -0.029319 0.140063
-0.0265242 -0.244802 0.404191
0.162105 0.105813 0.551287
0.17749 0.0927143 0.532842
-0.128673 -0.193386 0.0711787
-0.0689707 -0.18467 0.387604
-0.200004 0.0961576 0.528419
0.179834 -0.0130897 0.439541
0.187563 0.115329 0.721508
0.0233301 -0.0808354 0.122747
0.01767 -0.0205425 0.200826
0.197296 0.0850422 0.504329
0.169988 0.0976988 0.589844
-0.0105312 0.16569 0.413695
-0.0124637 0.0957243 0.400889
-0.107937 0.0621237 0.404643
0.0102543 0.186513 0.42575
0.170228 0.0883986 0.519528
-0.148678 0.131777 0.675763
-0.126541 -0.19961 0.411138
0.121034 -0.0245585 0.435227
-0.208643 0.120212 0.814553
-0.242286 0.0779751 0.0351115
0.0083419 0.182716 0.0777631
-0.103401 0.0738152 0.435084
0.179533 -0.0245889 0.395426
-0.116314 0.154427 0.787599
0.0924151 0.133571 0.584349
-0.0329825 0.115919 0.411373
-0.171198 0.0576709 0.0852461
-0.253638 0.0628698 0.0233679
0.00890899 -0.0347568 0.162561
-0.0246781 0.131245 0.518474
-0.0143192 -0.00705575 0.0760029
-0.0631567 -0.0565734 0.439541
0.0675006 -0.0823616 0.115571
-0.0325172 -0.0244749 0.423162
0.00854544 0.0418257 0.387604
0.0536328 0.139915 0.588287
0.121248 0.147608 0.750086
0.141067 -0.230585 0.0519371
0.0847288 0.152879 0.80076
0.196227 0.0482503 0.0930317
0.137716 0.011739 0.0972059
0.164881 -0.141782 0.431387
0.0173265 -0.222612 0.387604
-0.029821 -0.126393 0.387604
-0.042147 0.127518 0.489562
0.0981184 0.120289 0.527084
0.0941305 0.142524 0.664334
-0.00597792 0.230873 0.0611864
-0.0306145 -0.147459 0.387604
0.103794 0.0657183 0.440812
-0.188449 0.0718181 0.422085
0.101891 -0.154966 0.106455
0.186414 0.125346 0.800746
-0.165375 -0.221858 0.063344
0.0202757 0.0561028 0.439541
0.0870121 0.143627 0.729552
0.154756 0.11037 0.623007
-0.0209774 0.140465 0.534571
-0.181811 0.0888052 0.506224
0.00964622 0.00137593 0.240597
0.0632715 0.136007 0.529633
0.0402931 0.0805233 0.402524
0.0532153 -0.0994386 0.439541
0.132002 0.116532 0.509618
0.0152409 0.0117126 0.156787
-0.10805 0.118014 0.514276
0.0282057 0.02467 0.387604
0.181048 0.0288728 0.100868
0.185598 0.11221 0.488166
-0.0412612 -0.0738113 0.372577
0.00420659 0.0655261 0.386203
-0.0557803 0.159253 0.744317
0.200139 0.0974144 0.643503
0.0342984 0.146852 0.636002
-0.128289 0.147522 0.752412
-0.0487031 0.134792 0.607228
0.0373749 0.154626 0.699996
0.00853652 0.0971198 0.401429
-0.170607 0.0151009 0.387604
-0.188323 0.122124 0.773687
-0.0813297 0.126648 0.548687
-0.0204294 0.0223723 0.154661
0.0610624 0.126525 0.514472
-0.0192844 -0.245855 0.397924
0.114644 -0.158602 0.0826131
0.00988853 -0.0244978 0.398874
-0.183393 0.0621641 0.397359
0.00137342 0.170449 0.0819881
-0.198987 -0.0759898 0.424584
-0.0888261 -0.148198 0.11273
-0.0612375 -0.0284273 0.439541
-0.135131 0.161075 0.822391
0.123893 0.144017 0.795001
-0.0110996 0.0438879 0.365133
-0.157981 0.14233 0.822391
-0.0301321 0.152336 0.674084
-0.145723 0.115869 0.529696
0.17617 0.0813894 0.45588
-0.0890452 0.028119 0.439541
-0.00840958 0.00947004 0.359182
0.118087 -0.0245558 0.411584
-0.142301 0.113109 0.565519
-0.238189 0.090099 0.01498
0.159381 0.119409 0.649635
0.114839 0.0620043 0.427144
0.0327041 0.134807 0.601217
-0.194159 0.0585096 0.437286
0.0905473 0.131342 0.533839
0.11167 -0.0245524 0.411001
-0.196498 0.0285862 0.085729
-0.0768419 -0.230842 0.399272
0.0117691 -0.0734001 0.371175
-0.126211 0.116733 0.478772
-0.189195 0.101437 0.610029
0.020647 -0.0467674 0.132782
0.0488873 -0.0449298 0.439541
-0.0933499 0.12952 0.490112
-0.0546368 0.00646466 0.387604
0.182676 0.0778745 0.46104
-0.171515 0.0363598 0.0852969
-0.0234841 0.0620784 0.410391
-0.126271 0.0621343 0.390249
-0.249088 0.0534106 0.0233679
0.0199494 -0.0973906 0.387604
0.0901585 -0.168484 0.439541
-0.0203264 0.230934 0.0620562
-0.031943 -0.185616 0.387604
-0.227746 0.0486216 0.0834595
-0.000850595 -0.0421673 0.354531
-0.0315015 -0.10596 0.387604
-0.128023 0.140546 0.69616
0.147658 0.122116 0.615733
0.197304 0.0983704 0.514286
0.15382 0.147961 0.819785
0.00835228 0.123313 0.411657
-0.23668 0.077625 0.0767549
0.182508 0.114877 0.717912
0.0251435 -0.127857 0.387604
-0.14786 0.0621451 0.415728
-0.0706573 0.00252948 0.387604
-0.0985027 -0.21584 0.4326
0.181725 0.100405 0.651052
-0.0204466 0.032745 0.365992
-0.0593727 -0.11758 0.439541
-0.177486 0.00124089 0.439541
0.191232 0.0901822 0.586422
-0.202232 0.127976 0.501994
-0.234778 0.0494132 0.0241625
-0.0860788 0.01345 0.115708
0.015116 0.137185 0.100429
-0.0349675 -0.0702695 0.357167
-0.00471855 -0.0487626 0.148984
-0.206056 0.0961761 0.532287
0.0212083 -0.244777 0.418819
0.10585 0.122653 0.588193
-0.065853 -0.132813 0.118159
-0.0373985 -0.146778 0.36109
-0.0133174 -0.0121738 0.0760029
-0.0449473 0.144351 0.683842
-0.18453 0.0944648 0.506112
0.13152 0.0613551 0.435686
-0.0209538 0.124946 0.394656
-0.163081 -0.0697851 0.387604
-0.185087 0.104062 0.691639
0.0569673 -0.0679739 0.387604
0.0448139 0.0554588 0.387604
-0.141414 0.153259 0.822391
0.2121 0.0563552 0.0862758
0.00668802 0.181709 0.425098
0.0210404 0.0118229 0.363164
0.120854 -0.199807 0.420374
-0.0125039 0.00318297 0.174604
0.0659051 0.0419597 0.439541
-0.114793 0.0277496 0.439541
0.0335397 0.16943 0.438688
0.0190305 -0.00651229 0.291813
-0.0866557 0.0802978 0.447598
-0.166892 0.0949057 0.469797
-0.122894 0.120456 0.499267
-0.0659177 -0.132902 0.110241
-0.100413 -0.149837 0.439541
-0.225011 0.0451344 0.0103003
-0.0685358 0.0290039 0.387604
-0.0341574 -0.161488 0.387604
-0.0684833 -0.13643 0.118385
-0.0339083 -0.08505 0.351543
0.199608 0.118514 0.817654
0.18864 0.0884388 0.508855
0.070715 0.132803 0.610667
-0.0150272 0.151609 0.659484
-0.015561 -0.162464 0.387604
0.0095679 -0.0612533 0.37158
-0.00506414 0.0417019 0.384943
-0.0240008 -0.0752728 0.143781
0.0211067 0.142358 0.589325
-0.0346517 -0.121916 0.387604
0.183515 -0.0451969 0.387604
-0.17678 0.079608 0.423797
0.0661488 0.124611 0.460308
-0.0831063 0.135705 0.566473
-0.0646561 0.0779098 0.400113
-0.195358 0.0716018 0.472419
-0.000945471 0.249896 0.0688821
0.038336 0.126018 0.471121
-0.13659 0.139455 0.77033
0.0126114 0.164572 0.764944
0.0102639 -0.0639165 0.146473
-0.0178414 0.171019 0.816386
0.0764211 0.156038 0.812219
-0.00826819 -0.197842 0.439541
-0.0890318 0.107129 0.427472
-0.157708 -0.220109 0.00782429
-0.205535 0.04221 0.42355
0.017899 0.131785 0.527744
-0.194013 0.0621689 0.390906
-0.205696 0.125299 0.488615
0.112758 0.154535 0.791364
-0.00956205 -0.0601787 0.355171
-0.185527 -0.0650139 0.438889
0.163465 0.101775 0.523794
0.150367 0.14285 0.819785
0.0393106 0.116678 0.464681
-0.110593 -0.213084 0.421319
0.095769 0.093636 0.444418
0.115537 0.132726 0.690765
-0.171548 -0.144604 0.425246
0.0272549 -0.243763 0.422531
0.0286625 0.0775648 0.399851
0.0564899 0.137323 0.540992
-0.204154 0.062174 0.394049
-0.0537881 -0.182984 0.387604
0.0143304 -0.0195072 0.354215
-0.0568438 -0.123397 0.387604
-0.112474 0.131729 0.665744
-0.195081 0.098203 0.586415
0.0162281 -0.163685 0.387604
0.0917909 0.144961 0.749157
0.000941871 -0.0416882 0.374011
-0.122759 0.139868 0.749097
-0.179162 0.11535 0.756914
-0.00287035 -0.0654303 0.37144
0.177693 0.0613271 0.0971724
0.0419784 -0.241779 0.406114
-0.0962308 -0.139304 0.387604
-0.0203974 0.0872583 0.121174
0.0318497 -0.137287 0.362229
0.0592643 -0.169451 0.387604
-0.196197 0.0190895 0.387604
0.142703 -0.234168 0.0592068
0.151829 -0.202355 0.0233926
0.111741 0.112593 0.435076
-0.000648994 0.0150621 0.359173
-0.146737 -0.0441937 0.387604
0.0421087 0.0173504 0.137513
0.13355 0.126882 0.673968
-0.206777 0.0999618 0.598292
0.0862204 0.118009 0.468557
-0.078495 -0.208737 0.387604
-0.17992 0.0824015 0.506889
-0.00986346 -0.187098 0.387604
-0.0373672 -0.0880721 0.357923
-0.113998 -0.0244314 0.414767
-0.029294 -0.0449714 0.373944
-0.00469104 0.00786276 0.278221
-0.181597 0.0610563 0.0838563
-0.0196288 0.142035 0.649556
-0.146484 -0.191682 0.0361012
0.0615177 0.116578 0.464643
0.102054 -0.129976 0.0947139
-0.0119895 -0.0323863 0.0874402
0.129481 0.0684135 0.442081
0.0297528 0.160018 0.807424
-0.0758488 0.0621062 0.394848
-0.160452 0.147347 0.478268
0.0849783 0.0880988 0.441821
-0.140747 0.156041 0.822391
0.150386 0.137553 0.821361
-0.0331564 -0.0279324 0.141149
0.119293 0.0910589 0.452689
-0.189858 0.0962432 0.632128
0.138465 0.129609 0.634743
-0.0876627 -0.194851 0.387604
-0.0823189 0.141544 0.692926
0.197298 0.0874358 0.51744
-0.035134 0.185852 0.426893
0.0730887 0.148213 0.742114
0.0218689 0.130448 0.508081
-0.0229263 -0.243151 0.39143
0.0447772 0.141955 0.60302
-0.145777 -0.199991 0.0410289
0.139346 -0.192952 0.0312912
0.000434209 -0.205987 0.387604
0.0299738 -0.0161601 0.360606
-0.0268731 -0.10417 0.35234
-0.0163994 0.182949 0.819785
0.031618 -0.0955971 0.439541
0.0369937 0.143763 0.612888
-0.00995111 0.0582807 0.387604
-0.00711853 -0.0753001 0.387604
-0.0277029 0.130978 0.517511
-0.137822 -0.225329 0.0233679
-0.2026 0.0908685 0.514224
0.25062 0.0634368 0.0626617
0.0623665 0.114978 0.43359
0.126899 0.159773 0.822391
-0.193946 0.0940381 0.505428
-0.0708696 -0.0244545 0.397225
0.0743144 0.134021 0.520422
0.0491679 0.141662 0.603267
-0.00638647 0.00740993 0.319284
-0.134874 0.10937 0.444492
-0.00665679 -0.182608 0.387604
0.0670981 -0.108491 0.439541
-0.104448 -0.028109 0.439541
0.191237 0.0895893 0.528181
0.0857052 -0.0245385 0.419133
0.134541 -0.206324 0.0692422
-0.024261 -0.00581742 0.271508
0.219252 0.070399 0.0642836
-0.0372956 0.0552695 0.379768
-0.180497 -0.0883096 0.387604
-0.0137739 0.141959 0.557591
0.0338377 -0.156924 0.387604
-0.11681 0.112756 0.491308
-0.15227 -0.223601 0.00975659
-0.129073 -0.219731 0.081374
0.0279319 0.149747 0.721576
0.118203 0.0317372 0.439541
0.012958 -0.222978 0.439541
-0.0461548 -0.0909869 0.439541
0.0819071 -0.0560318 0.387604
-0.0508916 0.13053 0.546287
-0.132785 -0.194334 0.402598
-0.248943 0.0498705 0.0287622
0.025901 -0.16527 0.387604
0.174074 0.0619713 0.429055
0.0694022 0.0836963 0.405399
0.031941 0.0303213 0.366354
0.158681 0.048339 0.0864524
-0.0173435 -0.0506932 0.387604
-0.124462 0.15104 0.774149
0.00888731 -0.0337932 0.190426
0.152587 0.0432784 0.0889856
0.0598795 -0.128147 0.439541
0.127889 -0.225994 0.0777205
-0.0360338 0.183495 0.426266
-0.0437159 0.149056 0.655739
-0.0416861 -0.0705668 0.365804
0.0561409 -0.203633 0.387604
-0.154043 -0.0612576 0.439541
-0.101354 0.129318 0.517959
-0.13128 -0.175269 0.0947366
0.191187 0.119685 0.755981
0.132154 0.115785 0.504069
0.0155148 0.0194 0.359857
-0.0175272 0.0539657 0.387604
-0.0150407 0.224093 0.0131887
0.155052 0.125305 0.745503
-0.0928787 0.0621156 0.416813
0.00843 -0.0419797 0.140922
0.0938821 0.120268 0.512772
-0.0115149 0.240711 0.0345557
0.148589 -0.239721 0.0332115
0.115822 0.149901 0.759399
0.197038 0.0677783 0.450479
-0.12294 0.137339 0.729185
0.0567909 0.132688 0.45818
0.10073 0.121502 0.55395
-0.0193639 -0.177344 0.387604
0.0183544 0.0674698 0.375139
0.183013 -0.110943 0.399566
0.186851 0.076406 0.451906
-0.0256648 -0.244927 0.414453
0.104621 0.158103 0.806374
0.0871613 -0.195504 0.439541
-0.00253978 0.215285 0.0491747
0.0700761 0.124139 0.494808
0.193962 -0.0686194 0.425679
-0.0589593 0.142625 0.678005
0.178882 0.0855932 0.495292
0.0938416 0.123461 0.452009
-0.11522 -0.167993 0.100621
-0.26399 0.0539704 0.0244715
0.0439837 0.0827473 0.439304
-0.03438 -0.0800831 0.121823
-0.111397 -0.109722 0.387604
-0.0113077 0.168584 0.793109
0.0623025 -0.113111 0.387604
0.0189019 -0.0157393 0.243655
-0.0140675 0.104221 0.386544
0.16401 -0.228529 0.0199613
-0.00613979 -0.033424 0.37298
0.0154365 0.238056 0.00423985
-0.0155753 0.221935 0.0309254
0.0515941 -0.170499 0.439541
-0.173283 0.0794281 0.445098
-0.189097 0.119682 0.482943
0.0511757 0.0861592 0.440905
-0.0210989 -0.113763 0.35309
0.155265 0.133209 0.809732
-0.122941 0.094623 0.444829
-0.0203781 0.126362 0.111488
0.0275752 0.14129 0.575319
-0.244863 0.0767979 0.0237677
-0.0149884 -0.239892 0.388693
0.00629215 -0.209484 0.387604
-0.0642154 0.162857 0.819785
0.203171 0.0865861 0.515647
-0.0404715 0.139637 0.548535
0.0639266 0.0880057 0.40928
-0.156897 -0.126712 0.387604
-0.054336 0.104693 0.459038
-0.133202 -0.225407 0.0732686
-0.0284168 0.0045687 0.357521
-0.0298748 0.146866 0.630177
0.0318747 -0.0912014 0.382788
0.0281033 -0.0586828 0.127954
-0.0229845 -0.036478 0.373258
-0.0873017 -0.00695593 0.140433
0.0152187 0.0561565 0.439541
0.040881 0.140404 0.577585
-0.172206 0.0621581 0.411583
0.21069 0.0677329 0.0673595
-0.0295265 -0.00874607 0.145455
-0.14858 -0.203905 0.0642184
-0.0120083 0.147501 0.624868
0.152453 -0.0268313 0.387604
-0.0159703 0.0926735 0.399718
-0.09482 0.00119389 0.137613
0.0882943 0.133726 0.570819
-0.00930954 0.154017 0.108062
0.119547 -0.223693 0.0081116
-0.190775 0.0621681 0.420283
-0.0165724 -0.00368354 0.0790335
-0.190649 0.107247 0.522713
0.015099 0.105766 0.124809
0.172358 0.0771975 0.440983
0.0221869 -0.00862077 0.349077
0.0132994 0.236539 0.0763822
-0.091304 0.00107401 0.387604
-0.0940161 0.0135532 0.113099
0.146531 0.141688 0.766913
0.0673815 0.156209 0.730359
0.00674237 0.132521 0.0950449
-0.235924 0.0763882 0.0692422
0.029919 -0.0305742 0.15853
0.00108864 0.113487 0.390098
-0.101716 -0.11354 0.439541
-0.0415954 0.106317 0.394042
0.185018 0.0458703 0.0974064
0.0141533 0.254215 0.00301004
-0.057223 0.10543 0.459382
0.0890969 -0.130781 0.116852
0.132138 0.166517 0.819785
-0.19052 0.117209 0.512754
-0.0291025 0.140697 0.55406
0.163835 0.104847 0.551794
0.159486 0.142021 0.462073
-0.0108014 0.166036 0.772436
0.00923526 -0.0998098 0.387604
0.249533 0.0653048 0.0480574
-0.160651 0.114662 0.66405
-0.129466 -0.115174 0.387604
0.109109 0.159851 0.457923
-0.0176159 -0.0392395 0.141661
-0.0624916 0.14138 0.605249
0.189817 -0.0245954 0.391102
0.0293896 0.0133122 0.382008
-0.0217978 -0.00634256 0.163414
0.0686348 -0.0912776 0.133738
-0.0119424 0.164787 0.763103
0.00121617 0.00520987 0.162561
-0.174966 0.0954875 0.569976
-0.0619904 0.127983 0.527427
0.140018 -0.209406 0.0519371
-0.204061 0.0794214 0.519846
0.172477 0.147647 0.480473
-0.00419547 0.000294676 0.376869
0.196674 -0.0245979 0.414425
0.0480892 0.14413 0.62237
-0.0725211 -0.0635163 0.439541
0.0318305 -0.171755 0.384463
0.155473 0.110944 0.561501
-0.0229808 -0.207836 0.439541
0.0344752 -0.08996 0.387604
0.139593 -0.231206 0.0573276
-0.0621274 0.115249 0.463981
-0.251832 0.0528309 0.0692422
-0.185159 -0.0114419 0.439541
-0.22104 0.0460964 0.0384006
-0.137196 0.121751 0.629771
0.163897 0.111426 0.67486
0.0140047 0.0619158 0.434508
-0.029639 -0.0090917 0.158527
0.0958617 0.159896 0.806142
-0.0146204 0.183574 0.443698
-0.185196 0.124265 0.488645
0.16816 0.141982 0.822391
0.035114 -0.093921 0.439541
0.00846012 0.149481 0.707538
-0.0203664 0.150051 0.102614
-0.169732 0.0961388 0.491653
-0.0194282 -0.0313843 0.136587
-0.00872449 0.00419157 0.173375
0.0961147 0.112546 0.462757
0.0956131 -0.16177 0.387604
0.130151 -0.210732 0.000458455
0.173988 0.123393 0.75069
-0.170801 0.0575419 0.101736
0.011764 0.00634682 0.357158
0.130248 0.114761 0.490196
-0.068283 0.113243 0.431959
0.0115965 -0.0244988 0.395782
0.002582 0.228336 0.00266946
0.181707 0.0783409 0.492573
-0.0714441 0.118836 0.465661
-0.0696733 -0.0597703 0.387604
0.161621 -0.152418 0.395046
-0.18182 0.108049 0.501332
0.0764973 -0.0349429 0.439541
0.0345336 -0.198561 0.387604
-0.00260175 0.1854 0.431271
0.144877 0.112217 0.591282
-0.123023 0.153346 0.790187
0.151392 0.128077 0.681087
-0.125604 0.0615715 0.438812
0.0929468 -0.0288298 0.439541
-0.00666476 0.140747 0.631153
0.13539 -0.232625 0.0558519
0.175703 0.107799 0.700662
-0.083934 -0.137511 0.0957969
-0.0373231 -0.002334 0.365343
-0.0658195 0.149807 0.741377
-0.238848 0.0438861 0.0615292
-0.0691795 0.144006 0.630139
0.0940864 0.148658 0.782555
-0.114914 0.122492 0.596176
0.115609 -0.209073 0.078215
0.196078 0.117019 0.512734
-0.0282714 0.0632399 0.387604
-0.107289 -0.0393988 0.387604
0.0362693 0.0314518 0.376598
-0.126163 -0.0110947 0.387604
0.17576 -0.0906479 0.387604
0.0182973 0.116553 0.391884
0.203343 0.0665907 0.406668
-0.0415576 0.181082 0.431224
0.0294834 0.0774896 0.399783
-0.204738 0.0878659 0.521995
-0.0713134 0.150258 0.681394
0.196646 0.0619616 0.397621
-0.0245229 0.144295 0.671135
-0.050579 -0.0175059 0.439541
-0.127426 0.106484 0.464372
0.167207 -0.0944456 0.439541
-0.0199694 -0.0193039 0.387604
-0.00781082 -0.0679861 0.439541
-0.141695 0.123709 0.653417
-0.125771 -0.204624 0.0686371
-0.00894022 0.21935 0.0443817
0.0314392 -0.0930942 0.127305
-0.0249176 -0.217589 0.387604
0.0570521 -0.0245231 0.401488
-0.173948 0.0381204 0.387604
0.0575687 -0.11913 0.387604
0.00894639 0.160155 0.72745
0.108535 0.125332 0.617689
0.129839 0.15749 0.822391
-0.186033 -0.214997 0.0152034
-0.015597 0.172812 0.100849
-0.00764906 0.120536 0.466474
-0.193079 -0.0243866 0.432857
-0.105552 -0.15241 0.107644
0.0541481 0.156648 0.794463
0.0459034 0.124356 0.4588
0.0338684 0.148943 0.40869
0.0546247 0.17784 0.822391
0.17606 0.02349 0.0837372
0.233757 0.0570441 0.00308012
0.106064 -0.212278 0.404573
0.0257973 0.035625 0.385762
-0.226225 0.0894809 0.0290769
0.0229258 0.0620543 0.429776
0.039859 0.152982 0.75553
0.0197178 -0.00908334 0.336484
-0.0905351 0.139387 0.624117
-0.00378156 0.241048 0.0462813
0.0503154 0.152891 0.693755
0.22969 0.0458519 0.00388324
0.0622055 -0.0245258 0.422434
-0.0523002 0.153154 0.693505
0.105093 0.128787 0.542887
0.0562619 0.162561 0.774601
0.0576899 0.142279 0.678067
-0.00493095 -0.194015 0.387604
-0.103688 0.12127 0.542355
0.0214835 0.173891 0.419383
-0.133596 0.140716 0.706854
-0.00201922 0.224998 0.0413482
-0.0541074 -0.0244635 0.422442
0.0483761 0.14387 0.620454
-0.0373415 -0.0327604 0.374575
-0.130253 0.153674 0.822391
0.0114627 0.139205 0.497739
0.220436 0.050361 0.0398659
-0.0373209 0.0101392 0.386119
0.125322 0.110288 0.439671
-0.0042204 0.159222 0.42889
0.132925 0.140913 0.715949
-0.144311 -0.200555 0.0413182
-0.139758 0.0553353 0.387604
-0.121999 -0.115149 0.387604
-0.109685 -0.20632 0.434594
-0.1955 0.110595 0.750565
0.213586 0.0523587 0.00222114
-0.046026 -0.105896 0.387604
0.121892 0.140664 0.764838
-0.108266 -0.137886 0.090764
-0.135093 -0.167679 0.0830718
-0.0570134 -0.239888 0.404381
0.180773 0.103868 0.69216
-0.0415694 0.148473 0.42264
-0.244327 0.0580473 0.00636243
0.132659 0.114837 0.56802
0.036301 0.0950558 0.388922
0.194712 0.106721 0.506444
0.244921 0.0515201 0.0748666
-0.189109 -0.0189211 0.387604
0.0515549 0.060554 0.43838
0.188641 0.0917996 0.497549
-0.0149788 -0.0393812 0.399193
0.0237771 0.12649 0.396611
-0.194541 -0.0592821 0.388107
-0.0156814 0.163557 0.755439
-0.0127591 -0.0812376 0.387604
0.0174506 0.105352 0.38745
-0.184454 0.103978 0.622547
-0.165466 -0.138114 0.387604
-0.15755 0.0240825 0.111997
-0.0682236 0.140828 0.604164
0.0940836 0.00418832 0.112298
0.0201475 0.139368 0.631214
-0.0547268 0.0368948 0.439541
0.143377 0.117698 0.629331
0.014406 -0.0903511 0.351543
0.130663 -0.185384 0.389313
-0.0133923 -0.213183 0.382147
-0.0736665 0.158562 0.818405
0.189565 0.0924792 0.602724
-0.0989698 0.151982 0.807817
0.11022 0.137189 0.648414
-0.181813 0.113216 0.506657
0.000630814 0.147111 0.683223
-0.0291846 0.155668 0.767768
-0.0332338 -0.0799138 0.146477
-0.0851022 0.133985 0.541869
-0.126566 -0.155956 0.0968415
-0.208658 0.0879209 0.562544
0.00889097 0.237666 0.0519371
-0.15524 -0.232632 0.0564956
-0.134218 0.0261868 0.439541
0.0356892 -0.0549248 0.375944
0.181709 0.0766083 0.469695
0.0241468 -0.0169602 0.354414
-0.013451 0.17458 0.437262
-0.0293021 0.137124 0.614837
-0.0248609 -0.0488064 0.387604
-0.0363461 0.139366 0.535004
0.132662 0.139166 0.701537
0.136463 -0.12884 0.439541
0.144204 -0.200113 0.0318296
-0.0589644 -0.0630165 0.128165
0.192677 0.0378381 0.0955605
-0.031197 -0.0602195 0.127997
0.0298463 -0.113564 0.353072
-0.153237 0.115104 0.561147
0.0225127 0.142625 0.595243
0.0766964 0.135856 0.565397
0.0232524 -0.0548794 0.155278
0.259179 0.0520657 0.0155861
0.197106 0.0878581 0.486031
0.192879 0.0489143 0.0751911
-0.041589 0.120497 0.411949
0.0248211 0.159786 0.80251
0.05684 0.0524272 0.439541
0.0677322 -0.161069 0.387604
-0.0272088 0.162382 0.752736
-0.0743651 -0.130808 0.387604
-0.108047 0.0123732 0.131458
-0.19447 0.0845858 0.50205
-0.195609 -0.066099 0.388874
0.195299 0.0619623 0.437453
0.00493509 0.254219 0.0452725
-0.137049 0.146227 0.756719
-0.187007 0.119202 0.78326
0.165517 0.107512 0.582932
-0.0202761 0.0772002 0.394793
-0.143432 0.108419 0.462165
0.026151 0.0287215 0.366828
0.110773 0.11573 0.515728
0.0168721 0.0012331 0.35864
-0.0326696 0.060478 0.387604
-0.0703432 -0.0450996 0.387604
-0.0011171 0.0105782 0.369874
0.0977867 -0.198938 0.438484
-0.041632 0.0271809 0.382125
-0.041646 0.00652176 0.371069
-0.069491 0.0554988 0.387604
-0.198488 0.0943331 0.562298
0.0363364 0.161236 0.426731
-0.0377121 -0.131467 0.387604
0.212185 0.0705054 0.027389
0.221002 0.0603818 0.0469553
-0.00230949 0.0101365 0.358399
-0.192127 0.101501 0.499078
-0.000539586 0.0125858 0.387604
0.0793452 0.00468675 0.387604
0.159454 -0.2114 0.0592047
-0.0373483 -0.0475101 0.369595
0.0817386 0.124054 0.529505
0.170792 -0.0876293 0.439541
-0.136782 -0.21504 0.040165
-0.0415928 0.114164 0.396702
-0.0630827 0.126241 0.504289
0.156891 -0.0245777 0.429622
0.118411 -0.160565 0.0813042
0.140339 0.123159 0.658613
0.104564 0.15935 0.452903
0.0228445 -0.0110813 0.366134
0.114148 -0.146641 0.0975737
-0.0866137 -0.0244438 0.436145
0.0318288 -0.175422 0.366573
-0.158569 0.124002 0.729583
0.00350326 -0.0402712 0.355834
0.0762251 -0.0245316 0.437873
-0.196542 0.0928685 0.492366
0.0268345 -0.152244 0.357523
-0.0501205 0.0620927 0.422476
0.212308 0.05629 0.0353336
0.0060029 0.0201177 0.439541
0.0890978 0.134699 0.592809
-0.0958937 -0.113229 0.387604
-0.161407 0.115047 0.670791
-0.0140902 -0.00120132 0.123667
-0.19139 0.137814 0.819785
-0.0927693 0.165969 0.451081
-0.00485527 0.215882 0.0502774
-0.106749 -0.102335 0.439541
0.153816 0.121265 0.638102
-0.0139375 -0.0419159 0.150452
-0.180919 0.0876298 0.54395
0.0329534 -0.126844 0.439541
0.173652 -0.118124 0.388607
-0.0336946 -0.0886003 0.123197
-0.0581238 -0.168903 0.387604
0.032366 -0.130318 0.439541
-0.0373809 -0.107994 0.383667
-0.159577 -0.0683037 0.387604
0.0456308 -0.106662 0.387604
-0.0373325 -0.0136885 0.379419
-0.160515 -0.0244065 0.415042
0.154763 -0.225341 0.003851
0.0448822 -0.24136 0.413133
-0.0182515 -0.00181873 0.222324
0.0166537 0.166323 0.781332
-0.076797 0.143823 0.702193
-0.206868 0.0941725 0.561272
-0.0732405 0.124095 0.489671
0.25027 0.0358187 0.0258114
-0.0974228 -0.100972 0.439541
0.126973 0.153875 0.819785
0.0181945 -0.005477 0.253438
-0.059533 -0.155104 0.439541
-0.0245785 -0.174708 0.387604
-0.029192 -0.069981 0.373087
-0.206107 0.00921515 0.401614
-0.00653961 0.254229 0.0209057
-0.0435388 0.166229 0.793008
0.165212 0.138472 0.819785
-0.177128 0.139758 0.466559
0.177899 0.0125738 0.439541
-0.172137 0.103244 0.55514
0.199002 -0.0386781 0.402856
-0.0203764 0.129803 0.108709
0.0141201 0.00398819 0.354987
-0.149791 -0.190039 0.00209398
0.0870897 0.155715 0.75812
-0.0154992 0.171469 0.818621
0.13445 -0.161138 0.387604
0.110437 0.130137 0.590376
-0.188373 0.115356 0.720148
0.162166 0.0905893 0.493888
-0.20385 0.0155558 0.427607
-0.0476656 0.130344 0.538562
0.0369581 -0.187023 0.387604
0.0221426 -0.0340264 0.374412
0.0133113 0.125834 0.0973457
0.00496877 -0.0328232 0.124721
0.101546 -0.000674792 0.12564
-0.112141 -0.0960661 0.387604
-0.131778 -0.202379 0.00695052
-0.194133 0.084775 0.552366
-0.178156 0.108148 0.692724
-0.0833735 -0.107817 0.126492
0.0754673 0.1417 0.692698
-0.0204278 0.0255458 0.146118
-0.0673598 -0.204455 0.439541
-0.183169 0.129485 0.819785
-0.0308157 0.0789675 0.437515
-0.0762494 0.00805999 0.1195
0.11642 0.139997 0.681181
-0.13189 0.0621367 0.42288
-0.20766 0.0832905 0.48149
-0.0692642 0.144351 0.698425
0.000449187 0.0101567 0.410408
-0.154178 0.156162 0.822391
0.250673 0.0624279 0.0535371
-0.00930763 0.163078 0.816987
0.127632 -0.20955 0.0324981
0.00376546 -0.0357403 0.230085
-0.154781 0.0215986 0.387604
-0.0114146 -0.0451768 0.439541
-0.0395469 0.127292 0.442839
0.0800291 -0.0947814 0.439541
0.0187319 -0.138093 0.439541
0.0872892 0.155576 0.757347
-0.0681465 -0.135966 0.107812
-0.139073 0.0203174 0.387604
0.0164064 0.254218 0.0162497
0.0843298 0.0720142 0.396006
0.0114692 -0.0373629 0.387604
0.13171 0.104777 0.47488
0.115372 -0.206107 0.069228
-0.0920785 0.146278 0.748847
-0.206781 0.124752 0.482711
0.170041 0.0961762 0.575612
0.194747 0.121262 0.768474
-0.133421 -0.213671 0.0823307
0.0648985 -0.122204 0.124973
0.0840936 0.0287235 0.439541
-0.182143 -0.116948 0.431251
-0.00355283 -0.176393 0.387604
-0.218474 0.0552877 0.00208961
0.0163134 -0.0858556 0.387604
-0.0711008 0.0904784 0.452373
0.00821588 0.106558 0.405049
-0.104033 0.132397 0.58674
-0.0177999 -0.0374067 0.353973
0.0707335 0.1139 0.432623
0.0879789 0.153269 0.740042
0.186076 -0.0684015 0.436216
0.0443499 -0.0191481 0.439541
-0.229034 0.0391764 0.0694845
-0.0267332 -0.0790294 0.132193
-0.235741 0.055359 0.0797409
-0.0244371 0.133825 0.44753
0.110521 0.123823 0.504411
-0.133034 -0.223397 0.0637367
0.00257314 0.164712 0.0839627
0.0948052 0.0890769 0.442282
-0.232656 0.0786985 0.0457748
-0.154322 0.141037 0.776543
-0.095993 0.0192475 0.439541
-0.0415982 0.0984254 0.390625
0.182993 -0.110997 0.398153
0.191853 0.11131 0.758158
0.0716201 -0.0388594 0.387604
-0.158934 -0.103663 0.387604
-0.118758 0.130832 0.602945
0.0547831 -0.0976405 0.111704
-0.20882 0.0836491 0.0170609
-0.16408 0.118132 0.708679
0.0665275 -0.230642 0.427093
-0.0770495 0.163904 0.797661
-0.202601 0.0877212 0.509105
0.117584 0.105304 0.459335
0.0755834 0.135469 0.641504
-0.141911 -0.123886 0.387604
-0.0315622 0.00170971 0.387604
0.203358 0.0953525 0.505511
0.0786411 0.149949 0.766514
0.0318497 -0.136743 0.383567
0.0963754 -0.130381 0.115335
0.184561 -0.0215551 0.439051
-0.0258042 0.17702 0.819785
-0.0159633 -0.0519038 0.355446
0.048349 0.0620399 0.412067
0.115633 0.131447 0.680689
-0.0688825 -0.0865804 0.387604
-0.101308 0.156283 0.777321
-0.0214158 -0.174582 0.387604
0.0658337 -0.0245278 0.396568
-0.141767 0.0472191 0.439541
0.0286844 0.00763411 0.387604
-0.123956 0.151626 0.777992
0.0143025 0.000259686 0.320285
0.0914601 -0.00394548 0.13361
0.0318146 -0.201025 0.378665
0.0126462 -0.0371341 0.409874
0.0455489 0.166876 0.802798
-0.00888204 0.0830101 0.379326
0.0926054 -0.0245419 0.423538
-0.160222 -0.199015 0.0115035
-0.156717 0.113549 0.63634
-0.102861 -0.0593076 0.387604
0.0725597 -0.056275 0.387604
-0.0418716 0.00783426 0.156151
-0.157488 -0.215889 0.0762076
-0.195107 0.117343 0.806263
-0.20324 0.102061 0.680095
-0.0559153 0.156119 0.719325
0.114568 0.12242 0.604619
-0.157367 -0.237284 0.0440515
0.023044 0.0146631 0.387604
0.0508526 -0.0967177 0.136057
0.160174 0.101852 0.507862
-0.106772 0.0973599 0.455586
-0.111931 -0.0255119 0.439541
-0.080114 -0.107135 0.439541
0.0318092 -0.21077 0.376389
0.113749 -0.126856 0.387604
-0.176876 0.103908 0.6517
0.022074 -0.00819815 0.399433
0.00160802 -0.160681 0.358851
-0.0162252 0.243177 0.0625103
0.0139439 0.153489 0.677081
-0.172156 -0.102496 0.439541
-0.173846 0.058533 0.0854585
-0.0792329 0.127938 0.561124
0.013696 -0.0244012 0.0760029
-0.0650452 0.0609244 0.436957
0.00995814 0.130126 0.396693
-0.0131889 0.144983 0.421652
-0.102772 0.161246 0.819471
-0.2039 -0.0430387 0.407195
0.112443 0.0130551 0.105343
0.068952 0.12836 0.553173
0.111237 -0.0875034 0.439541
0.022222 -0.0029167 0.153008
0.000426453 0.0075595 0.271941
-0.00311051 -0.0246269 0.0760029
-0.208651 0.103332 0.646409
0.191555 0.11195 0.763439
0.199853 0.0933581 0.610021
0.108643 0.0624708 0.439293
-0.0417338 0.135973 0.480088
-0.242928 0.0762216 0.0020903
-0.142584 0.119278 0.548156
0.0013983 0.16866 0.791022
0.0104835 0.156869 0.702079
-0.0574146 -0.117225 0.129434
-0.140661 -0.043547 0.387604
0.111674 0.0108755 0.105827
-0.163786 0.101832 0.499624
-0.133593 0.118242 0.513005
0.179251 -0.0180921 0.387604
0.0973149 -0.173581 0.0819427
-0.0245503 -0.00102036 0.397231
-0.0732593 -0.00686423 0.122069
-0.0271863 -0.185367 0.363663
0.188643 0.0951267 0.509533
-0.252656 0.0888086 0.0195815
-0.0319686 -0.154493 0.387604
-0.0355253 0.0755296 0.397983
-0.0305869 0.143466 0.603395
0.120869 0.142941 0.781357
-0.187014 0.108019 0.716416
-0.00965838 -0.247255 0.397492
0.0618578 -0.175755 0.439541
-0.106931 -0.0184098 0.439541
0.0313082 0.18921 0.441773
-0.129723 -0.0946849 0.439541
-0.138415 0.161581 0.467409
-0.156417 0.104097 0.481344
-0.195343 0.0807206 0.527758
0.142552 0.13437 0.689535
-0.191163 0.125554 0.800806
-0.18568 0.0669296 0.43946
-0.00334442 0.168056 0.784253
-0.149455 0.161104 0.468184
-0.0158829 0.22791 0.079699
-0.158015 0.133571 0.80354
0.00884064 -0.0693744 0.371309
-0.0194784 -0.111781 0.439541
0.0785917 0.044999 0.387604
-0.100704 -0.0648754 0.387604
-0.0633723 0.0786287 0.400762
0.127181 -0.218021 0.0635203
-0.185701 0.0752747 0.490989
-0.0938336 -0.223091 0.405743
0.188754 0.0774721 0.509281
0.0183568 -0.18733 0.439541
0.0921443 0.12531 0.582804
-0.0236857 -0.0133567 0.226481
0.0566973 0.138144 0.556139
0.150603 0.11355 0.559126
-0.0326042 0.127732 0.477582
-0.0213801 0.00214631 0.402889
0.175065 0.0727174 0.446462
0.161546 0.0940908 0.463606
0.108963 0.125802 0.515677
0.0164687 0.241428 0.0474246
0.0867167 0.119504 0.483377
-0.208661 0.0906691 0.501476
-0.132119 -0.202132 0.0348923
0.0233415 -0.130479 0.387604
-0.0854669 0.130668 0.480634
0.0123682 0.240527 0.00857506
0.0755096 0.13497 0.543537
0.154058 -0.203909 0.0519371
-0.12682 0.141738 0.771393
-0.0926464 -0.128835 0.096448
-0.0427408 0.106633 0.459949
0.114173 0.134212 0.700384
-0.0917704 -0.152175 0.11083
-0.188708 0.0839543 0.49768
-0.041634 0.0246147 0.374995
0.0268694 0.105874 0.424531
0.0009792 -0.0511229 0.157866
0.247516 0.0716164 0.00545482
0.048626 -0.221587 0.439248
0.0476743 0.0768959 0.446033
0.195739 0.0954399 0.529307
-0.121893 0.113823 0.515087
0.00969412 -0.0212096 0.162561
0.19124 0.0948386 0.521762
-0.125713 0.107244 0.45153
0.0733028 0.140819 0.681494
-0.0172672 -0.220048 0.439541
0.0937046 -0.164485 0.0852073
0.178309 0.088929 0.513269
0.0460652 -0.071872 0.387604
0.0997034 -0.0249831 0.439541
0.190568 0.129492 0.485287
-0.00679754 0.143524 0.582663
-0.177297 0.0621609 0.419287
0.020321 0.139865 0.528875
-0.148859 -0.0495259 0.439541
0.0131959 0.00136763 0.269597
-0.0555055 0.119836 0.437418
0.0881526 0.174029 0.822391
0.0474972 -0.024518 0.419188
-0.182753 0.0721404 0.457385
-0.0291131 0.0353179 0.385273
-0.160047 0.138828 0.819785
0.00371417 0.196647 0.0916953
0.134533 0.104606 0.430042
0.00608084 0.0097461 0.439541
-0.207397 0.0953514 0.624693
-0.00559728 0.101122 0.447903
0.0388832 0.132712 0.578606
0.0529391 0.141991 0.608117
-0.0291057 -0.017446 0.381688
-0.0116731 0.235594 0.0392748
0.0308443 -0.119705 0.387604
0.012025 0.141825 0.560823
-0.174118 0.0267648 0.105631
0.181735 0.121305 0.814364
0.0570703 0.0936404 0.414355
-0.0479119 0.148998 0.723962
-0.0436575 0.159316 0.737775
-0.121365 0.148684 0.819282
-0.190859 -0.0989385 0.426916
0.102326 0.123062 0.473982
0.0611164 0.139545 0.592595
0.135806 -0.19553 0.00602413
-0.147699 0.0473481 0.439541
-0.115821 -0.184124 0.09548
0.0461399 0.0789305 0.446986
-0.00250678 0.210943 0.0446572
-0.141864 -0.130536 0.387604
-0.136256 -0.199119 0.0187265
0.0746568 -0.0294548 0.387604
0.0459565 0.137837 0.634283
-0.0487548 -0.0723445 0.121065
0.0363015 0.0951789 0.392987
0.00284347 0.210946 0.0331844
0.217285 0.0411194 0.048855
0.00595216 0.166794 0.103154
0.200698 -0.0160864 0.420704
-0.0654261 -0.103676 0.108966
0.0317162 0.164908 0.778898
-0.159428 -0.164265 0.403263
0.189542 0.0987773 0.528879
-0.184936 0.0987366 0.646967
-0.208661 0.088442 0.491523
-0.0285077 -0.0119756 0.369649
0.0776587 -0.127871 0.0986539
0.00122299 -0.190143 0.387604
-0.140338 0.0689358 0.442259
-0.00814848 0.150452 0.712119
-0.169144 0.0996217 0.577731
-0.142939 -0.220881 0.0233679
0.0177072 0.0773245 0.395405
0.0511418 0.13862 0.554616
-0.206053 0.10666 0.506288
-0.200526 -0.00598776 0.43464
0.0133411 0.171415 0.0816527
-0.112481 0.122858 0.487912
0.118838 -0.0980568 0.439541
-0.0603017 -0.160091 0.387604
-0.169821 0.121223 0.760572
0.12362 -0.192568 0.430756
0.000304002 0.136693 0.597066
-0.0409174 0.140595 0.572
0.122529 0.0990309 0.456427
-0.0962673 -0.114301 0.107194
0.0480354 0.0429262 0.387604
-0.0374031 -0.151516 0.37965
0.0401781 0.161821 0.822391
-0.180582 0.121098 0.741207
-0.187025 0.0783262 0.508289
0.201985 0.093373 0.557641
-0.0872141 0.119313 0.467932
0.0277412 0.17691 0.822391
-0.208665 0.0825347 0.486115
0.19526 0.103764 0.695894
0.189407 -0.0487343 0.387713
-0.0295633 0.0697949 0.442686
-0.133776 0.0621389 0.434973
-0.0243241 0.137378 0.473842
0.00862118 0.219539 0.055095
0.227266 0.053741 0.00517193
0.0362689 0.0301764 0.376225
0.0972695 0.00464066 0.13433
-0.0645986 0.16427 0.822391
-0.0230108 -0.0476924 0.439541
0.180221 0.0671926 0.437474
0.0925677 0.0748033 0.399358
-0.168817 0.152373 0.464777
-0.082755 0.109188 0.461135
-0.154279 0.0980082 0.426185
-0.00260612 0.181339 0.439213
0.19406 0.0268979 0.388416
-0.00071859 0.19013 0.426757
-0.182661 0.0379807 0.10118
-0.11994 -0.106855 0.387604
0.00996142 0.160891 0.802586
-0.160839 0.0451826 0.0878522
-0.174869 0.132608 0.806276
-0.1938 0.0708947 0.416316
0.00130181 -0.0193711 0.387604
-0.0948324 -0.127244 0.387604
-0.242322 0.0531437 0.0233679
-0.187762 -0.0243918 0.413152
0.0588888 -0.181914 0.439541
-0.204757 0.0267047 0.392974
-0.0553901 0.0530922 0.387604
0.0832278 -0.108957 0.387604
-0.212109 0.12113 0.483462
-0.178961 -0.205415 0.015243
0.221949 0.0475006 0.0576011
-0.13217 -0.212371 0.0590571
0.0362926 0.073231 0.391639
-0.0081374 0.169867 0.801532
-0.0943421 0.125791 0.579265
-0.0817768 -0.224453 0.430606
-0.161273 0.0714045 0.404068
0.129517 -0.0177193 0.387604
-0.0360772 -0.153694 0.439541
0.0202365 -0.0110237 0.303172
0.015126 0.155547 0.103018
-0.00860725 0.0515091 0.439541
0.136452 0.110195 0.536709
0.130771 0.12534 0.657003
0.214265 0.0502642 0.0408149
0.0780177 -0.13311 0.118626
0.0235608 -0.150558 0.439541
-0.0161061 0.0701529 0.433389
-0.0786466 0.178919 0.822391
-0.0894093 -0.174957 0.387604
0.0148531 0.119223 0.456388
-0.0203332 0.2172 0.0745948
0.100826 0.130383 0.556565
0.196178 0.114463 0.714698
-0.178761 0.0959578 0.59495
-0.241953 0.0959276 0.0308289
0.151407 0.0923223 0.452338
0.135124 0.166178 0.453461
0.1973 0.0927733 0.505585
-0.0245622 0.149854 0.424899
0.119165 0.157249 0.447087
-0.0146355 0.167963 0.790071
0.225149 0.0431315 0.0487186
-0.0152244 -0.0201778 0.136587
-0.237973 0.0467448 0.0799492
0.108559 -0.00740009 0.387604
-0.114415 0.063474 0.439705
-0.00699223 -0.0413779 0.387604
0.110504 0.12903 0.651768
-0.0244007 0.173153 0.822391
-0.0295753 0.0872837 0.408581
-0.162464 -0.0244054 0.394911
0.0151532 0.205449 0.0802987
0.12187 -0.181447 0.387604
-0.00352493 0.239964 0.0426944
0.0505545 0.124782 0.472931
-0.0490897 -0.0758433 0.144159
0.186324 0.061445 0.435404
0.115042 0.0642851 0.430674
-0.158164 0.100127 0.458778
-0.085041 -0.227102 0.397991
-0.0280224 0.148594 0.642924
0.0541783 0.131907 0.585256
0.179174 0.127294 0.806446
-0.0813792 -0.0524954 0.439541
0.0628239 0.127115 0.525687
0.0808915 0.164303 0.822391
0.0319365 0.0216258 0.38142
-0.168343 0.128498 0.742526
0.028644 -0.145068 0.387604
-0.037045 0.0649662 0.394469
-0.126985 0.138474 0.745443
-0.0137392 0.0901509 0.452232
0.167826 -0.0799807 0.439541
0.0336023 0.149886 0.726179
0.0318832 -0.0756856 0.385968
-0.0686498 0.0616495 0.438863
0.0132521 -0.0244993 0.423826
0.11001 -0.18781 0.0754106
0.0146777 -0.0220254 0.0779774
-0.00781907 0.216502 0.0661346
0.18379 0.0315181 0.0800157
-0.143283 0.114812 0.583605
0.0513073 -0.134207 0.387604
0.120562 -0.20658 0.0171296
-0.0224717 0.0602347 0.390007
0.218263 0.0445025 0.0673465
0.0318553 -0.209386 0.387604
0.108527 0.132214 0.674449
-0.0145941 0.239115 0.0351474
0.129449 0.0620005 0.388477
0.116761 -0.129975 0.439541
0.0665277 0.151874 0.695178
0.0825864 0.128386 0.595777
-0.0517757 0.056467 0.439541
-0.0491833 0.137024 0.512211
0.16229 0.13399 0.473163
0.0155302 -0.0165327 0.387604
0.137403 -0.214702 0.0233679
0.139592 -0.181703 0.0893552
-0.0485255 0.144504 0.62212
0.0647893 -0.024526 0.437045
0.0834408 0.0171623 0.439541
-0.125525 0.0621337 0.3913
-0.1988 0.100681 0.668717
-0.178351 0.0868178 0.526502
-0.124987 0.121376 0.51298
-0.138706 0.0621402 0.399211
-0.208655 0.0963778 0.588128
-0.0462389 -0.153011 0.387604
-0.200005 0.0871932 0.492514
0.0168768 0.00815887 0.439541
-0.0850183 0.122406 0.497074
0.115639 -0.019679 0.387604
-0.13321 -0.203868 0.0673412
0.127551 -0.250681 0.0297292
-0.18859 -0.110574 0.417553
-0.0204192 0.0429881 0.149582
0.029055 -0.089809 0.130296
-0.13958 -0.222793 0.0373285
0.0016942 0.066158 0.440992
0.0884796 0.0620184 0.402064
-0.239449 0.059129 0.0456177
-0.0334377 -0.126789 0.439541
-0.0705272 0.0936805 0.414325
-0.089035 0.126503 0.572249
0.203357 0.0868869 0.536612
-0.0635596 0.157602 0.804338
0.0654426 -0.0820037 0.387604
0.194862 0.10625 0.716405
0.0972131 -0.199649 0.438415
-0.123163 0.145715 0.729372
0.203356 0.0899426 0.499586
0.0294324 0.000199869 0.356839
-0.149682 0.118891 0.57589
0.177114 0.0687383 0.442245
0.0726521 0.137908 0.588781
0.177985 0.085496 0.517906
0.0112346 -0.161476 0.358976
-0.0820993 0.184968 0.443438
0.179414 -0.0245902 0.430056
-0.0289127 0.0947952 0.384429
0.0488589 -0.079843 0.117861
0.0886649 -0.114776 0.121922
-0.0146952 -0.0334036 0.181323
-0.000997555 0.00232657 0.357171
0.222976 0.0474487 0.0290787
0.104167 -0.213877 0.42091
0.0880134 -0.163476 0.387604
0.0691433 -0.0245303 0.434701
-0.10259 -0.0532254 0.439541
-0.183809 0.025891 0.439541
-0.0709613 0.0665345 0.431681
0.195465 0.0912757 0.593071
0.078254 0.0538031 0.387604
0.0505808 0.110002 0.4291
-0.0181205 0.140591 0.532649
0.0222894 -0.0226789 0.374045
0.0208695 0.140294 0.63929
-0.0275878 0.0854206 0.440541
0.182367 0.0267544 0.100637
0.0150782 0.067579 0.117969
-0.0255311 -0.021114 0.278215
0.0736616 0.0906969 0.443036
0.161233 0.102432 0.587214
-0.100855 -0.183891 0.439541
0.102907 -0.173401 0.0808619
0.0210621 0.00065909 0.154728
-0.0713901 0.146793 0.653718
-0.202298 0.0124583 0.389582
-0.0277674 -0.0584319 0.439541
-0.0743473 -0.23198 0.412379
0.239723 0.0728489 0.0742371
0.120054 0.138865 0.678168
-0.173546 0.118001 0.68315
-0.0360271 0.0660727 0.440942
-0.176884 -0.206603 0.0331017
0.0453156 0.133985 0.460687
-0.0345713 -0.0705122 0.439541
-0.0824775 -0.0452125 0.387604
0.182534 -0.0244594 0.387604
-0.227558 0.038696 0.0731849
-0.181912 -0.219433 0.0230534
0.111014 0.0159264 0.387604
-0.0566814 -0.0479976 0.439541
-0.0522944 -0.00932711 0.387604
-0.134636 0.0934613 0.419479
-0.087818 0.136298 0.659137
0.015116 0.137089 0.110777
-0.0145192 0.156459 0.765505
-0.0679936 0.160799 0.763783
-0.0077633 -0.10137 0.387604
0.121965 0.118652 0.496853
0.210828 0.0608504 0.0355446
-0.0096006 -0.0338135 0.162561
-0.012678 -0.188508 0.439541
0.00715992 0.00434938 0.387604
-0.0591 0.172693 0.444694
-0.0168886 0.0710857 0.443294
-0.151478 -0.0865039 0.439541
0.0296213 0.148816 0.648958
-0.0848627 -0.0986219 0.11296
0.0296105 0.0620499 0.398006
-0.130372 0.00285647 0.387604
0.189012 0.083248 0.495055
0.149612 -0.166393 0.390647
-0.0427014 0.173764 0.433329
-0.0352698 -0.0304408 0.151436
-0.153849 0.11375 0.62449
0.0725341 -0.186312 0.439541
0.11872 -0.225758 0.0383334
-0.0937171 0.182596 0.442656
-0.100804 -0.219911 0.397093
0.0166657 -0.00210645 0.30787
-0.0374201 -0.187342 0.364756
-0.167659 -0.108499 0.387604
-0.0488106 -0.232681 0.387841
-0.188016 -0.01919 0.387604
-0.0862989 -0.113067 0.102123
-0.0114263 0.00606385 0.31992
-0.181822 0.0987802 0.51826
0.160038 -0.0245783 0.414991
0.0260407 0.0625529 0.432983
0.113933 0.115875 0.450725
-0.0760118 0.123203 0.481308
0.0885125 0.123303 0.540617
-0.154793 -0.23916 0.0157434
-0.163463 0.0808764 0.438378
-0.106555 0.124421 0.596774
-0.00451887 0.130613 0.475356
0.0463399 -0.110485 0.439541
0.146143 0.0994102 0.476055
0.0825554 0.00388856 0.439541
0.064931 -0.0647429 0.439541
-0.130746 0.152605 0.819785
0.00617611 0.218212 0.065543
0.157776 -0.213226 0.0279727
-0.1618 0.10731 0.608778
0.0864881 0.146563 0.752823
0.0441886 0.128413 0.514562
0.235766 0.0456328 0.0233679
-0.189464 0.0667138 0.442773
0.028076 0.135565 0.45782
-0.00548725 0.197275 0.0727534
-0.0416267 0.0423536 0.388471
0.192978 0.117154 0.806402
-0.152399 0.00693208 0.387604
0.23339 0.075917 0.0761872
0.160112 -0.219693 0.0611047
0.166903 0.0444764 0.387604
0.0962255 0.128175 0.496926
-0.0998403 0.123932 0.459111
-0.0957531 -0.137814 0.387604
-0.215127 0.0803319 0.00785099
0.180585 -0.0395672 0.387604
0.0150434 -0.0347395 0.384803
-0.247101 0.061892 0.0407431
-0.0305249 -0.072771 0.373257
0.0337549 0.187099 0.427612
0.0826624 0.0969315 0.455434
0.189233 0.0877838 0.571861
0.182603 0.131636 0.487434
-0.0129103 -0.174712 0.439541
-0.0836653 0.0341936 0.439541
-0.00837061 0.0233666 0.364075
-5.78649e-05 0.254226 0.0241703
0.0743975 0.131602 0.474078
-0.0203335 0.216642 0.0685876
-0.0748545 0.133207 0.611236
-0.0204537 -0.0109914 0.103516
0.101506 -0.18964 0.0949196
-0.176384 0.123398 0.809018
0.146617 0.14089 0.760931
-0.025516 -0.0104966 0.255691
-0.083094 0.168504 0.448926
-0.116051 0.115517 0.514076
0.00729474 0.00312283 0.23913
0.0834905 0.161312 0.796898
0.187949 0.0928406 0.6057
-0.105279 -0.028408 0.387604
0.0186849 0.122341 0.45785
-0.0298937 0.148911 0.712443
0.0524027 0.155843 0.718597
0.0240499 -0.00703655 0.136426
0.105704 0.154245 0.777319
-0.125366 -0.12124 0.439541
0.25347 0.0628196 0.00118756
-0.104487 -0.0244398 0.388447
-0.177413 0.13265 0.818643
-0.117868 0.0612643 0.43867
0.0319878 -0.131401 0.387604
-0.180312 -0.085597 0.439188
-0.145189 0.160563 0.469518
-0.0144955 -0.0415099 0.141633
0.0761529 -0.00890954 0.133027
-0.0713781 -0.0395333 0.439541
-0.0137322 0.192756 0.431151
0.143993 -0.206355 0.0140768
0.225483 0.0397958 0.0833489
-0.191141 0.0641632 0.0889092
-0.181822 0.102252 0.504292
-0.12902 -0.0949123 0.387604
0.0704106 0.0635635 0.439795
0.060974 -0.0813713 0.114985
-0.00683943 -0.0633191 0.351543
0.105103 0.00263519 0.108854
0.0316099 0.142479 0.663848
0.117634 -0.183249 0.0941193
-0.106468 -0.216101 0.395429
0.105317 0.0102754 0.439541
-0.132903 -0.223056 0.0624769
0.0810522 0.0515962 0.439541
0.151526 -0.0254777 0.387604
0.100136 0.167586 0.822391
-0.0160712 -0.0355918 0.290357
-0.176508 -0.10235 0.387604
-0.0229043 0.141706 0.567318
0.101006 0.00179415 0.110285
0.173623 0.139319 0.819785
0.120456 0.113488 0.450916
-0.187027 0.0766808 0.464673
0.109399 -0.133 0.439541
-0.0380427 -0.0888401 0.387604
-0.0467294 0.112548 0.430861
0.0168827 0.104498 0.387028
0.0453044 -0.241299 0.404207
0.134089 0.138739 0.700497
-0.0477276 0.074166 0.444732
0.167321 0.020656 0.0883621
-0.0356883 0.0187875 0.387604
-0.250122 0.0963378 0.0379578
0.200993 0.0874119 0.520685
-0.078718 0.177923 0.450482
-0.136765 0.161243 0.448242
0.0453445 0.182288 0.427778
