0.0434731 -0.243443 0.432548
0.166504 0.0882331 0.412695
-0.203078 0.0928882 0.404549
-0.0971779 0.0529841 0.438917
-0.158536 -0.144678 0.381647
0.103547 0.120621 0.4434
-0.0649316 -0.191412 0.438917
0.228322 0.0847402 0.307367
-0.139762 0.1585 0.551351
0.221685 0.163136 0.681489
-0.130704 0.0855455 0.425614
0.188797 0.0884348 0.395515
0.26983 -0.0526763 0.609359
0.224063 0.0213687 0.06336
0.00527522 -0.183216 0.438917
-0.0190755 -0.0593589 0.438917
0.188189 0.120037 0.478287
0.110548 0.166069 0.479059
0.232356 0.0486614 0.168223
0.0790498 -0.236508 0.38747
0.230582 0.12699 0.510821
0.232016 0.0115524 0.600736
-0.00283442 -0.254626 0.394755
-0.231914 -0.165577 0.00668222
0.213001 0.0548837 0.192877
0.26141 0.0621789 0.561975
0.188689 0.141097 0.56715
0.225881 0.00145741 0
-0.0188326 0.0366246 0.381647
-0.172151 0.110771 0.0342475
-0.0627015 0.0275192 0.438917
-0.063624 0.136009 0.451321
-0.206244 -0.00101277 0
-0.187894 0.0906338 0.441035
0.219869 -0.0738767 0.00668222
0.0752443 0.0883056 0.38184
0.121545 0.208911 0.720374
0.145021 0.157194 0.0150663
0.0237809 0.0136581 0.381647
0.219503 0.0956146 0.390288
-0.0262672 0.0164434 0.438917
-0.0184937 -0.141215 0.381647
0.0480866 0.17259 0.519211
-0.196252 -0.0279281 0.0043516
-0.204803 0.0821057 0.334403
-0.164803 0.183503 0.652825
-0.156328 0.0940412 0.378099
-0.234217 -0.0527458 0.00143509
-0.119893 0.000145104 0.381647
-0.0877489 -0.221877 0.381715
-0.139534 0.20177 0.715867
0.193482 0.00711333 0.438917
-0.100695 -0.0732178 0.381647
-0.210628 0.0831796 0.338742
-0.0292869 0.185311 0.535896
0.165032 -0.0554553 0.438917
-0.0650868 -0.175945 0.381647
0.030927 0.108353 0.393073
0.0664934 0.176317 0.553957
0.19797 0.0815692 0.299932
0.037733 0.2075 0.675172
0.227258 -0.00141307 0
0.232053 0.0799847 0.577934
0.145225 0.085462 0.381647
-0.242393 0.0849182 0.543957
0.236257 0.0704203 0.263215
-0.140933 -0.0100134 0.388371
0.204454 0.115056 0.506596
0.0397375 0.210701 0.655161
-0.0967587 0.172906 0.510534
0.137009 0.212007 0.741351
-0.153681 0.120126 0.409603
0.107529 0.194686 0.000339832
0.0295589 0.115625 0.398529
0.258252 -0.0750362 0.611905
-0.231654 0.127142 0.537475
-0.00299785 0.201502 0.615926
0.130419 0.0932097 0.344625
-0.0762602 -0.0384471 0.363648
0.0655643 -0.0782957 0.381647
-0.0808566 0.202227 0.67231
0.227207 0.120421 0.492622
-0.0724161 0.209058 0.00934908
-0.0611299 0.0199468 0.37241
-0.0170797 -0.238053 0.436504
-0.000869162 0.215752 0.663192
-0.1546 0.229529 0.749745
-0.210975 -0.0106484 0.382465
0.143861 -0.130271 0.381647
0.144682 0.193349 0.650918
0.263023 0.169304 0.494699
-0.21234 0.15058 0.620953
0.0905122 -0.158033 0.381647
-0.203507 0.0552154 0.23075
0.227133 0.129427 0.487793
-0.212831 0.106005 0.450012
-0.214586 -0.238844 0
-0.0400518 -0.239271 0.434854
0.0125142 -0.152209 0.381647
-0.0796034 -0.0483548 0.377884
-0.214139 0.0303147 0.381719
0.167602 0.0287697 0.381647
-0.18685 -0.0352727 0.381647
0.194194 0.0368767 0.0213369
-0.0717885 -0.14648 0.438917
0.0247231 -0.251768 0.420739
0.0353827 -0.0934592 0.438917
0.213452 0.12027 0.526382
-0.197329 0.0908405 0.360774
-0.0285903 -0.220232 0.438917
-0.128033 0.113349 0.440974
-0.156714 0.0627354 0.381647
-0.163316 0.204381 0.719539
-0.201308 0.163173 0.691851
0.144931 -0.138577 0.438917
0.214155 0.0427947 0.16832
-0.0776337 0.210718 0.699641
-0.220728 0.0891016 0.361908
-0.111263 -0.140623 0.381647
-0.257799 0.00999955 0.581199
-0.145645 0.112898 0.440838
0.0416819 -0.101907 0.438917
0.199072 0.12884 0.500349
0.139937 0.155787 0.0264014
0.200875 0.0893931 0.326262
0.0478057 0.19322 0.628358
-0.217466 0.163699 0.697103
-0.0500423 0.0656005 0.381647
0.140019 0.180125 0.603202
0.149187 0.200223 0.677142
-0.198226 0.0502646 0.211492
0.0539625 -0.00131332 0.381647
-0.0731278 -0.168593 0.381647
0.114915 -0.158611 0.381647
-0.145258 0.229398 0.746892
-0.198958 0.144097 0.588014
0.250874 -0.0771261 0.588799
-0.0509613 0.233325 0.736344
-0.0536036 -0.00922318 0.406375
0.215253 0.0621256 0.434952
0.0757982 0.211892 0.667131
-0.120372 0.155758 0.507197
0.00858435 -0.163994 0.438917
0.202867 0.173497 0.695771
-0.074009 0.187557 0.580976
0.245066 -0.0900488 0.610372
0.0643599 -0.132931 0.373881
-0.0398999 -0.185397 0.438917
-0.26311 0.151278 0.510607
-0.0501447 0.217607 0.683314
-0.0900137 -0.118219 0.381647
0.268829 0.057744 0.58467
0.0617764 0.187954 0.568101
-0.104307 0.171782 0.514311
0.0568182 0.0873888 0.432648
-0.0424345 0.123261 0.455707
-0.147277 0.151961 0.0121224
0.142216 0.223219 0.749834
0.082383 -0.0956106 0.368492
-0.169572 0.0918517 0.369804
0.232855 -0.165527 0.00668222
0.167857 -0.107767 0.438917
-0.111918 0.185923 0.609821
0.0817943 0.0932516 0.366291
0.0817157 0.0577936 0.381361
0.122575 0.0525653 0.438917
0.221245 0.0698166 0.272181
0.158631 0.197774 0.678992
0.165479 -0.0911328 0.381647
-0.184225 0.0594878 0.0285492
0.158535 0.168981 0.574762
0.0209043 0.0954866 0.383501
-0.125135 0.0855948 0.399535
0.1356 0.0879536 0.402824
0.215175 0.00105134 0
0.0895533 0.177372 0.519812
0.178543 0.0335703 0.438917
0.215823 0.134355 0.498962
0.2012 0.132161 0.491031
-0.0559007 -0.127978 0.438917
-0.0234742 -0.166745 0.438917
-0.086086 0.205948 0.657577
-0.186256 0.212512 0.751266
-0.207808 0.121831 0.515668
-0.121079 0.169248 0.522447
-0.106647 0.0125496 0.381647
-0.174668 0.103261 0.0172063
-0.0670682 -0.0136575 0.361606
0.121358 0.175072 0.012823
-0.168631 -0.134634 0.43851
0.162412 0.221503 0.750736
0.0764769 -0.00804415 0.386921
0.190929 0.0241146 0.0349459
0.174715 0.146146 0.552503
-0.171461 0.184033 0.701175
-0.228698 -0.135232 0.593674
-0.0654345 0.0845309 0.438917
0.160995 0.0881833 0.417163
0.096022 -0.0842869 0.381647
0.135678 0.0387874 0.381647
0.134282 0.209078 0.696793
-0.0796305 0.218435 0.694625
0.0779066 0.191337 0.598581
-0.00884005 -0.141653 0.381647
-0.172914 0.142127 0.502042
0.0594445 0.184494 0.54275
-0.0696563 -0.240533 0.420677
-0.102228 0.183644 0.62542
0.232268 -0.0163458 0.601693
0.012365 -0.244053 0.434743
-0.226908 0.0892285 0.399313
-0.0785226 0.044506 0.35679
-0.14638 -0.110226 0.381647
-0.252018 0.155205 0.506013
0.0696221 0.18447 0.548962
0.210795 0.0790099 0.307962
-0.16005 0.169882 0.597311
-0.131423 0.0867139 0.347826
-0.178967 0.0352037 0.381647
-0.214057 0.146354 0.506073
-0.18417 0.120038 0.481934
-0.0618621 0.194527 0.639521
-0.212642 0.13625 0.526061
-0.0611472 -0.0566572 0.38184
-0.0715671 0.215666 0.019479
0.134909 0.028894 0.438917
0.12618 0.0558503 0.438917
0.0352213 0.184073 0.591288
-0.234406 0.0902823 0.568774
0.167422 -0.0904463 0.438917
0.24207 -0.0837684 0.611021
-0.0859666 0.101371 0.445636
0.0300665 0.204111 0.630858
0.202712 0.190829 0.7491
-0.128577 0.174211 0.0353703
0.0923336 0.178145 0.591426
0.179915 0.140803 0.500296
-0.00544283 0.110972 0.449795
-0.0672178 -0.0253999 0.438917
0.173222 -0.00717063 0.390111
0.182391 0.172789 0.642176
0.233074 -0.105377 0.593818
-0.204872 0.169429 0.716405
-0.150964 0.0910209 0.3658
-0.207865 0.125494 0.526228
0.238782 -0.137976 0.586738
-0.00528044 0.0490744 0.381647
-0.235403 0.0787039 0.305638
0.0827823 -0.00365895 0.381647
-0.219426 0.109833 0.419674
-0.144874 0.230719 0.746772
-0.211167 0.133217 0.497051
0.210857 -0.046315 0
-0.0293256 0.201264 0.622545
0.139008 -0.00598193 0.438917
0.232764 -0.0711619 0.599513
0.135342 -0.0983807 0.381647
0.270356 -0.111102 0.586785
0.0374748 0.210695 0.686096
-0.23058 0.125452 0.480232
0.0572729 -0.112917 0.381647
0.116172 0.111209 0.44939
0.221341 0.125016 0.462786
-0.00775173 -0.154698 0.438917
0.207468 0.0980401 0.359351
0.200911 0.182158 0.743695
-0.0506695 0.175565 0.544214
0.238495 -0.176982 0.00611532
-0.0786887 0.217704 0.723926
0.122838 0.0242906 0.381647
-0.20514 0.127323 0.524732
0.0285046 0.164878 0.432855
-0.270532 0.162588 0.486162
-0.136827 0.0854884 0.38183
0.133462 0.0879342 0.405741
-0.0474836 0.000149074 0.381647
-0.0710438 -0.0804215 0.438917
0.0365075 -0.0181227 0.438917
0.158551 -0.00730392 0.411857
0.0972026 -0.148085 0.381647
0.224087 0.0566349 0.199238
0.197409 0.143862 0.511916
-0.165588 0.185134 0.692726
0.145914 0.00525108 0.438917
-0.179926 0.0723253 0.0313988
0.117632 -0.0470476 0.381647
-0.0205749 0.0972273 0.366232
-0.0806396 0.0664424 0.355767
-0.212542 0.107211 0.431403
-0.13304 0.0855231 0.388193
0.269522 -0.0189553 0.607973
-0.20017 0.0634238 0.381647
0.210252 0.131703 0.488944
-0.0936628 -0.230273 0.399427
0.186943 0.00973269 0.438917
-0.159678 0.0852823 0.411479
-0.131595 0.209122 0.734929
-0.203943 0.118362 0.533597
0.0320883 -0.183949 0.438917
0.179711 0.147162 0.572099
-0.144937 0.164758 0.542848
0.19794 0.0870559 0.339406
0.0892372 0.0875332 0.432681
-0.0929576 0.090058 0.343875
-0.222933 0.169859 0.487005
0.160591 -0.0792586 0.381647
0.0194682 0.14033 0.415433
0.107013 0.195152 0.000159852
-0.0799808 -0.111762 0.438917
-0.0880564 0.171638 0.553404
0.0174337 0.175371 0.520885
0.141414 0.0962508 0.442272
0.0303813 0.221213 0.688454
0.0482369 0.213482 0.698105
0.174346 -0.00347361 0.381647
0.118091 0.205186 0.672638
0.0523068 -0.231794 0.381647
-0.212211 0.113102 0.454087
-0.224172 -0.085725 0
-0.000366151 -0.00751635 0.438917
0.205711 0.0655713 0.381647
0.197917 0.0873886 0.32202
0.1414 0.0246142 0.381647
-0.210456 0.0585325 0.381647
0.225064 -0.0106233 0.410971
0.157898 0.15667 0.515243
-0.158332 0.173246 0.605174
-0.198149 0.117207 0.515143
0.222278 0.0327724 0.107361
0.0670378 -0.0124361 0.38184
0.209255 0.12234 0.474952
-0.043492 0.235929 0.746383
0.219463 -0.206647 0.00668222
-0.0715301 0.0860811 0.43069
0.22474 0.0997788 0.365434
0.0374028 0.236612 0.746388
-0.0155049 0.0865866 0.393391
0.223839 -0.0217027 0.395879
0.236546 0.0381658 0.131949
-0.11744 -0.155666 0.381647
0.0737293 -0.0850921 0.381647
0.147788 -0.164693 0.438917
0.240256 -0.103834 0.583627
0.208402 0.153305 0.477515
0.163558 -0.101376 0.381647
-0.0801352 -0.00946243 0.423711
0.175343 0.169423 0.616672
0.208823 0.0228239 0.0694943
-0.122897 0.172887 0.550357
-0.21105 0.130399 0.534031
-0.188189 0.0803673 0.381647
0.160847 -0.0604381 0.381647
0.149021 0.0892132 0.430303
0.137267 0.0365638 0.438917
0.00920407 -0.183379 0.381647
0.153841 0.233743 0.746744
0.22658 0.152463 0.614011
0.0633665 -0.0234303 0.376308
0.160434 0.231152 0.746985
0.185283 -0.0330216 0.381647
0.136642 -0.203032 0.401372
0.170336 0.0995861 0.433258
0.102687 0.179816 0.555234
0.2701 -0.0823941 0.590263
0.156616 0.130227 0.0133332
0.0894521 0.00876402 0.438917
-0.263568 0.00229769 0.583347
-0.17367 0.14687 0.527003
0.250076 0.126232 0.516674
0.187552 -0.0387264 0.381647
0.214738 0.134774 0.582219
0.0497805 0.210514 0.656751
0.148194 0.148416 0.460932
0.269609 -0.0284553 0.597766
0.269342 0.000981234 0.586403
0.195941 -0.0227838 0.438917
-0.230924 0.110913 0.542821
0.22455 0.0147705 0.38934
-0.222161 0.135951 0.567723
0.0588228 0.095505 0.376161
0.203603 0.092177 0.402027
0.126043 0.159052 0.472744
0.172288 0.204563 0.729314
0.198403 0.0338747 0.114416
-0.231152 0.136015 0.501969
0.201686 0.0787571 0.285253
0.172554 0.189365 0.678482
-0.116813 0.0982669 0.389993
-0.0163831 0.0865786 0.401413
-0.0115768 0.118748 0.443011
0.053641 0.106425 0.447413
-0.216366 -0.0633205 0.405475
0.200942 0.206989 0.752086
-0.214116 0.0731803 0.300335
-0.00017756 -0.0776573 0.381647
0.16713 0.133735 0.432308
0.217705 0.0108819 0.0452472
0.19854 0.136815 0.541608
-0.0671225 -0.0315507 0.363085
-0.186236 0.138487 0.565758
-0.179914 -0.0103638 0.43441
-0.106686 0.182749 0.62596
0.10955 0.0622262 0.438917
0.189109 0.0394068 0.00920334
0.175783 0.215993 0.751248
-0.213591 0.0252218 0.115541
0.193464 0.112343 0.429294
0.220905 0.079202 0.286295
-0.0149808 0.239261 0.746136
-0.219558 0.0239274 0.429133
-0.141787 0.127457 0.413637
-0.224802 0.100773 0.384954
0.190941 0.0239898 0.000120747
0.0169637 0.098876 0.371475
-0.218299 0.0937892 0.439392
0.0722799 -0.241465 0.41211
-0.18589 -0.010418 0.434665
-0.0416073 -0.249376 0.402373
-0.115809 0.217769 0.747968
0.216219 0.12986 0.505724
0.0109601 0.18878 0.604786
0.259239 0.107393 0.559169
-0.107009 0.10908 0.449335
0.249749 0.120183 0.549148
0.198578 0.100196 0.367965
0.227004 0.143186 0.594046
0.229181 0.109306 0.401981
-0.208609 0.103759 0.44106
0.106875 0.195278 0.0347012
-0.0651493 0.0942987 0.375824
0.248009 -0.126703 0.601524
-0.226948 -0.020457 0.00668222
-0.129802 0.161769 0.552805
0.127612 0.187781 0.653351
-0.148049 -0.132895 0.381647
0.204792 0.0710061 0.277333
-0.0793554 -0.0757564 0.379557
-0.00331379 -0.0744315 0.381647
0.249562 -0.00975132 0.610392
0.214627 -0.10111 0.00668222
0.0266249 -0.19956 0.438917
-0.0952023 0.197475 5.74062e-06
-0.229032 -0.0983903 0.596991
-0.212495 0.152762 0.509579
-0.0753392 0.0501982 0.356322
0.164642 0.00724041 0.438917
0.0242652 0.180578 0.494661
0.217475 0.14162 0.502167
-0.236337 0.118204 0.546647
-0.0710897 0.190623 0.598554
-0.0735041 0.0860619 0.400399
0.062417 -0.0081736 0.406439
-0.0645496 0.170074 0.455661
0.205362 0.145933 0.622891
-0.11955 -0.0443311 0.381647
-0.141453 0.161252 0.0373031
0.186613 -0.00704816 0.387583
-0.000196631 0.211051 0.678822
-0.148778 0.102262 0.39656
0.205081 0.0117677 0.0270238
0.0894075 0.189895 0.60157
0.000739471 -0.0151003 0.381647
-0.0856252 0.187399 0.593605
-0.2229 0.100146 0.464049
0.181831 0.177437 0.656762
-0.192511 0.113369 0.446778
-0.107722 -0.111331 0.438917
-0.133049 0.188709 0.666905
-0.104917 0.205684 0.67085
-0.170312 0.180087 0.652782
-0.0775151 0.000309058 0.360444
-0.109473 0.14553 0.424144
-0.185903 0.171042 0.687355
-0.21976 -0.224927 0.00668222
0.22781 0.135938 0.504633
-0.069164 0.133551 0.412628
0.177426 0.138223 0.481865
0.0935267 0.1658 0.514871
0.062948 0.225204 0.709069
-0.102554 0.157716 0.435834
-0.197073 -0.119486 0.00668222
-0.217934 0.0188501 0.432905
0.0786856 -0.141575 0.37353
0.119732 0.138096 0.461975
0.0955489 0.174348 0.57171
0.207861 0.08861 0.383783
-0.13959 0.156813 0.496785
-0.0290347 0.17656 0.472725
-0.150806 -0.102911 0.381647
-0.047761 0.184015 0.599379
0.217537 0.134729 0.504262
-0.220543 0.124246 0.500911
0.0639864 0.109598 0.448856
-0.201762 0.142378 0.621721
-0.0834443 0.148929 0.457461
0.0494025 0.20965 0.653761
0.13093 0.183424 0.640811
0.214583 -0.0595045 0.383465
-0.0327316 -0.217732 0.438917
-0.176085 0.0980206 0.375068
0.219174 0.160657 0.472075
-0.0682599 -0.129727 0.438917
-0.00798211 -0.0500131 0.381647
0.104487 -0.0618266 0.438917
-0.174233 0.183862 0.70633
-0.064746 -0.108304 0.38184
0.0743048 -0.0727087 0.438917
-0.0910876 0.23567 0.746368
-0.0698004 0.188841 0.587406
0.195963 0.156556 0.645514
0.217927 0.0459987 0.180534
-0.214296 0.0899649 0.365012
-0.163225 -0.144766 0.437912
0.124058 0.157572 0.511089
-0.0769755 0.173917 0.553718
-0.103594 0.15661 0.484762
-0.138277 -0.0310083 0.381647
-0.0330463 0.170011 0.436999
0.156291 -0.0494903 0.381647
-0.0189636 0.0994648 0.375143
0.195527 -0.016576 0.381647
-0.0215873 -0.00893295 0.422811
0.121105 0.174946 0.604356
-0.219958 0.0413761 0.428551
-0.126365 -0.00988271 0.385951
0.202666 -0.11702 0
0.107782 0.167833 0.546907
-0.19039 0.1975 0.752452
0.0898538 -0.0791466 0.381647
-0.147528 0.148566 0.47269
-0.218679 0.190304 0.750375
-0.117478 -0.17046 0.438917
-0.134135 -0.174671 0.438917
0.268819 0.161411 0.504229
0.0413486 0.117635 0.399955
0.14581 0.146788 0.0244978
-0.197679 0.129095 0.506529
0.158498 0.176569 0.607054
0.21673 0.0699648 0.250855
-0.229275 -0.0624563 0.00668222
-0.135712 0.167285 0.596336
-0.0489405 0.0820524 0.438917
0.00702549 0.183162 0.57175
-0.0826297 0.110942 0.439654
0.225587 -0.0175021 0
0.200925 0.00620414 0.0278057
-0.0921838 -0.027293 0.381647
-0.179309 0.155099 0.583025
-0.211092 0.00628163 0.0204085
-0.125794 0.13489 0.45106
0.261223 0.115396 0.553098
-0.142395 0.0967551 0.381442
-0.208554 0.00375938 0.032674
-0.220649 -0.0300964 0.412195
0.223185 0.0047224 0
0.21423 0.0775009 0.279979
-0.203156 -0.0105756 0.436393
0.206201 0.121655 0.49648
-0.079678 -0.0401621 0.379084
-0.227535 0.158251 0.656134
0.155325 -0.186966 0.409148
-0.0844635 0.169927 0.471174
0.14638 0.140739 0.461309
0.148634 0.103942 0.435391
0.21451 0.0947729 0.346513
-0.150048 0.176859 0.640669
0.0999247 0.212548 0.685038
-0.229518 -0.0445161 0.604964
0.0374786 0.212677 0.692911
0.210171 -0.0854691 0.384719
-0.090269 -0.228671 0.426145
-0.0882535 -0.18489 0.381647
0.0628597 0.180582 0.579108
0.211903 0.060308 0.213815
-0.0891713 0.197311 0.630914
-0.177849 0.129646 0.462652
0.202288 0.168249 0.666716
0.198669 0.0891232 0.347345
-0.0974426 0.0132188 0.438917
0.139299 0.216832 0.726331
0.267471 -0.0202917 0.612156
0.0901822 -0.143096 0.438917
-0.229944 -0.220144 0.00668222
0.0453275 0.179503 0.563295
-0.103967 0.0919974 0.348273
0.231642 0.0526534 0.567837
0.109273 -0.00774972 0.396119
0.150172 0.0458396 0.381647
0.233207 -0.00114408 0.608631
0.236105 0.127878 0.508262
0.222725 0.107532 0.395377
0.135037 0.0879487 0.420764
-0.234743 0.0845684 0.344939
-0.0126365 0.100037 0.434245
-0.0636498 0.087581 0.348836
0.0688609 0.079823 0.353982
-0.177454 0.133582 0.5149
-0.238949 0.111587 0.520358
-0.016317 0.130588 0.44858
-0.0915477 0.0920825 0.367899
-0.169777 0.143245 0.540702
-0.115321 -0.0100626 0.438917
-0.0775775 0.081003 0.353775
0.226916 0.152877 0.50769
0.174813 0.206526 0.741012
0.15714 0.183755 0.628622
-0.191098 0.00117794 0.00383986
0.270471 -0.123958 0.58779
-0.00615644 -0.160617 0.381647
0.199063 -0.123514 0.414993
-0.195869 0.147809 0.596732
-0.0840052 -0.000629693 0.381647
0.224797 0.0704667 0.41375
-0.081785 -0.0133125 0.438917
-0.166557 0.124285 0.442709
-0.188293 0.0911378 0.441272
-0.171974 0.139564 0.48699
-0.219508 0.084741 0.401582
-0.255528 -0.116478 0.605345
-0.159529 0.0902191 0.343684
-0.0304979 0.235342 0.737348
-0.134501 0.213146 0.750307
0.0770659 0.0937013 0.348536
0.0614957 -0.206431 0.381647
-0.0120002 -0.00884772 0.382423
0.0497668 0.0958458 0.432016
-0.126096 0.095416 0.362798
0.175044 0.0749606 0.381647
0.167935 -0.165802 0.384104
-0.186227 0.0850421 0.419787
0.0712909 -0.110284 0.369696
-0.120694 0.0976969 0.371757
-0.220146 0.0883325 0.376907
0.134054 -0.139307 0.438917
-0.134538 0.0325816 0.438917
-0.0771582 0.193216 0.639423
-0.113499 0.19493 0.641223
0.20024 0.0590752 0.231525
0.0285641 -0.0756453 0.438917
0.0701931 0.143586 0.419201
-0.131366 -0.00992603 0.422981
-0.104826 0.122579 0.406534
-0.0803918 -0.236177 0.41242
0.150763 0.156284 0.544193
0.238605 -0.00661118 0.587037
-0.20491 0.135948 0.493841
0.238106 -0.102783 0.607727
0.18604 0.162623 0.61513
0.117668 -0.00406125 0.438917
0.0494525 0.0940256 0.350841
-0.182964 0.0995907 0.39874
0.213141 -0.0780808 0.42555
0.0254496 0.0212256 0.438917
-0.190418 -0.0358354 0.381647
-0.0335081 0.248321 0.745267
0.0670999 -0.0987734 0.438917
-0.0497408 0.206669 0.646453
0.0422523 0.0871091 0.40934
-0.000531712 0.23311 0.0381872
-0.161279 0.057994 0.381647
-0.060185 0.0861834 0.431747
-0.169307 0.104029 0.00909254
0.205371 -0.0534454 0
0.217545 0.0941367 0.43519
0.205032 0.165029 0.499196
-0.141819 -0.153195 0.438917
0.116427 -0.21955 0.389654
0.106311 -0.169544 0.438917
-0.11384 0.180816 0.0323957
0.00453055 0.0815068 0.381647
-0.144483 0.146968 0.0140711
-0.22075 -0.0838363 0
-0.0885355 0.186395 0.623927
0.0552488 -0.229013 0.381647
-0.151943 0.0882138 0.354585
-0.00192128 0.162707 0.430226
-0.0709019 0.164372 0.490316
0.204565 0.146063 0.623364
0.212308 -0.208117 0.00668222
-0.130523 0.116774 0.44259
-0.169292 0.161427 0.583931
-0.155446 0.169376 0.582632
-0.078021 0.0937072 0.37392
-0.0582269 -0.175264 0.438917
0.227806 -0.117169 0.00668222
-0.165685 0.155485 0.544841
-0.185746 0.0543637 0.0224158
0.0728948 0.0705644 0.38184
0.154978 0.142797 0.48412
0.136089 0.168853 0.0326491
-0.1968 0.0326007 0.133909
0.0734578 0.0907988 0.42955
-0.0911374 0.121859 0.404717
0.236306 0.0650607 0.248288
-0.145036 -0.077911 0.438917
0.0649237 0.142003 0.418051
0.00773627 0.179181 0.543632
-0.0888074 0.0318618 0.381647
-0.206376 -0.0567775 0.381647
-0.203747 0.0555986 0.232234
-0.219552 -0.038603 0.409412
-0.137627 0.188743 0.638617
-0.10876 0.185579 0.0243164
0.0154194 -0.187264 0.438917
0.142974 0.19255 0.647061
0.17399 -0.032134 0.381647
-0.0225655 -0.103895 0.438917
0.251564 0.163123 0.501989
0.0872722 -0.00794875 0.415886
-0.215696 0.131536 0.506885
-0.090181 0.218825 0.736379
-0.0218153 0.0865292 0.434023
0.117755 -0.0353104 0.381647
-0.187018 0.0469487 0.438917
-0.0235694 0.196205 0.603925
-0.140465 0.171572 0.568126
-0.00136687 0.19072 0.609053
-0.119995 0.113932 0.451663
-0.135707 0.138497 0.447089
-0.179019 0.0902739 0.0138857
0.0482919 0.222193 0.695704
0.041067 0.110952 0.449588
0.0185413 0.230455 0.716925
0.12818 0.180645 0.596609
0.219764 -0.156354 0
-0.0793038 -0.0813264 0.372235
0.238282 -0.0623759 0.589844
0.0573604 0.186583 0.555693
0.128097 -0.206511 0.426507
-0.251268 0.12816 0.536238
-0.22068 0.139581 0.499702
0.0720931 0.213206 0.670733
0.132999 0.189571 0.630223
0.114552 0.143104 0.421232
-0.0357902 0.077998 0.381647
0.217983 0.0874101 0.433714
0.168563 0.145253 0.530202
-0.060343 0.163005 0.473985
0.109379 0.157081 0.486994
0.222808 -0.00828952 0.425837
-0.0928244 0.0858871 0.412463
0.203626 0.0897157 0.392675
-0.238246 0.153525 0.508176
-0.0717567 -0.120242 0.38184
0.129192 0.203063 0.673063
-0.22011 0.0856791 0.3487
-0.230905 0.108864 0.543624
0.221615 0.10443 0.383464
-0.227065 0.0288963 0.130178
-0.225297 -0.236707 0.00548222
-0.207845 0.00638154 0.042751
-0.20875 0.0902124 0.343709
-0.00403003 0.185628 0.522622
0.174783 0.150773 0.576248
-0.0582761 -0.137441 0.381647
-0.224953 0.143723 0.497527
0.213971 0.150069 0.606442
-0.207057 -0.0897383 0.38667
0.0336512 -0.0433188 0.438917
0.228535 0.0943317 0.344313
0.0789422 0.0116234 0.438917
0.0751384 0.173213 0.475882
0.114969 -0.129996 0.438917
0.0288933 0.182019 0.507703
-0.25325 -0.111269 0.606685
0.213107 0.0891522 0.377187
0.156581 -0.0841533 0.438917
0.193083 0.176674 0.709296
0.0971825 0.128049 0.408538
0.0910645 0.203747 0.681266
0.162091 0.155911 0.522354
0.127086 -0.00758513 0.436307
-0.196852 0.0383525 0.162946
-0.00559635 -0.20348 0.438917
0.076614 0.0925333 0.363598
-0.205474 0.084584 0.321906
0.0818594 0.0423528 0.36289
0.0962126 -0.149088 0.438917
-0.0963831 -0.0520674 0.381647
0.0203309 -0.0173486 0.381647
0.0890006 0.165556 0.440527
-0.249703 -0.09432 0.587078
-0.0316352 0.192798 0.624892
0.0501039 0.197241 0.642699
-0.232978 0.0979925 0.374523
-0.118991 0.180035 0.626638
-0.149559 0.0853725 0.386473
-0.220509 0.0283221 0.105666
0.234964 0.0776844 0.279946
0.0637712 0.213775 0.03703
0.196848 0.183079 0.705932
0.19747 0.191956 0.737184
0.053014 0.181459 0.580829
0.203167 0.126013 0.547961
-0.161166 0.0435267 0.381647
0.184179 0.174499 0.684196
0.0102573 -0.236874 0.381647
0.0983544 0.179254 0.602353
-0.200945 0.134027 0.554453
0.213088 0.134366 0.499104
0.222616 0.00664568 0.0047233
0.00334094 0.0737131 0.381647
-0.0173078 -0.0693525 0.438917
-0.109456 0.194504 0.667803
-0.213769 0.0014578 0.00668222
-0.215778 0.105497 0.424909
-0.151005 0.140262 0.479978
-0.106841 0.152767 0.471111
0.220363 0.138703 0.525996
0.127655 0.0983089 0.365173
-0.00539254 0.221173 0.714744
0.233323 0.0503934 0.174862
0.221633 0.13159 0.506885
-0.055786 0.235197 0.74644
0.105284 0.144939 0.421859
0.134824 -0.16482 0.381647
-0.00660877 -0.177159 0.438917
-0.0629804 -0.0477971 0.381647
0.11799 0.207389 0.679989
-0.0984888 0.16348 0.517344
-0.199995 0.0654855 0.270199
-0.13824 0.0255638 0.438917
0.0275288 -0.251757 0.411762
-0.107541 -0.0113744 0.381647
0.160441 0.165896 0.607599
-0.168649 0.171877 0.654738
0.144252 0.149175 0.0370128
-0.13239 0.0879773 0.352928
0.265461 0.00214794 0.608028
-0.222184 0.0140184 0.0726847
-0.173296 0.140896 0.539351
0.0592128 0.126618 0.456853
0.215651 0.144974 0.619262
-0.0774313 0.181447 0.542255
-0.251362 0.133503 0.496276
0.0237294 -0.0630642 0.381647
0.227482 0.0902205 0.377473
0.262887 0.160449 0.505323
0.197754 0.105467 0.395178
-0.234882 0.0531299 0.590286
0.141317 0.224357 0.747585
0.164313 -0.177274 0.420083
-0.101187 0.122237 0.455474
-0.130154 0.220733 0.740321
-0.198592 0.0685777 0.438917
0.0350091 0.201149 0.621989
0.269897 0.150709 0.488073
0.0514203 0.185765 0.60355
0.222572 -0.0331669 0.41089
0.0165193 0.205623 0.632952
-0.0356143 -0.0939522 0.381647
0.0585851 -0.037206 0.438917
-0.235443 0.00594247 0.582395
-0.0561406 0.220843 0.728214
0.0674907 0.0676419 0.354987
-0.210777 -0.159932 0.00668222
-0.198015 0.166609 0.481943
0.0649657 0.0289999 0.358179
0.102444 -0.00996226 0.438917
0.0635734 -0.0461726 0.380492
0.0490455 0.206415 0.642801
0.205736 0.11026 0.451834
0.168409 0.0940157 0.34648
0.0271709 0.0869721 0.437957
0.146541 -0.00176119 0.438917
0.200321 -0.100649 0.433713
-0.0326209 0.086433 0.428909
-0.214503 0.127081 0.506885
0.149722 0.212605 0.719207
0.224774 0.0973248 0.43756
-0.0258455 0.171929 0.439017
0.140931 0.208582 0.732493
-0.124658 0.177886 0.00104626
0.233245 -0.12424 0.592547
0.176185 0.204466 0.752295
-0.265618 -0.0176158 0.587695
0.114032 0.171132 0.576196
-0.168366 0.131105 0.475355
-0.141726 -0.010451 0.381647
0.117979 0.216935 0.744963
-0.145176 -0.112752 0.381647
0.171652 -0.0260563 0.381647
0.238323 0.0517622 0.59273
0.169458 -0.00923121 0.438917
-0.12292 -0.0909055 0.381647
-0.000624612 0.0888504 0.428952
-0.177825 0.194338 0.748764
-0.184185 0.20289 0.752142
-0.238589 0.076591 0.577459
-0.0281646 0.158601 0.428819
-0.0452227 0.211201 0.660408
0.0989392 0.177744 0.535521
-0.223355 -0.132563 0.00668222
0.194792 0.172215 0.665092
-0.147428 0.00235306 0.438917
-0.268369 0.134516 0.50315
0.0758173 -0.0680367 0.381647
-0.194335 0.16412 0.649017
0.138842 0.114913 0.402388
-0.142409 0.225078 0.750161
-0.244351 0.058911 0.587083
-0.119337 0.196622 0.651292
0.0451865 0.115767 0.451827
0.20997 0.109241 0.447687
-0.0199782 -0.129149 0.438917
-0.105434 0.243368 0.748221
-0.128457 0.173208 0.561068
0.0494272 0.226608 0.0217796
0.233096 -0.107415 0.589058
0.198715 -0.000569137 0.00600521
-0.0821998 -0.152732 0.438917
-0.00501712 -0.238079 0.381647
-0.0830786 0.216717 0.691453
0.0918998 0.210793 0.67365
0.19288 0.0479311 0.00269523
0.203029 0.188799 0.753735
-0.153245 0.232877 0.748659
-0.0466494 0.199043 0.619961
-0.111096 -0.13946 0.381647
-0.0114828 0.0866243 0.427202
-0.0975777 0.0953774 0.385702
-0.169329 -0.0858003 0.381647
0.107392 0.162953 0.459408
-0.105709 0.209511 0.684286
0.0310306 0.180917 0.500627
0.100906 -0.152759 0.438917
0.0265488 -0.170972 0.381647
0.0980359 0.182384 0.612891
0.105595 0.212658 0.689278
-0.0453696 0.098092 0.433473
0.26798 0.151928 0.515313
0.18951 0.0655142 0.0342575
0.223785 0.0789949 0.307455
0.084737 0.214383 0.713195
0.0623995 0.0832792 0.378334
-0.223671 0.0481637 0.408781
-0.0527013 -0.0512596 0.381647
-0.154767 0.18435 0.636773
-0.191977 0.108457 0.425937
-0.2209 0.130031 0.579158
0.0254052 0.0869555 0.382806
-0.00011459 0.06798 0.438917
0.166143 -0.0513035 0.381647
-0.0608104 -0.0153282 0.370503
0.229534 0.139829 0.526331
-0.201819 0.181654 0.754051
0.136563 0.0899649 0.351109
0.270069 0.131854 0.514074
0.00236989 0.173531 0.500776
-0.218459 -0.0355581 0.423368
-0.211931 0.000453547 0.0200581
0.216721 0.0757799 0.273261
-0.189509 0.0169633 0.0107263
0.164263 0.214721 0.74848
0.0450164 -0.0316447 0.381647
0.164693 0.148051 0.492139
0.203234 0.132759 0.541605
-0.0867402 0.187155 0.593622
0.201912 -0.0944841 0
0.210401 -0.228923 0.00668222
0.172972 0.206936 0.738706
-0.106212 0.187968 0.0190874
-0.257406 -0.111423 0.606655
-0.0274477 -0.213702 0.438917
-0.18976 -0.0606718 0.438917
0.216763 0.160554 0.672767
0.0692326 0.183361 0.599306
-0.182584 -0.0113776 0.438917
-0.147644 0.0941903 0.358662
0.133525 0.171172 0.00118796
-0.0109494 -0.0342257 0.381647
-0.147693 -0.110127 0.381647
-0.0916603 0.201959 0
0.202383 0.080493 0.313967
0.244643 0.102508 0.562783
-0.0908978 -0.0836042 0.438917
-0.0455594 0.118254 0.401008
0.00298563 0.174279 0.506405
-0.0131022 -0.0242943 0.438917
-0.0371763 0.228065 0.0282376
-0.078805 -0.136509 0.371896
-0.08706 0.0788065 0.438917
-0.230704 0.0869099 0.567593
0.0663352 0.022304 0.358734
0.00379456 -0.164794 0.381647
-0.203247 -0.0815589 0.382147
-0.0857622 -0.159533 0.381647
-0.0904736 0.073561 0.381647
-0.0306977 0.181469 0.573978
0.0765913 -0.0694389 0.38184
-0.230904 0.108633 0.524744
-0.0113577 0.0453289 0.438917
-0.21402 0.0104173 0.0585197
-0.142981 -0.0979572 0.438917
-0.0506371 -0.177831 0.438917
-0.180076 0.133946 0.486593
-0.201524 0.0444815 0.167251
0.107073 -0.00776962 0.394075
0.226556 0.0262211 0.0819704
-0.105251 -0.17275 0.381647
0.107847 0.170106 0.561385
0.160311 0.133756 0.0013458
-0.231176 0.138831 0.490971
0.15693 0.168941 0.570148
-0.208189 -0.133623 0.00668222
0.0030802 0.0502424 0.438917
-0.0513448 0.113097 0.440531
0.254016 0.0787974 0.578693
0.0768495 0.151149 0.466559
0.05563 0.165117 0.477827
0.183915 0.0667768 0.0332657
-0.211164 0.142881 0.522183
0.0315746 -0.113038 0.381647
-0.138233 0.182381 0.649798
-0.101172 -0.195713 0.438917
-0.0846713 0.220259 0.704533
-0.230217 0.0328474 0.592711
0.177529 0.139367 0.48674
0.202914 0.168253 0.673112
0.245368 -0.138608 0.588766
-0.230187 0.02997 0.577867
-0.213923 0.131112 0.523851
0.0806071 -0.00184239 0.38184
0.18081 0.203775 0.743736
0.0929088 0.218402 0.732798
-0.0377531 0.146215 0.420757
-0.226776 0.182357 0.726861
-0.0128984 -0.253264 0.418045
0.0859418 0.128435 0.447137
-0.270322 0.139653 0.496381
-0.0721861 0.088947 0.4293
-0.0623042 -0.0520432 0.364783
0.000360139 0.172759 0.494335
0.00817427 0.232741 0.0174781
-0.0632203 0.181531 0.532108
-0.0201887 0.123519 0.455734
-0.187073 0.178243 0.714064
0.206866 0.0302676 0.120309
0.176065 0.122368 0.449993
0.242994 0.160787 0.504697
-0.222501 0.0628079 0.260666
0.170714 0.156779 0.550724
0.0436812 0.227127 0.711281
0.197668 -0.0836259 0.381647
-0.0131411 0.0859218 0.381647
0.0307564 0.18437 0.526225
-0.243789 -0.113333 0.606129
0.213774 0.128101 0.501649
-0.267779 0.0692194 0.572216
-0.140459 0.0921764 0.37005
-0.00637846 -0.174785 0.438917
-0.14812 0.122202 0.410394
-0.15693 -0.0537603 0.381647
0.0760914 0.0551255 0.38184
0.221445 0.164965 0.65565
0.0644025 0.19379 0.603728
0.0956639 0.147787 0.460322
0.113166 0.165643 0.48149
-0.0163772 0.0865787 0.403043
-0.268016 0.0959758 0.552887
-0.0758983 0.170013 0.463806
-0.060647 0.0991882 0.386826
0.0454088 -0.142552 0.438917
0.142338 0.181326 0.641661
-0.0966078 0.150001 0.426288
-0.227606 0.165918 0.682181
0.23847 -0.0763838 0.588859
0.00579931 0.179071 0.474434
0.203452 0.116651 0.476966
0.00625367 0.178665 0.539258
-0.19064 0.0531385 0.0107995
-0.0539997 0.172709 0.465518
-0.0661231 -0.142885 0.378916
0.0925936 0.185223 0.578931
-0.173895 -0.0118646 0.381647
0.109176 0.00163543 0.381647
0.232651 -0.0584145 0.61054
0.180293 0.091446 0.0246753
-0.00676364 0.24458 0.745629
0.191799 0.107155 0.403658
-0.115953 0.183976 0.606323
0.206179 0.118634 0.520328
-0.0828962 0.120592 0.454626
-0.0617065 0.0836448 0.377089
0.164369 0.120014 0.446909
-0.0371817 0.225654 0.0381872
-0.192189 0.0377182 0.0228711
-0.073293 0.0205828 0.358772
0.188702 -0.00703117 0.395287
-0.231299 0.152384 0.495999
0.0649742 0.153986 0.426817
-0.0792689 -0.0799415 0.38184
-0.0444617 0.0414723 0.438917
0.186093 0.095193 0.370282
-0.138119 -0.0686655 0.381647
0.0260624 -0.18816 0.438917
-0.254822 0.0301704 0.575042
0.124864 0.155913 0.504121
-0.2018 0.117113 0.469184
0.190689 0.145238 0.551747
0.100232 0.169989 0.483121
-0.130186 0.172702 0.0186524
0.0780813 0.184314 0.553202
-0.102294 0.161629 0.453432
-0.0965908 0.0881191 0.43947
0.206225 0.10268 0.399315
0.23236 -0.0260843 0.612406
-0.0394899 0.0120886 0.438917
-0.211741 0.110815 0.504782
0.106802 0.197221 0.638111
0.21434 0.0363984 0.121606
-0.10516 -0.0755801 0.381647
0.198841 -0.0143618 0.00597145
0.103714 -0.0641345 0.438917
0.217799 0.169675 0.473799
-0.127373 0.148996 0.439235
-0.197614 0.122303 0.485331
-0.0111723 0.0147684 0.381647
0.0734236 0.226723 0.716491
-0.205818 0.145807 0.517795
-0.241447 0.126934 0.537596
0.227427 0.131469 0.503918
0.185061 0.121979 0.441348
-0.197027 0.129616 0.559544
0.180333 0.0913329 0.000370514
-0.112573 0.0261336 0.438917
0.198091 0.125498 0.487505
-0.0865123 0.201893 0.034966
-0.168875 -0.00998796 0.381647
0.262516 0.0685649 0.584322
0.0924521 -0.05365 0.381647
0.0862929 0.216832 0.722779
0.246646 0.144663 0.523385
-0.0659582 0.155573 0.428794
0.26654 0.163221 0.472036
0.202169 -0.00109166 0.438917
0.0146695 -0.123138 0.381647
-0.125483 0.0948525 0.380232
0.224199 0.136814 0.497143
0.270085 -0.0808685 0.603708
0.20784 0.0945326 0.434836
-0.136929 0.0854881 0.401185
0.188801 -0.134813 0.428876
0.0984769 0.144796 0.465202
0.0742178 0.0049427 0.381647
-0.268048 0.0995132 0.55594
0.243431 0.0549511 0.591586
-0.235459 0.102004 0.412139
-0.216282 0.0116263 0.0411865
-0.0926305 0.162329 0.501426
0.226926 0.152174 0.643266
0.105247 0.0933584 0.365866
0.086286 0.087507 0.430454
0.201356 0.109639 0.426294
0.141754 0.205131 0.688599
-0.220383 -0.0822875 0.00668222
-0.0631016 0.0957301 0.381601
0.249346 0.130766 0.53823
0.220996 -0.047422 0.419198
-0.14818 0.161277 0.532484
0.203116 0.145769 0.610816
-0.0583943 0.196324 0.644692
0.170524 0.118099 0.0183293
-0.137901 0.211138 0.713952
-0.134061 0.0971534 0.391256
0.112501 0.160311 0.507483
-0.266344 -0.0889941 0.598201
0.117383 -0.0857556 0.381647
0.203032 0.1551 0.634484
-0.114619 0.112658 0.440593
0.24867 0.10255 0.562779
-0.231156 0.136433 0.50589
0.0263413 -0.0210213 0.438917
-0.229334 -0.0650097 0.596472
-0.0368582 0.211014 0.657424
0.137712 0.14063 0.447972
0.104252 -0.100245 0.381647
-0.0901773 0.178742 0.599398
-0.207728 0.171014 0.688624
-0.115219 0.19817 0.6848
0.203537 0.0990969 0.422745
0.20015 0.126655 0.520132
-0.168106 -0.0990257 0.381647
0.0681288 0.0787808 0.38184
-0.118311 0.0142199 0.438917
0.194238 -0.00698108 0.408936
0.204232 0.021482 0.0644828
-0.21437 0.101261 0.38647
-0.21111 0.136693 0.496505
-0.180063 0.0719151 0.0363321
-0.0827261 -0.105166 0.438917
-0.12696 -0.0269336 0.381647
0.249663 0.120849 0.515477
0.198986 0.0639648 0.250407
0.116999 -0.191131 0.438917
-0.0604773 -0.110804 0.369641
-0.0660577 0.21229 0.0134146
0.159906 0.181552 0.626721
-0.130628 0.0730997 0.381647
-0.268348 0.153825 0.507495
-0.0116543 -0.163337 0.381647
0.10262 0.157295 0.478063
-0.268422 0.140281 0.503496
0.100787 -0.13452 0.381647
0.0649031 0.224453 0.73958
0.131794 0.0938998 0.347345
-0.0143386 0.198868 0.640752
-0.0679237 -0.00935272 0.406806
0.226861 0.159328 0.65599
0.0520377 0.0871983 0.384232
0.178634 0.0883411 0.431383
-0.189137 0.0206725 0.0296312
-0.198492 -0.20189 0.00668222
-0.0241997 -0.251733 0.395364
0.269824 0.158652 0.506066
-0.229335 0.000855982 0.022229
-0.161897 -0.0156181 0.381647
0.111802 0.158947 0.448359
0.268421 0.102687 0.538083
0.231268 0.00274245 0.0134196
0.0641498 -0.109807 0.376698
0.108278 0.201663 0.654078
-0.0702731 0.163628 0.485254
-0.108441 0.185878 0.0276688
0.0269655 0.0393084 0.438917
0.0106407 0.230904 0.74923
0.014029 -0.216641 0.381647
0.218336 0.172133 0.67953
-0.149941 0.166767 0.560912
0.0643333 0.141793 0.417897
0.0880766 0.0875236 0.419866
-0.11 -0.186252 0.438917
0.147532 0.0923908 0.360443
-0.141049 0.161853 0.569945
0.213503 0.0769506 0.381647
0.135674 0.201288 0.704342
0.230927 0.131826 0.531082
0.122343 0.17418 0.0316962
0.0505175 0.0992838 0.371889
0.231915 0.0228471 0.596219
0.223548 0.121637 0.495785
0.17792 0.191462 0.696325
0.0289142 0.177519 0.541536
0.0941896 -0.23066 0.421001
0.209433 0.0928143 0.361193
0.0607897 -0.15268 0.438917
-0.194745 -0.194069 0.000262404
0.203209 0.135317 0.581648
0.197674 0.0075945 0.0174938
-0.094711 0.180467 0.608788
-0.091054 0.171609 0.492864
0.23222 0.114123 0.42043
-0.181457 0.153142 0.579953
-0.087545 0.188564 0.630604
-0.200074 0.0241167 0.0887341
0.120476 -0.124919 0.381647
0.193927 0.0391231 0.0296239
-0.196388 -0.117354 0.386713
-0.153241 0.142447 0.016565
-0.208353 0.132205 0.50548
0.0595104 0.104768 0.446611
-0.182227 0.180687 0.679395
-0.0734501 0.208533 0.0115977
-0.2051 0.0851421 0.324043
-0.137907 0.102362 0.446318
0.0827513 -0.0562329 0.371733
0.112346 0.1551 0.431548
-0.231289 0.15154 0.483316
0.224991 0.0491087 0.415957
-0.132509 0.0928869 0.372609
-0.157654 0.12483 0.413355
0.0630981 -0.00719392 0.438917
0.0376025 -0.224671 0.381647
-0.0433218 0.109148 0.438646
-0.252592 0.115174 0.516615
-0.0978099 0.159678 0.436549
-0.265878 0.169988 0.480682
0.0419447 0.14429 0.454755
0.0693569 0.0659682 0.381647
0.197413 0.143371 0.513196
0.129994 0.209127 0.726866
0.203626 -0.00034789 0.381647
0.182106 0.0863458 0.0291877
0.0831955 0.117574 0.452513
0.11481 0.0877655 0.414688
0.0573833 0.161727 0.457994
0.111128 0.19061 0.6188
0.238703 0.018045 0.604782
-0.1333 0.156096 0.482418
0.150479 0.162414 0.573907
0.0309834 0.0651626 0.381647
-0.11603 0.10255 0.392888
-0.0171859 0.221066 0.685643
-0.156579 -0.00332655 0.438917
0.123471 -0.0261153 0.381647
0.156937 -0.135035 0.438917
0.234107 0.13191 0.488891
-0.211553 0.0615203 0.381647
0.197891 -0.126715 0.402853
0.135272 0.171761 0.546782
0.154589 0.0779791 0.381647
-0.023608 -0.251442 0.420632
0.0349775 0.0856963 0.436189
0.0787413 0.0799148 0.381647
-0.0100651 0.185043 0.521988
0.0474059 -0.17268 0.438917
-0.00585832 0.0431254 0.381647
-0.0767123 0.186773 0.577716
0.196555 0.0145107 0.381647
0.0152648 0.102204 0.445597
-0.210931 0.0179673 0.087497
0.221804 -0.0878333 0.00668222
0.045118 0.17489 0.531539
-0.149011 0.0692122 0.438917
-0.0249755 0.183999 0.523402
-0.25857 -0.101526 0.585316
-0.0908554 0.205859 0.0301034
0.205733 0.136091 0.587619
-0.228467 -0.223232 0
0.160501 0.191818 0.695446
0.0925642 0.114493 0.451029
0.115847 0.0877749 0.404281
0.264047 -0.0188286 0.58831
0.0761143 -0.194695 0.438917
0.233238 -0.123121 0.58828
0.223928 -0.0541479 0
-0.039682 0.225766 0.740378
-0.121688 -0.0225748 0.438917
-0.203366 0.124713 0.526202
0.0900044 0.203419 0.679355
-0.230777 -0.111284 0.00668222
0.21446 0.0205852 0.0827434
0.193037 0.0347126 0.0381872
0.199175 0.125279 0.486626
0.176593 0.0928024 0.0381872
-0.232386 0.0874063 0.542252
-0.120699 0.0844805 0.381647
-0.0651121 0.0953429 0.432268
-0.20433 -0.0425282 0
0.0336798 -0.0871158 0.438917
-0.109475 0.204089 0.700679
-0.0385514 0.204055 0.665522
0.0954693 0.170863 0.549537
-0.0851392 -0.0937258 0.381647
-0.246357 -0.0250745 0.588475
0.214385 0.120397 0.445239
-0.123315 -0.0525205 0.438917
-0.0357855 -0.149736 0.438917
-0.0609644 0.245258 0.745522
0.234205 0.133955 0.496765
0.0746288 -0.14142 0.38184
0.106533 -0.0077726 0.387588
-0.162074 0.102716 0.398449
-0.211126 0.13851 0.507069
0.104662 0.0202532 0.438917
0.218957 0.13683 0.497392
0.120297 -0.183625 0.381647
0.235239 0.0769812 0.2993
0.201684 0.193676 0.75042
-0.264915 0.121192 0.543296
0.0668555 0.207458 0.650244
0.19231 0.156883 0.639427
-0.100604 -0.227185 0.391548
0.06444 0.219184 0.721365
0.00951843 0.086813 0.407177
-0.0392665 0.112684 0.440286
-0.0632733 0.050531 0.438917
0.136857 0.0815696 0.438917
0.0242125 0.229451 0.747578
0.0547342 -0.16195 0.438917
0.114541 0.0971297 0.442798
-0.149911 0.146015 0.46511
-0.02098 0.218779 0.711011
-0.223898 0.0734548 0.402965
0.218945 0.0836081 0.325395
0.0327979 0.130321 0.409041
0.139681 0.10347 0.445663
-0.206313 0.163104 0.662333
0.131651 0.217457 0.723217
0.203152 -0.00690045 0.394219
0.145882 -0.00741259 0.431223
0.170488 -0.0385572 0.438917
0.0867757 0.16625 0.508641
-0.204234 0.100123 0.381734
0.00870368 -0.254657 0.397019
-0.229228 0.00586788 0.019461
0.0281295 0.217743 0.708214
0.226209 0.147894 0.598626
-0.195015 -0.164384 0.00353258
0.226105 0.190265 0.739471
0.174442 0.0970541 0.378174
-0.239987 -0.142876 0.590513
0.00699791 -0.0612952 0.381647
-0.121488 0.107367 0.396894
0.126396 -0.211843 0.392223
-0.21272 -0.0802289 0.411508
-0.262391 0.0136025 0.580175
-0.0502157 0.00188256 0.438917
0.0489803 0.0871699 0.394471
0.0541559 0.222704 0.731142
-0.172855 -0.136453 0.436674
-0.220744 0.146514 0.517067
-0.0621896 0.163871 0.480712
0.210057 0.0640673 0.250418
0.226876 0.157143 0.632922
0.213127 0.0603342 0.213873
0.216767 0.0591021 0.43433
-0.0896301 -0.194869 0.381647
0.185525 0.177747 0.665214
-0.0484574 0.170599 0.511934
-0.224799 0.063492 0.263384
-0.204032 -0.17415 0
-0.219047 0.0781783 0.431515
-0.109496 -0.0109614 0.381647
-0.21168 0.133321 0.489216
0.150143 0.174776 0.624927
0.0801005 0.211971 0.0266823
0.227391 0.100168 0.417546
0.112902 -0.00771453 0.386723
0.168873 0.116635 0.0381872
0.220851 0.181455 0.744481
-0.222761 0.17266 0.694553
0.0980752 0.0985615 0.367263
0.228877 0.104231 0.404505
0.180253 0.168004 0.621717
0.177926 0.120331 0.412776
-0.125935 0.0320396 0.438917
0.0634874 -0.0369053 0.367745
-0.0972435 -0.0581332 0.438917
0.263498 -0.0719829 0.612214
-0.241827 0.143405 0.484497
-0.166661 0.131638 0.434191
-0.0853137 -0.099908 0.381647
0.00795007 0.117363 0.399006
-0.196826 0.0353423 0.136552
0.14687 0.205198 0.72515
-0.213979 0.137514 0.51178
-0.0984287 0.17747 0.544606
-0.212195 0.129109 0.493688
-0.111541 0.0896316 0.440242
0.0743644 0.160528 0.461389
-0.00641383 -0.222301 0.438917
0.198754 0.0502566 0.197601
-0.235332 0.0707387 0.275579
0.0831277 -0.0978591 0.371898
-0.0706919 0.188582 0.621652
0.072331 0.0292161 0.38184
0.225156 0.00829747 0.420315
-0.101897 0.179504 0.611268
0.104239 0.214389 0.694182
-0.221508 0.00650953 0.021658
-0.0299227 0.173394 0.515892
-0.18278 0.0790521 0.0100052
-0.210811 0.147859 0.479487
0.189799 0.0288966 0.381647
0.159355 0.12603 0.0036114
-0.177817 0.0612873 0.438917
-0.0365689 0.17438 0.46367
0.049498 0.178339 0.494671
-0.270389 0.14694 0.484381
-0.178016 0.0932698 0.00243006
0.0330928 0.197328 0.608713
-0.0894964 0.115354 0.4522
0.207306 -0.0159468 0
-0.208966 -0.14501 0
0.183158 0.107944 0.444208
0.22737 0.102492 0.427341
-0.268521 0.151228 0.484482
0.20354 0.0988091 0.4191
-0.232361 -0.0958511 0.586661
-0.220934 0.105377 0.402557
0.122337 -0.154182 0.438917
0.0316967 0.0870146 0.426362
-0.0865816 -0.0095198 0.435792
0.262687 0.0941382 0.569271
-0.122211 0.168801 0.585953
0.0127953 0.199718 0.642798
0.143178 -0.138874 0.438917
0.175775 0.181209 0.6902
-0.190167 0.0848844 0.433286
-0.122424 0.0875569 0.35088
0.213189 0.0593886 0.381647
-0.0557833 -0.244441 0.385606
0.0568563 0.194683 0.605065
-0.0690363 0.198575 0.624692
-0.183426 0.121329 0.48457
-0.228486 0.111012 0.424529
-0.203309 0.118444 0.506564
-0.136701 -0.0711574 0.381647
-0.116978 0.2169 0.749162
0.0195986 -0.0566649 0.381647
-0.24422 0.170538 0.482095
0.197329 0.151791 0.480847
-0.0745118 0.125946 0.446651
-0.270501 0.159303 0.476597
0.228495 0.115625 0.426349
-0.180424 0.027169 0.438917
0.223482 -0.0249377 0.410566
-0.213837 -0.0773436 0.416637
0.0532987 0.224408 0.736806
-0.220527 0.122491 0.503011
-0.25855 -0.0365085 0.589633
0.146027 0.155652 0.024059
0.092164 -0.163317 0.438917
-0.208389 0.125232 0.52522
0.00312786 -0.19027 0.438917
0.2283 0.0952404 0.369887
-0.254887 -0.0877125 0.611079
0.125408 0.146604 0.459167
-0.165856 0.164994 0.590937
0.199195 0.126614 0.538051
-0.205387 0.0465024 0.197243
0.0474764 -0.0278907 0.381647
0.233233 0.03673 0.598185
-0.0913322 -0.178497 0.381647
0.156227 -0.120561 0.381647
-0.229666 -0.0283358 0.606432
0.214547 0.119512 0.487787
0.20564 -0.108573 0
-0.0904365 -0.00955474 0.428148
-0.07576 -0.0347169 0.438917
0.0772085 0.231523 0.733474
-0.0349133 0.184367 0.532316
0.0337963 0.127486 0.457366
-0.262122 0.0384767 0.571039
0.210384 -0.0806718 0.429593
-0.227028 -0.168644 0
0.20257 0.1954 0.751832
0.189261 0.135561 0.507958
-0.121367 0.10065 0.434994
0.252727 -0.0682422 0.612609
-0.221842 0.0868737 0.422515
0.0107057 0.198557 0.638334
-0.227128 0.0796532 0.325731
-0.0807765 0.210983 0.0222907
-0.267033 -0.012582 0.589668
-0.0506327 0.216424 0.679478
0.224981 0.12475 0.505329
-0.267946 0.0879817 0.562634
0.131901 0.1754 0.565146
0.221682 0.0593566 0.231867
-0.0219199 0.230615 0.024683
0.245727 -0.0458904 0.590998
0.050305 -0.00828317 0.408486
0.0798341 -0.193778 0.438917
0.200117 0.0194691 0.0789396
-0.185474 0.11668 0.436887
-0.135211 0.114877 0.45217
-0.0961669 0.16928 0.550507
0.213844 0.152845 0.646368
-0.0762132 0.0420217 0.381647
0.0737121 0.113721 0.450747
-0.0610454 0.0105433 0.367807
-0.146441 -0.180105 0.434712
-0.0286796 0.227015 0.0381872
0.216112 0.00421627 0.0196219
0.0652016 0.105566 0.446961
-0.21813 -0.0155586 0
0.0126638 -0.199343 0.381647
-0.135766 0.227577 0.749939
-0.213089 0.0537332 0.225369
-0.147957 0.172668 0.62495
0.149496 -0.0405636 0.438917
-0.149106 0.210005 0.718579
-0.0604692 0.250502 0.746628
0.193193 0.187587 0.713842
-0.0784568 0.094935 0.432133
0.207084 0.0564439 0.381647
0.202736 0.188215 0.747524
-0.0462911 0.14831 0.457013
-0.0843738 0.124238 0.405866
0.203314 -0.0928814 0.433655
0.017641 0.181177 0.562471
0.0706513 0.225854 0.712958
-0.103649 -0.0926459 0.438917
0.199627 -0.00487691 0.381647
0.151913 0.18968 0.643497
0.058537 0.136287 0.450933
-0.231078 0.127597 0.522646
-0.190415 0.0553821 0.0179001
0.0697193 0.0886658 0.348331
-0.264772 0.130647 0.513773
-0.110844 0.0890626 0.356496
-0.208031 0.083981 0.389315
-0.199708 -0.147169 0.00668222
-0.207993 0.0896265 0.436368
0.143496 0.164995 0.576942
0.171661 0.0430895 0.381647
0.219206 0.0637487 0.433292
0.185681 0.216931 0.748298
0.121847 0.23376 0.746716
0.0371533 -0.112903 0.438917
-0.14449 0.123187 0.456108
0.186609 0.086976 0.381647
-0.16905 0.0934957 0.376374
-0.0613148 0.0402197 0.365692
0.20597 -0.0554544 0.436851
0.0184912 -0.148242 0.381647
0.101376 0.210411 0.711663
-0.16372 0.207559 0.748856
0.268484 0.0955841 0.542685
0.216487 -0.020863 0.382499
0.0473428 0.182998 0.589203
0.0440976 0.215791 0.673245
0.221979 -0.0524954 0.00668222
0.198531 0.0197694 0.0601844
-0.091965 0.0573633 0.381647
0.225324 0.0167938 0.0677605
0.179449 0.151178 0.548524
0.0965912 -0.119646 0.438917
-0.231717 0.0444614 0.190311
-0.259885 0.118696 0.512996
-0.172732 0.18833 0.685334
-0.0734907 0.113102 0.397337
-0.195852 -0.0678846 0.438917
0.264589 0.169028 0.495048
-0.0674305 0.120669 0.454597
-0.206779 -0.0955843 0.395158
-0.032448 0.213893 0.697537
0.122632 0.202615 0.699912
-0.105349 0.0916684 0.36674
-0.0129534 0.186011 0.595903
0.087868 -0.128521 0.438917
0.0614805 -0.146258 0.381647
-0.141711 0.161873 0.57105
-0.22398 0.0499853 0.211318
0.199862 0.0510833 0.178688
-0.0802895 0.194203 0.644364
0.0492929 0.132812 0.459795
-0.212596 0.151716 0.655776
-0.218575 -0.0461838 0.40031
0.00628117 0.21433 0.659979
-0.179601 0.0851035 0.427072
-0.235709 0.112077 0.44519
0.230914 0.133162 0.520296
0.139669 -0.185576 0.381647
-0.17001 0.180901 0.65488
0.203269 -0.0844126 0.381682
-0.150121 -0.16063 0.381647
-0.0676289 0.217668 0.0247054
0.0908034 -0.232824 0.397039
0.14578 0.213798 0.720537
-0.0720551 0.0565688 0.438917
0.215625 0.115009 0.470094
0.227767 -0.13118 0.00668222
0.0891413 0.183152 0.55964
-0.220927 0.18383 0.753838
-0.239016 0.125563 0.539033
-0.0337083 0.228644 0.0190228
0.210617 0.200813 0.752653
-0.000712916 0.0135011 0.438917
0.0821336 0.0118404 0.37477
-0.0718355 -0.0492508 0.381647
0.11498 0.118222 0.452682
-0.171148 0.0985335 0.026549
0.219511 0.129966 0.503976
-0.268374 0.135261 0.528581
0.137744 -0.009824 0.381647
-0.159512 0.142031 0.504013
0.0195523 0.0921458 0.43041
0.00330991 0.197388 0.632648
0.0737967 0.0345201 0.381647
0.199658 -0.104476 0.00451948
0.10957 0.203142 0.692774
-0.217615 0.116974 0.488051
0.192594 0.0503365 0.00454706
-0.197375 0.0958878 0.36953
0.139623 0.0873108 0.381647
-0.0704149 0.147774 0.456865
-0.0790827 0.161998 0.481793
-0.234717 0.00245988 0.0181753
0.0934653 0.243844 0.745778
0.198986 0.145307 0.612642
-0.143839 0.165951 0.599145
0.222595 0.0538619 0.210666
-0.102411 0.17482 0.532394
0.234173 0.000173591 0
0.0828551 -0.0677017 0.372187
0.0229583 0.199391 0.613412
0.198616 0.0604207 0.236765
-0.190221 0.122983 0.512419
-0.121458 -0.179618 0.381647
-0.207502 0.0473025 0.178334
0.240965 -0.136174 0.582406
-0.0690526 0.189425 0.624074
0.128048 0.176126 0.0198773
0.0584868 0.216342 0.0333583
-0.217478 0.134263 0.560941
0.221881 0.114764 0.468899
0.22647 0.202438 0.752447
-0.213955 0.134534 0.529966
0.123834 -0.0742228 0.381647
-0.141292 0.193426 0.657085
-0.136791 -0.191508 0.433667
-0.107578 0.0843891 0.43623
-0.214166 0.0824541 0.435034
0.00564013 -0.229021 0.438917
