-0.115272 -0.107914 0.375333
0.117998 -0.0883064 0.404336
-0.179455 0.116043 0.399983
-0.0559268 -0.00260973 0.354007
-0.0225687 0.21126 0.672883
-0.0334166 0.191841 0.392684
-0.222672 -0.169309 0.394984
0.106683 0.145401 0.496537
-0.215729 -0.0206895 0.370964
-0.11146 0.193947 0.625419
-0.20598 0.177077 0.678743
-0.241979 -0.218292 0.0471354
-0.22994 -0.0154662 0.00285809
-0.208564 0.120018 0.370214
0.00591548 0.156027 0.482589
0.0749503 -0.21187 0.392957
0.235702 -0.126367 0.000539101
-0.0652851 0.0992976 0.375333
0.178622 0.0471756 0.370214
0.169793 0.184976 0.673543
0.0371967 0.101094 0.354017
0.229017 -0.163486 0.399263
0.125853 -0.16728 0.370214
0.172595 0.14034 0.577885
0.0374977 -0.0425814 0.39531
0.0425432 0.13193 0.39576
0.128732 -0.048034 0.354396
-0.094241 -0.00953117 0.404336
-0.0437695 0.140805 0.579307
0.0694274 0.182872 0.484498
-0.248155 0.16322 0.54284
-0.230791 -0.00807009 0.541788
-0.0430808 -0.0910216 0.404336
-0.0295166 0.1883 0.467082
-0.182902 -0.15371 0.370214
0.163822 0.0680503 0.395596
0.00688423 0.235983 0.00941779
-0.0850392 -0.190432 0.370111
-0.0898663 0.124178 0.39574
-0.0427744 0.0893303 0.375333
-0.0610858 0.180524 0.58862
-0.163143 0.174895 0.425985
-0.0106384 -0.234567 0.38602
-0.181294 0.190697 0.616509
0.226354 0.218659 0.720952
0.140339 0.200622 0.427547
0.224091 -0.0084368 0.377874
0.166414 0.167458 0.448294
0.102968 0.0772484 0.354007
0.0104108 0.00775835 0.354007
-0.25389 -0.113109 0.422099
0.252938 -0.210201 0.131529
0.172821 0.191998 0.00440958
0.121633 0.178659 0.504645
0.246398 0.0581796 0.000649258
-0.0805188 0.19963 0.72539
0.228502 0.103182 0.39995
0.150421 -0.158388 0.404336
0.184144 0.177251 0.579648
-0.0376415 -0.0768575 0.354007
0.134848 -0.0136939 0.395385
0.082601 0.170364 0.425989
0.150966 0.150385 0.579149
-0.185276 -0.077139 0.370214
-0.165398 0.199977 0.410945
0.0818555 -0.139062 0.360165
0.226905 0.16604 0.479659
-0.204805 0.179676 0.498305
-0.109369 -0.0385599 0.354007
-0.229007 -0.175344 0.214994
0.00835053 0.19645 0.72391
-0.143601 -0.146152 0.395044
-0.125901 0.229977 0.00426515
-0.228214 0.0563626 0.399829
0.0940689 0.162492 0.63876
0.193841 -0.133898 0.354537
0.0794862 0.0646596 0.404336
-0.109376 0.160632 0.371893
-0.133083 0.056603 0.395566
-0.177776 0.148721 0.562029
-0.0585748 -0.13603 0.355449
0.244499 -0.106811 0.425546
-0.133648 0.0816929 0.356853
-0.248541 -0.132318 0.3466
-0.141918 -0.220311 0.400998
0.0450449 0.144167 0.531472
0.0100038 0.17126 0.649462
0.12317 0.0937552 0.354007
-0.0960649 0.156157 0.594901
0.180231 -0.103083 0.395155
0.0908477 0.206528 0.659908
-0.0321937 -0.00710852 0.404336
0.231033 0.237557 0.0024712
-0.118144 0.195986 0.442422
0.136515 -0.0992564 0.358287
0.00969769 0.158042 0.371375
-0.129578 -0.0967005 0.404336
-0.164681 0.174259 0.55742
-0.230318 -0.219488 0.365602
0.25501 -0.197644 0.158094
0.253064 0.130512 0.540373
-0.124104 0.0254075 0.375333
-0.219163 0.225318 0.713646
0.129861 -0.00430439 0.375333
-0.0303223 0.176253 0.519643
0.0702605 -0.072054 0.370214
0.226905 0.171888 0.60866
-0.0818639 0.169014 0.430094
0.0719565 -0.142681 0.395052
0.179633 0.109689 0.370214
0.252691 -0.0170333 0.540634
0.0656949 0.0683232 0.354007
-0.226905 0.179042 0.400742
-0.215691 -0.090529 0.370942
0.0627053 0.185464 0.602165
-0.0253803 -0.147848 0.395039
0.0687228 -0.200482 0.365026
-0.0627247 -0.0662019 0.399514
0.0249168 0.0179391 0.404336
-0.0310581 0.186311 0.677185
-0.141941 0.116394 0.399984
-0.132569 0.184879 0.686625
0.176318 0.136898 0.400037
0.173064 0.174265 0.557986
-0.0528603 0.0328636 0.354007
-0.227898 0.0448888 0.00413981
-0.178768 0.146939 0.486951
-0.0985033 0.0602106 0.354007
0.121048 0.110991 0.39997
0.230318 -0.213522 0.365287
-0.046114 0.142597 0.514025
0.0762465 0.132793 0.368531
-0.155746 0.165546 0.620521
0.215502 0.0391365 0.395521
0.232735 -0.0664837 0.00149852
0.0210346 -0.0536495 0.354007
0.0160061 -0.204083 0.39773
-0.0731281 -0.0461123 0.354007
-0.237201 -0.168427 0.00375323
0.134518 0.226987 0.705423
-0.0813596 0.0542133 0.39556
0.134848 -0.227959 0.365824
0.0906929 -0.000305206 0.395419
-0.0187924 0.126587 0.395746
0.0279456 0.176339 0.519108
0.116703 -0.0187436 0.354007
0.135147 0.168266 0.445872
-0.000398278 0.175634 0.423767
0.226905 0.153953 0.557766
0.0306125 0.199167 0.639731
0.129564 0.196665 0.63287
-0.0948639 -0.235838 0.381061
0.241269 -0.178737 0.00791832
-0.0870386 0.213815 0.679886
-0.0941862 0.200341 0.412763
-0.226905 0.0957592 0.384004
0.062662 0.21894 0.722221
-0.0551601 0.194082 0.625789
-0.220513 0.174355 0.644559
-0.00856312 -0.136825 0.404336
0.25433 -0.136795 0.357444
0.187078 0.142438 0.515018
0.191027 0.195299 0.444627
0.24468 0.109602 0.0148961
0.0200447 0.0545533 0.375333
-0.0646137 -0.0861275 0.354007
-0.15219 -0.0200177 0.399633
-0.25462 0.0956976 0.537389
0.17991 -0.184804 0.369661
-0.0145465 0.190302 0.0102425
-0.10615 0.175775 0.575603
-0.137592 -0.146633 0.370214
0.181738 -0.0396328 0.395318
-0.188868 -0.122741 0.395104
-0.2303 0.235257 0.0026829
0.0847091 0.140325 0.576373
-0.237942 -0.206799 0.104424
-0.165199 0.200803 0.714555
-0.180947 0.0761105 0.370214
-0.0914125 0.189209 0.00834007
-0.00425859 -0.0253529 0.370214
0.109466 0.187632 0.386603
-0.172592 0.19067 0.459479
0.16717 0.185772 0.475194
-0.140139 0.118169 0.361835
0.226905 -0.10825 0.39114
0.138994 -0.117235 0.404336
0.187618 -0.169406 0.404336
0.229688 -0.234688 0.374502
-0.188976 0.0493919 0.370214
0.204251 0.190812 0.702814
-0.216978 0.174254 0.522739
-0.245127 -0.0617242 0.000508143
-0.196354 -0.221736 0.400796
0.121165 0.196487 0.0110893
-0.0392753 -0.182731 0.36983
0.00237589 0.148755 0.565605
-0.21254 0.206468 0.659745
0.00458021 0.197035 0.439056
-0.0812299 -0.124562 0.404336
-0.199179 -0.0201939 0.404336
0.0369415 -0.092742 0.395181
0.242501 -0.105356 0.47909
0.04003 0.192509 0.00426515
0.127939 0.175997 0.421107
0.0843267 -0.236558 0.387672
0.085662 -0.0535996 0.404336
-0.147611 0.205829 0.657994
0.0545748 0.0369178 0.354007
-0.0439145 0.144595 0.373935
0.0411439 0.148625 0.600746
-0.138204 0.162846 0.63973
0.101113 0.0259251 0.354007
0.0311525 0.0810008 0.395629
0.0861132 0.186402 0.704307
0.0460887 -0.134382 0.35467
0.166515 0.0264403 0.399752
-0.0415168 0.167449 0.625715
-0.186883 0.0327605 0.399769
0.0366791 0.182999 0.694976
0.120617 -0.206334 0.393318
0.165079 0.158138 0.626823
-0.155613 -0.0451389 0.370214
-0.131449 -0.200045 0.365062
-0.0122159 0.0433472 0.354007
0.0544103 0.170837 0.661636
0.0797796 0.144506 0.502121
0.0484045 -0.00718538 0.375333
-0.20314 0.178658 0.379686
0.0769742 0.153864 0.401738
0.175734 -0.0289956 0.370214
-0.193389 0.152624 0.396932
-0.0499668 -0.237457 0.38344
0.0952291 -0.0723215 0.375333
-0.246597 -0.0492372 0.521244
0.226905 0.145667 0.383769
0.1876 0.170012 0.373769
0.125868 0.181454 0.677278
-0.106528 -0.160855 0.370214
0.144539 0.235892 0.00571809
-0.0481994 0.163666 0.431446
0.00180973 -0.103811 0.354007
0.178648 0.210498 0.723163
0.151294 0.0917106 0.365677
0.183103 0.0809851 0.399893
0.211614 0.172273 0.433851
-0.226905 0.153448 0.555997
0.150109 0.144164 0.531205
0.12223 0.0434451 0.404336
0.190294 0.234171 0.00462931
0.150685 -0.130257 0.354668
-0.0666117 0.159846 0.47113
0.110032 0.14594 0.593386
-0.136748 0.158533 0.461976
-0.0447969 0.224817 0.714818
0.212675 0.0400743 0.370214
-0.0970703 -0.00375895 0.354007
-0.0201643 0.17429 0.560448
-0.113869 -0.195978 0.402984
0.237856 -0.173008 0.261748
0.092153 0.00331739 0.354007
0.175123 -0.0757556 0.370214
-0.205258 0.150187 0.605028
-0.0784283 0.14924 0.524494
0.176294 0.21777 0.687769
0.226905 0.16168 0.512286
-0.251784 -0.189486 0.169312
0.080492 0.193716 0.449706
-0.127461 -0.00688252 0.354007
0.0612103 -0.102114 0.375333
0.030484 0.218511 0.692759
-0.163991 -0.108272 0.372026
0.0411305 -0.223918 0.364502
0.167835 0.190264 0.615323
-0.00266864 -0.068079 0.404336
0.0087064 0.183853 0.697317
-0.0259465 -0.194767 0.394073
-0.253123 0.0710972 0.00397207
-0.00727937 0.0977599 0.354007
-0.172867 -0.188142 0.403624
-0.108681 -0.0614109 0.395262
-0.123109 0.212653 0.722826
-0.0424878 -0.199191 0.398049
-0.0595148 0.0304392 0.404336
0.24927 0.00783321 0.542298
-0.226589 -0.132068 0.38213
-0.20736 0.142095 0.517154
-0.116282 -0.0596843 0.370214
-0.124549 0.158573 0.403656
-0.254843 0.0256288 0.536961
-0.204308 0.160944 0.440181
-0.0591222 -0.0327333 0.395336
-0.147509 0.190837 0.00489067
0.235089 -0.22297 0.101166
0.204291 -0.156527 0.370214
0.253765 -0.10487 0.00520386
-0.0730288 0.192407 0.693821
-0.120386 0.0233322 0.399744
-0.0700721 0.192877 0.452397
0.102872 -0.171411 0.404336
-0.00243241 0.187335 0.607293
-0.227489 -0.102728 0.454069
-0.0916699 0.148665 0.55614
-0.00896245 0.00688136 0.395438
-0.223248 0.189757 0.632097
-0.0851879 0.182995 0.382688
0.0695134 0.174096 0.541125
0.0567723 -0.165801 0.370214
0.0377873 0.16738 0.435064
-0.237909 -0.15206 0.328664
0.043522 0.152844 0.46617
0.141579 -0.0541823 0.404336
0.146695 0.190349 0.715125
0.161737 -0.20038 0.397972
-0.233759 -0.172572 0.260795
0.141997 -0.207461 0.368722
-0.080457 -0.220654 0.386558
0.0420053 -0.0852096 0.354007
0.0762739 -0.0984687 0.39943
0.019989 0.197915 0.401457
0.230318 0.171845 0.428902
-0.0167944 -0.139138 0.361246
0.147834 0.146163 0.491786
0.207937 0.168942 0.656441
-0.100724 0.157451 0.451388
-0.0131047 -0.0967913 0.370214
-0.187329 0.176262 0.576938
0.169721 0.198967 0.405894
0.10032 0.139939 0.537762
-0.15039 0.0572461 0.365225
-0.023994 0.139993 0.543113
0.201898 -0.065757 0.404336
-0.0602635 0.157518 0.406551
-0.0345312 0.0496229 0.375333
-5.22435e-05 0.155827 0.607348
0.12555 0.0511294 0.375333
-0.0972691 0.14596 0.493055
0.141778 0.160751 0.633987
-0.223254 0.0257919 0.376448
-0.126288 0.174069 0.538481
-0.046484 0.170532 0.37406
-0.173194 0.0719524 0.39987
0.219313 0.21497 0.678789
0.188475 0.143753 0.370214
-0.0524321 -0.0391755 0.375333
-0.0637522 -0.0785383 0.375333
0.190921 0.203212 0.650819
-0.142776 0.201446 0.424906
0.137846 0.177905 0.581443
0.0817922 0.109498 0.399966
0.204405 -0.129109 0.399351
0.198776 0.161104 0.454156
-0.101639 0.0839514 0.395637
-0.0666116 0.157736 0.599208
0.134384 -0.0739442 0.375333
-0.0578756 -0.0101936 0.404336
-0.078094 0.0159497 0.375333
0.0341583 -0.13481 0.395073
-0.166616 0.222145 0.0110893
0.200121 -0.209543 0.397375
-0.107816 -0.156457 0.404336
0.00258781 0.149668 0.52178
-0.0925896 0.0996482 0.354007
0.0192749 0.0558806 0.354007
0.204113 0.139923 0.53614
0.0454855 -0.173894 0.399236
0.0614034 0.0381491 0.395519
-0.0546966 0.112834 0.399975
0.16765 0.0117631 0.370214
0.24984 0.185635 0.00221197
-0.226905 0.16114 0.483965
-0.146406 0.179235 0.585088
0.184787 0.152996 0.612728
-0.223532 0.19256 0.707583
-0.217485 -0.178738 0.371943
0.236607 0.0266528 0.014916
-0.139087 -0.0554792 0.404336
-0.151501 0.144196 0.534728
-0.170657 0.172884 0.653892
-0.0677439 0.174923 0.672838
0.00528015 -0.212958 0.364007
0.0204882 0.155648 0.398095
-0.0528658 0.0794479 0.354007
-0.229915 -0.0914664 0.399448
-0.134097 -0.129675 0.395086
-0.0244039 0.156469 0.454538
0.19039 -0.222177 0.367981
-0.144856 0.142427 0.583754
-0.116612 0.174172 0.670778
0.229776 -0.0435666 0.52633
0.123654 -0.133009 0.374869
-0.182358 0.226264 0.699789
-0.0769219 0.191527 0.618784
-0.0768947 -0.0152959 0.354007
-0.0499815 0.197379 0.714028
-0.0610152 -0.151106 0.404336
0.172328 -0.00624036 0.404336
-0.232448 -0.189773 0.0311465
-0.226605 0.00782342 0.39544
-0.165606 -0.170089 0.370214
-0.226327 0.163829 0.00820497
-0.114705 0.12461 0.404336
-0.221684 -0.0418031 0.400091
-0.167621 0.179367 0.500226
-0.0685642 0.144388 0.555886
0.213606 0.200628 0.414196
0.159555 -0.0808167 0.404336
0.163691 0.164572 0.406656
0.125456 0.0357962 0.354007
0.0924096 0.158857 0.460988
-0.130616 -0.0944299 0.355337
-0.0976046 0.212717 0.0110893
-0.0294556 0.00139182 0.370214
0.109931 0.121075 0.363166
0.0946196 0.0517161 0.375333
0.0276083 0.12589 0.375333
0.0135917 -0.1688 0.404336
-0.0227478 -0.0448707 0.395305
-0.0947525 -0.0939385 0.399442
-0.0246373 -0.00793117 0.354007
-0.033878 0.117364 0.361467
0.0363633 -0.0190926 0.354007
0.207157 0.199814 0.0110893
0.242031 0.0986363 0.529042
-0.162448 -0.0899113 0.404336
0.0739514 -0.0355125 0.370214
-0.162847 -0.235411 0.37732
-0.196454 0.199963 0.429663
0.0934407 -0.100091 0.354007
-0.225928 0.14329 0.393546
-0.0940061 0.12741 0.370214
-0.102072 0.157539 0.625183
-0.0609756 0.221665 0.698287
-0.145647 0.188107 0.467703
-0.168538 0.129342 0.374299
0.11328 -0.0464283 0.404336
0.0135966 -0.195775 0.368765
0.0793427 0.154985 0.618181
0.0985448 0.0891528 0.375333
0.124635 0.0183411 0.399731
0.0408463 0.144451 0.562827
-0.00228009 -0.00123259 0.375333
0.212442 0.197355 0.634763
0.0204176 0.0479697 0.404336
-0.00123118 -0.0231292 0.395361
0.157193 0.105489 0.399956
0.164111 0.178619 0.50489
0.0335727 0.18609 0.474172
-0.142399 0.190531 0.616054
0.0599811 -0.0185962 0.404336
0.216674 0.106429 0.371519
-0.0195981 0.0225278 0.375333
-0.118741 0.0293375 0.354007
-0.0632367 0.174064 0.53798
-0.198341 0.160149 0.470221
0.094188 -0.225971 0.368174
0.0121016 0.115159 0.404336
0.0808874 0.196736 0.633066
9.74536e-05 -0.102563 0.404336
-0.148967 0.146363 0.490542
-0.0147464 -0.0602264 0.375333
-0.0685526 0.0767824 0.375333
-0.00888425 0.224247 0.708311
-0.090768 -0.131388 0.370214
-0.240389 0.129244 0.528896
0.133423 0.174154 0.546893
-0.173839 0.147312 0.597146
0.0270609 0.145169 0.497987
0.173315 0.149518 0.476839
-0.0634008 0.088001 0.404336
0.097221 0.186833 0.471789
0.0346263 -0.23111 0.396729
0.104867 0.222331 0.718095
-0.127257 -0.0131461 0.39965
-0.094402 -0.222105 0.363909
-0.250132 0.0139047 0.00235381
-0.227805 -0.0859283 0.0110354
-0.0506704 0.206464 0.659734
-0.195528 -0.231131 0.368892
0.20216 0.160917 0.408904
-0.123604 0.22613 0.699428
-0.190147 -0.15345 0.404336
-0.0163396 0.099155 0.39994
0.0159474 -0.0770358 0.375333
0.196233 0.00184222 0.399689
-0.035993 0.15159 0.404882
0.150232 0.124386 0.365146
0.208589 0.182348 0.666372
-0.231113 0.208154 0.0130673
0.133258 0.188734 0.465689
0.237047 -0.137163 0.327145
0.198594 -0.00805231 0.370214
-0.00170663 -0.0478217 0.354007
-0.198435 -0.0464551 0.370214
-0.1109 0.190577 0.71575
0.0648046 0.190262 0.687968
-0.0264817 0.229658 0.0110893
-0.194418 -0.0907092 0.404336
0.213797 0.143688 0.587211
0.0770554 0.189936 0.0100908
0.0757448 -0.0455787 0.354007
0.152313 -0.236226 0.389234
-0.254508 -0.17212 0.243404
-0.153135 0.0142768 0.399721
0.125785 0.144424 0.559786
-0.0680177 -0.100974 0.375333
-0.0360067 0.148979 0.47857
0.101607 -0.194034 0.369817
-0.150563 0.18304 0.668259
0.167267 -0.134359 0.395074
-0.165976 0.16383 0.459178
-0.135652 -0.174063 0.399236
-0.0972377 -0.0710532 0.354007
-0.213886 -0.127981 0.355902
-0.0114158 0.0346005 0.399773
-0.227763 -0.19774 0.393879
-0.157657 -0.00878008 0.375333
0.0991345 -0.123553 0.395102
0.100896 0.0716126 0.395605
-0.145644 -0.0617487 0.362852
-0.22137 0.196306 0.427748
-0.0988042 -0.136575 0.355844
0.230985 -0.0358976 0.0130046
-0.158325 0.0960356 0.375333
0.00265598 0.125579 0.375333
-0.0253695 0.193569 0.710338
0.195641 0.0739627 0.370214
0.196938 0.22734 0.708867
0.16872 0.196702 0.440124
-0.0268183 0.156978 0.597141
-0.252923 -0.143213 0.0116429
0.195623 0.117528 0.404336
0.0577258 0.103196 0.39995
-0.167635 0.14979 0.404522
-0.116835 -0.220465 0.382778
0.0425671 0.0562966 0.375333
0.0621592 0.219619 0.681846
-0.143593 0.0778382 0.404336
-0.112633 0.163437 0.43218
-0.227287 -0.136469 0.0100436
-0.131306 0.161456 0.609359
0.110985 0.217141 0.686071
-0.0498873 0.180537 0.492934
-0.00559006 0.173974 0.670237
-0.0899568 0.202312 0.648352
0.0145399 -0.237187 0.38183
0.200967 0.174105 0.542047
0.0434859 0.156119 0.37099
0.226905 0.0670865 0.384748
0.035946 0.174184 0.549886
0.253926 -0.0434824 0.00984257
-0.11361 0.105964 0.375333
-0.0458669 0.0487303 0.404336
-0.0301142 -0.220057 0.367694
0.224174 -0.0492282 0.396534
-0.172514 0.14559 0.520589
-0.00240766 0.17841 0.506198
0.0341738 0.0248595 0.375333
0.207469 -0.112046 0.370214
-0.0105297 0.063776 0.375333
0.132191 0.0254372 0.375333
-0.17074 -0.0381206 0.404336
0.218709 -0.183995 0.394776
0.157607 -0.107052 0.375333
-0.107967 -0.124361 0.404336
-0.0427459 -0.110929 0.354425
-0.13089 0.192633 0.393827
0.134848 0.159091 0.602906
0.0609048 -0.0723216 0.395234
0.0757426 0.099744 0.354007
0.232864 -0.197082 0.181067
0.0350155 0.2134 0.726107
-0.0421172 -0.122996 0.399367
-0.151988 0.0205266 0.370214
0.200515 0.179848 0.497232
-0.178021 0.183699 0.683404
-0.204926 0.0765342 0.370214
0.243562 -0.120525 0.380623
-0.019437 0.165235 0.646279
-0.230318 -0.224176 0.394128
0.10164 0.129639 0.404336
-0.148272 -0.126548 0.357526
0.119319 -0.109911 0.395137
-0.206316 0.111665 0.404336
0.0778799 -0.164706 0.404336
0.106639 -0.0242458 0.395358
-0.227136 -0.220404 0.0752596
0.238453 -0.157283 0.0169339
0.11568 -0.146567 0.404336
0.222095 -0.190401 0.365849
0.248504 0.140866 0.0137928
0.0174024 0.0897854 0.375333
-0.0454907 0.193563 0.0110893
0.101906 -0.0659723 0.354007
0.0898904 0.179414 0.67171
0.107026 0.156921 0.398585
0.0633755 0.0878362 0.375333
-0.113904 0.150396 0.517154
0.0390118 0.167024 0.624554
-0.15788 -0.12391 0.399365
-0.0332789 0.0592933 0.354007
0.169682 -0.135987 0.370214
0.118359 0.197435 0.70754
0.249384 -0.155735 0.273189
-0.206846 0.0767952 0.395618
-0.0900459 -0.0406508 0.399579
-0.120902 0.210511 0.67083
-0.151888 0.176475 0.518261
0.116955 0.176856 0.651384
0.147617 0.0596757 0.375333
0.182367 0.14437 0.55388
0.12804 -0.0741246 0.35405
0.157347 -0.0366853 0.395326
0.226905 0.175461 0.455709
0.0520019 0.193675 0.449837
-0.251204 -0.134669 0.37595
-0.0952117 0.227122 0.706742
-0.235878 -0.115811 0.396574
0.14709 -0.0327415 0.375333
-0.121903 0.0697144 0.375333
-0.15145 0.224055 0.716599
-0.018218 -0.168423 0.370214
0.0297944 -0.0387664 0.370214
-0.108734 0.0490899 0.395547
-0.173332 0.178824 0.379801
0.0332876 -0.119491 0.370214
0.0656635 0.162736 0.449189
0.0881634 -0.076238 0.404336
-0.00399284 -0.0779652 0.354007
0.107403 0.162156 0.436293
-0.0884649 -0.0371489 0.370214
0.135401 0.132747 0.395762
0.246131 -0.205039 0.0275899
-0.202772 -0.055087 0.399542
0.222909 0.00764428 0.399704
0.0619978 0.223235 0.702985
0.207243 0.166823 0.624006
-0.101837 -0.0933568 0.354007
0.0374309 0.174995 0.673035
0.166542 0.176361 0.650033
-0.0269091 -0.0495807 0.354007
0.143688 0.0649422 0.399852
0.0361661 0.231613 0.00426515
0.253136 0.0415006 0.540236
-0.0854769 0.0194591 0.399734
0.0704501 0.14437 0.553862
0.10572 0.0150395 0.375333
-0.0969671 0.164995 0.406868
-0.198415 0.204728 0.722021
-0.226275 0.0500194 0.536983
-0.142752 0.145645 0.374416
-0.20154 0.144248 0.540452
-0.0328964 0.187878 0.608782
-0.25091 -0.0286441 0.540493
0.134391 0.189309 0.389026
0.110781 -0.0462191 0.375333
0.2267 -0.0134076 0.537796
-0.0896536 0.026018 0.354007
0.0534091 -0.118938 0.395114
0.00608025 0.2107 0.00426515
0.158352 0.143129 0.510705
0.022146 -0.0657528 0.399515
-0.2265 0.164145 0.616699
0.128205 0.150571 0.473462
-0.229599 0.148236 0.503777
-0.169608 -0.217363 0.401238
0.205383 0.0787368 0.395623
-0.253864 0.223685 0.00539293
-0.174679 -0.00440581 0.395409
-0.0408483 -0.147176 0.370214
-0.181941 0.106178 0.370214
0.150112 -0.175719 0.370214
-0.21539 0.155528 0.371434
-0.0919377 0.174149 0.546469
0.230318 0.197172 0.710361
0.116465 -0.234714 0.385446
-0.0448525 -0.0303863 0.354007
-0.230318 0.182555 0.677021
-0.104424 -0.203845 0.364751
0.243584 -0.210502 0.0839745
-0.0168604 -0.0935015 0.395179
-0.199522 0.1774 0.65287
0.101285 -0.205344 0.402219
-0.199099 0.168869 0.629589
0.250046 -0.112102 0.451209
0.176791 0.185457 0.701715
0.186269 0.0453757 0.404336
0.15762 -0.0606497 0.36884
0.0620844 0.00709033 0.395438
0.212266 0.12829 0.400015
0.0639383 0.0142855 0.375333
0.149765 0.152812 0.466271
-0.0600291 0.123178 0.370214
0.197236 -0.150114 0.399297
0.0451065 -0.205324 0.39765
0.0990819 0.17427 0.558503
0.142548 0.0361693 0.395513
0.253913 0.0672206 0.534365
-0.0707972 -0.0977442 0.404336
-0.133829 -0.171989 0.370214
0.0187088 -0.0215392 0.399629
0.235943 0.085727 0.000512291
-0.0976844 -0.212347 0.397192
-0.12122 0.0984483 0.404336
0.130259 -0.169525 0.404336
0.22972 -0.206469 0.145967
0.00488555 0.220105 0.683157
0.107321 0.222278 0.0110893
0.181728 0.174529 0.427083
0.253668 -0.170235 0.237012
0.082133 0.0479113 0.354007
0.236141 -0.128408 0.40441
-0.182662 0.156512 0.622367
0.0699812 0.0540911 0.375333
-0.231437 0.131295 0.00212962
-0.0756564 0.234722 0.00485784
0.249098 0.153617 0.530728
0.113043 -0.117673 0.360669
-0.0122425 0.17924 0.380089
0.0606877 -0.107196 0.354007
-0.0265198 -0.221312 0.399738
0.00434141 0.0732094 0.395609
-0.223327 0.218868 0.690734
0.0233869 0.18897 0.611775
0.226393 -0.135499 0.355139
-0.138865 -0.220665 0.363438
-0.0702292 0.0399694 0.370214
-0.0288651 0.17573 0.418975
0.208396 0.201953 0.726472
-0.207051 -0.207636 0.368707
0.0731948 0.174387 0.570185
0.0888293 -0.172242 0.370214
-0.164838 -0.162769 0.395001
0.0868453 0.176463 0.518335
0.242825 0.21492 0.0151022
-0.225421 0.172828 0.432185
0.0168231 0.144303 0.546426
0.067548 0.153821 0.476307
-0.25369 -0.221079 0.0758649
0.226867 0.164344 0.580421
-0.254153 0.040607 0.00940714
-0.116891 -0.0206833 0.370214
0.132161 0.091908 0.404336
-0.0821574 -0.146041 0.395044
0.128695 0.150051 0.519345
-0.0485374 0.176408 0.650163
0.207718 -0.232118 0.38647
0.0901787 0.209104 0.70975
-0.0755352 0.141399 0.375333
0.0614103 -0.13059 0.372629
-0.207413 0.164293 0.402303
-0.0394685 0.196185 0.441785
0.200864 -0.194835 0.368842
-0.0509682 -0.218889 0.363523
-0.226792 0.0999811 0.535138
-0.115149 0.170247 0.646696
0.119571 0.16821 0.627792
-0.221142 0.0541078 0.374142
-0.0131415 0.164538 0.402459
-0.0549339 0.19959 0.409006
-0.00592586 0.160564 0.4414
-0.226268 -0.0839403 0.501292
0.150855 0.209491 0.720639
0.0361065 -0.184756 0.370574
-0.210731 0.174302 0.561644
-0.251995 -0.00374121 0.532138
-0.0306507 -0.0715737 0.395236
0.0508986 0.0621508 0.399844
-0.168035 0.209304 0.667519
0.00849643 -0.125826 0.359064
0.145755 0.192174 0.693185
-0.207583 0.144523 0.570707
0.00357392 0.174239 0.555396
-0.232268 0.0187327 0.542507
0.130615 0.18713 0.606731
-0.0202543 0.140238 0.567662
-0.00549516 -0.20022 0.397982
-0.214037 0.0344094 0.395509
-0.117622 0.155013 0.47268
0.0268859 0.15151 0.582219
0.164444 -0.226713 0.365416
0.0876312 0.19641 0.399284
-0.177298 -0.126461 0.364671
-0.23217 -0.192747 0.193779
-0.227385 -0.209281 0.129762
-0.254112 -0.07478 0.514133
0.225996 -0.149255 0.38112
-0.210347 -0.144623 0.395047
0.0620373 -0.232953 0.383513
0.200074 0.191466 0.392142
-0.0827686 0.150013 0.400197
0.105585 0.197001 0.439166
-0.161334 0.0967397 0.39567
0.123951 0.211922 0.726669
-0.17829 0.174021 0.533674
-0.0303847 -0.0267596 0.375333
0.209816 0.186607 0.472516
-0.22672 -0.033123 0.5328
-0.0156863 0.148518 0.501984
-0.227534 -0.11923 0.419459
0.015797 -0.116552 0.39512
0.226735 -0.0784767 0.399482
0.248939 -0.0835044 0.493667
-0.060602 0.153722 0.496024
-0.14846 -0.194497 0.403105
0.0659863 -0.190102 0.403464
-0.101725 0.0440801 0.375333
-0.157551 0.152009 0.506908
-0.209832 0.199335 0.407731
0.223235 0.18598 0.685053
-0.0393892 -0.0883745 0.375333
-0.184388 0.19191 0.716023
0.0475755 -0.0529768 0.354007
-0.107993 0.140274 0.571187
0.219339 0.0171904 0.373083
0.103199 0.192877 0.622485
-0.163078 0.197367 0.634796
-0.0475233 0.00845608 0.395442
0.151233 0.00723581 0.404336
0.0340746 -0.109044 0.354007
-0.0876712 -0.0781897 0.375333
-0.152179 0.0447855 0.3998
0.163377 0.152741 0.598926
-0.141356 0.174102 0.413255
-0.0713358 -0.232053 0.369876
-0.0628103 -0.194815 0.369754
0.101756 0.157691 0.371305
0.167595 -0.207845 0.364425
0.0850604 -0.0349289 0.404336
0.0723938 0.164357 0.643873
0.072579 0.149598 0.522225
-0.0336828 -0.172183 0.39924
0.0183068 0.0297128 0.354007
0.0601197 0.152781 0.612139
-0.084702 -0.147103 0.370214
-0.0336338 0.223147 0.691372
0.173293 0.209197 0.667225
0.129632 0.162597 0.401224
0.115711 0.199256 0.40734
-0.0191082 -0.198825 0.368516
-0.0358783 0.131707 0.400024
-0.186415 0.175595 0.417895
0.199695 0.154218 0.492873
0.141906 -0.217547 0.401223
0.129052 0.107395 0.375333
0.0207636 0.222935 0.715066
0.226905 0.177629 0.643279
-0.0200818 0.153471 0.370461
-0.137689 0.144446 0.562256
0.0343011 -0.0893501 0.375333
-0.121797 -0.131704 0.354379
0.139869 0.178273 0.65525
0.037618 0.0544249 0.39556
0.0637706 0.224859 0.0110893
-0.119124 0.20228 0.0110893
0.0126323 0.00686322 0.395438
-0.00377531 0.188528 0.466351
-0.0473604 0.186508 0.691069
-0.203287 0.00325215 0.404336
-0.234655 -0.106317 0.475645
-0.0651588 0.174321 0.563608
-0.0835171 0.146274 0.581278
-0.13282 -0.235398 0.382777
0.211611 0.161224 0.372011
0.227326 -0.174785 0.239555
-0.135904 0.139337 0.400043
-0.105836 0.00948337 0.370214
-0.194883 -0.17697 0.404336
0.0813757 -0.0118408 0.370214
-0.0038978 0.162359 0.463591
-0.0552731 0.0139347 0.375333
-0.162816 -0.0521187 0.395286
0.14301 -0.148467 0.370214
-0.0509511 -0.21935 0.401076
0.0570606 -0.0458575 0.404336
0.156366 0.222549 0.700674
0.0486612 0.148145 0.400066
0.00534813 -0.0495503 0.399557
0.156178 -0.00844008 0.370214
-0.141474 0.195836 0.715058
0.0816217 0.0290526 0.375333
-0.199418 -0.10981 0.370214
-0.200284 0.214934 0.680112
-0.161082 -0.0797649 0.370214
-0.193049 0.146209 0.5811
-0.0839173 0.104513 0.404336
0.16384 0.127942 0.400014
-0.18772 0.0260539 0.370214
0.177856 -0.0637914 0.395256
-0.156833 -0.207039 0.364491
-0.222142 -0.0527893 0.374729
-0.111465 -0.037998 0.399586
-0.110817 0.00437088 0.395431
0.224531 0.162883 0.401406
0.0923346 -0.0236665 0.354007
-0.0194317 0.163206 0.627483
0.227698 0.148487 0.537297
-0.076781 0.183595 0.482177
-0.23294 0.15091 0.530276
0.16077 0.030926 0.370214
-0.13989 -0.111812 0.375333
0.0997673 0.189658 0.00593115
0.0156042 0.205863 0.658085
0.156368 -0.109738 0.399401
-0.101645 0.175713 0.523008
-0.116055 0.132627 0.370214
0.223295 -0.208903 0.393151
0.209467 -0.097915 0.395168
0.0547037 0.200756 0.644085
0.139841 -0.091927 0.399447
-0.0447714 0.140154 0.559218
-0.157593 0.126084 0.404336
-0.113094 -0.0841646 0.395203
0.0320804 0.185339 0.384312
-0.024219 0.14958 0.522339
0.0201316 0.160206 0.619298
0.0248165 0.153123 0.478431
-0.25487 -0.186332 0.19332
0.0151936 0.105147 0.355872
-0.130914 0.14815 0.504325
0.129689 0.0750575 0.370214
0.0242058 0.192769 0.452744
0.111553 -0.00263273 0.404336
-0.0741075 0.220409 0.71959
0.143682 0.0104088 0.361871
-0.100216 -0.1765 0.404336
-0.0632693 0.166898 0.449976
0.0745191 0.0218418 0.404336
0.187613 -0.0952419 0.370214
-0.200395 0.154145 0.49334
-0.039691 -0.0576202 0.370214
0.0376791 0.109262 0.399966
-0.0341706 0.0277016 0.399756
-0.0248703 0.180132 0.587547
0.209301 0.131891 0.370214
0.0546449 -0.155604 0.404336
-0.22758 -0.0147526 0.399646
0.192463 0.183464 0.682763
-0.0481261 0.150871 0.606904
-0.250137 -0.205352 0.151571
0.0061757 0.0893928 0.404336
-0.0735194 0.174246 0.413518
0.0817382 0.200775 0.427058
-0.0055856 -0.16657 0.394991
-0.0126708 0.107494 0.375333
0.0705891 0.14499 0.59078
0.254239 -0.0811476 0.00611235
0.0858188 0.0690164 0.370214
0.0189964 -0.0113612 0.375333
0.179838 -0.190519 0.39435
0.18993 0.164246 0.643567
-0.137548 0.00300999 0.375333
0.17024 0.0814012 0.37515
-0.0860407 0.150096 0.474986
0.0992735 0.148689 0.558644
0.155081 -0.0195514 0.404336
0.206529 0.144406 0.55781
0.0286289 0.196778 0.716145
-0.08322 -0.0573709 0.395272
-0.0234953 0.213625 0.722673
0.0918067 0.0485567 0.395545
0.10809 -0.139137 0.361049
0.149277 0.140159 0.559757
-0.214845 0.198383 0.724564
-0.132723 -0.0408173 0.370214
-0.145961 0.0759 0.375333
-0.0874418 0.181592 0.664308
-0.0132822 0.198284 0.40248
-0.214656 0.223938 0.0110893
-0.00573264 0.140079 0.55177
0.108616 0.142069 0.517318
0.136026 -0.136522 0.399332
-0.200266 -0.199826 0.398008
-0.212762 -0.158283 0.370214
-0.112777 0.192007 0.69273
-0.0418421 0.170843 0.407279
-0.100941 0.186941 0.606214
0.147796 0.193894 0.449135
-0.25134 -0.203815 0.122829
0.0447922 0.0794757 0.354007
0.0596321 0.144518 0.57016
0.138592 -0.118277 0.370214
-0.158987 -0.13757 0.370214
0.171445 -0.216774 0.401286
-0.0547317 0.144194 0.53442
-0.152046 0.194637 0.44675
0.0840607 0.148421 0.480359
0.00295353 -0.153393 0.404336
0.0404887 0.199545 0.431004
0.0531259 0.198839 0.725022
-0.0384754 0.0936714 0.399926
0.109088 -0.0160744 0.375333
-0.0792217 -0.0231643 0.399625
0.0340903 0.210374 0.670453
-0.112272 -0.184511 0.36633
0.083235 0.227288 0.708365
-0.188166 0.162299 0.450519
0.145882 -0.18565 0.394668
0.0752948 0.130179 0.395756
-0.0832808 0.0804632 0.404336
-0.227866 0.0111089 0.00420195
-0.104669 0.236679 0.00761638
0.210483 -0.224957 0.367959
-0.0239451 -0.119794 0.370214
-0.211836 -0.0733902 0.404336
0.0509893 0.196224 0.704237
-0.0348062 0.0195357 0.354007
0.116154 -0.0659842 0.404336
0.0574849 -0.0283285 0.375333
0.188337 0.201908 0.423422
0.182456 -0.151674 0.370214
-0.0424175 0.16292 0.461908
-0.0909034 0.0766429 0.375333
0.0802124 -0.11907 0.399377
0.119881 0.174372 0.568658
0.228164 0.179108 0.0116325
0.00698069 0.142064 0.582759
0.143462 0.196674 0.0110893
-0.0750697 0.196828 0.399888
-0.054192 0.0731956 0.395609
0.0413815 0.163973 0.64282
0.207614 -0.111711 0.404336
0.0473121 0.103172 0.375333
0.162027 0.085759 0.404336
0.104856 0.100652 0.399944
0.180363 0.154169 0.461917
0.0226024 -0.153274 0.395025
0.222596 0.193525 0.433137
-0.130912 0.177935 0.654329
0.19763 0.0140878 0.370214
-0.118216 0.182235 0.593312
-0.0154432 0.199794 0.430205
-0.205651 -0.0673018 0.370214
0.00363396 -0.0460657 0.375333
-0.0368419 0.198287 0.637317
0.0127866 0.162458 0.463295
0.157803 -0.0585525 0.399533
-0.139011 0.174335 0.56492
0.121133 0.0649887 0.399852
-0.235377 0.091365 0.000575228
-0.253127 -0.112553 0.444076
0.134327 -0.0517111 0.375333
-0.147599 -0.108205 0.399405
-0.12277 0.0746267 0.404336
-0.0765554 0.154708 0.61742
-0.0391922 -0.0576628 0.404336
-0.0661383 0.201219 0.645354
-0.183778 0.216083 0.724225
0.151013 0.142912 0.375333
-0.0892313 0.187647 0.680832
0.230075 -0.0188421 0.399636
0.199632 -0.0422387 0.370214
0.11313 -0.218853 0.366881
0.159129 0.175468 0.574761
0.00680544 -0.228435 0.398618
0.048874 0.175401 0.524955
-0.167335 0.0267771 0.399753
0.0573695 0.168226 0.432493
0.0075926 0.0181012 0.375333
-0.0998062 0.139942 0.538003
0.0763402 0.0852286 0.399904
-0.20526 -0.232532 0.385004
-0.134515 0.199925 0.641809
0.231078 0.169172 0.532154
0.252078 -0.159151 0.00526214
-0.0253783 0.167084 0.435967
-0.0128739 -0.118082 0.395116
0.0364075 0.171121 0.416879
0.00333932 0.194464 0.626838
-0.230137 -0.142086 0.352254
-0.182416 -0.183036 0.366451
0.244188 -0.204312 0.112747
-0.147927 0.230343 0.00426515
-0.0110725 0.182134 0.486867
0.192245 0.144546 0.573215
-0.138121 -0.0345246 0.399595
-0.202747 0.196157 0.631477
-0.0519723 0.061059 0.370214
0.134848 -0.0349566 0.399594
-0.120011 -0.142928 0.404336
0.123555 -0.0982563 0.375333
0.250837 -0.144217 0.312339
0.168777 0.199023 0.639336
0.0979268 0.180641 0.492285
-0.0580007 0.108143 0.357244
-0.246463 -0.0457613 0.014698
-0.148005 0.15509 0.397881
0.118029 0.160487 0.456032
0.00958501 -0.0267314 0.354007
0.156787 0.170353 0.426022
0.235534 0.135913 0.529435
0.0217842 -0.0809674 0.354007
-0.0131894 -0.224542 0.368446
-0.0274745 -0.235664 0.378307
0.202547 0.0985083 0.399938
0.108763 0.149919 0.475554
-0.0972112 0.206487 0.719343
0.234345 0.0320412 0.543517
-0.254684 -0.15086 0.305409
-0.0697355 -0.216142 0.401338
-0.0486333 -0.127416 0.369691
-0.226905 -0.0768885 0.384321
0.131695 0.219875 0.0110893
-0.0955271 -0.100757 0.375333
-0.203954 -0.110208 0.3994
0.214559 0.227426 0.0110893
-0.225303 0.163989 0.463096
-0.079466 -0.0790337 0.399481
0.120915 0.0152068 0.354007
-0.06919 -0.23218 0.386251
0.195743 0.095001 0.370214
-0.168355 0.17122 0.636005
0.250463 -0.185792 0.178958
-0.0410075 -0.0296431 0.404336
-0.00442778 0.0847773 0.370214
0.186188 0.206694 0.0110893
-0.114419 0.152873 0.599287
0.25336 -0.144881 0.337763
0.232674 0.0668578 0.0138267
-0.0786228 0.116581 0.361108
0.0439608 0.0117122 0.404336
-0.168463 -0.140335 0.395059
0.0397262 -0.0218302 0.395364
0.0268663 -0.00232211 0.399678
0.0696855 -0.0890767 0.354007
0.218642 0.081944 0.372674
0.226496 -0.109473 0.00852848
0.102856 -0.232539 0.395142
0.149526 0.197594 0.400994
-0.0622515 -0.129401 0.399351
0.169383 0.127807 0.370214
-0.227462 -0.152779 0.310698
0.191303 -0.0829566 0.39947
0.143332 -0.0715898 0.395236
0.0926096 0.0234544 0.395481
-0.230318 0.158608 0.401257
0.187874 0.146226 0.594169
0.00761766 0.0419378 0.370214
0.201831 0.0582368 0.399834
-0.0154422 0.149633 0.476472
0.223976 -0.125037 0.377678
-0.185015 0.174223 0.553823
-0.117284 -0.0757849 0.354007
0.0841366 0.157859 0.599545
0.0704553 0.207618 0.662897
0.235119 -0.0956288 0.462451
0.157612 -0.0836394 0.370214
0.160289 0.208368 0.00426515
0.16647 0.183217 0.596004
-0.156764 0.185295 0.687758
-0.0602268 0.129296 0.400017
0.205003 -0.0842845 0.370214
-0.125626 -0.0715599 0.3995
0.170555 0.144183 0.533238
0.206942 0.0193949 0.404336
0.184973 0.0178759 0.39973
-0.092392 -0.108212 0.399405
-0.076002 0.168493 0.65521
-0.253303 -0.219532 0.0997292
0.229893 0.177736 0.667132
0.253385 -0.0540339 0.530306
-0.156983 0.185603 0.602545
0.121843 0.0559245 0.354007
-0.177107 0.148516 0.540298
0.0668176 0.194778 0.713636
-0.103512 0.189321 0.389043
-0.0813887 0.176086 0.520686
-0.143928 0.225567 0.697906
-0.0807019 0.158595 0.447717
0.131023 -0.137104 0.356314
0.215416 0.142316 0.519355
0.0239922 0.131674 0.404336
0.241176 0.00166452 6.91468e-05
-0.244024 -0.0237045 0.0149689
0.0274678 0.213265 0.00426515
-0.227085 -0.196477 0.369618
0.00732714 0.169213 0.405435
0.127755 0.194771 0.446321
0.231764 0.129478 0.0133839
-0.0712603 0.00427397 0.399695
0.0568259 0.17941 0.499958
0.0769505 0.102812 0.375333
0.0117372 0.181269 0.676773
-0.19255 0.140182 0.562029
-0.122866 0.16829 0.62801
0.0270497 0.0347127 0.39551
-0.143609 -0.000410572 0.404336
0.177575 0.22397 0.706853
0.219346 0.149995 0.492599
-0.0208718 -0.0232705 0.399624
0.228046 -0.20374 0.126131
0.22101 0.217641 0.70161
-0.0921152 -0.110888 0.354387
-0.176898 0.182129 0.593021
-0.244328 -0.0899194 0.000419347
0.183316 0.167815 0.404545
0.0731252 0.046988 0.404336
0.0949344 0.176713 0.378339
0.226771 0.0893239 0.537932
-0.00755404 0.184335 0.685139
0.0967202 0.173561 0.412262
0.00687698 0.174042 0.535724
0.232536 0.0461412 0.0137595
0.0206363 0.0664691 0.404336
-0.0288346 0.175789 0.661818
-0.190569 0.215132 0.707551
-0.254356 0.0927148 0.00633621
-0.116712 0.150016 0.492465
-0.240326 0.0555732 0.0153292
-0.243885 -0.185395 0.0115579
-0.163757 0.225718 0.698314
-0.0888587 0.194761 0.446352
-0.00795261 0.202119 0.712298
-0.252743 -0.168573 0.264786
-0.152021 -0.16665 0.404336
0.0255474 0.172575 0.65305
-0.131094 0.164435 0.444024
0.239721 0.116495 0.54414
0.209963 0.149173 0.400069
0.188151 -0.0215006 0.399629
-0.0344419 -0.20121 0.364967
0.155046 0.211745 0.674212
-0.0280593 0.0711691 0.370214
-0.186309 0.165265 0.646363
-0.0420783 -0.151529 0.404336
-0.118269 0.148665 0.556071
0.0809296 -0.0528137 0.375333
-0.0758359 0.143926 0.505737
0.110218 0.0636916 0.375333
0.0283132 -0.188788 0.398728
0.112118 -0.094018 0.354007
0.0409403 -0.0746021 0.375333
0.0431888 0.147428 0.508909
0.195659 0.132464 0.395762
-0.174722 0.219889 0.682576
0.166906 0.149715 0.494383
-0.1592 0.154892 0.47305
-0.183422 -0.208483 0.393178
-0.114744 -0.0784477 0.375333
-0.243193 0.0433925 0.543939
0.0111291 -0.134526 0.399338
0.189605 -0.20477 0.368941
0.0893048 -0.0900762 0.370214
-0.145172 0.21114 0.00426515
-0.0616419 -0.0115223 0.370214
-0.0711505 -0.0357227 0.370214
-0.191366 0.0720305 0.404336
0.0907116 0.160441 0.441795
-0.178743 -0.232778 0.384135
-0.117359 -0.039303 0.375333
0.0437236 -0.236036 0.379759
-0.168833 -0.034132 0.375333
-0.16498 -0.191181 0.365786
-0.120176 -0.231892 0.369705
0.22332 0.185754 0.621482
-0.0578383 0.18328 0.382886
0.147752 0.180216 0.494935
-0.14349 -0.0874436 0.370214
-0.0472 0.190959 0.458552
0.0274767 0.139916 0.535434
-0.172407 -0.224292 0.368397
-0.133164 -0.199639 0.39802
0.0034423 0.023319 0.39548
-0.0621445 0.0612142 0.354007
-0.102725 0.0309227 0.3955
0.191136 0.183353 0.596376
0.252393 0.0370266 0.0119011
0.0885806 -0.20956 0.36855
-0.0964675 0.0258591 0.375333
0.100947 -0.118591 0.375333
0.0662005 0.176788 0.516306
-0.104799 0.105977 0.399957
0.090797 0.145967 0.518192
0.216831 0.156787 0.458213
-0.242791 -0.208825 0.0306793
-0.197614 0.190658 0.689049
-0.0817955 0.166934 0.373153
0.0378784 0.227294 0.708424
-0.238655 -0.148987 0.000540214
-0.0675322 0.214569 0.681952
-0.196077 -0.140064 0.370214
0.0550628 0.15461 0.490381
-0.245667 -0.170143 0.222418
0.101123 0.221736 0.701602
0.0760269 -0.224705 0.364759
0.1776 0.190572 0.390851
-0.179568 0.0939366 0.399926
-0.171108 -0.105991 0.399411
0.017123 0.195349 0.00426515
-0.251432 0.138359 0.541246
-0.0166859 0.147409 0.584375
0.0959853 0.186893 0.606082
-0.18869 -0.0330723 0.395335
0.121783 0.234687 0.00484309
-0.244525 0.204073 0.00044123
-0.117299 0.142788 0.400052
0.143601 0.0404368 0.375333
-0.193023 0.0163323 0.395462
0.0371189 0.0289987 0.354007
-0.169089 0.0126658 0.375333
-0.244087 -0.0773416 0.0149619
0.155932 0.174187 0.550195
-0.0497198 0.184602 0.672522
-0.0239172 -0.0766192 0.375333
-0.129057 -0.159847 0.404336
0.0608912 0.139945 0.538368
-0.0701556 -0.135748 0.370214
-0.235626 -0.0618722 0.512835
0.230318 -0.228685 0.392214
0.0583804 0.076954 0.399883
0.135416 0.127454 0.375333
-0.151015 0.0424897 0.375333
0.0253237 -0.20827 0.36439
-0.0073135 0.207579 0.662791
-0.00510161 -0.181667 0.370827
-0.0917907 -0.0112941 0.370214
-0.184252 0.180698 0.491931
0.041944 -0.104319 0.370214
0.0378717 0.0549065 0.354007
-0.0189959 -0.0897888 0.354007
-0.191813 0.207142 0.00426515
0.204332 0.219901 0.693524
-0.0875785 -0.0535143 0.375333
0.231558 -0.139213 0.0132838
-0.148057 -0.183289 0.36643
0.139083 0.111087 0.404336
-0.1088 -0.125304 0.375333
-0.0497546 -0.17995 0.404292
0.207939 0.057991 0.370214
0.0936164 -0.220625 0.385976
-0.0372641 0.111774 0.395708
0.186525 0.16544 0.440967
-0.226905 -0.0288368 0.38765
-0.228915 0.104926 0.399955
0.0560178 0.160112 0.632237
0.0749161 -0.0645444 0.354007
0.161997 -0.0423429 0.370214
0.224831 0.197346 0.0110893
0.226905 0.116432 0.383143
-0.233229 0.0656392 0.530135
-0.000723705 -0.220315 0.379781
0.0500892 0.207927 0.00426515
0.107333 0.0445953 0.354007
-0.0495049 0.175625 0.575191
0.222534 -0.14627 0.399329
-0.165334 0.0331773 0.370214
0.241375 -0.0399333 0.540118
0.0439323 0.038318 0.399783
0.128659 0.21963 0.681875
-0.042635 -0.0141393 0.370214
-0.086411 0.0527212 0.370214
-0.236709 -0.000783741 0.0149273
-0.0731732 -0.170229 0.404336
-0.0342066 0.0764603 0.404336
-0.14264 -0.0327819 0.36135
0.0448352 0.0109532 0.370214
0.0874628 -0.17972 0.399221
0.22515 0.1683 0.627067
0.0559095 -0.101691 0.395158
0.103485 -0.0380755 0.354007
0.226905 -0.0633025 0.389406
0.0316692 -0.111655 0.399396
-0.161517 0.148789 0.569215
-0.00670447 -0.00493009 0.354007
-0.0690716 0.0643063 0.404336
-0.00129847 0.0216066 0.354007
-0.0742604 0.11783 0.399988
0.190618 -0.168406 0.370214
-0.239232 0.0740021 0.0152077
-0.212642 -0.223325 0.400279
0.134057 -0.184005 0.369726
-0.0818821 0.193281 0.709552
0.188029 -0.0631218 0.370214
0.239821 -0.16239 0.245548
-0.180345 0.159744 0.471436
0.226545 -0.197687 0.161403
-0.193637 0.189985 0.390002
0.245395 -0.112201 0.408368
-0.0478002 0.174795 0.52873
-0.0744236 0.217872 0.0110893
0.109191 0.0290104 0.399759
0.250562 0.126953 0.00256307
0.250159 -0.1809 0.0234143
0.150723 0.14114 0.400048
0.155783 -0.220399 0.381449
-0.0830302 -0.0953972 0.354007
0.217216 -0.137008 0.366126
0.0584691 0.130927 0.370214
-0.165913 0.147081 0.375073
0.0482072 -0.0841695 0.404336
-0.115922 -0.223807 0.400123
-0.0937908 0.0671277 0.395593
0.00274298 0.129821 0.400019
-0.0723762 0.17211 0.638435
-0.0188359 -0.0336212 0.354007
-0.230448 -0.128181 0.363486
0.233893 -0.152088 0.281306
-0.131591 0.147471 0.483631
-0.125324 0.196918 0.724127
-0.0798199 0.202312 0.00426515
0.0218684 -0.220817 0.38983
0.229459 0.0501575 0.395549
0.238126 -0.137503 0.3756
-0.163779 0.194376 0.0110893
-0.0794467 0.222339 0.700107
0.0985186 -0.00119367 0.375333
-0.112752 0.177856 0.379131
-0.117288 -0.110086 0.399401
0.0232319 0.201493 0.418524
-0.180298 0.197787 0.436645
0.132953 -0.231884 0.395869
-0.128121 0.145138 0.591186
0.192653 0.199603 0.712881
-0.0331304 -0.104921 0.375333
-0.186042 -0.0590717 0.370214
0.214332 -0.171084 0.370214
0.0502322 0.211439 0.708898
0.234257 -0.026575 0.528755
0.086261 0.116916 0.370214
-0.195957 0.204391 0.654052
0.116182 -0.182039 0.370796
0.181311 0.112423 0.399974
0.120293 0.139998 0.54363
-0.196599 0.0468462 0.395541
-0.111213 0.170663 0.415561
0.192029 0.197185 0.634296
0.0362624 -0.159329 0.404336
0.113311 0.144537 0.572188
0.0245297 0.158876 0.602318
-0.246441 -0.00982568 0.000654134
-0.0391995 0.144151 0.529741
-0.164921 -0.0690337 0.399506
-0.149636 0.155794 0.607258
0.0917696 -0.1051 0.404336
-0.234614 -0.17177 0.0207763
-0.226942 0.0281822 0.00938161
-0.142892 -0.0899018 0.395189
0.112545 0.104503 0.370214
0.0671025 -0.226856 0.399132
0.0561715 0.192247 0.0110479
-0.0737773 -0.197407 0.398166
-0.0886644 0.195972 0.630972
2.95937e-05 0.171074 0.635605
0.154924 0.176374 0.676816
-0.133023 0.199721 0.409662
-0.133474 -0.0151705 0.370214
0.0340444 0.0883736 0.370214
-0.108372 -0.143494 0.370214
-0.105113 0.220143 0.694178
-0.0878994 -0.166046 0.394992
-0.220962 0.185759 0.691392
-0.0669126 0.201316 0.712591
0.22724 0.080714 0.395628
-0.226831 0.164607 0.385262
0.0601468 0.143405 0.508985
0.239244 -0.0758333 0.521224
0.23496 0.00870137 0.014733
0.0178704 -0.0826229 0.399471
-0.253158 -0.107164 0.011316
-0.00830774 0.227716 0.0110893
0.120841 0.185119 0.477289
-0.0599164 -0.108496 0.354007
0.0785443 -0.130415 0.375333
-0.00056313 0.144104 0.370214
-0.0696012 0.201402 0.41807
0.193002 0.187856 0.468506
-0.00113591 -0.177923 0.404336
0.157255 -0.123919 0.370214
-0.209412 0.196542 0.440639
-0.0765082 0.198373 0.434762
-0.0995857 0.145954 0.40006
-0.212014 0.125552 0.395744
-0.0977187 0.145549 0.520848
0.147403 0.152817 0.612237
-0.00852833 0.0595938 0.404336
-0.210912 0.165693 0.424944
-0.253436 -0.0989138 0.482429
0.0474239 -0.0413865 0.370214
-0.117936 0.157081 0.452576
0.130123 0.110758 0.358442
-0.192708 0.199752 0.409816
0.227952 -0.0531313 0.0113172
0.183062 0.152807 0.501837
0.00960657 0.0701505 0.354007
0.1003 0.197094 0.70661
-0.0210826 0.183268 0.695715
0.0455343 -0.22069 0.387288
0.205687 -0.191197 0.403374
-0.157783 -0.225553 0.368085
-0.0471271 -0.104884 0.39515
0.209153 -0.161306 0.404336
-0.184678 0.171322 0.436703
0.251703 -0.219619 0.103461
0.233465 0.211754 0.00114303
-0.15938 0.163182 0.411231
-0.0274732 0.131772 0.368064
0.166362 0.140158 0.559621
0.0176913 0.211007 0.72675
-0.245159 0.141259 0.000511629
-0.214032 0.147093 0.485986
0.0205303 -0.0588228 0.370214
-0.216509 -0.12152 0.371422
0.0962629 -0.0820085 0.354007
0.060403 0.119441 0.395728
0.0344344 -0.0366066 0.354007
-0.168202 0.223508 0.711896
0.00766315 -0.0641104 0.354007
-0.242277 -0.129513 0.0151631
0.0386004 0.139893 0.371782
-0.1837 0.147572 0.507998
-0.117339 -0.166921 0.39499
-0.226905 -0.0069638 0.384634
0.131124 0.208253 0.710061
0.0219567 0.144441 0.561619
0.226268 -0.212138 0.110707
0.0510784 0.211068 0.672355
0.170065 -0.0479433 0.404336
0.12149 -0.180528 0.394955
0.0401623 0.146861 0.487438
-0.100087 -0.0784754 0.404336
0.0677194 0.190987 0.617306
-0.162698 0.140028 0.546642
0.123756 0.15045 0.489711
0.140316 0.148552 0.544176
-0.132988 0.145558 0.520791
-0.229505 -0.0911545 0.480766
-0.159782 -0.202465 0.393571
-0.250505 -0.186668 0.0269536
0.0081313 0.15472 0.590979
-0.057584 0.203028 0.00426515
0.0460778 0.0727221 0.375333
-0.0178191 0.0801242 0.404336
0.110471 0.179155 0.671003
-0.2225 -0.229696 0.376383
0.0292941 0.174338 0.565289
0.182474 -0.125136 0.370214
0.110341 0.167008 0.420723
-0.104157 -0.140783 0.399321
-0.223917 0.177221 0.601055
-0.00311036 -0.121278 0.370214
0.0195329 -0.138338 0.357967
0.0921561 0.180536 0.688226
0.141933 0.143615 0.507679
0.240349 -0.00978233 0.528901
0.0337441 0.181125 0.490105
-0.191505 0.157827 0.599456
0.099472 0.132893 0.368577
-0.133695 0.179057 0.670738
-0.129959 0.0551128 0.375333
0.00461283 0.0684748 0.370214
0.211967 -0.00484569 0.399672
-0.158888 -0.235781 0.391327
-0.0462354 0.0488611 0.354007
-0.16482 0.153366 0.613742
-0.130786 0.08798 0.395647
0.0519397 -0.0859741 0.370214
0.0370455 -0.0247058 0.375333
0.0247974 0.0121356 0.370214
0.174648 0.197157 0.714108
-0.0334533 0.174397 0.571105
-0.221903 0.175488 0.417041
-0.214764 0.190559 0.459216
0.15197 -0.123333 0.395102
-0.254714 -0.15966 0.0104343
-0.245569 -0.210242 0.0883911
-0.214804 -0.0967565 0.395171
-0.101122 -0.0529322 0.354007
-0.227288 -0.172833 0.245544
0.219481 -0.130512 0.399348
-0.164478 0.0521342 0.372269
0.245088 0.153539 0.000503771
-0.101114 -0.0638803 0.375333
-0.240654 -0.207266 0.0593876
-0.0661 -0.214123 0.368178
-0.0215991 0.0178588 0.395466
-0.216511 0.0184204 0.403127
-0.0421375 -0.0597632 0.354007
-0.155287 0.170798 0.6482
0.0778665 -0.186766 0.366146
-0.0862935 0.11316 0.375333
-0.00864723 -0.0802882 0.370214
-0.157567 0.117041 0.375333
0.0946138 -0.136468 0.404336
0.0102317 0.110913 0.375333
-0.127871 -0.126458 0.368803
-0.236079 -0.115151 0.447472
-0.217752 0.14867 0.528116
0.0885529 0.205883 0.0110893
0.241359 -0.126825 0.359315
-0.0825191 -0.109449 0.370214
0.211254 0.173061 0.641028
-0.0482152 0.110712 0.370214
0.249753 -0.205773 0.0514141
0.247125 0.0830578 0.529769
-0.104914 0.174866 0.659302
0.250617 -0.0666145 0.012765
-0.0452508 -0.0698643 0.39524
0.0206477 -0.0973079 0.354007
0.25356 -0.167881 0.263028
0.0707677 0.171003 0.662092
-0.0907796 0.0982804 0.370214
0.177965 -0.220248 0.378444
-0.206201 0.164249 0.643578
-0.152417 -0.124431 0.375333
0.0495223 -0.140093 0.404336
-0.228071 -0.198161 0.143786
0.237641 -0.22553 0.0816984
0.181819 -0.148322 0.404336
0.244186 -0.123759 0.419815
0.120862 -0.081492 0.370214
0.148031 0.170061 0.659509
-0.0254707 0.205765 0.657818
-0.202777 0.0322868 0.370214
0.00744119 0.0567361 0.39983
-0.0101999 0.0483139 0.370214
0.0731986 -0.000826806 0.404336
0.103596 0.167671 0.652957
-0.218261 -0.1167 0.395119
0.128807 -0.0478633 0.395297
-0.0694138 0.140278 0.571599
0.113662 0.140585 0.404336
-0.120687 0.00287144 0.370214
-0.029979 -0.132585 0.354357
0.194731 -0.224731 0.395281
0.163469 0.0596389 0.371764
-0.0475928 -0.0437106 0.399572
-0.0424783 0.183384 0.596461
0.00159813 0.217673 0.718832
-0.203148 0.222627 0.71356
-0.196323 0.13068 0.370214
-0.0442631 0.213261 0.726204
-0.131868 0.03868 0.355964
-0.0157912 -0.0105152 0.399657
0.0257998 0.187868 0.681435
-0.138628 -0.0693652 0.375333
-0.0630797 -0.122012 0.364687
-0.0723603 0.0608072 0.370214
-0.148987 0.187883 0.386966
-0.213297 0.0610105 0.395577
0.201808 0.171808 0.420998
0.137802 -0.236224 0.37887
-0.157541 0.174114 0.54296
0.12265 -0.0641445 0.370214
-0.194081 0.101189 0.404336
0.196233 -0.0975733 0.404336
-0.127651 0.189372 0.00662102
-0.104483 -0.0219519 0.404336
0.0820075 -0.0138506 0.395385
-0.0508607 0.150806 0.472707
0.0227455 -0.00253926 0.354007
0.226905 -0.173738 0.385538
-0.113469 0.151905 0.583296
-0.128306 0.149102 0.575647
-0.231831 -0.0528789 0.00193836
0.18693 0.144231 0.538535
-0.157775 -0.0244963 0.368917
-0.176275 0.182777 0.667541
0.127018 -0.156951 0.395016
-0.125793 0.17423 0.554455
-0.0516679 -0.164912 0.399259
0.220711 0.175441 0.416661
0.0294549 0.0416696 0.375333
-0.177076 0.160322 0.606266
0.204215 0.213925 0.00426515
0.128362 0.0785567 0.395623
0.0604201 0.0657743 0.370214
-0.239655 0.124621 0.544132
-0.234686 -0.0245099 0.54358
0.182842 -0.0104111 0.370214
-0.233363 -0.156687 0.0158692
0.0293427 0.0832422 0.354007
-0.139455 0.00556068 0.359757
-0.188199 -0.105336 0.404336
0.0443221 -0.129714 0.375333
-0.0950734 0.142977 0.373194
-0.214524 -0.188984 0.39445
-0.228526 0.040869 0.395526
-0.149892 0.0872512 0.364976
-0.131889 0.0124454 0.399716
-0.235541 0.0853251 0.529435
0.204047 0.15189 0.596604
-0.113802 -0.216381 0.367083
-0.0241056 -0.107788 0.399406
0.0234596 0.161026 0.634743
