-0.0213998 0.185043 0.630863
-0.223421 0.00844641 0.0201173
0.0121765 -0.153335 0.0257389
-0.00277722 0.269079 0.00621644
-0.0510309 0.201322 0.437937
-0.0133097 -0.0103856 0.0261909
0.212044 -0.12515 0.451399
-0.0103452 0.0628031 0.0139776
0.238108 0.174605 0.615892
0.213081 -0.00731442 0.441164
-0.274546 0.0125219 0.0184403
0.107498 -0.233902 0.443733
0.00556977 0.201315 0.411542
-0.207468 0.0357353 0.422015
-0.199531 0.169858 0.56501
0.0251417 0.0223173 0.0343391
0.0506755 0.283783 0.753051
0.0288701 0.197658 0.674503
0.108596 -0.0979099 0.411751
0.0175201 -0.0613057 0.0355716
0.198711 0.161336 0.42772
-0.0200957 -0.253006 0.0144032
-0.298988 -0.0107527 0.0038035
0.19671 0.169118 0.538142
0.0295786 0.000222025 0.0367643
-0.263229 -0.0161826 0.0168942
-0.024572 0.314607 0.00448806
0.210033 0.169243 0.521977
-0.238507 0.00725126 0.0140119
0.0272457 0.174651 0.585613
-0.133025 0.188141 0.647606
-0.136772 -0.251327 0.420861
0.00208382 0.16688 0.0246609
-0.207343 -0.121945 0.449274
0.223686 0.192753 0.559284
0.199232 0.0779201 0.43367
0.0477876 0.183788 0.623109
-0.0495975 0.171576 0.57228
0.0890546 -0.019214 0.0333695
-0.0116494 -0.230683 0.0195357
0.00277981 0.190302 0.650621
0.0710398 -0.0586875 0.398292
-0.219564 0.170579 0.575927
-0.192962 -0.134489 0.440733
-0.109934 0.0749484 0.403535
-0.220844 0.188818 0.575142
-0.209201 -0.141173 0.434717
-0.0783198 0.271327 0.745919
-0.208419 0.211413 0.712554
0.0586655 -0.236217 0.42985
0.294042 0.0197422 -5.04822e-18
0.0126196 0.0964735 0.43327
-0.0026466 0.151456 0.0156798
0.0176292 0.00740445 0.175123
-0.00325316 -0.113034 0.0252478
0.0968633 -0.211948 0.454602
0.0498452 0.176326 0.593594
0.00424638 0.0776687 0.0318401
-0.126958 0.0286318 0.439419
-0.275331 -0.00460669 0.0121839
-0.0216748 -0.217114 0.454138
-0.186878 0.167923 0.413465
0.222532 0.0743793 0.431546
-0.0740605 0.0809983 0.434621
-0.0410067 0.0447692 0.400374
0.277111 0.151849 0.614891
0.121834 0.00192749 0.0180637
-0.146832 -0.175362 0.45415
-0.178452 0.0211241 0.0218966
-0.154177 0.0210421 0.0219627
-0.203942 0.193889 0.65465
0.306143 2.79509e-05 -5.04822e-18
-0.00622504 0.0118565 0.274755
-0.147754 -0.251799 0.419236
0.175864 0.202953 0.685862
0.188919 -0.020944 0.0229035
0.0244316 -0.221432 0.0202502
0.00111414 0.212559 0.720059
-0.0118669 0.0151792 0.263347
-0.110287 -0.251077 0.409987
-0.116775 -0.00770584 0.442794
0.211649 0.207285 0.640174
0.289111 0.0243107 0.00261231
0.00369664 -0.0382487 0.0241539
-0.0893267 0.046464 0.383554
0.277084 0.113829 0.619565
0.0665283 0.206973 0.701287
0.250209 0.106164 0.629722
-0.00579635 0.231655 0.746041
0.152492 -0.00813588 0.0185098
-0.200165 0.171393 0.577094
-0.00911599 -0.0183758 0.0343391
0.0016434 0.0822892 0.0314662
-0.00766753 0.278921 0.0156388
-0.318477 -0.0229222 0.0124438
0.189059 -0.116709 0.45066
-0.213073 -0.113173 0.432593
0.22072 0.181324 0.615843
0.104109 -0.0951814 0.420497
-0.0243589 0.190332 0.0227523
0.132209 -0.026537 0.444774
0.0703039 -0.00897978 0.0169568
-0.0591127 0.207799 0.707638
-0.221474 0.138873 0.414522
0.202086 0.00872927 0.440756
-0.206776 -0.00929738 0.0176956
-0.000369191 -0.281922 0.015404
-0.182849 -0.0302931 0.444822
0.00852981 0.0891808 0.433942
0.19616 0.0719516 0.433746
-0.0821479 0.00637265 0.00983893
-0.161775 0.0322878 0.439048
0.0276827 0.269078 0.744166
0.0772091 0.0388581 0.401508
-0.0222122 0.0655769 0.0228747
0.025231 -0.245079 0.415144
0.0504605 0.223856 0.73934
-0.27491 -0.0103247 0.0183922
-0.22433 0.0923089 0.429461
0.118554 -0.153796 0.452959
-0.0683131 -0.0800001 0.396172
-0.00226395 -0.0537531 0.0337626
-0.127968 -0.105895 0.417667
0.11152 -0.193757 0.45548
0.0142426 0.27302 0.756157
-0.223892 0.165885 0.557079
0.161075 -0.0420526 0.445923
0.134377 0.262675 0.742575
-0.199205 -0.0055917 0.441993
-0.201852 -0.139086 0.452749
-0.214702 0.0601708 0.437697
-0.00402738 -0.307599 0.00485017
-0.234687 0.164458 0.539476
0.264067 0.0123948 0.0192629
-0.179579 0.00416379 0.023641
-0.232346 0.173323 0.452867
-0.153829 -0.208897 0.455264
0.205652 0.146456 0.427596
-0.00112573 -0.0130958 0.360404
0.107489 0.0946229 0.399737
0.226148 -0.193744 0.43612
-0.214473 0.0378083 0.439766
0.0225464 -0.19154 0.0124385
-0.0710542 -0.0729204 0.399096
0.194283 0.0101887 0.430813
0.277257 0.0257369 0.0157577
-0.129273 -0.0768967 0.447937
0.209737 -0.0215253 0.44594
-0.144957 0.000211623 0.0288561
-0.213132 0.189092 0.633123
0.156156 -0.0170571 0.443919
0.219386 0.178058 0.494564
0.301855 -0.00012604 0.00485017
0.00990269 0.0262824 0.0116404
-0.0143585 0.119819 0.431083
0.19361 0.0451905 0.424091
-0.0234485 0.223506 0.00986587
0.131636 -0.248164 0.421809
0.154265 0.180219 0.604719
0.080421 -0.15956 0.453299
0.00607234 -0.222456 0.020183
0.0954375 -0.0168235 0.032854
-0.017897 -0.230878 0.0195252
-0.0279831 -0.0744591 0.447849
0.0088279 -0.00846582 0.378245
-0.135807 0.190336 0.427966
-0.170399 0.0160173 0.0243894
0.168483 0.1808 0.416212
0.206182 -0.00758459 0.0124817
0.153446 0.0906263 0.402485
-0.000725023 0.125596 0.0279801
0.198335 -0.183429 0.455128
0.0021187 0.197084 0.416461
-0.223972 0.00351109 0.423065
0.00723068 0.0151021 0.0343391
-0.00696967 -0.301156 -6.73095e-18
0.116352 -0.00280803 0.442562
0.000321403 -0.056881 0.446756
-0.157946 0.249593 0.747492
-0.262079 0.17654 0.622136
0.140837 0.256274 0.743154
0.144864 -0.226475 0.44957
0.0191239 -0.00158773 0.102992
0.10187 -0.0815953 0.408162
-0.0870886 0.0131279 0.0310896
-0.0156749 0.128252 0.027754
0.215751 -0.192982 0.453907
-0.231108 0.176859 0.631968
-0.0554347 0.0395716 0.384792
0.011366 -0.0203301 0.0261909
-0.173978 0.0966149 0.43308
-0.219196 0.0718089 0.435123
0.31303 -0.0142792 0.0129128
-0.224746 -0.206744 0.439885
-0.00225703 0.0169979 0.440615
0.185538 -0.0203405 0.444251
-0.204573 -0.013492 0.442172
0.0232983 -0.242188 0.43176
0.226766 0.0142325 0.425309
-0.0340525 0.020973 0.0366245
-0.210407 -0.235569 0.446924
0.238861 0.190677 0.610663
-0.11747 -0.048708 0.446163
-0.0900901 -0.05544 0.404859
0.154867 -0.0591077 0.446997
0.192619 0.157931 0.415828
-0.0389019 0.182235 0.620495
-0.197946 0.179146 0.61197
-0.178157 0.164029 0.428485
-0.189064 -0.248439 0.427687
-0.290235 0.0174403 0.0147493
0.00364394 -0.0129257 0.333081
0.130283 -0.00256805 0.0173877
0.235035 0.197387 0.645729
-0.182355 -0.141633 0.438072
0.210672 0.0887145 0.435942
0.00480798 0.0185699 0.230561
-0.251491 0.0118609 0.0178618
-0.01879 0.317317 0.0149734
0.0132331 0.257373 0.0198225
0.00316585 0.273881 0.0160533
0.177909 0.124468 0.430836
0.00186449 0.219074 0.0228944
0.0930549 0.148076 0.428669
0.176877 0.0494335 0.437782
0.231037 0.17707 0.44356
-0.0252062 0.281114 0.00997133
-0.241064 -0.00507724 0.0149405
-0.0985608 -0.0152747 0.443512
0.219454 0.239017 0.738814
-0.223838 -0.227484 0.444485
-0.173773 0.0904929 0.433647
-0.0192833 -0.0257622 0.0367643
0.101112 0.0208314 0.0299333
0.0488777 -0.0153923 0.396224
-0.20554 -0.102376 0.449049
-0.20621 0.241887 0.750955
-0.185405 0.17584 0.43201
-0.121781 -0.021653 0.0282697
-0.164409 -0.241916 0.432414
-0.10974 0.16479 0.536301
0.2662 -0.0175065 0.643974
-0.19369 -0.244424 0.414618
0.260285 0.139419 0.614886
0.0129824 0.0467835 0.0364902
0.131423 -0.248931 0.416594
-0.113696 0.106129 0.432256
-0.0906161 0.0802755 0.40297
-0.0928127 0.0820042 0.399711
0.193887 0.128499 0.430368
-0.221157 -0.249744 0.427103
0.161029 0.173376 0.438775
0.28683 0.00565599 0.00485017
-0.263156 0.0837128 0.633402
-0.287669 -0.0176635 0.0173596
-0.155872 0.121483 0.401486
0.0191809 -0.302085 0.0137657
-0.0175263 0.173887 0.583837
-0.00362466 -0.0187662 0.0827761
0.107626 -0.0784061 0.419891
-0.167523 0.184442 0.634415
-0.095325 0.045945 0.402314
-0.281874 0.121923 0.618655
0.0993643 0.00811249 0.00914716
0.0449344 -0.00129372 0.0241539
0.0868662 0.00855168 0.441482
-0.173956 0.164122 0.53625
-0.119256 0.0437653 0.438025
0.0231543 -0.000665644 0.0261909
-0.0633284 -0.0426698 0.409549
0.00709377 0.0179339 0.15403
-0.0252626 0.257728 0.0135394
0.318636 0.00128125 0.0124489
-0.206086 0.194754 0.626096
-0.00495581 0.0856811 0.00969352
0.168777 0.20359 0.687991
-0.225323 0.171479 0.593843
0.196542 0.177855 0.548536
0.101283 -0.0626656 0.402708
0.020805 -0.234179 0.00900941
0.0190725 0.00346662 0.0688958
0.104027 0.0565533 0.385547
-0.163933 -0.00741171 0.0248902
0.0406466 0.200483 0.682617
0.0163257 -0.0427406 0.0367643
0.108646 0.0670948 0.388531
-0.208956 -0.138702 0.434595
0.108793 -0.204026 0.455519
0.21802 0.182902 0.621504
-0.00466969 -0.0253683 0.0367643
0.246964 -0.0056929 0.0144746
-0.147873 0.268983 0.747564
-0.206771 0.238058 0.749929
-0.124006 -0.0948687 0.410882
-0.0291173 -0.0479438 0.402977
0.155528 -0.017525 0.0153689
-0.0522364 0.0710326 0.435564
0.254921 -0.00883491 0.0200163
-0.00100712 0.190824 0.652833
-0.131687 0.126276 0.430389
0.0159914 0.0864949 0.0209216
0.00592733 -0.289871 0.00485017
0.106681 -0.0954014 0.44926
-0.275447 0.0120727 0.630956
-0.172359 0.168573 0.440895
0.00169133 0.0190862 0.17517
0.0357708 0.187669 0.6389
0.0752426 0.0104734 0.0205453
0.167794 0.101963 0.394371
0.220994 0.115282 0.413391
-0.0221265 0.0383278 0.0255556
0.161391 -0.237244 0.426379
-0.136646 -0.112511 0.427625
0.101708 0.13896 0.429481
0.128445 -0.243485 0.416345
-0.0518849 0.278404 0.748553
0.0826901 -0.122891 0.450982
-0.0196536 0.20898 0.428514
0.0305219 0.0442073 0.3897
-0.0191639 0.0124731 0.0261909
-0.00556353 -0.156633 0.453058
-0.124452 0.174166 0.591876
-0.28584 -0.00367512 0.0150855
-0.0734571 -0.0398046 0.406974
0.216033 -0.0769283 0.448915
0.00403463 0.304751 -6.73095e-18
-0.00362696 0.0177525 0.0261909
-0.048552 0.183202 0.6247
-0.176027 0.132333 0.407226
-0.0125203 -0.0494645 0.023898
-0.133453 0.0837966 0.394876
-0.0190855 -0.105213 0.0194182
0.00460818 0.278613 0.757123
0.119098 -0.107633 0.415306
0.138414 0.178613 0.415169
0.0106395 0.198012 0.676128
0.192644 0.142727 0.417851
0.0375788 -0.0417981 0.406324
-0.182726 -0.0225571 0.0233657
0.21803 -0.00447742 0.443085
0.128255 0.00816209 0.441557
-0.0560396 -0.0705624 0.395561
0.100711 0.0147151 0.0197525
0.212575 0.0143825 0.44294
-0.212012 0.223358 0.742868
0.0240945 -0.159208 0.0260824
0.0124111 -0.263916 0.0118635
0.142821 0.0111677 0.0189145
0.11385 0.00252808 0.0289237
0.302014 0.0212502 -5.04822e-18
0.316409 -0.0179502 0.00485017
0.0235489 -0.252995 0.00749331
-0.198198 -0.0533776 0.429699
-0.241195 0.170054 0.503569
0.0466348 0.0779536 0.435018
-0.0906907 0.207037 0.706326
-0.230171 0.20288 0.672978
-0.254807 0.157632 0.612619
0.0508835 -0.0204663 0.0340085
0.30566 0.0140442 0.0159152
0.00159913 -0.123016 0.0244407
0.202072 0.14754 0.415174
-0.120798 0.164738 0.536656
-0.151122 0.0123641 0.015719
0.0633408 0.0185726 0.032974
0.0226834 0.0416176 0.0343391
0.162752 -0.119899 0.450845
0.00725915 -0.256671 0.0198621
-0.0450037 0.220556 0.736276
-0.0138446 0.120463 0.0283822
0.00987185 -0.222264 0.452114
-0.00600639 0.0428147 0.0241539
-0.0124568 -0.014827 0.272882
0.226066 0.144131 0.416414
-0.289758 0.0163688 0.00485017
-0.0936311 0.194417 0.439307
0.152504 -0.0132994 0.0258269
0.0198581 0.120042 0.0284439
-0.263191 -0.0186722 0.0168953
-0.0180084 0.0333751 0.384678
-0.132015 0.187643 0.6456
0.0227176 -0.043543 0.0286005
0.0323969 0.206297 0.435876
0.0253686 -0.0420365 0.382085
0.290764 0.00608156 0.00485017
-0.230129 0.0112375 0.0195799
-0.274634 0.0104952 0.00578045
0.0168018 0.0741906 0.0345633
-0.00101491 0.276589 0.0158319
0.106283 0.184494 0.623523
0.0213338 0.155368 0.0235937
0.0767304 0.00972047 0.0100482
-0.0494104 -0.097249 0.449275
-0.214323 0.220334 0.704422
-0.00281927 -0.121776 0.450856
-0.0374204 0.00878091 0.391628
0.0900204 -0.00121515 0.0206258
-0.157392 0.180895 0.441757
-0.253846 0.0200804 0.0176791
0.282071 0.0152672 -5.04822e-18
0.20197 0.173626 0.547921
0.263083 -0.00353252 0.0169224
-0.118719 -0.237616 0.430554
-0.128754 0.270125 0.747431
-0.21734 0.0687245 0.436496
0.112479 0.0748717 0.392347
-0.0361817 0.0465499 0.391701
-0.167726 0.212265 0.72438
0.193037 0.171765 0.558846
-0.274089 0.0647445 0.624167
-0.106192 -0.0675433 0.447361
-0.263945 0.077356 0.622032
0.269232 -0.000922514 0.00238355
-0.0746244 0.0220936 0.0325228
-0.0190715 -0.00347994 0.096998
-0.0140975 -0.305046 0.00485017
0.208186 0.191155 0.632054
-0.259233 -0.02309 0.0172101
-0.00055454 -0.0192747 0.271205
-0.00714161 0.260809 0.0133502
0.01202 -0.296241 0.0142417
-0.0376605 0.169825 0.561347
0.199785 0.206403 0.656115
-0.167278 -0.110927 0.450063
-0.00342779 0.166897 0.542216
0.119602 0.0166853 0.0284492
-0.251594 0.00789909 0.020283
-0.0930333 -0.00153582 0.0305992
-0.224545 0.0866779 0.429982
-0.286463 -0.014918 -6.73095e-18
-0.189024 -0.240936 0.426224
0.0114568 -0.0311076 0.401912
0.164299 0.267663 0.754049
0.0191233 -0.00153473 0.12176
0.0835062 0.264403 0.753539
0.00159286 0.153314 0.025752
0.0948066 0.0744435 0.435388
-0.239216 0.152439 0.450451
0.0593939 0.11101 0.431969
0.216902 0.175983 0.503163
0.199591 0.022356 0.024442
0.0182458 -0.32429 0.0136649
0.150848 -0.107377 0.422558
0.179383 0.185924 0.626202
0.120434 -0.170602 0.454023
-0.00268928 -0.0189211 0.263379
-0.0685913 0.165999 0.540885
-0.0117183 0.19654 0.0125044
0.00582231 -0.29167 0.0146146
-0.154265 0.165092 0.540727
0.0056094 -0.0729463 0.0322119
-0.00216422 0.233573 0.0217246
-0.00150841 0.00731762 0.0343391
0.22595 0.144442 0.417517
0.00484603 0.228943 0.01967
0.0184132 0.00684328 0.441575
-0.0213855 -0.165553 0.0236683
-0.0511155 0.087734 0.434019
0.00444245 0.281607 0.0154327
0.227199 0.194642 0.580641
-0.00917627 0.211617 0.0108342
0.213647 -0.204983 0.455648
0.0221055 0.0489862 0.0303269
-0.0119137 0.00643013 0.331091
0.269661 0.155829 0.613311
-0.0861806 -0.0811339 0.416718
0.0101068 -0.201747 0.0242786
-0.00374962 0.0614347 0.436499
0.0186726 -0.226529 0.450134
0.191306 -0.0637916 0.447317
0.269461 -0.0111226 0.0164155
0.170832 0.00594966 0.0243364
-0.0209646 -0.0155261 0.443609
0.22817 -0.161627 0.441355
-0.167476 -0.00953546 0.00643309
-0.188381 0.115589 0.407221
-0.243995 -0.00327898 0.00823412
0.317908 -0.00103062 0.0125094
-0.0155823 0.00888294 0.0367643
0.00205517 -0.204065 0.455644
-0.204407 0.180199 0.562853
0.00615334 0.250058 0.0142262
0.226913 -0.0335297 0.433143
0.323474 0.00341074 0.0144909
0.00277209 0.0885374 0.00958291
-0.0193887 0.147199 0.0262267
0.169448 0.0869949 0.434297
-0.134948 0.189085 0.651409
0.0838142 0.00112726 0.0337743
-0.181221 -0.0581437 0.446718
-0.0191921 0.168537 0.0245101
-0.108875 0.20976 0.715054
-0.034834 -0.0159309 0.389857
-0.116877 -0.00329497 0.442385
-0.00293036 0.0557201 0.0336
-0.0323009 0.206846 0.43446
-0.107225 0.116618 0.431291
-0.0541427 -0.24675 0.429432
0.00820781 0.283954 0.00485017
-0.0109443 0.232843 0.015597
0.0111911 0.0342244 0.439033
0.27036 0.0468803 0.627083
-0.194436 -0.239401 0.4421
0.0173854 0.036527 0.0367643
0.119546 0.182856 0.616524
-0.113955 0.182589 0.420467
0.207051 0.194006 0.601379
0.197915 -0.00766951 0.0106468
0.186346 -0.0200879 0.0231098
-0.0249974 0.0133377 0.368011
-0.0973105 0.203415 0.695665
-0.0443066 -0.113705 0.450319
0.0978458 -0.00898634 0.443116
-0.02683 -0.0791548 0.448146
-0.186239 0.126571 0.400074
0.152369 0.0100607 0.0258184
-0.216406 0.168454 0.546744
-0.0329617 -0.143525 0.452211
-0.0673228 0.00124379 0.0224519
-0.212214 0.00502758 0.439702
0.127936 -0.117246 0.416665
0.205214 0.0166851 0.0239944
-0.186552 0.0115125 0.0128679
0.191701 0.188093 0.630331
-0.140959 0.176831 0.433585
0.0959509 -0.00178921 0.442448
0.225226 -0.198569 0.452377
0.305196 -0.0163409 0.00485017
-0.259485 0.00887449 0.00699795
0.0993957 0.0584445 0.436874
0.264907 0.0634214 0.636158
0.158038 -0.00308625 0.0216269
0.0110223 0.0953833 0.0304205
0.0469664 0.0102532 0.441286
0.0164621 0.322137 0.00360155
-0.186082 0.186236 0.642245
0.152882 0.173278 0.422882
0.218661 0.216539 0.675852
0.194519 0.210409 0.699591
-0.160446 -0.221568 0.453225
0.024522 0.226347 0.741546
0.130879 -0.224131 0.450701
-0.226681 0.0684433 0.428909
-0.211628 -0.127495 0.433603
-0.124787 -0.12832 0.415814
-0.0438741 0.174877 0.59119
0.194379 0.206587 0.683938
0.116534 -0.00782564 0.0311493
-0.142583 -0.197127 0.455528
0.058138 0.0192928 0.383692
0.0169668 -0.244675 0.0183864
-0.164566 0.195893 0.675175
-0.198221 -0.102738 0.450053
-0.0528827 0.0570057 0.382611
0.130835 -0.104966 0.42579
-0.276532 -0.0252749 0.0109982
0.239968 0.170711 0.46256
0.218389 -0.0512439 0.446938
-0.195093 0.155196 0.418969
-0.0132086 -0.0345782 0.379211
0.0633173 0.0783949 0.434993
-0.226484 0.113483 0.426718
-0.237714 0.155616 0.47665
-0.128451 0.206609 0.706204
-0.287381 0.107998 0.624156
-0.251072 0.161486 0.629968
-0.222361 0.184884 0.551184
-0.0524893 0.0345169 0.384198
-0.00643275 -0.0628195 0.0330366
0.0810446 0.0111814 0.0315558
-0.0118287 0.207292 0.0147243
0.10461 -0.020874 0.0296864
-0.200965 -0.162225 0.452422
-0.204295 0.0879037 0.432842
0.0674185 0.0109933 0.441237
-0.198442 0.198548 0.670587
-0.0521236 -0.0458834 0.446027
0.209843 0.178255 0.571852
0.128347 -0.00709884 0.0301982
-0.224311 -0.242042 0.427885
0.320092 -0.00539697 0.00211897
0.198074 -0.0286868 0.428366
0.311959 0.0105817 -5.04822e-18
0.132133 0.0385664 0.438746
-0.0069887 0.1677 0.547118
0.316695 -0.0155337 0.0150519
-0.0476987 -0.104242 0.449719
0.178131 -0.248359 0.420239
0.0467237 -0.02028 0.0331165
0.204456 -0.058539 0.430233
0.115797 0.0849598 0.403982
0.0586609 -0.0416768 0.408904
0.167101 -0.0453322 0.446134
0.256809 0.149748 0.613849
0.0167116 0.00984712 0.134946
-0.0433642 0.187702 0.642238
0.222012 0.174099 0.456776
0.00776743 0.315178 0.00485017
-0.0112518 0.0367708 0.38919
0.194703 0.0708341 0.432311
-0.31526 0.011837 0.0151642
-0.288601 0.00480929 0.0173032
-0.11637 0.204225 0.698681
-0.0825642 -0.238028 0.441801
-0.0983872 -0.00875653 0.442908
0.142899 -0.0112741 0.0290309
0.0234224 0.0113649 0.0189215
0.0317956 0.00484644 0.375534
-0.200564 0.188722 0.640485
-0.0719861 -0.0224936 0.0338079
0.216981 0.0843098 0.435002
-0.0575119 0.0865055 0.434127
-0.156305 0.13159 0.429898
-0.119591 -0.10394 0.449653
-0.217867 0.00746334 0.0109766
0.00540081 0.199516 0.0182918
-0.264648 0.1395 0.628089
0.187979 -0.0624957 0.447233
0.0732052 0.00314985 0.021975
-0.215405 0.209939 0.722507
0.0308525 0.192789 0.659296
-0.149219 0.0941628 0.397004
0.108693 -0.0138595 0.0191339
0.177555 0.117491 0.431481
0.220697 0.0404404 0.420472
-0.00795514 0.153713 0.0219658
0.321685 0.0163601 0.00485017
-0.0127078 0.000183519 0.368214
0.012265 0.0150186 0.19245
0.143609 0.224417 0.738922
0.184943 -0.159964 0.439733
0.226966 -0.129198 0.447019
-0.136396 0.00605511 0.0271168
0.252591 -0.019327 0.639107
0.00191214 -0.191285 0.018948
0.178347 -0.165852 0.434534
-0.011164 0.142563 0.0106237
-0.0836626 0.177202 0.602458
0.0130196 -0.00329513 0.318495
-0.214748 0.169134 0.532708
-0.00028214 -0.00723469 0.0367643
-0.173019 0.116341 0.400663
-0.0581301 -0.000876658 0.0231897
-0.0178285 -0.00687182 0.210744
-0.00215717 0.206535 0.435581
-0.0177728 0.00704778 0.0562868
0.121935 -0.0888448 0.448855
-0.0192665 -0.260491 0.00952272
0.0181591 -0.00595596 0.0850104
-0.124082 0.176106 0.599774
-0.0480534 0.15281 0.428124
-0.184083 0.202938 0.696907
-0.00354077 0.214731 0.726719
0.225897 -0.0597032 0.429168
0.00311714 0.190636 0.651928
-0.193589 0.0511347 0.437272
0.173854 0.194787 0.661383
0.224262 0.0293877 0.435713
0.155808 0.1912 0.647967
0.0938682 0.0201484 0.0329497
-0.29957 -0.0206561 0.0163997
-0.0742154 -0.245015 0.429933
0.180948 -0.10622 0.449992
0.00509847 0.24791 0.0143981
0.121731 0.199419 0.676927
0.0201919 0.169018 0.553173
0.00697481 0.265472 0.0034187
-0.124335 0.0218277 0.0270922
-0.0464486 -0.0196797 0.0365184
0.225922 0.0481667 0.427161
-0.0159729 0.0739056 0.021908
-0.0123673 -0.0107177 0.399735
-0.0114019 -0.224383 0.0200423
-0.209226 -0.111902 0.450205
-0.223358 -0.0119953 0.0143079
-0.248924 0.0118506 0.633683
-0.259608 0.0719705 0.62302
0.12401 -0.242045 0.430868
0.0641861 0.2218 0.736445
0.189598 -0.0179124 0.0252793
-0.0205199 -0.0192357 0.0343391
0.164231 0.171842 0.43533
-0.00722519 0.249259 0.0031759
0.00191985 -0.0407692 0.0367643
-0.290984 -0.0208118 0.0146574
-0.0257294 0.259845 0.0159004
0.0148715 0.230927 0.745289
-0.0239256 0.174022 0.0252118
-0.0190954 -0.00111904 0.138453
0.003715 0.225146 0.0199746
0.207312 0.200914 0.630138
0.00868665 0.0170359 0.264732
-0.00837002 -0.179889 0.0260525
0.234632 -0.0146961 0.0192206
0.153573 0.214009 0.719715
0.303775 0.0207728 0.0160613
-0.18688 0.16416 0.537246
-0.0732741 0.0380796 0.438596
0.076052 -0.244478 0.415321
-0.116208 -0.0243267 0.0287158
0.219266 0.189063 0.644898
-0.150051 0.268763 0.754407
-0.214102 -0.00847552 0.00457601
-0.0425957 -0.00540685 0.0343391
-0.052315 0.0557133 0.436983
0.213837 0.0456553 0.437109
-0.015432 -0.0287846 0.0241539
0.0581408 0.0654116 0.43619
0.158767 -0.125035 0.427298
0.127507 -0.00389351 0.0278303
-0.215796 0.25229 0.742121
0.219326 -0.0142573 0.442773
0.0904089 0.00266409 0.0308095
0.21389 -0.0984018 0.451409
-0.000538016 0.268203 0.744848
-0.162115 -0.000592791 0.442092
0.0663201 0.127899 0.430425
-0.0796565 0.166402 0.543901
-0.0182044 0.206882 0.413032
0.108258 -0.00540139 0.442794
-0.0244414 0.274562 0.745989
0.0174735 -0.285577 0.0150952
0.0246759 -0.260441 0.0171115
-0.195773 -0.0997286 0.432364
0.129823 -0.129541 0.451433
0.221413 0.00191781 0.0202703
0.00227938 -0.221365 0.452558
-0.199803 -0.0240977 0.0149564
-0.196477 0.230367 0.747471
-0.0313113 -0.0497871 0.389434
0.102993 -0.0147367 0.0322444
0.0358301 -0.0518757 0.446463
0.093699 -0.0129556 0.0203395
-0.0957491 0.194412 0.66861
-0.204374 0.00760196 0.0100419
0.0235302 -0.134155 0.0208415
0.0122251 -0.00554946 0.323769
0.16002 0.0230079 0.0251922
-0.0318647 0.00172407 0.402739
0.00953686 0.277856 0.756979
-0.106811 0.00178022 0.0257473
0.094392 0.167105 0.537571
0.126594 0.18227 0.414993
0.0189282 0.250569 0.00781046
-0.241729 -0.000937119 0.0148904
0.0157174 -0.0197513 0.404018
-0.0480297 0.196366 0.434072
0.0384405 -0.248856 0.422429
0.187559 0.225362 0.732981
0.181573 0.125118 0.402007
0.0439066 -0.157631 0.453153
0.123949 0.0702026 0.388271
-0.156444 0.110005 0.431857
-0.108792 -0.0610829 0.446951
-0.0225434 0.0150007 0.0241539
-0.0867405 -0.244052 0.433678
-0.0218319 -0.00328815 0.0343391
-0.0189904 -0.31379 0.00677595
0.0829671 -0.162189 0.453466
-0.218052 0.174534 0.598307
-0.0406231 0.0489903 0.400458
-0.0380981 -0.0445157 0.386117
0.0243605 -0.145079 0.0268065
0.0642609 0.156303 0.427917
0.137592 0.0884364 0.434133
0.0470078 0.0493183 0.400707
-0.00508224 -0.138489 0.00759389
0.0176155 0.00744067 0.22031
0.208161 -0.0238684 0.443204
-0.00978 0.168544 0.0245173
-0.0183313 0.00546384 0.141943
0.207595 0.218686 0.731662
0.22668 -0.200853 0.436835
0.000692967 -0.194889 0.018659
-0.024185 -0.00399136 0.0261909
0.122143 -0.121498 0.420603
-0.0379295 -0.0398594 0.406162
0.145932 -0.00820324 0.0193367
-0.21696 0.0143284 0.020642
-0.00403351 -0.120462 0.0283971
-0.135907 0.00830527 0.0121955
0.146483 -0.141109 0.422701
0.13082 0.274102 0.748138
-0.110548 0.0901695 0.403911
-0.156817 -0.166568 0.453588
-0.178472 -0.116994 0.45044
0.105355 -0.216089 0.454105
0.230218 0.194386 0.615941
-0.252373 0.0607255 0.625877
-0.0623172 0.16586 0.539696
0.220775 0.199513 0.676148
0.146138 -0.106449 0.428895
-0.0114591 0.171295 0.00859847
0.229254 0.191168 0.562497
-0.270586 0.158968 0.62817
0.0432822 0.205785 0.69844
0.0768903 0.280361 0.755843
0.00658629 0.294464 0.0144001
-0.265554 0.0060834 0.641164
-0.202602 -0.0235797 0.0116198
-0.175529 0.177658 0.60798
-0.0211877 -0.12172 0.02831
-0.236592 -0.00529793 0.0153
0.00861599 -0.0280481 0.37675
-0.317024 -0.00466184 0.00235746
-0.175784 0.166547 0.43946
-0.163209 -0.0122943 0.0249444
-0.112765 0.216173 0.731206
0.126375 0.0556408 0.437159
0.184881 0.22333 0.735694
-0.117189 0.0619882 0.43634
0.0130936 -0.0721627 0.0322688
0.2794 -0.0014321 0.00414789
-0.172514 0.127438 0.396546
0.19311 0.191677 0.618694
0.222464 0.154507 0.41137
0.0248095 -0.0430759 0.392546
-0.253874 0.0192155 0.638204
-0.109475 -0.106035 0.411658
-0.16315 0.0212216 0.0249769
0.216717 -0.232438 0.443146
0.231223 0.19201 0.598556
0.191039 0.198175 0.66596
-0.0118553 0.209865 0.0167972
0.194307 -0.0235632 0.444553
0.272893 0.0177532 0.0161154
0.137665 -0.143743 0.452336
0.198521 0.180979 0.60065
0.0603229 0.00102553 0.0356643
-0.0209384 0.193548 0.663711
-0.0692952 0.0191541 0.0325261
-0.0347795 -0.219047 0.453784
-0.297781 -0.00514233 0.00485017
0.276773 0.0437938 0.636844
-0.164794 -0.00422207 0.442425
0.00311669 0.0175652 0.0343391
-0.0158057 -0.0399003 0.0343391
-0.104993 -0.192487 0.45526
0.152735 0.123595 0.430893
0.0107123 -0.0158626 0.26163
-0.183211 -0.146926 0.439578
-0.153268 0.174418 0.43959
-0.00382875 -0.1316 0.0172827
0.00210993 -0.167538 0.0246046
0.00802317 0.176918 0.0238583
0.00570532 -0.318607 0.0148804
0.00170298 -0.0128802 0.351637
-0.104771 -0.241819 0.437064
0.00203225 0.203323 0.0217289
0.0854394 0.0397266 0.388731
0.0895307 -0.24701 0.409313
0.158926 0.254642 0.752423
-0.194248 0.181436 0.622946
-0.248303 0.115531 0.627131
-0.0536904 -0.173437 0.454089
-0.0184685 -0.193895 0.022501
0.229459 0.196274 0.627601
0.0766127 0.0331202 0.399364
0.24809 0.00225089 0.0181237
0.106314 0.0559666 0.402921
0.194581 -0.00174921 0.433856
-0.0184489 -0.281653 0.00114979
0.187353 0.00612278 0.0230071
-0.215408 -0.0036079 0.424945
-0.251479 -0.000174499 0.0141065
-0.221676 -0.0628834 0.428543
0.00807915 0.233617 0.0192967
-0.205468 0.190056 0.649656
-0.085099 0.00242644 0.441885
0.182114 -0.0484625 0.446342
-0.0117107 -0.0153316 0.232695
-0.206061 0.0983196 0.416222
-0.298956 -0.0236884 0.0140137
0.268345 0.0982704 0.620298
0.192134 0.00473382 0.0250566
-0.22761 0.175438 0.476942
0.0655825 0.0169343 0.0225769
0.0232739 0.189864 0.648067
-0.0204324 0.209359 0.0110065
-0.166487 0.125028 0.406717
0.226537 -0.212696 0.437443
-0.00547999 0.0262361 0.439757
0.170004 0.18152 0.418314
-0.213451 -0.245958 0.40875
0.0102343 -0.0169663 0.0261909
-0.0497233 0.142959 0.428991
0.214283 -0.0941369 0.447317
-0.140926 0.102779 0.396841
0.0936764 -0.0856921 0.406968
-0.223888 -0.0181919 0.439693
0.0827007 0.0269768 0.439772
-0.16646 -0.247718 0.429691
-0.0168546 -0.0999285 0.0300597
-0.224489 0.0050367 0.0162823
0.146298 -0.0211669 0.0263327
-0.210617 -0.00589409 0.440864
-0.131888 -0.00658372 0.00785207
0.00398948 0.229627 0.744338
-0.280144 0.161733 0.623297
0.195714 -0.135624 0.440868
-0.0594939 -0.0695392 0.412168
0.194002 0.177909 0.437042
-0.00911259 -0.140046 0.0268257
-0.211118 0.0190295 0.438531
-0.0422228 0.205512 0.700255
0.0893776 -0.0519261 0.403897
-0.215244 0.147207 0.4301
0.173665 0.166788 0.421156
0.276222 0.010866 0.0158533
0.287119 0.0186139 0.00485017
-0.214821 -0.00622642 0.0105789
0.0681218 0.200447 0.681664
-0.0160285 -0.187813 0.0229884
0.00780325 0.0175339 0.176153
-0.0616523 -0.00543853 0.0331207
-0.126137 -0.00906137 0.00808015
-0.207866 -0.111886 0.448595
-0.00837792 0.223957 0.016314
0.0874208 -0.093522 0.412383
0.00994189 0.108069 0.029399
-0.236494 0.0126278 0.0215019
-0.0107771 -0.0246207 0.361291
-0.0100097 -0.0203064 0.379423
0.0216968 0.0681175 0.032623
-0.0793054 -0.0453022 0.405408
-0.128581 0.192995 0.665372
-0.181574 -0.154132 0.452785
0.108338 -0.0706692 0.419653
-0.00491336 -0.186673 0.0128527
0.00285252 0.0489424 0.023932
-0.212834 -0.182605 0.455215
-0.132061 -0.160538 0.453222
0.170039 0.255862 0.741231
-0.00844658 0.228847 0.743816
-0.0336663 0.0146854 0.400087
-0.129368 -0.207646 0.455381
0.267801 0.161468 0.612761
0.214306 0.0245946 0.0217137
-0.193408 0.165257 0.443895
-0.155763 -0.108471 0.449916
-0.0194236 0.178222 0.0261636
-0.0441695 0.189752 0.650358
-0.0962698 -0.0356821 0.445353
-0.118585 0.0723511 0.403767
-0.00784869 0.0175543 0.178228
-0.288803 0.0108412 0.014859
0.0141777 -0.012841 0.0377095
-0.21186 -0.146524 0.454223
0.186326 0.00837065 0.0255208
0.0346174 0.0394408 0.438572
0.0719121 0.00606557 0.441698
-0.00781557 0.208079 0.413284
0.0133541 0.00206862 0.353943
0.254029 0.153374 0.613642
0.00603886 0.233233 0.0193259
-0.0108455 0.01875 0.0261909
-0.00747049 -0.182479 0.00584235
0.206547 0.148147 0.427356
0.131485 -0.00835158 0.0157579
0.00314083 0.199296 0.431606
0.0128013 -0.0145162 0.195398
-0.0310914 -0.175705 0.454247
0.0535704 0.0077086 0.0109717
0.016571 0.125086 0.0304684
0.0200295 0.263776 0.0137838
-0.000326237 -0.00229979 0.0343391
0.0790917 -0.0061783 0.0341603
-0.136069 0.0951071 0.433256
0.00729448 -0.182253 0.0258494
0.0322725 0.0175933 0.400218
-0.0790902 -0.00253782 0.021502
0.185402 0.101788 0.432943
0.195267 -0.0506528 0.43989
0.0156662 -0.249253 0.422048
-0.0190058 -0.311372 0.0130501
-0.0993403 0.0158411 0.0301061
0.184799 -0.241216 0.433745
-0.196173 -0.0547245 0.446764
-0.216252 0.00127454 0.0231211
0.0497587 -0.0130632 0.0340929
0.197051 -0.159196 0.437367
0.0965303 -0.226602 0.449737
0.227615 0.158843 0.412857
-0.090099 0.000808585 0.0308372
-0.194391 -0.0037127 0.442391
-0.00780103 -0.184915 0.0130197
0.235196 -0.00547663 0.0216004
-0.198133 -0.171297 0.436475
0.176043 -0.152468 0.437619
0.0582899 0.0789536 0.434936
0.309833 0.0197039 -5.04822e-18
0.00929663 0.0393463 0.0153137
-0.0319563 0.069775 0.4357
-0.106488 -0.0708547 0.418712
0.132853 -0.186585 0.455041
0.0783376 0.204488 0.693469
-0.0168994 0.00870683 0.404018
0.264949 0.0663716 0.624141
-0.0816249 0.00565717 0.031523
0.276822 0.0255061 0.0122752
0.238743 0.162299 0.413584
-0.021019 -0.129256 0.0277036
0.263578 0.0352122 0.628236
-0.219374 0.119382 0.413168
-0.010206 0.00905614 0.441343
-0.216612 0.200527 0.694651
0.170635 0.023306 0.0145051
0.155838 0.11484 0.406098
-0.209177 0.241195 0.751568
0.141594 0.176319 0.420741
-0.00548211 0.116115 0.00848086
0.0845056 -0.0176989 0.0313012
0.0708443 0.167182 0.539431
-0.0137744 0.257653 0.0173448
0.237911 0.0160548 0.0213642
0.0308425 -0.241939 0.434947
0.107655 -0.0958915 0.449292
-0.108107 -0.0149185 0.0293754
0.0379963 -0.0627469 0.447151
0.0628746 -0.142428 0.452204
0.185925 -0.248371 0.4109
-0.00576008 0.265961 0.0129368
0.146737 -0.0211533 0.0227576
0.0581095 0.175632 0.589486
0.101146 0.270978 0.746358
0.205892 -0.0994279 0.450666
0.0353123 0.0451717 0.400196
-0.00112071 -0.0191809 0.220813
-0.105806 -0.244458 0.430815
0.0772064 0.0430506 0.38218
-0.0709815 0.229833 0.745118
-0.0232656 0.136621 0.0284981
0.208404 0.113492 0.415211
0.123805 0.184006 0.435019
0.202508 0.000911199 0.443153
-0.0121431 0.080243 0.43475
-0.074124 0.0294009 0.439398
-0.0943 0.0166614 0.0202942
-0.0889823 -0.237308 0.430558
-0.157179 -0.242086 0.432455
-0.117227 0.195515 0.43256
-0.136672 0.109462 0.39543
0.00489313 -0.0123592 0.359908
-0.00800286 0.275558 0.756639
-0.00789196 -0.176059 0.0159055
0.0224718 0.269018 0.755416
0.209905 0.0577704 0.438697
0.250221 0.0215567 0.0179364
0.195774 0.0216603 0.440173
0.00537155 0.118802 0.00837829
0.0796057 0.00611522 0.0316758
0.0981981 0.275949 0.74788
0.267785 0.0228279 0.00630404
0.221931 -0.0027992 0.0164863
0.0224513 -0.0555142 0.0256265
-0.192049 0.262889 0.748145
-0.269578 0.141238 0.627918
-0.0474103 0.00614728 0.0342761
0.00707191 -0.0180144 0.109887
0.000787172 0.298968 0.00381471
0.15831 0.0154171 0.025336
-0.1928 -0.187214 0.454799
-0.216971 0.063156 0.418637
0.10596 -0.00861367 0.0191771
-0.0900857 0.0407232 0.394344
-0.0243635 0.114781 0.0282786
0.0168634 -0.00957226 0.0853653
0.195585 -0.00367127 0.00531868
0.0632261 0.196712 0.411858
0.0923937 0.0222989 0.0306335
0.0128233 0.126205 0.0177242
-0.206165 0.0161426 0.0239449
0.00657131 -0.0239386 0.0261909
0.17255 0.251656 0.751734
0.046281 0.0163565 0.0314639
0.0519667 0.190964 0.65124
-0.093065 0.0717031 0.435463
-0.167484 0.184158 0.633293
-0.131267 0.00835277 0.0229888
-0.0223957 0.214719 0.0105737
-0.0124265 -0.00495024 0.333862
0.00827001 -0.108951 0.0190949
-0.27113 0.0870733 0.621117
0.114963 -0.147411 0.452553
0.219334 0.0744073 0.417471
0.269496 0.0900917 0.633157
0.207291 0.148679 0.415174
-0.00839266 0.25081 0.0203327
-0.209582 0.00754846 0.00764589
-0.0148838 0.26511 0.749399
0.0129332 0.19285 0.660261
-0.000930212 0.0134322 0.302784
-0.0148454 0.0205912 0.44027
-0.0367107 -0.00526234 0.387354
-0.107458 0.178595 0.608918
-0.242941 -0.0121967 0.0103259
-0.194382 0.202549 0.664331
-0.0106868 0.0960721 0.0211807
-0.191928 0.114096 0.431444
-0.19507 0.059186 0.436481
0.193006 0.235482 0.735167
0.0465578 -0.0136384 0.0306843
0.00859389 0.107839 0.0251003
0.157039 -0.0033476 0.0278868
0.067896 -0.24676 0.410374
-0.117387 -0.029924 0.44485
-0.0995424 0.173035 0.583781
-0.00706774 -0.243465 0.0209364
0.180239 -0.0405322 0.445839
0.0779934 0.139551 0.429408
-0.101596 0.0875033 0.393503
0.261551 0.020861 0.00680723
0.0183718 0.115635 0.0185791
-0.0216841 -0.0684515 0.0275058
0.214562 0.196856 0.671284
0.222659 0.175516 0.455062
-0.30094 -0.0142507 0.0138619
-0.0754913 0.0657593 0.436031
-0.215346 0.0548657 0.436328
-0.192639 -0.145897 0.45227
0.0213643 0.0898936 0.0318688
0.223146 0.221566 0.720283
0.23504 0.180067 0.497781
0.196963 -0.205859 0.450654
0.209475 -0.00837793 0.441623
0.282035 0.160105 0.619313
0.0456803 0.181124 0.612688
-0.00572518 -0.306495 0.00321329
0.181762 0.000811934 0.442289
-0.225508 -0.0533105 0.439245
-0.0191069 1.08406e-05 0.151628
-0.142804 -0.249066 0.410054
-0.243774 -0.0246547 0.0120185
0.268249 0.0186772 0.630596
-0.0656656 0.092309 0.433582
-0.0761487 -0.000175726 0.0217406
-0.127743 0.0812823 0.434544
-0.10869 0.129935 0.430087
0.138028 0.0230639 0.0176565
0.0168203 0.122367 0.0180363
0.0565134 0.206493 0.418633
-0.0422013 -0.160917 0.453305
-0.111302 -0.190645 0.455139
-0.0726311 -0.0845017 0.409387
-0.0291421 -0.0224714 0.0367643
0.226063 0.204495 0.669105
0.00104059 -0.0343084 0.378781
0.258231 0.0628531 0.635626
-0.0723228 0.263615 0.753668
0.212313 -0.235878 0.418279
0.0647866 0.173402 0.576077
-0.232437 0.195334 0.618697
-0.207606 0.124655 0.406347
0.00235824 -0.159267 0.0215236
-0.180781 0.181045 0.621555
0.182285 0.117362 0.431498
-0.0137689 0.225987 0.0223254
0.221919 0.222595 0.727903
-0.1988 -0.227254 0.434841
-0.0194181 -0.0317356 0.38362
-0.108147 0.0953758 0.433257
0.0449201 0.0236544 0.0343391
-0.00104083 0.0192421 0.0421713
0.0998229 -0.15416 0.45297
-0.205487 0.174912 0.579149
0.155026 -0.0682553 0.447575
0.280418 -0.00626201 0.0102813
-0.0105607 0.12381 0.0281157
0.118496 0.174519 0.579375
0.213958 0.181073 0.607769
-0.193157 0.135252 0.429541
-0.213884 0.184695 0.575714
-0.238376 0.177307 0.558832
0.0085203 -0.120806 0.0246128
-0.1866 -0.145522 0.43621
0.00449837 -0.0120882 0.0261909
0.0196026 -0.262555 0.00672745
0.0254332 -0.319411 0.00679553
0.196662 -0.0287405 0.445275
-0.103134 0.205581 0.702342
-0.217431 -0.191668 0.436364
-0.270675 -0.00946802 0.00232179
0.0657174 0.204723 0.416159
-0.0150229 -0.0573952 0.023262
0.0530461 0.0222904 0.0250585
-0.05301 0.203378 0.694188
-0.230781 0.151623 0.455698
0.0155338 -0.0111905 0.199273
-0.183427 0.178402 0.611234
-0.136851 0.226829 0.743256
-0.0124983 0.0254385 0.0367643
0.0160041 -0.285723 0.00485017
-0.00173595 -0.0854582 0.0261909
0.00676156 -0.0723188 0.0261909
-0.22365 0.218466 0.702428
0.16 0.129019 0.395804
0.183701 -0.0457078 0.446169
0.00518681 0.190106 0.0125768
-0.0137918 0.216157 0.729786
-0.0894207 -0.0204184 0.0206561
0.00375115 -0.310859 0.00485017
-0.0143662 0.0317156 0.0343391
0.00885328 -0.0525044 0.0362869
-0.00251997 -0.120915 0.0283594
0.0650192 -0.236576 0.431916
-0.00354703 0.243645 0.0147341
0.216826 -0.143008 0.434401
0.0793743 0.053912 0.387933
0.0419295 0.179803 0.607629
0.0277894 0.0175821 0.399269
0.151479 -0.143603 0.452336
-0.256493 0.169268 0.610459
-0.135962 0.109018 0.39365
-0.206248 0.176331 0.541964
-0.0245106 0.213925 0.724947
-0.22274 0.175363 0.610115
0.196043 -0.172226 0.442933
0.187302 0.0398086 0.438683
0.0362331 0.0100727 0.0236008
-0.102884 -0.0982578 0.41077
-0.0915223 0.268797 0.755397
-0.0501832 0.268342 0.755362
0.162521 0.187143 0.631692
0.00679476 -0.0651865 0.0328353
0.0114287 0.209795 0.71145
-0.21572 0.146009 0.42743
-0.227406 0.205003 0.654985
0.0108223 -0.109122 0.02514
-0.0117251 0.100305 0.0324387
0.00660412 0.00470955 0.0116404
-0.00483217 -0.166066 0.0247287
-0.0320504 -0.050408 0.404043
0.205262 0.196779 0.654357
0.137522 -0.105597 0.449924
-0.0490404 -0.111341 0.450166
-0.0770268 -0.248941 0.424998
0.131517 -0.137087 0.451911
-0.0326614 0.0248528 0.381735
0.0151474 -0.1207 0.030795
0.187199 0.224107 0.722242
-0.209448 0.208757 0.677578
0.0157343 -0.235382 0.443256
0.197242 0.207252 0.693687
0.0197216 0.247532 0.0192092
-0.0678738 0.0143242 0.0326365
0.00465947 -0.0118612 0.0343391
0.00848762 0.118137 0.0186419
-0.016326 -0.0346629 0.390547
-0.270001 -0.00062336 0.0163623
0.225664 0.0112512 0.0199206
-0.206203 0.105595 0.431103
0.00813667 0.196523 0.671739
0.220889 0.173954 0.467456
-0.280022 0.137603 0.626733
0.12366 -0.240307 0.421922
0.0139543 -0.198123 0.0221341
0.0108249 -0.10942 0.0227972
0.114233 0.183614 0.619731
0.0229131 -0.0344117 0.0353058
-0.186934 0.149163 0.42832
-0.159346 0.212855 0.725891
0.0568693 0.272166 0.755821
-0.182252 0.190042 0.657099
0.0156174 0.0111382 0.262587
0.160805 -0.138011 0.424086
-0.0723567 -0.00668683 0.0346914
0.0355314 -0.042798 0.445889
0.0171802 0.172129 0.571504
0.19083 -0.175245 0.454362
0.212474 0.0142055 0.442946
-0.209271 -0.137211 0.434485
-0.222771 0.215455 0.730849
0.139263 0.0016661 0.0293127
-0.273722 0.0630294 0.624378
0.230084 -0.247873 0.413809
0.135606 0.138258 0.429574
0.296314 -0.00885844 0.00485017
0.260311 0.11954 0.630398
0.0999673 0.194439 0.43962
-0.0159298 -0.10426 0.44974
-0.143789 0.0202398 0.0265337
0.0224376 0.0469212 0.032263
0.0322002 0.184536 0.62669
-0.0444818 0.175615 0.594612
-0.0964351 0.020999 0.0303441
-0.168412 -0.135143 0.451593
-0.11986 -0.00195959 0.0284405
-0.00591327 0.0131737 0.0367643
0.211116 -0.123519 0.451162
-0.272244 0.0176819 0.630074
-0.224637 0.198133 0.684641
-0.198047 -0.0654761 0.446699
0.0233714 -0.293889 -6.73095e-18
0.0618454 0.032507 0.380078
-0.205404 -0.117877 0.449216
0.277733 -0.00692991 0.634939
-0.225736 0.160553 0.521168
0.0867838 -0.0168798 0.0335503
-0.208391 0.207742 0.702903
0.0116404 0.164689 0.0248451
-0.0019169 -0.0190491 0.0797862
0.0295531 -0.192531 0.45535
0.013663 0.144585 0.428905
0.25606 -0.0155859 0.0199302
-0.025151 0.314855 0.00497161
-0.00832109 0.180065 0.610698
0.0131692 -0.159498 0.0252423
-0.177175 -0.215811 0.454479
-0.00410158 0.145473 0.0263781
-0.0025606 -0.159922 0.453268
-0.0132497 -0.307744 0.0133372
0.159665 0.226042 0.740191
-0.10619 0.19231 0.412016
-0.199821 0.098914 0.433323
0.195352 -0.043981 0.441156
0.207436 0.256382 0.752609
0.213574 0.137392 0.430096
0.0209232 0.093398 0.0226207
-0.0665305 0.0399167 0.385852
0.0792109 -0.248594 0.422063
0.308567 -0.0100776 0.0157014
-0.00796754 -0.242708 0.434428
-0.080014 -0.0459682 0.40454
0.00463786 -0.125511 0.0279837
0.159588 0.0921416 0.433811
-0.0166931 -0.00988217 0.15665
-0.147133 -0.147094 0.421962
0.012236 0.00821245 0.0343391
-0.066302 -0.00516693 0.442606
0.102831 0.0116701 0.441208
-0.00920829 0.0622327 0.0261909
-0.00510972 0.179236 0.0236609
-0.0750185 0.195801 0.438155
-0.203356 0.180323 0.606322
-0.0446538 -0.0156008 0.0343391
-0.127297 0.219601 0.736125
-0.0515406 0.0320455 0.400454
-0.044635 -0.0101593 0.017524
-0.224054 -0.150912 0.447911
-0.00428027 0.0369724 0.383544
0.198199 -0.0261247 0.428129
0.201681 0.176415 0.565418
0.00185992 0.143254 0.0289945
-0.200833 -0.252037 0.410017
0.00234131 0.303355 -6.73095e-18
-0.123989 -0.0152042 0.443481
0.0063106 -0.0870963 0.0310729
0.0175114 -0.00779332 0.11897
-0.0798409 -0.202765 0.455895
0.161241 0.166626 0.530774
-0.0175196 0.251655 0.00760607
-0.111134 0.0934742 0.395898
0.126326 0.216499 0.728021
-0.0713838 0.0980163 0.433048
0.0534649 -0.00180908 0.0362184
-0.135914 0.0262163 0.439634
-0.121052 0.0657287 0.387743
0.212828 0.121782 0.429833
-0.00682772 -0.312759 0.0129284
-0.114178 0.0823434 0.393015
0.079424 0.271467 0.755584
-0.0045727 0.011168 0.383242
-0.00276967 0.208098 0.412967
-0.215143 -0.0585903 0.447511
0.227717 -0.159421 0.43543
0.0131886 0.164159 0.0248891
-0.0749929 -0.0412483 0.407662
-0.100158 -0.107628 0.42103
0.0718788 -0.0447178 0.392275
0.112154 0.00827309 0.00863758
0.0136744 0.0361819 0.0367643
0.0845162 0.202398 0.425003
0.128465 -0.0952502 0.411805
-0.219688 0.0764425 0.417035
-0.0258649 0.263827 0.0161182
-0.201093 -0.0722029 0.446811
0.00931003 0.00162336 0.351637
0.158817 -0.0582032 0.446942
-0.248515 -0.0122539 0.00750642
0.0197409 0.00685106 0.398729
-0.00738763 0.171022 0.0205737
0.00917687 0.00709643 0.390191
0.160458 0.176931 0.590928
0.104406 -0.242679 0.430435
0.127046 0.005912 0.0278592
0.0394976 0.0134972 0.399583
-0.161662 0.101258 0.405955
-0.25495 0.0453704 0.635961
-0.091203 0.074669 0.385571
-0.115466 0.0899835 0.404082
0.0342944 -0.0381832 0.445596
-0.229895 0.157847 0.411767
0.220074 0.157405 0.443013
0.221582 -0.000160623 0.0100403
0.00181751 0.302342 0.0137624
-0.0445784 -0.250739 0.413593
0.0726677 -0.247066 0.409576
-0.204659 0.215657 0.731456
-0.285415 0.0049914 0.0175596
0.156849 0.00759839 0.00685728
-0.0313325 0.043514 0.385025
0.00693575 0.269277 0.0081444
-0.00707664 -0.0261301 0.362326
-0.00552703 0.0154293 0.0343391
0.0256984 0.00790233 0.361799
0.169534 0.129354 0.406931
0.322074 0.00368241 0.0121703
-0.11783 -0.21095 0.454979
-0.085073 0.201499 0.428163
0.18484 0.176513 0.415883
-0.219345 0.238045 0.736942
0.204556 0.00337451 0.441011
-0.198649 0.196418 0.663616
-0.000909006 0.0247224 0.0343391
-0.140504 0.0924548 0.405017
0.00451222 0.0186189 0.0465647
0.232089 0.180302 0.63461
0.197863 0.108609 0.431825
0.00450012 0.150592 0.428367
0.138272 -0.00828196 0.00961739
-0.0679505 0.197302 0.676422
0.020194 -0.00172483 0.0241539
-0.196731 -0.00600358 0.0222526
-0.154225 -0.176372 0.454209
-0.0359269 -0.0536648 0.395546
0.203971 0.129213 0.409154
0.225506 -0.120307 0.431974
0.230251 -0.00294244 0.0195633
0.00911656 0.0568839 0.022629
0.0917989 0.261973 0.747259
-0.219373 -0.0216796 0.426021
0.0778525 0.195182 0.665568
0.193309 0.210287 0.671303
-0.15076 -0.247866 0.429258
0.200413 -0.00764357 0.0180745
0.20191 -0.0292774 0.444332
-0.216139 -0.196505 0.454578
-0.277835 0.146194 0.626688
-0.0734539 -0.0749887 0.401209
0.149673 -0.0246433 0.444615
0.275478 -0.0202361 0.0147059
-0.00880635 0.201139 0.00509226
0.115851 -0.110208 0.450202
0.00120171 -0.0462973 0.0280009
0.159281 0.0080192 0.025264
0.152629 0.187268 0.437669
0.204057 0.213034 0.678151
-0.0210564 0.0180761 0.380222
0.0576373 0.274693 0.756278
-0.0655916 0.213977 0.726367
-0.0954667 0.0268452 0.439615
0.198983 0.167277 0.444142
-0.194329 -0.252554 0.414652
0.324656 0.0105069 0.0119569
-0.223226 -0.127839 0.432322
-0.0103445 0.0627372 0.0206083
0.0309231 0.0393833 0.377684
-0.157039 -0.1552 0.432394
0.191406 0.119037 0.398645
0.169636 0.197507 0.669718
-0.00732438 0.280279 0.00786839
-0.154287 -0.132191 0.451416
-0.114075 -0.112238 0.423652
-0.113243 0.196039 0.42812
-0.253065 0.100382 0.630054
-0.0198584 -0.30595 0.0118848
0.12873 0.204981 0.693397
0.204095 0.192029 0.595453
0.169321 -0.117832 0.450718
-0.144084 0.220266 0.737276
0.0991946 -0.239228 0.432417
0.107557 -0.0986346 0.449465
0.235659 0.179859 0.539638
-0.0601821 -0.00591994 0.0261909
0.132166 0.193224 0.435177
0.271428 -0.019169 0.00871865
-0.233613 0.155492 0.486013
-0.0193586 0.300823 0.00485017
0.215438 -0.00776652 0.443808
0.0111731 0.203353 0.024167
0.0201926 -0.167171 0.0246192
-0.0628679 0.169382 0.560275
-0.240897 -0.0141115 0.0186927
-0.0116884 -0.00561414 0.0343391
-0.0964206 -0.00573124 0.0261909
-0.195148 -0.00388501 0.0223818
0.0252849 -0.0117693 0.382039
0.0166008 0.00576949 0.274422
0.212894 -0.221313 0.436197
-0.211675 0.172947 0.520536
0.214556 -0.120778 0.451483
0.205579 -0.244157 0.40873
-0.230776 0.169352 0.576208
0.0317858 -0.0301492 0.386312
-0.0286644 -0.017738 0.0367643
0.125916 0.010994 0.011913
-0.28005 -0.0124908 0.641152
-0.00332562 -0.00443321 0.0343391
-0.2104 -0.130411 0.453043
-0.0747408 0.0472628 0.387083
-0.273517 0.0645235 0.624187
-0.13085 -0.00607947 0.44263
0.0190918 0.00157145 0.151084
0.293455 0.0249557 0.00683322
0.309452 0.00178969 0.0131874
0.0184365 0.102689 0.0196208
-0.0451257 -0.00776679 0.0261909
0.104682 0.0927843 0.397738
0.00397126 -0.120397 0.0181776
-0.185506 0.175057 0.418718
0.12062 0.186576 0.412877
-0.0197231 0.125801 0.0177297
0.201232 0.210512 0.670199
-0.0248365 0.172423 0.0229635
0.217747 0.177397 0.597449
-0.172416 -0.199855 0.455682
-0.174378 0.133069 0.399783
0.18286 0.231052 0.744107
-0.0218122 0.231625 0.746147
-0.0666492 -0.0450631 0.410251
0.0317733 3.7137e-05 0.396201
0.137151 -0.246246 0.426154
-0.19292 -0.182138 0.439811
0.00981082 -0.210544 0.0235711
0.231615 0.0123556 0.0218739
0.106232 0.015362 0.44087
-0.224634 -0.166739 0.435762
0.195878 -0.137901 0.442425
-0.26647 -0.00689678 0.0166412
0.103437 0.165737 0.529047
-0.0875441 -0.121102 0.450758
-0.286704 0.00189924 0.0174534
-0.0969438 0.0456398 0.401434
-0.0852634 0.000107985 0.0312257
0.284289 0.00137191 0.0152121
-0.228004 0.186011 0.642166
0.0697452 -0.0136925 0.0324854
-0.244069 0.16529 0.437294
-0.237745 0.00725912 0.00863882
0.075678 -0.0590235 0.399198
0.00754772 0.0176779 0.119119
0.319004 0.0119885 0.00485017
0.0200819 -0.264647 0.016777
-0.0180598 0.00623384 0.143503
-0.0752226 -0.185949 0.454866
0.0653518 0.0920496 0.43373
0.0611335 -0.0439356 0.409462
0.125932 0.11912 0.431281
-0.100169 0.057553 0.38526
0.196131 0.167133 0.528985
-0.123545 -0.123009 0.450856
0.0122265 0.19863 0.43103
-0.260433 0.0403634 0.637378
-0.13428 0.212651 0.724508
0.160678 0.188501 0.637124
0.124326 0.171933 0.563941
-0.210519 0.180327 0.608172
-0.0122988 0.0273038 0.403893
0.270673 0.0124811 0.00447835
-0.0461218 0.267018 0.754998
-0.000216575 -0.272074 0.00227004
0.182525 0.112391 0.398242
0.258356 -0.00864985 0.0173069
-0.203359 0.0262643 0.440477
0.210117 0.0446809 0.421574
0.0114172 -0.167118 0.0168072
0.157545 -0.137296 0.427027
-0.204635 -0.1907 0.454668
0.0192949 -0.0166689 0.401256
-0.234897 0.182934 0.606437
0.215376 -0.188636 0.455891
-0.196031 -0.143642 0.452462
0.0146834 0.00213289 0.274422
-0.0261383 0.279793 0.0154557
-0.0599662 0.231495 0.746357
0.202962 -0.111927 0.449586
0.0991787 0.0738884 0.391071
-0.202131 0.240244 0.739546
-0.215203 0.238372 0.750728
-0.266689 0.129352 0.629246
0.0232719 -0.0425461 0.0343391
0.0968826 0.0283613 0.439657
0.0781927 0.167861 0.542953
-0.168977 -0.120276 0.450653
-0.104167 -0.0233527 0.0240004
-0.0160386 -0.0475289 0.446154
0.0464094 0.0156197 0.0344722
-0.0279294 -0.231479 0.447124
-0.178182 -0.238636 0.442133
-0.201798 -0.0672326 0.446186
-0.258065 0.0481521 0.626158
-0.0847022 -0.244368 0.418721
0.134336 -0.0924821 0.424144
0.178072 0.211112 0.71027
0.131495 0.175613 0.584979
0.0115612 0.200259 0.68284
-0.195272 -0.210057 0.438744
0.121489 0.0109485 0.0144468
0.0287534 0.199877 0.411584
0.0157211 0.199132 0.433626
0.00365659 -0.0187536 0.12347
-0.199122 0.198248 0.674135
-0.0534574 -0.00615351 0.0235613
-0.0123966 0.262598 0.00407569
0.205889 -0.17858 0.437132
-0.199654 0.133111 0.414922
-0.198042 -0.0104417 0.005215
0.175767 -0.110677 0.45027
0.030537 -0.070093 0.447611
-0.0239444 -0.00126459 0.0343391
0.00360353 -0.214238 0.454446
-0.00576151 0.105685 0.0193597
-0.123091 0.0217152 0.0264787
0.0551655 -0.00902648 0.0234365
0.226243 -0.187529 0.435869
0.174275 -0.0154024 0.0240771
0.0121408 -0.0773896 0.0318491
-0.197084 0.0321973 0.422353
-0.137551 0.104379 0.391801
-0.0190027 -0.130273 0.0276201
0.139033 -0.105147 0.449897
0.0954638 -0.127791 0.4513
0.231033 0.17982 0.472426
0.195874 0.180637 0.561973
-0.142734 0.184396 0.413718
-0.242393 0.156327 0.45429
0.0221377 0.125324 0.430612
-0.253346 0.00709884 0.00888457
0.223038 -0.164854 0.450588
-0.0250301 0.242486 0.0193002
-0.254241 -0.0136028 0.634789
0.195753 0.225402 0.721338
0.213335 -0.0194471 0.0115818
-0.174505 0.265532 0.753194
0.0483327 -0.224634 0.450857
-0.087291 -0.060152 0.41512
-0.311116 -0.0252048 0.00579547
0.156488 0.0944881 0.433591
-0.16272 -0.241088 0.425522
-0.008331 0.017166 0.0241539
0.15468 -0.0508344 0.446474
-0.0403923 -0.00872311 0.389655
0.00180517 0.0458362 0.437949
