0.165791 -0.2193 0.403321
0.00436275 -0.0211322 0.0881199
-0.309064 -0.0720182 0.0217304
-0.192004 0.274573 0.0703565
0.227709 0.190115 0.610589
-0.264652 0.13317 0.601214
0.14889 0.198362 0.61328
0.162577 0.258412 0.00352696
0.01115 0.0145391 0.153913
0.214298 0.194579 0.504601
-0.0211389 0.0272151 0.234446
-0.00770512 0.0199038 0.421764
-0.0159799 -0.142119 0.0674109
0.0783279 0.206312 0.641529
0.202007 0.213325 0.603423
0.0142242 0.285208 0.714425
0.0362776 0.175791 0.50463
-0.20487 0.0718427 0.40103
0.0097065 0.00791949 0.385432
-0.107187 0.207738 0.408172
0.0692879 0.107647 0.0981768
0.00803231 -0.310783 0.0403502
0.151557 0.302768 0.00911056
-0.0993409 0.192713 0.591269
-0.242683 0.0346396 0.605198
0.209791 -0.130522 0.427284
0.0812259 -0.183928 0.433839
-0.00858398 0.0771204 0.416469
-0.0231696 -0.2088 0.412203
0.0309077 0.0571516 0.104324
-0.191203 0.0137221 0.409171
0.0718501 -0.0252819 0.389604
-0.0796349 0.232216 0.705996
0.112631 -0.0628111 0.401595
-0.120221 0.0878566 0.370168
-0.00596084 0.0361287 0.116088
-0.141308 0.165272 0.408426
-0.060783 0.044778 0.41946
-0.133782 -0.058893 0.427706
0.0551676 0.0206444 0.421697
-0.074381 0.288233 0.716753
-0.1532 0.214004 0.664817
-0.0676744 0.0876797 0.41549
-0.201528 0.188996 0.557831
0.211551 0.165396 0.428405
-0.185124 0.156217 0.381927
-0.015275 -0.0876818 0.0981046
0.0626057 0.130164 0.0629556
-0.134938 -0.0341561 0.0864262
-0.180356 -0.0273104 0.425709
-0.261466 -0.0753121 0.0680886
-0.00324622 0.217365 0.674757
0.0588093 0.0559155 0.382739
-0.0846911 0.144343 0.0766963
0.272252 -0.0759553 0.0121934
-0.0383966 0.062364 0.377824
-0.0295404 0.00752154 0.347313
0.266424 0.113447 0.596336
-0.0920186 -0.201733 0.42707
0.169022 -0.0274938 0.0688659
0.0316985 -0.278357 0.0346786
0.139097 0.236653 0.709492
-0.178303 -0.190605 0.432841
0.157188 -0.137067 0.414518
0.119274 -0.0182273 0.0969391
0.12859 -0.101351 0.430396
0.242427 0.0433502 0.609858
0.00920659 0.0145439 0.0530247
0.0759521 -0.0216647 0.425357
0.11498 0.217072 0.673776
0.132709 0.226715 0.0744611
-0.0441255 0.0538832 0.0934961
0.177617 -0.163271 0.434311
0.170703 0.156426 0.409216
0.157205 0.0123393 0.422469
0.0017684 0.206262 0.399653
-0.0163217 -0.030729 0.425928
0.00443231 -0.258949 0.0637418
-0.0803188 -0.0252798 0.375515
0.166661 0.245451 0.0352843
0.072105 0.00119316 0.101784
-0.138725 0.0359333 0.420277
0.293772 -0.0787269 0.0798624
0.206866 0.0368912 0.402608
-0.181281 0.186339 0.422667
-0.00669149 -0.0182639 0.367282
0.167756 0.188217 0.573254
-0.119093 -0.149192 0.433415
0.0114981 0.0158674 0.209125
-0.178663 0.221707 0.687943
0.0644236 0.217244 0.67434
-0.310338 -0.10449 0.0532843
-0.0119694 0.00207273 0.17733
0.124984 -0.0141693 0.424884
-0.00422434 0.00123707 0.217085
0.12426 -0.000510327 0.361972
0.0944925 0.0419695 0.419725
-0.17539 0.266861 0.0288597
0.00437549 -0.0647024 0.0657057
-0.0521039 -0.00721268 0.085421
-0.274404 0.0922382 0.603242
0.11063 0.126528 0.4119
0.0441608 0.119083 0.412587
-0.0050744 0.0220807 0.361873
-0.0663833 0.176445 0.508625
-0.0596051 0.213038 0.417119
0.207776 0.23068 0.685821
-0.227461 0.172266 0.485117
-0.130932 0.181741 0.539616
-0.0107919 -0.205092 0.0880519
-0.0337303 0.204478 0.636122
-0.0568375 0.106029 0.0702526
0.212061 0.193076 0.486604
0.164886 0.3016 0.0426892
0.120662 0.203054 0.631718
0.105429 0.15807 0.0923737
0.0526068 -0.0447162 0.393043
0.199282 0.202939 0.635206
0.31787 -0.0385561 0.0218114
-0.0223687 0.0161525 0.385432
-0.276118 0.0556638 0.602468
-0.00665469 0.00572309 0.271118
-0.013081 -0.280077 0.0358675
-0.201204 0.236416 0.0524538
-0.251295 0.157979 0.586064
-0.201995 -0.132796 0.415838
-0.162243 0.201126 0.624554
-0.0638297 -0.142158 0.432972
0.0437617 0.19739 0.609562
-0.213588 0.258659 0.00791208
0.181259 0.0950626 0.414997
0.203123 -0.0358054 0.409139
-0.134888 -0.0127031 0.0677794
0.0193643 -0.197151 0.429843
-0.18643 0.147601 0.409986
-0.0215376 0.237958 0.710572
-0.0193887 0.0122222 0.106118
-0.0159449 -0.266399 0.0652745
0.0606406 -0.21152 0.416729
-0.0364534 0.183908 0.552105
-0.101416 0.0189903 0.421846
-0.125048 0.197793 0.611347
0.0141189 0.183073 0.547148
-0.0979859 -0.0743607 0.428685
0.182897 0.280243 0.00655455
0.00754896 0.109776 0.413447
0.250096 0.178815 0.585969
-0.00587795 0.195701 0.602954
0.177398 0.180871 0.42408
0.107258 0.165134 0.408445
-0.0706559 0.202883 0.631365
0.0607675 -0.157226 0.433927
0.0753998 0.0847185 0.415768
0.0997559 0.175363 0.502019
0.0832687 0.183409 0.54899
0.0425071 -0.00168435 0.104381
0.00353616 -0.143032 0.433028
-0.170823 -0.138765 0.413535
0.229919 0.134234 0.592042
-0.0936757 0.216274 0.671572
-0.013473 0.0320542 0.0689879
0.0842728 -0.082685 0.429215
-0.00451318 -0.111713 0.0969473
0.112683 0.164437 0.0722048
0.164147 -0.125189 0.431903
0.173089 0.24763 0.0576487
-0.111497 -0.0854638 0.403415
0.140814 0.203181 0.0722727
-0.228942 0.197225 0.544089
-0.140005 0.121559 0.412353
-0.232306 0.18776 0.578883
-0.152064 -0.0430523 0.426705
-0.0438529 0.153401 0.409477
-0.177799 -0.146042 0.433215
0.187895 -0.055051 0.0632275
-0.218415 0.201067 0.629092
-0.108787 -0.125787 0.431936
-0.286225 -0.079354 0.0428702
0.113717 -0.101989 0.398349
0.291518 -0.0871138 0.0300117
-0.211603 0.0889538 0.416035
0.12074 0.186465 0.566395
0.216738 0.183152 0.538913
0.0629249 0.095909 0.0654108
0.0279509 0.032054 0.42064
-0.14205 0.223249 0.0791499
0.1713 0.150016 0.389069
0.182835 -0.0735008 0.412437
-0.195981 0.211001 0.616647
0.176698 0.234486 0.708058
-0.0824853 0.199991 0.397031
-0.187136 -0.0844203 0.429319
0.156131 0.0569059 0.418344
-0.0437399 -0.191006 0.432639
-0.169443 -0.0443563 0.0917995
0.127313 0.0931904 0.381457
0.0641901 0.0864115 0.372911
-0.157446 -0.220311 0.401183
0.0398755 0.0290956 0.377797
-0.0949114 0.0616472 0.366167
0.193675 -0.10286 0.429073
0.0261562 -0.0598785 0.427772
-0.276201 0.0197385 0.607188
0.213174 0.173837 0.501506
0.124841 0.199509 0.419656
0.117484 0.088282 0.415439
-0.221266 0.167367 0.436239
-0.0337447 0.0393081 0.0662923
0.0782563 0.00196804 0.075918
0.307989 -0.0813715 0.0415672
-0.175817 0.120044 0.384604
-0.263534 -0.104181 0.0198484
0.262457 -0.0716016 0.0240418
0.120411 -0.178851 0.434436
0.188015 -0.197917 0.413707
0.226854 0.172766 0.41514
0.173446 0.270327 0.712259
-0.216369 0.156488 0.385847
0.120017 0.279894 0.71953
0.00158031 0.0419506 0.338258
-0.228131 -0.0644692 0.0740034
0.00918929 0.0276018 0.224386
0.0686052 0.205109 0.392756
-0.0855331 0.00334863 0.0639443
0.137026 -0.207618 0.42177
-0.0679865 0.188084 0.572979
0.195497 -0.0476036 0.428602
0.0892665 0.166525 0.0909865
0.210617 0.142279 0.39726
-0.0148308 0.0495627 0.0961417
0.229377 -0.0681544 0.0839924
-0.154923 0.262476 0.708118
0.282189 -0.0528209 0.0406435
-0.130036 0.19111 0.395573
-0.156511 0.0807916 0.416125
0.1407 0.175537 0.502963
-0.28324 -0.0609545 0.0646797
0.0607142 0.155742 0.409273
0.198176 -0.220588 0.392577
-0.244161 0.124455 0.599711
0.150342 0.270938 0.0446119
0.206788 0.183395 0.450022
-0.0802213 0.125369 0.0969601
0.0655673 -0.0153451 0.0635932
-0.203765 0.281835 0.0394595
-0.218278 0.190005 0.589748
-0.00841066 -0.11604 0.431322
-0.0428262 -0.0774924 0.428884
-0.222245 0.0394392 0.407918
-0.220117 0.235242 0.0227966
-0.216971 0.00235593 0.420622
-0.155606 -0.111371 0.404114
0.264004 0.0284183 0.608215
0.0107621 0.0236215 0.118673
0.182087 0.182429 0.541707
0.127211 -0.0353537 0.0683131
-0.0617138 0.210921 0.655482
0.0277443 -0.102446 0.430463
-0.149396 0.198686 0.0688043
0.215208 0.192896 0.579605
0.141859 -0.0579525 0.427652
-0.191292 -0.0185703 0.413144
-0.0697723 0.0525273 0.363762
0.0160817 0.0351546 0.354024
0.102818 0.194386 0.397147
-0.0742891 -0.0600382 0.385724
-0.029195 0.127007 0.411852
0.0947751 -0.153188 0.433672
-0.0115801 0.0351436 0.150449
-0.0179444 0.0543091 0.41858
-0.0159699 -0.180025 0.0712158
0.0901954 0.133467 0.0871361
-0.0722908 -0.000553792 0.102774
0.0497372 0.184046 0.55276
0.207328 0.183411 0.410611
-0.115199 -0.208228 0.421294
0.00440226 -0.156235 0.060982
-0.154164 0.00618771 0.423029
0.0177984 -0.278358 0.0438966
-0.113252 0.14797 0.409955
-0.203814 -0.11307 0.429858
-0.165771 0.182587 0.544601
-0.213393 -0.161869 0.416568
0.00361834 0.0271601 0.28461
-0.167077 0.257674 0.0694999
0.00301219 0.0415608 0.385432
0.0350092 0.210092 0.392377
0.00438241 -0.23355 0.0835373
0.276671 -0.0297818 0.0387122
0.0880432 -0.0512512 0.388
0.0839837 0.0629553 0.366316
0.252209 0.0918868 0.59441
-0.21016 -0.178782 0.435744
0.206603 -0.152774 0.430424
-0.207207 -0.0362286 0.0847694
-0.0980952 -0.139632 0.432811
0.241664 -0.0510724 0.0672206
-0.10036 0.0837072 0.384453
0.0809329 -0.218133 0.390625
-0.197563 -0.21111 0.417048
0.191875 0.0148182 0.423486
-0.197843 0.190971 0.530714
-0.18928 0.243632 0.703418
0.0378391 0.0613601 0.0750352
-0.110753 -0.178673 0.434465
0.034267 0.00930475 0.363028
0.193311 -0.1199 0.415104
-0.0567522 -0.213125 0.414534
-0.0220266 0.0205105 0.0898172
-0.161425 0.187235 0.394005
0.126889 0.126589 0.378533
-0.186383 0.212368 0.658193
0.197771 0.219284 0.630268
0.02448 -0.164957 0.434415
-0.208579 0.183934 0.491133
0.0500306 0.188656 0.575112
0.0267048 -0.296886 0.0313234
0.000931595 0.00455203 0.0256917
0.143064 0.205918 0.640293
0.040022 0.270798 0.718907
0.142125 0.260879 0.0182962
0.0192408 -0.00120645 0.0809266
-0.258932 -0.0542712 0.0835952
-0.177537 0.243632 0.0389995
-0.0160088 -0.0333222 0.0647698
0.117586 -0.0107981 0.0663535
0.136375 -0.084662 0.408861
-0.00699924 -0.217156 0.392889
-0.181596 0.256723 0.00587452
-0.217403 0.265511 0.0539088
-0.175889 -0.214173 0.413113
0.163533 0.223524 0.693085
-0.312424 -0.0845588 0.0500343
-0.210903 0.0236742 0.421985
0.0350567 0.220457 0.684004
-0.181313 0.0925207 0.415039
0.0851686 0.2161 0.670889
0.0062833 0.00603354 0.123154
-0.193332 -0.166253 0.418382
0.137372 -0.025592 0.0950826
-0.013452 0.280051 0.710064
0.133696 0.147976 0.409961
0.185252 0.118187 0.396748
-0.123406 0.163616 0.0901434
-0.0080282 -0.29782 0.0163121
0.201307 0.156809 0.385278
-0.156158 -0.0410584 0.0631687
-0.0995447 0.164775 0.0645161
-0.0976252 0.268604 0.71116
0.160409 -0.204501 0.424538
0.155397 -0.105692 0.415066
-0.212281 0.214677 0.671003
0.0209401 -0.0162284 0.385955
-0.0629242 0.21784 0.676243
-0.144385 0.176722 0.510378
0.213819 -0.0634654 0.0614302
0.118789 0.20539 0.0873844
0.169467 0.133462 0.411259
-0.0611932 0.0773604 0.0738882
0.202138 0.103806 0.397084
-0.0762075 -0.113529 0.431161
-0.0053423 -0.00680812 0.342112
-0.189411 0.0682904 0.417281
0.183977 0.222985 0.658702
-0.201248 -0.0356721 0.410256
-0.221858 -0.0603388 0.419201
-0.222648 -0.214409 0.398024
-0.295833 -0.112709 0.0344171
-0.202178 -0.112747 0.414686
-0.0158249 0.213194 0.416672
0.176686 0.195674 0.602121
0.260257 0.136296 0.599759
-0.213939 0.158696 0.408761
0.00795082 0.0260242 0.0798853
0.011271 -0.00431075 0.424005
-0.00851115 -0.264468 0.0200013
-0.00286473 -0.0391577 0.103859
-0.126826 -0.0652596 0.400084
-0.0495925 0.238084 0.710679
-0.015992 -0.0967001 0.0815692
-0.0383365 0.0189963 0.421847
-0.154127 0.104164 0.382349
0.194015 -0.191753 0.433862
-0.190719 0.191293 0.584902
0.0298556 -0.271195 0.00573801
0.148643 0.183434 0.419525
-0.180049 -0.0517417 0.427253
0.281497 -0.069798 0.0524187
0.0377126 0.0913157 0.10131
-0.178972 0.181964 0.394344
-0.125618 0.0942354 0.414882
0.150999 0.183742 0.550824
-0.104978 0.139446 0.0937274
-0.0363633 -0.217921 0.391186
-0.139262 0.0662203 0.417474
-0.124729 0.187148 0.569346
0.0211419 0.140593 0.41061
-0.186412 0.249603 0.0579016
-0.271289 -0.0803491 0.0350383
0.0087685 0.0281042 0.18263
-0.010386 0.00642991 0.316992
0.0584571 0.124451 0.0853916
-0.144761 0.226972 0.0618678
0.0453077 0.0743116 0.370677
0.264379 0.0602339 0.601873
0.18111 -0.0403985 0.090684
0.174878 0.276546 0.0605653
-0.043195 -0.137375 0.43267
0.228869 0.16534 0.594402
-0.0425084 -0.0195628 0.371247
-0.241869 0.197473 0.600633
-0.000998112 0.033446 0.0444788
-0.0447868 -0.021916 0.42537
-0.027256 0.0350314 0.352364
-0.12042 -0.0990353 0.430244
-0.00667183 0.185247 0.559868
-0.121419 0.203054 0.41908
-0.138626 0.205094 0.638078
-0.106704 -0.047537 0.426989
-0.249863 0.0628902 0.607442
0.0569609 -0.0403314 0.426536
-0.0020566 0.208145 0.647094
-0.159822 -0.0734809 0.428628
0.00759636 -0.00687486 0.0692021
0.110719 0.0176875 0.364433
-0.262752 0.151653 0.599612
-0.221173 -0.118159 0.427346
0.17957 0.07649 0.403977
-0.0839212 0.00354543 0.423276
0.26705 -0.0574582 0.0435786
-0.0229198 0.0223071 0.126515
-0.0869394 0.0555557 0.418462
-0.0719212 -0.0589143 0.427709
0.0995032 -0.0860826 0.389914
-0.0834422 -0.0422594 0.395098
0.152528 0.164473 0.408505
-0.0365687 -0.0522481 0.427288
0.00991985 0.011147 0.24089
-0.03562 0.0715174 0.103608
-0.202611 0.13936 0.386313
-0.0705524 0.141347 0.410541
0.173711 0.205976 0.640278
0.10436 -0.100489 0.43034
0.18208 -0.139522 0.432552
-0.0815014 0.105295 0.0828075
-0.0959837 0.200353 0.62141
0.0541658 -0.00900759 0.373513
-0.054532 0.0031694 0.104492
0.160448 0.0835207 0.415881
0.00682554 -0.214898 0.412026
-0.0963781 0.0903768 0.41524
0.168309 0.270913 0.0278784
-0.131985 0.217387 0.674947
0.204024 0.194759 0.608334
-0.101959 -0.220494 0.391628
0.00397968 -0.0526588 0.427315
0.194946 -0.140033 0.416261
-0.215071 0.206001 0.571833
-0.111402 0.0426872 0.419653
-0.296423 -0.0860258 0.0688377
0.0447013 0.211061 0.655803
-0.0974855 0.181041 0.535489
-0.104883 0.223825 0.694229
0.107436 0.109655 0.385731
0.106265 -0.0368403 0.426317
0.0044221 -0.224062 0.0582955
-0.0512612 0.181286 0.536839
0.0128974 0.178528 0.520634
-0.106244 -0.024823 0.085096
0.209894 0.00712935 0.417757
-0.111416 0.100274 0.385236
0.0188053 0.216558 0.414614
-0.135026 0.204285 0.0878093
-0.14913 -0.0206438 0.425288
-0.0415566 0.0217483 0.367464
0.217532 0.201379 0.623116
0.0495108 0.0476374 0.419199
0.14411 0.0316713 0.420679
0.143636 -0.220422 0.393822
0.0680156 0.187881 0.572037
0.00440606 -0.169213 0.0877454
-0.174877 0.185058 0.559018
0.18016 0.0414765 0.413656
0.0469982 0.108669 0.065518
0.0923635 0.106655 0.413738
-0.203366 -0.080222 0.412816
-0.208948 0.118528 0.410836
0.0974911 -0.00427541 0.0929221
-0.124312 0.110773 0.37209
-0.0620401 0.115222 0.412941
0.192548 -0.0141064 0.42619
0.00437522 -0.0637875 0.0961675
0.194269 0.181017 0.523502
-0.315998 -0.0926285 0.0133781
-0.181829 0.272389 0.0439618
0.00886337 0.0562508 0.418401
-0.149511 -0.152359 0.433615
0.142217 0.276838 0.00354967
-0.0647886 0.198015 0.612142
-0.0923782 0.0629675 0.383664
0.033567 -0.210436 0.412479
0.0557474 -0.00660283 0.424219
-0.160017 0.0321903 0.420623
-0.0262585 -0.00504258 0.424072
-0.194953 0.248156 0.0307526
-0.126483 0.00862995 0.422804
0.0191764 0.199933 0.619617
0.00548857 0.0511907 0.104606
-0.158615 0.147222 0.41002
-0.123185 -0.0161789 0.0977027
0.192367 0.188514 0.564272
0.155509 0.223421 0.0770706
0.0222678 0.193468 0.59412
0.239914 0.0608896 0.598397
-0.00730105 0.128659 0.411699
0.0204105 0.213501 0.663144
0.267218 -0.0593671 0.0675208
0.140076 -0.018098 0.0679383
0.269002 -0.0813781 0.0769981
-0.0560094 0.0640456 0.417678
-0.136879 0.266686 0.719456
0.16498 0.252602 0.711802
-0.0814348 0.0856951 0.36648
-0.033095 -0.0261235 0.386203
0.313197 -0.065311 0.0147652
0.0472999 -0.0653222 0.428116
0.198562 -0.0633391 0.428555
0.0966973 0.179825 0.528051
-0.00753892 -0.00906139 0.106118
-0.0751366 0.0965399 0.0632246
0.103206 0.208031 0.646663
0.133388 0.0047883 0.423167
0.0687699 -0.102176 0.430447
0.0058833 -0.264461 0.0418655
-0.0440497 0.0390732 0.364595
0.0911671 0.0668913 0.384115
-0.213061 0.0964219 0.397871
-0.204676 0.263996 0.0269449
-0.0657122 -0.194613 0.431007
-0.214635 0.193963 0.519524
0.150496 0.294871 0.0332016
-0.0228622 0.0439335 0.384165
-0.0428325 0.175963 0.505774
0.116432 0.227905 0.70034
0.172356 0.252812 0.0165565
-0.209895 -0.00660695 0.407862
0.0287849 0.01715 0.105151
-0.0463941 0.287744 0.721754
0.168338 0.0327991 0.420575
-0.0624621 0.270135 0.713598
0.304234 -0.0509182 0.0289997
0.204407 -0.0619049 0.410456
0.149431 0.309695 0.0291115
0.169943 0.263951 0.0806008
0.00578506 0.0252262 0.0153279
0.0580954 0.0424514 0.363003
-0.0595693 0.109788 0.0939536
0.0780082 -0.0193833 0.091109
-0.0829954 -0.216207 0.408705
0.281876 -0.0537853 0.00700336
0.0348964 0.00540269 0.385283
0.0176296 -0.00262041 0.360138
0.103913 -0.20404 0.424961
0.0769297 0.115197 0.0740962
0.173071 0.295656 0.0161739
0.0840526 0.0142763 0.422287
0.137728 0.0409722 0.356836
0.224172 0.178965 0.390745
-0.298911 -0.10325 0.0181742
-0.276793 -0.0996487 0.00180931
0.154332 0.258602 0.053811
0.00439636 -0.136052 0.0815339
-0.244827 0.175657 0.60178
-0.284837 -0.0725788 0.0813966
-0.0051177 -0.201825 0.426966
-0.197997 0.180116 0.513252
0.151112 0.00749107 0.362599
0.0177144 -0.297816 0.0531317
-0.182957 0.255497 0.0811778
0.123279 0.196919 0.60762
-0.0590701 0.213305 0.394108
-0.0672063 -0.0244258 0.391097
-0.00698315 -0.297821 0.0409497
-0.0159801 -0.128983 0.0927086
0.184417 -0.051635 0.41118
0.0710389 0.224891 0.696213
-0.186533 0.277181 0.0218625
-0.0109877 -0.234384 0.0852616
0.170905 -0.0608775 0.427838
-0.20551 0.251779 0.718132
0.0349735 -0.264454 0.0243869
-0.282791 -0.108343 0.0494971
0.174095 -0.11877 0.414939
-0.261772 0.0311841 0.611315
-0.134934 -0.207006 0.411162
-0.165722 0.143857 0.383832
0.195198 0.153087 0.407922
0.196359 0.237883 0.711919
-0.0736625 -0.0142251 0.0788647
0.208781 0.207378 0.573925
-0.00601961 0.191133 0.58494
0.184259 0.220696 0.681947
0.0753824 0.176155 0.506685
-0.151218 0.22233 0.689789
-0.0177014 0.00572662 0.196793
-0.0497095 0.0149996 0.0701151
-0.0897376 0.175955 0.505803
-0.227422 0.193281 0.499885
0.167311 0.113417 0.413114
-0.220621 0.228158 0.681706
-0.202201 0.16897 0.396087
-0.0375818 0.000668436 0.366923
-0.0989578 -0.0156408 0.424973
-0.197352 -0.135084 0.433149
-0.216672 0.220121 0.633322
-0.165705 -0.0227286 0.0872268
0.299383 -0.0338016 0.0379758
-0.174933 -0.168524 0.434636
0.0338592 0.00852094 0.422818
0.0685328 0.195884 0.603596
-0.015903 0.181564 0.538395
0.104239 0.186165 0.0892063
0.0737297 0.211565 0.414747
0.192066 0.181123 0.493131
0.0961955 -0.0066859 0.424228
0.0623186 -0.0142906 0.0856958
-0.0598104 -0.164536 0.434387
-0.0170055 -0.00694413 0.385432
0.116581 -0.217305 0.392461
0.210366 -0.107266 0.42079
-0.277747 0.115963 0.598426
0.021282 0.0376234 0.087929
-0.0617488 0.0617361 0.382567
0.00282809 0.00900555 0.28946
-0.0210223 0.022175 0.0489854
0.156266 0.191788 0.40672
0.100163 0.147194 0.0614133
0.038835 0.0598017 0.382123
-0.0725431 0.179996 0.529347
0.184606 0.0282135 0.405081
-0.0128776 -0.308998 0.0297807
0.198856 -0.0586094 0.0839434
0.203055 0.177058 0.472371
-0.177564 0.233223 0.706823
0.115394 -0.121762 0.431686
-0.0490287 0.088995 0.10151
-0.0159351 -0.288178 0.0717612
0.142906 -0.0260507 0.425635
-0.0105072 0.0226162 0.335406
-0.104476 -0.044664 0.393637
-0.00228592 0.0308963 0.325669
0.134287 0.0191237 0.355018
0.308285 -0.044468 0.00693969
0.0727308 0.144109 0.0920302
-0.210936 -0.0897328 0.430189
-0.0311045 0.188633 0.575107
-0.0967011 -0.0972055 0.430129
-0.221483 0.0675359 0.411461
-0.235116 0.163189 0.399065
-0.191485 0.130598 0.401101
-0.0172467 0.00518393 0.242078
0.127819 -0.0736231 0.428643
0.189828 0.138742 0.387275
-0.163328 0.241691 0.0833416
0.15317 -0.0437796 0.0627617
0.0625562 0.104333 0.413952
-0.146398 0.195377 0.60184
0.180149 0.262158 0.0416738
0.033064 -0.0356667 0.388577
-0.222674 0.179227 0.533652
-0.210929 -0.0176184 0.425685
-0.135105 -0.0821558 0.429177
-0.233427 0.165857 0.423383
0.186703 0.158682 0.383107
-0.259998 0.115657 0.590925
-0.1998 0.206013 0.635084
-0.203708 0.0531134 0.419946
-0.115418 0.197438 0.393745
-0.0220205 0.21092 0.655438
0.302639 -0.0854128 0.0115148
0.000779277 -0.266184 0.0822321
-0.232202 -0.0490757 0.0868571
-0.283319 -0.0627664 0.0245866
-0.00627572 0.0360735 0.210642
-0.156206 0.0546418 0.418545
0.082535 0.0981668 0.383854
0.173954 -0.147984 0.420722
0.124862 0.18121 0.0745027
0.0809436 -0.209858 0.419045
-0.0112922 0.00313714 0.0889691
-0.132679 -0.188405 0.43332
-0.0732575 0.128616 0.0731104
0.00443748 -0.276637 0.0668013
-0.0127002 0.224011 0.694706
-0.0951179 0.0986678 0.371903
0.209248 -0.213489 0.413161
-0.193412 0.227098 0.672859
0.142492 -0.119502 0.431543
-0.00311088 0.00328413 0.0445834
0.107352 -0.028908 0.0903662
-0.022092 0.146409 0.410096
0.159571 -0.146628 0.433259
-0.0191321 -0.00835641 0.36039
0.101426 0.0652942 0.417566
-0.186807 0.0368799 0.420188
0.0530411 0.0822968 0.0773173
0.0069325 0.0197312 0.343283
-0.222508 0.19086 0.472983
0.313983 -0.0459501 0.0475088
0.0609557 -0.0585123 0.378293
-0.186037 -0.0293427 0.0868382
-0.177726 0.127782 0.411775
-0.0820745 0.0292465 0.420897
0.0528452 -0.0208754 0.390369
0.0958651 0.22466 0.695886
0.175476 -0.185713 0.433626
-0.055883 -0.0975296 0.43015
-0.131523 -0.107158 0.397233
0.000278773 0.0135467 0.106118
-0.0970487 0.15913 0.09287
0.0249022 -0.0796869 0.429024
0.113969 -0.000287044 0.423636
0.0378428 0.0323273 0.360067
0.219419 0.168563 0.449137
0.0807378 0.149872 0.409792
-0.206868 0.196034 0.54654
0.004413 -0.192953 0.0842701
0.171013 0.174166 0.405186
-0.217564 0.20835 0.650957
0.0718274 0.035253 0.420346
0.13832 -0.162867 0.434285
-0.22255 0.0155116 0.406985
0.135179 0.0785505 0.41634
-0.142183 -0.217939 0.391209
0.135702 0.265544 0.0437614
0.276997 -0.0445392 0.0533993
0.182727 -0.209481 0.39856
0.00583982 0.0238134 0.305601
0.189229 0.0634846 0.416748
-0.141426 0.187722 0.0845046
0.00998992 -0.00450125 0.101159
0.014295 0.0337575 0.106118
0.172294 0.199455 0.617568
-0.038065 0.0743519 0.416724
-0.0317118 0.0321472 0.101605
0.203635 0.194713 0.518851
0.00537496 0.0320959 0.13973
0.134818 0.213843 0.664072
0.00620617 -0.0973285 0.430139
0.00755404 0.229597 0.702711
-0.301871 -0.0706422 0.0526087
-0.0411696 0.216633 0.40116
-0.208137 -0.195495 0.432502
0.0601895 -0.136018 0.432586
-0.263978 0.00286976 0.613826
0.198066 0.0819214 0.417779
-0.0159517 -0.248628 0.0573949
0.15417 0.194103 0.596479
0.237315 0.0163822 0.611645
-0.226463 0.210346 0.61576
-0.0937274 -0.0760416 0.398345
0.138828 0.29197 0.0395124
-0.0215074 0.0574309 0.0707653
-0.203707 -0.0466195 0.42819
-0.00690213 0.0348554 0.0905512
0.0586446 0.00833381 0.0692027
-0.0379932 0.0455498 0.41939
0.0812087 -0.0752564 0.385177
-0.0663506 0.0165223 0.422075
-0.179844 0.197951 0.612044
0.0946275 -0.0656284 0.400702
-0.161875 0.215851 0.0832704
0.00436953 -0.0443315 0.0733624
0.180101 -0.101168 0.423219
0.245759 0.126191 0.589606
0.179489 0.0112524 0.408469
-0.0122507 0.10221 0.414147
-0.0822661 0.107542 0.413651
0.0463299 -0.216763 0.393732
0.227173 0.199008 0.591933
-0.0611449 -0.00473311 0.371948
0.0485362 0.109412 0.0982599
-0.11695 0.154055 0.0715385
0.0195401 0.0252514 0.380623
0.288674 -0.0854965 0.0599965
0.0104055 0.0124861 0.175948
-0.14766 0.184543 0.555979
0.209663 -0.0167136 0.40831
0.14295 0.277455 0.0256878
-0.253076 0.137699 0.588493
0.00438499 -0.0971888 0.0866457
-0.127018 0.202566 0.0693543
-0.150986 0.181048 0.535606
0.0557366 0.00927769 0.0936884
0.11336 0.0829626 0.380209
-0.0322294 0.0230533 0.349118
-0.0637043 0.184043 0.552936
0.191916 -0.0349248 0.0693258
0.16668 0.265971 0.0595099
0.168232 0.240945 0.0748126
0.21867 0.160017 0.390533
-0.0516445 0.0645646 0.362334
0.0516879 0.215235 0.401318
0.27935 -0.0801752 0.0332018
0.0479395 -0.197208 0.429814
-0.232707 0.253703 0.0195825
-0.0160038 -0.0518796 0.0751649
0.0347622 0.0630819 0.361749
0.00439608 -0.135094 0.0630744
0.165132 0.285385 0.0112627
0.313804 -0.063436 0.0375166
0.0213177 0.0377056 0.0647228
-0.0186368 0.199726 0.618842
-0.0450021 0.223349 0.69275
-0.280618 -0.093587 0.0255405
-0.0438547 0.198703 0.614832
-0.14792 0.19742 0.404575
-0.229299 0.169129 0.458424
0.138458 0.189259 0.577393
-0.0752883 0.193534 0.59448
-0.196603 0.00251016 0.423919
0.23669 0.117334 0.601973
0.249307 -0.0744167 0.0821981
-0.0412233 -0.206863 0.422486
-0.0438807 0.0168953 0.10288
0.00231337 -0.310785 0.0119253
0.100574 -0.176066 0.434765
-0.228036 0.188846 0.605518
0.297372 -0.069074 0.0324479
-0.125786 0.223858 0.694349
0.189711 0.228247 0.696267
0.135054 0.112615 0.386758
-0.0842101 0.221935 0.688545
0.0571562 0.0719636 0.416948
-0.1075 0.185771 0.563073
-0.0186123 0.0203707 0.285448
-0.255665 0.182464 0.584623
0.0291519 -0.266323 0.0478328
-0.102871 -0.21647 0.408448
-0.280431 -0.0814809 0.0617857
-0.0247101 -0.197745 0.42958
-0.146992 -0.0876436 0.399369
0.0044193 -0.214484 0.0769192
-0.0231741 0.0207985 0.158943
0.197741 -0.17247 0.435483
0.189121 0.127473 0.412788
-0.204234 0.240262 0.0131871
-0.135116 -0.167685 0.434584
-0.013044 0.00269373 0.131135
-0.0031369 0.285004 0.722737
0.14606 -0.209034 0.407643
0.11287 0.263155 0.71633
0.188916 0.211883 0.618513
-0.205998 0.222947 0.0206614
0.0717412 0.0681951 0.383487
0.124744 -0.0828982 0.396021
0.098599 -0.00463502 0.0660396
0.171552 -0.00216998 0.423812
-0.184173 -0.123856 0.42007
0.208498 0.156831 0.404934
0.00260875 0.0283655 0.2491
-0.218747 0.239893 0.041882
-0.117998 0.123543 0.41217
-0.0873439 0.141823 0.0952932
0.0657689 -0.0746789 0.428708
0.0933309 -0.0648859 0.428089
-0.0464594 0.186448 0.566508
-0.153739 0.183338 0.409138
-0.0797057 0.0496784 0.377242
0.198511 0.103384 0.414515
-0.0891819 0.209233 0.650445
-0.219713 0.182034 0.552942
-0.116866 -0.0329191 0.426065
-0.0160081 -0.0359564 0.0838235
-0.153203 -0.0896081 0.429648
0.196411 0.169528 0.416228
0.140375 -0.00650886 0.35765
0.155096 0.177818 0.516248
0.154553 0.275688 0.716515
0.189564 0.195473 0.548506
0.0488447 0.2259 0.697611
-0.0654247 -0.0398339 0.426503
-0.179506 0.168111 0.408174
0.172142 0.126051 0.383866
0.033462 0.202594 0.630094
0.162772 0.283691 0.0547832
-0.27535 -0.109783 0.0315915
0.191659 0.210953 0.647796
-0.248054 -0.0709497 0.0825055
0.00456066 -0.186521 0.433536
-0.103231 0.164449 0.4085
-0.194262 0.231341 0.705343
-0.207684 -0.067907 0.428485
-0.160152 -0.137416 0.43267
0.0349568 0.10139 0.414224
-0.0249901 0.0152772 0.362159
-0.0840402 0.00383416 0.0831039
-0.15715 0.207441 0.645138
0.0274309 0.0404303 0.381261
0.184883 0.185552 0.407486
-0.1312 0.210944 0.655621
0.0127825 0.175163 0.501009
-0.201337 0.226337 0.036151
0.123215 0.213639 0.0629392
0.0322878 -0.291129 0.047119
-0.164651 -0.0105498 0.424578
-0.0173914 0.0241676 0.253655
0.0523943 -0.107839 0.430804
-0.0160122 -0.0203229 0.0807045
0.220136 0.185054 0.521059
-0.215277 -0.0539185 0.0882481
-0.0451366 0.0552741 0.0684148
0.0456015 0.181053 0.535307
0.087817 0.130191 0.0704555
0.112837 0.204098 0.40572
0.143498 0.180503 0.531936
0.00438007 -0.0803487 0.077639
-0.209016 0.19153 0.572283
-0.154359 -0.0404733 0.0826334
-0.243226 0.10505 0.601466
0.0399612 -0.177029 0.434653
0.0462221 0.138445 0.410801
-0.133578 0.0891197 0.382179
0.0379711 -0.298259 0.0157726
-0.0962018 0.286194 0.719503
0.052222 -0.0414859 0.377
0.0199742 -0.0415065 0.42661
-0.0257003 0.0631985 0.0921832
-0.0827471 -0.147925 0.433336
-0.13468 0.116109 0.386434
-0.224547 0.207664 0.588504
0.226618 0.181276 0.585057
0.263599 0.08239 0.603899
0.182111 0.256841 0.718174
-0.19791 0.0896975 0.399376
-0.160589 0.167906 0.408193
-0.233266 0.184165 0.428258
0.179641 -0.211588 0.416535
-0.0173631 -0.0617334 0.427888
0.222812 0.184521 0.454401
0.16459 0.284639 0.0321983
-0.113007 0.215884 0.67042
-0.20395 0.235846 0.690791
0.145153 0.219849 0.682079
0.00440871 -0.178261 0.0680233
0.00392078 -0.0837924 0.0982141
-0.180187 -0.12683 0.432
-0.0377563 0.0305722 0.382162
0.199208 -0.205965 0.403821
-0.121291 0.0271637 0.421089
-0.0349888 0.0489255 0.105384
0.0430472 -0.00803542 0.0830649
-0.159154 0.125087 0.380825
0.169649 0.272203 0.0441837
-0.222829 -0.0413061 0.0742261
-0.17231 -0.216328 0.394852
-0.141766 0.141169 0.410555
-0.151763 -0.207318 0.410649
-0.0212254 -0.130064 0.432208
0.23169 0.0313603 0.604994
-0.0165977 0.0409641 0.340659
-0.0669642 0.00938784 0.0660458
-0.0159628 -0.188134 0.0864299
0.243839 0.183107 0.603681
-0.300574 -0.0951375 0.042568
0.17555 0.290439 0.0536332
0.127325 0.106718 0.413733
-0.0267966 0.0472855 0.365741
-0.169182 0.249708 0.0235521
0.122347 0.188671 0.403805
0.180861 -0.0375015 0.4265
-0.178314 -0.0699046 0.428402
-0.0566301 0.0726506 0.10141
-0.181984 0.137574 0.38858
0.0132705 0.0140274 0.422308
-0.0578644 -0.00908642 0.0677271
0.218442 0.194376 0.562883
-0.0528171 -0.0617306 0.427887
0.00526267 0.0119012 0.326558
-0.194435 0.21883 0.645141
-0.198985 -0.155825 0.432791
0.0206149 0.0723321 0.0747967
-0.0896971 -0.0418013 0.379864
0.0298838 0.179828 0.528188
0.267955 -0.0546725 0.0218364
-0.0366874 -0.00219813 0.0945307
-0.0266174 -0.0864969 0.429453
0.280964 -0.0653439 0.0804911
0.0898069 0.167628 0.0726703
-0.082397 0.0765152 0.416523
-0.311746 -0.105719 0.0351175
-0.198758 -0.054915 0.061072
-0.0771591 0.213681 0.66378
-0.100817 -0.0227323 0.0979913
0.0202148 0.0146836 0.362332
0.183692 0.263804 0.0580684
0.131653 0.193622 0.0881065
0.151407 0.0994207 0.414409
-0.176373 0.255363 0.707903
-0.179931 0.240688 0.0728202
0.0807491 0.0539392 0.418617
-0.204075 0.253556 0.0547832
0.043419 0.069045 0.0902034
0.180652 -0.122793 0.431868
-0.15251 0.277733 0.717222
-0.212242 -0.216577 0.411772
-0.0978641 0.201574 0.419096
-0.11362 -0.0272222 0.0688074
0.0986877 0.148216 0.409939
0.0588412 0.0930671 0.0997731
-0.207935 0.141998 0.412162
-0.193569 -0.174834 0.435172
0.259127 0.0035808 0.612909
-0.207933 0.100516 0.412605
-0.030426 -0.00931692 0.384904
-0.129513 0.17845 0.520428
-0.231206 0.192805 0.526807
0.0580818 0.0681676 0.368847
-0.110322 -0.00471361 0.0746111
0.18056 0.0964051 0.399483
-0.214197 0.196561 0.614667
0.210032 0.0918146 0.408217
-0.00297079 0.239253 0.711604
-0.222129 -0.143549 0.421162
0.203454 -0.0808219 0.428254
-0.188797 -0.143925 0.421453
0.199406 0.217069 0.677841
0.151305 0.113923 0.375813
-0.00465733 -0.00464825 0.377042
-0.157321 -0.128191 0.409183
0.00696346 -0.124913 0.431883
-0.0159464 -0.250569 0.0749716
-0.277192 0.138853 0.591716
-0.197809 0.196623 0.599848
-0.267062 -0.0556904 0.0600827
-0.0873784 -0.0504594 0.427174
0.0847138 0.198377 0.3951
-0.179961 -0.0488008 0.0663393
0.0625283 -0.220444 0.399539
-0.0234686 0.195585 0.602516
0.00436363 -0.0241598 0.0693297
-0.10489 0.172128 0.0795498
0.253429 0.0502073 0.599803
0.031317 -0.310777 0.0368641
-0.191602 -0.197699 0.423567
-0.107259 0.0698508 0.373693
-0.306807 -0.0789743 0.0371316
-0.048347 0.09435 0.0800856
0.0997741 0.146659 0.0805921
0.141827 -0.040098 0.0794734
0.0546808 0.206542 0.642237
0.147729 0.137527 0.387817
-0.26326 0.0677646 0.597482
-0.235472 0.179443 0.470994
-0.0486853 -0.116916 0.431376
0.231087 -0.0509825 0.0858445
-0.0632601 0.0385712 0.361757
-0.221682 0.143205 0.394954
0.116254 0.190563 0.582559
0.183973 -0.0769906 0.429306
-0.195912 0.257073 0.706865
-0.166688 0.175474 0.503134
0.0984812 -0.216791 0.39363
-0.0101757 0.00291423 0.423336
-0.0836447 -0.017472 0.0925054
-0.129182 0.175364 0.502427
0.12717 0.0301456 0.365052
0.0296141 0.184342 0.554522
0.00439129 -0.118733 0.0840549
-0.0423219 0.116013 0.412869
-0.0159715 -0.166968 0.0823309
-0.189792 0.186909 0.568473
0.0256024 0.000463826 0.105976
-0.0517086 -0.220477 0.399993
-0.173667 0.0758964 0.416577
-0.286015 -0.121008 0.0244201
-0.0150733 -0.0990338 0.430246
0.180946 0.197269 0.581503
-0.213573 0.173695 0.387079
0.128763 0.262261 0.709494
-0.141799 0.0994669 0.414397
-0.000760637 -0.282287 0.0516528
0.00442743 -0.242282 0.0605304
0.0246189 0.0209018 0.089133
0.0548125 0.28856 0.718392
0.204222 -0.0279667 0.424121
0.00436862 -0.0412264 0.0900083
-0.0160573 0.205134 0.638073
0.080753 -0.162627 0.434269
-0.107022 0.140399 0.0723185
0.0650187 0.139469 0.410711
0.0119957 0.0375141 0.420135
0.149341 0.258504 0.710082
-0.00106414 -0.00564485 0.358376
0.00442883 -0.247073 0.0771801
-0.070159 0.0724186 0.36631
-0.245403 -0.0486503 0.0753074
-0.21076 0.172031 0.424258
-0.023049 0.0378453 0.420103
-0.125474 0.186531 0.0897124
-0.076328 0.108532 0.0984755
0.127845 -0.0141279 0.0830685
-0.221949 0.222359 0.659594
0.00440115 -0.152437 0.0868177
0.152226 0.253541 0.0323928
-0.160151 -0.0959556 0.408988
0.155146 -0.0052608 0.424097
-0.178703 0.272587 0.07876
0.13803 -0.193856 0.431322
0.134063 0.22858 0.0578426
-0.274818 0.168461 0.595363
0.0665162 0.183288 0.548313
0.0606098 0.191846 0.587682
0.143995 -0.10085 0.403835
0.0232042 -0.118499 0.431478
-0.222454 0.109977 0.397366
0.135142 -0.0426811 0.426687
0.100772 -0.137643 0.432689
-0.083787 -0.131064 0.43227
-0.00941709 -0.015584 0.42497
-0.198002 0.269991 0.0496776
0.0976157 0.277951 0.721286
-0.115495 0.180681 0.533417
0.0115128 0.0936587 0.414939
-0.15761 0.178432 0.520371
0.198871 0.191544 0.583369
-0.0324466 0.0270978 0.0786407
0.153083 0.136266 0.411
-0.20762 0.279038 0.0198052
-0.207669 -0.17737 0.418289
-0.138653 0.191502 0.586533
0.00482559 0.00704151 0.0809283
-0.205291 0.0683983 0.417041
0.0801832 -0.0200892 0.0746865
-0.0267327 0.162261 0.408696
0.175304 0.218497 0.674976
0.0838832 -0.140734 0.432885
0.0199907 -0.141251 0.432916
-0.0687135 0.223767 0.694026
-0.0190419 -0.156156 0.433858
-0.0164348 0.00705454 0.0584939
0.0249512 0.225698 0.697343
-0.064907 -0.0406892 0.392662
0.102262 0.0919351 0.415101
-0.0645283 0.203082 0.402016
-0.0953321 -0.031656 0.425985
-0.272168 0.0397553 0.602451
-0.0254141 0.281188 0.722077
-0.0395826 0.0151371 0.383103
0.139753 0.0557525 0.41845
0.0683049 0.199907 0.61946
0.226619 -0.0461893 0.063144
0.00595446 0.0531053 0.366796
0.104854 -0.057417 0.388317
0.112124 -0.0304568 0.0720712
-0.0367373 0.0582277 0.360526
0.0752437 0.114513 0.413011
0.0397423 0.155896 0.409259
0.107602 0.106409 0.371333
-0.175612 0.269409 0.0564691
0.00907068 0.0141692 0.0360042
-0.130233 0.153397 0.409475
-0.118683 -0.0648991 0.428086
0.166937 0.182389 0.542902
0.037047 -0.015829 0.387872
0.196955 -0.18188 0.418478
0.187536 0.206941 0.599856
-0.210297 0.182462 0.508289
-0.162681 -0.0552665 0.427477
-0.192848 0.18243 0.543131
-0.270502 -0.082745 0.0510225
-0.0159882 -0.110699 0.0734635
-0.220796 -0.128907 0.414425
0.014886 0.15543 0.4093
-0.041807 0.085354 0.0683774
0.00437462 -0.0617249 0.0822105
0.133843 0.193579 0.061337
0.112519 -0.00915348 0.0822218
0.292358 -0.0781308 0.0439055
0.211936 0.208855 0.589672
-0.0832943 0.19697 0.608043
0.176555 -0.203622 0.425316
0.193148 0.184002 0.422706
0.182481 0.215619 0.63381
-0.201535 0.223212 0.679374
0.0262383 0.0498242 0.364718
0.133766 0.215933 0.0863274
0.237266 0.147803 0.587566
-0.0322974 -0.0013574 0.078606
0.157583 0.260973 0.0707994
0.0283961 0.289062 0.720896
0.082722 0.186307 0.565811
0.196811 -0.209219 0.422296
0.0738404 0.0539931 0.374852
-0.177713 -0.0013653 0.423728
0.200825 0.184488 0.539379
-0.122377 -0.117426 0.431407
-0.287087 -0.0939104 0.0547832
0.209414 0.225133 0.668385
-0.220146 -0.018822 0.407645
0.0991069 0.183719 0.550776
-0.12518 0.269526 0.708872
-0.0146382 -0.289308 0.029081
0.157466 0.265768 0.0166656
-0.0225971 0.0231965 0.14237
0.00988082 0.203146 0.632084
-0.207944 -0.057903 0.0736578
-0.00279688 0.0356176 0.163651
0.00856175 0.028351 0.199794
0.190323 -0.116472 0.430771
-0.0179034 0.0332167 0.106118
0.152953 0.293092 0.0491092
-0.301237 -0.126288 0.0283649
-0.220389 -0.158181 0.430234
-0.0870278 0.20374 0.633962
-0.0998266 0.197262 0.396104
0.00120735 0.00260102 0.151227
-0.120635 -0.0964775 0.393241
-0.0330858 0.178364 0.519762
0.0287684 0.0488678 0.0780885
-0.0406186 -0.093656 0.429906
0.266555 -0.0633813 0.00466911
0.239046 0.104733 0.592895
0.106653 0.194128 0.596628
0.189256 -0.152461 0.432652
0.142461 0.195857 0.412955
-0.0114974 0.0331921 0.0180391
-0.318312 -0.0855133 0.0271444
-0.191709 -0.0980103 0.423052
-0.221996 -0.178207 0.424514
0.188833 0.186998 0.507243
-0.00891465 -0.214668 0.410218
0.0189182 0.125203 0.41202
-0.141314 -0.0362303 0.0635373
-0.235418 0.199501 0.614212
-0.107151 -0.068549 0.401025
-0.143026 -0.0063436 0.424189
0.015687 -0.266937 0.000900435
0.0894541 0.210319 0.653541
-0.0141278 0.00859464 0.345797
0.00168352 0.210041 0.414706
0.0336304 -0.191763 0.432285
0.212015 0.183102 0.553667
0.00875182 -0.0156747 0.364889
-0.104791 0.131562 0.411428
-0.0946524 0.123385 0.091836
-0.281495 -0.0938903 0.0416006
-0.236236 0.17209 0.437317
0.00344195 -0.303331 0.0529938
0.0934113 -0.0284263 0.425785
0.181051 -0.0528297 0.0768076
0.0504579 0.0702612 0.382782
0.0305484 -0.00400782 0.368559
0.00901248 0.190363 0.581889
0.177076 0.245895 0.705135
-0.282655 -0.0873314 0.00885867
0.115614 -0.156104 0.433857
-0.0132812 -0.272312 0.0816485
-0.0231723 0.016201 0.206574
0.190398 -0.215564 0.410342
0.00741842 0.222217 0.689306
-0.093589 0.0392786 0.419969
0.278657 -0.0667185 0.0267483
-0.134573 -0.149074 0.433408
0.12824 -0.102836 0.40306
-0.0225623 0.191748 0.587384
-0.194936 -0.0317968 0.426376
0.25401 0.171829 0.598957
0.253127 0.117293 0.602735
0.0971887 -0.0182815 0.0989384
-0.13895 0.184317 0.0698608
0.0101955 -0.172432 0.434887
0.034821 -0.144629 0.43313
0.0304944 -0.30917 0.00826253
0.181072 0.145331 0.410029
-0.0760768 0.0687445 0.38324
0.0422455 0.191863 0.587767
0.151843 0.21837 0.0632129
-0.0897645 -0.0693857 0.383204
-0.0151359 0.0535125 0.381088
-0.127905 0.184337 0.554745
-0.181183 0.240989 0.0213639
-0.186393 0.258923 0.037203
0.21037 0.0209915 0.411575
-0.221729 0.251599 0.0317008
-0.129264 0.110872 0.413342
-0.00318459 0.00141936 0.195782
-0.209114 0.18227 0.527569
0.104188 -0.0879187 0.404225
-0.0303389 0.2168 0.414134
-0.0204834 0.184184 0.553686
-0.0301479 -0.0369373 0.42632
0.0859477 0.0822248 0.372332
-0.0678165 -0.126116 0.431958
-0.173107 0.19019 0.405614
-0.197321 -0.00885362 0.423055
0.0738909 -0.0480411 0.383895
0.0925074 0.15039 0.0936891
-0.0112924 0.0069543 0.256802
0.155861 -0.0696502 0.428392
-0.0276242 -0.0216195 0.372578
0.28717 -0.0276988 0.0281038
0.190557 -0.000160214 0.422512
0.207268 -0.167801 0.431276
0.0754305 -0.217818 0.406844
-0.207313 0.0381757 0.42013
0.0380673 -0.277424 0.0166903
0.206871 0.232527 0.702594
0.202138 0.12203 0.395395
0.112345 0.107973 0.413617
0.0745964 0.178689 0.521464
0.100151 0.0203516 0.357645
0.025313 -0.00956963 0.424492
-0.0201572 0.218122 0.403191
-0.199406 0.154244 0.396087
0.203874 0.224316 0.648333
-0.0238295 0.0309287 0.380496
-0.0651792 0.00996836 0.0943444
-0.00122439 -0.13265 0.0949528
0.144374 0.224852 0.696129
0.195409 -0.128101 0.430496
-0.297228 -0.112065 0.0502784
0.155543 -0.123549 0.40842
0.122858 0.0209149 0.421674
0.207558 -0.187118 0.431465
0.193821 0.160361 0.396087
0.0438637 0.0190005 0.357238
0.116648 0.0668646 0.417421
0.125738 -0.208029 0.412082
0.290672 -0.0396146 0.0485474
-0.209566 -0.127653 0.432633
-0.209953 0.0318867 0.40429
-0.130774 0.0803574 0.416166
0.0884259 0.208892 0.404924
0.0500188 0.220412 0.683854
0.0591781 -0.0262066 0.378035
-0.256626 0.0118065 0.604515
0.197468 0.0285562 0.422776
-0.0298322 -0.0194038 0.425212
-0.179329 0.180417 0.531971
0.0231832 0.204852 0.399602
0.150736 0.179653 0.400289
-0.191796 -0.0638203 0.428087
-0.114717 -0.0626468 0.38844
-0.228709 0.198908 0.558772
-0.192245 0.120984 0.412294
0.00436274 -0.0211221 0.102887
0.136976 0.130611 0.411522
-0.200373 0.224681 0.663968
0.00773487 -0.217019 0.393185
-0.306646 -0.0797103 0.060317
0.00528146 0.198067 0.612273
-0.222127 0.0809262 0.405378
-0.117888 0.163075 0.408621
0.09419 0.079688 0.416234
-0.012728 0.00251109 0.114926
0.0611851 0.203911 0.414738
0.0431937 -0.0225337 0.425411
-0.190495 -0.0307883 0.0694457
-0.0410806 -0.00776067 0.424323
-0.188685 -0.212337 0.402308
0.138305 -0.133511 0.432429
-0.00480385 0.0359683 0.239016
-0.0168425 0.29186 0.71803
0.0295507 0.189913 0.580089
0.185436 0.270646 0.0296002
-0.0875526 0.113619 0.0677776
0.153936 0.18705 0.568666
0.000109972 0.0273498 0.106118
-0.193888 0.193094 0.550214
-0.180417 0.242296 0.00398994
-0.0122677 0.0327484 0.0539271
0.182382 0.185521 0.555044
0.00527177 -0.297816 0.00595583
0.177124 0.0212359 0.421646
0.204295 -0.00213451 0.406592
0.0136984 -0.264461 0.0261885
-0.23977 0.165516 0.590632
-0.191959 -0.117968 0.431528
0.152669 -0.109217 0.430893
-0.196609 0.0245342 0.419862
-0.0619452 -0.111055 0.431005
-0.0858288 0.191093 0.584864
0.00416588 -0.278361 0.0382202
0.111714 0.170905 0.0910325
-0.185872 0.10616 0.413776
-0.189909 0.234644 0.0330522
-0.167369 -0.0447052 0.0721449
0.309003 -0.0782438 0.0274947
0.00367823 0.00613394 0.064282
-0.144315 -0.128558 0.43211
0.137986 0.196038 0.604128
-0.199859 0.135016 0.411978
-0.191454 0.0766053 0.405959
-0.0159655 -0.194983 0.0737522
0.18316 0.188576 0.528686
-0.159218 0.192316 0.421349
-0.0558896 0.161269 0.408782
-0.126415 0.202729 0.63083
-0.0669785 -0.012051 0.0959442
-0.169961 0.042536 0.419665
-0.220565 0.253594 0.0457272
-0.107378 -0.00403452 0.423976
-0.0757547 0.207126 0.644109
-0.114961 0.189736 0.579542
-0.198266 0.179158 0.50041
-0.150528 0.0215032 0.421612
0.179024 0.258171 0.0281861
-0.00695299 -0.278368 0.0230546
-0.00265292 0.0466738 0.0763913
0.0403586 -0.301011 0.0301945
-0.0159723 -0.171028 0.0600939
-0.135428 0.214135 0.0692842
0.164702 0.209436 0.650827
-0.0990064 -0.00103333 0.0658388
-0.0330897 0.231453 0.705279
0.0463801 -0.209569 0.412335
0.251082 0.0297808 0.602341
0.0811669 0.121032 0.0617999
-0.0159962 -0.0805257 0.0858095
-0.246108 0.19265 0.587297
0.2539 0.0681441 0.607388
0.134822 0.106734 0.373816
0.048814 0.0524535 0.366978
0.205279 -0.0392623 0.0671878
-0.15637 0.131526 0.41143
-0.19076 0.186393 0.400902
0.156249 0.204259 0.635305
-0.0856535 0.276135 0.710078
0.0327588 -0.203935 0.425075
0.162117 0.146179 0.378996
-0.120454 0.193285 0.406302
0.035202 0.0775227 0.102514
-0.195533 0.287634 0.0187099
0.11007 -0.0755373 0.395971
0.161708 0.262685 0.0375497
-0.296611 -0.0756353 0.0273737
-0.0160074 -0.0383925 0.0987329
-0.135428 0.103731 0.37722
-0.0392936 -0.21809 0.406282
-0.28599 -0.06565 0.0381476
0.0843549 0.180975 0.534784
0.196446 0.0826813 0.399856
0.200612 0.136973 0.411705
-0.00569433 0.0361239 0.130163
0.0720379 -0.0351538 0.426209
0.131807 -0.214488 0.398569
-0.243988 0.048436 0.607538
0.196704 -0.0233078 0.409339
-0.00682941 0.027029 0.348843
0.00505724 -0.0130002 0.382793
0.0491808 0.275843 0.709535
0.288965 -0.0696152 0.0636384
-0.212099 -0.217639 0.389346
0.113979 0.097237 0.385657
0.266896 0.152102 0.591298
-0.133757 0.189555 0.408969
0.132781 0.0398252 0.419924
-0.161009 0.18535 0.560699
0.00291219 0.0692158 0.417201
0.0239393 0.0437796 0.104809
0.169651 0.188313 0.415161
-0.206733 0.204081 0.582865
0.239788 0.191216 0.593066
0.0421042 -0.0159687 0.372685
0.0078153 0.0263953 0.0290785
-0.194884 0.0892994 0.414959
-0.137128 -0.219026 0.40416
0.0575566 0.201956 0.400656
0.000784936 0.00762673 0.346426
-0.0159615 0.0064914 0.0743702
0.192829 0.0419326 0.419394
-0.0901833 -0.0620259 0.398161
-0.161056 -0.169534 0.434701
0.0798862 0.220169 0.683098
-0.0561236 0.0317295 0.420668
-0.0806842 -0.208979 0.420342
0.251399 0.146979 0.600039
0.315381 -0.0570706 0.00383169
-0.0520235 0.177714 0.515999
-0.0897794 0.119128 0.412579
0.203968 0.198728 0.622287
0.117282 -0.025633 0.425608
-0.00869169 0.0341938 0.385432
-0.187287 0.260193 0.0667458
0.179219 0.206007 0.609788
-0.13876 0.279854 0.715717
-0.134483 -0.0240093 0.0964482
-0.140823 0.052566 0.418738
-0.160784 -0.0280032 0.425753
-0.125181 0.0421348 0.419703
-0.138695 -0.0954433 0.430017
0.0979587 0.214476 0.666005
-0.0519528 -0.0364492 0.390604
-0.186685 0.216737 0.671673
0.0772881 -0.03068 0.378149
-0.0700065 0.0894834 0.0833578
0.0176283 0.217393 0.400872
-0.125926 -0.212363 0.402237
0.211683 0.208733 0.636635
0.0250401 0.0346975 0.364512
-0.31363 -0.0799023 0.00873756
-0.0528897 0.279896 0.71233
-0.185459 -0.0423113 0.0912911
0.0854108 -0.000354262 0.0644499
-0.204151 0.00989187 0.406768
0.0506598 -0.168464 0.434637
0.0015608 0.00280596 0.179927
-0.161352 0.197769 0.611301
-0.146885 -0.0166051 0.0731134
-0.0700291 -0.0438433 0.380361
-0.258395 0.111016 0.603707
0.174553 -0.132447 0.415123
0.0280471 0.113139 0.413137
-0.0501136 0.183792 0.551454
0.0717377 0.121057 0.0971128
0.198912 0.0243213 0.404911
-0.0614319 0.232757 0.706424
-0.109622 0.0561737 0.418405
0.266187 0.0952011 0.59994
0.143754 0.0146629 0.422253
0.0205002 0.0156237 0.348835
0.0301248 0.209966 0.652532
0.0205706 0.273738 0.710648
-0.00254674 0.182023 0.541052
0.0399082 0.0144154 0.0977784
-0.220584 -0.034594 0.408846
0.127319 -0.114879 0.431251
0.277524 -0.0701946 0.0386306
0.135136 0.265957 0.00755432
-0.118745 0.220188 0.683334
-0.216107 0.0481157 0.417275
0.141232 0.299612 0.0251918
-0.069185 0.214649 0.407643
0.127194 0.175744 0.504194
0.159024 0.230457 0.703834
0.0238562 -0.00180631 0.0681887
0.23914 0.0755107 0.596603
0.126183 0.0157653 0.365332
-0.227905 0.201703 0.571995
-0.195249 0.225487 0.691134
-0.0442532 0.206087 0.393269
0.208949 -0.0929793 0.426105
0.00638797 0.0147895 0.255721
0.201602 0.174522 0.428434
0.0705664 -0.144595 0.433128
-0.115966 0.108764 0.413537
0.222558 0.182856 0.597797
-0.000772927 0.0352639 0.188863
-0.191165 -0.00537088 0.410576
-0.301379 -0.0956549 0.0289795
-0.214199 0.229552 0.667875
-0.115751 0.174597 0.0911766
0.0335026 0.217048 0.411647
0.210639 0.184302 0.423577
-0.22178 -0.0501053 0.410537
0.184253 -0.0596853 0.428241
0.156862 -0.220418 0.391759
0.138828 0.125443 0.387213
-0.0922149 -0.0333648 0.390313
0.14019 0.183709 0.407442
0.00489188 0.0537185 0.380111
0.108063 0.201952 0.627483
-0.211686 0.258901 0.0370797
0.0231417 -4.81484e-05 0.382136
-0.10951 -0.208153 0.409241
0.20535 -0.200529 0.425741
0.262484 -0.0715179 0.037363
-0.164531 -0.0223441 0.0686158
-0.244503 0.13994 0.598434
0.180756 0.165107 0.408313
0.207008 0.192025 0.59565
0.177352 0.058293 0.418216
-0.00811301 0.00598189 0.334218
0.0707601 0.0824878 0.38379
0.156172 -0.0251028 0.425576
0.256129 0.0175898 0.603946
-0.0576895 0.138049 0.410833
-0.0435075 0.215592 0.669477
-0.04116 -0.0327634 0.37081
0.0209256 -0.264458 0.0375828
-0.036057 0.20635 0.408285
-0.0863154 -0.0636577 0.428008
-0.275259 -0.0797987 0.0757396
0.175194 0.078195 0.416374
0.148993 0.266016 0
-0.113268 -0.0269629 0.0965687
0.214525 0.202582 0.6065
-0.0673718 0.0858593 0.0658692
0.278797 -0.0632773 0.0156688
-0.191603 0.162812 0.408598
-0.206236 0.184239 0.540626
0.179534 0.143859 0.380776
0.043435 0.283143 0.722345
-0.14211 -0.0317973 0.425993
-0.199205 0.109766 0.412629
0.118956 0.0916386 0.371381
-0.188061 0.207499 0.642988
-0.0132933 0.175404 0.502462
-0.165462 0.237295 0.710074
-0.224971 0.169107 0.393127
-0.108879 -0.088516 0.390887
0.197569 0.212971 0.664275
0.165009 0.239248 0.71156
0.0753351 0.101276 0.414236
0.0406397 -0.285141 0.0278473
-0.100667 0.144224 0.410286
-0.00491967 0.27295 0.717837
-0.00549091 0.141613 0.41052
-0.0608384 -0.177626 0.434586
-0.0667143 0.119615 0.0800772
0.115025 -0.0707055 0.428458
-0.204992 -0.220726 0.401655
0.0943486 0.0690264 0.371577
0.0807043 -0.0450275 0.396902
-0.272166 -0.0776314 0.0156807
0.016355 0.0584748 0.105037
0.28694 -0.0381771 0.0359397
0.210839 -0.0506835 0.412437
-0.000846558 0.00182927 0.135754
-0.194605 0.248415 0.0473976
-0.018988 0.0375183 0.362166
0.220155 0.16266 0.404063
0.00187897 0.00299044 0.234619
0.269776 -0.04906 0.00584833
0.0909735 -0.00215987 0.081832
0.15214 0.151503 0.40965
0.209081 -0.133419 0.414604
0.211321 -0.0626549 0.0741771
-0.114623 0.0139657 0.422311
0.201576 -0.220094 0.405127
0.00967206 0.0161268 0.0700669
-0.0217605 -0.00441692 0.085587
0.0810868 0.199135 0.409389
-0.0539725 0.0126058 0.422438
-0.0633446 0.0998715 0.414362
0.310043 -0.0750283 0.00674857
0.18737 0.20419 0.62886
-0.310188 -0.110507 0.0180146
-0.101866 0.183798 0.551563
-0.182255 0.259391 0.718731
0.00359601 0.026212 0.42118
-0.0593368 -0.204114 0.42494
-0.222304 -0.0779321 0.415595
-0.144631 0.218253 0.677555
-0.199606 0.268827 0.0160657
0.197385 -0.160247 0.435908
-0.0716983 0.0378711 0.420099
0.0320953 0.0442506 0.419512
0.18313 0.117535 0.411013
-0.27277 -0.068126 0.0826209
0.147518 -0.0205136 0.0889009
0.188565 0.041429 0.403857
-0.193605 0.262644 0.0797756
-0.0927546 -0.213201 0.400827
0.0422586 0.0674468 0.064559
0.115678 -0.108899 0.430872
-0.209966 0.230622 0.0446946
-0.0710141 -0.0170108 0.372224
0.104795 -0.0162314 0.425014
-0.0503158 2.3054e-05 0.36516
-0.112719 0.266575 0.710125
0.164392 0.301958 0.0087531
-0.00373585 -0.297463 0.0623255
