-0.00307909 0.125357 0.363525
0.264553 0.289931 0.0148193
0.280103 0.146243 0.477492
0.248937 0.26001 0.590365
0.163566 0.0370684 0.287381
0.232102 0.138133 0.308686
-0.0833777 -0.124697 0.297591
-0.255627 0.194068 0.455762
-0.122477 0.293848 0.0230102
0.260819 0.0527354 0.505262
-0.139742 0.00530566 0.338894
0.240987 0.185165 0.525548
0.0302474 -0.130703 0.29692
-0.248735 -0.281311 0.332478
-0.253956 -0.139773 0.360714
0.0564515 0.210597 0.544151
-0.191982 0.0824671 0.336243
-0.145298 -0.0393684 0.342832
-0.00929068 0.229862 0.582592
0.0843051 0.119042 0.297878
-0.16894 -0.231598 0.364698
-0.056396 0.216479 0.438752
-0.210121 -0.117823 0.357131
0.303753 -0.0793446 0.499908
0.255543 -0.220146 0.327007
0.127009 0.230909 0.47612
-0.108919 -0.0286129 0.291432
-0.0515702 -0.155941 0.347796
0.0683462 -0.0526304 0.292935
-0.200826 0.111119 0.294473
-0.105619 0.183097 0.485391
-0.0912789 0.168515 0.339586
0.159459 -0.0735426 0.34585
-0.274195 0.16182 0.47734
0.272109 -0.0152113 0.478073
0.202716 0.115532 0.29597
0.135416 0.158568 0.326939
-0.0762077 0.266685 0.621605
-0.0976498 0.216898 0.563466
0.232782 0.183926 0.368274
0.0230899 0.146748 0.405162
-0.255713 0.171131 0.453555
-0.0228947 0.295553 0.0230102
-0.0984199 -0.0683805 0.342461
-0.0786544 0.0957896 0.289252
-0.229201 0.222075 0.475529
0.0470612 -0.0822124 0.342937
-0.150142 0.15904 0.327481
0.109098 0.177807 0.47375
-0.260803 -0.209013 0.502726
-0.196884 0.154199 0.429424
0.0441736 0.257156 0.624776
0.204527 -0.269446 0.375924
0.250139 0.0364995 0.288025
-0.0397164 0.25762 0.526996
0.208231 -0.0358864 0.345867
0.0327004 0.286527 0.589351
-0.228525 -0.298555 0.345997
-0.0162239 0.295928 0.609653
-0.255654 0.159608 0.377719
-0.110761 0.240304 0.623219
-0.0021825 -0.17081 0.299266
-0.16159 -0.185976 0.307522
0.285517 0.108445 0.0182589
0.0578555 -0.280903 0.355988
0.0334116 0.224813 0.455649
-0.282013 0.0943166 0.478455
0.230277 -0.123415 0.306131
0.191501 -0.0554415 0.297298
-0.204301 0.200059 0.410782
0.220817 -0.117246 0.357287
0.287001 -0.259213 0.345044
-0.260834 -0.0870182 0.506381
0.191686 0.18246 0.504279
-0.0836459 0.0376726 0.335681
0.0765258 0.147822 0.407654
0.212887 0.161638 0.453704
-0.0669334 0.151844 0.416514
-0.147773 0.141718 0.394965
-0.0486854 -0.0742909 0.342482
0.271738 -0.234956 0.431036
0.130039 0.270223 0.620466
-0.260794 -0.247689 0.468199
0.303715 0.0615048 0.501336
-0.158054 0.276478 0.594383
0.0207265 0.0928411 0.340557
0.102956 0.153449 0.419811
0.284221 0.0662483 0.48015
-0.0284325 0.19286 0.387534
-0.00860267 0.0140322 0.33705
0.195373 -0.272429 0.323502
-0.0975931 0.247552 0.507227
0.034363 0.168921 0.340047
0.111552 0.261055 0.543363
-0.249434 -0.155891 0.314876
0.303772 -0.14907 0.498222
0.0866503 0.205287 0.414974
0.0910917 -0.133265 0.298154
0.000472289 -0.295771 0.306578
-0.121201 -0.167454 0.303415
0.0472431 -0.199173 0.350419
0.0776206 -0.0353391 0.340352
-0.255656 0.220456 0.548718
-0.249691 0.0170197 0.290745
0.0838678 -0.191456 0.350623
-0.112978 0.221478 0.450388
0.0171334 -0.222954 0.302401
-0.251638 0.10513 0.288022
0.127793 0.102417 0.344632
-0.159471 0.252122 0.626438
-0.24294 0.0790241 0.336275
-0.270033 0.11945 0.0205866
-0.197714 0.18375 0.508218
0.0745321 -0.0161613 0.290594
0.274021 -0.272391 0.0358252
0.0251184 -0.246244 0.304156
-0.0578345 -0.257054 0.354465
-0.120081 -0.0753339 0.295097
-0.165958 -0.260358 0.317033
0.093271 -0.116501 0.345541
0.17762 -0.173398 0.359488
-0.281711 -0.0164219 0.478297
0.181869 0.218753 0.598542
-0.283875 -0.3028 0.0620933
-0.198908 0.144353 0.40327
-0.266098 -0.269404 0.263174
-0.286739 -0.187941 0.0161488
0.0645336 -0.288923 0.308148
-0.220998 -0.281516 0.329966
0.25565 0.131802 0.367585
-0.153851 0.01808 0.289093
0.255575 -0.0333489 0.318388
-0.253422 -0.249726 0.376623
-0.263472 0.0651876 0.493965
0.26789 -0.152628 0.00665242
0.168667 -0.223181 0.313114
-0.255465 -0.220002 0.32894
0.0357866 0.260444 0.532807
0.191387 0.0872769 0.337935
0.123071 0.0752684 0.286117
-0.247603 0.202746 0.577388
-0.071019 0.0926739 0.340408
0.255556 -0.273846 0.334398
-0.244978 0.173089 0.338953
0.255682 -0.204939 0.356818
-0.0562493 -0.10909 0.296315
0.255645 -0.107622 0.34024
-0.286923 -0.275336 0.192177
-0.206849 0.301329 0.00387324
-0.0339849 -0.138904 0.346136
-0.0423336 0.132053 0.375423
-0.0256389 -0.230859 0.351745
-0.187367 -0.222409 0.316244
0.146131 -0.100068 0.299629
-0.125456 -0.214295 0.357438
-0.0495159 0.151827 0.319914
0.266313 -0.0375067 0.0106099
0.267275 -0.289305 0.145486
-0.291488 -0.144752 0.507699
-0.21704 0.0470775 0.28645
-0.0471588 -0.0108708 0.338433
0.284189 -0.160843 0.480044
-0.209616 0.193017 0.541881
0.0481162 -0.0342678 0.291278
-0.133539 0.122741 0.361023
-0.223262 -0.14679 0.312103
-0.280853 -0.112487 0.477816
0.0342493 -0.153212 0.347059
-0.226845 0.254903 0.62551
0.156588 0.220947 0.456353
-0.0879519 -0.243638 0.306488
0.0335739 0.175119 0.465653
-0.168899 -0.137255 0.353697
-0.0592832 -0.0444103 0.340915
-0.00914365 0.25069 0.510834
-0.21166 0.0145797 0.33984
0.166695 0.000225417 0.339345
0.252684 -0.0232984 0.293167
0.113362 0.193087 0.388468
0.194534 -0.141868 0.307992
-0.265926 -0.0321173 0.507699
0.164124 0.14891 0.411782
0.255528 0.204075 0.499034
0.261524 0.0770291 0.507124
-0.292167 0.169579 0.507699
0.207289 0.21602 0.605292
0.281562 -0.0605269 0.478209
-0.157716 -0.00619747 0.291239
0.00389926 -0.287826 0.354679
0.126813 -0.113595 0.348715
0.26088 -0.193269 0.503097
0.143219 0.203901 0.54295
0.263332 0.0024856 0.507699
-0.218285 0.130497 0.372926
-0.255619 0.210536 0.496079
-0.284306 -0.13493 0.0198384
-0.0386126 0.198388 0.516235
-0.127604 -0.293642 0.36428
0.215902 0.0443944 0.286655
0.0826257 0.234066 0.599701
-0.149587 0.199367 0.405237
-0.285772 -0.23838 0.434318
-0.0715484 0.201564 0.524771
0.166202 0.123488 0.300193
0.231654 0.165207 0.334208
-0.255647 0.177395 0.425184
0.10763 -0.0773978 0.294576
-0.260948 0.0273406 0.495157
0.26743 0.0501214 0.00736159
0.272515 -0.254264 0.290447
-0.214936 0.214225 0.603446
0.106355 -0.234882 0.307753
-0.129322 0.150997 0.319099
-0.187907 0.264927 0.578458
0.223007 0.0896699 0.288165
0.219855 0.207811 0.586129
0.229345 -0.0153305 0.34381
0.0871997 0.298394 0.00237163
0.0234803 -0.0824802 0.342631
-0.00967132 0.0379726 0.28705
-0.042568 0.247794 0.624126
-0.260887 0.143216 0.500548
0.255596 -0.180846 0.335675
0.206373 -0.295414 0.367612
0.150485 -0.187998 0.307434
-0.228444 0.146737 0.315037
0.166821 0.174283 0.347579
-0.0979297 -0.107724 0.344977
-0.285145 0.181666 0.0190539
0.0587935 0.0406771 0.286893
-0.2817 0.22933 0.0124353
0.119957 -0.210626 0.356477
0.229425 0.20533 0.417683
-0.163193 -0.139393 0.303065
-0.0916251 0.298074 0.00226952
0.204187 -0.076695 0.350371
0.266814 -0.295914 0.0893034
0.27395 0.239927 0.0227038
0.199677 -0.210089 0.316618
0.0984771 0.259821 0.623905
-0.268276 -0.0121048 0.0059483
0.101437 0.144115 0.313666
0.255679 -0.0673973 0.344134
0.0244904 0.240492 0.606797
-0.036895 0.162888 0.439572
0.192328 -0.238885 0.369198
0.0115053 0.184136 0.368858
-0.0834283 -0.159822 0.299853
0.244082 0.0564931 0.335086
0.273562 -0.228772 0.0225198
0.227188 0.130196 0.37234
-0.278099 0.090104 0.00187278
-0.274426 -0.082134 0.0228585
-0.0914688 0.163938 0.44279
-0.25588 0.280866 0.00201974
0.276188 0.171961 0.494008
0.0542195 0.210543 0.425606
-0.0855082 -0.166224 0.348717
-0.178846 -0.0704057 0.296882
-0.00987793 -0.252142 0.304052
-0.0609082 0.303299 0.0193889
-0.267021 -0.282672 0.127463
0.231326 0.26002 0.62385
-0.280733 -0.26817 0.333157
-0.0855396 0.055451 0.286177
0.0913909 0.215733 0.558698
-0.126187 0.261455 0.548671
0.255653 -0.250169 0.35418
0.12683 -0.296866 0.357393
0.252699 -0.0920809 0.303594
-0.0341233 -0.302852 0.310063
-0.268189 -0.213055 0.475118
-0.144028 -0.267925 0.314554
-0.0298807 -0.0452068 0.291917
0.251001 0.158983 0.448874
0.0162285 0.221636 0.565109
0.179438 0.0517776 0.334798
0.070768 0.18333 0.484986
0.136067 -0.0117906 0.291233
-0.273936 0.0380645 0.00221564
-0.284523 0.00282982 0.48047
-0.146514 0.226512 0.469859
-0.115368 0.0157984 0.288579
-0.214598 -0.0863812 0.302504
0.132491 -0.0810997 0.296996
-0.185616 0.213966 0.587971
0.268411 -0.0964204 0.507699
0.266119 0.0995314 0.485887
0.270391 -0.096757 0.00397031
0.0118916 0.106839 0.293045
-0.282265 -0.263242 0.00739275
0.169856 0.191338 0.51914
-0.163737 -0.296085 0.363469
0.165245 0.109128 0.348468
-0.247673 -0.026748 0.292522
0.0625895 -0.210516 0.303049
-0.255571 -0.224169 0.354052
-0.162492 0.0326594 0.336478
0.232218 0.297573 0.00234314
-0.0370744 -0.167493 0.299466
-0.11347 0.205898 0.416475
0.0798808 0.108299 0.347836
-0.0961632 -0.198734 0.303408
-0.18238 0.235622 0.497689
0.191923 0.301832 0.00421577
0.0599387 0.23593 0.481321
0.140381 0.259752 0.548655
0.0887215 0.022572 0.336649
0.236838 0.223288 0.470831
0.255654 0.119699 0.321325
0.0572643 -0.300103 0.334494
0.0602858 -0.149965 0.299077
-0.231792 0.0801678 0.282391
-0.2771 0.0148589 0.507699
0.055129 0.0474793 0.335034
-0.00212207 -0.0309328 0.339671
0.266632 -0.261429 0.451014
0.202999 0.181372 0.362559
-0.134246 -0.074443 0.345926
-0.266937 -0.160957 0.507699
0.107637 0.283898 0.596584
-0.238746 0.0432342 0.336127
-0.273074 0.108974 0.507699
0.126218 -0.165618 0.30381
-0.0446991 0.132928 0.305247
-0.286011 -0.25454 0.396677
0.110037 -0.115946 0.297591
-0.0835735 -0.0782975 0.294603
0.283279 -0.0920107 0.479195
0.287335 -0.272624 0.234824
0.255514 0.242061 0.60604
-0.287217 -0.291133 0.110788
0.13063 -0.0494095 0.343498
0.255613 0.0426873 0.319983
-0.100628 0.192594 0.387476
0.130837 0.242084 0.503829
-0.0564642 0.0290369 0.287572
-0.172733 -0.0463724 0.343808
0.129138 -0.195448 0.306787
-0.0128432 -0.114902 0.34453
-0.230909 -0.0212081 0.344592
0.00787879 -0.0851622 0.294255
-0.251446 0.235487 0.51918
-0.150068 -0.0708227 0.297009
0.273163 -0.222977 0.499627
-0.200295 0.253216 0.552308
0.252406 0.195323 0.555286
0.201059 0.195546 0.398491
0.0489618 0.104928 0.292389
-0.105483 0.066852 0.335486
0.283273 -0.197976 0.478351
0.27405 -0.222638 0.462085
0.107832 0.221066 0.449369
-0.0472051 0.271825 0.558507
0.150793 0.194167 0.392679
0.180582 0.273902 0.61921
-0.169945 0.109666 0.294033
0.0251475 0.160356 0.43419
0.0407843 -0.281609 0.306932
0.153082 -0.276862 0.367053
0.00862138 -0.12042 0.296318
0.204927 0.139134 0.389347
-0.200655 0.171331 0.475246
-0.286366 -0.294819 0.0437189
-0.156089 0.176547 0.352463
-0.178558 0.270828 0.620206
0.282269 0.0383746 0.501888
-0.00409977 -0.0105357 0.289888
-0.107515 -0.244159 0.358003
-0.0741024 0.0577846 0.335004
-0.0262718 0.218207 0.441588
-0.291364 0.0606133 0.493965
0.286911 0.159993 0.00971918
-0.274176 -0.0615847 0.507699
-0.255516 -0.264802 0.349266
0.208733 0.172631 0.483192
-0.0820629 0.120745 0.359198
-0.071134 -0.28283 0.3081
-0.255579 -0.165538 0.344697
-0.0106746 -0.0770606 0.342336
-0.151812 0.220662 0.587934
0.25263 0.209249 0.440812
0.070614 0.26242 0.539321
0.230992 0.0308161 0.337708
0.303743 -0.0422217 0.496881
0.287044 0.024723 0.0102849
-0.156125 0.0980334 0.342693
0.234622 -0.241504 0.327104
-0.169777 -0.265628 0.368817
0.274188 -0.270994 0.167599
0.239564 0.0964717 0.342265
0.193729 0.0211961 0.288699
0.085033 0.130848 0.373074
-0.139913 0.191656 0.513975
0.246079 -0.14773 0.362981
-0.255533 -0.0674298 0.3153
0.203492 -0.156515 0.360769
-0.231449 0.221088 0.629417
-0.198992 -0.140181 0.308375
-0.249414 -0.0537093 0.349751
-0.0689323 -0.0276319 0.291323
0.148175 0.23298 0.618701
-0.197945 0.17742 0.354221
0.220084 0.151156 0.424207
-0.11586 0.0284383 0.336271
-0.255568 -0.115943 0.332774
-0.270763 -0.143899 0.478836
0.101861 -0.266936 0.359352
0.0276055 -0.271724 0.354419
0.155501 0.0298755 0.336732
-0.165399 0.190166 0.513846
0.170073 -0.300914 0.324592
-0.255664 0.231779 0.586191
-0.183454 0.215032 0.443403
0.28727 0.000531673 0.488262
0.210372 -0.205276 0.368729
0.0250753 0.19325 0.504384
-0.086481 -0.239178 0.355138
0.129183 0.284694 0.0137743
0.242556 0.0121125 0.291018
-0.190816 -0.137416 0.356872
-0.0431296 0.269633 0.620633
0.277563 -0.0401106 0.477035
0.103239 -0.297108 0.312938
-0.183693 -0.000204325 0.290624
0.179321 -0.00712452 0.291261
0.0593354 -0.119756 0.345735
-0.287223 -0.272255 0.239018
-0.138874 0.284763 0.0103651
0.105104 -0.0021216 0.289725
0.196925 -0.0029253 0.341239
0.284916 -0.252018 0.00667022
-0.012991 0.122734 0.299819
-0.0749613 0.124696 0.300892
-0.303782 0.110435 0.5032
-0.12805 -0.0265673 0.34118
-0.267382 -0.23748 0.441659
-0.24762 -0.186805 0.315029
0.181483 0.249222 0.53328
-0.244946 0.192248 0.546644
-0.226059 -0.0884818 0.353495
-0.267874 0.0105598 0.0182274
-0.113177 0.236801 0.486199
0.206203 0.142399 0.312221
0.225011 -0.0406289 0.297932
-0.187526 -0.19933 0.364071
-0.105902 -0.0936982 0.29562
0.159093 0.21018 0.563685
0.212564 -0.186753 0.315425
-0.110758 -0.298708 0.344725
-0.290449 -0.0805356 0.493965
-0.282278 -0.119463 0.506989
0.24384 0.113291 0.290796
0.0825351 -0.00306707 0.338289
0.242179 -0.0440431 0.348408
0.254469 0.247959 0.561385
0.275506 -0.133299 0.507699
-0.166406 0.138328 0.309166
0.0986652 0.291444 0.0223224
-0.0350688 -0.23046 0.303458
-0.239346 0.189721 0.3718
-0.279356 -0.0674723 0.00216092
-0.197512 0.204368 0.565932
0.166185 0.207982 0.425408
-0.0426176 -0.186484 0.349459
-0.0330875 0.187028 0.4911
-0.0340932 -0.299316 0.340247
0.0280639 0.284722 0.0140779
0.222085 0.19556 0.551045
0.286034 -0.271857 0.274007
0.00405358 -0.210556 0.350099
-0.0516894 0.237452 0.484036
-0.266095 -0.293694 0.0514075
0.299739 0.166865 0.493965
-0.279051 0.195747 0.497932
0.266493 -0.24573 0.401995
0.0729389 0.245655 0.624356
0.0560727 0.00228944 0.289139
-0.176664 0.224832 0.612193
0.301206 -0.120609 0.507699
0.0919691 -0.212481 0.353411
-0.266787 0.161313 0.0162748
0.205105 0.2371 0.509128
0.095423 0.165702 0.335586
-0.0256064 -0.115472 0.296028
-0.193252 -0.275576 0.323517
-0.122262 0.218632 0.575112
-0.184718 0.298763 0.00252958
0.0269791 0.214193 0.432997
0.179371 -0.276132 0.37177
0.287205 0.101959 0.48564
0.254957 0.215433 0.607774
0.166209 -0.081635 0.297927
-0.0890211 0.145428 0.402488
0.0261159 0.0413094 0.286855
-0.00433103 0.0758431 0.336059
0.194697 -0.106454 0.35329
-0.228132 0.160302 0.450717
0.0108224 0.138549 0.387723
-0.303707 -0.199386 0.496451
0.210546 -0.077683 0.301029
0.251954 0.20006 0.40205
-0.0823853 0.224077 0.455955
-0.0219339 0.280515 0.575433
0.0424104 0.154803 0.323005
-0.147787 -0.0941327 0.299089
0.193922 0.0580058 0.285982
-0.293568 -0.262966 0.444264
-0.166844 0.069583 0.335572
0.147769 -0.197212 0.356808
0.217087 -0.241368 0.373955
0.0624629 0.248988 0.509945
-0.271043 -0.271779 0.172379
-0.193378 0.253238 0.626034
-0.0211082 0.140642 0.310938
-0.245394 -0.244796 0.327551
0.116278 0.0639631 0.33533
-0.103976 0.111936 0.294857
-0.255632 0.251794 0.620011
0.267825 0.078646 0.0182279
0.274324 0.21125 0.0228388
0.164228 0.232934 0.484806
0.255535 0.16026 0.372532
-0.2661 -0.262783 0.30492
-0.226779 0.123096 0.299901
-0.0554938 -0.225155 0.352349
-0.255727 0.104003 0.317468
-0.0152646 0.0659927 0.285716
0.269327 -0.221529 0
0.101334 0.234197 0.477943
-0.245072 0.206304 0.434206
0.0715183 0.19149 0.384905
0.237338 0.290253 0.0226632
-0.217706 0.29539 0.0230102
-0.140779 0.159917 0.438367
-0.116889 0.171078 0.460205
0.238283 -0.0793451 0.304309
-0.183366 -0.172248 0.309648
-0.158815 0.0471905 0.286567
-0.245671 -0.0884436 0.305572
-0.172087 -0.0735092 0.346852
0.180713 -0.0603585 0.34689
-0.208373 0.228507 0.48653
-0.267129 0.0930412 0.507699
0.0790706 0.199379 0.519901
-0.147778 -0.20945 0.358246
0.0486514 0.155502 0.423724
0.295793 -0.255067 0.467934
-0.165221 0.0012149 0.33925
0.130803 -0.251444 0.311949
-0.284039 -0.022772 0.0200841
-0.0289592 0.174731 0.464874
-0.285258 -0.206762 0.0010634
-0.0112498 0.0435858 0.335329
0.0504111 0.0672656 0.285661
0.021276 -0.135506 0.345714
0.0843219 0.0879233 0.288036
-0.0497058 0.28586 0.0073951
-0.104392 0.289943 0.610088
0.284422 -0.0338999 0.507699
-0.283377 -0.25831 0.461368
0.286745 -0.0195864 0.00870388
-0.0744069 0.254977 0.523196
0.0452109 0.305753 0.0116484
-0.21948 -0.118909 0.307943
-0.0582823 0.204228 0.412233
-0.226496 -0.268261 0.378817
0.15473 0.138374 0.386768
-0.271423 -0.130838 0.00312634
0.27701 0.042689 0.476941
-0.204875 0.163466 0.33244
0.0398003 0.181699 0.36358
-0.087059 0.182079 0.36456
0.255643 -0.291377 0.355258
0.14488 -0.218265 0.358732
0.226882 0.2301 0.497746
0.175111 0.159715 0.437623
-0.248996 0.0450578 0.286804
-0.260893 0.167111 0.501115
-0.260792 -0.235916 0.485727
-0.286841 -0.0319899 0.490672
0.017397 0.237899 0.483549
0.266158 -0.125028 0.0132541
0.0476192 0.141376 0.393585
0.0266775 -0.00762174 0.338279
-0.255511 -0.0085051 0.299134
0.214417 0.224078 0.631835
-0.255612 0.0374479 0.312896
-0.00118367 0.172943 0.34568
-0.287075 0.127456 0.493965
-0.120157 0.145427 0.402412
0.229258 -0.276046 0.330184
0.136689 0.146692 0.406738
0.2205 0.262929 0.590985
0.287238 -0.24499 0.411292
-0.27696 -0.292796 0.163884
-0.134139 -0.239001 0.360435
0.0641121 -0.124245 0.297542
-0.303714 -0.170924 0.49897
0.0120779 0.295256 0.606747
-0.279235 -0.227678 0.48065
-0.285152 -0.260445 0.272086
0.252669 -0.137627 0.312551
0.255538 0.180077 0.433341
-0.223659 -0.16694 0.36425
0.303534 -0.176093 0.506656
0.0863743 -0.288775 0.35949
0.192178 0.262157 0.573016
-0.303751 -0.0183769 0.496376
-0.060436 0.119162 0.357752
-0.113598 -0.254503 0.310311
-0.0742946 0.158483 0.32686
0.0460976 -0.0664014 0.293244
0.135507 0.169086 0.460089
-0.0380057 0.077611 0.336094
-0.196287 -0.299797 0.328414
-0.223346 -0.0443645 0.347636
-0.301451 -0.125315 0.493965
0.156505 0.283733 0.613446
-0.194891 0.273091 0.603662
-0.191361 -0.254138 0.320667
-0.156119 0.130779 0.372874
0.277852 -0.255408 0.427961
0.118992 -0.0766914 0.34456
-0.22701 0.194561 0.395434
-0.0634777 0.192649 0.387436
-0.0338862 0.300973 0.00354661
-0.273923 -0.0836668 0.477377
-0.233838 0.229282 0.49745
-0.149809 0.189052 0.380689
-0.078356 -0.0710743 0.342634
-0.205384 0.0683303 0.285516
-0.248914 0.134134 0.38008
0.260839 -0.0249999 0.500661
0.274217 0.121422 0.497899
0.0352281 0.275453 0.56544
0.109144 0.00295304 0.337904
0.209534 0.254896 0.560611
0.20445 0.254318 0.625705
-0.0653639 0.139299 0.389201
0.175329 -0.123156 0.302487
-0.0649626 -0.228933 0.304283
0.267481 -0.0648134 0.00732339
-0.255748 0.155483 0.343758
-0.272897 -0.189907 0.48911
-0.156589 -0.179444 0.356361
-0.252732 0.138528 0.305508
-0.230633 -0.21724 0.323677
0.226955 -0.0613505 0.297992
0.209812 0.0668188 0.335537
-0.300849 -0.067979 0.507699
-0.223535 0.203138 0.422115
0.232903 0.0649663 0.281337
-0.273613 -0.114034 0.022562
-0.276071 0.0424412 0.507699
0.105714 0.113455 0.352522
-0.255689 0.191909 0.493445
0.266213 -0.287341 0.122504
0.278874 -0.284421 0.0703133
-0.266591 -0.036957 0.484543
-0.254737 -0.108742 0.355694
-0.15952 -0.0302949 0.293376
0.25569 -0.172152 0.355788
-0.133626 0.0999862 0.290751
0.0907058 0.19214 0.504098
0.255528 0.002529 0.304935
0.269812 -0.0431627 0.507699
0.272589 0.218821 0.497458
-0.0750451 -0.141206 0.347118
0.255455 0.181629 0.382038
-0.176413 -0.111759 0.352101
0.252033 0.183269 0.355856
0.074247 -0.0959063 0.344224
0.0811287 0.175014 0.466844
0.0580799 -0.22573 0.352469
-0.287222 -0.278591 0.02629
0.0604813 -0.0552442 0.341624
0.287303 -0.131133 0.485804
-0.285318 0.116595 0.00615434
-0.252751 0.217165 0.456585
-0.0669891 0.191092 0.501978
0.0020619 -0.300313 0.333066
-0.279006 -0.241882 0.375357
-0.278015 -0.0132273 0.498106
-0.26687 -0.281265 0.197926
-0.27251 0.205584 0.477878
-0.133452 0.152345 0.42039
-0.100821 -0.0540754 0.293062
-0.109163 -0.194264 0.353793
-0.242935 -0.223991 0.373683
-0.0626556 -0.283207 0.356274
0.211943 -0.121958 0.306653
-0.25441 -0.296064 0.351421
0.0505004 0.219625 0.563353
0.255569 0.202262 0.521271
0.260795 0.151904 0.495569
-0.0455069 0.168571 0.339649
0.215806 0.186645 0.524726
-0.173039 0.0249246 0.288424
-0.214519 0.0279654 0.288578
-0.11023 0.124219 0.362365
-0.280941 0.0982119 0.0221528
0.255655 0.127255 0.341747
0.283091 0.195101 0.00405424
0.181442 0.217772 0.449523
-0.284891 -0.286944 0.081321
0.0824356 0.161779 0.438023
0.190864 0.208284 0.573071
-0.274365 0.0599232 0.477305
-0.266161 -0.00610159 0.486227
0.0602458 -0.256356 0.354481
0.282323 -0.18458 0.499527
0.0931307 0.274748 0.570586
0.139571 0.117988 0.356616
0.282338 -0.23617 0.485495
0.140662 0.105148 0.292513
0.103969 0.0942557 0.341078
-0.285711 -0.241613 0.0178176
0.154188 0.143114 0.312847
0.297744 0.014691 0.507699
-0.106816 0.0028139 0.337909
-0.266121 -0.165143 0.487021
0.0146641 -0.270209 0.305365
0.254902 0.271049 0.00895596
0.173815 0.286772 0.00590643
0.268 0.0131602 0.00638913
0.144902 -0.271959 0.314917
0.201918 -0.0342697 0.295917
-0.12408 0.098358 0.342891
0.0176336 -0.177784 0.348175
0.278702 0.0707786 0.497979
0.0385294 -0.297593 0.352364
-0.0663438 0.176301 0.351949
-0.158304 0.30429 0.00719917
0.269256 -0.144639 0.480102
-0.0647497 0.264671 0.544269
-0.222579 0.173922 0.347106
0.236047 -0.196439 0.319861
-0.156797 -0.211179 0.309666
0.180453 0.201863 0.41071
-0.272234 0.223011 0.497179
-0.00255861 -0.242309 0.351945
-0.274345 -0.263093 0.372673
0.062773 0.165127 0.334749
-0.0308123 -0.19077 0.300766
-0.285353 0.202087 0.00455393
-0.248762 0.15255 0.430398
0.145454 -0.300872 0.328865
-0.282388 -0.251994 0.313624
0.0820706 -0.265901 0.307805
-0.268672 0.24757 0.00505984
0.271228 0.104483 0.507699
-0.113147 -0.140321 0.300105
0.215921 0.0200572 0.289521
-0.130486 0.177856 0.4805
-0.0186676 -0.205872 0.349921
0.0164189 0.262993 0.622845
0.231794 -0.221408 0.372838
-0.0410496 0.29357 0.612699
0.11355 -0.0567987 0.293256
0.145527 -0.101563 0.348322
-0.124532 0.275236 0.618777
-0.252882 0.221493 0.478524
0.0249353 -0.161621 0.298729
0.0268864 0.230845 0.585977
-0.255722 0.0759194 0.320901
-0.2147 -0.140819 0.360391
0.00143593 0.285103 0.0087257
-0.248843 -0.16253 0.365045
0.255502 0.222898 0.539474
-0.139033 -0.182255 0.306718
0.175622 -0.092243 0.349673
-0.0865555 0.243975 0.62457
0.156325 0.185415 0.498803
-0.178652 0.234057 0.631768
-0.215026 0.0612512 0.335288
-0.0833303 -0.295911 0.357982
0.280535 -0.073832 0.493965
0.120645 -0.218925 0.307927
0.00944656 -0.0622815 0.34148
0.0546394 0.266718 0.547935
-0.0208464 0.212177 0.544878
-0.100778 0.231422 0.599014
-0.235264 -0.00159923 0.288986
-0.132545 0.167206 0.337789
0.252644 0.163294 0.328374
0.183753 0.225781 0.471992
-0.0540273 0.092195 0.288687
-0.244838 -0.136418 0.311965
0.0285356 0.0890908 0.288211
0.137778 0.186455 0.374082
0.255699 -0.269073 0.366048
0.255603 -0.158129 0.335335
-0.0253748 0.206587 0.416804
-0.194023 -0.262522 0.372729
-0.0149904 -0.149727 0.298032
0.11387 0.205198 0.540447
0.252625 0.227416 0.492275
0.211494 -0.158861 0.311468
0.160384 -0.157752 0.354518
-0.233809 -0.295422 0.368283
0.0358395 -0.01301 0.290034
-0.230862 0.0972903 0.342633
0.059188 0.2269 0.461603
0.262243 0.171977 0.507641
-0.255655 0.16712 0.402947
-0.224142 -0.031712 0.296749
-0.0590927 -0.078266 0.29442
-0.0596814 -0.303153 0.312988
0.183262 0.138504 0.309176
0.251652 0.166514 0.470925
0.101601 -0.0527559 0.341465
0.28065 -0.24443 0.358825
0.226895 0.19204 0.389767
0.110837 0.204501 0.413312
0.00816253 -0.200466 0.301002
-0.195128 0.240655 0.517421
-0.286534 -0.235249 0.454437
0.260824 0.0337921 0.497863
0.0376565 -0.205182 0.301911
-0.0143329 0.160005 0.433505
0.125393 0.0430364 0.335342
0.146948 0.221178 0.586598
-0.00698574 -0.138213 0.345893
0.235213 -0.2993 0.339908
-0.129595 -0.00348621 0.289837
0.279401 0.156503 0.507699
0.0176037 0.0394857 0.335557
0.279775 -0.291308 0.170092
-0.00654077 0.147228 0.406268
0.0954879 -0.0256801 0.291231
-0.23598 0.0019888 0.341911
-0.20044 0.113485 0.352598
-0.028127 0.000383016 0.337811
0.271006 -0.242537 0.380149
-0.0857452 -0.0414943 0.340743
0.287074 -0.143698 0.0102283
-0.266227 -0.209968 0.0139961
0.106585 -0.186907 0.352843
0.0701838 0.285443 0.589443
-0.0539151 0.230825 0.588059
0.00258839 0.227253 0.460837
-0.0261019 0.266116 0.544418
0.181882 0.17575 0.483931
0.182752 0.240885 0.511711
-0.225138 0.287207 0.00514672
-0.185619 -0.287319 0.374242
-0.217848 0.271606 0.613978
0.04549 -0.234369 0.30404
-0.181201 0.203191 0.414076
-0.230125 -0.173854 0.317579
-0.191334 -0.0842978 0.350686
0.0856051 -0.155323 0.348023
-0.267123 0.0643273 0.00798319
-0.112627 0.171976 0.344476
-0.107823 0.259625 0.538947
0.235558 -0.146643 0.309398
0.236733 -0.100011 0.356274
-0.153631 -0.157356 0.353246
-0.282256 -0.200017 0.505686
-0.287238 -0.208871 0.484867
0.285017 0.241602 0.00624397
0.286556 -0.0541389 0.00836167
0.252649 0.131686 0.30082
0.26617 -0.1006 0.485932
-0.146898 -0.29872 0.344707
-0.212912 0.260744 0.579737
0.266416 -0.182043 0.010218
0.00749082 0.257625 0.525613
0.195801 0.192176 0.530342
-0.207059 -0.297641 0.352456
0.181623 -0.240326 0.31736
0.0194412 0.156971 0.325246
-0.18544 0.126136 0.301597
-0.047002 -0.0204288 0.290466
0.229691 0.166488 0.468612
0.0780533 0.208003 0.538681
0.0822703 0.239566 0.489591
-0.255704 0.0533307 0.327574
-0.130382 0.249165 0.520651
-0.189239 0.0209887 0.338414
0.0827078 -0.30187 0.321882
0.1434 0.126435 0.301827
-0.0577455 -0.0949548 0.344097
-0.118294 -0.0907679 0.345717
-0.177669 0.102943 0.344779
-0.0972644 0.216426 0.439345
-0.022386 0.137974 0.386463
-0.116676 0.0459747 0.286646
-0.0683676 -0.0174113 0.339203
-0.0237478 -0.0270436 0.33941
-0.172891 0.223188 0.461732
0.255438 0.26219 0.616509
-0.187606 0.248355 0.534186
0.0531822 0.292957 0.604945
0.255563 0.0620114 0.308305
-0.254123 0.241956 0.542692
-0.16281 0.266414 0.569951
-0.0318113 -0.0881087 0.342943
0.255581 0.234484 0.627236
-0.0992522 -0.175688 0.301703
-0.169598 0.140343 0.391518
-0.238928 -0.124201 0.359659
-0.26659 -0.109701 0.490717
0.272479 0.120348 0.00272961
-0.0586382 0.240067 0.60855
0.232864 0.214827 0.611288
0.253005 -0.11942 0.358782
-0.17661 0.180112 0.360115
0.255654 0.141881 0.319666
-0.099745 0.230808 0.470658
-0.281256 0.210163 0.0220466
-0.255727 0.0998853 0.3393
0.255633 -0.0880263 0.33591
-0.255574 0.18091 0.384053
0.0952303 0.239947 0.617546
-0.0271332 0.0247113 0.287826
0.234975 -0.100602 0.306258
0.233679 -0.0129585 0.290599
-0.303721 -0.14709 0.496866
0.160098 0.0991326 0.290385
-0.0766163 0.0168623 0.337012
-0.247718 0.152037 0.320041
-0.142756 0.234855 0.620966
0.130777 -0.140613 0.351554
-0.0584657 0.225568 0.458701
0.268184 -0.24123 0.00856204
0.0524157 -0.177827 0.349223
0.284693 -0.210095 0.0195725
-0.0680268 -0.252715 0.305818
-0.273099 -0.181782 0.507699
0.00213482 -0.0633951 0.292981
-0.282713 -0.0907305 0.507699
-0.270097 -0.150671 0.0206946
0.0222509 -0.293536 0.307109
-0.255683 0.172484 0.360015
-0.225188 0.185621 0.523333
-0.065497 -0.172341 0.300639
-0.226264 0.196514 0.555616
-0.0450585 0.105216 0.345901
-0.266833 0.0833583 0.491249
0.260876 -0.17292 0.496271
0.282286 -0.0122448 0.507184
0.207349 -0.134242 0.358674
0.00432847 -0.140471 0.297491
-0.0768041 0.217201 0.558808
-0.1126 0.302598 0.00491724
-0.00461007 0.201155 0.521351
-0.252607 -0.20082 0.321369
-0.0981516 -0.137722 0.347536
0.287328 -0.242035 0.444702
-0.268046 -0.251427 0.425824
-0.26597 -0.184122 0.0125118
-0.139193 0.258607 0.624305
-0.200065 -0.00414853 0.341383
-0.254135 -0.0441035 0.300782
0.108173 0.241853 0.496681
0.286715 -0.0246445 0.491011
-0.255714 0.199018 0.529617
-0.182278 0.175985 0.484984
-0.269822 0.176681 0.00448425
0.117784 0.253701 0.62595
-0.255751 0.215137 0.599087
0.0990751 0.212485 0.43067
-0.286525 -0.163222 0.507699
0.255475 0.208608 0.477665
0.0526102 0.242082 0.612411
0.18428 0.116106 0.35475
0.191891 0.223979 0.617535
0.0607587 -0.268113 0.3067
-0.0109789 0.185463 0.371729
0.287321 -0.216189 0.481896
-0.219659 0.142371 0.39959
0.0722108 0.0904536 0.339424
0.00364507 0.242604 0.609801
0.286848 -0.288834 0.13747
-0.211008 0.137103 0.308158
0.255669 -0.0309665 0.338747
-0.274249 0.0332513 0.0227831
0.1869 -0.0775627 0.29911
-0.102785 0.208975 0.546162
-0.272582 -0.248469 0.331859
-0.189472 0.054494 0.286151
0.158458 0.128482 0.368512
-0.185506 -0.124466 0.304388
0.151625 0.295554 0.00187278
0.220593 0.17781 0.499819
-0.244074 0.269053 0.616495
-0.230677 -0.262808 0.330083
-0.265061 0.284931 0.0205072
-0.270355 -0.29406 0.0734371
-0.211101 0.090763 0.339643
-0.0798286 -0.0529524 0.292966
0.116468 0.0515386 0.286407
-0.109153 -0.233815 0.307976
0.0974716 -0.0177553 0.339228
0.176964 0.254313 0.625719
0.123867 0.266414 0.5597
0.251402 -0.118056 0.309751
-0.232214 0.0628364 0.285548
0.152945 0.253245 0.533248
-0.0282489 0.233019 0.590837
0.211966 -0.0573097 0.34936
0.282294 -0.0612936 0.505759
0.185172 -0.164667 0.309065
0.276912 -0.161923 0.0230102
0.13335 0.28458 0.605694
-0.120257 -0.192827 0.305567
0.121103 0.157577 0.429214
0.093265 0.266746 0.55158
-0.180869 0.162927 0.331705
0.104336 0.0822882 0.287182
0.255541 0.0277851 0.305626
-0.150034 -0.296317 0.318531
-0.0953509 0.283651 0.592473
-0.286813 -0.0879182 0.0089205
0.287331 -0.261456 0.303073
-0.130453 0.192485 0.387327
0.281483 -0.27713 0.0142799
0.219361 -0.285605 0.380432
0.0642882 0.0827122 0.287235
-0.179756 0.044059 0.33547
-0.277592 0.158377 0.498188
-0.0792035 -0.0989582 0.344416
-0.273002 -0.29516 0.142814
-0.146195 0.115505 0.296096
0.282306 -0.111733 0.496265
0.276074 0.205865 0.498231
0.0593948 0.106419 0.346383
-0.0441779 -0.117052 0.34507
-0.0859982 0.172229 0.460858
0.249055 -0.255137 0.324654
0.149451 0.196317 0.524831
0.0676602 0.2187 0.444136
0.282319 -0.151842 0.504128
0.287018 -0.288293 0.0349456
0.062192 0.175238 0.4674
0.00834979 0.217851 0.440788
0.23929 0.153541 0.432947
-0.286979 -0.222281 0.010061
-0.267692 0.0132234 0.481939
0.102634 -0.229757 0.356164
-0.107923 -0.280305 0.361238
-0.0129641 -0.158049 0.347035
-0.228138 0.152099 0.427456
0.273665 -0.280609 0.099857
0.0762657 -0.26886 0.356569
0.280935 -0.248856 0.328522
-0.0836079 -0.214831 0.303442
-0.135077 -0.152486 0.30363
0.173623 0.0561507 0.286101
0.179283 0.20125 0.550528
-0.180012 -0.193658 0.311593
-0.262091 -0.0709361 0.493996
-0.278374 -0.265344 0.207669
0.00607859 0.0507818 0.28638
-0.239643 0.239942 0.630505
0.274741 0.0230492 0.507699
0.255546 -0.199866 0.325967
0.0260623 -0.0695571 0.293342
0.130163 -0.187221 0.355591
0.221838 0.142584 0.39995
-0.140181 0.265632 0.562702
0.118881 0.182954 0.366399
-0.267297 -0.249657 0.357129
-0.157817 0.233046 0.485316
-0.087951 -0.105041 0.29633
-0.285443 -0.0504382 0.493632
-0.209909 -0.264263 0.325163
-0.210224 -0.0213394 0.344389
0.175797 -0.227396 0.365442
0.28724 -0.274072 0.204216
0.0798607 -0.131525 0.346501
-0.129164 -0.193455 0.356028
0.0437593 -0.135516 0.346237
0.215159 0.0430929 0.336083
0.222626 0.117941 0.297201
-0.00248344 0.239126 0.48616
-0.286147 0.146541 0.482518
-0.123265 -0.297543 0.315216
-0.231381 0.105158 0.292223
0.230493 0.0712267 0.335848
-0.121205 -0.0594739 0.343293
-0.0175521 0.0039047 0.289043
0.267586 0.132879 0.482007
-0.0339503 0.117165 0.296874
0.171155 0.151385 0.31938
0.220463 0.284618 0.0116664
0.157703 0.0496374 0.334989
0.160713 0.183675 0.367877
0.230035 0.256294 0.574776
0.0512306 -0.303274 0.311947
0.0773018 0.231529 0.472084
-0.192775 0.022484 0.288579
0.237784 0.203342 0.578777
-0.0616858 -0.173003 0.349151
-0.255736 0.147478 0.405951
-0.266295 0.0429576 0.485412
-0.0914308 -0.263062 0.308603
0.267098 -0.0731649 0.483177
0.231188 0.0316027 0.284333
0.106435 -0.19831 0.304511
-0.0355325 0.28869 0.5943
-0.255624 0.246392 0.599568
0.271247 0.187402 0.478541
0.272787 -0.273974 0.291256
0.170462 0.215127 0.582863
-0.093589 0.00492854 0.289254
-0.250228 0.0667377 0.281371
-0.229817 -0.198785 0.316714
0.28269 0.0642279 0.0211901
0.1548 -0.00572591 0.291213
0.25569 -0.231393 0.360919
0.128683 0.214292 0.437064
0.193067 0.252876 0.548744
-0.102059 0.0302374 0.287634
0.0666843 -0.0721709 0.294191
-0.0386495 0.200435 0.403707
-0.0270325 0.247256 0.503541
0.00936252 0.0170374 0.288275
0.189038 0.162561 0.451137
0.211001 -0.102842 0.303991
0.173139 -0.204178 0.311647
-0.065328 0.293004 0.605952
0.0628231 0.302768 0.0198576
0.238951 0.213901 0.453975
0.0963667 0.102866 0.291711
0.0647815 -0.0951071 0.295666
0.287164 -0.236992 0.463626
0.271874 0.0285658 0.0219232
0.10646 -0.0968193 0.295825
0.248429 -0.161095 0.315801
-0.198497 -0.102298 0.35281
0.164084 -0.174068 0.306546
0.268263 0.101592 0.00589073
0.0391803 0.167214 0.44876
-0.166411 -0.284748 0.319984
0.266116 -0.018078 0.0117159
-0.266095 -0.267006 0.0179688
-0.00347887 0.0814009 0.287038
-0.106184 0.150962 0.319056
-0.243249 0.28454 0.021186
0.074249 0.220718 0.566381
-0.246608 0.0258575 0.338569
-0.25567 0.224101 0.568346
0.167619 -0.0623481 0.296208
-0.292193 -0.0275217 0.507699
-0.281572 0.0261174 0.493965
0.0852401 -0.232725 0.305209
0.28594 0.17361 0.482221
-0.0521421 -0.203251 0.35084
-0.284666 -0.163317 0.0195326
-0.0724966 0.131266 0.373918
0.0814634 -0.115777 0.297017
0.252689 -0.0420445 0.295028
-0.283719 -0.0565495 0.0203447
-0.0392242 0.225583 0.45734
0.0410683 -0.254786 0.353774
0.285222 -0.0871833 0.507699
0.160047 0.20072 0.408184
-0.276603 -0.130678 0.493965
-0.279287 0.00595637 0.00212893
0.28613 -0.2579 0.371704
0.25562 0.146101 0.385478
-0.19338 0.165199 0.45859
0.138467 0.228666 0.602084
0.206563 0.164211 0.333362
0.15833 -0.0520188 0.343952
-0.156811 -0.252092 0.364867
0.152643 -0.243837 0.31279
-0.0451308 0.280658 0.577571
-0.136726 -0.135456 0.351305
-0.12247 0.189736 0.506348
-0.194667 0.206836 0.427152
0.285579 0.223521 0.493394
-0.131298 0.0336923 0.287445
0.0922357 0.0119484 0.288804
0.3037 0.117566 0.505304
-0.290748 0.123599 0.507699
-0.25549 -0.170074 0.325179
-0.227605 -0.066601 0.302502
0.114002 0.214465 0.562561
0.139995 -0.128443 0.30204
-0.284223 0.0680002 0.507699
-0.268691 -0.282797 0.108504
0.0714143 0.191516 0.502809
0.195067 0.127078 0.365975
0.273508 -0.268192 0.188403
0.169446 0.277004 0.601296
-0.286688 0.0751296 0.484054
0.0181806 0.130323 0.372293
0.043166 0.234186 0.476218
0.235132 0.17626 0.35086
0.11898 0.144516 0.400304
-0.0413341 0.0453058 0.28662
0.178451 -0.152707 0.35723
-0.0265727 0.169041 0.340289
0.270992 -0.263806 0.35618
0.0490454 0.0244619 0.287841
0.112569 -0.285375 0.362213
0.14463 -0.013072 0.34052
0.117057 -0.149254 0.301334
0.147353 0.249835 0.627232
-0.272916 -0.0945893 0.493965
0.219431 -0.258071 0.326477
-0.0856291 0.156432 0.42646
0.00493808 0.0534573 0.334869
0.164197 -0.188138 0.358752
-0.106834 0.258712 0.624261
0.208349 0.0700886 0.285443
0.255582 0.177616 0.455706
0.00704548 -0.118946 0.344775
-0.228157 0.304181 0.00772289
-0.255586 -0.0141636 0.317073
-0.274562 -0.236507 0.413309
0.273988 -0.247135 0.462
0.113715 0.250982 0.520019
0.284436 0.0545062 0.494811
-0.255566 0.19635 0.420622
0.228226 0.153991 0.31677
-0.229481 -0.0943943 0.302035
-0.167177 -0.241771 0.315054
0.239151 0.0103849 0.340758
0.0279003 -0.0420037 0.29173
-0.0656114 0.252039 0.626461
0.280675 -0.303459 0.0522813
-0.0149931 0.287965 0.591105
0.249354 0.114584 0.353943
0.285413 0.0451822 0.00641731
-0.289497 0.102769 0.493965
0.269774 -0.289824 0.0280006
0.236255 -0.296707 0.358348
0.215587 0.201694 0.567402
0.248806 -0.0145509 0.344264
0.266205 -0.2588 0.337069
-0.0145872 0.260178 0.531078
0.28465 0.0834752 0.507699
0.185865 0.037967 0.287232
0.115454 -0.13048 0.348893
0.266191 -0.187275 0.485819
-0.134555 0.136344 0.383142
-0.262072 0.118139 0.49406
0.153653 0.0526639 0.286326
0.263346 0.25607 0.0125921
0.252734 -0.239119 0.322924
-0.13522 -0.0209981 0.29195
0.282245 0.141156 0.4951
0.104622 0.161182 0.436642
-0.156102 -0.0543088 0.344147
0.239049 0.0499321 0.282017
0.0398229 0.05773 0.335034
-0.0980795 0.200214 0.404056
0.266354 -0.153239 0.507699
-0.255721 0.178936 0.480386
-0.28719 0.16538 0.0107323
0.242512 0.195004 0.387099
0.18965 -0.126514 0.355608
-0.255728 0.0905341 0.295588
0.282276 0.0137509 0.495681
-0.283969 -0.1537 0.493965
0.171417 0.141391 0.39381
-0.237684 0.215012 0.613297
-0.131673 -0.300132 0.334617
0.272667 -0.299909 0.106191
0.292425 -0.0978008 0.493965
0.137055 0.00987843 0.289417
0.131505 0.0748718 0.335909
0.0422575 0.289834 0.00314615
-0.274222 -0.23058 0.495277
0.0157262 0.211563 0.543506
0.00702624 -0.0980081 0.343559
-0.0981433 0.223791 0.580035
-0.194447 0.220887 0.610717
0.0189246 0.167644 0.449772
0.0891802 0.189555 0.38073
-0.0742133 -0.189914 0.350232
-0.203466 0.210365 0.58694
0.201769 0.16829 0.466924
0.0613044 0.117485 0.297057
-0.0993574 -0.0123129 0.290371
-0.252243 0.251321 0.565706
0.2608 0.123676 0.504935
0.0905212 0.284583 0.615687
0.074545 0.06753 0.33552
-0.178547 -0.24661 0.368205
-0.0475257 -0.243613 0.304702
0.183005 0.169154 0.466942
-0.282242 -0.242809 0.470738
0.0506249 0.142567 0.312415
0.252887 -0.0825596 0.353692
0.017729 0.280149 0.617158
0.24441 -0.204821 0.371004
0.0946059 -0.250506 0.357067
0.278872 -0.253624 0.0246832
-0.189857 0.199644 0.550237
-0.0251563 0.267701 0.621279
-0.229404 -0.24376 0.327405
0.136445 0.0881399 0.288122
0.0101285 -0.000427324 0.337887
0.142476 -0.211189 0.309521
-0.255702 0.23158 0.611353
0.026997 0.301315 0.0210632
0.044793 0.0240285 0.336412
-0.300778 0.129073 0.493965
0.247302 0.0383872 0.336823
-0.0867742 0.290618 0.613672
-0.056637 0.2809 0.616894
0.16481 0.163916 0.333024
0.135461 -0.0321397 0.342202
0.242082 0.0956849 0.288906
0.107604 0.126389 0.364833
-0.234904 0.21531 0.456968
0.121736 0.224801 0.46005
0.156155 -0.296428 0.360454
-0.0928614 -0.0853509 0.343546
0.199073 0.285791 0.0076212
-0.182897 0.259722 0.56211
-0.255529 -0.206957 0.341155
-0.224238 -0.106942 0.355911
-0.255632 -0.126315 0.349093
0.203374 0.265591 0.586738
0.143839 -0.298399 0.346462
0.127253 -0.270039 0.313207
-0.175406 0.193566 0.528203
0.197486 0.235099 0.6321
0.143326 -0.261051 0.36343
-0.132759 0.238846 0.49679
-0.268188 0.198831 0.00817378
0.0297211 0.106927 0.346685
-0.0208064 0.0825646 0.336387
0.078729 -0.171704 0.34907
0.161516 -0.212404 0.361088
-0.00843878 -0.280389 0.305826
0.228534 0.114391 0.353655
-0.0186032 -0.298101 0.348864
-0.181085 -0.296617 0.359704
0.279648 0.23034 0.0124353
-0.0561949 0.0057499 0.288934
-0.0136119 -0.301476 0.324818
0.151645 0.228043 0.473287
0.236313 -0.187504 0.36857
-0.303767 0.0508353 0.500903
-0.00676072 -0.0551926 0.341073
-0.010548 -0.124735 0.29657
0.217355 0.221395 0.470864
0.195048 0.189843 0.381966
0.274586 0.179541 0.00195115
-0.181448 0.146108 0.405155
-0.080527 0.199488 0.402425
0.0735139 -0.299143 0.341286
0.267728 0.0722473 0.481856
0.0721932 0.100408 0.290831
-0.28722 -0.280457 0.171177
-0.124692 0.119376 0.298083
-0.0396888 0.302441 0.0201099
-0.146976 0.256184 0.540464
-0.0200535 0.239566 0.487128
0.0728744 0.0301583 0.287609
-0.174475 -0.210994 0.312683
0.28091 -0.128527 0.02216
0.241077 0.266126 0.607159
-0.141508 0.111166 0.350469
-0.0563669 0.00406116 0.337721
-0.172764 -0.018823 0.292314
-0.078923 -0.000501364 0.338122
0.134709 0.0621331 0.285921
-0.232573 0.15875 0.326899
0.276095 -0.275273 0.134723
-0.25549 -0.119288 0.315401
-0.117177 0.227874 0.466125
0.0966007 0.171625 0.459409
-0.266814 0.107186 0.00853868
0.0271291 0.182004 0.480375
-0.0531697 -0.300894 0.32905
-0.130846 -0.0901206 0.297611
-0.0482413 -0.124594 0.297059
-0.277713 -0.284225 0.223916
-0.161858 0.233418 0.627243
0.28288 -0.205405 0.494084
0.166012 0.19796 0.534764
-0.215642 0.0841947 0.287374
-0.199874 0.177665 0.492094
0.152072 0.211852 0.434752
-0.23548 0.179932 0.359032
-0.275455 -0.25249 0.447075
-0.0274862 0.0375163 0.335655
0.0433408 0.226735 0.578286
-0.15511 0.120518 0.358937
0.180451 0.0249425 0.337164
0.0195855 -0.295169 0.355003
0.285607 -0.0367525 0.00671936
0.28596 -0.0916044 0.0175732
-0.186181 0.303459 0.01912
0.178284 -0.0235206 0.342157
0.28229 -0.0460993 0.496084
-0.273616 -0.204028 0.492233
-0.110548 0.250602 0.518272
-0.277662 -0.29838 0.123248
-0.136175 0.18395 0.49565
-0.106135 0.0886305 0.338651
0.188695 0.170871 0.342725
-0.12387 0.285304 0.604743
-0.0700611 0.286135 0.00691196
0.194788 -0.199143 0.364486
-0.231895 0.041556 0.287297
-0.132325 -0.100483 0.348192
0.081015 -0.17334 0.300723
0.225112 0.0874192 0.338242
-0.25069 0.227136 0.494592
-0.0954558 -0.299803 0.336893
0.00359385 0.0906976 0.339664
-0.152143 -0.227702 0.310952
0.11965 -0.231005 0.358237
-0.158007 -0.107877 0.300279
-0.15657 0.148962 0.412151
0.0755848 -0.114257 0.345397
-0.25376 -0.0374241 0.346546
-0.267589 0.0482227 0.0177161
0.238376 0.0793833 0.286019
-0.150424 -0.0518296 0.295319
0.00413529 0.277778 0.568591
-0.147568 -0.27662 0.366035
-0.0968559 -0.257574 0.357957
0.194682 -0.22642 0.317969
-0.121568 0.060978 0.335174
0.269386 0.189982 0.49537
-0.0461504 0.156786 0.426517
-0.184629 0.227303 0.476658
0.239335 0.135843 0.383002
0.142212 0.215716 0.571101
-0.1671 0.221557 0.598405
-0.287338 -0.106869 0.0129098
0.194598 -0.174288 0.361191
-0.234279 -0.0165585 0.295467
0.0103614 0.229521 0.581851
-0.278724 -0.257348 0.41388
-0.240336 0.200504 0.417105
0.199823 0.0505108 0.335026
-0.157678 0.160869 0.440502
-0.273854 0.132717 0.00225419
-0.170878 0.278244 0.605455
0.21354 0.0229385 0.338748
0.0354395 -0.148234 0.298173
0.287319 0.14329 0.0128729
-0.260819 -0.147448 0.499393
-0.00643907 -0.0266763 0.290833
-0.0479142 0.177293 0.354035
-0.253326 0.26345 0.603392
0.255457 0.196805 0.429595
0.0729147 0.00435214 0.289271
-0.181801 -0.00221846 0.340322
-0.250628 -0.295137 0.370346
-0.280472 -0.219805 0.465607
-0.151664 0.131416 0.304502
0.120544 0.0875802 0.338167
-0.201783 0.128825 0.369513
-0.128117 0.202336 0.408764
0.00766119 -0.044725 0.340463
0.0365492 0.216038 0.554476
-0.162829 0.0531702 0.33474
-0.0236127 -0.216133 0.30217
-0.118998 -0.231747 0.358233
-0.303778 0.0941646 0.497883
-0.212963 0.15479 0.434589
0.280257 -0.255979 0.275527
0.0492186 0.278988 0.574225
0.289768 -0.260903 0.453509
-0.111716 -0.119258 0.298072
-0.0191174 -0.235933 0.303302
-0.210123 0.164131 0.460309
0.0332956 -0.17153 0.348199
0.255574 0.168118 0.421468
0.277064 -0.0337493 0.0230102
-0.0658714 0.225718 0.57738
0.286779 0.125059 0.0159539
0.266533 -0.297773 0.0649967
-0.280399 -0.0406683 0.507699
0.262883 0.223675 0.476885
-0.098485 0.0515953 0.334791
0.267421 0.0554574 0.482226
0.114037 -0.171865 0.352377
0.146982 0.106814 0.34651
-0.012236 0.305485 0.0146626
-0.287202 0.208714 0.485377
-0.106413 0.186008 0.373158
0.0609916 0.203934 0.411747
-0.278371 0.140693 0.498049
0.114197 -0.252936 0.310232
-0.0702103 0.186219 0.37351
-0.0685589 0.208439 0.539748
0.200144 0.220767 0.465643
-0.255729 0.113521 0.301082
-0.00483772 0.107193 0.293172
-0.106535 0.287015 0.00546189
0.255537 -0.0792045 0.313892
0.272719 -0.00855212 0.493965
0.0128616 0.288261 0.591581
-0.26988 0.144277 0.479387
0.161257 0.258251 0.547312
0.00752688 -0.271541 0.353756
-0.21643 0.220435 0.622162
0.119689 0.278203 0.58654
-0.0450051 0.172688 0.460771
0.161956 -0.104373 0.348589
0.220596 0.171818 0.344027
0.0319265 0.153916 0.420417
-0.269454 -0.263382 0.240143
0.183106 -0.290635 0.323536
-0.0271776 0.203763 0.52705
0.255569 0.226794 0.59566
-0.281602 -0.278611 0.041919
-0.141467 0.172826 0.46911
0.268175 -0.205735 0.0057036
-0.198044 -0.152183 0.359016
-0.196571 -0.181682 0.313029
-0.271235 -0.251287 0.00421048
0.302508 -0.0547622 0.507646
0.19368 0.301814 0.0206831
-0.15068 -0.0724347 0.345746
-0.119474 0.268013 0.562312
0.0476622 -0.0987225 0.344012
0.220647 -0.135527 0.310426
-0.17254 0.0850587 0.337001
-0.22665 0.0818874 0.336383
-0.125605 -0.0428661 0.342336
-0.251538 -0.00349799 0.342694
0.270232 0.151916 0.0208286
-0.117684 0.131847 0.374955
-0.255628 -0.0568358 0.3348
-0.105142 -0.154704 0.300492
0.242682 0.281802 0.00656506
0.29879 -0.192454 0.493791
-0.297731 -0.247462 0.451093
0.0915617 -0.279123 0.310038
-0.179305 0.242029 0.51322
0.287328 0.176238 0.0120946
-0.213782 0.232936 0.501385
-0.238512 -0.256397 0.378238
-0.281135 -0.279262 0.252552
0.131655 -0.107773 0.299273
-0.0997288 0.0255286 0.336457
0.0378402 0.295053 0.610316
0.0413066 0.237463 0.601488
-0.0828538 0.082132 0.336297
-0.0929136 -0.217895 0.354003
-0.283672 -0.107671 0.495728
-0.269708 -0.12435 0.479503
-0.00814021 -0.201875 0.301084
0.294017 -0.105926 0.507699
0.00176795 0.161133 0.435957
-0.0486433 0.264052 0.5417
0.255041 0.25276 0.577078
-0.265984 0.101764 0.493965
-0.201409 0.159927 0.444886
0.253121 0.20195 0.573418
0.269561 -0.232536 0.44993
0.183882 -0.295057 0.37015
0.187501 0.179222 0.358006
-0.229849 0.0129142 0.290681
0.197725 0.156882 0.436353
0.255579 -0.00835371 0.317035
-0.266541 -0.262352 0.325916
-0.287098 -0.0100397 0.0104482
-0.213064 0.121707 0.360225
0.225416 0.301596 0.0207141
-0.275986 -0.172151 0.498212
0.280531 -0.303166 0.0845366
0.0578024 0.146668 0.405061
0.0546284 0.184127 0.486378
-0.270032 -0.238636 0.0206578
-0.00836955 0.296039 0.00187278
0.034262 0.0685909 0.285603
0.0719521 0.289476 0.0214474
0.0771916 0.0515819 0.334795
-0.280932 0.155806 0.0221613
-0.215211 0.201251 0.56642
-0.283648 0.0863871 0.495815
0.0244788 0.270735 0.554331
0.0144269 0.289389 0.021386
-0.038939 -0.0374039 0.339987
0.29969 -0.0286478 0.507699
-0.0950416 0.0684914 0.285609
0.0511857 0.162521 0.439071
0.0167997 0.252034 0.513693
0.241197 0.191576 0.54432
0.27615 -0.278974 0.260867
-0.284907 -0.26691 0.224002
-0.128692 0.302232 0.00461406
0.289043 0.0597999 0.507699
0.0304714 0.199569 0.518152
-0.260841 -0.0556691 0.49887
0.00157535 0.189731 0.380814
-0.18252 -0.183853 0.361619
0.194956 0.242497 0.522042
0.277728 0.266543 0.0206408
0.171354 -0.0967923 0.299259
0.253579 0.0789994 0.335542
0.255589 0.183903 0.479226
-0.23964 -0.14672 0.362824
-0.0832027 0.26057 0.535397
0.0987539 -0.0629811 0.293637
-0.242871 0.123015 0.299752
0.184888 0.195907 0.396494
-0.272248 0.0520061 0.497212
-0.297939 -0.247683 0.479729
-0.27464 -0.17659 0.477246
-0.255601 -0.145155 0.345737
-0.166039 0.215804 0.582514
-0.25574 0.129655 0.364582
0.145902 -0.172766 0.306093
0.0766849 0.0121104 0.337318
-0.104718 0.176094 0.469228
0.191002 0.211229 0.436833
0.0110762 -0.196279 0.349259
0.0313473 -0.221192 0.351311
-0.155745 0.0139225 0.338131
0.0855905 0.260202 0.534523
-0.0225533 0.152877 0.320956
-0.290866 -0.00695892 0.507699
-0.287168 0.244122 0.0117018
-0.28241 -0.195527 0.478278
0.281463 -0.261054 0.243913
0.202518 -0.0213199 0.343403
0.0793896 -0.222064 0.352805
-0.251717 -0.265777 0.330272
-0.254674 0.197832 0.557796
0.0195254 0.172098 0.344502
0.107093 0.268217 0.559107
0.00786 0.120973 0.298872
-0.153485 0.154956 0.42645
-0.031076 0.233913 0.475091
0.224381 0.26756 0.605575
-0.286011 -0.297372 0.0919308
-0.210069 0.268763 0.600547
-0.0904127 0.127491 0.302374
0.146638 -0.07416 0.297323
-0.170115 -0.164346 0.306439
-0.135417 0.0820783 0.287196
-0.0749025 0.0438534 0.286726
0.021205 0.282379 0.579425
-0.0202948 0.169141 0.452979
0.0474627 0.177987 0.472462
0.283028 -0.215863 0.00391894
0.268597 0.156007 0.00541801
0.0952971 0.20942 0.544851
-0.140865 0.00929669 0.289885
0.286471 -0.17098 0.491784
0.303787 -0.238496 0.473
-0.248111 0.175691 0.498162
0.266153 -0.0346181 0.486262
0.282468 -0.157386 0.00346291
0.02495 -0.0644916 0.341584
0.117067 -0.257105 0.36024
-0.115881 -0.127346 0.348665
0.260888 -0.228724 0.485596
0.155511 0.224258 0.599321
0.252311 0.244785 0.546223
-0.228737 -0.132288 0.310055
-0.271699 -0.199245 0.0030187
0.282313 -0.141679 0.496185
0.100568 -0.295222 0.360262
0.228022 -0.037703 0.346769
0.276106 -0.250646 0.475321
-0.238845 0.0278193 0.28485
-0.284679 0.0408503 0.494572
0.0452978 0.116782 0.355602
-0.124492 0.00235343 0.338219
-0.119602 0.0917812 0.288688
0.0293265 -0.191698 0.300777
-0.0127172 0.192312 0.386339
0.19158 0.26349 0.622658
-0.276062 -0.283817 0.0580579
-0.168868 0.1995 0.405394
0.232491 -0.227933 0.320829
-0.206833 0.139555 0.390828
-0.0848056 0.204937 0.532083
-0.282788 -0.2748 0.277454
-0.118646 -0.102359 0.297341
0.300038 0.0215062 0.493965
-0.255526 -0.0869364 0.317442
0.213785 -0.257016 0.375775
-0.00178996 0.179871 0.359527
0.235284 0.20962 0.5969
0.229788 -0.0638002 0.350461
-0.106149 -0.295665 0.360517
-0.287011 0.0145685 0.490238
0.274339 -0.250095 0.442461
0.0961156 -0.24645 0.307641
0.286711 -0.28782 0.0958002
0.2835 -0.281952 0.223132
-0.137332 -0.0621701 0.295848
-0.034258 0.242609 0.612189
-0.0277168 -0.110854 0.344271
0.114799 0.173123 0.346028
-0.0483889 -0.177899 0.300497
