-0.170323 0.0327932 0.38399
0.118458 -0.118558 0.38399
0.0935744 0.153208 0.33934
-0.0981634 -0.243335 0.341749
-0.0549722 0.259165 0.722784
0.120846 0.214147 0.57134
-0.272085 0.158138 0.569435
0.0400469 -0.0247465 0.33934
0.206557 0.0758125 0.372866
-0.049841 0.203615 0.37335
0.106179 -0.170154 0.33934
-0.262871 -0.124164 0.571312
-0.193342 -0.161175 0.38399
-0.155862 0.20524 0.538924
0.206327 -0.207903 0.33934
0.21189 -0.247291 0.1531
-0.174348 0.103045 0.314693
0.23191 0.157561 0.462297
-0.234576 -0.229859 0.148275
0.221151 0.188717 0.36124
-0.203614 -0.272465 0.351994
-0.109538 -0.0884812 0.38399
-0.103162 0.0903391 0.38399
0.205921 0.198785 0.661778
-0.0474795 -0.0263067 0.38399
0.0140546 0.229574 0.634468
0.0227351 0.154106 0.38399
0.138203 -0.242967 0.35334
-0.097277 0.217483 0.632857
0.285164 0.0398957 0.559111
0.210493 0.16565 0.117521
-0.235302 -0.233683 0.449709
-0.0062632 -0.137894 0.33934
0.278767 -0.180965 0.555446
-0.233523 0.158261 0.107964
0.058174 0.191031 0.468456
0.115992 0.0400875 0.33934
-0.00888513 -0.127602 0.38399
-0.235667 0.176735 0.323146
-0.0054311 0.0914387 0.33934
0.184469 -0.0322422 0.38399
-0.116142 -0.16882 0.33934
-0.0745979 0.0370161 0.33934
-0.0183585 -0.23183 0.38399
-0.193606 -0.00323328 0.33934
-0.0913412 0.184256 0.456289
-0.144171 0.197304 0.350459
-0.214883 0.156456 0.525745
0.0333715 0.200256 0.34087
-0.170202 0.19179 0.609359
0.171197 0.143419 0.31255
0.112255 0.227556 0.671102
0.229246 -0.254993 0.420111
0.122924 0.11771 0.38399
0.0723473 -0.0274015 0.38399
0.173018 0.199381 0.489667
0.0549972 0.223608 0.554547
-0.120823 -0.24337 0.38042
0.0418674 0.183476 0.410057
0.186764 0.200147 0.555879
-0.0637095 0.222217 0.546785
-0.206047 0.0144304 0.33934
0.051092 0.211975 0.449743
0.173236 -0.190144 0.31255
-0.18294 0.147205 0.38399
-0.165141 -0.0759701 0.313384
0.135114 0.0283565 0.38399
-0.132285 0.235627 0.70803
0.108361 -0.101511 0.33934
0.200849 -0.271377 0.349684
0.206852 -0.113613 0.34346
-0.0185164 -0.0582398 0.33934
0.067093 -0.184037 0.33934
-0.248708 -0.182457 0.555446
0.163022 -0.189222 0.38399
-0.0223209 -0.239645 0.31255
-0.277864 -0.0566564 0.555446
0.0683392 -0.222925 0.38399
-0.039314 0.217946 0.501325
-0.269946 0.0839245 0.555446
-0.125686 0.203676 0.438372
0.0213247 0.254738 0.702783
-0.195227 0.179569 0.31223
-0.191183 -0.0733244 0.38399
-0.234055 -0.249105 0.0927906
-0.146251 -0.15283 0.38399
-0.235598 -0.235245 0.383792
0.215331 -0.252438 0.209285
0.169957 0.0088916 0.31255
0.0235476 0.140957 0.33934
-0.145694 0.202911 0.458019
-0.172726 -0.233446 0.31255
0.0892845 -0.0784211 0.33934
0.115227 0.197751 0.321061
0.244736 0.0981449 0.556503
-0.148599 -0.0964303 0.38399
0.197108 -0.118185 0.38399
-0.206956 0.111362 0.339386
-0.210271 0.170462 0.294147
-0.210941 -0.231763 0.215309
-0.0454263 0.117516 0.38399
-0.173946 -0.155566 0.314454
0.228583 0.153989 0.310457
0.0502999 0.105656 0.38399
-0.234425 -0.248588 0.511701
0.210359 0.166345 0.160177
-0.0348201 0.17561 0.31237
0.222569 -0.25674 0.0721046
0.108548 0.188007 0.506122
0.181376 0.227456 0.725139
0.175975 0.175463 0.433914
-0.0386605 0.23466 0.653641
0.196293 -0.00243184 0.33934
-0.235605 0.162878 0.388215
0.0552562 0.04904 0.33934
0.0549536 -0.168946 0.38399
0.235691 0.167296 0.539757
-0.0156347 0.211747 0.438499
-0.144101 -0.269282 0.367819
-0.0125382 0.183604 0.405677
-0.138517 0.131873 0.33934
-0.100185 0.166148 0.38399
0.18266 0.149052 0.38399
0.285801 -0.108325 0.560351
0.158183 0.196781 0.619347
-0.198147 0.196954 0.54925
-0.0141139 0.189821 0.449106
0.165486 -0.215485 0.316609
-0.0980113 0.221256 0.585856
-0.0511922 -0.179241 0.38399
0.127478 0.111613 0.33934
-0.0212818 0.0594182 0.38399
0.257037 -0.244044 0.569653
-0.125846 -0.0252011 0.38399
-0.0875333 0.197586 0.32383
-0.0194896 -0.270556 0.343833
-0.138388 0.0591818 0.33934
0.0982955 -0.201776 0.33934
-0.186165 0.175906 0.48089
-0.0718569 0.070944 0.33934
0.0025146 0.20871 0.570025
0.227713 -0.221174 0.464225
-0.105945 0.190868 0.524837
-0.0350481 -0.184768 0.33934
0.255675 -0.017728 0.570158
-0.210861 0.17352 0.0526406
-0.206481 -0.194636 0.346751
0.0951694 -0.00908785 0.33934
-0.231022 0.154771 0.153607
-0.0147383 0.0112152 0.33934
0.220387 0.188429 0.0696456
0.184814 0.187151 0.311997
0.165035 0.0750814 0.314918
-0.0733305 -0.115759 0.33934
0.0266553 0.197706 0.507136
0.0742531 0.234438 0.616773
0.205938 0.187654 0.616359
0.0104235 -0.0479113 0.38399
0.111766 -0.271251 0.360687
0.194755 0.19737 0.393357
-0.176066 -0.216156 0.38399
0.119439 -0.0542372 0.38399
0.0485954 -0.112731 0.38399
-0.195827 -0.132783 0.33934
0.20175 0.118316 0.33934
0.236046 -0.233601 0.0962006
0.0434078 0.0236318 0.38399
0.139728 0.173888 0.357791
-0.173741 0.196798 0.398482
0.177329 0.1803 0.531923
0.151782 -0.0432657 0.33934
0.178981 0.0305993 0.38399
-0.164976 0.210032 0.671254
-0.126869 0.0447937 0.38399
-0.206798 0.00971806 0.368027
-0.120546 0.236779 0.668422
-0.235829 -0.241664 0.338021
0.0726389 0.177168 0.361599
-0.139036 -0.0501643 0.33934
0.174265 -0.117464 0.319249
0.0495598 -0.127167 0.33934
0.227292 -0.221017 0.321296
0.23189 -0.224421 0.249372
0.102908 0.181348 0.428596
0.211375 -0.225026 0.567585
-0.245592 -0.082042 0.555446
-0.0892532 -0.0685066 0.38399
0.188258 -0.23983 0.38399
-0.032999 0.113873 0.33934
-0.127903 -0.200316 0.33934
0.00825362 0.0376494 0.33934
0.0206413 -0.22621 0.33934
0.102275 -0.204869 0.38399
-0.111057 0.201935 0.405523
0.0102386 0.207023 0.39756
-0.0918912 -0.188153 0.38399
0.069035 0.252121 0.676299
0.179827 0.197347 0.444063
-0.235954 0.175224 0.480379
0.100715 0.14588 0.38399
-0.206866 0.0531944 0.362505
-0.164791 0.0902409 0.38399
0.0132834 -0.204098 0.33934
-0.0679279 0.0329673 0.38399
0.0859561 0.200629 0.567127
0.217355 0.153965 0.0460536
-0.098058 0.209784 0.490515
-0.212113 -0.228597 0.0598151
0.163858 0.197322 0.354787
-0.249451 -0.0289631 0.555446
0.148147 -0.268728 0.341074
-0.051605 0.21574 0.604401
-0.150335 0.190342 0.583091
0.0239384 -0.261327 0.377133
0.205918 -0.0589873 0.33934
0.223387 0.152032 0.395549
-0.123471 0.165621 0.314962
-0.283842 -0.205532 0.55777
-0.184178 -0.243468 0.352917
-0.0903825 -0.0102928 0.33934
0.206931 -0.164167 0.365271
-0.0666584 -0.271171 0.362484
0.0574792 0.16789 0.31255
0.211117 0.178933 0.498929
0.21067 0.176578 0.282701
-0.0608982 0.210674 0.439248
-0.13483 -0.11437 0.33934
0.125263 0.209555 0.537044
0.243772 -0.148266 0.564104
-0.0503459 0.202435 0.549673
-0.227962 0.187038 0.252803
0.131616 0.206676 0.486817
-0.19996 -0.0540333 0.33934
0.044775 0.219633 0.517185
-0.190033 0.0944112 0.38399
-0.234409 0.159498 0.0755263
0.0542103 0.20603 0.394334
-0.106146 -0.272223 0.351539
0.0267636 -0.0764178 0.33934
0.068682 0.101464 0.33934
-0.174275 0.0563357 0.327454
0.131403 -0.126503 0.33934
0.113125 -0.243006 0.359675
-0.207046 0.169413 0.355655
0.0918893 -0.0584379 0.38399
-0.243908 0.0451484 0.565245
-0.170443 -0.0177799 0.31255
0.223944 0.152242 0.240315
-0.0927158 0.254655 0.708554
-0.211363 -0.248487 0.395892
-0.215302 -0.254018 0.132309
-0.0721793 0.236526 0.667293
0.0182295 0.167834 0.31255
0.23503 -0.228803 0.176753
-0.25945 -0.243537 0.569394
8.38414e-05 0.178499 0.346807
-0.0498455 -0.238527 0.33934
-0.0035227 0.103353 0.38399
-0.22607 0.187751 0.180543
0.285328 -0.010294 0.562277
0.225192 -0.220233 0.0324287
-0.174634 0.223581 0.725466
0.0591758 0.264912 0.718712
0.113154 0.00239345 0.38399
-0.236195 -0.239769 0.198634
0.130223 -0.194527 0.33934
0.100599 -0.23888 0.31255
0.150754 0.222652 0.688453
-0.205415 0.192933 0.649258
-0.0633103 -0.232011 0.38399
-0.0597999 -0.0334839 0.33934
0.167306 -0.080575 0.38399
0.174297 -0.138287 0.31571
0.155415 0.0758277 0.38399
0.206673 0.00163287 0.362038
0.223715 0.152155 0.338489
0.235262 -0.22954 0.497585
-0.0206184 0.199989 0.339168
-0.257767 0.184779 0.55665
0.24773 0.012936 0.555446
0.221656 -0.256398 0.362628
0.198516 0.0476465 0.33934
-0.213755 -0.226306 0.490283
-0.138714 0.184868 0.496365
0.176133 0.110868 0.38399
0.147288 0.189751 0.569244
0.146717 0.181439 0.472667
-0.0139782 0.221271 0.612406
0.234081 0.180627 0.131291
0.0157503 -0.193772 0.38399
-0.206644 0.197666 0.592259
-0.171538 -0.203082 0.31255
0.151206 0.0184502 0.33934
0.0492315 -0.236183 0.31255
-0.0758448 0.215223 0.498823
-0.236136 0.165628 0.288279
-0.0670159 -0.162845 0.33934
-0.138006 0.00981018 0.33934
0.110598 0.207911 0.610897
0.234646 0.179353 0.414774
-0.138333 0.176131 0.39541
-0.210225 -0.235479 0.288796
-0.249879 0.120752 0.555446
0.183455 -0.242897 0.337646
-0.171159 0.172156 0.348392
0.0305778 0.233351 0.597514
-0.182942 -0.246856 0.383316
0.166377 0.218116 0.658996
0.152179 -0.15336 0.38399
-0.222964 -0.218982 0.560328
-0.0422088 -0.0791306 0.33934
-0.11999 0.190658 0.542897
-0.151322 0.178701 0.312261
0.0888117 0.039003 0.38399
-0.0965225 0.0158899 0.38399
-0.0149389 0.265324 0.726689
0.0694144 0.149481 0.38399
0.232295 0.18312 0.177775
0.0567818 0.208982 0.58657
0.245994 -0.0695138 0.567419
0.0118151 0.216007 0.470976
0.0838957 0.212864 0.490739
0.0467668 0.229632 0.641177
0.275283 0.0811233 0.555446
-0.182521 0.174752 0.438572
0.244937 -0.19448 0.556925
-0.0419652 0.248547 0.691479
-0.234206 0.180661 0.521201
0.221092 -0.256187 0.469049
-0.0670977 0.147629 0.38399
-0.234142 -0.229134 0.240835
-0.223566 0.168791 0.560188
-0.0187405 0.00507946 0.38399
0.11775 0.175629 0.368811
-0.0445193 -0.0556197 0.38399
-0.0346567 -0.243236 0.356962
-0.206607 -0.113296 0.376022
0.154161 0.148571 0.38399
0.154832 -0.00581779 0.38399
-0.177807 0.179107 0.524136
0.00796702 0.224659 0.538922
-0.285118 -0.100377 0.563152
-0.167995 0.00764661 0.31255
-0.213574 -0.226559 0.529994
-0.232305 -0.251546 0.0441931
0.208237 0.165521 0.569039
-0.138091 -0.243397 0.343429
0.210687 -0.241054 0.247615
0.155816 -0.0901295 0.33934
-0.271618 -0.0202007 0.570373
-0.213922 -0.226074 0.104894
-0.282054 -0.164731 0.567881
0.210232 0.167003 0.46091
0.00822252 0.254454 0.664921
-0.197255 -0.0313948 0.38399
-0.213943 0.182062 0.140203
0.0163842 -0.262452 0.332653
-0.0481759 0.186712 0.435909
0.0578769 -0.243092 0.351761
0.235677 -0.23169 0.37614
-0.0589126 0.239225 0.625875
-0.103734 0.100446 0.33934
-0.160226 -0.00931485 0.38399
0.119912 -0.0467924 0.33934
-0.277531 0.0511864 0.569456
0.0981612 -0.165335 0.38399
-0.086754 -0.020726 0.38399
0.227851 0.153714 0.083821
0.185213 -0.165157 0.33934
0.235923 0.168514 0.275924
-0.129383 0.218958 0.602708
-0.0345283 0.158754 0.33934
-0.285857 0.112955 0.560705
-0.133545 -0.191823 0.38399
0.0144913 -0.0908433 0.38399
0.0103208 -0.0255371 0.33934
0.127398 0.226685 0.631526
0.0877234 0.200547 0.373922
-0.165959 -0.113515 0.33934
-0.130723 0.135605 0.38399
-0.027549 0.226438 0.563611
0.15545 0.238511 0.725423
0.0721078 0.197784 0.527378
-0.172654 -0.268142 0.339451
-0.158394 -0.177463 0.33934
0.0129626 -0.0067341 0.38399
0.146199 0.17497 0.321353
0.0643384 -0.26598 0.372275
0.164026 0.046135 0.33934
-0.0832017 -0.0646787 0.33934
-0.139929 0.210742 0.638539
0.0761783 0.197918 0.32529
-0.0196284 0.197478 0.502652
0.284837 0.122632 0.563983
-0.0615137 0.175405 0.35433
0.211884 -0.229369 0.197704
0.128227 0.204546 0.44724
0.00503378 0.178442 0.366927
0.24767 0.138522 0.569184
0.206989 -0.201422 0.383449
-0.160011 0.095623 0.33934
0.230527 0.185586 0.33638
0.246179 -0.107216 0.567545
0.156051 0.175398 0.400732
0.0987902 0.184602 0.463843
0.115286 0.160619 0.33934
-0.201294 -0.092549 0.33934
-0.0280904 -0.0880308 0.38399
0.0813679 0.17972 0.397575
-0.0444876 0.0752897 0.38399
0.148531 0.152223 0.33934
-0.0959617 -0.149114 0.38399
-0.235599 0.162844 0.429863
-0.0999467 0.173213 0.350525
-0.213375 -0.251312 0.432505
0.252156 0.0552096 0.56962
0.109342 0.19496 0.557896
-0.216312 -0.255332 0.247731
-0.0770039 -0.242155 0.31255
-0.230721 -0.224329 0.408672
0.0779746 -0.129809 0.38399
-0.189072 0.196774 0.361521
0.206126 -0.0684442 0.38399
-0.226268 0.152197 0.0287777
0.0931767 0.0912693 0.38399
-0.056457 0.19834 0.522836
-0.223484 0.188641 0.387963
-0.0856627 0.180204 0.408285
-0.164943 -0.0551971 0.38399
-0.160522 0.202531 0.507465
-0.0239319 0.163714 0.38399
-0.0149947 0.142766 0.38399
0.225587 0.152861 0.198511
-0.121301 0.194875 0.575449
0.0657299 -0.224084 0.33934
-0.0849924 0.210488 0.47246
0.164995 0.101075 0.333802
-0.169918 0.149356 0.31255
0.140608 -0.241262 0.31255
0.0899609 0.206928 0.447067
-0.155794 0.175492 0.417461
0.181988 0.172762 0.35146
0.198863 0.0857895 0.33934
-0.211068 -0.247112 0.178335
-0.223496 0.188645 0.0868001
0.152056 -0.113684 0.38399
-0.174421 0.182822 0.558548
0.148802 0.197298 0.317423
0.210059 0.1679 0.53842
0.21931 -0.255522 0.0343994
-0.070654 0.178523 0.312271
0.228898 0.187138 0.461342
0.0808342 -0.129943 0.33934
-0.0294293 0.0640815 0.33934
0.0558755 -0.0729144 0.38399
0.0870469 0.0297298 0.33934
0.217221 0.187235 0.0329266
-0.217687 -0.25585 0.0150943
0.249246 0.179934 0.569653
-0.204565 0.19675 0.474383
0.22628 -0.220639 0.425835
-0.0126868 0.203258 0.368321
0.214426 -0.251176 0.116431
-0.204675 0.19675 0.334179
0.187586 0.182791 0.582183
0.144814 0.21273 0.596845
0.0211742 0.187951 0.438988
0.0917874 0.238259 0.647389
-0.233958 0.155311 0.569214
0.216126 -0.223147 0.284849
0.129721 -0.227719 0.38399
-0.206445 -0.21801 0.370403
0.175307 0.19734 0.407716
-0.0963016 0.217035 0.553871
0.0958966 0.249795 0.693367
0.139218 -0.152975 0.33934
0.00819116 0.200365 0.342258
0.0356607 0.0863904 0.33934
-0.144626 -0.0126943 0.33934
0.162384 0.204141 0.536897
0.111658 -0.26478 0.335082
0.232856 0.15889 0.499843
0.00834972 -0.161007 0.38399
-0.191294 0.196771 0.512436
-0.178151 0.172025 0.367565
-0.0574624 0.19186 0.475567
-0.235392 0.161774 0.45667
0.00267772 -0.243178 0.360003
0.09784 0.132735 0.33934
-0.236866 0.169414 0.230693
-0.186956 0.143605 0.33934
-0.0787035 0.115925 0.38399
-0.164152 -0.214588 0.33934
-0.22657 0.187562 0.0251836
-0.206987 0.131324 0.369152
-0.112655 0.183946 0.467765
-0.139967 -0.25327 0.327015
0.0377817 -0.224602 0.38399
-0.107771 -0.125429 0.38399
0.0158762 0.0552419 0.38399
0.0869648 0.222088 0.579563
-0.109581 -0.0979269 0.33934
-0.0681257 0.206461 0.403786
-0.135142 0.200562 0.380639
-0.0436403 -0.144516 0.38399
-0.203563 0.0519274 0.33934
-0.214889 0.156448 0.496511
-0.063926 -0.206828 0.33934
-0.214036 0.157645 0.181004
-0.0454311 0.0137929 0.33934
-0.11147 0.180076 0.422361
-0.0191126 -0.218735 0.33934
-0.13076 0.174633 0.347482
-0.174649 0.20309 0.571295
-0.232813 0.182617 0.35274
0.118444 0.199727 0.357767
-0.213782 0.158002 0.402666
0.218163 -0.255093 0.555227
-0.0364706 0.213882 0.466959
-0.170405 -0.125181 0.38399
0.206401 -0.23639 0.33934
0.0965769 0.0688827 0.33934
0.142046 0.179498 0.439393
0.0232831 0.203338 0.543222
-0.0962264 0.174549 0.31255
-0.0647285 0.227141 0.583011
-0.199994 0.0705986 0.38399
-0.170535 -0.0373015 0.33934
0.210156 0.173865 0.198891
0.038022 0.242441 0.674249
0.230982 0.184951 0.299761
0.177938 0.211084 0.691637
0.0225249 -0.156816 0.33934
0.0844266 0.219536 0.553489
-0.261348 -0.146095 0.555446
0.00236095 -0.115122 0.33934
-0.0771233 -0.102057 0.38399
0.196017 -0.242878 0.31454
0.231677 0.157234 0.426075
-0.245364 0.0152265 0.555927
0.165815 0.206667 0.585711
-0.135799 0.197661 0.326618
-0.209569 -0.238883 0.456489
-0.259496 -0.0497096 0.570761
-0.0857272 0.0548005 0.38399
-0.168674 0.212028 0.635349
-0.158493 0.230964 0.697348
-0.206536 -0.158988 0.353663
-0.101234 -0.220432 0.33934
0.199203 0.173447 0.406865
0.0879889 -0.0952259 0.38399
0.0493763 0.00537886 0.33934
-0.10853 0.0474741 0.33934
0.0707804 -0.0340345 0.33934
-0.0368147 -0.261158 0.377308
0.283359 -0.0378658 0.566782
-0.225044 -0.221095 0.306951
0.0590394 -0.0634843 0.33934
0.202428 0.197382 0.528765
0.230638 -0.222673 0.0643159
-0.0321572 0.197608 0.317156
0.211248 -0.232725 0.403014
0.0760793 0.0105711 0.38399
-0.0283305 0.207217 0.40659
-0.206745 -0.0247292 0.354076
0.138417 -0.0851965 0.38399
-0.166629 -0.183331 0.38399
-0.203063 0.196753 0.407461
-0.152781 0.122713 0.38399
0.0900492 0.170715 0.314931
0.162148 0.18101 0.504191
0.180834 0.209331 0.630989
0.181063 0.176469 0.4735
0.177072 -0.136521 0.33934
0.276096 -0.136629 0.569687
0.206517 0.102008 0.371811
0.174118 -0.0231807 0.332587
0.00533588 0.210151 0.420327
-0.036414 -0.12088 0.33934
-0.235376 -0.234072 0.487027
0.211885 -0.247264 0.446524
0.129539 0.235035 0.703479
0.206464 0.135921 0.372663
0.214544 -0.225369 0.107329
-0.235541 0.177403 0.0569599
0.000661227 0.11893 0.33934
-0.0198736 -0.193582 0.38399
0.22223 0.191575 0.561988
-0.106513 0.235279 0.68888
0.0690023 0.185183 0.431261
0.124797 0.074886 0.38399
-0.0962732 -0.225371 0.38399
0.183938 -0.26821 0.36866
-0.164765 0.0584009 0.38399
0.206832 -0.100666 0.365901
0.0252481 -0.135689 0.38399
0.234744 -0.248344 0.337839
-0.191424 0.205938 0.624935
-0.210954 0.165831 0.243734
0.165287 -0.0872253 0.319244
0.263147 0.110469 0.571369
-0.00664487 -0.171316 0.33934
0.0373002 0.179477 0.379493
0.206886 -0.135191 0.360055
-0.163099 -0.0701165 0.33934
0.142485 -0.265366 0.373012
0.127691 0.000843495 0.33934
0.00112327 0.194905 0.477381
0.197387 0.197375 0.464406
0.187811 -0.150479 0.38399
-0.181794 0.173631 0.402143
0.204471 0.197386 0.33529
-0.183927 0.217957 0.692269
-0.1666 -0.129112 0.31255
-0.227417 0.152626 0.344902
0.0594278 0.195896 0.504336
-0.194728 0.0332426 0.38399
0.134211 0.0674718 0.33934
0.206715 -0.0256228 0.372294
-0.0896265 -0.258377 0.379221
0.172634 0.106698 0.31255
0.0988681 0.212825 0.518222
-0.166831 0.0283069 0.33934
0.236334 -0.241657 0.225951
-0.210636 -0.244829 0.346549
-0.0679167 -0.136866 0.38399
-0.153669 0.17803 0.453924
-0.245792 -0.0110108 0.555446
0.0176035 0.0272198 0.38399
0.257974 -0.0471935 0.555446
0.15398 -0.0522765 0.38399
0.14542 0.206238 0.511145
-0.072995 -0.0431033 0.38399
-0.218681 -0.256224 0.31731
-0.112591 -0.0316512 0.33934
-0.0817597 0.190497 0.488395
0.034445 -0.0325937 0.38399
0.0974092 -0.233814 0.38399
0.187898 -0.0907625 0.33934
0.0569597 0.202746 0.363717
-0.190952 0.0767517 0.33934
-0.0940826 -0.140199 0.33934
0.108756 0.203145 0.421717
-0.017257 -0.0431388 0.38399
0.159148 0.197314 0.382644
-0.0280973 0.23129 0.589539
-0.00558949 -0.265512 0.373139
-0.174108 -0.0509309 0.315913
-0.0532154 -0.264802 0.334731
-0.22443 0.15151 0.325328
0.231643 -0.224076 0.528437
-0.211107 0.165023 0.465287
-0.0143706 0.251178 0.6916
0.206245 0.175063 0.323435
-0.028954 0.20764 0.574636
0.268437 -0.22387 0.555446
-0.241374 -0.239946 0.555446
0.233832 -0.227131 0.14649
-0.0429204 0.182048 0.400638
-0.23218 0.156387 0.261637
0.158881 -0.180502 0.33934
-0.252357 -0.206282 0.569882
-0.109446 0.0215555 0.33934
-0.21028 0.169382 0.00892431
0.115068 -0.0824311 0.38399
0.196179 0.200653 0.587643
0.22253 0.152032 0.0183858
-0.118141 -0.0591083 0.38399
0.0183568 0.00469287 0.33934
-0.0623635 0.200286 0.342527
-0.259781 0.100994 0.570769
0.205914 0.203483 0.69275
-0.0978761 0.228216 0.6143
-0.190888 -0.246987 0.32575
-0.108103 0.131324 0.33934
-0.162376 0.173328 0.373893
-0.202393 0.213834 0.726156
0.0263966 0.0885928 0.38399
0.0416911 0.258883 0.691913
0.0575615 0.221641 0.621275
0.263668 -0.203663 0.571478
-0.128596 0.206734 0.495412
-0.0271913 0.24241 0.630038
-0.206686 -0.0622407 0.363898
-0.07941 -0.243306 0.359929
0.185465 -0.000562146 0.38399
0.0295993 0.268393 0.720126
-0.178357 -0.1783 0.33934
0.0689159 0.131522 0.33934
0.0611083 0.160535 0.33934
-0.216013 -0.255018 0.485616
0.0325264 0.192897 0.477342
0.0340797 0.11517 0.33934
-0.117714 0.0752223 0.33934
-0.0469088 0.13555 0.33934
0.0855905 -0.243049 0.33833
-0.0968128 0.205293 0.446894
0.0573023 -0.0994959 0.33934
-0.22962 -0.255293 0.470626
0.227019 -0.255833 0.181945
0.118383 -0.0232883 0.38399
-0.234838 -0.231238 0.0685637
-0.16973 -0.143694 0.33934
-0.21108 -0.231042 0.0301282
-0.0490856 0.00940143 0.38399
0.138147 0.234386 0.671803
-0.105331 0.212445 0.528625
-0.0040486 0.247652 0.639923
0.00697517 -0.234241 0.312773
0.1659 -0.242924 0.364641
-0.20661 0.175916 0.381965
-0.261015 -0.101254 0.571013
0.0155171 0.218242 0.60452
-0.0210477 0.254449 0.669348
-0.144195 0.219542 0.670956
-0.146938 0.0171563 0.38399
-0.0675602 0.177065 0.382146
0.211577 -0.230987 0.486008
-0.0244189 -0.164009 0.38399
-0.191867 0.19677 0.430641
0.132715 -0.0730599 0.33934
-0.220941 0.187691 0.209269
-0.206927 0.092596 0.362832
0.190226 0.177082 0.507071
0.0447287 0.216045 0.487737
-0.220454 -0.256893 0.210718
-0.0749815 0.199342 0.543375
0.0437842 0.177698 0.353998
0.235589 -0.245586 0.0145701
0.201841 0.172474 0.379418
0.1788 -0.05578 0.33934
0.135797 0.189745 0.544216
0.230426 0.185727 0.512739
-0.194985 0.174439 0.330106
0.22768 0.153649 0.553963
-0.104271 -0.256218 0.328362
-0.10095 0.225194 0.657401
-0.156029 0.210267 0.600716
-0.184236 0.195255 0.639357
-0.186717 0.00390418 0.38399
-0.122514 -0.234442 0.323029
0.216518 0.154277 0.518826
-0.202249 -0.236941 0.561885
-0.225981 -0.221448 0.263709
-0.179407 0.196789 0.319371
0.236284 -0.234836 0.12286
0.0219409 0.22783 0.571714
0.188578 0.0548815 0.38399
0.0757742 0.226546 0.642625
0.176989 0.197342 0.328487
-0.00766534 0.15374 0.33934
0.112338 0.178135 0.39683
-0.145689 0.186302 0.529505
0.236512 -0.240721 0.555012
-0.0723413 0.254326 0.687499
0.207032 -0.229588 0.367682
-0.206619 0.181202 0.502815
-0.0900254 -0.182161 0.33934
-0.231288 0.189739 0.557226
-0.167212 -0.243442 0.338637
-0.225549 0.187947 0.115899
-0.141413 -0.223983 0.38399
0.119198 0.171291 0.319171
0.0317815 0.247081 0.648065
0.16975 -0.214808 0.33934
0.0440836 -0.195842 0.33934
-0.247531 -0.117574 0.555446
0.280531 0.0172616 0.568949
0.00176622 -0.0790309 0.33934
0.201176 0.215184 0.70995
-0.137647 -0.085731 0.33934
-0.206393 -0.251231 0.371513
0.186311 -0.216102 0.38399
0.128419 0.188094 0.520969
-0.0699614 -0.0872222 0.33934
-0.112407 0.191555 0.311835
0.152142 -0.0117384 0.33934
0.254802 0.0798422 0.570044
0.00488483 0.219404 0.494872
0.206637 0.0243525 0.342368
0.138414 -0.19887 0.38399
-0.170256 0.197125 0.446354
-0.174372 0.118735 0.338295
0.141969 0.175628 0.385973
-0.226459 0.187604 0.307823
-0.243255 0.0821483 0.560981
0.124309 -0.217693 0.33934
0.0630971 -0.152296 0.33934
0.188871 0.197361 0.359938
-0.133434 0.104163 0.33934
0.0615971 0.209246 0.424172
0.11891 0.185483 0.485419
0.0250296 0.168969 0.33934
-0.125582 0.105463 0.38399
0.108666 0.219126 0.643633
-0.081557 0.173679 0.346537
0.20701 -0.215471 0.364318
0.150245 0.202737 0.465038
0.105202 0.229381 0.62432
0.00173726 0.197543 0.316066
0.209665 0.17128 0.255149
0.205603 -0.179831 0.33934
0.0981761 0.1767 0.352344
-0.20065 -0.13443 0.38399
0.076082 -0.195011 0.38399
0.105859 -0.143175 0.33934
-0.222404 0.188238 0.280334
0.077115 -0.239685 0.31255
0.235571 -0.231142 0.402664
-0.234699 0.159902 0.192314
0.182429 0.0834549 0.38399
0.051363 -0.00900155 0.38399
0.120654 0.183004 0.457775
-0.235938 0.175309 0.137728
0.235811 0.167924 0.0379921
-0.140554 0.0788376 0.38399
-0.0951943 0.138353 0.38399
0.164237 0.172589 0.339967
0.261487 -0.165581 0.571039
0.173449 0.142528 0.33934
-0.0696756 0.0862021 0.38399
0.166859 0.174112 0.375367
0.164271 -0.242927 0.322558
0.206718 -0.0274655 0.348757
0.139526 0.209191 0.632647
-0.123068 0.21312 0.634597
-0.212785 -0.250484 0.511591
-0.12295 0.00802651 0.38399
-0.0495197 0.249878 0.662658
0.132166 0.178419 0.411356
0.233135 0.181946 0.252475
-0.213978 -0.25216 0.0794454
0.00361855 0.233126 0.590404
0.150009 0.121703 0.38399
-0.141324 0.189667 0.557569
-0.265544 -0.07917 0.571317
0.235535 0.166469 0.355312
-0.0703267 -0.206314 0.38399
0.235898 0.168383 0.112448
-0.165376 0.0752424 0.320806
-0.222404 0.188238 0.459455
0.0125508 0.182607 0.398222
0.235643 -0.2453 0.262211
0.215983 -0.253348 0.319649
0.214907 -0.22486 0.164241
0.0860473 0.213997 0.615313
-0.262499 -0.222071 0.555446
0.227981 -0.217325 0.562272
0.172825 0.188836 0.596253
-0.0479078 -0.243216 0.31255
0.235632 0.174245 0.207132
-0.227592 -0.222055 0.359018
0.128176 -0.165548 0.38399
-0.235397 0.161798 0.539972
0.0927761 -0.0451635 0.33934
-0.272152 0.129629 0.570325
-0.0805629 0.0954319 0.33934
-0.202587 0.170331 0.562175
0.0146851 0.0695265 0.33934
0.204209 0.197385 0.418515
-0.0422343 -0.216836 0.38399
-0.028478 0.191982 0.470045
-0.119312 0.175422 0.37655
0.205661 0.0317655 0.38399
-0.20647 -0.201658 0.379012
0.206584 0.0585375 0.356827
-0.234793 -0.247039 0.419488
-0.0762285 0.201966 0.37767
0.00784545 0.270248 0.718758
0.150883 0.119598 0.33934
0.235264 0.176152 0.378663
0.0422078 -0.270824 0.345662
-0.0377313 0.222862 0.540194
-0.232996 -0.24386 0.570765
-0.234996 -0.232069 0.0312732
-0.284719 -0.128708 0.565271
-0.0409158 0.14376 0.38399
0.0317166 0.208003 0.413035
0.17577 0.207312 0.606912
0.0420827 0.20538 0.565003
-0.0171649 0.171998 0.326529
0.0960712 0.201876 0.398437
-0.167665 0.134816 0.33934
0.127228 0.162176 0.38399
0.114522 0.205775 0.470532
-0.112315 -0.171923 0.38399
0.230547 0.185558 0.488725
-0.0159291 -0.0271667 0.33934
0.206912 -0.152312 0.340304
-0.253423 0.0586069 0.569775
0.234329 0.163934 0.570461
-0.142799 -0.069047 0.38399
-0.214139 -0.252386 0.106985
-0.0273144 0.202593 0.54025
-0.0339562 0.264611 0.708772
0.205959 0.174179 0.352276
-0.178672 0.120969 0.38399
0.236411 -0.241253 0.451432
0.178416 0.0634753 0.33934
0.244022 -0.0414865 0.56549
-0.254051 0.159203 0.555446
0.059251 0.0757653 0.33934
-0.0239748 0.178 0.350457
0.0811644 -0.243056 0.361083
-0.21066 0.167381 0.1213
-0.216898 -0.222574 0.130223
0.0554242 -0.243096 0.376744
-0.138722 0.211058 0.578467
0.232611 0.182678 0.0885383
-0.00796652 0.0280137 0.38399
0.218516 -0.255226 0.386774
0.233657 0.160015 0.0631753
-0.174232 0.0287328 0.313645
-0.135418 -0.151924 0.33934
-0.136684 0.158468 0.33934
-0.00210318 -0.234255 0.327747
0.131144 0.218402 0.654214
0.219773 0.188197 0.535536
-0.0677875 0.00114168 0.33934
0.165395 -0.156647 0.332183
-0.149877 0.239246 0.725834
0.239528 -0.25938 0.56229
-0.0332821 -0.251606 0.326717
0.0661547 0.235662 0.661087
-0.0902132 -0.0407419 0.33934
0.0529045 0.198355 0.322883
0.186679 0.210716 0.651343
0.166458 0.168182 0.31255
-0.0547938 -0.0870066 0.38399
-0.0455315 0.174672 0.331012
0.187276 -0.185001 0.38399
-0.114401 0.232078 0.64399
-0.203569 -0.229573 0.33934
0.166662 -0.0264492 0.31255
-0.21521 0.155996 0.0910423
-0.108358 0.165644 0.333226
0.0238265 0.212663 0.450106
0.133736 -0.0942009 0.33934
-0.109589 0.202976 0.596098
0.0141651 0.13124 0.38399
0.234266 -0.249015 0.307708
-0.220057 0.15249 0.553894
-0.213505 -0.226656 0.0801072
-0.0918226 0.20349 0.420946
-0.105369 -0.0372263 0.38399
0.0429679 0.215872 0.602929
-0.0440526 0.0391852 0.38399
-0.0621477 0.204789 0.570732
-0.142923 -0.0423824 0.38399
-0.165265 0.00387599 0.337451
-0.210405 -0.234544 0.321698
0.259876 -0.123681 0.555446
0.159618 0.0517086 0.38399
0.21015 0.167431 0.0663831
-0.204362 0.209329 0.672847
0.188754 0.203132 0.678655
0.0417449 -0.253148 0.327047
-0.156725 0.179729 0.480709
-0.230647 -0.25386 0.303221
0.214151 0.183964 0.445848
0.225449 0.152808 0.174525
-0.0816267 0.117211 0.33934
-0.222162 -0.220608 0.204274
-0.130788 0.181133 0.446213
-0.136596 0.202489 0.416575
0.210988 -0.242614 0.0559272
-0.16656 0.127527 0.31255
-0.198947 0.176929 0.534294
-0.158424 0.205717 0.649152
-0.172619 0.174474 0.321396
-0.153473 -0.238547 0.33934
0.220326 0.188406 0.157431
0.00058549 0.24063 0.614973
0.0678399 0.173774 0.38399
0.128175 0.202008 0.603075
0.0757318 0.00820103 0.33934
-0.206643 -0.0899093 0.375272
-0.236189 -0.239802 0.170376
0.233866 0.160309 0.140196
0.17946 -0.186395 0.33934
0.11421 0.0404982 0.38399
0.10059 0.172848 0.331859
0.0740466 0.217273 0.513236
-0.115651 0.250197 0.714665
0.0961508 0.176737 0.379077
0.0246361 -0.105852 0.33934
0.0714636 0.220259 0.536069
-0.0120957 -0.243201 0.339615
0.0268346 -0.0447987 0.33934
0.262267 0.0382364 0.555446
0.06574 0.0478547 0.38399
0.050094 -0.0445423 0.38399
-0.207015 0.149321 0.357018
-0.0133665 0.215606 0.468453
0.0456933 0.146034 0.38399
-0.0562932 0.195105 0.499104
0.0960485 -0.0148933 0.38399
-0.116882 0.19978 0.365558
-0.1462 0.21782 0.620623
-0.0133136 -0.066622 0.38399
0.199607 0.141979 0.33934
-0.17404 -0.0948372 0.338851
-0.163847 0.197163 0.422682
0.0930949 0.199318 0.350877
-0.23593 0.175351 0.162699
0.23048 -0.254332 0.504374
0.0965321 0.0924028 0.33934
-0.118754 -0.00880294 0.33934
-0.115561 -0.243362 0.357385
0.167305 -0.131718 0.38399
0.096497 0.193827 0.53201
0.0536744 0.231566 0.596175
0.0853986 -0.106792 0.33934
-0.0380765 0.036152 0.33934
-0.187309 -0.211033 0.33934
0.0295429 0.197774 0.317813
-0.165511 0.162358 0.33692
0.176491 0.174632 0.408618
0.0824265 -0.271715 0.358581
-0.104113 0.186456 0.490137
-0.0496852 0.208499 0.418836
-0.285322 0.0863359 0.563669
0.216067 0.154642 0.276671
-0.200347 0.179211 0.579368
-0.207021 0.153514 0.38077
-0.272097 0.142293 0.555446
-0.2532 0.13867 0.569985
-0.0767226 0.22427 0.63726
0.161834 -0.271042 0.361347
-0.210143 -0.242232 0.146752
0.214191 0.15726 0.478433
-0.0802162 0.216805 0.521572
0.222929 0.172972 0.317935
-0.0743582 -0.233873 0.33934
-0.285018 -0.0769516 0.563969
0.0803247 -0.152789 0.38399
-0.223565 0.167825 0.313568
0.14718 -0.234023 0.332741
0.0895513 0.125677 0.38399
-0.211504 -0.229447 0.420363
0.00561997 -0.272598 0.354299
-0.279978 -0.034655 0.562838
0.147755 0.200365 0.411981
0.0886933 -0.264363 0.334403
0.148346 -0.208619 0.33934
-0.0487859 -0.0530463 0.33934
0.210456 0.17545 0.0967895
-0.153439 0.202477 0.479576
0.212541 -0.228184 0.138232
0.0457036 0.188814 0.449888
-0.0862738 -0.268905 0.340792
0.153915 -0.122705 0.33934
0.205918 0.200535 0.635185
-0.022675 0.118965 0.38399
-0.221426 0.151973 0.0510495
0.210945 0.178025 0.424828
0.155524 -0.252074 0.326869
-0.162494 0.183505 0.537772
0.236873 -0.238815 0.475285
0.185296 0.166101 0.313735
0.283325 -0.206805 0.556859
-0.129211 0.0384574 0.33934
-0.128271 0.208699 0.532009
-0.213669 -0.226427 0.391423
0.158052 0.0662732 0.33934
0.016009 -0.218958 0.38399
-0.112718 0.215412 0.569769
0.220145 -0.255834 0.0954208
0.120375 -0.246258 0.325701
0.214783 0.156433 0.368676
-0.16655 0.19681 0.351654
-0.261174 -0.172229 0.571056
0.210958 -0.242462 0.273922
-0.273647 0.0745211 0.570075
0.134639 -0.0288607 0.33934
-0.149907 -0.204298 0.33934
-0.185529 -0.0503935 0.38399
0.091667 -0.224363 0.33934
0.261845 -0.0917374 0.571114
0.16069 0.2021 0.640848
-0.269958 0.00289512 0.555446
0.174083 -0.00103921 0.338285
0.174035 0.0300101 0.318327
-0.0421939 0.225991 0.630634
-0.187893 -0.269583 0.367472
0.248094 0.0305698 0.568973
0.244975 -0.169805 0.556798
-0.00917406 0.0562183 0.33934
-0.154445 -0.243422 0.359047
0.00510494 0.186609 0.423792
0.173599 -0.108527 0.38399
0.0747943 0.0500796 0.33934
0.0583032 0.248051 0.69352
0.0224303 0.257992 0.682044
0.0775438 -0.251418 0.382327
0.0304772 0.22285 0.53585
-0.151547 -0.239627 0.31255
-0.0676497 -0.184884 0.33934
0.08753 0.2318 0.665277
0.132771 0.174949 0.336046
-0.134332 0.15732 0.38399
-0.00603853 -0.210695 0.38399
-0.258168 0.0331062 0.555446
0.0339803 -0.0806496 0.38399
-0.10345 -0.234412 0.327451
-0.214336 0.165479 0.332696
0.0818623 0.17487 0.333919
0.0425029 -0.234185 0.333599
0.00816819 0.204373 0.375085
-0.214511 0.156977 0.277374
0.256692 0.164119 0.570795
0.075815 0.255212 0.720697
-0.194476 -0.227995 0.38399
0.0291547 -0.167807 0.38399
-0.116367 -0.14115 0.33934
0.162209 0.185333 0.553866
-0.203902 0.196924 0.570568
-0.0635653 -0.0663121 0.38399
-0.128138 -0.222137 0.33934
0.0425319 -0.147818 0.33934
-0.211165 0.175094 0.0749651
0.0804308 0.192412 0.499646
-0.206644 0.197673 0.614041
0.211582 -0.23096 0.219416
-0.0344581 0.198848 0.518533
0.022281 0.109971 0.38399
0.185908 -0.060435 0.38399
-0.1917 0.19677 0.386222
0.0430002 0.174809 0.32254
0.28201 0.142981 0.556985
-0.0455189 -0.140575 0.33934
0.151928 0.0913435 0.33934
-0.00994252 0.206081 0.389653
0.0633401 0.182544 0.407233
0.118152 -0.190131 0.38399
0.0149481 0.191558 0.461062
0.184761 0.030942 0.33934
-0.0826444 0.213152 0.611275
0.0659085 0.0906911 0.38399
-0.052501 0.215214 0.481403
0.103673 0.214749 0.544966
0.174193 -0.0712279 0.328257
-0.236139 -0.24006 0.259875
-0.233793 0.158638 0.00954551
-0.00260201 0.171619 0.31255
-0.0185069 0.178408 0.37022
-0.225206 0.1518 0.300497
0.206802 -0.0815124 0.356254
-0.0582923 0.219136 0.518017
-0.0756491 0.19439 0.508234
0.0874289 0.204566 0.420493
0.235236 -0.247445 0.153087
-0.0502968 0.0687623 0.33934
-0.212582 -0.234623 6.34198e-19
0.0697912 0.114419 0.38399
-0.167929 -0.0873359 0.38399
-0.00281777 0.160314 0.38399
-0.187591 -0.193054 0.38399
0.139223 0.21024 0.561246
-0.0541243 -0.243266 0.365592
0.227593 -0.22113 0.359527
0.166726 -0.259025 0.378522
-0.13961 -0.271403 0.347154
-0.184661 0.201779 0.670333
0.24479 0.117661 0.566506
0.100181 -0.262589 0.37621
-0.0125809 0.225028 0.544162
0.0213385 -0.243149 0.325401
0.236737 -0.239532 0.28892
-0.139222 0.174526 0.327622
0.105663 -0.0311362 0.33934
-0.131822 0.197873 0.593538
0.210968 0.178147 0.141494
-0.170771 0.185545 0.580665
-0.21871 -0.221897 0.465073
0.0622543 0.214851 0.476364
-0.189574 0.0361175 0.33934
0.221175 0.152538 0.104891
-0.056458 0.0562231 0.38399
0.221926 -0.256499 0.135371
0.282824 0.0969292 0.567108
0.18177 0.109527 0.33934
0.0714989 0.211593 0.455912
-0.235472 -0.243517 0.532016
-0.243243 -0.138605 0.562965
-0.265176 0.0633938 0.555446
-0.037615 -0.239014 0.38399
0.192254 0.0959844 0.38399
0.160243 0.176736 0.449338
-0.206761 -0.0140312 0.377226
-0.0647286 0.187973 0.448611
0.117136 -0.237318 0.33934
-0.0599346 0.259692 0.701052
0.0260774 -0.185556 0.33934
-0.213033 -0.227314 0.172254
0.0378183 0.0592224 0.33934
0.0513875 0.199135 0.526567
-0.210566 0.171992 0.200455
0.178157 -0.117212 0.33934
-0.0178925 -0.0156714 0.38399
-0.00504157 0.180961 0.384739
0.051768 0.246956 0.652103
-0.0654484 -0.234353 0.327903
0.214631 0.163147 5.09062e-19
-0.000677004 -0.0495555 0.33934
0.234338 -0.227838 0.197436
-0.0269576 -0.00965761 0.33934
-0.206571 -0.136641 0.364289
-0.180351 0.211625 0.651391
-0.129744 0.187132 0.51486
0.0645637 -0.0143447 0.33934
0.168234 0.18599 0.575628
0.104334 -0.064272 0.33934
-0.187321 -0.107746 0.33934
0.000774518 -0.243181 0.380556
-0.0913829 0.16181 0.33934
0.217697 -0.221817 0.087251
-0.03121 0.100185 0.38399
-0.0505688 0.165734 0.314232
-0.151146 0.19871 0.402485
-0.105188 0.206261 0.471509
0.134154 0.185174 0.31206
-0.247453 0.173686 0.570592
-0.27004 -0.113183 0.555446
-0.0903332 0.245171 0.671675
0.0669427 0.201437 0.546918
0.0965793 -0.121138 0.38399
0.267749 -0.111331 0.570999
0.21438 0.184285 0.00945503
-0.0206241 0.218167 0.493055
0.151274 -0.214421 0.38399
-0.155446 0.20068 0.629851
-0.0476173 0.208727 0.584514
0.043851 0.142986 0.33934
-0.194561 -0.0318493 0.33934
-0.206382 -0.258225 0.332867
-0.0918185 -0.0879241 0.33934
-0.148604 0.0826798 0.33934
0.157332 0.233565 0.704356
0.204414 -0.244123 0.565507
0.206755 -0.0510835 0.358072
0.185647 -0.266099 0.337228
0.00689293 0.198275 0.502354
-0.160743 0.174487 0.394107
-0.148678 0.102631 0.38399
0.0383402 0.240766 0.626415
-0.206627 0.18677 0.359379
-0.187438 -0.0776919 0.33934
-0.1317 0.178335 0.414457
-0.0166966 0.214167 0.593606
-0.158151 -0.206679 0.38399
-0.17417 -0.0115289 0.334054
-0.23042 0.153931 0.370794
-0.0179771 -0.0835602 0.33934
-0.00175747 0.0452746 0.38399
-0.00318884 0.266011 0.702326
0.181044 0.175834 0.453486
0.152574 -0.0321213 0.38399
0.124095 -0.259081 0.378529
0.186262 -0.0369937 0.33934
0.102493 0.110177 0.38399
-0.0116222 -0.0997139 0.38399
-0.21168 0.177763 0.519821
0.0824675 -0.15006 0.33934
-0.16499 -0.173418 0.317339
-0.210234 -0.242713 0.198008
0.174328 -0.158356 0.317669
0.0779707 0.188248 0.465914
-0.16509 -0.109123 0.31461
0.257866 0.15113 0.555446
-0.236261 0.166277 0.50726
0.152396 0.221106 0.644845
-0.0356066 -0.271512 0.360526
-0.0429023 0.199794 0.337668
0.26752 -0.0194853 0.555446
0.157856 0.184515 0.534215
-0.210462 0.171452 0.26411
0.0669641 0.214988 0.604902
-0.106919 0.182187 0.443996
0.21092 0.163439 0.215868
-0.188471 -0.111048 0.38399
0.109128 0.20425 0.442279
0.08284 0.227922 0.600007
-0.211934 0.179079 0.40983
0.2274 -0.255689 0.247359
0.0722818 0.187982 0.311964
0.160938 0.175797 0.420915
-0.0743414 0.263544 0.723033
-0.270073 -0.199144 0.570573
0.210739 -0.241324 0.0761771
-0.130616 0.218911 0.656491
0.215818 -0.223579 0.0511426
0.150082 0.193595 0.596586
0.0482056 0.0341488 0.33934
-0.205593 -0.182475 0.38399
-0.126552 -0.150654 0.38399
-0.252472 0.00108139 0.569639
0.0377327 0.210395 0.435225
0.0667975 -0.0821505 0.33934
-0.0325761 0.202613 0.363777
-0.150408 -0.126568 0.33934
-0.0259946 0.0234627 0.38399
-0.165556 0.0105336 0.38399
0.17862 -0.233974 0.324554
-0.0607157 -0.155248 0.38399
-0.167679 -0.253611 0.327075
-0.0947132 -0.120492 0.33934
0.167537 0.0556708 0.31255
0.129948 0.247796 0.718467
-0.195274 -0.166447 0.33934
0.211499 -0.231398 0.383283
0.212286 0.172057 0.33934
0.114707 0.21892 0.58939
-0.161847 0.140147 0.38399
-0.093897 0.196309 0.547666
0.175343 0.175015 0.327002
-0.193191 0.178425 0.553213
0.158169 0.206512 0.56451
-0.168733 0.178561 0.49613
-0.23106 -0.224805 0.428224
-0.227454 -0.256117 0.0658391
0.213452 -0.226903 0.535033
-0.234971 -0.23194 0.102066
-0.084982 0.181922 0.427717
-0.222838 -0.257791 0.452501
0.137026 0.139252 0.38399
0.0723946 -0.058317 0.38399
-0.234797 -0.247017 0.0121399
-0.187901 0.176807 0.512116
0.24864 -0.0845771 0.555446
-0.0480671 -0.167069 0.33934
0.220613 0.188514 0.404992
0.210332 -0.239213 0.503524
0.112926 0.201342 0.388015
-0.18396 0.165527 0.3155
0.0325711 -0.245229 0.383572
-0.151618 -0.0266472 0.38399
-0.224557 0.188321 0.506279
0.177735 0.192794 0.619552
0.0955568 0.208614 0.473088
-0.0724178 0.230416 0.600453
-0.0709095 0.207968 0.422865
-0.191383 0.0532907 0.38399
-0.232249 0.18341 0.439215
-0.211107 -0.247316 0.273544
-0.0720736 -0.00816394 0.38399
-0.141889 0.174603 0.376487
0.196672 -0.135965 0.33934
-0.0675053 0.20944 0.590214
-0.263739 -0.0901551 0.555446
0.135287 0.0393313 0.33934
-0.155028 0.172376 0.355871
0.0605681 -0.138145 0.38399
0.207065 -0.250083 0.3517
0.0413935 0.214011 0.468845
-0.0674178 0.174638 0.330879
0.029742 -0.0512831 0.38399
-0.229222 -0.255457 0.233429
-0.206616 0.179654 0.444966
0.0217979 0.201882 0.35618
0.163732 -0.234027 0.33934
-0.092683 0.20276 0.58565
-0.0128354 0.239527 0.660406
0.131519 -0.104436 0.38399
-0.199175 0.196759 0.52998
0.0720537 -0.24307 0.332306
0.00509122 0.212526 0.439395
0.212453 -0.228308 0.449624
0.236021 0.17223 0.450594
0.223945 -0.219767 0.232566
-0.0943784 0.249181 0.69023
0.0855431 0.18446 0.448693
0.175921 0.173952 0.386356
-0.192806 0.196769 0.489515
0.129763 0.0198947 0.33934
-0.210207 0.169768 0.15442
0.0783115 0.0776422 0.33934
-0.23376 -0.249516 0.129932
0.148245 -0.133518 0.38399
0.20682 -0.0932063 0.340168
-0.0823709 -0.217819 0.33934
0.234465 0.16115 0.52174
0.200263 -0.254856 0.381272
-0.234512 -0.229655 0.12856
-0.212539 -0.250139 0.30197
-0.164952 -0.197693 0.331313
0.0695269 0.227063 0.585384
-0.0325508 -0.0958083 0.33934
0.098377 0.111337 0.33934
-0.102574 -0.106173 0.38399
0.0186822 -0.0693818 0.38399
-0.0927184 0.0808453 0.33934
0.140644 0.0514978 0.38399
0.206496 0.115158 0.357422
0.28425 0.0679579 0.565727
-0.220294 0.18745 0.0639055
-0.123639 -0.115131 0.38399
0.122124 -0.208624 0.38399
0.0295253 0.225229 0.55459
0.206644 0.020159 0.365684
0.163596 0.173766 0.35568
0.23091 -0.223053 0.0146613
-0.0881684 0.050137 0.33934
-0.16403 -0.243437 0.375291
0.115844 -0.137215 0.38399
-0.234671 -0.230357 0.51861
-0.168349 0.0696356 0.33934
0.232468 -0.251539 0.540204
-0.165213 -0.0295464 0.326213
-0.174329 0.176068 0.466347
0.205946 0.182519 0.578409
0.226735 -0.241901 0.570962
-0.130955 -0.170167 0.38399
-0.0256154 -0.168618 0.33934
-0.038497 -0.0374285 0.33934
-0.00917257 -0.174815 0.38399
-0.0815164 0.176935 0.372826
0.206587 0.0565405 0.379406
-0.165492 0.150247 0.330651
0.0830949 -0.177728 0.38399
-0.000572741 -0.220684 0.33934
0.228895 -0.221616 0.267546
-0.224427 0.18837 0.154234
0.205938 0.187916 0.47796
-0.0608071 0.245307 0.648593
0.173893 0.121171 0.324165
0.20622 -0.0111757 0.38399
0.0457619 -0.177337 0.33934
0.203303 -0.0984044 0.38399
-0.0819562 0.221161 0.564885
-0.135163 -0.0281912 0.33934
0.0851101 -0.0769218 0.38399
0.0108579 0.103464 0.33934
-0.230412 0.153919 0.47269
0.120383 0.233453 0.653415
0.0746838 -0.11159 0.38399
-0.234972 0.179585 0.370834
0.183101 0.197352 0.379025
0.221825 0.188971 0.274773
0.164239 0.198176 0.434211
0.113328 0.249451 0.708695
0.142598 0.0890988 0.38399
0.162479 0.202404 0.505305
-0.138519 -0.243397 0.375271
-0.0988792 0.201214 0.391733
-0.224281 0.188425 0.227355
-0.0410412 -0.00715153 0.38399
0.088168 0.247286 0.676867
0.0429215 0.194688 0.492407
-0.0242733 -0.141519 0.33934
-0.227693 -0.256028 0.171373
0.235522 0.174814 0.235746
-0.228673 0.153095 0.135496
0.0785297 0.204778 0.583235
-0.152194 -0.127253 0.38399
-0.0387601 0.0829976 0.33934
0.234809 -0.248252 0.196695
-0.0836214 0.0980786 0.38399
0.170069 0.0800859 0.33934
0.188695 0.197361 0.498899
-0.10358 0.178964 0.404769
-0.228186 0.186954 0.40556
-0.232615 0.156994 0.40527
-0.231063 -0.25328 0.548958
0.235614 0.174338 0.432317
0.0585572 0.217768 0.503586
0.111045 0.176148 0.351842
-0.0375299 -0.125985 0.38399
-0.231693 -0.2524 0.436638
0.117927 0.181506 0.43893
0.2142 0.157247 0.431211
-0.0851382 0.195393 0.528779
-0.141535 0.200108 0.608775
-0.0452369 0.228668 0.583991
-0.0670272 0.219656 0.617965
0.029928 0.0667892 0.38399
-0.183845 -0.234537 0.337081
-0.103296 -0.0131816 0.38399
-0.206901 0.0757216 0.3561
-0.199986 0.184033 0.602239
0.00485833 -0.152618 0.33934
0.182477 0.202116 0.575835
-0.152412 0.0476674 0.33934
0.0307816 -0.118411 0.38399
0.233764 0.179195 0.555446
0.042556 -0.243116 0.363964
-0.0179642 -0.19085 0.33934
0.0268203 0.205563 0.390384
0.0840089 0.165597 0.38399
0.166269 0.183079 0.312132
0.217695 -0.254919 0.339761
0.0942111 -0.248877 0.326214
0.115815 -0.243002 0.379089
0.206959 -0.182234 0.365941
0.142552 -0.24296 0.370887
0.243054 -0.00402382 0.55957
0.147111 0.218581 0.671232
-0.236177 0.16584 0.0352403
-0.211739 0.178072 0.175371
0.0726261 0.17144 0.320948
0.0682961 0.242958 0.642179
0.251083 -0.216496 0.570002
0.246152 0.164821 0.555446
-0.0739781 0.211188 0.458224
0.178444 0.159829 0.33934
0.261161 -0.0605185 0.571014
-0.177379 0.196793 0.375331
0.215482 0.176239 0.555446
0.187934 -0.0783043 0.38399
0.217027 0.187162 0.188924
-0.110544 0.187525 0.506893
0.109766 0.166366 0.38399
0.262375 -0.0398502 0.57121
-0.222638 -0.220431 0.0388058
0.231486 -0.252918 0.486532
-0.0124431 0.209442 0.418154
-0.211477 -0.248647 0.546269
-0.210836 -0.245886 0.0553045
-0.251115 -0.0654855 0.569441
-0.0747394 0.189522 0.471496
0.0164805 -0.243156 0.371401
0.224264 -0.219887 0.30042
-0.175346 0.174501 0.418774
-0.22596 0.152082 0.510567
-0.145376 0.20618 0.516131
0.21531 -0.224293 0.347047
-0.105266 0.210535 0.510945
0.0814486 -0.207396 0.33934
0.0263095 0.176971 0.357026
-0.0438047 -0.00410411 0.33934
0.110553 0.202302 0.593952
0.112883 -0.00942703 0.33934
-0.0559648 0.150772 0.33934
-0.235603 0.162869 0.214291
0.118579 0.126899 0.33934
0.0344814 -0.150952 0.38399
-0.121227 0.0256155 0.38399
0.0396619 0.22203 0.619155
-0.0133622 -0.243203 0.369977
-0.0637469 0.13024 0.33934
0.0362812 -0.00751337 0.33934
0.192944 0.17477 0.438664
-0.284281 -0.189752 0.565615
0.137427 0.198083 0.330854
-0.119377 0.117786 0.33934
0.210923 -0.234436 0.0381717
0.174395 -0.201318 0.329021
0.0409448 -0.270859 0.363214
-0.0527774 0.157844 0.38399
0.0690019 0.0305753 0.38399
-0.164994 0.206523 0.586059
0.178335 -0.271958 0.352433
0.126296 0.0831519 0.33934
-0.236138 -0.238087 0.308653
0.23563 -0.231448 0.33315
0.147061 -0.181951 0.38399
-0.034113 0.177782 0.381786
-0.206638 -0.0934554 0.355979
-0.220467 -0.221241 0.154004
-0.164842 0.204185 0.553902
0.191406 0.13391 0.38399
0.14836 0.21528 0.613777
0.129064 -0.270738 0.363129
-0.0509114 0.0915386 0.38399
-0.0500147 -0.0956225 0.33934
-0.211787 0.17832 0.317591
0.046512 0.102928 0.33934
0.22555 -0.220367 0.210516
0.201495 0.197598 0.564838
0.27506 -0.0506151 0.555446
-0.109091 -0.0805219 0.33934
0.147227 0.197644 0.359932
-0.0960085 0.257039 0.725482
-0.10238 -0.268951 0.368218
0.206537 0.0887554 0.360531
-0.0781043 0.0704374 0.38399
0.269376 -0.0923852 0.555446
0.233307 -0.226398 0.442949
-0.211921 0.179015 0.0289941
0.100527 0.187404 0.490717
-0.254991 -0.252895 0.555446
0.000350576 0.216297 0.596062
-0.0468792 0.103462 0.33934
0.055713 -0.0969074 0.38399
0.268305 0.0652422 0.555446
0.22585 0.15296 0.126688
-0.0448486 0.225257 0.563373
0.215548 -0.252741 0.430498
0.261624 -0.186516 0.571056
-0.223973 0.188541 0.476654
0.161874 -0.24293 0.382485
0.175916 0.217244 0.673363
-0.232919 -0.227416 0.187024
-0.0976797 0.175367 0.366978
-0.206709 -0.0475586 0.353832
0.0807089 0.202573 0.389544
0.107619 0.20761 0.486224
-0.0692325 -0.270304 0.342925
0.168934 -0.263789 0.333733
-0.0262557 0.0429268 0.38399
-0.0703626 0.164533 0.38399
0.0979752 -0.271054 0.347256
0.268463 -0.142524 0.555446
-0.0340711 0.20929 0.425979
0.283025 0.00530095 0.555455
0.0183922 0.212255 0.588684
0.126815 -0.0697419 0.38399
0.229877 0.154705 0.256229
0.234599 0.161538 0.32464
-0.256781 -0.0287873 0.570327
-0.167237 0.210168 0.618374
-0.00442808 0.0624998 0.38399
0.243023 -0.0244113 0.560759
0.258149 0.114269 0.555446
-0.0190362 0.123759 0.33934
-0.22398 0.188538 0.532425
-0.206531 -0.16248 0.37318
-0.229818 -0.223061 0.0837027
0.028519 -0.20732 0.38399
-0.17038 -0.0390007 0.38399
0.20242 0.177085 0.526208
0.143382 0.207578 0.52805
0.199838 0.175948 0.486455
-0.157467 -0.262868 0.376292
-0.186612 0.163875 0.38399
0.158691 -0.0276719 0.33934
-0.133106 0.18247 0.463057
0.020563 0.179522 0.376414
0.21129 0.179845 0.391529
0.201234 0.202347 0.609145
-0.0888347 0.216894 0.538566
-0.217526 0.153444 0.111257
0.142161 -0.177343 0.33934
-0.0452592 -0.222145 0.33934
-0.165175 0.191301 0.311841
0.00828747 -0.134414 0.38399
-0.161009 -0.160662 0.33934
-0.14932 0.196836 0.316352
0.205936 0.189188 0.5143
-0.211699 0.182929 0.556219
0.165161 -0.00582664 0.319491
-0.265428 -0.20538 0.555446
0.172736 0.220441 0.712369
0.0580271 0.174833 0.330804
-0.253028 0.0985149 0.555446
0.110902 0.209184 0.506904
0.164069 0.211905 0.624051
0.0538685 0.185042 0.42377
0.232728 -0.251175 0.120517
-0.0408118 0.194631 0.492389
-0.119653 0.224067 0.615518
0.210593 -0.236178 0.319757
0.131591 -0.130955 0.38399
0.224307 0.188853 0.42408
0.15804 0.200329 0.450308
0.0909129 0.00263196 0.38399
-0.17393 -0.165463 0.329146
-0.0731806 0.250104 0.704955
-0.20404 0.103707 0.38399
0.022535 0.200895 0.52661
0.227326 -0.255717 0.0560195
-0.234971 0.179586 0.0950761
-0.119313 0.200887 0.386248
-0.219645 -0.256588 0.408047
-0.141392 0.208698 0.54669
-0.196451 0.190098 0.627183
-0.146768 -0.0663263 0.33934
-0.0528682 -0.264863 0.374219
0.0546164 0.240498 0.672242
0.249161 0.0636393 0.555446
0.016805 0.0213702 0.33934
-0.198192 0.140284 0.38399
-0.231252 -0.253015 0.495863
-0.146496 0.232557 0.681236
-0.000710562 0.00209595 0.33934
0.202583 -0.0368485 0.38399
0.126445 0.186758 0.504412
-0.0700134 -0.0467274 0.33934
-0.0158167 0.237762 0.610329
-0.200631 0.0903863 0.33934
0.178464 0.182764 0.562832
-0.117878 -0.264232 0.333727
0.235242 0.176269 0.066521
-0.0200581 0.187383 0.311979
0.0483886 -0.0854178 0.33934
0.235998 -0.233352 0.421203
0.14719 -0.0648186 0.33934
-0.0770421 -0.0798328 0.38399
-0.245538 0.0629249 0.55576
-0.0929431 0.0237087 0.33934
0.0255845 0.20617 0.563108
-0.00242212 -0.0951193 0.33934
0.0911483 0.249893 0.717104
-0.190113 0.212942 0.71499
0.234952 0.163399 0.389306
0.1084 0.198995 0.344424
-0.0349258 0.184242 0.415033
0.230684 0.155839 0.445824
-0.231339 -0.225198 0.500463
-0.150955 0.197778 0.384844
-0.202474 0.207638 0.65646
-0.0952128 0.1144 0.38399
-0.206849 0.0422526 0.37721
0.107159 0.179761 0.412678
0.183749 -0.255667 0.380747
0.196603 0.195106 0.648617
0.210793 0.177227 0.0444033
-0.0417301 0.20524 0.564451
0.266256 0.175449 0.555984
-0.206438 -0.222051 0.3544
0.00157027 -0.226952 0.38399
0.090375 0.233856 0.629985
-0.212549 0.180117 0.34439
-0.0299238 0.165766 0.325166
-0.0778919 -0.123763 0.38399
0.228012 -0.255458 0.222619
0.103011 0.216646 0.561298
0.217717 -0.221809 0.000577891
