-0.0574023 0.168166 0.611326
-0.0928831 0.160784 0.431692
-0.171883 -0.156645 0.310197
0.168786 0.0513705 0.371854
0.0442375 0.144956 0.370854
0.224072 0.101943 0.416013
0.0161307 -0.173035 0.324323
0.153036 0.117483 0.555144
0.177204 0.156837 0.649173
0.0260892 0.156348 0.544913
-0.117477 0.0645333 0.380374
0.123959 -0.0139644 0.380198
-0.219321 -0.163274 0.489625
-0.128284 -0.171105 0.380198
-0.184567 0.171972 0.694534
0.121315 -0.0880275 0.380198
0.053162 0.0900798 0.347594
0.0463617 0.174414 0.670929
-0.0684756 -0.112128 0.345076
0.0206563 -0.168967 0.380198
-0.224219 0.0861391 0.497703
0.162265 0.149138 0.413501
-0.216104 -0.17614 0.075508
0.0412825 0.195612 0.722725
-0.141957 0.143808 0.636151
-0.0450955 0.157667 0.536377
-0.159797 0.171661 0.717032
-0.215813 -0.177178 0.214352
0.231734 -0.191998 0.0683157
-0.231634 0.132983 0.395708
0.21759 -0.163077 0.176366
0.211671 -0.0967446 0.363002
0.132052 0.00511572 0.380198
-0.212606 -0.0632793 0.347488
0.195225 -0.198743 0.379232
-0.0400074 0.130751 0.399168
-0.187084 0.140857 0.48097
0.00885241 0.163695 0.446214
0.111288 -0.072776 0.345076
0.0115213 -0.0344852 0.345076
-0.0277256 -0.19356 0.344518
0.0535377 0.151211 0.491915
-0.180124 -0.133666 0.345076
0.0985813 0.181421 0.703679
-0.0830755 0.0513667 0.345418
0.178152 -0.0600207 0.345076
0.111697 0.142083 0.497699
0.152031 -0.167351 0.380198
-0.164986 -0.092944 0.380198
0.228528 0.0172446 0.544523
0.135095 0.124351 0.581255
-0.0714574 0.214792 0.711798
0.215387 -0.152243 0.460537
-0.0991276 0.215456 0.720764
0.0772944 -0.135231 0.345076
0.158754 -0.173481 0.319198
0.245857 -0.088965 0.544923
0.226112 0.134352 0.255295
-0.0490124 -0.181711 0.380198
-0.0493462 0.142694 0.369879
0.121532 0.0719765 0.344675
-0.211161 0.0364228 0.345076
0.20989 0.155261 0.389984
-0.15191 0.206944 0.767229
-0.0518908 0.173258 0.668486
0.051954 0.147585 0.605307
-0.100745 -0.0356932 0.380198
0.0324796 -0.187627 0.345076
0.159752 0.194423 0.710011
-0.170828 0.131143 0.575438
0.102148 0.144674 0.407754
0.211668 0.0261796 0.366711
-0.113224 0.141093 0.61137
-0.000226468 -0.0195522 0.380198
0.0205719 0.183141 0.434212
0.210731 0.131159 0.642174
-0.113986 0.137119 0.515659
0.219423 0.189446 0.144717
0.0271824 0.0771577 0.380374
-0.027518 0.214266 0.756827
0.202243 0.125031 0.524059
-0.0578937 -0.156261 0.380198
-0.104319 -0.13858 0.345076
-0.177522 -0.148727 0.380198
-0.0637153 0.191662 0.38934
-0.0966263 4.66481e-05 0.345076
-0.188633 -0.208539 0.340507
0.0821092 -0.218291 0.335928
-0.079852 -0.0638486 0.345076
-0.221884 0.173607 0.234099
-0.207148 0.0722085 0.38853
-0.118042 -0.171207 0.309684
-0.0683115 0.0294031 0.380198
0.0686013 0.138525 0.369211
0.0235012 0.171839 0.61657
-0.228663 -0.201845 0.0444394
0.225424 0.178568 0.0257994
-0.0262215 0.0109874 0.345076
-0.136824 -0.229366 0.36076
0.142036 -0.212878 0.338382
-0.185813 -0.0687693 0.380198
-0.0225778 -0.233246 0.354591
-0.10937 -0.0828011 0.345076
0.0739148 -0.0241473 0.380198
-0.163244 0.0513655 0.363387
-0.237603 0.107789 0.541361
0.17581 0.187456 0.768313
0.0392308 0.0668859 0.344675
-0.188539 0.12369 0.386037
-0.0627581 0.149434 0.407394
-0.156964 0.14462 0.438273
0.179113 0.00169107 0.345076
-0.0613389 0.0877948 0.382677
0.0632193 0.206411 0.688614
-0.216126 -0.156926 0.293247
0.0702042 -0.205797 0.377564
-0.0254521 -0.173214 0.345076
0.228293 0.135259 0.376502
0.232376 -0.162751 0.289017
-0.103586 -0.156485 0.312015
0.0969165 0.0214582 0.345076
-0.0544956 0.135197 0.572268
0.151401 0.157941 0.459322
0.00926091 0.183497 0.690151
-0.0103841 -0.0784154 0.380198
-0.21167 -0.0195012 0.346213
-0.20898 0.105343 0.596124
-0.0953407 0.159761 0.379896
-0.160996 0.145318 0.605384
-0.145546 0.125336 0.529711
-0.0594983 0.182598 0.693441
-0.118423 0.164041 0.468833
-0.210737 0.15686 0.723793
-0.228333 -0.0119556 0.533242
-0.140718 0.175855 0.669051
-0.222039 0.152099 0.34521
0.182566 -0.183246 0.345076
0.200636 0.118758 0.561495
0.0838056 0.179938 0.426898
-0.00917357 0.1514 0.610569
0.21542 0.106793 0.474939
0.00463014 0.23405 0.741993
-0.232054 -0.145976 0.452184
0.137029 0.126854 0.402657
0.231981 -0.152435 0.371381
0.0958454 0.134659 0.587801
-0.0366472 0.163305 0.514169
0.12797 -0.181446 0.345076
0.187537 0.106378 0.400219
-0.223612 -0.098036 0.536248
0.0345831 -0.0345207 0.345076
-0.110637 -0.101064 0.380198
-0.215125 0.0651984 0.538208
0.0324657 -0.123358 0.380198
0.143814 0.162293 0.682528
-0.232515 0.194676 0.0421997
-0.231618 0.168833 0.124045
-0.0116853 0.147205 0.514095
0.172099 0.145835 0.379641
-0.127281 0.0710957 0.344675
0.17765 0.133072 0.590025
-0.190265 0.137189 0.422427
-0.00989933 0.192338 0.665837
-0.218533 0.106391 0.416357
0.0800223 -0.188666 0.345076
0.229673 -0.133547 0.500695
0.0703006 0.204691 0.751457
-0.211822 0.0967419 0.377381
0.227761 -0.189539 0.197409
-0.230443 0.154674 0.300912
0.189447 -0.132555 0.380198
-0.14585 0.12336 0.36751
-0.0441 0.206414 0.749511
0.138531 0.0720105 0.380962
0.142348 0.0213242 0.345076
-0.0332014 -0.0859816 0.345076
0.210731 0.161057 0.691831
-0.0828137 0.0955972 0.35178
-0.037146 0.18415 0.427815
0.225653 -0.169458 0.039966
0.166958 -0.0500254 0.380198
0.0277433 0.212352 0.716991
-0.0924047 -0.200485 0.379016
-0.0866987 0.132842 0.551683
0.197409 -0.0569168 0.380198
0.223089 -0.175678 0.375451
-0.225566 0.145138 0.198149
-0.212604 -0.177599 0.378271
-0.163555 -0.0351066 0.345076
-0.0765731 -0.163633 0.344278
-0.171923 0.145593 0.66308
0.000793606 0.0359173 0.380198
0.137944 0.17266 0.4129
0.0784972 -0.0317633 0.345076
-0.113707 0.183237 0.393898
-0.0714086 0.156374 0.632849
-0.0677211 0.171154 0.472484
-0.123528 0.101503 0.391786
-0.222165 0.125665 0.481574
0.0909311 0.0297683 0.380198
0.19506 -0.102736 0.345076
-0.171849 -0.0258149 0.380198
-0.223609 -0.128315 0.500937
0.21261 -0.232337 0.353068
0.0224534 -0.0817715 0.345076
0.140876 0.144852 0.524449
0.206816 0.129384 0.430888
0.1223 0.18082 0.714162
0.0134784 -0.0054513 0.345076
0.108287 -0.187409 0.380198
0.08784 0.111886 0.393823
0.00534878 0.157074 0.474093
-0.120275 0.0188806 0.380198
0.0201076 0.17628 0.392612
-0.143754 0.206047 0.72582
0.0747977 0.171334 0.67095
-0.182785 0.200552 0.743667
0.0549995 0.175769 0.629253
0.218285 0.123277 0.332198
0.158135 0.150379 0.482915
0.137027 0.15766 0.620423
-0.00127023 0.13648 0.401486
-0.13618 0.155499 0.415094
0.232411 0.108223 0.49102
0.124402 -0.133552 0.380198
-0.231101 -0.165091 0.174703
0.102254 -0.0665625 0.380198
0.0452498 0.160148 0.456029
-0.131334 0.132342 0.600821
-0.23013 -0.168393 0.113569
0.0845285 0.156814 0.523061
-0.0152847 -0.136333 0.380198
0.21167 -0.0477547 0.347704
0.242246 0.0456947 0.53123
-0.117808 0.169727 0.639039
-0.232165 0.119192 0.444826
0.215125 -0.068616 0.540733
0.206058 0.0649858 0.385485
-0.211668 -0.125675 0.357591
0.216966 -0.188269 0.147009
0.179976 0.00960062 0.380198
0.216046 0.196614 0.0631523
0.153754 -0.0600225 0.345076
-0.0921233 0.199419 0.678982
0.164065 -0.224948 0.365947
-0.0493958 -0.055805 0.380198
-0.00764541 0.0921395 0.383539
-0.0954709 -0.144608 0.380198
0.0637146 0.151846 0.570276
0.0419915 -0.156527 0.311519
-0.189606 -0.19944 0.379146
0.0744891 0.0676013 0.380374
0.0313396 0.164042 0.598025
0.225948 0.128532 0.284751
-0.144795 -0.1614 0.345076
-0.175244 -0.0871248 0.345076
-0.000350963 0.0840771 0.344675
0.100536 0.226071 0.753279
-0.0494289 0.0521858 0.344675
0.111127 0.156132 0.379323
-0.0728615 -0.211234 0.339188
-0.181198 0.12125 0.500444
-0.123488 0.180414 0.714914
0.145373 0.103816 0.359172
0.141151 0.211667 0.737976
0.243583 -0.123786 0.537147
0.163489 0.122839 0.519464
-0.219242 -0.184167 0.248926
0.223138 -0.132309 0.458257
0.0649581 -0.0868769 0.380198
-0.114879 0.198421 0.753331
0.17721 -0.15433 0.336613
-0.228053 -0.178088 0.326467
-0.159813 0.124242 0.403446
0.0399314 -0.0322424 0.380198
0.105421 -0.109984 0.345076
-0.215124 0.0251621 0.532056
-0.136662 0.0513659 0.361709
0.219705 -0.203141 0.0396954
0.0705078 -0.171402 0.380198
-0.0262438 -0.123987 0.345076
0.0114164 0.199216 0.729223
-0.043062 -0.0320545 0.380198
0.0730872 -0.232017 0.357084
-0.195527 -0.172346 0.332239
-0.221199 -0.160601 0.535679
-0.158468 0.118193 0.545552
0.0565805 0.16961 0.414417
0.158999 0.174041 0.675771
-0.0170261 -0.0601787 0.345076
0.157559 0.182574 0.74281
0.074274 0.157063 0.63563
0.184979 0.153984 0.43064
0.194888 0.0401046 0.345076
0.0206117 0.112012 0.356631
-0.183302 0.128011 0.629501
0.0445886 -0.220875 0.334881
0.0759099 0.169825 0.47306
-0.201333 0.155182 0.402381
0.218133 -0.158493 0.215648
0.174425 0.128417 0.622029
0.193802 -0.16791 0.309396
-0.201238 0.153771 0.664223
0.00651181 0.135913 0.566468
0.000822544 0.0425063 0.345076
0.164194 0.206798 0.744402
0.00963102 0.167967 0.651751
0.0695615 0.0513691 0.350287
-0.0478753 -0.235263 0.350496
-0.217294 -0.14506 0.389436
0.222377 0.165914 0.275187
-0.1465 -0.118834 0.380198
0.244784 -0.0261253 0.546037
-0.228083 -0.172327 0.0229716
-0.183212 0.0177856 0.345076
-0.0534693 0.163079 0.44279
0.127421 -0.155725 0.320677
0.226408 0.198228 0.106048
0.179258 0.150047 0.680695
0.0628481 0.140995 0.529571
0.200134 0.132324 0.497367
-0.0682351 0.138177 0.538668
-0.162351 -0.230316 0.336781
-0.00739199 -0.156282 0.314321
0.184442 0.059976 0.345411
-0.0150278 -0.194544 0.379754
-0.0229326 0.167003 0.408387
0.0882064 0.19219 0.726691
0.21916 -0.162316 0.496518
0.216221 0.0642302 0.542882
0.0274549 0.192473 0.668017
0.0236038 0.146643 0.514829
-0.207385 0.109026 0.512926
0.21864 -0.195548 0.104132
0.129023 -0.0536573 0.380198
-0.21167 -0.035241 0.38004
-0.0914104 0.149342 0.574355
-0.224915 -0.201733 0.0764478
0.00917214 -0.202611 0.378751
0.0969327 0.202021 0.686774
-0.208346 0.126741 0.362229
-0.188378 0.184569 0.708035
-0.224862 -0.136228 0.414796
-0.226701 -0.152393 0.241889
0.081328 0.102296 0.354561
0.0194723 -0.156474 0.343652
0.0455661 0.163297 0.513011
0.0422735 -0.119166 0.345076
0.225391 0.118428 0.53296
-0.122722 -0.0656829 0.380198
0.229733 0.169581 0.232008
0.21073 0.186048 0.734605
0.116599 0.155943 0.434459
0.230126 0.163329 0.132841
0.00733148 0.135664 0.366843
-0.00727614 0.173914 0.620028
0.215937 -0.149914 0.390694
-0.245541 -0.0812212 0.535661
-0.0609505 0.0140532 0.345076
-0.167532 -0.047641 0.380198
0.108517 0.128599 0.55797
-0.157242 0.0334254 0.380198
-0.242566 -0.0351422 0.534052
0.124094 0.154392 0.65029
-0.212603 -0.233814 0.345191
0.143852 -0.0982998 0.345076
-0.0601344 0.225009 0.734208
0.129778 -0.0437037 0.345076
0.215125 -0.107168 0.538923
-0.156501 -0.123362 0.345076
0.102856 0.101849 0.355716
-0.112482 -0.225394 0.334929
-0.166341 -0.192768 0.379975
-0.175356 0.183227 0.760651
-0.211993 0.0366791 0.380198
0.183783 -0.093965 0.380198
-0.217336 -0.163442 0.439881
0.231744 0.120302 0.456274
0.0573543 0.0462503 0.380198
-0.0867347 0.164306 0.657544
-0.160413 0.153103 0.46917
-0.122411 0.154777 0.432236
-0.128522 0.142159 0.549906
-0.199214 0.126382 0.453786
0.0279186 0.034012 0.345076
0.22045 0.18386 0.177183
0.0696379 0.212537 0.724732
0.211673 -0.205888 0.342036
0.136312 0.185942 0.689992
-0.0116053 0.156289 0.547567
-0.156372 -0.172389 0.331734
0.186773 0.180949 0.697839
-0.227027 0.166111 0.269432
-0.0867689 0.182277 0.415953
0.221684 -0.170377 0.426967
-0.161422 0.142186 0.512422
-0.0471528 0.154236 0.48024
0.106032 -0.150295 0.345076
-0.0227631 0.220295 0.736059
0.158399 0.172954 0.390146
-0.0800134 -0.073078 0.380198
-0.110411 -0.171715 0.339438
0.211671 -0.129332 0.351036
-0.211669 -0.0904594 0.378502
0.229726 0.14681 0.349235
-0.218585 0.175757 0.205806
-0.0162294 0.162432 0.3784
0.231993 -0.181119 0.169374
0.245856 -0.0600706 0.543283
0.216018 -0.0151612 0.545654
-0.154616 0.164178 0.648415
-0.106247 -0.0307309 0.345076
0.219752 0.14204 0.221469
-0.0717033 0.147837 0.496913
-0.0350194 0.071402 0.344675
0.0470066 0.182543 0.433151
-0.207547 0.0739614 0.354023
0.211669 -0.0126162 0.347482
-0.215604 0.182884 0.115302
0.116772 0.164691 0.468569
-0.193257 0.109321 0.402037
-0.240785 0.0802542 0.530023
-0.13491 -0.154979 0.329243
0.163266 0.161427 0.431034
-0.095812 0.147649 0.408591
-0.216098 0.180096 0.149946
0.0567149 -0.173501 0.318993
-0.0377074 -0.0216887 0.345076
-0.0919442 0.19252 0.728676
0.0760269 0.160148 0.442993
-0.1085 -0.117551 0.345076
0.00383341 -0.205085 0.342194
0.194505 0.138933 0.409451
0.108944 0.207146 0.724889
-0.218242 0.210994 0.0207477
-0.232467 0.105506 0.502834
0.0554108 0.0950809 0.385233
-0.150192 0.150369 0.37927
-0.222099 -0.160411 0.143799
-0.21831 0.0962505 0.470983
0.218382 -0.180069 0.274851
0.19672 -0.154353 0.336347
0.0756139 0.165893 0.611952
-0.218199 -0.148389 0.329577
0.117377 0.136443 0.602099
0.0767825 0.196023 0.668149
-0.125919 0.140829 0.486758
-0.212607 0.00989254 0.365182
0.130345 0.044719 0.380198
-0.120891 0.0299522 0.345076
0.138115 0.102467 0.393002
0.138696 0.149635 0.437642
0.192248 -0.175506 0.380198
-0.215122 -0.130786 0.546235
-0.217575 -0.201184 0.0142779
-0.0482524 0.176246 0.388985
0.20669 0.0980973 0.398957
-0.0620893 0.161609 0.514866
-0.0574001 -0.154112 0.339145
-0.0589122 -0.215269 0.373445
-0.0712785 0.134944 0.367833
-0.0245935 0.184124 0.646751
-0.0350615 0.20582 0.679395
0.18331 0.195112 0.730656
0.210327 0.12473 0.359814
-0.0829435 0.0531842 0.380374
-0.190801 0.13202 0.599622
0.156663 0.143004 0.643025
0.149893 0.136009 0.620846
-0.196358 0.051365 0.363158
-0.0189584 0.00724515 0.380198
0.204978 0.19596 0.771271
-0.0473838 0.0417842 0.380198
-0.210737 0.183078 0.7257
0.227472 -0.179215 0.317286
-0.115682 0.222162 0.758295
-0.0380268 0.0752167 0.380374
0.100165 0.139418 0.516952
-0.0313395 0.191083 0.710546
0.231073 0.132448 0.408298
-0.0270335 0.181364 0.686146
0.203557 0.149461 0.422664
0.0911239 -0.00972521 0.345076
-0.0166551 0.129628 0.364237
0.109312 -0.229033 0.336109
0.0513881 -0.155312 0.34355
-0.156981 0.160093 0.686293
0.210731 0.145775 0.663042
0.0247917 0.177294 0.457848
0.225206 -0.189067 0.219301
-0.211667 -0.205118 0.349528
-0.231637 0.144645 0.249284
0.205862 -0.0772142 0.345076
-0.0959759 0.158787 0.601345
0.100027 -0.151212 0.380198
-0.0768322 -0.0138973 0.380198
0.038968 -0.216626 0.372478
0.146219 0.0609859 0.344675
-0.158398 0.125346 0.600089
-0.23458 0.0036436 0.544998
-0.105937 0.149853 0.541202
0.0917332 0.155447 0.591717
0.231939 0.165242 0.156004
0.097077 -0.0320298 0.380198
-0.175399 0.127475 0.554471
-0.0495257 -0.187996 0.345076
0.210731 0.100895 0.53832
-0.0539885 0.180077 0.6396
-0.121199 0.143061 0.374368
0.200094 0.134658 0.372169
-0.215602 0.169483 0.184171
0.0184667 0.151996 0.407766
-0.0358999 0.146831 0.601877
0.200364 0.104516 0.581685
0.0730383 -0.0593153 0.380198
0.071789 0.172869 0.392642
0.15269 -0.194774 0.344322
-0.14384 -0.212698 0.338472
-0.142899 0.188795 0.748631
-0.205205 0.167995 0.750776
-0.0510555 0.156629 0.581501
0.0111251 -0.0524719 0.380198
-0.0547373 0.194767 0.721823
-0.225087 -0.198493 0.112378
-0.106405 0.198314 0.701998
-0.231557 0.12786 0.425241
-0.210737 0.146655 0.692034
0.0341378 0.15305 0.568433
0.172969 -0.156918 0.380198
0.0737281 -0.155456 0.323752
0.230522 -0.14202 0.424303
-0.223524 -0.154754 0.19927
0.00504254 0.216038 0.758849
-0.138255 0.119279 0.565082
-0.172197 0.150511 0.393718
-0.0300104 -0.0990596 0.380198
0.0654546 -0.0992628 0.345076
-0.147376 0.183792 0.693076
0.211819 0.0560045 0.35862
0.1548 -0.12794 0.380198
-0.152394 0.164104 0.432467
-0.221804 0.206365 0.0653384
0.212606 0.00861198 0.36875
-0.0295408 0.163911 0.442552
-0.0919616 0.0823854 0.382309
0.152397 -0.199722 0.37911
-0.0646483 0.110587 0.39198
-0.0713501 -0.0489374 0.380198
-0.132092 0.154567 0.656989
0.145239 0.14395 0.376236
-0.181758 0.151619 0.640697
0.0108446 0.183828 0.645025
0.188031 -0.0281766 0.345076
-0.231583 -0.177305 0.0517594
-0.0759915 -0.186062 0.380198
0.0448431 0.216131 0.707999
0.156254 0.151133 0.663116
0.217347 -0.15533 0.270752
-0.123262 0.109146 0.36006
-0.0919819 -0.205445 0.342019
0.0475005 0.137694 0.549663
-0.180967 0.107972 0.56866
0.0116923 0.212906 0.690786
-0.0345067 0.137087 0.554888
-0.00147937 0.0202462 0.345076
0.0699181 0.0073979 0.380198
-0.0579375 0.0765978 0.344675
-0.146574 -0.0597817 0.345076
0.176185 0.128334 0.549125
0.0380693 -0.101477 0.380198
-0.143378 -0.139954 0.380198
0.152779 -0.0241304 0.380198
0.0743672 0.13342 0.557968
0.00602203 0.225975 0.722078
0.0552302 0.176214 0.457875
0.129105 0.129379 0.53143
-0.0809471 0.157369 0.452584
0.216937 -0.173354 0.0746511
0.1903 0.108618 0.539274
0.19815 0.137589 0.62025
-0.186743 -0.236257 0.345988
-0.210736 0.107886 0.565769
0.0455105 0.137297 0.577795
0.00156865 -0.231712 0.337516
-0.0284715 -0.152177 0.380198
0.197345 -0.226103 0.334965
-0.185058 0.164307 0.722434
-0.230059 -0.17686 0.296397
-0.0720302 0.138111 0.588191
-0.0348618 0.218551 0.71134
0.139144 0.134316 0.500218
-0.225578 0.171361 0.0632759
0.206775 0.119227 0.380855
0.0914899 0.070524 0.344675
0.139788 -0.235122 0.350775
0.00326545 0.206784 0.673084
0.0775677 0.180606 0.648847
0.097322 0.0513695 0.357114
-0.180965 0.0417556 0.345076
0.130602 0.141029 0.552061
-0.216982 0.12452 0.340163
0.142622 0.141321 0.467719
-0.101004 0.17253 0.448949
-0.20296 0.119188 0.625484
-0.0154228 0.135822 0.565172
0.215523 -0.192141 0.0166491
0.0558177 0.199027 0.66802
-0.162426 -0.228064 0.362291
0.121447 0.170601 0.688498
0.17508 0.126214 0.371624
0.229811 0.0996364 0.457027
0.204654 0.141517 0.453454
-0.087194 0.139277 0.524454
0.217851 0.0348634 0.543907
0.0738491 0.1422 0.405132
-0.188179 0.103117 0.363654
0.228675 -0.194792 0.124807
0.228176 -0.141258 0.550058
0.0714836 0.228343 0.753603
-0.136845 0.0646325 0.380374
0.0353055 0.159364 0.632926
0.140077 0.205974 0.767349
-0.215402 -0.178245 0.165186
-0.128343 -0.200173 0.379055
-0.0841998 -0.155898 0.318727
0.0942289 -0.00990382 0.380198
0.00569617 0.163747 0.516482
0.218342 0.165675 0.113455
-0.215618 0.0932182 0.534145
-0.00575958 -0.0964535 0.345076
-0.219214 0.142049 0.225435
0.100033 -0.206097 0.341698
0.116949 0.0372246 0.345076
0.135049 0.147767 0.594912
-0.173384 -0.161207 0.344065
-0.231832 -0.160876 0.261897
-0.0775986 0.158177 0.593604
0.0149553 0.189508 0.408604
0.207405 0.154474 0.718594
0.22842 0.110735 0.384625
-0.127928 -0.105578 0.345076
-0.16307 0.194363 0.712133
-0.102761 0.144597 0.494076
-0.037898 -0.119721 0.380198
-0.228297 0.12842 0.369797
-0.0287739 0.165281 0.600751
-0.0382307 -0.154833 0.3309
0.165795 0.0300155 0.345076
-0.126494 0.132907 0.40448
-0.00334755 0.183021 0.437014
-0.211668 -0.158456 0.358374
0.185982 -0.205603 0.341939
0.00785713 -0.120656 0.380198
0.111036 0.17759 0.420554
-0.143442 0.139813 0.578649
0.0392467 0.17139 0.480355
0.0885971 0.161791 0.413814
0.00798354 -0.0997006 0.380198
-0.0798562 0.176117 0.638445
0.232066 0.190097 0.0839238
-0.1207 0.194166 0.677941
0.215152 0.152428 0.251165
-0.18246 0.0631141 0.382155
0.231943 -0.157118 0.448153
-0.116702 0.0529227 0.344675
-0.231863 -0.179579 0.198355
0.189062 0.0295977 0.380198
-0.150907 -0.0703684 0.380198
-0.0411288 -0.0810502 0.380198
-0.0387616 -0.173059 0.324055
0.232499 -0.169068 0.26165
-0.223918 -0.0612094 0.547262
-0.118682 0.16446 0.396394
-0.0868607 0.18109 0.698837
0.167485 0.13996 0.443667
-0.0584905 0.153102 0.553968
-0.215809 -0.143892 0.470832
0.215857 -0.158433 0.300501
-0.189631 -0.0171297 0.345076
-0.198831 0.146578 0.440964
-0.165143 -0.190554 0.345003
-0.0150037 0.186883 0.419464
0.12332 0.203799 0.704072
0.0974018 0.163829 0.487032
-0.104426 -0.0030442 0.380198
0.21618 -0.136045 0.527248
-0.0805979 0.169627 0.401413
0.0147255 0.0052889 0.380198
0.21167 -0.0756272 0.371623
-0.131961 0.199276 0.699604
-0.0909031 0.184742 0.663389
0.153311 0.17355 0.717272
-0.221832 0.155599 0.326594
0.230889 -0.167239 0.144869
-0.136062 0.163892 0.450129
0.178844 0.148453 0.462014
-0.0674475 -0.172669 0.328525
0.113784 0.145519 0.572946
0.231928 -0.161573 0.398648
0.157204 0.130098 0.4053
0.0076239 -0.0593173 0.345076
0.0280995 0.226336 0.751455
0.193243 0.0513709 0.364948
0.0316978 0.100152 0.386781
-0.0890032 0.223158 0.737237
-0.0211641 0.15827 0.467024
-0.183256 0.143583 0.384731
0.0365043 0.192181 0.39466
-0.222589 0.163498 0.102691
0.124007 -0.129766 0.345076
-0.142187 0.215723 0.748841
0.175032 0.139305 0.504833
0.0531598 -0.191364 0.344872
0.0536236 -0.0154754 0.345076
-0.205958 0.129227 0.501556
0.230522 -0.148071 0.515346
-0.0408207 -0.0483209 0.345076
0.171737 0.12811 0.486152
-0.0375456 0.106268 0.389258
-0.11555 -0.052328 0.345076
0.00406208 0.170977 0.416711
0.0934975 -0.226017 0.364692
-0.1715 -0.0567227 0.345076
-0.0528535 0.204057 0.698542
0.193164 0.157027 0.664483
-0.0481464 0.170324 0.413513
0.161756 -0.0345466 0.345076
-0.137712 0.145583 0.524589
0.229683 -0.146874 0.348583
-0.177779 0.157047 0.428101
-0.215218 -0.188543 0.0309495
0.118381 0.157557 0.412929
0.0653668 0.114295 0.393488
0.0272795 0.0381471 0.380198
0.208387 0.11056 0.505315
0.0416939 0.185875 0.69878
-0.0106323 0.142736 0.589373
-0.209627 0.135666 0.67327
-0.0101541 -0.0131483 0.345076
-0.220489 -0.176291 0.351763
0.231675 -0.165195 0.198015
-0.112334 -0.223148 0.36784
-0.150592 0.104747 0.394884
-0.196276 0.122269 0.474697
0.0422938 0.183871 0.648015
0.100122 -0.0468472 0.345076
0.226661 -0.152138 0.244443
-0.0173404 0.120516 0.395025
0.16939 0.0911426 0.392073
-0.0790134 -0.138953 0.345076
-0.22952 -0.143093 0.515118
0.162768 0.0801084 0.35128
0.189006 0.201871 0.752108
0.0503764 -0.0548082 0.345076
0.211672 -0.161175 0.35729
0.154847 0.124444 0.595449
-0.0710334 0.179527 0.436138
-0.216124 0.160441 0.252132
0.119198 0.159096 0.489461
-0.167879 0.166212 0.671263
-0.187677 0.108624 0.543564
0.211671 -0.117619 0.377816
-0.00734195 0.192571 0.712306
-0.000285909 -0.157668 0.380198
0.210731 0.131004 0.475347
-0.15911 0.201102 0.743745
0.0632717 0.185268 0.701339
0.226341 0.213142 0.0295176
-0.135369 -0.00318627 0.380198
-0.207465 -0.0886728 0.345076
0.235369 0.065386 0.530542
0.0475252 -0.177272 0.380198
0.230418 0.190956 0.00342157
0.211672 -0.200095 0.362937
-0.245855 -0.106862 0.540136
-0.0127616 0.172245 0.662433
0.152391 0.136895 0.544939
-0.0100704 -0.217955 0.371533
-0.212607 -0.00998338 0.374336
-0.0607811 0.108647 0.355974
-0.210736 0.17143 0.702828
0.125676 0.220711 0.74802
0.152116 -0.00218094 0.345076
-0.0639515 0.192789 0.674141
-0.142863 0.131917 0.505136
-0.138535 -0.0965977 0.380198
0.224457 -0.000494778 0.532842
0.108551 -0.110509 0.380198
0.0725783 0.14152 0.596777
0.144334 0.153477 0.413708
0.0334147 0.166461 0.38014
0.0458067 0.21799 0.732313
0.20112 0.0146637 0.345076
-0.211515 0.133589 0.40838
-0.211822 0.115914 0.39249
-0.226012 -0.167249 0.463535
-0.219518 0.157735 0.141398
0.107958 0.115361 0.396379
-0.143904 0.177097 0.38799
0.0958824 0.199921 0.748232
0.228437 -0.173444 0.0148299
0.21167 -0.0349372 0.369734
-0.0650672 0.207865 0.757514
0.144801 -0.153675 0.345076
0.022694 0.0898391 0.347057
0.0229857 -0.144265 0.380198
0.127006 0.141494 0.620376
-0.0796513 -0.0191665 0.345076
0.123248 -0.0896252 0.345076
-0.00773084 0.174243 0.47276
-0.101721 0.0800505 0.346349
-0.232277 -0.152555 0.397037
-0.0042317 0.176736 0.39285
0.168581 0.0717147 0.384121
0.128427 -0.164128 0.380198
-0.231037 0.193254 0.0959067
-0.224961 -0.164769 0.0892059
0.208243 -0.172832 0.326618
0.0878325 0.153011 0.376564
0.167188 -0.0814833 0.345076
-0.191956 -0.0212494 0.380198
-0.0654986 -0.126538 0.380198
0.125007 0.180534 0.393517
0.188754 -0.0339415 0.380198
-0.0670804 -0.085585 0.345076
-0.203314 -0.115453 0.345076
0.186834 0.132438 0.64355
-0.189032 0.1852 0.731921
0.245855 -0.00293978 0.542531
-0.143646 0.139176 0.474264
-0.0264008 -0.0169605 0.380198
-0.0157606 0.22985 0.759205
0.0327608 0.170214 0.416031
-0.198266 -0.155922 0.318469
-0.0417646 0.0306076 0.345076
0.0953417 0.15952 0.648798
0.0871838 0.0887918 0.384577
-0.215456 -0.182332 0.123372
0.10773 -0.171846 0.337906
0.00746063 0.158765 0.628767
0.0334032 0.207599 0.68341
-0.122973 -0.156108 0.345076
0.177136 0.159214 0.701713
-0.219515 0.146143 0.368391
-0.0631442 0.051367 0.364341
-0.176349 0.202787 0.763969
-0.164909 0.140314 0.6432
-0.229371 0.113788 0.523046
-0.120216 0.204785 0.726797
0.123703 0.152156 0.51335
0.22915 0.173891 0.0677626
-0.187707 0.0615707 0.346429
-0.0209042 0.201739 0.736083
0.215288 0.14645 0.276324
0.0511209 0.157751 0.535225
0.180651 0.107067 0.56175
-0.0158512 -0.173692 0.316815
0.21073 0.142676 0.685794
0.0873975 0.123393 0.363934
-0.0916078 0.149276 0.622273
0.0263057 0.157225 0.470663
-0.232609 -0.17089 0.23059
0.211818 0.121463 0.408864
0.215769 -0.190506 0.0574996
-0.131522 0.172856 0.418087
-0.215704 -0.0365622 0.546402
0.211671 -0.137791 0.372963
-0.139443 -0.182378 0.345076
0.0467528 0.151 0.407363
0.0576404 -0.109532 0.380198
0.1319 -0.198367 0.379279
-0.0817926 0.165372 0.48925
-0.210737 0.19152 0.748418
-0.174328 -0.214734 0.373827
0.131611 0.164824 0.452398
0.147515 -0.15888 0.308605
0.129815 0.155905 0.394345
-0.225778 0.179901 0.0199333
0.17633 0.164396 0.400298
-0.156729 -0.144106 0.345076
0.137596 0.197259 0.719238
-0.0341124 -0.222065 0.368609
-0.192009 -0.186929 0.345076
-0.227986 -0.182776 0.273311
-0.168331 0.150632 0.625658
0.185684 -0.0134211 0.380198
0.234451 -0.109446 0.548947
-0.0521629 0.187488 0.411985
0.071796 0.152083 0.551225
-0.169186 0.176241 0.737292
-0.210737 0.128355 0.436163
-0.189977 -0.171497 0.380198
-0.211669 -0.110523 0.366808
-0.0820652 -0.160586 0.380198
-0.154918 -0.169965 0.309575
-0.245858 0.0526353 0.537399
0.156871 0.151998 0.394942
-0.0485206 -0.0679208 0.345076
0.148327 -0.170772 0.345076
0.233891 -0.0165683 0.533404
-0.081657 0.00789602 0.380198
-0.046555 0.144039 0.522533
0.100706 0.170675 0.677983
-0.211667 -0.20331 0.373784
0.19321 0.11249 0.599437
0.215722 0.136649 0.308923
-0.145555 -0.0478774 0.380198
-0.0266595 0.0294362 0.380198
-0.00224175 -0.170255 0.344858
-0.0438037 0.194851 0.664942
-0.152705 0.0521996 0.344675
-0.241861 0.00183503 0.532761
0.014009 0.0513682 0.369336
-0.0109995 -0.154278 0.337234
0.175198 -0.126948 0.345076
0.0833372 -0.172214 0.333697
-0.211668 -0.154215 0.374262
-0.145832 0.0152474 0.380198
0.196426 0.138523 0.477418
-0.216047 -0.137321 0.524563
0.192719 0.138151 0.663373
-0.0423894 -0.140713 0.345076
-0.14951 -0.214893 0.373713
0.0257733 0.228741 0.734403
0.232052 0.1066 0.514109
-0.211821 0.0537799 0.375944
-0.0270857 0.0476788 0.345076
0.104416 -0.155524 0.322977
-0.232412 -0.155412 0.425271
0.0592782 -0.14593 0.380198
-0.197482 0.194355 0.762878
-0.0141152 -0.114995 0.380198
-0.245276 -0.0520764 0.546943
0.204928 0.124102 0.455105
0.143225 0.0513702 0.362826
-0.117872 0.130922 0.537276
-0.15184 0.15463 0.402549
0.242639 0.107288 0.537912
-0.112985 0.178189 0.415634
-0.0920233 -0.225367 0.334928
0.139072 0.0838213 0.35028
0.13058 -0.110107 0.380198
0.0299711 0.00985667 0.345076
-0.23256 0.135154 0.33601
0.0115 0.142271 0.534547
0.040987 0.0555281 0.380374
-0.217085 -0.193278 0.0928325
0.231558 0.154127 0.289851
0.195582 0.139229 0.388315
0.154581 0.00789297 0.380198
0.0881504 -0.095253 0.345076
0.171515 0.129652 0.568488
-0.190883 0.135621 0.655752
-0.0777374 0.0285388 0.345076
0.187301 -0.235652 0.349698
0.229045 0.117765 0.355336
-0.163895 -0.0129491 0.345076
0.232219 0.195972 0.0473956
-0.216973 0.0445065 0.54357
0.22201 0.0876306 0.494728
0.0826205 0.204139 0.708413
0.0423586 -0.00986353 0.380198
-0.0718768 0.198394 0.73646
-0.0227283 -0.0596653 0.380198
-0.232093 -0.194613 0.00576711
0.0860961 0.136654 0.535783
-0.0355996 0.168072 0.654155
-0.0798135 0.200713 0.698933
0.232666 0.139252 0.320864
-0.223637 0.151409 0.16179
0.0579354 0.164291 0.435698
0.0456495 0.231938 0.747606
0.0912569 -0.207777 0.376793
-0.21167 -0.00153755 0.346143
-0.0992142 -0.179311 0.380198
0.050207 -0.0551692 0.380198
0.027697 -0.155245 0.326181
0.0441929 -0.0771765 0.345076
-0.230142 -0.151614 0.30563
-0.00706032 -0.174026 0.380198
0.154791 0.165911 0.699145
0.0314521 0.167587 0.652907
0.14084 -0.0681677 0.380198
-0.189006 -0.0429295 0.380198
-0.154532 0.133003 0.562601
-0.11359 0.191147 0.734589
-0.127096 0.039346 0.380198
0.06096 0.155429 0.470733
-0.168562 0.137297 0.375416
0.122168 0.0924783 0.352924
-0.0941668 -0.183896 0.345076
-0.0812493 0.132776 0.40182
-0.130637 -0.172545 0.329949
-0.205014 -0.139695 0.345076
0.171515 0.150861 0.628951
-0.047279 -0.0103098 0.380198
-0.236089 -0.154487 0.550519
-0.184919 -0.154541 0.33426
0.201986 0.182317 0.71349
0.232175 0.181628 0.123012
0.117066 0.197863 0.684281
0.211668 0.0455459 0.376787
0.0164791 -0.0751358 0.380198
-0.204467 0.137507 0.378815
0.0215929 -0.0186801 0.380198
0.174046 -0.187555 0.380198
-0.175823 0.156872 0.695046
0.140878 0.18184 0.671358
-0.0999478 0.210509 0.758461
-0.0711527 -0.227809 0.362589
0.0204387 -0.21745 0.336269
0.223085 -0.167172 0.472654
0.202656 -0.176454 0.345076
0.221135 -0.176657 0.35165
0.119531 0.0227851 0.380198
-0.12054 -0.150887 0.380198
0.138269 0.185276 0.736313
-0.18109 0.042205 0.380198
0.0145597 0.154278 0.37488
-0.11565 0.150692 0.410948
0.164026 0.135378 0.467352
-0.132015 0.207229 0.765705
-0.191662 -0.0498158 0.345076
0.232578 -0.188327 0.0343739
0.232106 -0.152094 0.490929
0.182547 0.187983 0.712124
0.0106248 0.120733 0.395112
0.0405359 0.0513686 0.359048
-0.0914727 -0.0941246 0.345076
0.223312 -0.130166 0.481626
-0.183962 -0.112897 0.345076
-0.108902 0.188611 0.667432
0.0398168 -0.23445 0.352143
0.210277 0.117754 0.543538
-0.223532 -0.139989 0.367983
0.245135 0.065424 0.54284
0.0922185 -0.236488 0.347054
-0.204079 -0.123245 0.380198
-0.103334 0.0513664 0.377131
0.21167 -0.0600225 0.362674
-0.128779 -0.235477 0.342464
0.0234864 0.137552 0.554675
0.240834 -0.144272 0.537864
0.23189 -0.176288 0.233888
-0.217673 -0.16565 0.422771
0.0654204 -0.174708 0.345076
0.110461 0.150961 0.633555
-0.215657 -0.1501 0.509694
0.230886 -0.152356 0.314919
0.0384596 -0.166872 0.345076
0.0968903 0.192548 0.668222
-0.215435 0.114225 0.461652
-0.211669 -0.058706 0.366094
0.0860509 -0.154716 0.345076
-0.11614 0.151551 0.452772
-0.111919 0.221649 0.739545
-0.228292 -0.165771 0.315404
-0.228292 -0.16491 0.338786
-0.0671619 0.164682 0.651875
0.0292067 0.141902 0.589121
0.0351546 0.164561 0.439112
0.0650421 0.0284182 0.380198
0.127662 0.122813 0.561106
0.0272078 0.204618 0.697905
0.0678414 0.0763772 0.344675
0.215203 -0.180645 0.119357
0.145698 -0.218247 0.371324
-0.0484652 -0.115237 0.345076
0.00722983 -0.155132 0.327476
-0.0592255 0.0678292 0.380374
-0.232002 -0.142176 0.490889
0.0270784 -0.0545777 0.345076
0.0999893 0.06075 0.380374
-0.0194022 0.15597 0.576222
0.0159308 0.176149 0.672608
0.0969217 0.154222 0.456585
-0.216153 -0.166065 0.186307
-0.155427 -0.15548 0.323518
-0.171831 -0.173285 0.32149
0.0940896 0.142724 0.607065
-0.23227 -0.173689 0.154854
-0.215918 0.153347 0.280162
0.215199 0.182596 0.10046
0.124794 -0.0339545 0.380198
0.0123457 0.0913978 0.383238
-0.189417 0.0846595 0.3561
-0.113332 -0.0109054 0.345076
-0.0285103 -0.17982 0.380198
-0.167712 0.147499 0.41234
-0.0886995 0.142223 0.603959
0.0239006 -0.188651 0.380198
-0.220184 0.185179 0.169556
0.0661468 0.166651 0.491516
0.21073 0.177419 0.766724
-0.227706 -0.139283 0.537689
-0.166368 -0.120344 0.380198
-0.100481 0.184923 0.712864
0.0411749 -0.139614 0.345076
-0.161688 -0.10415 0.345076
-0.173879 -0.168286 0.380198
0.000701785 0.152674 0.492929
0.231506 0.162219 0.250377
0.180867 -0.113616 0.380198
0.112863 0.147636 0.543919
0.120723 -0.173779 0.315801
-0.128005 -0.126048 0.380198
-0.156871 0.0593665 0.380374
-0.215241 0.139371 0.314819
0.0138299 -0.18058 0.345076
0.192888 0.0854894 0.392348
-0.0910244 0.173306 0.681111
-0.120482 0.142508 0.567989
0.123449 0.145948 0.469133
-0.0877531 -0.116503 0.345076
-0.0543781 -0.225021 0.334911
-0.105949 0.15399 0.638727
0.0262619 0.165634 0.505918
0.142088 0.167514 0.430102
0.230686 0.105964 0.434101
0.019622 0.0684205 0.344675
-0.152787 0.0926693 0.355334
-0.24551 -0.0199573 0.545822
-0.0341805 -0.198888 0.379214
0.0173852 -0.139464 0.345076
-0.221105 0.0064806 0.532599
0.169671 0.0266147 0.380198
-0.219031 0.0858831 0.516377
-0.0761224 -0.171281 0.30969
0.117645 0.0513698 0.358593
0.200199 0.169439 0.70253
0.225875 -0.206578 0.0148391
0.198938 -0.138404 0.345076
0.0438098 0.144899 0.519348
-0.211666 -0.218183 0.351464
0.0791529 0.00569846 0.345076
0.00145905 0.108602 0.355159
-0.0673849 0.184081 0.65384
0.0710931 0.178067 0.441567
-0.201398 0.172664 0.688682
0.0465918 0.0783764 0.380374
-0.0227329 0.168482 0.494603
0.0615086 -0.12202 0.345076
-0.11813 0.0920219 0.352461
0.232249 -0.17751 0.108807
-0.205126 -0.0722815 0.380198
-0.129001 0.0123376 0.345076
-0.232655 -0.178784 0.136178
-0.217368 0.104773 0.539383
-0.0449188 0.22569 0.751186
0.228919 -0.170534 0.0597131
-0.22616 -0.205432 0.0261348
-0.0522422 0.16099 0.377778
-0.0210831 -0.2286 0.33588
-0.11996 0.159024 0.61398
0.0237062 -0.113847 0.345076
-0.0931326 -0.221427 0.369064
0.169885 0.17586 0.690099
-0.165401 0.134463 0.469045
-0.17075 0.108955 0.39915
0.0872547 0.0381218 0.345076
-0.21167 0.0173972 0.347414
-0.0445378 0.167188 0.49704
-0.212604 -0.188894 0.35983
0.0770039 0.143624 0.511261
0.0088892 0.190804 0.662102
0.0450458 0.173775 0.399644
-0.163226 0.137148 0.530462
-0.151361 -0.180779 0.380198
-0.0978019 0.171811 0.633962
-0.158356 0.1167 0.573599
-0.102103 0.162933 0.48856
-0.0731694 -0.00116869 0.345076
0.123573 0.210877 0.765082
-0.136297 0.166314 0.642394
0.196006 0.166158 0.73721
0.21517 -0.148402 0.484903
0.235399 -0.0718082 0.535332
0.100774 0.209271 0.705815
0.217606 0.171422 0.217444
-0.0575636 0.157561 0.463866
-0.212606 -0.0362232 0.351093
0.0297049 0.180642 0.68494
0.0962207 0.159291 0.435706
-0.148208 0.15459 0.667052
0.153463 0.196428 0.728068
-0.182051 0.130638 0.46077
-0.181905 0.115517 0.596664
-0.231324 -0.0834125 0.548038
-0.142007 0.124326 0.587356
0.190429 0.121887 0.484864
-0.075775 -0.142451 0.380198
0.10122 -0.128451 0.345076
-0.101982 0.0291563 0.345076
-0.0278601 0.140999 0.53762
-0.21994 0.176066 0.0458496
0.222626 0.132934 0.445584
-0.083935 -0.172595 0.329368
-0.0719566 0.15224 0.47856
-0.139928 -0.158542 0.308575
-0.0767332 0.162893 0.380086
-0.0872663 0.0348698 0.380198
0.214632 0.136092 0.386131
-0.23162 0.175567 0.0894772
0.107054 0.118635 0.363122
0.215595 -0.14886 0.433495
-0.203558 -0.218923 0.335674
-0.17016 0.108503 0.363759
0.224956 0.13697 0.425479
0.0943275 0.147314 0.56767
-0.0477201 0.215215 0.725529
0.0702671 0.184598 0.414981
-0.0524837 0.150089 0.611489
0.0857168 -0.0753188 0.380198
-0.0597575 -0.0792954 0.380198
-0.227901 -0.161505 0.516987
-0.216017 -0.192743 0.0547892
-0.21775 0.206058 0.0407165
-0.0906126 -0.0485542 0.345076
-0.142624 0.16743 0.695766
0.215655 0.139436 0.341189
-0.176842 0.194927 0.724704
0.153593 0.134081 0.565756
-0.215173 0.160025 0.215243
-0.0209182 -0.0298233 0.345076
-0.018992 0.083836 0.344675
0.175177 0.166256 0.670909
0.0493794 -0.202619 0.37875
-0.160572 0.132078 0.618445
0.0399263 0.128344 0.363682
0.0129298 0.174021 0.472983
0.180342 0.130969 0.531193
0.182466 0.138825 0.608885
0.175614 0.13031 0.407829
-0.095688 0.169146 0.466061
0.175146 0.177478 0.745884
0.203992 0.119366 0.62671
-0.113335 0.172936 0.437254
0.220351 0.113032 0.36894
-0.232367 0.10981 0.484788
-0.172626 0.186092 0.699169
0.133667 0.16643 0.639922
-0.098322 -0.0760462 0.380198
0.0154444 0.153245 0.567574
0.0342391 -0.0960823 0.345076
0.211819 0.0819917 0.380885
0.135517 0.153232 0.496004
-0.18243 0.134629 0.513167
0.162088 0.141411 0.596572
0.0630807 0.17807 0.683548
0.174827 0.205579 0.765011
0.081441 0.133191 0.576374
0.204023 -0.161314 0.380198
0.210731 0.145677 0.406111
0.215125 -0.0887796 0.540165
0.182092 -0.156205 0.315179
-0.184497 -0.123437 0.380198
-0.0629377 0.131938 0.400412
0.0589729 0.165057 0.604229
-0.217569 -0.158669 0.227255
-0.0719205 -0.230126 0.336682
0.123686 0.174628 0.653981
-0.102135 0.163294 0.416073
-0.194018 0.124769 0.583121
-0.199921 -0.171931 0.309747
-0.0158957 0.165406 0.645758
0.137548 -0.117484 0.345076
0.0017663 0.193974 0.391885
-0.188114 0.0295095 0.380198
0.224219 -0.146753 0.290224
-0.0867648 0.186514 0.3982
0.154353 0.156986 0.629833
-0.0350505 0.0572208 0.380374
0.0890825 0.161037 0.503019
-0.0509295 -0.0939892 0.345076
-0.21579 -0.167352 0.324537
0.225007 -0.129105 0.514479
0.232176 0.131186 0.340894
-0.215173 0.188906 0.0666204
0.183145 0.0815022 0.354107
0.13784 0.129981 0.598691
-0.0229899 0.180834 0.443435
-0.231802 0.152898 0.213591
0.235885 0.0370296 0.543832
-0.173796 0.151373 0.457012
0.150535 0.146385 0.507595
0.0404641 0.187901 0.411848
0.181596 0.0273799 0.345076
-0.222342 0.111539 0.370724
0.0661555 0.225817 0.737806
0.0473509 0.11315 0.392042
-0.0708773 0.229556 0.750577
0.106639 -0.216427 0.372619
-0.0621559 0.000347987 0.380198
-0.215123 -0.0760764 0.542686
-0.21627 -0.182914 0.189873
0.13135 0.141326 0.572864
-0.232038 -0.189891 0.0646917
-0.109597 0.0851131 0.384432
-0.20402 0.05464 0.345389
0.0379011 -0.174055 0.312653
-0.00643497 0.142867 0.532759
-0.0274308 -0.152116 0.345076
0.204648 -0.00170551 0.380198
0.129616 -0.0256958 0.345076
-0.0892927 0.133987 0.583512
-0.121041 0.148589 0.530655
0.0813485 0.153305 0.468451
-0.123459 0.126591 0.367489
-0.211671 0.0301854 0.363815
-0.1886 0.000641983 0.345076
-0.205235 -0.0506351 0.380198
0.0929335 0.215564 0.739908
-0.190261 0.138798 0.61623
0.00674188 -0.169231 0.309511
-0.189326 0.0932445 0.3951
-0.0295216 0.155628 0.547994
-0.0286012 0.154211 0.482829
0.215254 -0.181263 0.0938352
0.0678269 0.113427 0.358463
0.228578 -0.0337756 0.546305
-0.0981339 -0.155399 0.345076
-0.0182944 0.112813 0.356977
0.230395 -0.194149 0.0907111
-0.236406 0.0157508 0.532275
-0.125414 0.21081 0.745116
-0.0797288 0.169396 0.621888
0.225432 0.099045 0.529366
-0.198541 0.117312 0.491684
0.225542 -0.186445 0.247108
0.0603371 0.152719 0.620185
0.0707022 0.156662 0.587547
0.131961 0.140072 0.484511
0.0765576 -0.0418549 0.380198
0.122903 -0.236078 0.345201
0.202358 -0.0826552 0.380198
-0.232535 0.166082 0.188452
0.232224 -0.157718 0.416114
-0.00616785 0.180591 0.636464
-0.0275046 0.142547 0.369815
0.153943 0.196563 0.768296
0.211668 0.0384875 0.34598
0.0664764 0.19519 0.726844
-0.12886 0.144924 0.466305
0.0956047 0.168999 0.466292
-0.215677 0.101125 0.493657
0.157759 -0.147846 0.380198
-0.0674521 0.1655 0.425955
0.153453 0.182091 0.692131
0.108394 -0.0312059 0.345076
-0.101031 -0.236181 0.345651
-0.139398 0.147582 0.444208
0.161022 -0.154944 0.329587
0.147716 0.123739 0.534146
0.215135 0.172628 0.147901
-0.0773768 0.174621 0.453213
-0.0536419 0.126916 0.363324
0.0834253 0.128294 0.400126
-0.0656208 0.198036 0.687618
0.22839 0.186533 0.159569
0.235644 -0.0529266 0.534673
-0.210736 0.130445 0.466491
0.113903 0.165348 0.397883
-0.142209 0.15237 0.491115
-0.218235 -0.173676 0.0396705
0.0563252 -0.218333 0.371264
-0.0375897 0.170661 0.614842
0.230498 -0.0993046 0.536292
-0.0632465 -0.174888 0.345076
-0.00327748 0.16003 0.532193
0.154598 0.149146 0.610353
-0.142972 0.158339 0.626553
-0.161866 -0.0712624 0.345076
-0.143939 0.157989 0.466201
-0.0996135 0.226677 0.751943
0.169918 -0.171344 0.343643
-0.0651308 0.134262 0.558494
0.0791433 -0.15627 0.380198
-0.195151 0.143368 0.632307
0.121814 0.183752 0.675256
-0.017256 -0.207061 0.341228
0.211671 -0.0943327 0.346418
0.102267 0.156901 0.513554
0.21514 0.167332 0.176537
-0.158117 0.190986 0.764307
-0.131034 -0.0817153 0.345076
-0.0286395 0.174407 0.669087
-0.0191471 0.15109 0.497017
0.0866103 0.176047 0.686501
-0.154894 0.140629 0.456744
-0.0467717 -0.204843 0.342313
0.0973228 0.160598 0.398844
-0.203808 0.101388 0.551098
0.125781 -0.218162 0.33598
-0.222621 -0.143703 0.550143
-0.0937402 0.148445 0.55379
-0.0999727 0.132036 0.402605
0.0469874 0.105 0.353603
0.110344 0.133748 0.534047
0.165254 0.158087 0.687929
-0.0187884 0.209342 0.683778
-0.227815 0.13798 0.411828
-0.198005 0.049603 0.380198
0.220721 -0.191713 0.176877
0.149336 -0.0820207 0.345076
0.0751968 0.16438 0.653962
0.0713614 0.16109 0.412539
-0.19094 0.169639 0.741376
-0.132523 0.147446 0.592763
-0.17071 0.0228037 0.380198
-0.111126 -0.100613 0.345076
-0.169861 0.0546583 0.344675
0.219485 0.138612 0.240098
0.20726 0.156242 0.675951
0.212606 0.00334755 0.350785
0.210731 0.11024 0.523458
-0.0102018 -0.0445431 0.345076
-0.215383 0.148137 0.263905
-0.232845 -0.117354 0.536922
-0.197504 0.113388 0.605777
0.16875 -0.0299945 0.380198
-0.0976621 0.177111 0.431596
-0.041683 0.152576 0.567895
-0.180295 0.148234 0.677636
0.221511 0.119568 0.511059
0.173653 0.141975 0.426643
-0.035478 0.17581 0.462562
0.232202 0.116841 0.415757
0.219212 0.192246 0.127988
-0.0330808 0.167775 0.42608
-0.00516207 0.158273 0.410307
-0.231966 -0.166547 0.209176
0.0602154 0.181208 0.644423
0.218687 0.155766 0.160636
0.218554 0.147343 0.205431
-0.147545 0.196749 0.705716
0.029771 0.191264 0.711103
0.183109 0.114565 0.525158
0.186315 0.050883 0.380374
0.0185768 0.0217609 0.380198
0.107298 0.173622 0.641638
-0.143354 0.139963 0.542074
0.149973 -0.0189569 0.345076
0.232208 0.152944 0.230305
0.192624 0.122305 0.40708
0.0670895 0.213765 0.708086
0.0920647 0.165132 0.615678
-0.127828 0.0786597 0.382921
0.139964 0.154545 0.660461
-0.106964 0.0292114 0.380198
-0.152837 0.089022 0.389267
-0.224069 0.0781547 0.530096
0.205513 0.188156 0.754849
-0.192591 0.181413 0.77037
0.174294 0.122502 0.50544
0.231597 -0.17004 0.331578
0.157114 0.114365 0.399369
-0.206147 -0.168543 0.344707
0.133207 0.05137 0.34924
0.224283 0.122397 0.31141
0.141016 0.218048 0.754346
-0.195669 0.145334 0.684715
-0.103138 0.132313 0.54523
-0.208615 0.120062 0.376531
-0.232089 0.0919373 0.541914
-0.148716 0.13629 0.407109
0.210731 0.104788 0.568493
-0.20546 0.151304 0.708878
-0.100006 0.197098 0.742633
0.211671 -0.1135 0.361576
0.20291 -0.0208584 0.380198
0.215411 -0.184572 0.0418437
0.0681028 -0.154284 0.34346
-0.230506 0.190203 0.117449
0.211671 -0.0938793 0.378056
-0.145755 0.132155 0.609304
-0.109853 0.153454 0.593678
0.192145 0.15597 0.412315
0.215124 -0.0273135 0.534204
-0.0748472 0.157617 0.524891
-0.0832856 0.117346 0.395773
0.196349 0.148198 0.692199
-0.155043 0.158238 0.453763
-0.0761316 0.0816988 0.345455
-0.0172363 0.187544 0.700657
0.176247 -0.0427603 0.345076
-0.0133582 0.225714 0.723435
-0.179018 0.123474 0.61407
-0.114205 0.0513663 0.361045
0.211671 -0.147594 0.359529
-0.159487 0.127907 0.50412
0.0252782 -0.206486 0.377296
-0.179965 0.0513653 0.360362
-0.228029 -0.186695 0.228238
-0.210737 0.147387 0.391117
-0.0162481 -0.0835752 0.345076
0.0262974 -0.0897637 0.380198
-0.197391 0.105597 0.584234
-0.106337 -0.117091 0.380198
0.15088 -0.05411 0.380198
-0.0963426 -0.0926521 0.380198
-0.215689 -0.185131 0.0100241
-0.0750353 0.0787383 0.380374
0.16599 0.174911 0.730771
0.22046 -0.138417 0.40572
0.0599404 -0.156257 0.314601
0.221107 0.10649 0.400363
-0.215123 -0.0239427 0.535695
-0.100655 0.156074 0.447145
-0.165813 0.163746 0.417819
0.0238534 0.157563 0.581161
-0.114886 0.164269 0.669432
0.0694202 0.0833079 0.381353
-0.232335 0.107628 0.468412
-0.232073 0.160659 0.235307
0.111079 0.0942641 0.388153
-0.217846 0.117875 0.495466
-0.215819 -0.176841 0.093187
0.07296 -0.101282 0.380198
0.0553464 0.0644234 0.380374
0.00495064 0.155157 0.555035
-0.0321378 0.144153 0.404592
0.0586257 0.201544 0.739838
-0.0075983 0.163641 0.446607
0.0928404 0.129768 0.562807
-0.161581 0.184033 0.74961
-0.183545 0.120904 0.370626
-0.231563 0.113036 0.408868
0.216278 0.193977 0.0862404
-0.227158 0.143664 0.384522
0.0609944 0.160096 0.451397
-0.04107 0.198644 0.730037
0.0871607 0.207764 0.759706
-0.217105 -0.174374 0.0589021
-0.20904 0.156513 0.67839
0.204934 0.145935 0.647712
-0.232126 -0.187768 0.0810727
0.163211 -0.150122 0.345076
0.215674 -0.180671 0.161429
0.232107 0.153255 0.271778
-0.215838 -0.145448 0.450384
-0.0242512 0.0974972 0.385708
-0.225822 0.191337 0.143211
-0.215787 -0.162531 0.259621
-0.207196 0.09305 0.362211
-0.215975 0.170296 0.125623
-0.106971 0.103161 0.356501
0.0255408 0.161843 0.52171
-0.146024 0.177616 0.72328
-0.196428 -0.00563101 0.380198
-0.114042 -0.209321 0.376193
0.227219 0.0804428 0.542316
-0.232006 -0.179957 0.181127
0.00466031 0.211963 0.714064
0.0254947 -0.232666 0.338571
0.137594 0.17585 0.712225
0.215123 0.0220192 0.534437
0.224214 0.0551553 0.530899
-0.232401 -0.189687 0.0344268
-0.172804 0.00415714 0.345076
-0.226075 -0.189286 0.211231
0.216074 -0.172364 0.292296
-0.0277927 0.167003 0.38873
-0.0715645 0.0626915 0.344675
0.231732 0.132859 0.392161
0.123766 0.150906 0.448023
-0.119565 0.175352 0.654047
0.100179 -0.0505995 0.380198
0.103464 0.183897 0.399816
-0.0570212 0.179356 0.443985
0.215937 0.193018 0.0100456
0.217504 -0.165258 0.153511
0.227428 -0.0606351 0.547243
0.00581596 0.191117 0.708681
0.216538 -0.18219 0.206199
-0.210737 0.170035 0.735024
-0.0386521 -0.166811 0.309299
0.164618 0.127002 0.609437
-0.146294 -0.228272 0.335706
0.206749 0.144602 0.43789
-0.156393 0.177185 0.673153
-0.0740598 0.218089 0.739806
0.222022 -0.119484 0.549298
0.109725 -0.022288 0.380198
0.215708 0.139226 0.357151
0.120133 0.2088 0.736152
-0.20044 0.17383 0.714118
-0.231869 0.166475 0.146469
-0.21539 0.160959 0.197657
-0.0448346 0.0947342 0.349172
-0.0510704 0.202954 0.67659
0.105698 -0.173316 0.321103
-0.0677085 0.171947 0.669946
-0.222877 -0.13011 0.485144
0.116184 0.168712 0.45234
0.180271 -0.111871 0.345076
0.00381279 0.148918 0.508059
-0.020122 0.158948 0.534415
-0.0669607 0.16498 0.410082
0.232266 0.192545 0.0289762
-0.06832 0.0470175 0.380198
0.169752 0.14451 0.658051
0.228811 -0.158242 0.539276
0.190213 -0.171921 0.337031
0.0563111 0.219706 0.720009
-0.212606 -0.0397745 0.366536
-0.00643291 0.0513679 0.362611
0.164974 0.155852 0.451435
0.152822 0.0966624 0.392138
0.158688 -0.0728229 0.380198
-0.228784 0.207177 0.00504467
0.21261 -0.222278 0.336306
0.216559 0.207967 0.0179138
-0.100782 -0.172805 0.326971
0.100813 -0.0967464 0.380198
0.040128 0.0440062 0.345076
0.227311 0.17663 0.0413379
0.191839 0.155326 0.705891
-0.231679 -0.16593 0.190456
0.211669 -0.0320585 0.346385
-0.164195 -0.140334 0.380198
0.108085 0.216176 0.762913
0.0101962 -0.105778 0.345076
0.231907 0.137767 0.29601
-0.0924925 -0.167314 0.309343
0.178129 0.148408 0.393936
-0.133056 -0.197026 0.34396
-0.228748 0.12029 0.537872
0.0175001 -0.0338449 0.380198
0.205209 0.117368 0.482132
-0.192384 -0.0341397 0.345076
0.23828 -0.0351438 0.534052
0.0815352 0.162877 0.399869
0.210451 0.167565 0.754545
0.0471922 0.15531 0.576794
0.175955 -0.216421 0.336685
-0.0641143 0.152755 0.573791
0.211671 -0.147485 0.3457
0.114894 -0.15629 0.380198
0.232223 -0.167134 0.308565
-0.185942 0.14506 0.4654
0.0227754 0.167177 0.42994
0.0134211 0.177968 0.630771
0.231873 -0.178524 0.209893
-0.0704034 -0.156783 0.308609
-0.00565147 0.214212 0.692408
0.0576387 0.212024 0.76051
-0.0343954 -0.137738 0.380198
-0.210736 0.119548 0.589917
-0.178091 0.164559 0.397059
-0.0207448 0.203441 0.669482
-0.141184 -0.143325 0.345076
-0.142186 0.161761 0.681286
0.179194 0.152486 0.445002
-0.191529 0.134723 0.499699
0.0334739 0.180056 0.445255
-0.116442 -0.234588 0.351869
-0.0822758 0.143956 0.507592
0.20373 0.0528501 0.344675
-0.10583 0.13269 0.369
-0.231572 0.137999 0.280825
0.11083 0.131363 0.585551
-0.0591493 0.183616 0.425266
0.21073 0.169722 0.715738
0.105274 0.150761 0.584786
0.121888 -0.172394 0.331634
-0.136483 0.175658 0.401513
0.22487 0.105479 0.541443
0.186352 -0.14773 0.380198
-0.231847 0.120492 0.382188
0.0491892 -0.000654932 0.345076
0.18797 0.200002 0.770962
-0.215124 -0.00720766 0.539706
-0.0867851 -0.0491683 0.380198
0.222636 -0.168697 0.452326
-0.00568214 0.186899 0.652036
0.0608763 0.161875 0.514158
0.215954 0.169261 0.131578
0.10989 0.197525 0.701829
0.215947 0.106251 0.456092
0.191112 -0.0815817 0.345076
0.0545295 0.189973 0.401304
0.171254 -0.140471 0.380198
-0.232676 -0.0284241 0.546117
-0.166681 0.210058 0.754485
0.186003 -0.0120465 0.345076
0.187785 0.138346 0.490497
0.157052 0.169674 0.405085
-0.157206 0.138337 0.585262
-0.169147 0.116881 0.588261
-0.229742 0.0713853 0.542632
0.195219 0.181085 0.727177
0.0456397 0.200541 0.689332
0.124696 0.137149 0.504438
-0.116929 -0.0118795 0.380198
0.0568463 -0.0857729 0.345076
-0.181859 -0.230586 0.359328
-0.0776769 0.14919 0.567625
-0.178119 -0.0427108 0.345076
-0.144609 -0.173241 0.321997
-0.0944945 0.161003 0.395115
