0.0145951 0.118103 0.506198
-0.0271505 0.0778571 0.369561
-0.190894 0.134057 0.738366
-0.11096 -0.183189 0.39129
-0.205331 -0.173254 0.359505
0.0913937 0.121919 0.598085
-0.0318675 -0.0324197 0.3198
-0.181598 0.0529369 0.0225437
0.077153 -0.119393 0.0173141
0.0207559 -0.0294332 0.0435743
-0.0946413 0.136396 0.409836
-0.065794 0.118664 0.489187
-0.164925 0.100589 0.38148
0.0908111 0.117025 0.391928
0.00473281 0.12748 0.534917
-0.119114 -0.19739 0.335765
-0.0770544 0.00215767 0.013741
0.0766985 0.13979 0.38946
-0.0570194 -0.00468909 0.0142952
-0.0345181 -0.153889 0.39129
0.066253 0.160893 0.399173
0.00690512 -0.205223 0.357118
0.139573 0.137489 0.665181
0.0654373 0.0416733 0.356734
0.0074303 0.133635 0.382523
-0.185993 0.103239 0.441326
-0.139999 -0.233923 0
-0.144855 -0.0452771 0.39129
0.0146477 -0.161695 0.39129
-0.027686 -0.159298 0.357118
-0.182782 0.10126 0.453899
0.186926 -0.00454772 0.39129
-0.0866957 0.0484084 0.394109
0.159161 0.0304369 0.360375
0.000204545 -0.0483269 0.176402
0.0131956 0.261609 0.0182179
0.0435019 -0.083209 0.290502
0.0122035 -0.0446687 0.177715
0.0568935 0.174006 0.770311
-0.0491041 0.170397 0.766909
0.083214 0.135128 0.423066
0.206369 -0.0962686 0.385749
0.205225 -0.0124724 0.332992
-0.00750813 0.0686019 0.0492452
0.20401 0.0989817 0.457769
-0.032418 -0.139322 0.39129
-0.0670643 -0.0147075 0.357118
0.130336 0.130202 0.677794
-0.105209 -0.259755 0.369026
0.204794 0.143691 0.758688
-0.0592974 -0.20997 0.357118
0.0400555 -0.112762 0.03898
-0.0213308 -0.0266831 0.264157
0.17079 0.105589 0.501876
-0.0313571 -0.0300245 0.280239
-0.17475 0.0769179 0.370706
-0.160689 0.0157173 0.366788
-0.0222056 0.119443 0.562715
0.194811 0.0908692 0.593917
-0.039682 -0.0191014 0.357118
-0.169926 0.151324 0.762469
0.0437476 -0.00422761 0.0180463
-0.150634 0.0840247 0.385181
0.160508 -0.231961 0
-0.0381038 -0.071381 0.0143332
0.102029 0.159484 0.694119
0.179588 0.0162167 0.356734
-0.0121466 0.104651 0.381109
0.1558 0.0158128 0.39129
0.0440149 0.147826 0.402113
0.130156 0.100935 0.517543
0.148721 -0.26229 0.00639095
-0.0953537 -0.0532756 0.39129
-0.0398759 -0.0334928 0.0475528
-0.176157 0.135958 0.727826
0.206548 -0.1585 0.39013
-0.0680203 0.113685 0.38616
0.0299595 0.192315 0.767071
0.14144 0.150359 0.697868
0.0218282 0.143061 0.463294
-0.0114605 -0.0642753 0.2888
0.0681908 -0.0867799 0.0387259
-0.096852 0.11391 0.388065
0.00023498 0.170157 0.700984
-0.201632 0.0904092 0.421472
0.144441 0.0718508 0.406576
-0.0853903 -0.207892 0.357118
-0.101726 0.0820393 0.37479
-0.00206885 0.172828 0.769689
0.248072 0.0556475 0.0205867
-0.0835957 -0.0188268 0.0474247
-0.0761033 -0.226949 0.35584
-0.0345347 0.139962 0.630797
0.193758 0.0764191 0.381281
-0.000706074 -0.0446712 0.0592575
0.117771 0.132181 0.410196
0.0705976 0.159433 0.720778
-0.0906186 0.170011 0.755672
-0.205154 -0.237257 0.357044
-0.203646 -0.051782 0.305225
-0.206022 0.022071 0.381334
-0.19588 -0.257976 0.371862
0.0743614 0.135401 0.480873
-0.143451 -0.0516446 0.299571
0.130304 -0.178249 0.328922
-0.0211245 -0.142098 0.357118
0.0623 0.0365025 0.356734
-0.0579881 0.152184 0.410869
-0.0503606 0.144202 0.643957
-0.191168 0.151504 0.743775
-0.0107288 -0.0454212 0.164508
0.0315024 0.133187 0.501544
0.0478308 -0.104063 0.0350091
0.0865405 0.00718914 0.357118
0.0284735 0.146134 0.425473
0.0846302 -0.00387128 0.035697
-0.00549847 -0.1069 0.357118
0.156577 0.111235 0.614327
-0.0594906 0.145339 0.447254
0.0808175 -0.168323 0.321848
0.0520113 -0.122081 0.325164
-0.0242081 -0.0563897 0.043271
-0.0223079 -0.143738 0.284801
0.173725 0.125437 0.675339
0.0226461 -0.0569304 0.0318519
-0.0250857 0.154351 0.408686
0.110083 0.129511 0.623826
0.119817 0.000157923 0.39129
-0.05854 0.127259 0.458122
0.12957 -0.20335 0.010137
0.073299 0.0748295 0.369791
0.0812659 -0.107537 0.357118
0.0675188 0.0170285 0.356734
-0.149116 0.17448 0.764477
0.00366561 -0.182333 0.357118
0.0396444 -0.111693 0.279181
0.0127564 -0.115854 0.39129
-0.00812934 0.116651 0.606812
0.206685 -0.211205 0.370697
-0.100905 -0.154091 0.357118
0.166188 -0.110214 0.357118
-0.0341129 -0.169557 0.357118
0.0771797 0.16027 0.72532
0.116427 -0.116721 0.39129
-0.0596852 -0.162955 0.344298
-0.205207 -0.217535 0.38915
-0.199504 0.159827 0.772686
-0.0443435 0.158036 0.711987
0.204026 0.0927987 0.500762
0.0393849 -0.0644016 0.324573
-0.189842 -0.0442849 0.326758
-0.055298 -0.157882 0.357118
-0.00855596 -0.142182 0.39129
-0.0827478 0.123515 0.462621
-0.184302 0.0340758 0.0108122
-0.0279361 0.124999 0.390881
0.095266 0.117267 0.483179
0.207249 -0.0850722 0.37733
0.0954327 0.0264341 0.0391349
-0.170631 0.108188 0.422364
0.146688 0.126137 0.64301
-0.125526 0.120585 0.386316
0.110474 -0.142929 0.0306915
-0.0196137 -0.0118895 0.0148616
-0.0481365 0.119823 0.55118
-0.0485491 0.037427 0.391466
-0.0203936 -0.0132226 0.0435743
0.052437 -0.114259 0.357118
-0.00350982 -0.0979782 0.357118
-0.122772 0.170784 0.736982
0.0165567 -0.0394191 0.0435743
0.206108 0.05246 0.404621
0.0831394 0.0452661 0.392451
-0.173776 0.0974473 0.596043
0.0503955 0.0100383 0.39129
-0.0426832 -0.0686397 0.357118
-0.00100896 0.220054 0.0105591
-0.0804946 -0.133906 0.39129
0.00636071 -0.0466999 0.156422
0.0628629 -0.171653 0.293078
-0.195186 0.113717 0.431507
-0.183976 -0.0723639 0.29148
0.108923 0.0174666 0.356734
-0.0449064 0.123808 0.476314
0.206095 0.00311045 0.357705
0.205303 -0.0416517 0.318097
0.025161 -0.0560124 0.0432706
0.0198831 0.174894 0.765798
0.0143126 -0.0630248 0.0555906
-0.195776 -0.0226789 0.336611
0.0862352 -0.16834 0.0238259
-0.0055982 -0.0862598 0.39129
0.0537048 -0.125568 0.0326713
0.127815 -0.211872 0.0284553
0.00820279 0.0692421 0.365798
0.200416 0.106173 0.671999
-0.0038888 0.0237872 0.0416373
-0.0637545 0.122417 0.535314
-0.165785 0.107499 0.651569
-0.13572 -0.00816976 0.39129
-0.205598 -0.0761564 0.378516
-0.154328 0.104014 0.53154
0.105254 0.0981894 0.381683
-0.115996 -0.176323 0.0193638
0.206095 0.0033995 0.3597
-0.105338 0.0154548 0.0298823
0.0626718 -0.242405 0.385221
-0.120693 -0.151233 0.39129
0.181311 0.110944 0.667195
-0.0635925 0.114845 0.566845
-0.164427 0.0830534 0.590269
-0.0913593 0.0109566 0.0282537
-0.0892607 0.122598 0.462287
-0.149812 -0.227285 0.0096869
0.206645 -0.196801 0.371672
0.206763 -0.239395 0.358373
-0.191197 -0.104329 0.39129
-0.0984055 0.0163392 0.0325698
-0.124925 0.0073994 0.0148397
-0.157405 0.0878008 0.381154
-0.20667 -0.0176208 0.370978
0.0994889 0.129143 0.495515
0.153681 0.0353054 0.0233734
0.206069 0.0660909 0.389395
-0.111657 0.139544 0.651224
0.170387 0.152639 0.772337
0.0647606 0.136671 0.477277
0.200544 0.0868427 0.595849
-0.0158427 0.0978766 0.411585
0.203579 -0.133775 0.39129
0.015821 -0.144448 0.284946
0.0331679 -0.220236 0.391204
-0.0334183 -0.0739367 0.272485
0.0749108 0.121197 0.536974
-0.115771 0.127795 0.624777
-0.0148446 -0.146179 0.39129
-0.0461991 0.126215 0.600515
0.00198422 -0.192048 0.39129
-0.0187214 0.162536 0.721106
0.0419735 -0.0213694 0.0429793
0.202879 0.0599124 0.0175036
0.0739744 0.170148 0.748837
0.0823008 -0.105237 0.0362211
-0.0233978 -0.0560706 0.0232599
-0.0782019 0.188165 0.75782
-0.0251873 -0.0270489 0.0435743
-0.117663 -0.159646 0.0228181
-0.0270426 0.176621 0.7183
0.00948859 0.143169 0.672396
-0.0526492 0.099414 0.379115
-0.205144 0.0893459 0.620563
-0.150012 -0.0750299 0.304982
0.0308484 0.124301 0.390671
-0.0649641 0.11894 0.488394
-0.178689 0.126221 0.707612
0.0650089 -0.0505489 0.303378
-0.150418 -0.222558 0.00964652
-0.138931 -0.027226 0.357118
0.00639596 0.0384141 0.391466
0.108993 -0.162828 0.0364856
0.00128644 0.135375 0.438037
0.0874785 -0.140217 0.0266816
0.0983471 -0.171408 0.340927
-0.0194713 -0.238254 0.387121
-0.0372815 -0.200132 0.39129
-0.0307469 -0.0855516 0.274535
-0.0577799 -0.0092769 0.357118
-0.0710273 -0.240057 0.386475
0.112663 0.120132 0.418126
0.0187319 -0.0432946 0.39129
-0.192716 0.0227287 0.3573
-0.0561896 0.125519 0.423094
-0.0683798 -0.107004 0.357118
-0.0773279 0.11207 0.510957
-0.142316 -0.261072 0.366564
0.0635304 -0.249976 0.379838
0.0876091 -0.155725 0.357118
0.000750057 0.0127473 0.0544595
-0.0489621 -0.180479 0.320564
0.00502544 -0.13776 0.343562
0.110193 -0.209611 0.0243488
0.0426596 0.103161 0.578147
-0.243098 0.0742929 0.0116403
-0.0077985 0.138031 0.491051
-0.163081 -0.258517 0
0.154154 0.0914014 0.376891
-0.162532 -0.077261 0.29868
0.206328 -0.0817123 0.3687
0.00737363 -0.10096 0.277271
0.199884 0.00128312 0.357118
-0.156387 0.106065 0.603492
0.191023 0.133637 0.73518
0.16025 -0.139496 0.357118
0.00225119 -0.00362382 0.186292
-0.0613767 0.0415838 0.391466
0.207101 -0.0311415 0.381123
-0.202836 0.0889547 0.520117
0.0389106 -0.0198081 0.0148795
-0.0885205 -0.119446 0.357118
-0.150115 -0.0388315 0.321615
0.144742 -0.206755 0.0128232
-0.00808813 0.137818 0.65913
0.112642 -0.0336027 0.357118
0.125702 0.0997237 0.600232
0.0138815 0.0702205 0.400356
-0.204086 -0.064163 0.315967
-0.144532 -0.0992606 0.39129
0.244024 0.0666086 0.0178793
0.0545629 0.161269 0.397532
-0.204702 -0.0696929 0.30874
-0.113566 0.119429 0.413065
-0.159454 0.122728 0.401585
0.120719 0.026479 0.391466
0.030746 -0.00168995 0.0523769
0.154213 -0.045099 0.325956
0.0391329 -0.165309 0.39129
-0.0743463 0.137513 0.472687
-0.206082 -0.230352 0.384202
0.0998733 -0.0247894 0.39129
0.18579 -0.175138 0.39129
-0.0204154 -0.180398 0.343961
0.101745 0.0440481 0.358408
0.0015429 -0.180336 0.306381
0.042841 0.0597661 0.396091
0.0245776 -0.0423389 0.326749
0.150709 -0.0715055 0.307154
-0.00517337 0.163029 0.403064
0.165727 -0.0358142 0.330172
0.0289666 0.138973 0.397258
0.0335783 0.0099179 0.357118
0.206473 -0.134608 0.359077
0.1785 0.104601 0.449581
0.0412029 0.124023 0.536794
0.130399 -0.144314 0.357118
0.22358 0.0521426 0.0120243
-0.0721425 -0.055027 0.3118
-0.131316 -0.00548173 0.357118
-0.0435602 -0.119911 0.340391
0.173473 0.10322 0.612226
-0.0303105 0.121312 0.62222
0.024029 -0.00172258 0.0530837
-0.00892072 -0.0459017 0.092877
0.14981 -0.0527419 0.307467
0.0304224 -0.0387472 0.0516856
0.0357079 0.170986 0.704218
-0.0215173 0.187454 0.744989
0.190126 0.127076 0.717919
0.173969 -0.059465 0.289753
-0.0713576 -0.121667 0.0305199
-0.045937 -0.0827078 0.39129
-0.14099 -0.22707 0.010532
0.204868 0.116893 0.674349
-0.108051 -0.193086 0.357118
-0.183208 0.148927 0.77028
0.123762 0.166157 0.724815
0.141793 0.138666 0.707063
0.106944 0.0299281 0.0362216
-0.205763 -0.0156569 0.387122
0.0107539 -0.224169 0.356248
0.0208861 0.123805 0.389338
-0.180142 0.0148889 0.353712
0.0401982 -0.128964 0.342029
-0.127549 -0.20159 0.39129
0.0467227 0.0665016 0.398852
0.0774032 0.136179 0.414983
-0.205121 0.0805937 0.582945
-0.276193 0.0647563 0
0.200137 0.0901218 0.523516
-0.0961402 0.146081 0.394612
-0.0356772 0.00176959 0.39129
0.0802686 -0.105488 0.0339042
0.108039 0.0870085 0.377093
-0.0826801 -0.171163 0.322648
-0.132101 0.0160649 0.356734
0.00412684 0.148787 0.445321
-0.0420923 0.0154096 0.39129
-0.038944 -0.229387 0.390095
0.0945038 0.1711 0.720379
-0.0432244 -0.0857124 0.279667
0.192507 -0.0247145 0.335195
0.202 0.154364 0.758512
-0.162591 0.118138 0.674898
0.124829 -0.184062 0.328922
-0.0116902 0.21721 0.762662
-0.196703 0.0156175 0.373237
0.151917 -0.184292 0.39129
-0.0541828 -0.119618 0.0470819
0.0212659 -0.0660843 0.0227849
-0.0276233 -0.180419 0.345616
-0.00345523 -0.0461553 0.0435743
-0.0406639 -0.245139 0.383481
-0.205188 0.103662 0.666231
-0.186799 -0.0299836 0.333272
-0.0730003 0.0469383 0.392705
-0.0843382 0.114342 0.499661
-0.0549867 0.025846 0.356734
0.0312909 0.101802 0.569687
-0.0527382 -0.0653253 0.046475
-0.150167 0.0931784 0.52517
-0.0956195 0.137854 0.403277
0.130989 -0.199903 0.334596
-0.175569 0.148065 0.743301
0.0911519 -0.0323545 0.357118
0.0768957 0.0235512 0.391466
-0.101835 0.148566 0.401478
0.108766 0.129951 0.624033
0.170856 0.0970891 0.528381
-0.171003 -0.0300719 0.333212
-0.20526 -0.198623 0.376115
-0.184912 0.0890829 0.583186
-0.170149 0.0993445 0.495035
-0.180069 0.123467 0.701976
-0.163059 -0.0570971 0.309611
0.0738989 -0.107645 0.0321149
-0.104451 0.112521 0.420745
-0.173792 -0.0610612 0.315157
-0.0816939 -0.062251 0.39129
0.175803 0.0789918 0.561302
0.180203 0.0898421 0.617646
-0.0195843 0.131914 0.450284
-0.0523222 -0.174227 0.357118
0.19346 0.0993438 0.451224
0.0325285 0.0092022 0.357118
0.111738 -0.164572 0.338782
-0.156442 0.150162 0.710483
0.170294 -0.22037 0.391141
0.149809 0.0732146 0.407798
-0.0184074 0.153093 0.0331704
-0.122144 -0.0484367 0.357118
-0.0522126 -0.251141 0.347139
-0.105421 -0.188509 0.335765
0.0325462 0.136715 0.658821
-0.197029 0.0845088 0.50173
0.00859871 -0.0638276 0.0576062
0.162727 0.125752 0.691601
-0.0993687 0.0993824 0.581372
-0.0391176 0.156333 0.398489
-0.153745 0.119195 0.4221
-0.188935 0.123418 0.401254
-0.00450274 0.0466885 0.0380105
-0.206571 -0.053339 0.386587
-0.0851189 0.0711335 0.369101
-0.171901 0.0262419 0.357519
-0.0519112 0.134187 0.62053
-0.193561 0.119614 0.409429
-0.0182648 0.133486 0.0268578
0.0254077 0.124259 0.541296
0.109806 0.12037 0.523812
0.111072 -0.0756268 0.29556
0.169003 0.096441 0.625165
-0.205181 -0.228044 0.365297
0.0964997 -0.178024 0.330996
-0.0499561 0.123088 0.53746
0.145211 -0.242323 0.0179392
-0.17192 -0.122701 0.357118
0.0855234 -0.178677 0.39129
0.0162117 0.00406581 0.0495306
-0.205297 -0.185296 0.358246
-0.0700686 -0.200443 0.39129
-0.194358 0.0731379 0.553299
0.012496 -0.0515986 0.30675
-0.0455633 -0.118075 0.340066
-0.0435577 -0.111959 0.0349428
-0.106601 -0.143078 0.0367171
-0.192517 -0.0338499 0.331516
0.00016737 -0.00307513 0.180811
-0.0102425 -0.04509 0.0922673
0.0964902 -0.129025 0.0406597
-0.0948036 0.114488 0.388183
0.163464 -0.223112 0
0.0922995 0.112534 0.612473
-0.155115 0.0522575 0.366315
-0.154459 -0.194533 0.357118
0.131193 -0.240703 0.350555
0.0409152 -0.0119551 0.0426734
0.206267 -0.0593381 0.357821
-0.190513 -0.0207128 0.357118
0.0361373 -0.104169 0.0377813
0.122055 0.100535 0.599431
0.186743 -0.0564845 0.309452
-0.168975 0.00696325 0.39129
-0.123898 0.102819 0.607837
-0.201277 -0.0169736 0.357118
0.0920627 -0.176181 0.32607
-0.00713867 0.160606 0.0149689
0.0309368 0.114059 0.385119
-0.140168 0.0157742 0.385786
0.113287 0.00418871 0.0194643
-0.0653689 0.115309 0.56416
0.0479127 0.131894 0.501285
-0.181302 0.0608763 0.407285
0.00483205 -0.0908982 0.3353
0.0210906 -0.124203 0.39129
0.116711 0.198205 0.76174
-0.112892 0.16187 0.707861
0.203907 0.135901 0.730227
-0.205531 -0.100607 0.369132
-0.0826635 -0.178029 0.330776
0.0636656 0.0591964 0.39689
-0.15111 0.00903205 0.0251121
-0.174814 0.143719 0.747889
0.199288 0.103605 0.664663
0.0480133 -0.0791545 0.39129
0.0693849 0.125379 0.521271
0.0897835 0.0119091 0.0488489
-0.126229 0.116784 0.517501
0.178232 0.105015 0.649312
-0.0520607 -0.0760742 0.309337
-0.0555971 -0.133088 0.357118
0.0941962 0.142174 0.443146
-0.2049 -4.27887e-05 0.339802
-0.161925 0.111294 0.40794
-0.135133 -0.0385703 0.357118
0.0404988 0.127524 0.522281
0.0196507 0.0794144 0.0408794
-0.0905864 0.122811 0.460509
-0.0799917 0.0121495 0.39129
0.00783832 -0.0531709 0.357118
0.0647856 -0.0855155 0.39129
-0.144174 -0.145663 0.39129
0.0707733 0.120054 0.391144
-0.194847 0.118925 0.701647
-0.206131 0.0617467 0.394699
0.0801335 -0.0296173 0.39129
-0.0216784 0.143046 0.63558
0.064951 0.129213 0.448374
-0.0395128 -0.0264292 0.0556157
-0.0164153 -0.065095 0.39129
-0.0540174 -0.136359 0.340146
0.0886114 -0.148648 0.0402035
-0.0269154 0.179264 0.72487
0.182236 -0.119193 0.39129
-0.0172321 -0.0287511 0.0435743
0.189672 -0.247857 0.347344
-0.183972 0.0700177 0.411277
0.156839 0.1123 0.386412
0.00643408 0.174383 0.749932
0.240078 0.0568684 0.00930974
-0.204512 0.0961016 0.40921
-0.0785576 -0.00561573 0.0366267
0.188658 -0.0924381 0.357118
-0.0217417 -0.0282835 0.114665
0.0137144 0.128262 0.528493
0.0754908 0.168652 0.768723
0.00556155 0.0161784 0.372865
0.0398774 -0.180227 0.341199
-0.0896416 0.149614 0.40392
-0.192898 -0.131384 0.357118
0.0376291 0.166736 0.694471
0.0131739 -0.213141 0.357118
0.189005 0.0853635 0.561641
0.00638913 0.146413 0.0222231
-0.0569785 0.123275 0.474223
0.0685526 -0.256018 0.373304
-0.101958 0.0377409 0.391466
-0.00228328 0.00349437 0.39129
0.156839 0.13462 0.671339
-0.13165 0.0609409 0.401777
-0.158637 0.0120434 0.341117
-0.149786 0.131196 0.659338
-0.178826 -0.105571 0.39129
-0.00779135 -0.00521303 0.145806
-0.129079 -0.0940392 0.357118
-0.0467167 -0.1021 0.283394
0.0787664 -0.256805 0.372345
0.184083 -0.0871307 0.357118
0.0242054 -0.0130074 0.315856
-0.00721312 -0.0930795 0.39129
-0.120518 -0.00265457 0.357118
0.00324148 0.128684 0.402118
-0.0165639 -0.0620645 0.330206
0.122678 0.0769244 0.373684
-0.133616 -0.251044 0.379467
-0.0590207 -0.203459 0.357118
0.0964011 0.105583 0.384296
0.0635026 -0.171216 0.322242
0.00918453 -0.176915 0.350467
0.0908786 0.153712 0.406871
0.022902 0.085121 0.406378
0.0405249 0.145792 0.446656
0.0874018 -0.111268 0.39129
0.121372 0.0164995 0.370712
-0.0955153 0.104273 0.383875
0.0172934 -0.0744634 0.0423596
0.165391 0.046448 0.367662
0.2373 0.0482182 0.00475826
0.206678 -0.209329 0.364422
0.0208423 -0.0740897 0.0560706
0.0330352 -0.111472 0.39129
-0.0124767 -0.145588 0.357118
-0.0287098 0.150532 0.654702
0.0100504 -0.00343356 0.0435743
-0.164907 0.137163 0.722823
-0.174393 0.118177 0.681206
0.206031 0.0792164 0.399763
0.160647 0.15497 0.772066
0.0408726 0.135923 0.658473
0.0542077 0.105205 0.546758
0.0356388 -0.0472887 0.305893
-0.240954 0.0337633 0.0231004
-0.0357567 -0.102041 0.277441
-0.187351 0.123541 0.670273
0.0106958 -0.0455256 0.119988
0.0795056 0.111455 0.607566
0.069453 0.14718 0.392048
0.16621 0.0166239 0.359019
0.16473 -0.0772123 0.357118
0.0610932 0.121704 0.539646
0.140597 0.0180693 0.0261927
-0.102072 0.116299 0.389411
-0.226726 0.0412507 0.0267222
-0.149315 0.0973439 0.417327
0.0943315 0.150028 0.401478
0.0899772 -0.00614308 0.357118
0.0210457 -0.0693829 0.39129
0.046861 -0.105241 0.357118
0.143259 -0.0203305 0.357118
0.100863 -0.076583 0.305998
-0.18789 0.0450877 0.401625
-0.0750263 0.120468 0.539029
-0.0745703 0.107014 0.597056
-0.17631 -0.1409 0.39129
0.0394331 0.154108 0.393442
0.185744 0.112796 0.407158
0.0228515 -0.0256468 0.181549
0.160497 -0.113458 0.39129
0.0369923 -0.0144623 0.0357221
0.0709036 -0.0022193 0.39129
-0.144902 -0.237365 0.352561
-0.20551 -0.107654 0.380313
0.170626 -0.259883 0.0222255
0.0246528 -0.0554603 0.0371881
-0.106557 0.0814423 0.374842
-0.185148 0.114699 0.44106
0.139712 -0.144209 0.39129
0.100334 0.0140613 0.357118
-0.204737 -0.0589407 0.296957
-0.00760948 -0.042833 0.0645316
-0.0432414 -0.0572296 0.314078
-0.0565335 0.0361146 0.356734
-0.161364 -0.227836 0.0225795
-0.0121779 -0.00714288 0.190868
-0.0790648 -0.225253 0.390621
0.178043 0.0254283 0.0125787
-0.0151719 0.132444 0.609176
0.0832762 -0.073151 0.39129
0.0193445 0.105676 0.414703
-0.0536303 -0.0380141 0.39129
-0.0414053 -0.221088 0.356766
0.164446 0.125361 0.429948
-0.0407085 -0.186366 0.39129
-0.161644 -0.173438 0.357118
0.0393782 0.142703 0.401984
-0.0240726 0.153488 0.698854
-0.0134131 -0.0429845 0.0927339
0.0137145 -0.12425 0.341184
0.0263118 -0.0539835 0.0148616
-0.000541613 -0.0481137 0.357118
0.0787558 0.113619 0.41951
-0.206414 -0.110705 0.369243
0.181997 0.103698 0.615342
0.0959745 0.143148 0.689481
0.198499 -0.213879 0.39129
-0.0305916 -0.139751 0.343895
-0.044457 -0.172716 0.3497
0.204928 0.0532634 0.0147766
0.135498 -0.13986 0.39129
0.109181 0.110717 0.566126
0.0400045 -0.15925 0.329322
-0.10911 -0.204434 0.01726
-0.148939 0.143183 0.400464
-0.0174894 0.110216 0.59341
0.0910109 0.137185 0.466422
-0.0524336 0.140976 0.636719
0.158297 -0.254326 0.375003
0.0427303 -0.0761051 0.39129
-0.0859339 0.123497 0.405972
0.00415511 0.0933313 0.0306288
0.0578654 -0.179189 0.350892
0.0748355 0.0351455 0.391466
-0.0373596 -0.194101 0.357118
-0.0507477 0.139463 0.398771
-0.194457 -0.0274625 0.39129
0.103328 0.125937 0.610689
-0.162654 0.157246 0.732471
0.262311 0.0378043 0.0186146
-0.0136828 -0.166428 0.357118
0.00812667 -0.0400726 0.326341
0.195257 -0.168269 0.39129
0.0132498 0.126162 0.537509
-0.0355869 0.144886 0.642673
0.206405 -0.109813 0.372979
0.200305 0.0954173 0.501944
-0.0082987 -0.236149 0.352971
-0.0567288 0.148668 0.655791
0.0751989 -0.161829 0.39129
-0.0423944 0.176828 0.765426
0.16995 0.057424 0.361386
0.0919125 0.0053766 0.0341444
0.171879 0.0810673 0.57206
0.194956 0.00494285 0.348707
0.0129549 -0.0345851 0.357118
-0.00797786 0.140198 0.417094
-0.219781 0.026504 0.0160367
0.162011 -0.138394 0.357118
-0.0636874 -0.067177 0.31535
-0.206551 -0.0607596 0.363883
-0.193526 0.0156263 0.369215
0.112729 -0.189044 0.328922
0.167139 -0.221554 0.0129174
-0.112042 0.109471 0.499772
0.152118 0.169254 0.766858
0.00638902 0.167478 0.0335923
0.278933 0.0528992 0
-0.152773 0.0955201 0.379155
-0.19799 -0.0515356 0.30052
0.024971 -0.130391 0.357118
0.0650903 0.110356 0.417431
-0.141632 -0.215542 0.39129
0.141068 0.0151123 0.357118
-0.139949 0.136837 0.411264
0.0390732 -0.0360128 0.39129
0.20647 -0.133347 0.37512
-0.0282426 -0.0212637 0.0580955
0.187822 0.102637 0.654556
0.00415729 0.0581983 0.0361913
0.131941 0.173538 0.763137
-0.124956 0.0953252 0.544937
0.174718 -0.197401 0.39129
0.0768002 0.0130869 0.0360841
0.150053 -0.152346 0.357118
-0.0353554 0.0160649 0.388378
-0.0219575 0.138264 0.385298
0.139207 -0.250825 0.34715
-0.0193375 -0.0736121 0.293181
0.0454462 -0.103876 0.0499626
0.0183648 -0.0641593 0.316097
-0.0531873 0.133909 0.39638
-0.0108505 0.139011 0.662228
-0.0159108 -0.0685788 0.271549
0.205206 -0.0502037 0.301354
-0.111495 -0.192449 0.0177112
0.0653755 0.138588 0.418261
-0.179148 -0.159514 0.39129
-0.0851286 0.0159269 0.380429
-0.0334088 0.117784 0.565627
0.166474 0.0789206 0.569043
-0.0279859 0.177434 0.720368
0.020822 0.252346 0.00803401
0.0687784 -0.107933 0.0141033
0.250298 0.0786273 0.0193869
-0.189847 -0.0538441 0.311128
0.0772147 0.190709 0.767376
-0.042082 0.129472 0.607423
0.114507 0.0562616 0.364399
0.0100848 -0.0456912 0.1473
0.0152914 -0.0415603 0.17005
-0.0034616 -0.0179727 0.0148616
0.00524455 -0.0535624 0.29434
0.0306666 -0.19231 0.357118
0.0241503 0.135319 0.617519
-0.183638 0.145943 0.759597
0.108195 -0.198217 0.0179198
0.205259 -0.025729 0.324775
0.171154 0.0916094 0.388236
-0.182509 -0.0535808 0.357118
0.0137289 -0.114288 0.339428
-0.0695381 -0.0817459 0.357118
-0.0569626 0.016005 0.382766
-0.0654194 -0.183035 0.39129
-0.244569 0.0388943 0.0101585
0.00341534 0.120038 0.501937
0.106597 -0.25387 0.375709
0.0331172 -0.0357697 0.2694
-0.206101 0.0955346 0.396729
-0.0489739 -0.240429 0.386307
0.00591661 -0.00207746 0.283059
0.201183 0.138016 0.752117
0.0241615 -0.0558268 0.05621
0.0340928 0.112777 0.521849
0.0297055 0.136547 0.425465
0.0409023 -0.108697 0.0361501
0.18203 0.119695 0.65423
-0.0640076 0.180168 0.758345
0.0780648 -0.0396522 0.357118
-0.0867162 -0.126589 0.39129
0.166815 -0.0588777 0.31966
0.206172 0.0302448 0.367389
0.0495634 0.00775072 0.0541316
-0.0834026 0.195313 0.766491
0.0863245 0.12386 0.397806
-0.0461213 -0.174177 0.39129
-0.071878 0.178057 0.765195
0.110835 -0.020002 0.357118
0.00255627 -0.0419036 0.0580955
0.145888 -0.243792 0.384071
-0.0243537 0.123113 0.58887
0.137939 -0.238654 0.00399078
-0.162994 -0.217979 0.0158117
-0.189127 0.107397 0.667821
-0.0773444 -0.252283 0.347193
-0.0143832 -0.00583642 0.275573
0.142704 -0.0274909 0.39129
-0.0405073 0.140085 0.474335
-0.205728 -0.0285099 0.387213
0.206657 -0.201423 0.365976
-0.173001 0.078127 0.578004
0.204077 0.0743396 0.553026
0.20507 0.0620338 0.0195847
0.0822081 -0.0705426 0.39129
-0.122637 0.13224 0.640868
0.158725 0.10304 0.39346
0.203232 -0.146885 0.357118
-0.15454 0.131943 0.70215
0.121909 -0.162256 0.333239
0.2077 -0.249058 0.355834
-0.0295409 -0.0315796 0.0580955
0.126124 -0.199495 0.0154917
0.0800334 0.137112 0.473652
-0.00369787 0.128665 0.39796
-0.0275127 0.137358 0.623247
0.0551186 0.00369947 0.39129
0.154994 0.118302 0.426593
-0.0383912 -0.0674692 0.0250812
0.00174616 -0.19988 0.357118
0.205267 -0.0270236 0.329388
-0.0871444 0.155589 0.403498
-0.00589687 0.151195 0.390538
0.0559902 -0.168829 0.342958
-0.0673079 -0.0519443 0.297652
-0.0130613 -0.177611 0.326095
-0.0920775 0.119566 0.536663
0.169449 0.16288 0.76799
0.0812283 -0.0453642 0.357118
0.0420464 0.152531 0.661607
-0.0114989 -0.0547815 0.0264853
0.0355639 -0.114103 0.39129
0.195313 0.0200094 0.344302
-0.192252 0.114392 0.69037
0.0549505 -0.135508 0.285941
-0.200561 0.0978847 0.626304
-0.202619 0.0208854 0.356472
-0.16115 0.0466817 0.364702
-0.100415 0.115451 0.388946
-0.010893 0.150036 0.440013
0.0448352 0.141442 0.635829
0.0487658 -0.00383985 0.055799
0.123705 0.152667 0.729493
-0.0179001 0.147389 0.645156
0.00656564 0.149079 0.0120789
-0.0819087 -0.204524 0.39129
0.156614 0.0439553 0.355265
0.0777758 -0.06391 0.39129
0.0287523 -0.0816279 0.273873
0.178783 0.0488549 0.368739
0.0638876 -0.125794 0.39129
0.0317475 -0.0709952 0.290711
0.0541413 0.154412 0.404732
0.125341 0.155323 0.737248
-0.0248288 0.180336 0.764816
0.0255621 0.0419908 0.356734
0.206091 0.00467843 0.381627
-0.029567 -0.0560633 0.0428164
0.0895454 0.0189024 0.0480709
0.199591 -0.173552 0.39129
0.0776821 -0.0552797 0.39129
0.0260941 0.107584 0.546524
-0.205439 -0.13402 0.360959
-0.182121 -0.0885182 0.357118
0.0364462 0.0881485 0.407588
-0.0393184 -0.1186 0.357118
0.148005 -0.175492 0.357118
-0.0431872 0.101721 0.573976
-0.262766 0.0356507 0.0146349
0.0955398 0.13497 0.417168
0.0184005 0.20013 0.0175293
-0.0759181 -0.119421 0.0217076
-0.00371696 -0.0165009 0.0435743
-0.0259376 -0.00882492 0.0258671
0.157861 -0.0631486 0.288942
0.0231411 -0.0168563 0.0580955
0.087007 -0.158904 0.0243368
-0.0824337 0.143342 0.648224
0.184055 0.14011 0.745162
0.175816 0.0496499 0.0326241
0.187937 0.113919 0.652756
-0.173065 0.101136 0.626974
0.202136 0.0962101 0.451446
0.00758252 0.165658 0.728269
0.0751702 0.0778346 0.371187
0.179866 0.0832722 0.415554
0.147384 -0.0764028 0.357118
-0.0591746 0.149781 0.430012
-0.00289974 0.115263 0.0418575
-0.089183 -0.152908 0.39129
-0.170257 0.0156908 0.362055
0.145445 0.0210733 0.391466
-0.0545779 0.120273 0.486777
-0.0976499 0.128622 0.616496
-0.0597702 -0.0778362 0.049106
0.0521527 0.173077 0.712167
0.0244499 0.181593 0.768956
0.0149682 0.179583 0.724919
-0.045681 0.139496 0.421144
-0.0288492 -0.130307 0.357118
-0.0101912 0.18551 0.76391
-0.0060121 0.0474046 0.0139757
0.106614 -0.18233 0.335765
0.0216125 -0.139131 0.39129
0.129407 -0.226502 0.0121776
0.0365598 -0.0514962 0.271881
-0.126581 -0.178932 0.335765
-0.00863853 -0.0459767 0.178921
0.122203 -0.21082 0.0144105
0.0872439 0.173928 0.724756
0.034958 0.157679 0.403949
-0.00681688 0.0477933 0.0261995
-0.169774 0.0188447 0.344231
-0.00674516 0.107138 0.582382
-0.154594 0.0895139 0.381543
-0.0149475 0.134659 0.614382
0.0216526 0.24652 0
0.156756 -0.227087 0
-0.278236 0.0478094 0.00142132
0.0937945 0.153231 0.675419
0.168049 0.11157 0.435416
0.00443217 0.124063 0.54945
0.0309633 0.109382 0.537252
-0.00669387 0.00862876 0.0580955
-0.249039 0.0759831 0
-0.206221 -0.180676 0.373145
0.00225525 0.180973 0.0314534
0.0591301 0.136244 0.662586
-0.0213613 0.0976021 0.41148
-0.153457 0.0309393 0.0187516
0.207111 -0.0344643 0.360698
0.0121091 -0.063912 0.0441876
-0.0345493 0.207868 0.764299
-0.0988256 -0.027769 0.39129
0.0453123 0.140213 0.669457
0.0888705 -0.195749 0.335765
-0.022053 -0.0243612 0.216706
-0.011446 0.117929 0.0267252
-0.0994778 0.0971404 0.414321
-0.166638 0.147034 0.710785
-0.170396 0.145704 0.710467
0.0598816 -0.158034 0.327048
-0.148414 -0.0753526 0.357118
-0.107051 -0.201569 0.335765
-0.160545 0.0606929 0.404828
0.132848 0.139316 0.664505
-0.0411357 0.126648 0.600544
0.0257146 -0.0158515 0.280695
0.0553776 -0.137459 0.329126
-0.0316212 0.0160753 0.363975
0.117037 -0.00977339 0.39129
0.0986475 0.143967 0.692525
0.0162522 -0.0436665 0.0435743
0.0824907 -0.0692987 0.290219
0.14861 0.0282421 0.0244845
-0.0814529 0.182628 0.745234
-0.0211208 0.101312 0.379678
-0.0788325 0.142728 0.413585
0.207169 -0.0556106 0.380644
0.0196231 0.157269 0.397814
0.106941 0.153389 0.401732
-0.169582 -0.0552954 0.293096
-0.0551481 0.0105669 0.0520121
0.18804 0.115615 0.687302
-0.125079 0.081581 0.376076
-0.0158348 0.190134 0.767432
-0.152824 -0.0207157 0.32618
0.140061 -0.235081 0.00512962
0.0309563 -0.0126112 0.357118
0.206183 -0.0288351 0.374044
-0.15625 -0.195822 0.39129
-0.163812 -0.0670838 0.315448
0.0496465 0.132423 0.651788
-0.0163923 -0.0342451 0.0922673
-0.130284 -0.192118 0.0307172
-0.23652 0.060501 0
0.0153751 -0.111493 0.39129
0.131334 -0.125015 0.39129
0.192666 0.117964 0.695068
0.179531 0.0919985 0.575641
0.128867 0.117837 0.401635
0.0668309 0.107744 0.383431
-0.0546393 -0.180495 0.292468
0.118071 0.119366 0.416055
0.206702 -0.217333 0.369567
-0.133532 0.116123 0.647545
0.0483785 -0.0320751 0.39129
-0.0580608 0.125993 0.60232
-0.168131 -0.018261 0.39129
-0.00194932 0.155429 0.403717
-0.00817005 0.262011 0
0.0475183 -0.0675533 0.0542285
0.066894 0.0757394 0.369787
0.138991 -0.0768099 0.300129
-0.13116 0.100575 0.384536
-0.154389 0.120825 0.675072
-0.0572197 0.151366 0.424496
-0.0379609 0.128337 0.461022
-0.0563572 -0.0703991 0.357118
-0.0929828 0.173125 0.725925
-0.156276 0.0760636 0.410034
-0.133844 0.0999577 0.608589
0.138221 -0.243954 0.0173165
0.127581 -0.173481 0.357118
0.0682252 0.163189 0.729289
0.178974 0.0212872 0.0349649
0.000741363 0.0893589 0.374492
-0.0487552 0.117045 0.419381
0.16679 0.0754466 0.380877
0.192285 0.105448 0.472992
-0.205165 0.0974572 0.641169
0.171954 0.0916207 0.569368
-0.0697385 -0.0322254 0.357118
-0.139909 0.127625 0.643036
0.207544 -0.192315 0.359462
0.189443 -0.0739091 0.293857
-0.192681 0.0660481 0.37704
0.0259744 -0.039577 0.0580955
0.134591 0.136363 0.421336
0.0688543 -0.149169 0.0400929
-0.0150505 -0.222075 0.390993
-0.059005 0.148755 0.656445
0.0368213 0.171365 0.743448
0.142973 0.12118 0.400568
0.0227756 -0.0253584 0.176113
-0.141668 0.115291 0.405958
-0.118767 -0.0170902 0.39129
0.184455 -0.176526 0.39129
-0.204196 0.0755647 0.588959
-0.204608 0.0155955 0.360621
-0.00388147 -0.13657 0.39129
0.104228 0.111603 0.569986
0.206146 0.0393027 0.382554
0.183766 0.034151 0.361658
-0.140782 0.11209 0.606034
0.0876067 -0.0107209 0.357118
0.0257201 0.113707 0.52085
-0.199821 -0.00627166 0.39129
-0.139896 -0.256773 0.0182294
0.00178487 -0.0613102 0.270276
-0.0861859 0.134169 0.627224
-0.136594 0.025787 0.0410601
-0.15025 0.00918988 0.347999
-0.00426957 0.133482 0.0242657
-0.198976 0.064796 0.377114
0.135446 -0.167844 0.357118
-0.108709 0.147958 0.398357
0.0249731 -0.185889 0.39129
0.221482 0.0422304 0.027534
0.0491576 0.0131002 0.357118
0.112063 -0.145692 0.0332057
-0.0143863 -0.0420177 0.215132
-0.117227 0.0233406 0.391466
0.206998 0.00657412 0.380695
-0.0196536 -0.0359922 0.253077
-0.0280607 -0.0158863 0.39129
0.0941141 -0.156485 0.357118
0.0061201 0.0976596 0.0299444
0.0537352 -0.0858296 0.0367884
0.128764 -0.188744 0.357118
-0.0684597 -0.0947388 0.048149
-0.0805882 0.108022 0.600629
0.022942 -0.0927639 0.275834
0.022701 -0.0105645 0.271442
-0.0810488 -0.242234 0.350091
0.00440716 -0.160036 0.287689
-0.106427 0.0911225 0.378956
-0.156951 0.0902581 0.602933
-0.166984 0.071168 0.375402
-0.0338263 -0.00712466 0.357118
0.0160545 0.159951 0.0336245
-0.173991 0.0904586 0.616593
-0.167199 0.12358 0.430042
0.0538607 0.16354 0.689873
-0.00727744 0.144684 0.398296
-0.061232 -0.211928 0.357118
0.0329929 0.144552 0.453124
0.0492881 -0.11723 0.0337058
-0.205414 -0.142338 0.386482
0.0118492 -0.247501 0.381699
0.0119675 -0.0256932 0.0580955
0.0541676 0.0126011 0.0486945
0.104863 0.135331 0.634842
0.138565 0.139225 0.40564
0.207653 -0.2311 0.3819
-0.173974 -0.112319 0.39129
-0.0267984 -0.036794 0.0320349
-0.0479892 -0.103652 0.0497059
0.0355219 -0.0822816 0.0389439
0.107786 -0.212422 0.328922
0.0483339 0.0760457 0.36878
-0.0893532 0.097345 0.413808
-0.157124 -0.233506 0.018825
-0.160743 0.020833 0.0229549
0.0145329 -0.0932454 0.39129
-0.0733121 0.167221 0.742024
0.209296 0.0475968 0.0291026
0.141475 -0.258469 0.00691567
0.00340908 -0.0452002 0.327243
-0.235443 0.0602113 0
0.0446306 0.167569 0.734267
-0.187453 0.0723086 0.568279
-0.0639924 0.159408 0.719106
-0.0775658 -0.132387 0.0432741
-0.174083 -0.234481 0.354012
-0.19473 0.145086 0.769476
-0.0425757 0.125383 0.59783
0.168415 0.0687685 0.37783
-0.0293394 -0.0572854 0.290716
0.159122 -0.230464 0.389893
0.187204 0.145463 0.731518
0.198822 0.116055 0.695359
-0.0270097 -0.0191983 0.282533
0.0860416 0.129667 0.435898
-0.206456 -0.0954328 0.378384
0.0576915 -0.00497808 0.0545122
-0.204278 0.107496 0.398988
0.121269 -0.130059 0.357118
0.0102552 0.192268 0.756319
-0.0739856 -0.229557 0.355421
0.0994575 0.141004 0.64694
-0.280458 0.054265 0.0018129
0.194657 0.147833 0.774997
0.0432311 0.00227597 0.39129
0.206651 -0.199523 0.364147
-0.20547 -0.122151 0.382685
-0.00462593 -0.00435867 0.250674
0.0734025 0.133215 0.658027
0.175699 -0.065006 0.316856
0.0219957 0.0455394 0.356734
0.00361031 0.132656 0.51349
-0.0296328 -0.101959 0.357118
0.0340289 0.125693 0.390138
-0.178656 -0.0751899 0.294316
-0.0470272 -0.139242 0.343797
-0.0212289 -0.0212489 0.207107
-0.184291 0.106332 0.632471
0.0300915 -0.0872591 0.39129
-0.0499755 -0.24931 0.347049
0.00486159 -0.102821 0.39129
0.123547 0.147656 0.678378
-0.0589965 0.134081 0.491397
0.0502893 0.131454 0.50231
-0.194589 -0.00755921 0.357118
-0.0826018 0.146589 0.420297
0.0809671 0.132336 0.491329
0.175109 0.0789616 0.382465
-0.0339435 -0.206519 0.357118
-0.0030358 0.12573 0.0254946
-0.0819769 0.12505 0.383471
0.0267396 0.145892 0.398049
0.206082 0.00787884 0.365504
-0.147469 -0.264279 0.0169328
-0.149667 -0.231707 0.38981
0.147128 0.0888785 0.549467
-0.0063865 0.048136 0.391466
-0.0713951 -0.091485 0.39129
0.10154 0.1381 0.678925
0.202675 0.0547286 0.371385
0.0116852 0.00867328 0.357118
-0.0993443 0.021963 0.356734
0.00515586 -0.00438866 0.24185
-0.0051658 -0.242212 0.350001
-0.175975 0.140511 0.739169
-0.0106964 0.124675 0.626565
-0.237848 0.0467233 0.0100103
0.107245 0.116286 0.478445
0.276718 0.0477996 0.0130562
0.118993 -0.19293 0.328922
-0.206388 -0.119683 0.381422
0.124369 -0.0659502 0.289353
-0.0659073 0.109604 0.524537
-0.0261033 -0.0702566 0.0413151
0.186696 0.0272386 0.393837
-0.146045 0.107954 0.637411
-0.183247 -0.0531485 0.39129
-0.0367313 0.126928 0.466952
-0.197372 0.124999 0.691194
-0.172725 -0.191986 0.357118
0.0198832 -0.00625874 0.39129
-0.181513 0.0698797 0.37662
0.170191 -0.22342 0.000610926
-0.0219073 -0.109805 0.278817
-0.0350945 0.0412344 0.356734
0.184208 0.108455 0.628579
-0.022825 -0.167884 0.322042
0.0767109 -0.212001 0.357118
-0.119487 -0.0935842 0.39129
-0.0284266 -0.180421 0.298574
0.130063 0.0263366 0.0273697
0.198626 0.114404 0.427856
-0.194885 -0.0561011 0.357118
0.206446 -0.124773 0.371312
0.14096 -0.247654 0.0218532
-0.166145 0.121405 0.397548
0.0153545 -0.0145619 0.0798167
0.0640032 -0.256651 0.348475
0.0308329 0.0162485 0.369406
-0.00641927 0.113683 0.417972
-0.192823 0.0156282 0.387884
-0.123967 0.161778 0.71531
0.064752 0.0155569 0.0413953
-0.00704154 -0.179298 0.350879
-0.0298467 0.116806 0.386377
-0.190015 0.134026 0.735234
0.116458 0.107147 0.506867
0.12571 -0.209009 0.0130768
0.012826 -0.164065 0.288404
-0.206048 0.0313157 0.374278
0.0712887 0.123697 0.381541
0.0521672 0.191462 0.755756
0.0948678 0.133 0.663686
-0.0650901 -0.148502 0.39129
-0.13492 0.13396 0.654541
-0.0478598 -0.103729 0.0134972
-0.106024 0.105599 0.600987
-0.196351 -0.0773561 0.357118
0.144979 0.128759 0.648081
0.103875 0.0195595 0.356734
-0.0165824 0.169788 0.700812
-0.0912813 0.166124 0.767322
0.129111 0.104906 0.501755
-0.0028819 0.082796 0.0322928
-0.176299 -0.230591 0.00356351
0.0631087 0.116345 0.575809
-0.105509 -0.160387 0.0129653
-0.0711159 0.134478 0.661442
0.179515 0.121597 0.424197
0.134023 -0.151989 0.357118
-0.0599286 -0.18051 0.302522
0.0566632 -0.0982792 0.39129
0.203431 0.136109 0.752516
-0.0248673 -0.0151006 0.305313
0.0134916 -0.00502758 0.268625
0.107117 -0.246192 0.382441
0.170948 0.0135786 0.39129
-0.205784 -0.00798586 0.38187
-0.0689703 0.105179 0.382595
-0.0507088 0.211072 0.763727
0.131778 -0.050308 0.301702
-0.0997448 0.0807104 0.3741
-0.00718316 -0.136407 0.343317
0.124982 -0.0193881 0.39129
-0.0175251 -0.0204735 0.0435743
0.0522529 0.144159 0.680085
-0.00582389 0.119659 0.57261
-0.205111 0.0778267 0.596057
-0.0691101 0.175367 0.722332
-0.0187836 0.144242 0.405459
-0.205258 0.128222 0.725574
-0.178798 0.132471 0.72336
0.191622 -0.0374742 0.39129
-0.057061 -0.0991567 0.0494418
0.0624727 0.127637 0.393913
0.0698614 0.138777 0.670561
-0.192262 0.0852622 0.505617
-0.0947739 0.126667 0.648964
0.0749158 -0.0502892 0.39129
0.206095 0.00311519 0.358305
0.139629 0.0927323 0.541653
-0.0782484 -0.179483 0.329913
0.0391968 -0.057983 0.39129
0.0121838 0.122654 0.487855
0.0163151 -0.0799115 0.0516962
-0.0102094 0.145208 0.402713
-0.00511958 -0.0547649 0.0395204
0.0217041 -0.0299803 0.241799
0.0150871 0.150219 0.69012
0.100219 0.0185962 0.356734
0.0403602 0.173427 0.710834
-0.042549 -0.0825429 0.298838
-0.0133311 -0.145902 0.39129
-0.190702 0.0425051 0.366294
-0.0383966 -0.0201898 0.0329212
-0.061097 -0.00884254 0.0142269
-0.0923598 0.035414 0.356734
0.0923216 0.0117025 0.0148166
0.23073 0.0531667 0.0108981
0.0879642 0.004777 0.39129
0.105044 -0.201826 0.0216248
0.204771 0.0570442 0.372437
-0.00470715 0.221836 0.00940922
0.0551263 -0.133845 0.39129
0.000521003 -0.00791295 0.0580955
0.0828637 -0.243889 0.384126
-0.204207 0.0808005 0.589732
-0.130442 -0.0396049 0.357118
0.104186 0.137322 0.45753
-0.00663693 -0.0800457 0.39129
-0.0697809 -0.0103485 0.0374806
-0.142123 -0.00625372 0.39129
0.0290969 0.190306 0.752062
0.0917563 0.13821 0.67556
-0.0067916 0.00514145 0.0188618
-0.0621323 -0.179958 0.332836
0.0850633 0.119587 0.627863
-0.0125807 0.257093 0.0229651
-0.00858951 -0.0494865 0.0580955
-0.0467141 0.119591 0.49216
0.138375 0.114737 0.386672
-0.119565 0.126338 0.484563
-0.00556528 0.174165 0.0106572
0.062866 -0.0998426 0.0334627
0.155056 0.147209 0.700568
-0.0208363 0.15749 0.708655
0.11694 0.0455919 0.394518
-0.109849 0.107565 0.608546
-0.00554392 0.0316191 0.0143891
-0.080741 0.122883 0.382349
-0.204198 0.0766418 0.578224
0.00451726 -0.17025 0.357118
-0.0670894 -0.00279326 0.0529256
0.00100656 0.226245 0.00957885
-0.16058 0.0172586 0.354768
0.0573229 0.0749479 0.368863
-0.189277 0.028111 0.0139823
-0.0738456 0.0121653 0.39129
-0.204224 0.0862617 0.490827
-0.0756729 0.135213 0.664081
-0.0516755 -0.0781297 0.357118
0.0424702 -0.00959362 0.0147076
0.0617849 -0.0428134 0.357118
0.0463184 -0.0894795 0.0517218
-0.0219889 0.156075 0.404702
0.0820773 -0.127908 0.02876
-0.155567 -0.0291416 0.322343
-0.0482298 -0.180477 0.318329
-0.00698101 0.116933 0.380965
0.0237403 0.13592 0.618868
-0.169105 0.0259388 0.347464
-0.0897929 -0.198309 0.357118
-0.157991 -0.0547275 0.293631
-0.105277 -0.157874 0.39129
0.132022 0.0383089 0.0325896
0.120354 -0.201617 0.328922
0.00694776 0.0126786 0.0359538
-0.197732 -0.187363 0.39129
0.00660831 0.118322 0.0266726
0.204941 0.0905471 0.604052
0.114162 -0.234128 0.353794
-0.0103739 0.158355 0.710316
0.169798 -0.236576 0
-0.00221083 0.177928 0.720383
-0.0400205 0.131329 0.647863
0.174817 -0.107452 0.357118
-0.159519 -0.264226 0
-0.136316 -0.0746584 0.39129
-0.101515 0.167951 0.754728
0.000601128 -0.0301492 0.0922673
0.0386084 -0.258937 0.369876
0.202103 0.0979929 0.392963
-0.108199 -0.251183 0.347134
-0.0384795 -0.263911 0.360225
-0.15672 0.134276 0.709493
0.0686093 -0.0946832 0.39129
-0.0540059 0.103487 0.553077
0.00828654 0.00174188 0.0580955
-0.13673 -0.25126 0.0095342
0.0421815 0.00759604 0.357118
-0.0273923 -0.0728038 0.292353
-0.102672 -0.0593494 0.290139
-0.12217 0.0961762 0.544607
-0.205761 -0.0166054 0.382059
-0.165342 -0.25098 0.379575
0.162844 0.114093 0.663366
-0.0716315 0.184664 0.758722
-0.0382247 -0.0195651 0.0260368
-0.0457662 0.129834 0.512557
0.180601 -0.233779 0.353875
-0.0692402 -0.0914251 0.0370322
-0.0179053 0.124268 0.543925
-0.205166 -0.233076 0.367009
-0.132014 -0.205639 0.014116
-0.100068 -0.0100765 0.0344272
0.0512691 0.141269 0.405922
0.0445171 -0.155289 0.357118
-0.145894 -0.0948535 0.39129
-0.0153213 0.0740117 0.0343424
0.206176 -0.0262602 0.369999
0.156399 0.0804621 0.383173
0.206174 0.0294761 0.372337
-0.135106 -0.246363 0.382797
-0.0894287 -0.124624 0.357118
0.109652 0.145106 0.662555
0.207261 -0.0892824 0.370015
0.00242469 -0.00970182 0.39129
-0.0915103 -0.151546 0.0248157
0.0150445 -0.00596124 0.27413
0.0295236 0.145117 0.425473
0.0365448 -0.0131006 0.0478671
0.204811 0.137697 0.742682
-0.184044 0.0128956 0.357118
0.0355695 0.16192 0.719912
-0.160601 -0.0720863 0.291263
-0.0913871 0.162446 0.737066
-0.170216 0.034593 0.0111591
-0.181045 0.145296 0.75752
-0.0315153 0.170887 0.704248
-0.150946 -0.226043 0.00932094
0.01924 0.0233203 0.0460214
-0.0771914 -0.111314 0.0313074
-0.0112255 -0.0695607 0.0565128
-0.00698062 0.105197 0.0227839
-0.0409726 -0.180456 0.33187
-0.0027266 -0.0588289 0.0502685
0.204042 0.087265 0.601858
0.109104 -0.0160275 0.357118
-0.00565525 0.0622027 0.0355532
-0.041723 0.0772967 0.403284
-0.100432 -0.0300081 0.357118
0.183617 0.0911934 0.619284
-0.120434 -0.19694 0.328922
-0.00525805 -0.0547652 0.0270714
-0.0220818 0.138423 0.661293
-0.0507247 -0.121417 0.39129
0.0919548 -0.108638 0.357118
0.199712 -0.125635 0.357118
-0.184324 -0.0927808 0.357118
-0.205358 -0.163476 0.364148
-0.0565587 -0.117968 0.39129
0.0986241 0.146117 0.39471
0.0140271 -0.151617 0.346009
-0.104645 0.108633 0.511976
-0.163053 0.0879007 0.415392
0.125233 0.164912 0.722701
0.0551996 -0.098184 0.39129
-0.00307074 0.112483 0.0275917
-0.101132 -0.258148 0.349022
-0.0682532 -0.135153 0.357118
-0.142317 -0.244764 0
0.173538 0.120202 0.665507
0.005614 0.180855 0.010483
-0.0517408 -0.125676 0.28208
0.13784 0.128209 0.391537
0.0143714 -0.0424863 0.203082
0.179924 -0.0350033 0.357118
-0.0365153 -0.167391 0.348765
-0.020714 -0.009492 0.0435743
0.170286 0.0348189 0.020899
0.0149317 0.134031 0.612776
-0.0679497 0.128277 0.450893
-0.11496 0.156416 0.695669
-0.0271919 0.1286 0.417681
0.0265659 -0.0217108 0.263304
-0.00997399 -0.00580213 0.120858
0.0791542 0.0247196 0.356734
0.115119 -0.0128734 0.357118
-0.0506137 0.151434 0.417011
0.0289818 0.109636 0.593977
0.0191073 -0.0631304 0.0317003
0.00263902 0.158938 0.403057
-0.031738 0.119042 0.560815
0.0555335 0.0550211 0.360255
0.150685 -0.061357 0.312595
-0.0259528 0.128603 0.40028
-0.185582 0.0756753 0.379745
0.197201 -0.0598137 0.357118
0.0273103 -0.0188583 0.302584
-0.170567 0.094054 0.560514
-0.204325 0.122166 0.709951
-0.0390608 0.145653 0.400926
0.247024 0.0530232 0.00913563
0.183001 -0.140618 0.39129
-0.0509907 0.114953 0.385034
-0.182568 0.150016 0.732202
0.129866 -0.0838005 0.357118
0.0837229 0.0845236 0.374564
0.200058 0.1058 0.415785
-0.0240509 -0.0495608 0.39129
-0.0292747 0.137353 0.488888
-0.0148595 0.0685133 0.0350919
-0.18292 -0.158294 0.39129
-0.0138244 -0.180379 0.317359
0.174765 -0.00207543 0.345535
0.118935 0.187535 0.763616
-0.183362 0.137341 0.701188
0.0710743 -0.116426 0.39129
-0.171433 0.0896498 0.552323
-0.0154816 -0.038091 0.39129
0.113919 0.0216083 0.044738
-0.121957 0.101959 0.604251
-0.0663394 0.14477 0.447111
-0.0103818 -0.264045 0.359453
0.100351 -0.173751 0.3248
0.0652612 0.106496 0.382802
-0.0599654 -0.18051 0.321675
0.0436578 0.0852621 0.372672
0.19405 0.041858 0.016975
-0.0257536 -0.1286 0.357118
-0.0845103 0.135241 0.39972
0.0850663 0.0408426 0.356734
0.178945 0.0772132 0.57787
0.100767 -0.191738 0.39129
-0.0121769 -0.0680294 0.0434182
0.00621988 -0.149422 0.357118
-0.11618 -0.195526 0.0315876
-0.152713 0.101837 0.627735
-0.185302 0.0405777 0.365424
0.124862 -0.219148 0.357003
0.00687792 0.063641 0.397701
-0.111442 -0.126826 0.39129
-0.0302655 0.134632 0.499172
0.134434 -0.100064 0.39129
-0.271845 0.0744721 0.00512962
0.164949 0.138198 0.401531
0.0023303 0.130995 0.641877
0.158868 0.0796993 0.371552
0.220207 0.046894 0.0127914
-0.00679253 -0.0384332 0.0922673
0.142499 0.15778 0.755045
0.136335 0.00951046 0.39129
0.0394109 -0.179055 0.329556
-0.17855 -0.0221366 0.336837
0.0823601 -0.0147798 0.39129
0.0598264 -0.0536692 0.310808
0.0614974 0.130284 0.50334
-0.00187903 0.124844 0.378516
-0.121881 0.101708 0.384436
0.206185 0.0255331 0.37877
0.196687 0.125561 0.393562
0.20745 -0.157135 0.385643
-0.13733 -0.0555961 0.292703
0.0956746 0.114176 0.576629
0.117994 0.102029 0.599976
-0.179074 0.116638 0.653617
-0.14543 -0.193659 0.0225502
-0.0592267 -0.226939 0.390405
0.0327209 -0.250574 0.379474
0.031769 -0.248051 0.347443
-0.166195 0.020078 0.35606
0.177596 -0.144927 0.357118
-0.203519 0.0390126 0.366694
0.178589 0.0770875 0.381606
0.0910753 -0.0591932 0.314854
0.00166471 -0.102926 0.39129
0.033362 0.150589 0.429951
0.161211 0.0994855 0.586099
0.141519 0.020581 0.0406356
-0.0602022 0.114385 0.386222
-0.0340015 -0.0424335 0.271512
-0.2064 -0.115904 0.369743
-0.122267 0.0933499 0.579425
-0.118747 0.130843 0.401499
-0.220684 0.0419699 0.0098422
0.0770365 0.113642 0.612297
0.199633 0.046147 0.0159243
0.139026 0.106036 0.625693
-0.172055 0.127325 0.409282
0.0932095 0.0421864 0.3918
-0.197413 0.0995717 0.485315
0.207124 -0.0394255 0.359138
0.194273 0.126891 0.690973
-0.104218 -0.24002 0.351206
0.184145 0.149129 0.738151
0.0762395 -0.0537362 0.357118
0.00586737 0.115426 0.603457
-0.153798 -0.170515 0.39129
-0.060932 -0.180513 0.339825
-0.0362237 -0.114496 0.33944
-0.0068531 0.0604919 0.0157042
-0.140569 -0.1725 0.39129
-0.0321985 -0.0339731 0.283354
-0.216909 0.0324584 0.028629
0.0372455 -0.141479 0.284433
-0.200321 -0.256401 0.347958
-0.181178 0.0758192 0.55987
-0.015926 0.235112 0.0205019
0.109297 -0.22482 0.39061
0.140656 -0.0555619 0.357118
-0.0336671 -0.218201 0.39129
0.198014 0.105778 0.463477
-0.0402137 0.121966 0.545208
-0.205799 -0.00278645 0.384827
-0.0501599 -0.10712 0.0168426
0.206958 -0.218499 0.39129
0.182447 0.114967 0.403297
-0.0529807 0.157836 0.395979
0.03526 -0.0477112 0.053824
0.00338908 -0.0193303 0.39129
-0.186853 0.112486 0.680672
0.012637 0.123452 0.0258682
0.206122 -0.00665447 0.364782
-0.145439 0.162841 0.732847
-0.0342788 -0.054886 0.311765
0.204026 -0.000975698 0.39129
0.194855 0.0853183 0.418248
0.192257 0.114883 0.687042
0.126947 0.111028 0.489778
-0.0308482 0.00771998 0.39129
-0.0465955 -0.0945262 0.39129
0.115808 -0.0544232 0.357118
-0.151724 -0.235728 0.0231304
-0.11908 -0.126419 0.39129
-0.0478204 -0.107279 0.33558
0.172264 0.017655 0.354529
0.0414978 -0.254268 0.347308
-0.0313003 -0.0297581 0.312623
-0.00128634 0.0777935 0.0330857
-0.167953 -0.264334 0
-0.199066 -0.168863 0.357118
-0.116371 -0.190342 0.0322354
0.203014 0.0204269 0.392839
0.239621 0.0526259 0.00929557
0.100277 0.0994605 0.58007
-0.159972 0.0379022 0.364174
0.112609 0.125693 0.654463
0.0188678 -0.0379601 0.25748
0.135345 0.145263 0.680853
-0.0887407 -0.0169893 0.0468147
-0.13431 0.113543 0.422905
-0.0159395 0.121969 0.620949
0.0584369 -0.160896 0.39129
-0.0772523 0.142752 0.411064
0.165196 -0.0536687 0.322036
0.031474 -0.0919063 0.0384246
0.00184115 -0.00351585 0.218626
0.195383 0.0173306 0.391466
-0.205374 -0.157557 0.370802
0.107057 0.127982 0.398679
0.18653 -0.0640697 0.305996
0.0898584 -0.121595 0.39129
0.0886476 0.130568 0.618087
-0.0384635 0.122636 0.388905
0.0338879 0.128769 0.400862
0.0550735 -0.0957936 0.39129
0.189945 -0.0877298 0.39129
-0.0106018 -0.0306594 0.264864
0.0367003 0.150347 0.655447
0.0030003 0.155593 0.703082
-0.0646929 -0.138167 0.39129
-0.0151922 -0.178665 0.337169
0.191093 0.136204 0.741682
0.150175 0.0157044 0.0395742
-0.0739615 0.140357 0.404954
-0.0970709 0.0173094 0.0327239
0.107716 -0.175911 0.357118
-0.0347767 0.119765 0.377607
-0.0415687 0.113584 0.517403
0.134875 -0.176388 0.0239722
-0.0910623 -0.138968 0.39129
0.207528 -0.186499 0.36565
0.088796 0.14341 0.648997
-0.0403676 0.153831 0.41966
0.144543 0.0155682 0.0404284
0.189577 -0.0194591 0.326322
-0.112448 -0.0916739 0.357118
0.0325014 -0.0473684 0.044646
-0.033483 -0.0306473 0.0499611
0.194961 -0.255771 0.373183
-0.0938472 0.0980206 0.561557
0.0314029 -0.0240785 0.0190622
0.0319757 0.103519 0.561989
-0.216434 0.0600421 0.0134574
-0.174188 0.108331 0.660085
-0.00403883 0.0784959 0.0329732
-0.197138 -0.203523 0.357118
0.0652842 -0.261359 0.364815
0.0402672 -0.0763403 0.0142011
0.109455 -0.158269 0.357118
-0.0907341 -0.150986 0.0249597
0.051587 -0.00165664 0.0279031
0.0301267 0.128758 0.420462
