0.203992 0.122036 0.390788
-0.131119 0.0847612 0.411243
0.207018 -0.000822358 0.362265
-0.156382 -0.115463 0.39129
-0.164874 -0.0731722 0.357118
0.125957 -0.220295 0.0273931
-0.13803 0.163314 0.772101
-0.135055 -0.208234 0.0135002
-0.191861 0.122538 0.710406
-0.0579951 0.152386 0.701289
0.124066 -0.00487922 0.39129
-0.0192284 -0.105706 0.39129
0.0187134 -0.201978 0.357118
0.25427 0.036899 0.0174205
0.123848 0.089737 0.379207
0.00103965 0.216509 0.758455
0.0299167 0.11645 0.507825
0.0176734 -0.0122199 0.120183
-0.04512 -0.11578 0.0345714
-0.0471375 -0.104075 0.29122
0.0421555 -0.180221 0.300503
0.0717932 0.0242444 0.356734
0.137811 0.114177 0.517747
0.0557186 0.178393 0.725423
0.0725097 -0.000610753 0.0520667
0.00373537 -0.104148 0.337635
0.0888143 -0.0621512 0.357118
0.0248136 -0.0606911 0.289684
-0.205089 -0.26119 0.365715
-0.144438 0.114246 0.614092
0.0728295 -0.212831 0.39129
-0.0984668 -0.106037 0.357118
0.0753234 -0.194523 0.357118
-0.135149 0.0157882 0.384442
-0.202654 -0.022851 0.336541
-0.0641833 0.128893 0.610397
0.0605558 -0.0909101 0.0502083
-0.0204697 -0.0503549 0.0148616
0.124559 0.0529735 0.363606
-0.0630116 -0.171734 0.322289
-0.0321121 0.10758 0.415531
-0.172277 -0.142291 0.357118
0.143842 0.0277926 0.0118807
0.0242802 -0.000937745 0.39129
0.148261 0.0919577 0.598511
-0.0587918 0.0988866 0.412611
0.0106625 0.146412 0.453057
0.150623 -0.0393176 0.321867
-0.166692 0.0608976 0.363394
-0.0300953 0.136549 0.658278
0.00640778 -0.0898329 0.275308
-0.161277 -0.0745028 0.293677
-0.188842 -0.0572553 0.39129
-0.0347101 0.0368309 0.356734
-0.184752 0.0824247 0.605432
-0.0810964 0.0159381 0.385038
-0.0740681 0.112245 0.511399
-0.15174 -0.267165 0.00250071
-0.125918 -0.164018 0.329358
0.0479912 0.125988 0.461962
0.204806 0.13876 0.723809
0.0562572 -0.141477 0.32198
0.050108 -0.117364 0.357118
-0.0457132 -0.179546 0.330492
0.122791 -0.158881 0.39129
0.145585 -0.083097 0.39129
-0.0220094 -0.150678 0.39129
0.0129753 0.108751 0.0427936
0.0354656 -0.0409418 0.0559783
0.00788359 -0.159803 0.327599
0.0755806 0.113629 0.504011
0.0957237 0.069397 0.402795
-0.0208022 -0.00993954 0.0148616
0.0306755 -0.231487 0.389701
-0.140812 -0.194692 0.0285663
0.0206441 0.0507227 0.357789
-0.0536533 0.125922 0.465033
0.206158 0.0351397 0.394003
-0.129017 -0.166807 0.39129
-0.130482 0.141166 0.668583
0.0467295 0.10824 0.593927
-0.0866781 -0.209523 0.39129
-0.00696654 0.0309202 0.0552131
-0.0369266 0.171497 0.76852
-0.102544 0.0229135 0.0456822
-0.0684808 0.117542 0.37926
0.206407 -0.107968 0.39044
0.0983328 -0.149416 0.0117596
0.00146259 -0.00341618 0.222293
-0.0949707 -0.00764273 0.39129
-0.169667 0.122222 0.43185
-0.0943523 -0.0961002 0.39129
0.184506 -0.0465628 0.357118
-0.0393172 0.161522 0.403423
0.077012 0.00668163 0.0163689
0.0178485 0.172831 0.766161
-0.146446 -0.0234266 0.357118
0.0893384 0.160665 0.73083
0.0615617 0.163937 0.692226
0.00581854 -0.142202 0.284544
-0.136005 0.101168 0.506819
-0.170384 0.153012 0.728586
0.0793287 -0.0227933 0.39129
-0.137479 -0.2263 0.0256619
0.071849 0.169373 0.771036
-0.00964957 -0.263428 0.356677
-0.0204517 0.227044 0.0163922
-0.0979103 -0.131504 0.0393804
-0.093955 0.041739 0.391877
0.0826848 0.131916 0.656652
0.0985996 -0.212071 0.328922
0.171483 0.105113 0.502929
0.168631 -0.0757911 0.296364
-0.15064 0.0423577 0.0346684
-0.0973138 0.149066 0.667461
-0.0304586 -0.0578367 0.290491
-0.17727 0.100091 0.512392
0.0778605 0.125059 0.412055
0.245934 0.0782199 0.000540261
0.178894 -0.238254 0.351689
0.141541 0.110126 0.637539
0.0861417 0.0164018 0.372859
0.180631 0.1348 0.690244
0.172743 0.121335 0.434249
-0.0388243 0.122882 0.542111
-0.205422 -0.140105 0.358702
-0.0957902 0.0817419 0.374291
0.140602 -0.132959 0.39129
-0.108976 0.175531 0.73928
-0.0473619 -0.0611803 0.39129
-0.238909 0.0719795 0.0165788
0.0175056 -0.077784 0.0546072
0.0968496 0.122232 0.59983
0.00147605 0.0960492 0.377379
0.206556 -0.163846 0.384973
0.00971681 0.163052 0.683621
-0.152541 0.0231047 0.346151
-0.0715666 -0.184456 0.357118
0.151044 0.140658 0.718932
-0.093504 0.115165 0.554055
-0.117586 -0.0801893 0.357118
-0.0659221 0.182575 0.739119
-0.0932262 -0.188693 0.0287076
0.0983623 -0.190353 0.0314044
0.190831 0.0573256 0.0218266
-0.180412 0.0759956 0.564856
0.175196 0.0959658 0.378944
-0.12057 -0.196898 0.39129
-0.141473 -0.00219141 0.39129
-0.206171 0.0763774 0.384152
0.0545278 -0.0626326 0.315749
-0.0774218 -0.179768 0.330988
-0.0838631 -0.00581615 0.0143124
-0.0437074 0.149459 0.436615
0.16571 0.0166225 0.380929
-0.0303471 0.105743 0.584026
0.0189051 -0.12033 0.39129
-0.106874 0.153792 0.399312
-0.00725844 0.114542 0.0419699
0.0912591 -0.247708 0.347515
-0.133024 -0.0545574 0.293728
0.037825 -0.0761236 0.332712
-0.0112307 -0.00618941 0.15135
-0.20523 -0.210185 0.362882
-0.00367051 0.0734978 0.401703
0.190945 0.0795082 0.534725
-0.00742168 -0.00211227 0.312975
0.0905541 -0.0873128 0.357118
0.153859 -0.153442 0.357118
-0.0318244 0.214502 0.758794
-0.20166 -0.0364104 0.357118
0.101428 0.129114 0.387258
0.0118584 0.164374 0.396616
-0.124759 -0.24789 0.347684
0.00235824 -0.0612959 0.39129
-0.0284071 -0.137628 0.343522
0.143817 0.15869 0.773056
-0.0238151 -0.0762659 0.308479
-0.0297411 -0.029783 0.0580955
0.0113417 0.140986 0.475692
0.00943494 -0.0493097 0.357118
-0.0264484 -0.074158 0.0554899
-0.0542836 -0.0518762 0.307102
0.0490128 0.208972 0.764145
-0.0988136 0.0406112 0.357
0.0215275 -0.0306472 0.247293
-0.140498 0.140775 0.397976
-0.173973 -0.243927 0.384606
0.00230761 -0.0477978 0.144086
0.0258559 0.0368396 0.391466
0.0264719 0.128447 0.601656
0.108146 -0.0390382 0.39129
0.0124944 0.200599 0.0283205
-0.0978804 0.105739 0.598624
0.00396146 -0.185283 0.39129
0.0401703 0.154057 0.664879
-0.191208 0.0291179 0.395532
-0.164126 0.138807 0.688889
0.0475909 0.104505 0.552132
-0.0549689 -0.140824 0.304561
0.0482523 -0.117763 0.0470282
-0.170712 -0.156627 0.39129
0.224552 0.0482899 0.0267728
0.122602 0.092798 0.561287
-0.0699751 -0.258604 0.370713
0.0425068 0.128793 0.401467
0.000689762 -0.00321268 0.17944
0.0617101 -0.0262942 0.0495164
0.134707 -0.240983 0.350413
-0.000465385 -0.0447353 0.0765944
0.00564194 0.128065 0.532134
-0.00719384 -0.00505176 0.245598
0.0356366 0.182421 0.732663
0.179878 -0.00129235 0.334614
0.00268038 -0.0476968 0.23619
-0.13639 -0.131548 0.357118
0.127648 0.0338538 0.391466
0.145899 0.0121001 0.0403956
0.00376004 -0.125607 0.341419
-0.205021 0.0436928 0.362707
-0.026631 -0.109654 0.338591
0.125343 -0.0543207 0.31164
0.0676852 -0.109248 0.39129
0.0410965 -0.0239393 0.39129
-0.117814 0.109268 0.576806
0.159527 -0.244783 0.383339
0.11646 0.153925 0.727721
0.0959047 0.0589392 0.364401
-0.18054 0.026209 0.010969
0.177371 0.145663 0.751521
0.176071 0.079084 0.583268
-0.0112262 0.0161318 0.375856
-0.166688 0.103263 0.641995
0.0918506 -0.0215072 0.357118
-0.0719752 -0.0423608 0.357118
0.166265 -0.0127375 0.357118
-0.238813 0.030922 0.0152417
-0.101713 0.142819 0.692001
0.1569 -0.221239 0.00313358
0.0944439 0.0263026 0.0399769
0.0666156 -0.121487 0.0128398
-0.0589128 0.134567 0.659254
0.00430294 0.128687 0.41543
-0.202576 0.11263 0.425323
0.159618 -0.152508 0.39129
0.054076 0.14867 0.434714
-0.125878 0.0228953 0.356734
-0.12 0.013197 0.0125822
-0.0950422 -0.144514 0.357118
-0.0480691 0.117458 0.500021
-0.158884 0.114184 0.662446
-0.0362997 0.179658 0.726291
-0.114381 -0.120415 0.39129
-0.0172077 0.062164 0.362774
-0.0104666 -0.00593508 0.100758
-0.161042 0.0990456 0.587841
0.0345252 -0.0914314 0.275605
0.0620564 -0.137965 0.357118
-0.109847 0.116816 0.536799
-0.145378 0.0871339 0.379723
-0.16477 -0.191097 0.39129
-0.0534307 -0.169589 0.39129
0.083362 -0.177511 0.39129
0.0902841 -0.115744 0.0350709
-0.132154 0.125714 0.419407
0.0870872 -0.166592 0.322627
0.147475 -0.0648509 0.357118
0.203783 0.0803171 0.383044
0.202723 0.0331676 0.350289
-0.0683388 -0.151028 0.0293942
0.0465167 -0.180209 0.3413
-0.0315133 0.160774 0.679524
0.173373 0.11987 0.657241
0.0130156 0.12954 0.638616
-0.196204 -0.122691 0.39129
-0.179016 0.0941005 0.488718
0.031849 -0.0904156 0.39129
0.0718513 -0.0521022 0.309254
-0.122129 0.197392 0.764156
-0.0625663 -0.0148293 0.39129
0.150191 0.116217 0.392375
-0.0176806 0.114401 0.522465
0.0191747 -0.0266452 0.0660178
-0.149395 -0.0676864 0.39129
-0.205213 0.113595 0.682896
-0.0791273 -0.0010376 0.357118
-0.0070884 0.142984 0.0141493
-0.031104 -0.160642 0.326434
-0.0110242 0.152971 0.427628
-0.161337 0.10935 0.390538
0.162192 0.0476555 0.0320647
0.155108 -0.244757 0.0239236
-0.00494096 -0.0731964 0.292806
-0.168244 0.177448 0.765602
-0.127546 0.129817 0.63879
-0.072207 -0.119653 0.012786
0.0776429 -0.254448 0.375123
-0.124743 -0.208362 0.0291457
-0.138338 0.0465941 0.362115
0.16958 -0.0850316 0.39129
0.180207 0.103387 0.613224
-0.0639649 0.142179 0.402973
0.152602 -0.0429247 0.39129
-0.204463 0.142816 0.734152
0.00689843 0.0302862 0.0253361
0.12345 0.112335 0.484391
0.023238 0.0630717 0.397451
0.207212 -0.0713483 0.377192
-0.0263481 0.0048316 0.0495253
-0.0391578 -0.0901388 0.013919
0.00974111 0.0124592 0.0580955
0.0195544 -0.037269 0.216462
0.171546 0.0254844 0.346828
-0.102477 -0.0523892 0.296355
0.111316 0.134439 0.407565
-0.0194089 0.077475 0.0432745
-0.0754158 -0.0967228 0.0406556
0.0805923 0.0985634 0.413592
-0.1045 -0.0105492 0.0454435
0.0961331 -0.228704 0.390133
-0.103362 -0.243392 0.384846
-0.0792823 0.0689837 0.401887
-0.203528 -0.00311621 0.39129
0.200754 0.112879 0.430959
-0.182918 -0.178806 0.357118
-0.0259931 -0.0172537 0.278398
-0.0888345 0.168264 0.712176
0.207372 -0.129587 0.36177
0.184164 -0.000689 0.39129
0.117146 0.113623 0.544168
-0.00817982 -0.0463778 0.0435743
-0.0463144 0.0160345 0.374006
0.106719 -0.215825 0.357118
0.0151124 0.231055 0.00973991
-0.205595 -0.077105 0.369668
-0.0207698 -0.219953 0.356939
-0.02009 -0.0635337 0.270657
-0.00495747 0.113291 0.598229
-0.0561281 -0.119783 0.39129
0.0498682 -0.0865287 0.0138374
-0.205834 0.0100104 0.359867
0.0372971 0.0254554 0.356734
0.0708405 -0.135022 0.39129
-0.0143193 -0.23725 0.387507
-0.060339 -0.241705 0.385822
-0.122585 -0.0721044 0.313495
-0.127017 -0.171513 0.0213123
0.0136106 0.136011 0.383786
-0.1702 0.0898991 0.417101
0.206697 -0.215625 0.370638
0.154876 0.0686759 0.366533
-0.0941128 0.179246 0.769312
0.0421216 -0.145972 0.285228
0.115048 0.0191557 0.0174492
-0.170147 0.0184939 0.0363561
-0.202157 0.0329423 0.0103763
-0.0583228 0.0888418 0.374966
-0.184837 -0.041171 0.316897
0.0767842 0.107537 0.529061
-0.204094 0.0971347 0.627389
-0.0776688 -0.204606 0.357118
-0.20419 0.0725672 0.582311
-0.0745935 -0.0774415 0.357118
-0.175658 -0.0135798 0.357118
0.134389 0.192857 0.763605
-0.195242 -0.220387 0.391264
0.0116797 -0.180307 0.309503
-0.0205637 0.149567 0.390366
-0.176022 0.147712 0.758986
0.107588 0.170663 0.770927
-0.092518 0.0972954 0.413974
-0.0347527 0.107577 0.382399
0.0579772 0.00716342 0.39129
0.0670078 0.135516 0.481246
0.162265 -0.263423 0.358807
-0.140648 0.091423 0.593153
0.096794 -0.0552499 0.2924
0.0100487 -0.0665528 0.331011
-0.186342 -0.243986 0.349377
-0.192005 -0.0552613 0.29319
0.00568037 -0.0254869 0.323769
-0.0963613 0.121962 0.397614
0.0511105 0.128678 0.513726
0.0372259 -0.130704 0.342334
-0.0581632 -0.00840881 0.357118
-0.146872 0.140301 0.716488
-0.162844 0.00465237 0.39129
0.142754 -0.0329115 0.357118
0.00562381 0.186206 0.0103429
-0.0185639 0.131541 0.452007
0.169212 0.110442 0.47215
-0.13207 0.168224 0.73703
0.00949844 -0.04585 0.10967
0.000949942 0.155497 0.664536
0.124736 -0.0661505 0.357118
-0.022893 -0.168299 0.357118
0.0644079 0.139129 0.38798
0.0229137 -0.0120658 0.0435743
-0.0189161 0.258838 0.00103918
0.171882 0.174079 0.766016
0.0226978 -0.0262272 0.150155
-0.0585601 -0.067563 0.289648
-0.0160062 -0.114485 0.279645
-0.118543 0.12403 0.495641
-0.134091 -0.0367119 0.39129
0.00468193 -0.0838687 0.357118
-0.0438906 0.0720596 0.401166
0.0920467 0.123091 0.523818
-0.157765 -0.174507 0.357118
-0.0414936 -0.0775905 0.32892
-0.0604409 0.146373 0.442885
0.0320813 -0.0515919 0.268577
0.00457913 -0.0239111 0.39129
-0.0218535 0.160155 0.715331
-0.0981764 0.127979 0.499274
-0.152992 -0.231854 0
0.0356487 -0.199773 0.39129
-0.0599394 0.0362785 0.391466
-0.0213397 -0.0297675 0.224809
0.152979 -0.0120407 0.39129
0.205252 -0.0233423 0.325813
0.15947 0.045377 0.398246
0.113151 -0.188411 0.0107064
0.0209857 0.115969 0.383251
0.130505 -0.159311 0.357118
0.051026 -0.218404 0.357118
-0.103753 -0.191012 0.335765
-0.160343 0.100511 0.545936
-0.151527 -0.262809 0.363095
-0.160863 -0.00192069 0.346029
0.126467 0.110853 0.590507
0.0960829 0.117959 0.4797
-0.0171404 0.18996 0.751014
-0.0579504 -0.0141561 0.0308189
-0.00629519 0.0889602 0.0128878
0.183726 -0.180274 0.39129
0.20142 0.0808921 0.612219
0.0447082 -0.0749948 0.0353534
0.0763688 0.116925 0.581153
0.0308093 -0.0893919 0.357118
-0.0574057 -0.155553 0.346667
-0.0413773 0.142461 0.388317
0.0474392 0.0788605 0.403835
-0.0110221 -0.0519529 0.307837
0.205014 0.0632255 0.365199
-0.152614 -0.099458 0.357118
0.175206 0.118254 0.389102
0.164652 0.136413 0.397391
0.142412 -0.124312 0.357118
0.157669 0.141933 0.689736
-0.262489 0.075523 0.0221307
-0.0470763 -0.103788 0.320803
0.0610636 -0.163434 0.297064
-0.181027 0.103418 0.447327
0.13049 -0.202802 0.329477
-0.17944 -0.00149325 0.334973
-0.107217 -0.221953 0.356656
0.126391 -0.0997288 0.357118
0.168769 0.109677 0.415969
0.206173 -0.0249194 0.388992
0.204572 0.0971272 0.411854
0.0822107 -0.0523733 0.39129
0.0820096 0.113725 0.613408
0.0926037 0.154904 0.398068
0.203479 -0.161251 0.357118
0.166442 -0.207436 0.357118
0.0273912 0.153989 0.418206
-0.0338043 -0.0222552 0.0289386
0.0786923 -0.0761999 0.297238
-0.0786454 0.127589 0.447871
0.172123 -0.0502967 0.303181
-0.0843266 0.100132 0.579767
0.00934257 -0.23022 0.355277
-0.0409523 -0.260933 0.366276
0.202986 0.0648296 0.410825
0.200854 0.0816566 0.511907
0.0461064 0.000207707 0.0412915
0.114696 0.016709 0.356734
0.139119 -0.0759238 0.308058
0.157723 0.0968372 0.568363
-0.0177252 0.122021 0.553259
0.000212026 0.156805 0.706001
0.010536 0.00267534 0.0156783
-0.0511384 -0.203575 0.357118
0.25264 0.0727363 0.0239236
-0.0693836 -0.125601 0.0449041
-0.166687 0.129596 0.407936
0.101352 0.141318 0.648428
-0.165448 -0.251935 0.347163
0.0347707 -0.163276 0.32362
-0.162228 -0.216918 0.0165575
0.0834123 0.126262 0.452127
0.150545 -0.0102413 0.331402
0.0162033 -0.01963 0.0922673
0.026256 0.132127 0.443024
-0.180767 -0.0695278 0.315244
0.156936 0.0386116 0.364101
-0.257649 0.0402451 0
0.206225 -0.0442816 0.367065
-0.231445 0.0372941 0.0262029
0.191666 -0.149941 0.39129
-0.00377224 0.0312647 0.356734
0.120244 0.106481 0.6125
-0.0779227 0.0187278 0.0387129
-0.123558 0.0678352 0.370138
-0.0018611 -0.171875 0.289774
0.0363402 -0.076947 0.305312
0.200471 -0.0928227 0.357118
-0.0403683 0.114684 0.608497
-0.184231 0.0835407 0.382929
0.0646986 0.0667227 0.399958
0.0350202 0.121772 0.548447
-0.0123291 -0.180375 0.331059
-0.113676 0.129085 0.388806
0.150219 -0.21238 0.0262967
-0.184636 0.101476 0.620518
-0.00431791 0.117653 0.0121368
-0.0679959 0.133611 0.490123
-0.152798 0.0176552 0.011729
0.0968658 -0.00895737 0.0345677
0.00589077 0.0743101 0.0483474
0.0917808 -0.150246 0.0397029
-0.0805245 -0.0492801 0.39129
-0.0460767 0.139156 0.631157
-0.109827 0.0956507 0.561515
-0.178358 0.0338579 0.361366
-0.0705615 0.14114 0.677117
0.0483348 -0.105286 0.337252
-0.177391 -0.231481 0.00173642
0.0423157 0.133977 0.494451
-0.0208437 -0.0315985 0.160697
0.00429174 -0.21588 0.39129
0.0760012 0.171137 0.713601
0.181374 -0.127056 0.357118
-0.00847235 -0.116427 0.357118
0.206634 -0.192665 0.378578
0.170401 0.0248928 0.0112438
-0.0503771 0.120536 0.587551
0.0998779 -0.133915 0.39129
0.0717902 0.142535 0.679824
-0.0553682 -0.144889 0.39129
0.203399 -0.257409 0.349077
0.0451801 -0.0908751 0.313758
0.0605869 0.173142 0.751345
-0.115403 -0.0477812 0.357118
0.0833812 0.103168 0.382484
0.0608187 -0.0849298 0.357118
0.199234 0.121109 0.672605
-0.00141017 0.17273 0.0327572
0.147952 -0.0603362 0.289686
0.176296 -0.0275285 0.322662
0.182193 0.14205 0.718699
-0.0462694 0.128547 0.407058
-0.00507494 -0.00789454 0.07252
-0.198027 0.135427 0.709778
-0.130261 -0.13845 0.39129
-0.0943096 -0.183406 0.39129
0.0238051 -0.113308 0.357118
0.122369 -0.241993 0.385395
0.065773 0.100676 0.562229
-0.0344391 -0.0894846 0.275227
0.186694 0.0851798 0.562149
0.114897 0.0325036 0.038635
-0.0256893 -0.140151 0.284167
0.125238 -0.0635408 0.39129
0.00933786 -0.0198551 0.262969
-0.09442 -0.168402 0.0128209
-0.121403 0.028824 0.391466
-0.0992882 0.138769 0.642487
0.10992 -0.191498 0.328922
-0.0851243 0.159458 0.688739
-0.181708 -0.0837643 0.39129
0.136186 0.154231 0.703416
-0.138775 0.126945 0.677841
0.042988 0.0680072 0.365223
0.0674796 -0.238164 0.387062
-0.0158059 0.20486 0.013651
0.051583 -0.00838333 0.014471
0.00811774 -0.251559 0.378749
0.128321 -0.0656334 0.289271
-0.0533799 0.19182 0.767118
-0.198256 0.0812338 0.513117
-0.0498684 0.116475 0.56502
0.0327995 0.151403 0.693686
-0.0218014 -0.0280631 0.251657
-0.111875 0.124777 0.61448
-0.149186 0.107949 0.528034
0.0249789 0.200055 0.765708
0.080885 0.117537 0.550407
0.0179687 0.169894 0.739156
0.0539591 0.131158 0.613124
-0.106213 -0.0345954 0.39129
0.148431 0.113119 0.612708
-0.0582634 -0.0907708 0.39129
0.0527845 -0.0571328 0.29064
0.0950813 0.122621 0.420659
-0.137856 -0.0941666 0.39129
-0.0832967 -0.165208 0.0382096
0.0919376 0.00204568 0.39129
0.170852 0.0939042 0.528005
0.0730935 -0.165671 0.357118
0.00547306 -0.14806 0.39129
0.0418355 0.145039 0.44926
0.00298264 -0.177409 0.350551
0.060718 0.116638 0.386849
-0.143489 -0.243251 0.018276
0.0120408 0.0452568 0.0529516
0.139044 -0.180143 0.39129
0.150478 0.0112913 0.350269
-0.0773619 0.0470134 0.35836
-0.0943087 -0.162587 0.326251
0.182037 0.00332151 0.357118
-0.10581 0.120571 0.416223
-0.0360752 0.140467 0.474374
0.166846 0.161206 0.744105
-0.0663965 0.118942 0.421071
-0.0120027 0.119787 0.574669
0.269443 0.0740284 0
-0.165494 -0.0513987 0.304167
-0.163217 -0.0276481 0.39129
0.148895 0.132911 0.420855
0.183906 0.10021 0.642402
0.106582 0.167528 0.716574
-0.180872 0.123581 0.672866
0.100773 0.102015 0.588955
-0.129621 0.0295849 0.0419187
0.0287898 -0.0593309 0.39129
-0.16329 -0.0131639 0.329634
-0.0621093 -0.174331 0.300317
-0.0188731 -0.0252422 0.0828734
0.12787 -0.00459294 0.0344035
-0.060549 0.124958 0.526497
0.0281026 -0.0203513 0.272404
0.228932 0.0672078 0.012016
0.0754474 0.195542 0.766527
0.173176 -0.235839 0.0238775
0.0017048 -0.0330739 0.0148616
-0.105122 0.0724142 0.404794
-0.0164536 0.147769 0.035785
-0.0878976 -0.141347 0.012085
-0.0291059 -0.185643 0.39129
-0.20621 0.090751 0.413818
0.0328552 -0.0933232 0.0522468
-0.0762177 -0.0594978 0.31481
0.0725101 0.139855 0.637143
0.206189 0.024334 0.368239
0.0208053 -0.0438214 0.0435743
0.057886 -0.190053 0.39129
0.0675786 0.150448 0.66135
0.123785 0.121451 0.397587
-0.190749 -0.053215 0.357118
0.14774 -0.0883511 0.357118
0.0677108 -0.0820033 0.39129
-0.185861 -0.217158 0.357118
0.150263 0.0904599 0.384556
-0.206294 -0.154046 0.381593
-0.11509 0.125371 0.656658
-0.0313237 -0.0298677 0.314815
-0.0420214 -0.0621706 0.357118
-0.0718547 0.184907 0.763987
0.0376881 -0.148896 0.357118
0.115233 -0.149911 0.0321087
-0.127246 0.112488 0.633871
-0.0185197 0.0541941 0.0484428
-0.0529825 -0.131503 0.334926
0.147198 -0.223464 0.390765
0.0373054 0.117409 0.572916
-0.128535 0.0960193 0.537717
-0.174368 0.143217 0.707696
0.110904 0.0164705 0.386627
-0.205533 -0.099441 0.383161
0.0134197 0.076924 0.369108
-0.0420228 -0.0724968 0.0296681
-0.046808 -0.00337973 0.0216668
0.199701 0.0884654 0.486127
-0.155271 0.0157324 0.367958
0.0729428 -0.101595 0.0332799
-0.206075 -0.233727 0.376795
-0.149005 -0.211129 0.39129
-0.0823257 -0.0199281 0.0430335
0.055433 0.108402 0.416103
0.00554199 -0.0376627 0.266109
0.106757 0.139243 0.684397
0.145596 0.0859129 0.574472
-0.137013 -0.191968 0.357118
0.135064 0.0307586 0.0411043
-0.0411139 -0.0508802 0.0533821
-0.000319384 0.119941 0.376277
0.00946445 -0.0547269 0.0330676
-0.0615401 -0.258873 0.349461
6.48499e-05 -0.0929937 0.39129
-0.0273423 -0.0968172 0.0422274
-0.00403885 -0.0843272 0.334137
-0.0148693 -0.00985219 0.203951
0.138748 0.105604 0.553427
0.0837217 0.145593 0.425422
0.0866211 0.150706 0.704907
0.0349047 -0.0439354 0.324587
0.206259 -0.0559032 0.389306
0.0344979 0.128843 0.64052
0.121832 0.0584703 0.399934
-0.107449 0.00489152 0.0317619
-0.00299442 -0.0712408 0.314028
0.0685569 -0.177751 0.326463
-0.0068046 0.0434901 0.0161587
0.0231025 -0.164539 0.288493
-0.0455829 0.171329 0.744238
-0.14918 -0.065979 0.315082
0.0143618 0.133299 0.50704
-0.1042 0.00726315 0.357118
-0.0509122 0.162778 0.724515
-0.0791932 0.122071 0.471127
0.137211 -0.243337 0.00456879
0.0926888 0.129051 0.500198
0.206168 -0.0233184 0.36233
-0.205311 -0.180893 0.366474
0.0115247 0.209594 0.0122206
-0.204917 0.00604134 0.34185
-0.205786 -0.00741119 0.369745
0.0490357 -0.254608 0.375028
0.0146734 0.086315 0.0323868
0.105074 0.10975 0.508955
-0.0144824 0.0978757 0.0303164
-0.00801826 -0.125509 0.39129
0.161234 0.0840597 0.552186
0.0127394 0.150519 0.425473
-0.0424177 -0.0819271 0.300573
-0.189456 0.134929 0.737016
0.00519057 0.0110439 0.39129
-0.0969911 0.107297 0.522703
0.203897 -0.0746928 0.294986
0.0370409 -0.0146123 0.054485
-0.162492 0.0301415 0.392779
0.0484167 -0.0725017 0.0536966
-0.135626 0.116615 0.397583
0.187716 0.094981 0.598512
-0.0172051 -0.00839697 0.39129
0.119993 0.102068 0.524507
0.0972953 -0.078354 0.39129
0.156922 -0.180372 0.357118
0.00499801 0.186772 0.742472
-0.0260432 0.00864795 0.357118
0.0410344 0.177244 0.757811
0.099592 0.131903 0.624224
-0.00549538 -0.0246714 0.0580955
0.0318352 0.126899 0.527934
-0.0190262 0.127956 0.423764
-0.150468 -0.0516906 0.357118
0.0366276 0.148896 0.390914
0.0763485 -0.223558 0.356317
-0.00280742 -0.142525 0.357118
-0.111063 -0.191446 0.0111278
-0.205702 -0.0381692 0.381057
0.114165 -0.189925 0.357118
-0.0278382 0.170794 0.703843
0.199643 0.135145 0.746698
-0.152926 0.0637627 0.37595
0.106024 -0.0440923 0.357118
0.178455 -0.235097 0
-0.12962 -0.189124 0.332785
0.0760028 0.18177 0.740197
0.132676 -0.203267 0.0143971
0.14366 -0.106357 0.39129
-0.0907696 -0.168083 0.357118
0.20491 0.101992 0.666185
-0.201295 0.0957813 0.494913
-0.187714 -0.180016 0.39129
-0.145248 0.104714 0.420027
-0.012102 -0.156351 0.346831
-0.0330497 0.131737 0.50952
-0.0215151 -0.180401 0.312774
0.211732 0.0341354 0.0146965
0.0868735 0.140957 0.391088
-0.066332 -0.194473 0.39129
-0.188026 0.0901849 0.585064
0.0846988 -0.11058 0.357118
0.204675 -0.133709 0.39129
-0.206107 0.0529614 0.393654
-0.0268108 0.153924 0.421276
0.172572 -0.0721367 0.357118
-0.117998 0.180192 0.769133
-0.0362645 -0.00677258 0.0362061
-0.067581 0.151146 0.42015
-0.190014 0.116427 0.663384
-0.00130868 0.135499 0.653044
-0.15706 -0.122993 0.357118
-0.272276 0.041095 0.0177296
0.140291 0.016552 0.382545
-0.0381834 -0.242968 0.38502
0.0708306 0.0734261 0.369042
-0.112544 -0.25874 0.370691
-0.00402049 0.0151431 0.0430061
0.154373 0.101091 0.625344
0.167805 0.00479232 0.337403
0.190137 -0.077961 0.39129
-0.184644 0.023834 0.346522
-0.181181 -0.101489 0.357118
0.00592184 0.126831 0.0253238
0.0408284 -0.123906 0.39129
0.104194 0.112446 0.564139
0.134888 0.119865 0.656142
0.191561 0.103242 0.382239
0.206748 -0.234372 0.35702
0.144513 0.109382 0.421538
-0.00941648 -0.00281465 0.28884
-0.132225 0.149243 0.689714
-0.114224 -0.223637 0.390834
-0.180385 0.0818689 0.536496
-0.0477556 -0.0287066 0.0445036
0.0328152 0.0991342 0.378674
0.069772 -0.0100837 0.0294244
0.243749 0.0464077 0
-0.00309415 0.14451 0.399653
0.121123 -0.174441 0.033867
0.0237042 -0.180273 0.34548
-0.0366844 -0.0550232 0.320326
0.205725 -0.229948 0.389941
-0.0968549 0.105293 0.384393
0.055126 0.158477 0.714554
0.177922 0.028547 0.39342
0.105598 0.10699 0.385448
-0.196628 0.122513 0.398392
-0.000164643 0.184593 0.764077
-0.072966 -0.159237 0.334137
0.185624 0.0166777 0.369781
0.181613 0.116611 0.681835
0.0201656 -0.0157227 0.19587
0.0190772 0.144804 0.676786
-0.0592234 0.0109834 0.39129
0.0891718 -0.107378 0.39129
0.156119 0.0182375 0.0238138
0.00759353 0.122387 0.490582
0.204058 0.0802851 0.565044
-0.0752452 0.157588 0.397543
0.00302872 -0.0476025 0.172181
-0.198753 0.0182658 0.0210397
-0.053607 -0.140026 0.357118
-0.0103893 -0.0598736 0.0580955
-0.17248 -0.132682 0.39129
0.00865358 -0.253452 0.347263
0.0906721 0.178458 0.7597
-0.0479989 -0.173395 0.357118
-0.220197 0.0598701 0.0124645
-0.00202399 -0.00209818 0.26942
-0.126187 0.105227 0.615447
-0.0868694 -0.201201 0.334473
-0.0280132 0.0159129 0.391466
0.0809693 -0.137124 0.027685
0.171596 0.107273 0.447685
0.0295524 0.128757 0.421166
0.0375627 -0.0161822 0.0323086
0.0677357 -0.160698 0.39129
-0.186914 -0.125807 0.357118
-0.0443648 0.000418425 0.39129
0.0624636 -0.0197513 0.357118
-0.00330145 0.0430035 0.0385946
-0.0852007 -0.0756728 0.39129
0.0756064 0.0133398 0.0364162
0.0849177 -0.172325 0.0346638
-0.197089 0.0646793 0.365153
0.11324 -0.0179079 0.357118
0.153973 -0.266044 0.00955368
-0.025652 -0.0402411 0.0360883
-0.0827194 -0.234712 0.388569
0.133362 -0.262038 0.353677
-0.206369 -0.127307 0.372598
-0.0327822 0.105149 0.553976
-0.0196728 0.17164 0.743792
-0.15031 0.0305685 0.360651
0.0338563 0.14074 0.468894
-0.103803 0.156089 0.725968
0.100772 -0.156968 0.39129
0.0919471 -0.182075 0.335765
0.0218799 0.0109033 0.357118
-0.00723501 0.236234 0
0.194695 0.133798 0.708564
0.108002 -0.16137 0.334982
0.0752316 0.049611 0.359156
-0.0603833 -0.081049 0.0380359
0.0226629 -0.056922 0.0554928
-0.0171577 0.00203453 0.0580955
-0.00896233 -0.00552907 0.123354
0.166128 -0.0687562 0.315159
0.177768 0.126314 0.70492
-0.155069 0.151386 0.749705
0.179355 0.0420946 0.364439
-0.205217 0.114583 0.702597
-0.0125649 0.126711 0.473244
-0.0102456 0.195547 0.0291402
-0.0304582 -0.193293 0.357118
-0.0622967 -0.100564 0.0194429
-0.107959 0.139215 0.425473
-0.0677828 0.018046 0.356734
-0.20372 0.0755522 0.603588
-0.183403 -0.263045 0.362794
-0.131169 -0.0549209 0.39129
0.160321 -0.0644449 0.39129
0.189401 0.0903804 0.622589
0.1522 0.182224 0.768907
0.013152 -0.0694765 0.271722
0.0547143 0.128335 0.419433
-0.0800514 -0.113966 0.39129
-0.138031 -0.117838 0.39129
-0.166168 0.0947092 0.378802
0.013546 -0.00810348 0.142188
-0.147897 0.0686199 0.406112
-0.140598 0.0266668 0.0257089
0.0474283 -0.195916 0.357118
-0.118227 0.102448 0.417537
-0.132669 0.111196 0.59759
-0.0102784 0.10167 0.413114
-0.141644 0.185956 0.763768
-0.149692 0.1242 0.40335
-0.0279685 0.127905 0.380925
0.168115 0.0981648 0.590287
-0.0163467 -0.072097 0.39129
0.132107 0.122305 0.622616
-0.168599 0.0938175 0.564306
0.194739 0.148041 0.73613
0.0129496 -0.00470174 0.304682
0.206093 0.0038383 0.389368
-0.194333 0.125284 0.689365
-0.193319 0.103235 0.382721
-0.0576855 -0.158371 0.287364
0.0542615 -0.111237 0.0277204
0.263914 0.0524459 0
0.0178615 0.128725 0.402823
-0.0791161 0.121408 0.595594
0.206272 -0.0612191 0.357666
-0.0885826 0.181666 0.745576
-0.1717 -0.257586 0
0.164156 0.130873 0.667798
0.170595 -0.226719 0.390354
0.186512 0.126759 0.402937
0.166523 0.15599 0.769205
-0.159196 0.0982259 0.623989
-0.0504951 -0.11983 0.309573
0.185987 -0.0753379 0.309082
-0.169571 0.117057 0.452419
-0.067563 0.10775 0.531206
0.111304 -0.166127 0.0135842
0.0225596 -0.024561 0.172913
-0.0102579 0.0459544 0.391466
-0.167182 0.0438036 0.366872
-0.00176311 0.135428 0.0386646
0.00700988 0.249494 0
-0.00849639 0.159323 0.405522
0.141248 -0.257293 0.371566
0.0211387 -0.0321156 0.126797
-0.180026 0.0491762 0.358067
-0.147721 0.0994003 0.57264
-0.0197756 0.249947 0.0207134
0.233714 0.0301203 0.0194057
-0.0270052 -0.0535939 0.39129
0.0973447 0.179002 0.741199
0.110112 -0.19496 0.39129
-0.0514899 -0.124499 0.287007
0.0330229 -0.0353392 0.284469
0.12807 -0.0306145 0.39129
0.171952 -0.165097 0.357118
0.0215377 -0.00117094 0.0580955
-0.178732 0.111582 0.417783
-0.131601 -0.0642436 0.357118
-0.0364326 0.0708786 0.36656
0.169177 0.0738995 0.380168
0.102829 -0.263031 0.356295
-0.149764 -0.175837 0.39129
0.127674 0.0932933 0.582377
0.189934 0.08319 0.373103
0.163952 -0.0347882 0.357118
-0.0817269 0.0076047 0.0502143
-0.00152657 0.0188908 0.0147226
0.10606 0.14668 0.39577
0.195177 0.152376 0.755345
0.100592 0.0777254 0.372694
-0.0150444 0.129578 0.0254238
0.191347 0.0476312 0.402601
-0.171694 0.100822 0.470772
0.0469192 0.0382106 0.391466
-0.00228621 -0.0302972 0.0922673
0.059503 -0.240489 0.350756
-0.0891977 0.13805 0.40603
0.0795633 -0.0046959 0.357118
-0.0342902 -0.115811 0.357118
0.108075 0.00247936 0.0157999
-0.0782238 0.066242 0.366585
-0.0142982 -0.0737688 0.042931
0.169588 0.0891338 0.607859
0.184468 -0.0615359 0.39129
-0.0376301 0.137517 0.424003
0.065948 -0.160321 0.33821
0.0942798 -0.0558536 0.313088
0.0307323 -0.0790385 0.0173022
0.108572 0.0366215 0.356734
-0.0545983 -0.0309849 0.357118
-0.122821 -0.0114184 0.39129
-0.0113908 -0.0706821 0.357118
0.161322 -0.124453 0.39129
-0.111583 0.0251999 0.0306089
-0.0494179 -0.224722 0.390677
0.0622424 0.143501 0.452668
-0.174227 0.0653277 0.376689
0.0505509 0.161111 0.397241
-0.0131426 0.144689 0.638217
-0.205243 -0.204932 0.381103
-0.104446 -0.152757 0.39129
-0.0154801 -0.239211 0.351482
-0.0576106 -0.117436 0.024887
0.178646 0.0922836 0.54635
-0.190972 0.104816 0.47359
0.154596 -0.236658 0.352502
0.00728467 0.119889 0.566511
-0.18497 0.150299 0.743867
0.0215228 -0.107188 0.278377
-0.00813652 0.166874 0.693165
-0.178048 0.0430458 0.399714
-0.134856 0.119746 0.657355
0.169849 -0.195473 0.39129
0.14144 0.041726 0.360136
-0.124162 -0.0737691 0.29305
-0.0232366 -0.0191424 0.0435743
-0.0476106 0.154698 0.668289
0.140546 0.0502338 0.39792
0.204068 0.0777879 0.549568
-0.000972346 0.215779 0.02594
-0.184467 -0.104056 0.39129
0.18098 0.110984 0.669597
0.0537864 0.139424 0.669142
-0.109272 -0.156559 0.0225245
-0.152024 -0.148394 0.39129
-0.2535 0.0573131 0.0239236
-0.250442 0.0693908 0
-0.0642935 0.159558 0.683084
-0.0217722 0.119152 0.615422
-0.172187 0.0840861 0.58859
0.189318 -0.0155802 0.339362
-0.0638055 0.141798 0.640903
-0.204257 0.0996079 0.440546
-0.125027 0.115731 0.523427
-0.0446462 0.166472 0.695608
0.206127 0.0456515 0.371679
0.159753 0.0265422 0.0375975
0.0835449 0.137483 0.469852
0.204357 -0.00697114 0.343266
-0.152394 -0.258581 0.0239236
-0.167945 -0.0321954 0.357118
0.141442 0.161949 0.726301
-0.0976949 0.134184 0.443689
-0.0999057 -0.0654235 0.315848
-0.0260711 -0.180414 0.342357
-0.13544 -0.0893663 0.357118
0.0387569 -0.102632 0.03652
0.118175 0.18059 0.757133
-0.220701 0.0382358 0.0130725
-0.206575 -0.0521734 0.366924
0.193222 0.0380494 0.0172885
0.0300379 0.213704 0.758966
-0.13264 0.00419573 0.357118
-0.0269714 -0.0750128 0.0178444
0.2066 -0.180713 0.359723
0.0589155 0.140713 0.405671
-0.0660524 -0.0159433 0.05372
0.184547 0.099388 0.463185
0.00669484 0.102958 0.0183213
0.0605595 0.11935 0.549813
-0.205372 -0.158442 0.359215
0.150177 0.125519 0.681496
-0.104342 0.118245 0.631609
0.031647 0.0162507 0.384737
-0.0833627 0.120056 0.537759
-0.163578 -0.0538621 0.39129
0.100313 0.0994789 0.415075
0.0567486 0.119364 0.486192
-0.0771615 -0.0206931 0.357118
-0.103062 0.168528 0.756764
0.0410137 -0.110018 0.278886
-0.0069697 0.106384 0.558467
-0.0358189 0.145368 0.455318
0.00875634 0.116047 0.516898
-0.0360639 -0.0521117 0.270259
0.0107631 -0.0268729 0.0435743
0.00651645 0.166637 0.0115777
-0.0217454 -0.0760231 0.332664
-0.205848 0.0153959 0.385269
0.109429 0.128492 0.48946
-0.0729487 0.174853 0.722527
-0.191939 -0.160877 0.39129
0.187311 0.0940349 0.420591
-0.205286 0.13996 0.763591
0.0525559 0.108457 0.533624
-0.0505606 0.120995 0.625455
-0.175886 0.125312 0.700652
0.031818 -0.0949609 0.33603
0.136244 0.126605 0.401952
0.0587605 -0.178857 0.357118
0.159919 0.105414 0.38833
0.199547 -0.112263 0.357118
-0.0754884 0.0934408 0.378002
0.0247011 0.0810338 0.404721
0.121959 -0.127509 0.39129
-0.110661 -0.181898 0.0338489
0.174281 0.142792 0.704589
-0.0218554 0.0797185 0.404242
-0.186084 0.11316 0.679527
-0.0493472 0.119633 0.378378
-0.205147 -0.240145 0.358623
-0.100405 -0.0713424 0.357118
0.012741 0.146357 0.397832
-0.204197 0.0763358 0.563535
-0.157086 0.11302 0.412137
0.026183 -0.260451 0.351207
0.0103012 -0.00574348 0.162933
-0.236251 0.0499491 0.00939024
0.0223002 -0.17939 0.39129
0.15157 -0.0615226 0.307201
0.0540624 0.0042278 0.0546034
-0.0499403 -0.0949906 0.0359304
0.116501 0.143055 0.700549
-0.0580689 0.175975 0.75802
-0.193043 -0.245657 0.383413
0.167813 0.0428028 0.354725
0.0540123 0.176125 0.769936
-0.181621 0.0896241 0.549535
-0.122178 0.134244 0.683734
0.202133 -0.0377868 0.39129
0.118544 -0.250532 0.347133
-0.199248 -0.0545838 0.310803
-0.00598047 0.0763038 0.368864
-0.0170071 -0.218777 0.39129
0.20651 -0.148121 0.370574
-0.139306 0.134056 0.695496
-0.20461 0.0344422 0.0303865
0.135371 0.103376 0.385704
0.121305 0.172155 0.738156
0.00819094 -0.0440285 0.327039
-0.0421054 0.123227 0.479549
0.0459751 -0.105642 0.39129
0.0031757 0.130121 0.601482
0.0216583 -0.159557 0.39129
0.120675 0.120122 0.512226
0.0216958 -0.021372 0.230761
-0.0353887 -0.0107833 0.0541959
0.0208554 -0.180281 0.327496
0.107786 -0.10311 0.357118
0.00926326 0.0512647 0.392688
0.13842 0.0165468 0.362781
-0.206646 -0.026166 0.372642
-0.0500261 0.0244383 0.356734
-0.163212 -0.0874909 0.39129
-0.113319 0.106238 0.512083
0.0149835 0.113543 0.600667
-0.206131 0.0616889 0.410349
-0.0626213 0.11111 0.60441
-0.23138 0.0537449 0.0254137
-0.0834184 -0.129805 0.0255499
-0.0346648 -0.116786 0.280042
-0.147657 -0.246014 0.348469
-0.0622564 -0.000562944 0.0141316
-0.0170597 -0.0120571 0.229361
0.0181045 0.0608998 0.0476213
-0.110704 -0.134211 0.357118
0.175025 -0.252887 0.376642
-0.114523 -0.115708 0.357118
-0.0955994 0.137981 0.390859
0.270397 0.0760871 0.018327
-0.128355 0.0079227 0.0284635
0.128138 -0.136399 0.357118
-0.0893068 0.0159153 0.364398
0.208665 0.0219026 0.0252216
0.0298121 -0.163991 0.341647
0.0571132 0.145367 0.647386
-0.0871478 0.116554 0.489528
-0.00235697 0.149697 0.688404
-0.090871 -0.149175 0.0251785
0.192645 0.0166972 0.389183
-0.0780573 -0.136922 0.357118
0.196442 -0.21121 0.357118
0.127203 0.176454 0.769914
-0.150758 0.130146 0.657541
0.148209 0.143402 0.4024
0.171443 0.0565582 0.37226
0.137577 -0.216711 0.00973089
-0.220218 0.0242207 0.0214179
0.0718575 -0.00586374 0.39129
0.0376117 -0.0563014 0.311092
0.141182 -0.242888 0.384723
-0.0166873 -0.0397319 0.209944
-0.146955 -0.0517145 0.305537
0.20635 -0.0897409 0.37738
0.0767577 -0.0320941 0.357118
0.187536 -0.174936 0.357118
0.170033 -0.106386 0.39129
-0.204535 0.122167 0.72104
-0.0522376 0.101405 0.575319
0.124164 0.162043 0.753265
0.013468 -0.00802567 0.252969
0.249176 0.0533333 0.0239236
-0.0463126 0.134723 0.493272
-0.125712 0.107521 0.491875
-0.084917 0.145707 0.654316
-0.133291 -0.26335 0.361896
0.099659 -0.256354 0.372808
-0.182319 0.00785038 0.350507
-0.105555 0.0651202 0.367843
0.0328862 -0.0568718 0.0424389
-0.13428 0.157173 0.71095
0.102503 0.133407 0.667545
0.176282 -0.0172417 0.39129
-0.0425869 0.147896 0.651181
0.06229 -0.0667213 0.357118
-0.146438 -0.146794 0.357118
0.0125388 -0.0117638 0.0753761
-0.097326 -0.259411 0.349691
-0.0732291 0.125368 0.393755
-0.0562679 0.0707168 0.367113
0.0174714 -0.13585 0.357118
-0.206192 -0.191797 0.358899
-0.0528287 -0.15948 0.329441
0.0331546 0.166152 0.692266
0.108546 -0.205023 0.0279721
0.204111 0.097289 0.393683
0.0521438 -0.147604 0.345321
-0.050433 0.146504 0.685865
0.122082 0.115311 0.422639
0.0148965 0.182737 0.0303757
-0.0898066 0.0104569 0.0196476
0.181078 -0.220971 0.356686
0.0970493 0.106292 0.528422
-0.170031 0.0284979 0.348632
-0.181939 -0.0191192 0.338217
-0.206565 -0.0556613 0.38801
-0.0313504 0.134067 0.439468
0.0232715 0.149069 0.437472
-0.109794 0.0158585 0.386609
-0.106049 0.136274 0.403504
0.0621921 0.132651 0.436145
-0.0747103 0.169041 0.747112
0.139393 -0.17624 0.357118
0.191651 0.0995021 0.497849
-0.185391 0.110292 0.636179
-0.20422 0.0814957 0.618924
-0.146084 -0.0195612 0.39129
0.190058 -0.0502463 0.302167
-0.0845701 -0.052741 0.295407
-0.063377 0.00959766 0.0386048
-0.0841299 -0.0555043 0.357118
0.186023 -0.26059 0.35197
-0.200194 0.0875101 0.529762
0.0761091 -0.120282 0.044999
-0.00398044 0.200873 0.76555
-0.0268315 -0.0123278 0.357118
-0.112137 0.0569944 0.399056
0.20949 0.051719 0.0141663
-0.188407 -0.195822 0.357118
0.0136511 -0.237046 0.387556
-0.178936 -0.0726865 0.291815
-0.0545875 -0.0782957 0.357118
0.00708069 -0.0430782 0.0605458
-0.0472082 0.108163 0.536625
0.0149771 -0.0418766 0.155105
-0.000819218 0.131834 0.453398
-0.0219968 -0.0139865 0.0580955
-0.170098 0.160591 0.747304
-0.167315 -0.0431177 0.327263
-0.00840457 -0.255795 0.373818
-0.0954508 0.102607 0.541656
-0.103912 -0.0688762 0.289967
0.0894084 -0.206546 0.39129
0.184977 0.158032 0.768853
-0.119653 0.123089 0.477978
0.171293 0.12171 0.688292
-0.154009 0.0838378 0.578287
-0.00846471 0.0670827 0.0347784
0.0853418 0.129994 0.434942
-0.172976 0.0392556 0.0202172
-0.0542081 0.13935 0.420049
0.106494 -0.061974 0.357118
-0.146825 0.090087 0.541365
0.102629 0.00812475 0.0323962
-0.00838586 0.13583 0.435442
-0.139365 -0.114156 0.357118
-0.0168184 -0.0888481 0.275123
-0.128948 -0.172352 0.357118
0.0257281 -0.0581509 0.329537
0.0509637 -0.0764983 0.39129
-0.0791849 -0.144364 0.0415864
0.0743272 0.0137358 0.39129
-0.142138 -0.25467 0.375579
-0.114264 -0.0558014 0.312455
0.136428 0.147512 0.687141
0.00524797 -0.0414757 0.39129
-0.129689 0.149783 0.727753
-0.0451471 0.0888059 0.407946
0.0565316 0.112101 0.516879
-0.192999 0.094298 0.640741
0.0134206 0.00474741 0.0435743
0.0481062 -0.0970658 0.357118
-0.1941 -0.0027596 0.357118
0.146581 0.126085 0.642803
-0.0479598 -0.186256 0.39129
0.0173846 -0.00951338 0.320957
-0.188942 -0.0250303 0.357118
-0.0522446 -0.129013 0.0435246
-0.162287 0.120224 0.642397
0.204952 0.0867722 0.596737
-0.114903 -0.176148 0.33557
0.193783 0.017219 0.354303
-0.165295 -0.0750152 0.310707
0.2053 -0.0399612 0.320285
-0.137018 0.0239225 0.0120721
-0.103139 0.159696 0.696273
0.0736339 -0.0970664 0.357118
-0.0285568 -0.0568182 0.0428132
0.136603 0.102052 0.505268
-0.0219488 -0.013557 0.261843
0.0636754 -0.175365 0.309503
-0.16361 0.160851 0.768186
-0.0692525 0.118734 0.547846
0.0743292 0.118254 0.487294
-0.0516431 0.154572 0.413902
0.0823022 0.169829 0.751135
-0.0234974 0.153749 0.699477
0.132107 0.0109044 0.0278243
-0.192054 -0.136589 0.39129
-0.114276 -0.204191 0.0159463
0.146976 0.134654 0.701256
-0.0547412 0.142794 0.458835
0.154016 -0.171456 0.39129
0.0127736 -0.0896126 0.335077
-0.00915355 0.143177 0.469169
0.0402418 -0.0683163 0.287937
-0.126506 -0.191269 0.0164711
-0.100045 0.13162 0.482481
-0.0527345 0.155026 0.394686
0.00511056 0.122939 0.583377
-0.0364663 -0.106758 0.39129
-0.179431 0.105331 0.653466
0.0679487 0.104388 0.54541
0.180343 0.135808 0.731041
0.0980504 -0.0592085 0.39129
0.0579527 -0.093119 0.0275701
-0.136791 -0.237243 0
0.00406436 0.145674 0.640202
0.0394303 -0.18296 0.39129
0.174822 0.148963 0.73227
-0.0998156 0.12384 0.515906
0.0580358 0.10315 0.581983
-0.13863 -0.0387627 0.357118
-0.0364874 -0.259327 0.349736
0.0331898 -0.260419 0.366902
0.0951338 -0.0732815 0.29317
0.081012 0.105061 0.592685
0.0545928 -0.0350202 0.357118
-0.190872 0.00953288 0.39129
-0.125134 -0.106501 0.39129
-0.167343 0.125798 0.392972
-0.0428861 0.127446 0.522879
-0.000478689 -0.0481453 0.253019
-0.0210939 -0.0207389 0.147486
0.203041 0.107962 0.681568
-0.196246 -0.260971 0.35108
0.0165591 0.189023 0.757811
0.0268325 -0.0288719 0.324376
-0.0213377 -0.127667 0.357118
-0.0864805 -0.168227 0.39129
0.151151 0.114674 0.655892
1.14739e-05 -0.0530442 0.294872
0.0446805 0.116872 0.614013
-0.0275226 0.118069 0.566636
-0.115772 -0.0765946 0.39129
-0.148468 0.16498 0.740292
-0.0821868 -0.0926745 0.357118
0.195323 0.146349 0.774932
0.0754017 0.128865 0.395663
0.0685806 -0.0743027 0.310769
0.033727 0.0810874 0.370881
0.132493 -0.0470178 0.39129
-0.172143 -0.0131984 0.39129
0.0264702 -0.145297 0.344901
-0.0694158 -0.135365 0.39129
0.123615 -0.214238 0.357118
-0.152412 0.0582079 0.362149
-0.00990798 0.00286815 0.0171265
-0.0479347 -0.104039 0.0180076
0.155085 -0.253303 0.347275
0.0552811 -0.00954725 0.39129
-0.164313 -0.15722 0.357118
0.207309 -0.106655 0.373643
-0.0747717 0.15145 0.703178
0.0208606 0.139923 0.627831
-0.145008 -0.221303 0.0108997
0.172429 -0.0434713 0.326674
-0.152873 0.172089 0.761106
-0.0183939 0.130897 0.517864
0.0232413 0.112385 0.527284
-0.121005 0.0927233 0.576028
-0.0417654 -0.0044973 0.357118
0.0971736 0.122324 0.402085
-0.0447371 0.202328 0.760934
-0.105502 -0.199978 0.0310437
0.0222307 -0.0233465 0.108398
-0.169117 0.0114272 0.352121
0.129603 -0.235369 0.0208635
0.00691682 0.0237191 0.0408285
0.159535 0.116555 0.629498
-0.0752543 0.14139 0.456868
-0.0739483 0.135907 0.423318
0.0939242 -0.165513 0.0136776
-0.0728789 0.105224 0.592483
-0.0424063 -0.0180337 0.0147664
0.18699 0.1101 0.415757
0.0630771 -0.105092 0.013241
0.0743818 0.126284 0.605313
-0.20641 -0.112272 0.378487
0.190581 0.119006 0.695959
0.112168 -0.221657 0.331004
-0.0320305 0.0572751 0.395168
-0.0592956 -0.053234 0.357118
-0.0627367 0.202986 0.765148
-0.0329296 -0.169387 0.39129
-0.0863356 0.135308 0.667301
0.206649 -0.198489 0.362989
0.14082 0.0363441 0.0258828
0.0353148 -0.0733299 0.357118
-0.0319545 -0.032828 0.278718
-0.190462 0.144381 0.725295
-0.00858165 0.0213592 0.391466
0.129488 0.0125571 0.0123622
0.00508698 -0.10994 0.278854
0.115644 -0.173877 0.327053
-0.0139221 -0.00889869 0.185055
0.126284 0.0152707 0.0431905
-0.0623135 -0.135531 0.0297961
0.016831 0.141899 0.0362446
-0.110238 -0.166334 0.357118
0.154228 0.149351 0.705141
0.189618 0.0101691 0.339825
0.067083 0.127454 0.454552
-0.20527 0.133746 0.748255
0.163726 -0.0170541 0.338723
-0.0973017 0.163541 0.742081
-0.0316315 0.128724 0.461698
-0.0133067 0.158398 0.672325
0.0765762 0.0875176 0.375403
-0.0746094 0.0544053 0.395784
-0.0366772 -0.0549893 0.306258
-0.116013 0.114352 0.592361
-0.149333 0.105815 0.634768
0.206106 0.0532121 0.397958
-0.171678 -0.257182 0.372718
-0.126115 -0.187993 0.0316332
0.104396 0.150597 0.672769
-0.161638 0.10729 0.610525
-0.0209831 -0.0921586 0.335509
0.073325 -0.137324 0.0131848
0.0432163 0.144977 0.680365
0.0647293 0.206493 0.760251
-0.0553705 0.0518486 0.393615
-0.0673195 -0.0520587 0.297225
-0.0602538 0.167288 0.737155
0.147589 -0.197099 0.0162003
-0.0427481 -0.243417 0.349462
-0.0503304 0.103369 0.554992
-0.0446705 -0.0710685 0.31429
-0.0128779 0.173486 0.709836
-0.00493446 -0.0695069 0.271718
0.166116 -0.221481 0.0206452
0.140945 0.0881064 0.558979
-0.0990871 -0.207835 0.357118
0.0457877 -0.163039 0.357118
0.0949695 -0.0182197 0.39129
-0.177789 -0.231183 0.355206
-0.171092 -0.0584732 0.290425
0.116159 0.121644 0.473181
0.0370669 0.16146 0.404265
0.174285 0.0509517 0.402104
-0.133502 0.105125 0.578155
-0.193737 0.0239331 0.359014
-0.0209169 0.0281819 0.356734
0.00263571 0.16278 0.720946
0.0258958 -0.16912 0.357118
0.180147 0.107055 0.628136
0.0356591 0.140489 0.410457
-0.0188372 0.0295159 0.044194
-0.110605 0.0892697 0.411836
0.023157 -0.210171 0.39129
0.153481 0.0165886 0.368884
-0.0913803 -0.225549 0.356072
0.0523159 -0.077668 0.302443
-0.000557199 0.0161614 0.361756
-0.0125183 -0.0438734 0.2404
-0.194285 -0.00746242 0.332272
0.0371051 0.101358 0.57055
0.196247 0.108876 0.453523
-0.0650842 0.152823 0.667281
-0.0109642 -0.0453587 0.108342
0.0487722 -0.242165 0.385418
0.127922 0.0990604 0.600309
0.103365 0.120944 0.462346
0.161603 0.0102664 0.0370337
0.100426 0.115836 0.622819
0.199512 -0.183655 0.39129
0.155621 0.11405 0.407687
0.165795 -0.0508126 0.357118
-0.0630162 0.128504 0.45171
0.0540151 0.19374 0.762495
-0.17488 0.13974 0.737987
0.0672453 -0.0464089 0.39129
0.0569322 -0.0139397 0.0403614
0.120538 0.107016 0.568538
-0.00321399 0.0585459 0.0508397
-0.0181276 -0.0244534 0.39129
-0.0890078 0.112444 0.50546
0.0688512 -0.0567125 0.291015
-0.249572 0.0417408 0.0232546
0.0337106 0.166534 0.731327
0.0619901 0.0408756 0.356734
-0.0627356 0.118487 0.490936
-0.146858 0.120921 0.423613
-0.0569841 0.127333 0.641736
0.137668 0.102207 0.569036
-0.1183 -0.0454064 0.39129
-0.164458 -0.241988 0
-0.101416 -0.0400045 0.357118
0.11502 -0.229393 0.355363
0.0714241 0.127915 0.50987
-0.0563736 -0.0899688 0.0506852
0.0839136 -0.168894 0.339917
-0.0140894 -0.0137327 0.321686
0.0589948 0.0163266 0.362076
-0.125441 0.123927 0.622874
-0.12429 0.00630623 0.39129
0.0858063 0.205845 0.760375
0.0852288 0.125626 0.64221
-0.161702 0.113786 0.626329
0.152392 0.091848 0.530604
0.0541082 0.139932 0.466544
-0.167866 0.083325 0.552393
0.0877089 0.137472 0.411004
0.0881423 0.128436 0.61294
0.0481452 0.130183 0.446658
0.0684085 -0.11832 0.0312634
0.188109 -0.0753367 0.357118
-0.116216 -0.205717 0.328922
-0.0359969 0.126226 0.598535
-0.0643527 0.13254 0.435486
-0.0853251 -0.163614 0.340726
0.187356 0.0912396 0.584385
0.0635102 0.107851 0.596086
0.144996 0.0287479 0.391466
0.107416 0.189798 0.76755
0.206053 0.071462 0.395953
-0.0694397 -0.0744992 0.39129
-0.196112 -0.0784652 0.357118
-0.206486 -0.0842088 0.386748
0.00209671 0.126377 0.390476
0.00190887 -0.0993922 0.357118
0.187717 0.0947577 0.477907
0.13784 -0.202393 0.39129
-0.000888871 0.08853 0.0313865
0.0365718 -0.0515508 0.284576
-0.010488 -0.0320128 0.265103
-0.131124 0.099061 0.521632
0.0562614 0.116283 0.564635
0.0363932 0.117255 0.380531
0.1205 -0.20188 0.0140152
0.0690948 -0.152558 0.0312242
-0.0309275 -0.0733303 0.292868
-0.19574 0.0156201 0.373298
0.0148386 -0.0982154 0.39129
-0.0102308 -0.158816 0.33147
0.121017 0.00130759 0.357118
-0.0306281 0.12859 0.406338
0.195782 -0.0357067 0.357118
-0.0471461 -0.218709 0.357118
-0.191799 0.0885019 0.419473
-0.0113688 -0.0533883 0.39129
0.163973 0.0343828 0.0218697
-0.00482874 0.125547 0.543449
0.0281217 -0.139175 0.284022
-0.214107 0.0596159 0.0268321
-0.015108 0.103174 0.571388
0.101448 0.164302 0.744433
-0.0599352 0.0840099 0.406736
-0.103925 0.110535 0.612182
-0.112965 0.113526 0.388913
-0.118758 -0.245318 0.383508
0.055845 0.149502 0.69341
0.180121 0.0176154 0.0209574
0.0410191 -0.0267286 0.0456762
-0.184835 0.0943273 0.524669
0.0672472 0.133413 0.657365
-0.181707 0.131114 0.395416
-0.197526 0.0969397 0.613184
-0.190671 0.0865149 0.571053
0.0855904 -0.139905 0.39129
0.139037 0.151812 0.737761
0.0244148 -0.0752444 0.294935
-0.129786 0.060894 0.401649
0.021068 -0.0697625 0.0418951
-0.0815699 0.144132 0.687514
-0.114341 0.098265 0.588799
-0.0938611 0.118971 0.474796
0.0873871 0.113819 0.564191
0.0793731 0.0707969 0.402418
0.015464 -0.0413865 0.137741
0.0140824 0.0372773 0.0399107
0.102254 -0.18169 0.39129
0.0478235 -0.102951 0.304318
-0.000454044 0.113057 0.027502
-0.069129 0.0781966 0.371107
0.039091 -0.178615 0.327904
0.0669801 0.182426 0.764491
0.0244769 0.118923 0.564551
-0.0989227 -0.153149 0.0116655
-0.166018 -0.103493 0.39129
0.179047 0.107348 0.483542
-0.0411143 -0.0758107 0.273126
0.00752142 -0.0757624 0.39129
0.0568044 -0.143977 0.289241
-0.0791048 0.126484 0.514123
0.135645 0.0643608 0.403074
-0.0739988 -0.00832022 0.037445
0.0185455 -0.10807 0.338334
0.022245 0.133829 0.650089
-0.081856 -0.116697 0.044746
-0.242612 0.0394462 0.00349642
-0.195392 0.109562 0.448092
-0.057748 0.131279 0.395441
-0.197276 0.0821146 0.373099
0.0127837 -0.180304 0.294252
-0.149595 -0.0737559 0.357118
-0.0952257 -0.222191 0.391006
-0.0108036 0.112414 0.384459
0.156036 0.157437 0.72616
-0.116873 0.0158388 0.366836
-0.121183 0.0948205 0.551035
-0.148513 0.0941835 0.605928
-0.16921 0.124889 0.659067
0.150665 -0.0571606 0.319823
-0.144697 0.140941 0.679035
0.034552 0.160161 0.67832
-0.275568 0.0706767 0.00939915
0.207496 -0.174444 0.373572
0.050701 0.136252 0.481946
0.230665 0.0427183 0.0114251
-0.11107 -0.161853 0.331767
-0.0895517 0.148439 0.701355
0.00583346 -0.00877546 0.39129
0.193684 0.0555345 0.371763
0.059275 -0.0734236 0.0431254
-0.0923057 0.127261 0.649495
0.153488 -0.21531 0.357118
-0.11462 0.000727791 0.0455891
-0.188458 0.03705 0.0179905
-0.10831 -0.166388 0.036058
-0.117189 0.16179 0.71064
0.0751188 -0.150668 0.357118
0.0320052 -0.00808556 0.0191185
0.0363997 0.189473 0.750232
0.0498837 -0.16341 0.323444
-0.201494 0.0892281 0.59755
-0.0216598 -0.0228763 0.186982
-0.0120744 -0.0443143 0.147145
-0.0841082 0.135286 0.629462
-0.152091 -0.205918 0.0148202
0.0862607 0.127293 0.384793
