-0.113956 -0.0690596 0.373797
-0.194933 0.0776172 0.600531
0.0259084 -0.145112 0.273566
-0.0285766 -0.0732234 0.285499
-0.0566789 -0.159729 0.279588
-0.0313112 -0.0372051 0.301228
0.0768787 -0.178096 0.341151
0.223144 0.0340995 0.011955
-0.0696377 0.14632 0.391583
0.000378504 0.00161038 0.341151
-0.18425 0.123689 0.737961
0.140132 -0.220703 0.00886717
0.070641 -0.0565332 0.373797
0.0536299 0.160083 0.703816
-0.1488 -0.218123 0.022552
-0.172482 0.0853756 0.367875
-0.00969643 0.103941 0.561156
-0.0792914 0.145038 0.378025
-0.0729234 0.0176391 0.340779
0.0792519 0.178551 0.786851
-0.084524 -0.00408118 0.0150418
-0.195246 -0.0230017 0.318006
-0.0854542 0.0151513 0.365909
-0.0852235 -0.244614 0.357119
0.107907 -0.0866006 0.373797
-0.0463923 0.039283 0.340779
0.0371585 -0.126024 0.270217
-0.115854 -0.16585 0.314218
0.118033 -0.0661833 0.373797
-0.167142 0.0980204 0.436575
0.123922 -0.192891 0.00970509
0.1499 -0.00394264 0.317844
0.218476 -0.0121877 0.509287
-0.122982 -0.0105812 0.373797
-0.0753938 0.132157 0.669987
0.232751 0.0160084 0.503915
-0.0576936 -0.083022 0.0346426
0.198176 -0.114174 0.360649
-0.117867 -0.200317 0.0136455
-0.195471 0.104533 0.392852
0.062059 -0.118093 0.0216601
-0.23843 0.0372032 0.519228
-0.216833 0.0629993 0.386723
0.00425666 0.17757 0.0153322
-0.175814 -0.119362 0.373797
0.027553 -0.0823608 0.0375704
-0.188758 -0.06537 0.301195
0.163552 0.0411992 0.347112
0.0672517 -0.103154 0.016261
-0.144153 0.109224 0.370434
-0.19509 -0.243357 0.356079
-0.107988 0.0244953 0.37396
0.0677244 0.132968 0.449541
0.126375 0.125615 0.38485
0.0130369 0.0398546 0.0373847
0.0345205 -0.0594796 0.0395722
-0.0161098 -0.077326 0.26155
-0.160671 -0.156836 0.373797
-0.179625 0.0879157 0.569411
0.122473 0.0963315 0.398089
0.0417295 0.016245 0.353318
-0.133329 -0.228946 0.0225796
-0.0681753 -0.176731 0.341151
0.00298823 -0.190948 0.373797
-0.106509 0.114262 0.375316
0.118799 0.119704 0.468427
0.0102749 -0.00801067 0.014201
0.025285 -0.0151715 0.255744
0.105056 -0.167969 0.31821
-0.188261 0.132179 0.735371
0.0196931 -0.114159 0.341151
0.080579 0.114071 0.609285
-0.0475534 -0.0804189 0.0141484
-0.0023564 -0.0455455 0.373797
0.02553 -0.0518022 0.257113
0.103731 0.162453 0.789727
0.156598 -0.216729 0.00960149
0.118238 0.0103232 0.0119721
-0.179758 0.139023 0.787415
-0.189964 0.00240011 0.341151
-0.143261 -0.247789 0.0228522
0.100769 0.167272 0.747566
-0.133598 0.0966202 0.597616
0.152661 0.107538 0.645458
-0.000856697 0.0340388 0.0380575
0.113888 0.168707 0.763731
0.0232869 -0.048364 0.256503
0.150611 0.120186 0.636877
0.216371 -0.103944 0.52651
0.135638 0.122357 0.388979
-0.0119777 0.139035 0.628013
0.065088 0.146468 0.38756
0.107094 -0.0732738 0.373797
-0.114733 0.111316 0.577812
-0.0926809 -0.16848 0.373797
-0.111156 -0.188857 0.00996578
0.138431 -0.199659 0.341151
-0.120843 0.187208 0.788228
0.0977428 -0.112565 0.341151
-0.196841 0.0450061 0.357663
0.0935928 0.114233 0.515857
0.0137012 -0.0406231 0.0893686
-0.123502 0.10536 0.615513
0.0178019 0.115719 0.370955
-0.0365435 0.0155719 0.342184
-0.000777878 0.195209 0.787937
-0.0629885 -0.0158761 0.373797
0.0960972 0.122753 0.594307
-0.0121479 -0.0532823 0.0271973
0.226626 -0.0712602 0.515005
0.244205 0.0779914 0.00589694
0.143746 0.0396389 0.348097
0.0414143 -0.248672 0.336276
-0.0401428 0.00851951 0.0480751
-0.0197035 -0.0288889 0.16635
0.032757 0.0676004 0.349759
-0.0171947 -0.0588516 0.0411459
-0.0414912 -0.0945057 0.321671
0.105447 0.128412 0.39425
-0.0728667 -0.139808 0.0255867
0.199072 -0.117096 0.344337
0.047235 -0.0348499 0.341151
-0.0670967 -0.108857 0.030108
-0.216968 0.0876722 0.403499
0.0382835 0.112904 0.477449
-0.142387 -0.197178 0.373797
0.144211 -0.241844 0.358055
0.132235 -0.0690503 0.341151
-0.0210825 -0.131035 0.271012
0.0591065 -0.0766358 0.373797
0.0370548 -0.0116234 0.341151
-0.195063 0.0878341 0.361019
0.162235 0.152575 0.755182
-0.180066 0.0924464 0.584612
-0.0852347 0.0958898 0.556032
0.00769293 -0.203234 0.373797
-0.0767093 -0.162028 0.373797
0.00276557 0.152449 0.721674
0.00760299 0.10613 0.0266513
0.18888 0.131586 0.760205
0.118864 -0.160203 0.316513
-0.196849 -0.0389327 0.368945
0.194324 0.131241 0.758375
-0.0135174 -0.0350498 0.0864246
0.0557928 0.113575 0.531082
-0.0356748 -0.0118943 0.0411995
0.0649105 -0.0862846 0.373797
-0.0639122 -0.0860701 0.0457062
0.177281 0.0670994 0.39216
-0.140779 -0.0682738 0.300306
-0.0071112 -0.0436714 0.132365
0.00657755 0.219126 0.00881063
0.198182 0.0683179 0.363936
0.17451 -0.0868632 0.341151
0.0282963 -0.0580734 0.3013
0.00271542 0.0127715 0.0414306
0.163346 0.0914402 0.603353
0.0500395 0.178667 0.781087
0.013301 0.248993 0.0159767
0.0826617 -0.108544 0.373797
0.150559 0.0573721 0.356545
0.13803 0.0248137 0.0241745
0.114296 -0.221603 0.371571
-0.0399256 -0.167403 0.334526
-0.0911151 -0.226318 0.336987
-0.128031 0.0146527 0.0259845
-0.0558508 0.124175 0.428098
0.258906 0.0115 0.524994
-0.171144 0.0780478 0.512875
-0.0945524 0.0150731 0.346181
0.136439 0.0951877 0.491608
0.160709 0.113448 0.431731
0.106837 -0.179683 0.0315023
-0.170005 0.0372289 0.347397
-0.181862 0.0249518 0.343721
-0.0705749 -0.169833 0.373797
-0.0610001 -0.137697 0.373797
0.117809 0.158567 0.732815
0.0656401 -0.154761 0.341151
0.197189 0.000644028 0.368988
0.00613067 0.0975671 0.0258901
-0.151673 -0.252418 0.340392
0.00723296 -0.0439538 0.178714
0.122716 0.0110593 0.0118548
0.145121 -0.226166 0.0228522
0.0928666 0.109177 0.373454
0.014605 -0.0603449 0.373797
0.196892 0.0512147 0.383122
-0.17832 -0.0682165 0.277426
0.148705 -0.212776 0.00526858
-0.106361 -0.111609 0.341151
0.0575413 -0.0995131 0.0463538
-0.122535 0.154738 0.779047
-0.123869 0.104599 0.519408
0.189643 -0.0582802 0.292926
-0.145275 0.118629 0.374894
0.168109 0.0510275 0.351645
-0.00432874 -0.0518942 0.0153802
0.132636 -0.213588 0.0107077
0.10782 0.0201164 0.37396
0.00736985 -0.126331 0.327356
0.020998 -0.211503 0.340649
0.0455436 0.0749132 0.38534
-0.0234112 -0.109073 0.373797
-0.163582 -0.0222946 0.373797
0.0430815 0.123744 0.388916
0.0805262 0.116743 0.375611
-0.142973 0.106663 0.373103
0.0565076 0.145906 0.658952
0.111896 0.147088 0.68889
-0.11222 0.0808233 0.3601
-0.143176 -0.152781 0.341151
-0.0124562 -0.21872 0.37265
-0.181452 0.10151 0.624802
-0.146263 0.12632 0.659541
0.164796 -0.0179127 0.373797
-0.110655 0.143703 0.730953
0.0892896 -0.154902 0.0116894
0.198323 -0.0301028 0.356916
-0.116535 -0.182715 0.0100149
0.100026 0.138581 0.401466
0.197316 -0.0141509 0.356895
-0.118589 -0.179979 0.0154705
-0.216572 0.081621 0.386816
0.0937922 0.111955 0.464174
0.0580281 -0.0582128 0.276427
0.0804995 0.119465 0.398311
-0.096864 0.107094 0.596475
0.0831029 -8.70805e-05 0.341151
-0.0283702 0.074308 0.385307
-0.0665978 -0.0488646 0.28699
0.197866 -0.0781381 0.356787
0.198735 -0.179105 0.341636
0.198689 -0.173796 0.348006
-0.0230438 0.159437 0.697526
-0.0974684 -0.184379 0.0313593
0.0934127 0.0812082 0.390458
-0.109774 0.00486898 0.373797
0.11383 0.113884 0.499054
-0.152611 -0.172201 0.373797
0.217165 0.0208593 0.469637
0.0610705 0.147389 0.394979
-0.139086 0.136337 0.732569
-0.0198383 -0.0254172 0.0881442
-0.0196556 -0.0191708 0.106427
-0.028295 -0.0303883 0.0416237
0.0153806 -0.00928896 0.117228
0.179222 0.101041 0.65062
0.0904306 0.134141 0.38123
-0.0875752 0.150352 0.737432
-0.257711 -0.0482433 0.520257
-0.084072 0.00699088 0.047037
0.108926 0.0447244 0.343762
-0.103586 -0.202022 0.0191437
0.0401552 0.167355 0.79291
-0.0333123 -0.172122 0.302856
0.0343498 0.139439 0.381504
-0.163684 0.0911259 0.505025
0.196634 -0.0361157 0.30912
0.157915 -0.17126 0.341151
0.232197 0.0803374 0.416715
0.00556403 0.136539 0.45027
-0.0210731 -0.0537145 0.0157062
0.0793367 -0.146177 0.038359
-0.216811 0.0588816 0.383883
-0.14917 -0.238222 5.66317e-18
-0.0424204 0.123008 0.394896
0.0434121 0.205397 0.782463
0.013205 -0.0692778 0.0524066
0.0529063 -0.0837621 0.0282524
0.222882 -0.049823 0.513126
-0.232557 0.0637482 0.459467
0.0295872 0.101752 0.527403
-0.196776 0.084547 0.402605
-0.00926768 -0.00516953 0.115252
-0.195688 -0.17391 0.363552
0.136181 -0.202264 0.0118155
0.0154581 0.136718 0.386872
0.175381 0.0831864 0.58824
-0.0974567 -0.164268 0.0201709
0.154829 0.139022 0.702657
-0.177346 0.131423 0.720408
0.00772827 0.191115 0.784528
-0.144235 0.11928 0.375435
0.266963 0.0643412 5.68239e-18
-0.0183638 -0.0141801 0.135587
0.198784 -0.184796 0.341245
0.0105903 0.00288681 0.0162522
-0.0173194 -0.00761404 0.296651
-0.0961543 0.124978 0.370809
0.00453643 0.138897 0.406443
0.0849072 -0.145472 0.341151
-0.216544 0.0805459 0.427302
0.232383 0.0587053 0.416014
0.0508937 0.0964444 0.394248
0.121495 -0.033163 0.341151
-0.0221405 0.23353 0.00634707
0.165029 -0.206819 0.373797
-0.17434 0.0847404 0.525315
-0.185641 0.0701596 0.554016
-0.0565365 -0.0727581 0.282863
0.155025 -0.235021 0.364393
-0.162376 0.113487 0.382866
-0.13687 0.118999 0.673842
-0.144434 0.172848 0.787517
0.0330104 -0.145411 0.273629
-0.104252 -0.159747 0.0341764
0.155775 0.0394419 0.0348218
-0.182284 -0.0468166 0.373797
0.21665 0.100004 0.392204
0.0171916 0.0408407 0.37396
0.0133257 0.103543 0.0406119
-0.0604998 -0.23351 0.333369
0.0844524 -0.192351 0.341151
0.104674 0.00934825 0.0299617
-0.254311 -0.0253337 0.521651
-0.150644 -0.0337856 0.373797
-0.057084 0.0564174 0.378964
0.0609307 0.100865 0.520891
0.0356669 -0.0349806 0.0524906
-0.227833 0.0202834 0.462334
0.176403 0.0143065 0.336818
-0.141912 0.0829027 0.362941
-0.0337424 0.182129 0.790193
-0.232427 0.0486086 0.422068
0.0351668 0.162784 0.708348
0.122777 -0.0079346 0.341151
-0.0181974 -0.0135375 0.189206
-0.187768 -0.0573709 0.373797
-0.147667 -0.0413095 0.312744
-0.196566 0.130484 0.748583
-0.0293991 -0.0221759 0.0388883
-0.0122563 -0.0492187 0.293913
-0.0126132 -0.162589 0.307616
0.249594 -0.0961222 0.517197
0.189612 -0.00883509 0.373797
-0.0706396 -0.247169 0.353969
0.145788 -0.147214 0.341151
-0.195091 -0.243208 0.350576
0.114045 0.152473 0.758536
0.0228871 -0.0525105 0.014201
-0.170657 -0.238333 0.364031
0.113361 0.0849468 0.393042
0.0889244 0.115753 0.569428
0.00309198 0.201588 0.0115267
-0.0873653 0.11066 0.604417
-0.142064 0.165485 0.78882
0.148154 0.137233 0.690212
0.134579 -0.222981 0.0048969
0.136312 0.106547 0.626069
0.056995 0.116585 0.564942
-0.0467488 -0.155827 0.275345
0.168648 0.0871164 0.490877
-0.147752 0.0543312 0.351861
-0.175014 -0.206326 0.373797
-0.0766772 0.0730099 0.386802
0.125961 -0.196002 0.0135756
-0.141709 0.0971443 0.556561
0.112854 0.139722 0.714381
-0.180355 0.143305 0.763392
-0.196254 0.0942365 0.374597
0.198521 -0.154211 0.363512
-0.0167749 -0.140419 0.373797
-0.196932 -0.0293223 0.350349
-0.258105 -0.0024383 0.517185
-0.19462 -0.196713 0.341316
0.185871 -0.0482491 0.282189
0.0163343 0.114812 0.0372117
0.106246 -0.0721917 0.285976
-0.0909531 -0.0606513 0.341151
-0.177944 0.109012 0.636294
-0.0226325 0.115856 0.530934
0.124081 -0.189394 0.341151
-0.142728 -0.0956804 0.373797
0.230639 0.0337195 0.510619
0.062525 -0.16862 0.283108
0.106647 0.0857407 0.392991
0.0791639 0.101917 0.569952
-0.0237532 0.113748 0.401255
0.0100824 0.0151624 0.341151
0.0187561 -0.14119 0.272863
-0.00869785 -0.0152392 0.0416237
-0.104098 0.141409 0.717196
-0.0816059 0.135216 0.683292
-0.00182137 -0.00157371 0.274925
-0.196521 0.125258 0.745112
-0.0479002 0.122742 0.436622
-0.000313652 -0.00841939 0.0554982
-0.0468089 0.121011 0.501181
-0.0730299 0.0778663 0.356278
-0.17783 -0.188226 0.373797
0.216223 0.0589796 0.416142
0.178858 0.124533 0.690248
-0.186335 0.0260191 0.0306837
0.174273 0.106846 0.401756
-0.159093 -0.0484308 0.373797
0.0599077 0.0164013 0.346921
0.0767771 -0.165418 0.373797
0.19669 0.0747312 0.368216
0.192021 0.101472 0.666652
-0.168388 0.121003 0.713631
-0.15452 0.137054 0.751009
0.00385564 0.082422 0.0123896
0.122845 -0.178001 0.320747
0.0888558 0.154066 0.746332
0.166151 0.0833113 0.579533
0.0675117 -0.0264622 0.373797
-0.0765747 -0.143576 0.0139744
-0.195723 -0.169876 0.342161
-0.011321 0.210424 0.0241551
0.0140648 -0.0402532 0.108566
-0.180102 0.0674892 0.39384
0.16113 0.161837 0.790006
0.0527252 -0.192169 0.373797
0.228057 0.0664338 0.467819
0.0563932 0.00427776 0.051516
0.121298 0.159715 0.790236
-0.0847185 -0.15929 0.326275
-0.238309 0.0139466 0.526948
0.0301117 -0.0651508 0.277085
0.262953 0.0576232 0.0215577
-0.247794 0.0558527 0.0228522
0.0517599 0.128058 0.367567
-0.0934976 -0.156541 0.0355791
-0.192197 0.0727982 0.543373
-0.114525 0.168296 0.78485
0.0470179 -0.0935052 0.0481101
-0.0338674 -0.191484 0.341151
-0.0768263 -0.07381 0.291696
-0.0394399 -0.0865867 0.0355236
-0.00628097 0.0223273 0.0344964
-0.0796082 0.0010749 0.0339456
0.24919 0.0791414 0.0133246
-0.0142907 -0.0175965 0.0881442
0.0120745 -0.00603897 0.104241
0.134753 0.113631 0.599774
0.217833 0.0152109 0.482335
0.0567168 -0.243276 0.332293
-0.171895 0.136752 0.770419
-0.00640546 0.036794 0.0191303
0.173856 0.0737575 0.538723
-0.0438301 -0.167854 0.3346
0.181524 0.0547053 0.344446
0.171878 -0.0624855 0.341151
0.084421 0.0221784 0.0438387
-0.0550863 0.154598 0.736256
0.00636122 0.137664 0.672046
0.151261 -0.247024 4.89423e-18
0.12276 0.0922134 0.565796
-0.115958 0.15641 0.778624
-0.000730129 0.0485246 0.0357635
0.014725 0.168796 0.77695
-0.0621202 -0.230096 0.368856
0.243046 -0.0968983 0.51726
-0.174552 0.104424 0.3685
-0.0575894 -0.157911 0.341151
-0.0280201 -0.0796917 0.261949
0.146405 -0.0614454 0.302414
0.139894 0.11316 0.370588
0.19901 -0.211136 0.352177
-0.142876 -0.0386796 0.305375
0.142495 -0.215708 0.00950894
0.1402 0.147228 0.715051
-0.159755 0.127511 0.725424
-0.0945896 -0.0505549 0.295663
0.151628 -0.157278 0.373797
0.0621511 -0.0908521 0.373797
0.0817967 -0.0823324 0.373797
0.187096 0.151432 0.779669
-0.133192 -0.237393 0.36447
-0.00953256 -0.00524291 0.180827
0.182245 0.0870341 0.514876
-0.219946 0.0895751 0.40719
0.146742 -0.212713 0.0140132
-0.00225639 0.117659 0.371501
0.106705 0.13744 0.701357
0.121681 0.133984 0.653438
0.231416 0.0168293 0.510625
0.240955 0.0519873 0.0228522
0.0393322 -0.0907585 0.264002
-0.167278 0.133027 0.752454
-0.184029 0.0713806 0.521501
0.0373149 0.140163 0.37234
0.2161 -0.0724295 0.521452
-0.114826 -0.251305 0.346652
0.0967018 -0.0387773 0.373797
0.0299914 -0.0767692 0.373797
-0.0221497 -0.239842 0.362048
-0.124366 0.0148167 0.342339
-0.194559 -0.203835 0.360777
0.178302 0.0196664 0.0192393
-0.0443605 0.202008 0.786672
-0.133637 -0.243585 0.0208935
0.215395 0.0591768 0.477849
0.136601 0.101348 0.559256
-0.174537 -0.191633 0.341151
-0.114709 0.168944 0.770097
0.150948 0.154233 0.788761
0.0549346 -0.123557 0.0305641
-0.17632 -0.11951 0.341151
-0.0189738 -0.0165371 0.0993239
0.17249 0.0135075 0.0246577
-0.011399 -0.155505 0.332471
-0.0451442 0.133819 0.451788
-0.0906379 -0.16715 0.310459
-0.0830658 -0.223308 0.371568
0.0137829 -0.0276625 0.0881442
-0.0492316 -0.0904904 0.0481671
-0.0141293 -0.00565039 0.264223
-0.223976 0.0150748 0.474106
0.113567 -0.152285 0.341151
0.166331 0.142449 0.72583
-0.196284 0.09773 0.371149
0.12989 0.103381 0.609368
-0.0330411 0.166818 0.723173
-0.0279026 -0.101482 0.373797
-0.181277 0.0788194 0.49483
0.0364451 -0.171522 0.29172
0.183696 0.10741 0.430586
0.00551247 0.169493 0.0121911
-0.108495 -0.142677 0.341151
0.139433 0.0701659 0.388699
-0.166215 -0.0800243 0.341151
0.196971 0.0420433 0.369764
-0.195281 0.082426 0.602839
0.0101112 -0.0242707 0.252235
-0.0575084 -0.0943715 0.0195739
-0.144699 -0.231865 0.334499
0.0201023 -0.16451 0.373797
-0.194836 -0.0705641 0.291263
-0.024637 -0.0797109 0.373797
-0.00920768 -0.167347 0.334563
0.00661456 0.0412672 0.0292377
0.220371 -0.0286662 0.526948
0.219071 0.0127571 0.48787
-0.122307 0.131675 0.701177
-0.167675 0.130295 0.726765
0.0469299 0.167942 0.774899
0.0940037 0.0119357 0.045482
0.200087 -0.234944 0.343463
-0.13031 0.131852 0.390976
-0.153855 0.0843902 0.517444
-0.177687 0.0901661 0.497303
-0.155062 -0.193287 0.341151
0.133596 0.046662 0.379072
-0.129216 -0.0743572 0.286499
-0.216184 -0.0182963 0.509631
0.199575 -0.175554 0.351225
-0.0320121 -0.156526 0.326351
-0.192185 0.10327 0.368041
0.0870675 0.156638 0.704613
-0.135682 0.00623378 0.341151
0.228747 -0.0429852 0.512533
0.142752 0.155362 0.744179
-0.232086 0.00891917 0.499703
0.122816 -0.206832 0.341151
0.0922439 0.121338 0.637315
-0.143411 0.0955865 0.552537
0.0265216 0.0161142 0.36136
-0.181024 0.068241 0.541461
-0.17635 0.0788575 0.584449
0.0194139 -0.0730248 0.0527366
-0.144224 0.0962288 0.555907
0.133895 0.0475795 0.379457
0.101046 0.143995 0.718651
0.0441818 -0.0745656 0.0507888
0.00050661 -0.0730994 0.291867
-0.0255337 -0.0621509 0.0399534
0.0705657 0.138729 0.37378
0.142861 0.101612 0.401314
0.144946 0.0957484 0.504736
-0.141298 0.0976864 0.558783
0.149691 -0.181959 0.341151
0.00692463 0.119989 0.361699
-0.0925732 0.0150901 0.353809
-0.20153 0.0455244 0.0274592
0.109602 0.118682 0.591453
0.108684 0.0912893 0.363589
0.0281846 0.1354 0.666009
0.133134 0.14512 0.750128
0.191462 -0.0448917 0.29902
-0.102615 0.0906428 0.363648
0.0481684 0.0978539 0.394664
-0.000707399 0.145098 0.405354
-0.0429427 -0.126424 0.373797
0.191356 0.104567 0.627086
-0.00931369 0.115863 0.370752
-0.178663 0.129902 0.706443
-0.216432 0.0596872 0.413039
0.137504 0.0950524 0.589645
0.196939 0.0457947 0.356463
0.190793 0.108791 0.650569
-0.00986369 -0.00949014 0.0594546
-0.052216 -0.000580601 0.0214757
0.19143 0.0745898 0.509494
-0.0133729 -0.0843829 0.373797
0.053929 0.0144372 0.341151
-0.163487 -0.198954 0.341151
-0.125318 -0.183474 0.373797
0.197781 -0.0681988 0.364395
-0.127893 -0.234195 0.0197664
0.100765 0.00213831 0.341151
-0.143618 0.127409 0.394936
0.198337 -0.132906 0.371432
0.0972599 -0.226901 0.369566
0.200114 -0.238184 0.356544
-0.237659 -0.112698 0.526948
-0.184671 -0.0199869 0.322606
-0.0121331 -0.0501446 0.0416237
-0.123704 0.0999529 0.400418
-0.00616276 0.0125681 0.047369
0.0333015 -0.0223051 0.0554982
-0.177336 0.026479 0.0320211
0.00288021 -0.0494499 0.0416237
-0.110312 0.0894964 0.537275
-0.005869 0.108021 0.398874
-0.0574523 0.13361 0.448069
0.0821048 0.119571 0.438601
-0.0284197 0.159786 0.699147
-0.195413 0.0977573 0.413891
0.00993545 -0.0209717 0.0881442
-0.0656331 -0.0974254 0.0457641
-0.0610385 0.00703027 0.341151
-0.17617 -0.0360219 0.304503
0.144167 -0.155825 0.373797
-0.255734 -0.0212163 0.526948
-0.0506689 0.114248 0.52649
0.181314 0.14251 0.792314
0.128831 -0.242083 0.35793
0.0219137 -0.0533771 0.0416237
-0.187957 0.0970737 0.657152
0.193992 -0.212274 0.37323
-0.07369 -0.225871 0.370539
0.0759091 -0.114857 0.0281227
0.0712184 0.0981968 0.364366
-0.00174414 -0.168796 0.341151
-0.0146163 -0.0105709 0.0554982
0.029408 -0.0228462 0.265131
-0.0643397 -0.038922 0.341151
-0.183392 0.136404 0.733816
0.0367421 0.141467 0.372905
-0.0469621 0.110148 0.591493
-0.130683 0.028563 0.0389687
0.0212058 -0.00901116 0.256031
-0.142603 -0.0703293 0.280751
0.109237 0.136371 0.650344
0.0196817 -0.118126 0.341151
0.181952 0.023368 0.0177311
-0.044888 0.0251534 0.37396
0.0576118 0.0981045 0.533907
-0.0606451 0.139043 0.425681
-0.142172 0.0835252 0.563328
-0.0777765 -0.158254 0.32168
-0.0516446 -0.135414 0.327647
0.14914 -0.238618 0.361796
-0.0754893 -0.12847 0.0268073
-0.0490579 0.187561 0.785068
0.216297 0.0811204 0.434607
0.26562 0.0645429 0.0180961
-0.0144196 -0.0860994 0.320229
0.00747502 -0.063445 0.276575
0.0935654 -0.0949016 0.341151
0.107435 0.180232 0.786597
-0.157644 0.138513 0.75924
-0.0727959 0.126668 0.469521
-0.00840673 -0.226753 0.369978
-0.0413662 -0.0680773 0.299868
0.114891 0.019049 0.0279398
-0.22769 0.0920157 0.401559
-0.159333 0.0823881 0.364678
0.194452 -0.0166059 0.32266
-0.056123 0.110429 0.54081
0.144661 -0.197409 0.0117609
-0.136559 0.033901 0.375374
-0.18776 0.0988847 0.623904
0.198678 -0.0713098 0.363386
0.0922082 -0.0962231 0.373797
-0.00119964 0.120494 0.519828
0.136147 0.134634 0.379807
-0.0456237 -0.106333 0.268122
0.00158267 0.136099 0.666664
0.00263452 -0.0452278 0.243737
-0.100313 0.123195 0.381291
-0.132767 0.10947 0.373632
0.216164 0.0829834 0.41586
0.100472 0.0167502 0.344954
0.106439 0.0943209 0.528602
-0.0965112 0.107899 0.473426
0.185154 -0.107495 0.341151
0.179941 -0.0632851 0.373797
0.178903 0.121525 0.715741
-0.117536 -0.193574 0.028593
0.00137572 0.135866 0.454465
0.107883 0.0931424 0.532058
0.119754 -0.185793 0.0154602
-0.0221116 0.13859 0.43998
0.132326 0.126577 0.639725
-0.15698 0.0312354 0.34584
0.0231168 -0.00102267 0.04968
0.0119369 0.200986 0.0119575
-0.1962 0.0879764 0.623153
0.223292 0.0496951 0.404994
-0.0531017 -0.0908055 0.0337229
-0.189854 -0.0347842 0.305121
0.101012 0.0991863 0.567126
-0.253216 -0.104164 0.526948
0.198416 -0.0409085 0.371263
0.198832 -0.190375 0.367887
-0.0147049 -0.00991792 0.0993011
0.198432 -0.143932 0.344711
0.0562844 -0.140888 0.280365
0.199661 -0.185463 0.349643
0.120023 -0.0490676 0.373797
0.198434 -0.14413 0.35037
-0.0308962 -0.0635356 0.0392816
-0.159654 -0.0871599 0.341151
0.16614 0.133265 0.717058
-0.160793 0.0742184 0.540637
0.149816 0.136343 0.381774
0.198968 -0.206169 0.372831
-0.0359851 0.12158 0.44555
0.194846 0.0705236 0.537452
0.187485 0.0724893 0.395424
-0.0982754 0.126637 0.455017
0.191652 0.00233981 0.373797
0.0534175 -0.0844531 0.0251304
-0.257875 -0.0291467 0.519336
0.145712 0.0994864 0.612256
-0.0583376 -0.109743 0.341151
-0.0959934 0.162812 0.734246
-0.0204162 -0.0221093 0.222198
-0.257437 -0.0801543 0.519126
-0.223558 0.0876697 0.4114
-0.185206 0.0757753 0.366249
-0.00286202 -0.0447707 0.184539
0.0315509 0.120333 0.448297
0.0975378 0.00472869 0.341151
-0.023346 -0.0400167 0.0231497
-0.0708939 0.0491586 0.376923
0.0269978 0.155312 0.38572
0.184897 0.137521 0.775761
0.149373 -0.238163 0.0228522
0.00465742 -0.157215 0.275667
-0.0390108 0.135766 0.370647
0.234565 -0.0909674 0.526948
-0.16367 0.0901401 0.530924
-0.037744 0.127359 0.596967
0.236791 0.00529415 0.526948
-0.195739 -0.0666352 0.364259
0.181503 0.10702 0.391602
-0.0340518 0.115416 0.604773
-0.0683956 0.131858 0.370799
0.0514254 -0.17057 0.315935
-0.0677003 -0.220925 0.339254
-0.119198 -0.134075 0.373797
0.0901383 0.148341 0.727583
0.152043 0.0879699 0.365128
0.19727 -0.00882123 0.359581
-0.227806 0.0420768 0.00175492
0.197284 -0.156751 0.373797
-0.19555 -0.189916 0.361362
0.0666105 -0.0769726 0.341151
-0.0640904 0.0153351 0.357962
-0.0427465 -0.0836077 0.049651
0.00286415 -0.0535251 0.314512
0.195147 0.136759 0.745616
0.0823332 -0.12806 0.0263362
-0.196268 -0.00513102 0.35507
-0.141957 0.154869 0.794835
0.129676 0.170607 0.783776
-0.164602 -0.248919 0.016878
-0.077067 0.160957 0.767686
-0.116507 0.0998802 0.368488
0.175083 0.098732 0.59087
0.175287 0.128924 0.739806
0.184143 0.0911997 0.619456
-0.139203 0.126151 0.699549
-0.0346648 -0.013947 0.0160735
-0.0438829 0.127568 0.419262
-0.19706 -0.0143996 0.370756
-0.185359 0.148218 0.791799
0.217137 -0.0212776 0.512353
0.12943 0.107672 0.507935
-0.100138 -0.15412 0.0193256
0.103573 0.0531544 0.347045
-0.114783 0.0594227 0.383731
0.0422707 0.116053 0.559847
-0.255634 -0.063468 0.526948
0.251696 0.00815275 0.510625
0.0115928 0.24985 0.00618802
-0.229909 0.0404367 0.0065292
-0.0498766 0.150269 0.385824
-0.00670789 0.110714 0.0259058
0.162932 0.103519 0.430045
0.12319 -0.0510246 0.298005
-0.258075 -0.00595577 0.523661
0.0101816 -0.0275731 0.0881442
0.167281 -0.147569 0.341151
-0.140937 -0.212175 0.00999452
-0.232448 0.0510833 0.464323
-0.195793 -0.0603229 0.366383
-0.0170356 -0.0360123 0.220692
0.101726 0.00260687 0.373797
-0.0868248 -0.147245 0.0233439
-0.0172694 -0.0161242 0.014201
-0.0014245 0.147436 0.0200971
-0.00944816 -0.0676242 0.277788
-0.159011 0.137333 0.756937
-0.0799992 -0.152323 0.31601
-0.138823 0.090285 0.582458
0.238084 -0.0210973 0.520219
0.194611 0.0978897 0.451629
-0.0327663 -0.0837256 0.341151
0.100856 0.0109439 0.030455
0.189299 -0.0136383 0.324033
-0.234464 -0.1118 0.518204
-0.167843 -0.093992 0.341151
-0.00340362 -0.170259 0.341151
-0.235802 0.0348118 0.521411
-0.0393473 0.139865 0.43032
0.21609 -0.0712302 0.51895
0.0229456 0.145171 0.408943
-0.017117 -0.0123727 0.232936
0.175594 -0.0710114 0.283272
-0.0381425 -0.0249881 0.0465257
0.0569645 0.016376 0.343204
0.232167 0.0837758 0.415043
0.179663 0.10349 0.366684
-0.149427 0.119641 0.375336
-0.102559 -0.0765044 0.341151
-0.163716 0.0259577 0.343461
0.198291 -0.02633 0.359282
-0.232629 0.072185 0.392516
-0.0115072 -0.158711 0.275907
-0.195708 -0.0956534 0.341151
0.0903227 0.0529211 0.378996
-0.093244 0.113138 0.514809
0.0267654 -0.050469 0.0443821
-0.0466408 -0.111246 0.309343
-0.0634546 0.144602 0.706548
-0.0979249 -0.070314 0.279715
0.173664 -0.22285 0.0106772
-0.026651 0.161736 0.754951
-0.15331 0.0290599 0.0355273
0.0432657 0.0599431 0.379243
-0.0608058 -0.132188 0.341151
0.0670264 0.145743 0.660788
-0.114176 0.150261 0.706695
-0.0056922 0.03688 0.340779
-0.0106747 0.254402 0.0076038
-0.0246671 0.00140387 0.341151
0.0845094 0.113448 0.374525
-0.0654808 0.137622 0.429448
0.194602 0.0988976 0.648647
-0.0285006 0.148828 0.385303
-0.105332 0.0256347 0.340779
-0.248059 0.0234934 0.526252
-0.020142 -0.145403 0.341151
-0.171598 0.064641 0.391732
0.103031 0.107412 0.547037
0.197113 0.00946417 0.353346
0.00625294 0.0833419 0.023028
0.169004 0.0860884 0.591434
-0.103337 0.107457 0.532122
0.14689 -0.213975 0.0093156
-0.0526514 0.104449 0.50629
-0.225934 0.0796195 0.429433
-0.0517326 -0.0673359 0.300352
0.0876526 0.127679 0.607426
-0.00129533 0.0126107 0.0442179
-0.0729708 -0.0204814 0.0448314
-0.0509799 -0.0153125 0.373797
0.0184474 0.148547 0.389246
0.235957 0.0508992 0.0228522
-0.0128188 0.11541 0.55124
-0.101425 0.141627 0.381886
0.0671686 0.145086 0.391602
-0.0357253 0.0657458 0.349213
-0.215149 0.0426067 0.490026
-0.047615 -0.101869 0.0328011
-0.188366 0.11333 0.662718
-0.106697 0.109126 0.368599
-0.146364 -0.00920953 0.373797
-8.67918e-05 0.127218 0.429497
-0.177126 0.08162 0.5351
-0.0339726 0.130118 0.411715
0.19466 0.0921285 0.613292
-0.142282 0.0970633 0.527788
0.13954 0.111456 0.382788
-0.0713152 -0.103432 0.373797
0.126543 -0.189998 0.317528
-0.125389 0.11137 0.403852
-0.194844 0.0426939 0.0145564
-0.0690531 0.122467 0.429782
0.129996 0.0238526 0.0115677
0.0120512 0.142191 0.0211409
-0.0449559 -0.101081 0.0331474
-0.0228242 -0.06824 0.0232133
0.156524 -0.090339 0.341151
0.0635556 -0.0502766 0.296745
-0.0969971 0.14222 0.665362
-0.0521843 -0.114646 0.044781
0.0248196 -0.154593 0.325
0.0602891 -0.0110373 0.0210023
-0.103812 -0.057663 0.276948
-0.173926 0.106117 0.39488
-0.00621034 -0.0501873 0.31391
0.0607796 0.00289426 0.0322226
-0.166212 0.0924566 0.363013
-0.0814508 0.132206 0.44262
0.179246 0.0906983 0.611873
-0.0798383 0.0160651 0.37396
0.0729549 0.178192 0.782217
-0.00735258 0.146852 0.0200467
-0.170118 0.122397 0.671676
0.0493631 0.170793 0.781055
0.1913 -0.0503396 0.341151
0.0540927 0.157136 0.741586
-0.187028 0.0279649 0.333705
0.0039463 0.0159201 0.371949
-0.00141127 0.107752 0.511561
-0.185445 0.0902066 0.62761
0.158053 0.119581 0.414789
-0.232335 0.0378936 0.501448
0.159697 0.0518444 0.343228
0.0748409 -0.231667 0.36727
0.0453787 0.141101 0.373186
0.0381425 -0.153952 0.275143
-0.0551013 0.139476 0.640657
-0.126241 0.0473714 0.346823
-0.122081 0.122901 0.671425
-0.179387 0.0978385 0.464014
0.083926 -0.126793 0.0117194
-0.232383 0.0434845 0.417549
-0.0591467 -0.171649 0.297248
0.0982248 -0.148082 0.341151
0.215832 0.0561456 0.44583
0.113853 -0.176886 0.0101988
0.078345 -0.163561 0.308086
0.15777 -0.216492 0.0220178
-0.0251149 -0.0434804 0.373797
-0.232461 0.0525416 0.485598
0.0110803 -0.0591005 0.0443385
-0.133423 -0.0696752 0.341151
-0.0200115 -0.027778 0.119562
0.173886 0.110523 0.628257
-0.0317486 0.118275 0.613298
-0.127008 0.114014 0.369746
-0.0219959 -0.148956 0.331301
-0.0465776 -0.0924719 0.0130026
0.0552659 -0.0919397 0.033485
-0.0686031 0.126224 0.472799
0.124843 -0.208757 0.0120569
0.185472 0.0832087 0.527518
-0.0867108 -0.0587454 0.373797
0.195272 0.122258 0.735112
0.119581 0.101993 0.544162
0.00288555 0.140536 0.434282
0.0771245 -0.221854 0.338462
-0.111421 0.0310037 0.0346077
0.0614504 -0.127961 0.373797
0.120363 -0.212611 0.373267
0.00893386 0.139816 0.679349
0.181644 -0.000335723 0.319363
-0.0128538 0.123263 0.404343
-0.103282 0.0929496 0.553326
-0.112247 -0.029765 0.341151
-0.0490293 -0.172257 0.303791
-0.137431 -0.0402671 0.341151
0.154779 0.164112 0.785445
-0.175724 0.115662 0.655616
-0.195222 0.0755742 0.543508
-0.246284 -0.0296346 0.511007
0.00253616 0.211085 0.0100218
-0.196238 -0.109949 0.368297
-0.105244 -0.00500922 0.341151
-0.086565 0.148466 0.384645
0.15173 0.0402002 0.378549
0.0185088 -0.171676 0.320709
0.0871773 0.129711 0.613841
0.141828 -0.236401 0.363492
0.100472 0.13264 0.630165
-0.0550139 0.203573 0.783364
0.0129261 0.168211 0.774939
0.176551 -0.234566 0.364585
-0.0834336 -0.0843291 0.373797
0.170925 0.0889103 0.602563
-0.181631 0.108359 0.68396
0.0920644 0.0962901 0.530326
0.00878401 -0.0467203 0.0416237
0.0533985 -0.211409 0.373488
0.154266 0.0795043 0.53637
0.165798 0.12112 0.398775
-0.143134 0.122829 0.692844
-0.142628 0.0146541 0.037827
0.0701166 -0.110762 0.341151
0.14294 -0.211409 0.00901907
0.104637 -0.0532745 0.300094
0.0375637 0.104905 0.511416
0.150715 -0.0607081 0.291971
-0.021254 0.132511 0.608877
0.00663008 0.0394621 0.0277532
-0.00210891 -0.0449656 0.168365
0.232559 0.0383236 0.502328
0.168401 0.0159475 0.337597
0.160849 0.112473 0.436312
-0.144939 -0.0618718 0.341151
0.0192963 0.124841 0.43325
-0.0103579 0.162181 0.755093
0.0336702 0.160521 0.700749
-0.00299264 0.0327693 0.37396
-0.18625 0.0165858 0.0284735
0.0277523 0.13534 0.406443
-0.184943 0.0297083 0.0307182
-0.174407 -0.0437378 0.373797
-0.0637541 0.132427 0.620476
0.167777 -0.143216 0.341151
-0.000658959 -0.0585346 0.0424849
-0.172941 -0.0681152 0.373797
0.174824 0.00113394 0.330821
-0.00255308 0.0571792 0.0484378
-0.0279804 0.179147 0.781055
0.04974 0.1622 0.756866
0.164046 -0.0624071 0.341151
0.0894842 0.115545 0.376006
0.163092 0.155926 0.790239
-0.0871166 -0.247539 0.333884
0.173784 0.127427 0.377617
-0.172062 0.0989858 0.604473
-0.073401 0.13131 0.391332
0.0151546 0.154363 0.728426
-0.0328089 -0.172117 0.283761
-0.00860226 -0.0837637 0.262696
-0.152929 -0.219396 0.0132012
-0.0168515 -0.0399297 0.254955
-0.0921459 -0.121721 0.0315056
0.034515 0.13395 0.395312
0.170947 0.0154603 0.326603
0.0617001 -0.0584242 0.373797
0.163799 0.121355 0.653727
0.172941 -0.0389112 0.341151
-0.132125 -0.177754 0.0213627
0.145691 0.110621 0.374225
-0.00830118 -0.0657663 0.341151
0.160838 -0.0998211 0.341151
-0.0825996 -0.0481249 0.341151
-0.167433 0.12183 0.715252
-0.0685089 -0.133263 0.0268315
0.185766 0.0970843 0.469357
0.129971 0.0915261 0.36492
0.0532072 0.120946 0.373014
0.216005 0.0588511 0.432404
-0.00654577 0.0530979 0.0153074
0.0062343 -0.00150418 0.25007
-0.00548901 -0.01812 0.014201
0.0370084 0.18314 0.776358
-0.0693251 0.119959 0.399571
0.179332 0.143294 0.797364
0.113918 0.117351 0.591364
-0.23266 0.0757909 0.412124
0.141143 0.0929618 0.586401
0.225163 -0.0160808 0.509861
0.132094 0.0990912 0.5461
0.0276415 0.122766 0.625331
-0.0238528 0.156862 0.688936
0.05585 0.00124551 0.0138201
0.0593185 -0.154371 0.311706
0.0636135 0.047929 0.342464
0.169854 0.153817 0.778617
0.175629 0.0541288 0.0259343
0.0158981 0.142825 0.0330465
-0.142644 -0.0655481 0.277373
-0.165538 -0.104988 0.373797
-0.0714355 -0.0944505 0.0421828
-0.0598788 -0.128651 0.0422676
-0.143917 0.128665 0.389545
-0.0256289 -0.053495 0.373797
0.162659 -0.0601545 0.341151
-0.0722267 0.11024 0.550962
-0.117962 -0.248281 0.334135
0.00316388 0.153219 0.381323
-0.0317484 -0.039317 0.28643
0.0401393 0.165836 0.767643
-0.0597872 -0.229151 0.369216
0.197737 -0.0631157 0.346646
-0.010405 0.192186 0.788455
-0.167004 0.011109 0.325944
0.0594702 -0.0657508 0.373797
-0.194071 0.100054 0.433468
0.0171327 0.0243574 0.37396
-0.121041 0.164347 0.760445
0.164189 0.107085 0.65536
0.0312526 -0.0623771 0.276344
0.216054 0.0803855 0.424565
0.105657 -0.0646854 0.277134
0.0202294 -0.0318235 0.0939217
0.230944 0.0590144 0.00876871
-0.178039 0.0969394 0.469611
-0.144073 0.100513 0.371542
-0.143103 0.117733 0.391605
0.162518 -0.105826 0.373797
0.199121 -0.22404 0.342782
-0.0331539 0.149953 0.668115
-0.2325 0.0571681 0.40436
0.0924007 0.120408 0.585147
0.0334973 0.177346 0.791139
-0.123365 0.0990727 0.400047
-0.0840435 0.0151635 0.344139
0.182029 0.0913667 0.617482
0.22383 0.0623552 0.0234486
-0.167675 0.13183 0.725903
0.252021 -0.0423945 0.512499
-0.22944 0.000911549 0.510608
-0.169304 -0.0656861 0.30172
-0.0501289 0.117354 0.362928
-0.0420489 -0.0756307 0.373797
-0.00726278 -0.00461405 0.177312
0.195441 0.102573 0.660326
0.16347 0.0929085 0.473537
-0.238248 -0.0416264 0.526948
-0.117029 -0.133286 0.341151
-0.156497 -0.0538846 0.298459
-0.197175 0.0838968 0.401252
0.0760487 0.120068 0.379329
0.11146 0.0250151 0.042203
0.0133435 0.119995 0.455614
-0.144159 0.00468179 0.341151
-0.0430925 -0.171109 0.335175
0.0169729 -0.0732733 0.0407445
0.0340793 -0.100736 0.0390182
-0.164867 0.0850691 0.568559
0.0543839 0.104613 0.366114
0.0705843 -0.156318 0.326532
0.0158152 -0.212424 0.373402
0.023732 -0.187477 0.373797
-0.120897 0.065236 0.38642
0.0821311 0.103452 0.503121
0.198971 -0.105277 0.363032
-0.00969637 0.135364 0.0219977
-0.260186 0.0697854 0.0153293
-0.152377 0.0910425 0.599071
-0.0486803 0.201447 0.786765
0.189257 0.103845 0.622267
-0.128564 -0.23427 0.0144444
-0.232504 0.0574917 0.457871
-0.185532 0.108972 0.655039
0.00737086 0.0126848 0.0535647
-0.131333 0.112816 0.647948
-0.088073 -0.00296169 0.0248705
0.113783 -0.0988137 0.373797
0.00657034 0.179697 0.781055
-0.0610942 -0.0197401 0.373797
0.00426529 -0.0415046 0.0644362
-0.0146401 0.119145 0.520317
-0.173345 -0.249461 0.334889
-0.15736 0.124813 0.714149
0.219184 0.0765802 0.44486
-0.0673714 -0.251991 0.341746
-0.0978375 0.127595 0.398276
-0.195231 -0.125672 0.373138
-0.0898922 -0.186582 0.373797
0.00244814 -0.0318795 0.014201
-0.0547089 -0.059651 0.341151
-0.143337 0.0149474 0.329545
0.0684252 0.1537 0.686642
-0.0230518 -0.00290384 0.341151
0.169241 0.115319 0.382879
-0.110935 -0.149391 0.0246216
-0.17368 0.0506429 0.0264155
-0.0808698 0.133109 0.439156
0.00386068 -0.0035911 0.248579
0.208844 0.071022 0.356815
0.172874 0.123331 0.678985
-0.0236963 0.0281462 0.37396
-0.234523 -0.096927 0.526948
-0.0501604 0.104269 0.507908
-0.0948297 0.126186 0.382031
0.174007 0.0944111 0.453471
-0.0834965 -0.199277 0.341151
0.0166181 -0.145503 0.373797
-0.134024 0.110047 0.38073
0.0563588 0.137683 0.632524
-0.0491113 0.14015 0.425612
0.000231542 0.111258 0.0258291
-0.05378 0.10928 0.590614
-0.196472 0.119614 0.704625
-0.00228095 -0.0449211 0.244372
0.153233 0.129476 0.383415
-0.197084 -0.0115776 0.361801
-0.10388 0.139383 0.388466
-0.0421809 0.15534 0.687905
-0.196871 -0.0364281 0.372036
0.0348002 0.133061 0.398526
-0.161801 0.101778 0.435929
0.198226 -0.119952 0.354325
-0.236136 -0.0462663 0.526948
-0.215639 0.00279785 0.497878
-0.221606 0.0440445 0.509415
0.182935 0.137823 0.77465
-0.0519605 -0.0865958 0.0315714
0.0658276 0.0738178 0.386003
-0.155066 0.126578 0.389281
0.0056729 0.198154 0.0261218
-0.22716 0.0574653 0.479165
0.218447 0.0670349 0.466283
0.182325 -0.0474017 0.284161
-0.176662 0.0754699 0.515076
-0.23558 0.0307861 0.0142512
-0.143848 -0.203463 0.0244998
-0.154737 -0.218907 0.0173155
0.0917441 0.189679 0.784908
-0.0777615 -0.165808 0.031471
-0.106439 0.120673 0.649527
0.199059 -0.216857 0.353559
-0.196572 -0.0710731 0.346652
-0.173751 0.105005 0.662736
0.187792 0.127202 0.699063
0.0492924 0.123698 0.404279
0.0669123 0.014864 0.0365246
-0.114719 -0.156182 0.31569
0.19918 -0.230925 0.350062
-0.0473714 0.00459704 0.373797
-0.0575587 -0.094442 0.0199443
-0.134922 0.107942 0.370667
0.0702196 0.142004 0.6495
0.17743 0.090523 0.46486
0.109554 -0.208197 0.314218
-0.108899 0.133569 0.406443
-0.0873673 -0.242321 0.331728
0.0118158 0.112957 0.36243
0.145685 -0.0250963 0.373797
0.198601 -0.0623078 0.36717
-0.0689394 -0.11495 0.029153
0.0704784 -0.10887 0.0298962
0.22583 0.0917433 0.373717
0.0121829 0.0874059 0.390467
-0.020628 -0.0729336 0.0390144
0.0843254 -0.122168 0.373797
0.0880964 0.0125248 0.341151
0.0814497 -0.166465 0.311769
-0.0593183 -0.115292 0.0123223
0.16503 -0.227498 0.369107
-0.195924 -0.0450802 0.352544
-0.0804044 -0.153526 0.322675
0.0157882 -0.0176807 0.251082
-0.0733927 0.129143 0.406031
0.110565 0.107245 0.468376
0.0664286 -0.112938 0.341151
-0.162723 -0.0342859 0.373797
-0.0838042 0.0956263 0.554704
0.215862 0.0629627 0.442314
-0.118969 0.1163 0.475392
-0.0313531 -0.23902 0.331588
0.0273386 -0.0189941 0.276556
0.174353 0.0137163 0.373797
0.0110381 0.123606 0.441131
-0.00373524 -0.23793 0.331546
-0.059784 0.114211 0.465548
-0.10121 -0.1359 0.0338716
-0.0141977 0.0675045 0.0332311
0.0746484 0.173432 0.791891
0.0214286 0.183724 0.777927
-0.0396586 -0.174422 0.373797
-0.0428949 -0.0738897 0.0171849
-0.173186 0.0936046 0.623617
-0.214646 -0.121076 0.526948
-0.0936643 0.147825 0.682513
-0.0555429 -0.154243 0.293234
-0.168211 0.090978 0.464268
0.0760963 -0.242233 0.331832
-0.111449 0.112254 0.501782
-0.0563595 0.137073 0.680431
0.18633 -0.0514033 0.299056
-0.100499 0.157674 0.768865
-0.0360543 -0.0310804 0.373797
0.10932 0.103673 0.590008
0.144739 0.11075 0.39149
0.163645 -0.230464 6.31122e-18
0.0438312 -0.0855482 0.28398
0.0264845 0.151212 0.718117
-0.0439805 0.122003 0.581538
0.0354649 -0.191072 0.341151
0.0931133 -0.174314 0.373797
-0.152662 -0.0654867 0.341151
-0.056112 -0.068474 0.373797
-0.10669 0.111975 0.571563
0.0167857 0.0989983 0.545944
-0.0856196 0.121994 0.483044
-0.0467536 -0.145841 0.273584
0.0744384 0.127429 0.409565
0.117872 0.00465722 0.341151
0.198083 -0.103357 0.366461
0.113468 -0.200867 0.0148517
0.0985222 0.175082 0.783478
0.232428 0.0535453 0.456427
0.203025 0.0247565 0.0178985
0.0391854 0.147849 0.390097
-0.014449 -0.0385546 0.218965
-0.139739 -0.166484 0.373797
0.117395 0.110261 0.619533
-0.0215059 -0.238688 0.331576
-0.0334679 -0.0950358 0.373797
0.00290501 -0.110288 0.341151
-0.0403032 -0.0947416 0.341151
0.187248 0.0902251 0.584021
-0.227447 -0.0111836 0.510603
0.0171913 -0.0173816 0.0585238
0.199631 -0.182049 0.349399
0.155763 -0.151444 0.341151
-0.19408 0.0846273 0.619172
-0.0868788 0.102068 0.576738
0.00438055 -0.08432 0.341151
0.101991 0.140077 0.393295
-0.180845 0.0646728 0.392786
0.215237 0.0296264 0.495382
0.144844 -0.0895754 0.373797
-0.034713 -0.244074 0.332299
0.10268 0.0261796 0.030251
0.182942 -0.0442661 0.299338
-0.232265 0.0298219 0.452524
0.0223216 -0.00546525 0.0340774
-0.0347055 -0.0439933 0.051018
0.14934 0.0844302 0.566589
-0.15001 -0.222384 0.372152
0.0629206 0.102301 0.567546
0.00815389 -0.105687 0.373797
0.0804469 -0.0354867 0.341151
0.162311 0.0690567 0.39125
-0.175512 0.0907749 0.617013
-0.0782757 0.127187 0.369792
-0.120333 -0.226197 0.0181878
0.147369 0.110394 0.397841
-0.17743 0.0977136 0.391965
-0.215542 0.00547032 0.49377
0.213764 0.0683699 0.362867
0.165464 0.118827 0.664715
0.0985533 -0.0331495 0.373797
-0.195337 -0.11337 0.370697
-0.112195 0.133998 0.650113
-0.0376692 -0.0739936 0.289754
0.158693 -0.211066 0.0215245
-0.0454078 0.136865 0.38132
0.171233 0.0911361 0.470747
-0.0903768 -0.233132 0.333651
0.233192 -0.0207199 0.526948
-0.134362 0.181988 0.790065
0.154991 -0.197404 0.373797
-0.195592 -0.185086 0.349523
-0.0600957 0.151745 0.385997
-0.000724845 -0.0617502 0.315957
-0.0667299 -0.0561912 0.277257
-0.145665 0.0375731 0.377882
0.0932862 -0.209517 0.37368
-0.149292 -0.218918 0.372771
-0.0349673 0.113201 0.537412
-0.0429563 0.138417 0.680997
-0.147031 0.0825993 0.369208
-0.207085 0.0480204 0.0124537
-0.123876 0.0669147 0.38727
0.0862609 0.0213009 0.37396
0.0657628 0.121566 0.493938
-0.165451 -0.249437 0.334946
0.168874 0.0820072 0.569947
-0.158389 0.108578 0.381092
-0.028552 0.0661033 0.349341
0.13562 0.137928 0.728034
-0.104365 0.123205 0.463619
-0.0599885 0.137362 0.406443
-0.00164988 -0.00157223 0.259993
-0.0957325 0.123507 0.470119
-0.0663317 0.00865996 0.373797
0.00914206 0.185128 0.0281895
-0.134239 0.100057 0.559553
0.184501 -0.242312 0.332364
-0.232499 0.0569237 0.459284
0.173509 -0.0273577 0.341151
-0.0667771 0.156261 0.697727
-0.0752841 0.144612 0.377378
-0.182186 0.00780939 0.373797
0.0984114 -0.149003 0.022155
0.036471 0.103699 0.516856
-0.0563633 -0.158205 0.31809
0.110763 0.0168387 0.366907
-0.16797 0.0955738 0.489635
-0.112874 -0.154935 0.341151
-0.0168902 0.134354 0.458729
0.00570437 0.0159352 0.343963
0.05274 0.149998 0.671244
0.0956885 0.164975 0.783334
0.0147682 -0.00868698 0.154471
-0.0825135 -0.176557 0.341151
0.0862921 0.0166282 0.345671
0.0863277 0.0824336 0.390564
-0.194177 -0.248218 0.350182
-0.175146 0.159522 0.789821
0.0191987 -0.0130423 0.18842
-0.204754 0.0578803 0.0249385
-0.225943 0.00834967 0.489065
0.170182 0.117028 0.694027
-0.0258375 -0.172057 0.317775
-0.227228 0.0409328 0.00939398
0.168649 0.146604 0.742433
0.0187611 0.0989472 0.543163
-0.013314 0.181588 0.771186
0.199224 -0.134759 0.359515
-0.0304753 0.0255495 0.37396
-0.238419 0.0368654 0.00872774
-0.157691 0.10704 0.656666
-0.0627639 -0.0465419 0.341151
0.14604 0.147296 0.768969
-0.176047 0.0412668 0.350487
0.235825 0.0766389 0.0107769
-0.184035 0.134592 0.777739
-0.167266 0.0950419 0.585145
-0.0922974 -0.170402 0.316152
0.121688 -0.0674691 0.299073
0.142474 0.111058 0.38002
0.0596585 0.130083 0.407124
-0.0451688 0.147693 0.711351
-0.0558711 0.150622 0.378416
-0.0594414 -0.100258 0.0319209
-0.22241 -0.00467715 0.510605
0.103264 0.125142 0.656791
-0.0679503 -0.114093 0.373797
0.0121575 0.0603918 0.0339015
-0.194645 -0.193832 0.364297
0.156468 0.125618 0.393872
-0.189306 0.0109055 0.336703
0.0206216 0.233861 0.000904891
-0.0890054 0.0449116 0.376351
-0.182656 -0.0327077 0.341151
0.150818 0.0748011 0.353725
0.00295921 -0.0224129 0.373797
0.127479 0.113092 0.40029
0.0381331 0.13879 0.382534
-0.175232 0.0143793 0.367485
0.0039907 0.00146391 0.0554982
-0.0970563 0.11511 0.574261
0.128126 -0.205115 0.00938229
0.0812062 0.142231 0.39627
0.171453 0.09034 0.607762
-0.0937912 0.10801 0.373647
-0.133013 0.123621 0.63693
-0.08515 0.0957186 0.396379
-0.196982 -0.023518 0.360238
-0.10866 0.142377 0.675073
0.0274697 0.120458 0.511002
0.129599 0.0170006 0.348655
-0.0687857 -0.239822 0.331612
-0.171331 0.117104 0.385028
-0.0846695 0.0654522 0.351757
0.191557 0.146202 0.767181
0.0462471 -0.0719885 0.283292
-0.00761674 -0.0297897 0.341151
-0.162507 -0.0431795 0.301187
0.186724 0.0924155 0.630193
0.0528705 -0.125717 0.324795
-0.145449 -0.19643 0.0197427
-0.213311 0.0924227 0.383955
0.151194 0.130471 0.719026
0.0117629 0.0904981 0.0431803
0.0556382 0.122344 0.63025
-0.192344 0.130542 0.769984
-0.123483 0.108118 0.504852
-0.024072 0.126043 0.636056
0.135375 0.120899 0.406443
0.119589 0.0290749 0.0268556
-0.0889008 0.147552 0.728684
-0.0462506 -0.0135157 0.0396794
8.26167e-05 -0.0283804 0.0554982
-0.077139 0.118002 0.376309
0.224821 -0.0212115 0.512326
0.173363 0.0783146 0.520499
-0.17677 0.120756 0.722842
0.023211 0.116191 0.555881
0.0197453 -0.0587068 0.276383
-0.185028 0.145229 0.765242
0.128535 -0.197318 0.0272129
0.0216257 0.118441 0.402996
-0.0280033 -0.172076 0.322562
0.199216 -0.235141 0.354946
-0.0694772 -0.0899489 0.0391053
-0.0668413 0.131459 0.370441
-0.214905 0.0200725 0.483705
0.0419999 -0.0690189 0.0234519
-0.17043 -0.0747066 0.286478
-0.109955 0.142429 0.676438
-0.152506 0.0999933 0.366394
0.151224 -0.0478542 0.373797
-0.0469345 -0.0207219 0.0539669
-0.0314864 -0.0564334 0.314973
0.178252 0.0629925 0.357851
-0.162663 0.149988 0.754363
0.11849 0.0169051 0.350944
0.126926 0.123217 0.671328
0.00850077 -0.00148723 0.303269
-0.13707 -0.000660801 0.032769
-0.00540555 0.0691412 0.350566
-0.168509 -0.203711 0.341151
-0.172818 -0.0322759 0.306197
-0.0919088 0.0110847 0.0316106
0.183676 0.0714263 0.552236
0.130638 0.0857375 0.536904
-0.194903 -0.0627831 0.294125
-0.0980678 -0.17774 0.0324254
-0.196561 -0.0724014 0.342416
0.169273 -0.225278 6.87348e-18
-0.0152714 -0.0104944 0.128979
-0.232532 0.060819 0.448666
-0.0281053 -0.0756418 0.0372131
-0.134601 -0.181226 0.0231425
-0.161432 0.00645404 0.373797
0.168476 0.0933162 0.614556
-0.0154685 -0.0255791 0.0881442
-0.165757 0.0993006 0.618802
0.0109657 -0.0738067 0.260971
-0.00247572 0.0126006 0.0267224
0.155725 0.107942 0.382822
0.222059 0.106965 0.376674
0.198111 -0.106579 0.373223
0.0134546 0.107503 0.50826
-0.215177 0.0423728 0.487625
-0.109659 0.116765 0.484694
-0.101017 0.0824679 0.360063
-0.194479 -0.21319 0.36144
-0.0792598 -0.100175 0.341151
0.0383059 0.138885 0.679463
-0.033358 0.160192 0.700995
0.17372 0.106494 0.403833
0.162045 -0.02896 0.306395
-0.00900291 0.144812 0.696584
-0.195843 -0.155844 0.362493
-0.0193682 -0.00931853 0.0554982
-0.00915791 0.0275077 0.37396
-0.0389354 -0.0497681 0.0516362
-0.196691 -0.0572893 0.349524
-0.0419963 -0.0873155 0.049242
-0.0241313 -0.119995 0.373797
-0.215296 -0.00105411 0.501259
0.140519 0.0197456 0.0240552
-0.0434297 0.134287 0.392521
-0.0917897 0.0929834 0.548025
0.157081 0.0308664 0.0210091
0.155548 0.146108 0.726547
-0.0488516 -0.251386 0.345336
-0.0359412 -0.0180098 0.0511166
-0.0216565 -0.139078 0.272429
-0.226155 -0.0970258 0.526948
-0.0209646 0.240804 7.00898e-18
0.0394612 -0.010985 0.0407787
-0.11181 -0.00351776 0.373797
0.0311973 -0.0310237 0.0421829
0.00847577 0.121077 0.514535
0.0709933 -0.166878 0.325155
0.221213 0.0553395 0.024194
0.246931 0.00797966 0.510625
-0.171654 0.109881 0.370975
0.199728 -0.193245 0.348439
-0.194757 -0.180862 0.347121
-0.121803 0.0266456 0.37396
-0.22188 -0.0251131 0.51063
-0.152282 -0.000164971 0.331512
0.127523 -0.0128348 0.373797
-0.0563076 -0.131818 0.0407532
-0.0188627 0.123211 0.379118
-0.0342332 -0.0125851 0.0526403
0.0197513 0.123191 0.624928
-0.165811 0.0342455 0.378806
-0.176323 0.134766 0.765793
-0.112182 0.120223 0.466869
0.224401 0.0839707 0.368135
-0.121014 0.164746 0.788982
-0.0638141 0.151691 0.682246
-0.0043324 0.0752996 0.0315179
-0.0871943 0.140032 0.702448
-0.00572214 -0.0405661 0.0416237
0.234102 -0.0809637 0.526948
-0.0561583 0.141808 0.416541
-0.14373 0.0606669 0.356375
0.0169109 -0.0320591 0.0656514
-0.0218678 0.129858 0.377712
0.00989368 0.102677 0.529935
0.0820174 -0.0148039 0.0463475
0.161097 0.0863029 0.3976
0.0160141 0.167146 0.771437
-0.0204168 -0.0558091 0.25775
-0.214629 0.00396237 0.523792
0.1232 0.0175778 0.0267658
-0.138852 0.115738 0.383404
-0.163946 0.0830511 0.52547
0.0537317 -0.115891 0.0446273
0.0511653 -0.00420617 0.0527275
-0.0356229 0.118521 0.403228
0.0235705 -0.22345 0.337907
-0.103008 0.114799 0.403982
0.013591 0.149117 0.39537
-0.138226 0.138976 0.740413
-0.091614 0.0174455 0.340779
-0.0317371 -0.00468305 0.0497289
-0.19624 -0.00838219 0.353776
-0.0342997 -0.012798 0.0549159
0.194476 0.113594 0.697113
-0.152904 -0.213118 0.373496
0.0301639 -0.0462651 0.0416237
-0.0618974 -0.06776 0.341151
-0.0678949 -0.198029 0.341151
0.102897 -0.212655 0.34035
-0.0201439 0.131845 0.406829
0.177133 0.12774 0.699048
-0.194325 0.122988 0.711691
0.086327 0.119705 0.496264
-0.154202 0.0550911 0.345938
-0.00645752 -0.0627191 0.373797
-0.158859 0.120845 0.400149
0.243244 0.0402955 0.520179
0.223428 0.0298636 0.496592
-0.154964 0.126989 0.718728
0.0355677 0.161089 0.751562
0.0959651 0.128504 0.401701
0.108292 -0.0113117 0.341151
0.0377515 -0.151018 0.316287
0.173564 -0.105973 0.341151
-0.084467 0.0799197 0.357898
0.160796 -0.181769 0.373797
0.0101059 0.115586 0.0392047
0.125514 -0.188195 0.00977916
0.0414215 -0.095114 0.0484324
-0.232171 0.0187579 0.49219
-0.151622 0.141123 0.761226
-0.228814 0.0800243 0.373879
-0.00406438 0.101575 0.551637
-0.185876 0.146315 0.779696
-0.195939 -0.0433845 0.343173
-0.0636403 -0.121173 0.0121312
0.135416 0.0838072 0.547104
-0.0358535 -0.21393 0.340336
0.198358 -0.135353 0.353626
-0.084318 0.128881 0.663356
0.00937171 0.176149 0.781055
-0.0319594 -0.114907 0.268152
-0.195262 0.145802 0.779407
-0.117403 -0.205169 0.318584
0.251092 -0.100323 0.517565
0.1258 0.016968 0.369484
0.0416067 -0.107149 0.341151
0.0340758 0.134093 0.616008
-0.122866 0.122872 0.392126
-0.142615 -0.0689889 0.288373
-0.113884 0.124885 0.621076
-0.0227712 -0.0597101 0.315564
0.108135 0.0969764 0.515195
0.119379 -0.160488 0.373797
-0.214707 0.0130143 0.516893
-0.0735857 -0.248635 0.351355
0.226939 -0.0873298 0.526948
-0.165727 -0.0569187 0.373797
-0.146663 -0.24206 0.360742
-0.020234 -0.0214054 0.211636
-0.0607127 -0.0627266 0.301608
