0.177647 0.107255 0.555625
-0.225818 -0.203079 0.0514612
0.213309 0.138396 0.00107737
-0.0227552 0.179151 0.692895
-0.187948 -0.147231 0.364375
0.246755 0.0642029 0.540369
0.0612019 0.0418444 0.3472
0.00853612 -0.107858 0.364375
-0.00599644 0.124404 0.385463
-0.122122 0.0991175 0.347264
-0.0508895 0.175639 0.382181
-0.197895 0.0851751 0.521109
0.17356 0.16102 0.729512
-0.246284 -0.0278089 0.544328
0.0464556 0.17954 0.745747
-0.241799 -0.140689 0.509339
0.10387 -0.0600107 0.364375
0.20273 0.0990578 0.501488
0.027575 0.120112 0.550209
0.212427 -0.183228 0.30578
0.11602 -0.162275 0.320452
-0.0218735 0.144499 0.483311
0.0232702 0.141295 0.431398
0.138505 0.0916264 0.345128
0.126282 0.0676719 0.367406
0.10184 -0.111089 0.331474
0.0729064 0.143805 0.637767
-0.0676437 -0.00435395 0.331474
-0.0077547 0.0860291 0.36993
0.0959572 0.0207218 0.364375
-0.0923205 0.149537 0.412397
-0.13927 -0.130129 0.364375
0.121466 0.172262 0.763857
-0.206544 -0.113298 0.0124892
-0.16814 0.129476 0.377635
0.117379 0.106227 0.53213
-0.00071815 0.155758 0.662825
0.185779 0.125037 0.672856
-0.174492 -0.204474 0.325799
0.145885 0.136262 0.393343
0.224215 -0.0380639 0.529393
-0.198281 0.00252338 0.345426
0.0952166 -0.130458 0.364375
0.212888 0.0310646 0.519792
-0.0949005 0.213125 0.78196
-0.0316397 0.00146692 0.364375
0.0945112 0.137605 0.625402
0.0512564 0.095114 0.341175
0.197404 0.104163 0.614825
-0.24557 0.102337 0.540745
0.0831521 0.144971 0.460754
-0.0711939 0.131641 0.517307
0.218127 -0.196046 0.0612518
0.172227 0.00912894 0.331474
-0.0680235 0.158271 0.682943
0.205761 -0.115502 0.00996261
0.179111 0.2071 0.0102205
0.153372 -0.216404 0.351266
-0.222541 0.140302 0.746353
-0.146362 0.123209 0.577023
-0.0295696 0.179057 0.742734
-0.162094 0.134286 0.677443
0.0492046 0.00381168 0.331474
0.080872 0.218165 0.781071
-0.212242 -0.136089 0.467749
0.221772 -0.18412 0.179496
0.147101 0.111784 0.5888
0.0514707 0.175306 0.382973
-0.00853662 0.178687 0.37814
-0.125569 -0.17758 0.31299
-0.169245 -0.0590957 0.331474
0.198422 0.0566374 0.370527
-0.0843977 -0.227039 0.331558
-0.040153 0.118735 0.35097
0.198281 -0.114221 0.331823
-0.157133 0.0518185 0.331099
-0.13849 -0.194436 0.362438
0.152796 0.161025 0.706929
0.225914 0.0140868 0.0109537
0.0185656 -0.127675 0.331474
0.222246 -0.185546 0.280795
-0.22495 0.152731 0.763928
0.0641961 -0.103748 0.364375
0.221293 0.136054 0.736222
0.0557572 0.157416 0.677113
-0.0155246 -0.0716884 0.364375
-0.0615331 -0.119728 0.364375
0.226303 -0.128488 0.520483
-0.100496 0.133686 0.615129
-0.223435 0.105349 0.62283
-0.21321 0.136281 0.392765
0.122824 -0.0363278 0.364375
-0.0211814 0.164183 0.402823
0.133205 -0.0691486 0.331474
-0.0596115 0.131746 0.462653
0.0749753 0.112732 0.533694
0.0743704 -0.0215103 0.364375
-0.0585379 0.190668 0.00529522
0.124579 0.0487015 0.331099
0.118502 0.159298 0.383365
-0.0724825 0.136632 0.360178
-0.0758718 -0.0870689 0.331474
-0.150955 0.13553 0.395371
0.243229 -0.174549 0.431487
0.0324251 -0.203946 0.326057
-0.0542144 0.126687 0.386777
0.0423794 0.19621 0.00529522
0.125612 0.145217 0.676277
-0.0965139 0.0418444 0.341351
-0.126308 0.15772 0.719095
-0.0977216 0.132968 0.502781
-0.208061 -0.16578 0.324238
0.221195 -0.17559 0.354763
0.208631 -0.136713 0.469684
-0.207952 -0.153194 0.415692
-0.185263 0.112802 0.631271
-0.0247883 0.138944 0.610062
0.0470403 0.147573 0.59585
0.0237991 0.184172 0.786994
-0.0277929 -0.213921 0.353033
-0.207548 -0.112797 0.504117
0.246755 -0.0771586 0.546052
-0.210445 -0.0137298 0.524727
-0.0910579 -0.216686 0.351065
-0.000325948 0.0241303 0.364375
-0.00416395 -0.0728042 0.331474
-0.169906 -0.0303907 0.364375
0.0713747 0.137985 0.360696
-0.166259 0.16029 0.768127
-0.0911087 0.011449 0.364375
0.177078 -0.0713051 0.364375
0.212561 0.0647622 0.516979
0.198422 0.114512 0.371771
0.170071 0.184243 0.782878
-0.101952 0.126905 0.543304
-0.198281 -0.221293 0.330045
0.205629 -0.0211076 0.550791
-0.0890238 -0.150043 0.331474
-0.0574012 0.183622 0.782987
0.199159 -0.198382 0.351721
-0.189537 -0.108885 0.331474
0.188802 -0.0838232 0.331474
-0.123257 0.102659 0.381187
-0.0996168 -0.0494836 0.331474
-0.223619 0.128859 0.702119
-0.0395613 -0.183936 0.331474
0.186237 0.124796 0.622994
0.0201028 0.1328 0.388861
-0.0943551 -0.108803 0.364375
-0.183201 0.049972 0.366384
-0.218288 -0.170645 0.265005
-0.154869 0.114085 0.516781
0.0223164 0.0526495 0.331099
-0.208972 0.0100335 0.00287445
0.0795944 0.0558627 0.331099
-0.17401 0.108484 0.556249
0.199159 -0.004444 0.362266
0.0902231 0.165837 0.71857
-0.133654 -0.0680414 0.364375
-0.213579 -0.200219 0.0289965
0.152884 -0.162828 0.318007
0.0472488 -0.218398 0.349847
-0.0352447 0.151122 0.651761
0.00303495 0.176652 0.733204
0.0788475 -0.150981 0.364375
0.0467024 -0.128727 0.331474
0.208638 -0.170995 0.451885
-0.246755 -0.103901 0.530658
0.00380874 0.137924 0.452606
0.103053 -0.218166 0.350012
-0.224597 0.0757693 0.0141334
-0.198448 0.0993692 0.488663
-0.207787 -0.196793 0.183183
-0.0325311 0.116316 0.538669
-0.0637033 0.0626609 0.331099
0.151053 0.111863 0.531246
-0.224802 -0.0469651 0.530448
0.0346204 0.15212 0.654805
0.0190679 0.124776 0.502522
0.107898 0.0893795 0.374983
0.00878346 -0.162536 0.32146
-0.182374 0.101458 0.590943
0.115811 0.117267 0.574905
0.210119 -0.0750155 0.00239885
0.0467692 0.123875 0.567255
-0.120081 0.196478 0.78072
-0.0161857 0.127066 0.569794
0.160753 -0.165669 0.364375
-0.0431316 0.136715 0.448758
-0.111362 0.120984 0.582513
0.00273895 -0.137071 0.364375
-0.0397217 0.0387055 0.364375
-0.0171723 0.0845123 0.336194
-0.207895 -0.146888 0.448651
-0.207241 0.0850669 0.563573
-0.207541 0.0115548 0.54914
-0.139698 0.130257 0.361599
0.152887 0.0968809 0.381598
0.19636 0.146587 0.707806
0.0155809 -0.181646 0.319475
-0.089486 -0.0400897 0.364375
0.106348 -0.217992 0.322163
-0.134718 0.0684235 0.368475
0.0817018 0.0478765 0.36454
0.206515 -0.191031 0.0356323
-0.0967163 0.1452 0.451073
-0.11455 0.163814 0.679212
-0.192852 0.112276 0.360887
0.214838 0.0952826 0.0201187
0.00636353 0.0884445 0.337891
-0.19225 -0.114344 0.364375
-0.0627231 -0.107093 0.331474
0.119269 0.120473 0.469251
0.199159 -0.14783 0.342593
-0.196752 -0.187585 0.36387
-0.0602402 0.168677 0.714367
0.064667 -0.1941 0.329903
0.161634 0.0464647 0.36454
0.0804025 -0.0398635 0.331474
0.0325926 0.0680769 0.36454
-0.225967 -0.0771417 0.0108264
0.108059 0.131053 0.50052
-0.0822407 0.14784 0.653888
0.122549 0.127122 0.359219
0.000568449 -0.0271793 0.331474
0.0786512 0.133371 0.605739
0.209803 -0.204682 0.145317
-0.218314 -0.214027 0.0898523
0.225994 0.173496 0.0107585
-0.0199955 0.150165 0.368913
-0.180965 0.133087 0.644603
-0.243333 0.0565029 0.536951
0.192005 0.149439 0.761859
0.143734 0.195752 0.780848
0.219055 -0.212694 0.0971244
-0.179828 0.184885 0.0109271
0.0938296 0.181597 0.77354
0.222192 -0.00133447 0.523981
-0.0972278 0.142998 0.364416
0.144718 -0.0340136 0.331474
-0.110769 -0.0662885 0.331474
0.223034 0.112298 0.648185
-0.218069 0.128196 0.644022
-0.220847 -0.192886 0.114371
0.0513943 0.20033 0.766187
-0.195237 0.0875238 0.382897
-0.159722 0.167337 0.734556
0.125564 -0.0970207 0.364375
0.180254 0.0418444 0.34737
0.107554 0.156348 0.647776
0.217481 0.101683 0.541255
-0.206756 0.160177 0.00756173
0.0460684 0.131068 0.466292
0.215791 -0.0798345 0.516968
0.12383 0.0226258 0.364375
0.170044 0.0950652 0.35003
0.183218 -0.0483932 0.364375
-0.246755 -0.157529 0.472244
-0.143342 0.169304 0.773375
0.136325 0.13722 0.612537
0.224553 0.109227 0.608966
-0.159595 0.139519 0.643674
0.17748 0.105839 0.600265
0.00222302 0.133816 0.539923
0.0835437 -0.153632 0.331474
-0.0613867 -0.0505 0.331474
-0.121935 0.0677805 0.333931
0.111348 0.13522 0.442185
0.0961059 0.127094 0.389352
-0.0574551 0.18942 0.732715
-0.0625425 -0.197759 0.329082
-0.134059 0.120698 0.55615
-0.0880083 0.169871 0.382614
-0.219963 -0.139178 0.00167828
-0.241957 -0.0664534 0.542056
0.0529067 0.156492 0.422677
-0.127551 -0.143272 0.331474
-0.00769596 0.201075 0.765798
-0.198281 -0.0443492 0.346308
0.0763584 0.189052 0.74011
0.202641 0.138434 0.395862
-0.179107 -0.169309 0.31177
-0.0151937 -0.0362713 0.364375
-0.0374061 -0.00568699 0.331474
0.0624854 0.181059 0.70716
0.128087 -0.111882 0.331474
-0.04931 0.123653 0.497723
0.127023 0.174653 0.726912
0.176562 0.155631 0.76456
0.0741175 0.179881 0.784237
0.0793817 -0.191152 0.363124
0.00920562 -0.226276 0.336721
0.0567978 0.149126 0.392401
-0.246755 0.0173266 0.542318
0.190562 -0.226406 0.329888
-0.0196758 -0.122027 0.331474
0.108683 0.0678632 0.333146
-0.140354 0.111554 0.486922
0.19719 0.105468 0.571053
0.155023 0.135839 0.675326
0.212706 -0.0230796 0.0192359
0.0607385 -0.0591209 0.364375
0.23785 -0.111944 0.523678
-0.0568602 0.0885075 0.338697
0.129971 0.0186067 0.331474
0.214019 0.0980065 0.463329
-0.114942 -0.162578 0.364375
-0.000712208 0.129625 0.488852
0.174022 -0.177975 0.313222
-0.0476066 -0.094683 0.364375
-0.125582 0.0418444 0.347528
-0.111158 -0.0109239 0.331474
0.141603 0.184687 0.010755
-0.103185 0.178081 0.717229
0.0671701 0.118563 0.511397
0.151586 0.154392 0.363513
-0.135726 -0.198968 0.328491
-0.148366 0.159349 0.696961
0.182215 0.124499 0.391483
0.0157877 0.178823 0.691416
0.246755 -0.0501737 0.548708
-0.207298 -0.142192 0.50736
-0.198862 0.151503 0.735784
0.00739633 -0.178063 0.364375
-0.155875 0.15931 0.366688
0.176367 -0.016494 0.364375
-0.154305 -0.16702 0.364375
0.0531535 0.0185501 0.364375
-0.0792121 0.131714 0.55295
0.0141366 0.175351 0.384662
0.205629 -0.0552941 0.546745
-0.198391 0.0434526 0.332018
0.19387 -0.121211 0.364375
-0.0106197 0.161413 0.632594
0.0264169 -0.0925631 0.331474
-0.0828856 0.175091 0.696211
0.225092 -0.18474 0.212439
-0.16758 0.0973159 0.350682
0.0691109 0.141065 0.423031
0.223018 0.160062 0.768532
-0.0837466 0.103765 0.379347
-0.225601 -0.00577934 0.00885374
-0.17303 0.00376949 0.331474
-0.22558 -0.193603 0.157821
-0.0719242 0.0418444 0.353567
0.0725162 0.0182563 0.331474
0.0334496 -0.102905 0.364375
-0.0403649 0.143866 0.582278
-0.0497491 0.144568 0.415859
0.166193 -0.0226273 0.331474
-0.22104 -0.176101 0.351589
0.18464 0.119184 0.65192
0.210564 -0.163044 0.327925
0.0605086 0.0615954 0.331099
-0.177561 -0.202382 0.360776
-0.087764 0.182581 0.773866
0.0285808 0.193708 0.742159
0.0197618 0.141978 0.571037
0.207597 -0.112973 0.532544
0.224705 -0.185456 0.252216
0.226183 -0.193916 0.166065
-0.194813 0.136036 0.670658
0.0341263 -0.0611458 0.364375
-0.069114 0.196947 0.763179
-0.0459343 0.0859127 0.369997
0.0271102 0.10022 0.375674
-0.222409 -0.0726187 0.521876
0.180986 0.135727 0.703061
0.0289484 -0.152408 0.364375
-0.0249459 -0.164079 0.315883
0.209559 -0.142553 0.0179323
0.0214892 -0.0152811 0.331474
-0.0408733 0.175973 0.685404
0.0250206 0.200212 0.763838
-0.224786 0.101265 0.0136781
0.0821404 0.164304 0.659441
-0.0309873 0.204414 0.0126682
0.0352045 0.150165 0.375136
-0.0960462 -0.115542 0.331474
-0.0557655 0.217572 0.781176
0.111104 0.0418444 0.349278
0.15681 0.0613856 0.334736
-0.14019 -0.0473479 0.331474
0.0340917 0.158193 0.62666
-0.213871 0.0994853 0.540541
0.0411369 0.131066 0.530908
0.224768 -0.122511 0.495843
0.141058 0.159408 0.738037
0.0948292 -0.185355 0.331312
-0.199159 -0.0782441 0.338657
-0.175428 0.135223 0.694878
0.0945924 -0.0867398 0.364375
0.215649 0.042638 0.0204548
0.124808 0.155235 0.709369
-0.216543 0.0914898 0.500328
-0.0248348 -0.116577 0.364375
0.0951466 0.127192 0.527733
0.214007 0.115059 0.416459
-0.199159 -0.152305 0.336419
-0.0913263 0.185746 0.0116726
-0.20563 0.0469954 0.54446
-0.21296 -0.192457 0.241691
-0.206531 0.149715 0.792215
-0.0606004 -0.217532 0.350463
0.108941 0.140256 0.594704
0.224981 0.10102 0.588395
0.0322148 0.140716 0.493014
0.199159 0.023485 0.343505
-0.00355451 0.148046 0.587262
0.134738 0.122333 0.506473
0.125364 -0.19296 0.362746
0.212585 -0.149655 0.497529
0.167883 0.125511 0.362789
-0.216258 0.121602 0.423017
-0.11817 -0.200954 0.361075
-0.0830148 0.143671 0.466073
0.0750428 0.188959 0.0061079
-0.113166 0.106693 0.535524
-0.186595 0.173272 0.784811
0.221934 0.130779 0.0180681
-0.0657628 0.162254 0.397932
-0.126503 -0.102507 0.364375
0.164007 0.12322 0.643284
0.0289246 0.0282138 0.364375
0.0234958 0.160529 0.412653
0.201831 0.187647 0.0133187
-0.128041 0.127175 0.619653
0.219878 -0.152728 0.435217
0.043953 0.220741 0.776441
-0.121588 0.0257185 0.331474
0.170885 0.0910866 0.538908
-0.19353 0.140843 0.366504
0.226041 -0.162306 0.388528
-0.0217262 0.159117 0.67526
-0.184126 0.123823 0.392895
0.232423 0.02248 0.539928
-0.0687135 0.0298991 0.331474
0.205629 0.0302382 0.546753
-0.0533004 0.168103 0.663284
-0.0434631 0.152445 0.386857
-0.214104 -0.173963 0.376691
0.129642 -0.180685 0.325123
-0.158401 0.145512 0.710317
-0.00343426 0.149098 0.406418
-0.11545 -0.226474 0.336391
-0.224544 0.0738236 0.521121
-0.00922093 0.110119 0.347249
0.0891297 0.124813 0.479827
-0.161818 -0.108333 0.364375
-0.0836275 0.154018 0.625732
-0.164788 0.119033 0.630416
-0.100617 -0.0697926 0.364375
-0.208297 0.0175124 0.523576
0.0341027 0.175371 0.681767
0.124749 -0.224235 0.340125
-0.15446 0.0418444 0.362484
0.1501 -0.139508 0.331474
0.171113 -0.226175 0.329278
0.179555 0.163495 0.785802
0.193403 -0.172953 0.364375
0.215545 0.131552 0.706209
-0.178922 0.145341 0.73285
-0.0123497 0.172087 0.718362
-0.122564 0.00661843 0.364375
-0.21486 -0.0199745 0.551898
-0.181757 -0.0319636 0.331474
0.0864884 0.156848 0.380929
-0.224249 -0.123427 0.493118
-0.123001 0.126399 0.502871
-0.0183762 0.135506 0.461664
-0.183167 -0.00434439 0.364375
0.0813503 0.11792 0.556853
0.148505 0.10199 0.558273
-0.0465937 -0.0399794 0.364375
0.19875 -0.093232 0.364375
0.0331801 0.148772 0.458713
-0.0271076 0.185036 0.782738
-0.106796 0.158379 0.653955
0.161138 -0.0688467 0.331474
0.13409 0.147665 0.644343
0.0457096 0.121664 0.352234
-0.0479799 0.0301128 0.331474
-0.22409 0.106491 0.593463
0.0743275 -0.123433 0.364375
0.0743748 -0.103074 0.331474
-0.0804811 -0.190522 0.33048
-0.200946 0.203287 0.0136438
0.139856 -0.0621682 0.364375
-0.224247 -0.167698 0.319018
-0.0309747 -0.135885 0.364375
-0.150655 0.101159 0.382911
0.0138665 0.164584 0.643431
-0.161241 0.186073 0.786731
0.185557 0.142857 0.682692
0.211782 -0.198256 0.196926
0.163841 0.0761568 0.374871
-0.197194 0.144702 0.76048
0.191399 0.147859 0.38123
0.176684 0.100349 0.581545
0.155844 -0.178512 0.331474
-0.0857463 0.114329 0.522789
-0.0896104 0.107944 0.349001
0.17279 -0.190672 0.363225
-0.163863 -0.0616063 0.364375
0.224347 0.116896 0.63266
-0.0585878 0.114289 0.533003
0.0597711 -0.0889966 0.331474
-0.0743428 0.137436 0.435284
-0.0749456 0.127845 0.388448
-0.198281 -0.190358 0.333004
-0.0455879 -0.19766 0.361764
0.107039 0.204267 0.783523
0.223679 0.0859064 0.530148
-0.207928 -0.0405224 0.539545
0.214243 -0.105093 0.503868
0.197771 0.0899068 0.551607
0.0209932 0.131888 0.586474
0.236324 -0.14403 0.504938
-0.107447 -0.181364 0.331474
-0.213237 0.0955815 0.468614
-0.0994624 0.142459 0.59426
0.193721 0.141743 0.738089
-0.11156 -0.162749 0.31814
-0.104009 -0.0890101 0.331474
-0.123434 0.138236 0.395384
-0.225808 -0.169584 0.431052
-0.210649 -0.110772 0.53367
0.0524963 0.164216 0.650612
-0.20852 0.0582919 0.519468
-0.140897 -0.213359 0.353432
-0.203661 0.116528 0.611841
0.0182427 0.200278 0.0152677
0.0642753 0.0755146 0.366909
-0.0774796 -0.032305 0.331474
0.23117 0.048379 0.537662
-0.150125 -0.172885 0.330467
-0.142588 0.154672 0.675834
-0.0917761 0.118239 0.5605
0.232852 -0.16596 0.467924
0.179095 -0.160941 0.331474
0.16093 0.172532 0.753316
0.022484 0.186718 0.718326
-0.00039351 -0.207751 0.324197
-0.0497731 -0.219939 0.323187
0.0134327 0.147604 0.470744
0.225672 -0.189298 0.0285392
0.0390738 -0.171892 0.331474
0.184028 -0.147611 0.364375
-0.0108297 -0.179615 0.331474
-0.119007 0.167403 0.745265
-0.0553179 -0.163118 0.32371
0.0282699 0.0239988 0.331474
-0.0716519 0.154885 0.425696
0.176742 -0.054675 0.331474
0.0828139 0.133836 0.503799
-0.184897 0.0221205 0.364375
0.198281 -0.00448183 0.333194
-0.200441 0.132693 0.71871
-0.199159 0.0353311 0.357566
-0.207366 -0.209549 0.0634094
-0.221529 -0.144387 0.486648
0.0113724 -0.00197999 0.364375
-0.175229 0.104327 0.53521
-0.0789865 0.121635 0.495674
-0.169869 0.11589 0.358938
0.225832 -0.104701 0.00941209
0.0597078 0.154923 0.622615
-0.206871 -0.0903288 0.00728405
-0.217204 -0.158474 0.463536
-0.198422 0.0896013 0.359593
-0.139896 -0.225224 0.32677
0.156866 -0.105388 0.331474
-0.210012 0.095033 0.00244339
0.120162 0.139976 0.385976
-0.221616 0.0257747 0.0181999
-0.147595 -0.0809585 0.331474
-0.037481 0.157483 0.625234
-0.142243 0.160618 0.743186
0.246755 0.0927307 0.539801
0.215313 -0.215432 0.0672941
-0.0203222 -0.0490775 0.331474
-0.00214588 0.137476 0.517539
-0.149549 0.100749 0.553984
0.205629 0.0529462 0.54274
0.21321 -0.0901937 0.0194446
-0.221608 -0.197094 0.200528
-0.120576 0.144413 0.620005
0.00739431 -0.0495314 0.364375
-0.16558 0.120647 0.588183
0.0575688 0.129518 0.588074
0.100977 0.150462 0.672016
-0.173505 -0.0914556 0.331474
0.076282 -0.0180691 0.331474
-0.151832 0.0240499 0.331474
0.135976 0.161323 0.690818
-0.0338449 0.120659 0.383947
-0.0917914 0.0629007 0.331099
-0.0792032 0.204177 0.0128737
-0.113253 0.187446 0.757811
0.206699 0.164894 0.00769897
-0.0312533 0.134836 0.550806
0.207335 -0.175544 0.267356
-0.225626 -0.104491 0.0089121
-0.0611824 0.0227814 0.364375
0.207177 0.142186 0.767303
0.106066 0.113159 0.516109
0.243333 -0.0294259 0.544469
-0.00116537 0.183785 0.757087
-0.0557475 0.1409 0.486031
0.0261276 -0.0427929 0.331474
-0.197054 0.111686 0.646621
-0.196744 0.124545 0.690401
-0.0687588 -0.0927574 0.364375
0.0143599 0.150165 0.364832
0.101504 -0.0189356 0.364375
-0.0624272 0.179403 0.750638
-0.199159 -0.0674575 0.360588
-0.0265824 -0.0970024 0.331474
0.160277 0.0984417 0.517557
-0.100693 -0.0147317 0.364375
0.0417917 0.120658 0.5117
0.156807 -0.0905754 0.364375
-0.185105 0.120719 0.657603
0.091927 -0.0853155 0.331474
-0.0379146 0.165559 0.38601
-0.107857 0.177355 0.784092
0.144889 0.0418444 0.342683
-0.185909 0.120136 0.607166
0.122599 -0.145951 0.331474
-0.0354572 0.142356 0.392729
0.145004 0.0522844 0.36454
0.0724213 -0.0820132 0.364375
-0.21864 -0.186762 0.282882
0.130011 0.206982 0.0104444
0.208285 0.00176601 0.537858
-0.206976 0.0961636 0.601767
-0.218885 0.144106 0.00123178
0.0455785 0.138027 0.437141
0.136656 0.126121 0.576663
0.199159 -0.0302146 0.355355
-0.0559122 0.134532 0.603743
0.190034 0.020431 0.364375
-0.114148 0.114264 0.563416
-0.0894276 -0.153803 0.364375
0.233129 -0.0971137 0.53148
-0.198281 -0.111575 0.34782
-0.198281 -0.0303202 0.361719
0.131799 -0.121843 0.364375
-0.230959 -0.119505 0.517345
-0.225008 -0.164448 0.396452
0.0730837 -0.212608 0.353966
0.119104 0.175286 0.788633
0.123081 0.121932 0.597507
0.117243 0.125457 0.554046
-0.220999 0.0557375 0.545274
-0.221523 -0.183732 0.0150948
-0.235176 -0.00430075 0.550527
-0.0108063 0.0603808 0.36454
0.0379198 0.116333 0.382196
-0.223305 0.167329 0.0172533
0.219708 0.156055 0.742828
-0.00882732 0.154902 0.381226
0.204414 0.119436 0.681655
-0.06859 0.157854 0.374576
-0.0352155 0.197756 0.756131
-0.139258 0.116952 0.597694
0.0133707 0.158865 0.624175
0.166947 0.143306 0.663497
-0.0320248 0.16838 0.706965
-0.0121504 0.192205 0.736215
0.206557 0.0880958 0.521617
-0.127755 0.136063 0.600055
-0.0996068 0.0516011 0.36454
0.105589 0.0311606 0.331474
0.0319284 -0.227583 0.332995
-0.0857571 0.166238 0.667751
0.140306 -0.00965684 0.331474
-0.213623 0.0738333 0.543691
0.111686 -0.0544005 0.331474
0.223052 -0.178755 0.326717
0.0496537 -0.154818 0.364375
0.139449 -0.0212621 0.364375
0.198422 0.0892213 0.354501
-0.103356 0.0874776 0.373986
-0.153564 0.0780113 0.341204
0.0249308 -0.207842 0.357358
-0.110639 0.127977 0.447281
0.103513 0.133264 0.360662
0.0872795 0.147977 0.607272
0.199159 -0.0635996 0.363925
-0.212777 0.1136 0.459923
-0.163729 -0.110974 0.331474
0.0423405 -0.0796574 0.364375
0.0359507 0.186576 0.768363
0.0653023 -0.16646 0.331474
-0.19968 0.119576 0.406517
0.219803 -0.15731 0.364397
-0.209347 0.145686 0.701477
0.087928 -0.00114069 0.331474
-0.0855339 0.144977 0.386865
-0.209093 0.0747594 0.00282413
-0.204709 0.105384 0.567977
-0.0415942 0.131812 0.527505
-0.110392 0.169966 0.696267
0.0177471 0.0418444 0.347897
0.153996 0.0250879 0.331474
-0.00560129 -0.142776 0.331474
-0.112513 0.0298372 0.364375
-0.224484 0.142218 0.721619
-0.127779 0.118922 0.528439
-0.1632 0.0650816 0.370318
0.219462 -0.070819 0.54938
-0.210189 -0.0719215 0.00237031
0.0764338 0.159334 0.689818
0.064094 0.150441 0.443406
-0.223225 0.10021 0.516426
-0.134811 0.147402 0.374865
-0.23859 -0.0834183 0.546177
0.112153 0.136218 0.473598
0.204581 0.123912 0.631949
0.192321 0.0418444 0.33257
0.208666 0.0199195 0.0030006
-0.215822 0.120354 0.693292
-0.00172979 0.0429725 0.331099
0.236132 -0.163474 0.447864
0.222197 -0.0427027 0.552501
0.021677 0.134507 0.523187
0.0291816 0.0918968 0.339382
0.0811128 0.0796292 0.336439
-0.0846907 0.125914 0.583339
-0.158665 -0.165517 0.313443
0.224904 -0.0183152 0.536297
-0.108714 0.11256 0.515256
0.155018 0.206081 0.00933831
-0.142485 0.112091 0.354048
0.0902782 0.144994 0.648249
0.122289 0.108043 0.383261
-0.190036 -0.0923057 0.364375
-0.0697484 -0.143348 0.331474
-0.123327 0.146392 0.678205
0.0678286 0.133396 0.390239
0.206154 -0.150303 0.451965
-0.187696 -0.124476 0.331474
-0.206782 -0.0580644 0.530585
0.205615 0.0937615 0.593499
0.045615 0.163413 0.693802
-0.0447866 -0.0352877 0.331474
-0.223256 0.133147 0.0173713
-0.224706 -0.0927636 0.518314
-0.0632589 -0.0310475 0.364375
-0.10644 0.156783 0.382497
0.0644266 0.182345 0.761553
-0.208075 -0.199137 0.0866489
-0.03882 -0.203941 0.32606
-0.160988 0.103574 0.576121
0.207264 0.117379 0.454754
0.0540056 0.0558279 0.36454
0.0119912 0.170953 0.664746
0.221745 0.113096 0.00241662
0.206375 -0.127977 0.497679
0.0623267 0.16068 0.371323
-0.0873675 -0.189043 0.363565
0.0664459 0.196586 0.784877
-0.124627 0.130758 0.4823
-0.0304881 0.147354 0.41008
0.146358 0.173819 0.781845
0.0485992 -0.00280727 0.364375
-0.0769422 -0.00888549 0.364375
0.00880352 0.0654427 0.331099
-0.230129 0.0275634 0.539483
0.103671 0.134776 0.571511
-0.212523 -0.191056 0.0472048
0.113046 0.0895655 0.34266
0.115898 0.130778 0.619071
0.225943 -0.149131 0.463316
0.203326 0.165654 0.777572
0.0625338 -0.148679 0.331474
0.179863 -0.0969848 0.364375
-0.0565103 0.1784 0.697127
0.136944 0.0075369 0.364375
-0.00100956 0.12353 0.554634
-0.216374 0.16376 0.789589
0.145467 0.129005 0.361427
0.000155807 0.185356 0.782682
0.0896317 0.0750884 0.36822
0.0807847 -0.227197 0.335185
0.167404 0.0250559 0.364375
0.113519 0.137874 0.640712
0.162809 0.150883 0.684013
-0.108516 0.152869 0.636893
-0.210211 -0.182202 0.306479
0.00927883 -0.025257 0.364375
-0.158773 -0.000810251 0.364375
-0.00536405 -0.218207 0.349983
0.0705885 -0.123034 0.331474
-0.0447931 -0.0599366 0.364375
-0.212969 -0.159636 0.345015
0.163368 0.131678 0.621927
0.086475 0.103785 0.379479
-0.20649 -0.189209 0.214635
0.0484774 -0.0200661 0.331474
-0.0561927 0.144995 0.637378
0.0522263 0.137934 0.61373
0.0971979 0.183111 0.730341
0.0924856 -0.171778 0.364375
0.183989 -0.220382 0.346552
0.0523996 -0.124401 0.364375
0.210194 0.110301 0.65947
-0.240678 -0.0470851 0.552392
0.221456 -0.0525056 0.0182659
-0.120571 0.121011 0.356479
0.00908943 -0.0530541 0.331474
0.0916475 0.136711 0.42729
0.200425 0.130036 0.71501
0.166153 0.119553 0.585198
-0.0353936 0.0636331 0.331099
-0.0283414 -0.152153 0.331474
-0.157569 0.174825 0.757068
0.0309528 0.00658832 0.364375
0.125732 -0.212272 0.32288
-0.0207504 0.18643 0.767045
0.05204 0.161933 0.402956
-0.0638078 0.108968 0.347849
0.206616 -0.160327 0.422346
-0.0158756 0.00382822 0.331474
0.0355976 0.176849 0.380811
-0.0499895 0.150109 0.36584
0.0861176 0.127386 0.588421
0.206609 -0.165947 0.348243
0.141736 -0.159633 0.331474
-1.90187e-05 0.18329 0.705577
-0.00442128 -0.15907 0.364375
-0.13057 -0.165336 0.331474
-0.171327 0.204799 0.0123351
0.017734 -0.0859697 0.364375
-0.108239 -0.140222 0.364375
-0.197474 0.109022 0.591717
-0.146885 0.147766 0.657668
-0.210332 -0.158954 0.483395
-0.179435 -0.172182 0.364375
0.165752 0.0478202 0.331099
0.0262621 -0.154443 0.331474
0.191585 0.0987487 0.534376
-0.188479 -0.21848 0.349724
0.211432 -0.184411 0.0149463
-0.217075 -0.0685865 0.541514
0.0686798 0.133239 0.451597
0.149932 0.152682 0.38098
0.134149 0.137957 0.372889
0.200589 0.202492 0.00623063
0.134769 -0.165532 0.313417
0.228746 0.0760504 0.543497
0.223517 0.00323493 0.549867
-0.0917178 0.127128 0.468259
-0.216397 0.135058 0.665788
-0.01084 0.143768 0.427872
0.180467 0.00835016 0.364375
-0.168932 -0.165028 0.331474
0.206249 0.0757983 0.0117774
-0.21229 0.029972 0.539272
0.0567005 -0.200171 0.361239
0.00173592 0.147705 0.635799
-0.0481742 0.15474 0.434489
0.223473 -0.199142 0.0818577
-0.15585 0.166881 0.78971
-0.199159 -0.00688566 0.331998
-0.0378804 0.139277 0.498355
-0.198422 0.111604 0.386461
-0.216212 -0.133603 0.0204386
0.18561 0.0727708 0.375875
0.0971006 0.112932 0.544122
0.198822 -0.0249569 0.331474
-0.0183175 0.132817 0.53175
0.0390859 0.0418444 0.354131
0.132381 0.104195 0.546066
-0.23139 0.0831591 0.534619
-0.20959 -0.2091 0.113243
0.0876463 -0.205524 0.325286
0.0648697 -0.180439 0.314808
-0.171724 0.108794 0.604057
0.0585082 -0.175678 0.364375
-0.19111 -0.0544443 0.331474
-0.163227 0.0956323 0.521826
-0.223642 -0.204194 0.137332
-0.0792088 -0.136061 0.364375
-0.0471884 0.163697 0.399821
0.134976 0.0933563 0.378149
-0.111702 -0.214758 0.322272
-0.102571 0.145816 0.428647
0.216107 -0.0189471 8.17927e-05
-0.107144 0.149294 0.673573
-0.0742322 0.199649 0.784337
-0.034225 0.184309 0.710862
0.153291 -0.197042 0.361893
0.198281 -0.207581 0.330299
0.171374 0.106878 0.387819
-0.218404 0.107208 0.645181
-0.0317679 0.0703046 0.36454
-0.200188 0.137418 0.74005
0.108071 0.0567485 0.36454
0.0942372 -0.0356014 0.364375
-0.225756 -0.0530649 0.011337
0.121327 0.163367 0.733713
0.0838283 -0.0645228 0.364375
0.121198 -0.0339481 0.331474
-0.207848 -0.0163196 0.0156369
-0.23872 -0.160722 0.459682
-0.0504924 0.135638 0.558432
-0.130738 0.180418 0.783552
-0.198281 0.0226866 0.337827
0.0506242 0.194457 0.785252
-0.225378 -0.0107671 0.534489
0.0566634 0.139733 0.573121
-0.112315 0.185743 0.00889317
0.195551 0.131773 0.657244
-0.22592 -0.205045 0.0722494
0.218158 -0.169487 0.0266439
-0.00506978 0.154548 0.445623
-0.0783177 0.184664 0.726267
0.055192 0.131562 0.546206
0.221521 0.10466 0.572451
-0.0299455 0.134896 0.357947
0.196557 0.111633 0.59096
-0.0370836 0.173317 0.37023
0.00056009 -0.190041 0.330557
0.150398 0.12825 0.597568
0.0241252 0.203748 0.783614
-0.0133649 0.133239 0.588889
-0.194164 0.142251 0.386988
-0.0123542 0.0418444 0.347165
-0.19107 0.154843 0.778867
0.018935 0.129791 0.481435
-0.198281 -0.167078 0.360172
0.208408 -0.192252 0.129847
0.040656 0.0429599 0.331099
0.169649 0.11566 0.62435
0.218494 -0.0576577 0.524217
-0.22153 -0.0265459 0.00232758
0.0654497 0.117287 0.351514
0.199159 -0.0636084 0.332266
0.152288 0.142723 0.695007
-0.218089 -0.16003 0.00352095
0.107003 -0.180802 0.316212
-0.162441 -0.0873541 0.364375
-0.215477 -0.173108 0.241698
0.0695397 0.148145 0.603349
0.0070133 0.165187 0.398952
-0.0849266 0.132915 0.605858
0.191709 -0.163925 0.316145
-0.0341562 0.131111 0.473658
0.095904 0.128194 0.461011
0.246755 -0.126923 0.512759
0.0707068 0.123572 0.572306
0.145216 0.109516 0.353217
-0.156821 -0.202176 0.360819
-0.0459555 -0.173132 0.310781
0.140766 0.15407 0.672021
0.167325 -0.0895036 0.331474
0.198281 -0.0844198 0.348818
-0.215262 -0.127556 0.521263
-0.246755 0.0820787 0.536914
0.20127 0.136953 0.686653
-0.198422 0.0554371 0.360766
-0.0897098 0.126238 0.356807
-0.20563 -0.167084 0.431968
-0.171463 0.155733 0.373633
-0.206665 0.189895 0.00778263
-0.0420398 0.188735 0.774812
0.177183 0.142646 0.721791
-0.215246 -0.171467 0.44957
-0.233491 -0.152298 0.494047
0.151329 0.112668 0.503851
0.109171 -0.197889 0.329019
-0.095814 0.19442 0.785259
0.170626 0.0605359 0.369288
0.21281 -0.173953 0.372915
-0.199159 -0.131662 0.359268
0.132869 0.127643 0.485938
0.181612 -0.0324422 0.331474
0.0687455 -0.00223716 0.364375
0.131801 0.157218 0.364739
-0.195827 0.0943427 0.551849
-0.221924 0.0596399 0.0024906
-0.224161 0.0882768 0.555303
0.214421 0.109275 0.59614
-0.199159 -0.171187 0.340517
0.0271554 -0.0407959 0.364375
0.216647 0.0946549 0.000305383
0.19198 0.0234152 0.331474
0.221838 0.150661 0.0181077
0.0333581 0.137491 0.607558
0.0435934 0.0904974 0.371739
0.0100863 0.208974 0.782692
0.0862159 0.195025 0.780976
-0.0865258 0.157132 0.687366
0.031189 -0.164816 0.314631
0.183304 0.184348 0.0104613
-0.0644472 -0.195049 0.36231
-0.167383 0.144894 0.364406
-0.0105884 -0.186246 0.36415
0.199159 -0.105223 0.349592
-0.140626 0.0366025 0.364375
-0.0481867 0.174113 0.728771
-0.0196428 0.137549 0.390783
0.00429957 0.163218 0.688101
0.206791 -0.191959 0.159995
-0.0573368 0.118395 0.552184
-0.131427 0.121406 0.389133
0.22532 -0.070115 0.532674
0.0810609 -0.176555 0.331474
0.215877 0.125246 0.399794
-0.0192484 -0.015486 0.331474
-0.188713 0.0668813 0.37383
0.0981011 -0.196823 0.361939
-0.217009 0.146084 0.780539
0.159007 -0.0581375 0.364375
0.0100022 0.0784152 0.366848
-0.0741663 0.211766 0.778024
0.0511222 -0.226271 0.329532
0.0992359 0.118477 0.563174
-0.1814 0.0907718 0.552771
-0.0377106 0.18947 0.728406
-0.0854795 0.0833592 0.338282
-0.0623317 0.0547551 0.36454
0.0203117 -0.128756 0.364375
0.217491 0.129319 0.647247
0.223263 -0.167107 0.306165
-0.00492416 -0.109394 0.331474
0.153119 0.00568581 0.331474
-0.207026 -0.198822 0.155534
-0.057342 0.149748 0.450925
0.225031 0.0780515 0.00747862
0.211022 0.0793414 0.553419
0.074481 0.171901 0.731266
0.113105 -0.0769708 0.364375
-0.0966319 -0.0293676 0.331474
0.212467 0.0690316 0.534423
0.141388 0.0304983 0.364375
0.0491441 -0.0324845 0.364375
0.213523 -0.201761 0.177173
-0.0368902 0.18661 0.00814194
0.175164 0.0776739 0.343456
-0.140261 0.105811 0.507324
0.198281 -0.180164 0.341131
-0.102612 -0.177312 0.364375
0.225296 -0.137418 0.00811919
-0.193581 0.0988635 0.53698
-0.198281 -0.013383 0.35126
0.217684 -0.20895 0.127843
0.0205789 0.117641 0.532522
-0.0951831 0.140549 0.63567
-0.0219216 -0.0150578 0.364375
0.174588 0.173278 0.771771
-0.116477 0.179093 0.732493
0.114453 0.117193 0.488955
0.149285 0.152429 0.723624
-0.220015 0.0046006 0.522557
-0.090865 0.137981 0.485678
-0.146132 0.0821817 0.37517
-0.0559412 0.100784 0.376526
-0.0106335 0.166857 0.6509
-0.13964 -0.0886829 0.364375
0.123246 0.0452013 0.36454
-0.127969 0.163834 0.691239
-0.218757 -0.0361286 0.0193842
-0.0479865 0.201596 0.769737
0.135741 -0.176642 0.364375
-0.121168 -0.0475958 0.331474
-0.0208542 0.107802 0.378743
-0.0991446 0.161602 0.708679
-0.165087 0.127065 0.656923
-0.219689 -0.182307 0.186193
0.010056 0.153984 0.382922
0.153486 0.134659 0.376046
-0.114229 -0.12082 0.331474
-0.0843615 -0.168392 0.331474
-0.138216 0.0511676 0.331099
0.0765089 0.129789 0.52337
-0.00579372 0.209594 0.782583
0.0832848 0.152827 0.427041
-0.00523239 0.148017 0.473125
0.18696 0.162622 0.750531
-0.205843 -0.18195 0.255062
0.206498 -0.199339 0.112556
0.203018 0.10602 0.632463
0.198281 0.0382346 0.352388
-0.0915789 0.176575 0.755479
0.0320262 0.175102 0.729567
-0.14781 -0.0519183 0.364375
-0.0374286 -0.112292 0.331474
-0.219641 -0.152543 0.435191
-0.128413 0.128235 0.575185
0.124177 -0.212068 0.354351
0.150999 0.144694 0.651826
-0.153916 -0.194753 0.329798
0.0430813 0.169822 0.713721
0.00463881 0.0990235 0.37519
-0.12807 -0.179018 0.364375
-0.21875 -0.190157 0.258396
-0.21498 0.130811 0.730219
0.207957 -0.137206 0.513181
-0.140379 0.168738 0.719481
0.214299 0.0917934 0.480892
0.216189 0.099929 0.513224
0.00724246 -0.0032949 0.331474
-0.00130084 0.205204 0.00857928
-0.126706 -0.149209 0.364375
-0.0152248 0.122619 0.513176
0.0881109 0.142399 0.589589
0.0884924 0.168411 0.676434
-0.230078 -0.0369221 0.544469
0.210021 0.118456 0.60733
0.0662321 0.173153 0.682738
0.0170511 0.184573 0.760599
-0.00110613 0.120861 0.525762
0.184952 0.136799 0.367798
-0.0383099 -0.0773154 0.364375
0.212251 -0.15465 0.382626
-0.0715609 0.146995 0.395506
-0.219531 0.0334895 0.00149945
-0.0493998 0.145796 0.469027
-0.090427 0.135322 0.567469
-0.15431 0.00515428 0.331474
0.125982 0.144591 0.626079
0.206856 0.111593 0.0132436
0.18686 -0.209079 0.323661
0.0376206 0.139843 0.56868
-0.157063 0.113521 0.604587
0.0113317 0.150966 0.597747
-0.217175 0.208952 0.0200395
0.101306 0.155502 0.370042
0.204804 0.0852137 0.535751
0.0024882 0.140311 0.561339
-0.0084465 -0.164809 0.327516
0.119181 0.172464 0.712533
-0.0648474 -0.226417 0.329917
0.224831 0.158328 0.787614
-0.20885 0.177828 0.00292466
0.0581841 0.134505 0.509841
-0.0873526 0.112788 0.541
0.207243 -0.0449705 0.529992
0.208911 -0.154725 0.472922
0.201301 0.128001 0.419135
0.207689 -0.00592668 0.0152547
0.0990177 -0.154677 0.364375
0.0941693 0.119142 0.499949
-0.213053 0.208848 0.00118407
0.187345 0.0433658 0.36454
0.221908 0.141932 0.75424
0.0100262 0.143085 0.491015
0.215781 -0.196242 0.223164
0.123565 0.124943 0.390077
-0.20744 0.148206 0.717554
0.0109648 0.192554 0.737323
-0.0345374 0.149484 0.598834
-0.0234142 0.143134 0.575662
-0.145363 -0.179976 0.3144
-0.0550947 0.151164 0.656892
0.206133 0.0552829 0.0114983
-0.171171 0.111889 0.389677
0.126531 0.0703443 0.335312
0.209309 -0.177516 0.337136
-0.121382 0.0854409 0.374213
-0.123427 0.00241618 0.331474
-0.0174249 0.0425913 0.36454
0.144597 -0.119277 0.331474
-0.0249839 0.147431 0.637339
-0.131558 0.102537 0.539572
0.168314 0.146746 0.379228
-0.190811 0.125481 0.68022
-0.109761 -0.14015 0.331474
0.0298743 0.169713 0.662554
0.165199 0.163669 0.778205
0.127399 0.178331 0.73966
0.147058 -0.0902779 0.331474
-0.158743 0.129425 0.363083
-0.12605 0.106913 0.518444
-0.195827 0.140124 0.704651
0.225916 -0.0746266 0.010948
0.157137 -0.14808 0.364375
0.0624787 0.0368059 0.364375
0.0531662 0.144765 0.635877
0.16766 0.129646 0.382348
-0.146922 0.0936678 0.346898
-0.0218801 0.155726 0.615672
-0.195243 0.158832 0.747514
0.205946 -0.182772 0.25102
0.0237536 0.142703 0.621862
0.208123 0.101524 0.446504
0.22364 -0.164189 0.422013
0.0752749 0.165131 0.708811
0.200619 0.0873088 0.568242
-0.0814193 0.0176332 0.331474
0.0333068 -0.182179 0.321536
0.156179 -0.178388 0.313465
0.0855723 0.115536 0.517624
-0.0607467 -0.0733254 0.331474
-0.0782966 -0.117012 0.331474
-0.204524 0.108734 0.426693
-0.12784 0.0524882 0.36454
-0.0218782 0.139424 0.444675
0.0791118 0.0150262 0.364375
-0.198281 -0.0265801 0.335194
-0.0877497 0.158287 0.369156
-0.213035 0.0881705 0.0193713
0.0319054 0.14592 0.586737
-0.0121831 0.0573025 0.331099
0.150047 0.179861 0.765588
0.113887 0.0111498 0.331474
-0.223946 0.0182478 0.548554
0.15925 0.185228 0.00933906
0.206983 -0.0136318 0.529485
0.206564 -0.208191 0.0808799
-0.108326 0.166115 0.367578
0.198281 -0.131815 0.350913
-0.206448 -0.0835971 0.524388
0.203357 0.158032 0.751288
0.161283 -0.0460851 0.331474
0.228742 -0.14582 0.489065
-0.246755 -0.125669 0.515359
-0.136522 0.144964 0.638002
-0.229971 -0.154314 0.47383
0.207375 0.0154894 0.525987
0.0144711 0.125069 0.562957
0.15704 -0.0200541 0.364375
0.207118 -0.0977963 0.523597
-0.158845 0.158028 0.751891
-0.214213 0.11812 0.442963
0.0725763 0.131019 0.548921
-0.0177689 -0.147519 0.364375
0.157672 0.0778902 0.341609
-0.0823189 -0.0526714 0.331474
0.181707 0.0924027 0.383395
-0.213919 -0.0705914 0.0197375
-0.198281 -0.137146 0.344866
0.0937228 0.0418444 0.34691
0.225996 0.032346 0.0107537
-0.20563 -0.14512 0.494042
-0.112868 0.15321 0.691891
0.208205 -0.181574 0.209345
0.0592162 0.145163 0.409268
0.116205 -0.150035 0.364375
0.139138 0.0582864 0.331507
0.0667235 0.204196 0.00770627
0.0250301 0.132583 0.467477
0.066293 0.159771 0.639827
0.103034 0.167179 0.730269
0.0488439 -0.209168 0.323639
0.0711156 0.150864 0.65996
-0.0755321 0.139601 0.577447
0.181807 -0.144225 0.331474
-0.0732938 0.127595 0.534065
-0.106374 -0.0962772 0.364375
-0.0672005 0.173745 0.733897
-0.0954522 0.203254 0.00688992
-0.13972 -0.0655141 0.331474
0.103788 0.12495 0.58842
-0.18284 -0.181882 0.323091
-0.0242462 -0.18126 0.317984
-0.198597 0.127684 0.379772
0.115809 -0.115224 0.364375
0.0921506 0.129138 0.547625
0.026464 0.107581 0.346154
-0.208424 0.105772 0.0170285
-0.159496 0.144449 0.377274
-0.189373 0.143294 0.688614
0.203662 0.123688 0.386904
-0.167263 0.176421 0.773738
0.148759 0.138215 0.628413
0.219672 0.0362141 0.538726
0.0450391 0.190291 0.732384
-0.218272 0.103037 0.557653
-0.120853 0.157784 0.664477
0.015742 0.0367673 0.331474
0.0504924 -0.111983 0.331474
-0.145868 0.143472 0.69093
0.10287 0.166709 0.382941
0.113522 0.00891487 0.364375
-0.0396116 0.159667 0.680272
0.198281 -0.0123988 0.348376
-0.0839433 0.0357174 0.331474
-0.210795 0.0828046 0.532522
0.0669348 0.127271 0.474784
-0.172885 0.0343013 0.364375
-0.0841453 -0.0720985 0.331474
0.0641015 -0.00458881 0.331474
0.0653514 0.138468 0.490563
0.0116904 0.0362599 0.364375
-0.0508955 0.161017 0.639948
0.112045 -0.12476 0.331474
-0.23343 -0.0934039 0.533379
-0.214097 -0.168854 0.413026
0.21656 0.139761 0.720056
0.0413402 0.14245 0.421258
-0.00512151 0.00215702 0.364375
-0.206088 -0.137654 0.0113868
-0.209853 0.124568 0.708365
-0.0449339 0.103819 0.344529
-0.174666 0.145533 0.67893
0.0276502 0.226207 0.779653
0.136573 -0.0787694 0.364375
-0.197677 0.103191 0.618345
-0.141889 0.137715 0.619802
-0.0761078 -0.206812 0.324656
0.226945 -0.0235855 0.552214
-0.198281 -0.203399 0.360286
0.110821 0.183478 0.742252
-0.112685 0.135505 0.631975
-0.144926 0.18412 0.782899
0.207065 -0.187884 0.184222
0.214996 0.0812506 0.514524
0.137815 0.100897 0.530465
0.119701 0.121866 0.526318
-0.00735782 -0.227834 0.334123
-0.0294662 0.0950746 0.340754
0.0186576 -0.0776257 0.331474
-0.0756214 0.131937 0.45655
-0.0488293 -0.224071 0.340398
-0.154378 0.162325 0.712777
0.120656 0.158809 0.667761
-0.233616 -0.171762 0.448126
0.17377 0.0258338 0.331474
0.113419 -0.174633 0.331474
-0.166896 -0.0118063 0.331474
-0.036682 0.167198 0.6562
0.00674603 0.164858 0.370883
0.222803 -0.0581105 0.540717
0.214758 -0.174101 0.436652
-0.14085 0.176878 0.746747
-0.21517 -0.178339 0.205392
-0.0674439 0.114155 0.382543
0.219548 -0.169703 0.401553
0.172273 0.136897 0.647997
0.133212 -0.133137 0.331474
0.198281 -0.158296 0.357269
-0.236912 0.0443196 0.546273
-0.0928739 0.117587 0.50684
-0.0441494 0.120151 0.513136
0.13465 0.121948 0.56101
0.182569 0.139148 0.666777
0.173095 -0.175926 0.329681
-0.212718 0.0890219 0.587787
-0.0662693 0.0885121 0.372227
-0.230444 -0.0599297 0.552074
-0.0236772 -0.170763 0.331016
0.173784 0.131436 0.680277
-0.0683661 -0.180112 0.326096
-0.202726 0.0967785 0.507747
0.0606276 0.194612 0.751114
-0.0142705 0.13189 0.477271
-0.187976 0.0347796 0.331474
0.171039 0.122769 0.600655
-0.134933 0.0768243 0.338654
0.0662371 0.158624 0.413167
-0.0151791 0.171382 0.666361
0.148384 -0.0583689 0.331474
-0.116306 0.174866 0.768047
-0.202397 0.080566 0.54779
-0.216383 0.0980992 0.485218
-0.146266 0.154801 0.728294
0.209605 -0.0695976 0.0179511
-0.0723127 0.128136 0.472508
-0.177316 -0.0734596 0.331474
0.140414 0.170761 0.726116
-0.0758533 0.13754 0.492429
-0.177559 -0.044966 0.364375
0.00531844 0.187649 0.720524
-0.207362 0.0786574 0.509328
-0.0187355 0.167438 0.386882
-0.0680371 0.0459635 0.331099
-0.213136 0.0117458 0.0194132
-0.0160041 0.117175 0.536233
0.0917818 -0.0235344 0.331474
0.0304387 0.13678 0.447843
-0.204506 -0.181886 0.320405
0.192118 -0.0781468 0.364375
-0.21645 0.126021 0.407218
-0.139814 -0.159342 0.364375
0.0488919 0.14962 0.449487
-0.171723 -0.14492 0.364375
0.198281 -0.0713948 0.346659
0.220134 -0.169328 0.279876
0.060145 0.222327 0.778336
0.125939 0.188646 0.782101
-0.200279 0.120611 0.627259
0.20655 0.130363 0.0125059
0.0968779 0.156412 0.690043
-0.223309 -0.131477 0.507318
0.197192 0.127528 0.701361
0.220211 0.14069 0.691752
0.137267 0.168645 0.765738
-0.167974 0.129014 0.617914
-0.0230095 -0.200347 0.327817
-0.0275391 0.163559 0.690511
-0.0369375 -0.0590147 0.331474
0.0792922 0.143906 0.395102
-0.173277 0.14281 0.717778
-0.0933374 0.13447 0.435797
0.0998162 0.145724 0.446841
-0.206445 0.0596749 0.00831377
-0.213086 0.137554 0.688302
-0.0105309 -0.205641 0.358924
-0.185135 -0.166308 0.331474
0.0484771 0.172112 0.674933
0.0128055 0.150043 0.398299
-0.0834214 0.164658 0.711232
-0.106816 0.125785 0.524436
0.0980152 0.143174 0.389571
-0.129774 0.116117 0.475544
-0.093254 -0.128011 0.364375
0.0386274 0.150165 0.389458
0.198791 0.0920658 0.487439
-0.216514 0.109683 0.000249458
0.130915 -0.0468551 0.331474
0.107049 -0.150298 0.331474
0.0924786 0.097334 0.344697
-0.156851 0.0418444 0.343769
0.0555801 -0.180875 0.331474
-0.111744 0.142883 0.656036
-0.107039 -0.214987 0.352274
0.187504 0.112384 0.360117
-0.0806883 -0.0693664 0.364375
0.220705 -0.0378354 0.00198601
-0.17368 0.00867262 0.364375
0.208123 -0.0817512 0.546601
0.00639815 0.106531 0.3457
-0.207487 -0.18054 0.229182
-0.181068 0.15665 0.773235
0.225219 -0.196315 0.0429964
0.0736169 -0.162682 0.318254
0.0775248 -0.138764 0.331474
0.0995676 0.130224 0.602986
0.220099 0.121297 0.689729
0.0463599 0.180906 0.70261
-0.132684 -0.0200447 0.331474
-0.11875 0.134672 0.586372
-0.000920445 0.131182 0.356344
0.246755 0.0466755 0.540979
-0.0897748 -0.181629 0.319409
0.18009 -0.163112 0.364375
-0.166902 -0.0378809 0.331474
0.0184973 -0.211231 0.323135
-0.22547 -0.167376 0.367608
-0.206288 0.00460604 0.532765
-0.200382 0.116429 0.668105
-0.0718436 0.0931818 0.341612
-0.123392 -0.0760353 0.331474
0.223533 -0.154274 0.402159
0.21728 0.155349 0.000567304
0.0216456 0.132084 0.539169
-0.166105 0.0953156 0.552019
0.225508 -0.1206 0.00862984
-0.101589 -0.225669 0.327945
-0.157455 0.151472 0.680495
0.0984944 0.154619 0.634822
-0.0342254 0.122849 0.560807
-0.159312 0.113724 0.55923
-0.0514804 0.166767 0.368783
0.0980796 0.150048 0.421575
-0.0991182 0.167383 0.678207
-0.246755 0.033062 0.540258
0.214696 -0.125323 0.483941
0.0638032 -0.146055 0.364375
0.0613248 0.162745 0.695611
-0.196154 0.0110012 0.364375
-0.169484 -0.0145835 0.364375
-0.027217 0.154021 0.382433
-0.223574 -0.176439 0.335993
-0.176923 -0.22402 0.340483
0.102608 0.146713 0.610849
-0.231545 0.0669395 0.536038
-0.195827 0.0995849 0.579858
0.198422 0.0524092 0.346102
-0.12254 -0.00911972 0.364375
-0.0320156 0.124714 0.499368
0.156129 -0.180678 0.364375
0.0778937 0.0330096 0.331474
0.175724 -0.0751378 0.331474
0.246755 -0.0980374 0.539208
-0.0818295 -0.101583 0.331474
-0.0534893 -0.176626 0.331474
0.203148 0.135131 0.672787
0.143104 0.135336 0.661579
0.0278877 0.15614 0.42957
-0.0406177 0.14584 0.63617
-0.126716 0.141035 0.663524
-0.00665659 -0.0564018 0.364375
-0.15338 -0.0746178 0.364375
0.141207 -0.226659 0.336082
-0.245714 -0.148979 0.484905
-0.130916 0.150987 0.651955
-0.224348 0.177918 0.00582818
-0.106047 0.13096 0.359827
0.112264 0.192651 0.774498
0.0574292 -0.08635 0.364375
-0.196906 -0.0908484 0.331474
0.0961265 -0.102258 0.364375
0.0464111 0.160384 0.636787
-0.0628515 -0.169582 0.311699
0.171799 -0.00809722 0.331474
-0.105721 0.034102 0.331474
-0.0856519 -0.168899 0.364375
-0.182982 0.112823 0.580334
0.226031 -0.114739 0.509259
0.2239 -0.0128682 0.0158159
0.12987 0.166563 0.752114
-0.205659 -0.189555 0.196747
-0.000843718 0.177835 0.68728
-0.0436141 -0.149411 0.331474
-0.217195 -0.096855 0.531612
0.146665 0.0669632 0.369276
-0.205836 0.039171 0.528646
-0.0359139 0.0788995 0.33377
0.200241 -0.180476 0.314951
-0.0208022 0.153631 0.656761
-0.130683 -0.221338 0.344956
-0.0482415 0.00537316 0.331474
-0.172619 0.161109 0.72871
0.15092 0.0963285 0.537287
0.216716 -0.148048 0.00088321
0.0028879 0.16814 0.704577
0.137124 0.110736 0.575247
0.0698236 0.141187 0.581097
-0.055628 0.160702 0.382491
-0.205915 0.144729 0.00959386
0.207558 -0.182074 0.283942
-0.0499847 0.164488 0.698349
0.0297352 0.190015 0.0152677
-0.073726 0.189646 0.775939
-0.0614263 0.1369 0.499757
0.19683 -0.186772 0.36404
0.22045 0.101241 0.528224
-0.198422 0.0451818 0.345807
0.000474345 0.135759 0.595565
0.0169886 0.0782265 0.33348
-0.0646876 0.144228 0.470035
0.0446882 0.171747 0.369537
-0.0332473 0.130918 0.586444
0.015314 0.150967 0.455895
0.161219 -0.12049 0.331474
0.214372 -0.0896466 0.000637097
0.199957 0.0840186 0.502624
-0.043914 -0.0248858 0.364375
-0.235866 -0.11463 0.531696
-0.207147 -0.174989 0.274579
0.0914471 0.0603306 0.36454
0.205629 -0.00580184 0.550505
0.218159 -0.167731 0.464013
-0.0567799 0.00491862 0.364375
0.21402 -0.14942 0.414575
0.0599919 -0.0438438 0.364375
0.196954 0.130693 0.375034
0.225483 0.0615499 0.52447
-0.0398366 0.138556 0.612606
0.0338395 -0.121703 0.364375
-0.11429 0.115369 0.496953
-0.114668 0.130627 0.569029
0.0412709 0.182485 0.783951
-0.211607 -0.0105689 0.541029
0.0641938 0.188121 0.730966
0.0334513 0.196837 0.784833
-0.186083 0.0913854 0.350834
-0.0922661 -0.0825275 0.364375
-0.0395725 -0.0890171 0.331474
0.0201888 0.14572 0.413858
0.055624 0.0402364 0.331474
-0.11701 0.053678 0.331099
0.157715 0.124703 0.392707
-0.0439229 0.158696 0.420455
-0.0890638 -0.214372 0.322366
0.0358895 0.126294 0.490074
-0.0687733 0.191152 0.743456
-0.207173 -0.0266614 0.537647
-0.224632 -0.113547 0.504574
-0.0668958 0.157005 0.631104
-0.11615 0.122283 0.465173
-0.191413 0.102222 0.603019
-0.106521 0.0660162 0.33222
0.0133909 -0.100194 0.331474
-0.0772846 0.141287 0.630792
0.199159 -0.219955 0.340478
-0.0109807 -0.110604 0.364375
-0.0306911 0.0165235 0.364375
0.138538 0.11778 0.599666
-0.115955 0.163257 0.728554
0.221783 -0.117307 0.529848
0.118819 -0.0619185 0.364375
-0.0476049 0.0548021 0.331099
0.0204061 0.147314 0.635812
0.166395 -0.16338 0.324724
0.21099 0.154459 0.730656
0.0984717 0.14078 0.468862
-0.199136 0.105238 0.474823
-0.218901 -0.0485915 0.54418
0.20545 0.108717 0.644976
-0.102403 0.131454 0.559267
0.246429 -0.163309 0.473777
0.101956 0.0803658 0.338056
0.224299 -0.165715 0.334046
-0.125928 0.139144 0.366045
-0.0731486 0.170155 0.674861
-0.0151522 0.13714 0.358916
0.207144 0.134544 0.740946
0.151119 -0.0751557 0.364375
0.148555 0.174012 0.744992
0.0578475 0.129478 0.356236
-0.168462 -0.179761 0.326692
-0.018039 0.166997 0.701555
0.0749836 0.1465 0.381008
-0.0851475 0.124739 0.481481
0.0686955 -0.164737 0.364375
-0.0840915 -0.205912 0.358731
0.195827 0.159549 0.788959
-0.221256 0.153418 0.739323
-0.170842 0.12391 0.604174
0.0726659 0.165266 0.381074
-0.0952216 0.157251 0.64209
0.12214 0.166115 0.693743
-0.00144984 0.0418444 0.360014
0.198281 -0.0532588 0.353204
0.0758358 0.136371 0.438885
-0.10851 0.0116075 0.364375
-0.0985374 -0.0519424 0.364375
-0.0868682 0.151375 0.668104
0.211576 -0.175033 0.239606
-0.159092 0.0141129 0.364375
-0.14608 0.118765 0.388926
0.170679 0.106451 0.524576
0.219761 0.131876 0.659794
0.0416679 0.0844705 0.336176
0.135572 0.164269 0.377282
-0.143771 -0.11597 0.364375
0.0578011 0.169268 0.715649
0.0910827 0.171461 0.737975
0.0809009 0.0911184 0.374099
0.0893189 0.192953 0.00529522
-0.0707856 -0.0190591 0.331474
0.199747 0.117251 0.616519
0.114321 0.14082 0.372365
0.061049 0.0846616 0.337331
0.146269 0.102408 0.514779
-0.0423147 -0.211551 0.354719
-0.0981959 0.143148 0.394325
0.219097 -0.0798091 0.536858
-0.011148 0.165023 0.370685
0.176099 0.0961866 0.567372
0.110784 -0.0972709 0.364375
0.185476 0.110069 0.390895
0.232944 -0.152957 0.476824
-0.222616 -0.0323554 0.530046
0.226105 0.0332207 0.528456
-0.214744 0.111607 0.583233
0.040954 0.13536 0.512441
-0.117082 0.127568 0.609802
-0.205145 0.141636 0.377196
0.148047 0.116778 0.557754
-0.0538252 0.155742 0.671257
0.135813 -0.107693 0.364375
-0.150593 -0.0369685 0.331474
0.130597 0.131245 0.471874
0.214257 0.188261 0.0198782
-0.0111089 -0.0360901 0.331474
-0.133685 -0.163237 0.317312
-0.211514 -0.210256 0.0493747
-0.200521 0.115118 0.452062
-0.110705 0.0418444 0.3562
0.135633 0.118747 0.520636
0.0400522 0.147688 0.641956
-0.0323806 -0.0433898 0.364375
-0.00913405 0.137215 0.553038
0.106619 -0.0348351 0.331474
0.0238102 0.178666 0.741104
0.075848 0.177613 0.701252
-0.198281 -0.0589263 0.345455
0.214948 0.171912 0.0201644
-0.21501 -0.152223 0.391692
0.0144838 0.158524 0.424345
-0.207844 -0.149376 0.472706
-0.207192 0.0689305 0.529328
-0.0641049 0.159116 0.412058
-0.0744893 0.117821 0.352281
0.103813 0.115473 0.385152
0.0219974 0.120819 0.518226
0.184831 0.0875763 0.541191
-0.0717809 -0.161078 0.331474
-0.221063 -0.188685 0.144899
-0.12409 0.181017 0.745776
0.0448764 0.153166 0.43599
