0.259099 -0.113466 0.541847
-0.112519 0.214992 0.770098
0.150038 0.116642 0.594713
0.119855 0.141074 0.0313922
-0.078268 0.134495 0.604973
0.219972 -0.100874 0.449942
0.0788546 0.16168 0.425012
0.0962998 -0.225907 0.385358
-0.0266512 -0.0535493 0.293189
0.219551 0.157443 0.731498
-0.0643793 -0.158481 0.330136
0.0701265 -0.0947419 0.0367474
0.231245 0.031216 0.55343
-0.221585 -0.132239 0.548668
0.182507 0.163608 0.732574
-0.189831 0.143496 0.434648
0.183255 -0.191484 1.16765e-17
-0.265978 0.12038 0.45722
0.0403045 -0.0651766 0.360354
0.123126 -0.115525 0.0201923
-0.0383802 -0.113383 0.340237
-0.230367 0.0575357 0.397058
0.190889 0.0942366 0.364564
0.176538 0.187344 0.770679
-0.0395746 0.0956384 0.37016
0.265828 -0.0564686 0.564771
-0.118787 0.125598 0.0246447
0.222022 -0.159266 0.379306
-0.0213879 -0.232576 0.379701
-0.150161 0.14037 0.615583
0.219813 -0.000776371 0.563571
0.244132 -0.148901 0.47356
0.0477834 -0.108583 0.360354
-0.0768904 0.141474 0.378009
-0.0435833 -0.218706 0.354312
0.0123889 0.0906634 0.367975
0.237181 -0.083732 0.455933
0.0735068 -0.066068 0.03151
0.164178 0.147355 0.410798
-0.15414 0.115207 0.542592
-0.221319 0.129886 0.401392
-0.0563192 -0.23873 0.353305
-0.170258 0.111527 0.597855
-0.204991 0.0958645 0.573954
0.00230776 -0.00205156 0.320618
0.20524 0.0268858 0.33386
-0.157735 0.144941 0.0224927
-0.161173 -0.040088 0.309365
-0.220511 -0.197376 0.372289
-0.113017 0.131108 0.520366
0.233889 0.0590107 0.568252
-0.146544 0.137056 0.0375286
-0.254701 0.124429 0.444052
-0.221745 -0.207832 0.0259585
0.0295263 0.203418 0.760366
0.0751327 -0.0310793 0.290409
-0.113629 -0.161804 0.394839
-0.221084 0.0575733 0.3894
-0.208254 0.0326341 0.33679
0.217556 0.148918 0.722271
-0.256328 0.110311 0.409637
0.218165 -0.0309806 0.308325
0.0946305 -0.0277068 0.360354
-0.220605 -0.138271 0.479834
-0.116907 -0.138337 0.0392561
-0.120702 -0.132526 0.0397181
-0.0409056 -0.048953 0.278297
-0.251498 -0.0495588 0.422243
-0.128478 -0.151354 0.037411
0.220773 0.106458 0.420628
-0.198614 0.17925 0.771694
0.158344 0.164595 0.396115
0.261237 0.0417329 0.55489
0.0293217 -0.0626005 0.394839
0.253453 -0.0208328 0.430876
-0.00362127 0.0508568 0.395011
-0.21745 -0.159731 0.394839
-0.157269 0.146645 0.0258868
-0.215251 0.1309 0.40799
0.0620784 0.120869 0.381573
-0.100349 0.0395636 0.371436
-0.0541585 0.154241 0.647356
-0.0328915 0.211504 0.745117
0.0826103 0.15824 0.624716
0.147759 0.163953 0.670309
-0.20004 0.161655 0.713683
0.222069 -0.1894 0.362108
0.201929 0.169021 0.732343
0.00732069 0.00100698 0.0525877
0.0633234 0.0512738 0.0266333
0.0380125 -0.0772325 0.360354
-0.223079 -0.0885849 0.454902
0.0968954 0.00393542 0.360354
0.220946 -0.0946029 0.380378
-0.163692 0.0628077 0.350507
-0.00715365 -0.102185 0.338272
-0.18421 0.18458 0.748667
0.0833913 -0.0278871 0.30105
-0.155356 -0.113268 0.394839
0.0619254 0.114673 0.412778
0.0728514 0.152822 0.392153
-0.197269 -0.226258 0.0103429
0.0161352 0.0526201 0.395011
-0.0134955 0.177646 0.416229
0.0556506 0.0786027 0.363178
-0.136183 0.104851 0.413029
0.187335 0.168551 0.731148
-0.153714 0.0734475 0.367118
-0.171279 -0.0527661 0.306811
0.0331968 0.216817 0.765441
-0.158947 0.00788078 0.360354
-0.246777 -0.077829 0.452449
0.183396 -0.01567 0.325851
0.0127171 0.0159335 0.220133
0.00331409 0.176592 0.42189
-0.206765 -0.0748604 0.394839
0.0143149 0.0229939 0.394839
-0.0383004 -0.0367975 0.299004
0.239107 -0.162866 0.512686
-0.0449336 -0.0512566 0.0390487
-0.167935 -0.112564 0.360354
0.0199885 0.00803221 0.110122
-0.183583 -0.195751 0.0215316
0.222356 -0.0227102 0.570363
-0.0611948 0.156306 0.501858
0.1524 0.05318 0.395011
0.190227 0.146694 0.696705
0.111816 0.132376 0.0318114
0.189701 -0.220921 0.0129314
-0.0114221 0.133714 0.590894
-0.0260878 0.182724 0.404453
-0.0510806 -0.13668 0.394839
0.173312 0.0194859 0.394839
0.264742 0.00658031 0.418799
-0.262541 -0.0717872 0.434278
-0.113544 0.123187 0.553714
0.031415 -0.0280547 0.301357
0.152712 0.0399789 0.371755
0.221977 0.00447457 0.558301
-0.233777 -0.0586637 0.569488
0.0727321 -0.0605662 0.047134
0.18326 0.115976 0.534455
0.0205007 0.00613807 0.155605
0.22084 -0.029738 0.38445
0.065433 0.0566685 0.359961
-0.0640931 -0.157145 0.331526
0.167076 -0.0277154 0.295886
0.0162065 0.0237656 0.0238946
-0.235733 0.115363 0.392042
-0.174194 0.00464224 0.360354
-0.252608 0.0276363 0.570892
0.0381907 -0.124496 0.394839
0.219962 -0.0941544 0.448025
0.165626 0.146328 0.0254483
-0.0187927 -0.0311148 0.0263897
-0.10744 0.0218332 0.360354
-0.0207195 -0.224983 0.351406
-0.220844 0.00569144 0.361031
-0.221591 -0.137384 0.390673
0.171556 -0.226018 0.385192
0.00688589 0.155952 0.452981
-0.0393006 -0.0414643 0.272546
0.192073 -0.151509 0.394839
0.0285807 0.105853 0.374522
0.22249 0.00205772 0.410273
0.0904329 -0.189687 0.394839
0.235416 0.00957357 0.572129
0.142563 0.141559 0.649859
-0.214212 0.0983609 0.418398
0.235749 -0.0602897 0.571807
0.14513 0.13788 0.642767
-0.221814 -3.37064e-05 0.378883
-0.192897 0.101742 0.5722
0.210389 0.04001 0.395011
-0.243677 0.0800533 0.545925
-0.219503 0.169753 0.741726
0.0321821 0.167547 0.385285
0.00903604 0.0179074 0.237285
-0.0640129 -0.064469 0.0370517
0.0270632 0.162951 0.419029
-0.221573 0.0127741 0.415796
0.0359018 -0.241309 0.356883
-0.238147 0.129858 0.397726
-0.220841 0.00372002 0.387653
-0.191625 -0.00783653 0.360354
0.260646 0.0855374 0.396356
0.204377 -0.209684 0.0271391
0.0579749 -0.0689313 0.0371467
0.221776 -0.0102468 0.366722
-0.226679 -0.138286 0.529138
-0.217573 0.183126 0.772931
-0.220068 0.123378 0.649572
0.161141 0.151811 0.399858
-0.205586 -0.0950029 0.360354
-0.197709 0.134535 0.394589
0.221076 -0.174484 0.361584
0.221643 0.192594 0.0252198
-0.219065 0.115321 0.489989
0.18453 0.11256 0.525268
0.0483369 0.153341 0.413995
-0.122477 0.144342 0.519622
0.0199828 -0.0131611 0.233368
0.19405 0.12 0.482349
0.237549 -0.0851996 0.453782
-0.260731 -0.131201 0.536692
0.00990459 -0.0431318 0.267517
0.206299 0.11944 0.468559
-0.0169304 -0.168786 0.394839
0.181195 -0.00723839 0.394839
-0.0152323 -0.214429 0.356381
0.265 -0.151086 0.491493
0.221098 0.0939515 0.404611
-0.0185836 0.137001 0.530347
-0.196295 0.129941 0.661419
-0.0937558 0.0549227 0.359961
-0.0377916 -0.0465005 0.328444
0.18477 0.0177518 0.341082
0.00451766 -0.00294377 0.260429
0.0450723 0.145382 0.624443
0.0564677 0.209709 0.760374
-0.179027 0.124776 0.636362
0.220905 -0.0704749 0.392543
-0.188961 -0.00829609 0.32949
0.245325 -0.100049 0.562306
-0.0723392 -0.00446483 0.394839
0.244612 0.0906233 0.544842
0.0252839 -0.0224272 0.0524296
0.220782 0.00561669 0.380737
-0.262023 -0.0628201 0.442773
-0.0905063 0.0675386 0.395606
-0.132008 0.0775084 0.367295
0.0719961 0.14594 0.53898
-0.0847965 0.165657 0.41338
0.129857 0.116782 0.383729
-0.223979 0.0014849 0.40651
-0.0361172 0.0411275 0.0215227
0.0518971 -0.0987749 0.325399
-0.0626875 0.176397 0.664641
0.259519 0.0955255 0.409118
0.139306 -0.140626 0.0276792
0.100656 -0.210202 0.393185
-0.20925 -0.0488387 0.360354
-0.0343125 -0.0181898 0.314035
-0.152066 -0.0708743 0.394839
0.0221415 0.0397646 0.372287
-0.0926905 -0.0261161 0.394839
0.256914 0.103827 0.537479
0.11177 0.181267 0.689507
-0.220187 -0.21832 0.390231
-0.171774 0.170165 0.0149862
0.0243275 0.197668 0.710171
-0.0259356 0.000218364 0.0424192
0.229595 -0.101578 0.462292
-0.200496 0.114444 0.623107
0.0407276 0.200925 0.718826
-0.087888 0.162852 0.386898
-0.117968 -0.0399079 0.360354
-0.0392638 0.107799 0.37541
0.21994 -0.0794734 0.444841
0.221917 -0.0970663 0.390639
0.191168 0.116421 0.563386
-0.130438 0.176637 0.690492
-0.196895 0.0656875 0.351844
0.185552 -0.0450382 0.286004
-0.0124685 0.131709 0.553427
0.0532347 -0.238311 0.353034
-0.15352 0.149386 0.639895
-0.0686621 0.177513 0.391784
0.250094 0.0998029 0.554966
-0.251578 -0.120081 0.452068
0.0873449 0.151169 0.451308
0.0592994 0.178775 0.414529
-0.0770656 -0.178629 0.360354
0.256136 0.0708843 0.547014
-0.177351 0.0264003 0.333926
0.0202306 -0.0249344 0.0459146
-0.221244 -0.145678 0.493378
-0.221662 -0.0931118 0.365984
0.112445 0.14135 0.62882
0.212243 0.110969 0.53983
0.0413336 0.16046 0.487953
0.0437252 -0.129007 0.282669
-0.0842687 0.177324 0.40455
0.0971944 0.0484825 0.359961
0.0163805 -0.012601 0.077822
-0.0112752 0.144621 0.616716
-0.0952509 0.165889 0.684605
0.0593811 -0.133142 0.300179
-0.219652 -0.129996 0.542984
0.0599019 -0.138933 0.344771
0.0745219 -0.084245 0.0351759
0.139643 -0.0382308 0.286116
0.0878065 -0.0277417 0.394839
0.176872 -0.219546 0.3895
0.221047 -0.156702 0.368815
-0.115707 0.112488 0.030572
0.261222 -0.0308916 0.571218
0.117731 0.153688 0.663073
0.0707347 0.227852 0.763506
-0.18206 0.12461 0.480407
0.176294 0.135428 0.419388
-0.0421613 0.217907 0.765227
0.076659 0.156184 0.394074
-0.0224879 -0.149964 0.286345
0.059215 0.164719 0.409216
-0.121488 0.144218 0.381887
-0.000891753 0.17984 0.408851
-0.0694458 0.156252 0.438787
0.106862 0.146385 0.422276
-0.0737727 0.123238 0.568371
-0.0429412 0.129136 0.58418
-0.0619463 0.164602 0.408432
0.22245 -0.128305 0.550214
-0.204455 0.051501 0.36343
-0.191192 0.139956 0.679416
-0.232046 0.0315106 0.553361
0.166728 -0.0946543 0.360354
-0.220856 0.0127515 0.384583
-0.133086 -0.0116715 0.394839
0.223133 0.0877372 0.406125
-0.0728811 0.159609 0.423119
0.261932 -0.157944 0.494576
0.0426892 -0.0564917 0.286635
-0.136629 0.177234 0.734805
0.0395191 0.194197 0.7024
-0.132489 0.139016 0.393491
0.00799072 -0.0619773 0.270839
0.0351677 0.0250888 0.0409588
0.0277539 0.0327665 0.0219337
-0.182748 0.123569 0.479839
-0.217534 0.073902 0.374596
0.0734109 0.166338 0.679079
0.13786 0.145593 0.0182583
0.215452 0.122581 0.488666
0.192014 0.120298 0.424132
-0.0990652 0.167904 0.652219
-0.220492 -0.209668 0.36233
0.0720389 0.175658 0.422013
-0.188853 0.181612 0.772205
0.253193 0.129712 0.408632
0.0803647 0.199764 0.768461
0.200564 0.124357 0.389652
-0.0594681 0.125133 0.565236
0.0934404 -0.149384 0.394839
-0.251165 0.12055 0.422465
-0.0652843 -0.185407 0.360354
-0.21227 -0.225517 0.0197077
-0.211737 -0.0318129 0.308145
0.0988348 0.0398905 0.371855
0.203764 0.111203 0.56457
-0.181531 -0.215341 0.0099601
-0.221127 0.083824 0.411876
0.0970381 0.159678 0.63065
0.124575 0.123067 0.543127
-0.241765 -0.143747 0.525745
-0.243295 0.0922643 0.547143
0.0136394 0.142521 0.390364
-0.265766 -0.00879982 0.414285
0.00450773 0.0213085 0.298625
-0.0403575 0.0454541 0.0393813
0.0115761 0.184703 0.403424
-0.0456371 -0.0710299 0.27402
-0.0614104 0.160996 0.483466
-0.165175 0.0481758 0.395011
-0.191928 0.149761 0.401523
-0.264742 -0.0349613 0.425008
0.220991 -0.122482 0.376825
-0.123822 -0.143347 0.334377
0.220882 -0.0560335 0.430501
0.0638358 0.143049 0.488476
0.0823023 0.214072 0.761169
-0.260121 -0.0745141 0.430775
0.0494369 -0.188019 0.360354
0.0345276 -0.0792377 0.334238
0.259934 0.00907808 0.404164
0.0328797 -0.0191346 0.323639
0.190939 0.130581 0.419622
0.194103 0.151486 0.712005
-0.203004 0.218967 0.02652
0.221182 -0.239368 0.363122
-0.230885 -0.0572916 0.443702
0.202503 0.147059 0.669139
0.204554 -0.209258 0.0251261
-0.0243374 0.0396884 0.390808
-0.149713 -0.224693 0.38651
0.221834 -0.00847719 0.42168
-0.221156 0.101617 0.411123
0.233349 -0.0489743 0.553186
-0.0679151 0.186014 0.396402
-0.0323719 0.170434 0.681746
-0.186487 0.169089 0.750705
0.13444 -0.0279823 0.301718
0.221789 -0.0181654 0.375932
0.170555 0.0987532 0.378006
-0.187316 -0.125732 0.360354
-0.0317311 -0.0541282 0.302974
-0.2211 0.0672086 0.403799
-0.261839 -0.0575465 0.438411
0.205397 0.124702 0.493694
-0.0694324 0.106369 0.409945
0.263611 0.124095 0.449218
0.221678 -0.0553277 0.439154
-0.23338 -0.0582115 0.552177
0.0475689 -0.0596845 0.0301032
0.220837 -0.0281048 0.3631
-0.218409 0.0992377 0.531187
-0.220066 0.122425 0.450733
-0.224974 0.0584151 0.410197
-0.245077 -0.0460442 0.570706
0.239498 -0.0630218 0.446203
0.0948078 -0.0282582 0.302504
-0.204273 0.0900022 0.379628
-0.0118661 -0.142972 0.338919
-0.0652677 0.0790697 0.0357611
0.169178 0.168854 0.697579
-0.222578 -0.00858454 0.409912
-0.185871 -0.00970973 0.360354
0.220873 -0.0500857 0.381638
-0.137943 -0.150659 0.0266018
-0.226022 0.0093426 0.555735
0.057527 0.153009 0.414851
-0.000686664 0.146406 0.561178
-0.238151 -0.0226888 0.428476
0.153616 0.121196 0.420318
-0.138077 0.149959 0.630081
-0.214465 0.133419 0.646413
0.0231091 -0.0445024 0.0507641
-0.166169 0.0279502 0.394839
-0.0765702 0.147708 0.530506
-0.0289929 -0.157306 0.394839
-0.060956 -0.158652 0.339755
-0.132302 0.164023 0.41834
-0.155182 -0.142275 0.0369847
0.150329 0.138727 0.394235
0.265558 0.104934 0.526787
0.00430535 0.161536 0.619615
0.220972 -0.112941 0.460668
0.0596614 0.167418 0.398495
-0.0386313 0.139917 0.381563
0.263824 -0.103694 0.447698
-0.211105 0.137557 0.692792
-0.180332 -0.19319 0.0168847
-0.0797733 0.184588 0.687175
0.221536 0.0698582 0.550908
-0.189946 0.182703 0.758081
0.103327 -0.0957896 0.0319688
-0.164204 0.166086 0.725831
-0.220758 -0.046763 0.36186
0.252005 -0.0713543 0.570486
0.00973803 -0.088472 0.394839
-0.104395 0.103925 0.376885
0.240812 0.116238 0.483291
-0.19362 0.123994 0.607383
0.223162 0.121387 0.422211
0.156444 0.0688293 0.365327
0.222079 -0.194954 0.371387
-0.24988 0.0942583 0.555356
-0.00292999 -0.219786 0.389522
-0.173337 0.051838 0.345515
-0.12771 0.148757 0.494903
0.0934379 0.170442 0.402286
0.000332236 0.221801 0.768929
0.0118676 -0.0218409 0.164235
-0.0627068 -0.15535 0.34763
0.00317869 0.178703 0.423718
-0.0425369 -0.120138 0.28108
-0.0877156 -0.107332 0.394839
0.0266957 -0.182274 0.360354
-0.176978 0.156062 0.403121
0.130803 -0.211696 0.392584
0.0491831 0.141283 0.500777
-0.221819 0.00339344 0.369645
0.26344 0.100265 0.556787
-0.219769 -0.0603857 0.434085
0.164864 0.195199 0.758463
-0.0983239 0.095002 0.043114
-0.0119194 -0.0218164 0.249797
0.169655 0.155369 0.702838
-0.103257 0.015719 0.394839
0.0625807 -0.0285934 0.394839
0.00891104 0.185493 0.679364
0.162354 0.123422 0.574173
-0.117982 0.144577 0.427565
0.159829 0.167632 0.0227406
-0.0536695 -0.224191 0.386755
-0.221462 0.0378226 0.360354
-0.205921 0.0976101 0.571465
-0.1173 0.134311 0.568401
-0.249105 -0.0579985 0.56957
-0.0857453 0.13003 0.535991
0.0187486 -0.158522 0.290843
0.243432 0.0973765 0.527548
-0.0424965 -0.10041 0.360354
-0.0525584 0.148417 0.474823
0.0212596 0.171805 0.446793
-0.174099 0.0369425 0.350095
0.0235807 0.0177617 0.0421284
0.100309 0.0398929 0.378163
-0.130713 -0.0176278 0.360354
0.220063 -0.118291 0.456361
-0.17349 -0.0284924 0.296559
-0.0520094 -0.0578133 0.394839
-0.109463 0.210885 0.770823
-0.0304963 0.177988 0.389969
-0.166275 0.0249805 0.394839
0.225412 -0.149271 0.50297
-0.0315212 -0.0051657 0.292117
-0.000151644 0.0174619 0.0525877
0.0135895 -0.0203741 0.263505
-0.221125 -0.0472201 0.360354
0.0519484 0.0398611 0.0249597
0.146211 -0.141916 0.0375563
-0.233994 0.121776 0.417217
0.051987 0.144532 0.387204
0.0738178 0.236566 0.76426
-0.165521 0.0394567 0.3755
-0.177808 0.118213 0.572087
0.213635 0.0979579 0.377612
-0.161459 0.135076 0.394739
0.034433 -0.125415 0.394839
-0.211714 -0.216159 1.1964e-17
-0.191339 -0.0542647 0.303442
-0.126392 -0.00663653 0.394839
-0.179208 -0.0299064 0.394839
-0.229655 -0.0770678 0.452068
-0.224097 -0.0649009 0.444289
0.219942 -0.0815516 0.44369
0.199545 0.0234129 0.394839
0.257722 -0.0575454 0.568703
-0.220041 0.106282 0.579679
0.216961 -0.0191529 0.312871
-0.0363626 0.179332 0.417357
0.261061 0.0367612 0.555126
0.185488 0.126064 0.467937
-0.00457695 -0.163556 0.394839
-0.207753 0.184061 0.0129314
0.103577 0.17905 0.68108
0.106451 0.222278 0.764499
-0.233991 -0.0883692 0.550316
0.0378378 0.173398 0.436371
0.131265 0.150639 0.0366059
-0.0180002 0.0676176 0.395011
0.22527 -0.0288709 0.431435
0.178803 0.152619 0.702723
-0.249438 -0.0741383 0.570253
0.0790364 0.172589 0.401795
-0.229196 -0.16363 0.504523
0.220811 -0.0121551 0.418561
-0.0218612 0.00124859 0.220789
0.15955 -0.192685 0.360354
-0.144696 0.134987 0.39218
-0.251737 0.0443287 0.413998
-0.114531 0.163832 0.68695
-0.260003 -0.0807641 0.436809
0.250612 0.0347737 0.550607
0.0420065 -0.0533565 0.32816
-0.0617604 -0.146261 0.293588
-0.0532445 0.16507 0.409543
0.0912905 0.149273 0.641758
-0.0671441 0.0839869 0.0359331
-0.246663 -0.143407 0.5219
0.203253 0.126506 0.401598
0.217 0.163103 0.757233
-0.229594 -0.0772014 0.432888
0.0691627 0.0711595 0.395785
0.169388 0.0701527 0.36721
0.0714226 0.158297 0.622892
0.176431 0.129666 0.645282
-0.120352 0.111118 0.41466
0.0429535 0.209149 0.73936
0.229283 0.119184 0.470368
-0.142988 -0.120224 0.360354
-0.221129 0.0853462 0.385376
-0.263402 0.0999806 0.51249
0.165613 -0.0221087 0.311563
-0.22778 0.0230996 0.417388
0.25601 0.116084 0.484068
0.0271099 0.0584271 0.395011
0.246208 0.0331658 0.401067
-0.103669 0.13665 0.572384
0.0519656 0.151556 0.394238
-0.0504253 0.17554 0.660367
-0.220942 0.0666861 0.402799
0.111541 -0.230684 0.381668
0.167327 0.155766 0.0246989
0.00347226 0.210887 0.74235
-0.220146 0.169245 0.772864
-0.105616 -0.0632823 0.394839
-0.221517 -0.183227 0.390151
0.115455 -0.0488376 0.394839
-0.0136199 0.075268 0.361346
-0.0586494 0.140767 0.379627
0.0150938 -0.0866503 0.394839
0.170583 -0.158943 0.360354
0.0513579 0.217405 0.760181
-0.227541 -0.0416346 0.553502
-0.220081 0.0295969 0.403167
-0.0987265 0.0861268 0.0243623
-0.0870788 -0.0800841 0.0271787
7.80839e-05 -0.0130755 0.262214
0.0724748 0.171585 0.43919
0.0805636 0.148699 0.465345
-0.0391806 0.0125491 0.0483034
0.00796981 0.160317 0.499622
-0.0829259 0.166817 0.399624
-0.0323123 0.163691 0.41842
-0.195706 -0.21401 0.0301732
-0.0275573 -0.0436929 0.267605
-0.0426051 -0.0568828 0.272664
-0.00113094 -0.0577742 0.330443
-0.0200563 0.167495 0.404046
-0.23429 0.0134804 0.4191
-0.113445 -0.155328 0.325871
0.0330622 0.162316 0.482873
-0.199442 0.146935 0.704363
-0.150622 -0.067813 0.394839
-0.0310787 -0.131245 0.343389
-0.101073 0.0760898 0.364856
0.211015 -0.0326678 0.360354
-0.0500295 0.147038 0.629531
0.152459 0.120293 0.52435
-0.024633 0.233275 0.7669
0.215343 0.0975009 0.377402
-0.264604 -0.121147 0.463281
-0.000854744 0.145273 0.61763
-0.221673 -0.0870776 0.391891
0.181393 -0.154665 0.360354
-0.0813227 0.180122 0.676875
0.10594 0.0727839 0.363619
0.209228 0.107463 0.566715
-0.226634 -0.0988518 0.459938
0.225447 -0.00602059 0.423105
-0.153036 0.132027 0.635096
0.0187878 0.00435486 0.394839
-0.0903423 0.017477 0.360354
0.135802 0.0243223 0.394839
-0.264525 -0.0640803 0.441776
-0.038337 -0.223056 0.352199
-0.264607 -0.118446 0.54967
-0.23692 -0.0147792 0.570706
-0.135444 -0.222177 0.388284
-0.0849384 0.118987 0.382164
-0.10894 0.156311 0.626797
0.0981333 0.15314 0.383445
-0.262579 -0.0272913 0.414702
0.0993608 -0.00625663 0.360354
0.0671551 0.140211 0.574753
-0.207481 0.0250942 0.333353
-0.0383131 0.145686 0.490076
-0.265582 -0.00736627 0.560137
-0.171111 0.145132 0.642337
0.0191611 -0.00329909 0.0676937
-0.0151772 0.123724 0.382269
-0.241523 -0.0489503 0.422015
0.0132683 0.015385 0.198766
0.198347 0.102107 0.383769
0.182496 0.123941 0.509831
0.0581136 -0.127321 0.285371
0.194556 0.156465 0.724874
0.123471 0.140169 0.381597
0.193251 -0.205736 1.16509e-17
-0.222962 -0.0274677 0.417387
0.202743 -0.0538197 0.29468
0.221962 -0.124598 0.370338
0.109957 0.183413 0.73303
-0.254615 -0.017504 0.411985
-0.0583769 0.216746 0.765427
0.0306347 0.180602 0.706531
0.140306 0.182259 0.710227
0.228121 0.104408 0.407471
-0.0304566 0.149383 0.478156
0.244722 -0.0519368 0.42347
-0.177535 -0.173856 0.0232616
0.19203 0.116309 0.559397
-0.154344 0.0670628 0.399548
0.106602 -0.0536335 0.303973
0.183958 0.0193723 0.360354
-0.0122192 -0.0215177 0.115178
0.119416 -0.188584 0.332768
0.0926479 -0.154473 0.360354
0.15021 0.163234 0.405538
-0.0185676 -0.0151911 0.132417
-0.0620518 -0.0639742 0.0204419
-0.234595 0.00728126 0.572228
-0.177697 -0.0212517 0.360354
-0.219756 0.120468 0.39667
0.0863001 0.186394 0.732157
0.0140941 0.177348 0.697878
0.246834 -0.124012 0.454999
-0.0599325 0.210762 0.745573
-0.191554 0.171638 0.722536
0.136862 0.142341 0.394196
-0.221874 0.036795 0.372071
-0.172489 -0.230252 0.382581
-0.0527461 0.0597677 0.0263339
-0.265002 0.125501 0.400484
-0.0785314 -0.0772711 0.0353615
0.110988 0.167701 0.424732
-0.0969549 0.0395692 0.375605
0.222882 -0.0217926 0.413351
0.043737 -0.0526741 0.306551
-0.220813 -0.0134389 0.368409
0.152726 0.135047 0.603674
0.214433 -0.187603 0.0129314
0.115111 -0.114139 0.0178916
0.009494 -0.0193529 0.075884
-0.187589 -0.136504 0.360354
0.0630936 0.141699 0.560136
0.0134434 0.0152107 0.255524
-0.0461454 0.164069 0.425012
-0.0406479 -0.133052 0.283358
0.12995 0.176529 0.68925
-0.176257 0.12477 0.390122
0.189304 0.164395 0.710148
-0.122909 -0.141833 0.0286201
0.217926 0.12165 0.409372
-0.0122572 0.18055 0.404415
-0.219986 0.0741997 0.40059
-0.203427 0.111064 0.571172
0.0161194 0.0307989 0.0417848
-0.0186942 0.0849351 0.400226
0.168014 0.17871 0.758344
0.220921 -0.164638 0.394839
0.203496 0.145155 0.673852
-0.071887 -0.0746423 0.0359348
-0.0206878 0.0396943 0.389007
-0.199773 0.0509861 0.362728
-0.0237461 0.226106 0.768164
-0.212805 -0.0367977 0.31652
0.185867 0.158026 0.401047
0.128135 0.14326 0.478469
-0.0998508 0.0206178 0.394839
0.0824106 0.126912 0.550394
-0.00458224 0.0324562 0.394839
0.17435 0.0125687 0.327359
0.0939388 -0.173269 0.394839
-0.22079 -0.0271152 0.374549
-0.249133 0.113104 0.455097
0.243627 -0.139018 0.526641
0.153986 0.123474 0.614138
0.0854074 0.169517 0.389613
0.237173 0.0725589 0.392219
-0.0365042 0.144801 0.391384
0.03253 -0.0435674 0.31232
-0.0103301 -0.0226069 0.231981
0.26481 -0.0334765 0.562406
0.189774 -0.199815 0.0139329
-0.0228446 -0.0256765 0.0419982
0.241845 -0.0694681 0.445914
0.0159068 -0.241497 0.366018
0.0394551 0.171872 0.649474
0.257471 -0.0276367 0.556287
0.0249284 0.0299308 0.360354
-0.254068 -0.109083 0.562919
-0.1278 -0.12094 0.021269
0.0527715 -0.116616 0.394839
0.215698 0.209244 0.0129314
-0.00204174 0.014117 0.317765
0.0187842 0.105721 0.408614
-0.034334 -0.150723 0.286476
0.00745058 0.171462 0.397338
-0.100956 0.148289 0.605031
-0.206348 0.111648 0.389268
-0.00201957 0.0198054 0.180575
0.230017 0.116624 0.409287
0.219581 0.139861 0.683158
0.236176 0.107495 0.409868
-0.2433 -0.124625 0.476325
-0.118375 0.0324895 0.394839
-0.220023 -0.156729 0.530321
-0.0739973 0.122116 0.416492
-0.0826471 -0.077044 0.0351215
-0.0212338 0.167893 0.409205
-0.264715 -0.0650745 0.429547
-0.0594944 -0.0519459 0.394839
0.0442974 0.137423 0.388141
-0.181226 -0.118853 0.394839
-0.0676613 0.203877 0.73082
-0.158136 0.132549 0.530356
-0.12386 0.217096 0.769723
-0.0688671 0.134473 0.524059
-0.0884794 0.175052 0.404871
-0.24899 -0.139263 0.491838
0.183185 -0.170438 0.394839
-0.219614 -0.152803 0.519409
-0.24363 0.061345 0.411287
-0.22086 0.0153867 0.362705
-0.197558 0.00135686 0.322528
0.210256 -0.186653 0.360354
0.00627826 0.0186418 0.225232
0.00275342 -0.0211694 0.0643709
0.255383 0.0618925 0.550597
-0.0148809 -0.173242 0.360354
-0.236285 0.124417 0.405628
0.0743467 0.198065 0.768759
-0.142902 -0.224631 0.386546
-0.139128 -0.0920996 0.394839
-0.091785 0.142982 0.544074
0.208308 0.0354357 0.349123
0.129028 0.117336 0.562902
-0.199004 -0.189649 0.0288235
-0.249592 0.00853981 0.552273
-0.102301 0.13901 0.580119
0.189542 -0.204732 0.0129314
0.240029 -0.0301806 0.573292
-0.0203594 -0.0118701 0.226159
-0.166923 0.112977 0.418404
-0.187004 0.193592 0.0206955
-0.171031 -0.0452199 0.307114
0.0860113 -0.0785316 0.0250924
0.158583 -0.00908064 0.360354
-0.0816173 -0.128922 0.394839
-0.150377 -0.156483 0.0159764
-0.200007 0.0394001 0.394658
0.264794 -0.0230547 0.56599
0.219804 0.00330143 0.408794
-0.0664679 -0.141617 0.338203
0.0325463 -0.0434999 0.394839
0.00097236 -0.0622492 0.394839
-0.225028 0.104101 0.532835
0.114445 -0.098536 0.360354
-0.127004 -0.0410306 0.285482
-0.0285134 0.0356124 0.0265254
0.163213 0.201375 0.772578
0.0667533 0.162194 0.423522
0.209418 -0.177883 0.00666878
0.0801872 -0.0824538 0.0349353
-0.221432 -0.232783 0.377563
-0.249653 -0.165893 0.501169
-0.0883156 -0.175711 0.332768
0.133502 0.146826 0.395728
-0.077521 0.154735 0.39356
-0.00959531 0.16518 0.480612
0.0216079 -0.0070624 0.239201
-0.221746 -0.115549 0.456604
-0.0936321 0.0861349 0.0439525
-0.0633225 -0.15355 0.311524
0.220934 -0.086977 0.388559
0.220525 0.0953591 0.555724
-0.141532 -0.105546 0.394839
-0.260308 -0.164152 0.501297
-0.115163 -0.038858 0.360354
0.00487018 -0.0435331 0.360354
-0.0926227 0.139427 0.579057
0.0487324 0.208359 0.766937
0.218609 0.13417 0.679658
0.0365652 -0.111246 0.394839
0.213235 -0.146913 0.394839
0.126136 -0.192751 0.394839
0.0378225 -0.169594 0.360354
0.106089 0.169029 0.421721
-0.0320103 -0.107717 0.33924
0.0388809 -0.0390037 0.304706
-0.0471329 0.163009 0.419288
-0.132184 0.144434 0.0275776
-0.0453559 -0.193097 0.394839
0.0207332 -0.0347197 0.051952
0.237266 0.121822 0.420406
0.236656 -0.0514238 0.420498
-0.220706 -0.0788652 0.366733
0.193413 0.147852 0.671853
-0.182312 0.129684 0.612983
0.253214 -0.153561 0.479015
0.0975184 0.149463 0.393138
-0.00505573 -0.024011 0.230838
0.0479083 0.199996 0.755358
-0.207401 0.101275 0.36807
0.248478 0.100976 0.553307
0.0468128 0.130003 0.418424
0.0165487 0.176479 0.657199
-0.151689 -0.0521511 0.290898
-0.120143 0.142828 0.599767
0.0914407 -0.156958 0.32821
0.216245 0.114847 0.518738
-0.0231122 -0.144753 0.394839
0.134961 0.116261 0.0395308
-0.0195765 0.236266 0.766373
0.181008 -0.173832 0.360354
0.18801 0.154231 0.683275
0.0856387 0.132447 0.525925
0.0142161 0.162665 0.422256
-0.141698 0.134701 0.539457
0.0833051 0.123999 0.562718
0.00250051 -0.0212375 0.0713599
0.136581 -0.121438 0.360354
0.231717 0.117349 0.391965
-0.0264499 0.193457 0.699957
-0.167998 0.121051 0.572698
0.0330889 0.0226856 0.360354
0.207449 -0.0383619 0.285806
0.158149 0.17828 0.0325829
0.264633 0.0715898 0.551668
0.0203875 0.00655674 0.255614
0.0629736 0.0598009 0.0370906
-0.0248403 -0.116953 0.360354
0.0943654 0.172316 0.414069
-0.0251375 -0.0721186 0.394839
-0.255356 -0.162497 0.497624
-0.209732 0.138313 0.430808
0.261785 -0.00796025 0.558374
0.0794955 0.0881575 0.0446976
0.187568 0.186362 1.23932e-17
-0.103979 -0.21868 0.390017
-0.0373852 0.178655 0.7022
-0.00912384 0.00942358 0.0870714
-0.21247 -0.0103201 0.360354
0.262061 -0.122354 0.555988
-0.0113278 -0.107878 0.394839
0.221037 -0.150717 0.371345
-0.0838393 0.174055 0.411383
-0.208705 0.222507 0.00968336
0.11721 -0.153671 0.332768
0.219651 0.0946957 0.585772
0.0933615 -0.000214186 0.360354
0.190871 -0.188452 0.02153
-0.232573 0.107452 0.51818
-0.205748 -0.188958 1.12166e-17
-0.0382202 0.196315 0.769832
0.21867 0.0975738 0.584017
0.0619262 0.186238 0.724236
0.220786 0.18172 0.000997974
0.0556146 0.047696 0.395011
0.127582 0.0911771 0.372705
0.218647 0.111475 0.512732
0.209144 0.0980753 0.58912
-0.232864 0.0633727 0.567692
0.118066 -0.0978594 0.0336326
-0.0625855 0.167 0.642352
0.261884 0.0974069 0.527549
-0.0849519 0.173647 0.42261
-0.157918 0.0265123 0.360354
0.192217 0.181168 0.0129314
-0.0594985 -0.0988262 0.394839
0.0401809 0.181253 0.398283
0.0575174 0.127208 0.557593
-0.00268317 0.0175328 0.0263709
0.0500594 0.219414 0.764988
0.0199288 0.0144022 0.305863
0.1178 0.0367522 0.360354
0.114269 -0.191661 0.325871
-0.101788 -0.0861811 0.360354
0.0532732 0.0798072 0.398375
-0.138123 0.141806 0.421367
-0.0635 -0.154378 0.301613
-0.0853926 0.104849 0.0413928
-0.124576 0.123573 0.419857
0.26294 -0.00559487 0.556566
0.0545437 0.0327871 0.394839
0.111534 -0.0531791 0.292653
0.0752589 -0.0507781 0.308395
-0.0539453 0.138737 0.388778
0.239624 0.089354 0.562341
-0.179018 0.162387 0.397492
-0.246688 0.106412 0.484434
-0.062285 -0.0698669 0.0202904
-0.220457 -0.230264 0.356644
-0.219116 0.145352 0.714198
-0.00848566 0.148844 0.589433
-0.101673 0.102568 0.0183865
-0.220067 0.124318 0.379034
0.0106932 0.181855 0.390712
-0.205205 -0.13228 0.360354
-0.214789 0.175192 0.777085
-0.159288 -0.0656458 0.394839
0.0190129 0.148816 0.544434
0.0162905 0.183853 0.675533
0.0215671 -0.0889915 0.335954
0.0373184 0.187805 0.686865
0.265989 -0.158285 0.493719
-0.21618 0.152735 0.704121
-0.179247 0.14956 0.658983
-0.193718 -0.185011 0.394839
0.187244 0.160454 0.726419
0.0546505 0.176225 0.417308
0.107367 0.181457 0.688432
-0.0870451 0.146403 0.470982
0.0127182 0.0187387 0.285403
0.0371353 -0.00762303 0.394839
0.122317 0.133317 0.390334
-0.180721 -0.19358 0.0161297
0.220782 0.101197 0.41167
0.194967 0.126202 0.65017
-0.215211 0.0239041 0.394839
0.219889 -0.0486145 0.428995
0.012035 0.00456021 0.259108
0.125242 -0.0267802 0.394839
-0.186764 0.162079 0.0323026
-0.0382253 -0.036447 0.280448
-0.245004 -0.11349 0.471282
0.133034 -0.125401 0.0217759
-0.047607 -0.0802215 0.282419
-0.0923964 0.19199 0.710017
0.0326363 -0.0103278 0.271565
0.129566 0.176933 0.728806
0.0545981 0.159893 0.48594
-0.178972 -0.0761752 0.360354
-0.262576 -0.0605799 0.441586
-0.197836 0.180128 0.0258032
-0.0794867 -0.226146 0.350974
0.192539 0.12574 0.506868
-0.0462497 -0.0738884 0.279635
-0.227796 -0.212026 0.00243109
0.180787 0.191417 0.769731
0.0129583 0.164217 0.481529
0.171147 -0.0500741 0.288791
0.0720563 -0.02822 0.29607
-0.183068 0.0247393 0.360354
0.144046 -0.0331063 0.360354
-0.0751599 0.137507 0.611543
0.0788456 0.0775973 0.0195653
-0.0239009 -0.0578643 0.360354
0.195553 0.0206795 0.394839
-0.106635 -0.14752 0.331641
0.0893687 -0.121678 0.360354
0.215589 0.137346 0.655872
0.0962757 -0.22515 0.385897
0.055931 -0.0534999 0.29351
-0.109103 -0.0978516 0.360354
0.213306 0.00300731 0.334341
-0.0233311 0.174172 0.690459
0.0778623 -0.0892336 0.394839
-0.152029 0.144749 0.665231
-0.00600916 0.214527 0.77021
0.253787 0.0487228 0.552034
-0.244858 0.122347 0.406282
-0.182879 0.185053 0.769894
-0.220989 0.126483 0.43534
-0.160558 0.115105 0.535883
0.00290295 0.165804 0.630184
-0.0202167 -0.0561465 0.360354
0.246527 0.0487499 0.398583
0.188353 0.00496925 0.323885
0.219642 0.0994499 0.538972
-0.0248522 0.152188 0.600351
0.00129023 -0.109199 0.394839
-0.220473 -0.220309 0.355113
-0.115149 0.103382 0.0180332
-0.240638 0.110697 0.389747
0.0748705 0.188509 0.695108
-0.141973 0.149768 0.670112
-0.146794 0.11454 0.552506
-0.155604 -0.0796281 0.360354
0.0161137 0.0125531 0.220017
-0.255228 -0.0523662 0.42332
0.250282 -0.0270073 0.556049
0.170339 0.181605 0.767388
-0.210694 0.131872 0.675755
0.220831 0.080392 0.562224
0.0319878 0.163063 0.418105
0.089123 0.158087 0.486777
0.0586259 -0.082936 0.0450103
0.21673 0.15214 0.701718
-0.150797 0.0372536 0.360354
0.22494 0.0490511 0.397364
-0.0146897 0.161493 0.495462
-0.00530589 0.232424 0.767056
0.204112 0.176992 0.745553
-0.198626 -0.073196 0.394839
-0.143655 0.051799 0.395011
0.183977 0.122366 0.485209
0.127652 0.0424545 0.359961
-0.00397999 0.105494 0.37439
0.194856 0.17266 0.765734
-0.231163 -0.146714 0.497315
0.236662 -0.070472 0.449067
-0.256314 -0.0688795 0.445372
0.220883 0.039738 0.390558
-0.148642 -0.132346 0.0375014
-0.0334258 -0.238862 0.353526
0.161154 -0.137047 0.360354
0.0624946 0.128179 0.418208
-0.220758 -0.0468849 0.390086
0.026917 -0.13558 0.34417
-0.209655 0.0393842 0.361856
0.144724 0.115339 0.55418
-0.264934 -0.0143207 0.42226
0.218616 0.1324 0.412
0.109368 0.160883 0.407451
-0.0526306 0.157002 0.441263
0.0732951 0.10649 0.410117
-0.211585 0.114973 0.605888
0.0781218 -0.055003 0.394839
-0.230743 -0.110331 0.55993
0.25143 0.102142 0.547806
0.24272 0.0322099 0.401219
-0.16011 -0.00397372 0.394839
-0.204404 0.129258 0.428627
0.17829 0.168771 0.0336008
-0.0439542 -0.0631776 0.279184
0.208975 0.11269 0.423382
-0.0951838 0.170651 0.696484
-0.245489 0.0414479 0.552708
0.180504 0.0252552 0.333136
-0.205243 0.1173 0.391548
0.254532 -0.142736 0.492882
0.149767 0.11524 0.589976
0.0120101 -0.0216981 0.148282
-0.164766 0.194311 0.769352
-0.0683304 0.094919 0.37093
0.0336249 0.162407 0.420324
-0.253721 0.125385 0.439892
0.0557539 -0.116486 0.314107
0.124628 0.157466 0.638155
-0.264934 0.0830552 0.404052
0.234875 0.126527 0.39139
0.213994 0.167016 0.767798
-0.0226513 -0.00172738 0.22076
-0.100654 -0.224193 0.35178
0.0692639 0.164923 0.410995
0.227989 -0.132988 0.464856
-0.144988 -0.191926 0.394839
0.181429 0.144599 0.442653
-0.164019 0.170685 0.0182562
-0.0526796 -0.0546656 0.301096
0.0324902 0.0253299 0.360354
0.240576 -0.0877645 0.547606
0.0942592 0.165806 0.450933
-0.206833 0.203621 1.19127e-17
0.220913 -0.0740302 0.384146
-0.118765 0.14726 0.382991
0.15507 0.151096 0.644332
0.160447 0.130433 0.538566
0.113001 -0.105434 0.0238196
0.0526563 -0.198839 0.39475
0.00757009 0.0148528 0.0551625
0.168943 0.170129 0.700509
-0.0615032 0.0974354 0.371603
-0.0491993 -0.158633 0.322068
-0.152562 -0.22758 0.384459
-0.0477287 -0.0807893 0.321115
0.0586172 0.150535 0.460955
-0.220664 -0.104609 0.369066
0.194351 0.107542 0.532591
-0.200971 0.0230583 0.360354
0.0156651 0.0796705 0.398072
-0.144957 -0.150515 0.360354
0.23974 -0.0561228 0.44355
-0.0669615 -0.0699034 0.0469176
-0.243719 -0.0719132 0.567912
0.00116499 -0.11289 0.394839
0.175318 -0.201276 0.0278925
0.115947 -0.1995 0.325909
-0.198717 -0.00635041 0.330384
-0.195452 0.130855 0.631798
0.0530159 0.155341 0.444032
0.0512828 0.214232 0.765902
-0.175221 0.126038 0.390982
-0.0342872 0.0369261 0.0216715
0.118755 0.144586 0.427788
-0.0435738 -0.0271677 0.360354
-0.186312 0.139302 0.658385
0.10362 0.156974 0.483158
0.224889 -0.138212 0.5338
-0.188306 -0.0525862 0.360354
-0.00825561 0.141257 0.423016
-0.2218 -0.00869888 0.369043
0.192634 0.149632 0.409353
0.204542 0.109864 0.617366
0.189979 0.158998 0.725437
-0.183691 0.117536 0.534553
0.00940427 -0.0822929 0.394839
0.00251337 0.0213054 0.272976
-0.0930537 0.162254 0.465897
-0.0999871 0.211552 0.76236
-0.187195 0.149232 0.663953
0.151314 -0.134474 0.037276
-0.118373 0.15814 0.465163
0.136998 -0.115172 0.360354
-0.0621618 -0.213474 0.356886
0.221996 -0.144726 0.376552
0.0264933 0.130791 0.38529
-0.157434 0.124322 0.520279
0.000711042 -0.155439 0.287317
0.147417 -0.164985 0.360354
0.222645 -0.0567502 0.566591
0.220842 -0.0304343 0.38865
0.0946254 0.181361 0.722502
-0.0241177 -0.0578057 0.360354
0.129524 0.109339 0.04006
0.11716 0.215311 0.765731
-0.0859316 -0.151244 0.394839
-0.12157 -0.151216 0.335214
0.222544 0.0975197 0.558151
-0.161289 0.0298422 0.345403
0.1612 -0.00830488 0.320952
-0.0863557 -0.0984522 0.360354
-0.22161 -0.125718 0.389728
-0.0137384 -0.218367 0.390081
0.0825401 -0.144328 0.394839
0.264971 -0.134517 0.480996
0.0718118 0.0757527 0.0355562
0.0954927 -0.0915468 0.394839
0.090211 0.141722 0.489753
0.141355 -0.147089 0.0164303
-0.25874 0.123877 0.389672
0.0727123 -0.0299834 0.394839
-0.196314 0.14386 0.695925
-0.186996 -0.182255 0.00658668
0.0105652 0.15568 0.518302
0.232386 0.0925709 0.548523
-0.0889822 0.199574 0.772823
-0.0478909 -0.0225649 0.394839
-0.0705872 0.194976 0.748425
-0.221121 0.0685032 0.396417
0.221403 0.107575 0.520895
-0.254415 0.0392252 0.41481
0.222057 -0.181528 0.373942
-0.0999059 0.129221 0.596433
-0.044069 0.141103 0.385271
0.0218654 0.213977 0.770315
0.238629 0.0648511 0.567616
0.175463 0.135703 0.406193
0.0293331 0.146238 0.623717
0.0712329 -0.0770973 0.360354
0.211643 0.0976211 0.579398
-0.248289 0.0176431 0.551676
0.238483 0.0565223 0.565923
-0.264708 -0.0554931 0.56248
-0.0641958 -0.0629077 0.0371372
0.000331394 0.138671 0.421963
0.12606 0.144263 0.0286925
-0.204851 0.0974766 0.569068
0.197926 0.146616 0.399798
0.139704 0.141976 0.415826
0.0347823 0.137515 0.603995
-0.104867 0.1346 0.510607
0.25742 -0.0152131 0.429161
0.226869 -0.0450146 0.436008
0.224238 -0.0190459 0.414443
0.22321 0.0451286 0.401661
0.0708242 -0.121444 0.360354
-0.156207 0.0879963 0.407663
-0.0136336 -0.180213 0.360354
-0.203441 0.0430977 0.359961
0.140925 -0.0549315 0.360354
0.0363849 0.153275 0.519875
-0.182529 0.0425645 0.395011
-0.0820454 -0.142088 0.394839
0.146285 0.141092 0.426326
0.255931 -0.0195761 0.430552
-0.192996 0.126002 0.456681
0.0597236 -0.105633 0.394839
0.163372 -0.15564 0.0163394
0.152453 0.0244441 0.360354
0.149046 0.048931 0.395011
0.0885634 -0.215486 0.391137
-0.0223989 0.0078999 0.0417844
0.0228061 -0.0430847 0.051129
0.249159 -0.138553 0.465789
0.075846 -0.0891118 0.0451775
0.153042 -0.00795588 0.394839
-0.0297272 -0.0563812 0.0458469
0.220809 0.0849694 0.401181
0.189627 0.0592021 0.364806
-0.0849672 0.147761 0.379722
-0.196047 0.108098 0.371171
-0.0883604 0.161054 0.67004
0.0184368 0.164466 0.478662
-0.0414654 0.211773 0.746148
0.0778158 0.0658143 0.0300035
0.00899398 0.135089 0.540215
-0.0259101 0.179534 0.406798
0.115305 0.049835 0.395011
-0.114648 -0.167753 0.360354
-0.162498 0.145697 0.39283
-0.214222 -0.0441547 0.30462
0.240856 -0.0433765 0.435878
-0.0318905 0.133418 0.540067
0.00304577 -0.0245391 0.188335
-0.176757 0.109237 0.384224
0.114384 -0.0945743 0.360354
0.0539525 -0.108214 0.30186
0.0280732 0.146256 0.486823
-0.122928 -0.125682 0.0174149
-0.206977 -0.0054736 0.394839
0.0613561 -0.177987 0.360354
-0.165598 0.186578 0.738891
-0.233267 -0.0453056 0.439092
-0.19363 0.141855 0.688606
0.00509042 0.140224 0.51987
-0.0465743 0.183178 0.399767
-0.246928 0.0262983 0.402033
-0.0643617 0.054694 0.0477081
0.243109 0.126818 0.39856
-0.143275 0.145982 0.661873
0.0521288 0.0909223 0.402757
0.179099 0.0450667 0.342165
0.0380509 0.179283 0.414907
-0.0480323 -0.0547234 0.0210163
-0.193844 -0.229664 0.000427081
-0.129104 -0.0998089 0.360354
0.145541 0.17933 0.706262
-0.200549 0.185668 0.765372
-0.053205 0.039641 0.388923
-0.0432408 0.133543 0.419917
0.00487784 0.20764 0.734319
-0.247786 -0.0124424 0.408004
0.0965729 -0.0279651 0.29687
0.25134 -0.0392951 0.418613
-0.256109 0.0422632 0.567332
0.241151 -0.0622124 0.42742
-0.188137 0.175509 0.739821
0.0941545 0.158905 0.428308
-0.227395 0.114281 0.450098
0.131702 -0.16431 0.33016
-0.00560329 0.153252 0.416667
0.186406 0.160545 0.728198
0.182166 0.186184 0.0143327
0.154971 0.17246 0.024973
0.263804 0.0590385 0.410519
0.131306 -0.0355614 0.360354
-0.0358797 0.148734 0.42606
0.263288 -0.110532 0.545372
-0.197769 0.128397 0.487125
0.185133 0.158054 0.682802
0.0674035 -0.176637 0.360354
0.248442 0.0731011 0.564116
-0.109063 0.129663 0.529173
-0.125865 0.175533 0.68476
-0.193536 0.00707388 0.32513
-0.0838289 -0.157081 0.3323
0.164932 0.129606 0.636885
-0.220677 -0.0971576 0.392245
-0.0843889 0.165787 0.643467
0.169097 0.158671 0.710456
0.0314473 -0.0721118 0.33298
0.248519 -0.126467 0.456822
0.086826 -0.137257 0.327184
0.0903368 0.125058 0.555731
-0.205754 -0.206724 1.1964e-17
0.245149 0.0363617 0.567782
-0.0559528 -0.11133 0.360354
0.147411 0.12901 0.558464
0.0875994 0.206879 0.761819
0.183666 0.111225 0.60569
0.184853 0.119587 0.495657
-0.0880344 -0.097998 0.0334903
0.138009 0.10479 0.412931
0.0771708 -0.050211 0.394839
-0.218704 0.192208 1.29475e-17
-0.113705 -0.102685 0.360354
0.145628 0.207821 0.771437
0.0248222 0.206954 0.733286
-0.0451345 -0.20637 0.358913
-0.157624 0.17521 0.705524
-0.136353 -0.123631 0.0289175
0.199055 0.120676 0.518463
0.1657 0.159177 0.709246
0.250808 0.00396519 0.555219
-0.0614305 0.152029 0.457861
0.194856 0.177503 0.0320367
0.265636 0.0568981 0.562374
-0.070413 0.141909 0.377079
-0.024973 -0.0819798 0.360354
-0.0740919 0.0810953 0.0350894
0.193779 0.195085 0.0206286
0.139327 0.115759 0.0381684
-0.0130589 -0.0206809 0.221002
-0.0272217 0.178579 0.421767
0.171362 0.0726922 0.366129
-0.249579 -0.141853 0.528253
-0.213783 0.17388 0.00655418
0.129853 0.13434 0.0387257
0.181428 -0.233869 0.377791
0.032543 -0.158499 0.334944
0.0840162 0.126308 0.418616
0.219616 0.117989 0.446239
0.0912063 0.164759 0.457237
-0.240908 -0.022807 0.431178
-0.184748 -0.204446 0.0209209
-0.180937 0.0876522 0.410626
0.128898 0.0185667 0.394839
-0.0278608 0.0910928 0.402724
0.0992915 0.147402 0.399192
0.24518 0.0851562 0.394011
-0.240811 0.134163 0.397748
0.204539 0.161909 0.744577
0.0255342 0.152322 0.600696
-0.220472 -0.221479 0.358151
0.0503601 -0.0344074 0.394839
0.220789 0.00134024 0.364442
0.248027 0.0986806 0.521868
-0.265638 -0.0866596 0.447455
-0.00506776 -0.138253 0.323701
0.264579 0.078198 0.562333
0.00720367 -0.0301234 0.306815
-0.159672 0.131849 0.392031
0.0821519 0.0347873 0.360354
-0.221768 -0.0281924 0.369502
-0.0583888 0.183092 0.393779
0.0676654 -0.083725 0.360354
0.217737 0.153108 0.736098
0.0242468 -0.113739 0.360354
0.207489 -0.193297 0.394839
-0.220863 0.0170615 0.36144
-0.0631321 0.173798 0.432898
-0.00762576 -0.147835 0.394839
-0.0228002 -0.044372 0.394839
0.00310712 0.166209 0.669798
-0.0951429 0.174144 0.405165
0.21641 0.170093 0.773802
0.133991 0.149448 0.662903
0.164249 0.13824 0.0319872
0.122394 -0.131685 0.0292792
-0.238327 0.129805 0.420742
-0.00995189 0.0619348 0.359961
0.0868644 0.0163172 0.360354
-0.0487551 -0.0293553 0.292576
0.22628 0.0513169 0.549942
0.121618 -0.124299 0.0297836
-0.0426749 -0.128759 0.394839
0.264845 -0.0550745 0.561188
-0.0250058 0.213253 0.766053
-0.26024 0.0242333 0.415604
-0.0161286 -0.0237356 0.360354
-0.0523826 0.155746 0.44625
-0.0127667 -0.0196775 0.263375
-0.176278 0.157918 0.677104
0.209138 -0.229499 0.350285
0.0870618 -0.220792 0.353188
0.051129 0.144688 0.586057
0.161557 -0.207975 0.393592
0.135645 -0.149339 0.0273676
0.044239 -0.114632 0.394839
-0.1991 0.100513 0.575693
-0.0735477 0.00552323 0.394839
-0.203801 0.114228 0.628743
-0.207117 0.195372 1.23115e-17
-0.220739 -0.0587214 0.363857
0.0540539 0.216811 0.758794
-0.0464309 0.182868 0.401093
-0.265988 0.128857 0.399492
-0.192386 0.210817 0.0288845
-0.107202 -0.24258 0.360066
-0.139729 -0.188939 0.360354
0.219119 0.0165866 0.329156
0.263017 -0.0749847 0.555627
-0.250998 0.0590088 0.414276
0.16934 -0.157421 0.360354
0.0435667 -0.0605213 0.277822
-0.0207158 -0.0760312 0.273309
0.0966762 0.222441 0.764468
0.218646 0.111124 0.620465
-0.206978 0.114805 0.601389
-0.0938695 -0.0722316 0.360354
0.170157 -0.203102 0.394196
-0.0019152 0.145469 0.618163
0.220871 0.046567 0.367758
0.108406 -0.0538383 0.295094
0.178587 -0.093099 0.394839
-0.0311665 0.0364758 0.0405051
-0.15546 0.146424 0.387538
-0.0807564 0.0709368 0.0353042
-0.0320565 0.169532 0.64277
0.255873 -0.00774875 0.570676
-0.0413673 0.154122 0.516766
0.262751 0.09084 0.393987
-0.170678 0.0990717 0.378406
-0.23404 0.0165348 0.554343
-0.200314 -0.241352 0.367033
-0.0272669 0.178061 0.423943
0.12369 -0.143898 0.0385907
-0.220081 0.130176 0.680567
0.212516 0.0415471 0.395011
0.0105098 0.166774 0.471563
-0.076903 0.0350698 0.360354
-0.220455 -0.232982 0.357916
0.221095 -0.184716 0.375616
-0.256813 -0.0376097 0.414873
0.258517 -0.143107 0.522425
-0.021763 0.0184208 0.0420841
-0.0515773 0.0773244 0.397344
0.00892489 -0.0229554 0.238999
0.239663 -0.092167 0.564278
0.157667 -0.0440048 0.360354
-0.15734 -0.0576762 0.394839
0.0182219 0.0397582 0.378349
0.146953 0.0830139 0.404736
0.232729 0.0870154 0.411167
0.0110061 -0.0223948 0.182073
-0.198395 0.083598 0.376015
0.197419 -0.000720892 0.360354
0.199934 0.122506 0.509908
0.0852405 -0.145317 0.339491
-0.194768 0.192203 0.0129314
0.18652 0.113563 0.613415
0.223448 -0.145652 0.522317
-0.0240461 0.0454092 0.0444633
0.169058 -0.238463 0.35344
0.0481038 0.117388 0.379488
-0.222571 0.210437 0.0195582
0.121451 -0.163473 0.325871
0.139261 0.0311174 0.394839
-0.137762 -0.00567921 0.360354
0.102953 0.189092 0.744766
0.168836 0.0708473 0.402381
0.0204865 -0.0583217 0.394839
0.00227939 -0.0223233 0.360354
-0.0411666 0.23786 0.761708
-0.0160776 0.170184 0.45865
0.13777 0.200852 0.765388
0.0371568 0.0588077 0.395011
-0.207804 0.0673205 0.37035
0.181742 -0.0627983 0.394839
0.264833 -0.160812 0.518333
0.263283 0.128729 0.402835
0.00559204 -0.0238532 0.240915
-0.192388 -0.217426 0.0289415
-0.000656633 -0.0251821 0.245081
0.232656 -0.159687 0.532187
0.182833 0.117632 0.520586
-0.262451 -0.0143109 0.425836
-0.149941 -0.0426494 0.394839
-0.159687 0.123768 0.565421
0.194073 0.0400468 0.367658
0.181935 -0.222942 0.00655919
-0.100069 0.159281 0.474336
-0.0562707 0.196582 0.7113
0.170133 -0.0298486 0.307206
-0.221531 -0.171679 0.379013
0.219006 0.0787668 0.357494
-0.160381 0.00647266 0.394839
-0.122649 0.124181 0.594017
-0.0226868 -0.15648 0.360354
0.011953 0.0385872 0.360354
-0.194261 -0.196195 0.394839
-0.0746137 -0.043926 0.394839
-0.220813 -0.0133135 0.370179
-0.0528724 -0.156761 0.287535
-0.177279 0.115548 0.612705
0.19183 -0.107125 0.394839
0.0126495 -0.12788 0.342808
-0.184331 0.135037 0.394807
0.218111 0.0273008 0.394839
0.119645 0.175816 0.402327
-0.221058 0.0418622 0.395232
0.221988 -0.140419 0.370935
0.25791 -0.0253259 0.569772
0.262743 0.130681 0.399867
-0.0580575 0.144648 0.38763
-0.220774 -0.036941 0.361883
-0.0990191 0.139712 0.555276
0.222733 -0.137668 0.546531
-0.00706556 -0.136798 0.330128
-0.239586 -0.0870651 0.434911
-0.256852 -0.092566 0.546621
-0.0658193 0.135908 0.606044
0.209124 0.0499212 0.355724
-0.192346 0.0334876 0.360354
0.220731 0.0371484 0.381517
-0.19776 -0.215977 0.0243523
-0.208798 0.12135 0.500444
-0.0335001 0.167627 0.425012
0.0777601 -0.234972 0.376694
0.0156406 0.182206 0.391111
-0.0177729 0.17818 0.424726
0.0246042 -0.00147644 0.394839
-0.220518 -0.0266126 0.415745
-0.261353 -0.120371 0.470362
-0.220652 -0.114155 0.457946
0.187129 0.161089 0.721148
-0.265507 0.0683986 0.553939
-0.0499273 -0.0388078 0.312248
-0.220835 0.00035486 0.383157
0.0494773 0.135024 0.387102
-0.0647594 -0.181465 0.394839
-0.245685 -0.133061 0.552213
-0.0984652 0.0299507 0.360354
0.252325 -0.154067 0.539533
-0.110495 0.15868 0.633278
0.242849 0.00434192 0.421673
-0.103428 0.206859 0.751154
-0.128207 0.203547 0.756288
0.226707 0.0353207 0.569966
0.171676 -0.00669914 0.31858
0.214753 -0.0190499 0.312919
0.0298914 0.146599 0.624669
0.223344 -0.0933451 0.549101
-0.220935 0.0614832 0.409231
0.212401 0.101947 0.530762
-0.161405 0.101689 0.370889
-0.22097 0.0797907 0.551176
0.247781 -0.0829232 0.433174
0.193574 0.123878 0.392492
-0.183091 0.147214 0.428927
-0.169711 -0.027863 0.298883
0.153178 0.119553 0.41964
-0.138393 0.101273 0.411724
-0.212949 -0.0368413 0.3165
0.262114 -0.0654235 0.441709
-0.220733 -0.0622227 0.362283
-0.0917024 -0.203408 0.359402
0.21429 0.117075 0.512405
0.0316739 -0.0272559 0.264724
-0.219344 0.182468 0.775019
0.182202 0.128763 0.380305
0.245345 -0.0558519 0.440679
-0.198641 0.0534198 0.346255
-0.142831 -0.232208 0.35039
0.213144 -0.0180826 0.360354
0.0983389 -0.0596328 0.394839
0.0932791 0.224761 0.764058
-0.0579933 0.164198 0.411424
-0.169098 0.0118386 0.338651
-0.186997 -0.0195954 0.394839
0.0188169 -0.0101463 0.261703
-0.144758 -0.123658 0.0328645
0.20567 -0.227317 0.0163352
0.252678 -0.116793 0.539483
0.0777089 -0.052031 0.291154
-0.185869 0.188526 0.0129314
-0.0816911 0.173579 0.698943
-0.0990075 -0.221827 0.38849
-0.220062 0.117893 0.622414
0.224586 0.0943741 0.408875
-0.216533 0.120896 0.427624
-0.206959 0.138535 0.689433
0.042081 0.0381752 0.0397209
0.0364745 0.153213 0.604722
0.08496 0.137054 0.422963
0.104692 0.15237 0.444096
-0.193333 0.129999 0.486215
0.084383 0.195346 0.753867
-0.014437 0.132905 0.58953
0.220152 -0.203334 0.0129314
0.184173 0.118699 0.555933
-0.0695142 0.151245 0.426338
-0.0467853 -0.204371 0.394083
0.265719 0.0098885 0.560422
-0.119525 0.108583 0.0305765
0.0432497 0.0471927 0.0211949
0.194714 0.218452 0.0263366
-0.0812672 0.15938 0.483394
0.220881 -0.0570274 0.436474
-0.13935 0.189333 0.728013
-0.197453 0.132602 0.637987
-0.0223475 0.191547 0.733634
0.248982 -0.0321326 0.415992
0.219658 0.090137 0.556014
-0.226437 -0.00614325 0.572434
0.0257971 0.150933 0.634226
-0.0662991 -0.101248 0.360354
-0.263873 0.129816 0.400104
0.189452 0.123026 0.52196
-0.131626 0.0864485 0.405443
-0.224379 0.18247 0.00528867
-0.0564193 0.0717551 0.0369963
0.0677383 -0.1499 0.339381
-0.0363535 -0.0277131 0.280688
0.211653 0.0946327 0.574407
0.158844 0.157496 0.0355003
0.0524639 0.159997 0.486211
0.117708 -0.0499115 0.289101
-0.264842 0.0247685 0.559624
0.241197 -0.146741 0.543677
-0.114341 0.154552 0.485001
0.217596 -0.156161 0.394839
0.222135 -0.229794 0.367412
-0.165685 0.136507 0.384095
-0.186284 -0.043782 0.312359
0.059644 0.12902 0.549014
-0.0430805 0.202565 0.760366
0.0206784 0.104717 0.374037
-0.145724 0.167151 0.677339
-0.250546 -0.0773175 0.549906
0.208227 0.102411 0.59812
-0.236973 -0.125578 0.554929
-0.248282 -0.166099 0.503046
-0.0744967 -0.0428539 0.360354
0.0818721 -0.0647753 0.0457713
-0.137194 -0.177129 0.394839
-0.0295705 0.0709093 0.359961
0.018989 0.0326818 0.0518721
-0.262879 0.106032 0.485983
0.222069 -0.189777 0.385617
0.250904 -0.0588691 0.554609
0.0699435 0.155159 0.392977
