-0.0225825 -0.0751926 0.888397
0.00274078 0.0390106 0.0844619
0.032393 -0.0337666 0.816873
0.162661 -0.113348 0.509259
-0.0723902 -0.0187034 0.113707
0.220954 -0.0957745 0.499946
0.198193 -0.0963629 0.52794
-0.00789497 -0.0937946 0.206883
-0.00143922 0.0151529 0.0782036
0.0120937 -0.0317518 0.108454
0.442291 -0.0904753 0.489955
-0.0487701 -0.0697775 0.820965
-0.0233322 -0.12842 0.525019
-0.128378 -0.102051 0.486405
0.322385 -0.100283 0.480762
-0.0522826 -0.0451584 0.40377
-0.461709 -0.0890303 0.48407
-0.0182099 -0.0821983 0.898119
0.0519126 -0.0679188 0.283678
-0.355491 -0.0964469 0.457473
-0.0508224 -0.0422924 0.481066
-0.307553 -0.094038 0.524612
-0.0300674 -0.109246 0.827732
0.287861 -0.103977 0.501267
0.0532817 -0.0471138 0.490406
-0.349837 -0.0996408 0.496819
0.0387339 -0.0299673 0.241779
0.0523515 -0.0905321 0.3509
0.0827904 -0.113825 0.464664
-0.0159212 -0.012808 0.644975
0.0973743 -0.113249 0.470676
-0.124407 -0.116663 0.544568
0.0193015 -0.127106 0.473473
-0.00337776 0.0103925 0.114683
0.0174127 -0.0284676 0.744299
-0.000721784 0.00304448 0.0762516
-0.0287896 -0.0187029 0.629176
-0.0572335 -0.0654526 0.695799
0.0537775 -0.048087 0.447681
-0.0137918 -0.12335 0.762314
-0.253241 -0.101154 0.454754
0.093423 -0.119634 0.554656
0.044405 -0.100538 0.532442
-0.212752 -0.110452 0.514809
-0.0151313 -0.0126829 0.314624
-0.0563744 -0.0600286 0.426839
-0.0024332 -0.125148 0.371221
-0.132661 -0.00821543 0.0817826
0.055779 -0.0562529 0.67137
0.0964874 -0.01476 0.0862785
-0.0951586 -0.106967 0.471911
-0.0100776 -0.0118825 0.759939
-0.0469826 -0.101064 0.3493
0.106724 -0.10064 0.504482
0.00385241 -0.110807 0.264748
0.0287301 -0.0664102 0.186289
-0.063922 -0.122079 0.561689
0.171708 -0.109158 0.466697
0.0313622 -0.0208829 0.772836
0.125014 -0.102066 0.487131
0.0408482 -0.0136833 0.115138
-0.234731 -0.109232 0.522839
0.077945 -0.113785 0.459816
0.00151776 0.119877 0.0501419
0.121766 -0.111528 0.471102
-0.0632511 -0.0995834 0.53294
-0.0475831 -0.0493134 0.252412
-0.0401113 -0.0281442 0.310456
0.00365898 0.0155323 0.126291
0.319687 -0.09921 0.467116
0.00903805 -0.125832 0.63615
-0.113984 -0.0986874 0.516319
-0.0193911 -0.0152642 0.22423
0.0478461 -0.085361 0.818629
0.0566419 -0.0617002 0.625123
-0.401211 -0.0875783 0.467423
-0.0452575 -0.0326797 0.527494
0.242234 -0.107426 0.492511
0.0104978 -0.0119486 0.586885
0.00236697 -0.0106607 0.205698
-0.0332308 -0.0222702 0.290427
0.0485201 -0.0377686 0.565975
0.10605 -0.0981916 0.551886
-0.0458044 -0.102233 0.517897
-0.056711 -0.078957 0.614208
-0.0420207 -0.111281 0.466378
-0.0388881 -0.0337379 0.222934
-0.0567326 -0.0735297 0.620532
-0.0159676 -0.0606071 0.167369
-0.0573675 -0.0732718 0.534842
-0.0199458 -0.121623 0.747363
0.0459334 -0.102468 0.671956
-0.0569966 -0.113061 0.45277
-0.228354 -0.100424 0.547008
-0.0382666 -0.0256884 0.628413
-0.0544321 -0.0493769 0.643122
-0.0475869 -0.116667 0.476244
-0.218015 -0.0997989 0.472997
0.00728938 -0.115852 0.849895
0.0485781 -0.0661354 0.255801
0.0558488 -0.0791266 0.379807
0.0435799 -0.104821 0.366182
0.275901 -0.100419 0.44761
0.0563642 -0.0599475 0.612861
-0.25954 -0.107179 0.517207
0.0350033 -0.113397 0.76177
0.102582 -0.00931887 0.0972818
-0.0552237 -0.0830562 0.362895
0.0319573 -0.0442812 0.79946
0.0337566 -0.0827722 0.218918
0.0693034 -0.104439 0.598681
0.0374335 -0.0730892 0.210171
0.000538921 -0.0103711 0.501098
-0.0272644 -0.0284676 0.77229
0.262496 -0.0973162 0.470876
-0.0315095 -0.0241231 0.789018
0.372901 -0.0897212 0.472023
0.0199934 -0.100376 0.238895
0.196557 -0.106852 0.456783
0.27483 -0.0997071 0.451757
-0.0170992 -0.122826 0.760457
-0.00387769 -0.0909435 0.199074
0.0673784 -0.11888 0.60252
0.201496 -0.100525 0.473984
-0.00108632 -0.0104583 0.401958
0.0248559 -0.109271 0.845929
0.00556696 -0.0111676 0.429001
-0.0379188 -0.0253407 0.389835
0.381972 -0.0879536 0.479174
-0.0665879 -0.101453 0.584802
0.104842 -0.104566 0.481143
-0.170125 -0.0972385 0.523517
0.037141 -0.0245606 0.5256
-0.229089 -0.103096 0.452377
-0.369108 -0.0957852 0.458713
0.0361967 -0.112204 0.406523
-0.0549497 -0.0847855 0.371862
-0.0414536 -0.0367668 0.233485
-0.0456699 -0.0330922 0.427152
0.0562512 -0.0592337 0.533661
-0.418613 -0.0920666 0.497872
-0.053694 -0.0479283 0.440246
0.0496459 -0.0399781 0.523416
-0.0881869 -0.120125 0.56385
0.0248325 -0.119135 0.71102
-0.00120218 0.106043 0.0248658
0.017776 -0.013119 0.320507
0.0059404 -0.0112267 0.678902
-0.270595 -0.103087 0.470861
0.0346135 -0.0442812 0.801269
0.275973 -0.0947971 0.52656
-0.10408 -0.101826 0.57812
0.269434 -0.105747 0.524259
-0.0462729 -0.0375601 0.294415
-0.0128464 -0.123887 0.44857
0.484121 -0.0839996 0.450686
-0.0571878 -0.0651638 0.501066
-0.401315 -0.0862048 0.487422
0.0607387 -0.101433 0.518084
-0.0461196 -0.100676 0.530553
0.0280826 -0.0183416 0.655342
-0.124284 -0.100046 0.500395
0.0406906 -0.0495694 0.199856
0.0361753 -0.106803 0.304744
-0.265293 -0.102111 0.44854
-0.0291346 -0.115841 0.787147
0.0539439 -0.109988 0.499417
0.00202379 0.0164499 0.0855509
-0.0562262 -0.0196671 0.139871
0.43004 -0.0844062 0.4826
0.0457727 -0.0331923 0.473615
-0.00661368 -0.0113339 0.22391
0.0107378 -0.0165806 0.79348
-0.342596 -0.0976673 0.464215
-0.213202 -0.0992443 0.546532
0.0451736 -0.0325932 0.324162
0.0363747 -0.126395 0.584776
0.0015725 -0.129093 0.590834
-0.0541321 -0.109158 0.499387
-0.0561023 -0.0775092 0.400167
0.0234057 -0.128409 0.498124
0.249212 -0.0960764 0.486372
-0.0528325 -0.0462375 0.466744
0.0233099 -0.0159098 0.517093
0.019857 -0.0141505 0.346716
-0.22415 -0.106116 0.468326
0.0254419 -0.11221 0.830644
-0.0400564 -0.0486407 0.198442
0.0155728 -0.0127524 0.646357
-0.225035 -0.100769 0.46564
-0.00101483 -0.0284676 0.771027
-0.0547495 -0.0499998 0.425508
0.236507 -0.0979506 0.53843
-0.0220669 -0.124615 0.465563
0.479909 -0.0863765 0.457622
0.0317624 -0.0726467 0.867006
0.278008 -0.101306 0.456877
0.0568472 -0.0629967 0.377149
0.0549929 -0.102188 0.53147
-0.37364 -0.0900717 0.469212
-0.0473296 -0.118477 0.498273
-0.0184746 -0.0134475 0.376494
-0.278057 -0.0975832 0.461285
-0.0200148 -0.126396 0.46942
0.0779307 -0.102835 0.588696
0.0182471 -0.123096 0.447363
0.00716319 -0.0685059 0.172164
0.105149 -0.0980953 0.549195
0.343363 -0.0968609 0.454194
0.0369315 -0.0932369 0.259812
-0.300096 -0.098177 0.533552
-0.0192032 -0.121428 0.778163
-0.00715138 -0.118244 0.298296
0.0272149 -0.0178995 0.655917
-0.206601 -0.108969 0.49077
-0.023094 -0.015801 0.674418
-0.0557525 -0.0561028 0.616613
0.379737 -0.0963143 0.505124
-0.0182273 -0.128818 0.603379
0.0135744 -0.128895 0.509582
0.104918 -0.100817 0.573032
0.3469 -0.0991461 0.483294
-0.0554431 -0.0985171 0.4858
0.0553714 -0.0821405 0.729493
-0.304831 -0.0990483 0.451425
-0.0549286 -0.0546505 0.773118
0.260823 -0.093605 0.508844
-0.0972632 -0.0162808 0.117309
0.137125 -0.113187 0.572518
-0.00674719 -0.0676799 0.899755
-0.0536536 -0.0199124 0.113345
0.330303 -0.0913041 0.511722
-0.0169449 -0.0442812 0.855748
0.00130917 -0.103921 0.893201
-0.0622837 -0.100187 0.52815
-0.228059 -0.10875 0.537269
0.0445004 -0.0508382 0.224579
-0.0245478 -0.0169813 0.151306
-0.0342618 -0.0760163 0.203759
0.00281198 0.0722209 0.0884051
-0.344111 -0.0930415 0.462333
-0.0141293 -0.0372668 0.122858
0.0536904 -0.047916 0.463806
-0.0569321 -0.0635493 0.660669
0.259074 -0.10713 0.510412
-0.0220065 -0.120573 0.760352
-0.042194 -0.106205 0.385752
-0.45421 -0.0897965 0.482711
0.0226153 -0.0793859 0.193253
-0.0551375 -0.116019 0.473232
0.00479326 -0.120552 0.823505
-0.0543974 -0.0799124 0.781141
-0.0280508 -0.0183265 0.689608
-0.303365 -0.0911345 0.503625
-0.233353 -0.0971422 0.484843
0.00771561 -0.0115079 0.352898
-0.0893067 -0.118406 0.523684
0.118231 -0.0975488 0.528986
-0.118268 -0.112705 0.482673
-0.23924 -0.106846 0.484449
0.0659446 -0.116565 0.488061
-0.436649 -0.0888826 0.44629
-0.210599 -0.0964934 0.530901
-0.0564671 -0.0606142 0.604236
0.00956358 -0.0118006 0.70276
0.291413 -0.103394 0.495489
0.00945543 -0.0144636 0.103977
-0.03318 -0.038219 0.826964
0.231266 -0.0983676 0.540866
-0.159187 -0.109039 0.454348
0.0291221 -0.116949 0.34292
-0.168552 -0.108327 0.565199
-0.0171664 -0.0130053 0.510546
0.0429422 -0.0303618 0.456696
-0.436229 -0.0855356 0.492777
0.0513567 -0.0720969 0.2844
-0.394981 -0.087735 0.498083
-0.0830983 -0.107037 0.476134
0.0024167 0.0911687 0.0614265
0.0496818 -0.0957721 0.710953
-0.0246854 -0.119208 0.758611
-0.284273 -0.101688 0.469259
-0.0318733 -0.021051 0.287674
0.126301 -0.116459 0.55113
0.00287815 0.0672851 0.0939683
-0.0598974 -0.0190024 0.138623
-0.335955 -0.0983692 0.468172
0.0383312 -0.0723919 0.212244
-0.0581878 -0.120368 0.600432
-0.0401221 -0.027544 0.536138
-0.186634 -0.1114 0.503634
-0.237013 -0.0978074 0.479308
-0.0102715 -0.0119131 0.263538
-0.157147 -0.0977639 0.536327
-0.00195461 -0.00524856 0.0979828
-0.0245719 -0.0219937 0.796207
0.0433098 -0.0405306 0.23283
-0.0516432 -0.0919169 0.715364
-0.0698723 -0.102346 0.508519
0.0109087 -0.0673754 0.172249
0.00919285 -0.127451 0.623429
-0.0388191 -0.126015 0.56481
-0.095383 -0.0167565 0.109475
0.0257692 -0.101856 0.861569
-0.0193596 -0.0138984 0.696371
-0.0569055 -0.0829731 0.476345
0.263716 -0.104828 0.483074
-0.0561287 -0.0584774 0.519008
0.0129683 -0.0184226 0.110817
0.000763165 -0.124431 0.789647
0.0507671 -0.0529715 0.280238
0.178215 -0.100486 0.483165
-0.289866 -0.100412 0.45882
0.0542012 -0.0506939 0.316066
0.0957575 -0.0106398 0.116
-0.180211 -0.105896 0.565479
0.0179873 -0.0131978 0.563595
0.31575 -0.0941793 0.523979
0.176659 -0.0968871 0.521141
0.0296858 -0.0191584 0.577602
0.00296151 0.0407952 0.0877647
-0.0109747 -0.0120246 0.699654
0.00325999 0.0389335 0.0969797
0.306352 -0.0911876 0.490526
0.0036017 -0.00411855 0.129155
0.0328342 -0.0207626 0.742387
-0.230573 -0.104834 0.453137
0.0427147 -0.0744208 0.232942
-0.0118297 -0.0238265 0.818047
-0.391402 -0.0923431 0.509558
-0.1751 -0.111599 0.497156
0.174883 -0.0983731 0.539973
-0.00743669 -0.0114642 0.179661
-0.00487583 -0.129038 0.588886
-0.304713 -0.0942694 0.525473
0.147628 -0.108122 0.449912
-0.0486288 -0.116809 0.59317
-0.0795567 -0.111649 0.453148
0.111 -0.108582 0.595062
-0.236146 -0.104668 0.455642
0.00134723 -0.0284676 0.821497
0.0164247 -0.103761 0.877793
0.131196 -0.111263 0.473927
0.00360624 0.0114314 0.137316
0.0393405 -0.113868 0.634668
0.0487348 -0.0976307 0.674444
-0.185467 -0.0965976 0.514086
-0.433619 -0.0903402 0.463548
-0.301266 -0.099363 0.45344
-0.0574312 -0.0719338 0.479074
-0.057463 -0.0689191 0.7598
0.0348462 -0.0222658 0.591803
-0.382871 -0.0925025 0.450263
-0.423382 -0.084813 0.476076
-0.0392888 -0.0267107 0.49647
0.0255523 -0.128075 0.48693
0.00546574 -0.0344987 0.846349
0.057077 -0.0644471 0.717709
0.00251253 0.0882622 0.0675361
-0.0206409 -0.114963 0.29899
-0.0557996 -0.0794204 0.657857
-0.327075 -0.0902563 0.502174
-0.448529 -0.0833639 0.479203
-0.0341173 -0.0215389 0.661731
0.117658 -0.0974307 0.532059
0.133013 -0.0988371 0.507262
-0.0914488 -0.101039 0.508811
-0.0473249 -0.0975169 0.315457
0.417574 -0.0861183 0.467703
0.0424105 -0.0379632 0.803968
0.163134 -0.0977195 0.532615
0.0470001 -0.076755 0.826276
-0.0618704 -0.104769 0.495902
-0.291521 -0.0914918 0.502409
-0.0375159 -0.0249377 0.686858
0.108975 -0.0142031 0.0872834
0.435744 -0.0903822 0.465699
0.0555532 -0.0155475 0.0879567
-0.00313539 0.0195357 0.103377
-0.158289 -0.114416 0.523546
0.233882 -0.0962735 0.490899
-0.155331 -0.114739 0.53104
-0.210258 -0.110383 0.51137
0.0544894 -0.0494841 0.721679
-0.0554341 -0.0817276 0.37844
-0.0304614 -0.0195547 0.657476
-0.00711235 -0.129002 0.567772
-0.0548422 -0.0503557 0.546038
0.177175 -0.108141 0.456541
0.0469189 -0.101195 0.332128
0.0293604 -0.0189996 0.3221
0.0486309 -0.0379861 0.718274
-0.0106205 -0.0119685 0.481082
-0.043745 -0.120517 0.518164
0.0487869 -0.0382922 0.731741
-0.0085557 -0.0116414 0.506762
0.0508427 -0.0740561 0.814454
-0.0561016 -0.0583063 0.553397
0.172112 -0.0981274 0.503134
0.0526913 -0.103702 0.468938
-0.40728 -0.0939345 0.485102
0.0897702 -0.0102665 0.112861
0.254747 -0.0949784 0.522324
0.110541 -0.0107666 0.07898
-0.068527 -0.121571 0.574611
0.341119 -0.0913669 0.473446
-0.0175272 -0.122758 0.658538
-0.0488929 -0.0385055 0.740109
-0.0517058 -0.046627 0.776567
-0.0179744 -0.122628 0.420674
-0.0072643 -0.125072 0.451969
0.0103794 -0.0119298 0.33901
0.017245 -0.128834 0.510295
-0.20944 -0.108736 0.489706
-0.327692 -0.100684 0.489964
0.093549 -0.103918 0.489596
-0.0194973 -0.0357131 0.841412
-0.034347 -0.0217687 0.654818
0.0261545 -0.115941 0.31317
0.0250115 -0.121632 0.63985
-0.0575105 -0.0672014 0.379126
0.000956384 -0.129103 0.593484
0.0874323 -0.0173918 0.109882
0.0567243 -0.0868241 0.519863
-0.489556 -0.0857443 0.483979
0.319407 -0.101803 0.504879
-0.409269 -0.0911587 0.450807
0.177764 -0.103598 0.560921
-0.0470986 -0.118774 0.538254
0.222783 -0.101113 0.464399
0.0135786 -0.0284676 0.796085
-0.0214334 -0.014955 0.473762
-0.0044329 -0.129046 0.528587
-0.0556157 -0.055239 0.529187
0.000968252 -0.0375161 0.105856
0.00933005 -0.0129634 0.132167
-0.12031 -0.100441 0.568071
-0.442623 -0.0904698 0.472613
0.010771 -0.0442812 0.858018
0.00399186 -0.114491 0.856513
-0.439142 -0.0890997 0.453749
0.393377 -0.095378 0.49693
-0.0610832 -0.121695 0.545885
-0.208981 -0.110682 0.515287
-0.00446705 -0.103589 0.235478
-0.125986 -0.116037 0.561563
-0.0559447 -0.0573158 0.68785
-0.0529152 -0.0463997 0.721239
0.0460295 -0.0357806 0.30313
0.406603 -0.0856688 0.481359
0.458821 -0.0864885 0.447784
0.00184536 -0.0105781 0.744323
-0.0725477 -0.119705 0.527163
-0.0110974 -0.0347471 0.841785
0.459083 -0.0844601 0.458651
-0.0646829 -0.011409 0.114763
-0.253756 -0.0970404 0.47725
-0.0477783 -0.115275 0.611298
0.0327908 -0.0226802 0.149025
0.0546292 -0.122689 0.557581
0.00558794 -0.011171 0.199985
0.456745 -0.0837355 0.464383
0.00110806 0.117788 0.0147323
0.0098414 -0.122288 0.315945
-0.0148307 -0.0139792 0.18674
0.0231865 -0.128443 0.5224
-0.182013 -0.0995202 0.487929
0.0144634 -0.0125767 0.343273
0.20191 -0.11015 0.500764
-0.0571457 -0.0709223 0.710809
-0.0402251 -0.108173 0.753322
-0.0515915 -0.0441821 0.769581
0.00136028 0.0467949 0.0583784
-0.00159814 -0.125281 0.749214
0.215171 -0.0975003 0.488109
0.0578303 -0.121745 0.590687
-0.0022356 0.107854 0.0435635
-0.0547426 -0.0530615 0.317652
-0.0378149 -0.0252367 0.353821
0.0470877 -0.100864 0.711094
0.0272489 -0.0284676 0.77082
0.0235367 -0.094471 0.226876
0.0248693 -0.0818785 0.885662
0.183884 -0.101854 0.473073
-0.324957 -0.0921909 0.473766
-0.0297157 -0.0191748 0.481371
-0.0435218 -0.0309439 0.603339
0.146342 -0.11201 0.488279
-0.00163123 0.0166642 0.0797953
-0.00903901 -0.0442812 0.839227
0.0456861 -0.115413 0.472795
-0.0574843 -0.0708186 0.455208
-0.0553319 -0.0823726 0.39713
-0.0361387 -0.0258959 0.275306
0.0380204 -0.11038 0.707425
0.223611 -0.106435 0.471721
0.0553709 -0.0536769 0.645375
-0.0125157 -0.0442812 0.825416
0.0933327 -0.119597 0.552297
-0.0161308 -0.128853 0.543836
0.0455168 -0.102884 0.656097
-0.0207841 -0.0149945 0.295647
-0.0251789 -0.116894 0.803554
-0.0559479 -0.0674672 0.310714
-0.0132312 -0.123438 0.35774
0.0438857 -0.104515 0.75378
-0.0490326 -0.0506907 0.80586
0.00774361 -0.0382323 0.850248
0.0346215 -0.0220411 0.60192
0.162982 -0.104185 0.467436
-0.057334 -0.066087 0.448232
-0.145458 -0.103948 0.47213
-0.036594 -0.126361 0.559473
-0.00228385 0.0954773 0.0558183
0.0531629 -0.0468807 0.341592
-0.0361539 -0.0377024 0.813166
-0.298482 -0.0978397 0.534373
-0.0542478 -0.0696443 0.301476
-0.0441428 -0.0934318 0.82001
-0.0352989 -0.0227205 0.325746
0.00971873 -0.0118252 0.38319
0.340193 -0.0973221 0.4582
-0.0078065 -0.0115227 0.59546
-0.0795738 -0.119497 0.586493
-0.0394168 -0.108982 0.387689
0.0555355 -0.0547157 0.354237
-0.0565902 -0.0892059 0.525064
-0.0554976 -0.0544933 0.695506
-0.0541385 -0.0870194 0.715157
0.339847 -0.100309 0.498536
-0.177623 -0.106956 0.448389
0.0946023 -0.0144864 0.0824471
-0.274651 -0.101374 0.451756
-0.449068 -0.0894942 0.491538
-0.0503427 -0.041351 0.641065
-0.0571028 -0.0646274 0.669149
-0.0284866 -0.127619 0.497361
-0.0458904 -0.057923 0.23007
0.139896 -0.113091 0.497731
0.293113 -0.0942712 0.525822
-0.29052 -0.102808 0.525879
0.0186571 -0.086748 0.896718
-0.0116859 -0.123683 0.334308
-0.252327 -0.0958867 0.528326
0.018819 -0.0137924 0.310177
-0.0938016 -0.118703 0.57761
-0.0346297 -0.113769 0.388281
0.0845784 -0.113471 0.459088
-0.0251569 -0.0832983 0.199868
-0.271899 -0.0979503 0.462414
-0.0440451 -0.122694 0.49575
0.0325109 -0.0442812 0.812373
0.377921 -0.0907255 0.462596
0.203823 -0.0958347 0.520997
0.0228008 -0.016275 0.276471
-0.0566818 -0.0619697 0.560024
0.00465842 -0.0286127 0.7381
-0.0338694 -0.0212911 0.41422
0.0424846 -0.118649 0.496951
-0.0435646 -0.104834 0.690433
-0.0989603 -0.100457 0.572487
0.0411585 -0.107242 0.708125
0.0102621 -0.0323802 0.841007
0.0515859 -0.0437856 0.492573
-0.0480776 -0.0603643 0.244831
-0.170614 -0.0993363 0.546205
-0.190694 -0.0975878 0.536668
-0.0361365 -0.108829 0.805811
0.319575 -0.101361 0.492369
-0.0475644 -0.0797278 0.822686
-0.0366832 -0.126347 0.573474
-0.0438498 -0.104549 0.39646
-0.00245406 -0.00375529 0.10465
-0.128547 -0.112159 0.483401
0.016836 -0.0129525 0.718029
0.00532598 -0.0171284 0.801155
-0.0645507 -0.0173605 0.0949544
0.0550843 -0.0839526 0.726053
0.0570065 -0.0809008 0.514217
0.218601 -0.105458 0.453891
0.0678214 -0.0153687 0.0808319
-0.0353106 -0.113088 0.75333
0.0813067 -0.0141617 0.0787752
0.478856 -0.0841563 0.451985
0.148041 -0.102577 0.479382
-0.00125508 0.0123048 0.152607
0.374979 -0.0964967 0.508727
-0.0532918 -0.0886916 0.646748
0.0104943 -0.128946 0.529986
0.00298376 0.0703089 0.0790544
0.0366927 -0.022874 0.134174
-0.213983 -0.097091 0.491212
-0.0510218 -0.0426837 0.675107
-0.0513127 -0.0976756 0.626654
0.0234706 -0.0161292 0.312596
0.047204 -0.0351855 0.55449
0.00179793 -0.126362 0.456759
-0.0296225 -0.11594 0.781218
-0.00111801 -0.0104633 0.293556
-0.0453753 -0.0921813 0.817801
-0.0435077 -0.105253 0.444957
0.128196 -0.102404 0.484413
-0.0326225 -0.0206558 0.605789
-0.0531385 -0.0628574 0.288047
-0.0482071 -0.0760658 0.265155
0.0377781 -0.0199481 0.10208
-0.196439 -0.110766 0.503754
-0.0414386 -0.0288606 0.756247
0.0512622 -0.0431504 0.497718
0.0602087 -0.102385 0.51173
-0.0299668 -0.0232871 0.788763
0.0357136 -0.0231332 0.574612
0.041074 -0.107327 0.414938
0.131097 -0.010771 0.0717077
-0.221146 -0.0996746 0.472833
-0.13559 -0.112451 0.48929
0.334987 -0.0997132 0.482525
-0.0188828 -0.0136555 0.744038
-0.147472 -0.114591 0.555426
0.0567522 -0.0623967 0.430963
-0.0544746 -0.0863599 0.413324
-0.0453987 -0.032821 0.354702
-0.0521068 -0.0448133 0.746163
-0.0562946 -0.0916056 0.54836
-0.0379024 -0.0312365 0.225915
0.0158252 -0.0127924 0.416906
0.0252194 -0.0168827 0.573507
0.0122971 -0.0643661 0.169568
-0.152283 -0.11149 0.484656
-0.0393578 -0.109041 0.666765
-0.312588 -0.092848 0.474422
0.00376227 -0.0044118 0.136611
0.00120556 0.0302661 0.0660252
0.0429716 -0.105429 0.416781
-0.10116 -0.0982517 0.551161
0.0554804 -0.0982312 0.517457
-0.0569479 -0.0636492 0.450416
-0.174241 -0.109428 0.472555
0.0545208 -0.0202661 0.118385
-0.391098 -0.0872529 0.492592
0.125814 -0.115882 0.526286
0.396457 -0.0883747 0.501505
0.0418742 -0.106527 0.691306
-0.00231296 0.0330211 0.0801856
0.0208376 -0.123143 0.641254
-0.0193162 -0.0647824 0.174913
0.0223483 -0.0154198 0.652909
-0.00319293 -0.129066 0.567532
-0.109191 -0.0140272 0.117084
-0.0503027 -0.0903853 0.791382
-0.0407733 -0.107625 0.392058
-0.0509092 -0.0424628 0.523429
-0.0853858 -0.017576 0.110568
0.0221517 -0.0153196 0.541735
0.00413048 -0.127731 0.621205
0.0542316 -0.048978 0.527123
-0.252788 -0.0959876 0.484798
-0.108108 -0.109594 0.596174
-0.054595 -0.105401 0.524746
0.408406 -0.0891604 0.504024
-0.131413 -0.115687 0.526764
-0.0164376 -0.0140026 0.210364
0.0488661 -0.0384477 0.585026
0.0525309 -0.0850578 0.791293
-0.0563962 -0.0601666 0.608989
0.0515641 -0.0437429 0.602893
-0.0755406 -0.0116431 0.122894
-0.00995385 -0.0118629 0.648647
0.0564149 -0.0906458 0.488646
0.015689 -0.12886 0.591255
0.284439 -0.0918189 0.501718
-0.327109 -0.101204 0.504804
0.344268 -0.0998252 0.506595
0.107949 -0.117528 0.570858
-0.0529831 -0.111219 0.582646
-0.487868 -0.0862099 0.462228
-0.0569366 -0.063578 0.65316
0.0457235 -0.0152779 0.0975026
0.433708 -0.0843876 0.47243
-0.0479517 -0.0366584 0.733417
-0.0517549 -0.0916978 0.329579
0.0191756 -0.128802 0.568133
-0.129335 -0.107748 0.455289
0.0118647 -0.0585715 0.882655
0.0195424 -0.12183 0.414467
0.0271437 -0.127828 0.558451
-0.056628 -0.0616299 0.62328
0.115332 -0.104043 0.479781
-0.0568833 -0.0632416 0.364948
0.0467069 -0.101611 0.397704
-0.0569199 -0.0723473 0.670294
-0.274832 -0.0992619 0.539621
-0.150781 -0.110986 0.478426
0.0576796 -0.10223 0.513659
0.46985 -0.0872848 0.45945
0.430935 -0.0858098 0.493627
-0.0450626 -0.0568451 0.224742
0.127833 -0.104196 0.579311
-0.147468 -0.0993376 0.499875
-0.00961935 -0.0118099 0.533849
0.00349765 0.0238934 0.11344
0.220797 -0.109577 0.507031
0.00202057 0.11016 0.0560412
-0.0516966 -0.0918122 0.392893
0.0250415 -0.0167921 0.363901
0.0455355 -0.102866 0.397437
0.0206336 -0.0171635 0.184413
-0.0445501 -0.0196651 0.104431
-0.0956407 -0.11926 0.54536
0.0383636 -0.0658572 0.200482
0.00755663 -0.128994 0.509273
0.278258 -0.0975603 0.461307
0.0370356 -0.0914541 0.253509
-0.0433042 -0.115507 0.621819
0.0113879 -0.0120895 0.293819
0.135757 -0.115987 0.545813
0.0560186 -0.0577658 0.598507
-0.187659 -0.0963619 0.516683
0.216617 -0.098049 0.540441
0.0423688 -0.0505869 0.82333
-0.0520194 -0.0446417 0.357577
0.0572727 -0.0753146 0.579135
0.0173682 -0.0130368 0.4401
-0.0341135 -0.0978341 0.848905
0.0437936 -0.042654 0.228911
-0.0105362 -0.0329783 0.106687
0.156857 -0.113362 0.556798
0.350663 -0.0974461 0.466519
-0.0428492 -0.124229 0.569662
-0.238342 -0.0964466 0.487898
0.010309 -0.0617598 0.889152
0.0179898 -0.0284676 0.797108
-0.0370019 -0.0437028 0.810951
0.0523067 -0.0122415 0.120292
-0.242494 -0.10348 0.447003
0.0430577 -0.0304773 0.683473
-0.0139855 -0.128888 0.605924
0.019863 -0.0660922 0.884347
-0.0568867 -0.0833676 0.564535
-0.183837 -0.112418 0.515931
-0.0364295 -0.0238513 0.508072
-0.136889 -0.00890203 0.101018
0.0352103 -0.0226299 0.38542
0.0906899 -0.106282 0.477333
0.0394066 -0.096509 0.281393
0.0228876 -0.128489 0.511286
0.0286061 -0.0150579 0.116042
0.126341 -0.0973689 0.52565
-0.0937322 -0.0145181 0.0822352
-0.0513551 -0.0924825 0.768008
-0.0477012 -0.0995046 0.568583
-0.0247976 -0.0346742 0.160242
0.0382429 -0.0519625 0.834705
-0.0501346 -0.0409426 0.422344
0.22625 -0.109732 0.518615
0.13661 -0.099766 0.499325
-0.0325402 -0.0206139 0.579013
-0.27837 -0.0978499 0.459704
-0.198743 -0.0983323 0.488627
0.0313024 -0.110968 0.817374
0.295981 -0.094803 0.468828
-0.017242 -0.0504623 0.155748
0.0502829 -0.0127841 0.128374
-0.0502339 -0.0411374 0.600118
-0.290004 -0.100438 0.532991
0.182729 -0.0989444 0.491434
0.232343 -0.107936 0.492944
-0.0340066 -0.0442812 0.820764
0.29507 -0.0957367 0.529958
-0.00271027 0.0396136 0.0835637
-0.00307799 -0.0435135 0.862686
0.0484833 -0.0981243 0.683235
-0.00168353 0.0987535 0.0380533
-0.0576253 -0.118565 0.505255
0.0264373 -0.0175033 0.634223
0.0230292 -0.128467 0.554371
0.0552105 -0.0831564 0.645934
0.02174 -0.0902992 0.21196
-0.0428647 -0.105534 0.656047
-0.0359981 -0.0305082 0.778726
-0.0287293 -0.0186722 0.673065
0.0492857 -0.115703 0.484097
-0.0187245 -0.127439 0.616783
0.0432608 -0.100736 0.3081
-0.00134156 0.0084423 0.0810714
-0.0286864 -0.11717 0.376024
-0.334879 -0.0998315 0.48383
-0.18062 -0.109735 0.480691
-0.027083 -0.117987 0.744374
0.236005 -0.102671 0.452781
-0.0567331 -0.0865932 0.518203
0.0770085 -0.118239 0.513179
0.186718 -0.112371 0.518426
-0.0258681 -0.0284676 0.806519
0.0494986 -0.0693005 0.818586
0.0561132 -0.0583626 0.432107
-0.0436735 -0.0945373 0.819662
-0.048275 -0.0372928 0.439415
0.00334586 0.0291341 0.125232
-0.0133623 -0.0415476 0.76368
0.117528 -0.113281 0.488566
0.157458 -0.114132 0.550672
-0.0199772 -0.121607 0.705363
0.0708182 -0.121607 0.563702
0.40626 -0.0926747 0.502394
-0.235157 -0.107616 0.490791
-0.0207583 -0.0183307 0.78741
0.374367 -0.0944379 0.44808
0.0549037 -0.0850932 0.702028
0.0461235 -0.101415 0.524212
0.00216456 0.00484496 0.0947604
0.0559406 -0.0572728 0.583901
0.00196466 0.114304 0.0531272
0.185084 -0.10856 0.470663
-0.00780683 -0.12899 0.514486
0.192042 -0.103758 0.459795
-0.054975 -0.102317 0.574551
0.334635 -0.0913661 0.511838
0.307746 -0.102401 0.514598
-0.00797785 -0.0115499 0.193451
-0.441691 -0.0837723 0.481005
0.0312888 -0.0557544 0.181932
0.00309232 0.065828 0.0818873
0.0681348 -0.0987265 0.546801
0.0548969 -0.0506843 0.669578
0.0353392 -0.0227588 0.641746
0.052088 -0.0972682 0.623177
0.0904347 -0.0136357 0.12729
-0.0379684 -0.0143289 0.11202
0.291272 -0.0998573 0.450225
-0.0485538 -0.114648 0.450931
0.292638 -0.0947698 0.470232
0.0312274 -0.0359424 0.826268
-0.164418 -0.101705 0.558246
-0.334367 -0.0899114 0.498452
-0.0137549 -0.0124649 0.655001
0.0994193 -0.109436 0.457326
0.0499728 -0.0975291 0.6332
-0.421221 -0.088962 0.502685
0.0314038 -0.115786 0.375498
-0.0501194 -0.0409127 0.576282
0.000545754 0.0235857 0.0612545
-0.026751 -0.0707014 0.188595
-0.130533 -0.00795526 0.0972924
0.0358055 -0.0409191 0.822181
-0.0289212 -0.01877 0.410151
-0.254455 -0.0960863 0.483139
0.163004 -0.101121 0.484798
-0.0490001 -0.038716 0.656332
-0.199548 -0.11031 0.500828
-0.309589 -0.10091 0.47898
0.252541 -0.105621 0.539305
-0.101187 -0.00926109 0.102052
-0.366713 -0.0974907 0.509356
0.155212 -0.0973381 0.521605
-0.0328892 -0.0232654 0.141671
-0.000744447 -0.125416 0.649094
-0.0194951 -0.0139674 0.410599
-0.00299108 -0.12907 0.509735
0.00288387 0.0268495 0.133863
-0.0555032 -0.0545291 0.573343
-0.207533 -0.110655 0.534529
0.00595772 -0.0112295 0.742817
0.0319165 -0.0789308 0.868885
-0.300416 -0.103136 0.502962
-0.0744768 -0.103508 0.592845
0.0870925 -0.105754 0.481707
-0.452671 -0.0898082 0.485848
-0.297099 -0.102242 0.485273
0.00495567 -0.124749 0.394521
-0.298313 -0.095068 0.466453
0.0471695 -0.11607 0.467692
-0.281258 -0.104764 0.505684
0.183832 -0.10003 0.550059
0.0544191 -0.0493461 0.453295
0.0230013 -0.0157526 0.712862
0.442248 -0.0905132 0.472845
-0.350724 -0.0979746 0.472372
0.000543941 -0.0710968 0.174058
0.0625724 -0.122318 0.569126
-0.0247981 -0.128192 0.582964
0.00887927 -0.0116922 0.416447
0.0707007 -0.109973 0.611634
-0.00581633 -0.0112075 0.515562
-0.0789068 -0.105387 0.4867
0.0654189 -0.100245 0.575134
-0.0259871 -0.0181037 0.259573
0.0842579 -0.106812 0.476973
-0.231023 -0.0996826 0.47001
-0.0573213 -0.0660064 0.708196
-0.0726152 -0.113973 0.458915
-0.301532 -0.0992854 0.452054
0.433647 -0.0899727 0.459481
-0.0374503 -0.0342229 0.205545
-0.0484926 -0.0993592 0.546311
-0.0392045 -0.125826 0.60708
0.0541728 -0.108845 0.531604
0.00382491 -0.0108916 0.504887
0.230794 -0.109469 0.518798
-0.0902289 -0.0135108 0.127053
-0.0358157 -0.0243519 0.300438
-0.0109482 -0.0120203 0.45969
-0.000705244 -0.0103979 0.416158
-0.0151967 -0.0126933 0.368133
0.327773 -0.0965993 0.526343
0.00271146 -0.129074 0.568103
-0.055135 -0.052204 0.754087
-0.336697 -0.0923805 0.516695
0.239822 -0.108852 0.514061
0.0566938 -0.0620282 0.555783
0.204206 -0.096982 0.496129
-0.225614 -0.100684 0.548064
0.0917435 -0.108312 0.466088
-0.056693 -0.087436 0.586273
-0.422618 -0.0855132 0.469452
0.0462159 -0.0336355 0.691284
0.132192 -0.111231 0.578875
-0.000962131 -0.0104386 0.254299
0.0383709 -0.0792511 0.225748
0.328658 -0.0916297 0.47601
0.0616259 -0.104861 0.602664
-0.0248215 -0.0178256 0.235945
0.00728247 -0.124381 0.397075
0.046898 -0.034585 0.579791
-0.161468 -0.110826 0.480591
-0.0276976 -0.019234 0.239197
0.0028451 0.0692448 0.0918543
0.0547709 -0.0917541 0.613537
-0.0186822 -0.0135532 0.457509
-0.109529 -0.105048 0.587455
0.249632 -0.0942879 0.508134
0.121886 -0.0998896 0.565064
-0.0551207 -0.0586461 0.312899
-0.0182811 -0.0649178 0.884899
0.0370848 -0.0245044 0.675643
-0.0473434 -0.100356 0.698069
-0.0516794 -0.112893 0.58614
-0.164419 -0.0977421 0.511468
-0.200844 -0.106384 0.452676
0.0381599 -0.110241 0.65409
0.109346 -0.0109324 0.0788039
0.0298888 -0.116558 0.667691
0.185478 -0.10927 0.479025
0.0116517 -0.115936 0.845432
-0.00863683 -0.0116542 0.37599
-0.29771 -0.100791 0.469647
-0.0551142 -0.0837471 0.715631
-0.0879786 -0.118176 0.519929
-0.127156 -0.01237 0.0790022
-0.0467443 -0.0342886 0.607698
0.0571769 -0.0773249 0.549643
0.0229812 -0.0192387 0.786268
0.0325577 -0.0206217 0.558282
-0.0235588 -0.0160379 0.701429
0.048901 -0.0971251 0.769375
0.0486638 -0.0774534 0.820134
0.0566369 -0.0886594 0.499143
-0.00568449 -0.0284676 0.761931
0.000825207 0.0942325 0.0284127
0.131803 -0.100597 0.565374
-0.0425697 -0.0304005 0.314479
0.281323 -0.0995443 0.449466
-0.0761992 -0.11197 0.610666
0.0397703 -0.0449229 0.822653
0.0895346 -0.119617 0.541822
-0.00773586 -0.0349038 0.843267
0.246482 -0.105003 0.467817
-0.0145328 -0.0487202 0.864355
-0.141585 -0.106502 0.459324
0.0177788 -0.0245936 0.128729
0.377525 -0.0880104 0.488597
-0.0110088 -0.12379 0.387331
-0.251479 -0.100146 0.542972
-0.0243013 -0.0164161 0.401134
0.182134 -0.108584 0.468305
-0.190352 -0.100057 0.480949
-0.0363322 -0.0237539 0.426159
0.456582 -0.0895602 0.475499
-0.0323249 -0.0205042 0.519198
-0.00043667 0.0948991 0.0230389
-0.0548563 -0.0504451 0.541098
-0.0846868 -0.10512 0.486325
-0.0541016 -0.0487282 0.639798
0.330512 -0.100884 0.506088
0.00653073 -0.0113202 0.618911
0.00185258 -0.0105792 0.310754
-0.00159979 0.088897 0.041529
0.0508907 -0.113908 0.543061
0.0523399 -0.0452654 0.75685
-0.0327418 -0.126959 0.574247
0.026633 -0.120668 0.457048
-0.00541177 -0.0111434 0.662962
0.00166653 -0.0442812 0.794721
-0.0561454 -0.0585829 0.476776
-0.433217 -0.0892101 0.498618
0.00251341 -0.0106839 0.305388
0.0227468 -0.113078 0.295945
-0.00809908 -0.128985 0.539417
0.134719 -0.105187 0.467623
-0.0522468 -0.105651 0.494006
0.0177041 -0.115637 0.833287
-0.119282 -0.013145 0.0824142
0.365827 -0.0954342 0.451125
0.00692528 -0.122495 0.31494
-0.0187062 -0.128448 0.610377
0.00115788 -0.0104692 0.36473
0.0374526 -0.0248722 0.640544
-0.0576011 -0.0680473 0.33236
0.0499655 -0.0406053 0.362085
0.296312 -0.100215 0.53109
0.337252 -0.0985618 0.519188
0.0408871 -0.0898309 0.262521
0.0324807 -0.0212552 0.295646
0.0363285 -0.0187363 0.0885281
0.0178916 -0.122671 0.396343
0.118715 -0.115963 0.570638
0.205263 -0.105898 0.448348
-0.263182 -0.0934749 0.509327
-0.0059786 -0.124587 0.656885
-0.0567999 -0.0627153 0.539476
0.0411445 -0.0162419 0.0954433
0.0359395 -0.0352234 0.810871
-0.00119956 0.110985 0.0210835
-0.029455 -0.0963528 0.862614
-0.0273792 -0.0893925 0.219551
0.0567175 -0.062178 0.756844
-0.0386712 -0.0260931 0.614389
-0.0383185 -0.0784796 0.224054
0.278377 -0.102567 0.473059
-0.0259454 -0.0172538 0.338163
0.00339641 -0.0108238 0.576069
0.433968 -0.0897744 0.457514
-0.142156 -0.11278 0.495163
0.0811929 -0.107851 0.603213
0.438464 -0.0839449 0.47476
0.0337409 -0.0378564 0.184992
-0.0484647 -0.0387546 0.315289
-0.0503444 -0.0575535 0.267985
-0.0515346 -0.122243 0.545159
0.031209 -0.115886 0.661707
0.0420139 -0.0294335 0.327414
-0.0401665 -0.0275884 0.51966
-0.053898 -0.0483286 0.452382
-0.00275378 0.0445839 0.118884
-0.0396942 -0.108704 0.436152
-0.0735608 -0.117068 0.498455
-0.0463278 -0.03375 0.644723
-0.0164426 -0.0128906 0.69135
-0.0544483 -0.0494087 0.593488
-0.0544726 -0.0863638 0.767323
0.372148 -0.0973355 0.505519
-0.0335674 -0.050288 0.18388
-0.0568416 -0.072842 0.705692
0.00995806 -0.0118631 0.741906
-0.404948 -0.0858419 0.480749
0.0161192 -0.012839 0.312263
0.0393405 -0.116456 0.629728
0.00986094 -0.0118477 0.581279
-0.00349179 -0.0108393 0.480328
-0.0578553 -0.0170535 0.0875185
-0.0898005 -0.115085 0.487004
-0.404295 -0.0858296 0.482236
0.0556842 -0.083755 0.454066
0.00375372 -0.00629373 0.153582
-0.00647497 -0.0113118 0.619667
-0.0799487 -0.0147649 0.0764119
-0.108181 -0.115077 0.501121
-0.00336504 0.0417178 0.110315
-0.0497593 -0.0956145 0.680304
-0.471364 -0.0882543 0.480878
0.00961466 -0.0118087 0.630097
-0.106644 -0.118293 0.546485
0.148422 -0.10358 0.5694
0.383265 -0.0960079 0.477428
-0.049467 -0.0961884 0.407757
-0.0175988 -0.0442812 0.794336
0.261396 -0.10626 0.497204
0.261828 -0.106633 0.504039
-0.0568843 -0.0834184 0.566801
0.0558007 -0.0794305 0.732303
-0.270341 -0.0969106 0.469
0.325955 -0.0989925 0.522484
-0.359393 -0.0908032 0.508024
-0.0506499 -0.114215 0.498439
0.341953 -0.0991759 0.480587
-0.0216792 -0.0204667 0.170455
-0.368203 -0.0889757 0.482018
0.0948424 -0.0985879 0.52917
0.0166185 -0.0208191 0.0931822
-0.026046 -0.0237889 0.801547
-0.234211 -0.109122 0.510935
0.0222935 -0.0410577 0.153357
0.00671793 -0.0113499 0.372378
0.0301001 -0.116451 0.732951
0.0806216 -0.0985194 0.54294
-0.0228375 -0.0475656 0.855106
-0.0119859 -0.0121847 0.27626
0.0561718 -0.0587326 0.537273
-0.0210932 -0.0162817 0.215671
0.0207722 -0.127718 0.613071
0.00920513 -0.0442812 0.853779
0.0532559 -0.0921712 0.450292
-0.0481404 -0.0508628 0.255748
0.0466337 -0.0799138 0.266379
0.055046 -0.101757 0.53196
-0.0266194 -0.0175972 0.463574
-0.317996 -0.0988321 0.525719
0.0259279 -0.125889 0.477671
-0.0260705 -0.118503 0.342464
-0.0149417 -0.0284676 0.766673
0.00521966 -0.129033 0.543035
0.25515 -0.10639 0.533853
-0.016214 -0.0128544 0.518113
0.153085 -0.0998194 0.553408
-0.00215893 0.0585997 0.108476
0.000609486 0.00562722 0.160736
-0.0067819 -0.12446 0.390895
0.0572916 -0.0700179 0.699697
-0.0314461 -0.106713 0.288874
0.210996 -0.0959175 0.526075
-0.486716 -0.0813815 0.475524
0.0756448 -0.017275 0.0997395
0.400668 -0.0943306 0.478733
0.113293 -0.0112746 0.074056
0.0554423 -0.081693 0.721246
-0.0204929 -0.0442812 0.78937
-0.0787067 -0.119642 0.586251
-0.0350797 -0.113319 0.672766
0.241615 -0.0981055 0.538792
0.0266727 -0.0176232 0.523318
-0.203781 -0.0956712 0.517063
0.053264 -0.0470791 0.619003
0.0489473 -0.117536 0.488429
0.0907555 -0.108399 0.601284
0.0722485 -0.104247 0.597004
0.000452521 -0.0103575 0.660055
0.0435687 -0.0880916 0.272507
0.0532324 -0.0888032 0.660018
0.0865154 -0.110885 0.454831
0.400951 -0.0871205 0.496317
-0.010579 -0.0284676 0.762799
0.215529 -0.0964587 0.530745
-0.000587082 -0.0442812 0.821361
-0.111979 -0.116862 0.571362
0.23837 -0.10792 0.496101
-0.0395182 -0.110905 0.448508
-0.0553459 -0.0822845 0.639574
0.03924 -0.110202 0.644088
0.0147322 -0.128876 0.593431
0.199247 -0.106444 0.451603
0.00324353 0.0402419 0.116163
0.0224918 -0.015493 0.755545
0.03918 -0.0265996 0.702439
-0.0176279 -0.0131062 0.316049
0.0569705 -0.0637752 0.407891
-0.00951907 -0.0127366 0.773534
0.00715507 -0.0117554 0.13666
0.0694288 -0.0986395 0.5478
-0.0440599 -0.104339 0.381447
0.00233712 0.0948275 0.0597624
0.0203147 -0.0277059 0.140598
0.0147616 -0.127307 0.474309
-0.0550626 -0.051747 0.665049
-0.219063 -0.104486 0.447836
-0.327674 -0.0981737 0.4606
0.342848 -0.0901052 0.482445
-0.0400997 -0.0275217 0.465094
-0.00312489 -0.0349645 0.844969
0.0538128 -0.053598 0.780701
0.155947 -0.108202 0.447926
0.0506903 -0.0132871 0.132373
-0.0178329 -0.0138266 0.269705
-0.122776 -0.111741 0.475048
-0.0765234 -0.0159917 0.134074
-0.00493321 -0.124753 0.424925
0.0253424 -0.128108 0.565915
0.0752422 -0.120796 0.577944
-0.0550773 -0.0839802 0.677057
-0.429983 -0.0859597 0.494271
0.00640559 -0.0113004 0.591305
-0.0287767 -0.117124 0.434373
-0.259278 -0.0938278 0.500764
-0.0507982 -0.114024 0.544571
0.206398 -0.11102 0.527941
-0.0142669 -0.116288 0.295026
0.0809669 -0.118007 0.596089
0.0432103 -0.123769 0.564819
0.0421548 -0.0295744 0.375705
0.043549 -0.103666 0.601373
0.00476161 -0.124813 0.646607
-0.0260478 -0.017306 0.442191
-0.0500667 -0.0950111 0.37427
-0.394757 -0.0950762 0.480843
0.105012 -0.113428 0.480346
0.252131 -0.103632 0.455064
0.0233957 -0.0159535 0.705474
0.104235 -0.0977195 0.538741
0.0151482 -0.123135 0.347651
0.0237606 -0.119681 0.693509
0.0482647 -0.0667167 0.254082
-0.073146 -0.0160936 0.0866534
0.128943 -0.11324 0.576823
0.212299 -0.100729 0.550401
-0.0396376 -0.108761 0.67795
0.0228804 -0.103152 0.255808
0.0095479 -0.124846 0.64173
0.421114 -0.0907983 0.458309
-0.0473208 -0.100401 0.332031
-0.0426776 -0.0488205 0.213557
-0.481445 -0.087369 0.47122
-0.137955 -0.107514 0.582724
0.0640533 -0.103489 0.595368
0.0910906 -0.0100461 0.11027
0.189062 -0.1081 0.558028
0.00894381 -0.127108 0.627352
0.17032 -0.101482 0.556655
0.00349296 -0.129061 0.518843
-0.0471777 -0.0440721 0.79649
-0.0361383 -0.0402825 0.190873
-0.0170056 -0.128838 0.514603
-0.0159157 -0.0520846 0.156351
-0.000611358 0.0830129 0.0304723
0.00245574 0.0813308 0.081415
-0.0570203 -0.0641062 0.500883
-0.0428817 -0.0574974 0.213654
-0.390766 -0.0894582 0.505146
-0.0290288 -0.0442812 0.794726
0.0543751 -0.109977 0.617189
0.0944837 -0.101259 0.505973
0.0556559 -0.0554757 0.514011
-0.00963789 -0.0148906 0.101057
0.0505347 -0.0940979 0.344177
0.141596 -0.113505 0.502872
0.0170633 -0.0284676 0.82669
0.0556561 -0.020321 0.120579
-0.00333648 -0.0108147 0.645431
0.0565007 -0.0899494 0.584453
-0.0023068 0.0786184 0.0870383
0.029739 -0.0723645 0.871424
0.14841 -0.109075 0.574223
-0.244853 -0.104395 0.458422
0.0556192 -0.0611894 0.313773
0.251083 -0.0962773 0.483912
0.0181823 -0.0359904 0.133131
-0.0388993 -0.0263212 0.581519
-0.00208636 -0.128104 0.617368
-0.0569821 -0.0638655 0.50555
-0.0256594 -0.113267 0.824644
0.462532 -0.0833656 0.484615
0.00574684 -0.124624 0.655558
0.00223248 0.0894246 0.0532013
0.0693031 -0.0130536 0.0937738
0.0404125 -0.0292221 0.294948
-0.394597 -0.0882775 0.467184
0.0569893 -0.0812626 0.543053
-0.0262701 -0.118401 0.344507
0.0325061 -0.126996 0.573942
-0.0682121 -0.0161972 0.0845939
-0.0545892 -0.0534464 0.31564
0.0593592 -0.0990431 0.559249
-0.0320929 -0.0257833 0.203461
-0.339757 -0.0901855 0.503584
0.0570914 -0.0791196 0.567977
-0.211912 -0.110223 0.510132
0.0516375 -0.0438868 0.677611
0.00220773 -0.0106355 0.756982
-0.0493479 -0.0748381 0.272507
-0.216936 -0.107743 0.482787
-0.0508133 -0.10096 0.62711
0.212091 -0.0955037 0.518067
0.00640679 -0.0113006 0.595313
-0.0846706 -0.118209 0.517671
-0.101962 -0.116813 0.582598
-0.0548941 -0.0851368 0.378649
-0.00709003 -0.12126 0.310168
0.0536151 -0.11041 0.570758
0.0534552 -0.0883659 0.738857
0.0560326 -0.0578542 0.682616
0.00279862 -0.0281324 0.830386
0.233058 -0.0969098 0.486472
0.0530305 -0.0466209 0.49882
-0.484913 -0.0857222 0.454442
0.000957741 -0.0104375 0.12296
-0.208935 -0.10678 0.467323
0.0405454 -0.0882575 0.842314
-0.0321924 -0.10887 0.29844
0.0450288 -0.0324484 0.654371
0.366053 -0.0944672 0.448435
0.0555668 -0.0809071 0.426397
-0.11597 -0.104894 0.474768
-0.110866 -0.0992502 0.513149
-0.00305548 0.0669063 0.0805875
-0.223977 -0.103307 0.4526
0.162078 -0.107717 0.449237
0.234339 -0.0993831 0.470805
0.12111 -0.0143223 0.10418
-0.144269 -0.113921 0.562936
0.114659 -0.11393 0.493572
0.000986054 0.105511 0.0223138
-0.0941975 -0.111518 0.448686
0.0490049 -0.0387201 0.326935
0.0102404 -0.0589455 0.884616
-0.0182753 -0.128817 0.492551
0.00978941 -0.0670169 0.171167
-0.03114 -0.0199004 0.360199
0.252941 -0.107202 0.499384
0.0539372 -0.0533637 0.309623
0.140734 -0.109492 0.449366
0.0337715 -0.0244153 0.782491
0.0464041 -0.0338237 0.651826
-0.284288 -0.0919778 0.498574
-0.0297846 -0.11661 0.688428
-0.255614 -0.107455 0.521251
-0.0414067 -0.125613 0.487222
-0.330981 -0.0900855 0.500637
-0.0157112 -0.123046 0.367095
-0.00377753 -0.0455254 0.126227
0.336272 -0.0899355 0.500131
0.0558634 -0.0803972 0.630267
0.0220063 -0.0152456 0.734539
0.171417 -0.0972988 0.526136
0.04815 -0.0399919 0.302797
0.0505956 -0.0418421 0.523207
-0.048362 -0.0374636 0.645175
-0.0684519 -0.0986874 0.552074
-0.0220265 -0.0152571 0.568698
0.00144868 0.0972345 0.0350846
-0.0541321 -0.114343 0.449397
-0.098511 -0.00949585 0.105134
-0.0162752 -0.122764 0.772547
0.0503724 -0.0414039 0.593515
0.0328699 -0.0207808 0.563896
-0.0294742 -0.127466 0.492012
0.00194982 -0.0105946 0.644211
0.00292641 0.0435133 0.117511
-0.00397605 -0.0284676 0.825025
-0.00850831 -0.0125479 0.132073
0.317178 -0.0916996 0.51346
0.327609 -0.0981952 0.460837
-0.27422 -0.0928846 0.512016
0.0253328 -0.0169405 0.415772
-0.0184444 -0.12854 0.609383
0.000715945 0.0917558 0.0280435
-0.0559534 -0.0784492 0.400299
-0.00272594 0.0317373 0.0883527
-0.0161851 -0.0442812 0.825402
0.363101 -0.0953647 0.448207
-0.232469 -0.107712 0.490414
-0.0571122 -0.0203542 0.128745
0.00659052 -0.12901 0.58518
0.489244 -0.0820788 0.480795
-0.0305329 -0.0201813 0.279355
-0.0423437 -0.0297658 0.661136
-0.184157 -0.0967898 0.525704
-0.152582 -0.100787 0.489205
-0.379252 -0.0885351 0.497397
-0.392713 -0.0891095 0.463209
-0.279333 -0.104984 0.506841
-0.399916 -0.0946754 0.494652
-0.226609 -0.102927 0.553031
-0.0391648 -0.0280793 0.292907
-0.102507 -0.0990081 0.560385
-0.212633 -0.108608 0.489955
0.00760347 -0.0114901 0.474071
0.0939085 -0.118272 0.525906
-0.0437294 -0.0382603 0.252564
0.0105745 -0.0903236 0.199615
-0.023411 -0.0159625 0.657286
0.328403 -0.100699 0.490946
-0.106091 -0.0982734 0.525117
-0.230704 -0.0957809 0.525471
0.121436 -0.101064 0.570883
-0.0565108 -0.078228 0.619034
0.305773 -0.0951598 0.463243
-0.00568831 -0.0347981 0.10255
-0.0495686 -0.123128 0.58004
-0.0360148 -0.0931921 0.25621
0.0463553 -0.0337749 0.386376
-0.205258 -0.101365 0.46782
0.157214 -0.106916 0.573404
-0.049346 -0.122922 0.585347
0.0551146 -0.0837615 0.373456
-0.0223028 -0.0156761 0.302355
-0.0426456 -0.111712 0.463993
-0.0288002 -0.105432 0.278417
-0.0297561 -0.0191954 0.475513
-0.102625 -0.11846 0.565263
-0.0350183 -0.02244 0.679433
-0.0567938 -0.0853199 0.506424
-0.132543 -0.0127314 0.0852713
0.0552972 -0.0532111 0.710391
0.0704899 -0.0188914 0.114799
-0.0411137 -0.107285 0.430689
0.0474949 -0.0488694 0.252197
0.0125893 -0.124509 0.455133
0.249499 -0.108011 0.524605
-0.0913041 -0.10734 0.59868
-0.0449342 -0.0991786 0.308489
-0.0548473 -0.0503878 0.719558
-0.043499 -0.104899 0.712931
0.327916 -0.0976562 0.453131
-0.299159 -0.0946992 0.468272
-0.207531 -0.0967747 0.496305
-0.00923436 -0.0442812 0.840394
0.416592 -0.0924761 0.473291
0.044092 -0.104309 0.691139
-0.101892 -0.0979633 0.535767
0.210307 -0.110625 0.516421
-0.109493 -0.110064 0.59444
0.488657 -0.0823333 0.458112
-0.0545625 -0.105664 0.508689
0.0301161 -0.0995466 0.856897
-0.402908 -0.0944893 0.48879
-0.000253755 -0.112072 0.267875
-0.0271491 -0.0205667 0.207719
-0.0179931 -0.0132021 0.511689
0.0722495 -0.1003 0.523116
0.0118534 -0.0121633 0.397708
0.415747 -0.0920444 0.467695
-0.141619 -0.11508 0.523501
-0.0881896 -0.107693 0.470789
-0.0552805 -0.0531226 0.341672
-0.0482815 -0.0660765 0.820676
-0.175936 -0.110033 0.559233
-0.0355525 -0.0622339 0.85251
0.0914074 -0.114227 0.478248
0.209914 -0.105612 0.447603
0.0552544 -0.0828788 0.679625
0.0819785 -0.113986 0.466238
0.0394436 -0.0289763 0.280345
-0.0464234 -0.0338456 0.422446
-0.00339728 0.027179 0.126331
-0.197548 -0.110607 0.502747
-0.0541159 -0.0487564 0.540231
0.298669 -0.0939843 0.472573
-0.0110007 -0.0120287 0.556973
-0.0250506 -0.0167979 0.567345
0.305866 -0.102811 0.506594
-0.0564947 -0.0607885 0.616345
0.0961918 -0.0989616 0.560418
-0.446706 -0.0855275 0.492987
-0.0140926 -0.0177283 0.796845
0.0342009 -0.018739 0.0868223
0.0157828 -0.128858 0.601105
0.0548608 -0.050456 0.494604
0.269945 -0.0981303 0.462434
0.484777 -0.0812681 0.471277
0.0558793 -0.056886 0.479295
-0.137597 -0.0978066 0.515128
-0.315464 -0.0918499 0.514309
0.0561806 -0.0925478 0.586141
-0.42291 -0.0875666 0.456491
-0.054993 -0.10217 0.591056
0.292926 -0.0918746 0.490742
-0.0444029 -0.103996 0.394545
-0.0715044 -0.119287 0.595697
0.0296496 -0.11668 0.403111
-0.0409996 -0.107399 0.404383
-0.0161711 -0.0271943 0.822937
-0.0288564 -0.0189345 0.30823
-0.0536279 -0.110391 0.52216
-0.0500908 -0.0408567 0.484488
-0.00152174 0.100385 0.0338935
0.195048 -0.0960765 0.514549
0.469407 -0.086551 0.449806
0.109345 -0.0992807 0.5137
0.0540851 -0.109556 0.492671
0.0519625 -0.0445248 0.724161
0.0299985 -0.0260676 0.802908
0.0437523 -0.0311719 0.468162
0.388912 -0.0933887 0.453447
-0.0163898 -0.0128823 0.374732
-0.0209586 -0.121107 0.36561
0.0506346 -0.101114 0.627891
-0.00344642 -0.0108321 0.659608
-0.0628496 -0.118283 0.505287
0.178764 -0.111889 0.503318
0.0441343 -0.0773235 0.835885
0.0563344 -0.0867225 0.614396
-0.0743592 -0.0168932 0.0955047
-0.236563 -0.102553 0.453241
0.00331022 0.0505501 0.0958198
-0.209894 -0.105794 0.451744
0.0125565 -0.128912 0.577548
0.136407 -0.105805 0.463995
-0.392531 -0.0917897 0.44882
-0.00401496 -0.120665 0.305897
0.00292925 0.0437633 0.0854439
-0.0558697 -0.095054 0.591743
-0.0271108 -0.0146934 0.136229
0.0237019 -0.0303193 0.157873
-0.0133467 -0.128899 0.588136
-0.115524 -0.00928876 0.0854476
-0.012478 -0.0929547 0.206531
-0.175707 -0.113195 0.539227
0.0321747 -0.0204266 0.739347
0.491196 -0.0846408 0.452713
0.0556368 -0.0768432 0.773911
0.0386226 -0.0260422 0.517585
-0.425444 -0.0921485 0.478284
0.248628 -0.106961 0.536099
0.0387778 -0.0837445 0.85049
-0.0484413 -0.0948521 0.31428
-0.0249969 -0.0167706 0.642457
-0.110518 -0.0106603 0.0796909
-0.372598 -0.0888535 0.479222
-0.369759 -0.0892498 0.498621
0.0795912 -0.0995512 0.567007
-0.036422 -0.111977 0.701317
0.350243 -0.0948717 0.450822
-0.428401 -0.0875449 0.498923
0.0484971 -0.047196 0.798185
-0.0560296 -0.0779681 0.713238
0.0313225 -0.039426 0.779948
0.0445377 -0.122065 0.544198
-0.0261313 -0.0173485 0.461391
-0.307994 -0.0933644 0.472864
0.0513594 -0.0924792 0.687127
0.0302996 -0.0147745 0.116917
-0.187337 -0.110999 0.499519
0.00130147 0.0226925 0.142934
-0.266532 -0.106095 0.502599
-0.0565739 -0.089338 0.58555
-0.414832 -0.0864046 0.467143
-0.220437 -0.107917 0.486452
-0.046942 -0.118975 0.531735
0.308974 -0.100693 0.525521
0.0870242 -0.0113207 0.0925365
-0.123937 -0.111407 0.471591
-0.0556538 -0.0968066 0.594085
0.0538792 -0.0875338 0.704009
0.311803 -0.0922036 0.515986
-0.465205 -0.0825247 0.478538
-0.00120441 -0.010477 0.700942
-0.235767 -0.104548 0.452465
-0.260619 -0.0949993 0.524924
-0.0354338 -0.126541 0.582119
0.102456 -0.00976602 0.0923945
-0.0320809 -0.11544 0.411071
-0.0536549 -0.0478515 0.734553
0.00705411 -0.0114031 0.31354
0.0246891 -0.0486709 0.854095
-0.000394478 0.0252686 0.143408
0.0187741 -0.106011 0.259078
0.0334576 -0.11474 0.40145
-0.0298958 -0.112525 0.816836
-0.134174 -0.112281 0.486854
0.0338401 -0.114545 0.673476
-0.027897 -0.117572 0.406344
0.0415317 -0.0289513 0.330787
-0.0544082 -0.04933 0.634436
0.0461085 -0.102293 0.375876
-0.11976 -0.115293 0.574405
-0.00916801 -0.128968 0.506397
-0.173842 -0.112317 0.550935
0.0576784 -0.122703 0.570382
0.237393 -0.103659 0.447386
-0.0122731 -0.0984524 0.895587
-0.0458288 -0.033251 0.577191
-0.0787669 -0.114675 0.473215
-0.0129776 -0.118718 0.826846
0.0916958 -0.117946 0.585445
0.0325108 -0.0284676 0.764919
-0.433535 -0.0912511 0.473853
-0.293442 -0.101458 0.474174
-0.00375784 0.0033588 0.135319
0.045908 -0.123639 0.573903
-0.0419293 -0.12541 0.53058
0.0886871 -0.108687 0.465287
0.232986 -0.10621 0.474203
-0.00289476 -0.12563 0.450449
-0.010684 -0.0240282 0.818871
0.0403693 -0.0277889 0.526424
0.00711293 -0.0114124 0.741154
0.0100204 -0.127076 0.472259
-0.262956 -0.10494 0.483527
-0.0331081 -0.0209032 0.712746
0.199945 -0.103567 0.457989
0.24654 -0.108082 0.529754
0.031372 -0.0284676 0.803258
-0.0030704 0.0682688 0.0849781
0.055792 -0.0563353 0.754887
0.0522033 -0.0842161 0.306181
0.0539355 -0.0858475 0.776559
-0.419871 -0.0914317 0.464364
-0.0532727 -0.0991315 0.548005
0.0523968 -0.0649513 0.283774
-0.0379547 -0.110444 0.408739
0.0782737 -0.113396 0.451261
-0.102231 -0.118069 0.573097
-0.0498559 -0.0954249 0.434119
0.0575836 -0.0676455 0.748912
-0.0410957 -0.0285177 0.62727
0.00109294 0.070701 0.0421029
0.0566878 -0.0619903 0.46562
-0.00449069 -0.129045 0.501203
0.00126104 -0.0104855 0.758799
-0.12619 -0.112534 0.486742
0.0365343 -0.12637 0.493235
-0.168882 -0.0977853 0.533787
-0.423373 -0.0851546 0.472073
-0.0528596 -0.111378 0.597368
0.0437671 -0.0333794 0.289435
-0.113578 -0.116299 0.573751
0.0110699 -0.0120392 0.33509
0.336735 -0.0929862 0.464952
-0.000831235 -0.0645191 0.898254
0.121237 -0.112357 0.481094
0.280068 -0.0941228 0.480659
0.380413 -0.0965293 0.48013
-0.00547166 -0.124667 0.739044
0.0712731 -0.11435 0.608915
0.00270475 0.0636005 0.101242
0.0156565 -0.0127657 0.516342
0.0472945 -0.108192 0.628287
-0.332483 -0.0906469 0.506864
