0.168076 -0.0281585 0.600771
0.0615759 0.0296684 0.401786
-0.0621458 -0.0235897 0.46781
-0.278333 -0.0437587 0.532721
-0.0376204 -0.0239312 0.343144
-0.0330783 -0.0817841 0.379252
0.105805 -0.045401 0.589443
-0.0851562 -0.045401 0.599928
-0.0827912 -0.0216955 0.630189
-0.017216 0.0538003 0.698194
0.0173868 0.0740534 0.191412
0.033586 -0.080298 0.321093
-0.000940657 -0.0407879 0.108958
-0.159514 -0.0058379 0.0930385
0.185394 -0.0234184 0.0508312
-0.350487 -0.018772 0.426899
-0.273477 -0.0947093 0.511934
-0.253298 -0.0193551 0.502803
0.0429588 -0.0818501 0.398441
0.0177861 0.0394937 0.354607
0.286765 -0.0610333 0.563265
-0.141144 -0.0247947 0.0818864
-0.0744606 -0.0716921 0.531599
-0.0236705 -0.0633834 0.766838
0.23837 -0.0184994 0.468115
0.0645818 -0.0246155 0.127433
0.137222 -0.0166673 0.0588849
0.0532163 -0.0357887 0.339797
0.291851 -0.0741926 0.466755
0.394142 -0.0395526 0.461747
0.05678 0.0244149 0.76459
0.0452854 -0.00580064 0.232075
0.0780991 0.00883318 0.710706
0.00190437 0.0467938 0.103969
-0.0304732 0.0420175 0.375761
-0.103777 -0.045401 0.647601
-0.18009 -0.045401 0.503915
-0.0860409 -0.00567486 0.143036
-0.0335546 -0.0813896 0.716352
-0.202636 -0.00594055 0.0631572
0.0341274 -0.0140184 0.814982
-0.12975 -0.0151254 0.52412
-0.371017 -0.045401 0.40286
-0.0607437 0.0456405 0.466552
-0.0784297 0.00782382 0.696938
0.14361 -0.0300964 0.516976
0.0563534 -0.0617367 0.756034
-0.115733 -0.0226479 0.622405
0.218516 -0.0196618 0.10502
0.0655377 -0.0823742 0.556944
0.238712 -0.0176489 0.598253
-0.0513215 0.0611375 0.600398
-0.0726735 0.0574101 0.554839
0.050645 0.003152 0.309531
0.000948327 0.0314168 0.286986
0.210139 -0.023467 0.529481
-0.13577 -0.045401 0.577208
0.0785856 -0.025685 0.647206
-0.306974 -0.045401 0.512916
-0.0137194 0.0539088 0.475432
0.274421 -0.0382268 0.473943
-0.326052 -0.045401 0.484841
-0.1004 -0.00649898 0.069109
0.0683127 -0.0210016 0.464965
-0.00487363 0.0213461 0.182157
0.01833 -0.0691479 0.268958
-0.197368 -0.0261206 0.596111
0.355437 -0.0435876 0.49023
0.000149288 0.0287631 0.264848
0.0207224 -0.0817343 0.364784
-0.270497 -0.054238 0.573912
-0.0335589 -0.0062783 0.119502
0.0582765 0.0564939 0.661792
-0.163423 -0.0258111 0.12225
0.0825615 -0.00565382 0.154539
0.0785856 0.0247854 0.605736
0.351896 -0.0325405 0.40882
-0.0654631 0.056303 0.664316
0.0181408 -0.0823742 0.597051
-0.0285139 -0.0224466 0.845454
-0.0160109 0.0615678 0.594708
0.219431 -0.00563973 0.0873462
0.0705374 -0.0183672 0.483797
0.321426 -0.0161454 0.427565
-0.0371969 -0.0148608 0.783706
-0.0250752 0.0359814 0.325167
-0.0784606 0.0104475 0.644004
-0.287214 -0.0765528 0.469773
-0.0297115 -0.0294189 0.252892
-0.247533 -0.0868897 0.56576
-0.0783632 -0.036774 0.698948
0.0154726 0.0814714 0.135573
-0.0712154 -0.0326961 0.513912
-0.220811 -0.045401 0.483878
-0.0369613 -0.0822154 0.5046
0.0516426 -0.0821899 0.497189
-0.342136 -0.0149856 0.398693
0.00583711 0.0204388 0.850446
-0.389348 -0.045401 0.408529
-0.153272 -0.045401 0.544798
-0.0573508 -0.0240522 0.10966
0.378237 -0.045401 0.432936
0.0881377 -0.0359214 0.688979
0.271515 -0.045401 0.54677
0.121001 -0.0214309 0.577445
0.0407532 0.0100549 0.184435
-0.0562765 0.0110413 0.752636
0.205665 -0.045401 0.493873
0.29683 -0.0271093 0.497141
0.0382131 0.0502609 0.444856
-0.179166 -0.045401 0.58084
0.079945 -0.0170963 0.570297
-0.0815884 -0.0151839 0.552883
-0.264407 -0.0551803 0.613806
0.0426119 -0.0332561 0.84533
0.0536329 -0.0251579 0.185269
-0.0462348 -0.0744446 0.736516
0.147359 -0.045401 0.591543
0.0967377 -0.0230153 0.082175
0.253676 -0.0844788 0.58206
0.0415636 -0.0819587 0.43
-0.240101 -0.0208287 0.527823
0.242379 -0.0893508 0.47873
0.0353593 -0.0820528 0.702646
0.0493416 -0.0295934 0.781137
-0.157583 -0.0239307 0.613388
0.0572785 -0.00472517 0.373897
0.295886 -0.045401 0.445114
-0.0779334 -0.0496834 0.711936
0.0796166 -0.045401 0.620099
0.167839 -0.01938 0.526863
0.263395 -0.00591826 0.0502942
-0.0542792 0.0161821 0.427128
0.065075 0.00741586 0.438723
0.0219897 0.0600622 0.614614
0.0592346 -0.0811903 0.718025
-0.00738015 -0.014503 0.0925189
0.189439 -0.045401 0.584297
-0.047435 0.0449294 0.745053
-0.255491 -0.0376004 0.447589
-0.0510801 -0.0599332 0.411561
-0.234135 -0.00543382 0.0861586
-0.0105475 0.0261701 0.242931
0.12219 -0.045401 0.562957
-0.311683 -0.0172345 0.443379
-0.00466381 -0.0773029 0.307089
0.0394012 0.0401779 0.360352
0.116747 -0.0363342 0.667937
-0.0120536 -0.0624538 0.237658
0.0069794 -0.0513132 0.182247
-0.160628 -0.0217294 0.0350785
0.0705876 -0.0258487 0.148711
-0.269171 -0.0609326 0.44601
-0.233151 -0.0534822 0.55241
-0.0195872 -0.0823742 0.589239
-0.026768 -0.0213318 0.207045
-0.132866 -0.00657946 0.137819
0.241067 -0.0882495 0.505111
0.261369 -0.0982083 0.515873
-0.28883 -0.0726161 0.49233
0.00701324 -0.0361334 0.828093
-0.0689419 0.0521195 0.518207
0.0641986 0.0632882 0.566806
0.0353293 -0.0823742 0.634004
0.00451478 0.0611726 0.536316
-0.0240436 0.0163298 0.805126
0.274877 -0.0166849 0.451145
-0.0578307 -0.0823742 0.624429
-0.0325432 -0.0177908 0.296997
-0.0784606 0.0293297 0.687662
-0.345919 -0.0255393 0.474504
-0.0617706 -0.0709388 0.465902
0.278135 -0.0550887 0.595323
-0.388159 -0.0207191 0.409672
-0.0343067 -0.0558776 0.324466
-0.234698 -0.0877297 0.499178
0.0461958 -0.00644734 0.107756
-0.0208657 0.0565688 0.660802
0.0653062 -0.0425118 0.438812
-0.0784606 -0.045433 0.636807
0.228992 -0.0204857 0.0200059
0.0653353 -0.0290808 0.745559
-0.240468 -0.0421139 0.516882
0.00644211 0.0337189 0.783794
0.00292577 0.0441214 0.393395
0.0126151 0.0106642 0.837929
0.252765 -0.0529581 0.573192
-0.230114 -0.0245946 0.0351835
0.134117 -0.0274033 0.619219
0.0170652 0.0391385 0.765065
-0.245522 -0.020317 0.453398
0.000477046 0.0564678 0.142546
0.251471 -0.0244648 0.0379095
0.0785856 -0.0662102 0.643831
-0.00546632 -0.0822875 0.525548
0.0636159 0.058617 0.633722
0.0278408 -0.0454914 0.141709
0.186255 -0.0245722 0.0722449
0.0478361 -0.0823742 0.586468
0.235629 -0.045401 0.532378
-0.286262 -0.0538385 0.54744
-0.166214 -0.0178294 0.535266
0.131112 -0.0191446 0.550336
0.378864 -0.0220127 0.428768
-0.281073 -0.0187274 0.479099
0.00143231 0.103755 0.169172
0.241101 -0.0284705 0.549803
0.10459 -0.00590148 0.12327
0.158306 -0.00595073 0.0924161
0.111398 -0.0251993 0.118079
-0.108406 -0.0249161 0.100488
-0.0784606 -0.00708658 0.6494
-0.0429157 -0.0291409 0.370061
0.217456 -0.0306564 0.585993
0.266466 -0.0937295 0.462623
-0.0414506 -0.0823742 0.663571
0.0187741 0.0539201 0.695822
0.142781 -0.00548533 0.138257
0.0785856 0.00143882 0.671423
-0.295412 -0.045401 0.476711
-0.0784606 -0.0463558 0.56603
0.00311668 0.108996 0.118691
-0.114956 -0.0167006 0.551611
-0.0423571 -0.0262422 0.183933
0.248788 -0.0220678 0.49662
0.0785856 -0.0574631 0.576921
-0.232361 -0.073115 0.463177
0.174418 -0.0385859 0.62552
-0.0665508 -0.00794889 0.49026
-0.127628 -0.0280763 0.657005
0.294602 -0.0621811 0.530473
-0.0451136 -0.0476738 0.381233
-0.0783584 0.0179079 0.556083
0.317065 -0.045401 0.475567
-0.0196659 0.0628401 0.554184
0.00159892 -0.0818127 0.387576
-0.0250589 -0.0820959 0.469871
-0.213376 -0.045401 0.587391
0.0385025 0.0222073 0.248271
0.0623366 -0.0585099 0.415747
0.00964123 -0.0669681 0.757011
-0.195786 -0.0208883 0.55468
0.140772 -0.025971 0.118114
-0.0451932 0.0267853 0.351518
-0.189434 -0.00707327 0.108998
-5.78745e-05 0.0494837 0.212175
-0.198898 -0.0249155 0.0561331
-0.37312 -0.0149074 0.379703
-0.23756 -0.00581624 0.0549431
-0.0105244 0.0398182 0.762716
0.0516897 -0.0492388 0.327296
-0.0462835 -0.082343 0.541676
0.0766155 -0.0246116 0.53365
0.283895 -0.0910841 0.545687
-0.267042 -0.0798179 0.591967
0.18706 -0.0103141 0.120674
0.0773026 0.0492368 0.54223
0.0163041 0.0487733 0.120151
0.22562 -0.0257916 0.0727857
-0.262987 -0.0449938 0.564823
-0.129672 -0.0452365 0.520901
-0.0905193 -0.0246764 0.104928
0.234561 -0.0575132 0.471936
-0.0784606 -0.015619 0.594668
-0.249678 -0.091518 0.590912
-0.254403 -0.0982083 0.540822
0.0785856 -0.0681707 0.685726
0.17128 -0.0322618 0.502607
0.109194 -0.045401 0.640991
-0.21403 -0.0267868 0.0831415
-0.12591 -0.0230405 0.0573318
-0.293589 -0.045401 0.426037
0.0375992 0.0608474 0.533591
0.324144 -0.0229504 0.461338
0.11631 -0.0250509 0.612053
-0.0774188 -0.0725675 0.614197
-0.0443324 0.0529285 0.716211
-0.373353 -0.045401 0.43636
0.0785856 0.00428103 0.629202
0.119162 -0.0354462 0.52967
0.179409 -0.045401 0.527991
0.161162 -0.0236765 0.0665452
-0.052135 0.0356763 0.401195
-0.00259905 0.0558458 0.491667
-0.0717836 -0.00681571 0.727383
0.179954 -0.00645149 0.0481241
-0.267656 -0.0378571 0.506284
-0.0839091 -0.0268539 0.150746
0.0171942 0.0631308 0.174108
-0.21125 -0.0229349 0.0141049
0.00978223 0.0516326 0.456353
0.0583604 -0.0572594 0.382715
0.0258651 0.0339043 0.307873
-0.350875 -0.045401 0.461819
-0.0927209 -0.022881 0.0704919
0.0349603 0.0451593 0.402095
-0.171745 -0.045401 0.619323
0.0503044 0.0281069 0.325208
-0.315812 -0.0154395 0.419469
-0.0147397 0.0131601 0.820277
-0.275568 -0.0247104 0.524919
0.048457 -0.0109648 0.278201
0.0307765 -0.0823742 0.653078
-0.0371855 0.00863868 0.317662
0.0700689 0.0265688 0.735029
-0.0119753 0.0398685 0.357786
-0.0793148 -0.045401 0.668848
-0.222266 -0.0167866 0.490114
-0.189537 -0.00639116 0.0347816
-0.232143 -0.0383864 0.602369
0.0428492 0.0551576 0.4859
0.260918 -0.045401 0.503431
0.0455864 0.00178802 0.789491
-0.0570194 -0.0431118 0.441752
-0.3405 -0.0225846 0.459599
0.0595469 -0.0781959 0.450933
-0.0327577 -0.0244443 0.129834
0.0468366 -0.0365884 0.252408
0.0572486 0.0334758 0.378716
0.0785856 0.033615 0.683687
0.102823 -0.026769 0.636752
0.223037 -0.045401 0.545392
-0.0595248 0.0102138 0.4547
-0.0119145 0.0495275 0.729163
0.367093 -0.045401 0.449465
0.0639376 0.037483 0.425201
0.0722883 0.0195971 0.498777
0.127438 -0.00627771 0.0833021
-0.00580821 -0.0477628 0.809657
-0.0217709 0.00927543 0.158698
-0.212894 -0.045401 0.5311
0.0539652 -0.0822968 0.528254
0.0730127 -0.0460907 0.502532
0.294502 -0.0616116 0.498388
-0.0441029 -0.0021861 0.376204
0.0367368 0.0324651 0.788127
-0.106513 -0.045401 0.577603
-0.193304 -0.0303414 0.483824
0.0740817 0.0334776 0.514582
0.0186039 0.030106 0.179957
0.0784209 -0.0190309 0.700982
-0.0266293 -0.0823742 0.684385
0.193476 -0.045401 0.555411
-0.0314263 -0.0497747 0.788029
-0.0224086 -0.0442259 0.187293
-0.170185 -0.00614993 0.0635554
0.0177837 0.018605 0.132705
0.069057 -0.00181683 0.73728
0.192724 -0.0270934 0.573492
-0.00467475 0.0589458 0.629374
0.135973 -0.0241767 0.0873804
-0.0729188 0.0178138 0.725535
-0.12667 -0.00607916 0.0907177
0.247017 -0.00560148 0.0770549
-0.0739258 -0.00512699 0.527772
-0.142184 -0.0271087 0.133072
0.0386507 -0.00123531 0.130322
-0.0114697 0.00956427 0.100311
0.00781831 0.0513647 0.722814
-0.367108 -0.0216676 0.432534
0.281352 -0.030114 0.534377
-0.21551 -0.045401 0.51258
0.0431088 -0.0675301 0.284852
-0.16982 -0.025354 0.0781875
0.325706 -0.0310182 0.509574
-0.131406 -0.045401 0.60393
-0.065865 0.0343299 0.485779
0.062424 0.00301371 0.416658
0.043874 -0.0376045 0.20607
-0.064088 -0.0526585 0.477682
-0.105907 -0.0306565 0.534748
0.0459127 0.0123138 0.260675
0.0169274 -0.0551807 0.203651
0.187887 -0.022412 0.536749
0.0585203 0.0546475 0.686204
-0.302777 -0.045401 0.449703
0.0408191 -0.0820997 0.470973
-0.022509 -0.0716463 0.744187
0.00270953 -0.0823742 0.564239
-0.171237 -0.045401 0.52268
0.0323616 -0.0120383 0.860061
-0.352399 -0.0314514 0.391123
0.266751 -0.0466969 0.451128
-0.385233 -0.045401 0.379774
-0.0415204 -0.022236 0.0927264
-0.0216409 -0.0793082 0.316465
0.245003 -0.0418643 0.595747
0.00125828 0.0858182 0.151938
0.0785856 0.00088423 0.58396
0.258421 -0.0976052 0.54925
0.01383 -0.0744159 0.293589
-0.124703 -0.045401 0.628239
-0.0784606 0.0059802 0.615539
0.28008 -0.094285 0.486517
-0.214053 -0.00594088 0.0964546
-0.111699 -0.0220936 0.148604
-0.0198012 -0.0381375 0.863659
0.0753564 -0.0172174 0.086269
0.0103595 -0.0816411 0.33769
-0.0752639 -0.0747224 0.56101
0.000386965 -0.0449351 0.137836
0.0783999 0.0507134 0.597242
0.262385 -0.100938 0.603682
-0.0495041 0.0100167 0.401388
0.274543 -0.0829288 0.591437
0.0671982 -0.00604133 0.130497
0.118827 -0.045401 0.617973
0.0512964 -0.0139149 0.322762
0.0522391 0.045337 0.743645
0.136113 -0.0272169 0.141072
-0.0565366 -0.0143108 0.439303
0.302203 -0.0184275 0.452831
0.244479 -0.00628587 0.0310235
-0.0618466 -0.00610656 0.119852
-0.0733201 -0.0151081 0.168158
0.0326355 0.0588265 0.630952
0.0318056 -0.0624196 0.76948
-0.252771 -0.045401 0.54019
-0.0784606 0.0333465 0.658585
-0.0185442 0.0463498 0.412074
0.022388 -0.0120089 0.0925189
-0.144625 -0.021162 0.58777
0.0300749 -0.0818084 0.386325
-0.0425035 -0.0823742 0.571924
-0.0784606 0.0491411 0.604095
0.012985 -0.0633041 0.241633
0.199101 -0.0112809 0.0314948
-0.0784606 0.0374253 0.627126
-0.188612 -0.045401 0.59949
-0.0571868 0.0633834 0.569488
0.163456 -0.045401 0.51423
-0.128295 -0.045401 0.558061
-0.00179495 -0.0587562 0.220369
-0.0784606 8.84682e-05 0.571637
-0.262193 -0.0446171 0.591741
0.349115 -0.0167441 0.421036
0.358771 -0.045401 0.470938
0.0152183 0.105364 0.153542
0.0673054 -0.0247803 0.860728
0.073502 -0.0678508 0.508507
-0.0596177 0.0373922 0.438834
-0.000800329 0.0248892 0.148991
-0.22832 -0.045401 0.46486
0.210099 -0.0268979 0.559044
0.00213868 0.10346 0.142733
-0.250157 -0.0971815 0.485415
0.233519 -0.0712598 0.530592
0.168329 -0.0269388 0.120384
0.0425162 0.0083506 0.212158
-0.031461 -0.0376281 0.28014
-0.0293207 -0.00234316 0.261181
0.238282 -0.0265542 0.091701
-0.0193287 0.0172995 0.205303
-0.0047048 -0.0813566 0.717034
0.270228 -0.0207376 0.479621
0.0895237 -0.0253032 0.167217
-0.393821 -0.0255625 0.43666
0.0264413 0.029355 0.269865
-0.273615 -0.0886447 0.557826
0.372348 -0.0164997 0.400735
0.0439643 -0.0572533 0.250986
0.222309 -0.0207233 0.504465
0.0572502 -0.0320643 0.372834
-0.0197444 -0.0818717 0.404718
-0.0369181 -0.0263367 0.164606
-0.211643 -0.0197852 0.532227
-0.0784606 -0.0677901 0.688525
-0.264259 -0.0648729 0.59583
-0.244243 -0.0396558 0.497448
-0.0202288 0.051265 0.453272
0.0332976 0.00706654 0.816828
-0.043723 -0.0823742 0.638868
0.338583 -0.0290873 0.483491
-0.271753 -0.0923378 0.465949
-0.244799 -0.0394533 0.477122
0.318559 -0.0425308 0.427231
-0.00510567 -0.0821721 0.492021
-0.153144 -0.00550675 0.121802
0.0107402 0.118994 0.102241
-0.00457787 -0.021372 0.833446
0.0542347 -0.0102009 0.348528
-0.0588574 -0.0809239 0.718755
0.198135 -0.0417156 0.6078
0.00153977 0.0692506 0.12128
-0.03143 0.0276777 0.300155
0.276331 -0.0695904 0.44601
-0.213419 -0.00626195 0.0328958
0.252882 -0.045401 0.485054
-0.0784606 -0.0651724 0.58553
-0.289832 -0.045401 0.502178
-0.0703956 -0.0638611 0.509745
0.0450386 -0.0271437 0.223794
0.159162 -0.00641091 0.0601064
0.12405 -0.0165311 0.52963
0.216053 -0.0239908 0.479358
0.0505419 -0.0626954 0.309513
-0.0491294 -0.0537563 0.764275
0.151196 -0.045401 0.618637
0.0737681 -0.0143868 0.508156
0.0372276 -0.0248228 0.110113
0.0216414 -0.0823742 0.621331
0.0242895 -0.0823742 0.683421
0.384398 -0.045401 0.411811
-0.0350702 -0.00847314 0.323407
-0.00262955 -0.0823742 0.690711
0.102176 -0.0206196 0.584292
0.0615141 -0.0823742 0.634912
-0.0283795 -0.0195205 0.232144
-0.0830338 -0.00601291 0.117254
0.0657773 -0.0199176 0.443989
-0.324731 -0.0255193 0.49118
-0.0394411 0.0565377 0.661214
-0.00653655 0.0348853 0.316083
0.0917281 -0.0250132 0.123158
0.0374169 -0.0385495 0.807665
-0.218668 -0.045401 0.556509
-0.0270997 0.0604258 0.609807
0.0785856 -0.0549082 0.55503
-0.045804 -0.0257716 0.149062
-0.250526 -0.031732 0.559524
0.0428792 0.047059 0.418025
0.238979 -0.0263084 0.532751
-0.284873 -0.0224202 0.502654
0.0446839 0.0624747 0.582718
-0.00125095 0.0411688 0.18769
0.0185211 -0.0818881 0.409488
0.283944 -0.0436423 0.499761
0.0185571 0.0415623 0.194554
0.247782 -0.0463907 0.556837
-0.0163227 -0.0676722 0.262058
-0.0286434 -0.0823742 0.624777
-0.0557411 -0.00573035 0.153565
0.271924 -0.0756426 0.609847
-0.0761246 -0.0518553 0.538866
-0.0678461 -0.0525668 0.733795
-0.0405633 -0.0823742 0.597565
-0.044483 -0.0757236 0.402033
0.26613 -0.0657665 0.573912
-0.0546101 -0.0609936 0.429505
0.194976 -0.0269174 0.106727
-0.0565044 0.0553029 0.487117
0.24672 -0.0259935 0.0655945
-0.0773259 0.0382172 0.545422
0.0403701 -0.0261947 0.15473
0.210548 -0.0234101 0.0395593
-0.287669 -0.0167653 0.451751
-0.239082 -0.0164945 0.476816
-0.0202504 0.00676353 0.124993
-0.213532 -0.0181747 0.511832
-0.148707 -0.0376609 0.509809
0.0764693 0.0443875 0.705381
0.0166372 0.0625573 0.152352
-0.0437073 0.00710109 0.773104
0.292945 -0.045401 0.470905
-0.218817 -0.0267869 0.583429
-0.0784606 -0.0597405 0.658726
0.0734513 -0.0124553 0.177212
0.0785856 -0.00116721 0.608498
-0.0993167 -0.045401 0.627261
0.000340754 0.082679 0.182529
-0.0292855 0.0547864 0.684368
0.0785856 0.0292019 0.630592
-0.167771 -0.045401 0.558097
-0.0912456 -0.0234359 0.646114
0.0504063 -0.0336239 0.307401
-0.13523 -0.0260994 0.109889
-0.102472 -0.045401 0.673288
0.032887 -0.0821997 0.500024
0.0695573 0.0107564 0.475699
0.0426038 -0.0816957 0.353554
0.0601412 -0.0444771 0.396511
-0.108323 -0.0249915 0.654798
0.347875 -0.045401 0.425643
0.0511254 -0.0731227 0.342042
-0.0784606 -0.0188866 0.691421
0.23456 -0.0602525 0.549275
-0.0124627 -0.0159538 0.854023
-0.24919 -0.0702775 0.57948
-0.23381 -0.0864488 0.545982
0.0668821 0.0369015 0.449005
-0.0476553 0.0216795 0.374669
-0.248262 -0.0713043 0.44601
-0.0342686 -0.037506 0.323872
-0.233004 -0.091932 0.601378
-0.0692169 0.0526369 0.691569
-0.00162236 -0.06136 0.772384
0.0508741 -0.077238 0.373193
-0.0252207 0.0321461 0.788813
-0.233095 -0.0432076 0.57335
-0.248623 -0.0966234 0.517332
-0.346352 -0.045401 0.421098
0.372745 -0.0389604 0.397994
0.0785856 -0.063744 0.606104
-0.0198676 -0.0065284 0.105682
-0.0694406 -0.0233497 0.0902905
0.0929101 -0.0295549 0.668016
-0.233685 -0.0226417 0.00161793
-0.04354 -0.0821422 0.483308
-0.133984 -0.045401 0.647921
-0.227227 -0.0664954 0.491741
-0.130283 -0.00636789 0.065363
0.00827898 0.0619165 0.590098
-0.0279106 -0.00251205 0.235638
-0.0334884 -0.00596954 0.14478
0.28787 -0.045401 0.524842
0.030999 0.0529133 0.716524
-0.270285 -0.0818067 0.447248
-0.191714 -0.0057363 0.0844617
-0.162433 -0.0261677 0.0973609
-0.227206 -0.0680676 0.545543
0.0338509 0.0149028 0.162918
0.0471842 -0.0823742 0.552393
-0.324133 -0.045401 0.456964
0.10818 -0.045401 0.552166
-0.244751 -0.047411 0.583655
-0.063055 0.0598215 0.617796
0.0785856 0.036333 0.58002
-0.17616 -0.0216734 0.493813
0.0541384 -0.00563408 0.170347
-0.0395444 -0.082234 0.698904
-0.023297 0.0630626 0.574945
0.0161522 0.0821021 0.159921
0.143865 -0.0238924 0.581836
0.0145292 0.0959405 0.120763
-0.00954472 -0.0820479 0.455921
0.0398345 0.0553733 0.676608
0.0740568 -0.0186469 0.726157
-0.394142 -0.0272645 0.392257
-0.0671416 0.0382168 0.734038
0.0785856 -0.0708312 0.663154
-0.054174 -0.028241 0.427288
0.23387 -0.0732545 0.493227
-0.0759519 0.015554 0.538246
0.0598003 0.00426101 0.395273
-0.0318672 0.00707622 0.792386
-0.0401621 -0.0375828 0.778878
0.0451361 0.0603701 0.610544
0.115895 -0.0231539 0.0764018
0.0587977 -0.023322 0.104888
0.00189039 0.0562737 0.664703
0.0194959 -0.0819755 0.434876
0.265956 -0.0131249 0.0295032
0.00851407 -0.0823742 0.641551
-0.106857 -0.00591467 0.113755
0.203184 -0.00556594 0.101498
0.0416 -0.0823742 0.679497
-0.00242247 0.0266718 0.212816
0.015237 0.0461862 0.410703
-0.181403 -0.0251892 0.602722
-0.0387575 -0.0727781 0.358759
-0.00610277 -0.0823742 0.607598
-0.0286614 -0.0456251 0.236535
0.220961 -0.0421043 0.477481
-0.285614 -0.0712375 0.597117
-0.30751 -0.045401 0.494788
-0.0700939 0.059629 0.587529
0.167228 -0.045401 0.579218
0.0917744 -0.045401 0.563429
-0.307975 -0.0190928 0.462704
0.074684 0.0487898 0.671804
0.0514337 0.0527915 0.466067
0.15555 -0.00567957 0.115985
0.184587 -0.0182413 0.513144
0.152334 -0.0201228 0.543164
-0.00233171 -0.0816828 0.349814
-0.0272005 -0.0822981 0.528613
0.254002 -0.0681391 0.595006
-0.279653 -0.045401 0.459789
0.202804 -0.00611404 0.0612765
0.00187154 0.0518187 0.852013
0.328738 -0.045401 0.495057
0.0617418 -0.0732333 0.428612
0.0398794 -0.0716903 0.744067
-0.0998795 -0.0205392 0.60638
-0.267388 -0.0969252 0.485981
-0.286201 -0.0537322 0.516757
0.0244521 -0.00282382 0.827765
-0.0630436 0.00503552 0.472542
-0.0504525 0.0574827 0.505388
-0.0192006 -0.0292338 0.103152
0.394142 -0.0349024 0.426671
0.0553991 0.0290911 0.351634
-0.132612 -0.045401 0.540167
0.0230185 0.0539091 0.475435
-0.288398 -0.0750642 0.517316
-0.0757711 -0.033475 0.537069
-0.0141933 -0.0393822 0.126258
0.0597661 -0.00586432 0.148694
-0.0299988 0.0444837 0.396432
-0.190255 -0.0181911 0.525591
-0.250899 -0.072559 0.610133
-0.288528 -0.0603557 0.479536
0.184014 -0.0439852 0.498565
0.0369437 0.0408779 0.759054
-0.150681 -0.0159859 0.522232
0.378478 -0.039759 0.475434
-0.0658076 -0.0326326 0.486423
-0.0367884 0.0621264 0.587322
0.136731 -0.045401 0.527846
0.103914 -0.00564884 0.144284
-0.0211113 0.0306918 0.280831
0.0499852 -0.016587 0.300851
-0.119132 -0.0241221 0.0802977
0.112473 -0.00720554 0.073353
0.0386678 -0.0294872 0.130563
0.242906 -0.0897924 0.524497
0.28597 -0.0284041 0.516266
-0.0589848 -0.0270718 0.167693
-0.295983 -0.0152182 0.428372
-0.368549 -0.0169913 0.400999
0.2677 -0.0887212 0.567176
0.256176 -0.0972799 0.495394
-0.0784606 0.0132402 0.673269
0.0290335 -0.0521936 0.188378
0.0598277 -0.0201489 0.394434
-0.187775 -0.0221781 0.5748
0.123913 -0.0248876 0.106501
-0.274579 -0.045401 0.43785
-0.259957 -0.0181494 0.484478
-0.00630461 0.0371381 0.334885
0.133853 -0.00578413 0.118262
-0.281219 -0.0703491 0.564005
0.034121 0.0377512 0.340134
-0.108569 -0.00560857 0.136667
-0.0559174 -0.0822473 0.513852
0.142977 -0.0258626 0.599448
0.00203297 0.000333615 0.86177
-0.110624 -0.00618449 0.0898717
-0.370621 -0.0332054 0.380506
0.00596172 -0.0107913 0.843553
-0.0285289 0.0172195 0.253159
-0.0509947 -0.0402269 0.411127
0.203026 -0.045401 0.574543
0.245125 -0.0843524 0.460391
-0.201407 -0.045401 0.488096
0.079275 -0.0236307 0.627038
0.0357196 0.0630992 0.561482
-0.0163563 -0.0716133 0.280485
-0.149373 -0.0180399 0.547601
-0.296854 -0.0269676 0.522705
-0.0405733 -0.0469372 0.860634
0.130917 -0.045401 0.586297
-0.145159 -0.00611968 0.0784559
0.0223182 -0.0238013 0.830919
0.016266 0.0943426 0.176009
-0.0342532 0.0533638 0.470867
-0.110436 -0.045401 0.600669
0.0733564 0.0518087 0.649442
0.0815426 -0.045401 0.641205
0.0785856 -0.00216937 0.652121
0.0368389 -0.0823742 0.608952
-0.00119937 -0.0486124 0.163441
0.206178 -0.045401 0.534789
-0.238044 -0.0193742 0.590999
0.0785856 0.00938573 0.68991
-0.0746484 -0.0689744 0.722453
0.000654001 0.0545248 0.687826
-0.141458 -0.0224571 0.0443566
-0.0495571 -0.0103381 0.763578
0.152078 -0.0302104 0.630188
-0.0469284 -0.0820463 0.455453
0.267858 -0.0466019 0.584162
-0.390562 -0.045401 0.440403
0.268874 -0.0231238 0.0560431
0.0723048 0.0457985 0.497692
-0.0033602 0.0199877 0.163046
0.0222348 0.0625437 0.547809
0.0769775 0.0225805 0.537419
-0.222286 -0.00575266 0.0676248
0.0585838 -0.0142543 0.760578
0.00628049 -0.0822176 0.505244
0.00131424 0.0606107 0.607363
0.148043 -0.0215698 0.558773
0.0785856 -0.017345 0.592381
0.0785856 -0.0183356 0.668844
0.0143773 -0.0485698 0.163144
0.121628 -0.00566145 0.134406
0.0707563 -0.0696259 0.485696
-0.27201 -0.0419617 0.553035
-0.22888 -0.0571116 0.527702
0.28879 -0.0705132 0.591474
0.0182995 0.0425351 0.3801
0.0436148 -0.0209306 0.793877
0.379854 -0.0284929 0.456782
0.0674788 0.0240939 0.459753
-0.0634273 0.0611634 0.536239
0.310431 -0.045401 0.456731
-0.0130988 0.0598122 0.524914
0.0371433 0.0198124 0.23148
0.292283 -0.0543035 0.547389
0.067206 -0.051689 0.741397
0.0924259 -0.0260127 0.142246
0.023541 -0.0820407 0.453807
0.0286178 -0.0823742 0.580247
-0.100942 -0.0177349 0.572166
-0.0418452 0.0259254 0.330668
0.038352 -0.0532305 0.789711
0.0750939 -0.074266 0.705066
-0.0784606 0.0272203 0.611745
0.286593 -0.0795083 0.558986
-0.20959 -0.0240118 0.0345089
0.0959585 -0.0181331 0.567457
-0.00992926 -0.0543231 0.199641
0.0196728 0.0257334 0.239521
-0.328776 -0.0172845 0.434018
-0.189842 -0.045401 0.531442
-0.00536926 -0.0812837 0.325702
-0.231236 -0.0819926 0.47937
0.0679272 -0.0821841 0.588671
0.0015151 -0.0823742 0.585197
0.0467279 -0.0165203 0.25035
0.268535 -0.04534 0.565607
0.0434018 -0.00550203 0.20001
-0.0670637 0.0112898 0.49303
0.0203632 -0.0431699 0.125544
0.0750991 -0.0750122 0.573107
-0.241267 -0.00608135 0.0326241
-0.0784606 -0.0707805 0.633327
0.0542851 0.0109434 0.340702
0.304708 -0.0332252 0.433323
0.0385292 0.0428089 0.382469
-0.355612 -0.0226628 0.448121
0.24865 -0.0349978 0.462432
-0.0194996 -0.0823742 0.569932
0.120234 -0.0287018 0.640598
-0.0303798 -0.0467562 0.2633
-0.0800949 -0.019939 0.610719
-0.162335 -0.0286697 0.629477
-0.0517335 0.0535656 0.703044
-0.0784606 -0.046033 0.619064
-0.0377755 -0.0600463 0.343932
0.133644 -0.045401 0.609175
-0.151175 -0.045401 0.602558
-0.143446 -0.0282571 0.644459
0.0707977 -0.0364116 0.483816
-0.253458 -0.0192613 0.0763779
0.0153786 0.0659923 0.109944
-0.0578972 -0.0689507 0.446213
-0.0678546 -0.0497403 0.496828
0.0989914 -0.0240838 0.101914
-0.032584 -0.0416504 0.297633
-0.255891 -0.0252591 0.544093
0.0565015 0.0605305 0.530934
0.0661787 -0.0823742 0.691478
0.230163 -0.0246303 0.0512874
-0.0316573 -0.0823742 0.553559
0.262347 -0.0364767 0.527653
6.81122e-05 0.0384194 0.134063
0.100258 -0.045401 0.608007
0.013558 0.0580769 0.640863
0.190793 -0.0247519 0.554756
0.266063 -0.00558062 0.0700767
0.0785856 -0.00493228 0.55455
-0.238152 -0.0601492 0.567514
0.0513522 0.0198731 0.309018
0.113544 -0.0263234 0.137543
-0.0936127 -0.0131091 0.157819
-0.173412 -0.0197136 0.553645
0.239322 -0.0238574 0.511401
0.180896 -0.00619409 0.0654418
-0.346839 -0.045401 0.402627
-0.218525 -0.0255706 0.0585572
-0.0482677 -0.00635823 0.105848
-0.0527444 -0.00413811 0.420113
-0.007376 0.041977 0.375422
-0.0282477 0.0477985 0.735138
0.0142403 0.115156 0.132067
0.00111584 -0.074639 0.735984
0.188896 -0.0259375 0.0935349
-0.0783707 0.042762 0.563804
0.146202 -0.00631136 0.0726921
-0.0903686 -0.0260225 0.131247
0.24492 -0.0695253 0.571236
-0.0338052 0.0419388 0.755388
-0.253615 -0.00557117 0.0656488
0.0854083 -0.045401 0.588452
0.0598803 -0.0822488 0.514293
0.0630464 -0.0166142 0.421616
-0.000511896 0.063283 0.566659
0.140509 -0.00597243 0.0995271
0.236736 -0.045401 0.493281
0.032274 -0.0762583 0.302204
0.237889 -0.0303964 0.568742
-0.0695613 -0.013842 0.505513
-0.0171264 -0.00541336 0.81639
0.179894 -0.045401 0.604343
0.339198 -0.0328431 0.501972
-0.0323215 0.0398259 0.357392
0.0282162 0.0485253 0.430308
-0.0847301 -0.045401 0.583899
0.247985 -0.045401 0.518383
0.206711 -0.025015 0.0693659
-0.131566 -0.0225101 0.61153
-0.0604446 -0.0492998 0.459162
0.0865504 -0.00604689 0.120378
-0.0909605 -0.0368295 0.68609
-0.0465298 -0.0255549 0.388431
-0.0962314 -0.01551 0.548258
-0.0266285 -0.0823742 0.64674
0.337077 -0.0198615 0.441017
0.0785856 0.0238267 0.66747
0.0205951 0.0456118 0.86309
-0.0625935 0.0239152 0.470415
-0.288882 -0.0723205 0.546837
-0.003008 -0.0533032 0.794469
-0.0216205 0.0172543 0.224099
0.0342742 -0.0435907 0.159404
0.394142 -0.0325611 0.444176
0.28012 -0.0529696 0.452363
0.131908 -0.0326492 0.654244
-0.2357 -0.0185444 0.503345
-0.303703 -0.0247736 0.503013
-0.00250456 -0.0818646 0.402647
0.043527 0.0490986 0.730645
0.156482 -0.0445018 0.635647
-0.257431 -0.0399554 0.464626
0.00399502 -0.0292963 0.0933876
-0.182512 -0.032547 0.613472
-0.170346 -0.045401 0.600862
0.0322617 0.0315371 0.288012
-0.0200113 -0.0819339 0.422797
-0.257203 -0.0364767 0.521367
-0.136612 -0.00586178 0.102866
-0.130596 -0.0169236 0.545169
0.0698274 -0.0706221 0.727642
0.0166805 0.0514191 0.138081
-0.0200482 0.0133236 0.178106
-0.194358 -0.0109318 0.0187529
0.197724 -0.045401 0.518893
0.07797 -0.0322355 0.714608
-0.0784606 0.00207173 0.589876
-0.025482 -0.026705 0.177612
-0.0784606 0.0257641 0.572463
-0.364782 -0.045401 0.420057
-0.321812 -0.0378111 0.50298
0.0483043 -0.0572168 0.771994
0.386472 -0.0192093 0.412472
0.232081 -0.0417255 0.582823
-0.0521624 -0.025058 0.131912
-0.00367242 0.0445488 0.746368
0.0577861 -0.0261509 0.160229
0.280816 -0.0841554 0.457001
-0.254648 -0.0165112 0.467947
-0.0225703 -0.0284612 0.146148
-0.355774 -0.0377146 0.476042
0.00426356 -0.0817371 0.365585
-0.0533483 0.0573769 0.650118
-0.113251 -0.0113731 0.0580086
0.321918 -0.0284494 0.490244
-0.154202 -0.024458 0.0694391
0.361203 -0.045401 0.408218
0.0690186 0.060888 0.586753
0.27742 -0.0953667 0.529315
-0.119232 -0.0425238 0.663666
-0.275189 -0.045401 0.491511
-0.056013 -0.0823742 0.673979
-0.202091 -0.0151759 0.482574
0.0552641 -0.0318584 0.356568
-0.312571 -0.045401 0.473019
-0.281356 -0.0300781 0.432518
0.297942 -0.045401 0.487963
0.276183 -0.0358944 0.448135
-0.00243057 0.0579574 0.509367
-0.320081 -0.0224039 0.474621
0.343715 -0.0265111 0.466841
0.0783502 0.0479972 0.55939
-0.394142 -0.0360849 0.422336
-0.0780065 -0.0236612 0.709727
-0.0175838 -0.0817664 0.374121
0.0111161 -0.0460656 0.814309
-0.210125 -0.040109 0.474023
0.224143 -0.0270423 0.549969
-0.216161 -0.00748841 0.00820035
-0.00928105 0.0258594 0.810954
-0.0321637 -0.000493344 0.29375
0.287785 -0.0617054 0.458316
-0.0565218 0.00236597 0.439369
0.332316 -0.045401 0.466993
0.0350766 0.017967 0.198772
-0.0120245 0.0554326 0.675825
0.259504 -0.022435 0.456796
-0.173733 -0.00640487 0.0413097
0.023212 -0.0103885 0.84743
0.294835 -0.0711825 0.545912
0.0785856 0.0197623 0.584701
-0.171613 -0.00559639 0.105485
0.00669098 -0.066729 0.257648
-0.0519939 -0.0823742 0.557342
0.054014 -0.0239611 0.85504
0.0681582 -0.0466979 0.847143
-0.215092 -0.045401 0.571191
0.0176679 0.0456597 0.166976
0.340733 -0.045401 0.482662
-0.392973 -0.045115 0.367482
0.139239 -0.045401 0.544569
-0.0725605 -0.0247821 0.116141
0.257457 -0.0293423 0.545291
-0.0391532 0.0633399 0.568263
0.0204422 0.022796 0.202555
0.000287241 0.0322018 0.117501
-0.00267889 0.0533557 0.707382
0.363692 -0.0291773 0.468195
0.262387 -0.0982083 0.479413
0.0530013 -0.00913416 0.187117
-0.260562 -0.0364767 0.490243
-0.0598295 -0.0823272 0.53707
-0.241023 -0.105369 0.59028
0.030746 -0.0808 0.719095
-0.119526 -0.0188792 0.575046
0.240085 -0.00587321 0.061397
0.158353 -0.0236757 0.50932
-0.0588961 -0.0521782 0.74837
0.04089 0.014486 0.799939
0.306865 -0.0152624 0.436474
0.0672903 0.00726097 0.456852
0.073907 0.0506095 0.525551
-0.000136543 0.0511811 0.15877
-0.0979122 -0.045401 0.5632
0.0603676 -0.0628995 0.39939
0.250885 -0.0917225 0.595117
0.257366 -0.0236712 0.0218256
-0.268861 -0.0716871 0.606713
-0.126773 -0.0265954 0.123869
0.0178233 0.00234745 0.851794
-0.00951648 -0.0363818 0.824438
0.0029755 -0.0706431 0.275949
-0.013986 -0.0822218 0.506459
-0.0226944 -0.0821387 0.700871
0.122808 -0.00791165 0.151099
-0.0554782 0.0493097 0.729916
-0.282001 -0.0878469 0.489556
0.193909 -0.0291404 0.590243
0.168426 -0.045401 0.540852
-0.0479183 0.0363843 0.758061
-0.0743085 0.0271023 0.52999
-0.0464767 -0.0663551 0.388162
0.0157359 -0.0823742 0.660649
-0.104537 -0.014907 0.536195
-0.231414 -0.0241609 0.461618
-0.330043 -0.0342965 0.40415
-0.222493 -0.00601132 0.047586
0.258001 -0.0979439 0.53229
0.00925555 0.0493643 0.437341
-0.0689878 0.0394384 0.501329
0.042461 -0.0823742 0.568439
-0.0784606 0.0211455 0.630967
0.263431 -0.0495854 0.599283
0.0504621 0.0179287 0.778645
0.16646 -0.00614597 0.0751356
-0.204166 -0.0232108 0.571808
-0.0369984 -0.040916 0.339982
0.3571 -0.0208797 0.435092
-0.00960116 -0.051065 0.180519
-0.325948 -0.0195815 0.451624
0.0691378 -0.0786293 0.531825
-0.311817 -0.045401 0.431224
0.249282 -0.0399143 0.537968
0.013384 -0.0778912 0.309839
0.112925 -0.0163302 0.541979
-0.241182 -0.0389444 0.455927
0.291421 -0.0200473 0.440223
-0.289052 -0.063328 0.534133
-0.277015 -0.0660382 0.585697
0.242313 -0.0142614 0.0123676
-0.281036 -0.0707383 0.455568
0.247469 -0.0562912 0.588057
0.0289949 -0.0270836 0.0959661
0.143568 -0.0172047 0.529901
0.0638858 0.0198511 0.427942
-0.112619 -0.045401 0.617014
0.0785856 -0.0484547 0.684177
-0.185263 -0.00613633 0.0569215
-0.0488038 0.0594232 0.521653
-0.25984 -0.0982083 0.500407
-0.137825 -0.0281505 0.51615
0.33179 -0.0369038 0.41926
-0.0666736 -0.0823742 0.602255
0.233789 -0.0189504 0.490693
-0.246263 -0.0220364 0.036652
-0.128503 -0.0206166 0.59063
0.00154839 -0.000806437 0.0925189
0.053985 -0.0760271 0.388544
0.294253 -0.0744855 0.481575
0.0657685 -0.0579122 0.444259
0.0440755 -0.0820447 0.454974
0.0139605 0.115194 0.163915
0.106835 -0.0294592 0.656962
-0.0475206 0.0554705 0.675322
-0.0784606 -0.0164883 0.662684
0.0491451 -0.0270537 0.287756
-0.0784606 -0.00714132 0.68079
-0.22916 -0.0213398 0.539823
-0.247307 -0.045401 0.561665
0.154327 -0.0281544 0.610837
-0.0280899 -0.0821507 0.485785
-0.0414685 0.0467988 0.415837
0.0727341 -0.0288354 0.500838
-0.0274589 -0.0334521 0.217805
0.0172242 0.0353974 0.135648
0.0576453 0.0465221 0.437096
0.0151047 0.0549759 0.210535
-0.050134 0.0520917 0.460202
-0.0778726 0.00784883 0.713774
0.173936 -0.0221764 0.544971
-0.24525 -0.0341548 0.590261
-0.2701 -0.0959383 0.543977
0.350208 -0.045401 0.457223
-0.0470553 -0.00962704 0.391148
0.0503229 0.057925 0.642872
0.0107588 -0.0821617 0.488989
-0.251099 -0.0554152 0.44601
-0.343672 -0.045401 0.447979
-0.0337494 -0.0235544 0.315784
-0.372765 -0.0200485 0.417524
-0.0577795 -0.0138054 0.750188
-0.260592 -0.0822367 0.579825
-0.0492651 0.019868 0.764054
0.27536 -0.0763379 0.573912
0.056469 -0.0598863 0.367001
-0.0396942 0.0498789 0.441654
0.0362935 0.0521642 0.46081
-0.0130781 0.0439966 0.39235
-0.257119 -0.0559138 0.573912
-0.0606746 -0.00471048 0.460418
-0.106011 -0.00543714 0.151181
-0.120923 -0.0328787 0.525998
0.03379 0.0082515 0.106842
-0.00948105 0.034032 0.782712
0.201839 -0.00588926 0.07719
0.220541 -0.0267319 0.0908917
0.013836 -0.0593914 0.223339
-0.0909403 -0.0237005 0.0862692
-0.0668304 -0.0195767 0.735449
0.0805286 -0.045401 0.603534
0.0446908 0.00618366 0.246135
0.0267978 -0.0686388 0.752432
0.289184 -0.0857493 0.50174
-0.0502978 0.0241276 0.390063
0.000763467 0.053031 0.127129
0.0785856 0.0444821 0.626584
0.078486 0.0298341 0.699014
0.0555334 -0.0341616 0.767363
-0.0242189 -0.00514141 0.169553
0.0167061 0.03412 0.114345
-0.129554 -0.0251981 0.0952114
0.0619629 0.0542231 0.489312
-0.017413 0.0334993 0.304363
-0.274143 -0.026925 0.540442
0.0762192 -0.00970463 0.528606
0.0479377 0.0592144 0.625823
-0.0784606 -0.00777358 0.623145
-0.00187344 0.0128799 0.83227
0.0852333 -0.0370068 0.547288
0.0831434 -0.0186828 0.548517
0.0785856 -0.00615122 0.687734
0.1103 -0.023791 0.0912368
0.263102 -0.0408708 0.462793
0.0776527 0.0226112 0.718158
0.00308642 0.0362648 0.853467
0.0476775 -0.0511107 0.264897
0.235075 -0.00554598 0.0872071
0.0687266 -0.00560111 0.467578
-0.0554882 0.0296977 0.41939
-0.0300344 0.0518621 0.721095
0.0318249 -0.0216078 0.850175
0.0459856 -0.0436603 0.238544
-0.148205 -0.0268913 0.118718
0.113276 -0.0192248 0.564131
-0.161694 -0.021851 0.586078
0.0500819 -0.0250694 0.142646
0.179848 -0.027207 0.583931
0.0708477 0.0337573 0.487988
0.00927207 -0.0816835 0.71028
0.0338395 -0.0690407 0.268456
-0.0352448 0.0359426 0.342655
0.14758 -0.045401 0.576035
-0.125143 -0.0247488 0.642091
-0.24084 -0.0928838 0.535589
-0.0276957 -0.081834 0.393755
-0.0295345 -0.0131448 0.250135
-0.228906 -0.0273886 0.0872951
0.0614308 -0.0145948 0.092433
0.00195932 0.0839623 0.125447
-0.0756252 0.0477034 0.67207
0.0246618 -0.0816607 0.343393
-0.279132 -0.05431 0.561068
-0.0252565 -0.0235608 0.116433
-0.269925 -0.0218639 0.510895
0.292477 -0.0546395 0.511906
0.23623 -0.0336939 0.468881
0.0116826 -0.0250271 0.842955
-0.0190374 -0.0387286 0.81263
-0.0758237 -0.0741626 0.666065
0.0714323 -0.078679 0.652094
0.0284707 0.0593891 0.521367
-0.0733772 -0.0461836 0.524901
-0.181986 -0.0262064 0.088153
-0.00200428 -0.0736685 0.290095
0.10443 -0.0358359 0.676997
-0.182725 -0.0203811 0.112416
0.0147369 0.0838939 0.111376
0.0492226 -0.0448509 0.781402
-0.262121 -0.0150232 0.445766
0.0728206 0.0494839 0.687263
-0.227886 -0.0627535 0.507936
-0.0183063 0.0572145 0.50314
-0.0511725 0.0585822 0.634182
0.0327419 0.0219373 0.212411
-0.0598112 -0.0344639 0.455942
-0.0191916 -0.0799632 0.721389
0.249747 -0.0889987 0.558275
-0.0231633 -0.0820248 0.449205
-0.153104 -0.045401 0.529618
0.0405386 0.0343781 0.311729
-0.165717 -0.0426841 0.499898
-0.121576 -0.045401 0.590382
0.0272175 -0.0823742 0.565154
0.078572 -0.0574281 0.696415
0.118234 -0.045401 0.602836
0.0133047 0.0551521 0.679532
0.0638975 0.028186 0.748757
0.167859 -0.0245266 0.0800832
0.00978696 0.0273992 0.25328
0.00652135 -0.0823742 0.606723
0.158442 -0.021152 0.0518968
-0.0784606 0.0418419 0.64609
0.121969 -0.045401 0.657044
0.360394 -0.045401 0.434075
0.0166998 0.0559667 0.492681
-0.0707038 0.0069046 0.511496
0.0757092 -0.036699 0.524667
-0.0158703 -0.0230967 0.818436
0.0739887 0.00718915 0.726309
0.141454 -0.0251134 0.103135
-0.0259737 -0.046615 0.20988
0.0440267 0.0592431 0.520143
0.0494378 0.0628853 0.555456
0.233733 -0.0724732 0.471739
-0.195121 -0.045401 0.586005
-0.197392 -0.045401 0.563878
0.306994 -0.0222843 0.46732
-0.0729284 -0.0770579 0.575713
-0.0405784 -0.00544632 0.183811
0.352671 -0.0297221 0.478606
0.017495 0.0532197 0.710192
-0.176924 -0.00580977 0.0863352
0.163758 -0.045401 0.593716
0.0327281 -0.0285246 0.818095
0.100148 -0.0270901 0.156928
0.25345 -0.0758983 0.608823
0.208475 -0.045401 0.549498
-0.026647 -0.0823742 0.665112
-0.0450323 0.0360484 0.377494
0.0547828 -0.0774288 0.406287
-0.0457453 -0.0657652 0.756197
0.0733806 0.00288466 0.506375
-0.201943 -0.0119009 0.102625
0.0308197 0.0265684 0.805399
0.0291191 -0.0721991 0.283224
-0.0300202 -0.0768176 0.730012
-0.0209456 0.0480828 0.4266
-0.378374 -0.045401 0.450308
-0.020709 0.0576862 0.646029
-0.236077 -0.0888869 0.518707
0.235587 -0.0795682 0.515767
-0.0716937 0.0547466 0.63093
-0.294412 -0.045401 0.461229
0.173905 -0.0177126 0.502451
0.0495009 -0.0823742 0.616571
0.0191179 0.0607434 0.532719
0.0711427 -0.0789686 0.672965
0.148704 -0.0347328 0.643815
-0.0687617 -0.0379361 0.732304
-0.202672 -0.0164681 0.497715
-0.147023 -0.0426897 0.641622
0.2028 -0.0243211 0.542226
0.265437 -0.0364767 0.492622
0.0785856 -0.012267 0.641143
0.154707 -0.0268648 0.12596
0.0737678 -0.0763435 0.620434
0.0630344 -0.00248939 0.750677
-0.0418607 -0.0154917 0.364698
0.0444069 -0.00523007 0.217553
0.092173 -0.00582823 0.135465
0.392991 -0.04259 0.400243
0.0545231 -0.0713252 0.745068
0.367033 -0.034252 0.482795
-0.0777639 0.0287758 0.717059
-0.0554543 -0.0821968 0.499184
-0.0553467 -0.0228155 0.0873891
0.321375 -0.045401 0.513003
0.0722179 -0.0436279 0.730248
-0.0784606 0.0120845 0.658672
-0.324915 -0.0209132 0.407138
0.178398 -0.045401 0.569758
0.066132 -0.0777736 0.500669
-0.137698 -0.045401 0.617138
-0.0784606 -0.0583823 0.6436
0.293412 -0.0221039 0.473585
0.063539 0.0458973 0.460008
0.0705218 -0.0510048 0.483748
0.0411712 -0.082155 0.48703
0.0165773 -0.0817825 0.378772
0.195816 -0.0230684 0.0394371
0.29411 -0.0593901 0.474836
-0.0219341 0.0589965 0.628704
0.206624 -0.0240584 0.0535685
0.245386 -0.0918731 0.540586
-0.0734511 -0.075408 0.709457
0.286499 -0.0888994 0.474627
0.0193589 0.0323785 0.294969
0.0530919 -0.0060849 0.133974
-0.0524955 0.0427576 0.42737
0.0179688 0.055747 0.191515
0.00103261 0.089864 0.165862
-0.0826547 -0.0164382 0.567288
0.130315 -0.00650247 0.0665448
0.00211157 0.0406853 0.364595
0.263056 -0.0638261 0.44601
0.375341 -0.0247238 0.442535
0.279629 -0.045401 0.485368
0.0533765 -0.0727366 0.357102
0.000597898 0.0710829 0.157382
0.0111105 0.105199 0.0980094
0.0427796 0.0234419 0.27223
0.0135768 0.00712638 0.0953144
-0.146306 -0.045401 0.567352
-0.00587399 0.051327 0.453792
-0.0240721 -0.0368348 0.16747
-0.259274 -0.0227776 0.525281
0.189164 -0.0305821 0.606139
-0.340043 -0.0199058 0.442552
-0.284745 -0.0566076 0.466188
-0.146513 -0.0197908 0.570243
-0.237031 -0.0669923 0.58391
0.0431661 -0.0252622 0.195083
0.173901 -0.0055484 0.117556
0.0785856 0.0153205 0.564545
-0.343074 -0.03214 0.486116
0.0670306 -0.0409776 0.452934
-0.263059 -0.0364767 0.538848
-0.288435 -0.0598309 0.498738
-0.0784606 0.0434526 0.685521
-0.0629961 -0.00553106 0.165859
0.00852597 -0.0154241 0.0925189
0.0365505 0.0612153 0.599369
-0.385531 -0.0168272 0.386462
0.0183522 -0.00698398 0.8647
0.0649446 -0.00622703 0.116424
-0.0710406 -0.00591909 0.130728
0.285325 -0.0448007 0.539389
0.119781 -0.022965 0.591547
-0.0206882 0.0444452 0.746726
0.0590983 -0.0331443 0.387969
-0.0374031 -0.0330556 0.848739
0.250485 -0.00605416 0.0443338
-0.245365 -0.0120466 0.0805015
0.0329513 -0.0822782 0.522845
-0.0770147 0.00243037 0.543537
0.0289984 0.0577916 0.644635
0.0217607 -0.0656369 0.252541
0.101273 -0.045401 0.652765
-0.306361 -0.0259145 0.417948
0.0857139 -0.0233611 0.0937567
-0.0763272 -0.0127324 0.0758799
-0.256705 -0.0858445 0.446836
-0.0375653 0.0535605 0.703149
0.0241996 -0.0479191 0.809228
-0.0415597 -0.023494 0.106824
0.0683886 -0.0708924 0.466026
0.248667 -0.0401384 0.498695
0.106939 -0.00631001 0.0901336
0.185573 -0.0272198 0.116428
0.0196362 -0.0807825 0.323358
0.0257553 -0.0620388 0.235717
0.247535 -0.0534641 0.452528
0.0543472 -0.0410943 0.846008
0.390417 -0.0154991 0.393158
0.264252 -0.0137744 0.0822592
-0.194072 -0.0233457 0.0298965
-0.0583693 -0.0653621 0.743355
0.0304393 -0.0497689 0.171494
-0.0438644 -0.0624193 0.374883
-0.203597 -0.045401 0.502016
-0.218797 -0.021835 0.551261
0.0127268 0.0428606 0.752202
-0.0501799 -0.0398272 0.762564
0.295344 -0.0682954 0.511268
-0.367353 -0.025869 0.459646
0.128746 -0.0231525 0.0706979
0.198199 -0.021613 0.522294
-0.120793 -0.00595775 0.103488
-0.139422 -0.0056646 0.11663
-0.255146 -0.0465859 0.603727
-0.01918 0.0531176 0.712303
-0.00996175 -0.0288548 0.0945492
0.0625534 0.022885 0.41399
0.0459309 -0.0284464 0.237692
-0.0784606 -0.0590944 0.624057
0.00923808 0.062796 0.552942
-0.122008 -0.045401 0.570534
0.257808 -0.0207161 0.485982
-0.250796 -0.0579676 0.615028
0.235658 -0.045401 0.479687
-0.371512 -0.045401 0.387196
0.0418098 -0.0823356 0.539533
-0.230994 -0.0531115 0.492625
-0.0707314 -0.0486747 0.511452
0.234059 -0.0275865 0.589676
-0.0381279 0.0243054 0.311881
0.00163236 0.0601843 0.107745
-0.0707308 0.0602321 0.5693
0.182162 -0.045401 0.543021
0.245086 -0.0251125 0.0518214
-0.0728133 -0.00618774 0.107907
0.0327628 -0.00351532 0.0995547
-0.0634585 0.00900316 0.74094
0.206284 -0.0172714 0.111107
-0.186182 -0.0414932 0.487973
0.0126821 -0.0818449 0.396924
-0.240168 -0.09232 0.477032
0.0547746 -0.0823742 0.65066
0.0120461 0.0338442 0.307254
-0.0586157 0.0628953 0.555738
-0.0138491 -0.0667177 0.757698
-0.0554068 0.0621334 0.587231
-0.0165245 -0.0593307 0.777947
-0.148664 -0.0223656 0.509834
-0.227757 -0.025313 0.601538
-0.0745124 -0.021654 0.72294
-0.112055 -0.045401 0.633777
-0.241794 -0.0169881 0.0242044
-0.00565574 -0.0654457 0.251647
0.0180114 0.046251 0.180734
0.364199 -0.0291172 0.402432
0.201654 -0.045401 0.590652
0.0569952 -0.0184127 0.371062
0.0267068 0.0174978 0.822937
-0.0315821 -0.0517507 0.282026
0.0155685 0.0886724 0.14784
0.00563255 -0.0431265 0.125242
0.0586921 -0.0819727 0.704302
0.0781866 -0.00724929 0.708061
0.0120758 0.0378297 0.101771
-0.119238 -0.045401 0.547738
-0.081181 -0.0371078 0.549155
0.214628 -0.0288681 0.572676
-0.229521 -0.0790228 0.535269
0.208727 -0.0268443 0.0986502
-0.0548845 -0.00600354 0.131644
0.0372539 -0.00265433 0.808027
-0.0390791 -0.0820849 0.466658
-0.00188578 0.038779 0.348617
-0.0222355 0.00176659 0.144074
0.0702632 0.0496928 0.716344
-0.0263887 -0.0336488 0.201136
-0.332725 -0.0163875 0.420972
-0.257645 -0.045401 0.500856
0.111728 -0.0445275 0.536647
0.0483042 -0.0742979 0.328742
-0.0784606 -0.0100655 0.580746
-0.200181 -0.0177553 0.514587
0.256837 -0.045401 0.548098
0.289539 -0.085135 0.517988
0.236285 -0.045401 0.548509
-0.0532962 -0.0467749 0.422826
-0.0917006 -0.00579726 0.13069
-0.0341554 0.0513387 0.453959
-0.0394339 0.017934 0.780063
-0.00852879 0.0222719 0.19518
0.244671 -0.047687 0.465033
0.0213664 -0.0823742 0.637295
0.0763628 0.0515473 0.61315
0.0349119 0.0451384 0.744331
0.0528159 -0.00855188 0.335183
0.153835 -0.0247746 0.0910912
-0.0784606 -0.0618664 0.558368
0.262695 -0.0820136 0.601104
-0.0262546 0.0134322 0.236194
-0.145782 -0.0228174 0.606927
0.0613687 -0.0175285 0.407574
-0.234195 -0.04757 0.506277
-0.0496249 -0.0822969 0.52828
0.341826 -0.045401 0.497876
0.0263513 0.0271443 0.251305
0.026352 0.0206598 0.172501
-0.0434125 0.033553 0.363014
-0.0447815 0.013792 0.364158
0.0535523 -0.023969 0.119761
-0.355044 -0.0159187 0.40235
0.241999 -0.0232407 0.0223684
0.0301131 -0.0818638 0.402405
0.0605115 -0.0268898 0.173364
0.381668 -0.0256887 0.393361
0.199027 -0.00638906 0.0439972
0.0235638 0.0317556 0.790579
-0.00183261 -0.0819181 0.418201
-0.0939232 -0.00603424 0.110239
-0.356478 -0.045401 0.393317
-0.258757 -0.0962574 0.467685
0.00223849 0.0789631 0.110861
-0.096057 -0.045401 0.614269
-0.000411401 0.0390609 0.153082
-0.0253533 -0.0600121 0.255807
-0.035043 0.0181105 0.29152
0.0834774 -0.0264916 0.155338
-0.145157 -0.00994357 0.131557
0.0785856 0.00326706 0.570319
0.211104 -0.045401 0.56259
-0.240107 -0.0328752 0.567788
0.029228 -0.0394136 0.116302
0.0398231 -0.0817427 0.367222
-0.0753293 -0.0163652 0.534823
-0.0524187 0.0193102 0.410505
0.0914497 -0.0207489 0.593286
0.0784291 -0.0247587 0.124094
-0.0481175 0.0540759 0.476832
0.316725 -0.045401 0.489289
-0.332713 -0.0357091 0.494334
-0.203244 -0.045401 0.551856
-0.334329 -0.045401 0.474409
0.0491264 -0.00210624 0.297394
0.043697 0.00829515 0.232726
-0.2738 -0.0161154 0.452045
0.265556 -0.0321262 0.555472
0.163407 -0.00576955 0.104698
-0.0314447 -0.0723765 0.322184
0.0785856 0.0390582 0.63952
0.0213992 0.0617572 0.592205
-0.0376566 -0.00381802 0.33578
-0.202192 -0.0202301 0.543063
0.379091 -0.045401 0.45516
-0.381738 -0.0249302 0.442134
0.022279 -0.0822272 0.508013
-0.215235 -0.0234355 0.564489
-0.0303826 0.0127577 0.265606
0.0479966 -0.021265 0.269866
0.0740337 -0.0379208 0.856848
-0.147941 -0.045401 0.589715
0.147828 -0.045401 0.604776
-0.269151 -0.0193849 0.493922
0.104655 -0.0247824 0.618305
0.0124022 0.120509 0.120114
0.273646 -0.09674 0.501538
-0.170685 -0.0253834 0.612485
0.292559 -0.045401 0.457709
0.127308 -0.045401 0.550801
0.23994 -0.0685478 0.457987
-0.0343081 -0.0018638 0.310245
-0.00368027 0.0161225 0.10867
-0.0141299 -0.0290109 0.854283
0.150491 -0.0440118 0.515999
-0.258592 -0.0399244 0.553126
-0.057206 0.0449605 0.451704
-0.0621398 0.0343638 0.459923
-0.101434 -0.0294146 0.677783
-0.241089 -0.0415928 0.544859
-0.00239687 -0.08201 0.444906
0.0476786 -0.0372242 0.265495
0.362017 -0.0177682 0.418839
-0.00424804 0.021799 0.82237
-0.0784606 0.00896705 0.602774
-0.0691711 0.0591379 0.606222
0.00199679 0.10892 0.154647
-0.227988 -0.045401 0.519144
-0.0121165 -0.0821341 0.480953
0.26583 -0.0878851 0.450922
-0.161118 -0.045401 0.51437
0.226156 -0.0233991 0.0324495
-0.285616 -0.0819654 0.506563
-0.0907959 -0.0452656 0.543553
-0.186458 -0.0248049 0.0601396
-0.074124 -0.0753149 0.548006
-0.390434 -0.045401 0.391753
0.289659 -0.0849266 0.535732
0.251184 -0.0268186 0.528176
-0.255892 -0.045401 0.480542
0.0213734 0.0499348 0.442123
0.270731 -0.0656319 0.593333
-0.22085 -0.0194634 0.523007
0.0506851 -0.0498567 0.311743
0.148212 -0.045401 0.533998
-0.0888916 -0.0252957 0.117831
-0.0259097 -0.0229901 0.193676
0.164805 -0.045401 0.620007
-0.0577161 0.0193106 0.445583
0.293476 -0.0642956 0.601881
-0.233163 -0.0493573 0.476253
0.176129 -0.045401 0.508797
-0.273708 -0.0946252 0.498942
-0.174054 -0.00894798 0.0285803
0.221058 -0.045401 0.576877
-0.31385 -0.045401 0.444029
0.0777253 -0.0058847 0.138058
-0.228965 -0.00655837 0.00202805
0.0271158 -0.0732965 0.739664
-0.227496 -0.0649698 0.478888
-0.0814783 -0.045401 0.681611
0.0153251 0.0749415 0.120708
-0.0784606 0.0310908 0.674843
-0.0335721 -0.0818735 0.405229
-0.245589 -0.0271915 0.0749604
-0.014533 -0.0816973 0.354013
0.309428 -0.0284571 0.499487
0.24743 -0.0261736 0.602408
-0.0120775 0.0606431 0.606935
0.0567689 0.0610784 0.601179
-0.341322 -0.0324971 0.397578
-0.295533 -0.0790176 0.59965
0.318024 -0.0179016 0.442293
0.0734308 -0.0766805 0.638464
-0.0739787 -0.0272809 0.16413
0.249874 -0.0937599 0.469285
-0.0673785 -0.0227375 0.494408
0.0646429 -0.0123538 0.433591
0.00183715 -0.0561885 0.208363
-0.0243111 0.0547604 0.48257
0.0636685 -0.02882 0.425399
0.0578727 0.026456 0.368039
