-0.00068626 0.0538261 0.18311
-0.219316 -0.045401 0.527315
0.239067 -0.085595 0.54724
0.180243 -0.0244111 0.0723716
0.126716 -0.0190993 0.553175
-0.285646 -0.045401 0.446082
-0.0692071 -0.0270268 0.503703
-0.060728 -0.0823742 0.591503
-0.0771914 -0.0727949 0.56403
0.0465024 -0.0102721 0.247304
0.0857476 -0.045401 0.637305
-0.235607 -0.0179159 0.49587
-0.154448 -0.0178168 0.126823
0.0294912 0.0584384 0.636083
0.0344126 -0.0149299 0.859444
0.231551 -0.0211592 0.0195643
-0.0784606 -0.0160114 0.692573
0.0142133 0.0658746 0.102303
0.0636621 -0.0697711 0.42676
-0.360971 -0.0162392 0.402122
-0.0682411 -0.0243827 0.110554
-0.159897 -0.022736 0.503289
0.220165 -0.00779924 0.10249
-0.0259967 0.0121881 0.23172
0.0572864 -0.0702983 0.743986
0.199631 -0.045401 0.546063
0.28365 -0.043395 0.531765
0.24308 -0.0253 0.521057
0.0727008 0.0573461 0.584899
-0.249415 -0.0481218 0.596115
0.128166 -0.0199545 0.559473
0.256865 -0.10953 0.598194
-0.0634312 -0.0461168 0.740985
-0.057794 -0.0823742 0.66764
0.0263557 -0.0823742 0.565991
-0.0760215 -0.00631653 0.0958245
0.179618 -0.00615156 0.0689371
-0.0199636 0.06303 0.575376
0.180079 -0.0418084 0.620987
0.115504 -0.045401 0.572438
-0.355066 -0.045401 0.443182
-0.247506 -0.0384681 0.509664
0.181903 -0.0263891 0.57538
0.0970346 -0.045401 0.590747
-0.0675759 -0.0519 0.734235
-0.286703 -0.0449723 0.530829
0.0619185 -0.0795844 0.481273
0.0937746 -0.0255357 0.132393
0.165878 -0.0311011 0.505412
-0.0713611 -0.0770229 0.715277
0.0739247 -0.0463678 0.726451
-0.279775 -0.0442215 0.536324
0.229046 -0.0241102 0.0432333
-0.0938862 -0.00592494 0.157679
0.214612 -0.045401 0.551229
0.367458 -0.045401 0.47345
0.273741 -0.0160572 0.457189
-0.0593351 0.0232333 0.747655
-0.0421473 0.0632937 0.566959
0.305641 -0.045401 0.487773
-0.0784606 0.0410752 0.637504
-0.273316 -0.0629262 0.604463
0.0288281 -0.0435316 0.133661
0.373715 -0.0230033 0.435805
-0.0038611 -0.00964847 0.836769
0.176195 -0.0417973 0.500416
-0.314346 -0.045401 0.437559
0.0281953 0.0444946 0.396523
0.237133 -0.0822449 0.520379
-0.129408 -0.0190179 0.570951
0.121067 -0.0263499 0.134227
-0.0380821 -0.0823742 0.655945
0.206829 -0.045401 0.53045
-0.253488 -0.0982083 0.527344
0.304184 -0.0188089 0.45348
0.0150858 -0.0593506 0.223148
0.25029 -0.00568031 0.0701773
-0.0712006 -0.0239539 0.100687
-0.12586 -0.0262919 0.118416
-0.0480792 0.0615291 0.539305
-0.0259763 -0.00641966 0.111615
0.294092 -0.075396 0.521831
0.0475822 -0.00581349 0.158938
0.198209 -0.0263676 0.0960087
-0.146042 -0.045401 0.584337
-0.0784606 -0.0213805 0.658474
-0.17126 -0.045401 0.613107
-0.0436363 0.00200608 0.77322
-0.234276 -0.0331841 0.600389
0.110189 -0.0239421 0.094217
0.0785856 -0.0515031 0.642541
-0.014032 -0.0819889 0.438775
-0.0182635 -0.0818867 0.409079
-0.229975 -0.115817 0.596607
0.294483 -0.045401 0.476114
-0.251781 -0.0369124 0.491222
0.129196 -0.0272448 0.621471
-0.121563 -0.0161492 0.541155
-0.144679 -0.0268883 0.120454
0.046011 0.0314281 0.777228
0.27647 -0.0957122 0.505662
-0.276483 -0.0924782 0.545965
-0.0647139 -0.0823482 0.543194
0.241826 -0.0888864 0.477947
0.262755 -0.0528917 0.573912
0.0261196 -0.0823742 0.609242
0.140982 -0.045401 0.53052
-0.0721895 -0.0777968 0.611811
-0.233366 -0.0379846 0.598545
0.0486858 0.053529 0.7038
-0.0280406 -0.0823742 0.634408
0.235366 -0.0153114 0.473853
-0.0993378 -0.045401 0.640322
-0.17919 -0.0163073 0.114218
-0.298998 -0.0156811 0.43216
-0.333571 -0.045401 0.477701
-0.0827215 -0.045401 0.63324
0.0972993 -0.0244512 0.109792
0.0801527 -0.025061 0.638705
-0.180387 -0.0237832 0.0444831
-0.249804 -0.0604394 0.573912
0.00341606 -0.0448437 0.137199
-0.0532373 0.0383425 0.414454
-0.0608648 -0.0823742 0.551643
0.0141802 -0.0747177 0.735768
-0.0738824 -0.027395 0.723965
0.153708 -0.045401 0.556393
-0.28832 -0.0591782 0.493085
0.0396827 -0.0389115 0.162846
0.0183002 0.0467898 0.192356
-0.00930216 0.054399 0.68949
0.242458 -0.00557023 0.0815354
-0.234735 -0.0273643 0.0838513
0.261611 -0.0425046 0.560323
-0.372551 -0.045401 0.457475
-0.0656685 -0.0252531 0.128832
-0.261355 -0.0824559 0.590014
0.0666229 -0.0823742 0.577424
-0.0678125 -0.00602648 0.123512
-0.235118 -0.0923225 0.598571
0.17113 -0.0103535 0.0440541
-0.321318 -0.0368078 0.409234
0.357297 -0.0179304 0.422006
0.270064 -0.0520727 0.602875
-0.213141 -0.0131058 0.0969193
0.132271 -0.045401 0.604856
-0.0763428 -0.0388686 0.539975
0.0156996 -0.0822312 0.50919
-0.128601 -0.00629751 0.0719309
0.0785856 -0.0190543 0.594831
-0.264696 -0.0975332 0.470891
0.178346 -0.0242898 0.0708543
-0.176905 -0.00556371 0.105307
0.0550145 -0.0823742 0.590097
0.0169908 0.0280957 0.116448
-0.217793 -0.045401 0.556949
0.312832 -0.045401 0.494255
-0.0635538 -0.0404958 0.474967
0.000840795 0.0419033 0.111005
-0.0384835 -0.016832 0.347531
0.0138715 0.0542737 0.478491
-0.326517 -0.0361167 0.499248
0.0120119 -0.0823742 0.632639
-0.136106 -0.045401 0.529462
-0.0383941 -0.0753174 0.734124
-0.111884 -0.00935401 0.0586703
0.00912843 0.0381159 0.343058
-0.12584 -0.0155508 0.531494
0.280794 -0.040999 0.494249
-0.15863 -0.0255746 0.0877368
0.26837 -0.0671463 0.59537
0.210307 -0.0057205 0.0852925
-0.0120036 0.0182896 0.152294
0.0195257 0.0598858 0.52553
0.0785856 -0.0539756 0.640961
-0.325968 -0.045401 0.456476
-0.162381 -0.0406635 0.501842
-0.23165 -0.0183022 0.595285
-0.171027 -0.045401 0.55736
0.0732027 -0.00583597 0.144305
-0.019809 0.022383 0.24061
0.0488113 0.0369529 0.357129
-0.235161 -0.0774034 0.46019
-0.0900115 -0.045401 0.662391
-0.12657 -0.0218901 0.607013
-0.0366447 0.0529229 0.716327
-0.0540265 -0.00132796 0.426654
-0.0387968 -0.0103887 0.349163
0.12836 -0.0283434 0.524894
0.239064 -0.0161547 0.475643
0.0236729 0.0265202 0.246146
0.0713195 -0.0263398 0.157916
-0.383522 -0.014908 0.373649
0.087613 -0.00583754 0.13698
-0.0543839 -0.0132271 0.0865004
0.16458 -0.045401 0.550852
0.358846 -0.0295455 0.472548
0.0289863 -0.0823742 0.568139
0.302685 -0.045401 0.506043
-0.0784606 -0.00377551 0.583841
-0.141029 -0.023917 0.62287
-0.234659 -0.0250949 0.0420893
0.0202628 -0.0823742 0.569724
-0.119808 -0.0256549 0.109081
-0.21916 -0.045401 0.472156
0.0755553 0.0421057 0.527345
0.109365 -0.045401 0.577446
-0.0599897 0.0616112 0.594135
0.105337 -0.023977 0.610871
0.0169693 0.0812573 0.185312
0.177934 -0.00581736 0.0935306
-0.0203147 0.0400573 0.76189
0.0454906 0.0576553 0.506835
0.0785108 -0.015192 0.547767
-0.0378731 0.0582212 0.511578
0.0168241 0.0326012 0.116614
-0.394142 -0.0270487 0.420595
-0.00161406 0.0389734 0.19853
0.109537 -0.0302612 0.661881
-0.0308055 -0.0818046 0.38522
0.249101 -0.079754 0.589043
0.290063 -0.045401 0.472587
-0.0289913 0.0161307 0.251942
-0.126963 -0.0211103 0.597441
-0.011605 0.0368266 0.773055
0.286129 -0.0290197 0.521448
-0.0214129 -0.0823742 0.596162
-0.261424 -0.017526 0.476155
0.0173622 0.0602597 0.863828
0.271136 -0.0909061 0.458895
0.248585 -0.0751571 0.600287
0.0365058 -0.0364682 0.136582
-0.188859 -0.045401 0.522914
0.031239 -0.0823742 0.655738
0.0670189 0.0398218 0.449042
-0.0710665 0.0533412 0.657803
-0.0159703 -0.081794 0.38214
0.181557 -0.045401 0.611322
0.372893 -0.0305091 0.470522
0.0411134 -0.0671911 0.7564
0.0455435 -0.0118697 0.789586
-0.203735 -0.045401 0.491194
0.153759 -0.045401 0.542077
0.0961947 -0.045401 0.629185
0.0111264 0.0558169 0.859109
-0.326515 -0.045401 0.465151
0.0243318 -0.0563307 0.78617
0.258009 -0.0219167 0.011231
-0.00671164 -0.0822834 0.524361
0.00427733 0.0855339 0.100406
-0.0784606 -0.0654947 0.580029
0.0762769 -0.015182 0.528883
0.0785856 -0.0709727 0.637218
-0.0418083 0.0139699 0.343342
0.00742328 0.117393 0.0977836
-0.0328883 0.0106785 0.28545
-0.0752519 0.0302832 0.534812
0.105425 -0.0199074 0.575775
0.0415064 -0.048404 0.791814
-0.0225208 -0.0816727 0.346876
-0.0664069 0.0356255 0.48799
0.289671 -0.0695073 0.592153
0.0465987 -0.0488962 0.248094
0.26333 -0.0982083 0.489144
-0.278078 -0.0911397 0.538897
0.377108 -0.045401 0.420796
0.242202 -0.0269111 0.0830458
-0.318219 -0.045401 0.478965
0.333982 -0.0220523 0.452271
-0.00946502 -0.0823742 0.629815
-0.0292982 0.0130367 0.257758
-0.215483 -0.0127717 0.00852853
-0.0673148 -0.0275042 0.494085
0.220656 -0.026825 0.476968
0.203452 -0.0421412 0.603463
0.0398816 -0.0197122 0.802182
0.270443 -0.0835319 0.44601
-0.0580956 0.0537549 0.699133
-0.0271989 0.00652608 0.241539
0.238543 -0.0269827 0.538876
0.017063 0.0598647 0.164513
-0.352236 -0.045401 0.423349
0.33416 -0.045401 0.473835
0.331756 -0.045401 0.496827
-0.277723 -0.0637448 0.449106
-0.0295332 -0.0773965 0.728425
0.243677 -0.0237075 0.0292597
-0.0249884 -0.0240903 0.12689
0.0407911 -0.0266526 0.848795
-0.0383429 -0.0451903 0.860626
0.0166262 -0.0816471 0.339435
-0.0522833 -0.0232838 0.0973946
-0.000525333 -0.0818532 0.399319
0.0687334 -0.0813779 0.678384
-0.00622873 0.0603676 0.610577
0.0707391 0.00123747 0.48461
-0.168287 -0.0201261 0.561573
0.0785856 -0.0109899 0.648197
0.0203194 -0.0425446 0.12119
-0.0233216 0.0596148 0.523259
0.0718592 -0.0236805 0.494168
0.0679234 -0.0168412 0.461767
-0.10212 -0.0255815 0.116662
-0.269526 -0.096147 0.533866
0.0194764 -0.0819244 0.420013
-0.0242888 -0.0818237 0.390749
0.0284698 0.0628398 0.577891
-0.0784606 -0.00128247 0.626988
-0.032601 0.00102396 0.294971
0.0640401 -0.032675 0.853517
0.00150206 -0.0823742 0.632823
-0.391464 -0.0196338 0.399997
-0.145145 -0.0260946 0.104745
-0.0509479 0.0518392 0.458085
0.0246928 0.0479605 0.734578
0.283134 -0.0485545 0.556841
-0.256196 -0.0364767 0.512527
0.157385 -0.024053 0.0755199
-0.211931 -0.045401 0.580036
0.151483 -0.0202505 0.544888
-0.0784606 -0.000209434 0.695654
-0.107774 -0.0243519 0.0899786
-0.123868 -0.0244917 0.0847326
0.0128915 -0.0816419 0.337929
-0.039771 -0.0483219 0.354076
0.268549 -0.05045 0.599639
0.0543837 0.0022111 0.769921
0.0132041 -0.0817484 0.368874
0.0914584 -0.045401 0.593734
-0.270331 -0.0723166 0.597749
-0.0248531 0.0210268 0.253604
-0.230945 -0.0167355 0.484444
-0.233333 -0.0258204 0.0866316
0.0784994 0.0427476 0.69861
0.213056 -0.0223629 0.517834
-0.116438 -0.0366691 0.665881
-0.229999 -0.045401 0.464571
0.067184 -0.0238162 0.741446
-0.0784606 0.0456051 0.658536
-0.0693901 -0.0805962 0.646534
-0.0584509 -0.0753084 0.469702
-0.0995157 -0.0060492 0.10631
-0.123004 -0.0058627 0.109728
-0.0784606 0.0214835 0.587855
0.0697654 -0.0713394 0.47807
-0.00373094 -0.0691885 0.750925
-0.108386 -0.0415097 0.672269
-0.0982011 -0.0269917 0.146151
0.0965356 -0.0266978 0.640758
-0.237934 -0.0227613 0.542102
0.0815831 -0.0305253 0.684692
-0.0692288 0.0312321 0.504205
0.145735 -0.045401 0.541732
-0.0576354 -0.0485992 0.750423
0.0159057 0.0546201 0.481394
-0.247999 -0.0752314 0.594879
0.0180659 0.0509751 0.189526
-0.0284066 -0.0387143 0.798021
-7.44015e-05 0.0348394 0.315596
0.126213 -0.00582087 0.119071
-0.125215 -0.0196604 0.58109
0.163673 -0.0269869 0.123505
-0.0784606 -0.060848 0.671042
-0.028216 -0.0610817 0.269957
0.0634307 -0.0788806 0.724357
0.0507818 -0.0582407 0.313249
-0.000886638 0.0605174 0.608596
0.263119 -0.0378628 0.560281
0.056423 -0.067836 0.748205
0.0785856 -0.00142106 0.657357
-0.108995 -0.0188922 0.581339
-0.0321987 0.0557556 0.490911
0.142544 -0.0306967 0.641379
0.0785856 0.0318457 0.612862
-0.000691961 0.0345398 0.313088
0.140573 -0.00575177 0.117555
0.0148727 0.112388 0.149573
-0.266499 -0.0952383 0.467808
0.0971947 -0.00600515 0.118479
-0.241492 -0.0408 0.598064
-0.029261 -0.0141072 0.245874
0.0135012 0.0652213 0.203101
0.0205769 -0.0358025 0.828393
-0.226643 -0.021851 0.0900404
-0.348593 -0.0276304 0.393341
0.336298 -0.045401 0.471266
0.2146 -0.00569545 0.0851987
0.210029 -0.0214367 0.513988
-0.312497 -0.021791 0.414373
-0.321601 -0.0274216 0.503148
0.0785856 0.0348139 0.672547
-0.0376517 -0.0823742 0.645519
-0.0769234 -0.0576202 0.542926
-0.308362 -0.0868075 0.598719
-0.120142 -0.022093 0.613188
0.222962 -0.045401 0.585159
0.0173036 0.0741247 0.18881
0.25831 -0.112647 0.602831
-0.150401 -0.045401 0.569612
-0.0491653 0.0267022 0.379145
0.224226 -0.0233632 0.0326071
0.26276 -0.0200491 0.0173451
0.0600756 -0.0721776 0.40665
-0.317266 -0.0358801 0.506586
0.0865102 -0.045401 0.602855
0.0722228 -0.0618457 0.49788
-0.0325425 -0.0274028 0.846629
0.0151332 0.11604 0.161653
0.0100994 -0.053888 0.197606
-0.0328441 -0.0788062 0.724561
0.0281495 0.024157 0.221699
-0.217541 -0.0251446 0.573768
0.242015 -0.00600821 0.0512421
0.00794599 0.029851 0.228888
-0.0189963 0.00916341 0.13455
-0.0493936 -0.0231358 0.0960991
0.213188 -0.0337308 0.595462
0.069535 0.0398286 0.472911
0.222657 -0.045401 0.491171
-0.0391348 0.0138218 0.78055
-0.0579998 -0.00650989 0.0887385
-0.115175 -0.0180423 0.529347
-0.0642931 0.057012 0.654942
-0.0784606 0.0102584 0.572836
0.273803 -0.0449629 0.561325
-0.0143367 -0.0139712 0.850952
0.226482 -0.0301788 0.57525
-0.00313802 0.0189838 0.148923
0.110722 -0.045401 0.648203
-0.0703666 0.039098 0.510055
0.0785856 0.0334152 0.610545
0.220058 -0.045401 0.514926
0.282949 -0.0624718 0.590341
-0.144708 -0.0255322 0.0940041
-0.264815 -0.08656 0.569425
0.0638382 0.011226 0.428902
-0.189013 -0.045401 0.496804
0.0543066 -0.0212305 0.863153
-0.394142 -0.0350447 0.443971
0.0621416 -0.0242445 0.413209
-0.0218579 -0.0519751 0.214333
-0.0784606 0.0298844 0.674953
0.247529 -0.0410138 0.497076
-0.0261627 0.0487452 0.432157
-0.0570403 -0.01051 0.441895
0.000468744 0.0461106 0.129102
0.193697 -0.0312474 0.490967
-0.259273 -0.0364767 0.476741
-0.0336366 -0.0471071 0.314028
0.0324869 0.0357368 0.323269
-0.0280004 -0.00248455 0.237299
-0.0622296 -0.0569087 0.742942
0.256336 -0.0272153 0.081026
0.248555 -0.0415675 0.462611
0.0723431 -0.0471109 0.497861
0.0151123 0.111269 0.156134
-0.0767589 0.0354798 0.542517
0.229806 -0.0115036 0.59625
-0.0004699 0.0432528 0.160867
0.173839 -0.045401 0.520818
0.157923 -0.024088 0.573191
-0.325238 -0.045401 0.42243
-0.202185 -0.045401 0.552082
0.0446347 0.0451452 0.401977
-0.186848 -0.045401 0.503136
0.0887602 -0.00620861 0.106039
-0.0280025 -0.0820753 0.463881
-0.328354 -0.045401 0.461372
-0.202613 -0.0341903 0.597528
0.239929 -0.00619278 0.0394478
-0.174034 -0.045401 0.588056
-0.313529 -0.0300193 0.50955
0.01948 0.0356704 0.77705
-0.022623 0.0434061 0.750317
0.233085 -0.0687995 0.532138
0.291889 -0.0663603 0.594274
0.0452462 -0.0331921 0.227887
-0.0818575 -0.0409472 0.548761
0.027685 -0.0818395 0.395365
0.0180062 0.056694 0.659147
0.0706314 -0.0773848 0.533835
-0.233988 -0.0479292 0.507854
0.0328545 -0.0801883 0.720772
0.387693 -0.0281308 0.390232
0.0225217 0.0610067 0.534925
0.311309 -0.044476 0.521797
0.0112524 0.0317881 0.790466
0.0460958 -0.017819 0.240454
-0.335242 -0.0356907 0.40112
-0.393869 -0.015127 0.36696
-0.285472 -0.0524699 0.490134
-0.191776 -0.00582651 0.0774787
0.0158584 0.0754276 0.141449
0.374977 -0.045401 0.447757
-0.0784606 0.0178224 0.603794
-0.353501 -0.0158326 0.402218
0.0546604 0.0388297 0.390713
0.0287938 0.0560184 0.493115
0.155697 -0.0251187 0.0965502
-0.251344 -0.0976136 0.476411
0.0373765 -0.0818862 0.408928
-0.0784606 0.0116216 0.663619
-0.0784606 -0.00413093 0.668628
0.0307858 -0.0578736 0.781941
-0.0242038 -0.0823742 0.578064
0.040475 -0.0247075 0.139868
0.188932 -0.0113438 0.119743
-0.00890247 0.0319333 0.291485
0.0772562 -0.0609221 0.539696
-0.186402 -0.045401 0.51421
0.0493367 -0.0817742 0.397354
0.150687 -0.0182508 0.530807
-0.0303363 -0.0538603 0.262623
0.0033146 0.103038 0.105518
0.0628333 -0.0233024 0.419079
0.0324864 -0.0816066 0.327674
-0.207415 -0.0156041 0.484601
0.133502 -0.045401 0.591295
0.0622072 -0.0567484 0.414672
0.0503919 0.000879657 0.308111
-0.0177554 -0.082162 0.489075
0.0429818 0.0522257 0.461407
0.101482 -0.0352109 0.678988
0.0704381 -0.0494363 0.483053
-0.224166 -0.0203882 0.532153
-0.384729 -0.0213333 0.416385
-0.187046 -0.045401 0.574932
0.0245082 -0.0691862 0.269137
0.0785856 0.0369193 0.631414
-0.0915176 -0.0241109 0.0934591
0.0676047 -0.0759678 0.497981
0.0229482 -0.0819983 0.441499
0.0443686 0.0476182 0.422705
0.255514 -0.0576159 0.44601
0.201276 -0.024146 0.541838
0.0475351 -0.0584182 0.268028
-0.000667653 0.0273333 0.147211
0.138639 -0.00622493 0.0819887
0.158835 -0.0290352 0.615107
-0.25183 -0.0163576 0.0521561
-0.0627805 0.0607671 0.605295
-0.0627297 -0.0783487 0.506254
0.0785856 0.0402962 0.649799
-0.111394 -0.045401 0.613508
0.0391177 0.0319913 0.786125
-0.394142 -0.0428839 0.373801
0.0646385 -0.0167701 0.43479
-0.0784606 0.0438977 0.592144
-0.272549 -0.0735286 0.573912
-0.142147 -0.00609465 0.0819605
0.329246 -0.0248441 0.467023
-0.0404333 0.0633885 0.569629
-0.0449548 -0.0373076 0.380425
0.170449 -0.0266153 0.113967
0.0825849 -0.0245433 0.118078
0.111804 -0.0291689 0.650812
0.0606957 -0.0185342 0.18356
-0.0262202 -0.0336956 0.198512
-0.0385343 0.0279935 0.326283
-0.000516804 -0.0696748 0.749591
-0.0305844 -0.0154405 0.266486
-0.125627 -0.045401 0.645155
-0.175366 -0.045401 0.520823
-0.0453069 -0.0353586 0.382215
0.0738565 0.0454906 0.511466
0.0286247 0.00513284 0.0963224
0.394142 -0.0329339 0.431603
0.0791046 -0.0301833 0.550471
-0.0161589 -0.0822066 0.502038
-0.00575566 -0.0464329 0.148265
0.235426 -0.0264934 0.536954
-0.239697 -0.0952038 0.594051
0.0785856 0.0302024 0.646817
0.265743 -0.0651047 0.618356
-0.24668 -0.0169411 0.47774
-0.0653109 -0.0823742 0.693067
0.00324994 0.101587 0.105834
0.0486227 -0.0058055 0.159072
-0.058791 -0.0304907 0.450757
-0.136106 -0.045401 0.544071
-0.00806256 0.0575387 0.647979
0.292833 -0.0794285 0.483493
-0.061567 0.0605559 0.531147
-0.175511 -0.0260849 0.0890843
-0.174527 -0.0450161 0.494765
0.170993 -0.00645072 0.0521362
0.152729 -0.045401 0.535002
-0.031959 -0.0710864 0.319397
0.059987 -0.00634969 0.108861
-0.24341 -0.045401 0.525962
-0.233649 -0.085527 0.54897
-0.234385 -0.0254934 0.592984
-0.169647 -0.0236661 0.497608
0.0632931 -0.0771535 0.472759
0.188129 -0.0227311 0.0403844
-0.0717822 0.00759102 0.516983
0.211808 -0.045401 0.554527
-0.184672 -0.0253184 0.0703511
-0.0121506 -0.0582883 0.780804
-0.128686 -0.00552417 0.132921
0.246767 -0.045401 0.542545
0.0493718 -0.00569524 0.167722
0.0212523 -0.081743 0.36732
0.279994 -0.0934066 0.470133
-0.0784606 -0.0148923 0.663916
-0.0692712 -0.0807151 0.575014
0.0647655 0.011179 0.436492
0.0548059 -0.0270265 0.17851
-0.0272661 -0.0820148 0.446289
-0.123203 -0.00609442 0.0911478
-0.239042 -0.0392482 0.457174
0.00995049 -0.0816918 0.352439
-0.0255093 0.0629256 0.556591
-0.388841 -0.0364264 0.449813
0.117879 -0.045401 0.651679
-0.0777625 -0.0722238 0.586517
-0.250352 -0.0179281 0.487424
0.0199061 0.0316362 0.288747
0.0761322 0.024888 0.530682
-0.0819532 -0.045401 0.606904
-0.345352 -0.0262918 0.479844
0.0775018 0.0409986 0.718494
-0.0784606 -0.0234991 0.658706
0.0280355 -0.074058 0.291916
0.102486 -0.045401 0.56356
0.186763 -0.0154813 0.498215
-0.234028 -0.0219824 0.540138
-0.153125 -0.0251687 0.507235
-0.338103 -0.0256316 0.481303
-0.237575 -0.0495957 0.556023
-0.377798 -0.0436622 0.458573
-0.0498867 0.0180989 0.763042
-0.00092309 -0.0820571 0.458592
0.178459 -0.045401 0.518642
0.1135 -0.0266153 0.142399
0.3618 -0.0312338 0.483873
0.267381 -0.00909588 0.0448363
0.211508 -0.0130469 0.108507
0.231572 -0.0301644 0.571386
0.024357 0.00611286 0.0943697
0.137207 -0.045401 0.589498
0.0779268 -0.0266389 0.160549
0.036029 0.0633559 0.568713
-0.0383454 -0.0314329 0.346829
-0.234379 -0.045401 0.560192
0.233388 -0.0641668 0.481727
0.0141893 -0.0441195 0.132156
-0.211499 -0.00607082 0.0486028
-0.0305611 -0.0065066 0.102288
-0.0782208 0.0436494 0.557948
0.0891416 -0.0152878 0.169404
0.0785856 0.00239476 0.570121
-0.0666724 -0.00650159 0.0852195
0.107883 -0.0255846 0.622839
-0.327704 -0.0174231 0.436203
0.153333 -0.0275419 0.606295
0.025634 -0.0821368 0.481744
-0.0695805 -0.0652834 0.730971
0.00930665 0.0991842 0.17834
0.0785856 -0.0713442 0.684081
0.107506 -0.0192147 0.568283
-0.179638 -0.0173586 0.521805
-0.0107317 0.0482289 0.427824
-0.0484742 -0.0146949 0.0893608
0.024938 0.0180446 0.13571
0.0446354 -0.0748244 0.735475
0.0704179 -0.0450625 0.480675
0.233528 -0.0713138 0.4887
0.0453002 -0.0467603 0.227869
0.0164458 0.0428496 0.117022
-0.0332123 0.0595044 0.522333
-0.308492 -0.0241571 0.495208
0.0661891 -0.0258682 0.151031
-0.0319947 0.0605791 0.60778
-0.217548 -0.0168786 0.493965
0.267202 -0.00971718 0.0391214
-0.0186092 -0.0364783 0.133349
-0.0170819 -0.0821663 0.490332
-0.141882 -0.045401 0.628434
0.0291544 0.0336957 0.306232
0.287325 -0.0288201 0.518852
0.185978 -0.00635222 0.0523016
0.0685901 -0.0257801 0.860126
-0.252746 -0.0169326 0.474103
0.236963 -0.0174619 0.0147354
0.0625015 -0.0698312 0.417117
-0.226393 -0.123307 0.598688
-0.0610323 -0.0056854 0.154678
0.199018 -0.0295369 0.589903
0.198226 -0.0289806 0.585696
-0.00661198 0.0532127 0.710338
0.00397463 0.0305002 0.279277
-0.292786 -0.017397 0.456336
0.0938308 -0.0250825 0.123573
0.122116 -0.013858 0.152994
0.165808 -0.0134926 0.0462315
-0.0675355 -0.0157918 0.171105
0.10776 -0.0208402 0.582089
0.158258 -0.0235879 0.0661084
-0.226243 -0.00618045 0.0326425
-0.26054 -0.0464518 0.603248
-0.0674646 -0.0267809 0.157702
-0.00113824 0.0437904 0.390621
-0.189525 -0.00635473 0.0377658
0.330273 -0.0183152 0.437747
-0.270008 -0.0387133 0.47598
-0.0515956 0.022948 0.400463
-0.239596 -0.0825715 0.457677
0.041402 -0.0823742 0.55632
0.322533 -0.045401 0.499017
0.134209 -0.0115226 0.0602183
-0.04998 0.0517902 0.721344
-0.076618 0.0452135 0.691864
0.0776725 -0.0244161 0.174092
-0.0987717 -0.0401938 0.538905
0.0559996 -0.0404257 0.845069
0.25296 -0.045401 0.487314
-0.0611928 0.0589366 0.629497
0.284865 -0.0659425 0.584103
-0.206472 -0.0361241 0.594468
0.0322221 -0.015508 0.0990399
0.0346132 0.00916524 0.121362
0.00133555 -0.0823742 0.612774
-0.00337537 0.0496833 0.440015
-0.3774 -0.02486 0.445119
0.141335 -0.045401 0.55361
0.11087 -0.0236549 0.0883439
-0.284809 -0.045401 0.479965
-0.224685 -0.0259627 0.573418
0.119987 -0.045401 0.637661
-0.0687223 0.013678 0.501481
-0.0117236 0.0246808 0.229068
0.0285093 -0.0797151 0.318367
0.0500589 -0.0265253 0.170908
-0.237789 -0.0244425 0.0287003
0.137038 -0.026563 0.520388
0.287153 -0.0310336 0.538032
0.0740841 -0.0373636 0.51106
0.199847 -0.0413465 0.487774
-0.384762 -0.045401 0.426053
-0.317414 -0.045401 0.483206
0.0636182 -0.0710769 0.426395
0.357553 -0.017218 0.407631
0.218066 -0.0266491 0.0907563
0.337293 -0.0375032 0.416403
-0.0475072 0.0121734 0.766916
-0.0316565 0.0559887 0.492866
0.23504 -0.0560646 0.545263
-0.0692728 -0.0807135 0.629193
-0.0170207 -0.0823742 0.579395
-0.269738 -0.0250093 0.531485
0.0446313 -0.0472242 0.21745
0.212071 -0.0263199 0.55262
0.184224 -0.045401 0.542047
-0.279321 -0.044588 0.48087
-0.00238 0.0204917 0.170137
-0.173983 -0.0187912 0.542262
-0.218881 -0.0215268 0.548874
0.0343859 -0.0822243 0.507175
-0.0448799 0.00702146 0.372914
-0.262326 -0.0806038 0.595931
-0.0784606 0.0411515 0.621504
0.0785856 0.00984812 0.575855
-0.0328649 -0.0542749 0.302007
0.0528348 -0.02382 0.117185
-0.207438 -0.00552033 0.0930938
-0.0303629 -0.0555315 0.263037
0.255626 -0.12159 0.600573
-0.0284274 -0.0364704 0.232891
0.131457 -0.0189704 0.548583
0.0603045 -0.0496177 0.398866
0.0591629 -0.023814 0.114274
-0.244004 -0.0762128 0.593989
0.0466684 -0.060195 0.770302
0.225055 -0.0216222 0.474684
0.169803 -0.0371383 0.628914
0.0269052 -0.0821345 0.481071
0.109532 -0.0227395 0.597136
-0.0784606 -0.0588652 0.624163
0.0581936 -0.0524592 0.381329
-0.0540992 -0.0821564 0.700506
-0.241383 -0.0414818 0.45581
0.0715686 -0.0785427 0.606926
-0.0334969 0.0215483 0.285877
0.0222425 -0.00257787 0.843553
-0.240517 -0.045401 0.558814
0.394142 -0.0395886 0.441982
-0.336496 -0.0230538 0.465824
-0.0227467 -0.00602541 0.145411
-0.029766 -0.0207167 0.25374
0.0745768 -0.0337713 0.515589
-0.0671695 0.000757707 0.734897
-0.0323791 0.0567222 0.658774
-0.00807663 0.00559678 0.826998
-0.326319 -0.045401 0.475286
-0.118439 -0.0240693 0.637857
-0.00205546 0.0569402 0.655891
-0.0602901 -0.0823131 0.53297
-0.00185933 -0.0536547 0.196515
0.109325 -0.0286258 0.647958
-0.252291 -0.0613023 0.617177
0.064836 -0.0103472 0.435334
-0.180545 -0.0231986 0.0337648
0.0280905 0.0385175 0.767211
-0.0569762 0.0540871 0.693613
-0.0324672 -0.0220158 0.0971081
-0.059703 -0.0473129 0.747056
0.213427 -0.00578577 0.103635
0.281899 -0.0419262 0.531642
-0.198923 -0.0153077 0.485999
-0.0467993 -0.064292 0.389802
0.0785856 -0.0675983 0.555524
0.120016 -0.037859 0.665533
0.0170733 0.0236086 0.113143
0.0538089 -0.00730826 0.0991958
0.118278 -0.00630435 0.0855133
0.243423 -0.0782328 0.456667
0.248232 -0.045401 0.532416
-0.0244797 0.0570627 0.501867
0.364931 -0.0295916 0.402052
-0.327074 -0.045401 0.458419
0.266835 -0.0448944 0.554089
0.0323082 -0.0376772 0.122598
0.0453257 0.0366909 0.340835
-0.363505 -0.0164337 0.401376
-0.0768032 -0.00587249 0.13175
0.0518484 0.0304568 0.342126
0.0776709 0.0517483 0.593198
-0.241305 -0.0414112 0.479184
0.0663831 0.0623286 0.58465
0.270306 -0.0421135 0.461461
0.201798 -0.00741101 0.0336223
0.0119892 0.0628614 0.577605
-0.0150117 0.0555761 0.489408
0.0517583 0.0607918 0.604969
0.10225 -0.0275607 0.643988
-0.0196797 0.0311605 0.284759
0.0495327 -0.0436113 0.293861
-0.132236 -0.0150098 0.521286
0.0351018 -0.0804608 0.321854
-0.204772 -0.0173242 0.506747
-0.27191 -0.088889 0.460201
-0.218509 -0.0236568 0.0237307
0.25892 -0.045401 0.524358
0.294302 -0.0742058 0.503235
-0.00407919 -0.0816172 0.330742
0.0384422 -0.0795021 0.317371
-0.0362272 0.0530725 0.713235
0.275511 -0.0909047 0.557957
-0.361656 -0.045401 0.395481
0.283418 -0.0266588 0.503117
0.0318843 -0.0823608 0.546836
0.0541901 -0.0821656 0.490117
-0.0257785 0.0421525 0.376979
0.120586 -0.00756523 0.0693853
0.00455107 -0.0653822 0.761358
0.0387504 -0.0508911 0.209346
-0.0784606 0.027138 0.618142
0.0508548 -0.0820608 0.459662
0.234343 -0.0587495 0.481904
-0.0646053 0.0202605 0.48061
-0.019749 0.0612209 0.536721
0.240271 -0.0471028 0.521438
0.269954 -0.0165009 0.0515858
-0.0112401 0.0379403 0.341675
0.0405207 0.00897247 0.17816
-0.175315 -0.045401 0.520737
-0.00139744 0.0492835 0.730006
0.062304 -0.0135851 0.752302
0.287163 -0.045401 0.529494
0.231432 -0.0410195 0.471373
-0.0423585 -0.0227916 0.183932
0.365784 -0.045401 0.409336
-0.0203018 -0.0586838 0.232848
0.26087 -0.045401 0.500057
0.252808 -0.0572295 0.44601
0.257084 -0.0245571 0.0366353
0.0137901 -0.0821949 0.498645
-0.0276976 -0.0823742 0.64076
0.120066 -0.045401 0.55657
0.0785856 -0.0521709 0.579003
0.0783255 -0.0392416 0.703863
-0.060315 -0.0487583 0.852799
0.156936 -0.045401 0.603249
-0.0241777 -0.0819633 0.704496
0.0785472 -0.0629957 0.697164
-0.25126 -0.0731571 0.573912
0.237428 -0.0247313 0.0493336
0.0260191 0.0565558 0.660973
-0.0784606 0.0210873 0.62613
0.017454 0.033972 0.308325
0.232839 -0.0674056 0.477024
-0.030078 -0.0208518 0.2586
-0.0447239 -0.0335222 0.379252
0.0785856 0.0406477 0.637598
0.193349 -0.00581858 0.0858111
0.116335 -0.0273164 0.631537
-0.346326 -0.045401 0.412278
-0.017311 -0.00601934 0.81609
-0.282265 -0.0876252 0.479674
0.00748901 -0.022315 0.84837
0.0143897 0.0901624 0.107273
-0.281913 -0.0575404 0.460344
-0.0126529 -0.081922 0.41933
-0.0784606 -0.0710179 0.552585
-0.0393669 0.00506374 0.337042
-0.0671807 0.0228667 0.493723
-0.224416 -0.0155725 0.474317
0.0294041 -0.0726423 0.741457
-0.0260558 -0.0368205 0.195951
0.244793 -0.025412 0.599043
-0.038853 -0.0387102 0.349409
0.361977 -0.045401 0.479203
0.053026 -0.0758627 0.379477
-0.226105 -0.0171925 0.0903144
-0.0784606 -0.0707434 0.621119
0.188373 -0.0270194 0.493732
0.158673 -0.023516 0.0645308
0.00019102 0.04239 0.134681
0.378959 -0.0428596 0.396192
0.0182992 -0.0822052 0.501624
0.253289 -0.045401 0.556859
-0.0285287 -0.0545251 0.247513
0.0302747 -0.0823742 0.658701
-0.310216 -0.0239309 0.49237
0.00263404 0.00463982 0.847988
0.281839 -0.045401 0.451578
-0.0287398 -0.0294406 0.237757
-0.387928 -0.045401 0.448104
-0.00400439 0.0619914 0.589107
-0.226633 -0.0264185 0.0700658
0.259768 -0.095403 0.603506
-0.0770715 -0.0430314 0.543679
0.272921 -0.045401 0.488582
0.0168935 0.0441382 0.135694
0.0376996 0.0239967 0.25255
-0.236034 -0.0172378 0.00815971
-0.182856 -0.0357294 0.489912
-0.37759 -0.045401 0.384606
-0.0784606 -0.0455922 0.564443
0.0379303 -0.0501768 0.203827
0.0519145 -0.0105042 0.18793
-0.245734 -0.0391129 0.477455
-0.00938146 0.0491945 0.435918
-0.0132336 -0.0816362 0.336265
-0.0489898 -0.0547182 0.859919
0.0261984 0.0325453 0.296658
-0.0625102 0.0583478 0.637281
0.0511553 -0.0793029 0.723199
-0.186272 -0.0248741 0.0614902
-0.0419906 0.0384051 0.375071
0.180967 -0.0306695 0.612914
0.394142 -0.0342506 0.455014
-0.227916 -0.0625858 0.522779
0.0402196 -0.0060933 0.139715
0.377198 -0.0225879 0.395682
-0.0484642 -0.027248 0.176488
0.0197736 -0.0818036 0.384912
-0.0401788 0.0129094 0.77885
0.0166037 0.042947 0.123098
0.0545754 -0.0400493 0.350928
0.0381633 -0.0823742 0.588461
0.0176407 0.0218952 0.132027
-0.0897161 -0.0258633 0.676085
-0.00282787 -0.0823742 0.551623
-0.0501086 -0.0822754 0.522022
0.0238894 -0.0168045 0.851935
-0.133854 -0.00639299 0.0615822
-0.0899838 -0.045401 0.562539
-0.26696 -0.0671325 0.613094
-0.10844 -0.045401 0.618346
0.0123063 -0.0823742 0.671064
-0.00566164 -0.0823742 0.693023
0.0332334 -0.0591197 0.222068
-0.131304 -0.0352141 0.51995
0.105826 -0.0191872 0.56928
0.0114435 0.0201053 0.853907
-0.0777513 -0.021273 0.547135
0.0060718 0.0713843 0.85548
0.0160357 0.0591119 0.124822
0.378403 -0.0310075 0.395056
-0.24734 -0.0187159 0.498616
-0.0525709 0.0550015 0.681524
0.0974055 -0.045401 0.563856
0.00714882 0.0602858 0.528883
-0.263205 -0.0982083 0.538677
0.201636 -0.0270505 0.566575
0.0785856 0.00040742 0.691729
-0.0525087 -0.00630898 0.107822
-0.0433379 -0.0823059 0.530895
-0.112857 -0.00568209 0.128817
0.178013 -0.045401 0.503345
0.0421897 -0.00182148 0.185996
0.328306 -0.0190542 0.442022
0.0984856 -0.0233634 0.0881581
-0.0444738 -0.0120101 0.378006
0.0461239 -0.0823742 0.558059
-0.0698117 0.0604085 0.557035
0.126911 -0.0217866 0.576165
-0.250254 -0.0260468 0.051867
-0.249078 -0.00578416 0.0515472
0.036994 -0.0331325 0.12329
0.245596 -0.0340335 0.464018
-0.133379 -0.00593854 0.098598
0.0539709 -0.0818639 0.70655
0.0564834 -0.0529211 0.76525
0.18536 -0.045401 0.541366
0.262001 -0.0364767 0.501757
-0.109735 -0.0384432 0.532518
0.0138511 -0.0554683 0.204995
0.0577848 0.0343917 0.385025
0.061618 -0.0823742 0.603176
-0.114507 -0.00647287 0.0644159
-0.191709 -0.045401 0.590972
-0.145536 -0.045401 0.565252
0.0553265 -0.00700163 0.767824
0.0164228 0.0597429 0.618836
0.0175641 0.0160583 0.10777
0.206866 -0.0233546 0.0401087
-0.0344317 -0.00596746 0.144493
0.00574073 0.0419473 0.755358
-0.253776 -0.0185396 0.0575779
-0.110544 -0.0266723 0.668565
-0.353283 -0.045401 0.456817
-0.0081577 0.027272 0.25227
0.0194221 0.0294537 0.209785
-0.0586287 -0.0579425 0.449932
-0.00754333 0.0262936 0.809454
0.141749 -0.045401 0.589689
0.254004 -0.0343704 0.566033
0.255277 -0.00581918 0.0584063
-0.0902379 -0.0184957 0.587518
0.00953084 0.0342369 0.310545
0.0690584 -0.0759821 0.509825
-0.0784606 0.00353496 0.620141
-0.010416 0.0627464 0.551543
-0.271898 -0.0394009 0.474016
0.0207524 -0.041481 0.823239
0.0495302 0.0528267 0.466362
-0.341467 -0.045401 0.423935
-0.217474 -0.0193051 0.523078
0.119625 -0.0384569 0.52943
0.0546655 -0.0318634 0.351666
0.0415252 0.00595489 0.189851
0.12346 -0.0262131 0.130767
-0.0726847 -0.0773015 0.659561
-0.002217 0.0365474 0.329911
-0.0932996 -0.0156648 0.551821
0.0316784 0.0238259 0.219293
0.0751877 -0.00625907 0.108687
0.0050734 0.0301869 0.849479
-0.248021 -0.0724486 0.593928
-0.0757063 0.0542917 0.553491
0.0451828 0.0157127 0.252282
0.350778 -0.0336251 0.494173
-0.103828 -0.027453 0.152278
-0.195965 -0.0159355 0.495243
0.0198285 0.0173925 0.82637
0.347115 -0.0288749 0.475481
0.0338157 0.0213817 0.216752
0.0170346 0.0175308 0.826244
0.0620504 -0.00138006 0.413245
-0.163309 -0.0252869 0.501301
-0.0681596 -0.0818267 0.630993
-0.192952 -0.045401 0.52112
-0.281668 -0.0233005 0.510917
0.140861 -0.045401 0.59809
-0.100468 -0.00802667 0.154326
0.017277 0.0599607 0.615957
-0.062845 -0.0821124 0.701415
0.0291117 0.0397364 0.356641
-0.240262 -0.0861863 0.462063
-0.0780348 0.0392215 0.549077
-0.302921 -0.0783569 0.593557
-0.0153376 0.0117291 0.125377
-0.358838 -0.0404218 0.473612
0.125493 -0.026065 0.614036
0.238603 -0.045401 0.548061
-0.0172938 0.0176344 0.191078
0.0480076 0.0444366 0.396038
0.110701 -0.0210973 0.534064
0.0905374 -0.0164328 0.556804
-0.0460009 -0.0308841 0.385743
-0.269853 -0.0386566 0.529286
0.0591806 -0.0210208 0.859688
-0.186161 -0.018558 0.532372
-0.324327 -0.015687 0.417472
-0.0259848 -0.00607785 0.139556
0.0565554 -0.0205961 0.367144
0.246238 -0.0631664 0.5978
0.270795 -0.0708443 0.44601
-0.0746693 -0.0212104 0.0766823
-0.0629641 -0.000419583 0.472092
0.00199736 -0.000816319 0.0925189
-0.03116 -0.00640877 0.109997
-0.0720213 -0.00785946 0.518068
-0.0391101 -0.0432918 0.780591
-0.241926 -0.0171467 0.482972
0.180308 -0.045401 0.576372
-0.181242 -0.00610331 0.0615147
0.0171216 0.0558712 0.863796
0.286042 -0.0454025 0.475525
0.0153853 0.0892299 0.142521
0.236465 -0.0535971 0.513178
-0.0784606 0.036082 0.570484
0.211744 -0.045401 0.493224
-0.0684094 -0.068253 0.499649
0.15213 -0.045401 0.611793
-0.0202988 -0.00215911 0.113899
0.0025374 0.118408 0.14783
0.0164746 0.0307515 0.863006
-0.0780412 -0.0564851 0.708678
-0.158503 -0.0266301 0.108379
-0.35917 -0.045401 0.47311
0.0603062 0.0324217 0.755734
-0.244015 -0.045401 0.535369
-0.252312 -0.00564016 0.060996
0.0148231 0.0618884 0.542316
-0.106019 -0.0245435 0.0944414
-0.0964953 -0.0427477 0.540232
0.283006 -0.0758109 0.450931
-0.144085 -0.0234758 0.615803
-0.392233 -0.0160398 0.37603
0.0143279 -0.0387565 0.825712
0.0437973 -0.0248269 0.190533
-0.086758 -0.0200752 0.608468
0.0218564 0.0536517 0.701265
-0.0706171 -0.0233629 0.729283
-0.0497295 -0.0823742 0.550818
0.0621185 -0.0645395 0.413935
0.219223 -0.0166111 0.487965
-0.13427 -0.0187615 0.565046
0.143141 -0.0281627 0.619127
0.00254077 0.105242 0.132269
-0.26961 -0.0213614 0.507879
0.219044 -0.045401 0.556159
0.0332336 0.0572946 0.651206
0.169597 -0.045401 0.617086
0.0457315 -0.0817499 0.369323
-0.0387613 -0.0296637 0.781159
-0.21026 -0.045401 0.512869
0.00417344 -0.0821599 0.488455
0.0156058 0.0730674 0.128584
-0.256105 -0.00776852 0.0750296
0.060557 -0.0823742 0.645161
0.00317314 0.118203 0.127736
-0.0355141 -0.0441996 0.332437
0.0785776 -0.0480206 0.55041
0.015737 -0.0781321 0.726408
-0.394142 -0.0251124 0.394753
0.0401334 -0.0567465 0.235374
0.0983625 -0.0242806 0.163932
0.0899471 -0.045401 0.651615
0.291918 -0.0626879 0.59732
-0.0287213 0.04052 0.760291
-0.000438198 0.0452935 0.162377
0.0272826 0.0522982 0.461933
0.230706 -0.0186165 0.490825
-0.0310819 -0.0657276 0.296974
-0.230484 -0.0806893 0.485835
0.0762582 -0.0738531 0.671964
-0.379368 -0.0269257 0.456984
-0.0139691 0.000569193 0.0980332
-0.0545875 -0.0617172 0.42939
0.194092 -0.0230286 0.0394266
-0.0461188 -0.00800667 0.769177
-0.0724069 -0.0707576 0.519969
-0.0784606 -0.0611775 0.621654
0.233794 -0.061866 0.524691
0.0260014 -0.081709 0.357433
-0.394142 -0.0316247 0.403224
-0.0724226 -0.00579087 0.520125
0.0202007 -0.0818626 0.402066
0.295057 -0.0647621 0.534457
-0.289509 -0.0687691 0.515678
0.0527304 0.0633091 0.571686
0.0581629 -0.0061117 0.129249
0.249295 -0.0527593 0.579837
-0.166791 -0.0166257 0.120535
-0.0784606 -0.0134304 0.581701
0.0435833 0.0618698 0.590715
0.306969 -0.018256 0.449599
0.169285 -0.00725863 0.127264
-0.111918 -0.0191162 0.582319
-0.0268716 -0.0443732 0.208658
0.0545942 0.0150658 0.769453
-0.091984 -0.00586149 0.125302
-0.104604 -0.045401 0.609354
-0.0117044 -0.0541979 0.199055
0.064855 -0.0246241 0.863897
-0.113248 -0.00578925 0.12036
-0.246696 -0.0184254 0.0798234
0.000388719 -0.0544748 0.20035
0.065911 -0.0690681 0.445443
0.00820357 -0.0533804 0.195233
0.00309374 -0.0339166 0.0976916
0.29391 -0.0296306 0.43893
-0.237385 -0.0799472 0.458882
-0.0816205 -0.0258183 0.680262
0.0283644 0.0561786 0.494457
-0.0542215 -0.0154299 0.427529
0.291963 -0.0537494 0.514507
-0.020686 -0.0688115 0.751958
0.33328 -0.0252187 0.466575
0.0535983 0.0547213 0.482242
-0.00790673 -0.0818822 0.407764
-0.0238513 -0.0247576 0.14048
-0.297966 -0.0202744 0.478323
-0.0195856 0.0532139 0.710313
0.0782572 0.00834634 0.70593
0.0506106 -0.0154552 0.310629
-0.069562 0.0331797 0.505915
-0.036536 -0.0440671 0.337632
0.233956 -0.0609433 0.519483
-0.00605884 -0.0818384 0.395019
0.133284 -0.00551336 0.140705
-0.078418 -0.0256849 0.130754
-0.126911 -0.045401 0.606185
-0.00427971 0.0615665 0.594725
0.0319523 -0.0542624 0.199357
0.000198067 -0.00913941 0.852277
0.0454896 -0.0324364 0.231718
0.246819 -0.00653131 0.0146338
-0.306273 -0.08037 0.596153
0.0490709 -0.0226648 0.2866
0.0785856 0.00933695 0.667138
0.0464326 -0.0294133 0.245507
0.172575 -0.045401 0.540514
0.035977 0.0282194 0.263396
0.162615 -0.00640282 0.0591382
0.0773901 0.027838 0.541221
-0.0560591 -0.0582867 0.43687
-0.150847 -0.0228738 0.508562
0.370381 -0.045401 0.475523
-0.300925 -0.045401 0.491306
0.0589602 0.0562942 0.664433
-0.360982 -0.045401 0.462745
-0.0268418 0.010274 0.242879
-0.0956023 -0.0215817 0.621362
0.188748 -0.00597639 0.0769712
0.0153243 0.111524 0.163204
-0.0402604 -0.0666062 0.356563
-0.0486933 0.0508229 0.724687
-0.0522948 -0.0243801 0.118629
-0.106415 -0.0151796 0.538366
0.0768137 -0.0470535 0.534406
-0.0296797 -0.0330731 0.252395
-0.263042 -0.0843139 0.44601
0.0160703 0.0598482 0.127175
-0.155647 -0.045401 0.558197
-0.0784606 -0.019715 0.63635
0.265257 -0.00556755 0.071333
0.252145 -0.0958125 0.523883
-0.213854 -0.0372454 0.588612
-0.3572 -0.0289936 0.474911
0.0385556 0.0619929 0.543191
-0.110658 -0.0272873 0.145567
0.385376 -0.0240999 0.434572
-0.237273 -0.0248021 0.458204
0.272707 -0.045401 0.459262
-0.0430927 0.0453337 0.403557
0.0279109 0.0249654 0.232874
-0.334822 -0.045401 0.46632
-0.0328825 -0.0160046 0.302281
-0.227382 -0.0690658 0.515066
0.241891 -0.011878 0.0125543
0.0428296 -0.0231224 0.108068
-0.0784606 0.0181207 0.611628
-0.00909751 -0.0485349 0.80754
0.0785856 -0.0671277 0.66845
0.222065 -0.0121252 0.0213298
0.153899 -0.0208295 0.0535758
-0.0678089 -0.0670239 0.496596
-0.279819 -0.0158518 0.44538
0.358176 -0.0223603 0.441051
-0.0313143 -0.0267794 0.17609
0.2939 -0.0764845 0.473621
-0.049546 0.00463869 0.763596
-0.0455684 -0.0213438 0.383545
-0.0557897 -0.00644118 0.095426
-0.0354006 0.0590706 0.518697
-0.0627719 -0.0823742 0.653745
-0.137009 -0.0244889 0.632063
-0.292827 -0.0210897 0.487698
0.196721 -0.0102647 0.0328211
0.0349196 0.0373357 0.336622
-0.00226824 0.0430396 0.384328
0.0330964 -0.028386 0.817276
-0.0466936 -0.024036 0.114775
0.044092 -0.000912127 0.220819
0.0720332 0.0438977 0.494855
-0.030147 0.00738188 0.270383
-0.129347 -0.0190892 0.57184
-0.00108939 0.0484605 0.191255
0.184569 -0.045401 0.589052
0.00323444 0.0602369 0.612304
0.0737574 -0.0266356 0.162575
-0.267022 -0.0444639 0.561093
-0.223128 -0.0246788 0.0400974
-0.149562 -0.045401 0.562442
0.25442 -0.0255907 0.0550804
-0.339334 -0.045401 0.472363
-0.362139 -0.0242969 0.453564
0.0030278 0.0595414 0.522644
0.0175873 0.0186985 0.825184
-0.137467 -0.045401 0.640334
-0.250696 -0.0567427 0.596243
-0.0880281 -0.045401 0.557466
0.0219293 -0.00389831 0.853254
0.143682 -0.0389831 0.648127
0.252834 -0.0497265 0.579414
0.0513511 0.00565087 0.315151
-0.123194 -0.045401 0.60314
0.00660487 0.00186104 0.0925189
-0.051313 -0.0823742 0.565901
-0.0784606 0.00600131 0.654736
-0.0575075 -0.0173891 0.176214
-0.102521 -0.045401 0.669137
-0.0781765 -0.0558193 0.70459
0.0100418 -0.0545912 0.200894
-0.00583406 -0.0823742 0.586183
0.0591112 -0.00800926 0.388641
-0.0608574 -0.0629198 0.46126
-0.0360394 0.0627756 0.552367
-0.0210114 0.0530459 0.713784
-0.232937 -0.0849373 0.492454
0.0115571 0.118914 0.10633
0.060629 -0.0210593 0.400997
-0.146688 -0.0242464 0.623519
-0.109862 -0.00562936 0.134406
-0.265038 -0.0549976 0.573912
-0.0251092 0.0471204 0.418574
0.0800555 -0.0259638 0.146761
0.294301 -0.0604743 0.49181
0.158827 -0.0273698 0.600777
0.0374882 0.0434786 0.388125
-0.172808 -0.045401 0.612538
0.0663999 -0.0309847 0.859729
0.0520525 -0.0550648 0.330311
-0.020935 -0.0297612 0.122931
0.0690067 0.0227472 0.472157
-0.00880002 0.0227138 0.201397
-0.0646973 0.0460086 0.481768
0.287731 -0.0306729 0.534503
0.0261087 -0.072062 0.282583
0.00364091 -0.0730822 0.287354
-0.142594 -0.045401 0.559116
-0.227775 -0.0712989 0.513282
0.0455789 0.0587154 0.51572
0.234685 -0.0778745 0.507707
-0.111169 -0.0177026 0.565821
-0.192595 -0.0389899 0.605475
0.0753737 -0.00637204 0.0998074
-0.0412595 -0.006734 0.184492
-0.0464182 -0.00759258 0.387927
0.394142 -0.0266141 0.401713
-0.0499142 -0.00491319 0.40572
0.0243186 0.0427233 0.381677
-0.213561 -0.00639885 0.0222735
0.310479 -0.0261099 0.48235
0.0938615 -0.00583623 0.133967
0.0528398 -0.0756038 0.375887
-0.0784606 -0.0470725 0.571943
-0.234824 -0.0234049 0.0112495
0.0687934 -0.0345297 0.467371
0.226566 -0.0231463 0.101014
-0.276651 -0.017727 0.469691
-0.307631 -0.0260159 0.507972
0.379586 -0.0211853 0.424751
-0.121423 -0.0183811 0.567975
0.208925 -0.0174502 0.0271464
0.0453367 -0.0817953 0.38252
-0.244175 -0.105651 0.590872
0.283692 -0.0196645 0.467898
0.0138726 -0.0823742 0.5806
0.0498425 -0.016768 0.298624
-0.385175 -0.0164363 0.384204
0.00289014 0.121762 0.140752
0.345554 -0.0256916 0.412113
0.298603 -0.045401 0.520116
-0.0214936 -0.018322 0.809278
0.187946 -0.0239176 0.0593922
-0.0420503 -0.0819793 0.43599
-0.0343577 -0.082238 0.511144
0.0112539 0.0608174 0.856565
0.0817721 -0.0263775 0.154031
-0.0332033 0.0591505 0.519368
0.245973 -0.0311513 0.463822
-0.0547606 0.0540104 0.694628
0.0764824 -0.0232799 0.532701
0.129874 -0.0247478 0.101157
-0.0919598 -0.00571045 0.137278
0.0964641 -0.0169448 0.556856
0.115756 -0.045401 0.560174
0.165312 -0.0271691 0.125703
0.0173528 -0.0793775 0.316789
-0.042911 -0.0823742 0.554233
-0.0177443 0.0629172 0.556356
0.263251 -0.0869696 0.449089
0.0762549 -0.0232884 0.530806
0.244848 -0.045401 0.477855
0.289863 -0.0592776 0.463257
0.267449 -0.00680788 0.0630064
-0.0773813 -0.072605 0.601868
-0.0144188 0.0205873 0.191696
-0.0428721 -0.00622367 0.119461
0.0542027 0.0502272 0.726745
-0.0791398 -0.015807 0.165192
0.240943 -0.0740272 0.457915
-0.0784606 0.0189857 0.574618
-0.150548 -0.00615249 0.0731647
0.33328 -0.0184107 0.436604
0.105452 -0.0216193 0.075817
-0.0258893 -0.0192252 0.193358
-0.284388 -0.0519144 0.470267
0.00408999 0.0647444 0.203449
0.175328 -0.0304689 0.61533
-0.0170542 -0.0562408 0.212376
-0.38513 -0.017593 0.391758
-0.0191524 -0.0416397 0.15999
-0.264703 -0.0590479 0.44601
0.187341 -0.045401 0.591415
-0.0100112 -0.0492383 0.167799
0.0367126 0.004924 0.103493
0.337685 -0.0154189 0.419917
-0.0784606 0.0070986 0.560557
0.303098 -0.0188602 0.454271
-0.298029 -0.0704875 0.590142
-0.0121894 -0.0822586 0.517134
-0.365042 -0.0189525 0.416527
-0.240481 -0.0111648 0.0205475
-0.00363858 -0.0601449 0.226862
-0.0866304 -0.045401 0.655061
-0.165888 -0.045401 0.521686
0.131546 -0.045401 0.570263
-0.370794 -0.0246861 0.449229
0.0654868 -0.0134293 0.440415
0.00110911 0.0594118 0.123178
0.321175 -0.0304489 0.508002
-0.00557212 0.019281 0.153104
0.25053 -0.0918547 0.589954
-0.0781173 -0.0556535 0.706378
0.268269 -0.0848527 0.594792
0.124431 -0.045401 0.654609
0.0536513 0.0342829 0.366581
-0.22982 -0.00557083 0.0777982
-0.311583 -0.045401 0.477466
0.0585672 -0.0822452 0.698672
0.0554991 0.0164746 0.34983
0.0443738 -0.0431051 0.21344
0.0345662 -0.080822 0.719035
0.144057 -0.045401 0.537731
-0.0278098 -0.0251541 0.22327
-0.0946195 -0.0197019 0.0670264
0.0697511 -0.0548542 0.477345
0.0155483 0.0996223 0.158313
-0.016113 -0.0224308 0.85681
-0.0784606 -0.0193851 0.621541
-0.287471 -0.0559335 0.497881
-0.124819 -0.0148571 0.05241
-0.0316054 -0.0582755 0.28239
-0.062582 -0.0571372 0.470027
0.246578 -0.0266917 0.530467
0.190483 -0.045401 0.581781
-0.0597545 -0.0496516 0.746972
0.273109 -0.045401 0.465828
0.0193257 0.0393886 0.353726
0.0360132 0.0606683 0.532089
-0.219447 -0.0171188 0.0937066
0.248389 -0.0644463 0.44601
-0.289712 -0.0676216 0.529715
0.0456776 -0.0104911 0.234498
-0.105195 -0.045401 0.544344
-0.0335548 -0.0729041 0.333412
0.0545861 0.0579541 0.642486
-0.0414613 -0.0149492 0.362668
-0.0491278 0.0146943 0.393203
-0.323426 -0.045401 0.459943
0.000826284 0.0614095 0.135879
-0.39193 -0.045401 0.392356
0.00778515 0.0388687 0.765997
0.101348 -0.0221112 0.59774
-0.239262 -0.0242347 0.550625
0.000659049 0.0645129 0.146338
0.322019 -0.0322532 0.424334
0.377609 -0.0300326 0.395469
0.179333 -0.0238769 0.0624074
0.259169 -0.0266313 0.520697
0.0351005 -0.00507329 0.812818
0.00833074 0.0464743 0.216769
0.00577021 0.0412955 0.369709
-0.0257664 -0.0623437 0.265676
0.0855735 -0.0371552 0.690865
0.0213818 0.036088 0.326061
-0.0841063 -0.0240904 0.54745
0.176841 -0.045401 0.562461
0.0743359 -0.027016 0.168586
0.264476 -0.078032 0.44601
0.0494821 -0.0820578 0.458801
-0.0613713 0.00972107 0.744339
-0.0532346 -0.00591334 0.139817
-0.000790237 -0.0528167 0.795803
-0.254417 -0.0386974 0.552743
0.0829042 -0.0170789 0.567973
-0.246901 -0.0269511 0.56222
-0.035623 0.0508014 0.449501
-0.0231474 -0.013136 0.101619
-0.0300726 -0.00941937 0.26004
-0.210012 -0.00624378 0.0360319
0.158453 -0.00578469 0.105932
0.242402 -0.0886802 0.549381
0.173616 -0.0222983 0.546255
-0.361508 -0.0415265 0.385816
0.0190013 -0.0488274 0.806738
0.135092 -0.0125313 0.0598278
-0.0305761 0.0488233 0.432892
0.255804 -0.0906914 0.59998
-0.061503 0.0145277 0.744125
0.0483399 -0.016486 0.275346
-0.0721919 0.0575531 0.587236
0.016853 0.0215138 0.857092
0.263409 -0.0351912 0.559873
-0.00409152 -0.0226019 0.835701
0.051579 -0.0458677 0.325666
0.0184545 -0.0402885 0.105481
0.294468 -0.0725975 0.590087
0.307655 -0.045401 0.47084
0.0630522 0.0331285 0.414298
-0.277658 -0.0630742 0.582159
0.077876 0.00692974 0.717448
-0.0278632 0.0604406 0.53018
0.0383144 -0.0618294 0.771097
-0.0699506 0.0464894 0.721402
-0.254625 -0.0130332 0.0599428
-0.0166478 0.0276176 0.255064
-0.077507 -0.00583641 0.134359
-0.171457 -0.0175596 0.528979
0.287498 -0.0672605 0.455818
-0.180708 -0.0202306 0.555587
0.288058 -0.045401 0.497919
0.0180641 0.0304021 0.16009
0.121382 -0.0248268 0.10644
-0.274513 -0.0876465 0.558197
-0.0703389 -0.0567563 0.509456
-0.143105 -0.0253567 0.091399
-0.272303 -0.0675979 0.604982
-0.0807628 -0.025592 0.127749
0.00745004 0.0574305 0.504951
0.0141708 0.0392019 0.10312
-0.0726298 -0.0268082 0.521101
0.0846665 -0.0238222 0.103167
-0.0626152 0.0257572 0.470541
0.0647845 0.0324142 0.746784
-0.0949657 -0.0251301 0.111508
-0.0715137 0.0593115 0.572955
-0.286556 -0.0543474 0.496778
-0.0387204 -0.0290704 0.348736
0.038454 -0.0167519 0.860109
-0.0426186 -0.0170297 0.36855
0.140645 -0.025625 0.112448
-0.0956049 -0.012312 0.156804
-0.0807811 -0.0240846 0.659983
-0.213687 -0.0058023 0.0681807
0.0709211 -0.00745284 0.4854
-0.0309394 0.0464266 0.41279
-0.110342 -0.0249068 0.0993208
0.0325938 0.0528305 0.466394
-0.267685 -0.0782398 0.595767
-0.394142 -0.0327172 0.442234
0.237015 -0.0595971 0.553852
-0.0174436 0.0288195 0.800725
0.260965 -0.0388984 0.466742
0.03305 -0.0816716 0.346551
-0.0123213 0.0542197 0.69186
-0.251522 -0.0976785 0.487785
-0.0784606 0.0280022 0.601701
0.0332062 -0.0391624 0.133732
-0.103893 -0.0273308 0.149862
0.0402229 0.00205118 0.159021
0.0785856 0.0206421 0.678591
-0.153696 -0.00560109 0.114252
-0.0425932 0.0532032 0.469518
-0.189981 -0.0238971 0.0419118
0.389062 -0.0299372 0.458354
-0.189228 -0.0129317 0.0212361
-0.290378 -0.045401 0.475364
0.373057 -0.0243098 0.441899
-0.0679488 -0.00625617 0.49738
-0.299475 -0.0158619 0.434049
0.0663093 -0.0614184 0.448752
-0.379258 -0.045401 0.414912
0.24652 -0.0450887 0.553245
0.291018 -0.0521124 0.522355
-0.312231 -0.045401 0.505499
0.251386 -0.045401 0.469148
0.00905745 -0.054165 0.198901
-0.119994 -0.00567233 0.125932
-0.233115 -0.0568627 0.555707
0.0502627 -0.0501372 0.305163
0.00521927 0.0276187 0.804874
-0.14543 -0.0251862 0.0869383
-0.115256 -0.0257663 0.113574
0.0627656 0.0556645 0.499061
-0.0367921 0.0624446 0.583116
0.0191862 0.0284723 0.199516
-0.0784606 0.0394133 0.674288
0.15054 -0.00578492 0.109865
-0.273912 -0.045401 0.475221
-0.0216005 -0.0391056 0.159605
0.0785856 -0.00769217 0.61648
-0.141487 -0.0259682 0.639445
0.0590068 -0.0191115 0.0938411
-0.0235847 -0.0816057 0.327419
0.039125 -0.0531451 0.218798
0.26537 -0.0253887 0.0563769
0.0785856 -0.0558951 0.669209
0.167739 -0.045401 0.553989
0.133341 -0.0253678 0.111655
