-0.0571199 -0.0547644 0.57604
0.0368603 -0.112884 0.503525
-0.0481292 -0.0106884 0.671704
-0.126793 -0.083848 0.118883
0.0543156 -0.0408269 0.306924
0.168525 -0.076517 0.0985742
-0.0111395 0.0701438 0.275611
0.00646384 0.0917139 0.162969
-0.0418379 -0.00174863 0.739972
-0.0546439 -0.0574663 0.891267
-0.00987452 0.0707231 0.187584
-0.047256 -0.132062 0.655739
-0.0509227 -0.0259706 0.1907
-0.0503486 -0.0733711 0.257399
-0.0513715 -0.0430892 0.127891
0.1202 -0.0768274 0.140916
0.174669 -0.0673706 0.508004
0.0445764 -0.00934893 0.703277
0.0706011 -0.144067 0.621765
0.00850987 0.0589712 0.338272
-0.0108869 0.0247636 0.25409
0.119362 -0.0945359 0.548909
0.0939808 -0.0706187 0.498325
-0.0170265 -0.105044 0.246506
0.0309897 0.0539257 0.306224
0.00262722 -0.061647 0.0174866
0.00370166 0.0163778 0.877483
-0.232584 -0.0885759 0.449636
-0.171564 -0.0693441 0.488235
0.00752818 0.0370864 0.209064
0.203214 -0.0918303 0.54473
0.0541379 -0.138915 0.640951
0.219032 -0.0910919 0.495802
-0.0506991 -0.0764714 0.658177
0.0436359 -0.0134716 0.891565
0.0703029 -0.06785 0.524915
0.0541194 -0.0365345 0.538794
-0.00860493 0.132085 0.132692
-0.039577 -0.108638 0.628455
-0.123506 -0.0943914 0.55702
-0.00880758 0.0894827 0.12802
-0.270315 -0.0793704 0.454417
0.00518092 -0.00641747 0.0349848
-0.0204657 0.0132637 0.48221
0.0123138 -0.123601 0.452338
0.0523528 -0.0979344 0.357967
0.0404739 -0.0031643 0.739514
-0.103834 -0.0690503 0.500042
0.012912 0.0152599 0.744887
0.0490317 -0.0182536 0.466599
-0.338587 -0.0939479 0.472439
0.0709036 -0.0797017 0.182716
0.0601214 -0.0853254 0.481748
0.053607 -0.035415 0.366833
0.0536108 -0.0574388 0.414603
0.132277 -0.0734726 0.485172
-0.067834 -0.0832608 0.134154
-0.0531653 -0.0222573 0.28601
0.0269886 0.0583106 0.264507
-0.029775 -0.0958525 0.185836
-0.00142612 0.00987624 0.131616
-0.00399381 -0.103644 0.910536
0.0460178 -0.0800082 0.756007
0.0505581 -0.071168 0.673279
-0.0404426 -0.112225 0.521486
-0.0545658 -0.0234168 0.473171
-0.197004 -0.0916326 0.505032
-0.00413788 -0.12412 0.643177
-0.0315343 0.0274388 0.28909
0.062022 -0.0826276 0.111166
0.089911 -0.095622 0.579044
-0.0234098 0.0283519 0.230195
-0.0651271 -0.0806617 0.360793
-0.0551033 -0.0674784 0.698769
-0.00134545 0.0447143 0.323354
-0.0310912 0.00824908 0.4697
-0.0268372 -0.137314 0.615716
-0.135595 -0.0813046 0.514303
0.0503297 -0.0531733 0.194591
0.0267105 -0.143901 0.605933
-0.0572034 -0.0379332 0.785133
0.0495119 -0.0732049 0.866557
0.312579 -0.0667244 0.468657
0.286944 -0.0889482 0.502468
-0.0863175 -0.0897533 0.618701
-0.00206728 0.0170758 0.629668
-0.0126528 -0.12412 0.545726
0.0539002 -0.0570277 0.617542
-0.394284 -0.0841565 0.443319
-0.0242055 -0.0653188 0.0472098
-0.0849044 -0.0842765 0.587158
-0.0111396 0.0186688 0.280167
0.0235027 0.0109277 0.840753
-0.04985 -0.0140389 0.627176
0.0448714 -0.0104267 0.413801
-0.0567995 -0.0365636 0.429832
0.0428092 -0.0059081 0.635655
-0.0320674 -0.0778725 0.940011
-0.0807787 -0.0957048 0.525832
-0.0590249 -0.092399 0.398801
-0.050466 -0.0846286 0.284409
0.036183 -0.063123 0.0771584
0.00794222 -0.109211 0.677289
0.0811129 -0.0795791 0.487976
0.25482 -0.082672 0.457811
-0.00961355 0.0170758 0.793852
-0.097582 -0.0677003 0.106886
-0.0104895 0.0500296 0.240719
0.00756885 -0.109239 0.856036
-0.0101238 0.0170758 0.654556
0.21419 -0.0883173 0.559009
-0.0406775 -0.00143733 0.292884
-0.239365 -0.0902686 0.522876
0.353076 -0.0772447 0.468333
0.0175983 0.0127719 0.303798
0.0761948 -0.0669844 0.142133
-0.0314326 -0.116958 0.438411
0.0132506 -0.123061 0.38946
0.0425207 -0.00538244 0.566441
0.197485 -0.0686947 0.490194
0.214997 -0.0803876 0.523892
-0.0264203 0.023434 0.328237
-0.107169 -0.0787308 0.4862
0.0036026 -0.0938973 0.0859927
0.00587405 0.143074 0.150862
-0.0532047 -0.0205707 0.71093
0.0592889 -0.0717004 0.308977
0.156461 -0.078716 0.522334
-0.00229673 -0.104975 0.191983
0.0498182 -0.107245 0.612153
0.0507593 -0.0707763 0.802391
0.0529027 -0.0633859 0.709503
-0.0313569 0.00813762 0.539234
0.0216356 0.00502411 0.154476
0.0288799 -0.118388 0.663342
0.0212837 -0.12902 0.632853
-0.0598488 -0.155159 0.652718
0.00718397 0.0464794 0.178692
-0.0412672 -0.0830813 0.144058
0.0503786 -0.0242461 0.263927
0.00952379 -0.101669 0.138817
-0.0844657 -0.0839246 0.169451
-0.225335 -0.0666609 0.49418
0.028797 0.0288879 0.243936
0.0122334 -0.123719 0.486228
0.151367 -0.0837338 0.0929208
0.256119 -0.0899955 0.515128
-0.443089 -0.0735733 0.444434
0.0530589 -0.097729 0.561422
0.025709 -0.117848 0.325702
-0.0436208 -0.110729 0.602044
0.168192 -0.0927214 0.496012
0.0592371 -0.143363 0.666146
0.124123 -0.0941782 0.505566
-0.0328095 -0.0336743 0.045419
0.382357 -0.0677336 0.44304
-0.0677099 -0.0745288 0.443476
-0.112351 -0.0737718 0.52899
-0.0268848 -0.0272447 0.941508
0.00161953 0.000668245 0.0643923
-0.105708 -0.0814193 0.562253
0.164842 -0.0930044 0.533123
0.0465035 -0.0131011 0.858491
0.0333816 -0.0894401 0.182725
0.0232168 -0.0950685 0.916095
-0.0658162 -0.0693918 0.502088
-0.0164273 -0.0218006 0.00134524
-0.0544692 -0.0985936 0.334954
0.118477 -0.0839256 0.118413
-0.211604 -0.0913156 0.54358
-0.0558747 -0.0818917 0.197038
0.0450319 -0.081952 0.516702
0.0329097 0.00387814 0.48356
-0.0439115 -0.00370463 0.574205
-0.032848 0.0042049 0.884468
-0.0346312 -0.011243 0.0844832
-0.0760297 -0.140301 0.639715
-0.0360518 0.00370914 0.833132
-0.054153 -0.0989719 0.367059
0.00793799 0.0239292 0.242336
-0.0436978 -0.0886605 0.800565
0.0192568 -0.120943 0.592572
0.0358509 -0.0923321 0.881988
0.339314 -0.0910345 0.448357
-0.330846 -0.0941134 0.451718
0.0530711 -0.0298511 0.760987
0.125182 -0.0834666 0.56868
0.05405 -0.0360923 0.718257
0.377002 -0.0846381 0.428934
-0.176892 -0.0748043 0.0955377
-0.00503999 0.0707034 0.323819
0.0647787 -0.0665061 0.0942384
0.350431 -0.0864594 0.492357
0.194212 -0.0735103 0.47346
-0.0369031 -0.0950697 0.856015
0.0351066 -0.0852233 0.138551
-0.0131985 -0.10848 0.825565
0.0432552 -0.106555 0.414985
-0.153673 -0.079799 0.111372
0.0401974 -0.00353153 0.325148
-0.0555093 -0.0684552 0.600043
-0.0114606 0.0169184 0.703857
-0.298349 -0.0727006 0.47991
-0.0663712 -0.0965675 0.60411
0.0470404 -0.0780171 0.77778
-0.291537 -0.0883716 0.473973
0.0306429 -0.0767276 0.937893
-0.0457878 -0.00692775 0.356822
-0.0221411 -0.120594 0.376294
0.0279397 -0.117383 0.525276
0.0361414 0.000442076 0.368828
0.153766 -0.0827328 0.0622602
0.0927532 -0.0956706 0.608535
-0.300198 -0.0813195 0.516707
-0.0634043 -0.0814187 0.532584
-0.0442965 -0.0861992 0.886079
-0.0558206 -0.063047 0.848628
0.100337 -0.0675897 0.0890366
-0.0217926 -0.0952457 0.0992178
-0.00702696 0.0170758 0.601911
-0.0432762 -0.0157973 0.905988
-0.0553455 -0.0660759 0.751721
-0.153341 -0.0825382 0.482238
0.0526369 -0.0650805 0.834597
0.0496244 -0.0191776 0.788703
0.386843 -0.0855211 0.454483
0.00560047 0.00628043 0.0900197
0.431304 -0.0698724 0.439361
-0.0297744 -0.0934533 0.911352
0.050882 -0.0544718 0.215041
-0.0435573 -0.0887931 0.720625
-0.0477783 -0.0821494 0.106953
-0.0578155 -0.049964 0.486114
-0.351673 -0.0862959 0.494798
0.0554192 -0.0448215 0.512643
-0.0118806 -0.12412 0.577947
-0.0376182 -0.00372105 0.196104
0.306948 -0.0882409 0.488417
0.249294 -0.0672408 0.482762
-0.0623682 -0.0865056 0.47625
0.089563 -0.0670127 0.526631
-0.123881 -0.0941793 0.499558
0.0419787 -0.016016 0.164291
0.052347 -0.0984404 0.595219
0.0689786 -0.0815149 0.564286
0.398896 -0.0751373 0.455494
0.0393918 -0.0418202 0.0734853
-0.0134121 0.0116773 0.203074
-0.0710532 -0.115865 0.612453
0.0283652 0.0082471 0.507908
0.162846 -0.0932248 0.566156
0.0462802 -0.0177427 0.245522
0.0637432 -0.0739727 0.35796
-0.0475918 -0.0132511 0.263457
0.0540741 -0.0362459 0.598554
0.0906287 -0.0842156 0.147497
-0.0218587 0.0127721 0.725855
-0.0282608 0.00134417 0.125701
0.00642143 0.107362 0.180508
0.0839352 -0.0956444 0.543357
0.0543086 -0.0537262 0.463918
0.253226 -0.0780602 0.496327
-0.00380701 0.00782354 0.25812
0.0350862 -0.0940812 0.669467
-0.183179 -0.09232 0.550447
-0.0177756 -0.106607 0.740378
0.103683 -0.0833854 0.108667
-0.00428042 0.129236 0.105902
-0.15931 -0.0932159 0.56734
-0.0708466 -0.0663192 0.105199
0.0462388 -0.0125857 0.66137
0.0564771 -0.0793582 0.628028
0.0523039 -0.0672033 0.579084
0.0039287 0.0166785 0.357305
-0.0562432 -0.0603529 0.51836
-0.0877978 -0.0830959 0.11606
0.0094464 0.0166209 0.489578
-0.0311805 0.00830401 0.678528
0.0341155 0.0324072 0.303743
-0.0428293 -0.109925 0.485694
0.0409516 -0.0036149 0.838832
-0.113606 -0.0949668 0.607142
0.0265559 -0.101821 0.704637
0.00611216 0.115982 0.159995
-0.0562931 -0.0352117 0.304136
0.0478262 -0.0394109 0.125086
0.0406284 -0.0869051 0.259641
-0.359797 -0.0721719 0.472473
-0.0533552 -0.0208637 0.801384
0.00622969 0.0889189 0.124195
0.107738 -0.082915 0.0890316
-0.0495845 -0.0547082 0.10345
-0.0671035 -0.078122 0.553688
-0.0500307 -0.0648185 0.158424
-0.0154346 0.0150445 0.381656
0.147944 -0.0685832 0.504197
0.0404619 -0.0524854 0.931652
-0.13545 -0.070185 0.136635
-0.0320782 0.00399499 0.242724
0.29602 -0.0866488 0.450653
-0.127918 -0.083158 0.0936751
-0.314814 -0.087882 0.459706
0.000620438 0.0222215 0.225427
-0.0506403 -0.102608 0.543838
-0.390571 -0.0697474 0.431446
-0.0232494 -0.018366 0.0310431
-0.331137 -0.073415 0.484272
-0.0580399 -0.0488987 0.770275
0.0222699 -0.0160675 0.042251
-0.337666 -0.0684244 0.450069
-0.116649 -0.0689699 0.130693
-0.00572331 -0.123564 0.274905
-0.0561435 -0.0311751 0.659391
-0.0561666 -0.0313224 0.697132
0.0406322 -0.109379 0.572037
-0.0498194 -0.15536 0.605294
0.0598347 -0.0666561 0.1718
0.00606264 0.0664268 0.23819
0.0522638 -0.0530626 0.246445
0.144103 -0.0694886 0.0835049
-0.00967453 0.0546268 0.164478
-0.0606541 -0.0894742 0.42234
0.0152835 0.0142898 0.691507
-0.037465 0.00198254 0.394397
-0.00826114 0.108256 0.111513
-0.00131598 -0.109239 0.803323
-0.037347 -0.1542 0.625626
-0.388786 -0.0709044 0.460455
-0.00907998 0.0838109 0.152536
0.0541938 -0.0374413 0.481711
0.0269735 0.00909536 0.414274
0.0522314 -0.0270456 0.339964
-0.0525079 -0.0302907 0.898644
-0.0382267 -0.0366549 0.062424
-0.406783 -0.0843827 0.423914
0.0428309 -0.0136263 0.213768
0.0512222 -0.0627858 0.888925
-0.0457627 -0.00656181 0.418039
-0.194087 -0.0682965 0.505763
-0.0529744 -0.0533439 0.189366
0.269722 -0.0742599 0.454741
-0.00877039 0.0210854 0.327594
0.00698919 -0.123774 0.36417
0.0497749 -0.0726928 0.730518
-0.0565565 -0.0583556 0.556942
0.184984 -0.0819936 0.485099
-0.171698 -0.0823604 0.498367
0.0408355 -0.156056 0.65013
-0.204323 -0.0915316 0.482761
-0.0603785 -0.0966215 0.572188
-0.0579663 -0.0427976 0.870806
0.00636471 0.0170758 0.768561
0.0176905 0.0133052 0.815751
-0.25659 -0.0804998 0.533766
0.0191617 -0.0799695 0.069155
-0.0417738 -0.110907 0.643121
0.0257113 0.00958769 0.352849
-0.0567789 -0.054399 0.340484
-0.0371166 -0.114377 0.323524
-0.0015266 0.0170758 0.847328
-0.1392 -0.0812496 0.0680593
-0.0473127 -0.00909866 0.525406
-0.0113178 -0.109111 0.868151
0.0237847 -0.102976 0.744629
0.279927 -0.0890722 0.481196
-0.0447564 -0.0752755 0.523358
-0.0390188 -0.0516163 0.942292
-0.0357262 -0.0886696 0.16071
-0.00847618 0.157 0.135948
0.0639941 -0.0771958 0.332411
-0.0385277 0.00137372 0.771101
0.0372101 -0.0154114 0.0944894
0.00051223 0.0521158 0.308159
-0.0331953 -0.116427 0.580884
-0.00341608 -0.0663671 0.990733
0.00714912 0.0591427 0.197773
0.00250815 -0.107763 0.25256
-0.12008 -0.0668267 0.520698
-0.0354018 -0.0940574 0.246635
-0.034454 0.00521624 0.654587
0.00955086 -0.102958 0.165367
0.254969 -0.0842547 0.538543
-0.170688 -0.0926752 0.535235
-0.054781 -0.0237476 0.503944
0.0417526 -0.107632 0.304009
-0.244411 -0.0679326 0.478865
0.0653924 -0.146037 0.603272
-0.281678 -0.0887136 0.499979
-0.0534731 -0.0365163 0.212635
-0.00155783 -0.106603 0.227351
-0.0463279 -0.106001 0.283234
-0.0107174 -0.101771 0.127423
0.230397 -0.0810674 0.490436
-0.162915 -0.0712216 0.515041
0.0724626 -0.131488 0.642728
-0.0437677 -0.0136071 0.168141
-0.13853 -0.0937019 0.519836
0.0356059 0.00124896 0.458141
0.198664 -0.0918747 0.523329
0.0499793 -0.100462 0.481314
-0.0903773 -0.0824951 0.511162
0.107225 -0.082293 0.513726
0.00734972 0.0223147 0.154919
-0.0551235 -0.0676022 0.423315
0.0755224 -0.0859165 0.599693
0.0122922 -0.0474599 0.00124585
-0.00236357 0.0170758 0.726382
0.054518 -0.0408716 0.390373
-0.0188175 0.0138297 0.442967
-0.00992054 0.0299442 0.138097
-0.0551094 -0.0254378 0.453287
-0.026704 -0.00552021 0.920231
-0.153565 -0.0742572 0.500033
-0.253931 -0.0897057 0.509161
0.0593276 -0.0867291 0.464184
-0.0304861 0.00838953 0.342215
0.147179 -0.0835654 0.492759
-0.0123717 -0.108819 0.76593
0.0472274 -0.0145104 0.538763
0.0947376 -0.0830225 0.571425
-0.00867168 -0.123955 0.441023
0.0100321 -0.108604 0.767911
0.128094 -0.0689949 0.123411
0.360049 -0.0863839 0.455445
-0.198675 -0.0801679 0.547226
-0.0150115 0.00901017 0.15685
0.0077585 0.0164575 0.202652
-0.0420311 -0.11357 0.666003
0.0226919 -0.119417 0.471979
-0.0299224 -0.101497 0.811822
0.333687 -0.0707018 0.457408
-0.0510297 -0.0163358 0.82018
0.180041 -0.0925835 0.547037
-0.0770653 -0.135604 0.616457
0.0192378 0.0463694 0.320927
0.0219501 0.0141229 0.265741
0.0181753 0.029424 0.320871
-0.0151759 0.0153758 0.463203
-0.0160991 -0.122858 0.304467
0.0597249 -0.0964022 0.539618
0.0411859 -0.108804 0.641413
0.14452 -0.083482 0.564708
-0.239157 -0.0867587 0.473049
-0.0501621 -0.050988 0.912915
0.021566 0.00656113 0.189111
0.0740033 -0.0665506 0.115778
-0.0492678 -0.103705 0.421296
-0.421767 -0.0694798 0.446926
0.0550862 -0.042698 0.630535
0.310552 -0.0880133 0.464727
-0.0681117 -0.0897732 0.509067
-0.0552549 -0.0637894 0.318723
-0.161792 -0.0834325 0.0789372
0.0493166 -0.0476983 0.14395
0.037608 -0.111427 0.284463
-0.107726 -0.0950168 0.575189
0.296968 -0.0882584 0.520794
-0.230983 -0.072443 0.464072
0.0531938 -0.0593563 0.364989
-0.0272047 0.0271268 0.25528
-0.0477389 -0.0239538 0.136197
-0.000220459 0.0574976 0.225427
-0.283608 -0.0795649 0.451257
-0.0182558 -0.0622221 0.0320364
0.0537171 -0.0570365 0.433063
-0.0366486 -0.14994 0.659387
-0.054227 -0.0696024 0.807845
0.035817 -0.0200373 0.922403
0.0556156 -0.0843059 0.175511
0.0700249 -0.124929 0.608063
0.000652352 -0.0695191 0.0340031
-0.0315676 0.00766021 0.428372
0.0129317 0.0152518 0.524726
0.12734 -0.0858529 0.588171
0.059849 -0.0719581 0.506733
0.0222122 0.00846751 0.888438
-0.00901841 0.0131046 0.236917
0.411066 -0.0847226 0.449714
0.0337205 0.0032059 0.584399
0.340133 -0.071 0.44378
-0.016142 -0.107276 0.689501
0.0490281 -0.0307426 0.194379
0.045953 -0.0785605 0.491841
-0.0409586 -0.000919224 0.869318
0.406084 -0.084571 0.421953
-0.0583767 -0.0455622 0.535926
0.0157267 0.0141085 0.638642
-0.0471315 -0.00968854 0.328955
-0.234375 -0.0757431 0.508485
0.10299 -0.0952419 0.587237
0.0202048 0.0320237 0.225427
0.149945 -0.080449 0.538203
-0.0162641 0.0150605 0.531052
-0.0264678 0.0108659 0.503292
-0.0322594 0.0471143 0.286204
-0.320767 -0.0873318 0.490394
0.0516494 -0.0653057 0.281778
-0.0733305 -0.0684539 0.193151
-0.0552122 -0.0675612 0.486099
-0.0886174 -0.0684772 0.0869382
0.0379193 -0.111337 0.347576
0.232772 -0.0907378 0.513949
-0.19076 -0.0820907 0.495132
-0.0215138 0.0136491 0.295113
0.0521737 -0.024486 0.74098
-0.265357 -0.0894347 0.472882
0.0477287 -0.156387 0.610498
0.0689103 -0.0715772 0.495534
-0.048961 -0.0630272 0.121887
0.0126197 0.0713987 0.280643
0.0500485 -0.0659946 0.153363
-0.0259518 0.0459914 0.23958
0.0315727 -0.110611 0.625628
-0.0529994 -0.0201709 0.606522
0.124054 -0.0691906 0.503062
-0.211991 -0.0811581 0.496482
0.265322 -0.0823172 0.474544
0.0512567 -0.0247675 0.281915
0.0143445 -0.106839 0.716517
-0.0558876 -0.06262 0.635589
0.0250639 -0.0998351 0.898937
0.0495539 -0.0200322 0.319619
-0.129888 -0.0853104 0.593592
0.211251 -0.0852204 0.475543
0.075328 -0.0834762 0.131984
-0.349962 -0.0862632 0.467812
-0.0372072 0.00261934 0.559421
0.0370655 -0.0889757 0.235358
0.0571287 -0.0903747 0.376345
-0.388687 -0.0849252 0.46179
0.00648933 -0.12412 0.535921
-0.137881 -0.0697596 0.107651
0.0575275 -0.155808 0.629783
-0.141856 -0.0829019 0.57287
0.410158 -0.0668419 0.439596
0.00669023 0.0957438 0.196019
0.046338 -0.0268809 0.139471
-0.00536272 -0.123833 0.389222
-0.015738 -0.0442851 0.973726
0.176203 -0.0933574 0.518005
0.000703204 -0.000801546 0.925512
-0.0140332 -0.0391877 0
-0.0146155 -0.0865106 0.0754453
0.0353361 -0.0890504 0.208363
0.0515137 -0.0228561 0.581339
0.0201678 0.0646225 0.327535
-0.00925366 0.115909 0.176795
-0.0576229 -0.143933 0.641619
-0.00492613 0.0170758 0.581085
-0.199634 -0.0916678 0.53151
-0.0177577 0.0144496 0.615033
-0.0912797 -0.0774172 0.529507
0.129577 -0.081222 0.516542
-0.0306937 -0.117409 0.506597
-0.00187465 0.0165289 0.299467
-0.00949615 0.0500027 0.127688
0.299376 -0.0690082 0.46009
0.179875 -0.0739951 0.0833969
0.446865 -0.0815665 0.412164
0.0484511 -0.0168931 0.824803
0.0612187 -0.0767227 0.545197
-0.0098596 -0.124051 0.482063
-0.0566042 -0.0580518 0.793744
-0.269699 -0.0730482 0.469149
-0.0435417 -0.083795 0.21915
-0.0850321 -0.0839588 0.148417
-0.0009943 0.01678 0.396544
-0.0096146 0.0497832 0.143949
0.0851104 -0.0893479 0.504971
0.00305172 0.0170758 0.546634
-0.299877 -0.0839908 0.453332
0.0228135 -0.0535439 0.965156
-0.0884524 -0.0679432 0.163042
-0.0383715 0.00152107 0.724471
-0.169152 -0.0775095 0.526454
0.0334469 -0.0956274 0.790751
-0.0544312 -0.0579396 0.248273
0.0464146 -0.0706936 0.0992863
0.323165 -0.0790345 0.489638
-0.132382 -0.0939994 0.538296
0.046737 -0.0138708 0.450157
0.0422929 -0.108352 0.657988
-0.0566276 -0.0579027 0.659783
0.265783 -0.0771139 0.485753
0.00642986 -0.0872111 0.956354
0.279114 -0.0804216 0.510577
-0.405383 -0.0827834 0.470225
-0.0306232 -0.100993 0.679919
-0.437251 -0.0685405 0.425868
0.0131388 -0.0648519 0.978587
-0.0352452 -0.0966335 0.778919
-0.0558115 -0.0305568 0.410267
-0.373526 -0.0764707 0.447817
0.0461162 -0.127045 0.652408
-0.0524083 -0.0190201 0.731031
0.0630802 -0.0670656 0.192708
-0.0111966 -0.123989 0.455682
-0.0579807 -0.0428893 0.563364
0.034468 0.0478058 0.278831
0.0522189 -0.0246246 0.615442
-0.0454165 -0.00542369 0.689768
-0.098915 -0.0676728 0.515454
0.00265009 0.0894651 0.21243
0.0393456 -0.00210009 0.721345
-0.115215 -0.0684336 0.0939049
0.27666 -0.0787885 0.497445
-0.0336327 -0.00488545 0.10395
0.138727 -0.0691779 0.101767
-0.059551 -0.0703372 0.461849
0.0286115 -0.116935 0.4449
-0.012836 0.00821326 0.118105
0.0280512 -0.117081 0.408386
-0.0468227 -0.0790728 0.240268
-0.217031 -0.0788281 0.535125
-0.338587 -0.0873851 0.436398
0.00656415 0.0702997 0.135883
0.0338187 -0.085356 0.119457
0.357597 -0.0850601 0.433981
-0.402451 -0.0670105 0.44177
0.283375 -0.0952121 0.464707
-0.0169935 0.0147622 0.812167
-0.050607 -0.0155128 0.646362
0.0552169 -0.0695847 0.483014
0.0502146 -0.0203267 0.558823
0.0952293 -0.0673267 0.104534
0.0168865 0.0136341 0.673742
-0.131048 -0.0844474 0.48626
0.218023 -0.0782709 0.505556
0.00552512 0.139983 0.12261
-0.0297811 -0.127302 0.600438
0.0988877 -0.0949942 0.507202
-0.0162098 0.0146973 0.875809
0.174751 -0.0800662 0.529742
0.327962 -0.0815922 0.460515
0.0270992 0.0179372 0.314035
-0.00261135 -0.0106635 0.0126473
0.0529498 -0.0630862 0.64633
0.130899 -0.0837893 0.105069
0.022076 -0.0279882 0.0214491
0.0101611 0.00786316 0.905665
-0.0179742 -0.0316328 0.954511
-0.0180668 0.0143231 0.745908
0.0393598 -0.0147755 0.117145
-0.0306486 0.0294027 0.308379
0.0543996 -0.0538441 0.530373
-0.0107655 0.0402426 0.263695
0.228925 -0.0847099 0.473078
0.0611191 -0.0826737 0.345456
-0.0152176 0.00992509 0.313449
0.0355578 0.00147278 0.61877
0.0408992 -0.00526955 0.275792
-0.0549404 -0.098581 0.52376
-0.00748054 0.0712294 0.302694
0.00226403 -0.109239 0.700416
0.0385737 -0.111295 0.59985
-0.181558 -0.0922066 0.514748
0.0503263 -0.0836489 0.15584
0.0552864 -0.0934483 0.304718
-0.0367259 0.00261916 0.376481
0.11688 -0.0684461 0.0783984
-0.055577 -0.062683 0.382138
-0.0504295 -0.0769963 0.734455
0.176459 -0.0956018 0.479221
0.230517 -0.067998 0.484331
-0.016355 0.0620862 0.246574
0.379851 -0.0773745 0.463739
-0.0516189 -0.0181825 0.376002
0.0537794 -0.0577974 0.598052
0.0250587 -0.0586473 0.0450043
-0.0555236 -0.0683003 0.353645
-0.0266181 -0.119112 0.625128
0.276345 -0.0859583 0.435522
-0.0570418 -0.036903 0.845451
0.0434776 -0.0849539 0.844914
-0.0549404 -0.0241846 0.771568
0.00631753 0.0919818 0.143006
0.0407797 -0.0082575 0.230569
-0.157815 -0.0930479 0.492942
0.052138 -0.0986768 0.628229
0.190973 -0.0768517 0.499429
-0.0860755 -0.081986 0.567954
-0.312499 -0.0755458 0.502713
0.193747 -0.0832849 0.552619
-0.0578896 -0.0498571 0.599623
-0.0535951 -0.0708328 0.676055
-0.0339493 -0.0618996 0.0634403
-0.0540132 -0.0229623 0.353314
-0.0433979 -0.0889434 0.686137
-0.214214 -0.0884622 0.561091
0.0155269 -0.122008 0.340025
-0.0506837 -0.03263 0.153664
-0.0173452 -0.122489 0.358328
-0.03899 -0.113121 0.372306
0.0102005 0.0161216 0.420542
-0.00129362 -0.123887 0.412102
-0.0253362 0.0566795 0.325816
0.0127649 0.01532 0.576022
0.00447378 -0.123666 0.318107
0.437361 -0.0838315 0.439383
-0.449617 -0.0833493 0.435079
-0.143929 -0.0936903 0.556439
-0.0235534 0.0160961 0.273569
0.016608 0.00567993 0.1223
0.0153175 -0.122505 0.503722
0.048578 -0.031496 0.179007
-0.0150617 0.0181577 0.341199
0.0531563 -0.0305494 0.500262
0.180004 -0.0698011 0.489696
0.0281631 -0.117308 0.551307
0.00956052 0.0166308 0.782621
-0.00908114 0.10244 0.148969
0.0252601 0.055484 0.338807
-0.0187022 -0.0915855 0.936625
0.108782 -0.0681603 0.123651
-0.0679927 -0.0754023 0.413238
0.0521813 -0.0245092 0.806587
0.0521231 -0.0666722 0.397835
0.162671 -0.0914789 0.584548
-0.152742 -0.0700294 0.0690579
0.00210116 0.00578566 0.309846
-0.00842518 0.0701085 0.120463
-0.175475 -0.0946818 0.492853
0.0986537 -0.0952203 0.553353
0.0539046 -0.0569993 0.564092
-0.0567257 -0.0550557 0.361781
0.0456536 -0.0114462 0.757852
-0.0498203 -0.117629 0.587039
-0.0198439 -0.000191511 0.0808395
0.02364 0.0108716 0.759011
-0.0692343 -0.145648 0.665204
-0.0881078 -0.0958165 0.602459
-0.439401 -0.0837876 0.421097
0.0533365 -0.0574991 0.301492
0.052539 -0.0657048 0.519061
-0.0101418 0.0356039 0.183548
-0.00711696 -0.105764 0.209106
-0.0290984 -0.101974 0.760178
0.0449389 -0.0821088 0.827035
-0.0319372 0.000199995 0.900915
0.0195221 -0.00111224 0.0813358
0.00294279 0.00890633 0.107911
-0.0704307 -0.0961334 0.541644
-0.0634591 -0.084333 0.45776
0.0427641 -0.106867 0.372774
-0.0667294 -0.077698 0.378247
0.193182 -0.0812682 0.53588
-0.175603 -0.0709006 0.0800174
-0.0295092 -0.117706 0.422003
-0.143675 -0.0827498 0.501798
0.0434276 -0.106494 0.443718
-0.00950664 0.0405999 0.225427
0.10591 -0.0768328 0.153752
-0.119836 -0.0746471 0.504949
0.373528 -0.081916 0.446157
-0.0239781 -0.120159 0.523119
0.00762523 -0.109239 0.653059
-0.0936642 -0.0716286 0.488386
0.0171236 -0.0903068 0.938793
-0.156845 -0.0702649 0.485147
0.0785338 -0.0811101 0.531453
0.329916 -0.0817134 0.503657
-0.0719432 -0.096474 0.624644
0.393289 -0.0818064 0.44115
-0.294853 -0.0752071 0.501035
-0.0574984 -0.0426791 0.31869
-0.110919 -0.0833484 0.11086
-0.0154897 -0.102284 0.177307
-0.0505384 -0.0966308 0.63921
0.00610638 0.131843 0.164077
0.0785206 -0.0755359 0.512281
-0.121948 -0.0690012 0.111782
0.00656108 0.0783187 0.151309
0.347055 -0.0930202 0.464647
-0.138574 -0.0737883 0.483711
0.241695 -0.0763687 0.47398
-0.0617889 -0.0866819 0.315131
0.0823837 -0.08276 0.169747
-0.0506402 -0.0655625 0.175921
-0.0567145 -0.0348158 0.827798
0.0911131 -0.0835372 0.122977
-0.40923 -0.084414 0.452127
0.0286917 -0.0648039 0.061281
-0.278775 -0.0888905 0.516407
-0.175955 -0.0670625 0.504882
0.0529673 -0.0300473 0.453194
0.0480782 -0.016167 0.687464
0.211653 -0.082306 0.540638
0.00565569 0.0556735 0.250213
-0.0229523 -0.120155 0.332158
-0.054212 -0.0294068 0.262792
0.0551762 -0.0432718 0.797755
0.0405979 -0.00340855 0.473365
-0.0549941 -0.117394 0.651471
0.0308554 -0.0447928 0.947203
0.051107 -0.0283232 0.886616
-0.00426311 0.0661308 0.340634
0.0427994 -0.0862745 0.738923
-0.109643 -0.0826779 0.0836109
-0.00947072 0.0995245 0.179531
-0.16201 -0.0703691 0.099946
0.0543322 -0.0392254 0.421302
0.00268258 -0.12412 0.5921
-0.280709 -0.0740167 0.491779
0.372065 -0.086065 0.469384
0.0539797 -0.0565207 0.866226
-0.0441888 -0.0108982 0.211254
-0.0107 0.0311555 0.238115
-0.0570715 -0.0519362 0.300466
-0.0359536 0.00380181 0.853545
-0.133128 -0.0774607 0.527816
0.0532085 -0.0586184 0.321826
0.0547039 -0.0519042 0.692498
0.0365443 0.000542268 0.666689
0.0110877 0.0160061 0.608485
-0.106066 -0.0948247 0.522557
0.0199261 -0.104555 0.688613
0.0385311 -0.00161541 0.42705
-0.0248935 0.0601737 0.273541
0.0420525 -0.0052718 0.385233
-0.028408 0.0100931 0.602377
-0.0534952 -0.0540496 0.206447
-0.0328979 -0.0189507 0.928798
-0.04808 -0.0815708 0.846482
0.0304709 -0.0290584 0.0497138
0.110847 -0.0697938 0.501101
-0.0219987 -0.0599276 0.971138
0.213733 -0.0668077 0.494848
-0.0679037 -0.15176 0.63696
-0.0118526 -0.10698 0.8958
-0.0268628 -0.114188 0.647485
-0.0288315 -0.0452873 0.0336613
0.0325792 0.00428242 0.557185
-0.0106925 0.0201165 0.217545
-0.0586639 -0.0700034 0.566949
-0.135016 -0.0810993 0.558139
0.0175284 -0.105536 0.842815
0.162658 -0.0929839 0.514012
-0.431806 -0.0836609 0.447739
-0.0400586 -0.082636 0.121982
0.0123438 -0.123068 0.647429
-0.0235614 -0.10424 0.724704
-0.226391 -0.0907682 0.534725
0.0720038 -0.122508 0.623258
0.0559595 -0.0933421 0.495961
-0.00884288 0.117464 0.141085
-0.0104938 -0.0555094 0.00886735
0.0522919 -0.0672795 0.746912
-0.0645692 -0.0809813 0.610265
0.0116857 -0.0130525 0.0204433
0.219813 -0.0912407 0.532508
0.239459 -0.0904152 0.491067
0.125782 -0.080374 0.542701
0.0649201 -0.0929802 0.629453
0.0394379 -0.116678 0.587039
-0.0469951 -0.106008 0.575716
0.0397034 -0.109594 0.328945
-0.120032 -0.0799612 0.549361
-0.0254852 -0.119488 0.485796
0.0133737 -0.102442 0.1868
0.0545915 -0.0968359 0.580256
0.00251696 0.0170758 0.805255
-0.0583853 -0.0933075 0.350284
-0.239138 -0.0953646 0.494762
0.0603391 -0.0844784 0.411862
-0.0102858 -0.00583856 0.0411895
-0.246986 -0.0823393 0.459962
-0.0431443 -0.00312547 0.468233
-0.010091 0.0671902 0.212912
0.0782564 -0.0959399 0.567335
-0.0349603 -0.0969581 0.275193
0.0214801 -0.103919 0.809878
0.0523249 -0.0670695 0.766486
-0.0266071 0.00561948 0.187939
-0.0233717 -0.120406 0.560291
-0.0663323 -0.0666215 0.147431
-0.0540809 -0.082764 0.124929
-0.21177 -0.0911332 0.506183
-0.0988574 -0.0679907 0.124798
0.0188305 -0.0929551 0.0944712
-3.68422e-05 -0.12412 0.614169
-0.0112692 -0.0107312 0.0225615
-0.00908728 0.0760274 0.134296
-0.0339048 0.00565707 0.488067
-0.0400353 -0.0854141 0.176302
0.419104 -0.0827647 0.431917
0.0295988 -0.10269 0.273002
0.0452902 -0.0790478 0.884478
-0.057332 -0.0389396 0.498108
-0.369243 -0.0855604 0.466006
-0.285722 -0.0714416 0.465893
0.0456671 -0.0288604 0.111442
-0.364234 -0.070912 0.449679
0.0468688 -0.0783512 0.712611
-0.0510967 -0.0311165 0.171258
-0.051549 -0.017774 0.42853
-0.039526 -0.036362 0.935751
0.105924 -0.0673979 0.518935
-0.224048 -0.0725314 0.482145
0.021682 0.0592283 0.243596
-0.0482687 -0.104868 0.616603
0.00874676 0.0168887 0.860055
0.00757344 0.0420633 0.225412
-0.0497996 -0.0139408 0.553841
0.01804 0.0131623 0.560758
-0.0578641 -0.0482621 0.392847
0.00607062 0.111153 0.144475
0.0475773 -0.074335 0.270894
0.211472 -0.0914042 0.510614
0.0376342 -0.000851161 0.402846
0.0433762 -0.0922478 0.638625
-0.155078 -0.0774765 0.52687
0.0212604 0.00588212 0.17065
0.00577973 0.130144 0.139883
-0.0161455 -0.0158385 0.937851
0.0676324 -0.134478 0.592112
0.0317042 0.0300172 0.261094
-0.0531525 -0.0999604 0.385785
0.105019 -0.0870105 0.602582
0.0134839 -0.123276 0.554394
-0.0325919 -0.0221207 0.0566886
0.160821 -0.0835265 0.0767392
0.0515193 -0.022867 0.77195
0.103067 -0.0949725 0.530878
0.00702782 -0.0306638 0
-0.0457443 -0.00840641 0.278696
-0.27435 -0.0888979 0.48596
-0.205918 -0.0772995 0.482311
0.0249719 -0.1455 0.632828
0.0604995 -0.0837113 0.319903
0.358705 -0.0865282 0.480365
-0.423681 -0.082856 0.418329
-0.176399 -0.0926348 0.568009
0.00751529 0.0300489 0.194257
-0.00865129 0.0640322 0.23319
0.034926 -0.00509046 0.173514
-0.03091 0.00855919 0.816816
0.0497372 -0.0201572 0.364397
-0.0591597 -0.110766 0.6007
0.015117 -0.0768724 0.96478
-0.0215789 -0.0236376 0.0159013
0.0661041 -0.14893 0.641223
0.0317179 0.0050948 0.638476
0.135601 -0.0791106 0.530057
-0.319581 -0.0843373 0.447065
0.305703 -0.0799073 0.500638
-0.0258405 0.00505326 0.167738
-0.187927 -0.0920739 0.486098
0.0380898 -0.0912481 0.772956
-0.0379627 -0.0227501 0.074148
-0.0508945 -0.0160726 0.583819
-0.0231758 0.0122333 0.836537
-0.0386455 -0.129242 0.64164
0.0522597 -0.0247499 0.527817
0.0368898 -0.0226865 0.0804583
0.0523144 -0.0716458 0.292013
-0.0549003 -0.0261396 0.317003
-0.00815703 0.14225 0.115029
-0.0501998 -0.14939 0.667472
0.054297 -0.0376665 0.69931
-0.039449 -0.112756 0.389669
0.0523533 -0.0383391 0.252105
0.0460149 -0.0609722 0.11096
0.0540343 -0.0511203 0.286102
-0.00672594 -0.109239 0.849464
0.257985 -0.0706025 0.464384
0.112042 -0.0821128 0.560151
0.447346 -0.0716741 0.438561
-0.333507 -0.0814323 0.460257
-0.00269127 0.0170758 0.74474
-0.0564867 -0.130567 0.641317
0.0624225 -0.112996 0.654124
0.285379 -0.077678 0.486313
0.00688727 0.0768996 0.194944
0.037983 -0.0371225 0.933076
-0.0406717 -0.0115371 0.119775
-0.0330992 -0.0986577 0.735713
-0.0346576 0.00502427 0.756439
0.0551354 -0.0458618 0.349808
-0.106428 -0.078979 0.541818
-0.00663619 0.00505652 0.287352
-0.0293598 -0.144601 0.634919
0.0543338 -0.0542634 0.724694
0.406963 -0.0782806 0.465563
0.0135566 -0.104234 0.224902
0.0488524 -0.074489 0.817308
-0.0756511 -0.123585 0.645442
0.0511142 -0.0222006 0.487406
0.0524456 -0.0663001 0.786294
-0.384451 -0.0669739 0.447105
-0.0366038 0.00318844 0.585934
0.0478449 -0.0692552 0.218222
-0.40744 -0.0814307 0.439536
-0.0435808 -0.00658971 0.88693
-0.0696858 -0.0755326 0.514814
-0.0815036 -0.0680822 0.51488
-0.0205868 -0.101457 0.202998
0.05182 -0.0241466 0.413209
0.0692874 -0.0668615 0.155884
-0.0460197 -0.00658118 0.713861
0.0625955 -0.0733767 0.470729
-0.0572487 -0.0428705 0.287813
-0.0551944 -0.0254555 0.488394
0.0672498 -0.096438 0.598074
0.0293611 -0.116731 0.485555
0.0550818 -0.0426699 0.850609
-0.0416459 -0.00213603 0.342741
0.0161209 0.0111565 0.243466
0.183944 -0.0898232 0.495439
-0.0183009 0.0142274 0.548976
-0.0543333 -0.0662962 0.281087
-0.00946439 0.0898036 0.167734
-0.11727 -0.0830976 0.575714
0.0219547 0.0662168 0.290237
0.00723123 0.0369772 0.166744
0.0544209 -0.154871 0.65695
0.0041129 0.0329513 0.315337
0.0245146 -0.0945917 0.127236
-0.250801 -0.0768178 0.516662
-0.0514174 -0.0170908 0.751555
-0.0497562 -0.0138563 0.788448
0.0538734 -0.0349661 0.557565
-0.0100439 0.0289765 0.153203
0.0387516 -0.0022184 0.310138
-0.0563847 -0.0327136 0.719389
-0.0278646 -0.0802293 0.0792022
-0.0550997 -0.0262347 0.39578
0.199916 -0.0919802 0.562445
-0.144098 -0.0832253 0.0835565
-0.0622594 -0.0838567 0.491119
0.340346 -0.0787881 0.483935
0.0356111 -0.0834887 0.915302
0.0544957 -0.0956789 0.422909
-0.0325547 0.0067999 0.449343
-0.0574574 -0.0526122 0.699485
-0.0574463 -0.0394821 0.810401
-0.408762 -0.0716537 0.456338
-0.324033 -0.0871507 0.475718
0.172014 -0.0759521 0.49593
-0.231416 -0.0851325 0.483615
0.00696023 0.0637871 0.179639
-0.0986591 -0.0866386 0.606228
0.0203529 -0.0535506 0.0274616
0.0523394 -0.0499234 0.896528
-0.0569186 -0.0380553 0.380804
0.195249 -0.0844924 0.483583
-0.10637 -0.0836932 0.1259
0.0243165 -0.141725 0.653818
-0.00358841 0.00843529 0.333589
-0.0320489 0.0426857 0.301728
-0.00153932 -0.123598 0.28919
-0.235469 -0.07916 0.536994
0.0537146 -0.0375542 0.292266
-0.0473901 -0.0836101 0.508394
0.293666 -0.0803498 0.50689
0.0260698 -0.134152 0.593021
0.10783 -0.084229 0.500739
0.0322885 -0.0967201 0.683829
0.147113 -0.0726995 0.484771
0.155957 -0.082701 0.555753
0.00445272 0.0170758 0.71319
0.0111642 -0.0977612 0.924329
-0.352093 -0.068435 0.446592
0.0484365 -0.101667 0.398757
0.341798 -0.0962663 0.43505
-0.0463948 -0.0788983 0.898796
0.013512 0.0150144 0.623059
0.0591527 -0.0873434 0.509625
0.00720133 0.0671848 0.221169
-0.0572878 -0.0536936 0.859979
-0.0105797 -0.0906294 0.948929
0.142769 -0.0939138 0.575848
0.028082 0.00852437 0.571842
-0.0101527 0.0564016 0.202876
0.0157206 -0.00323862 0.0660616
-0.0454407 -0.00545589 0.658219
-0.236152 -0.0738261 0.492374
-0.126343 -0.0814697 0.134265
-0.328408 -0.0675521 0.46732
-0.0280909 -0.118509 0.61124
0.0243464 -0.132082 0.663997
-0.0472501 -0.105567 0.406887
0.262102 -0.081831 0.525967
0.0497118 -0.0193478 0.871348
-0.00418087 0.016849 0.423239
0.280535 -0.083446 0.459239
0.188027 -0.092263 0.533375
-0.0559148 -0.0297172 0.644493
0.0657325 -0.0681319 0.538806
0.0538203 -0.0703795 0.552937
-0.141892 -0.0939423 0.59501
0.000712269 0.0170758 0.695763
-0.0923311 -0.0824193 0.0846596
-0.0570199 -0.152343 0.59295
0.34074 -0.0962663 0.482452
-0.0567457 -0.0571498 0.73987
-0.0109193 0.0166443 0.367893
-0.0192291 -0.0773484 0.962472
0.0510001 -0.0329039 0.23856
-0.187058 -0.0746216 0.486167
-0.0561022 -0.0602985 0.446694
0.0326434 0.00422181 0.750367
-0.0815932 -0.0728686 0.182029
-0.0520368 -0.0255958 0.22211
-0.124424 -0.0691058 0.146772
0.0110495 0.0698979 0.317544
0.00618885 -0.1141 0.272464
-0.0266741 0.00359003 0.143947
0.0323964 0.0298931 0.323715
0.00345179 -0.12412 0.577567
0.0427959 -0.107329 0.515499
-0.0186057 0.0368483 0.326421
0.014214 0.0686156 0.267326
0.0520727 -0.0241758 0.513383
-0.0626113 -0.096458 0.553763
0.002082 -0.104315 0.17762
0.00595011 0.00482376 0.294551
0.053775 -0.0578254 0.807911
-0.0163131 0.00739737 0.132041
-0.0535759 -0.0212935 0.679754
-0.0755489 -0.13613 0.656465
-0.0398755 -0.0922659 0.672597
0.0391148 -0.00188238 0.85338
-0.0554197 -0.065603 0.713014
-0.064581 -0.0792652 0.595997
-0.0568362 -0.0355918 0.601003
-0.0378682 -0.00492668 0.177953
-0.11094 -0.0880486 0.500544
-0.0553156 -0.0659456 0.138255
-0.0153654 -0.0991802 0.918065
-0.0266569 0.00622625 0.202339
0.0760815 -0.0828279 0.108345
0.131328 -0.0827594 0.125769
-0.0893674 -0.0836492 0.134758
0.0548179 -0.0511773 0.664126
-0.046933 -0.0419477 0.0894831
0.0349492 -0.0032809 0.207793
-0.101266 -0.0677502 0.530921
0.0739311 -0.0672974 0.174121
-0.0446834 -0.00444856 0.824942
-0.0546906 -0.0686997 0.765751
0.0177269 -0.12105 0.313455
-0.0351623 0.00454817 0.512703
-0.34927 -0.0836822 0.443001
0.159747 -0.0764241 0.502478
-0.079618 -0.0753188 0.488383
-0.0295794 0.00955512 0.525149
0.0156407 -0.0641735 0.0358469
-0.0162094 0.0667135 0.31592
0.070997 -0.134972 0.656468
0.0224655 0.011352 0.735066
-0.166869 -0.0928839 0.55177
0.314495 -0.0692297 0.454769
0.0182238 -0.0474031 0.0147991
-0.0813379 -0.0911592 0.506221
-0.00502455 0.0947179 0.114402
0.00159338 -0.109124 0.875316
0.0167146 0.0136807 0.501851
-0.0337886 -0.149368 0.612745
-0.0232647 -0.0730268 0.0590936
-0.032799 -0.0989409 0.834678
-0.0493324 -0.0133538 0.448635
0.0721502 -0.085501 0.497228
-0.0496663 -0.0784822 0.747893
0.00554018 0.155871 0.137656
0.00552571 0.121919 0.113038
0.0407774 -0.0050391 0.880556
0.0349845 0.00201357 0.651903
-0.0103144 0.0527967 0.220079
0.042395 -0.0869482 0.722916
0.0535223 -0.0327281 0.7876
-0.0311344 -0.0848799 0.0926789
-0.0636686 -0.15267 0.60604
0.294104 -0.0885716 0.471372
0.0417514 -0.0213515 0.909654
0.134324 -0.083509 0.0913722
0.00223496 -0.109239 0.723371
-0.305111 -0.0816872 0.466224
-0.177703 -0.0837146 0.486078
0.0289709 0.0192404 0.298622
-0.0463683 -0.00725989 0.539317
-0.0580432 -0.0432879 0.64971
0.0108238 0.0091 0.146467
0.135746 -0.0938837 0.522004
0.00806215 0.0279918 0.268283
-0.0558274 -0.115466 0.667699
0.0476558 -0.0561281 0.909215
0.03824 -0.06712 0.93109
-0.0661913 -0.0737611 0.311181
0.0269948 -0.00404494 0.0928069
-0.0256689 0.0108805 0.390254
-0.0963345 -0.0833846 0.579142
0.0491676 -0.0574557 0.181325
0.053066 -0.0623451 0.630453
0.00260851 -0.100959 0.104665
0.0441384 -0.00929039 0.357613
0.0431862 -0.0461676 0.0862147
-0.00827547 0.0170758 0.774077
0.0549101 -0.0431664 0.404147
-0.0172552 0.0123335 0.254241
-0.101637 -0.0721395 0.164902
-0.443338 -0.0729129 0.413292
0.0100716 0.0158832 0.315238
-0.00338346 -0.109239 0.835929
-0.0365697 -0.0953841 0.869932
0.06383 -0.11207 0.619008
0.0433599 -0.0851831 0.676257
0.0944059 -0.0835295 0.486922
-0.238865 -0.095637 0.479836
-0.0579683 -0.0493554 0.624485
0.0212103 0.0117919 0.484065
-0.0550133 -0.0454083 0.898087
-0.142389 -0.0699462 0.520764
-0.00571651 -0.123923 0.427497
-0.0581945 -0.0468445 0.438989
-0.267028 -0.0892331 0.503911
0.0203381 -0.104387 0.759708
-0.375097 -0.0844534 0.433339
-0.300115 -0.0677271 0.464854
-0.00746755 0.0169943 0.479418
0.0083519 0.0166153 0.379198
-0.0305237 0.0325405 0.267527
-0.0261472 0.0106354 0.372372
0.04461 -0.00941435 0.674683
0.00603219 0.102596 0.122603
-0.0515866 -0.0721826 0.0982614
-0.00933132 -0.12412 0.564438
-0.0249052 0.0115259 0.645237
0.0128014 -0.107471 0.663605
-0.153163 -0.0817733 0.562882
0.0544864 -0.0713769 0.617033
0.0562984 -0.0701505 0.438016
-0.013518 -0.0631265 0.982016
-0.00247736 -0.12363 0.302943
0.0341412 -0.0777541 0.0903699
0.0414227 -0.00429282 0.441911
0.206862 -0.0737634 0.484887
0.00992816 -0.124023 0.470059
-0.0180628 -0.103953 0.232888
-0.404591 -0.0698097 0.42783
-0.0518141 -0.0187466 0.340488
-0.0146558 -0.123441 0.318054
0.342623 -0.083446 0.430365
0.321199 -0.07682 0.471936
0.0531064 -0.0620879 0.683521
-0.0568449 -0.0965942 0.465797
-0.331708 -0.075207 0.439824
-0.0422076 -0.0379139 0.0754222
-0.0579806 -0.0428888 0.757702
0.293156 -0.0886664 0.484974
-0.0348223 -0.0863329 0.106515
-0.028631 -0.0388283 0.950024
-0.0141341 -0.108098 0.807772
0.0512088 -0.042593 0.203097
0.0921893 -0.0787287 0.536072
-0.00737455 0.131197 0.16577
0.0324612 0.0491177 0.31886
-0.0518763 -0.0431053 0.141481
-0.00970091 0.0706393 0.173996
0.0260291 -0.0941304 0.143324
-0.0672586 -0.0674194 0.527428
0.0375471 -0.138269 0.587039
0.0354983 0.00152896 0.532915
0.00644006 -0.123741 0.349958
-0.0324777 -0.0648084 0.952489
-0.0705469 -0.0797368 0.185898
-0.0653516 -0.0965111 0.584814
-0.0750279 -0.132377 0.603443
0.139629 -0.0940762 0.59304
-0.0120801 0.0704076 0.289966
0.370194 -0.0714693 0.435363
-0.0270426 0.0106516 0.664543
0.325228 -0.0667582 0.463822
-0.0519964 -0.0705489 0.888995
-0.048506 -0.104123 0.324129
0.086828 -0.0670229 0.0895549
-0.0345141 -0.11539 0.297537
-0.041065 -0.111621 0.540744
-0.0610326 -0.107345 0.620249
0.425143 -0.0842527 0.445898
0.0199196 0.00837008 0.215183
-0.239157 -0.0942017 0.508188
-0.00989051 0.0472372 0.176775
0.0554728 -0.0464663 0.493889
-0.0512027 -0.0694845 0.50488
-0.0549186 -0.0241177 0.517395
-0.143311 -0.0805643 0.119918
-0.0108553 0.0536524 0.320104
0.0359588 -0.151775 0.600167
-0.365068 -0.0857622 0.478783
-0.028673 -0.0992407 0.89927
-0.0037647 -0.12412 0.627081
0.00620714 -0.12386 0.400871
0.0221416 0.0203135 0.236024
0.0162299 -0.03882 0.962495
-0.00904426 -0.03349 0.964367
-0.0553418 -0.0660999 0.728345
0.0114929 -0.108006 0.737485
-0.00991422 0.0761393 0.202926
-0.0456446 -0.0160055 0.183487
0.0476568 -0.0637297 0.167077
0.050251 -0.0203977 0.594066
0.183944 -0.0865187 0.509329
0.0530702 -0.0326581 0.322232
-0.0353991 -0.000855257 0.210563
-0.060735 -0.0890888 0.384198
0.425093 -0.0862615 0.419172
-0.167168 -0.0824712 0.568027
0.0439483 -0.106183 0.494447
-0.0831661 -0.0668823 0.100157
-0.0630579 -0.0849797 0.434648
0.171684 -0.0828613 0.0625223
0.03539 -0.0859382 0.155652
0.0537454 -0.096217 0.29107
-0.118888 -0.0724691 0.485544
0.00147367 0.0732633 0.28713
-0.0813396 -0.0959506 0.58188
0.00505784 0.0130223 0.894522
0.0666256 -0.0961274 0.52827
-0.145113 -0.0935313 0.531369
0.0537791 -0.0519507 0.881686
-0.032615 -0.14179 0.595536
-0.0477675 -0.0762528 0.209076
0.0456533 -0.0765132 0.250084
0.011396 0.014266 0.229316
-0.0565233 -0.0767692 0.544278
0.0901763 -0.0685658 0.513498
0.12199 -0.0835478 0.497984
0.142729 -0.0799955 0.516948
0.0288685 -0.117037 0.579099
0.0893933 -0.0831356 0.109887
0.048087 -0.0520133 0.128997
0.00154754 -0.109239 0.777992
-0.288025 -0.0884419 0.488421
0.125518 -0.0686975 0.10897
-0.330846 -0.0942281 0.485424
-0.0574516 -0.0506129 0.374166
-0.0419581 -0.142843 0.649652
0.125859 -0.0944672 0.578335
-0.0981852 -0.0841782 0.148152
-0.0554716 -0.0268913 0.552187
-0.0493754 -0.0790486 0.865571
0.134441 -0.0810624 0.495685
0.00938259 0.0559134 0.317085
0.0497661 -0.0822511 0.106428
0.0282152 -0.0952287 0.196656
-0.0566074 -0.0574275 0.470141
0.0429136 -0.00611143 0.58539
-0.0279478 0.0102813 0.691091
0.00596119 -0.105722 0.208192
0.0361864 0.038362 0.28776
-0.019615 0.0136899 0.593347
0.00704625 0.0283626 0.131565
0.269168 -0.0895824 0.516152
0.437876 -0.0827971 0.427368
-0.199188 -0.0739384 0.495128
-0.00886686 0.0915948 0.141675
0.262412 -0.0896907 0.493336
0.0250751 -0.120159 0.647776
-0.200396 -0.0917434 0.553013
0.0649476 -0.0760037 0.451928
0.133542 -0.0682598 0.52037
-0.166601 -0.0827265 0.0967838
0.0282632 0.0523752 0.252518
-0.0714694 -0.148723 0.616122
-0.281328 -0.0878228 0.465896
-0.372728 -0.0731274 0.473723
0.1412 -0.082317 0.117283
-0.026875 -0.125856 0.637208
0.0506153 -0.0845775 0.188729
-0.0567941 -0.0568408 0.610564
0.00748366 0.0166462 0.344813
0.00429294 -0.123957 0.442129
0.0220022 0.0111395 0.365187
-0.186168 -0.0796857 0.54381
0.0453223 -0.0233577 0.154134
-0.0208186 0.0378845 0.342877
0.0459521 -0.0801361 0.794829
5.24186e-05 -0.103346 0.156563
-0.158059 -0.0931178 0.537521
0.028546 -0.096888 0.229682
0.254077 -0.0857512 0.470805
0.0260871 -0.0268328 0.0361848
-0.00951562 0.0337021 0.27478
-0.226444 -0.0778299 0.526319
-0.00862975 0.143224 0.139255
0.042827 -0.0786297 0.209908
0.0549563 -0.0418699 0.756623
0.00753641 0.0133077 0.164186
-0.0507026 -0.0815024 0.534971
-0.123141 -0.0784894 0.536905
0.262494 -0.0670329 0.480074
0.148296 -0.0933688 0.498149
0.042295 -0.0050823 0.783678
0.0210069 -0.098841 0.177034
-0.0551841 -0.067105 0.8364
0.165942 -0.0703255 0.0875615
-0.0628466 -0.0660979 0.119935
-0.00332117 0.111376 0.187931
0.0134149 -0.00209287 0.923893
0.0518622 -0.0983576 0.345109
0.0511068 -0.0220638 0.698499
0.00361958 -0.109239 0.815207
0.369124 -0.0727296 0.45559
0.0534205 -0.0582578 0.388198
0.0820635 -0.0673993 0.154604
-0.0396979 -0.00909555 0.132352
0.0724393 -0.0774952 0.0898009
0.343148 -0.083446 0.457027
-0.0273604 -0.0890972 0.927484
-0.128322 -0.0942226 0.602687
0.184856 -0.0843757 0.563623
0.143694 -0.0818233 0.551017
0.162005 -0.0854754 0.480898
0.0309141 0.00585297 0.812083
-0.023673 0.0120299 0.801598
-0.180909 -0.0922894 0.52755
0.00471072 0.0109966 0.237705
0.0086665 -0.12412 0.623527
0.0481703 -0.0163464 0.731979
-0.0141276 0.0156401 0.403635
-0.0636097 -0.0834108 0.341095
-0.0531475 -0.0260226 0.248354
-0.0370162 0.0022826 0.357904
-0.011312 -0.102176 0.140164
0.410527 -0.0708391 0.427484
-0.228927 -0.0846983 0.466963
0.00510247 0.137774 0.107154
0.0036804 0.0170758 0.641539
0.0251927 -0.1024 0.66116
-0.0154 0.015414 0.666509
0.0238435 -0.119046 0.513337
0.240841 -0.0905852 0.536308
-0.124023 -0.081797 0.564511
-0.0490645 -0.0338558 0.104661
0.0487209 -0.0174185 0.712191
-0.0231705 0.00908526 0.235235
-0.114414 -0.0756408 0.513521
-0.0398418 -0.0922977 0.823923
0.0541467 -0.0554563 0.842731
0.0580488 -0.0669971 0.204355
0.174985 -0.0906449 0.578381
0.0529312 -0.097467 0.385986
0.023589 -0.103056 0.787855
-0.165812 -0.0746813 0.502977
0.0450575 -0.0818778 0.857103
0.0457372 -0.0135303 0.284074
0.0516205 -0.098887 0.468862
-0.0772408 -0.0672995 0.157208
-0.0830612 -0.0957043 0.54223
0.150246 -0.0936333 0.567205
-0.258984 -0.0680751 0.473662
0.000237473 0.0716932 0.270322
-0.0227545 0.0118863 0.322662
-0.055606 -0.0346184 0.278387
0.0283856 -0.116974 0.42104
0.0596734 -0.0718885 0.412607
-0.0561461 -0.0311922 0.672346
-0.239157 -0.0922386 0.460292
0.0929547 -0.0954665 0.566794
-0.161931 -0.0929245 0.524643
-0.172872 -0.078437 0.512249
0.033606 -0.0237907 0.0671387
-0.0443472 -0.00454201 0.384843
-0.0576427 -0.0412353 0.477033
0.060631 -0.0836928 0.365328
-0.00964448 0.0894131 0.187022
0.0316621 -0.097311 0.813158
0.0548034 -0.0717963 0.529824
0.0510153 -0.0565418 0.227433
0.314801 -0.0838968 0.453643
0.200466 -0.0789364 0.514842
-0.333544 -0.0778688 0.497427
-0.0189031 -0.121934 0.388343
-0.0285387 0.0100396 0.86506
0.0125183 0.0154209 0.757758
-0.0671413 -0.0771545 0.425622
-0.00917415 0.0170758 0.83653
-0.127353 -0.0825177 0.504946
0.03706 -0.000495627 0.347766
0.0582223 -0.0773458 0.569164
0.347055 -0.0877493 0.442576
0.118873 -0.0716543 0.49119
0.117027 -0.0688572 0.150037
-0.0242495 -0.0982003 0.167103
0.0277116 0.0088738 0.769878
0.0604817 -0.0840554 0.163136
-0.0206933 0.0132488 0.789504
0.0823089 -0.0873316 0.610083
-0.0491149 -0.0348026 0.910721
-0.159097 -0.0905829 0.587164
-0.0380014 -0.063936 0.940519
0.0530681 -0.0623321 0.82242
-0.0986436 -0.0675977 0.0944586
0.0296565 0.0438772 0.339942
-0.0936182 -0.0955753 0.591292
-0.335862 -0.0720736 0.472827
-0.00264641 -0.109239 0.663224
-0.0426974 -0.0896042 0.785964
0.0577072 -0.0656978 0.104432
0.243006 -0.0800074 0.460619
-0.395495 -0.0839153 0.430949
0.042902 -0.107284 0.56
-0.0626481 -0.0834891 0.145444
-0.00499668 0.139327 0.15668
-0.0320166 -0.116915 0.599562
-0.00322214 0.0165638 0.312966
0.0354445 -0.0446549 0.0620568
-0.0227593 0.0227665 0.244536
-0.0316911 0.00695171 0.291242
-0.00149942 -0.12412 0.551144
-0.0656768 -0.1357 0.64787
-0.0298941 0.00873131 0.306161
0.277851 -0.0825733 0.469781
-0.205331 -0.0913034 0.495617
-0.0218678 -0.0423449 0.963162
-0.0459292 -0.01872 0.157092
-0.0573867 -0.0391022 0.687604
0.0388967 -0.00171205 0.500528
-0.316535 -0.0780741 0.47196
-0.0452595 -0.0139585 0.199335
0.0250303 -0.0990136 0.214304
-0.0489662 -0.0123181 0.566046
0.0524617 -0.027608 0.400667
0.0537944 -0.0572349 0.47939
0.0192124 0.0407789 0.309944
-0.0556317 -0.0976919 0.411291
-0.235628 -0.083446 0.498966
0.0535912 -0.0331668 0.730201
-0.0546051 -0.041052 0.224011
0.0169488 0.0136086 0.794456
0.339486 -0.0868384 0.497944
-0.0510301 -0.0563593 0.149563
0.0527781 -0.11231 0.590525
0.042159 -0.0837624 0.165669
0.0216867 -0.13302 0.64446
0.165676 -0.0699566 0.492956
-0.214465 -0.0679942 0.499734
-0.0745296 -0.072294 0.539347
-0.0363294 -0.0477284 0.0575219
0.0302984 0.00386606 0.259467
0.017745 -0.121177 0.369437
-0.0411126 -0.0140658 0.100828
0.330184 -0.0840126 0.449673
-0.173702 -0.0835764 0.0761055
0.0248392 0.010381 0.698075
-0.00826613 0.0373768 0.128523
-0.185017 -0.0920311 0.502638
0.275634 -0.0907886 0.499232
0.028532 -0.149293 0.64389
-0.102059 -0.0733238 0.081544
0.0541978 -0.0370343 0.521972
0.0146449 0.014551 0.848338
-0.0319298 0.00697129 0.325525
0.11607 -0.0828302 0.0801098
-0.0569195 -0.0560417 0.589146
-0.0351 -0.091847 0.205168
0.0504873 -0.0216882 0.350776
0.0303126 -0.010371 0.0829421
0.0599534 -0.15478 0.617894
0.0972452 -0.0816701 0.559588
0.0952576 -0.0824225 0.515922
-0.247852 -0.084374 0.542952
0.230447 -0.0758856 0.463604
-0.262221 -0.0773801 0.520802
-0.223443 -0.0907499 0.509524
-0.0141149 0.0159397 0.628621
-0.0620262 -0.0716199 0.368285
-0.0583151 -0.0716147 0.61481
0.0378491 -0.0889447 0.247999
0.050653 -0.118349 0.645252
-0.0135029 -0.12412 0.634329
-0.146029 -0.0837272 0.1028
-0.18513 -0.0822972 0.565691
0.0523311 -0.0429575 0.23191
0.00773117 0.0438183 0.25166
0.007483 0.0528036 0.233517
0.0247488 -0.0878334 0.929715
-0.435014 -0.0807983 0.436417
0.0565064 -0.0912959 0.333293
-0.0542839 -0.0531437 0.223937
-0.122411 -0.0828699 0.0829191
0.152241 -0.0711133 0.0651814
-0.0417552 -0.110975 0.501341
-0.352488 -0.0760715 0.461878
0.0530148 -0.0625652 0.503514
-0.0549151 -0.0662654 0.339479
-0.0599237 -0.108315 0.645127
0.0136469 0.013923 0.283733
-0.0391451 -0.151037 0.601772
-0.0571878 -0.0691316 0.438586
0.0190016 0.0122492 0.32244
0.0447933 -0.105251 0.455733
0.0298871 0.0572775 0.294763
-0.0532276 -0.0630744 0.237504
0.00725285 -0.0773308 0.973809
-0.0583767 -0.0456675 0.523948
0.0330734 -0.114848 0.316749
-0.00912291 0.0291729 0.225427
0.0155965 0.0141618 0.725378
-0.155283 -0.0815433 0.509369
0.100128 -0.080533 0.0801342
0.0100358 0.0145838 0.264988
-0.0544791 -0.0984526 0.287629
0.0549308 -0.0969141 0.615282
-0.383882 -0.0787809 0.427424
-0.0119038 -0.0238903 0.947749
-0.0499004 -0.0780264 0.815108
-0.0203869 0.0133741 0.678221
0.000106825 0.157788 0.127214
-0.00193443 -0.124072 0.490974
