0.0584693 -0.0761703 0.541503
-0.0555239 -0.0397077 0.254574
0.0178037 -0.105424 0.681683
0.00454276 -0.0959652 0.936114
-0.0573951 -0.0484015 0.287981
0.000110555 -0.109239 0.863607
0.0276153 0.00270732 0.190396
0.0291355 -0.098842 0.88062
-0.214617 -0.0786784 0.533992
0.0345136 -0.0771586 0.0904259
-0.0381178 -0.145272 0.666775
-0.00450403 -0.109239 0.69763
-0.046923 -0.0838234 0.683241
0.0535955 -0.0589696 0.639355
0.0258408 0.00997134 0.814883
0.0540297 -0.0359629 0.788928
0.0534569 -0.0598534 0.829242
0.00490381 -0.124025 0.470854
-0.0596864 -0.0704262 0.359881
0.0188624 -0.10499 0.841807
-0.0161191 -0.0919038 0.938755
-0.0230628 -0.100012 0.194197
0.0246595 0.0168124 0.327676
0.0131551 0.022202 0.329427
0.00762539 -0.069867 0.981806
-0.0303419 -0.095622 0.191144
-0.251256 -0.0897311 0.49518
-0.0848091 -0.0694874 0.0879163
0.0259529 0.00113008 0.131524
-0.432774 -0.0678489 0.430094
0.0188033 -0.121127 0.584414
0.0153543 0.0142608 0.601825
0.0483409 -0.0197901 0.269533
0.0983044 -0.0951202 0.529859
0.0325354 0.00432374 0.518908
-0.180395 -0.0922111 0.507274
-0.332106 -0.0962663 0.463647
0.176826 -0.0851856 0.572096
-0.058468 -0.0844651 0.494851
-0.036068 -0.0173571 0.924453
0.0527311 -0.0295747 0.383987
0.210575 -0.0834524 0.550449
-0.0572226 -0.038056 0.547226
0.039735 -0.00306176 0.335086
0.0184456 -0.0874972 0.943389
-0.00951387 0.0170758 0.542919
-0.0199292 0.0135613 0.657472
-0.00145243 0.0629141 0.242117
0.0210636 -0.130466 0.633399
-0.0593059 -0.0813543 0.288725
0.281384 -0.0709 0.458016
0.0346016 0.0430155 0.302197
0.0274689 0.026819 0.243027
0.211 -0.0806019 0.526531
0.0148745 -0.106622 0.862164
0.00817635 0.00411094 0.0837439
0.0474728 -0.0771752 0.726842
-0.0300445 -0.101418 0.861155
-0.0569549 -0.069212 0.514385
-0.202694 -0.0804941 0.549756
-0.360266 -0.0803415 0.457855
0.0362433 -0.154246 0.652193
-0.0398142 -0.0923238 0.741281
0.166547 -0.0931085 0.566643
0.0457747 -0.011682 0.688691
-0.0687589 -0.137739 0.667306
-0.0345302 -0.105196 0.273294
-0.00375995 0.0170758 0.732749
-0.0289482 -0.0353095 0.0312719
0.00977207 0.0143305 0.884687
0.052376 -0.0282927 0.31821
0.104066 -0.0952269 0.591362
0.0521043 -0.0263317 0.333504
-0.23375 -0.0962663 0.503929
0.324505 -0.0729388 0.443078
0.0177624 -0.0723206 0.0535286
0.196801 -0.0918941 0.514822
0.350468 -0.0791188 0.484552
0.0673696 -0.0687899 0.539042
0.176203 -0.0881288 0.503126
0.0320104 -0.0814424 0.0928375
0.0256434 0.0100521 0.729829
-0.0883583 -0.085298 0.595528
-0.0197529 0.0030238 0.0940229
0.0346744 0.0358754 0.304568
-0.316722 -0.0808114 0.508991
-0.02891 0.0095748 0.397676
-0.273237 -0.0890148 0.502655
0.215224 -0.0820993 0.538153
-0.0565914 -0.0575549 0.471841
0.00241846 -0.12412 0.636923
0.0281431 0.00394152 0.222821
-0.0945056 -0.0665384 0.531462
-0.0110978 0.0238234 0.283174
-0.126839 -0.0839927 0.123999
-0.0477638 -0.00997707 0.773195
-0.0484756 -0.128266 0.653811
-0.0493626 -0.0233139 0.182637
-0.0320566 0.00505063 0.262107
-0.0564145 -0.0395756 0.279226
0.12113 -0.0812606 0.551099
0.0635721 -0.0779827 0.330936
-0.00209247 0.0170758 0.564854
-0.0115372 -0.12412 0.567124
0.254609 -0.0806807 0.457861
-0.0352691 -0.0533719 0.950602
-0.0108159 -0.109209 0.681443
0.00841735 0.0164936 0.33842
0.0526166 -0.0353913 0.271736
-0.376151 -0.0698192 0.452004
-0.171193 -0.0886443 0.530781
0.0280886 -0.123789 0.666079
0.202418 -0.0916081 0.492428
0.0483219 -0.0166415 0.512083
-0.0437349 -0.109048 0.475795
-0.0490239 -0.0124306 0.528224
0.0635853 -0.0825282 0.106517
-0.0581516 -0.0761761 0.199944
-0.0567093 -0.0573815 0.664231
-0.00912047 0.077312 0.142194
-0.0558836 -0.0684832 0.35826
0.0760633 -0.084416 0.165429
0.19501 -0.0844186 0.561828
-0.0368689 0.00293844 0.683873
-0.451007 -0.0785377 0.435315
-0.0550221 -0.0244356 0.782655
-0.0266399 -0.10298 0.833157
0.0611127 -0.082767 0.361548
0.0157171 0.0141124 0.858641
0.271029 -0.0732062 0.473
-0.0801222 -0.0810993 0.560834
0.39602 -0.0852159 0.452108
-0.00950641 0.0170758 0.74729
0.0429846 -0.146622 0.653952
0.00576171 0.098296 0.202556
0.000734245 -0.0265041 0
0.0459398 -0.08016 0.794698
0.0226365 0.000642194 0.0947813
0.0152629 -0.0518873 0.975809
-0.00893329 0.00369376 0.917578
0.0291015 0.00756279 0.727775
0.0605968 -0.0723635 0.374262
0.0181235 -0.121401 0.641734
-0.00459091 0.0314656 0.129979
-0.25475 -0.0767266 0.515706
0.0957727 -0.0839884 0.135756
0.00639893 0.0789776 0.129081
0.0632621 -0.0852928 0.618748
0.0893183 -0.0829554 0.103517
-0.225662 -0.0759626 0.510748
-0.0389698 -0.113512 0.625664
0.0587425 -0.0714142 0.395879
0.115553 -0.0841104 0.138198
-0.186447 -0.0845362 0.569392
-0.0248762 -0.0039346 0.0786409
-0.00922948 -0.0351687 0.967063
-0.0583767 -0.0455964 0.621272
0.0976474 -0.0694313 0.504227
-0.0283255 0.0101268 0.769371
0.131138 -0.0943396 0.587087
-0.303468 -0.0725036 0.478012
0.053029 -0.0691417 0.534356
-0.0551746 -0.0646381 0.34128
-0.0510322 -0.101904 0.365209
0.422199 -0.0843417 0.444572
0.00788751 0.0381986 0.26317
-0.137596 -0.073919 0.497991
0.123996 -0.0755708 0.138775
0.00871211 0.0168955 0.778124
-0.0580893 -0.076786 0.627429
0.0265487 0.00583278 0.891188
0.0147823 -0.122443 0.392355
0.0469967 -0.0781022 0.764992
0.0134826 0.0150265 0.796749
0.00479132 -0.12412 0.554482
-0.025946 -0.119118 0.402806
0.0295427 -0.116474 0.40646
-0.0722266 -0.0686765 0.509666
-0.0533876 -0.0209267 0.529392
-0.169833 -0.0763898 0.517061
-0.0521705 -0.0185571 0.527186
-0.0646108 -0.153247 0.652502
-0.21716 -0.0746361 0.500077
-0.0629127 -0.0819273 0.526087
-0.289085 -0.0673278 0.471076
0.000286317 -0.0882214 0.956461
0.0452774 -0.0814498 0.713734
-0.132614 -0.0938339 0.504984
0.048254 -0.0165094 0.544337
0.35884 -0.0785165 0.433087
0.0365213 -0.04791 0.0668627
-0.034365 -0.089345 0.149678
0.118217 -0.0945839 0.551295
0.0544613 -0.0504452 0.309339
0.00766009 0.0691662 0.256236
0.0370696 -0.0705947 0.0884738
-0.00404661 0.138225 0.103689
-0.0845803 -0.0677417 0.16268
-0.319365 -0.0816124 0.462812
0.0815631 -0.0829733 0.515076
0.367374 -0.0795851 0.484864
0.173702 -0.0894904 0.486822
-0.00439645 0.0166104 0.330972
0.296006 -0.0836597 0.448022
-0.00967302 0.0467492 0.144704
-0.00941513 0.0618364 0.145576
0.0191165 0.0121071 0.29369
-0.327841 -0.0737538 0.487266
-0.237315 -0.0810314 0.490372
0.177302 -0.0866151 0.52257
-0.396492 -0.0813773 0.443135
0.109251 -0.0947172 0.518794
0.0529685 -0.0975639 0.439267
-0.0522939 -0.0826034 0.120319
-0.0547337 -0.068614 0.785379
0.0268888 0.00905165 0.381839
-0.150911 -0.0934086 0.547351
-0.0566139 -0.0349145 0.461049
-0.0490649 -0.0582276 0.10433
-0.0353951 0.00379177 0.351965
0.165312 -0.0782001 0.516144
0.283465 -0.0860786 0.452648
0.0639543 -0.147832 0.603672
0.0262626 -0.0985382 0.899993
0.0535742 -0.0822246 0.102787
-0.0429928 -0.0152015 0.130224
-0.0660154 -0.0660618 0.104272
0.0965163 -0.0890833 0.612244
-0.0192386 -0.111712 0.647485
0.0231133 -0.119385 0.617163
-0.329923 -0.0782086 0.468206
-0.0443622 -0.00489121 0.297416
0.153784 -0.0932078 0.501266
-0.126908 -0.0943405 0.570874
0.136896 -0.0828434 0.560986
-0.263137 -0.0791302 0.470554
0.0546914 -0.0519837 0.556001
-0.0221002 -0.107696 0.272471
-0.0258587 -0.1033 0.750352
0.0182958 0.0130576 0.771474
0.0459631 -0.0788779 0.28513
0.0265836 -0.0779132 0.946468
0.283375 -0.0909619 0.453015
0.0215168 -0.119676 0.384481
0.148655 -0.0856588 0.582027
-0.0434806 -0.00329814 0.741622
-0.0149164 -0.105004 0.228057
0.0723502 -0.124729 0.619849
0.0651054 -0.0756335 0.43741
-0.000161631 0.0166934 0.363081
-0.0400577 -0.0920338 0.874201
-0.0673607 -0.132524 0.656981
-0.0245763 0.0113039 0.381701
-0.000202939 0.0735423 0.282695
-0.233579 -0.0853586 0.550051
0.0075098 0.0165604 0.166763
0.121118 -0.0761641 0.508498
-0.405675 -0.0754674 0.463466
0.0332127 0.00312757 0.34595
-0.373433 -0.0854382 0.470751
0.208416 -0.0677217 0.491878
-0.378486 -0.071504 0.465972
-0.0485643 -0.0806279 0.779346
0.251034 -0.0785869 0.501196
0.0287781 -0.149865 0.639438
0.169929 -0.0723921 0.101459
0.0518085 -0.0510748 0.225693
0.0209288 -0.119923 0.387116
-0.197665 -0.0918535 0.556535
-0.241759 -0.0833471 0.470992
-0.0448288 -0.107381 0.280108
-0.0106271 0.0362347 0.236454
0.0287036 0.00767556 0.433158
0.2606 -0.0897836 0.500691
0.0478352 -0.0764696 0.770352
-0.055981 -0.0620245 0.694312
-0.168151 -0.091093 0.583565
0.0204677 0.0116139 0.309638
-0.0150755 -0.10645 0.258937
0.00796151 0.0341085 0.265799
-0.0472859 -0.105785 0.623383
-0.0344254 -0.0910787 0.180687
-0.0236172 0.0494076 0.231801
0.00156567 -0.123781 0.366882
-0.354603 -0.086566 0.452006
-0.0477681 -0.0102948 0.451178
0.0109529 0.0173544 0.225427
0.170973 -0.0828351 0.553689
-0.350458 -0.0820459 0.450698
0.165966 -0.0826967 0.553594
0.00505847 0.0167867 0.399133
-0.103692 -0.0948584 0.503299
-0.0665752 -0.0739763 0.194378
0.052372 -0.0665528 0.188946
-0.0836352 -0.0669397 0.534906
-0.0383002 -0.00407567 0.201507
-0.00534206 0.0170758 0.858254
0.032972 -0.0817935 0.925475
-0.375831 -0.0847305 0.431628
-0.0234668 -0.0620344 0.968155
-0.109473 -0.0835652 0.580006
-0.0990948 -0.0953867 0.616569
0.00583535 0.0170758 0.693283
0.0254122 0.0101467 0.552926
-0.0281222 -0.097216 0.183715
-0.121452 -0.0847579 0.589388
0.0118375 0.0156994 0.513932
-0.0588783 -0.0928251 0.423345
-0.388153 -0.0853166 0.444879
0.0670762 -0.0825614 0.105225
-0.127216 -0.0786651 0.538174
-0.116493 -0.0793856 0.544723
-0.167644 -0.0708324 0.073587
0.0101844 0.0415866 0.225427
0.0571497 -0.0706065 0.317966
0.186935 -0.0835012 0.555872
-0.338587 -0.0859051 0.480668
0.00722783 0.0646138 0.21993
0.215155 -0.0912785 0.508972
-0.13964 -0.0936234 0.511267
0.00741519 0.0554924 0.22902
0.248825 -0.0782685 0.499002
-0.0643666 -0.0841877 0.169217
0.054562 -0.0527975 0.509942
-0.0575282 -0.0694826 0.521209
0.26987 -0.0725631 0.471887
-0.258559 -0.0816673 0.479435
0.0546547 -0.0522182 0.691836
0.0520932 -0.0679249 0.685576
0.0386627 -0.00145587 0.845929
-0.0930023 -0.0669988 0.525866
-0.00115486 0.043752 0.225427
0.0539479 -0.0354414 0.639815
0.00118192 0.0168683 0.430696
-0.0216702 -0.120693 0.339734
0.246375 -0.0808395 0.521014
-0.166385 -0.0842274 0.485236
-0.0551433 -0.0570164 0.26362
-0.266782 -0.066942 0.480354
-0.0555478 -0.0450624 0.232497
-0.00511725 0.129992 0.167116
0.0585982 -0.0708845 0.0953365
0.0355036 -0.113585 0.340579
-0.0158485 -0.123017 0.327477
0.00553768 0.0170758 0.701368
-0.0148989 0.015619 0.717832
0.441469 -0.0821665 0.413447
-0.0270557 -0.125244 0.638349
-0.041943 -0.110791 0.544841
0.192513 -0.0922349 0.557796
-0.0555722 -0.0825427 0.116151
0.0527777 -0.0609999 0.297386
-0.133182 -0.0775674 0.132059
-0.0327645 -0.0946327 0.213988
0.0476486 -0.155033 0.603637
-0.0441454 -0.00683323 0.25988
-0.0285689 -0.0979864 0.2035
0.0512759 -0.0994623 0.60664
-0.169666 -0.0704663 0.103776
0.073094 -0.0837625 0.143769
-0.0578512 -0.0420639 0.693874
0.166891 -0.0768331 0.0592091
0.00311774 0.0170758 0.748145
0.193406 -0.0732471 0.486093
-0.244899 -0.0774304 0.460458
-0.443677 -0.0834647 0.438927
0.0522659 -0.0654766 0.378738
0.119387 -0.0703582 0.497611
-0.00382447 0.0166688 0.353563
-0.0667372 -0.077731 0.387665
0.151289 -0.0835589 0.500189
0.0375493 -0.0638683 0.0813481
-0.25229 -0.089782 0.513421
0.0139374 -0.123093 0.632584
0.299878 -0.0883708 0.468029
0.0459504 -0.0151032 0.269928
0.0119147 -0.0986085 0.920712
-0.352976 -0.072192 0.452007
0.338311 -0.0865112 0.440973
0.00949026 -0.0528284 0.00597239
0.0213912 0.0358471 0.329024
-0.031235 0.00786436 0.395923
0.207961 -0.0814215 0.4804
0.0641416 -0.151637 0.628308
-0.175715 -0.0765429 0.511452
0.067385 -0.0670772 0.179083
0.0648393 -0.0745987 0.393815
-0.00956522 0.0955068 0.186219
-0.00648719 0.0509729 0.225427
-0.0161554 -0.12335 0.621107
-0.0196878 -0.0565893 0.0245757
-0.0614185 -0.0882897 0.471297
-0.306927 -0.0877589 0.480638
0.0537011 -0.0420754 0.272715
-0.000633333 0.0480871 0.258696
0.00139387 0.00430907 0.286367
-0.38974 -0.0671651 0.449718
-0.0376232 -0.0932991 0.270938
0.0219222 0.0659422 0.293915
-0.0577481 -0.050759 0.809058
0.0193197 0.0126388 0.834895
-0.0478802 -0.10523 0.619139
-0.0542595 -0.0226244 0.54097
4.57268e-05 0.0135698 0.34171
-0.0597457 -0.0906402 0.333107
0.0298818 -0.0104283 0.0815112
0.241432 -0.0755511 0.482727
-0.0439981 -0.00379094 0.509666
-0.0331884 -0.0773742 0.0829771
-0.194915 -0.0818285 0.561292
0.00375497 -0.109239 0.850347
-0.0056754 0.00363618 0.917709
0.0601266 -0.0848805 0.411439
-0.0381981 -0.0911718 0.244012
-0.239157 -0.0909677 0.45929
0.234363 -0.0907756 0.532698
-0.0554773 -0.0269276 0.535418
0.0368275 -0.112852 0.626899
0.068303 -0.0669531 0.166328
0.05315 -0.0303545 0.845606
0.0508652 -0.0215935 0.690762
-0.0398645 -0.112666 0.629949
0.0429375 -0.106839 0.410837
0.0538403 -0.0689145 0.323043
-0.0462538 -0.0826478 0.510921
0.00506454 -0.101047 0.106585
0.348603 -0.0698356 0.444922
0.258289 -0.0897207 0.537851
0.0429687 -0.00621856 0.866266
-0.208026 -0.0781479 0.529882
0.172763 -0.0721279 0.0992252
-0.2096 -0.0751826 0.505017
0.0553422 -0.04433 0.733653
0.166184 -0.0723132 0.481569
-0.148241 -0.093477 0.542499
-0.00150996 0.0258958 0.225427
-0.018347 0.0135253 0.29186
-0.00554043 0.0944843 0.206818
0.0057697 0.0170758 0.563668
-0.0471278 -0.105297 0.29434
-0.0595797 -0.0910022 0.341166
-0.442129 -0.0833728 0.443902
0.039026 -0.00179861 0.511407
0.0989414 -0.0682124 0.529796
-0.0414859 -0.00141666 0.623782
0.0315219 0.0236853 0.275689
0.289448 -0.0734377 0.464412
0.0838019 -0.0726719 0.489816
0.351495 -0.0692872 0.445721
-0.0563745 -0.0595163 0.859418
0.053097 -0.0419533 0.256891
0.043474 -0.106732 0.548983
-0.0551808 -0.0250374 0.53078
-0.236832 -0.0686414 0.475437
-0.112821 -0.0948436 0.575402
0.00761427 0.0271366 0.202856
0.120807 -0.09473 0.599652
0.254978 -0.0899529 0.536972
-0.257645 -0.089477 0.487651
-0.310679 -0.0756238 0.46074
-0.0125481 0.016555 0.500811
-0.0649673 -0.0662842 0.126161
0.0542601 -0.0386236 0.430836
-0.049049 -0.076207 0.889353
0.0531602 -0.0416032 0.886836
-0.0511276 -0.0172959 0.36249
0.0121716 -0.106366 0.256887
-0.00235856 -0.00268541 0.0490781
0.111215 -0.0948781 0.566051
0.0583452 -0.0810966 0.19279
0.385984 -0.0827436 0.439847
-0.185746 -0.0675816 0.507359
-0.049716 -0.0196517 0.235788
-0.0758559 -0.0750434 0.510422
0.00042589 -0.123654 0.313222
0.0788534 -0.0833174 0.123826
0.048774 -0.0175218 0.850402
0.364465 -0.0695925 0.441811
0.0108523 -0.108268 0.795325
0.00956377 -0.0385771 0.970256
-0.0748937 -0.0701985 0.493159
0.31236 -0.0836913 0.45478
-0.0340588 0.00554329 0.497409
0.00167557 -0.101246 0.110893
0.0487742 -0.0627344 0.193081
-0.0104452 0.0553871 0.243724
0.145208 -0.0749645 0.482896
0.0282551 0.00836112 0.811999
0.020162 0.00988318 0.27924
-0.0174822 0.0405594 0.317011
0.0956217 -0.082005 0.519306
0.00854378 0.0130738 0.893089
0.0463327 -0.0191029 0.230155
0.0355984 0.0353234 0.288577
-0.0555919 -0.064505 0.540797
0.0554376 -0.0472274 0.823415
-0.0447564 -0.0768194 0.530755
0.0345951 -0.0394816 0.0582662
0.236842 -0.0904309 0.476678
0.0483657 -0.139631 0.640499
0.053935 -0.0353589 0.571344
-0.0268828 -0.0171585 0.0457556
-0.0342448 -0.0922802 0.198463
-0.0420275 -0.0902361 0.764604
0.0766121 -0.0666481 0.114566
0.0552308 -0.0485459 0.860219
0.00243034 0.00661704 0.910951
-0.0103997 0.01215 0.161904
0.409439 -0.0781651 0.464072
0.0396582 -0.0897686 0.871721
-0.0411172 -0.00106885 0.662173
-0.0557501 -0.0605402 0.312548
-0.0797339 -0.0787635 0.541328
0.0830166 -0.0667611 0.101745
-0.0297574 0.00944019 0.791081
0.0538816 -0.0571464 0.528836
-0.00252906 -0.104108 0.9089
0.0500268 -0.0199611 0.673649
0.0164222 0.0121331 0.268713
0.0290296 -0.148059 0.657789
0.051041 -0.0604152 0.244564
-0.0454062 -0.107182 0.376337
0.290745 -0.0776812 0.485201
0.248678 -0.0844071 0.469015
-0.0561324 -0.0600859 0.445335
-0.074624 -0.0671156 0.153177
-0.0399868 -0.00465679 0.220405
-0.00428878 0.130848 0.105505
0.418502 -0.0814201 0.435964
0.00918945 -0.100012 0.102172
0.148271 -0.0937173 0.571577
-0.0184538 0.00808591 0.167978
0.00727048 -0.123889 0.412859
-0.0487178 -0.0803289 0.862388
-0.0559887 -0.0452346 0.243694
-0.00969859 0.054688 0.168045
-0.0328916 0.0386895 0.298902
0.00797171 0.0209439 0.241324
-0.38575 -0.0707455 0.459275
0.0325158 -0.152662 0.61419
-0.096401 -0.067677 0.109811
-0.0317016 -0.115635 0.6161
0.18194 -0.0840422 0.485497
0.0541826 -0.0552275 0.852113
0.341212 -0.083446 0.450196
0.0314829 0.00493727 0.398674
-0.0344195 0.00369597 0.278473
0.0137309 -0.10709 0.700818
0.0396575 -0.0870455 0.245733
-0.0447564 -0.0724892 0.535501
0.0267311 -0.109547 0.647485
0.0193979 -0.0685555 0.0496565
0.175438 -0.080593 0.0787277
-0.0520801 -0.0737824 0.775873
0.0243789 -0.134619 0.601875
0.0105008 -0.011216 0.934327
-0.0579532 -0.0966787 0.566748
-0.00231483 0.00192144 0.921597
-0.258396 -0.079697 0.47147
-0.0522197 -0.0186528 0.70409
-0.0717239 -0.0844959 0.17566
0.0327216 0.00124495 0.886039
-0.0158453 0.0151406 0.874159
0.372266 -0.085747 0.480254
0.0646293 -0.0839573 0.511502
-0.0354481 -0.115103 0.340106
-0.175475 -0.0915842 0.508297
-0.0368922 -0.114901 0.530916
-0.0116198 0.0236492 0.326151
0.030098 0.00662284 0.643555
0.396976 -0.0719411 0.427718
0.0593069 -0.0866757 0.449199
-0.248025 -0.077468 0.522234
-0.0583883 -0.0966363 0.560937
-0.0294394 0.00481978 0.211563
-0.014882 -0.10357 0.198497
0.190955 -0.0728827 0.47488
0.351258 -0.0806286 0.493542
0.124569 -0.0685786 0.10292
0.174139 -0.0872011 0.486756
-0.053427 -0.0210036 0.820314
-0.00566564 0.141439 0.154318
-0.00655794 -0.123848 0.395616
0.0417123 -0.157112 0.639125
-0.0199284 -0.0973562 0.113735
-0.331335 -0.0846411 0.505423
-0.0555111 -0.0645981 0.48228
-0.117615 -0.0688436 0.116765
0.127585 -0.0830087 0.564343
-0.0814231 -0.0683443 0.511481
0.0413814 -0.0821989 0.110503
-0.107506 -0.0951734 0.606726
-0.00452004 0.0170758 0.59799
0.00731552 0.051741 0.207224
-0.0424939 -0.0382916 0.929789
0.0134602 -0.100322 0.913058
0.0520737 -0.0460863 0.214522
-0.233717 -0.0962663 0.447621
-0.0583322 -0.136263 0.587039
-0.435065 -0.0793448 0.437914
-0.0769786 -0.0818793 0.567509
-0.253509 -0.0834375 0.466989
-0.0534801 -0.0710567 0.741115
-0.00412291 0.0306909 0.307439
-0.100684 -0.0936961 0.502
-0.181271 -0.0780774 0.530607
-0.0945306 -0.0955231 0.586854
-0.317418 -0.0825894 0.510754
-0.0564018 -0.058773 0.472474
0.316607 -0.0878043 0.505826
-0.348832 -0.0712129 0.464995
0.0340403 0.0383935 0.321447
-0.051022 -0.0758427 0.779901
-0.141023 -0.0830644 0.0765995
0.00130621 -0.124001 0.460796
0.0554195 -0.0473427 0.755798
0.232208 -0.0810963 0.526166
0.221918 -0.0695043 0.479391
-0.384592 -0.0815273 0.445186
-0.251565 -0.0898773 0.528352
0.0599629 -0.117595 0.666574
0.253867 -0.0901478 0.534119
-0.0530503 -0.061121 0.224417
-0.349799 -0.0737943 0.484371
-0.075245 -0.0824102 0.0993867
-0.00855659 0.101992 0.123471
0.0548194 -0.0409972 0.663426
0.00750576 0.0555056 0.242131
-0.00449915 0.135475 0.104366
0.0132913 0.0151047 0.665153
-0.181222 -0.077788 0.475593
0.0565193 -0.0702822 0.345056
0.0535972 -0.0589545 0.51075
-0.0184296 -0.0418798 0.00163531
-0.008827 0.132805 0.146976
-0.0662849 -0.0797061 0.510143
0.14143 -0.0936951 0.520621
-0.0519246 -0.109528 0.663393
0.232131 -0.0847393 0.472035
0.0457113 -0.018638 0.221052
-0.0478606 -0.128807 0.644779
-0.0374399 0.00239978 0.693121
-0.027318 -0.102181 0.879493
-0.261961 -0.0809749 0.483903
0.00231623 -0.053434 0.000497959
-0.342363 -0.0672347 0.456864
0.345087 -0.0868815 0.459318
0.0904409 -0.084386 0.583734
-0.239157 -0.0932974 0.488519
0.000995065 -0.0992059 0.0973139
-0.0763177 -0.0667135 0.114413
-0.0334428 0.00617012 0.826192
-0.0646822 -0.0732651 0.545325
0.0291243 -0.0373688 0.94434
-0.362639 -0.07012 0.436382
-0.00458401 0.00582635 0.310012
-0.045027 -0.0656376 0.921929
-0.233214 -0.0689218 0.474255
0.172568 -0.0709228 0.0676172
0.0273416 0.0295376 0.23399
0.34372 -0.0962663 0.450029
0.28836 -0.0692667 0.461918
-0.026482 -0.101183 0.893788
-0.30315 -0.0772523 0.475714
0.168536 -0.0839833 0.493558
-0.340163 -0.0865769 0.471003
-0.269261 -0.0715089 0.471378
0.0992341 -0.0949959 0.509905
-0.012099 0.0704169 0.289725
0.167413 -0.0832849 0.49728
-0.0371265 -0.00130598 0.23263
0.0565977 -0.0834462 0.144176
0.0498718 -0.0725043 0.63298
-0.0156606 -0.00669571 0.0467565
-0.0570794 -0.03986 0.328568
-0.0554425 -0.0654577 0.800468
-0.0413751 -0.111349 0.50775
0.0302662 -0.0986277 0.778048
-0.331097 -0.0871895 0.461807
0.00747313 0.0489011 0.224398
0.0309911 0.0568946 0.282605
0.0569483 -0.144195 0.659283
-0.0268192 -0.102907 0.824955
0.0516647 -0.0830466 0.133432
-0.197749 -0.0801395 0.503641
-0.0138753 0.049108 0.3128
-0.0582009 -0.0478722 0.864452
-0.0522882 -0.0187862 0.522561
-0.231753 -0.0845186 0.514561
-0.0433493 -0.00317433 0.630134
-0.339412 -0.0803603 0.463683
0.0124808 -0.123413 0.404423
-0.0534827 -0.040241 0.197091
-0.0425369 -0.0720533 0.92104
-0.0109023 0.0567245 0.339718
-0.0550231 -0.0244387 0.607215
0.0205814 0.0121227 0.768428
-0.0264706 -0.11875 0.339623
0.0214013 -0.103951 0.804053
0.0195235 -0.120836 0.606434
0.054789 -0.0416466 0.454236
0.131883 -0.0689683 0.108553
0.0166269 -0.105905 0.773392
0.0652503 -0.14628 0.661268
0.0252605 0.0269718 0.230231
0.00752567 0.0189802 0.173856
-0.056795 -0.0961051 0.324299
-0.0361648 -0.0768097 0.931185
-0.307622 -0.0799997 0.472973
-0.00877698 0.132387 0.143644
-0.0223583 0.0122757 0.404937
0.0274298 0.00909347 0.532486
-0.168156 -0.0839451 0.494828
-0.0911718 -0.0802047 0.552813
-0.00676414 0.136828 0.104033
-0.00625237 0.0834309 0.219177
0.00735467 0.0264728 0.163868
0.0438563 -0.00852476 0.399378
-0.00112472 -0.1023 0.133823
-0.163431 -0.0704948 0.092634
-0.236704 -0.0902561 0.500989
0.0102735 0.0223407 0.314686
-0.0482673 -0.15419 0.599358
-0.0533185 -0.0207923 0.550809
-0.00976985 0.0637652 0.175857
0.245566 -0.0824381 0.479495
-0.0093792 -0.12402 0.468647
0.0232434 -0.0160144 0.0454898
-0.151132 -0.0935516 0.579191
0.241014 -0.0905795 0.536265
0.0137477 -0.030014 0.953314
-0.0295668 0.00956325 0.719764
-0.0926752 -0.0957325 0.617729
0.237107 -0.090425 0.477233
0.00777961 0.0215621 0.214789
0.339314 -0.084894 0.467719
0.177511 -0.0809004 0.506082
-0.0317353 -0.116571 0.647258
0.0486379 -0.0749066 0.794761
0.0548989 -0.0415043 0.706037
-0.0575205 -0.0399553 0.528776
0.266557 -0.0780541 0.493449
0.0294573 0.00722714 0.794882
-0.0758154 -0.0701638 0.493363
-0.00976822 0.0385762 0.137918
-0.0482648 -0.0109525 0.517155
0.224394 -0.0811104 0.49191
-0.186306 -0.0737695 0.494348
0.0145649 0.0678645 0.263557
-0.0268718 -0.118894 0.472856
-0.0583767 -0.0455261 0.753803
-0.0566071 -0.043068 0.884245
0.231127 -0.0795341 0.513336
0.24337 -0.0774026 0.492921
-0.446984 -0.082677 0.412606
0.357953 -0.0860343 0.450272
0.00717042 0.0750306 0.223733
-0.0505554 -0.0767511 0.658918
-0.038032 -0.0940048 0.872791
-0.175082 -0.0758625 0.477052
-0.0576843 -0.0409995 0.852992
0.0237223 0.0108379 0.758205
-0.366058 -0.0857193 0.476871
-0.0456926 -0.0862193 0.796323
0.000937622 -0.00467757 0.0399812
0.0496281 -0.0712671 0.284365
-0.00421735 0.0169865 0.476383
0.0112685 -0.0474058 0.00029693
-0.0567783 -0.0434893 0.272463
-0.029529 -0.100032 0.889547
0.228365 -0.0837278 0.478026
0.0265353 -0.128965 0.591437
0.0157663 -0.121908 0.339066
0.107192 -0.0836834 0.116803
-0.0536257 -0.0213903 0.734169
0.0617609 -0.0839591 0.1588
-0.057572 -0.0518821 0.5204
-0.00954343 -0.102439 0.136828
0.0458317 -0.0261946 0.132299
0.0546178 -0.0524532 0.579497
0.0986415 -0.0953346 0.577411
0.0300887 -0.116294 0.42546
-0.0126945 0.00913236 0.31532
-0.0860436 -0.0827142 0.10357
0.237302 -0.0704089 0.470661
0.040825 -0.00349551 0.864768
0.0110534 0.0160201 0.618068
-0.356082 -0.0691034 0.442588
0.0690011 -0.0963837 0.598451
1.37975e-05 -0.0936642 0.0854957
-0.173526 -0.083446 0.491538
-0.019848 0.0227959 0.22822
0.39721 -0.0766228 0.458795
0.0540022 -0.0462651 0.266695
-0.0540462 -0.0222091 0.758714
-0.056531 -0.0585187 0.656705
0.00632055 0.0170758 0.554746
-0.00960029 0.0540528 0.15252
0.064769 -0.120651 0.593611
0.0399864 -0.00572327 0.251024
-0.034578 -0.0178797 0.0710916
0.0501906 -0.100422 0.556405
-0.0559264 -0.0297915 0.819717
-0.00956091 0.0478166 0.131449
-0.0461642 -0.00686247 0.628256
0.266557 -0.0768804 0.483638
0.0654738 -0.0841816 0.164099
0.0873123 -0.0673185 0.524694
0.107631 -0.0946764 0.611514
0.057675 -0.0953674 0.634578
-0.0968691 -0.0954937 0.59754
-0.225005 -0.074165 0.495754
-0.027449 -0.00430321 0.0849928
-0.0176677 0.0608358 0.338772
0.00768229 0.0290605 0.215508
-0.0562759 -0.0543357 0.282884
0.00508329 -0.12412 0.631711
0.403731 -0.0689955 0.4422
0.171395 -0.0836086 0.0769091
0.0223057 -0.0666882 0.963749
0.286688 -0.0890248 0.516914
-0.00897448 0.00150704 0.0694349
0.0531657 -0.0617097 0.80761
-0.218532 -0.0908607 0.48641
0.0345353 -0.00095458 0.244034
0.410437 -0.0673411 0.437081
0.0469441 -0.013959 0.640135
0.0114153 0.0203107 0.333595
0.0200855 0.0447207 0.322655
0.429542 -0.0843276 0.425203
0.0307569 0.0060013 0.856241
-0.0532132 -0.0237149 0.26934
-0.0459416 -0.0857343 0.757505
-0.20081 -0.0916432 0.534803
-0.0294881 -0.00615777 0.0852051
0.0490305 -0.100975 0.341638
0.065529 -0.0773592 0.0920457
-0.0811685 -0.0674669 0.53613
-0.0394435 -0.0849078 0.157663
-0.18856 -0.0828774 0.489589
0.183944 -0.0856766 0.506078
-0.0985404 -0.0954898 0.608818
0.0183247 0.0528666 0.225427
-0.298967 -0.0882082 0.469778
0.0396162 -0.0898083 0.712295
0.0259423 0.00674506 0.238487
0.201364 -0.0719643 0.474152
0.00840272 0.0166863 0.409579
-0.0763976 -0.0960896 0.57555
-0.416343 -0.0810358 0.440131
0.0191471 0.0127094 0.606689
-0.0597614 -0.0909424 0.387448
0.00839606 0.00904909 0.254256
0.173561 -0.0928258 0.577364
0.00656084 0.00390277 0.080236
0.0401491 -0.0919007 0.639515
-0.0321632 -0.115542 0.64312
-0.0641808 -0.0828914 0.444629
-0.0184225 -0.122074 0.366378
-0.0331872 0.000611146 0.198959
-0.00944245 0.0549549 0.251017
0.0462964 -0.0132362 0.407076
-0.406218 -0.0670112 0.440708
-0.0338784 -0.0943308 0.226747
0.115233 -0.0828292 0.0806692
0.053543 -0.118844 0.587039
0.0019774 -0.0105525 0.0133509
-0.169182 -0.083446 0.507948
0.0169366 0.013258 0.381726
-0.0442685 -0.0881222 0.836148
0.0365936 -0.00162102 0.267911
0.0531826 -0.0305624 0.864546
-0.0141907 0.0109963 0.194752
-0.0522972 -0.0188038 0.645371
0.050468 -0.0713433 0.829088
-0.015235 -0.123725 0.623635
0.0763501 -0.0664901 0.103156
-0.0779224 -0.084228 0.162342
-0.0536751 -0.0835428 0.152855
-0.0196722 -0.105831 0.729535
-0.324841 -0.0704265 0.443966
0.0533591 -0.0604769 0.764566
-0.0753677 -0.0673617 0.525961
0.00377371 0.0557046 0.250178
0.163528 -0.0929854 0.520218
0.0572953 -0.0903873 0.429659
-0.0550787 -0.043654 0.225783
-0.0218114 -0.100167 0.186904
-0.151963 -0.0838875 0.104862
0.261038 -0.0744265 0.477155
0.0392486 -0.0612766 0.0822306
0.27507 -0.0891715 0.469303
-0.0163868 0.0347543 0.225427
0.039026 -0.00179858 0.637953
0.410675 -0.0849974 0.427873
0.013605 -0.122884 0.376512
-0.182197 -0.0683407 0.493115
0.00654496 0.0795459 0.151399
0.306228 -0.0882665 0.488946
-0.0543476 -0.0401513 0.220867
0.0358599 -0.113768 0.487126
0.0122178 -0.107709 0.831604
-0.0574813 -0.0524603 0.812493
0.0247423 -0.0904812 0.0966412
0.0527096 -0.0275465 0.657408
0.00723178 0.0408081 0.174405
-0.162306 -0.0705672 0.0856151
-0.0537938 -0.0379132 0.215384
0.0202985 -0.120292 0.431772
-0.00945985 0.0548405 0.134549
0.0645667 -0.0817977 0.52954
-0.056547 -0.0584164 0.536911
0.0601051 -0.0965224 0.567566
0.222727 -0.0696017 0.478689
0.21802 -0.0780985 0.478692
0.121502 -0.0831333 0.0870656
0.0401097 -0.00282083 0.518865
-0.344878 -0.0753618 0.453701
-0.0251173 -0.103603 0.814456
0.0525243 -0.0603887 0.881104
0.0313952 -0.0975627 0.798493
0.282836 -0.0674721 0.472226
-0.0816373 -0.073381 0.0882214
0.0448946 -0.0113655 0.29048
0.055022 -0.0498767 0.600441
0.0748768 -0.0818319 0.507948
-0.0330871 0.00621242 0.424102
-0.220741 -0.072991 0.479222
0.0516308 -0.0237762 0.38579
0.312014 -0.0706357 0.460906
0.028529 0.000473059 0.164707
-0.178423 -0.0762568 0.0601028
0.293617 -0.0847997 0.462934
-0.0200623 -0.0993847 0.156296
-0.0369434 -0.0033389 0.191343
0.0423124 -0.00920895 0.255401
-0.00869226 0.144807 0.145937
0.176203 -0.0892473 0.476187
-0.0725393 -0.12024 0.60789
-0.0287454 0.0290424 0.260169
0.00382692 0.0169002 0.443033
0.0402499 -0.109714 0.592499
-0.0127059 -0.108682 0.728455
-0.000306728 -0.0690796 0.988593
-0.0586999 -0.0699135 0.397852
0.113829 -0.0665619 0.524004
0.00736018 0.0412704 0.314827
-0.0927629 -0.083848 0.139742
0.0491156 -0.101395 0.639266
0.00593025 -0.109239 0.810609
-0.0706254 -0.069214 0.0925228
-0.0572414 -0.0509302 0.305641
0.0426937 -0.147868 0.664407
0.149131 -0.0780483 0.482584
0.302213 -0.0884701 0.504776
-0.0379987 -0.0946609 0.642603
0.0531685 -0.0616917 0.590409
-0.038182 -0.0938634 0.713355
0.405937 -0.0712531 0.427453
-0.00572129 -0.008174 0.0244635
0.0303605 -0.0985388 0.816579
-0.0574944 -0.0669051 0.206765
0.0444007 -0.00900681 0.794099
0.00888855 -0.123756 0.356593
-0.0199798 0.0134069 0.462079
0.121578 -0.0795784 0.484769
0.010288 0.070455 0.269809
0.0548216 -0.0410114 0.749164
-0.142157 -0.0831654 0.0817592
-0.0373235 -0.0078403 0.113809
-0.327814 -0.0766618 0.44075
0.122641 -0.0945127 0.56618
-0.376674 -0.0704324 0.447115
-0.0307177 -0.125949 0.596952
-0.020776 -0.101447 0.204373
-0.00250137 0.0166188 0.33423
0.0855463 -0.0958116 0.589567
0.00829776 -0.123592 0.286727
-0.335907 -0.0962663 0.429058
-0.200525 -0.091725 0.550048
0.0554747 -0.045175 0.746594
0.0598259 -0.0834475 0.141938
0.0441682 -0.107377 0.6521
0.0109975 -0.00353001 0.0568352
0.0408022 -0.00347396 0.791321
-0.453404 -0.0811143 0.429981
0.132633 -0.0840803 0.121244
-0.00872853 0.136025 0.142232
-0.05176 -0.0820746 0.101854
0.00730314 0.0686856 0.231294
-0.104004 -0.0768411 0.524066
0.360094 -0.086416 0.462525
-0.0192519 -0.0223322 0.943133
0.0555946 -0.069783 0.464191
0.0321725 -0.115656 0.524643
0.0516842 -0.0231881 0.745757
-0.00753445 0.0116268 0.340179
-0.0622439 -0.0862168 0.379324
-0.185243 -0.0920071 0.499194
-0.0506382 -0.0155736 0.735832
-0.107512 -0.072381 0.530315
0.0898518 -0.0706177 0.498657
0.00551296 0.151089 0.128804
0.0531062 -0.0300754 0.785744
-0.351314 -0.0800102 0.49324
-0.240014 -0.0902136 0.515953
-0.0779095 -0.0838196 0.147837
-0.066861 -0.077441 0.377023
0.0226693 -0.135553 0.611232
0.018657 -0.120803 0.368726
-0.0559966 -0.0458684 0.243146
-0.0542561 -0.0695458 0.789896
0.00725042 0.038557 0.172655
0.0265541 0.00965869 0.723967
-0.430375 -0.0667708 0.435818
0.0451133 -0.105005 0.471336
-0.111671 -0.0827532 0.0862884
-0.0493247 -0.0130161 0.690887
0.176203 -0.0884602 0.479463
0.0906466 -0.0954462 0.546895
-0.0254431 0.0113059 0.729292
0.292443 -0.0887244 0.492391
-0.0502751 -0.0148667 0.729694
-0.055897 -0.0616952 0.452639
0.0533754 -0.0317911 0.804285
0.0635425 -0.0665222 0.148868
0.0282706 -0.0926001 0.153022
0.131666 -0.0943559 0.594113
-0.0230118 0.0119235 0.374241
-0.0468983 -0.0838717 0.722803
-0.0395983 -0.0896156 0.240784
-0.422388 -0.0719557 0.419078
0.018637 -0.0970076 0.91696
-0.0324681 -0.0155913 0.0678587
0.0332534 -0.00344418 0.174798
0.0499048 -0.100753 0.60751
0.124393 -0.0945326 0.602373
-0.0173058 -0.12288 0.516365
0.257412 -0.0702758 0.465671
-0.0636493 -0.0964072 0.550525
-0.067648 -0.0831061 0.128772
-0.042126 -0.0156358 0.104295
-0.0261406 0.0105116 0.326572
0.0540795 -0.0362804 0.512309
-0.00302285 -0.00691871 0.931888
-0.0360955 0.00366794 0.704484
-0.0250583 0.0250211 0.250093
-0.167734 -0.0892503 0.477142
0.00602013 0.0460749 0.225427
-0.0446116 -0.108203 0.467724
-0.252698 -0.0723404 0.479142
0.312709 -0.0857428 0.512912
0.0496431 -0.044804 0.151357
-0.209815 -0.0750779 0.504131
0.019969 -0.06038 0.0363506
0.262674 -0.0898076 0.51978
0.0866263 -0.0673274 0.13362
-0.0831736 -0.0787733 0.507231
0.370207 -0.0856302 0.485417
0.0830601 -0.0831622 0.115319
0.0361223 -0.113705 0.593075
-0.0299311 0.0289432 0.267792
-0.0530361 -0.0202423 0.518174
-0.139714 -0.0829262 0.0693064
0.00645182 0.0891757 0.156942
-0.151958 -0.0748748 0.505274
0.411449 -0.0769999 0.420582
-0.0444907 -0.00451689 0.432333
0.0529325 -0.030327 0.419608
-0.0111063 0.0228054 0.282605
-0.213205 -0.0698663 0.473062
-0.0146103 0.015737 0.811409
0.382843 -0.0672006 0.445506
0.0481499 -0.0167254 0.430208
0.17301 -0.080596 0.0905431
0.0306745 0.0249382 0.320456
0.0542024 -0.0551013 0.529845
-0.164351 -0.0690043 0.49292
-0.0414738 -0.00195931 0.346987
-0.0596605 -0.0716375 0.597448
-0.0275577 -0.118229 0.307281
-0.0637648 -0.0688006 0.510363
-0.029521 -0.145042 0.633634
0.292521 -0.0692694 0.460738
0.143058 -0.0863177 0.588723
0.0650844 -0.150004 0.615789
0.190125 -0.0829097 0.55025
0.0171474 -0.044302 0.00840568
0.0254735 -0.118398 0.539325
-0.144825 -0.077635 0.0669056
0.0452327 -0.0106268 0.586321
0.00762374 0.0170758 0.77688
0.00700814 0.0404683 0.141276
-0.0177814 0.0139226 0.329716
-0.0575767 -0.0422789 0.378948
-0.239157 -0.085327 0.472779
0.249329 -0.068884 0.474731
0.344618 -0.0866017 0.496613
0.0472452 -0.0226755 0.897723
0.00550982 0.143723 0.127416
0.137322 -0.0766732 0.509317
-0.0583767 -0.0456631 0.540226
0.0520981 -0.0599527 0.271201
-0.0409056 -0.11154 0.428464
-0.00849968 -0.102463 0.137354
-0.0214797 0.0174196 0.25847
0.175402 -0.0849636 0.486748
0.0931119 -0.0952334 0.518638
0.299281 -0.0820896 0.461782
0.096262 -0.0682425 0.530561
-0.05542 -0.065601 0.648603
-0.0296463 -0.117336 0.288116
-0.00507359 0.0378665 0.3069
0.057117 -0.0709549 0.202695
-0.0107711 0.0253615 0.310869
-0.0499186 -0.151357 0.66657
-0.0455337 -0.107432 0.523944
-0.069123 -0.0790449 0.489214
0.00603384 0.108565 0.134657
0.0519343 -0.068413 0.789713
0.0537283 -0.0581231 0.714277
-0.171459 -0.083748 0.0879528
-0.0291689 0.000883143 0.133107
0.360354 -0.0864736 0.476442
0.0521049 -0.0242744 0.772736
-0.0252158 -0.0734634 0.0630607
0.0449999 -0.0105968 0.429259
-0.117966 -0.0947821 0.599612
-0.013996 -0.105206 0.224501
0.0302702 0.00646037 0.614409
0.0490265 -0.0721581 0.280308
-0.0429916 -0.0033268 0.366013
-0.0105999 0.0308379 0.22296
-0.00880516 -0.0616809 0.0200303
0.0476738 -0.0180538 0.274877
0.372541 -0.0856898 0.481157
0.054963 -0.0435332 0.402145
-0.0185767 -0.10628 0.864852
-0.00571696 -0.094705 0.940091
-0.283365 -0.0728427 0.481835
-0.026448 0.00405918 0.902028
0.053456 -0.0598591 0.55914
-0.0392482 -0.0502035 0.941281
0.00513216 -0.106368 0.222243
-0.0159757 -0.107344 0.797832
-0.0822613 -0.0958282 0.562661
-0.0570622 -0.055132 0.792248
-0.00231945 0.0167344 0.133606
-0.015216 -0.123733 0.556675
-0.0554476 -0.0279441 0.429856
0.0408544 -0.0886403 0.753299
0.0295338 -0.0942128 0.201086
-0.0639724 -0.0726077 0.462836
-0.0581795 -0.0480089 0.759056
-0.0583767 -0.0466246 0.768481
-0.247301 -0.0899167 0.505834
-0.00557942 0.0242801 0.285314
0.0257913 0.00999158 0.869817
0.0488353 -0.12086 0.641191
0.0576661 -0.0764511 0.582866
-0.0234582 -0.045934 0.0186685
0.0318197 -0.0971624 0.758107
-0.00929292 0.0170758 0.781592
0.0378452 -0.0914788 0.729463
0.000427587 -0.0445375 0
0.140219 -0.0937077 0.51508
0.0981147 -0.0829943 0.155408
0.166627 -0.0755289 0.495219
-0.313521 -0.0755061 0.472805
0.00731404 0.0167059 0.138639
0.0219981 0.0608292 0.33445
0.335215 -0.0848743 0.43911
-0.358169 -0.0729542 0.479093
-0.00547468 0.0170758 0.65909
0.00366301 -0.123693 0.329509
-0.137867 -0.0696756 0.116671
0.0551421 -0.0430549 0.849572
-0.0358413 0.00351776 0.395456
0.0566366 -0.0842007 0.171036
0.036415 -0.154744 0.613517
-0.00418814 0.0166867 0.360475
0.0537921 -0.0344478 0.524391
0.192892 -0.0810554 0.534162
-0.0326987 -0.139563 0.66616
0.0569156 -0.0704512 0.508392
0.0350777 -0.0940892 0.733329
0.056738 -0.0656904 0.107127
-0.0110193 0.0282337 0.279511
-0.281554 -0.0669499 0.47615
0.0289409 -0.0998778 0.829172
-0.0164036 -0.123249 0.628031
-0.157605 -0.083434 0.0831748
-0.0639587 -0.0825065 0.300673
0.0133243 -0.107257 0.803342
-0.030847 -0.119204 0.654184
0.297886 -0.0735509 0.448775
-0.333356 -0.0709016 0.441323
-0.14207 -0.0685749 0.500811
-0.127273 -0.0693368 0.126586
0.00903009 -0.0692253 0.9809
-0.00976628 0.0912346 0.207992
0.0116355 0.0152005 0.29973
0.171409 -0.0705557 0.488423
-0.0039352 -0.123686 0.326866
-0.0580469 -0.0474163 0.414248
-0.00679853 0.00967435 0.126682
-0.0527387 -0.030377 0.218821
0.0253455 0.0259022 0.234145
-0.0520738 -0.0316834 0.195286
-0.0722657 -0.0961886 0.566592
-0.0237784 0.0119868 0.568518
0.0501982 -0.0707963 0.878689
-0.0282487 -0.0290912 0.942018
-0.067775 -0.0746778 0.419244
0.182108 -0.0926285 0.570527
0.280543 -0.0962663 0.50193
0.201117 -0.0776231 0.503726
0.0516418 -0.0353392 0.890775
-0.0495818 -0.014145 0.389637
-0.122752 -0.0943876 0.550784
0.193491 -0.0920227 0.519589
0.0196537 0.0202934 0.225835
0.381954 -0.0690811 0.43904
0.0012575 0.00923469 0.115936
-5.9153e-05 -0.106181 0.218186
-0.048068 -0.0815943 0.812774
-0.204996 -0.0729282 0.486398
0.0128891 0.00059711 0.918907
0.0305093 0.0062348 0.765712
-0.288001 -0.0711255 0.467252
0.3057 -0.0882472 0.509969
-0.0449602 -0.00481678 0.866092
-0.155758 -0.0787679 0.481645
-0.00961263 0.055084 0.156831
-0.0780574 -0.0848889 0.592613
-0.0628693 -0.0720544 0.351921
0.00826226 -0.109148 0.869007
0.00880824 0.0168765 0.614248
0.0515576 -0.0991642 0.579713
-0.0262077 -0.0143422 0.930348
-0.0437978 -0.0302384 0.0850218
-0.0576852 -0.0494171 0.393808
-0.0601999 -0.0707369 0.56721
-0.0540203 -0.0421664 0.203466
0.0114003 0.064773 0.237907
-0.0581312 -0.0483169 0.688012
-0.0527899 -0.100167 0.332278
0.275634 -0.0912461 0.457357
-0.0947839 -0.0839835 0.143316
0.0638063 -0.0740041 0.368348
0.343253 -0.0962663 0.486568
-0.0537639 -0.0290413 0.252222
0.23501 -0.0906336 0.507102
-0.010866 -0.102364 0.140539
-0.272049 -0.0831249 0.464237
0.283811 -0.0689472 0.464753
-0.0107632 0.0709332 0.289274
-0.0268338 -0.0959672 0.145069
0.183944 -0.0939665 0.505289
-0.286277 -0.0812397 0.450623
0.0275131 -0.108519 0.272458
0.0270011 0.00901423 0.875545
-0.0514175 -0.0750725 0.650791
-0.264472 -0.0893124 0.502192
0.390278 -0.0758112 0.443629
-0.0508349 -0.0159566 0.535006
-0.0384851 -0.0911567 0.248578
0.0464668 -0.0130297 0.686704
-0.0539599 -0.0820288 0.490416
0.0272027 -0.0861466 0.0931324
-0.0462215 -0.0828191 0.508268
-0.0226337 -0.054062 0.0266923
-0.0163799 -0.122846 0.344875
0.0741693 -0.0812091 0.531822
0.0217889 -0.0742198 0.958328
-0.0811907 -0.0832021 0.123881
0.0707495 -0.121612 0.633408
-0.0117183 0.0533779 0.322938
-0.102101 -0.0797574 0.503269
-0.0108124 0.0177508 0.230857
0.047743 -0.0370323 0.132929
0.208481 -0.0837151 0.55309
0.050729 -0.099977 0.606805
0.00173639 -0.0456115 0.98128
-0.0516968 -0.0443113 0.131508
0.013233 0.0233326 0.322712
0.0326611 -0.0936194 0.241239
0.0270632 -0.023438 0.935431
-0.303612 -0.0669252 0.470157
0.0335763 -0.0955054 0.66766
-0.118251 -0.0830066 0.0942203
-0.00867024 -0.102248 0.132692
0.416361 -0.0845453 0.448072
-0.143834 -0.0799964 0.548486
-0.0181971 0.0338048 0.327459
-0.233317 -0.0962663 0.462243
-0.36411 -0.0858098 0.464457
0.0244847 0.0100615 0.342663
0.15158 -0.0699914 0.515983
-0.0163683 0.0535929 0.225427
-0.354007 -0.0861806 0.487299
-0.0247795 -0.0500826 0.0269373
-0.00758574 0.0170578 0.503953
-0.0106532 -0.124044 0.478888
0.04289 -0.00614648 0.495255
0.0131457 0.0117841 0.229927
0.0267961 -0.00817473 0.0794833
-0.0204457 0.01335 0.56075
-0.0557427 -0.0286202 0.692866
0.0555615 -0.152576 0.664019
-0.030081 -0.099241 0.247377
0.271402 -0.0895142 0.516849
-0.027046 0.0106502 0.795094
0.202684 -0.0833298 0.551098
-0.00890235 0.0811788 0.120848
-0.0641997 -0.072722 0.491644
-0.0678362 -0.0804403 0.563197
-0.06017 -0.146886 0.667709
0.0500012 -0.154942 0.661334
-0.453008 -0.0716131 0.412152
-0.269704 -0.0789429 0.469201
0.339314 -0.0933946 0.47941
0.240262 -0.0819836 0.461271
-0.0474276 -0.082841 0.679807
-0.0195979 -0.12154 0.343341
-0.0578614 -0.0421285 0.522239
-0.0105013 -0.103211 0.156889
0.0532886 -0.060926 0.843507
-0.0190357 -0.122151 0.500338
-0.151983 -0.0932866 0.5293
0.0330445 -0.123456 0.663811
-0.434114 -0.0789628 0.435372
0.156701 -0.0934522 0.572609
-0.175377 -0.0842686 0.521764
-0.0524518 -0.100823 0.466508
-0.370721 -0.0761522 0.479191
-0.0500072 -0.014345 0.867091
0.0397565 -0.00288219 0.394252
0.420042 -0.083837 0.46145
0.10145 -0.0953899 0.608078
0.0339775 -0.147938 0.591082
0.0303958 0.00623513 0.479326
0.0431105 -0.107053 0.5311
-0.120502 -0.0801308 0.140873
0.380635 -0.0857525 0.461351
0.0423399 -0.00514192 0.740863
0.347055 -0.0924583 0.457611
0.0403474 -0.003045 0.674044
-0.0537267 -0.0510927 0.200164
-0.171625 -0.0758006 0.512048
0.159747 -0.0836047 0.0817554
0.0345121 -0.0923237 0.250017
-0.0250622 -0.119717 0.566033
-0.0106625 -0.0871061 0.0733643
-0.0511141 -0.101763 0.341383
-0.0514756 -0.0172041 0.803954
-0.0561232 -0.059876 0.427389
0.0677374 -0.0661452 0.10539
-0.330385 -0.0808722 0.465519
0.0335221 0.0273084 0.298955
0.0429561 -0.00783255 0.287527
-0.098045 -0.0951341 0.52999
0.0280282 -0.0670146 0.0624113
0.0659593 -0.0832225 0.129578
0.0566546 -0.108293 0.636704
-0.00579626 0.0170758 0.790585
0.0394177 -0.0532099 0.0781489
0.00716971 0.031107 0.146197
0.0729529 -0.0961218 0.569889
0.0924518 -0.0954544 0.560828
-0.298035 -0.0666415 0.473944
-0.00946914 0.0953769 0.171983
-0.247482 -0.0844536 0.463671
0.0156352 -0.106311 0.738995
-0.0288865 0.00832476 0.881521
-0.239928 -0.0699453 0.466348
-0.0147284 0.0154179 0.875254
-0.0560102 -0.0685492 0.35273
0.0442664 -0.00874535 0.560676
0.0500716 -0.0679428 0.52968
-0.128297 -0.0940292 0.515061
0.0348147 0.00172771 0.378945
0.0457896 -0.0119039 0.473739
0.0555009 -0.0468241 0.681939
0.127512 -0.0773018 0.516652
-0.0572025 -0.157108 0.637996
0.435127 -0.080764 0.43418
0.00147858 0.0168208 0.412318
-0.0368266 -0.114919 0.51676
-0.0494914 -0.0133408 0.66754
-0.343204 -0.0726899 0.464481
-0.0208967 0.0131656 0.678467
0.00818991 -0.0717335 0.0423802
-0.0580726 -0.0486902 0.694931
0.00719085 0.0662261 0.237917
-0.266941 -0.0687222 0.46636
-0.0140728 -0.108123 0.830485
0.0227626 0.00360675 0.132524
-0.0110408 0.0117336 0.336401
-0.057531 -0.0519568 0.498106
0.0508523 -0.0215683 0.686382
-0.055156 -0.067284 0.852818
0.0530202 -0.0613628 0.425265
-0.020003 0.0132652 0.414248
-0.0508143 -0.0262327 0.185776
0.0434234 -0.00710393 0.857905
0.360161 -0.0790787 0.48216
-0.0744691 -0.135099 0.60305
0.337205 -0.0868653 0.500246
0.136524 -0.0803812 0.0682835
-0.0636062 -0.0831692 0.300462
0.013818 -0.107055 0.820859
-0.045562 -0.107338 0.479211
0.263051 -0.0898083 0.522489
0.024134 -0.102461 0.877908
0.0219967 -0.093815 0.922116
0.0504485 -0.0685121 0.271921
0.0600638 -0.13869 0.650421
-0.285114 -0.0793513 0.450899
-0.0285743 0.00989116 0.462481
-0.157282 -0.0670468 0.514785
0.028257 -0.0897158 0.104773
0.280714 -0.083446 0.466297
-0.326094 -0.0796911 0.468114
0.0263977 0.00932715 0.36853
0.346372 -0.0845056 0.44449
-0.404829 -0.0843254 0.462418
0.0542356 -0.0372754 0.731014
-0.0695054 -0.141304 0.588458
-0.0487178 -0.0118346 0.822859
-0.0225194 0.0207793 0.33644
-0.196248 -0.0841721 0.477294
-0.380951 -0.0762492 0.446287
-0.0577868 -0.0416526 0.839847
-0.0436277 -0.10921 0.500062
-0.0162238 0.00791121 0.143005
-0.0552161 -0.0252621 0.620366
0.0473138 -0.0472404 0.0992214
-0.0549707 -0.0673451 0.410632
-0.111381 -0.0811933 0.522386
-0.00688476 0.0702002 0.321308
0.0470707 -0.0831922 0.141873
0.233445 -0.0843576 0.473529
-0.0831572 -0.0960403 0.614002
-0.0201831 0.0128692 0.297571
-0.0242173 -0.0906858 0.0919793
0.0475706 -0.0769848 0.664279
0.0545099 -0.0405131 0.41094
0.0147117 0.0145237 0.867611
-0.033685 -0.0981051 0.648345
0.0429226 -0.0860345 0.718727
0.170518 -0.075713 0.0582907
-0.05652 -0.0569074 0.397957
-0.0495895 -0.0786317 0.843867
0.322635 -0.0877127 0.482972
-0.027606 -0.10041 0.240272
0.00756307 0.0142221 0.169866
-0.0910642 -0.0840477 0.147878
0.039336 -0.0247756 0.0852087
-0.366627 -0.0812952 0.452043
-0.0540751 -0.0992307 0.440772
-0.0590331 -0.0658444 0.115203
-0.0394983 -0.11311 0.505754
0.160872 -0.0702882 0.0769389
-0.0574603 -0.0395714 0.732174
0.0401626 -0.0133413 0.153768
0.0375858 -0.000440102 0.645511
-0.365335 -0.0676236 0.447375
0.051281 -0.0397908 0.216938
-0.0229616 -0.00661675 0.0647898
-0.0168817 0.0148079 0.765769
0.020908 -0.000522049 0.0865779
0.0288511 -0.0841985 0.929204
-0.275375 -0.0804078 0.525737
0.0245982 0.0537541 0.236533
0.0447829 -0.0179129 0.207829
0.0312491 -0.0887537 0.135712
0.0383826 -0.111482 0.515801
0.0333582 -0.152479 0.610735
0.0180187 0.0632416 0.248226
0.310226 -0.0824979 0.46107
0.108369 -0.079336 0.537717
-0.0100277 0.0377603 0.172707
0.00786002 0.057529 0.325293
0.0339189 0.00301875 0.70817
-0.0368915 0.00291707 0.871032
0.0144932 0.0079025 0.301521
-0.0502426 -0.0318812 0.144908
0.0492139 -0.056283 0.1776
0.0503947 -0.0211352 0.422697
0.283375 -0.0847939 0.468488
0.0892188 -0.0705495 0.174453
0.170142 -0.0833502 0.0624178
0.275634 -0.0868766 0.460247
-0.187758 -0.091833 0.574475
0.405638 -0.0737037 0.45145
0.130242 -0.0943807 0.589714
-0.0276894 -0.0392637 0.0273433
0.0506379 -0.0923241 0.281957
0.0252567 -0.122038 0.65809
0.0355311 -0.113816 0.416147
-0.0218478 0.012463 0.397132
-0.0495966 -0.0654282 0.120264
0.0246851 -0.118723 0.545696
-0.0532535 -0.111427 0.590946
0.242252 -0.0840883 0.47314
-0.0365676 -0.0953862 0.848265
0.00594185 0.0969308 0.118153
0.0316191 0.00518798 0.652491
-0.0380319 -0.0840064 0.91545
0.00410617 -0.109239 0.86941
0.0528786 -0.0635397 0.671013
0.0280858 -0.0943076 0.906367
0.0629927 -0.0848643 0.62004
-0.131381 -0.0770061 0.524101
-0.00420803 -0.0101663 0.935273
0.0325517 -0.0964718 0.80484
-0.0561996 -0.0604681 0.499663
0.0628781 -0.118851 0.666128
-0.015608 0.0152435 0.479326
0.357037 -0.0800027 0.450279
-0.0594027 -0.0742916 0.62264
0.0553392 -0.0448589 0.474008
-0.185538 -0.0761319 0.514133
-0.0305527 0.045896 0.316289
-0.000368788 -0.103241 0.911959
-0.150919 -0.0700091 0.110712
-0.0137744 0.0678993 0.318233
-0.00549464 -0.107106 0.238281
-0.0616565 -0.076439 0.0942534
0.0984407 -0.0951921 0.545963
-0.0260122 0.0510946 0.250571
0.0468482 -0.0141993 0.428574
0.114572 -0.0948675 0.6075
-0.381668 -0.0851704 0.473667
0.0325444 -0.0517253 0.0566335
-0.0552539 -0.0659417 0.462461
-0.00853698 0.00759557 0.0960252
-0.0254425 -0.119199 0.352651
-0.153792 -0.077994 0.482112
0.231679 -0.0906499 0.488007
-0.185073 -0.0806502 0.486285
-0.0102908 0.0258199 0.180396
0.0195618 -0.0957606 0.102021
0.38466 -0.0755773 0.458774
0.202019 -0.0918389 0.538457
-0.0422096 -0.0156325 0.106323
-0.0237374 0.0256691 0.24065
-0.159011 -0.09321 0.563918
0.037172 -0.0046882 0.220695
-0.0474571 -0.082612 0.12359
-0.153847 -0.0774915 0.113548
0.034314 -0.114354 0.329715
0.251513 -0.0902295 0.533384
-0.0296812 -0.0463824 0.0367541
-0.0496132 -0.0177795 0.256219
-0.38613 -0.0697878 0.451251
0.18037 -0.0926296 0.559004
0.000805539 -0.109239 0.688226
0.129811 -0.0832941 0.086912
-0.111084 -0.0775622 0.529747
-0.0315058 -0.116583 0.287995
-0.0556385 -0.0980265 0.59566
0.030665 -0.11628 0.539174
-0.0548212 -0.068345 0.652196
0.11857 -0.0831006 0.505511
0.0541631 -0.0368133 0.679707
-0.117426 -0.0947123 0.580937
0.0145141 0.0146045 0.680684
-0.0664831 -0.0842656 0.170688
-0.00964244 0.0578088 0.167827
0.0186873 -0.0592582 0.972052
-0.0136567 -0.00511335 0.0499198
-0.233445 -0.0962663 0.497311
-0.237616 -0.0864748 0.515145
0.0515756 -0.0582362 0.891967
0.157699 -0.0837209 0.0894109
-0.057406 -0.039225 0.519321
-0.0427772 -0.00284124 0.449849
-0.162509 -0.0763677 0.491234
-0.283068 -0.0770589 0.517093
0.0483378 -0.0323016 0.16909
0.0138734 0.0629361 0.232243
-0.0351488 -0.115095 0.282236
0.0735699 -0.0671203 0.535608
-0.0203996 0.0357189 0.342576
-0.0157098 -0.107453 0.771876
-0.339859 -0.086593 0.472209
0.0397857 -0.0659531 0.928043
-0.143802 -0.0835916 0.0993485
0.286208 -0.0849121 0.457689
0.000572259 0.0170758 0.59376
0.0226902 -0.119048 0.316042
0.0546059 -0.0525291 0.830401
0.0544984 -0.052316 0.450488
-0.0491668 -0.0138301 0.294516
-0.00321335 -0.12412 0.517848
0.0704228 -0.0829362 0.508746
-0.0832102 -0.095105 0.624339
-0.0574484 -0.0526701 0.655909
0.0307813 -0.092095 0.185263
0.0322909 -0.0967178 0.72455
-0.393939 -0.0711702 0.450253
-0.132516 -0.0939733 0.533743
0.00616798 0.127868 0.16742
-0.176473 -0.0823288 0.0883063
0.0221733 -0.0429422 0.0210623
-0.0651226 -0.0813312 0.490614
-0.143299 -0.0776471 0.528874
