-0.142118 -0.112666 0.0759453
-0.14803 -0.0680201 0.370207
-0.047842 -0.0540757 0.419184
-0.007963 0.0386774 0.113716
0.0193781 -0.0800581 0.717433
-0.148842 -0.0759895 0.0141209
0.0282946 -0.0112216 0.335778
0.0155015 0.0593724 0.169518
0.164451 -0.0815096 0.271199
-0.000367154 -0.0904925 0.0813613
-0.031136 -0.0763042 0.632273
0.150556 -0.0721175 0.146378
0.0837142 -0.077522 0.283871
-0.00895051 0.000304239 0.202921
0.0984574 0.0583976 0.10907
-0.0427441 -0.0576605 0.142331
0.0272658 -0.0321986 0.640293
-0.222111 -0.0710286 0.26211
-0.0205671 -0.04293 0.775126
0.107517 -0.074516 0.384551
0.0184962 -0.00429469 0.277993
-0.134788 0.0608723 0.10847
-0.331173 -0.076558 0.267796
0.0105583 -0.00079179 0.521263
-0.0273245 -0.109083 0.241148
0.0425258 -0.046408 0.195375
0.0447679 -0.0586049 0.412925
0.227432 -0.0887135 0.248224
0.330367 -0.0781222 0.268773
-0.0458689 -0.066655 0.350085
0.150202 -0.0760588 0.400688
0.0160764 -0.0998418 0.567801
0.0404485 -0.0746135 0.471726
0.142965 0.0486632 0.185772
-0.115451 -0.103453 0.246601
-0.104266 -0.0939084 0.140104
0.11061 -0.108929 0.0685115
0.113714 -0.0649453 0.186145
-0.154179 -0.0769668 0.0848747
-0.00541195 -0.0911382 0.688926
0.0348259 -0.0293639 0.118005
0.136295 -0.104857 0.284484
-0.0907799 0.0611912 0.171684
0.281442 -0.0849135 0.295263
-0.0172211 -0.0571126 0.874759
-0.114356 -0.097518 0.345572
0.138656 -0.114707 0.0544108
-0.0860899 -0.0917322 0.317708
-0.0046827 0.000667393 0.448425
0.0168385 -0.0274973 0.682287
0.0805661 -0.0838968 0.370027
-0.0385304 -0.0829506 0.47384
-0.104981 0.0457722 0.12004
-0.128216 -0.0576039 0.399378
-0.163644 -0.0891737 0.337551
0.196206 -0.0881518 0.305048
-0.102067 -0.0937755 0.0429497
0.115122 -0.0642273 0.108096
0.018621 -0.00409076 0.542866
-0.0409697 -0.0246902 0.548353
-0.0124946 -0.102274 0.435491
-0.0082918 0.0425333 0.147722
-0.0210533 -0.0720441 0.79828
-0.0010593 -0.0970321 0.104308
0.00645345 0.0315787 0.211404
-0.0453853 -0.0673151 0.258683
0.0130834 -0.00484464 0.195694
0.0448961 0.0597379 0.135859
0.0464193 0.044325 0.126859
0.0308905 -0.0549003 0.0696588
0.0923624 -0.0793495 0.329509
0.0301455 -0.0858835 0.182173
-0.0195542 -0.0224763 0.647018
0.136897 -0.112661 0.112131
0.0352563 -0.0181683 0.36467
0.121249 -0.108662 0.201932
0.0295543 -0.0184944 0.594428
-0.277762 -0.0737801 0.280099
0.0406914 -0.0968222 0.294432
0.04569 -0.0504779 0.297744
-0.0177145 -0.00275265 0.375304
-0.0334021 -0.0531803 0.0692897
0.0126847 -0.0333207 0.745793
0.044841 -0.0560387 0.264671
0.00924006 -0.072157 0.891663
0.120635 0.0611551 0.13941
0.00512008 0.0881091 0.156197
-0.105292 -0.0777871 0.202494
-0.153061 -0.0869417 0.263816
0.000385566 0.000667393 0.538506
-0.100071 0.0567201 0.109571
-0.0295903 0.059645 0.169532
-0.134587 -0.100505 0.396115
-0.0285256 -0.0369093 0.0560622
-0.0290379 -0.0931985 0.523086
0.0319155 -0.10516 0.360718
0.0906665 0.0583401 0.182112
0.168488 -0.0830875 0.344615
0.118424 -0.0697048 0.00711161
0.0214923 -0.0509592 0.793679
-0.12523 -0.0603159 0.156561
0.0248059 -0.00793066 0.373256
-0.0189225 -0.0814572 0.731933
0.151703 -0.0755443 0.0303391
0.0465356 -0.0748382 0.370875
0.0378438 -0.0760138 0.588468
0.0434488 -0.0596998 0.233995
0.148709 -0.0695512 0.252333
-0.0889757 0.0452272 0.131847
0.11714 -0.0607278 0.41234
-0.14774 -0.0672761 0.329831
-0.323113 -0.0830106 0.237321
0.0127774 -0.00169976 0.316912
0.0497889 0.0491864 0.204004
0.054083 -0.0928475 0.335254
-0.0232745 -0.00548672 0.257552
-0.0418614 -0.0389311 0.597128
-0.144971 -0.105358 0.1833
-0.0462865 -0.0639914 0.304319
0.117167 -0.105564 0.236561
0.0383861 -0.0786293 0.532878
0.125584 0.0462665 0.12633
0.0369945 0.0581762 0.109153
0.0443268 -0.0614167 0.344476
-0.033194 -0.0221381 0.111232
-0.0356071 -0.0833557 0.178296
-0.00873324 0.036386 0.203763
-0.0455266 -0.0349855 0.286283
0.0115236 -0.114727 0.270098
-0.252665 -0.0779872 0.25047
-0.141896 -0.0624055 0.239715
0.152245 -0.0753033 0.190058
0.0222684 -0.110637 0.404683
-0.0396339 -0.100102 0.339507
-0.197333 -0.0907779 0.302328
-0.0129307 -0.000795313 0.488119
-0.0382061 -0.0223568 0.227795
0.121599 -0.0966405 0.420686
-0.00838248 0.0179295 0.136084
0.127305 -0.0786887 0.316574
0.0025573 -0.0205427 0.029992
-0.11956 -0.0633824 0.0446599
0.127971 -0.101928 0.37547
0.036058 -0.101292 0.31711
-0.023581 -0.096323 0.586551
-0.0279067 -0.089055 0.160366
-0.047155 -0.0584554 0.518921
0.115921 -0.0634907 0.143373
-0.150971 -0.103434 0.107352
0.0234369 -0.0485827 0.044091
-0.0322697 -0.0674972 0.674784
-0.136408 -0.114325 0.0247756
0.0354272 -0.018501 0.428084
-0.00281997 -0.0986992 0.140545
0.104363 -0.0990203 0.0259769
-0.292503 -0.0726553 0.269973
-0.0143874 -0.0453776 0.830015
-0.110398 -0.068442 0.312966
-0.0569521 -0.0930348 0.382702
0.00277318 -0.00575633 0.108061
0.0263787 0.0439881 0.191321
0.0312204 -0.064228 0.663485
0.143267 -0.107203 0.164991
0.357034 -0.084374 0.22907
-0.115477 0.0475928 0.192519
0.0292187 -0.0120932 0.48662
-0.135742 -0.0972409 0.420216
0.00867722 -0.0829039 0.785274
0.0393612 -0.035394 0.156707
-0.196953 -0.0924736 0.261261
0.151743 -0.0739006 0.100513
-0.0411831 -0.0722543 0.113869
-0.0376975 0.0595858 0.114366
0.0110355 -0.114702 0.23946
-0.0351116 -0.015422 0.426568
-0.112247 -0.0656589 0.359752
0.0263964 -0.0450895 0.710183
-0.108584 -0.0940354 0.276517
-0.0759458 -0.0922196 0.347535
-0.219151 -0.0756044 0.298227
-0.137566 -0.0619594 0.122946
0.00479599 0.0727715 0.116648
-0.072831 -0.0733128 0.285103
-0.0261481 -0.109851 0.28481
-0.0457657 -0.0355782 0.378245
0.132559 -0.0579936 0.364487
0.237357 -0.0867192 0.28085
0.0263059 -0.0935458 0.431548
0.0452284 -0.0472225 0.500148
-0.0381609 -0.0984925 0.412466
0.16359 -0.0891833 0.302203
-0.0391861 -0.0775978 0.210005
-0.0345046 -0.0192527 0.182629
0.000142714 -0.0391172 0.821571
0.310193 -0.0729219 0.239231
0.2015 -0.0732137 0.275308
-0.0218967 -0.0866467 0.639955
-0.105524 -0.101309 0.0755885
0.253855 -0.0745281 0.250511
-0.111473 -0.0670007 0.243017
-0.122381 -0.110633 0.163662
0.1192 -0.0608611 0.286
0.124916 -0.10404 0.328992
0.00484655 -0.0322395 0.762702
-0.0176065 -0.026791 0.687551
0.0426891 -0.070251 0.448584
-0.0226494 0.0436932 0.140687
0.045329 -0.091519 0.272668
0.125406 -0.0595472 0.225389
0.0380158 -0.0487617 0.606035
-0.112067 -0.101992 0.219392
0.139746 0.0623549 0.161325
-0.121709 0.0605536 0.14288
0.000747325 0.000667393 0.369956
0.00967635 -0.0156924 0.622406
-0.0522655 0.0445736 0.169316
0.0394778 -0.0263878 0.524301
0.0120702 -0.101481 0.531503
-0.00862304 0.0290231 0.181399
-0.00807263 -0.101926 0.210691
-0.00903426 0.0210263 0.234521
-0.0475314 -0.0468357 0.46497
0.144475 -0.105141 0.185683
0.147272 -0.0991515 0.257553
-0.0188472 -0.0034819 0.276906
-0.0125588 -0.0299092 0.0122262
-0.0141871 -0.06662 0.039503
0.0061987 0.0328902 0.176264
-0.0469306 -0.043005 0.512064
-0.137325 -0.110618 0.157435
0.103133 -0.0961617 0.0990393
0.00336477 -0.0983984 0.60431
-0.0239648 -0.0975814 0.474803
-0.0152067 -0.0741946 0.84753
-0.156718 -0.0849023 0.0505258
-0.118866 -0.112092 0.104826
-0.0237347 -0.0415171 0.739956
-0.150474 -0.0965626 0.230892
0.103992 -0.0916982 0.172549
-0.149156 -0.0695038 0.292042
0.10713 -0.0912325 0.353165
-0.0159603 -0.00754201 0.138578
-0.354832 -0.0826567 0.247234
0.0406335 -0.0599155 0.158748
-0.129008 -0.060031 0.18207
0.041679 -0.0306737 0.39675
0.126044 0.0615288 0.118459
0.0175525 -0.00892288 0.144036
0.0656825 -0.0706194 0.303456
0.056924 0.0445871 0.164027
-0.120598 -0.102734 0.319423
-0.153936 -0.0780453 0.177191
-0.0457451 -0.035447 0.339352
0.00321093 0.0596659 0.198074
-0.108923 -0.076017 0.41809
-0.201062 -0.0877948 0.334308
-0.122864 -0.0878021 0.370476
0.0843991 0.0610159 0.158786
0.15091 -0.0695019 0.293344
0.208499 -0.086533 0.329792
-0.150161 -0.07259 0.403898
0.00848934 -0.0997549 0.181007
0.109111 -0.0909259 0.301624
0.135318 -0.0618036 0.0792402
0.0137175 -0.00208441 0.450574
-0.0443126 -0.0419379 0.198738
-0.036878 -0.102678 0.358673
0.0332728 -0.0660064 0.63063
-0.0858344 0.04552 0.201257
0.0217722 0.0437562 0.138638
-0.0314606 -0.0909133 0.452728
-0.0458094 -0.0670346 0.503327
-0.183 -0.088287 0.289835
0.0674879 0.060081 0.129537
-0.0857303 0.045324 0.164603
0.151122 -0.0788221 0.365774
-0.146203 0.0484113 0.138507
0.103835 -0.0836055 0.216996
-0.103451 -0.08672 0.160307
-0.0349872 -0.050906 0.654601
0.032475 -0.0860579 0.223849
0.0283833 -0.0158869 0.179266
0.143048 -0.0643382 0.163336
0.00848733 -0.0471676 0.864073
-0.0419734 0.0441291 0.139135
-0.0586605 -0.080373 0.323266
0.106834 -0.0961579 0.0102811
-0.101614 0.0457326 0.167262
-0.0906367 -0.0695338 0.301837
0.0259282 -0.0215997 0.0835544
0.296017 -0.076528 0.266204
0.0651316 -0.0923529 0.398425
0.183766 -0.0697626 0.291391
-0.00745679 0.0796248 0.138192
0.0212573 -0.0602644 0.812652
0.150741 -0.103654 0.0932854
-0.151473 -0.0894878 0.315885
-0.00573585 -0.0487213 0.904555
0.00190469 -0.018073 0.655581
0.0432692 -0.0364442 0.271847
-0.0386545 -0.0803531 0.228822
0.0769941 0.0450779 0.122088
-0.0238898 -0.00527948 0.558559
0.123426 -0.0582096 0.396554
0.0361909 -0.0829034 0.515055
0.350657 -0.073598 0.25109
0.0295846 -0.0847497 0.153334
-0.295154 -0.0733556 0.240462
-0.176941 -0.0777906 0.318575
-0.0641477 -0.0923383 0.300954
0.135345 -0.0628022 0.424532
-0.00189033 -0.0925079 0.666786
-0.0379843 -0.0188773 0.40366
0.0465961 0.0601228 0.169807
-0.0441311 -0.0558122 0.172012
0.0744884 -0.0920957 0.314471
0.0437368 -0.0377133 0.321973
-0.250344 -0.0746782 0.288954
0.116197 -0.0619713 0.336271
-0.0152037 -0.0819201 0.766965
-0.11617 -0.114068 0.0343676
-0.153281 -0.0777836 0.226276
-0.0184204 -0.00304148 0.425158
0.020647 -0.0979718 0.460023
-0.0286439 -0.0216925 0.084292
0.0168628 -0.0688805 0.0517236
0.0958153 -0.068652 0.311625
-0.125067 -0.11311 0.129423
0.0391764 -0.0555142 0.100654
-0.00774739 0.0729134 0.173403
-0.0457612 -0.0355497 0.318318
-0.148355 -0.0911244 0.376433
-0.0459314 -0.0584593 0.582521
0.108013 0.0457045 0.166749
0.206551 -0.0877668 0.293686
0.00466063 -0.0262145 0.717645
-0.00308978 -0.0886845 0.728586
0.0421598 -0.0337908 0.241066
-0.0596742 0.0603676 0.176132
-0.0360215 -0.0162803 0.452657
-0.141418 -0.100407 0.339805
-0.107939 -0.076128 0.392196
-0.00566314 -0.115836 0.355357
0.306201 -0.0844551 0.268433
-0.00653235 -0.115836 0.404162
0.00631477 -0.0818166 0.815872
0.0420661 -0.0398681 0.210691
0.0066379 0.0232912 0.231675
0.137338 0.0463226 0.158552
-0.00517356 0.000667393 0.341139
-0.106463 -0.0924674 0.0119203
-0.117721 -0.0789604 0.33126
0.154985 -0.0978776 0.064493
0.140948 -0.092009 0.423061
0.136007 -0.0792319 0.27796
0.0426917 -0.0951336 0.385237
0.012501 0.0587975 0.143105
0.116347 -0.11235 0.0843699
-0.202303 -0.0698632 0.274465
-0.0450256 -0.0947245 0.261013
-0.174569 -0.0756751 0.269032
0.262226 -0.085888 0.273526
0.102125 -0.0821733 0.0588835
-0.134583 -0.0614002 0.0706673
-0.0237893 -0.00523832 0.52131
0.154096 -0.0939177 0.135408
-0.0125039 -0.0153999 0.618754
-0.0416593 -0.0477965 0.102099
0.00563095 0.000587492 0.572455
0.00885239 -9.37846e-05 0.435418
0.104719 -0.0983003 0.118294
0.0325667 -0.0152512 0.565569
0.0251966 -0.055953 0.760906
-0.030031 -0.0671147 0.707178
-0.0457442 -0.0674502 0.387754
-0.0643027 0.0447223 0.114957
0.0255963 -0.0739733 0.691435
0.0291278 -0.0817888 0.0948465
0.103936 0.0457893 0.127822
-0.0358574 -0.103686 0.307607
-0.128364 -0.106997 0.263937
-0.130549 0.0462436 0.142963
0.0795927 0.0472602 0.200788
-0.0230796 0.0438641 0.169766
-0.037565 -0.0198615 0.577525
0.0440128 -0.0394725 0.445824
-0.133428 -0.0822136 0.27955
0.0680723 0.0449328 0.138988
0.0153062 -0.113451 0.38336
-0.0178358 -0.0914906 0.615951
-0.0451177 -0.060516 0.218658
-0.343473 -0.0730451 0.229296
-0.0367465 -0.0494908 0.628974
-0.148452 -0.109542 0.0431066
0.151396 -0.0996913 0.0194495
0.136039 -0.0900644 0.30188
0.0477134 -0.0800118 0.249691
0.0268804 -0.0572841 0.739943
-0.0369295 -0.0709123 0.324008
-0.106932 -0.0730017 0.0709609
-0.153515 -0.101111 0.0740414
0.00704389 -0.0770497 0.866701
-0.140615 -0.0824051 0.356757
0.0384545 -0.0726675 0.296786
0.135016 -0.11217 0.137376
-0.0247518 -0.0900037 0.125705
0.00478012 0.105428 0.130286
-0.0335987 -0.013995 0.354645
0.115763 -0.103115 0.268548
0.0277525 -0.0771069 0.640491
0.131146 -0.0640924 0.0234333
-0.279019 -0.0708359 0.249464
-0.134754 -0.0594909 0.266447
0.102754 -0.0846328 0.144464
0.0187994 -0.095799 0.595512
0.0160314 -0.0227711 0.051128
-0.117621 -0.0905738 0.300684
-0.0163458 -0.0426637 0.799963
0.0550907 -0.0813019 0.353736
-0.0663368 0.0461561 0.158348
0.134591 -0.116812 0.0344365
-0.0379824 -0.0189342 0.3003
-0.00876173 0.0013909 0.176481
-0.0317483 0.0590624 0.193291
0.0386294 -0.0249152 0.293967
-0.278467 -0.0928533 0.268011
0.0700375 -0.0684005 0.320782
-0.118622 -0.0694106 0.00920871
-0.0441796 -0.0318524 0.254938
-0.045975 -0.0659788 0.441439
-0.0153782 0.0590271 0.117609
0.11618 -0.0967283 0.401474
-0.103612 -0.0955855 0.0977069
0.152785 0.0585667 0.149368
-0.0209578 -0.0409064 0.0279091
0.0875044 -0.091623 0.302662
0.111342 -0.0675598 0.0810426
0.252987 -0.0794178 0.296014
-0.227677 -0.086754 0.288747
0.187984 -0.0831716 0.265652
0.141225 -0.0620914 0.284108
0.0343615 -0.0169443 0.505316
-0.0964086 -0.0817649 0.355752
-0.144585 -0.0727355 0.426784
0.145913 -0.093376 0.391131
0.280999 -0.0928533 0.260442
0.0260178 -0.0938176 0.480652
0.119991 -0.109704 0.169713
0.135664 -0.0614531 0.126555
0.0299779 -0.015579 0.213186
0.127472 -0.0932248 0
0.00154935 -0.0349043 0.788341
-0.0215058 -0.00578638 0.23099
0.145825 -0.0673052 0.0560388
0.0446068 -0.0432594 0.468542
-0.029786 -0.0581254 0.730499
0.176369 -0.0805283 0.321548
-0.0788378 0.0600733 0.141544
0.137639 -0.0623268 0.111201
-0.060898 -0.0820593 0.359955
0.226473 -0.0709338 0.265166
0.0440624 -0.0397891 0.376895
-0.277112 -0.0928533 0.283747
-0.0102849 -0.103178 0.543683
-0.314361 -0.0685416 0.253391
-0.147673 -0.0678236 0.143543
-0.0268195 -0.0650812 0.756931
-0.00763321 0.0686662 0.148451
-0.1066 -0.0746996 0.259229
0.00589427 0.0222374 0.123396
-0.0345133 -0.0711784 0.0874116
0.041837 -0.0719101 0.566232
-0.00892978 -0.103533 0.51765
-0.126442 -0.0634951 0.427966
-0.112841 -0.0930936 0.40779
0.0188057 -0.112028 0.344496
-0.0287954 0.0440901 0.204453
-0.152398 -0.0950263 0.202178
-0.265328 -0.0721524 0.267102
0.00635911 0.0180285 0.185716
0.323521 -0.0810011 0.246458
0.0575015 -0.0843468 0.291122
-0.151739 -0.0893881 0.296643
-0.1483 -0.0993235 0.00240454
-0.128393 -0.0777247 0.320405
0.137302 -0.107307 0.223981
-0.121775 -0.0607902 0.222016
-0.112777 0.0617775 0.168236
-0.0132802 -0.0179265 0.0546945
-0.0159474 -0.00203002 0.304199
0.151529 -0.0836248 0.331088
-0.131973 -0.0585825 0.311758
-0.0458708 -0.0655748 0.283744
0.016065 -0.0473209 0.0211717
0.00978607 -0.0882335 0.699125
0.0305083 -0.0516372 0.683444
-0.0889696 -0.0794522 0.336782
0.0147642 -0.0986914 0.211722
-0.243267 -0.0807079 0.270545
0.0401186 -0.0704134 0.204779
-0.303341 -0.084075 0.266992
0.0223992 -0.0667221 0.782284
0.0120014 -0.0471216 0.838227
-0.00556217 -0.103559 0.560281
-0.00263614 -0.115745 0.290471
-0.0292441 -0.0157926 0.154492
0.113191 -0.0784163 0.281535
-0.354217 -0.0822937 0.25984
-0.212013 -0.0775792 0.315087
0.00206631 0.000590038 0.295292
-0.121777 -0.109228 0.18912
0.120318 -0.110372 0.00875024
0.0103639 -0.0980336 0.161507
-0.0394854 -0.0218002 0.525662
-0.0105957 -0.0797876 0.0620881
-0.0550352 -0.0927968 0.318248
0.0492855 0.0444582 0.179586
0.14131 0.0464961 0.135264
0.00910276 -0.000196218 0.49295
0.14249 -0.0713404 0.00979154
0.0615075 -0.0927647 0.368117
0.0945108 0.0606643 0.138002
-0.134076 -0.108639 0.225376
-0.119513 -0.114432 0.0596053
-0.0297275 -0.0413661 0.683313
-0.073169 -0.0837784 0.373726
0.0458043 -0.0511791 0.533004
0.111389 -0.110708 0.0463113
0.0379599 -0.024187 0.263322
0.144974 -0.0656693 0.211375
-0.000885723 0.0966412 0.0980064
-0.0319778 -0.0904254 0.499514
0.113303 -0.0642594 0.35977
-0.115567 -0.0642176 0.133196
-0.0041836 -0.103559 0.463945
0.123804 -0.0906962 0.35271
-0.131724 -0.060957 0.0991693
0.0260054 -0.0765569 0.0801234
0.00599311 0.0331544 0.14743
0.0047108 -0.103559 0.419983
0.137386 -0.113775 0.0843525
0.00401854 0.00257292 0.251947
0.0176382 -0.0865487 0.661644
-0.31012 -0.0807538 0.281748
0.11961 0.0461947 0.190128
0.0307434 0.0441531 0.212146
0.105588 0.0457741 0.184206
-0.152054 -0.0901761 0.283322
0.121803 -0.0880092 0.43522
0.0143732 -0.00842971 0.12549
-0.00506907 -0.10281 0.581036
-0.0475389 -0.0560078 0.542105
-0.0197913 -0.0555488 0.850233
-0.127581 -0.0826433 0.407198
-0.041792 -0.0437547 0.12284
-0.142163 -0.0619717 0.350622
-0.0290189 -0.0233417 0.608171
0.154454 -0.087776 0.167764
0.0265516 -0.00957736 0.403508
0.122366 -0.0609366 0.164046
-0.0381864 -0.0797463 0.589368
0.107271 -0.0780673 0.415196
0.0354874 0.0598855 0.188025
0.0255519 -0.0828883 0.617876
-0.00846599 0.0260389 0.155982
-0.154127 -0.0948096 0.154263
0.108559 0.0615477 0.153769
-0.185383 -0.0755921 0.299781
-0.0394282 -0.100317 0.388632
0.0403461 -0.0673431 0.18249
0.122299 -0.0600456 0.254939
-0.125676 -0.110387 0.000666618
0.0215593 -0.0909227 0.128006
0.0500003 -0.0819928 0.311401
0.0116133 0.0515963 0.110775
-0.0440975 -0.0609474 0.192893
0.0136241 -0.00204621 0.470593
0.0488631 0.0444847 0.147164
0.0412883 -0.0299131 0.346103
0.048285 -0.077595 0.39022
0.0346189 -0.0311088 0.0940849
0.112219 -0.0974329 0.321983
-0.0953702 -0.0913205 0.297667
0.151776 -0.0898427 0.285001
-0.127974 0.0463506 0.124475
-0.104999 -0.0802935 0.0251784
0.0419044 -0.0478751 0.172344
0.0674307 0.0597245 0.184788
0.0115344 -0.00329312 0.216767
0.0308721 -0.0136527 0.452673
0.271355 -0.0713752 0.267283
-0.0724806 -0.0925505 0.392626
0.122843 -0.0592855 0.310793
-0.0434473 -0.0941627 0.242273
-0.0544208 0.0602071 0.154619
-0.222757 -0.0684526 0.279777
-0.116644 -0.0975432 0.382958
-0.0321672 -0.0126447 0.500922
-0.0226826 -0.0647276 0.816012
-0.134108 -0.0809115 0.299562
0.227432 -0.0901581 0.297937
0.104735 -0.0931392 0.194389
-0.190119 -0.0881633 0.278865
-0.0129605 -0.062105 0.917553
0.340352 -0.0728647 0.232218
0.0436492 -0.0546902 0.586826
-0.154245 -0.0960158 0.0241084
0.295832 -0.0829045 0.247598
-0.0921578 -0.0776047 0.32118
-0.117089 -0.11271 0.0776552
0.0337122 -0.0865596 0.553849
-0.046558 -0.0406298 0.563621
-0.155539 -0.0823849 0.10971
-0.0089189 0.0157729 0.212274
0.101185 -0.084262 0.368708
-0.0473235 -0.0573815 0.400059
0.138333 -0.103068 0.306985
-0.045369 -0.0334898 0.432558
0.215448 -0.0784346 0.282772
-0.0414003 -0.0773628 0.422552
0.0959915 -0.0822695 0.353151
0.161559 -0.0700545 0.287662
0.15055 -0.0969551 0.205606
0.0289289 -0.0407294 0.665658
-0.129991 0.0465268 0.178015
-0.0100868 -0.115494 0.254068
0.0195936 -0.111683 0.306123
-0.145552 -0.107691 0.127646
0.0387066 -0.078005 0.427933
-0.127304 -0.10255 0.361794
-0.0431529 -0.0760455 0.163376
0.151833 -0.10506 0.0406018
0.1015 -0.0895674 0.0780577
0.0616044 0.0604552 0.152276
0.0437494 -0.065098 0.503844
0.0336931 -0.025411 0.139352
-0.0243039 -0.0962928 0.225381
-0.11667 -0.0618182 0.381514
-0.265632 -0.0815991 0.302373
0.061621 0.0537552 0.110223
0.101642 -0.0833446 0.0365416
0.228063 -0.0927248 0.265792
-0.145764 0.0561558 0.125569
-0.0768526 0.045254 0.184502
-0.0473736 -0.0477567 0.267857
-0.0227753 -0.00790925 0.194169
0.0280833 0.0582443 0.144379
0.0185542 0.0437577 0.166065
0.00471176 -0.073664 0.912665
0.15483 -0.092175 0.11633
-0.236536 -0.0704132 0.261493
0.0337254 -0.0163444 0.30985
0.211178 -0.0846772 0.262918
-0.115976 -0.0639887 0.114007
-0.0419908 -0.0795951 0.142837
0.0938039 0.0454121 0.148108
0.119216 -0.103613 0.294508
0.109091 -0.0692103 0.121182
0.0375194 -0.0803168 0.493568
0.0302145 -0.106498 0.27681
-0.108046 -0.072311 0.278722
-0.105121 -0.0978275 0.120071
-0.0990483 0.0597735 0.143145
-0.0478398 -0.0540897 0.485943
-0.0940765 -0.0776123 0.283288
-0.0649556 -0.0694652 0.309764
-0.00861215 0.00403572 0.156422
0.118962 -0.112279 0.10634
-0.0231558 -0.081495 0.685559
-0.0374784 0.0597698 0.135407
0.068537 -0.0796594 0.337152
-0.0300855 0.0437711 0.117817
-0.0102449 -0.099232 0.165235
-0.00880604 -0.0975903 0.120362
0.135033 -0.068957 0.300456
-0.00189672 -0.0457853 0.882882
-0.00513138 0.0418529 0.223117
-0.00527947 -0.101295 0.19698
-0.0323871 -0.0705882 0.655061
0.0359777 -0.019573 0.385855
0.344293 -0.0828529 0.260647
-0.0165283 -0.00226732 0.40619
-0.0039802 0.000667393 0.508683
0.148091 -0.069022 0.34323
-0.0340283 -0.0218275 0.134876
-0.0161106 -0.108854 0.416816
-0.140085 -0.0636798 0.0431754
-0.0608443 0.0448573 0.187348
-0.167412 -0.0888511 0.296418
-0.335196 -0.069363 0.242842
-0.0258139 -0.109853 0.263981
0.0334542 -0.0410304 0.623818
0.110948 -0.0800831 0.3317
-0.0475854 -0.0471802 0.356978
0.0329247 -0.101351 0.413798
0.194326 -0.0822954 0.332513
-0.102991 -0.0911856 0.324342
-0.0530395 -0.0813631 0.272217
-0.365798 -0.069556 0.234686
0.131272 -0.0751484 0.402182
-0.0280254 -0.0941535 0.550629
0.0395427 -0.0624639 0.140052
0.156848 -0.088707 0.0448329
-0.126111 -0.0598022 0.202554
0.0458043 -0.0513573 0.393109
-0.105845 -0.0764935 0.22867
-0.141282 -0.0610062 0.388656
-0.0141523 -0.0226782 0.668771
-0.0160401 0.0592344 0.135329
-0.0479569 -0.053343 0.329008
0.122385 -0.0605204 0.204702
-0.0400088 -0.0800721 0.518388
-0.104475 -0.0808626 0.180321
-0.0107187 -0.10452 0.236098
-0.143489 -0.0799552 0.338312
0.0125427 0.0437069 0.199538
-0.131382 -0.116793 0.0483701
-0.00845379 0.0412035 0.168266
0.151901 -0.0795871 0.313931
0.00930875 -0.00885426 0.0896023
0.0401426 -0.0476357 0.125697
0.0318371 -0.0853374 0.200742
-0.128099 0.0616034 0.130684
-0.0291453 -0.0930972 0.425575
-0.025308 -0.0596831 0.0512198
-0.00246529 0.0043637 0.120785
-0.00315984 0.000667393 0.390211
0.00533162 -0.0953165 0.619377
0.365296 -0.0697901 0.234618
0.00650576 0.0133662 0.20262
0.106298 -0.0926874 0.251682
0.281452 -0.0928533 0.239914
-0.0392905 -0.0214208 0.383634
-0.0214142 -0.00426648 0.458685
0.0157931 -0.0124716 0.603769
-0.133792 0.0464552 0.162833
0.111703 -0.0699418 0.026323
0.129827 -0.0810867 0.336087
0.0451324 -0.0562809 0.318662
-0.259979 -0.0856454 0.287899
-0.080202 0.0606774 0.110778
-0.157617 -0.0774284 0.316495
-0.0303994 -0.0833485 0.103508
0.0198348 -0.0370463 0.72658
0.0818325 -0.0881346 0.38771
-0.0137257 -0.115039 0.308727
0.296585 -0.0787898 0.281519
-0.0176943 -0.0328103 0.726663
0.0454978 -0.0489399 0.43071
0.245761 -0.0730764 0.26761
-0.144319 -0.0648524 0.170035
-0.0369783 -0.0177955 0.265789
0.0711448 0.0607105 0.167285
-0.122548 -0.0901737 0.431825
0.0240238 -0.00719292 0.353427
0.0346917 -0.0713258 0.607554
-0.146689 0.0486601 0.181904
0.15155 -0.0737254 0.127242
0.239962 -0.0707083 0.276087
-0.14872 -0.0849625 0.419273
0.134175 -0.0904047 0.361339
0.0145147 -0.0560119 0.87624
0.0724891 -0.0923356 0.351736
-0.133522 -0.114865 0.0907991
-0.10851 -0.0707984 0.159835
0.0721942 -0.0922409 0.329673
0.117531 -0.0908268 0.33779
0.00517524 0.071668 0.138382
0.0341749 -0.0861232 0.455145
-0.0208862 -0.0112797 0.0990318
-0.0146496 -0.0562253 0.0221525
-0.130535 -0.0583876 0.329207
-0.292807 -0.0822083 0.290229
0.0282465 -0.0360864 0.0637089
0.0429422 -0.0332964 0.417587
-0.00696321 0.0959498 0.114191
0.0141077 -0.00224408 0.388967
0.153185 0.0552068 0.169967
-0.0254444 -0.0256087 0.631051
-0.0272902 -0.00804431 0.476875
-0.133792 -0.0692864 0.409568
0.10704 -0.0730682 0.290915
0.107216 -0.0810441 0.400453
-0.0966758 0.0457609 0.187597
0.00905989 -0.0331614 0.0112742
-0.0478054 -0.0487631 0.300166
0.0167396 -0.0645553 0.85469
0.140539 0.0619864 0.113435
0.154741 -0.074592 0.274004
-0.00963247 -0.115603 0.26998
-0.0227953 -0.00704377 0.214232
0.128307 -0.0798879 0.418097
0.113997 -0.0686553 0.306619
0.0438988 -0.0700034 0.273879
0.310127 -0.068376 0.254188
0.0336982 -0.0540298 0.647038
0.118535 0.0459481 0.144313
-0.129881 -0.0903368 0.339374
-0.145296 -0.101407 0.255864
-0.0159202 0.0593476 0.184911
-0.107182 -0.0818074 0.365614
-0.31037 -0.0808758 0.250411
0.176855 -0.0887216 0.294414
0.148221 -0.0833157 0.350821
-0.0383596 0.0473765 0.159338
0.0375534 0.0442058 0.148858
-0.204936 -0.076739 0.287759
0.14351 -0.098873 0.325328
0.122769 0.0562839 0.178628
0.240674 -0.0828899 0.260749
-0.00486602 0.0728226 0.104637
0.0274172 -0.0103938 0.5216
0.0308939 -0.106129 0.334957
0.00245311 -0.086527 0.76346
-0.0193677 -0.0994622 0.493243
-0.0458745 -0.0666195 0.459465
-0.21157 -0.0826963 0.26527
-0.0362952 -0.0201814 0.208915
-0.152838 -0.0905339 0.245485
-0.149538 -0.0698664 0.0630574
-0.268067 -0.0822182 0.254026
-0.11941 -0.0630709 0.0810166
-0.026065 0.043978 0.186123
-0.139959 0.0622832 0.149066
0.0724285 0.0451358 0.159218
-0.0101963 -0.0760798 0.870593
-0.210184 -0.0873652 0.291502
0.131034 -0.0600473 0.180614
-0.0430912 -0.0385186 0.180206
0.0134159 -0.0194991 0.639649
0.0061899 0.0128772 0.156282
0.0232075 -0.0964684 0.513443
-0.0526103 -0.0825015 0.28968
0.0171504 -0.00348904 0.418356
0.0322683 -0.0165433 0.235578
0.107872 -0.0708742 0.164611
0.0107146 -0.115306 0.361034
-0.0435508 -0.0340683 0.214061
0.147799 -0.0687741 0.386355
0.00713712 -0.10342 0.438568
0.141151 -0.0613009 0.406925
0.119972 -0.0596506 0.378274
0.00417913 -0.103559 0.477677
0.0232253 -0.0957827 0.235611
0.0245991 0.0592877 0.128383
-0.140534 -0.107163 0.206583
0.130218 -0.107214 0.259148
-0.105148 -0.0856213 0.244769
-0.0179308 -0.113324 0.331081
0.153462 -0.0808651 0.206231
0.132707 -0.0885187 0.402021
0.204551 -0.0806541 0.316622
0.139481 -0.0617261 0.23745
0.109285 -0.0998927 0.219223
-0.136759 -0.106877 0.242243
-0.043191 -0.0290152 0.4171
-0.00532649 -0.0898139 0.710331
0.00818733 -0.0620812 0.0260413
0.00183059 -0.0785983 0.0559959
0.10537 -0.0867411 0.273155
-0.00597153 -0.0938921 0.644411
0.0106102 -0.0537336 0.900617
-0.122253 -0.0789225 0.281055
-0.107341 -0.0765913 0.350604
-0.0470619 -0.0590489 0.372282
0.267917 -0.0784204 0.28451
-0.0123697 -0.0240601 0.0296087
0.152876 -0.0963389 0.151081
-0.0416864 -0.0818887 0.405089
0.155427 -0.0818498 0.0618738
-0.00947037 -4.42966e-05 0.243221
-0.0261598 -0.00697802 0.340861
0.120809 -0.112033 0.126071
0.183616 -0.0788338 0.305844
0.0160596 -0.041465 0.779154
0.0263763 -0.0178135 0.107766
0.176114 -0.0718989 0.274579
-0.148045 -0.0945581 0.330159
-0.0142779 -0.0973428 0.599666
0.0651725 -0.0851066 0.383406
-0.0965121 0.0454261 0.148583
-0.373129 -0.0810299 0.240465
-0.010982 -0.0325784 0.753579
-0.0475381 -0.0515797 0.247991
0.0321423 -0.0880267 0.571853
-0.0551437 -0.0929589 0.353471
0.284516 -0.0693795 0.256473
-0.0532473 -0.0817239 0.30713
-0.0360527 -0.0365602 0.0821099
-0.0593961 0.0445379 0.141
0.0766927 0.0604142 0.113112
0.114483 -0.11166 0.0272045
0.105166 -0.0757578 0.197535
-0.0047305 -0.0159703 0.638996
-0.183493 -0.0884986 0.338355
0.149702 -0.0972219 0.224806
-0.116642 0.0459049 0.152088
0.00851641 -0.0251888 0.697927
-0.223028 -0.0870482 0.317441
0.224781 -0.084625 0.321004
0.137454 -0.108278 0.201923
0.0192898 -0.0043644 0.502391
0.142774 -0.0837609 0
-0.0419427 -0.0265848 0.506732
0.140901 -0.0642436 0.0387506
-0.020165 -0.0691809 0.830192
0.10204 -0.0961791 0.0501123
-0.0365352 -0.0179328 0.245089
-0.165243 -0.0890264 0.317905
0.0771873 0.052745 0.146277
-0.0557721 0.0585019 0.109096
0.124271 -0.0896325 0.28806
0.12482 -0.102661 0.358779
0.113244 -0.0910715 0.360544
0.0326621 -0.0156636 0.277216
-0.14971 -0.0698001 0.0986107
0.108807 0.0598326 0.176227
-0.19022 -0.0881895 0.321551
0.104449 -0.0775967 0.181117
-0.0114412 -0.0807468 0.814969
-0.00276895 0.000667393 0.323425
-0.152078 -0.0735022 0.0344391
0.0319155 -0.014637 0.54755
-0.106089 -0.10341 0.0576761
-0.115601 -0.108574 0.148026
0.0413554 -0.0300436 0.565176
-0.0414115 -0.0773409 0.490556
-0.145097 -0.0765189 0.309505
-0.206717 -0.0876321 0.274905
-0.113108 -0.0659309 0.192221
-0.0318684 -0.0513431 0.695829
0.0107418 -0.08295 0.0706208
0.0418003 -0.0719815 0.548215
0.000568794 -0.00693053 0.600395
0.0989242 -0.0835885 0.291618
-0.0188159 -0.00370501 0.57463
0.073516 -0.0829661 0.29684
-0.114343 0.0458783 0.135398
0.189813 -0.088248 0.282033
-0.322589 -0.0697709 0.243974
-0.0298027 -0.0896791 0.20176
-0.0509239 -0.0748961 0.372841
-0.186401 -0.0732642 0.280269
-0.277074 -0.0688291 0.266103
-0.00736857 0.094226 0.147791
0.0586443 -0.0777486 0.323276
0.0369176 -0.021403 0.324664
-0.0302038 -0.0354221 0.650384
0.135503 -0.0611718 0.148682
0.134114 -0.0998599 0.408912
-0.0133048 -0.000948349 0.359785
-0.0182893 0.043858 0.218272
0.0435806 -0.0661742 0.522095
-0.150921 -0.0756109 0.385594
-0.0450187 -0.0664872 0.241318
0.0372691 -0.0801385 0.317445
-0.201956 -0.0762987 0.304875
0.0651807 0.0447971 0.17676
0.16259 -0.0891295 0.28402
-0.0393096 -0.100298 0.285532
0.277015 -0.0854086 0.272353
0.149501 -0.0919802 0.314134
-0.0199409 -0.0788697 0.75065
0.0415412 -0.0335514 0.227335
-0.106942 -0.0909823 0.309876
0.0410164 -0.0804139 0.287255
0.0279412 -0.055111 0.723697
0.00386939 -0.0807884 0.840749
-0.0751663 -0.0777278 0.323043
-0.045114 -0.0387675 0.580663
0.137382 0.0615573 0.131205
-0.118794 -0.0654092 0.0277958
0.020112 0.0568598 0.198638
-0.080283 0.0450442 0.146608
-0.018304 -0.0998975 0.570141
-0.0473209 -0.0573978 0.560329
-0.0107222 -0.0826943 0.790341
0.0402569 -0.0279049 0.485948
0.110084 -0.0687102 0.0651309
-0.0420573 -0.0690966 0.12971
-0.191723 -0.0736809 0.264955
0.0426992 -0.0326602 0.362308
0.0385067 -0.0318097 0.175684
-0.141297 -0.0623464 0.219412
-0.0466506 -0.0412202 0.398983
0.214734 -0.0794071 0.304038
-0.00964279 -0.0252666 0.70235
-0.0373868 0.0442338 0.173663
0.0350972 -0.101715 0.257243
0.108057 -0.0712012 0.273344
-0.0403981 0.0598792 0.156841
-0.0118779 0.0547559 0.203907
-0.314775 -0.0719954 0.237195
-0.0771598 -0.0882884 0.29825
0.115096 0.0564868 0.109552
-0.0442031 -0.0309859 0.465278
-0.0231195 -0.0788435 0.716457
0.142376 -0.0625558 0.368626
-0.114286 -0.063696 0.402201
0.00739546 -0.102395 0.22578
0.0405916 -0.0464415 0.142913
-0.0781151 -0.0818622 0.357463
0.000714627 -0.0169896 0.0455969
0.0298372 -0.0163199 0.196834
-0.000834091 0.000667393 0.469786
0.334336 -0.0725597 0.251715
-0.000820684 0.000442617 0.279586
0.0402754 -0.0279409 0.452958
0.0198866 -0.0212228 0.0671296
-0.137609 -0.0603201 0.287303
-0.0211514 -0.11201 0.35916
0.0446221 -0.0595343 0.375893
0.00523231 0.000667393 0.353984
-0.154685 -0.100172 0.0566746
-0.0295878 -0.0102115 0.5355
-0.0296082 -0.0104084 0.289025
0.115312 -0.0829564 0
0.00221282 -0.0201443 0.671919
0.105781 -0.0741042 0.0989731
0.00742607 0.0433011 0.119738
0.0842164 -0.0701872 0.301988
0.0122917 -0.0850318 0.731546
0.00672166 0.00659307 0.22909
-0.0531531 -0.0809273 0.393363
0.0873142 -0.0919065 0.361452
0.0740968 -0.0766008 0.310402
0.317247 -0.0789799 0.276875
-0.118836 -0.0614252 0.26519
-0.14723 -0.0768318 0.275531
-0.150713 -0.0719481 0.249704
-0.0368818 -0.0857815 0.437369
0.0446512 -0.0450264 0.573905
0.0544356 -0.0926912 0.304528
-0.234676 -0.075094 0.293198
0.31989 -0.0839749 0.259594
0.0348809 -0.060575 0.0844356
0.0228483 -0.0114499 0.164591
-0.0449393 -0.0704721 0.571084
0.009316 -0.0895612 0.682211
0.198595 -0.0747099 0.263459
0.0387939 -0.0781484 0.16346
0.151922 -0.0828819 0.0157644
0.00998474 -0.0960736 0.118299
-0.0151697 -0.0556829 0.890676
0.139346 -0.0822519 0.435766
-0.136913 -0.11152 0.141289
-0.25139 -0.0694938 0.263592
-0.15405 -0.0990547 0.0920974
-0.284497 -0.0828061 0.247434
-0.0359156 -0.0286141 0.0968557
-0.111582 0.0612921 0.130384
0.00530825 0.0761051 0.166633
0.124189 -0.0738464 0.426659
0.0363383 -0.0749808 0.107314
-0.109517 -0.102447 0.167934
-0.336887 -0.0832864 0.249713
0.368708 -0.0775551 0.244907
-0.00755149 0.0827892 0.158308
-0.267402 -0.0853318 0.275205
0.0400701 -0.0275411 0.539843
-0.0675076 -0.0802539 0.344537
-0.0646046 0.0604289 0.143307
0.113489 -0.0805125 0.306371
-0.238197 -0.0683904 0.275934
-0.0460069 -0.0371162 0.540055
0.105365 -0.0824457 0.017927
0.151064 -0.0731599 0.173658
0.0387447 -0.080235 0.138628
0.0115483 -0.00119684 0.557978
-0.0934239 0.061127 0.15309
-0.134832 -0.0741576 0.290268
-0.231169 -0.0868707 0.268387
-0.141085 -0.0993966 0.365275
0.0517775 0.0602739 0.185387
0.152375 -0.0868185 0.268135
-0.0858946 -0.0686667 0.314445
-0.0842358 -0.092025 0.366404
0.147123 -0.0903238 0.406403
0.0384839 -0.0298351 0.199267
0.114558 -0.0821128 0.347904
0.0424029 -0.0320833 0.432299
0.0450999 -0.0464033 0.340314
-0.0497965 0.0599195 0.188197
0.23032 -0.0785132 0.293259
0.155921 -0.0893369 0.0899492
-0.118034 -0.0750714 0.434147
-0.34939 -0.0702833 0.247248
-0.0093196 -0.0452308 0.855385
0.0196311 -0.0416734 0.756923
0.0242831 -0.0706337 0.732406
-0.152799 -0.0750378 0.161925
0.146275 -0.0796295 0.284311
0.122313 -0.0741286 0.290402
-0.121926 -0.0623401 0.0626307
-0.103142 -0.080872 0.304578
0.0345513 0.0441262 0.174709
0.0370005 -0.0454676 0.0886873
-0.0313962 -0.107733 0.325767
0.0534223 -0.0750109 0.263268
-0.0242472 -0.00543638 0.38908
-0.0260772 -0.0500871 0.759349
0.126802 -0.0587378 0.297854
-0.284197 -0.0805656 0.260181
-0.170829 -0.0696535 0.284934
0.102165 -0.0912797 0.329441
-0.114704 -0.0977824 0
-0.0753739 0.0607535 0.172259
0.0186866 -0.0269226 0.667015
-0.102203 -0.0892615 0.0845678
0.130898 -0.058339 0.333563
0.0054708 -0.115492 0.253777
0.015356 0.0438041 0.214621
-0.129588 -0.0580603 0.358515
0.0922064 0.0455219 0.192794
-0.0175367 -0.0856067 0.699235
0.0425249 -0.0952565 0.357798
0.108925 -0.0699695 0.318635
0.141537 -0.10493 0.238494
-0.109792 -0.0689012 0.214103
0.0713289 -0.0829071 0.363712
0.144292 -0.10838 0.124787
0.351485 -0.0828905 0.244308
0.0265204 -0.0933435 0.527995
-0.00338984 -0.115836 0.379907
-0.154538 -0.0906513 0.168645
-0.0398811 -0.0284482 0.193219
0.252404 -0.0860088 0.308121
0.136409 -0.0603746 0.260605
0.0130424 -0.0440967 0.815245
0.203017 -0.0706072 0.286448
0.00553885 0.0621482 0.180639
-0.0090513 0.00834154 0.225508
0.0120248 -0.0407848 0.799749
0.134679 -0.112055 0.0121412
-0.362852 -0.0800399 0.224281
0.151867 -0.0737863 0.0455274
0.137785 -0.0625324 0.0960676
-0.0473282 0.0443203 0.153278
-0.210611 -0.0874191 0.306042
0.00618329 0.00102703 0.143587
-0.00876249 0.0167284 0.190179
0.0104852 -0.115398 0.415465
-0.101458 -0.0758973 0.294599
0.0224484 -0.00580033 0.438649
0.111888 -0.104289 0.181239
-0.153719 -0.0892751 0.21607
0.0186765 -0.0334244 0.709915
0.116023 -0.104183 0.251775
0.326977 -0.0807844 0.232569
0.0358751 -0.0193731 0.405582
0.155489 -0.0896253 0.340871
0.0182587 -0.1025 0.416816
-0.0160678 -0.114083 0.392699
0.0453626 -0.049396 0.279143
0.0361307 -0.0234444 0.582775
-0.0155305 -0.0884883 0.674726
-0.119343 0.04636 0.112261
0.0380211 -0.0386248 0.106544
-0.00946147 -0.0863814 0.743102
-0.0435993 -0.0560369 0.597065
-0.13664 -0.115298 0.0622558
0.141405 -0.0621324 0.302701
0.273672 -0.0828493 0.25829
-0.141008 -0.0928533 0.305403
0.146555 -0.0666424 0.270947
0.0185801 -0.00772449 0.589917
-0.0257668 -0.089182 0.603623
0.147653 -0.0912784 0.376493
-0.036354 -0.0862974 0.541339
0.0221833 -0.092966 0.17196
0.107132 -0.0714405 0.0448084
-0.162282 -0.0795884 0.271953
0.136324 0.0620606 0.146937
-0.147909 -0.0909722 0.391213
-0.115661 -0.0624643 0.415316
0.125299 -0.0581136 0.353744
-0.176863 -0.0885848 0.308512
0.125568 0.0502646 0.14797
0.105655 -0.0751287 0.234065
-0.131901 -0.0752352 0.438129
0.0212181 -0.00515342 0.305421
-0.0383905 -0.026041 0.59106
0.0505375 -0.0932549 0.397518
-0.018609 0.0504319 0.154467
-0.0075307 0.000667393 0.55081
0.0260465 -0.0706485 0.708445
-0.152843 -0.0896171 0.353277
0.0456338 -0.0498072 0.514528
0.0449852 -0.0572192 0.464242
-0.0398206 -0.0224529 0.320772
0.182079 -0.0880565 0.342812
0.0314258 -0.0827872 0.599648
-0.341898 -0.0734008 0.258465
-0.315721 -0.0837692 0.261093
-0.034906 -0.104518 0.375446
-0.0563123 -0.0706887 0.296174
-0.02857 -0.0593417 0.744947
-0.147422 -0.090887 0.406051
-0.0313877 -0.107734 0.40352
-0.0398146 -0.0537977 0.0889983
-0.0292322 -0.00987616 0.367856
-0.024337 -0.0547587 0.800177
0.0511397 -0.0737017 0.29942
0.10219 -0.0868194 0.130147
-0.111872 -0.078298 0.000297096
-0.1257 -0.0904125 0.325082
-0.00360783 -0.0368403 0.803612
0.0259417 -0.0386641 0.683633
0.000996506 0.0139765 0.243577
-0.154683 -0.0801123 0.146438
0.25092 -0.0863198 0.288274
-0.0286813 -0.00935651 0.409305
-0.0453505 -0.0694586 0.411376
0.0140831 -0.113787 0.284234
-0.00453258 0.000667393 0.42595
-0.0167553 -0.0438668 0.0144643
0.00568128 0.0514009 0.153285
-0.13204 -0.103165 0.348256
-0.0696173 0.0451053 0.198705
-0.0467963 -0.0421493 0.526639
-0.13729 -0.100317 0.379026
0.00478717 0.0862739 0.121318
0.0448336 -0.0447054 0.482753
0.032613 -0.0214765 0.161731
-0.00114193 -0.0417619 0.839644
0.22276 -0.0686164 0.277516
0.352933 -0.0684306 0.241916
0.125989 -0.0707927 0.441102
-0.035761 -0.0227294 0.165076
0.00724462 -0.115836 0.39484
-0.0155873 -0.101009 0.530679
0.099689 0.0613942 0.164493
-0.0276676 0.0595592 0.145555
0.0218879 -0.00689045 0.234732
0.139477 -0.0761035 0.29238
-0.0478837 -0.0538097 0.386343
-0.0395806 -0.0480953 0.60808
-0.0202128 -0.0991165 0.455258
-0.00562706 -0.0706158 0.927412
-0.146387 0.0499662 0.15959
-0.00442178 0.0559398 0.109233
0.0184732 -0.111811 0.257904
0.00499478 0.0913567 0.141582
-0.0301412 -0.0392593 0.669356
0.0436414 -0.0657867 0.489746
0.153939 -0.0989582 0.0798138
0.00619672 0.0434944 0.185557
0.00659504 0.013999 0.216703
0.0013775 -0.0132399 0.0627204
0.286018 -0.0924386 0.273211
0.00627002 -0.052279 0.919468
-0.129978 -0.0592364 0.253216
-0.107198 -0.0976152 0.180934
-0.114837 -0.0645617 0.178349
-0.105449 -0.0897142 0.379704
-0.0758664 0.0449586 0.122912
0.0054037 0.0628973 0.160427
-0.0214538 -0.0743298 0.776981
-0.154335 -0.0897341 0.184949
0.0856692 0.0603858 0.127108
0.0457903 -0.0520872 0.445097
-0.0513238 -0.0725856 0.332277
-0.0731005 -0.0922011 0.322941
-0.108485 -0.0929899 0.290466
-0.253419 -0.0844896 0.262806
-0.0445528 -0.0712247 0.544666
0.0241015 -0.00726622 0.557287
-0.176376 -0.0875249 0.278145
0.0171444 -0.00348657 0.338874
0.149823 -0.0713054 0.223135
-0.0284885 -0.0121825 0.58473
0.0925206 0.0462327 0.112221
0.0296098 -0.0524052 0.696625
0.0869353 -0.0919835 0.375197
-0.0109638 -0.0305906 0.73858
-0.146621 -0.0661972 0.268918
0.245994 -0.0864166 0.275358
-0.0543858 -0.0773583 0.347932
-0.039987 -0.0801146 0.454237
-0.0252252 -0.0822168 0.654799
0.0307768 -0.106125 0.291927
-0.0155963 -0.114276 0.345869
0.154294 -0.0819951 0.155282
0.150746 -0.0928533 0.296479
-0.023388 -0.0978174 0.50739
0.123381 -0.100667 0.390389
0.00614203 0.0276046 0.16356
0.0442783 -0.071451 0.14933
0.11912 -0.0841422 0.406187
0.014085 0.0436159 0.150028
0.0175313 -0.0571205 0.0351014
-0.0176393 -0.00648087 0.178717
-0.20054 -0.0779082 0.3184
0.0161906 -0.0512043 0.851716
0.0140531 -0.0279444 0.0294031
-0.153148 -0.081405 0.288509
-0.113048 -0.107549 0.125987
-0.149336 -0.10759 0.0294981
-0.0379236 0.0598616 0.181111
-0.130453 -0.110871 0.178678
0.00638493 0.0278705 0.198285
0.145027 -0.0658008 0.196705
0.0232638 0.0595387 0.157087
0.0216301 0.0591277 0.109326
-0.120618 -0.107809 0.210547
0.0265992 -0.0739728 0.67787
0.0274263 -0.108533 0.379636
0.0445112 -0.0600111 0.572248
0.0272187 -0.0845387 0.11051
0.0329028 -0.035878 0.0799918
-0.173043 -0.0859442 0.346796
0.0202818 -0.0729527 0.770428
-0.00280332 -0.0761618 0.901681
-0.0518891 -0.0832846 0.258731
-0.0103542 -0.000106477 0.266935
-0.114311 0.046086 0.171894
0.0174773 -0.0969387 0.198596
0.0239409 -0.0957767 0.555298
0.0384039 -0.0761807 0.230896
0.222211 -0.0815663 0.272112
-0.011452 0.0592205 0.172169
0.0204795 0.0436588 0.125215
-0.157149 -0.0891362 0.0639852
-0.0458406 -0.0470789 0.218258
0.124094 -0.0610969 0.0866351
-0.061281 -0.0821364 0.28653
-0.0436021 -0.0802031 0.329606
-0.0670808 0.0449528 0.171616
0.103128 -0.0786247 0.0865862
0.133486 -0.0826971 0.348774
0.0989514 -0.0914442 0.34249
0.0222641 -0.00568159 0.460993
-0.0385443 -0.0199678 0.370334
-0.0391299 -0.0805215 0.242211
0.00588844 0.0433553 0.139102
-0.0156293 0.0437348 0.19451
-0.0337844 -0.0346864 0.613447
-0.103455 -0.0933667 0.0275782
0.0199996 0.0438214 0.179569
-0.110335 -0.0896451 0.39512
0.0051922 -0.0288141 0.735686
-0.0150977 -0.00168195 0.318852
-0.0424069 -0.0636278 0.158531
0.00678855 -0.0928146 0.649152
0.0355649 -0.0541367 0.622656
-0.155967 -0.098784 0.0407996
-0.281251 -0.0785339 0.291781
0.159189 -0.089421 0.322707
0.00199987 -0.103559 0.549352
-0.00826225 0.0215828 0.123322
0.00641024 0.00524732 0.182143
0.133068 0.0463395 0.171113
0.283493 -0.0787118 0.283642
0.0836576 -0.078363 0.319554
0.106951 -0.0723661 0.147435
-0.049505 0.0471746 0.111935
0.0387452 -0.0367502 0.134085
-0.0403803 -0.0674185 0.101574
0.0315977 -0.0885542 0.469871
-0.02633 -0.0548235 0.774529
-0.123858 -0.10791 0.233724
0.14522 -0.066041 0.183495
0.238635 -0.071773 0.259353
-0.00719104 0.096878 0.127348
-0.00808932 -0.100663 0.183234
0.155334 -0.0937443 0.030536
0.107657 0.0458229 0.115179
-0.111939 -0.103039 0.196611
-0.0201887 -0.112355 0.296268
-0.0347331 -0.0662277 0.642875
-0.00834917 -0.103559 0.451735
-0.249486 -0.0860415 0.295803
-0.0246832 -0.0908559 0.13882
0.153214 -0.0933051 0.179612
-0.0626818 -0.0926505 0.342722
-0.0141806 0.0436653 0.180546
0.0180501 -0.0239071 0.651103
-0.00231178 -0.0683972 0.0342411
0.152514 -0.0753123 0.113515
0.145357 -0.0710188 0.422659
-0.0979214 -0.0914662 0.347129
0.020025 -0.0936212 0.152747
0.0322285 -0.0879592 0.539615
-0.133239 -0.104348 0.322217
0.010152 -0.0966431 0.131331
0.188792 -0.0717355 0.271821
-0.0262262 -0.0481655 0.0451813
0.136337 -0.059495 0.345353
0.0250796 -0.109456 0.323775
-0.101219 -0.0914284 0.363047
0.038757 -0.0988148 0.373381
-0.0218823 -0.0744026 0.0657091
0.237858 -0.0867687 0.294736
-0.0101195 -0.00655002 0.106479
0.0421272 -0.0593409 0.19672
0.303952 -0.0843337 0.239283
0.0234649 -0.0540739 0.779493
0.00875393 -0.102838 0.465538
-0.135546 -0.0989661 0
0.00442188 0.103304 0.107804
-0.151437 -0.100642 0.139059
-0.0478846 -0.0527614 0.284215
0.0266538 -0.077388 0.653401
-0.0473696 -0.0458045 0.429171
0.105434 -0.0914573 0.238842
0.0435156 -0.0392031 0.252726
-0.0101238 -0.00909045 0.0859936
-0.120851 -0.0805776 0.416156
-0.211602 -0.0874833 0.326858
0.0436215 -0.0443387 0.233799
-0.10159 -0.0792166 0.334193
-0.031157 -0.0913118 0.239716
0.288315 -0.0714681 0.24837
-0.091982 -0.0841458 0.375874
-0.0417051 -0.0714169 0.18583
-0.0453864 -0.094717 0.309975
0.106913 -0.0758946 0.355425
0.00434758 -0.103559 0.521449
-0.150143 -0.0715803 0.353618
-0.138982 -0.0822109 0.41137
0.144808 -0.0659846 0.134743
0.132509 -0.0902559 0.318492
-0.0617151 -0.0929514 0.399577
0.0438502 -0.0384363 0.524255
0.139554 -0.0793655 0.407817
-0.0434334 -0.0294871 0.350447
-0.256511 -0.0784918 0.273046
0.155914 -0.0855348 0.0750636
-0.0168054 -0.00238071 0.44572
-0.197808 -0.0877735 0.288315
-0.107229 -0.102219 0.108252
0.0457486 0.0600809 0.157055
0.0181013 -0.0038781 0.568606
0.0450006 -0.070756 0.307979
-0.119602 -0.0602834 0.350886
-0.00693727 0.0824263 0.112766
-0.137394 -0.0616463 0.147844
-0.360998 -0.0711986 0.247077
0.020204 -0.0901322 0.608872
0.0251495 -0.0272145 0.628773
-0.0317152 -0.0653639 0.687314
-0.0476496 -0.0693684 0.315766
-0.123409 -0.0596426 0.276907
-0.00675472 0.110594 0.131564
0.0366942 -0.07823 0.21417
-0.0411065 0.0440366 0.124099
0.131143 -0.0773485 0.304556
0.0438054 -0.0386957 0.293437
-0.0215312 -0.0140379 0.603897
0.0340926 0.0598248 0.171908
0.120521 -0.0728573 0.410833
0.0442311 -0.0408646 0.352762
-0.103088 -0.0829282 0.097948
-0.194614 -0.0750924 0.290654
-0.12811 -0.0904853 0.358047
0.0421353 -0.0423828 0.589354
0.116764 -0.0999698 0
-0.0194478 -0.112725 0.404801
-0.0883158 -0.0823939 0.293465
0.127274 0.062066 0.168345
-0.0193208 -0.00838822 0.150719
0.0433639 -0.0353356 0.496338
0.0439387 -0.0610881 0.253141
0.0255309 -0.0921559 0.212282
0.110259 -0.107098 0.0988347
-0.0386054 -0.0200867 0.479136
-0.0214602 -0.0524435 0.813543
0.255598 -0.0776043 0.2803
-0.148506 -0.100681 0.217065
0.036715 -0.0818828 0.443586
0.122181 -0.116386 0.0432837
0.0305405 -0.0895514 0.498451
0.105243 -0.101773 0.0773222
0.0444649 -0.0605365 0.559721
-0.0461251 -0.0378697 0.494927
-0.0123181 -0.0925563 0.633705
-0.0460384 -0.0655743 0.481307
0.043561 -0.0662987 0.386358
0.0297387 -0.107144 0.395283
-0.0152535 -0.00174574 0.529754
0.0398595 -0.0271311 0.311374
-0.00893042 0.0240846 0.221611
0.108235 0.045643 0.154252
-0.138401 -0.0850943 0.319127
-0.0396495 0.0502366 0.204763
-0.0389489 -0.0807098 0.126373
-0.154462 -0.0829515 0.204538
0.0411337 -0.0296119 0.333059
0.014486 -0.00638366 0.173532
0.144719 -0.0959938 0.362123
-0.266648 -0.0712018 0.250733
0.118974 -0.107162 0.216381
-0.341505 -0.0817432 0.23874
0.0571433 0.0445509 0.11726
0.045662 0.0476714 0.159792
0.0303288 -0.0131403 0.394823
-0.00254413 -0.0616505 0.019853
0.197765 -0.0879633 0.275691
-0.152488 -0.0822073 0.326709
-0.0316312 -0.0897836 0.579776
-0.160252 -0.0816549 0.347364
-0.145372 -0.105648 0.170933
-0.111956 -0.110711 0.0455102
0.0032246 -0.0843632 0.796275
0.00262652 -0.0240424 0.0152517
0.0962702 0.0454336 0.160211
0.152925 -0.102381 0.0531831
0.00155211 0.000667393 0.307624
-0.125991 -0.0606386 0.127672
0.0366669 -0.0809052 0.244306
-0.0277227 -0.0736368 0.696984
0.135237 -0.115119 0.072306
-0.143111 -0.0928533 0.288462
0.114483 -0.0648508 0.093343
0.00500672 -0.0115764 0.610891
-0.0191821 -0.0976482 0.207576
0.130039 -0.108013 0.241581
-0.116091 -0.0909083 0.360592
-0.124873 -0.112648 0.0127144
0.13279 -0.107985 0
-0.322524 -0.0762967 0.254783
-0.0231307 -0.0897456 0.0959651
-0.146033 -0.110934 0.0556921
-0.0126888 -0.102195 0.473431
0.0434132 -0.0356505 0.554073
-0.145073 -0.0645607 0.417691
-0.0469471 -0.0597807 0.339358
0.0149365 -0.0662094 0.869515
0.228088 -0.09275 0.283014
0.14941 0.0618126 0.133338
0.01415 -0.00896309 0.111146
-0.231005 -0.0866956 0.300497
-0.116956 -0.108094 0.175796
-0.0324594 -0.0129204 0.309369
-0.121199 -0.0878955 0.289332
-0.102617 -0.0833658 0.0662015
0.0962655 -0.0755176 0.282876
-0.296043 -0.0713944 0.259258
-0.11072 0.0615131 0.113052
-0.00875151 -0.0750961 0.0509957
0.143937 0.0466751 0.122407
0.0160487 -0.00303826 0.401779
-0.0265744 -0.0377961 0.695627
0.0828879 0.0452657 0.140585
-0.319701 -0.0779873 0.274798
-0.0303301 -0.0795547 0.62059
0.0134528 -0.1142 0.333817
0.133692 -0.110307 0.187755
0.00664966 -0.103303 0.574587
0.138895 -0.0607166 0.316522
0.0217649 -0.0854869 0.629077
0.0132824 -0.0141455 0.0743962
0.033188 -0.0371732 0.612353
-0.0441481 -0.0308789 0.389396
-0.145531 0.0586872 0.113753
-0.00867428 0.0168533 0.178097
-0.0471227 -0.0442302 0.453182
-0.30447 -0.080689 0.238157
0.130692 -0.0577818 0.383449
-0.0482073 -0.0910586 0.298854
0.00515244 0.0620534 0.13113
0.140039 -0.0901079 0.338253
-0.107594 -0.0930689 0.264557
-0.140513 -0.0631921 0.107087
0.0167653 0.0594272 0.183991
0.163208 -0.0788037 0.309921
-0.0192777 -0.0143206 0.080243
0.0314663 -0.0428472 0.650803
-0.10176 -0.0872977 0.0530485
-0.0476236 0.0571174 0.14523
-0.0313881 -0.0119097 0.437414
0.15207 0.0468266 0.151706
-0.136816 0.0494546 0.1115
0.0311365 -0.105892 0.348781
-0.135927 -0.081016 0.426644
0.0272066 -0.108326 0.265361
-0.00800028 0.0607163 0.19378
-0.0386928 -0.100735 0.269199
0.0234903 -0.0458513 0.740951
-0.0351202 -0.0874612 0.415949
-0.0307567 -0.108114 0.339476
-0.15737 -0.0885971 0.0347026
-0.00845802 0.00172197 0.13078
0.124825 -0.0905485 0.328335
-0.0454597 -0.0947289 0.379944
-0.033905 -0.0558861 0.676981
0.068547 0.0506871 0.19794
-0.120607 -0.0774912 0.311401
0.0301409 -0.0141551 0.577162
-0.0202586 -0.00466414 0.245043
-0.023116 -0.00496283 0.501182
0.174592 -0.0821382 0.268789
-0.131606 -0.0594442 0.234613
-0.0457726 -0.0356223 0.552912
0.0540736 -0.0929253 0.351682
0.105957 0.0608399 0.134958
-0.0147836 -0.051017 0.864147
-0.27874 -0.0927264 0.239627
0.00930347 -0.0876389 0.710924
-0.152792 -0.0804656 0.303855
0.0196867 -0.00452678 0.480434
-0.0425283 -0.0376993 0.168455
-0.0120415 -0.0729574 0.881812
0.0090524 -0.102716 0.558787
0.0720357 -0.076297 0.284796
0.120366 -0.063066 0.423869
0.284898 -0.0771715 0.263485
-0.267169 -0.0856122 0.263262
0.132058 -0.0675898 0.00587011
0.0317819 -0.0519551 0.667615
0.11256 -0.075307 0.425869
0.0224874 -0.0936514 0.188493
-0.147809 -0.104308 0.157033
