0.105528 -0.0750955 0.191828
0.138755 -0.110691 0.139908
-0.0205311 0.0594201 0.16319
-0.0650783 -0.0810258 0.312996
0.154436 -0.0839582 0.171766
0.0603039 0.0448534 0.20685
0.350952 -0.0771462 0.24287
0.105399 -0.0908394 0.242162
0.123175 -0.0810517 0.337205
-0.00712604 -0.0453733 0.865702
-0.0232124 -0.0796697 0.705944
0.0882135 0.0454315 0.19391
-0.145684 -0.0652787 0.291093
-0.0189804 -0.0521567 0.835306
0.125878 -0.0596212 0.218767
-0.0418614 -0.0832444 0.28918
0.102197 -0.0866132 0.127751
0.126102 -0.101448 0.386026
0.00470688 0.073161 0.109039
-0.128636 -0.112413 0.144757
-0.105293 -0.0762294 0.136198
0.00807175 0.0582663 0.142499
-0.173551 -0.0798959 0.269275
0.128654 -0.0789276 0.318285
-0.0930629 -0.0786411 0.3298
0.0435953 -0.0384526 0.273155
0.0398016 0.0442737 0.151095
-0.0522458 0.0483902 0.157539
0.151776 -0.0840038 0.278398
0.167554 -0.0890539 0.349096
0.027126 -0.0101191 0.390521
-0.205933 -0.0777455 0.316775
0.00646484 0.0332272 0.214576
-0.280261 -0.0849042 0.277782
-0.0213165 -0.0350077 0.71863
0.138827 -0.115505 0.035917
0.147102 -0.0822753 0.291949
0.240712 -0.0866 0.278354
0.115161 0.0460496 0.122725
-0.374515 -0.0824029 0.222607
-0.104794 -0.0775689 0.159247
-0.115408 -0.104957 0.216211
0.0228769 -0.0115724 0.162802
0.00325796 -0.0839662 0.802352
-0.0612242 0.0603996 0.173393
-0.189883 -0.0782957 0.322163
-0.0283229 0.0438647 0.149245
0.0420424 0.044308 0.182648
0.0264021 -0.0701972 0.706771
-0.0234334 -0.0175656 0.607251
0.10126 -0.0868737 0.0559298
-0.0311222 -0.0416252 0.671541
0.0455456 -0.0536469 0.432335
-0.0376326 -0.0815068 0.298663
0.131764 -0.0882533 0.411186
-0.125079 -0.0611531 0.081609
0.0662332 -0.0688789 0.317831
-0.00255132 0.0736055 0.179891
-0.1222 -0.0905237 0.323283
0.315596 -0.0688143 0.253435
-0.0968008 0.0610982 0.108861
-0.12648 -0.0818714 0.294143
0.340508 -0.0803787 0.26682
0.143775 -0.0988895 0.320615
0.170924 -0.0868306 0.278758
-0.152173 -0.0841335 0.283449
0.0444738 -0.0604798 0.398431
0.0302671 -0.0570871 0.692704
-0.137894 -0.0624055 0.0905115
-0.0473532 0.0444981 0.179195
-0.185805 -0.088207 0.282966
0.0118249 -0.0801949 0.797827
-0.0166539 -0.051744 0.857269
0.104243 0.055976 0.182844
-0.0637379 -0.0928645 0.395821
0.102681 -0.0842692 0.133454
0.00510727 0.0795511 0.140342
-0.0332398 0.0462333 0.160124
-0.0165969 -0.099696 0.227797
0.0287227 -0.107929 0.367175
0.0434397 -0.0395632 0.249145
-0.211284 -0.0687643 0.280553
-0.134826 -0.104115 0.316701
-0.039882 0.053207 0.150833
0.130934 -0.0588603 0.28689
0.0471674 0.0444311 0.152229
0.0426959 -0.0326538 0.34752
-0.041357 -0.0349307 0.151194
-0.149147 -0.070161 0.404755
-0.0481679 -0.0519086 0.320045
0.319876 -0.0839378 0.251656
-0.149946 -0.0889173 0.367655
0.0223559 -0.0402995 0.724929
0.354341 -0.0831824 0.226123
0.0164963 0.0593568 0.145965
0.0305962 -0.0133927 0.323323
-0.142617 -0.103657 0.255845
-0.00158667 -0.0408758 0.835443
-0.0931302 -0.0823183 0.293688
-0.18726 -0.0721926 0.292716
0.0396125 -0.0266506 0.30433
-0.147969 -0.104374 0.153096
-0.0323876 -0.0128526 0.519483
-0.108126 -0.0910875 0.340819
0.0877602 -0.091924 0.368199
-0.104681 -0.076944 0.0783163
-0.0258859 -0.00917279 0.219111
0.130601 -0.102864 0.354884
0.0570812 0.0446392 0.160773
-0.00682385 0.000667393 0.484607
-0.346107 -0.0789275 0.247467
-0.145408 -0.0699917 0.0224273
0.00879848 -7.17118e-05 0.556685
0.210998 -0.077101 0.271178
0.153533 -0.0896314 0.328882
-0.133167 -0.0610237 0.0931927
0.0365899 -0.0768204 0.11412
-0.103685 -0.0968273 0.0911788
0.106591 -0.0892672 0.307775
0.158181 -0.0894144 0.314466
0.000696431 -0.110428 0.416816
-0.151776 -0.0727989 0.0836858
-0.361285 -0.0777637 0.25498
0.280198 -0.0810705 0.256975
0.154003 -0.0857273 0.204034
0.124131 -0.0597838 0.214723
0.30766 -0.0815188 0.248541
-0.246296 -0.0862216 0.270149
0.249334 -0.0726872 0.266221
-0.0329243 0.0438376 0.121765
0.128376 -0.0902633 0.29199
0.366206 -0.0823948 0.242888
0.145641 -0.111633 0.0382721
-0.0120095 -0.0713833 0.894475
0.040658 -0.0573245 0.148418
0.368538 -0.0699551 0.239326
0.0564299 -0.0799115 0.341828
0.0452744 -0.0497284 0.262595
-0.218289 -0.068709 0.282464
-0.200607 -0.0777469 0.317048
-0.0544534 -0.0927582 0.305844
-0.0481242 -0.0522764 0.364948
-0.144082 -0.105027 0.204549
-0.0812171 0.0607144 0.180367
0.300307 -0.0821734 0.248515
0.131758 -0.0698488 0.43904
-0.0782212 -0.0834801 0.370984
-0.0392493 -0.0465217 0.087724
0.230907 -0.0870242 0.301678
-0.0298588 -0.0108061 0.275866
0.212851 -0.0759941 0.279057
-0.0377826 -0.0517804 0.620216
-0.00709799 0.0770003 0.118262
-0.0463067 -0.0638639 0.347703
0.228074 -0.0927366 0.265119
-0.0820782 -0.0786894 0.330743
0.0047267 0.076807 0.117234
-0.139982 -0.0744779 0.292693
0.278149 -0.0853781 0.273592
-0.103828 -0.080185 0.118571
0.139295 -0.0613193 0.271118
-0.0105197 -0.000139152 0.270446
0.13742 -0.0625673 0.0793868
0.146524 -0.0672197 0.169317
-0.116579 -0.0712317 0.286044
-0.10495 -0.0835869 0.370565
0.270206 -0.0798224 0.295746
0.019596 -0.0869972 0.635239
0.283514 -0.0928533 0.249626
-0.184652 -0.0714736 0.26898
0.155868 -0.0869595 0.0990326
-0.03232 -0.0502128 0.687695
-0.0445793 -0.0317184 0.32959
0.029274 -0.0162957 0.187343
0.151268 -0.105003 0.05713
0.0208471 -0.0978899 0.473706
0.123385 -0.0609419 0.126679
-0.0184107 0.043831 0.205521
0.135225 -0.103266 0.32705
0.22784 -0.0870765 0.291938
0.0328767 0.0597919 0.169827
-0.0186671 0.0437056 0.162165
0.0447356 -0.0440806 0.321949
-0.00166313 -0.115836 0.396565
-0.119515 -0.0609025 0.292556
-0.0620401 -0.0757938 0.307518
-0.175067 -0.0737101 0.284553
-0.00854622 -0.0456321 0.862506
0.333996 -0.0834884 0.252286
-0.258331 -0.0857636 0.301018
-0.00250012 -0.0894329 0.71649
-0.0280153 -0.0134552 0.176548
0.0457364 -0.0524302 0.433024
0.144391 -0.0646758 0.296377
-0.0846421 -0.0921155 0.38857
-0.0413515 -0.0832478 0.405697
0.0319654 0.0439775 0.130872
-0.0184363 -0.0342964 0.731842
-0.000171714 -0.0114258 0.071005
-0.264343 -0.0723233 0.268579
-0.0141021 -0.0127228 0.0776774
-0.119223 0.0461061 0.162787
-0.116743 -0.0890272 0.37416
0.0420866 -0.0314675 0.393185
0.105009 -0.0755143 0.111295
-0.111415 -0.071451 0.420701
-0.0886369 -0.0811608 0.351083
-0.058199 -0.0928853 0.360016
-0.0331387 -0.0336374 0.614444
-0.0118302 0.0592145 0.163322
-0.257725 -0.0857679 0.297543
0.152191 0.0625497 0.155897
0.027499 -0.0452487 0.709407
0.0293711 -0.0122369 0.478147
-0.0203659 -0.0302227 0.0380549
0.0514551 -0.0820833 0.372906
-0.047213 -0.0809134 0.319353
-0.0790823 0.045298 0.179327
-0.145633 -0.0954028 0.368778
0.0449799 -0.0456381 0.501897
-0.0340805 -0.0884419 0.489601
-0.106676 -0.0787615 0.32789
-0.0365879 -0.0180073 0.576833
0.03776 -0.0658522 0.106208
0.122118 -0.081617 0.424359
0.00534113 0.0671579 0.157392
0.107551 -0.0918093 0.00294044
0.0607401 -0.0805159 0.345967
-0.239445 -0.0864116 0.301472
-0.0506555 -0.0931247 0.356071
0.244867 -0.0865056 0.286567
-0.0411027 -0.0458555 0.0952799
0.14639 -0.089663 0.287087
0.0221271 -0.0524368 0.793475
-0.024076 -0.0806522 0.685269
0.0110006 -0.000972767 0.430006
-0.148523 -0.0999915 0.00505051
0.0833605 -0.0697854 0.305575
-0.0282663 -0.0453871 0.0506032
-0.0269875 -0.0116259 0.192644
0.0367828 -0.0251847 0.215618
-0.148216 -0.0680471 0.320936
-0.0540347 -0.076199 0.286461
-0.0230545 -0.0918768 0.603277
0.139917 -0.113442 0.0717156
-0.0286178 0.0486231 0.209499
-0.031497 0.0596831 0.165395
-0.141543 -0.0752696 0.299235
0.0108188 -0.0327764 0.74826
-0.00732047 -0.0812731 0.832245
-0.0248863 -0.0653444 0.783592
-0.0291382 -0.0615152 0.732136
-0.148031 -0.083302 0.355015
0.0505791 -0.0812276 0.256187
-0.0070077 -0.0332869 0.771262
0.0634498 -0.0854012 0.386234
0.00618425 0.0299912 0.231669
-0.0541728 -0.0767247 0.345501
0.073651 0.0449594 0.16759
-0.0222775 -0.0265557 0.0513536
-0.10851 -0.0909247 0.29346
-0.117489 -0.0907834 0.344226
-0.21871 -0.0736788 0.28215
-0.349112 -0.0737479 0.227546
-0.0254897 -0.0952306 0.224762
-0.170206 -0.0888041 0.306735
-0.114141 -0.0640958 0.35535
-0.0398633 0.0441869 0.161132
-0.104586 0.0615902 0.171631
-0.025611 -0.110231 0.399027
-0.138198 -0.106018 0.249433
-0.101624 -0.0911778 0.312768
-0.00353641 -0.0836094 0.81062
0.11398 -0.0908535 0.319344
-0.271371 -0.0817144 0.255543
0.00114047 0.11562 0.125084
0.0142483 -0.0255976 0.68326
-0.365035 -0.0745844 0.223762
-0.321921 -0.0834419 0.269779
0.149213 0.051403 0.180461
-0.13484 -0.102157 0.358653
0.0287189 -0.0705765 0.67279
-0.362142 -0.0817183 0.233949
-0.0245055 -0.110553 0.289866
-0.150043 -0.0856604 0.00102579
0.0407755 -0.0690195 0.185692
-0.156034 -0.090161 0.105737
0.0241224 -0.0640399 0.059402
-0.0618347 -0.0826217 0.364612
0.0100623 0.0439761 0.163515
0.106025 -0.0733421 0.0423257
-0.0433216 -0.0614926 0.174216
0.137455 -0.0823153 0.43893
-0.163009 -0.0813935 0.287682
-0.0905055 0.0607504 0.137331
-0.128795 0.0617741 0.122696
-0.126179 -0.11074 0.181562
-0.0456007 -0.0345264 0.336018
0.132506 -0.0689523 0.437009
0.136664 0.0616527 0.125476
0.286362 -0.0881188 0.272849
0.0355838 -0.028956 0.141018
0.0868751 -0.0822471 0.354898
-0.0404395 -0.0994051 0.406384
0.292675 -0.078668 0.260872
-0.0591301 -0.0710444 0.292093
0.00625325 0.0425436 0.192759
-0.154029 -0.0777863 0.166011
-0.0282221 -0.0471226 0.0507291
0.038553 -0.0984718 0.253461
-0.107754 -0.0881768 0.00413355
-0.0408848 -0.0245249 0.382296
-0.0335067 -0.0507005 0.673334
0.130341 -0.0804342 0.330523
-0.0120171 -0.0959775 0.113564
0.0450023 -0.0457813 0.444734
-0.128469 -0.0610736 0.0887245
-0.0159653 0.0529518 0.151119
0.00788918 -0.0675801 0.0369387
-0.0477512 -0.0482371 0.369983
-0.00882783 -0.000176302 0.184952
0.0290056 -0.0616651 0.700363
-0.0440578 -0.0537126 0.596767
0.0268661 -0.0124596 0.216632
0.0296703 -0.0747676 0.630799
0.0859782 0.0578588 0.109208
-0.00706613 -0.115836 0.376269
0.21201 -0.0785641 0.297568
0.255272 -0.0862215 0.297
0.345645 -0.0762082 0.243916
0.0827287 0.0452547 0.141375
0.148527 -0.06949 0.0699449
0.155402 -0.0754585 0.27335
-0.00699118 0.103899 0.117828
0.114022 -0.0636166 0.366458
0.0453189 -0.0550922 0.44378
-0.0297948 -0.0924845 0.521823
-0.0230894 -0.00495193 0.52896
-0.0359865 -0.0329554 0.606054
-0.127508 0.0621947 0.167599
-0.0178508 -0.113368 0.401446
0.0231294 0.0579262 0.144707
0.115204 -0.0637824 0.171453
-0.0108746 -0.0760942 0.865282
-0.194543 -0.0803 0.330892
0.253475 -0.0780554 0.284521
0.303706 -0.0849476 0.240191
-0.11375 -0.065612 0.15521
0.0193635 -0.0257732 0.655236
0.0385973 -0.0776908 0.166552
-0.140093 -0.110167 0.145485
-0.0379004 -0.0192338 0.275824
0.129052 -0.0662508 0.0125945
-0.0901746 0.0610553 0.121309
-0.121868 -0.0792845 0.442012
-0.00730073 0.0897267 0.131135
0.151597 -0.083831 0.326412
-0.12391 -0.0587029 0.352122
-0.190946 -0.091091 0.27332
0.0203706 -0.0783503 0.726311
-0.11369 -0.109963 0.0889843
-0.11093 -0.0933421 0.352511
0.147225 0.0624335 0.155508
-0.0293907 -0.108283 0.246806
0.0111655 -0.0189589 0.642532
0.0139348 -0.0417539 0.794264
0.0683914 0.0448438 0.167082
-0.0404774 -0.0237317 0.332842
0.239367 -0.0794081 0.265077
0.281129 -0.0741796 0.263925
-0.116843 -0.0906475 0.310679
-0.0337679 -0.0253722 0.0930274
-0.00492293 -0.115836 0.349648
-0.0430184 0.0443763 0.173885
-0.159101 -0.0804789 0.295942
-0.191846 -0.0928533 0.287398
0.267194 -0.0748739 0.246985
-0.115361 -0.102712 0.259733
0.0401951 -0.0974061 0.323147
0.153232 -0.0797181 0.208477
0.00149529 -0.06948 0.929963
-0.127058 -0.109657 0.205402
0.145455 -0.100721 0.256661
0.154564 -0.0822215 0.136769
0.146636 -0.110692 0.0403684
-0.00606915 0.0478411 0.215552
0.136206 0.062261 0.16026
0.202343 -0.0880011 0.314785
-0.0944483 0.059149 0.108926
0.0648657 0.0599563 0.121489
-0.00750329 -0.115836 0.306623
-0.134536 -0.111871 0.15233
0.149559 -0.0898507 0.3484
0.102566 -0.0827015 0.101897
-0.272988 -0.0840985 0.252577
-0.141387 -0.0635323 0.104892
0.0599956 -0.0926615 0.335979
0.0105243 -0.0301778 0.0126332
0.0225882 -0.097001 0.501039
0.137914 -0.11377 0.0803353
-0.275026 -0.0928533 0.257668
-0.0428241 -0.0625849 0.165393
0.106909 -0.102299 0.115026
0.0431504 -0.0339746 0.520203
0.15388 -0.0774376 0.072958
-0.0349717 -0.0163472 0.245245
0.146475 0.0510341 0.149515
0.00753103 -0.0809093 0.821974
-0.0346856 -0.0878712 0.412663
-0.269078 -0.0792804 0.268703
-0.00406731 -0.0372374 0.806744
0.011105 -0.0486226 0.856273
-0.11097 -0.068125 0.124789
-0.14205 -0.0625586 0.235759
-0.106133 -0.0993545 0.123692
0.033732 -0.0442793 0.626817
0.0923151 0.0453434 0.158442
0.139948 -0.0733209 0.304135
0.0559632 -0.0929961 0.379505
0.0406299 -0.0286311 0.534569
-0.22783 -0.0868701 0.3145
0.0472219 -0.0691364 0.320888
-0.233941 -0.0708087 0.260303
0.0452525 -0.0555155 0.318329
-0.113437 -0.0650313 0.29727
0.10527 -0.0749315 0.0894499
0.0130815 -0.0989835 0.203627
-0.133588 -0.090005 0.295836
-0.139789 -0.105677 0.244318
-0.132014 -0.0920113 0.43183
0.106797 -0.0788342 0.38791
-0.104573 -0.0944595 0.149456
-0.110689 -0.067826 0.294289
0.0455146 -0.0917164 0.300712
-0.0122211 -0.00050494 0.35931
0.0445991 -0.0596809 0.347338
-0.0261673 -0.0278243 0.0623819
-0.000809876 -0.0346542 0.786368
0.132167 -0.102592 0.360857
-0.295466 -0.0844249 0.286401
-0.0462056 -0.038383 0.501149
-0.0943784 -0.0914328 0.31431
-0.0976482 -0.077848 0.283005
0.131981 -0.11494 0.0891444
-0.106376 0.0457391 0.127446
-0.020996 -0.0869554 0.646178
0.155469 -0.0865686 0.125583
0.00650596 0.00775933 0.197528
0.163445 -0.0815876 0.333144
-0.00525155 -0.0442311 0.861981
-0.0179739 -0.113232 0.292044
-0.0138557 -0.0282078 0.711571
0.227696 -0.0766626 0.278345
0.152384 -0.0896079 0.316117
0.00239215 -0.0236831 0.699831
0.106643 -0.0911425 0.330777
-0.0330046 -0.0846755 0.597731
-0.131863 0.0528989 0.148207
-0.12583 -0.0589985 0.274517
0.0054928 -0.115836 0.347377
0.0172365 -0.0993672 0.558082
0.221183 -0.0854616 0.323273
-0.151688 -0.0728962 0.125634
0.134996 -0.076626 0
-0.0664793 0.0450215 0.196713
-0.116008 -0.104136 0.242354
-0.143636 -0.0950156 0.40947
-0.123012 -0.0905528 0.335368
-0.296778 -0.0749728 0.239985
-0.124435 -0.112568 0.0130925
0.105857 0.0458017 0.13316
-0.0512554 0.0573106 0.109412
0.00742403 -0.0232083 0.686311
0.166505 -0.0892509 0.346117
-0.107303 -0.105673 0.0550932
-0.138485 0.0623143 0.154089
-0.0125296 -0.000631158 0.348264
-0.0123069 -0.00889261 0.0905199
-0.139445 0.0469352 0.112157
-0.0454197 -0.0686754 0.287902
-0.124573 -0.113435 0.0169474
-0.329828 -0.0833164 0.257772
0.0375586 -0.0251107 0.234981
0.0888432 0.0455259 0.201378
0.0214487 -0.0543504 0.806133
0.0446296 -0.0434047 0.346509
-0.119511 -0.108258 0.192242
0.0386526 -0.081318 0.152167
0.00613384 -0.00242096 0.132691
-0.058685 0.0601677 0.116604
0.150701 -0.0896998 0.324152
-0.00241264 -0.115578 0.26634
0.0436798 -0.0655415 0.43273
-0.131806 -0.104302 0.323244
0.0338321 -0.103362 0.387073
-0.0891941 0.0497504 0.151696
-0.103993 -0.0802225 0.0297323
-0.127874 -0.0929429 0
-0.128254 -0.100921 0.397621
-0.0431988 -0.0544947 0.1412
0.117392 -0.0679895 0.0169772
0.11862 -0.062777 0.116674
0.0885694 -0.0779145 0.318317
-0.0746221 -0.0695096 0.306538
0.0488522 -0.0929237 0.315876
-0.105875 -0.0756374 0.205824
0.0236292 -0.0960707 0.555233
0.174218 -0.0684076 0.292148
-0.0287137 -0.0475571 0.728954
0.0178265 -0.00967223 0.129404
0.0381164 -0.023737 0.561423
-0.039389 -0.0812788 0.418597
0.0314766 -0.0886684 0.473684
-0.133011 -0.101089 0.393945
0.232427 -0.0863822 0.266548
-0.0547655 0.0504306 0.152652
0.0658607 0.0447806 0.155042
-0.14105 -0.101744 0.318955
-0.0144234 -0.114754 0.396799
0.0961449 -0.0792814 0.315181
0.114338 -0.103107 0.245112
-0.0247757 -0.0457429 0.750494
0.0370231 -0.0778671 0.120551
-0.150834 -0.107071 0.0328749
-0.0758085 -0.0701009 0.298501
0.121773 -0.109481 0.188448
-0.145926 -0.0660621 0.19344
-0.256967 -0.079169 0.272215
-0.0120889 -0.115664 0.411027
0.103089 -0.0971791 0.0296913
-0.00368327 0.000667393 0.333207
-0.304968 -0.071499 0.259694
-0.10859 -0.10722 0.0586705
-0.205665 -0.0773755 0.261642
-0.00663588 0.105281 0.103243
-0.00813494 -0.0895101 0.704579
-0.0194443 -0.0974231 0.20517
0.125172 -0.0637373 0.0252168
-0.106454 -0.0892712 0.274316
-0.0441023 -0.0414182 0.195254
-0.0292147 -0.0687131 0.71101
0.0188718 0.0594798 0.185062
0.121725 -0.0839273 0.288122
0.108491 0.0477477 0.154656
-0.0248282 -0.0558457 0.796028
-0.038395 -0.0310153 0.126502
-0.0999047 -0.0913074 0.327807
-0.149731 -0.107376 0.0646799
-0.129161 -0.0652141 0.0178006
0.288884 -0.06861 0.259003
0.128883 -0.0715162 0.289692
-0.0326575 -0.0407998 0.653259
0.0334901 -0.103709 0.352682
-0.0112164 -0.0981546 0.151345
-0.106642 -0.0781763 0.316799
0.151588 -0.0818818 0.290377
-0.00259703 -0.0437574 0.861089
-0.0379895 -0.0327228 0.0959935
0.045583 -0.0494833 0.467859
0.0103912 0.0507763 0.20968
0.114157 -0.11015 0.0224495
-0.0424175 -0.0510436 0.601086
-0.0220055 -0.0868206 0.0875473
-0.112742 -0.0712211 0.422591
0.155027 -0.0820479 0.0969673
-0.151917 -0.0739986 0.243883
0.194042 -0.0710637 0.273627
0.0748766 0.045074 0.14366
-0.104598 -0.0785898 0.0312047
-0.327068 -0.0689038 0.24699
0.0327126 -0.0875026 0.514662
0.0744163 0.0483592 0.152942
0.330427 -0.0788092 0.250138
0.226238 -0.079464 0.267749
0.0523251 -0.076949 0.327099
0.00538248 0.0602982 0.152866
0.0401178 -0.0752575 0.524854
-0.151522 -0.0882115 0.322539
-0.0264778 -0.0378904 0.0484984
0.00364541 -0.084939 0.785629
0.0708743 -0.076435 0.3097
0.0188395 -0.0691583 0.816304
0.00440116 -0.0856184 0.770901
0.117032 -0.111857 0.100315
0.124704 -0.109433 0.210335
0.139202 -0.0843101 0.402995
-0.0398085 -0.0224292 0.383596
0.151109 -0.101948 0.110348
-0.170921 -0.0794649 0.332868
0.13136 -0.0580927 0.355618
-0.138401 -0.0897491 0.312545
0.0432667 -0.035156 0.295386
-0.215855 -0.082714 0.264171
-0.155555 -0.0798323 0.072141
-0.0468736 -0.0426419 0.415359
-0.0210787 -0.00412921 0.487317
0.00265018 0.000667393 0.436363
-0.0713404 -0.0924755 0.368421
-0.0268399 -0.00762087 0.303702
-0.0518412 -0.0838457 0.283077
-0.264192 -0.085154 0.304378
0.025213 -0.00831469 0.359276
-0.132875 -0.0580101 0.363009
0.00399435 -0.00229383 0.122239
0.151776 -0.084482 0.287561
-0.0143381 -0.0230226 0.038541
-0.0246897 0.0439652 0.195373
0.178257 -0.07839 0.30327
-0.32382 -0.0705234 0.249065
-0.116082 0.0488591 0.152422
-0.0216032 -0.0375694 0.0319244
0.0436362 -0.0370721 0.442152
-0.139798 -0.104976 0
0.0419049 -0.0750245 0.401747
-0.0459109 -0.0365042 0.343781
0.31845 -0.0814592 0.277171
-0.0457655 -0.0664748 0.287972
0.0633861 -0.0927104 0.369355
0.0915817 0.0453648 0.174072
-0.023745 -0.00522017 0.460052
0.223824 -0.0873067 0.313459
-0.0269835 -0.0744262 0.7015
0.327607 -0.0742295 0.233288
-0.133937 -0.0606791 0.124048
-0.0278251 -0.0170589 0.598824
0.0410688 -0.0734059 0.491164
0.114113 -0.112084 0.064255
0.0411751 -0.0382984 0.193247
-0.0422681 0.0600361 0.188686
0.147727 -0.104347 0.147515
0.109934 -0.108513 0.0297808
-0.0515877 0.0601225 0.144174
0.0399029 -0.043002 0.138877
-0.0481079 -0.0523803 0.432531
-0.0270496 0.0515736 0.152965
-0.146524 -0.0661927 0.255921
-0.0186848 -0.0970409 0.191016
0.0249681 -0.0948077 0.519541
-0.105519 -0.0754094 0.0644583
0.0644284 -0.0923996 0.310576
-0.0621772 0.0602884 0.119205
0.115562 -0.0846895 0.369232
-0.0260185 -0.00684471 0.356697
0.106572 -0.0906902 0.291194
-0.019637 0.0435266 0.120504
0.129 -0.110748 0.1814
-0.0425848 -0.0359957 0.17721
0.134589 -0.0730782 0.419628
0.00789579 0.0524399 0.15113
0.0318368 -0.104645 0.244233
0.00519581 0.0765237 0.149487
0.0652609 -0.0816784 0.309847
0.151582 -0.0922872 0.287113
-0.0675895 0.060361 0.112547
0.122442 -0.0826702 0.423202
-0.0132744 -0.115223 0.340387
0.0221046 -0.103252 0.236085
-0.0643908 -0.0808009 0.316117
-0.0265786 -0.109768 0.299266
-0.0180376 -0.0181523 0.0643414
0.0125717 -0.101276 0.450942
-0.016908 -0.065757 0.042471
-0.0431879 -0.0442979 0.158297
-0.0242009 -0.0601428 0.804748
0.0452149 -0.0524537 0.251027
-0.0455289 -0.0340682 0.32128
-0.0197008 -0.00356544 0.554083
0.0238101 -0.0942459 0.219394
-0.155312 -0.0856238 0.173681
0.0714406 0.0607017 0.15779
-0.149873 -0.087094 0.398828
-0.034503 -0.0880434 0.459537
-0.0081209 0.0396025 0.121676
-0.0054318 -0.0850192 0.786547
0.00635153 0.0164335 0.183195
0.0399122 -0.081539 0.317952
0.107033 -0.0706045 0.296822
-0.0964736 0.0523738 0.14835
-0.169273 -0.0759221 0.303329
-0.0441129 -0.0532917 0.160824
0.003055 0.0167283 0.118085
0.020636 -0.0361963 0.716
0.0373214 -0.0808378 0.311967
0.0604709 0.0447329 0.192778
-0.278682 -0.089665 0.228938
-0.0157383 -0.00194406 0.366206
-0.0125025 0.0589641 0.118865
0.0432628 -0.0682 0.387343
-0.0156467 -0.0426647 0.0115051
-0.00873946 0.0302087 0.199071
0.0437362 -0.0400161 0.26085
0.0117301 -0.0202288 0.0469262
0.0322482 -0.0640965 0.649291
-0.0202699 0.059188 0.120489
-0.00688321 0.000667393 0.482948
0.0343762 -0.0302177 0.0968757
-0.0230863 -0.00495062 0.441012
0.0303044 -0.0181641 0.170562
-0.0455774 -0.0343779 0.371629
0.148974 -0.0695581 0.17668
0.0498141 -0.0713042 0.302086
-0.131989 -0.105111 0.305444
-0.220935 -0.0827007 0.263024
0.149406 -0.0714928 0.37561
0.156035 -0.0849433 0.2817
0.231974 -0.0775921 0.285208
0.221457 -0.087201 0.274992
-0.024358 -0.0432278 0.0383399
0.0415112 -0.0725445 0.417658
-0.00334429 0.0902752 0.0997786
-0.115832 -0.103972 0.242676
-0.0179259 -0.00283918 0.483313
-0.0277448 0.0594846 0.129629
0.039953 -0.0595364 0.138728
-0.0708496 0.0581347 0.186402
0.0401371 -0.0276715 0.551469
0.178692 -0.0888303 0.329928
0.134806 -0.0605083 0.189376
-0.152313 -0.104351 0.0555357
0.0385377 -0.0832593 0.301657
-0.0477798 -0.054472 0.334763
0.111665 -0.0657094 0.400051
0.0804113 -0.0921185 0.35951
-0.0279528 -0.0238877 0.075908
0.030364 0.0438724 0.117488
0.128814 -0.0581734 0.348388
0.109905 -0.103396 0.166029
0.139043 -0.0612808 0.265839
-0.0401167 -0.0753064 0.205384
-0.106222 -0.10112 0.0258202
0.142088 -0.0900477 0.33942
0.0291791 -0.047353 0.691945
-0.205326 -0.0859772 0.272427
0.00448447 0.115788 0.124522
-0.154049 -0.101009 0.0316414
-0.0671902 0.0605355 0.17026
-0.0486579 -0.0817633 0.307873
-0.120709 -0.0876156 0
-0.03772 -0.0299987 0.122864
0.000859596 0.116774 0.116255
0.110135 -0.0908626 0.387037
0.0925778 0.0455143 0.135154
0.0376743 -0.0228764 0.458581
-0.287772 -0.0811638 0.254492
0.0435963 -0.0368175 0.527537
-0.150152 -0.0724631 0.0286721
0.0445194 -0.0427024 0.421067
-0.0333705 0.0595488 0.121658
0.156795 -0.0778868 0.303615
0.138877 0.0573944 0.143325
-0.0907427 -0.09156 0.314926
-0.0398098 -0.0224317 0.404077
0.135538 -0.059219 0.343893
0.0967933 -0.0691105 0.30753
0.00609074 0.0139615 0.142324
-0.0929639 0.0456848 0.194958
0.0435303 -0.0664945 0.462769
-0.0265239 -0.0923423 0.193517
-0.00824407 0.0257068 0.12487
-0.00158434 0.0963555 0.150214
0.0252336 0.0595926 0.16089
-0.141723 -0.0617707 0.322165
-0.0283916 -0.0276769 0.0703373
0.332688 -0.0760481 0.24649
0.044838 -0.0581578 0.450007
-0.146118 0.0517047 0.143117
0.152567 -0.075303 0.0965202
-0.119983 -0.0602291 0.342503
-0.096807 -0.0819498 0.357278
-0.0762162 -0.0922396 0.353735
-0.0160097 -0.00337349 0.578595
-0.025432 -0.0818107 0.0844499
0.0402176 -0.0430786 0.147065
-0.134 -0.068381 0.405316
-0.038914 -0.0206875 0.450934
0.129777 -0.100598 0.40473
0.0845892 -0.0843841 0.373248
-0.0468681 -0.0601654 0.571953
0.0135897 -0.0182986 0.058196
-0.124173 -0.0601306 0.200817
0.150491 -0.0759294 0.375524
-0.190946 -0.0889072 0.277325
-0.1511 -0.0753376 0.367324
-0.0473299 -0.0455513 0.33384
-0.114096 -0.0642992 0.327447
-0.0046624 -0.098137 0.128325
-0.00876774 0.0132701 0.187805
-0.177075 -0.0794255 0.294353
-0.121456 -0.109338 0.184245
0.0540373 -0.0798818 0.326087
0.168271 -0.0890894 0.314091
0.13316 -0.105877 0.287092
0.0312392 -0.0242269 0.0954424
-0.035121 -0.104381 0.30595
-0.0646327 0.047502 0.2035
0.0139252 -0.00280255 0.250494
-0.0994865 -0.0806863 0.282859
-0.0468741 -0.0426454 0.344681
-0.0464804 -0.0401351 0.512235
0.101768 -0.0867402 0.094948
-0.0429968 -0.04041 0.169626
0.0100084 -0.0278259 0.0179938
0.128065 -0.0594223 0.236574
0.00479506 -0.0175127 0.0460211
0.0379671 -0.0361902 0.115414
-0.0367597 -0.0368756 0.0843689
0.0392223 -0.0759276 0.169154
0.0261407 -0.00918977 0.320293
0.101701 -0.0929835 0.0601436
-0.0728561 -0.0802694 0.320731
0.356632 -0.08161 0.236653
0.136174 -0.0614006 0.150206
0.000936233 -0.115836 0.313763
-0.136521 -0.0666002 0.0160699
-0.132224 -0.0839141 0.287533
-0.00801206 -0.101854 0.209142
0.11126 -0.109326 0.0286298
-0.332183 -0.0834526 0.250322
0.33002 -0.0833616 0.238233
-0.0963517 -0.0768038 0.314279
0.0324023 -0.104701 0.369725
-0.196415 -0.0928533 0.278081
0.042945 -0.0695865 0.455659
-0.100419 0.056061 0.14579
0.0444861 -0.0452247 0.253685
0.0270475 -0.0231143 0.607088
0.201053 -0.0828076 0.2625
-0.156877 -0.0783803 0.324489
0.043375 -0.0646315 0.575974
0.133121 -0.116992 0.0439888
0.0816488 0.0451748 0.117665
0.0144502 0.0436821 0.171768
0.161179 -0.0741593 0.283988
0.0352334 -0.0181238 0.33193
0.102114 0.0609034 0.120165
0.0793797 0.0492716 0.156056
0.0204786 -0.0941245 0.167534
0.00763246 0.000405365 0.384723
-0.00699633 0.0770724 0.108929
-0.0809907 -0.0813957 0.298241
-0.0657495 0.0446465 0.126992
-0.00895005 -0.093664 0.637732
-0.112819 0.0526904 0.185562
-0.278767 -0.0927001 0.245073
-0.109343 -0.0943951 0.291759
0.147168 -0.105753 0.129006
-0.0200405 -0.0221347 0.641745
-0.00115274 -0.115836 0.341384
-0.0462218 -0.0644053 0.43011
0.0722679 -0.0898763 0.393363
0.00697253 -0.0188989 0.655072
0.152432 -0.0748028 0.0518334
0.152516 -0.0920209 0.220893
-0.250629 -0.0755286 0.263903
0.043857 -0.0384796 0.323636
0.0555702 -0.0783786 0.329195
0.0355088 -0.0842314 0.408995
0.137503 -0.0621267 0.126154
0.136013 -0.0662319 0.429994
-0.105965 -0.0965293 0.164176
-0.092111 0.0610004 0.126204
-0.0415717 -0.0467306 0.104255
0.0163379 -0.0987809 0.582365
0.109603 -0.109751 0.0356128
0.0415246 -0.0499693 0.153183
-0.0462692 -0.0641029 0.348561
0.366828 -0.0791846 0.239733
0.00489607 0.000667393 0.517248
0.149159 -0.0926071 0.313585
-0.196823 -0.0754942 0.298401
0.337772 -0.0812275 0.242173
0.129836 -0.0575924 0.400409
-0.0175949 -0.0064758 0.178416
-0.114285 -0.110418 0.0250371
-0.0407689 0.0443155 0.172147
-0.0734227 0.0605472 0.130991
0.0135252 0.0455226 0.216862
-0.114591 -0.100175 0.297033
0.233819 -0.0901024 0.282671
0.153582 -0.097859 0.0254609
-0.147353 -0.0967669 0.313384
0.190525 -0.0797488 0.312029
0.00254718 0.000667393 0.570657
0.144765 -0.105726 0.169329
-0.0037331 0.0701832 0.184355
0.126941 -0.0683999 0.437379
0.137037 -0.112102 0.123046
-0.343334 -0.0828695 0.25503
0.108243 -0.0910263 0.317015
0.000153469 -0.0774526 0.886717
0.00415576 0.0978141 0.100726
-0.121906 -0.104171 0.298782
-0.0970816 -0.0824532 0.292297
0.0089385 -0.115482 0.256352
-0.00979522 -0.0508387 0.899965
-0.000177941 -0.0493903 0.921622
-0.210917 -0.0704859 0.26725
-0.234982 -0.0780521 0.310474
-0.124494 0.0576944 0.109313
-0.0451959 -0.0382707 0.238194
-0.273426 -0.0925328 0.261277
-0.0131063 -0.115292 0.30613
-0.0892342 -0.0918002 0.354955
-0.154429 -0.077144 0.0419779
-0.00199205 -0.0860238 0.771595
-0.0456301 -0.0681775 0.559011
-0.116459 -0.109822 0.13477
0.277961 -0.0730992 0.257749
-0.0931231 0.0612723 0.172586
0.00672173 -0.0639081 0.927841
0.157247 -0.0893754 0.299859
-0.0372811 -0.0176413 0.367043
0.194684 -0.088119 0.28776
-0.0373839 -0.0177779 0.476026
0.121733 -0.108509 0.209009
0.0357233 -0.101629 0.335012
-0.283732 -0.0727267 0.271
0.0439309 -0.0639409 0.324582
-0.110854 -0.068523 0.0741474
-0.147416 -0.0934147 0.36582
-0.0231563 -0.0668196 0.804406
-0.0476255 -0.07068 0.299285
0.120773 -0.0597016 0.344267
-0.044176 -0.0719584 0.557897
-0.148408 -0.0689364 0.0599651
0.0447662 -0.0499083 0.241133
0.328329 -0.0776841 0.265543
0.00389296 -0.101734 0.592519
-0.00434188 -0.0139034 0.622693
0.1101 -0.0957384 0.308155
0.0960213 -0.0793751 0.328947
-0.14709 -0.0840466 0.422631
0.132291 -0.0904181 0.35139
0.0730746 -0.0922425 0.335976
-0.143862 0.0466091 0.142341
-0.12063 -0.0608079 0.261642
0.111023 -0.0752447 0.281707
0.0211778 -0.0351891 0.705997
0.027717 -0.0922148 0.562738
-0.0384529 -0.0831015 0.434058
-0.00081764 0.000667393 0.356631
0.0099947 0.057696 0.199458
-0.0448323 -0.0537314 0.594297
-0.0444375 -0.0314423 0.473202
-0.00615782 -0.103559 0.469421
-0.0474496 -0.0554386 0.282436
-0.0147125 -0.00419153 0.585143
0.103387 -0.0778998 0.0401503
0.278551 -0.0751431 0.266316
-0.257216 -0.0826101 0.262243
-0.0628943 -0.0853831 0.387645
0.00460926 -0.0930255 0.65724
-0.120817 -0.103979 0.294399
-0.336548 -0.0694257 0.242234
-0.00743127 0.0848512 0.142588
0.0641976 -0.0704594 0.305198
-0.12908 -0.0659376 0.0141672
0.136016 -0.114598 0.0773971
-0.0477221 -0.0548398 0.469083
0.135166 -0.104092 0.309763
-0.10452 -0.0842729 0.22735
-0.0436006 -0.0686941 0.21416
-0.0453208 -0.0695497 0.567318
-0.279375 -0.0849899 0.242237
0.350467 -0.0747081 0.253379
-0.0266599 0.0594651 0.140326
0.139263 -0.0621689 0.185588
0.0211513 -0.00512607 0.381735
-0.11028 -0.0686478 0.313325
0.0103618 -0.101953 0.574619
-0.0994601 0.061258 0.146119
-0.252806 -0.0859239 0.294933
0.151364 -0.104067 0.0694308
0.00893875 -0.000129117 0.447885
0.0414875 -0.0471739 0.164042
-0.0513311 0.0445735 0.171396
-0.0855957 -0.080401 0.315525
0.10452 -0.0782398 0.195977
0.139225 -0.0634473 0.0572545
-0.0276779 -0.0568461 0.761116
-0.216042 -0.0850995 0.270344
0.0282546 -0.05886 0.717146
-0.154084 -0.0824234 0.22754
-0.119672 -0.062617 0.116639
0.126143 0.0462269 0.131518
-0.0440233 -0.0592116 0.183521
0.147394 -0.0945605 0.33122
0.0450072 -0.0570792 0.428138
-0.0977342 -0.0825569 0.291417
0.0443684 -0.0417396 0.422913
0.111382 -0.0676523 0.059745
0.102685 -0.0917428 0.0269497
0.103603 -0.0873222 0.189651
-0.0156485 -0.0161609 0.614772
-0.109369 -0.0899591 0.363371
0.127188 -0.0584264 0.325734
-0.0475231 -0.0467827 0.544657
-0.0438262 -0.0726395 0.441513
-0.0258719 -0.0961849 0.477801
-0.0283986 -0.109073 0.350116
0.102433 0.0511034 0.110951
-0.262732 -0.0818522 0.261206
-0.00692328 -0.078421 0.862928
0.0464002 -0.0876552 0.246232
-0.142689 -0.0629069 0.267296
-0.279255 -0.0790699 0.24415
0.0334725 -0.0223448 0.17157
-0.00875591 0.0107307 0.183824
0.10816 -0.0701806 0.132062
0.0380853 -0.0763493 0.331477
-0.000515207 0.0159634 0.118252
0.0469357 -0.0880807 0.253017
0.103323 -0.0807714 0.339072
0.103165 -0.0908252 0.142524
0.028937 -0.0892625 0.219492
-0.231087 -0.0834603 0.267466
0.0281306 -0.0110668 0.511948
-0.321978 -0.0768538 0.233996
0.108501 -0.0817285 0.4184
-0.142172 -0.0714687 0.00629985
-0.112918 -0.0771034 0.315971
0.150479 -0.0726163 0.252289
0.348256 -0.0700538 0.244288
-0.138768 -0.101858 0.334355
-0.14711 -0.0947618 0.352771
-0.0307066 -0.108027 0.290321
0.150557 -0.0830465 0.00886737
-0.0284556 0.0440315 0.183283
-0.112193 -0.0771021 0.00190616
0.10756 -0.0715689 0.19058
-0.0343598 -0.0202552 0.593445
-0.128684 -0.111709 0.160258
0.144607 -0.098941 0.305827
0.0217985 -0.0173582 0.605629
0.0103362 0.0592219 0.154104
0.129826 -0.0598247 0.200547
0.123306 -0.0755481 0.293158
-0.138007 -0.0679215 0.0123881
-0.107624 -0.0720099 0.105824
-0.24989 -0.0850673 0.311067
0.110305 -0.0802006 0.332819
0.153452 -0.0765639 0.0507528
-0.0692415 -0.0923651 0.329741
0.149692 -0.0957282 0.248957
0.0291702 -0.107305 0.26177
0.114445 0.0615805 0.147336
0.0440282 -0.0395712 0.40641
-0.314561 -0.0817984 0.23607
0.00599624 -0.0399764 0.817738
-0.0340143 0.059748 0.168571
-0.0193533 -0.0979164 0.214487
-0.0229225 -0.00509178 0.282673
0.132559 -0.0594184 0.236916
-0.0510582 -0.0769561 0.388031
-0.0219447 -0.0782111 0.0724472
-0.00683953 0.0849421 0.108057
-0.0102013 -0.0960162 0.0991789
-0.0284945 -0.0145451 0.593123
-0.197333 -0.0883329 0.30154
-0.158767 -0.0836137 0.282165
-0.370987 -0.0821948 0.241588
0.315558 -0.0841072 0.258242
-0.277407 -0.085207 0.234443
-0.201583 -0.0877353 0.307628
0.13598 -0.11442 0.081499
-0.00663907 0.000667393 0.454378
-0.0248081 -0.00579768 0.371681
-0.297425 -0.0697611 0.261365
-0.100199 -0.0690946 0.304947
-0.21299 -0.0873345 0.305357
0.121294 -0.0831572 0.440793
0.0433563 -0.0697456 0.309025
0.13071 -0.103097 0.349759
0.0219276 -0.00546489 0.497338
-0.108666 -0.104212 0.116159
0.105632 -0.0910063 0.295036
-0.0143836 -0.00536987 0.17364
0.129917 -0.0589074 0.282672
-0.0285227 -0.0631849 0.73712
0.252354 -0.078396 0.287607
0.0211037 0.0482831 0.111581
-0.0393775 -0.0215901 0.571421
-0.145344 -0.0649626 0.296312
-0.190946 -0.090879 0.281982
0.0423715 -0.0568099 0.192587
0.0411117 -0.0781857 0.151273
-0.0254985 -0.0965371 0.550938
0.032779 -0.0446977 0.639992
-0.0953139 0.0611708 0.152576
-0.105236 -0.0910087 0.206268
-0.0425113 -0.0276918 0.32557
0.258468 -0.0860056 0.272935
0.054805 -0.0718362 0.29628
-0.025714 -0.00674895 0.572992
-0.0453272 -0.0346795 0.268421
-0.14413 -0.107796 0.0134827
-0.205764 -0.0685356 0.283893
-0.189197 -0.0793047 0.330631
-0.129375 -0.0777931 0.32093
-0.0219076 -0.0441202 0.769479
0.248293 -0.0863808 0.283365
-0.267813 -0.0853673 0.285728
-0.134993 -0.0602485 0.199843
-0.0457793 -0.0672265 0.566374
-0.0212255 -0.0974019 0.219624
-0.236208 -0.0759446 0.300234
0.116332 -0.112874 0.0729939
0.0983534 -0.0916252 0.376784
-0.138844 -0.0809751 0.297736
-0.0324661 -0.0129266 0.424295
-0.122677 -0.113785 0.0218537
0.0010241 -0.0120242 0.611943
0.147653 -0.0779885 0.306405
-0.0350734 -0.104392 0.341411
-0.0396911 -0.0222722 0.299709
0.11984 0.05785 0.147388
0.00915916 -0.00194607 0.225382
-0.0774494 0.0484932 0.154237
0.304922 -0.0783072 0.275716
-0.363791 -0.0783354 0.243123
-0.00852949 0.0228109 0.16242
-0.0086304 0.0235358 0.177493
0.125176 -0.0748729 0.433292
-0.0868803 0.0505633 0.111174
-0.140613 -0.113653 0.0665179
0.149409 0.0465079 0.150735
0.215415 -0.0788773 0.27006
0.0433615 -0.0675708 0.375696
-0.00712701 0.000667393 0.455925
0.0295822 -0.0598288 0.0680384
0.00241246 -0.093879 0.644624
0.0413721 -0.0300762 0.389968
0.108619 -0.0889526 0.375596
0.0446797 -0.0437242 0.390331
-0.045823 -0.0359436 0.423628
0.0958558 0.0456574 0.196818
0.0219841 -0.0105772 0.165667
-0.0469062 0.047491 0.157473
0.153411 -0.0865103 0.224311
-0.225275 -0.0803033 0.278759
0.0431374 -0.0689957 0.447697
0.066545 -0.0807011 0.317651
-0.116872 -0.103944 0.260428
0.00791841 0.0589107 0.121589
-0.116156 -0.0742168 0.31262
0.103653 -0.0854273 0.206796
-0.0289267 -0.0153918 0.156392
-0.126723 -0.059732 0.208841
0.0105778 -0.0883849 0.692043
0.0429444 -0.0333032 0.56978
0.277141 -0.0854278 0.289468
0.0104477 -0.0124082 0.0767922
-0.138181 -0.0998149 0.382844
-0.107596 -0.0722321 0.134771
-0.0536914 -0.0800474 0.268207
0.106595 -0.0825858 0.360567
0.0431232 -0.0346582 0.287668
-0.032258 -0.0428689 0.670595
-0.0450328 -0.0326013 0.348906
0.0487904 -0.0784275 0.356415
0.0693264 -0.0800205 0.300221
0.102121 -0.0812095 0.0448484
-0.145365 -0.089779 0.333366
0.135133 -0.0608106 0.171163
-0.0144606 -0.00142126 0.3228
0.0450065 -0.0570834 0.557149
0.074484 0.0449772 0.167459
-0.130974 -0.0810699 0.45179
-0.344518 -0.0706996 0.251071
-0.0263428 -0.0494658 0.755764
0.00355655 -0.102989 0.578922
-0.0468329 -0.055926 0.245584
0.13423 -0.0855057 0.28614
-0.00300647 -0.101443 0.200192
0.140813 -0.0613189 0.356092
0.00934161 0.0436621 0.209933
0.034254 -0.0768849 0.101834
-0.12338 0.0460714 0.140726
-0.170756 -0.0684165 0.294643
-0.0453525 -0.04652 0.207425
-0.0315099 -0.0833233 0.121325
0.0402307 -0.0278538 0.568814
0.0137151 0.0436716 0.174062
-0.236569 -0.0865051 0.300441
-0.0275439 -0.0946077 0.518366
0.119625 0.0461808 0.188767
-0.0475241 -0.0561023 0.425505
-0.00429496 -0.0955826 0.617086
-0.0320709 -0.0476108 0.685637
-0.0288367 -0.0688751 0.714997
-0.126201 -0.0611498 0.42374
0.150599 -0.0724607 0.191554
0.00137203 0.000667393 0.565286
-0.0226616 0.0437921 0.161098
-0.0705569 0.0607032 0.178334
-0.0244541 -0.00556974 0.492698
-0.193705 -0.0928533 0.286828
0.0458043 -0.0511944 0.45893
0.110782 -0.0673285 0.199155
0.0307992 -0.0139731 0.271772
0.108382 -0.102416 0.153908
0.0895736 0.060567 0.137312
0.173 -0.0805516 0.322457
-0.151651 -0.0764282 0.338353
0.215378 -0.0874223 0.324147
0.123356 0.0619743 0.169996
0.0405113 -0.0284001 0.532821
0.105604 -0.074437 0.293867
-0.0353102 -0.0452442 0.0748797
-0.044114 -0.0673125 0.586142
0.0400494 -0.0652264 0.165482
0.0286717 -0.0868866 0.175074
0.0044368 -0.0678027 0.928953
0.13337 -0.112164 0.150241
0.015299 -0.0290737 0.030746
-0.0254384 0.0533766 0.203093
0.0448722 -0.0579401 0.344847
0.0506912 0.0457197 0.160611
-0.113288 -0.0658619 0.17837
0.153092 0.0469986 0.137183
0.0671301 -0.0925235 0.355174
0.036941 -0.0814432 0.54353
0.246556 -0.077526 0.281563
0.151508 0.0466599 0.139545
0.140961 -0.106608 0.000658921
-0.00684443 0.000667393 0.367743
-0.274191 -0.087125 0.285414
-0.374416 -0.0746412 0.240211
0.0588665 -0.0847064 0.287425
-0.169429 -0.0887421 0.287938
-0.125737 -0.0585795 0.312027
-0.279375 -0.0900012 0.255718
-0.138127 -0.0603143 0.3066
-0.170825 -0.0887427 0.298187
-0.0267047 -0.0865424 0.0987119
0.120253 -0.0835894 0.412109
-0.0503121 0.0477485 0.158166
-0.143319 -0.0984083 0.347789
0.122925 -0.0907587 0.359991
0.0377299 -0.0799068 0.458923
0.224921 -0.0870798 0.272836
-0.112242 -0.0664017 0.235347
-0.31599 -0.068846 0.255207
0.33033 -0.0782338 0.269714
-0.141881 -0.0768386 0.312336
-0.0473378 -0.0456012 0.472761
-0.0114341 -0.0486297 0.871087
-0.04974 -0.0830155 0.291557
-0.0343553 -0.0881827 0.434049
0.114666 -0.0994967 0.32178
-0.112864 -0.0666254 0.109636
0.0295384 -0.0827866 0.11859
-0.105551 -0.096824 0.148008
0.12785 -0.0615354 0.0473836
-0.137915 -0.0766001 0.417516
-0.0484535 -0.071205 0.353405
0.154245 -0.0978734 0.0287519
-0.2659 -0.0725373 0.270662
0.0984233 0.0490185 0.111495
0.0392871 -0.0260165 0.548246
-0.111675 -0.0809245 0.423192
-0.0511577 -0.0931462 0.364292
0.145352 -0.0667521 0.0824024
-0.0474437 0.0441815 0.124004
0.0392639 0.0442599 0.187789
-0.1446 -0.0638766 0.374108
0.135375 -0.102585 0.340503
0.140873 0.0618416 0.121183
0.156226 -0.0886992 0.081353
0.115518 0.0617739 0.163277
0.124454 -0.0599153 0.420937
-0.0265784 0.0596042 0.187578
0.0302106 0.0440687 0.190163
0.115297 -0.11133 0.0233066
-0.143968 -0.0928533 0.281822
0.11279 0.0609496 0.133594
-0.0798627 -0.0918846 0.304836
0.0632631 -0.0925435 0.333151
-0.0319658 -0.0124912 0.300541
-0.0410674 -0.0780109 0.472755
0.0447953 -0.0584302 0.529625
0.0359812 -0.0195798 0.370294
-5.91315e-05 -0.100684 0.1837
-0.221694 -0.081914 0.321913
-0.0382492 -0.101419 0.397622
0.014018 -0.00407637 0.581268
-0.326721 -0.0833647 0.234845
0.0306978 -0.10609 0.281387
0.0434617 -0.0630678 0.577313
-0.139072 -0.063217 0.0524987
-0.159765 -0.0804906 0.34199
-0.00696539 -0.103559 0.457347
0.107772 -0.0706772 0.0605224
-0.110045 -0.083925 0
-0.0298067 -0.0924733 0.449623
0.211201 -0.0875708 0.283732
-0.0306977 -0.0112585 0.34183
0.0571998 -0.0808559 0.318918
-0.0288699 -0.013052 0.199186
0.145202 -0.0648859 0.375621
-0.135343 -0.063896 0.0268083
0.0177552 -0.0991549 0.453617
-0.115906 -0.0908446 0.345722
0.10982 -0.0950121 0.312009
-0.0475246 -0.0474833 0.29073
0.102173 -0.0930421 0.0807514
0.10365 -0.100795 0.0335319
-0.134143 -0.0621538 0.424667
0.00475924 0.000667393 0.452797
0.0839862 0.0610073 0.159604
-0.103692 -0.0796291 0.099724
0.039799 -0.0295001 0.579557
-0.0564069 -0.0766749 0.286273
0.105612 -0.0911524 0.325877
-0.0758198 -0.0810638 0.309558
-0.293324 -0.0723216 0.267143
-0.273689 -0.0851554 0.283401
0.106489 -0.0739884 0.285043
-0.0129857 -0.0714602 0.0471188
0.14475 0.0624607 0.160907
0.0441419 -0.0625954 0.407408
0.043235 -0.0345143 0.557041
-0.108295 -0.0903086 0.328048
-0.041013 -0.0420852 0.108851
-0.00673971 0.000667393 0.414193
-0.125316 -0.0607775 0.11524
-0.116667 -0.0625204 0.263677
-0.113617 -0.0646913 0.329058
-0.0657751 -0.0758081 0.285531
0.107207 -0.0895544 0.326905
0.0126879 -0.101228 0.421139
-0.0454318 -0.0459448 0.212012
-0.0226806 -0.0981068 0.475028
-0.144788 -0.087331 0.280074
-0.0851959 0.0451997 0.15547
0.0372175 -0.0809046 0.456093
-0.0119728 -0.0916005 0.650047
-0.102234 -0.0948456 0.0419876
-0.0523974 -0.0830419 0.297009
0.0330787 -0.0157342 0.451503
-0.0415864 -0.0826609 0.298103
0.128367 -0.0870523 0.418731
0.109375 -0.0777266 0.00993491
0.0242961 -0.0647991 0.759804
-0.0468206 -0.0423042 0.446238
-0.286626 -0.0717161 0.26241
-0.0259229 0.0436836 0.123141
-0.0306684 -0.0684238 0.693176
-0.136693 -0.111828 0.136385
0.00173526 0.0242953 0.236003
0.0204899 0.0443207 0.21723
-0.0719962 -0.0803748 0.285038
-0.0304549 -0.108228 0.327326
-0.02549 -0.00634626 0.362409
0.0963426 -0.078246 0.316196
-0.111931 0.0542809 0.148655
-0.0308917 -0.0375455 0.654141
-0.242463 -0.0744741 0.287634
0.214993 -0.0824073 0.269953
-0.131988 -0.0599884 0.185882
0.0515499 0.0597731 0.127893
-0.0677556 0.0602865 0.138697
-0.0462944 -0.0389493 0.351617
0.0440412 -0.0811104 0.320397
0.119373 -0.0710682 0.434572
0.00931018 -0.0506919 0.885207
0.0195246 -0.0482881 0.789633
0.0230671 -0.0427721 0.730143
0.0441477 -0.062559 0.534054
0.115689 -0.0685459 0.426121
-0.0412154 -0.098248 0.255757
-0.0277071 -0.0433372 0.0497865
0.00463399 0.109698 0.120776
-0.232513 -0.0803916 0.315088
0.0224379 -0.00579359 0.525357
0.195691 -0.0880906 0.288582
-0.282716 -0.0737576 0.265946
-9.42678e-05 -0.0420676 0.842929
-0.111934 -0.0677684 0.0485866
0.10507 -0.0750111 0.0446493
0.137172 -0.0707168 0.291268
0.0415712 -0.0570416 0.595498
-0.0543373 0.0444303 0.11736
0.105452 -0.0855304 0.286335
0.108297 -0.096893 0.00368523
-0.00872508 0.0199306 0.187738
-0.0254509 0.0595143 0.150019
-0.0394258 0.04407 0.139007
0.0848064 0.0608472 0.179603
-0.144126 -0.0715164 0.278417
0.106754 -0.0819558 0.348246
0.045441 -0.0543138 0.310531
0.124055 -0.115922 0.0675336
0.129431 -0.0592751 0.249749
0.250845 -0.0768186 0.274739
0.117481 0.0458915 0.158824
0.166565 -0.0765488 0.290358
0.208289 -0.0700273 0.274689
0.110796 -0.0919468 0.38802
0.000919913 0.000667393 0.30931
-0.0570965 -0.0927651 0.326491
-0.13572 -0.110764 0.166856
-0.0115789 -0.0834284 0.774184
-0.209416 -0.087494 0.31326
0.121668 -0.0999261 0.392896
0.00841213 -0.115488 0.253319
-0.0664083 -0.0822375 0.296828
0.0662767 0.0605856 0.162808
0.0103971 -0.0960554 0.121375
-0.144788 -0.0911476 0.316519
0.325631 -0.0684148 0.24965
0.0444365 -0.0421739 0.31308
0.233819 -0.0913815 0.276484
-0.00581494 -0.0220418 0.686886
-0.0246644 -0.0894233 0.114668
-0.0434548 -0.0300416 0.2762
-0.111375 0.0460021 0.170616
0.0669143 -0.0925912 0.368059
0.126232 -0.0606108 0.13016
0.176369 -0.0886815 0.282621
0.00643443 -0.0804987 0.834773
0.124039 -0.101946 0.368051
0.284136 -0.0822753 0.250591
-0.166404 -0.0801321 0.338667
-0.0631232 -0.06881 0.318811
0.0183916 -0.0604107 0.0412097
0.27666 -0.0831591 0.251466
0.000183059 0.0712797 0.182924
-0.301499 -0.075716 0.278969
-0.164753 -0.0891431 0.339113
0.00593215 0.025738 0.131941
-0.14771 -0.0678485 0.144694
-0.118756 0.057022 0.146084
0.0337033 -0.0163235 0.314015
-0.145309 -0.104902 0.186715
0.175023 -0.0887431 0.286541
0.141972 -0.108828 0.154361
0.151995 -0.0750581 0.221519
0.242364 -0.079913 0.302408
0.0211941 -0.088562 0.610488
0.148591 -0.0918266 0.341765
-0.131003 -0.0578426 0.378005
-0.134611 -0.0891247 0.404122
-0.0193059 0.0474739 0.111807
0.0393823 -0.0323477 0.18994
-0.259029 -0.0856136 0.274232
0.136715 -0.102109 0
0.142365 0.0617693 0.126711
-0.00619543 -0.0116938 0.0697809
0.0671191 0.0552621 0.14434
0.127706 -0.0589908 0.275204
0.0443475 -0.0416064 0.49021
-0.227021 -0.086852 0.304775
-0.140441 -0.0603685 0.384863
-0.113381 -0.0647888 0.346034
0.0787433 0.0450798 0.17167
0.0830511 0.0451925 0.113951
0.0211852 -0.00513995 0.352553
-0.0114438 -0.0684823 0.0397686
0.00986696 -0.115488 0.282668
0.111997 0.0457978 0.169531
-0.0431032 -0.0398447 0.174903
0.0427976 -0.0687545 0.25891
0.0146335 -0.0338797 0.0199064
-0.0859309 0.061062 0.172447
-0.0114713 -0.0883659 0.70129
-0.0558142 -0.0773115 0.328915
-0.136189 -0.0608551 0.182848
0.0149173 -0.0439675 0.802742
0.0447458 -0.0467621 0.255126
0.101881 -0.085404 0.0850953
0.0796698 -0.0800296 0.337887
0.0765381 0.0451077 0.143637
0.100906 -0.0881541 0.0456019
-0.113179 -0.0652096 0.303628
0.141864 -0.107182 0.188623
0.00578065 0.0412432 0.126477
0.180725 -0.0865803 0.342252
0.0404651 -0.0283102 0.389909
0.110785 -0.0980857 0.285376
-0.0820378 0.0452971 0.170345
0.117694 0.0458935 0.157748
-0.00723099 0.0751299 0.125731
-0.198361 -0.0879534 0.330535
0.0675573 0.0606284 0.16986
-0.0454396 -0.0944569 0.276386
0.275553 -0.0727481 0.26195
0.151277 -0.0738138 0.221401
0.0262364 -0.030832 0.0654541
0.0387882 -0.0655103 0.132572
-0.133823 -0.107903 0.243152
0.0205724 -0.0953982 0.192997
0.0274706 -0.0924472 0.5045
-0.028513 -0.00931697 0.293789
0.0386931 -0.06723 0.135148
-0.0195327 -0.0993948 0.427154
-0.144788 -0.0907899 0.29626
-0.0278037 0.044083 0.212018
0.0520045 -0.0741561 0.269023
-0.0227388 -0.111362 0.35327
-0.0467262 -0.0930761 0.269239
0.133527 0.0462304 0.14636
-0.211582 -0.0873021 0.288246
0.302089 -0.0746295 0.238943
-0.0286844 -0.0935319 0.512847
-0.0463172 -0.0390948 0.421064
0.0249288 -0.0666919 0.746703
-0.301382 -0.0845165 0.255129
-0.156406 -0.087181 0.108035
0.200973 -0.078579 0.300033
-0.0594176 0.0523083 0.149593
0.168662 -0.0890576 0.310001
0.0422869 -0.0633927 0.218233
-0.0466624 -0.0603755 0.573811
-0.0475022 -0.0510149 0.577228
0.236663 -0.0713758 0.277012
-0.031813 -0.025713 0.0856602
0.180939 -0.0745699 0.267799
-0.292885 -0.084461 0.267812
-0.141961 0.0625046 0.1602
0.263091 -0.0768406 0.247754
0.11159 -0.102692 0.00376285
0.0524469 0.0463994 0.160042
0.0280057 0.0439956 0.179621
0.110144 -0.068313 0.123474
-0.110639 -0.0685097 0.394414
0.034733 -0.0854955 0.428832
0.22919 -0.0822753 0.250861
0.106338 -0.0735907 0.174604
-0.273662 -0.0823595 0.261867
-0.113868 -0.0936442 0.41394
0.127166 -0.10925 0.214365
0.0417457 -0.0720878 0.502037
-0.194475 -0.0779508 0.319054
0.155123 -0.0825516 0.0963979
-0.15043 -0.0865531 0.384372
-0.19327 -0.0738395 0.284741
0.202513 -0.0849761 0.264055
0.0380815 -0.0236692 0.305575
-0.0200518 -0.0854167 0.674126
0.0174843 -0.00362566 0.440781
-0.00714918 0.000667393 0.377563
0.282754 -0.0822753 0.238552
0.0188282 -0.0940996 0.151891
0.039841 -0.0296219 0.23416
0.279975 -0.0918565 0.237166
0.123416 -0.109884 0.19263
0.00285147 -0.103559 0.475458
-0.0154732 -0.0906076 0.0881906
-0.0548255 0.0602386 0.167597
-0.112069 -0.0999229 0.260264
0.14183 -0.0624926 0.302032
0.241725 -0.0865745 0.27983
0.103247 -0.0848544 0.187347
0.0159584 -0.0409522 0.776405
0.112196 -0.066284 0.175242
-0.227328 -0.0771365 0.310634
-0.145505 -0.0976423 0.326704
0.0270062 -0.108288 0.24679
0.0440349 -0.0736314 0.288464
-0.0369295 -0.0718088 0.331915
0.00510851 0.0819652 0.144439
-0.0126714 -0.0757227 0.0555387
0.144519 -0.0643913 0.362408
-0.0106816 0.0434785 0.153093
-0.115901 -0.110155 0.121798
-0.0321155 -0.012596 0.456442
-0.0456574 -0.0680036 0.433151
0.00785765 -0.0805188 0.825799
-0.0932668 -0.0805472 0.311519
-0.00874055 0.0116979 0.182508
0.148713 -0.0702921 0.375415
0.125504 -0.0815739 0.416461
-0.128068 -0.0903302 0.324818
-0.297828 -0.0843252 0.28239
0.113116 -0.111129 0.0665907
0.0724253 0.0607562 0.176082
-0.0119344 -0.0451356 0.840586
-0.279375 -0.0892082 0.281939
0.069599 -0.0788179 0.322932
0.012837 -0.0528044 0.881617
-0.250452 -0.0739727 0.28305
0.032896 -0.0155619 0.491184
-0.116374 -0.114235 0.0392931
0.0196295 0.0590753 0.117084
0.0191678 -0.111869 0.326909
-0.340534 -0.0697802 0.239666
-0.0466138 -0.0609173 0.285211
-0.00884298 0.0217739 0.206275
-0.152837 -0.10447 0.0391622
0.00517483 0.0690826 0.137111
-0.127519 -0.0577149 0.38944
-0.0269236 -0.107926 0.236068
0.0283341 -0.0916326 0.439976
-0.00417742 -0.0133719 0.6185
-0.139947 0.0622305 0.145499
-0.153539 -0.0873564 0.239209
-0.00141004 0.0213907 0.238135
0.118506 -0.0880128 0
0.0436972 -0.0374605 0.453978
0.152726 -0.0953809 0.170538
0.146504 -0.0753236 0.422953
0.0393377 -0.0350057 0.159322
0.0296443 -0.044287 0.67762
-0.0324417 -0.0129036 0.365796
-0.0623512 -0.0808932 0.315472
-0.0407072 -0.0246307 0.279451
0.0517293 -0.0684955 0.325002
0.0745723 0.0601833 0.127066
0.14739 -0.0686511 0.0506066
-0.0505438 -0.073148 0.363423
0.104705 -0.0970545 0.137824
-0.133142 -0.109781 0.202668
0.147921 -0.0785126 0.00643682
0.0449228 -0.0516897 0.241188
-0.147908 -0.0895998 0.313788
0.149395 -0.0722735 0.280244
0.17368 -0.0775039 0.296833
