0.0447914 0.0170931 0.754626
-0.354146 -0.0407081 0.4602
-0.0176291 0.0102961 0.0199794
0.112403 -0.0422184 0.162235
0.212189 -0.0435712 0.502045
-0.443714 -0.0475096 0.439371
-0.0139753 -0.0823521 0.817507
-0.0669254 -0.0517499 0.328555
0.0578762 -0.0447627 0.391805
0.0532358 -0.0370262 0.568861
-0.0233498 -0.078516 0.863
-0.0264912 -0.0753665 0.248181
0.0222498 -0.0763724 0.257351
0.00734885 0.0429667 0.153662
0.0450586 0.0165728 0.845833
0.270893 -0.063522 0.496033
-0.0753232 -0.0406182 0.134354
-0.130764 -0.0549916 0.500174
0.0256829 0.0365843 0.805909
0.343337 -0.0611737 0.490142
-0.0394111 -0.0872234 0.405478
-0.0346139 -0.0897761 0.367644
-0.440217 -0.0434689 0.423556
-0.0981781 -0.0693491 0.55711
0.0415843 -0.0622143 0.810357
-0.0855268 -0.0696854 0.536751
0.0819685 -0.0410478 0.155656
0.0499314 -0.0749361 0.499458
0.439606 -0.0486882 0.41674
-0.155714 -0.0429318 0.498423
-0.127987 -0.121972 0.61202
-0.0533634 0.00601159 0.733674
-0.0355037 0.0306564 0.450869
0.376018 -0.0522938 0.449347
0.0401435 0.0237751 0.550423
0.0240941 -0.0928531 0.365627
-0.0205717 0.0325489 0.141535
0.139077 -0.112261 0.585589
0.309633 -0.0861311 0.524487
0.00463719 -0.0120461 0
0.0566635 -0.0663185 0.44298
0.00320069 -0.0776455 0.916003
0.174488 -0.0535858 0.528858
0.291381 -0.0754966 0.527663
-0.0813659 -0.0583668 0.188467
-0.0128896 -0.0810725 0.897108
-0.0132481 -0.0982006 0.443766
-0.060478 -0.0456668 0.594922
-0.0522118 -0.0402456 0.182791
-0.157562 -0.0522371 0.495028
0.0531969 -0.00252426 0.539212
0.0539524 -0.00734085 0.794753
0.0528787 -0.0375009 0.392702
-0.0429433 0.0238513 0.666501
0.153113 -0.0437858 0.171164
-0.401187 -0.044211 0.457067
-0.0954495 -0.0696143 0.593465
0.145687 -0.0646783 0.61657
-0.0604933 -0.0641335 0.371222
0.218487 -0.0652222 0.500596
0.0437354 0.0191493 0.523313
0.0537572 -0.0399871 0.151408
0.00455467 -0.0834035 0.743242
0.0548578 -0.0257869 0.453185
0.0520686 -0.07259 0.369428
0.177293 -0.0954936 0.630374
0.0621007 -0.050976 0.548246
0.0204398 -0.0785281 0.673636
-0.280387 -0.0932873 0.577462
0.0705741 -0.0583873 0.509402
-0.00548471 -0.0453921 0.989666
0.282658 -0.0703593 0.478216
-0.00746856 -0.0311526 0.00996044
0.17792 -0.057646 0.481798
0.00601821 0.105276 0.261568
0.0224368 -0.0603403 0.085838
0.385079 -0.0560206 0.445499
-0.0493897 0.0126421 0.300181
-0.0225382 0.0390489 0.538779
0.301494 -0.128403 0.578603
-0.0722039 -0.0702887 0.568012
-0.0102523 -0.0983654 0.596787
0.208846 -0.0657404 0.544794
0.181321 -0.0416482 0.502543
0.0774116 -0.0549621 0.560954
-0.281425 -0.0629276 0.524083
-0.128376 -0.0903119 0.589031
-0.120089 -0.0484506 0.506312
0.21539 -0.0654703 0.532035
-0.0468335 -0.054319 0.249956
0.341177 -0.0629142 0.446055
-0.0161795 -0.0814501 0.844937
-0.339669 -0.0533243 0.457687
0.145156 -0.0776316 0.623712
-0.158611 -0.0425358 0.519097
0.218686 -0.0606344 0.472041
0.0117649 -0.00658477 0.96474
0.0341042 0.0291789 0.427087
0.00611959 0.0436051 0.541472
-0.0466225 -0.055182 0.208086
0.0869534 -0.0550957 0.490226
-0.0470059 0.0183901 0.697856
-0.0855292 -0.0430598 0.203637
-0.0171733 -0.0794431 0.895793
0.187427 -0.0544589 0.533412
-0.297164 -0.0623682 0.519586
0.0688505 -0.0495644 0.541719
0.052721 0.000509584 0.8459
0.0572537 -0.0654597 0.485912
-0.0440499 0.0226619 0.470759
-0.0561552 -0.0361276 0.469785
-0.0219273 0.0388871 0.364393
0.0553424 -0.0682298 0.345073
0.298963 -0.0769338 0.549984
0.0226473 0.0370881 0.29228
-0.17806 -0.0665732 0.547654
0.133493 -0.119516 0.654286
-0.151022 -0.0900162 0.647612
-0.00915391 0.104801 0.268463
-0.205513 -0.0498357 0.513695
-0.143541 -0.0769338 0.626768
0.137775 -0.123742 0.646583
-0.16678 -0.0446656 0.142691
0.0322616 0.0312097 0.530655
0.00693268 0.0436051 0.543421
-0.00106874 -0.0117101 0.980214
-0.0151914 0.0419676 0.481709
-0.0301876 0.00179739 0.0438086
-0.177691 -0.0515898 0.529725
-0.00747847 -0.0978254 0.284356
-0.125862 -0.0939921 0.590739
0.379128 -0.0560387 0.44708
0.0395334 -0.084741 0.605047
-0.0367935 -0.0891262 0.476241
-0.0501813 0.0122073 0.587216
-0.021481 -0.065332 0.0912535
0.273198 -0.103854 0.543112
0.423896 -0.0468563 0.44958
-0.0343913 0.0314697 0.380978
-0.0200376 0.0400718 0.602895
0.182066 -0.0688128 0.464758
0.165871 -0.0989781 0.644412
-0.0259126 -0.0774674 0.663458
-0.0543765 -0.0419118 0.286988
0.167544 -0.0570042 0.558907
-0.337149 -0.0571176 0.50594
-0.0575227 -0.026105 0.382382
-0.319574 -0.0421306 0.458749
-0.146045 -0.0577773 0.167034
0.201018 -0.0657706 0.49823
0.053766 -0.0336464 0.873075
0.346208 -0.0487443 0.466438
-0.0393202 0.0272687 0.570981
0.0170511 -0.0959809 0.471463
-0.0450801 -0.0818197 0.364481
0.0526434 -0.00482941 0.284469
-0.434486 -0.0575482 0.454245
-0.0533465 -0.0470131 0.632366
-0.052977 -0.0747598 0.485812
0.438659 -0.0584432 0.42569
0.301015 -0.0769338 0.568544
0.0556901 -0.0572028 0.146778
0.0553479 -0.0235627 0.626518
0.0778399 -0.0413677 0.191237
-0.174259 -0.0573395 0.141912
-0.267841 -0.106855 0.534852
-0.0566643 -0.0426344 0.500325
-0.0292322 0.0329949 0.894015
0.0609643 -0.0463492 0.300219
-0.0151269 0.0420805 0.703212
0.153786 -0.055563 0.534178
-0.287737 -0.0458517 0.476354
-0.0426831 -0.0603532 0.233227
-0.0111448 -0.0833207 0.703653
0.313308 -0.0853651 0.53944
0.0283447 0.0349044 0.860565
0.0766803 -0.0556278 0.566673
-0.0496331 0.0132748 0.647749
-0.262632 -0.0635645 0.522879
-0.0629086 -0.0458628 0.332702
0.0529185 -0.0720306 0.462206
-0.29157 -0.0602272 0.555566
-0.319783 -0.046636 0.474126
-0.0548873 0.00263162 0.438426
0.312725 -0.0619831 0.512834
0.164643 -0.0567302 0.557232
-0.209095 -0.0418644 0.504241
-0.0114352 -0.083264 0.846195
-0.12025 -0.0554186 0.520186
0.137715 -0.0593388 0.58475
0.170448 -0.0458061 0.485297
0.081267 -0.0440205 0.203386
0.0429845 -0.0813031 0.451549
-0.0295559 0.00318461 0.940741
-0.255036 -0.0636602 0.488186
0.304552 -0.053801 0.503069
-0.0617377 -0.045251 0.392773
0.052327 0.00222427 0.687498
-0.0237028 0.0385544 0.506915
-0.00991759 0.043219 0.36444
0.422905 -0.0436249 0.443178
0.037816 -0.0605576 0.908294
0.0685865 -0.0701724 0.532004
0.0366531 0.0221488 0.217137
0.0162662 -0.080236 0.797012
0.402952 -0.0443361 0.433402
0.0194926 -0.0946543 0.338045
-0.434521 -0.0579806 0.438566
0.0564796 -0.0480797 0.555293
-0.184417 -0.0638361 0.488267
0.213098 -0.0655569 0.560983
-0.300126 -0.113562 0.579997
-0.0443138 0.0101228 0.144193
-0.151052 -0.0650605 0.60696
0.0556208 -0.0685062 0.475498
-0.0490193 0.0144699 0.678462
-0.0249315 0.0356503 0.253706
0.0442116 0.018222 0.60413
0.00757947 0.0420461 0.179241
-0.0539063 -0.0314883 0.903589
0.0495152 0.00752521 0.442318
-0.296647 -0.0612584 0.461054
0.320299 -0.10109 0.533768
-0.145176 -0.049699 0.515516
0.00599641 0.107183 0.267318
-0.0507137 -0.02604 0.116452
0.0762511 -0.0703854 0.628816
0.0977566 -0.0553159 0.489369
0.0432538 0.0200868 0.769724
0.207351 -0.0643015 0.482999
0.283918 -0.0531679 0.481304
0.411746 -0.0597741 0.428482
0.00872452 0.0419187 0.268352
0.00900675 -0.0980459 0.378042
0.0589279 -0.0704506 0.525418
0.0541424 -0.031247 0.803194
-0.275443 -0.107558 0.589032
0.0345307 -0.0675793 0.888828
0.0370704 0.0186279 0.15861
0.239467 -0.0564143 0.53872
-0.0523904 -0.0362419 0.2051
0.175687 -0.0517666 0.142606
0.160804 -0.116819 0.658935
-0.0633781 -0.059395 0.502779
0.00246152 -0.0682503 0.0870485
0.0337973 0.0212334 0.149591
0.203056 -0.0658382 0.526303
0.0757479 -0.0702602 0.598968
-0.0349887 -0.0485074 0.0815692
0.0389599 -0.0580167 0.171245
0.0470417 -0.0450395 0.906029
0.112179 -0.0687741 0.531578
-0.130128 -0.043238 0.154458
-0.131026 -0.0942701 0.661814
0.307294 -0.0529441 0.495325
0.193805 -0.0560744 0.545564
-0.0564048 -0.0330212 0.368293
-0.0554572 -0.0454806 0.630667
-0.059062 -0.0438988 0.325741
0.0415068 0.0224891 0.871038
-0.332663 -0.0656785 0.423643
0.0500207 -0.00743356 0.20247
-0.0215564 -0.0552125 0.0709969
-0.0557989 -0.0722746 0.607806
-0.238196 -0.0463353 0.465277
-0.00114412 -0.0983654 0.641695
0.00997164 -0.0424548 0.985749
0.447553 -0.0435596 0.438914
-0.0506488 -0.0108408 0.127082
0.140461 -0.0872691 0.665427
-0.272574 -0.050579 0.516615
0.020059 -0.0714819 0.139165
-0.0305848 0.035499 0.734133
0.28493 -0.0660218 0.483204
-0.227617 -0.040588 0.496625
0.0267191 -0.0407431 0.0591486
-0.441735 -0.0407025 0.435841
0.0523141 -0.0567458 0.131106
-0.0503569 -0.0771676 0.462951
0.292007 -0.128382 0.571499
0.1843 -0.0700872 0.46918
-0.0312081 -0.0695733 0.20148
0.0578784 -0.0708113 0.594487
-0.0142612 0.0307348 0.090255
-0.0576271 -0.0124051 0.719693
0.127038 -0.0584443 0.579537
-0.0939593 -0.0697646 0.614473
0.0903292 -0.069785 0.597256
-0.0101911 0.0436051 0.585271
-0.0263806 -0.0772758 0.843913
-0.034772 -0.0900337 0.519433
-0.0252413 0.0377209 0.433116
-0.348601 -0.0607014 0.46155
0.177633 -0.0668309 0.563959
0.153751 -0.055563 0.548023
-0.00581259 -0.0834035 0.857219
0.103923 -0.0431255 0.507521
0.268664 -0.0606003 0.459518
0.180537 -0.0461183 0.481439
0.0736675 -0.0572089 0.145302
-0.401878 -0.0558342 0.475255
-0.0420961 0.0201313 0.224622
0.304186 -0.0596555 0.543851
0.0645064 -0.0517562 0.504283
-0.0482314 -0.0525989 0.262695
0.298174 -0.0623199 0.563359
-0.048057 -0.0561417 0.68032
0.05538 -0.0187577 0.358394
0.0009178 -0.0834035 0.755664
0.0263659 0.0293021 0.169409
0.0592704 -0.0698592 0.512641
-0.0477748 -0.000440573 0.914315
-0.0500335 0.0124951 0.855089
0.0436319 0.0193507 0.671015
-0.0708279 -0.0701051 0.519228
0.0397351 0.0241603 0.602659
-0.289095 -0.0478822 0.49326
0.0224271 0.0316649 0.165721
0.016127 -0.0802929 0.748933
0.233118 -0.0423605 0.495766
0.0548474 -0.0267534 0.712101
-0.0616085 -0.0616902 0.315109
0.0529734 -0.0108263 0.267954
0.332859 -0.0614188 0.499648
-0.146418 -0.0548985 0.519802
-0.0604355 -0.0642954 0.37991
-0.0162153 -0.0814355 0.767596
0.181128 -0.0664884 0.515279
-0.122118 -0.111694 0.657532
-0.0508157 -0.0507705 0.803448
0.384375 -0.0557613 0.482372
-0.000627598 -0.0801435 0.215363
-0.283741 -0.0622157 0.518946
0.00883754 0.0241695 0.0587016
0.117694 -0.06874 0.561676
-0.0559095 -0.00145369 0.546744
0.248972 -0.0507845 0.489642
-0.177641 -0.0418786 0.500527
0.193539 -0.0565165 0.486139
-0.138148 -0.0744704 0.627151
0.0349305 0.0146685 0.0931108
-0.174527 -0.0575499 0.153911
0.256908 -0.0492279 0.489504
-0.0493267 -0.0536697 0.827416
-0.164306 -0.0467471 0.517728
0.272333 -0.0635278 0.506983
-0.0655298 -0.0627244 0.631168
-0.0543556 0.00389996 0.479088
-0.0265908 -0.0751812 0.245229
-0.0229614 -0.074008 0.190955
-0.132315 -0.0580421 0.176458
0.138635 -0.0681726 0.58349
-0.124344 -0.0931865 0.662167
-0.00573813 -0.0834035 0.727002
0.180861 -0.0431854 0.495169
0.277147 -0.0660586 0.457523
-0.19153 -0.0498594 0.51458
0.00639251 -0.0834035 0.867765
-0.31264 -0.109424 0.536774
0.036913 0.0268223 0.668248
-0.00703761 -0.0889181 0.273958
-0.134874 -0.0553677 0.182286
0.455531 -0.0442778 0.433461
-0.273077 -0.121143 0.584981
-0.14193 -0.0489904 0.509752
0.0262748 0.006053 0.938473
-0.296787 -0.0774534 0.558924
0.34202 -0.0529692 0.465216
0.052645 -0.00118696 0.367294
0.143706 -0.067669 0.511471
-0.058355 -0.0184487 0.419435
0.0690284 -0.0680139 0.631986
-0.115551 -0.0578985 0.186272
0.172276 -0.0886486 0.609726
-0.13212 -0.126284 0.631238
0.0514437 -0.0305837 0.2334
0.0645111 -0.0481576 0.350111
-0.0205439 0.0395656 0.405111
0.0230843 -0.0742685 0.221358
-0.00557968 -0.0856815 0.273968
-0.199839 -0.0565864 0.491833
-0.0872599 -0.0696821 0.548575
-0.0658924 -0.0582264 0.183774
0.0276305 -0.0844254 0.273949
-0.0580739 -0.0245469 0.587569
-0.0888946 -0.0583351 0.496443
-0.0585288 -0.0182454 0.878266
-0.175967 -0.0450157 0.139138
0.0525302 -0.0577944 0.635969
0.0173853 0.0394058 0.306063
-0.187668 -0.0507365 0.522102
-0.162237 -0.0667342 0.492801
-0.172459 -0.066577 0.507958
-0.0518925 -0.016555 0.912026
-0.0582353 -0.0397924 0.12739
0.0504106 -0.0459507 0.802179
0.0155152 0.0407434 0.60706
0.0869431 -0.0508967 0.524948
-0.174606 -0.0703593 0.517101
-0.284501 -0.117484 0.589249
0.180197 -0.0574686 0.498825
0.148359 -0.0769338 0.599254
0.0477356 -0.051159 0.825393
-0.00175076 0.105441 0.289139
-0.161239 -0.0576973 0.493959
0.0529288 -0.0389832 0.704412
0.421422 -0.0412688 0.437324
-0.115083 -0.0591987 0.502895
-0.0255588 0.0369295 0.288975
0.0242833 0.0369886 0.452781
-0.0395267 -0.0648689 0.894415
0.0157964 0.0406284 0.533895
-0.0101647 -0.0775293 0.160067
0.0535696 -0.00779316 0.319648
0.313462 -0.124048 0.551566
0.00533452 0.0436051 0.77454
-0.0288027 -0.0225151 0.964821
0.0546548 -0.0253562 0.33762
0.101606 -0.058231 0.180571
0.0309321 -0.0661343 0.185444
-0.38737 -0.0566255 0.42955
-0.234264 -0.0703593 0.488964
0.304186 -0.0709484 0.519964
0.0332292 0.0213354 0.908632
0.0539826 -0.00753327 0.536279
-0.139871 -0.0771913 0.629399
-0.169952 -0.0434056 0.490717
-0.283741 -0.0704639 0.477758
-0.000507677 -0.0834035 0.840723
0.220103 -0.0496374 0.481414
0.0282527 0.0349912 0.576923
-0.0492935 -0.0666213 0.641626
0.178812 -0.0574686 0.499546
0.0178156 -0.0303761 0.978847
0.394321 -0.0432742 0.438331
-0.30273 -0.0427182 0.459667
0.0184438 0.00179136 0.0131408
0.299608 -0.116076 0.520478
-0.0580133 -0.0249327 0.853572
0.0102751 0.0428868 0.871181
0.0271084 0.033846 0.267582
0.00161841 -0.0308161 0.00729025
0.149724 -0.127943 0.65103
0.0370964 -0.0664476 0.780142
-0.446725 -0.0584489 0.41933
-0.119996 -0.0574232 0.488805
0.127345 -0.0417492 0.512596
0.0554105 -0.0166367 0.780344
0.173936 -0.0885557 0.628758
0.45797 -0.0542774 0.42745
-0.283133 -0.0813488 0.536173
-0.38623 -0.0520617 0.448096
-0.014118 0.0327352 0.0983102
-0.0579926 -0.0433245 0.449609
0.0482116 0.0104339 0.526744
-0.00443438 -0.0978456 0.292904
0.00309635 0.0436051 0.861676
0.141227 -0.0487985 0.497864
-0.0437104 0.0226184 0.363075
-0.0204783 -0.0707903 0.104462
-0.0580417 -0.0247522 0.619504
0.018595 0.0394836 0.862341
0.371854 -0.041294 0.45084
0.2843 -0.0930092 0.600907
-0.0551163 -0.00857553 0.257555
0.0522228 0.00254435 0.587888
0.146281 -0.0583597 0.574748
0.134073 -0.0512874 0.518216
-0.129391 -0.0428755 0.128748
0.170685 -0.0871527 0.655976
0.292878 -0.102641 0.587054
0.0587015 -0.0616646 0.305643
0.183949 -0.059739 0.483761
-0.0514657 -0.0036546 0.179672
0.0545434 -0.0450164 0.547496
-0.0491493 -0.00510741 0.110845
-0.0194027 0.0312882 0.911657
-0.0433139 -0.0838652 0.491117
0.00240439 -0.0760974 0.127416
-0.0967097 -0.0635825 0.617526
0.275965 -0.0908471 0.580046
0.148052 -0.0590365 0.58003
-0.0451709 -0.0577662 0.167987
-0.232792 -0.0645003 0.505021
-0.0229838 -0.0753089 0.217697
0.346176 -0.0588383 0.475892
-0.0423708 0.0211657 0.248841
0.0419281 -0.06189 0.78855
0.0166328 -0.0962628 0.521881
-0.00609076 -0.0982013 0.444039
-0.0608513 -0.0631418 0.319258
-0.0175473 0.0341555 0.150005
0.0325408 0.0309464 0.857193
0.0529224 -0.000774337 0.572204
-0.00865671 -0.0834035 0.713428
-0.0106954 0.0489213 0.236611
-0.0244864 -0.0774453 0.885187
-0.0252267 0.0342751 0.2249
0.10174 -0.0579631 0.505475
0.253209 -0.0414262 0.483467
0.0372591 -0.0866305 0.434674
-0.0536467 -0.0269906 0.199829
0.037489 -0.0109255 0.938088
0.134104 -0.0595795 0.587528
0.00874134 -0.0470332 0.983007
-0.0233754 -0.0785056 0.742127
0.0552722 -0.024045 0.810564
-0.122305 -0.0515676 0.532259
0.121991 -0.0419545 0.512349
0.177171 -0.0681813 0.499956
-0.116301 -0.0582815 0.185025
-0.038219 -0.0885162 0.549284
-0.139019 -0.128682 0.632921
0.0134075 -0.0789766 0.903361
-0.139192 -0.0764432 0.62175
-0.0534943 -0.0740855 0.411316
0.00638757 0.0827448 0.208623
-0.143141 -0.106778 0.655059
-0.369716 -0.0559024 0.490361
0.0519789 0.00309896 0.538341
-0.0500588 -0.00244199 0.14676
-0.216962 -0.0451835 0.471508
-0.0631248 -0.0544617 0.20375
-0.0458383 -0.0815021 0.561708
0.0993212 -0.0561478 0.191265
0.0420804 0.0219197 0.69305
-0.0661828 -0.0535748 0.409122
0.150595 -0.0577651 0.162075
0.0424591 -0.000947364 0.0918648
-0.00544329 0.0796299 0.202951
-0.0512574 -0.00975119 0.148169
0.0476154 -0.077207 0.548895
0.0280374 -0.072018 0.23742
0.0113219 -0.0980099 0.410642
-0.0479369 -0.0563757 0.72366
-0.0621358 -0.0403529 0.157896
-0.141701 -0.0679269 0.571036
0.0111774 0.0156238 0.0272229
-0.0570102 -0.0084713 0.580084
0.0548198 -0.0269293 0.529478
0.303222 -0.076363 0.503276
-0.053779 0.00520254 0.780944
-0.0186526 -0.0804381 0.686111
0.0541294 -0.0308607 0.481986
-0.383656 -0.0428114 0.440005
0.0277492 -0.0249733 0.962656
0.0693154 -0.0490311 0.108872
-0.00275613 0.0436051 0.592012
-0.295044 -0.0769338 0.488915
-0.0155638 -0.0247492 0.00779766
0.0906563 -0.0603511 0.494454
0.00312941 0.0951532 0.227501
-0.402219 -0.0526464 0.42591
-0.146816 -0.0605259 0.621789
0.00501291 -0.0834035 0.842521
-0.0579621 -0.0252593 0.780931
-0.296228 -0.118208 0.595356
-0.0348372 0.0231586 0.153135
0.0529197 -0.0236562 0.243934
-0.264924 -0.0946099 0.558479
-0.138213 -0.0522865 0.537488
-0.0393182 -0.067069 0.808694
0.310551 -0.0935552 0.593103
0.0564055 -0.0440003 0.423249
-0.0808783 -0.0566197 0.127499
-0.013449 -0.09806 0.384031
0.291283 -0.0656916 0.488121
0.0464296 0.00839741 0.241958
0.1575 -0.0473047 0.13299
-0.0489606 -0.0386293 0.915742
0.0549475 -0.026115 0.74229
-0.00930601 0.0994398 0.265957
0.0859057 -0.0551153 0.508617
0.315436 -0.111965 0.600375
0.248255 -0.0560821 0.534079
0.0282704 -0.0701449 0.210185
0.289156 -0.090874 0.520478
0.0435176 0.0192308 0.447599
0.0633853 -0.0429655 0.209134
0.169792 -0.0671454 0.577337
0.00801062 -0.0833702 0.84486
-0.00800793 0.0753537 0.196188
-0.0208682 0.0195512 0.931936
0.0547023 -0.0578434 0.169283
-0.00317315 -0.0982543 0.466591
-0.0464527 0.0113345 0.209882
-0.257034 -0.041542 0.4809
-0.010124 0.0501761 0.188868
0.0545747 -0.0280396 0.483195
0.145687 -0.0587722 0.531725
0.243726 -0.0646107 0.542173
0.00664411 0.0772225 0.216855
-0.373721 -0.0566499 0.444901
0.0543337 -0.0300278 0.871531
-0.0469262 -0.0563313 0.117886
0.0381355 0.0256692 0.654625
-0.293008 -0.0769338 0.505506
-0.412284 -0.051702 0.467619
0.126142 -0.0564521 0.563074
0.0410415 0.022928 0.708708
-0.0170372 -0.0970766 0.434869
0.0483975 -0.0332788 0.162429
-0.0395372 -0.0874684 0.522152
-0.0811042 -0.0576179 0.502789
-0.180273 -0.0665954 0.568363
-0.0329146 -0.0430845 0.954566
-0.0513097 0.0100102 0.610225
-0.28753 -0.0626352 0.506383
0.256904 -0.0541786 0.516333
-0.0755282 -0.0439662 0.497303
-0.309653 -0.0417892 0.464207
0.307321 -0.0883245 0.60135
0.0478112 0.0112134 0.588275
0.0423044 -0.0564384 0.121291
0.0944003 -0.0578203 0.164744
0.0343767 -0.0887932 0.411272
0.0498775 0.00719045 0.826544
-0.0755477 -0.0523707 0.491419
0.0153681 -0.00759132 0
0.162634 -0.118365 0.585589
-0.0155101 -0.0747845 0.144531
0.0555637 -0.0217812 0.486322
-0.0419292 -0.0646061 0.650403
-0.0532141 -0.0746948 0.631211
0.0181664 -0.0794584 0.681353
0.176235 -0.0940264 0.613478
0.0138099 0.0396218 0.267454
-0.160634 -0.123515 0.615606
-0.179376 -0.0570822 0.493689
-0.20073 -0.0432198 0.483542
0.163739 -0.117262 0.585589
-0.151706 -0.0440236 0.143268
0.0144026 -0.0809986 0.787467
-0.0551982 -0.0412535 0.103068
0.0703531 -0.0558066 0.56951
-0.00870991 0.0436051 0.847162
0.0519452 -0.0397538 0.138549
0.082652 -0.0484292 0.537939
0.031083 0.0319723 0.410349
-0.0384017 0.0161854 0.098645
0.131036 -0.0682756 0.553857
0.311172 -0.0800674 0.560764
-0.170318 -0.0667956 0.538721
-0.13176 -0.109912 0.647382
0.0890522 -0.069931 0.622591
0.030889 -0.0723028 0.804711
0.0556074 -0.017892 0.67636
0.0116197 -0.0177389 0
0.0331673 -0.0701538 0.851075
-0.0507413 -0.0511273 0.63548
0.0184768 0.0194028 0.931883
-0.0397656 0.0268486 0.801928
0.0410062 -0.0833427 0.502003
-0.0331184 0.0331186 0.774459
-0.310414 -0.0996974 0.523289
-0.0235864 -0.0699593 0.113466
-0.142654 -0.104064 0.655772
-0.0554296 0.00154219 0.608866
0.294974 -0.0420152 0.468879
0.35605 -0.060334 0.440204
0.0554836 -0.0226979 0.625674
-0.0153909 0.000147479 0.953829
0.0990447 -0.0577459 0.579636
-0.0445763 0.0223109 0.765852
0.013649 -0.0776896 0.212384
-0.0536886 0.00537852 0.741384
0.0225888 -0.0933212 0.301406
-0.28458 -0.0762373 0.540918
-0.145424 -0.0422304 0.505636
-0.0581416 -0.0223967 0.398269
-0.0308432 -0.075063 0.759178
0.379718 -0.0489925 0.461326
0.0521124 -0.039675 0.132094
0.275609 -0.0548844 0.481742
-0.162054 -0.120774 0.652768
0.292047 -0.0761626 0.530968
0.438415 -0.0426936 0.438686
0.0652393 -0.0498892 0.411122
-0.0321721 0.0278794 0.194438
-0.332663 -0.0689509 0.471049
-0.00546232 -0.0983654 0.63067
-0.0498629 0.0128273 0.708345
0.0508105 -0.045172 0.692462
0.284016 -0.0607417 0.456221
-0.374871 -0.0407274 0.454237
0.280989 -0.0532658 0.503593
-0.125789 -0.0683975 0.555508
-0.194688 -0.0467517 0.475238
0.140095 -0.057697 0.156957
-0.0571061 -0.0707139 0.457731
0.0400888 -0.0840923 0.469845
0.132208 -0.104969 0.665315
-0.0636339 -0.0579236 0.323057
0.00594067 -0.0983654 0.553971
0.00808647 0.0454254 0.258693
0.0452775 0.0161066 0.505995
0.294478 -0.085188 0.520478
-0.010989 -0.0550239 0.971767
-0.0855759 -0.0569574 0.139221
0.302835 -0.0776438 0.569893
0.0355893 0.0280709 0.747594
-0.295738 -0.0561913 0.462532
0.298241 -0.055563 0.533687
0.0530455 -0.0331749 0.287733
-0.0150562 0.0416968 0.363735
0.0597074 -0.0457015 0.366291
-0.285752 -0.0404933 0.481319
0.00888152 0.0433998 0.790846
-0.149388 -0.0575846 0.160261
0.029777 -0.0687152 0.210566
0.0528573 -0.025776 0.251242
-0.0570996 -0.0307583 0.688353
0.192868 -0.0444896 0.485436
0.176986 -0.105766 0.649428
-0.0451675 0.0216449 0.669794
0.00407667 -0.0105717 0
0.0623751 -0.0547087 0.297641
0.00164435 -0.0982613 0.469565
-0.0466401 0.0191022 0.843544
0.0466582 -0.0780073 0.497052
0.0523416 -0.0419776 0.640982
0.160802 -0.0558238 0.55047
0.177171 -0.0658303 0.518643
0.0346365 0.0289593 0.510708
0.0213163 -0.0781695 0.696023
0.348109 -0.0608924 0.46302
-0.173146 -0.0629871 0.490656
-0.0250663 -0.0934669 0.291091
0.334562 -0.061231 0.501598
-0.0595448 -0.0433311 0.506739
6.57802e-05 -0.0834035 0.780793
0.118276 -0.0423386 0.127489
0.0552696 -0.046129 0.589918
-0.254429 -0.0478482 0.494679
-0.151052 -0.0622611 0.572225
0.148348 -0.055563 0.599017
0.247341 -0.061414 0.547023
-0.252458 -0.0557441 0.483673
-0.082387 -0.0539089 0.51014
-0.044989 0.0218823 0.518157
0.325415 -0.0449755 0.462263
-0.002904 -0.0983654 0.525853
0.0125856 -0.0979107 0.587805
-0.168655 -0.0596168 0.520472
0.0391232 0.011106 0.101723
-0.037127 0.0270195 0.265838
0.199995 -0.0658173 0.501176
0.277147 -0.0610645 0.463102
-0.157927 -0.0821029 0.609899
-0.137703 -0.0435915 0.171324
0.0320702 -0.0711886 0.65719
-0.0929696 -0.0405609 0.533731
0.0139817 -0.080876 0.881869
-0.0357532 0.002173 0.0637267
-0.12136 -0.0684172 0.527644
0.0585303 -0.0706393 0.562583
-0.0196193 0.0399226 0.397391
0.0242737 -0.0931868 0.593341
0.1557 -0.0769338 0.555964
0.0323968 -0.0708806 0.730619
-0.0564804 -0.0347057 0.862292
-0.0220649 -0.0790418 0.723933
0.0467576 -0.0110558 0.101189
-0.289947 -0.0426279 0.463161
-0.314607 -0.0985737 0.545213
-0.176009 -0.0665492 0.527752
-0.125886 -0.0556499 0.184746
0.0242042 0.0371891 0.798047
-0.332663 -0.0609203 0.434913
0.0558137 -0.0205934 0.62129
0.283878 -0.0522366 0.453749
-0.294312 -0.0769338 0.494379
0.137522 -0.0967228 0.65916
0.0545145 -0.0218876 0.279574
0.0462724 0.0139596 0.879473
-0.0574513 -0.0158318 0.289929
-0.058418 -0.0223529 0.581509
0.0325801 0.0186847 0.0977754
-0.166294 -0.1174 0.633845
-0.0260762 0.037163 0.354821
0.0403815 -0.0836156 0.412852
-0.0315491 0.0244591 0.119421
0.0649754 -0.0506936 0.472109
-0.00968605 0.0836077 0.249657
-0.0099339 0.0685446 0.230084
-0.0586859 -0.0708177 0.582128
-0.24047 -0.0642323 0.497258
-0.142751 -0.0678295 0.558039
0.344773 -0.0703593 0.45344
-0.237859 -0.0645298 0.547908
-0.0424489 0.0216721 0.259704
-0.209902 -0.0417052 0.503849
-0.126199 -0.0498278 0.517525
0.0491417 -0.0363255 0.907164
-0.0056831 0.0435191 0.878935
0.399022 -0.0563998 0.475841
-0.0538856 -0.0316902 0.226232
-0.0207473 -0.0724684 0.140993
0.108741 -0.0485173 0.488676
0.0465522 -0.00998983 0.100953
0.00735695 -0.0760652 0.129492
-0.024032 -0.0768051 0.893998
0.0450954 -0.0562995 0.744593
-0.138045 -0.0791827 0.649215
-0.332091 -0.0552804 0.459172
0.00616981 0.0902654 0.214374
-0.303463 -0.0996377 0.575414
-0.0589981 -0.0710353 0.630417
-0.0383635 -0.088424 0.546867
-0.355037 -0.058146 0.438798
0.242367 -0.0646246 0.535899
-0.0579767 -0.0156206 0.447296
0.300403 -0.126275 0.536582
0.170773 -0.1223 0.622144
-0.0510702 -0.027993 0.91434
-0.00916677 0.0994301 0.256523
0.054314 -0.057402 0.492812
-0.395819 -0.0589212 0.459053
-0.0583853 -0.0435192 0.489376
-0.0570704 -0.0309445 0.758953
-0.0283513 0.0338361 0.244481
0.248833 -0.064383 0.528615
-0.28865 -0.0769338 0.513256
0.00582659 0.105379 0.238093
0.114325 -0.0421295 0.150241
0.319336 -0.108225 0.531502
-0.0143009 -0.0521843 0.058491
0.0459031 -0.0574424 0.156079
0.0551343 -0.069247 0.445429
-0.256984 -0.0522412 0.531276
-0.0414746 -0.0503137 0.0992184
-0.0103103 0.0737329 0.289769
-0.0491481 0.014219 0.636968
0.407326 -0.0478732 0.447321
0.120059 -0.0572854 0.143618
-0.224994 -0.0565635 0.484958
0.0847167 -0.0699245 0.588741
0.318533 -0.0862343 0.558944
-0.0460561 -0.0806533 0.289984
-0.010466 0.0626269 0.263804
0.0189639 -0.0772537 0.247894
-0.131989 -0.0682561 0.570435
0.0130756 0.0355262 0.166511
-0.187597 -0.0545747 0.554189
0.0534011 -0.0359728 0.560838
0.300763 -0.128075 0.545707
0.0470586 -0.039401 0.124935
-0.157701 -0.12189 0.599732
-0.021116 -0.0794301 0.781703
-0.457667 -0.056165 0.420212
-0.0414588 -0.0432303 0.0904667
0.346159 -0.0574686 0.448651
0.167326 -0.0567679 0.556977
0.0181592 0.038727 0.88327
0.0347231 -0.0686862 0.829693
0.0280663 -0.0916121 0.543505
0.0525368 -0.0563977 0.204826
0.0419141 0.0219222 0.460077
-0.200454 -0.0485164 0.502916
-0.428435 -0.0414917 0.435395
-0.0348325 0.0315018 0.876008
-0.00201302 0.0432989 0.395319
-0.10119 -0.0409305 0.533221
-0.0320532 -0.0652414 0.917102
-0.0986507 -0.0691171 0.511462
0.0125427 -0.0979281 0.590633
-0.277708 -0.125078 0.584118
0.0738206 -0.0415578 0.206389
-0.146585 -0.114481 0.640057
0.0117515 0.0189543 0.0420137
-0.0122203 -0.0783437 0.189746
-0.216957 -0.0652272 0.544259
0.0524069 -0.0340006 0.27396
0.341335 -0.0625602 0.486786
0.0469427 0.0129044 0.660467
0.0472658 0.0122755 0.768968
-0.0471027 0.0182015 0.64655
-0.000443921 -0.0826174 0.269135
0.0241967 0.0371922 0.551645
0.278773 -0.0574686 0.447092
0.276684 -0.0421764 0.473222
-0.112088 -0.0579324 0.172897
-0.247147 -0.0485113 0.500579
0.292586 -0.0768246 0.556518
-0.0607408 -0.0704657 0.52254
-0.144945 -0.0982485 0.647684
-0.0695197 -0.0456047 0.54379
-0.0479762 0.0165008 0.533837
0.120862 -0.0685661 0.546394
-0.16909 -0.0698678 0.509372
-0.0661673 -0.0703795 0.543558
-0.0560567 -0.00449762 0.372422
-0.114539 -0.0686619 0.530087
-0.232769 -0.0695154 0.515923
0.0360192 -0.0876568 0.394962
0.00194677 -0.0834035 0.71573
-0.130251 -0.0805592 0.619744
-0.0448425 0.00535308 0.91421
0.282299 -0.105258 0.591296
-0.237714 -0.0598651 0.460232
0.0450642 -0.0569912 0.140374
-0.31316 -0.0617878 0.512504
-0.0387965 -0.00462037 0.0671292
-0.0894234 -0.0575679 0.160477
-0.0535377 -0.0350346 0.231015
0.0019046 -0.0834035 0.810659
-0.0364749 0.0297215 0.445306
-0.151052 -0.0600319 0.534089
0.0285387 0.0339674 0.881878
-0.106785 -0.0418717 0.126428
-0.0573745 -0.028176 0.457826
-0.051526 -0.0476164 0.283709
-0.000211542 0.0436051 0.726351
-0.0532804 -0.0459715 0.864625
0.0383564 0.0254608 0.577373
0.0611395 -0.0464368 0.324109
0.0121165 0.029399 0.085962
-0.0389746 -0.0673931 0.704605
-0.0463607 -0.0594446 0.658941
0.139511 -0.0674758 0.600037
-0.00262893 0.0435277 0.483795
-0.282892 -0.0547658 0.454273
-0.158788 -0.0572609 0.14253
-0.167646 -0.0442578 0.484736
-0.03345 0.0328059 0.720152
-0.0876037 -0.0699141 0.60014
0.0453606 0.0159848 0.532562
0.0206066 0.0363044 0.255135
-0.105748 -0.0580586 0.177385
-0.0757422 -0.056998 0.140769
0.047351 -0.0774218 0.52129
0.140428 -0.0480373 0.498308
0.143518 -0.0538155 0.537347
0.145066 -0.0859585 0.665937
0.00110305 0.0436051 0.553753
0.379619 -0.0599137 0.469476
-0.0131817 -0.0826768 0.682409
0.0589722 -0.0619951 0.455092
0.0634539 -0.0531169 0.384698
-0.152245 -0.0425288 0.52088
0.0218096 -0.0938641 0.401523
0.0541524 -0.0307356 0.483452
0.0413001 0.0226841 0.530908
-0.140849 -0.0769338 0.524354
0.125423 -0.0574563 0.149093
0.285588 -0.113749 0.593733
0.22317 -0.0651817 0.52371
-0.261075 -0.0635852 0.516013
-0.0533515 0.00603479 0.801267
-0.418782 -0.0422339 0.434296
-0.0461758 -0.0548397 0.240975
0.407338 -0.0584551 0.470036
-0.0446103 0.0220585 0.448624
-0.0573652 -0.0238538 0.287112
0.208575 -0.060276 0.563838
0.033791 0.0297672 0.585889
0.194906 -0.0659794 0.500974
-0.0464118 0.018576 0.326278
-0.238537 -0.0529468 0.496514
-0.0282709 -0.0698746 0.159542
-0.394695 -0.0587856 0.467146
0.215879 -0.0652803 0.495208
-0.164907 -0.105499 0.665175
0.053098 -0.00234794 0.48297
0.00925161 -0.0831063 0.694101
-0.296647 -0.0741593 0.513363
0.0926785 -0.0416782 0.174611
0.0159333 0.0405724 0.659997
-0.169445 -0.106542 0.647305
-0.0586972 -0.0202648 0.87266
0.135406 -0.0597944 0.589048
0.0487404 -0.0402059 0.1817
0.0395891 0.024298 0.738093
-0.0570285 -0.0706734 0.421466
0.040816 -0.062939 0.742049
-0.0322993 0.0338913 0.621868
0.0647835 -0.0507445 0.410544
-0.0387921 0.0247405 0.252573
0.0485393 -0.0761956 0.48521
0.274147 -0.0994691 0.541103
-0.0474746 -0.0797764 0.422002
0.226403 -0.0649625 0.499282
-0.124319 -0.0913883 0.604115
-0.182073 -0.0664743 0.555756
0.0405798 0.0226353 0.298291
0.0254064 -0.0292192 0.0416773
0.0557584 -0.020946 0.5485
-0.0535101 0.0057261 0.687399
0.0580752 -0.0631257 0.361555
0.145687 -0.0592838 0.607165
-0.225783 -0.0425393 0.481849
0.0502175 -0.0463267 0.857766
-0.286989 -0.0769338 0.523207
0.0261654 -0.0784012 0.273969
0.0318126 -0.0207661 0.955562
0.277388 -0.0856819 0.556907
0.0525791 0.00115641 0.496121
-0.229524 -0.0647244 0.528796
0.00751779 0.0655103 0.275748
0.277147 -0.0606699 0.472842
0.00399971 0.0130121 0.00420692
-0.146427 -0.0557966 0.603542
-0.00371068 0.058736 0.169907
-0.150457 -0.0525643 0.539209
-0.055501 -0.00155953 0.881858
-0.127937 -0.082709 0.623479
0.176308 -0.0449268 0.150742
0.339409 -0.0599114 0.445304
-0.056985 -0.0104194 0.372183
-0.00391797 -0.0811169 0.23652
0.0563111 -0.0670732 0.456451
-0.0528772 -0.0350586 0.213248
-0.015282 -0.0400755 0.0346454
0.0388765 0.0145005 0.136849
-0.0317998 -0.0478882 0.0747961
0.131926 -0.0682077 0.545539
-0.0566986 -0.0333147 0.728487
-0.0320415 0.0337226 0.391746
-0.0098611 0.0598884 0.211922
-0.0188122 0.0389986 0.27309
-0.133432 -0.107719 0.640202
0.294425 -0.0422158 0.468054
-0.167755 -0.0922951 0.639781
0.00907642 -0.0533828 0.0589789
0.158175 -0.119504 0.666538
0.28493 -0.0652976 0.499105
0.143944 -0.0788723 0.61505
0.36187 -0.0605366 0.482164
-0.0511883 -0.0482675 0.283194
-0.0190934 0.0402934 0.453682
0.315742 -0.0444334 0.462705
-0.0049778 -0.0982632 0.470338
0.185442 -0.0664315 0.532437
-0.00827611 0.0901684 0.290587
0.0528284 -0.0114566 0.261355
0.0535435 -0.00473393 0.849734
0.0446784 -0.0795291 0.400529
0.045581 -0.0553541 0.868322
-0.0542319 -0.0731772 0.326209
0.0140917 0.0317951 0.0992549
0.0309963 0.0324033 0.59038
0.239307 -0.053164 0.511584
0.0490984 -0.0758597 0.588101
-0.0245978 0.03052 0.908732
-0.14367 -0.0678591 0.570949
-0.273702 -0.0842146 0.578442
0.0526264 -0.000982875 0.373044
-0.331212 -0.0610903 0.495527
0.0929496 -0.0567627 0.127877
0.0164564 0.0403584 0.868238
-0.140095 -0.0437164 0.158267
0.0621205 -0.0557257 0.404256
-0.244183 -0.0527549 0.536198
-0.0386707 0.0278814 0.803189
-0.022844 -0.0945919 0.381005
-0.130242 -0.058445 0.499894
0.0509875 -0.0129765 0.205108
0.0556699 -0.0182908 0.741113
-0.0574114 -0.0110295 0.861922
0.014561 -0.0787563 0.241791
0.290306 -0.128326 0.563087
-0.0112455 -0.0978597 0.298926
0.0873484 -0.0511105 0.526649
-0.0350008 -0.0711414 0.827832
-0.00833617 -0.0981485 0.421642
-0.00799126 0.106353 0.24791
0.203624 -0.0550344 0.534787
0.027013 -0.0916922 0.374726
0.0940141 -0.0609408 0.607411
0.0324668 -0.0708145 0.683712
-0.0657426 -0.056314 0.117031
-0.265582 -0.0434191 0.465292
0.134475 -0.0441883 0.499798
0.202043 -0.0659484 0.542701
0.315415 -0.121077 0.581681
0.0233872 -0.0929722 0.289567
0.0503855 0.00620122 0.779153
-0.0345652 -0.0897909 0.36532
0.168429 -0.0839998 0.644654
-0.036041 0.0218512 0.149918
0.284063 -0.0540395 0.509409
-0.352758 -0.0555901 0.437667
0.201596 -0.0477473 0.474279
0.054655 -0.0431046 0.408999
0.0534285 -0.0712233 0.326622
0.00512354 0.105958 0.244605
-0.0538256 -0.00289437 0.246743
-0.0899875 -0.0551737 0.56399
0.379815 -0.0449237 0.45304
-0.0187312 0.0401857 0.361074
-0.0519272 -0.0486063 0.644016
0.158591 -0.0625553 0.574229
-0.146093 -0.043708 0.179127
0.0318611 -0.00697561 0.943038
-0.0644382 -0.04663 0.46103
0.0444283 0.0178002 0.84072
-0.121408 -0.106832 0.658465
0.133007 -0.0870329 0.650927
0.249903 -0.0641488 0.486418
-0.0846098 -0.043736 0.498423
-0.0526016 -0.0223922 0.152045
-0.010511 -0.0980419 0.376312
-0.440694 -0.056841 0.428109
-0.0491452 -0.0540231 0.708739
0.0542916 -0.010437 0.450926
0.311996 -0.0503441 0.46228
0.27411 -0.111091 0.586262
0.0489996 -0.00518334 0.906809
0.0481584 -0.0287797 0.136868
0.212395 -0.0532473 0.517988
-0.00802262 -0.0112677 0.977173
0.127141 -0.0570783 0.487041
0.0527371 -0.0402058 0.841264
-0.0997502 -0.055899 0.519535
-0.39982 -0.0527327 0.474429
0.0814135 -0.0528627 0.198339
0.0883365 -0.0551632 0.560318
0.00785726 0.0456645 0.230353
-0.0530191 0.00668196 0.559786
0.00849883 -0.0975684 0.274376
-0.0219764 -0.0951213 0.454042
0.00142425 0.0432358 0.370948
0.344299 -0.0628912 0.421978
-0.0184058 -0.0962236 0.315793
0.030404 -0.0727603 0.866624
0.00661956 0.0435605 0.496459
0.00725467 0.0474572 0.161714
0.187646 -0.043867 0.489939
0.0196471 -0.0788525 0.757218
0.157181 -0.102787 0.651953
0.0167712 0.0402296 0.611954
0.0645321 -0.0480468 0.513528
0.0835759 -0.0612711 0.508399
-0.296647 -0.0705575 0.525648
0.149077 -0.0979512 0.63901
-0.12027 -0.113729 0.624571
-0.011521 0.0433331 0.4703
-0.0486749 0.0151403 0.619535
-0.217941 -0.0517727 0.502686
-0.00936037 -0.0564674 0.970346
-0.0151032 -0.0818905 0.693307
0.0534907 -0.0354018 0.64185
0.0348361 0.0287814 0.757033
0.0455646 0.0153235 0.462789
0.00953855 0.0125101 0.0121209
-0.0321563 -0.0704747 0.231652
-0.0547911 -0.00181098 0.277455
-0.0555693 -0.0405139 0.817675
-0.156586 -0.0441633 0.137778
-0.0431865 0.0235713 0.498849
-0.171009 -0.0658217 0.490774
-0.138148 -0.0639494 0.60766
-0.28856 -0.127333 0.541944
0.273701 -0.107111 0.589845
-0.0585812 -0.0213124 0.656092
-0.12656 -0.116196 0.663917
-0.0129548 0.042969 0.752164
-0.0558298 -0.000945101 0.51794
-0.139336 -0.0536106 0.5485
-0.233531 -0.0575503 0.513067
0.119937 -0.0686514 0.558135
-0.0494721 -0.0504202 0.102795
-0.0518097 0.00829888 0.371383
0.273826 -0.107794 0.589866
-0.0541924 0.00439751 0.618321
0.0534139 -0.0352983 0.473697
0.382095 -0.0520528 0.430404
0.168557 -0.0668438 0.505304
-0.0101173 0.0673085 0.237857
-0.211494 -0.0653476 0.530226
0.0526261 -0.00197408 0.306521
-0.0503239 0.0119297 0.843319
-0.0564136 -0.0347638 0.488767
0.0826767 -0.04122 0.166852
0.0199559 0.0389269 0.659099
0.00328625 -0.0920911 0.651038
-0.0279912 -0.0766168 0.784941
-0.101641 -0.0416245 0.124443
0.0296517 -0.0313159 0.0544261
0.215147 -0.0653381 0.502475
-0.284361 -0.0564789 0.480447
0.308813 -0.126295 0.548697
-0.0443623 -0.0822456 0.295877
-0.0525749 -0.0407969 0.232057
0.0459415 -0.0546522 0.856814
-0.278559 -0.0524545 0.455303
-0.217698 -0.0544044 0.551288
-0.00384853 0.0436051 0.704346
-0.0552342 0.00214227 0.582167
-0.184338 -0.0549377 0.557384
0.00298996 0.0361839 0.127887
-0.0414379 -0.0579638 0.166431
-0.0427222 -0.0623435 0.268119
0.267736 -0.0527268 0.501899
-0.0553248 -0.0406489 0.418069
-0.328248 -0.0499023 0.460007
-0.0512378 0.0101504 0.619802
-0.0514752 -0.0143699 0.134465
0.0491622 0.00858304 0.617982
0.282841 -0.109053 0.593378
-0.0709706 -0.0407041 0.155605
0.0644744 -0.0409438 0.195212
-0.200457 -0.0615782 0.570031
-0.00215053 0.0436051 0.866488
-0.165326 -0.117883 0.612597
-0.0177636 -0.0968079 0.444945
-0.0548033 -0.0496388 0.54782
-0.0103361 0.0705827 0.280016
-0.0305525 0.0353291 0.45155
0.059445 -0.0455526 0.460443
-0.050748 -0.00242041 0.165493
0.301594 -0.0769338 0.528275
0.00219453 -0.0610882 0.964067
0.296515 -0.0769338 0.492228
0.00127672 0.0592386 0.170702
0.28493 -0.0644061 0.48789
0.285767 -0.056244 0.526932
0.0108918 0.0424241 0.436764
-0.0324957 -0.064255 0.132263
-0.0450495 0.0212721 0.383697
0.163398 -0.106116 0.640106
0.318639 -0.0874894 0.567467
0.138404 -0.107788 0.646233
0.304186 -0.0714982 0.458983
-0.248734 -0.0564632 0.476003
-0.00809358 0.0431272 0.328943
-0.0519898 -0.0484844 0.832493
0.0349195 0.0287026 0.712973
-0.0091601 -0.0980876 0.395745
-0.0447543 0.0133161 0.19369
-0.0338586 0.0324205 0.706637
0.0553858 -0.0215076 0.391975
0.310295 -0.0621261 0.467774
0.0437703 0.0190812 0.660971
0.00969476 0.0396402 0.229221
-0.289902 -0.108171 0.579514
-0.250876 -0.0504584 0.461883
-0.0561897 -0.00417809 0.450593
0.0385338 0.0252934 0.644639
-0.190679 -0.0535444 0.509314
0.371867 -0.0601109 0.458692
-0.055883 -0.0385139 0.564567
-0.177464 -0.0513256 0.527527
0.0360472 -0.0747147 0.647077
0.0497598 -0.0472178 0.844123
-0.0644911 -0.0567011 0.390153
0.328061 -0.0548887 0.507176
-0.186415 -0.066301 0.550501
-0.0959592 -0.0412814 0.1168
0.0765058 -0.0582132 0.18017
-0.183828 -0.0662717 0.525606
0.231422 -0.0586938 0.466409
-0.145502 -0.0801694 0.660488
0.0844279 -0.0548974 0.534729
-0.0871406 -0.0418422 0.196904
0.153045 -0.0972917 0.638984
0.04279 -0.0740267 0.644674
-0.0366538 -0.0892121 0.489388
0.0556763 -0.0183316 0.850998
-0.039505 0.0198339 0.173313
0.277147 -0.0632767 0.4541
-0.00632791 -0.0749814 0.925408
-0.214493 -0.0525529 0.503653
-0.10431 -0.0692023 0.570411
-0.0949308 -0.0548598 0.194316
0.0844035 -0.040694 0.122087
0.146189 -0.0565961 0.5386
0.0220675 0.0375517 0.328382
0.0402754 -0.063449 0.848001
0.054676 -0.011954 0.543591
0.13844 -0.0432032 0.166597
0.000911023 -0.0834035 0.762805
-0.151052 -0.0652803 0.57254
-0.0352266 -0.0374799 0.0684635
0.0484778 -0.00686717 0.163133
0.102125 -0.0566407 0.12275
0.184264 -0.04798 0.478159
-0.0568178 -0.0325548 0.762241
-0.00605353 0.0489539 0.154437
-0.0910089 -0.0416544 0.162372
0.0415391 -0.0825642 0.423581
-0.0195608 0.021762 0.06203
-0.0513203 -0.00384116 0.174946
0.024565 -0.0688925 0.130228
-0.277221 -0.0803707 0.566943
-0.031094 0.0350282 0.602204
0.00598025 0.101186 0.239045
0.228357 -0.0650475 0.530443
-0.0113121 0.0283067 0.0751767
0.250445 -0.0641478 0.489874
0.39432 -0.0593439 0.448575
-0.0450935 -0.0822107 0.636955
-0.28204 -0.0505495 0.515904
0.0423623 -0.0819531 0.469825
0.0528379 -0.0395632 0.540557
-0.0270072 -0.0770194 0.673143
0.0387098 0.0249112 0.449829
-0.338607 -0.0611647 0.459262
-0.0439209 -0.0832334 0.466992
0.180803 -0.0703593 0.478342
0.0549082 -0.0163945 0.315176
0.0173456 0.0349581 0.193592
-0.455895 -0.0521697 0.433762
0.0380589 0.0257414 0.634252
0.320708 -0.0904233 0.562294
-0.0548813 0.00305631 0.729861
0.100984 -0.0563531 0.505349
0.0718889 -0.0409319 0.174182
-0.253221 -0.0556186 0.484442
0.0488199 0.00888444 0.44337
0.04483 0.0170179 0.542534
-0.0419299 -0.0849255 0.41672
0.299877 -0.0769338 0.547681
-0.128442 -0.0849058 0.608753
-0.0500033 -0.008995 0.117451
0.0918251 -0.0515253 0.489839
0.197428 -0.0516719 0.507993
0.324167 -0.0993972 0.556035
0.302761 -0.0768242 0.562207
0.0461765 -0.0786003 0.59465
0.00505888 0.0436051 0.749224
0.0172478 -0.0859794 0.651038
-0.162448 -0.066885 0.500702
-0.0991017 -0.0416845 0.137608
0.0363022 -0.0877642 0.569691
-0.134642 -0.0539265 0.551372
0.0235662 -0.0933504 0.482232
-0.0121577 0.043295 0.618656
0.00301221 0.0624202 0.175734
-0.175115 -0.0665549 0.493107
-0.00414827 -0.0982076 0.446731
0.0462973 -0.0267615 0.920966
0.0528489 -0.000305677 0.698273
0.294771 -0.0533051 0.500999
-0.0786023 -0.0553635 0.532309
-0.0221345 -0.0951887 0.574828
-0.055816 -0.000857363 0.67319
0.00765894 0.0268879 0.0679779
-0.0655978 -0.0472345 0.355658
0.0229132 0.0377172 0.572833
-0.128048 -0.068255 0.606533
0.0451076 -0.0562758 0.663777
0.427919 -0.058013 0.43938
0.0316917 -0.0901454 0.563284
0.302824 -0.0483457 0.449603
-0.128722 -0.0543215 0.554964
0.0541934 -0.016862 0.275349
0.0100118 -0.0457026 0.0441156
-0.291873 -0.0769338 0.480189
-0.00929476 0.0894781 0.241746
-0.0104401 -0.0792603 0.197718
-0.0468667 -0.00763279 0.922706
0.271154 -0.103533 0.560839
0.0308225 -0.0902338 0.41246
0.175185 -0.11609 0.618239
-0.00576511 0.0363813 0.132711
0.291283 -0.0606444 0.477637
-0.123264 -0.0567637 0.125759
-0.21187 -0.0653036 0.52364
0.379878 -0.0423772 0.444195
0.0228223 0.0375881 0.453361
0.0453857 -0.0557342 0.806759
-0.0551543 -0.0393568 0.883772
0.160883 -0.0498635 0.134308
-0.0452714 0.0212048 0.439649
0.0501965 0.00546132 0.300051
0.054507 -0.0701128 0.398275
0.142715 -0.080907 0.655818
0.02663 -0.0918075 0.35666
0.341177 -0.0624054 0.44376
0.415649 -0.0494004 0.44144
-0.0566704 -0.0063051 0.750874
-0.0420296 -0.0850773 0.570761
-0.0466777 -0.0159456 0.0881023
0.10266 -0.0570095 0.135603
-0.0963522 -0.0570263 0.141483
0.280439 -0.122705 0.564133
-0.218674 -0.0649776 0.503878
0.0556157 -0.0179453 0.662686
0.154298 -0.0534933 0.532368
-0.39107 -0.0476457 0.470324
-0.0545175 -0.0576563 0.164029
0.203577 -0.0578332 0.558194
0.107742 -0.055973 0.51937
-0.322007 -0.0608043 0.460607
0.0555504 -0.0222719 0.552669
0.377916 -0.0605685 0.434371
-0.150811 -0.0440051 0.490964
0.274328 -0.110825 0.543612
-0.0293339 0.0362691 0.620827
0.132657 -0.0430848 0.173277
-0.289166 -0.128315 0.580011
-0.0651204 -0.0469874 0.377505
0.220207 -0.0522398 0.468882
-0.403626 -0.0584845 0.468037
-0.294559 -0.0769338 0.47508
0.0151358 0.0383636 0.251024
0.0175728 -0.0788825 0.887459
0.0587712 -0.0621168 0.412836
0.00699415 0.0589896 0.17999
-0.0428508 0.0235546 0.400171
0.0519541 0.00314728 0.84788
0.00419902 -0.0834035 0.706061
0.00783566 0.0436051 0.622167
0.111534 -0.0686684 0.5049
0.0799692 -0.0424987 0.519313
-0.220755 -0.0441042 0.472815
-0.0317232 0.0344347 0.87049
-0.254089 -0.0463769 0.482396
-0.0564424 -0.0349476 0.829729
-0.128269 -0.113911 0.665522
-0.232687 -0.0681359 0.488027
0.181794 -0.0665238 0.52726
0.09084 -0.0695708 0.555486
0.0878801 -0.0577701 0.509813
0.0941065 -0.0514128 0.116061
0.0328906 -0.0656672 0.20981
-0.1895 -0.0485598 0.503816
-0.141579 -0.0792341 0.656747
0.131231 -0.0515918 0.521364
0.211312 -0.0471349 0.502291
0.050454 -0.0458662 0.766789
-0.332446 -0.0465339 0.47986
0.0528239 -0.003135 0.313225
0.291283 -0.0742638 0.521024
0.0463047 -0.0784549 0.624379
-0.0590466 -0.0707174 0.56353
0.295301 -0.0554315 0.518662
0.0447365 -0.0797977 0.492036
0.169899 -0.056335 0.552813
0.288552 -0.0794617 0.573978
0.39675 -0.0498416 0.450287
0.0974845 -0.0568283 0.129748
0.0372685 -0.0868748 0.56395
0.0157241 -0.0416555 0.0422513
0.177171 -0.0648905 0.479107
0.0322074 -0.0303881 0.059407
0.0482624 -0.0225404 0.113206
-0.252268 -0.052094 0.530277
0.0557983 -0.0191094 0.73146
0.0599556 -0.0458235 0.422542
-0.28867 -0.0627342 0.472101
0.0260635 -0.076227 0.674419
0.0421287 -0.0823272 0.617416
0.0549317 -0.014133 0.476731
0.0342346 0.0234068 0.197987
0.0489145 -0.0449655 0.259228
0.249323 -0.0616741 0.546341
0.0243831 -0.0926715 0.336101
-0.0183123 0.0204167 0.0543279
-0.0319456 -0.0911757 0.508917
-0.0274988 0.0370197 0.586183
0.31618 -0.0619975 0.4804
-0.0971552 -0.0574726 0.582856
-0.0496749 0.0131933 0.860429
0.136492 -0.122025 0.654383
-0.0580154 -0.0225541 0.354918
-0.108686 -0.0690791 0.575987
0.114681 -0.0426373 0.5091
0.311534 -0.0842821 0.537867
0.0631472 -0.0535464 0.355374
0.0423428 -0.0820417 0.489698
-0.00883811 0.114807 0.272384
-0.0528751 -0.00063704 0.899962
-0.0788105 -0.0406785 0.127363
0.0547942 -0.0270925 0.788875
0.0475851 -0.0247258 0.104157
-0.0112616 -0.0832979 0.782526
0.290962 -0.0628544 0.49079
-0.24047 -0.0657229 0.493473
-0.20283 -0.0656621 0.534086
0.149589 -0.126719 0.603942
0.17173 -0.0565231 0.502878
-0.0899516 -0.0575627 0.194093
-0.0373138 -0.0681026 0.885445
-0.106431 -0.0546405 0.558726
0.281465 -0.101313 0.597834
-0.101343 -0.0526243 0.542122
0.112657 -0.0690274 0.588307
-0.0753966 -0.0683385 0.50995
0.0225593 0.00251637 0.944881
0.0579104 -0.058904 0.63311
0.268943 -0.0549961 0.520613
0.0291685 0.0341274 0.820666
-0.20013 -0.0567114 0.490773
0.287568 -0.0466185 0.455005
-0.0268559 0.0301566 0.147537
-0.277629 -0.0475842 0.491332
0.0561268 -0.0561521 0.109977
0.155323 -0.055063 0.545271
0.0198174 0.0389836 0.828383
0.00575408 0.0962347 0.223369
-0.337136 -0.0608518 0.487912
0.290451 -0.125879 0.592258
0.108987 -0.0589814 0.499827
0.0518051 -0.00746554 0.250608
-0.0155453 0.0419093 0.573512
0.401128 -0.044558 0.433234
0.378848 -0.0598754 0.456168
0.149916 -0.0853604 0.585589
0.0557211 -0.0211835 0.630605
0.0516645 -0.0256063 0.218253
-0.265471 -0.04609 0.459046
-0.076278 -0.0564982 0.12332
0.0455749 -0.079094 0.522052
0.0610875 -0.0410553 0.536532
0.330137 -0.0578636 0.453055
0.00354276 -0.0778837 0.915162
0.370293 -0.0514809 0.46973
0.0477904 0.011254 0.691941
-0.151052 -0.0752109 0.630849
0.0484781 -0.0199588 0.110694
-0.0515535 -0.0259926 0.138971
-0.232687 -0.0633733 0.495276
-0.0575022 -0.0262094 0.380638
-0.0230659 -0.0158145 0.0143501
0.0247059 0.0369839 0.751699
-0.0546685 -0.0452976 0.494486
-0.16937 -0.070148 0.487325
0.052621 0.00114748 0.56731
-0.0795674 -0.0697935 0.516511
0.03855 -0.0650764 0.735592
0.0811267 -0.0583007 0.507235
-0.0142392 0.035219 0.143333
0.0275087 -0.0452749 0.0679247
-0.0182771 0.0407919 0.52799
-0.28458 -0.0753232 0.457977
0.284388 -0.0578529 0.462641
0.37323 -0.0528164 0.480272
-0.0614993 -0.0621412 0.355267
-0.0522047 -0.0480661 0.654256
-0.0290729 0.00676159 0.0487706
-0.19776 -0.05083 0.522387
0.0452223 -0.0442856 0.912685
0.288743 -0.126966 0.574892
0.0542173 -0.030474 0.493635
-0.0896368 -0.0572098 0.505372
0.199901 -0.0658277 0.502746
0.119297 -0.0573732 0.146763
-0.294652 -0.0472141 0.481174
-0.323341 -0.0539737 0.471665
-0.310704 -0.0894224 0.588289
-0.0345237 -0.0899783 0.442712
-0.0430718 0.0237301 0.842904
-0.309298 -0.0619009 0.508487
0.0175002 -0.0718676 0.125655
-0.187745 -0.0663626 0.573159
-0.0524874 0.00746552 0.465178
0.0515749 -0.033416 0.897544
-0.0486821 0.0151264 0.860484
-0.0275886 0.036983 0.54427
0.28408 -0.0961357 0.520478
0.0113297 -0.00688001 0
-0.295021 -0.104855 0.587872
-0.154013 -0.0602281 0.589107
0.142387 -0.127654 0.625607
-0.0312446 0.0341797 0.304486
0.0153203 -0.080623 0.860063
-0.127785 -0.0556936 0.514537
-0.359378 -0.0574633 0.495595
0.0363738 0.0271325 0.455064
0.0441414 -0.080478 0.601802
0.00172909 0.0436051 0.730096
0.137565 -0.0679744 0.534409
-0.0317782 -0.0738229 0.881551
0.0220213 0.0323308 0.177199
0.047187 0.0124288 0.756188
0.00251728 0.0263582 0.0613241
0.0435094 -0.0810832 0.579368
-0.0386521 -0.0676972 0.796241
-0.309539 -0.0931119 0.529813
-0.0242078 -0.0263245 0.0283452
-0.0101311 0.0648392 0.232592
-0.0537215 -0.0451128 0.683675
0.0234207 -0.0932481 0.417909
-0.0416645 0.0250576 0.779462
-0.0510564 -0.0396263 0.178168
0.0548737 -0.0265858 0.538227
-0.158401 -0.10411 0.640538
0.297572 -0.0411875 0.476471
0.055209 -0.0434072 0.311267
0.297706 -0.112708 0.57459
-0.047509 -0.0796137 0.378105
0.0343288 -0.0690582 0.671279
0.0190697 -0.077515 0.254115
0.113577 -0.0689883 0.586255
-0.131816 -0.0923735 0.585589
0.0264721 0.0187818 0.0802941
0.0544309 -0.0294083 0.812882
-0.133183 -0.0433724 0.17796
-0.0401619 -0.0458734 0.933138
-0.00908538 0.10115 0.255967
-0.128424 -0.0427886 0.125232
-0.00262092 0.128381 0.270264
-0.0308723 0.0352373 0.733496
-0.0149644 0.041636 0.328144
-0.0315709 0.0345056 0.878666
-0.256883 -0.0409259 0.48577
0.268342 -0.056847 0.457441
-0.299173 -0.127579 0.566677
0.00720438 0.0431395 0.333722
-0.0911349 -0.0697143 0.583422
-0.0848478 -0.0544437 0.558141
0.0554793 -0.0227251 0.54412
0.298082 -0.0781304 0.580412
-0.0520374 -0.0483918 0.87365
0.114331 -0.0517431 0.526214
-0.0186035 -0.0265324 0.0159001
0.00661664 0.0730001 0.194331
-0.0576637 -0.0126385 0.674748
0.0874199 -0.0568227 0.130497
0.457038 -0.0553112 0.413434
0.409103 -0.058865 0.447455
-0.0772706 -0.0429359 0.507041
-0.0424889 0.0235921 0.310245
0.277147 -0.0678507 0.43994
-0.127652 -0.0840446 0.636833
