-0.0392544 -0.102053 0.31979
-0.0225399 -0.0414766 0.0773333
-0.0181684 -0.122872 0.808383
-0.0365312 -0.0454662 0.410767
-0.0330244 -0.0461298 0.857841
0.0226033 -0.0830687 0.631051
0.0729815 -0.0691342 0.145685
-0.0240282 -0.119864 0.354614
0.185057 -0.0830687 0.579506
0.00135999 -0.106108 0.94921
0.0334866 -0.0443551 0.802353
-0.0277259 -0.0493435 0.103273
-0.0289396 -0.104604 0.249481
0.131655 -0.0678572 0.620432
-0.0466242 -0.0878251 0.343457
0.261746 -0.0678572 0.571959
0.00405218 -0.126474 0.533104
0.0369981 -0.0481152 0.708599
-0.0365959 -0.0494466 0.198516
0.0263854 -0.118486 0.490833
-0.0238611 -0.0668125 0.936329
-0.0154386 -0.031691 0.268913
-0.0268646 -0.0354035 0.608014
-0.03417 -0.113514 0.4123
-0.0136568 -0.12436 0.631807
0.114222 -0.0678572 0.612221
-0.053707 -0.0839882 0.132399
-0.033662 -0.0423488 0.489509
0.00182999 -0.0285652 0.811262
0.0922092 -0.0511082 0.093454
-0.0708704 -0.0830687 0.682209
0.122547 -0.0617587 0.0935382
0.068724 -0.0778825 0.68335
0.012698 -0.0673279 0.0703508
-0.0155804 -0.0313027 0.195443
0.0190845 -0.0738326 0.698522
-0.00736313 -0.0298208 0.534727
0.0465815 -0.0708227 0.742761
0.0479556 -0.0797234 0.5887
-0.000342225 -0.028375 0.196541
-0.0503087 -0.0746707 0.567942
0.000624229 0.0866645 0.103925
0.0559968 -0.0830687 0.605978
0.0464127 -0.0707834 0.432899
0.0300141 -0.0712987 0.921627
-0.0819138 -0.0829971 0.615285
0.00386205 0.0553039 0.104542
0.0018792 0.101345 0.108707
-0.0349374 -0.112118 0.75288
0.0368584 -0.0477461 0.795134
0.15596 -0.0678572 0.603056
0.0951236 -0.067472 0.130033
-0.0389572 -0.0624336 0.183173
-0.0406342 -0.0835249 0.225137
0.025453 -0.0920065 0.184278
0.00246706 0.105426 0.117777
-0.00288465 -0.0147772 0.237882
0.0385387 -0.0512558 0.293417
-0.0678535 -0.0780857 0.235175
0.0233937 -0.0786907 0.633555
0.00880017 -0.0849405 0.974057
-0.0641446 -0.0859942 0.187926
-0.00265347 -0.00858569 0.223131
0.0181619 -0.0830687 0.692751
-0.0416542 -0.0505273 0.430385
-0.0102167 -0.0280317 0.171156
-0.0170302 -0.0487298 0.037688
-0.0473079 -0.0710177 0.118743
-0.111688 -0.0350628 0.100783
-0.0505027 -0.0759717 0.392011
-0.00745443 -0.113265 0.23756
0.0760207 -0.0678572 0.655608
-0.13834 -0.0830687 0.61806
0.00225751 0.115314 0.102813
0.0199631 -0.122285 0.491326
0.00761223 -0.125657 0.430669
-0.00155969 0.0575548 0.109341
0.012388 -0.0317878 0.0915375
0.0205066 -0.0484895 0.906603
-0.242364 -0.0830687 0.555185
0.00260777 0.117141 0.109939
0.0395944 -0.0903452 0.214387
-0.00526983 0.064507 0.114332
0.0197934 -0.0571084 0.0717879
0.0274107 -0.117 0.660061
-0.19924 -0.0830687 0.580094
0.0317469 -0.113156 0.445352
-0.0282937 -0.113487 0.324112
-0.0346118 -0.0436671 0.37601
0.0210801 -0.0458201 0.128006
-0.0566869 -0.0678572 0.639376
-0.0554477 -0.0685121 0.232534
-0.0103559 -0.0297709 0.135248
0.0342199 -0.105876 0.84359
-0.0219589 -0.122009 0.699822
-0.00259649 -0.078966 0.698229
-0.0377375 -0.0686024 0.902761
-0.0579278 -0.0678572 0.614652
0.0245984 -0.035771 0.687585
0.000121055 0.0587386 0.160408
-0.0400346 -0.0582176 0.21349
-0.0299449 -0.110187 0.309171
0.0474951 -0.0745394 0.664096
-0.0447368 -0.101687 0.682398
0.018066 -0.0525754 0.0588668
0.101612 -0.0589032 0.0876109
0.0426203 -0.0799348 0.284926
0.0242284 -0.038242 0.204968
-0.0457082 -0.0987164 0.465634
-0.00155452 -0.0432803 0.10089
-0.00642661 -0.0444279 0.201664
0.130785 -0.0830779 0.616005
-0.00344945 -0.0724501 0.616254
0.0422074 -0.0548267 0.482571
-0.0104454 -0.00100283 0.106723
-0.0445441 -0.102408 0.77244
-0.0686991 -0.0611596 0.15871
0.0195492 -0.119829 0.349352
0.0405787 -0.0955167 0.322104
-0.0304998 -0.072614 0.930328
-0.0118577 -0.0340062 0.857321
0.00602848 -0.120183 0.863985
-0.0118689 -0.0706515 0.630509
0.167399 -0.0830687 0.626558
-0.00358552 0.0390452 0.175943
0.0422971 -0.0750838 0.239375
-0.0021241 -0.00756556 0.233722
0.0450942 -0.0757047 0.845855
-0.0564495 -0.0898915 0.217425
0.030856 -0.0596332 0.178201
-0.0247839 -0.0344806 0.542583
0.0319357 -0.113001 0.397882
-0.0108701 -0.0322153 0.0349309
0.0404815 -0.0917428 0.187526
0.216267 -0.0830687 0.568144
-0.000113479 -0.0286607 0.0500557
0.192143 -0.0678572 0.58862
-0.00371187 -0.00217079 0.180429
0.0735663 -0.0830687 0.660858
0.00177581 -0.0294451 0.387097
0.122798 -0.0829565 0.584148
-0.138964 -0.0353417 0.123136
0.0142552 -0.0453488 0.123924
-0.037397 -0.110287 0.412895
0.0485954 -0.0818684 0.111198
0.295363 -0.0802159 0.576589
-0.100267 -0.0692547 0.592275
-0.028897 -0.0375832 0.489708
0.0179512 -0.0333568 0.573163
-0.0381864 -0.0510239 0.855454
-0.166676 -0.0788566 0.569332
-0.0319423 -0.0407173 0.461582
0.0963896 -0.0678572 0.658509
-0.0408305 -0.0517826 0.838588
-0.0242335 -0.0341523 0.679938
0.0150349 -0.0766115 0.636325
-0.0489258 -0.0867475 0.493463
0.0439297 -0.0944112 0.744679
-0.0291236 -0.115297 0.348022
0.134313 -0.0704113 0.585149
-0.00276976 0.00901047 0.178669
0.0145672 -0.106914 0.929451
0.00260668 -0.0121723 0.20137
0.0470223 -0.0550935 0.162201
-0.0359636 -0.068022 0.184108
0.0386304 -0.0495535 0.781758
-0.00504453 -0.0313271 0.195725
-0.0119068 -0.0311504 0.482907
0.0130575 -0.123648 0.704887
-0.0329649 -0.0412432 0.814649
-0.0317819 -0.0399091 0.796399
-0.0151244 -0.0416099 0.0240479
-0.0325402 -0.0410172 0.664472
-0.117514 -0.0519528 0.132957
0.0462942 -0.0855867 0.745748
0.0312505 -0.0434354 0.337273
0.0303726 -0.114369 0.551229
-0.0438946 -0.083281 0.59395
0.0474772 -0.0811725 0.775848
-0.0345771 -0.0445546 0.280065
-0.11888 -0.0830687 0.647895
-0.00373991 -0.0287437 0.297872
-0.0490549 -0.0742253 0.23255
0.0933196 -0.0678572 0.614618
-0.0045176 -0.0830687 0.613091
0.0606462 -0.0862514 0.240185
-0.0452242 -0.0830687 0.690727
-0.0312676 -0.115809 0.734951
-0.0040814 0.0105455 0.13335
0.174079 -0.0678572 0.611205
0.111414 -0.0559297 0.128318
0.0224782 -0.0678572 0.624386
0.0048841 -0.0686946 0.96493
0.00425196 -0.0474718 0.100066
-0.0217636 -0.10139 0.933018
0.0312074 -0.113678 0.470868
-0.0654903 -0.0756527 0.250103
0.0945615 -0.0552146 0.139339
-0.383696 -0.0830687 0.513046
0.0141446 -0.0321227 0.706379
-0.0429598 -0.0591282 0.278783
0.0350525 -0.0465029 0.487381
0.0536234 -0.0430005 0.103854
-0.000345167 0.0409671 0.184354
0.00375819 0.0369416 0.128898
0.0425403 -0.0711792 0.24952
-0.0488729 -0.0655162 0.201208
0.0603359 -0.0678572 0.639618
0.0628753 -0.0546101 0.154303
-0.0279308 -0.115218 0.841411
-0.00380051 -0.0428252 0.121609
0.132305 -0.0874296 0.636775
0.361093 -0.0828918 0.548893
-0.291678 -0.0678572 0.568209
0.0458627 -0.0871982 0.781582
0.00758428 -0.0308635 0.352163
0.25693 -0.0800337 0.550282
0.0638593 -0.0503452 0.133986
-0.0266247 -0.121022 0.46544
-0.0840254 -0.0464799 0.0954318
-0.0277052 -0.0406065 0.856003
-0.00134693 0.0352593 0.165737
-0.0399073 -0.0481286 0.760945
-0.0383376 -0.0468777 0.606144
0.274332 -0.0678572 0.573087
-0.047095 -0.0631152 0.418435
0.000619474 0.062822 0.161976
0.0332353 -0.0458527 0.292273
0.0175029 -0.0325608 0.196289
-0.107617 -0.0827573 0.665429
-0.0303774 -0.117004 0.58818
0.015444 -0.099726 0.947872
0.0256589 -0.059175 0.103223
0.00640205 -0.0822276 0.707214
0.0118775 -0.066599 0.955743
-0.0419031 -0.0623673 0.223893
0.0305232 -0.041864 0.545254
0.0447535 -0.0913365 0.743258
-0.0586115 -0.0769659 0.23735
0.0402935 -0.0612134 0.26342
-0.323659 -0.0693277 0.534486
-0.258558 -0.0830687 0.587427
-0.0297638 -0.0379042 0.791466
-0.203706 -0.0815348 0.559368
0.0066463 -0.0303757 0.52672
-0.149651 -0.0285455 0.0971765
-0.0428577 -0.0903318 0.865648
0.0328572 -0.0453727 0.302866
-0.0447994 -0.0629333 0.158519
0.0225908 -0.0635553 0.17859
0.0334485 -0.0830687 0.696454
0.148748 -0.0830687 0.62505
-0.159161 -0.0830687 0.596529
0.0138353 -0.108604 0.222765
0.00998738 -0.0377745 0.890765
-0.291069 -0.0768113 0.574007
0.0858724 -0.0830687 0.64009
0.0405704 -0.052064 0.473726
0.0280664 -0.0619891 0.128199
0.00039574 -0.0286767 0.549954
0.00299558 0.00773837 0.169492
0.000843323 -0.000433369 0.21837
-0.020024 -0.0806603 0.960686
-0.00985027 -0.125767 0.45826
-0.00589753 0.0259605 0.181928
0.0631508 -0.0796354 0.202528
0.000760733 -0.024477 0.198838
0.180767 -0.0830687 0.57013
0.04827 -0.0782094 0.659611
-0.000866816 -0.0284641 0.483674
-0.0383307 -0.0474249 0.371962
-0.168712 -0.0417032 0.10317
0.260292 -0.0738523 0.590457
-0.100774 -0.0830687 0.619757
-0.0253846 -0.121057 0.72437
0.0377618 -0.107173 0.402047
0.0401821 -0.104755 0.39874
-0.0351823 -0.043747 0.57196
-0.00895379 -0.00761014 0.171128
0.0391678 -0.0507232 0.454131
-0.0920146 -0.0519594 0.15006
-0.0291087 -0.0381243 0.385278
0.0173511 -0.0363702 0.0977296
-0.219087 -0.0829767 0.554743
0.000610738 -0.0624965 0.140334
0.00483532 -0.076399 0.693462
-0.234528 -0.0830687 0.571739
0.000868586 0.00578491 0.105882
-0.0343295 -0.0882284 0.193841
-0.0463297 -0.0957417 0.65526
-0.0599095 -0.054245 0.168768
0.00846536 -0.0358302 0.882666
0.156313 -0.0830687 0.589374
0.00298688 -0.0806099 0.703644
-0.0232541 -0.0346182 0.201608
0.0050109 -0.0740086 0.0778032
-0.0276339 -0.0362037 0.564667
0.0187782 -0.107586 0.224238
-0.0700489 -0.0566119 0.137898
0.207759 -0.0830687 0.602532
0.0330372 -0.111863 0.450165
0.00102121 0.0711963 0.154538
-0.00554545 -0.0535682 0.100723
-0.0437226 -0.0575077 0.132735
0.0244229 -0.117378 0.349275
0.0142054 -0.0830687 0.697512
0.0244379 -0.105371 0.240627
-0.00424684 0.00935443 0.134984
0.19921 -0.0678572 0.611622
0.0314623 -0.0426098 0.697152
-0.173999 -0.0678572 0.614639
0.0450344 -0.0652175 0.699485
0.00488824 0.0388527 0.160755
-0.0188975 -0.0433988 0.0476075
0.00266096 -0.0806952 0.60478
-0.385026 -0.0797544 0.532702
-0.0132953 -0.0618368 0.142187
-0.0404676 -0.0605592 0.883939
0.0317634 -0.0444686 0.283118
-0.0422677 -0.0824867 0.242686
0.0184215 -0.122701 0.488167
0.0530756 -0.0508062 0.139977
0.0317494 -0.113106 0.51343
0.00928745 -0.117244 0.884222
-0.340886 -0.0681028 0.53357
0.197555 -0.0689763 0.574478
0.0235164 -0.0351648 0.424664
0.245004 -0.0830687 0.55483
0.00634146 0.0780164 0.120055
-0.0290228 -0.0832458 0.940476
-0.000824992 0.0803834 0.145756
0.00201553 -0.0803649 0.715294
-0.122588 -0.0829152 0.581484
-0.0528021 -0.0678572 0.628449
0.0246859 -0.0357001 0.747365
-0.0101381 -0.0924447 0.14095
-0.0243968 -0.0830687 0.635603
0.00076194 -0.028137 0.208531
-0.0820851 -0.0830619 0.640156
0.00651673 -0.125377 0.721712
0.0421269 -0.101374 0.608288
-0.386974 -0.0779138 0.516247
-0.00904083 0.00567976 0.135872
0.0253937 -0.0496152 0.898473
-0.0254729 -0.121393 0.561354
0.109115 -0.0875803 0.619995
0.0362201 -0.071645 0.605306
-0.0459565 -0.0976413 0.557095
-0.153941 -0.0793647 0.641748
0.120771 -0.0496284 0.110402
0.384694 -0.080979 0.538429
0.00494044 -0.0794165 0.688966
-0.0347849 -0.0671444 0.174675
0.0177374 -0.0380303 0.879056
0.107 -0.0830687 0.648762
-0.00384089 0.0232546 0.112755
0.00467569 -0.0290882 0.118329
0.241925 -0.0678572 0.589431
0.0609659 -0.0830687 0.686788
0.22225 -0.0678572 0.60444
0.00103813 0.0816462 0.138743
-0.00355634 -0.0937148 0.974904
0.0277927 -0.116553 0.713909
0.0362552 -0.0479325 0.415485
-0.135775 -0.0760158 0.649779
-0.00394822 0.0843312 0.102802
-0.000265234 0.0664538 0.124477
-0.103335 -0.0680337 0.662681
0.253282 -0.0711995 0.558735
0.334059 -0.0830687 0.536819
-0.0132129 -0.0316781 0.359155
0.133982 -0.0857209 0.619698
-0.0387299 -0.0826658 0.208685
0.0471411 -0.0733122 0.468893
0.0258483 -0.103289 0.234542
-0.0894877 -0.0678572 0.61564
0.342981 -0.071964 0.530768
-0.00578995 0.039858 0.157665
-0.0203332 -0.0401416 0.0641093
0.0168017 -0.0892536 0.141781
-0.0602453 -0.046306 0.0906483
0.34518 -0.0830687 0.553243
-0.0375554 -0.0461057 0.592018
-0.0410731 -0.0493192 0.751664
-0.0620777 -0.0880615 0.18456
-0.25708 -0.0678572 0.566527
0.105437 -0.0844892 0.641636
-0.0244315 -0.0343276 0.59888
0.0521477 -0.0759051 0.232017
0.0265565 -0.054349 0.105468
0.010376 -0.0745979 0.62243
0.0313956 -0.113296 0.566876
-0.00841637 -0.00838483 0.190418
0.0276671 -0.0807785 0.638525
0.0357379 -0.0466315 0.792874
0.0169971 -0.0325536 0.22169
-0.00817431 -0.0747438 0.634268
-0.0552412 -0.0833333 0.593827
-0.0679607 -0.0422675 0.143022
0.114514 -0.0678495 0.593864
-0.0526458 -0.0521275 0.110718
-0.0355818 -0.0576348 0.130436
0.141209 -0.0678572 0.622002
0.0399422 -0.0907687 0.866093
-0.0304691 -0.0638577 0.12054
-0.0370099 -0.110045 0.75266
-0.0293882 -0.0437611 0.136305
0.109416 -0.0678572 0.624161
-0.00144699 -0.0282669 0.51138
-0.228522 -0.0830687 0.577916
-0.0438089 -0.103832 0.473511
0.0601622 -0.0899619 0.144906
-0.00143813 0.0430221 0.143712
0.177826 -0.0830687 0.63118
-0.00506691 0.0676477 0.113233
0.07488 -0.0830687 0.667906
0.0384565 -0.106082 0.615453
0.00920628 -0.0679986 0.163038
0.0436536 -0.0747929 0.859565
-0.0314193 -0.0398976 0.663972
0.0318484 -0.0449452 0.24237
-0.0329589 -0.0416478 0.488854
-0.0456886 -0.0987335 0.425392
-0.210588 -0.0830687 0.5865
-0.00472768 -0.0397937 0.218906
-0.0297607 -0.117829 0.522423
0.047163 -0.0823445 0.752069
0.0253763 -0.0639571 0.108458
-0.00259982 0.0165431 0.16734
0.0144086 -0.0357074 0.0671961
0.172318 -0.0678572 0.595474
0.0437036 -0.0776168 0.863529
-0.0460888 -0.0589265 0.570661
-0.114896 -0.0830687 0.622949
0.114012 -0.0478505 0.0971157
-0.0235365 -0.0862561 0.144547
-0.0247501 -0.0950205 0.182462
-0.0114945 -0.0820288 0.107199
0.0412985 -0.0886398 0.302541
-0.00537815 0.0455348 0.157136
-0.0257201 -0.0346683 0.603185
0.0325595 -0.0434774 0.783716
0.0650004 -0.0830687 0.609474
-0.113232 -0.0678572 0.647226
0.0414459 -0.0910338 0.155812
0.045046 -0.0817935 0.11673
0.354277 -0.0808606 0.551479
-0.00951416 -0.0518465 0.113892
-0.0290945 -0.1184 0.552514
0.0141299 -0.0758978 0.62939
0.0268801 -0.0449223 0.0962727
0.0632336 -0.0678572 0.651395
0.0203405 -0.0671336 0.184932
0.00037111 0.0709032 0.141332
0.0550107 -0.0722069 0.170851
0.017006 -0.0779439 0.64486
-0.045495 -0.0562201 0.809162
0.0300094 -0.0409197 0.786588
0.136787 -0.0813695 0.575357
0.0119343 -0.0550887 0.931929
0.131196 -0.0830687 0.647305
-0.00239401 0.0124412 0.183042
0.0456489 -0.0885393 0.388328
-0.000868813 0.0321769 0.189446
-0.0299855 -0.0485326 0.12522
-0.0493481 -0.0817193 0.362388
-0.0486148 -0.0684191 0.617561
0.0241306 -0.0365039 0.317649
-0.00349507 -0.0724432 0.613127
-0.128113 -0.0678572 0.618406
-0.00864106 -0.0305507 0.0356223
-0.0452092 -0.0999237 0.665319
0.328511 -0.0678572 0.55613
-0.0287769 -0.0479408 0.155656
0.00466777 0.0425622 0.145457
-0.00611285 -0.00398261 0.107147
0.00641917 -0.0830687 0.682781
0.0639242 -0.0826192 0.170087
-0.0773694 -0.043597 0.0940788
-0.00341476 -0.127001 0.683102
0.0377454 -0.0498031 0.350518
-0.0982039 -0.0678572 0.657138
0.0113048 -0.0586422 0.934179
0.0594549 -0.07454 0.203807
-0.044178 -0.0766658 0.248891
0.00435213 -0.0535126 0.0969444
0.157607 -0.0638366 0.0908043
0.0123113 -0.092282 0.144837
-0.0195719 -0.0631228 0.933049
-0.113927 -0.0830687 0.615346
-0.00721798 -0.0433137 0.167383
-0.292381 -0.0678572 0.559561
-0.0150772 -0.0752554 0.699595
-0.0213264 -0.0989901 0.942376
0.104798 -0.0830687 0.667232
-0.123473 -0.0678572 0.644179
0.00461118 -0.0297927 0.563014
-0.00417597 -0.000727452 0.155405
0.0120108 -0.104666 0.201427
-0.0319105 -0.115737 0.463701
0.011462 -0.122447 0.827531
0.00117913 0.0806811 0.136499
-0.0406501 -0.107019 0.433761
-0.00227505 0.0414756 0.120402
-0.328884 -0.0830687 0.532333
-0.0320703 -0.115539 0.516042
0.275164 -0.0830687 0.546949
0.264947 -0.0678572 0.560194
0.0706586 -0.0830687 0.609088
-0.202526 -0.0678572 0.593011
-0.164131 -0.0744117 0.573636
0.0487968 -0.0830687 0.610664
0.0147361 -0.073022 0.0900123
-0.00371081 -0.0100921 0.199803
0.0175958 -0.122984 0.428458
-0.0511227 -0.0785065 0.529508
-0.0227999 -0.122198 0.52995
0.047741 -0.0801836 0.654073
0.0483891 -0.0784462 0.524032
-0.050417 -0.0804903 0.751616
0.386817 -0.0830687 0.524668
0.0229541 -0.0350095 0.356418
-0.260671 -0.0710644 0.586146
0.148238 -0.0830687 0.636537
-0.087882 -0.0466561 0.0976275
0.13671 -0.0729683 0.582101
-0.0394766 -0.10815 0.493708
-0.0222998 -0.0339406 0.192963
-0.0337982 -0.0662172 0.169983
-0.0190978 -0.0740264 0.694285
0.0356009 -0.108688 0.760684
-0.00460915 -0.0208508 0.239255
-0.0331377 -0.0420585 0.415296
0.0199609 -0.064734 0.178541
-0.0140978 -0.0315639 0.304818
-0.00533764 -0.0295108 0.440159
-0.0940107 -0.0678572 0.661523
0.00298754 -0.126528 0.61456
-0.0642411 -0.0723506 0.127291
-0.0462789 -0.0965241 0.420714
0.381486 -0.0830687 0.535801
0.0626837 -0.0778945 0.183777
-0.067959 -0.0830687 0.673939
0.0452557 -0.081511 0.338173
-0.00264521 -0.00929155 0.224756
0.0243271 -0.0684902 0.640351
-0.000879361 0.0377109 0.174758
0.0451065 -0.0901343 0.630945
0.00298244 -0.0295893 0.345793
0.0182955 -0.0334037 0.616691
0.118203 -0.0645817 0.124653
-0.0565148 -0.0830687 0.632248
-0.0786962 -0.0511376 0.157709
0.0210554 -0.0526637 0.0720915
-0.0459486 -0.0588966 0.407076
0.108744 -0.0473975 0.104232
-0.00653098 0.0253619 0.169058
0.0462902 -0.0862322 0.449855
-0.0459151 -0.0714295 0.126349
0.209747 -0.0722937 0.568341
0.107111 -0.0830687 0.647297
-0.293715 -0.0830687 0.5682
-0.147929 -0.0830687 0.611362
0.0457696 -0.0875438 0.720477
0.0632879 -0.0801594 0.21862
0.101833 -0.0678572 0.649552
0.0425104 -0.055823 0.692906
-0.0184459 -0.0323933 0.764611
0.252958 -0.0830687 0.581611
0.0452906 -0.0662223 0.559831
-0.0801668 -0.0403288 0.138285
0.00581726 -0.053744 0.10947
-0.0475609 -0.0917062 0.39671
-0.127723 -0.0678572 0.645192
0.00182797 -0.0208657 0.196174
-0.00496069 -0.0138613 0.159549
-0.256459 -0.0678572 0.567984
-0.014923 -0.032228 0.387521
-0.0331288 -0.0421216 0.392469
-0.0476355 -0.0914572 0.417797
-0.0195186 -0.0757165 0.615629
0.000358931 -0.0403492 0.905087
0.0705303 -0.0679268 0.607803
0.0426356 -0.0898634 0.243454
0.0416968 -0.0767365 0.887513
0.13923 -0.0830687 0.613443
-0.0117011 -0.124851 0.643268
-0.0423048 -0.0508842 0.551056
-0.00489445 -0.0358516 0.100992
-0.0441325 -0.0844116 0.28414
-0.054122 -0.0641032 0.212277
0.0194755 -0.103957 0.923009
0.0447442 -0.0744079 0.845881
0.0249707 -0.0388681 0.208602
0.00380808 0.0379945 0.128149
-0.0395255 -0.108151 0.423428
-0.110374 -0.0692168 0.590046
-0.0452703 -0.086955 0.849516
-0.00312728 -0.0406461 0.11693
-0.0346911 -0.107104 0.851416
0.0457866 -0.0876908 0.612952
0.00959607 -0.0482086 0.920059
0.18557 -0.0678572 0.621136
-0.206092 -0.0830687 0.577898
0.0226687 -0.0489561 0.0838106
-0.0523373 -0.0714457 0.688969
-0.106572 -0.0840005 0.623876
0.0567905 -0.0830687 0.6602
-0.0453215 -0.0571062 0.374211
-0.232798 -0.0678572 0.568184
-0.00904353 -0.125503 0.675985
0.110144 -0.0848368 0.63969
0.0894814 -0.0830281 0.587121
0.0397148 -0.0579303 0.273304
-0.0445458 -0.053138 0.533104
-0.0378824 -0.10079 0.874514
-0.029769 -0.0683655 0.64869
0.387326 -0.0830687 0.523637
-0.0111017 -0.0235424 0.140507
-0.021562 -0.0661461 0.0822065
0.396621 -0.0830687 0.515318
-0.15192 -0.083614 0.63073
-0.0440082 -0.0833221 0.159695
-0.267819 -0.0678572 0.569348
-0.0470854 -0.0934752 0.548152
-0.194684 -0.0678572 0.58319
0.00109183 0.114984 0.095778
0.014096 -0.0320242 0.741125
-0.394592 -0.0830687 0.521408
-0.276907 -0.0678656 0.577827
-0.000717276 -0.0292381 0.209807
-0.0197916 -0.099548 0.944863
-0.331344 -0.0830687 0.549458
0.00872833 -0.0651769 0.149997
-0.0158077 -0.0645263 0.155671
0.0443899 -0.0633818 0.404865
0.00317926 -0.0774924 0.678525
0.044799 -0.0741841 0.121462
-0.0827946 -0.0391153 0.133538
0.031725 -0.0830687 0.637556
0.0267352 -0.0384736 0.396102
-0.0184438 -0.123452 0.47033
-0.00768312 0.0230681 0.137377
-0.00290097 -0.123351 0.848393
-0.0356843 -0.0548364 0.117372
-0.00214072 0.00607459 0.210874
-0.00669444 -0.0473389 0.0919232
0.00235138 -0.0806586 0.604887
0.0187565 -0.122054 0.752875
0.00102064 -0.126956 0.649693
-0.0266639 -0.0997551 0.209647
0.0463379 -0.085423 0.7258
-0.0324445 -0.0409513 0.653212
0.0239625 -0.0602994 0.0959248
0.0460609 -0.0754008 0.328061
-0.000429804 0.0333751 0.194183
-0.00565937 0.0396716 0.162344
0.0236402 -0.0506453 0.904492
0.0407562 -0.0561084 0.323576
0.124359 -0.0583248 0.0832359
-0.00406956 -0.0126652 0.194474
0.043802 -0.0613258 0.378633
-0.0155496 -0.0332915 0.0763913
0.000971368 -0.0290133 0.46361
0.0118019 -0.059313 0.0488819
-0.0648353 -0.0708882 0.136241
0.119677 -0.0478099 0.102276
0.00834993 -0.0546228 0.140279
0.0467033 -0.0847499 0.492135
-0.0116153 -0.0559 0.108291
0.0430493 -0.0578933 0.677765
-0.0620228 -0.0823086 0.135989
-0.0326869 -0.0412688 0.547843
-0.0482457 -0.0885919 0.700343
-5.4745e-05 -0.0850999 0.109606
-0.0233275 -0.0340556 0.576008
0.0206627 -0.0378 0.128296
0.0137471 -0.0830687 0.615828
-0.0105199 -0.00883957 0.123443
-0.351168 -0.0704008 0.527206
-0.0038718 -0.0354116 0.242285
0.0052271 0.0440491 0.160022
-0.0158615 -0.0830687 0.671779
-0.04619 -0.0406973 0.127934
-0.042055 -0.0757234 0.203876
-0.00905543 -0.0432027 0.107639
0.0161035 -0.0830687 0.705449
0.00823335 -0.117242 0.887007
0.0473087 -0.0733464 0.791521
-0.0301357 -0.116103 0.818551
-0.0215711 -0.0397662 0.07368
-0.381639 -0.0830687 0.514792
-0.0433305 -0.0825477 0.882883
0.0454185 -0.0889374 0.637062
-0.0267864 -0.0658611 0.104083
-0.013064 -0.0686314 0.0677341
0.0108865 -0.0791985 0.0996297
0.0429012 -0.0780146 0.870971
0.04037 -0.0957663 0.847205
0.0146484 -0.0742006 0.0930993
0.0116227 -0.0830687 0.633489
0.0435755 -0.0600141 0.467156
-0.0213678 -0.0490231 0.14629
-0.0449141 -0.101026 0.711435
-0.170999 -0.0380283 0.0867765
0.133418 -0.0855622 0.633018
-0.0475981 -0.0659694 0.370997
-0.00535943 -0.0380802 0.89711
-0.253807 -0.0830687 0.569991
0.106313 -0.0830687 0.639348
-0.0271108 -0.0358042 0.487423
0.0526425 -0.0830687 0.632969
-0.00229259 0.0273631 0.154281
0.0383673 -0.0832516 0.595035
-0.00204087 0.00381157 0.216014
0.0259752 -0.114574 0.840248
0.174084 -0.0830687 0.601315
-0.00233991 0.0356219 0.133204
-0.151823 -0.0677408 0.584921
-0.00442815 -0.00925318 0.174533
-0.0479161 -0.0901241 0.595856
0.0354037 -0.0922399 0.225908
-0.125683 -0.0832209 0.591343
0.0298668 -0.0426349 0.276579
-0.0345211 -0.0855761 0.183778
0.0591032 -0.0764468 0.254284
0.156562 -0.0879002 0.622874
-0.0446478 -0.0765519 0.694788
-0.00850477 -0.125718 0.639482
0.0265818 -0.0409162 0.19495
0.0190725 -0.11746 0.856408
-0.0375009 -0.0962106 0.250981
-0.0131781 -0.122177 0.348321
-0.0338292 -0.0670462 0.185231
-0.0110439 -0.0379622 0.143519
-0.0164908 -0.124046 0.402441
0.0412885 -0.0829841 0.243568
-0.0433187 -0.0926026 0.854214
0.0766787 -0.0678572 0.661266
-0.134041 -0.0466273 0.113899
0.00226837 -0.0378307 0.896665
0.0193798 -0.0345812 0.167858
-0.0301592 -0.0388798 0.47878
0.168774 -0.0678572 0.624106
-0.00424769 -0.0308323 0.233051
0.00366939 -0.0288962 0.2046
-0.130109 -0.0419176 0.0904518
-0.00158147 -0.0830687 0.629593
-0.00375028 -0.0579356 0.0284996
-0.0418287 -0.088384 0.262567
0.00484583 0.0385895 0.159984
0.0399678 -0.0534961 0.320662
0.0227436 -0.0769866 0.602365
0.0016728 0.0445134 0.177011
-0.329109 -0.0678572 0.547734
0.24307 -0.0706414 0.561862
0.0561558 -0.0678572 0.671287
-0.137314 -0.0729944 0.580172
0.0413999 -0.05861 0.322705
0.0284249 -0.0991753 0.225744
-0.0937195 -0.0830687 0.646723
0.0287213 -0.0400591 0.549617
-0.00475589 -0.0458914 0.129044
0.157675 -0.0830687 0.620931
-0.00531107 -0.0190015 0.159788
0.0359894 -0.108929 0.424801
-0.0257131 -0.121177 0.614846
0.22203 -0.0678572 0.581798
0.284549 -0.0703444 0.550457
0.0094081 -0.0764211 0.648975
0.0353546 -0.0677424 0.152544
0.026762 -0.0485886 0.120954
-0.0362816 -0.0542962 0.115055
-0.0352258 -0.0439576 0.475223
-0.0322231 -0.0405449 0.722934
-0.00434825 0.0563283 0.153502
0.0122702 -0.0314127 0.24289
-0.328273 -0.0817163 0.558317
0.00175052 -0.0013788 0.149992
0.217394 -0.0830687 0.605917
0.0267884 -0.117637 0.651297
-0.0160983 -0.0770783 0.604042
0.0445325 -0.0928766 0.510061
0.00133259 -0.0537414 0.0990889
0.174951 -0.0716502 0.630294
0.16898 -0.0678572 0.622144
0.0145321 -0.0610084 0.932322
0.0276263 -0.0830687 0.678499
-0.00757781 -0.0505662 0.127349
0.00679018 -0.118045 0.882929
-0.225544 -0.0678572 0.57104
-0.104596 -0.0879295 0.619432
0.0445445 -0.0602363 0.114136
-0.00352619 0.0263144 0.116916
-0.00863835 -0.00239045 0.168599
0.0482103 -0.077156 0.496751
-0.0249432 -0.0695127 0.650759
-0.10814 -0.0678572 0.618869
-0.00737728 -0.0317593 0.134023
-0.00332475 0.0352675 0.102528
-0.0581796 -0.0556634 0.129239
-0.0449136 -0.101028 0.743569
-0.00287724 -0.0294948 0.830566
0.0123448 -0.123805 0.728634
0.125142 -0.0830687 0.615715
0.0613463 -0.076607 0.159622
0.0332831 -0.109218 0.825796
0.0446452 -0.0787518 0.232651
0.00310316 0.00407674 0.181079
0.0174121 -0.0819353 0.675265
-0.0316287 -0.03859 0.112891
0.0350838 -0.0564816 0.189735
0.0423866 -0.0775897 0.597426
0.0416796 -0.0529475 0.64713
-0.0391808 -0.0490632 0.289978
-0.181509 -0.0830687 0.628156
-0.124118 -0.0847451 0.614172
0.0270271 -0.0388394 0.376026
-0.0375397 -0.109607 0.677938
0.0350427 -0.0760617 0.909195
-0.0454481 -0.0562336 0.760626
-0.00264816 -0.0390455 0.115109
0.0109922 -0.0581433 0.945291
-0.0345747 -0.112524 0.717067
0.127376 -0.0830687 0.642411
-0.0445066 -0.0568557 0.826261
0.000817381 -0.0467182 0.92245
-0.00513165 -0.0286229 0.186922
0.173557 -0.0742238 0.574361
0.0246065 -0.0359049 0.604748
-0.0475317 -0.0744074 0.599133
-0.162449 -0.0678572 0.616445
-0.0472687 -0.0659702 0.822613
0.0181362 -0.0333313 0.645196
-0.0334352 -0.0419281 0.658488
-0.0184696 -0.0327376 0.591708
0.0401309 -0.0561766 0.302423
0.0370461 -0.107431 0.635061
-0.0492964 -0.0846733 0.806368
-0.124004 -0.0310926 0.110626
-0.0268646 -0.0405725 0.139225
-0.0123101 -0.0314548 0.362026
-0.0466718 -0.0611557 0.669161
-0.0667488 -0.0823015 0.172821
0.017766 -0.0331973 0.291168
-0.0331394 -0.0523501 0.104827
0.0962065 -0.0583767 0.087067
-0.128584 -0.0853433 0.637104
0.109348 -0.0807147 0.664699
-0.187979 -0.0781066 0.624287
-0.0305785 -0.116417 0.801907
-0.00367316 -0.0830687 0.681086
-0.037416 -0.0483079 0.0889401
0.0180155 -0.034407 0.832065
-0.00305421 0.00372715 0.181335
-0.0225723 -0.121784 0.742913
-0.0427629 -0.104577 0.601426
0.0421508 -0.061829 0.122444
0.128471 -0.0678572 0.625292
0.00123483 -0.0231417 0.189491
-0.0273021 -0.0708056 0.113723
-0.0398834 -0.0486633 0.459957
-0.0275454 -0.119306 0.814023
0.0408122 -0.07282 0.174377
-0.0453342 -0.0561709 0.614091
0.0296419 -0.0409723 0.560106
-0.00594638 -0.126509 0.602127
0.129273 -0.0579488 0.0823155
0.0629884 -0.0790027 0.194122
0.000959369 -0.127485 0.386542
-0.00770837 0.00980912 0.168923
-0.0510838 -0.0670034 0.105108
-0.0469353 -0.0701007 0.122358
0.0393009 -0.10498 0.766661
-0.0216271 -0.033764 0.177466
-0.00588325 -0.036795 0.181088
0.0633417 -0.0821887 0.155738
-0.0120408 -0.0302165 0.126402
0.0442516 -0.0932065 0.655873
0.0221576 -0.034762 0.438289
-0.0487155 -0.0868392 0.713242
0.233015 -0.0830687 0.57455
0.093292 -0.0830687 0.653278
0.312866 -0.0830687 0.549568
0.0407358 -0.0766933 0.223533
-0.0325332 -0.0680417 0.919516
-0.0209145 -0.122751 0.508217
-0.00859363 -0.0140622 0.19854
-0.000859447 -0.0283469 0.543674
-0.00409204 0.0196214 0.197983
-0.0448493 -0.0627081 0.309365
0.401707 -0.0816865 0.527939
0.0470791 -0.072795 0.713262
0.0200622 -0.03428 0.363447
0.0732022 -0.0667639 0.134509
0.0369345 -0.0543762 0.222915
-0.089056 -0.0678572 0.654002
-0.213098 -0.0830687 0.606028
-0.0467183 -0.0614234 0.472766
0.0716536 -0.0830687 0.656066
-0.0147235 -0.108595 0.22031
0.0188667 -0.122455 0.550386
0.047632 -0.0671004 0.172331
0.0126105 -0.0578551 0.929653
0.0653899 -0.0489269 0.126803
0.260358 -0.070228 0.557894
-0.00954098 -0.0564764 0.124326
-0.00119031 0.0315951 0.178897
-0.000284619 -0.0117583 0.108056
0.0453423 -0.0663779 0.696606
0.323179 -0.0725014 0.562898
-0.0238728 -0.0491564 0.150763
0.0506322 -0.0830687 0.624282
-0.162196 -0.039081 0.0885752
0.352852 -0.0706687 0.532904
-0.0591324 -0.0874572 0.252896
0.00482276 -0.123615 0.347663
0.0188991 -0.0490322 0.138332
0.0132604 -0.0690461 0.616803
-0.0451687 -0.0555526 0.613655
0.0327128 -0.0611557 0.143871
0.0154207 -0.0328294 0.483328
-0.0385244 -0.10515 0.837503
0.369403 -0.0828985 0.515197
-0.041774 -0.0507584 0.39507
-0.0322127 -0.040874 0.497598
0.0424687 -0.10045 0.417823
-0.0445277 -0.102469 0.767546
-0.0956427 -0.0830508 0.590957
-0.0200763 -0.037267 0.0827425
-0.0723555 -0.0678572 0.664227
0.0430731 -0.0678572 0.628897
-0.296347 -0.0694404 0.54336
0.045759 -0.0679645 0.555557
-0.030305 -0.0388591 0.586754
-0.145489 -0.0830687 0.590112
0.00400106 -0.126601 0.453212
-0.00328636 0.0187929 0.202753
0.219734 -0.0678572 0.583435
-0.276648 -0.068269 0.578052
-0.0675786 -0.0750608 0.186656
0.021139 -0.0337736 0.81338
0.00581795 0.0641747 0.134128
-0.0120954 -0.028105 0.119479
0.0178562 -0.0336215 0.433993
-0.0392437 -0.108049 0.616546
0.0411365 -0.0971205 0.339303
0.0431557 -0.0834194 0.852771
0.00114872 -0.126909 0.654668
-0.173973 -0.0679032 0.627619
-0.0340604 -0.113255 0.60907
0.000349805 -0.0289027 0.443822
-0.0269698 -0.12029 0.626734
0.0141809 -0.0344402 0.079155
-0.00717213 0.0172557 0.168101
0.00865548 -0.0958172 0.154451
-0.0483668 -0.0583916 0.138524
-0.0434603 -0.0836808 0.87825
-0.0249398 -0.0539062 0.16439
0.0384822 -0.101408 0.33193
-0.00106619 -0.0830687 0.644766
-0.00295652 0.01737 0.154106
-0.0135535 -0.0308133 0.206093
0.05254 -0.0510388 0.0898498
0.0287911 -0.115931 0.557214
0.00561432 0.105902 0.09865
0.000665419 0.0849281 0.109499
-0.0200637 -0.0540802 0.0573053
-0.0860657 -0.0830687 0.65107
0.0413443 -0.052272 0.780046
-0.0496275 -0.0834356 0.703168
-0.0344754 -0.112893 0.592511
-0.0182146 -0.0698886 0.637579
-0.0348296 -0.102015 0.27937
-0.00879241 -0.0295319 0.20498
0.106441 -0.0582249 0.13149
-0.00428151 -0.0564758 0.946687
-0.122951 -0.0678572 0.60643
0.00310091 -0.120265 0.307249
-0.00684193 -0.126646 0.388888
0.00140194 -0.0754743 0.974157
0.000231945 0.0813692 0.104154
-0.327027 -0.0690358 0.533637
-0.0509688 -0.0771615 0.496407
-0.152333 -0.0830687 0.581191
0.244399 -0.0678572 0.593029
0.26909 -0.0678572 0.568424
0.0333986 -0.0449977 0.440264
-0.00617555 -0.0130158 0.127161
-0.00546523 -0.12701 0.39292
0.0379475 -0.0705157 0.164607
0.127463 -0.0678572 0.650958
0.2503 -0.0830687 0.564926
-0.0267119 -0.111607 0.292751
0.0461633 -0.0830687 0.683701
-0.0232093 -0.039605 0.887263
-0.0333434 -0.0830687 0.643864
-0.138564 -0.0436284 0.101467
-0.0383916 -0.0622074 0.176234
-0.0611493 -0.0886482 0.210264
-0.165693 -0.0344311 0.102517
-0.0127353 -0.12505 0.405119
0.0193806 -0.100142 0.935899
0.0185292 -0.0584307 0.161261
-0.130546 -0.0678572 0.618433
-0.299697 -0.0830687 0.555038
0.209521 -0.0830687 0.583647
-0.0181569 -0.0830687 0.682711
-0.0508161 -0.0766356 0.618752
-0.0333455 -0.113643 0.807597
0.0107921 -0.0793649 0.672804
-0.0378096 -0.0994513 0.283137
-0.0532727 -0.0643323 0.209865
-0.0115712 -0.0581326 0.152848
-0.0496833 -0.0832274 0.71427
-0.0455468 -0.0986652 0.749849
0.0036695 -0.0298926 0.40832
-0.235317 -0.0678572 0.591489
-0.00872962 -0.0327129 0.851535
-0.04755 -0.0769997 0.30905
0.0204278 -0.0679524 0.0917616
-0.0417396 -0.105952 0.401862
0.0479334 -0.0765318 0.419087
0.0793354 -0.0678572 0.623623
0.12996 -0.0678572 0.626035
-0.191369 -0.0830687 0.619683
0.180314 -0.0752035 0.57216
0.400896 -0.0830687 0.527087
-0.36886 -0.0830687 0.535719
0.0441209 -0.0617591 0.712127
0.00272681 0.118811 0.110029
-0.01288 -0.0819455 0.69374
-0.00957109 0.010736 0.106366
-0.034225 -0.0446856 0.142353
0.0629279 -0.0897956 0.22032
-0.00743804 -0.0529776 0.0986294
-0.0144087 -0.0316821 0.560425
0.041758 -0.0533219 0.451412
0.0452438 -0.08339 0.346735
0.00143901 -0.12734 0.403278
-0.102484 -0.0830687 0.602026
0.0231763 -0.121007 0.655395
0.0444214 -0.0830687 0.670681
-0.0996604 -0.0526948 0.130086
0.00054859 0.0801673 0.126403
0.181717 -0.0754137 0.628413
0.000832472 0.0743969 0.148302
-0.0347707 -0.0830687 0.631057
-0.00560237 0.0397748 0.163936
-0.00462114 0.0614437 0.142806
0.01677 -0.122852 0.608711
0.018452 -0.0427292 0.0654182
-0.237908 -0.0678572 0.567024
-0.0453935 -0.0992366 0.714517
-0.0136227 -0.0675 0.174523
0.155672 -0.0876314 0.600016
-0.0111219 -0.125472 0.414324
0.00168548 -0.0287171 0.264626
0.00901153 -0.0830687 0.613159
0.163875 -0.0748025 0.636873
0.342647 -0.0830687 0.526513
0.0396973 -0.0830687 0.691322
-0.0430411 -0.0874808 0.871851
0.0531308 -0.0595841 0.108031
0.00687434 -0.0304656 0.509402
0.0605604 -0.082687 0.129552
-0.0449156 -0.0545862 0.598037
-0.0273343 -0.0374945 0.261042
-0.0793582 -0.0678572 0.60823
0.000993977 -0.0107241 0.146609
-0.378134 -0.0830687 0.527076
0.321127 -0.0704859 0.538811
0.196313 -0.0678572 0.612402
0.253695 -0.0830687 0.564361
0.0365685 -0.108026 0.597747
0.0220282 -0.0416127 0.10797
-0.0163398 -0.0583302 0.126854
-0.125878 -0.0830687 0.634098
-0.0341706 -0.0438072 0.315535
-0.000312454 0.0412086 0.184995
0.0419096 -0.0537314 0.654228
-0.0186084 -0.122769 0.797454
0.0405619 -0.0517641 0.676417
-0.0490467 -0.0861682 0.545791
0.0211827 -0.0342426 0.554039
-0.043902 -0.09837 0.345276
-0.00112081 -0.0943358 0.139655
-0.0443268 -0.0532314 0.420406
-0.0471128 -0.0933819 0.399116
-0.0279356 -0.119762 0.392414
-0.105667 -0.0360182 0.127168
0.0213901 -0.0343774 0.50161
0.0383265 -0.0496413 0.581574
0.0450916 -0.0907827 0.518441
-0.00167942 -0.0314678 0.859715
-0.0430612 -0.0822138 0.224652
-0.0474835 -0.0914375 0.747204
-0.0097686 -0.125309 0.675316
0.198591 -0.0830687 0.610403
0.0373659 -0.0771227 0.207964
0.312814 -0.0678572 0.544443
0.309588 -0.0830687 0.550465
0.040944 -0.0861955 0.248379
-0.00562133 -0.0284819 0.165335
-0.0844273 -0.0830687 0.643594
-0.0107133 -0.0443999 0.910692
0.174359 -0.0706587 0.630209
-0.0221627 -0.0334614 0.735274
-0.0047488 -0.0304188 0.215822
0.0477362 -0.0809248 0.516102
-0.0329786 -0.114155 0.688089
-0.0419466 -0.0961309 0.858784
-0.0189983 -0.0459727 0.043399
0.0629932 -0.0679586 0.143731
0.0342638 -0.110452 0.559398
0.00129466 -0.127168 0.54892
-0.00147573 0.0464879 0.13403
-0.0114686 -0.0760023 0.642178
-0.0449296 -0.0549981 0.425281
-0.0384215 -0.0469582 0.61105
-0.341394 -0.0816884 0.519678
0.0017925 -0.0830687 0.703714
-0.0323649 -0.0381488 0.111012
0.0242605 -0.0371263 0.266421
0.0329828 -0.108471 0.346111
-0.00895223 -0.108244 0.934939
0.00027181 -0.0251117 0.155548
0.0104405 -0.076422 0.709545
-0.0990234 -0.0830687 0.644456
-0.00455447 0.0526283 0.156419
0.127802 -0.0830687 0.58859
0.156976 -0.0830687 0.594202
-0.0297877 -0.117479 0.624786
0.348475 -0.0830687 0.527084
-0.0167035 -0.123595 0.613389
0.110165 -0.050848 0.0933245
0.110796 -0.0678572 0.635739
0.0863956 -0.0679246 0.603939
-0.147439 -0.0432971 0.10307
-0.00567054 -0.00461893 0.123009
0.0467133 -0.0846854 0.526906
0.00772192 -0.125569 0.487328
0.0122093 -0.0573334 0.929392
-0.00133051 -0.0414786 0.00666926
0.0346163 -0.110265 0.476935
-0.0270521 -0.050372 0.0922952
0.0171409 -0.0698605 0.0878668
-0.00516336 -0.028454 0.184112
0.0151578 -0.123144 0.663159
-0.00770743 0.0128687 0.161488
0.173473 -0.0678574 0.585914
-0.0401513 -0.0528634 0.854334
-0.0024242 -0.116012 0.252394
0.0629428 -0.0743723 0.684835
-0.150838 -0.0829351 0.608095
-0.00226147 0.0461883 0.112203
-0.0532184 -0.0830687 0.612515
-0.000797075 -0.099469 0.968954
0.0427663 -0.0568442 0.676005
-0.00114084 -0.0863762 0.112914
0.0358255 -0.0474067 0.445923
0.131081 -0.0841008 0.628897
-0.0200344 -0.0328289 0.760566
-0.369322 -0.0738567 0.524888
-0.0449887 -0.1014 0.529056
-0.134555 -0.0678572 0.596284
-0.168017 -0.0352036 0.09589
0.00049517 0.059796 0.165337
-0.122623 -0.0678572 0.61728
0.0514495 -0.0974252 0.237492
0.000579521 0.0603495 0.166715
-0.00700085 -0.0352413 0.141923
-0.0502693 -0.0813109 0.601764
0.00539994 -0.0830687 0.607434
-0.16661 -0.0678572 0.617628
-0.0481746 -0.0890581 0.615093
0.0429326 -0.0987234 0.421483
0.0336024 -0.0465435 0.258595
0.0428267 -0.056367 0.169654
0.0477835 -0.0435172 0.107829
0.339397 -0.0830687 0.528329
-0.248143 -0.0830687 0.570438
0.039498 -0.105244 0.550937
-0.0196607 -0.0327037 0.770778
-0.0669145 -0.0817088 0.193816
-0.0380582 -0.100127 0.878119
0.043944 -0.0791452 0.30429
0.0340191 -0.110799 0.526954
-0.0443244 -0.0827981 0.154708
0.13724 -0.0830687 0.60707
-0.044967 -0.0548274 0.633494
0.0199043 -0.098759 0.938733
-0.047834 -0.0660092 0.392584
-0.0276624 -0.119365 0.775862
-0.0479578 -0.0804707 0.839343
-0.0181909 -0.0371159 0.0627896
-0.0189211 -0.0566705 0.0553425
0.0324973 -0.0439839 0.475882
-0.00138196 -0.0281671 0.583661
-0.0199369 -0.0830687 0.692012
-0.12502 -0.0834093 0.623945
0.0239892 -0.086403 0.155378
-0.0143555 -0.0644227 0.0607025
-0.00450086 0.0734845 0.103851
-0.0245715 -0.0343465 0.616769
0.042054 -0.0574595 0.354335
-0.042038 -0.0784111 0.210024
0.0273004 -0.117621 0.420581
0.0668665 -0.070307 0.153349
-0.0176128 -0.0324972 0.602109
0.101895 -0.0830687 0.609163
0.0412907 -0.0581082 0.835373
0.0883502 -0.0628949 0.111012
-0.112638 -0.0678572 0.635426
-0.00315753 0.0179586 0.146375
0.0330727 -0.0443969 0.568534
-0.0454482 -0.0994041 0.58256
0.0177164 -0.0331461 0.160729
0.0357991 -0.0485961 0.273608
0.0444058 -0.063308 0.430088
-0.0197786 -0.0715546 0.663664
0.0200416 -0.115815 0.869979
-0.0134537 -0.0309499 0.807622
0.0426999 -0.0564583 0.711417
-0.0799662 -0.0528791 0.157327
-0.370326 -0.0733719 0.534773
0.00877782 -0.124835 0.676207
0.0207071 -0.0341079 0.31011
0.021923 -0.0821417 0.136138
-0.0098676 -0.0302956 0.283959
0.00483348 -0.0993751 0.166664
-0.024851 -0.0727302 0.692756
-0.0414365 -0.0546628 0.854711
-0.0798674 -0.0341921 0.106358
-0.0191454 -0.0653571 0.0744868
-0.0499805 -0.0821176 0.690792
-0.0839342 -0.0852318 0.635305
0.173576 -0.0678572 0.612874
-0.0349474 -0.0435376 0.53616
-0.0281236 -0.0462689 0.891291
-0.00324737 -0.028681 0.0572616
0.0445151 -0.0634529 0.648698
0.0157689 -0.0328968 0.492513
0.332472 -0.0744999 0.531881
-0.00574633 -0.00443863 0.120115
0.0127218 -0.060747 0.127838
0.0016015 -0.0830687 0.668759
-0.0607817 -0.0678572 0.674357
-0.276053 -0.0701554 0.578832
0.0261933 -0.104574 0.249302
0.0123845 -0.0315289 0.756052
0.0040336 -0.029055 0.216708
0.133543 -0.0656322 0.107765
0.0258654 -0.0372141 0.534456
0.0223154 -0.0351782 0.827224
-0.0371144 -0.107591 0.829877
0.0443155 -0.0678572 0.618242
-0.00144076 0.0885772 0.137781
0.147135 -0.0830687 0.632045
-0.052991 -0.0450015 0.150502
-0.0309395 -0.116575 0.546034
0.0179042 -0.078577 0.602349
0.00668455 -0.125785 0.527034
0.046655 -0.0842411 0.771841
0.0348545 -0.0464146 0.452612
-0.168456 -0.0745155 0.572708
0.0566381 -0.045084 0.111921
0.0261478 -0.0849511 0.158264
0.373272 -0.0746006 0.529798
0.00685002 -0.100605 0.175194
0.0354119 -0.0477965 0.316512
0.028014 -0.116442 0.641846
0.000174274 -0.0235936 0.149054
0.035857 -0.0830687 0.656928
0.0462004 -0.0701303 0.816044
-0.00936592 -0.0300799 0.271389
-0.00128973 0.0495413 0.135792
0.0247862 -0.120119 0.442965
-0.00290054 0.0189219 0.155209
0.0898503 -0.0830687 0.662115
-0.0504464 -0.0501376 0.173111
-0.00494913 -0.0291132 0.593089
0.073427 -0.0602608 0.103985
-0.014773 -0.0320999 0.359742
-0.00951309 -0.00940593 0.157421
-0.0112848 -0.102166 0.955926
0.020281 -0.0996919 0.194567
0.211295 -0.0747848 0.565479
-0.0176773 -0.0529573 0.102175
-0.150891 -0.079754 0.643376
0.0139292 -0.0336938 0.836914
0.0453072 -0.0678572 0.682926
0.0334607 -0.111063 0.620322
-0.0181985 -0.0743419 0.0957411
0.0414671 -0.0527951 0.562838
0.144938 -0.0544212 0.109853
-0.0146899 -0.0318409 0.502501
-0.044767 -0.0819528 0.869223
-0.0383923 -0.0645506 0.182478
-0.00184285 -0.0791315 0.701707
-0.108875 -0.0830687 0.589118
-0.0463183 -0.0957865 0.775139
-0.0394243 -0.0627509 0.188423
0.0124482 -0.0830687 0.67621
0.0115394 -0.12462 0.41649
-0.00963654 -0.0135866 0.163624
0.00509912 -0.123649 0.348813
-0.0423483 -0.0988391 0.846731
-0.0115699 -0.0524598 0.0976605
0.276502 -0.0830687 0.557821
-0.136508 -0.0701985 0.583163
0.284972 -0.0830687 0.560278
0.0142509 -0.12335 0.689534
-0.024791 -0.0811693 0.653863
-0.00978182 -0.125113 0.812359
-0.0103192 -0.0093596 0.131209
0.0671148 -0.0708866 0.159237
-0.00662174 -0.0490458 0.161081
-0.0251311 -0.0355881 0.230157
-0.0130856 -0.0309103 0.783605
-0.0283871 -0.0977 0.923334
-0.148359 -0.0439976 0.106677
0.0371737 -0.0566795 0.878173
-0.0296074 -0.106124 0.891531
0.0381979 -0.0834311 0.193533
0.12058 -0.0678572 0.613509
0.0433455 -0.0635771 0.342918
0.0161386 -0.0322226 0.201698
-0.0120204 -0.102181 0.185904
-0.000574834 0.0628483 0.129032
0.0409451 -0.0664643 0.865015
0.0517228 -0.0710909 0.142438
0.190828 -0.0678572 0.590553
0.0152005 -0.123636 0.419356
0.0452855 -0.0580654 0.10371
-0.00655271 -0.0297458 0.47224
-0.190065 -0.0830687 0.581396
0.221829 -0.0770005 0.560825
-0.0147116 -0.0316439 0.662473
-0.111359 -0.0678572 0.652552
-0.103845 -0.0830687 0.652104
-0.0278982 -0.0519893 0.0985233
0.045539 -0.0889169 0.555609
-0.0658635 -0.0728749 0.141974
0.0186579 -0.119927 0.347856
-0.0335514 -0.0541643 0.113468
0.0230527 -0.121006 0.679346
-0.056158 -0.0501952 0.169983
0.0412131 -0.103728 0.393143
0.111357 -0.0661506 0.118076
0.0554034 -0.0652045 0.166999
-0.0952983 -0.0678572 0.626367
0.0417392 -0.0830687 0.627415
0.0162817 -0.0830687 0.669693
0.194573 -0.0678572 0.581307
-0.100063 -0.0528688 0.145185
0.246996 -0.0762592 0.555391
0.0803778 -0.0830687 0.637142
-0.311053 -0.0830687 0.534528
0.0294646 -0.0830687 0.646337
-0.00088154 0.061466 0.122307
-0.0709462 -0.0678572 0.630426
-0.0200183 -0.0770698 0.632695
0.112828 -0.0829587 0.586181
-0.00123859 -0.0281375 0.647546
-0.0436611 -0.0522442 0.545931
0.0288037 -0.0399497 0.697697
-0.00891711 -0.0378965 0.0991605
-0.0060568 -0.0708594 0.61759
0.0360176 -0.10879 0.53004
-0.0209077 -0.122871 0.393897
-0.0547828 -0.0899108 0.162573
0.0111372 -0.0830687 0.605544
0.312591 -0.0678572 0.553639
-0.0639484 -0.0706395 0.128794
0.257863 -0.0678572 0.585458
0.017997 -0.0697592 0.168156
-0.00283239 0.0140148 0.169389
0.020847 -0.109612 0.246523
-0.0232615 -0.0651611 0.161292
-0.0143197 -0.115555 0.281341
0.0252136 -0.0525207 0.0979059
0.0293538 -0.0713317 0.139623
0.284269 -0.0830687 0.552801
0.00739475 -0.125069 0.773609
-0.0650347 -0.081265 0.143028
-0.000637262 0.107085 0.122306
0.0304906 -0.0830687 0.656575
-0.0417123 -0.0686051 0.683993
0.0472507 -0.0826015 0.417031
-0.000434578 0.0601902 0.134282
-0.00638145 -0.0406586 0.187977
0.0641088 -0.0717763 0.598714
-0.00708125 -0.0362543 0.141607
0.00294021 -0.126259 0.775746
-0.383931 -0.0830687 0.524463
0.193682 -0.0830687 0.609358
0.0882387 -0.0830687 0.59821
-0.0179584 -0.032909 0.434423
0.0380974 -0.0849122 0.191993
-0.00321769 -0.0380548 0.198783
-0.037434 -0.108484 0.820904
-0.0414679 -0.106204 0.429656
-0.0106429 -0.125268 0.596119
0.0125286 -0.124133 0.557514
-0.24732 -0.0678572 0.579679
-0.0172519 -0.0815062 0.677837
0.178522 -0.0830687 0.598694
-0.00654412 0.030243 0.15673
-0.046538 -0.0954558 0.55999
0.0401899 -0.0678745 0.217975
-0.200864 -0.0678572 0.601015
-0.0747504 -0.0830687 0.653416
-0.0311672 -0.0515115 0.896055
-0.0504465 -0.0651251 0.182537
-0.0333457 -0.0417324 0.698505
-0.00197923 0.0373328 0.140083
0.0389055 -0.0878897 0.173175
-0.0483544 -0.0887937 0.431938
0.031793 -0.0538892 0.154055
-0.0534358 -0.0642695 0.220055
0.0182515 -0.0752305 0.106201
0.00393785 0.0954924 0.140003
0.0398546 -0.104954 0.529788
0.122738 -0.0678572 0.5979
0.0288245 -0.0730395 0.60555
0.0422287 -0.10076 0.764835
-0.0106337 -0.0830687 0.610163
-0.00804344 -0.0303394 0.403502
-0.0307357 -0.0830687 0.619716
-0.0166136 -0.0636444 0.173509
0.369123 -0.0830687 0.528941
-0.0328412 -0.0415782 0.473608
-0.027023 -0.035556 0.616338
-0.00345851 0.0797224 0.135824
0.189161 -0.0731876 0.572168
-0.0296159 -0.0651757 0.16362
-0.0226213 -0.0362723 0.14014
-0.0217579 -0.0331801 0.237352
-0.0294163 -0.0965181 0.207659
-0.0169232 -0.0704943 0.184009
-0.0447264 -0.0539747 0.475686
-0.00625522 -0.0293831 0.660424
-0.0404616 -0.0487179 0.74779
-0.3477 -0.0701265 0.525964
-0.158538 -0.0769225 0.638824
-0.0552149 -0.0386466 0.12154
0.154517 -0.0678572 0.621386
0.182309 -0.0830687 0.615872
-0.267112 -0.0830687 0.557534
-0.00907701 -0.0830687 0.640947
-0.294301 -0.0830687 0.570977
-0.172496 -0.0830687 0.625088
-0.0139516 -0.031836 0.35296
-0.347869 -0.0830687 0.531733
0.0435258 -0.0678572 0.677777
0.262313 -0.0698408 0.588336
0.0623298 -0.0912311 0.209424
0.0778194 -0.0447211 0.102689
0.0454681 -0.0729668 0.330011
0.0409094 -0.0526015 0.410788
0.0997346 -0.0678572 0.646874
-0.00757022 0.00468889 0.185891
0.1595 -0.075059 0.6391
0.0450016 -0.0650895 0.700957
-0.0752289 -0.0526855 0.121357
-0.0439049 -0.0489778 0.0935411
-0.0163653 -0.0718692 0.0835608
0.150039 -0.0678572 0.596545
-0.0175937 -0.0830687 0.671073
-0.142528 -0.0830687 0.631705
0.034201 -0.0452238 0.744204
-0.0444426 -0.0942295 0.335364
-0.0123402 -0.104741 0.198658
-0.0675996 -0.0762091 0.244236
-0.0245381 -0.0342831 0.659943
0.0161025 -0.0320954 0.178439
0.0572465 -0.0939692 0.151725
-0.0549939 -0.0749021 0.68909
-0.124301 -0.0470434 0.112385
-0.00317214 0.000349624 0.185083
0.319394 -0.0810077 0.53184
-0.132741 -0.0783609 0.652011
0.0446647 -0.0644678 0.393376
0.0358292 -0.0881906 0.218998
-0.0154407 -0.123816 0.656374
-0.312418 -0.0761755 0.56433
0.0406865 -0.0628125 0.262256
-0.0110618 -0.0149443 0.120807
-0.00230099 0.0145025 0.181428
-0.0266556 -0.0362033 0.324788
-0.012113 -0.0705487 0.629817
-0.36019 -0.071241 0.539054
0.0238923 -0.121001 0.459446
-0.0552943 -0.0639276 0.239685
-0.00456132 -0.0566468 0.114786
-0.0455596 -0.0991787 0.399335
-0.00376833 -0.0250225 0.222475
-0.0210598 -0.122747 0.474976
-0.00693107 -0.0211084 0.122464
0.0407379 -0.104052 0.535756
-0.0340744 -0.113172 0.631251
0.000571813 0.0776928 0.124129
-0.0132728 -0.0321241 0.828587
-0.0656136 -0.0516092 0.112901
0.0324351 -0.047189 0.130379
0.0191891 -0.0830687 0.666656
-0.177847 -0.0816271 0.630201
0.0199741 -0.0504796 0.91206
-0.0440578 -0.0598194 0.308785
-0.00645632 -0.0575994 0.119919
0.0433521 -0.0590067 0.573483
-0.0731319 -0.0830687 0.620462
0.130054 -0.0589995 0.081278
0.0269957 -0.0386134 0.434345
0.00367182 -0.0444243 0.109648
-0.125954 -0.0830164 0.602631
0.0365421 -0.0488002 0.329667
-0.0221184 -0.0426335 0.0721046
-0.000392994 -0.0477766 0.108505
0.043168 -0.0583504 0.595502
0.0117668 -0.0709557 0.175972
-0.0820236 -0.0678572 0.655783
0.328687 -0.0830687 0.558954
-0.0501099 -0.0816363 0.756708
-0.0310538 -0.0830687 0.688801
0.0141143 -0.0339531 0.839579
-0.0450444 -0.0549932 0.507683
0.00417501 0.0398515 0.135739
-0.0389277 -0.0956538 0.25886
-0.0426712 -0.0652902 0.873219
-0.00671191 -0.0494745 0.927776
-0.298238 -0.0830687 0.564594
0.192028 -0.0678572 0.620453
-0.00509019 -0.0285877 0.21443
0.0224962 -0.0375107 0.173701
0.0389854 -0.0817597 0.159257
0.017285 -0.0830687 0.652968
0.0747204 -0.0831371 0.592676
0.00245051 -0.00763413 0.186278
-0.15884 -0.0830687 0.589404
-0.173702 -0.0389036 0.0937356
-0.000176704 0.0449748 0.179773
-0.00224633 -0.0280962 0.259624
0.125646 -0.0491032 0.092748
-0.0489092 -0.0695174 0.617297
-0.0148499 -0.0314782 0.744939
0.0391218 -0.0690901 0.889466
-0.0190514 -0.103145 0.936182
0.0918642 -0.0829733 0.587392
-0.0451677 -0.0830687 0.64255
-0.0667021 -0.0830687 0.67567
-0.0652702 -0.0699389 0.146183
0.041661 -0.0830687 0.669491
0.0820371 -0.0678572 0.660475
-0.00742794 -0.0294355 0.766887
0.0132884 -0.0830687 0.668069
0.0483436 -0.0771851 0.797498
-0.0305729 -0.0830687 0.63618
0.0270057 -0.11788 0.47027
-0.0026257 0.0331759 0.129304
-0.388433 -0.0779177 0.520144
0.00624914 -0.125834 0.55102
0.00359686 -0.126267 0.649039
0.0458657 -0.0690896 0.377217
0.294859 -0.0723028 0.574942
-0.00893012 -0.0299271 0.730621
0.1857 -0.0830687 0.60609
-0.0302559 -0.117321 0.526273
-0.000228967 -0.0270846 0.223819
-0.0730634 -0.0678572 0.627645
0.0117769 -0.0830687 0.689256
-0.0228679 -0.059037 0.926267
-0.0319083 -0.115698 0.517092
0.0428131 -0.0569548 0.692409
-0.000662521 -0.0830687 0.628178
0.115039 -0.0830687 0.625796
-0.01455 -0.0317397 0.541524
0.0446727 -0.0921802 0.386742
-0.0714185 -0.0830687 0.63569
-0.00636322 0.0290272 0.103282
-0.0459213 -0.0545205 0.119531
0.0289933 -0.0795119 0.624959
0.164335 -0.0644258 0.0991994
-0.00262098 -0.0830687 0.707892
0.00498719 0.059104 0.118856
0.0160606 -0.0386838 0.0560604
0.00342023 0.00895682 0.180352
0.00743829 -0.0830687 0.662931
0.362343 -0.0809632 0.518377
-0.0369666 -0.11074 0.381258
0.0300021 -0.0638287 0.132481
-0.132612 -0.0830687 0.645286
