0.051172 -0.0711224 0.191881
0.0312186 -0.0725923 0.605466
0.0133081 -0.115954 0.886295
0.0289334 -0.115934 0.495644
0.0126059 -0.0323395 0.389782
0.00201928 0.0958636 0.143108
-0.323543 -0.0678572 0.541805
-0.0218232 -0.107721 0.225258
0.0626661 -0.0907891 0.235824
0.0428227 -0.0985416 0.719641
-0.036378 -0.0687981 0.672164
-0.363524 -0.0718044 0.539683
0.0231563 -0.0388098 0.153745
0.0391363 -0.0520686 0.305901
-0.0480682 -0.0660132 0.760167
0.0392705 -0.0504952 0.668012
-0.00210853 -0.111793 0.926394
-0.0213867 -0.0335447 0.567249
0.0453188 -0.0959536 0.212865
0.0172157 -0.123036 0.477334
-0.0213778 -0.0747321 0.954836
-0.0424822 -0.0515163 0.379326
-0.0267284 -0.0348409 0.80206
-0.101649 -0.0531616 0.132978
0.01152 -0.123556 0.366066
0.0952294 -0.065747 0.121919
-0.00766549 -0.117231 0.280212
-0.0631288 -0.0588706 0.146014
-0.0275993 -0.0753606 0.125206
0.0198385 -0.0507918 0.913028
0.0423297 -0.054816 0.77832
0.0186318 -0.0492402 0.0574209
-0.0311033 -0.0937282 0.203146
0.00205403 -0.0138754 0.187493
-0.0363446 -0.111191 0.539547
0.121554 -0.0586496 0.0836728
-0.0966764 -0.0678798 0.601321
-0.0334305 -0.0422752 0.439445
0.35901 -0.0710331 0.544614
0.0449433 -0.0710097 0.329993
-0.217232 -0.0830687 0.577682
-0.00242646 -0.0284122 0.617159
0.00188969 0.00923891 0.13082
-0.0391968 -0.0655746 0.895227
-0.254148 -0.0752224 0.590415
-0.0050576 -0.0293243 0.479613
-0.19973 -0.0678572 0.586828
-0.0428329 -0.104301 0.688401
0.00619284 -0.126031 0.437326
0.0625276 -0.0678572 0.628061
0.0291703 -0.0882264 0.924111
-0.038033 -0.0484849 0.230728
0.00338026 0.032781 0.126078
0.210539 -0.0830687 0.601
0.0511789 -0.0433678 0.100412
-0.028842 -0.0617725 0.109098
0.0434861 -0.0678102 0.149972
-0.0357552 -0.0443559 0.521428
-0.0320559 -0.115611 0.436664
-0.0563872 -0.0899035 0.221495
-0.0127354 -0.118166 0.873371
-0.0476358 -0.0915408 0.478645
-0.044046 -0.0901093 0.853576
0.291148 -0.0678572 0.574552
-0.0448976 -0.0903433 0.325148
-0.00709294 -0.0417936 0.167719
-0.0465883 -0.094779 0.775633
-0.0321239 -0.115195 0.607938
-0.0589473 -0.0830687 0.616072
-0.0272723 -0.0678574 0.616404
0.0386772 -0.0919075 0.272149
0.36417 -0.0830509 0.516745
-0.0462993 -0.0462195 0.153827
-0.111339 -0.0830687 0.631983
0.034773 -0.0461967 0.495806
0.0214915 -0.0341068 0.700068
-0.146432 -0.0319571 0.119384
-0.140595 -0.0678572 0.592783
0.0420908 -0.101828 0.395101
-0.264499 -0.0704146 0.553036
0.0413146 -0.0526499 0.552524
0.0506616 -0.0580339 0.16916
-0.0076516 -0.0299363 0.320228
0.0989191 -0.0678572 0.610429
0.0377806 -0.0599361 0.214081
0.0200224 -0.118001 0.33131
-0.0767153 -0.0389381 0.099421
-0.0174346 -0.123087 0.795453
0.0318686 -0.0432389 0.512808
0.23641 -0.0830687 0.576016
0.0922055 -0.0829209 0.673364
0.144054 -0.0640141 0.11029
0.0150797 -0.0473279 0.129774
-0.0638341 -0.0679904 0.200602
0.18391 -0.0678572 0.599299
0.316332 -0.0830687 0.532151
-0.0227578 -0.121131 0.364443
0.0429228 -0.0842339 0.852929
0.0297409 -0.0407607 0.745257
-0.00634968 -0.0419098 0.208612
-0.0116276 -0.0248938 0.103813
0.0207698 -0.121675 0.645955
0.00216496 -0.126859 0.575594
0.000596802 -0.0288111 0.499647
0.0279789 -0.0898362 0.185728
-0.0488832 -0.0706669 0.371871
-0.182778 -0.0830687 0.606385
-0.0366175 -0.0367841 0.103768
0.0198634 -0.0333974 0.235192
-0.159446 -0.0830687 0.621348
-0.0565551 -0.0643974 0.175322
0.00577342 0.0624057 0.136637
0.0420232 -0.066421 0.27442
0.154451 -0.0794927 0.573359
0.0322699 -0.0434744 0.816164
-0.0233196 -0.0344106 0.411441
0.0291921 -0.0808368 0.702682
-0.283516 -0.0745571 0.543401
0.0297905 -0.105945 0.875862
0.061841 -0.0825608 0.589933
-0.016807 -0.0314746 0.139452
-0.0274466 -0.0358274 0.700767
0.00662718 -0.030747 0.0357685
-0.0393775 -0.0478936 0.639736
-0.000379086 -0.107587 0.199513
0.0373475 -0.0500915 0.279114
-0.0504726 -0.075298 0.578946
0.139767 -0.0684644 0.646047
-0.00714518 0.0154977 0.17326
0.0321331 -0.0444005 0.328678
-0.000155341 -0.0515472 0.0893439
0.181591 -0.0830687 0.605108
0.00243749 0.00384256 0.160332
-0.0675965 -0.0703748 0.681122
-0.142675 -0.0326561 0.09441
0.00621897 -0.0931005 0.142107
-0.004958 -0.0771615 0.676316
0.0254091 -0.0830687 0.634729
0.0379012 -0.0588502 0.876504
-0.322803 -0.0830687 0.551049
0.109265 -0.0830687 0.618999
-0.0113716 -0.125268 0.527251
0.0463194 -0.0854935 0.76416
0.073795 -0.069294 0.146144
-0.116173 -0.0479205 0.113602
-0.0461847 -0.0592774 0.56555
0.0161286 -0.0328045 0.634544
0.263813 -0.0694967 0.58757
0.000210555 -0.0568623 0.939545
0.145485 -0.067951 0.585621
-0.0304475 -0.0831893 0.597692
-0.0318258 -0.0817611 0.702406
-0.0479346 -0.0657636 0.696161
0.2148 -0.0678572 0.572605
-0.084931 -0.0678572 0.631131
-0.0494229 -0.0848751 0.524725
0.047478 -0.074278 0.714714
-0.0379134 -0.109148 0.747866
-0.0456902 -0.0717195 0.257663
0.106262 -0.0678572 0.639858
-0.0360601 -0.0453991 0.824147
0.0116935 -0.03165 0.303506
0.0238555 -0.0354501 0.441735
-0.0160937 -0.0325028 0.367315
0.109301 -0.0743804 0.586236
0.00587029 -0.124883 0.81835
-0.127649 -0.0816973 0.575113
0.0210105 -0.12209 0.408399
-0.0643424 -0.0802298 0.136632
-0.0491911 -0.0779061 0.833496
-0.0100485 -0.0500465 0.923542
-0.0356361 -0.0863436 0.91173
-0.0771634 -0.0678572 0.665457
0.0510633 -0.0622131 0.121073
-0.0326054 -0.0849633 0.173441
-0.00354023 0.0887083 0.102158
-0.0735702 -0.0450722 0.158147
-0.123528 -0.0678572 0.649081
-0.0235242 -0.0421959 0.0829977
0.0445177 -0.092226 0.651013
0.0182236 -0.0698693 0.0909528
0.040561 -0.103698 0.784986
0.331476 -0.0830687 0.550205
0.0444638 -0.0931375 0.513354
0.0258783 -0.118831 0.561299
0.124785 -0.0830687 0.627553
0.294314 -0.0830687 0.556061
0.0306354 -0.0419097 0.638687
-0.0308498 -0.0463588 0.879343
-0.0467273 -0.0617139 0.423951
-0.0239091 -0.121551 0.65363
0.04282 -0.0987182 0.621341
0.0061009 -0.125561 0.669955
0.000715688 0.0674291 0.160071
-0.0026284 -0.0830687 0.632369
-0.0429301 -0.104367 0.615129
0.0155015 -0.0350411 0.0892724
0.0409777 -0.0876434 0.141357
0.0845562 -0.0874043 0.64503
-0.0321315 -0.0408831 0.468997
0.0814748 -0.0830687 0.608088
0.0560407 -0.0830687 0.668595
-0.0308652 -0.0830687 0.637602
0.0271968 -0.103467 0.899147
-0.243759 -0.0830687 0.57907
0.0477928 -0.0799937 0.745333
0.0391644 -0.0504784 0.582715
-0.0220803 -0.121945 0.722067
0.0393047 -0.0447827 0.116672
0.0622157 -0.0833866 0.138901
-0.0193279 -0.0591677 0.131836
-0.0449873 -0.0544217 0.784331
-0.0137404 -0.124466 0.586146
0.0329838 -0.069025 0.672004
0.0472863 -0.0738479 0.470098
-0.0423123 -0.0678572 0.656098
-0.0161956 -0.0455598 0.0302904
0.0481306 -0.076794 0.540106
0.0222375 -0.113015 0.289953
0.00136742 -0.00189814 0.216801
-0.0473288 -0.0633928 0.72443
-0.0664634 -0.0830687 0.647141
0.159572 -0.0830687 0.600382
0.00397369 0.121168 0.128113
-0.0464051 -0.0663421 0.328505
-0.0616827 -0.0682319 0.602367
0.0199171 -0.0342294 0.414316
-0.0281994 -0.0404593 0.173638
0.00441527 0.0297676 0.17783
0.0967975 -0.0608211 0.0983014
0.0458065 -0.0816146 0.348246
0.00823792 -0.0307679 0.559779
0.0461966 -0.0701929 0.391913
-0.0357758 -0.0457259 0.282923
-0.0123132 -0.124946 0.551855
-0.017279 -0.112484 0.25718
-0.0293194 -0.043546 0.135273
-0.000930784 -0.0279022 0.813905
-0.0257796 -0.0993859 0.926378
0.0109734 -0.0640563 0.143952
-0.133172 -0.0678572 0.61218
0.0113336 -0.124033 0.759435
-0.0207118 -0.0330611 0.73996
0.00641948 -0.120387 0.860959
0.383174 -0.0830687 0.536514
-0.00114675 -0.127926 0.505462
0.0870911 -0.0519944 0.133449
-0.0462805 -0.0791223 0.131459
-0.0656862 -0.078455 0.252626
0.0538783 -0.0718062 0.221625
0.0424805 -0.0560438 0.445053
-0.030119 -0.0386681 0.593706
0.0112013 -0.118177 0.308115
0.029588 -0.0443447 0.181768
0.344969 -0.068949 0.537212
0.0525575 -0.0830687 0.610178
-0.0156777 -0.0319377 0.64156
-0.0298613 -0.0677714 0.187513
-0.366023 -0.0830687 0.517997
0.0270877 -0.0780636 0.139203
-0.0450831 -0.0939638 0.345276
-0.00560556 -0.083771 0.107754
-0.0407999 -0.0830687 0.675827
0.00747622 -0.0349969 0.875443
-0.0110067 -0.0141839 0.120734
-0.0303739 -0.0406568 0.248285
0.0285987 -0.0937153 0.204125
0.00799381 -0.0567102 0.11062
0.0110892 -0.0780693 0.604481
-0.00227698 -0.0765543 0.975939
-0.0281172 -0.0363031 0.774313
-0.0506799 -0.076196 0.475027
-0.0672084 -0.0737303 0.213533
0.0216308 -0.0584138 0.16473
-0.00899756 -0.12565 0.617033
0.00328994 0.0254014 0.139606
-0.169729 -0.0678572 0.596342
-0.0291272 -0.108865 0.289785
0.0102479 -0.0396932 0.895904
0.0375034 -0.106733 0.803754
0.0293024 -0.0522221 0.134844
-0.003663 -0.126767 0.802539
0.070078 -0.0678572 0.614266
0.0462752 -0.0862344 0.41148
0.206048 -0.0684241 0.613926
-0.00180538 -0.107338 0.947184
-0.00530447 0.0370525 0.102942
-0.348539 -0.0777279 0.54865
0.0187492 -0.0691665 0.633888
0.0455035 -0.0892194 0.486168
0.0157833 -0.0323107 0.813025
-0.0496018 -0.0842307 0.497571
-0.0316877 -0.10996 0.322899
0.0466324 -0.0758917 0.828799
0.162502 -0.0678572 0.618617
0.0107798 -0.0310845 0.76194
0.0407815 -0.0917812 0.242639
-0.0139586 -0.0311572 0.778337
0.0246517 -0.0359749 0.570058
-0.0427366 -0.0732073 0.214827
0.0264407 -0.117928 0.695129
-0.0238361 -0.0363213 0.845959
0.00871353 -0.0579754 0.0382234
-0.0444948 -0.080495 0.876309
0.00729646 -0.0311562 0.827248
0.313235 -0.0830687 0.553971
-0.0390604 -0.107451 0.366943
0.145017 -0.0483362 0.0898145
0.114082 -0.0674914 0.123384
-0.0739318 -0.0830687 0.611938
-0.0161278 -0.0321789 0.525742
-0.00881291 -0.114473 0.90407
0.151301 -0.0830687 0.63027
0.0591734 -0.0757078 0.250883
-0.0997054 -0.0372806 0.130959
0.000583705 -0.0232278 0.161323
0.0242282 -0.0717419 0.941204
0.0378135 -0.0678575 0.61685
0.254796 -0.0678572 0.564811
-0.0462479 -0.0964324 0.580114
0.321253 -0.0678572 0.549784
-0.0355388 -0.111488 0.776318
0.00682207 0.0845351 0.120911
0.21893 -0.0830687 0.57576
-0.0255401 -0.121609 0.414426
-0.00927232 -0.00426157 0.152656
0.128046 -0.0478607 0.0995398
-0.0405023 -0.0885784 0.240379
0.000339366 -0.12486 0.83309
0.0434906 -0.0808525 0.304364
-0.0459982 -0.0975849 0.430272
-0.00257806 -0.127157 0.731359
-0.0410468 -0.103785 0.828939
-0.178977 -0.0732786 0.571956
0.0254477 -0.119501 0.38194
0.0707121 -0.048673 0.123722
-0.0371658 -0.0616707 0.161366
-0.215969 -0.0830687 0.601559
-0.306583 -0.0678572 0.555924
0.044533 -0.063524 0.653884
-0.00216842 -0.028167 0.709628
0.043178 -0.0972141 0.673917
0.0223569 -0.0344332 0.661614
0.0153064 -0.0330306 0.367308
-0.00373298 -0.0201181 0.212695
0.115009 -0.0678572 0.609701
0.0409025 -0.0921621 0.190282
-0.00193791 -0.0364548 0.119034
0.155248 -0.0678572 0.599687
0.026671 -0.0411472 0.845428
0.0329276 -0.0438188 0.793823
-0.14066 -0.0830687 0.647933
0.0122917 -0.0748684 0.693548
-0.0358554 -0.0444312 0.556251
-0.0213306 -0.0331946 0.185986
-0.00806501 -0.0538145 0.143823
0.0465942 -0.0711223 0.584519
-0.0147961 -0.0352552 0.863188
-0.00156784 0.102931 0.117665
-0.0381182 -0.0470371 0.415869
0.0642479 -0.0849023 0.208419
0.0164453 -0.123267 0.453725
0.239624 -0.0678572 0.579469
-0.0483437 -0.0882273 0.744517
0.0100195 -0.124456 0.70913
-0.128359 -0.0381668 0.128211
-0.19301 -0.0721646 0.569746
-0.0322852 -0.0827971 0.612293
-0.0854782 -0.0362818 0.121227
-0.0307122 -0.110509 0.855671
-0.0127601 -0.0307268 0.230784
-0.0481813 -0.0460938 0.0907324
-0.0281206 -0.036652 0.618655
0.0413382 -0.0820772 0.876053
0.034462 -0.110421 0.474653
0.191386 -0.0678573 0.58073
0.0711161 -0.0620964 0.1134
-0.382626 -0.0802868 0.533864
0.00419852 0.0497741 0.114423
0.009887 -0.0680818 0.0653997
-0.0425105 -0.0756464 0.156996
-0.0449953 -0.100724 0.803094
0.0304084 -0.0433721 0.256215
-0.0263762 -0.0539526 0.911694
-0.107972 -0.0830687 0.596152
-0.0438031 -0.0519029 0.80684
-0.118511 -0.0420215 0.0919927
0.0182723 -0.0328576 0.214233
-0.040837 -0.0985343 0.30225
0.0388795 -0.0810393 0.166539
0.0455168 -0.0670364 0.694769
-0.0151013 -0.0536561 0.10453
-0.01479 -0.0956039 0.963912
-0.0223277 -0.0332511 0.22327
0.0379629 -0.106478 0.646468
-0.0077858 -0.0302266 0.0404611
-0.0450121 -0.0561068 0.126634
0.061966 -0.0771024 0.176694
0.00416716 -0.0830687 0.654571
-0.269748 -0.0830687 0.579693
-0.0463809 -0.0961423 0.540939
0.0201824 -0.0914142 0.160311
-0.0707613 -0.0503269 0.108728
0.00369515 0.0080778 0.193584
0.0304577 -0.0830687 0.688038
0.0435222 -0.0597283 0.635317
0.269421 -0.0830687 0.585108
-0.00159674 -0.0284551 0.458987
-0.247701 -0.0678572 0.568875
-0.192662 -0.0738493 0.620442
-0.00627809 -0.0289373 0.0916227
0.0422243 -0.10122 0.568524
-0.0338088 -0.113303 0.706427
0.000532348 -0.00547564 0.120185
-0.23073 -0.0678572 0.581485
0.048299 -0.0787118 0.433512
0.00128045 -0.0280494 0.140034
-0.156275 -0.0431075 0.105323
0.0280975 -0.0394392 0.544161
-0.0664148 -0.0798542 0.589912
0.0622564 -0.0913786 0.187712
-0.0389262 -0.108756 0.415818
0.20159 -0.0830687 0.577821
-0.00734378 -0.0294351 0.757854
0.0338633 -0.0545525 0.0914602
0.0301228 -0.0412061 0.721314
-0.0858136 -0.0417795 0.147084
-0.00255709 -0.0771304 0.0827674
-0.0461172 -0.0591639 0.475922
-0.0171598 -0.041578 0.120738
0.0437232 -0.0954835 0.59554
-0.0283914 -0.118856 0.630785
-0.00293729 -0.114611 0.239
-0.0323779 -0.0415791 0.360837
-0.0501514 -0.0736789 0.788076
0.0377261 -0.0487099 0.758864
-0.0490147 -0.0862784 0.395114
-0.215875 -0.0757344 0.560543
0.230608 -0.0829592 0.606557
0.154609 -0.0720076 0.640334
-0.0464957 -0.0867839 0.201693
-0.0981077 -0.0447638 0.0924024
-0.011784 -0.118681 0.307283
0.11161 -0.0703597 0.660174
-0.0500813 -0.0817418 0.706902
-0.0430646 -0.104553 0.505287
0.0383111 -0.0811984 0.223674
0.0449909 -0.0650489 0.520564
0.0210936 -0.0344628 0.348969
-0.0253318 -0.121696 0.383758
0.042109 -0.0543582 0.684439
0.0182922 -0.0336523 0.464419
0.0319571 -0.0580087 0.108181
-0.00352584 -0.0345456 0.248294
-0.0116211 -0.0956924 0.154119
0.0973316 -0.0829229 0.585651
-0.0104832 -0.125569 0.486262
-0.012809 -0.124998 0.436103
0.0239825 -0.119035 0.82199
0.0883569 -0.0678572 0.653348
-0.0348883 -0.112764 0.457275
0.06859 -0.0830687 0.650821
-0.0143567 -0.0312603 0.24713
0.0452722 -0.065697 0.804105
-0.1585 -0.0678572 0.611301
-0.125893 -0.0678572 0.630068
0.385662 -0.0830687 0.512924
-0.0140489 -0.0319726 0.395012
0.363447 -0.0830687 0.531228
-0.310169 -0.0830687 0.536555
0.0479785 -0.0758775 0.783462
0.0432769 -0.0942703 0.820399
-0.0100274 -0.0348917 0.0136947
0.0497752 -0.0949436 0.252763
-0.1357 -0.0830687 0.628979
0.170616 -0.0830687 0.585845
-0.107348 -0.0830687 0.652761
0.0274481 -0.114481 0.350427
0.0293797 -0.0411218 0.39493
-0.0358295 -0.111319 0.676057
-0.00535115 -0.0275274 0.177474
-0.0455637 -0.0569868 0.677779
0.0483204 -0.0774956 0.510292
-0.185587 -0.0830687 0.584015
-0.00579014 0.0468128 0.140683
0.0266294 -0.118284 0.431219
0.00406316 -0.121364 0.321639
0.0194164 -0.0338226 0.51079
0.0466521 -0.0823943 0.366609
-0.0450875 -0.0683069 0.854794
0.0290235 -0.102355 0.254837
-0.0242828 -0.034214 0.2926
-0.0222578 -0.0951872 0.948891
0.0324342 -0.11242 0.515095
-0.00651916 -0.035651 0.889494
0.0417832 -0.0918881 0.326143
-0.235619 -0.0781936 0.600236
-0.0217403 -0.122003 0.745626
-0.0145269 -0.0730715 0.669441
-0.0384212 -0.109221 0.471847
0.0218723 -0.03456 0.482715
0.0388952 -0.0842209 0.154684
-0.0469248 -0.0670379 0.197511
-0.0425507 -0.0638216 0.870088
-0.0265941 -0.12102 0.510683
0.0309319 -0.0830687 0.657502
-0.0468153 -0.0615722 0.523815
-0.0468389 -0.0619724 0.453993
0.0350454 -0.0470706 0.353897
-0.135826 -0.0830687 0.595221
0.037362 -0.106955 0.737521
-0.0157126 -0.121671 0.350154
-0.264696 -0.0830687 0.544118
0.0446289 -0.0923404 0.384285
-0.00946756 0.00801169 0.116373
-0.00618874 -0.0644175 0.958664
-0.0171344 -0.119286 0.850851
0.297021 -0.0679803 0.548443
0.0398319 -0.104527 0.702529
0.0569161 -0.0705227 0.157896
0.00630099 -0.125789 0.562202
-0.00948902 -0.0830687 0.603179
-0.152271 -0.0835741 0.602656
-0.0629229 -0.087177 0.200105
-0.046821 -0.0678572 0.640495
-0.0058796 -0.0768302 0.695507
-0.0593699 -0.0563352 0.132807
-0.00604065 -0.0830687 0.64606
-0.0128004 -0.03058 0.199842
-0.199192 -0.0678572 0.606781
0.0039261 -0.0287927 0.170519
0.044462 -0.051853 0.147939
-0.0477123 -0.065014 0.591047
0.0313236 -0.107238 0.319905
0.0423482 -0.1009 0.418112
-0.0320449 -0.041018 0.398749
-0.0471823 -0.0914368 0.370032
0.0311361 -0.0451489 0.0961866
-0.0489703 -0.071025 0.232092
0.0156335 -0.0324749 0.725349
0.0570359 -0.0678572 0.668795
0.00445154 0.0380984 0.148479
0.0283767 -0.040938 0.298097
-0.0893182 -0.0830687 0.657519
-0.091039 -0.0495114 0.112117
-0.00105794 0.0501014 0.173769
0.0302743 -0.0690257 0.918741
-0.0270261 -0.0366858 0.313122
0.27398 -0.0678572 0.556998
-0.0180094 -0.0742394 0.69415
0.000403078 -0.127272 0.596434
-0.059127 -0.0768097 0.117314
-0.0240029 -0.0529906 0.160554
-0.0295319 -0.0377721 0.753767
-0.0436777 -0.0496064 0.168751
-0.0427767 -0.104387 0.663695
-0.0340016 -0.0678572 0.635732
-0.0900525 -0.0830687 0.642074
-0.00855154 -0.00524268 0.178371
-0.0186183 -0.0330753 0.438163
-0.177649 -0.0830687 0.621254
0.0193198 -0.121916 0.743214
-0.0364245 -0.0700249 0.688397
0.036499 -0.060565 0.194155
0.0529429 -0.0830687 0.691644
-0.0426653 -0.0590047 0.270191
0.0206541 -0.103565 0.920414
0.0646378 -0.0548566 0.15483
0.041355 -0.0846093 0.284714
-0.0419245 -0.0762977 0.171196
0.0268791 -0.0380701 0.680642
0.0195076 -0.0338898 0.326086
-0.0360151 -0.100618 0.277457
0.0102385 -0.086418 0.123286
0.00129373 -0.127314 0.465838
-0.0507099 -0.0793949 0.656105
0.0889703 -0.0678572 0.627737
-0.0484707 -0.0678807 0.617255
-0.0140569 -0.0318334 0.348198
0.0160534 -0.0994655 0.947128
-0.148205 -0.0829211 0.572262
0.0348611 -0.0753253 0.184942
-0.0381476 -0.0604125 0.144353
-0.00584122 -0.0452445 0.184776
0.279948 -0.0799311 0.544522
0.040362 -0.0982048 0.840307
0.0251976 -0.0830687 0.617275
0.000463564 -0.0608623 0.132735
0.0032197 0.00635506 0.179733
0.0402155 -0.0513361 0.707261
-0.000594512 -0.127879 0.408486
-0.035027 -0.111956 0.812031
0.101219 -0.0830687 0.645646
-0.0255758 -0.121424 0.540543
0.0372192 -0.0634582 0.131824
0.0998154 -0.0830687 0.605153
0.0449865 -0.0904654 0.699016
-0.0473402 -0.0724721 0.305265
-0.0184096 -0.0327698 0.545404
0.0252088 -0.0433429 0.878157
-0.0492544 -0.0742587 0.352447
-0.0362519 -0.0448131 0.576679
-0.0086774 -0.0428506 0.0981055
0.127254 -0.0780799 0.57907
-0.0657368 -0.0827249 0.15579
-0.0046298 0.0694354 0.123019
-0.0330288 -0.0830687 0.657176
-0.02016 -0.0728219 0.0969871
0.0431323 -0.0582761 0.483063
0.196504 -0.0830687 0.59277
0.024432 -0.108707 0.270799
0.00160059 -0.124621 0.349183
-0.0472957 -0.0398538 0.124377
0.160279 -0.057019 0.0970622
0.0418805 -0.0534579 0.533
0.00427048 -0.126442 0.523491
-0.29113 -0.0830687 0.55136
-0.263343 -0.0678572 0.571861
-0.0167652 -0.0764983 0.634046
0.00629179 -0.0830687 0.677399
0.210557 -0.0678572 0.595553
0.0116233 -0.0830687 0.624173
0.114684 -0.0830687 0.59474
-0.342702 -0.0830687 0.529299
-0.0330899 -0.113915 0.793976
-0.0543755 -0.0678572 0.672647
-0.157916 -0.0679383 0.581365
-0.0556257 -0.0821595 0.690901
0.00428952 -0.0291769 0.227257
-0.0284482 -0.0385648 0.265576
-0.102381 -0.0678572 0.6455
0.0678687 -0.0653916 0.12998
-0.0377768 -0.0905404 0.217616
0.0323223 -0.0832103 0.59672
-0.00216095 -0.00432569 0.230014
-0.162992 -0.0803625 0.637409
0.0363336 -0.107947 0.767337
-0.108799 -0.0754376 0.583889
-0.0452644 -0.100202 0.561336
0.0328885 -0.0461027 0.230176
-0.000689413 -0.0282865 0.645741
-0.0063357 -0.0618338 0.0416991
-0.0730499 -0.0830687 0.629295
0.0266384 -0.117641 0.768746
-0.00977924 -0.0320016 0.838923
0.0281883 -0.0394963 0.591409
0.338079 -0.0830687 0.529421
-0.0496037 -0.0718314 0.737653
-0.0442061 -0.102841 0.758946
0.025234 -0.119018 0.790692
-0.0267875 -0.0354188 0.507119
0.0412496 -0.0801472 0.26205
-0.0333524 -0.0706878 0.919156
0.259522 -0.0788317 0.550331
0.0256193 -0.0675613 0.155156
0.0850264 -0.0830687 0.628814
0.0520188 -0.0877073 0.122555
-0.045462 -0.0609896 0.828015
-0.022517 -0.0340028 0.47961
-0.25591 -0.0830687 0.564865
-0.0473067 -0.0922347 0.62694
0.00222329 -0.0294835 0.41594
-0.0428604 -0.0567625 0.296346
-0.0513233 -0.0830687 0.637133
0.0015154 0.0809462 0.146728
-0.0374587 -0.0964093 0.252398
0.00163075 0.0113983 0.117746
-0.278712 -0.0830687 0.562616
0.138518 -0.0829078 0.577323
-0.0355429 -0.112048 0.521919
-0.0100997 -0.0304682 0.301041
-0.0304651 -0.116913 0.589366
0.024643 -0.0388797 0.197997
0.0164593 -0.0374351 0.070916
-0.130944 -0.0302467 0.109132
-0.0175015 -0.123402 0.606051
0.123143 -0.067707 0.593145
-0.0124404 -0.124599 0.671494
0.00824211 -0.0830687 0.707273
-0.131574 -0.0460744 0.110433
0.00492708 -0.0297271 0.286504
0.138157 -0.0830687 0.614941
-0.0215632 -0.0345282 0.151603
0.00032431 -0.0330319 0.00392744
-0.029794 -0.0383034 0.649601
-0.0141663 -0.0318404 0.452962
0.0984425 -0.0653624 0.137617
0.0934314 -0.0686723 0.595563
-0.00194742 -0.0283252 0.57737
0.0259628 -0.118535 0.628568
0.122505 -0.0678572 0.646001
0.045599 -0.0882851 0.633054
0.0302294 -0.0417823 0.45489
-0.0197359 -0.102659 0.198171
0.0257901 -0.118558 0.71144
0.041527 -0.0626013 0.29174
-0.061079 -0.0654724 0.241658
0.0976103 -0.04695 0.0994333
0.0772975 -0.0830687 0.677539
-0.0196076 -0.113554 0.894226
0.0453949 -0.0960605 0.170942
0.0357398 -0.0639974 0.171092
0.0316071 -0.113326 0.40396
0.00404185 0.0260927 0.162091
0.247605 -0.0830687 0.585006
0.00679315 -0.125463 0.630851
0.00360048 0.125958 0.117377
-0.0368663 -0.106195 0.335689
-0.0618773 -0.0661859 0.161316
-0.0452681 -0.0558331 0.548546
0.191439 -0.0728669 0.622721
-0.0510298 -0.0786938 0.559761
0.0438562 -0.0745272 0.129748
-0.0204688 -0.0387066 0.109469
-0.0139596 -0.0315231 0.597491
0.127231 -0.0647511 0.105883
0.0251646 -0.0378812 0.281953
0.00523775 -0.0300415 0.0527471
0.0469327 -0.0724054 0.598522
-0.00789476 0.021428 0.134531
-0.00153599 0.0115046 0.213841
-0.00548605 0.0559786 0.128154
-0.0459602 -0.0974071 0.598954
-0.0184275 -0.0830687 0.683788
-0.0148723 -0.124213 0.568555
-0.122804 -0.0677447 0.592971
0.0371028 -0.0830687 0.674366
0.0167418 -0.0607956 0.927085
0.041974 -0.10171 0.750615
-0.0461557 -0.0969746 0.414025
-0.021749 -0.122074 0.693659
-0.0328592 -0.0527638 0.895107
-0.00409818 0.00808595 0.142894
0.0326402 -0.0900178 0.908857
-0.0431216 -0.0556765 0.314496
-0.0146274 -0.034221 0.055089
-0.111125 -0.0678572 0.610517
0.0403595 -0.0622242 0.858696
0.01415 -0.0793642 0.663758
-0.377445 -0.0757495 0.518716
0.0120394 -0.100102 0.179471
0.00560952 0.110982 0.107686
0.0150008 -0.105993 0.211682
0.0402588 -0.101764 0.351251
-0.0235773 -0.034166 0.819451
0.0121078 -0.0309027 0.154205
-0.0334464 -0.113635 0.731317
-0.0665123 -0.0710838 0.186221
0.0157468 -0.123202 0.582043
-0.00343326 -0.0568002 0.0249909
0.0434457 -0.0969112 0.49464
0.300582 -0.0830687 0.539918
-0.334117 -0.0732025 0.553865
-0.00847968 -0.0099672 0.100544
0.337694 -0.0678572 0.553311
-0.0401985 -0.0850453 0.895448
-0.0260883 -0.121478 0.39916
0.00170904 -0.0283916 0.101778
0.325257 -0.080754 0.563871
0.0255445 -0.0368373 0.612605
-0.164151 -0.0381954 0.0851249
0.222234 -0.0771283 0.560603
-0.00684404 -0.0294567 0.694624
0.0411758 -0.0529341 0.389827
0.0470757 -0.0726112 0.757071
0.223372 -0.0701449 0.606121
-0.00968219 -0.0148085 0.165127
0.0203196 -0.0544378 0.0709516
0.0174991 -0.0601694 0.123435
-0.0116241 -0.0312371 0.425373
-0.0276606 -0.0366839 0.382864
0.0150218 -0.0687905 0.618269
-0.0421462 -0.059861 0.245593
-0.00188005 -0.0351926 0.151277
-0.0296824 -0.051097 0.0976482
-0.0194213 -0.048072 0.0474076
-0.0274597 -0.103959 0.905757
0.0185208 -0.0360326 0.12221
-0.0633372 -0.036254 0.102786
-0.047475 -0.0914703 0.79171
-0.0188773 -0.0830687 0.620382
-0.0395593 -0.047756 0.77024
-0.00797724 -0.00570348 0.198085
-0.0398539 -0.0486332 0.46014
0.298764 -0.0830687 0.572564
-0.027788 -0.0366795 0.42466
0.0193032 -0.0343301 0.17331
0.00484524 -0.118394 0.292368
0.116638 -0.0678572 0.626681
0.0150851 -0.0739997 0.190415
-0.0373977 -0.0457878 0.697273
-0.0499147 -0.0833164 0.594722
0.00334063 -0.0457555 0.917896
-0.0311324 -0.113759 0.35229
-0.071826 -0.0678572 0.646666
0.0435128 -0.0598107 0.461318
-0.206449 -0.0786511 0.615085
0.0872272 -0.0480438 0.114905
-0.0117837 -0.0307127 0.722097
-0.0434301 -0.0603314 0.179138
0.000596199 -0.110694 0.215744
0.00519727 -0.126244 0.488792
-0.000769234 -0.0279342 0.784647
0.0287713 -0.11612 0.462057
-0.0123381 -0.124474 0.779875
-0.0445286 -0.0534228 0.440281
-0.0763448 -0.0678572 0.616607
-0.0421755 -0.0506597 0.661664
-0.0368023 -0.0706787 0.606105
0.00770496 -0.0299663 0.202378
-0.0529304 -0.0878846 0.25405
-0.00181078 -0.0913193 0.978105
0.0520684 -0.083074 0.242123
-0.00871607 -0.0487257 0.132106
-0.00330062 0.0294614 0.189751
-0.0180941 -0.0644585 0.178033
-0.0596014 -0.0651179 0.226415
-0.0213526 -0.0892265 0.146777
-0.0462111 -0.0943321 0.818326
0.0129994 -0.0415998 0.0285877
0.154313 -0.0853579 0.617721
0.0351117 -0.107734 0.823239
0.0355978 -0.0945835 0.892717
0.0512518 -0.0678572 0.642712
0.0258305 -0.0626921 0.180112
0.00312115 0.0178145 0.151095
-0.19799 -0.0830687 0.604831
-0.00989745 -0.124176 0.821941
0.133207 -0.0530612 0.116155
-0.0108228 -0.0217588 0.145181
0.00293489 -0.126382 0.689465
0.00536554 -0.029671 0.746803
0.0314001 -0.106393 0.860636
0.0614718 -0.0588711 0.101728
0.0465066 -0.071053 0.44825
0.221161 -0.0830687 0.590017
-0.043205 -0.082892 0.184971
-0.00671013 -0.0635179 0.153069
-0.00450559 -0.116397 0.262394
-0.0504558 -0.0755874 0.431787
0.0141069 -0.0662365 0.952461
0.00448956 0.0452731 0.16398
-0.0422762 -0.0517307 0.334483
-0.0161456 -0.124088 0.450937
-0.0554547 -0.0901363 0.236419
0.0871952 -0.0636221 0.145467
-0.0347233 -0.0458095 0.839778
-0.289662 -0.0678572 0.559802
0.043617 -0.0483595 0.131885
0.0430077 -0.0655017 0.314871
-0.0470165 -0.0938297 0.462732
-0.124719 -0.0830687 0.647924
-0.0807271 -0.0680024 0.598583
-0.0933016 -0.0830687 0.605764
0.0133774 -0.119879 0.847664
-0.0784743 -0.0393071 0.1329
-0.0490294 -0.085668 0.729307
0.0166192 -0.11645 0.872741
-0.0510725 -0.0780421 0.667829
0.044594 -0.0919314 0.728937
-0.00434834 -0.119017 0.887055
0.0254488 -0.0381672 0.829698
0.0118814 -0.107167 0.932713
-0.041787 -0.0805605 0.227894
-0.0335387 -0.0982249 0.233341
0.168918 -0.0830687 0.614608
-0.155996 -0.030301 0.0954469
-0.00187435 0.0561468 0.10242
-0.0282532 -0.0925748 0.186779
-0.00420423 -0.0681421 0.0581944
0.0442677 -0.0938077 0.469221
-0.00236032 -0.0288675 0.385484
0.0412228 -0.0565058 0.335413
0.0766936 -0.0538101 0.145646
0.0308467 -0.0427314 0.368493
-0.364757 -0.0830687 0.53286
-0.0349143 -0.0430552 0.791188
-0.0228894 -0.121604 0.810394
0.00500399 -0.0294435 0.79991
0.252787 -0.0830687 0.570048
0.0434304 -0.0628961 0.351705
-0.000204651 -0.0197381 0.128368
-0.297473 -0.07477 0.538573
-0.00741404 0.035468 0.115821
0.205937 -0.077527 0.56405
0.140288 -0.0638569 0.0970557
0.0577629 -0.0756712 0.116792
-0.00999667 -0.00715749 0.136273
0.0459881 -0.0686342 0.736126
0.0578561 -0.0457252 0.11449
-0.00931667 -0.0182533 0.185367
0.0435206 -0.0601434 0.403697
-0.0325907 -0.0398535 0.119149
-0.0118478 -0.0379537 0.130056
0.0344499 -0.110295 0.550139
0.0129854 -0.0318843 0.677022
-0.000372564 -0.0753572 0.66459
-0.0505934 -0.0756778 0.512133
-0.205068 -0.0830687 0.567876
0.0426388 -0.0755447 0.246636
0.0263181 -0.0427227 0.862682
-0.0455835 -0.0992285 0.519941
0.0336585 -0.094844 0.229424
-0.110227 -0.0830687 0.610119
0.00289515 -0.0293526 0.544031
-0.0399607 -0.0963522 0.87939
0.00630881 -0.0305437 0.355558
0.103692 -0.0521613 0.12833
5.43729e-05 0.0620187 0.150979
0.0025611 0.106657 0.131776
0.0032416 -0.0289174 0.0827774
0.0736722 -0.0678572 0.638991
-0.0709388 -0.0362856 0.116075
-0.00288404 -0.0549945 0.106454
0.00139731 0.0851981 0.132533
-0.043102 -0.0888125 0.286737
0.149405 -0.0513967 0.10412
0.0552565 -0.0662031 0.138263
-0.147242 -0.0830687 0.635571
0.199586 -0.0830687 0.616256
0.0503146 -0.0678577 0.610982
0.04741 -0.0678572 0.67942
0.0130743 -0.123503 0.804807
0.0472987 -0.0738903 0.81501
0.0523646 -0.095223 0.151352
0.00905414 -0.125119 0.538341
0.0473641 -0.0820482 0.566415
-0.0502486 -0.0811188 0.761453
0.0383936 -0.0824595 0.62291
-0.00454561 -0.0498997 0.113949
0.0384752 -0.0824269 0.203177
0.0416477 -0.0529121 0.652136
-0.0220936 -0.0940349 0.167572
0.0456813 -0.0885141 0.531296
0.14223 -0.0830687 0.642586
0.0152984 -0.123606 0.423047
-0.0203188 -0.0643031 0.942776
0.00193444 -0.0735979 0.647067
-1.93041e-05 0.0430857 0.18327
0.00118309 -0.0292717 0.371253
0.035252 -0.0566357 0.891208
-0.0147268 -0.110242 0.91726
-0.0119378 -0.026045 0.119552
-0.0302588 -0.043337 0.857592
0.025593 -0.0469459 0.114492
-0.228807 -0.0830687 0.587882
-0.00437173 -0.126778 0.659245
-0.0146382 -0.0849061 0.119686
0.168046 -0.0737611 0.575796
-0.241628 -0.0678572 0.59074
-0.396539 -0.0830687 0.525017
-0.0802087 -0.0764114 0.677324
0.0866528 -0.0626525 0.110481
0.0441775 -0.0621191 0.596053
0.0116183 -0.0316199 0.611568
-0.0187963 -0.0320163 0.166121
-0.146771 -0.0468488 0.119461
-0.0201117 -0.0333152 0.494851
0.179001 -0.0678572 0.587486
-0.00743069 -0.0296297 0.215637
0.0330619 -0.0469623 0.208528
0.021229 -0.0337926 0.799277
0.00965886 -0.0830687 0.641037
0.150959 -0.0604451 0.0772899
-0.0487554 -0.0697293 0.112654
-0.00905681 0.0173917 0.106766
0.019072 -0.0337698 0.496799
0.00883302 -0.0676599 0.161585
0.0407209 -0.0631815 0.260138
0.00396524 -0.126278 0.610379
0.0416817 -0.0543831 0.819443
-0.0616574 -0.0480525 0.0953304
0.0475735 -0.0748454 0.484218
-0.0143946 -0.0318601 0.467675
-0.146347 -0.0678572 0.61952
-0.0708654 -0.0830687 0.661166
0.00193354 -0.00767489 0.169855
-0.115551 -0.0514643 0.129973
0.0515393 -0.0522056 0.0887048
0.0362325 -0.108259 0.630343
0.0320454 -0.0433303 0.623993
0.0242549 -0.0948619 0.936242
0.00628498 -0.115417 0.899061
0.0895179 -0.0577763 0.0866334
0.00607173 -0.096832 0.156006
0.012935 -0.0323268 0.425483
-0.0313081 -0.107277 0.875174
0.108773 -0.0600412 0.0903939
-0.206549 -0.0678572 0.572879
-0.0278476 -0.0364382 0.535641
0.283599 -0.0820135 0.582104
-0.00696318 0.0330286 0.136365
-0.0196147 -0.0830687 0.672239
0.0425662 -0.0749402 0.177581
0.0279541 -0.116702 0.57808
0.0846189 -0.0678572 0.612423
-0.0458935 -0.0973701 0.676166
-0.00522485 0.0366986 0.171185
-0.0793973 -0.0521299 0.120238
0.139566 -0.0678572 0.629862
0.345249 -0.0830687 0.546766
0.0353931 -0.0830687 0.645369
0.325857 -0.0713348 0.536621
0.02631 -0.0387138 0.314485
-0.0568301 -0.0756001 0.239048
-0.0959598 -0.0678572 0.621981
0.0417618 -0.102862 0.584448
-0.329859 -0.0830687 0.537718
-0.0377401 -0.0564332 0.188529
-0.020432 -0.0332707 0.584696
0.0161182 -0.123309 0.497498
-0.0391243 -0.101281 0.861689
-0.154067 -0.0678572 0.597782
-0.0277548 -0.119283 0.766656
-0.0172098 -0.0323704 0.620179
-0.0201848 -0.0830687 0.647255
-0.164536 -0.0757547 0.5722
-0.0109089 -0.107379 0.936635
0.0432226 -0.0585209 0.571765
-0.00575867 -0.0351678 0.19473
2.84932e-05 0.0795059 0.111252
-0.00585071 -0.0830687 0.685353
-0.0459545 -0.0582117 0.737942
0.0456409 -0.0671949 0.772904
-0.0476113 -0.0645026 0.710174
-0.0860511 -0.0678572 0.65457
-0.135873 -0.0830687 0.616965
-0.0648507 -0.0435036 0.147704
0.0480692 -0.0789848 0.648433
0.0521219 -0.0973308 0.19595
-0.00187116 0.0177932 0.187848
0.0067841 0.0944857 0.100006
-0.150059 -0.0830122 0.586188
0.0100158 -0.0519762 0.0976406
-0.00983564 -0.0920639 0.139399
0.029355 -0.0404867 0.703041
0.0386944 -0.105884 0.602875
-0.0486928 -0.068667 0.496572
-0.0293445 -0.084192 0.156958
-0.322212 -0.0694917 0.558133
-0.0426917 -0.0746759 0.244797
0.0396769 -0.06341 0.227355
-0.377991 -0.0823569 0.507399
0.0698014 -0.0830687 0.621827
-0.0482026 -0.0813288 0.340619
0.129504 -0.0748872 0.653399
-0.0128657 -0.12194 0.836056
0.0380815 -0.106302 0.682915
-0.00698394 0.0262323 0.152285
0.022228 -0.0471486 0.89998
-0.0217927 -0.0616299 0.144238
0.03848 -0.0706808 0.203235
0.253092 -0.0678572 0.579149
0.00128352 -0.0190316 0.174346
4.44094e-05 0.0250683 0.102539
-0.109396 -0.0678533 0.595891
-0.118196 -0.0762272 0.658534
0.0203822 -0.0339306 0.647523
0.00584541 0.0710327 0.11974
0.0440245 -0.0851251 0.838594
-0.0471867 -0.092544 0.69386
-0.0065719 0.0477271 0.113155
0.371123 -0.0830687 0.542513
0.0421754 -0.101634 0.481844
-0.00493349 -0.127096 0.447869
-0.0384681 -0.047055 0.540653
-0.045705 -0.091066 0.833093
0.013201 -0.03233 0.449584
-0.0136382 -0.0763801 0.968476
-0.0111878 -0.0304912 0.259497
-0.00671829 -0.0339446 0.874035
0.0441139 -0.0614288 0.790053
-0.0170277 -0.111278 0.243676
0.0247001 -0.112701 0.30941
-0.0283931 -0.118766 0.667522
-0.354726 -0.0708918 0.529516
0.0699267 -0.0686206 0.600774
0.000560257 0.000360752 0.108091
-0.00514404 -0.0291995 0.560238
0.0188842 -0.12246 0.547175
-0.00748024 -0.0494697 0.158258
0.0412867 -0.0965452 0.339232
-0.041568 -0.0505403 0.398913
0.00250641 -0.0830687 0.614307
-0.0389893 -0.10837 0.595426
-0.0278056 -0.0472361 0.10898
0.00741841 -0.0306821 0.484404
-0.0638423 -0.0503171 0.165771
-0.00762858 -0.00906123 0.212783
0.0314262 -0.0534714 0.150699
-0.00341681 0.00324259 0.170828
-0.0283654 -0.0366699 0.729549
-0.073951 -0.0603464 0.161556
-0.0309617 -0.0440946 0.148571
0.0339533 -0.106053 0.332993
-0.0263468 -0.116628 0.334932
-0.0262594 -0.121191 0.558258
0.146986 -0.0830687 0.600773
0.0743219 -0.0678572 0.667623
-0.0101496 -0.0830687 0.662064
0.000925192 -0.0295463 0.0190998
-0.00679062 -0.123005 0.338954
0.0186466 -0.12269 0.440895
0.0562484 -0.0678572 0.654164
-0.310145 -0.0830687 0.555077
-0.0447972 -0.0541202 0.580709
0.197306 -0.0678572 0.595974
-0.027593 -0.107539 0.263869
0.0165431 -0.0830687 0.685522
-0.0322039 -0.115005 0.642865
-0.0571864 -0.0678572 0.660327
-0.0183671 -0.0557396 0.932875
-0.047498 -0.0641407 0.538489
-0.00892024 -0.0556446 0.12599
0.00634434 0.110882 0.118563
0.0100766 -0.0313052 0.31719
-0.026634 -0.0368552 0.832018
0.0161077 -0.123416 0.396246
0.0474132 -0.074248 0.660415
-5.98403e-05 -0.0275609 0.191541
0.0243947 -0.0410285 0.104392
0.398367 -0.0826533 0.509588
0.0168934 -0.0796104 0.960867
0.25175 -0.06893 0.592712
-0.0106655 -0.0401099 0.146884
0.179918 -0.0678572 0.618942
0.0487806 -0.0833185 0.593999
0.00477396 -0.0302118 0.400062
0.216435 -0.0782616 0.612408
0.2368 -0.0678572 0.566691
-0.0800654 -0.057675 0.146436
0.0324397 -0.11209 0.618439
-0.20349 -0.0830687 0.59298
0.034415 -0.110503 0.424184
0.0197814 -0.0335268 0.749609
0.0167292 -0.0867886 0.134601
-0.0502826 -0.0602391 0.147854
0.106766 -0.0678572 0.620851
0.378256 -0.0756072 0.528316
-0.135235 -0.0727522 0.580812
0.0410732 -0.0524317 0.520034
-0.047063 -0.0936291 0.443224
0.0223468 -0.0548935 0.0970131
-0.0205328 -0.050325 0.148161
-0.223473 -0.0678572 0.570684
-0.00288468 -0.0286253 0.530181
0.031787 -0.0678572 0.628367
0.350986 -0.0830687 0.534915
0.00593689 -0.0298932 0.0698471
-0.0474445 -0.0850442 0.149527
-0.0244899 -0.0355631 0.210694
-0.0563915 -0.0830687 0.677893
-0.0264935 -0.121092 0.523636
-0.275199 -0.0678572 0.559873
-0.00253296 -0.0380038 0.134608
-0.0141636 -0.124558 0.510058
0.0460537 -0.0870393 0.395997
-0.0241477 -0.121705 0.576606
0.0227121 -0.063795 0.138557
0.0203521 -0.0340172 0.5567
-0.0157644 -0.116001 0.29018
0.0473016 -0.0822206 0.578001
0.0238391 -0.0849747 0.149573
-0.00107836 0.0630407 0.112516
0.0357024 -0.0473436 0.42692
0.0375541 -0.107311 0.499714
-0.0444993 -0.0830687 0.61629
-0.0111483 -0.102976 0.188613
0.0290552 -0.0965442 0.217561
0.163931 -0.0830687 0.631691
-0.00305036 -0.12609 0.361044
-0.0479612 -0.066224 0.441954
0.0802147 -0.0655964 0.12655
-0.0208397 -0.122469 0.61973
0.0281381 -0.0394888 0.531356
0.129643 -0.0678572 0.605738
0.289732 -0.0678572 0.561831
0.00757523 -0.125057 0.747141
0.0628694 -0.0808439 0.153298
-0.0449609 -0.101534 0.486119
0.00130251 -0.0287439 0.681084
-0.136917 -0.0709041 0.647239
0.046019 -0.0917517 0.229702
0.0225211 -0.035545 0.249983
-0.13428 -0.0489832 0.125014
0.00265928 -0.126995 0.420765
-0.0146661 -0.124543 0.394619
0.0175202 -0.122898 0.521371
0.0482775 -0.0830687 0.680438
0.147095 -0.0830687 0.586566
0.040297 -0.0895394 0.865819
0.0506247 -0.0678572 0.623618
0.0377755 -0.0495708 0.378067
-0.048356 -0.0668983 0.808853
-0.310877 -0.0678572 0.541117
0.183096 -0.0830687 0.583602
0.034097 -0.108863 0.359756
-0.104952 -0.0475182 0.10773
0.0308264 -0.0709002 0.691531
0.0577389 -0.0957783 0.210438
-0.0499218 -0.0734318 0.4627
-0.0174655 -0.0497846 0.0910921
0.236707 -0.0830687 0.591412
-0.0455315 -0.056934 0.633414
-0.0502808 -0.0651127 0.220917
0.0373192 -0.0483827 0.728807
0.0302653 -0.0679056 0.649079
0.135743 -0.0543381 0.0837343
-0.275221 -0.0678572 0.576051
-0.0858723 -0.0457559 0.0926985
-0.066206 -0.0731894 0.147601
-0.000401066 0.106644 0.0976003
0.0388849 -0.0878273 0.177849
0.0182344 -0.100707 0.190385
0.0446491 -0.0917263 0.741491
0.195065 -0.0830687 0.563994
0.0141843 -0.0395851 0.0409177
-0.00661172 -0.0432965 0.910678
0.0871981 -0.0838768 0.656758
0.0992845 -0.0830687 0.626564
0.115586 -0.0648424 0.110449
-0.0244606 -0.121821 0.489157
-0.00467182 0.0625722 0.138411
0.0434448 -0.0964512 0.609061
-0.000463732 -0.127198 0.756436
0.0519371 -0.0713795 0.171985
0.0227472 -0.0344147 0.7117
-0.0221304 -0.0382107 0.875777
0.0182093 -0.111753 0.901389
-0.354378 -0.0789113 0.516866
0.00454407 0.0488558 0.127498
0.0161343 -0.110922 0.245203
0.235536 -0.0722975 0.600996
-0.0384798 -0.103659 0.848865
-0.148858 -0.0830687 0.614551
0.0568223 -0.0830687 0.656243
0.0259637 -0.0394533 0.221338
-0.30848 -0.0750718 0.565777
-0.00377442 0.0776573 0.130638
-0.223096 -0.0711368 0.604034
0.189608 -0.0678572 0.610243
0.0301956 -0.041899 0.407213
-0.0392333 -0.108187 0.575922
0.31013 -0.0830687 0.567782
-0.00237169 0.00222079 0.206495
0.0418064 -0.0527843 0.798517
0.0348576 -0.0782608 0.911767
-0.0114914 -0.12479 0.716464
-0.00662463 -0.0716907 0.630033
0.0376332 -0.107313 0.38503
-0.0217999 -0.0421128 0.0708244
0.181174 -0.0733437 0.573842
-0.00864543 -0.072206 0.0732964
-0.0355722 -0.112131 0.377747
-0.00854698 -0.0373439 0.109795
-0.0138207 -0.0319472 0.382365
0.013025 -0.121993 0.827872
0.171439 -0.0678572 0.610115
0.00216834 0.0966506 0.129533
-0.172264 -0.0830324 0.566157
-0.0387358 -0.10222 0.316611
-0.0789962 -0.0858607 0.646402
-0.0384974 -0.108738 0.634527
0.0437878 -0.0949414 0.771396
-0.150123 -0.039892 0.0880822
-0.0374302 -0.0979046 0.265688
-0.0440605 -0.10295 0.789612
0.0443977 -0.0745763 0.290864
0.033307 -0.0461542 0.268358
-0.0397394 -0.0830687 0.692425
0.0137204 -0.0601647 0.055553
-0.0329525 -0.114735 0.407128
-0.0420165 -0.105549 0.529766
0.0230614 -0.120681 0.368371
-0.034116 -0.052348 0.175666
-0.0133032 -0.124412 0.646902
-0.0876289 -0.0678572 0.612227
0.011343 -0.0610394 0.941776
-0.0193254 -0.0327652 0.709193
0.0642161 -0.085082 0.167895
-0.0822974 -0.0830687 0.667322
0.03663 -0.107776 0.663768
-0.104559 -0.0772597 0.66566
0.0606349 -0.0804129 0.126833
0.150051 -0.0678572 0.623882
-0.0425806 -0.0512292 0.102936
-0.0533917 -0.0652952 0.250798
-0.043742 -0.0425168 0.135582
0.0645907 -0.0830687 0.610961
-0.15686 -0.0315467 0.10865
-0.0326357 -0.0417188 0.373126
-0.0619221 -0.0882169 0.188159
-0.00903262 0.00881242 0.128494
-0.0476048 -0.0664613 0.164888
-0.0363633 -0.110734 0.717878
-0.0119816 -0.0313794 0.408899
0.020595 -0.0403635 0.888829
-0.12437 -0.0840419 0.63139
-0.02224 -0.116342 0.866283
-0.0425559 -0.104952 0.54812
-0.113174 -0.033591 0.118474
-0.00350839 -0.0830687 0.704965
-0.139396 -0.0678572 0.632986
-0.0489512 -0.0864986 0.383162
-0.000572328 0.0510205 0.155424
0.0430585 -0.0733721 0.862019
0.0438809 -0.0945915 0.685538
0.0890485 -0.0678572 0.639669
0.00164594 -0.0766 0.687232
-0.25436 -0.0678572 0.579698
-0.00701393 -0.080047 0.0965176
-0.0465209 -0.0681129 0.316719
-0.0155393 -0.124295 0.408536
-0.00496818 -0.126694 0.629444
-0.00460651 -0.103321 0.958038
0.00123938 -0.0127141 0.22375
-0.0296207 -0.0400683 0.231152
-0.0373428 -0.0470452 0.308696
-0.0508499 -0.0788754 0.777398
-0.0996174 -0.0557564 0.144403
0.36879 -0.0734032 0.53563
-0.135399 -0.0405944 0.0893738
0.0183792 -0.0333789 0.293838
-0.0381488 -0.109524 0.428489
0.0232503 -0.0830687 0.677558
-0.241482 -0.0704915 0.559128
-0.0384301 -0.0473116 0.427713
0.0389885 -0.0500033 0.747156
-0.365995 -0.0731335 0.526645
-0.00593338 -0.112031 0.225519
-0.00422068 -0.0219073 0.201094
-0.0443301 -0.0536786 0.81852
0.0375674 -0.0522192 0.25301
0.00284941 0.122253 0.10629
-0.203241 -0.0830687 0.579549
-0.043129 -0.0894274 0.865336
-0.0766321 -0.0830475 0.594907
-0.14141 -0.0440032 0.104234
-0.181063 -0.0678572 0.599654
-0.0844399 -0.0339033 0.109718
0.0334978 -0.0605629 0.119592
-0.00473334 -0.0387964 0.222291
-0.0548675 -0.0903142 0.209815
0.0605197 -0.090116 0.252969
-0.0357099 -0.111416 0.694957
-0.0480356 -0.0658161 0.779567
-0.00634823 0.044859 0.127394
-0.0253562 -0.0346213 0.55471
-0.0213108 -0.0756818 0.108334
-0.0694261 -0.0541463 0.126133
0.0368606 -0.10792 0.538886
0.0149584 -0.0830687 0.649809
0.0127875 -0.0715228 0.0806737
-0.0195362 -0.0798139 0.601055
-0.00871198 -0.0351565 0.186496
0.136264 -0.0830687 0.630005
-0.00393761 0.0206984 0.115351
-0.0449853 -0.101299 0.383116
0.0112315 -0.0308668 0.114614
0.00955916 -0.125054 0.509275
-0.100368 -0.0829443 0.587011
-0.0310945 -0.0830687 0.682372
0.0454996 -0.0673766 0.4327
-0.108481 -0.0460592 0.139275
-0.00891022 -0.0830687 0.616722
-0.00993509 -0.0601004 0.0982976
0.0090314 -0.0307498 0.70754
-0.0252691 -0.121651 0.444
-0.0492303 -0.0854589 0.55043
-0.0816018 -0.0828929 0.62138
-0.0167118 -0.0318671 0.789635
0.0440695 -0.0647975 0.82408
-0.05025 -0.0745305 0.486637
-0.0387959 -0.0541821 0.115414
-0.19224 -0.0678572 0.595703
0.285823 -0.0707306 0.549734
-0.0227463 -0.121716 0.757844
-0.00654419 -0.0319848 0.161533
0.0395628 -0.105368 0.406781
0.00306132 -0.00301481 0.195744
0.109044 -0.0832374 0.637084
-0.00336245 -0.0274194 0.24078
-0.0268327 -0.0383124 0.198004
-0.0493155 -0.085023 0.572786
0.00497383 -0.0298143 0.635773
0.033579 -0.0463671 0.830337
-0.0466237 -0.0688951 0.126076
0.0388901 -0.0502177 0.563563
-0.0472886 -0.0803086 0.319944
-0.0351763 -0.0485952 0.160994
-0.0439754 -0.0523234 0.71307
0.0536759 -0.0780973 0.231303
0.00335137 -0.0830687 0.667138
-0.0286208 -0.118396 0.78438
0.0468865 -0.0840786 0.500979
-0.0131003 -0.0552629 0.0356099
0.00331656 -0.0410946 0.904958
-0.0041259 -0.127161 0.544107
-0.0408683 -0.0495867 0.479474
-0.0281834 -0.118955 0.684681
0.0467133 -0.0846153 0.42282
0.000665705 -0.0871159 0.117022
0.0359736 -0.0678572 0.639156
0.0605898 -0.075675 0.202724
0.0253269 -0.0381566 0.270175
0.00976455 -0.121125 0.335304
0.0038843 0.0183628 0.174258
-0.0204452 -0.122886 0.499813
-0.0499508 -0.0739608 0.382763
-0.0589628 -0.0646832 0.12502
0.00959943 -0.124452 0.791885
0.0469335 -0.0838224 0.443619
-0.0254266 -0.0345224 0.659427
-0.1079 -0.0376452 0.0978231
-0.275716 -0.0830687 0.54128
0.0459009 -0.0870559 0.783715
-0.225546 -0.0830687 0.553873
0.0215518 -0.0339655 0.764138
0.0236999 -0.120682 0.684455
0.260634 -0.0820515 0.592232
-0.00828651 -0.120677 0.318521
0.0256581 -0.0678574 0.6147
-0.0415457 -0.059088 0.232664
-0.0358365 -0.0443696 0.616252
-0.373844 -0.0753997 0.536747
-4.31146e-05 -0.120643 0.302323
0.036994 -0.0975432 0.878224
-0.0350879 -0.11253 0.506079
0.114794 -0.0522608 0.12485
-0.0262118 -0.121088 0.599248
0.265302 -0.0830687 0.570877
0.0273773 -0.100027 0.909896
-0.0387969 -0.0559763 0.204731
0.233441 -0.0757241 0.559341
0.0475984 -0.0966443 0.18242
-0.0305342 -0.116748 0.619596
-0.0307174 -0.116927 0.469053
-0.0483961 -0.0842369 0.357562
0.00241868 0.045943 0.104386
0.00176612 -0.0304427 0.837008
-0.0464087 -0.0961481 0.498615
0.00840576 -0.124858 0.730732
0.021231 -0.0374773 0.142767
0.012052 -0.0316892 0.654684
0.0114943 -0.104739 0.201114
0.0207954 -0.0573047 0.108853
-0.193162 -0.0830687 0.572298
-0.0164417 -0.0329292 0.0940577
0.0236623 -0.0353047 0.426587
0.042686 -0.065716 0.302412
0.0324811 -0.101015 0.274019
0.00525942 -0.0824647 0.105537
0.138523 -0.0501989 0.106763
-0.0367055 -0.0830687 0.624224
0.0339448 -0.0826337 0.192988
0.0341639 -0.0506248 0.863201
0.00128422 -0.0287962 0.657852
-0.0172259 -0.0322299 0.698155
-0.297785 -0.0678572 0.549083
-0.00837297 -0.076272 0.654569
-0.00367896 -0.127451 0.429886
-0.0488204 -0.069204 0.630246
0.0125971 -0.0775289 0.0967163
0.202493 -0.0678572 0.581005
0.0429301 -0.0574801 0.607919
0.00452513 -0.052904 0.13168
0.0328086 -0.0440502 0.661696
0.00287929 -0.0732294 0.0739219
0.0417108 -0.0890473 0.311621
-0.168942 -0.0362406 0.109498
0.046231 -0.0724658 0.16006
0.0481002 -0.0788449 0.704648
-0.00864341 -0.0301589 0.539491
0.394069 -0.0830687 0.526782
0.0479181 -0.0762624 0.459347
-0.0103687 -0.0255262 0.169075
-0.0965133 -0.0441964 0.145891
-0.00860942 -0.0296554 0.806185
-0.139081 -0.0830687 0.580272
0.100375 -0.0775903 0.668247
0.150672 -0.0638602 0.0933794
-0.126317 -0.0870483 0.599097
-0.352459 -0.0830687 0.534394
0.0273867 -0.113335 0.339485
-0.0237502 -0.122077 0.425271
-0.084216 -0.0482088 0.103594
-0.126272 -0.0356361 0.0964428
0.199125 -0.0722309 0.570851
-0.0630151 -0.0830687 0.633762
-0.0499753 -0.0739816 0.396179
-0.056108 -0.0678572 0.683483
0.00985348 -0.051825 0.0261472
0.0341123 -0.110518 0.586235
0.160188 -0.0830687 0.58924
-0.0052384 -0.0360154 0.236756
-0.0256061 -0.108161 0.251513
-0.0111542 -0.0199536 0.130046
-0.0122006 -0.104152 0.94851
-0.0351274 -0.0678572 0.624839
0.0473734 -0.0815581 0.726826
0.00909768 -0.0981855 0.166436
0.0473252 -0.0822511 0.555493
0.0465145 -0.0707481 0.529777
0.0101457 -0.0313245 0.516026
-0.00886625 -0.00334034 0.163544
-0.00893897 -0.030087 0.290179
0.00547732 -0.113845 0.245926
0.08561 -0.083089 0.587561
-0.00853 -0.0297796 0.747001
0.0274184 -0.0710663 0.170927
0.0124472 -0.124057 0.592408
-0.177382 -0.0678572 0.612669
0.0466488 -0.0567957 0.0972804
-0.0139001 -0.0314207 0.664837
-0.048112 -0.0830687 0.605448
-0.0339646 -0.0595457 0.134353
-0.14178 -0.0295439 0.109692
0.0389461 -0.0502244 0.632729
-0.00319682 0.0262036 0.127837
-0.0824016 -0.0507416 0.155468
-0.0109147 -0.0331798 0.024352
-0.226615 -0.0830687 0.603747
0.0302169 -0.0805936 0.160038
0.0445631 -0.0920459 0.709704
-0.0129035 -0.0830687 0.700678
0.0321386 -0.112119 0.786061
0.039402 -0.0819619 0.238349
-0.183918 -0.0830687 0.594687
-0.13329 -0.0830687 0.640041
-0.00375744 -0.014212 0.236085
-0.00122381 -0.127352 0.79205
-0.0474761 -0.064185 0.485421
0.0310216 -0.113222 0.798101
-0.0176214 -0.0325879 0.317172
-0.0257356 -0.0637272 0.0955887
-0.0447063 -0.101801 0.698737
-0.153554 -0.0763693 0.641129
0.0143847 -0.0325774 0.33542
0.290185 -0.0830687 0.543905
0.0258129 -0.0435604 0.124471
0.000342395 -0.123771 0.843753
0.0498215 -0.0971265 0.240527
0.127347 -0.0678572 0.626465
0.0278127 -0.0392235 0.499999
0.028965 -0.105826 0.28575
-0.0066603 -0.114842 0.252025
-0.00100266 -0.0271394 0.119335
-0.0450637 -0.101133 0.474061
-0.0490525 -0.0861886 0.431951
0.281221 -0.0678572 0.568303
0.00921712 -0.0312062 0.469503
0.0236008 -0.05079 0.0877199
0.0374879 -0.0941197 0.261766
-0.0466455 -0.076348 0.861649
0.00282226 0.058233 0.163121
-0.00387928 -0.127168 0.565064
0.336147 -0.0725255 0.532415
0.0428611 -0.0745887 0.216669
-0.102631 -0.0349302 0.120996
-0.029165 -0.0709246 0.680664
0.00197922 0.00196011 0.149871
-0.0676602 -0.0789147 0.195369
-0.0414873 -0.0500546 0.567992
0.015739 -0.0327622 0.574875
0.0160732 -0.0913421 0.14563
-0.127216 -0.0678572 0.6034
0.0148919 -0.0795907 0.109039
-0.00682058 -0.0145273 0.109975
0.0228387 -0.0728309 0.180816
-0.0297229 -0.0904034 0.930377
-0.170722 -0.0691481 0.577704
0.153175 -0.0525282 0.08396
0.114946 -0.0828745 0.583442
-0.188365 -0.0830687 0.623277
-0.0370905 -0.0836446 0.198073
0.04824 -0.078866 0.386257
0.047226 -0.095803 0.160551
0.0465519 -0.0714637 0.402383
-0.257805 -0.0678572 0.562892
0.0115049 -0.124094 0.683774
0.000847869 -0.0918655 0.133131
0.0720198 -0.0830687 0.635461
0.0408776 -0.0830687 0.664542
-0.339513 -0.0830687 0.547883
-0.0244631 -0.0420085 0.0969096
-0.0287338 -0.0431143 0.869241
0.333648 -0.0678572 0.542749
-0.0264574 -0.034996 0.608518
-0.119169 -0.0743983 0.582618
-0.264712 -0.0830687 0.559146
0.1091 -0.0863994 0.609043
-0.0495062 -0.0577841 0.136085
-0.103586 -0.0831155 0.642965
0.0327669 -0.0651261 0.141215
-0.0501604 -0.0815984 0.624378
0.336145 -0.0830687 0.559588
0.0107741 -0.109498 0.922569
