-0.0129202 -0.125027 0.379424
0.0588412 -0.092151 0.254312
0.0210721 -0.12202 0.459954
-0.0448455 -0.101806 0.553602
0.0624266 -0.0830687 0.65193
0.0654601 -0.063932 0.124003
-0.0280321 -0.115877 0.343391
0.169404 -0.0634814 0.0939252
-0.0370359 -0.052874 0.882302
-0.0246463 -0.0700787 0.184808
-0.0162328 -0.123423 0.785416
-0.0111477 -0.0307491 0.0597397
0.0438188 -0.0607606 0.497795
0.0353962 -0.109157 0.61096
-0.00564785 0.0136971 0.100113
-0.123349 -0.0678572 0.622671
0.0120781 -0.0316844 0.292877
0.0134312 -0.0317274 0.789354
0.0424611 -0.0901565 0.840905
-0.0274769 -0.0364456 0.400186
0.0459202 -0.0691949 0.385562
0.227669 -0.0678572 0.589261
0.0808252 -0.0831929 0.585504
-0.00152434 0.015335 0.202595
0.00840379 -0.125467 0.409344
0.00882022 -0.124789 0.700729
0.181675 -0.0830687 0.62992
0.0468756 -0.0834162 0.730371
-0.0342369 -0.112907 0.680031
-0.183483 -0.0690028 0.623238
-0.0658192 -0.0678572 0.612562
-0.0717387 -0.0441414 0.153139
-0.35264 -0.0701757 0.534507
0.0185055 -0.0621392 0.170447
-0.0284238 -0.112565 0.316935
0.297436 -0.0787358 0.575428
0.0175421 -0.0902394 0.146664
0.0122223 -0.0673475 0.0692527
-0.00395224 -0.0289374 0.511684
-0.26599 -0.0678572 0.567162
-0.0639078 -0.0844437 0.250116
0.340969 -0.0678572 0.550832
-0.0607559 -0.0868006 0.151647
-0.0244003 -0.121817 0.508321
0.112724 -0.0476216 0.103866
-0.0410138 -0.0498044 0.456565
-0.03525 -0.0894752 0.202703
0.123292 -0.0678572 0.633914
-0.0455098 -0.0989487 0.375973
-0.0275092 -0.0437398 0.885793
-0.0100611 -0.020162 0.165931
0.0387414 -0.0573173 0.246711
-0.0229887 -0.0340039 0.313724
-0.0212847 -0.0331913 0.74944
-0.00766761 -0.0443561 0.140894
0.00945907 -0.0994583 0.961192
-0.00149821 -0.0282097 0.572713
0.02368 -0.112213 0.874703
1.45617e-05 -0.0548721 0.104851
-0.227165 -0.0795667 0.604822
0.0853836 -0.0678572 0.657438
-0.0855965 -0.0487925 0.106818
0.0142055 -0.123458 0.637533
-0.0449595 -0.0547128 0.571341
-0.0209234 -0.0347364 0.835734
0.00277684 -0.126693 0.57641
-0.0478175 -0.0901917 0.777319
-0.0195681 -0.0745537 0.702472
-0.102427 -0.0862399 0.648596
-0.032115 -0.042248 0.263886
-0.000511449 0.0678169 0.11318
-0.134011 -0.0678572 0.601883
0.0373735 -0.0749039 0.900438
0.0428468 -0.0632962 0.329
0.133416 -0.0852197 0.59659
-0.0509823 -0.0771655 0.505222
0.0236457 -0.0733978 0.702843
0.0185635 -0.120185 0.350326
-0.0743537 -0.0678572 0.629014
-0.0216218 -0.0334718 0.672084
0.0248674 -0.0706939 0.671949
-0.0468723 -0.0695238 0.838077
0.0604748 -0.0849634 0.132216
0.300184 -0.0760737 0.540771
-0.0485339 -0.0819827 0.82885
-0.006038 -0.0396881 0.901075
-0.0325681 -0.0874646 0.922422
0.0216953 -0.078188 0.601646
0.013921 -0.0313969 0.155873
0.00385544 -0.115912 0.263229
0.193592 -0.0830687 0.590852
-0.21514 -0.0678572 0.572147
0.0468075 -0.072155 0.452267
0.0443166 -0.0934821 0.555039
-0.152358 -0.0830687 0.583215
-0.0501473 -0.0738432 0.741984
0.0308278 -0.113438 0.779114
-0.0398619 -0.0442737 0.142429
0.0268406 -0.0629075 0.924106
0.0299475 -0.0412938 0.537485
0.150896 -0.0663766 0.105081
0.0575524 -0.0585493 0.101615
0.140908 -0.0830687 0.58369
0.0468892 -0.0838167 0.567158
0.0348583 -0.0549444 0.165826
0.0300169 -0.0968283 0.222653
0.000933379 0.0966162 0.140239
-0.13064 -0.0436693 0.0988408
0.0174864 -0.0331877 0.615933
0.0245324 -0.0362087 0.415827
-0.0419239 -0.0830687 0.653611
0.021137 -0.120833 0.817939
-0.0507063 -0.076597 0.417584
0.0351539 -0.0547797 0.196961
-0.132911 -0.0321108 0.118558
0.103078 -0.0830687 0.630113
0.0357573 -0.107537 0.362778
0.0365739 -0.0481836 0.43692
0.144221 -0.0940827 0.655325
0.216416 -0.0678572 0.604794
-0.00740337 -0.0185819 0.101015
0.00210573 0.00816168 0.140124
-0.0141351 -0.0506353 0.0900434
0.0125938 -0.0315048 0.243721
-0.0224454 -0.0921554 0.161324
0.0917541 -0.0521585 0.13256
0.134761 -0.0856609 0.66526
0.00965635 -0.0306245 0.0843186
-0.00736215 -0.032157 0.0138218
-0.125228 -0.105613 0.670109
0.046196 -0.0751619 0.831557
-0.0311433 -0.0678572 0.642778
-0.0196057 -0.0333694 0.355798
0.011209 -0.124088 0.744017
0.0362564 -0.0470985 0.812325
0.00687302 -0.121602 0.332138
0.0590002 -0.0740676 0.219571
-0.0363717 -0.0814447 0.59602
0.267351 -0.0682008 0.585613
0.0365577 -0.0488942 0.826302
0.0403144 -0.100909 0.344009
-0.0554716 -0.063948 0.148086
0.0158574 -0.0739047 0.0956805
0.0394346 -0.0504041 0.764267
0.0407747 -0.103908 0.569737
0.022398 -0.0792929 0.949774
0.0571299 -0.0830687 0.686612
-0.0280806 -0.0830719 0.608983
-0.29979 -0.0825817 0.57114
0.217428 -0.0816166 0.558947
0.0285987 -0.0808422 0.636519
0.00956474 -0.0309616 0.679551
-0.0148952 -0.100168 0.953974
-0.0456796 -0.0649806 0.316646
-0.0214644 -0.0336912 0.490062
-0.03938 -0.107732 0.706317
0.0936032 -0.0461177 0.103623
0.142092 -0.0678572 0.604239
0.0440567 -0.0729619 0.283665
-0.0455945 -0.0571814 0.642272
-0.151288 -0.0830687 0.621502
0.0105414 -0.12479 0.509657
-0.0159108 -0.114982 0.892049
-0.249926 -0.0678572 0.58344
0.0985287 -0.0830687 0.666861
-0.0448772 -0.101219 0.642553
0.0598893 -0.0749751 0.195044
0.0208798 -0.0341813 0.314309
-0.106929 -0.0855878 0.617785
0.0268228 -0.0386725 0.372139
-0.0272672 -0.120408 0.424943
-0.0391791 -0.104123 0.33787
-0.0219151 -0.0351455 0.146971
-0.0604514 -0.0426343 0.142071
-0.0209606 -0.0507222 0.916412
0.00355863 0.0398405 0.116073
0.00419415 0.0253765 0.168558
-0.0179068 -0.0688069 0.0798167
0.0407491 -0.104122 0.491619
-0.00945924 -0.0830687 0.6692
-0.0426041 -0.0887461 0.872901
-0.0445849 -0.0533373 0.676928
0.148648 -0.0811199 0.646084
0.0277948 -0.0392537 0.484722
0.00275399 -0.0137317 0.209548
-0.0276243 -0.0364897 0.432917
-0.0256878 -0.106753 0.239491
0.0412309 -0.0678572 0.629386
-0.0502579 -0.0358542 0.106276
0.0140911 -0.120759 0.837161
-0.0920779 -0.0678572 0.64891
-0.105701 -0.0678572 0.609192
0.0445245 -0.0594259 0.110349
-0.0185551 -0.123288 0.546748
-0.00583439 -0.0452785 0.184193
-0.278642 -0.0805511 0.540616
0.0137703 -0.0487211 0.131753
-0.194418 -0.0830687 0.601224
0.0192106 -0.1226 0.381803
0.0341217 -0.100022 0.279879
-0.0390328 -0.108655 0.407717
0.0382749 -0.106079 0.706813
-0.0197674 -0.122704 0.638504
0.0324308 -0.0679275 0.15445
0.0334534 -0.090311 0.905413
0.345401 -0.0830687 0.526805
-0.0402458 -0.0487931 0.596055
-0.0443019 -0.102783 0.728058
0.0481436 -0.0765607 0.766245
-0.0494883 -0.0722512 0.379666
-0.330234 -0.0715138 0.530479
-0.047074 -0.0668413 0.229207
0.0411746 -0.0645957 0.856641
-0.069869 -0.0830687 0.636798
0.0352549 -0.109662 0.426529
0.106333 -0.067849 0.600589
-0.0480295 -0.0661199 0.535403
0.0427396 -0.0567915 0.62376
0.0237927 -0.0736316 0.117346
-0.156184 -0.0443648 0.111178
-0.0718594 -0.054759 0.129866
-0.151271 -0.0706546 0.640059
0.0197092 -0.0964737 0.179068
-0.016498 -0.0545566 0.0422182
0.0422904 -0.0550173 0.689025
-0.0245063 -0.0342772 0.658872
0.0480198 -0.0769174 0.407056
-0.378414 -0.0830687 0.535017
-0.0312915 -0.0678575 0.614281
-0.0656204 -0.0735304 0.136947
0.0644135 -0.0830687 0.62164
-0.0842653 -0.0568332 0.143988
0.0394704 -0.104966 0.647748
-0.0344581 -0.112551 0.790294
0.00731067 -0.0315579 0.832304
-0.00103149 -0.0295459 0.123768
-0.191695 -0.0678572 0.593438
-0.0679252 -0.077806 0.2126
-0.0230552 -0.0335167 0.810106
-0.0299848 -0.0646162 0.161131
-0.0225411 -0.113351 0.281322
-0.0426889 -0.104683 0.591329
-0.0236482 -0.122063 0.465554
0.00988123 -0.0308466 0.760752
-0.0108095 -0.0304618 0.270629
-0.00922319 -0.0527786 0.927596
0.0338257 -0.0830687 0.665967
0.000304004 -0.127115 0.668889
0.0904649 -0.0678572 0.641068
0.00932353 -0.0329934 0.0399089
-0.09401 -0.0370688 0.127944
0.0718643 -0.0697485 0.156078
-0.0401118 -0.088613 0.892097
0.0455586 -0.088951 0.441548
-0.0127505 -0.123941 0.816748
0.0455318 -0.0891134 0.523442
0.0062303 0.0668377 0.143056
0.301051 -0.0678572 0.56614
-0.0207529 -0.122339 0.69493
-0.103738 -0.0333518 0.114
0.00299298 0.00063034 0.185226
-0.313589 -0.0678572 0.54869
0.0517259 -0.0830687 0.604192
-0.0502402 -0.0746053 0.465482
-0.0422397 -0.0955974 0.303392
-0.0224812 -0.037712 0.868244
0.0531806 -0.0678572 0.662962
-0.0396793 -0.0817812 0.616995
-0.0403048 -0.0830687 0.684565
-0.118064 -0.0830251 0.585483
0.0423292 -0.0425394 0.10429
0.0113785 -0.0744153 0.684794
0.174495 -0.0678572 0.6142
0.137361 -0.0539007 0.0839042
0.0436325 -0.0600184 0.548771
0.0440255 -0.0947199 0.475146
-0.229878 -0.0830687 0.587451
-0.0389219 -0.108709 0.487146
-0.0110508 -0.125445 0.459137
-0.0673917 -0.0591324 0.148755
-0.0511266 -0.0772927 0.794719
-0.00542695 -0.040763 0.21912
0.0240303 -0.0495637 0.901309
0.124879 -0.0533622 0.12063
-0.0362208 -0.0453399 0.369367
-0.114141 -0.0678572 0.653327
0.0432114 -0.0970937 0.80953
0.00102403 -0.024052 0.184025
-0.0262386 -0.0346261 0.70576
0.00627891 -0.0606992 0.0405152
-0.336587 -0.0830687 0.553024
-0.0371886 -0.109854 0.763335
-0.0170623 -0.0324214 0.533282
-0.0354676 -0.0839946 0.186288
-0.129122 -0.0822721 0.667551
-0.15286 -0.0830687 0.605959
-0.0377707 -0.0460776 0.728646
-0.0157497 -0.0515433 0.143297
-0.0440228 -0.0522697 0.751329
0.0415678 -0.0511945 0.145885
0.0346307 -0.0474188 0.274521
0.00425382 0.0443077 0.128345
-0.00478706 -0.0295331 0.380054
-0.0138965 -0.101129 0.183257
-0.0427821 -0.104806 0.522609
0.0307142 -0.0424888 0.384646
0.0197839 -0.122222 0.546009
0.209215 -0.0678572 0.580563
0.0109937 -0.0405318 0.106834
-0.0444845 -0.0507479 0.174382
0.01433 -0.0323777 0.581524
-0.0434255 -0.0606238 0.280923
0.0515094 -0.073513 0.248746
0.0289183 -0.0759603 0.929409
-0.0235827 -0.0392811 0.113267
0.00111967 0.0953961 0.110766
-0.0567774 -0.0830687 0.630233
-0.0463564 -0.0599046 0.504802
0.0652807 -0.0678572 0.618902
0.00818644 -0.125497 0.436776
0.0102642 -0.1246 0.606936
-0.0703433 -0.0830687 0.662753
0.372075 -0.0830687 0.519618
0.00368867 -0.0295381 0.818967
0.030123 -0.114181 0.748267
-0.032037 -0.0699656 0.675805
0.00792449 -0.030589 0.651135
0.0072213 -0.117897 0.293847
0.0925238 -0.0830687 0.657265
0.164254 -0.0830687 0.592765
0.027078 -0.103929 0.251478
0.232322 -0.0830687 0.60311
-0.0144584 -0.0312905 0.778567
0.0441425 -0.0931998 0.152669
-0.0112584 -0.063162 0.161692
-0.0185257 -0.0327715 0.573631
0.031069 -0.0444525 0.224661
0.0443306 -0.0655107 0.358273
-0.000186283 -0.0830687 0.617238
0.0165948 -0.102536 0.197081
-0.0464017 -0.079734 0.132778
-0.00982244 -0.0907678 0.135036
-0.244467 -0.0794509 0.550421
-0.0415189 -0.054021 0.115628
0.2498 -0.0687205 0.562034
-0.00141266 -0.127998 0.487381
-0.031256 -0.116168 0.574759
0.320043 -0.0749526 0.535386
0.00356185 0.122276 0.128991
-0.050405 -0.0811511 0.438902
0.106045 -0.0827116 0.580537
0.0349878 -0.080305 0.196213
0.123635 -0.0918606 0.619835
-0.293054 -0.0678572 0.55441
-0.279575 -0.0684483 0.576802
-0.0503844 -0.081012 0.576926
0.00220475 -0.000493048 0.162541
-0.0288606 -0.038326 0.333345
0.0387534 -0.0514471 0.298791
-0.00765339 -0.0877452 0.977596
-0.0165912 -0.106672 0.932571
0.032211 -0.0435366 0.566584
0.00675262 -0.0304911 0.488847
0.090207 -0.0830687 0.619877
0.0228226 -0.115873 0.321143
-0.113599 -0.0955249 0.638149
-0.0602955 -0.088951 0.177983
-0.0263235 -0.0741282 0.944699
0.0304294 -0.11381 0.801004
-0.0340662 -0.044481 0.234574
0.0331469 -0.0444291 0.627768
-0.0448595 -0.0742994 0.2496
0.0407793 -0.0845986 0.87481
-0.108722 -0.048145 0.139552
-0.00430477 -0.031822 0.855278
-0.0393174 -0.0919841 0.235644
0.0321015 -0.0806176 0.174613
0.00557768 -0.0294731 0.217575
2.85423e-05 0.0757615 0.119584
0.0422649 -0.100624 0.752535
-0.37462 -0.0774799 0.510997
-0.00453382 -0.125266 0.356516
-0.149152 -0.0391309 0.0864707
0.00555377 -0.0300691 0.540094
-0.00621059 -0.0294438 0.60019
0.000765927 -0.00159552 0.119013
0.089325 -0.0604322 0.0991366
-0.00380465 -0.0291228 0.432082
0.273884 -0.0830687 0.54455
-0.0218658 -0.0338807 0.461078
-0.0191791 -0.036517 0.0810471
-0.00689286 0.0310761 0.143403
-0.00570599 -0.126333 0.721756
0.0196715 -0.110909 0.899438
-0.0249707 -0.0349197 0.283025
-0.0309492 -0.113547 0.831437
-0.0210404 -0.0333765 0.171245
-0.0414235 -0.0503165 0.820165
-0.00223719 -0.0287714 0.407808
-0.0266887 -0.120486 0.654364
4.34049e-06 -0.0223376 0.140831
0.0208905 -0.121857 0.570174
0.0442399 -0.0787582 0.307637
0.0322067 -0.0432231 0.746579
0.0147945 -0.071237 0.611379
-0.0467012 -0.0943555 0.659437
0.0209612 -0.0655795 0.147534
-0.114945 -0.0468802 0.108295
-0.139304 -0.070381 0.582437
-0.0464754 -0.0674867 0.205965
-0.0738055 -0.0344253 0.108567
0.015915 -0.0742359 0.192134
0.0535416 -0.0928347 0.229344
-0.0419084 -0.0506272 0.479312
-0.0477728 -0.0903584 0.761705
0.00678591 -0.076206 0.653211
-0.024386 -0.0611171 0.142759
-0.0177334 -0.12338 0.592141
-0.00944845 -0.0558544 0.125802
0.0146054 -0.0524239 0.0872578
-0.0633433 -0.0678572 0.666853
0.0436383 -0.0600021 0.521533
-0.012831 -0.0740597 0.677849
0.0470118 -0.0720228 0.138081
-0.0808193 -0.0830687 0.613835
0.063021 -0.0870911 0.158253
-0.00043655 0.0374881 0.188353
0.0418577 -0.0908891 0.322777
0.0436165 -0.0806951 0.120377
0.237842 -0.0830687 0.57718
-0.0416819 -0.0506077 0.413679
-0.0229388 -0.122163 0.529065
0.0437232 -0.0602279 0.724122
0.0786356 -0.0542861 0.147183
0.0430514 -0.0980168 0.590615
0.0433975 -0.0596089 0.418006
0.120826 -0.0678572 0.61924
-0.0337436 -0.0452009 0.843095
0.0470151 -0.0721959 0.805493
0.0420401 -0.101461 0.673446
-0.037457 -0.0505414 0.0978933
0.000683321 0.0645186 0.164492
0.0308428 -0.114089 0.405964
0.0198339 -0.122324 0.487476
0.00973482 -0.124423 0.787149
0.0448099 -0.095835 0.207445
-0.0982105 -0.0830687 0.668828
0.106572 -0.0830687 0.605381
0.00251801 -0.0293167 0.322873
-0.00748296 -0.119703 0.305903
0.0369282 -0.0563171 0.879872
-0.0647921 -0.0690276 0.169184
-0.0465738 -0.0950122 0.618942
-0.129687 -0.0830687 0.632027
-0.013218 -0.0310893 0.725268
-0.0132322 -0.107604 0.213605
-0.22072 -0.0811029 0.555495
0.037857 -0.106461 0.736283
-0.0454529 -0.0990167 0.808336
0.186758 -0.0795595 0.567206
0.351301 -0.0830687 0.544819
-0.00269969 -0.0284745 0.62766
0.0347742 -0.0468362 0.350058
-0.0431843 -0.0825027 0.164978
0.040177 -0.0798576 0.697299
0.0447207 -0.0728087 0.224759
-0.127691 -0.083228 0.609897
0.154183 -0.0558247 0.0781254
0.135493 -0.049332 0.103781
-0.00382581 -0.0806063 0.0955294
0.0768995 -0.0739284 0.678039
0.0238822 -0.035437 0.454381
-0.0026394 -0.012477 0.231122
0.0212067 -0.0361287 0.17659
0.155091 -0.0856005 0.623469
0.0395525 -0.0861532 0.260534
0.0707 -0.0583322 0.095925
0.00885852 -0.104339 0.948411
-0.131346 -0.106293 0.648669
0.00299254 -0.034439 0.883616
-0.0375861 -0.0462284 0.503597
0.045581 -0.0887856 0.383184
0.000180975 -0.0993319 0.16045
0.0397508 -0.0512776 0.46317
0.0191907 -0.0695417 0.640251
-0.0311213 -0.106824 0.879905
-0.0463944 -0.0597267 0.770472
0.00992515 -0.0873216 0.126038
-0.0257972 -0.0830687 0.634948
0.0139324 -0.118762 0.857151
0.00181811 -0.126584 0.758864
-0.0484004 -0.0850303 0.36134
-0.0139049 -0.0350012 0.0378048
-0.025658 -0.119945 0.360106
0.00990142 -0.0581704 0.939255
-0.174022 -0.0830687 0.594727
-0.0468051 -0.0783281 0.857806
-0.0116767 -0.111865 0.913247
-0.0659542 -0.0831824 0.594963
-0.0452216 -0.0557572 0.61889
0.00396098 -0.126498 0.532919
-0.0362073 -0.0686089 0.90784
-0.00707912 -0.066459 0.0555683
-0.00901659 -0.125639 0.618859
-0.00298299 -0.0386859 0.161275
0.0309413 -0.056109 0.0996488
-0.0400111 -0.0495447 0.326261
0.00429024 0.0189442 0.185602
-0.198012 -0.0728091 0.567871
-0.00308256 -0.114753 0.240911
-0.237387 -0.0678572 0.567396
-0.0493174 -0.0851757 0.542422
0.0427611 -0.0568266 0.675489
-0.130645 -0.0822457 0.643518
0.0357389 -0.0947381 0.892012
-0.0359691 -0.0494718 0.189811
0.394303 -0.0812261 0.511367
0.000509137 -0.0622312 0.145803
0.0182875 -0.0331599 0.263768
0.125431 -0.0708122 0.586584
0.0721674 -0.0467401 0.114155
0.254142 -0.0830687 0.588815
-0.0040557 -0.0830687 0.695571
-0.200126 -0.0826156 0.619184
0.0130962 -0.110517 0.232277
0.023873 -0.12054 0.658923
-0.20757 -0.0830687 0.58026
-0.0471565 -0.0747901 0.291886
-0.049913 -0.0730812 0.713057
-0.0405292 -0.107137 0.437995
0.0529494 -0.07232 0.10196
-0.0227459 -0.0816288 0.663385
0.155029 -0.0678572 0.625352
0.00880615 -0.0348762 0.0166724
0.0275716 -0.0387283 0.693632
-0.00115593 0.0523979 0.171206
0.184725 -0.0678572 0.592515
-0.228381 -0.0678572 0.596025
-0.0339067 -0.0422507 0.714571
-0.354474 -0.0830687 0.519678
0.0651539 -0.0678572 0.642068
0.0392835 -0.0549059 0.285759
0.00228102 0.0193363 0.120865
-0.161388 -0.0830687 0.571552
-0.0084154 -0.0311109 0.0988388
-0.056743 -0.089866 0.199051
0.122973 -0.101524 0.670691
0.00392466 -0.125958 0.802112
-0.277435 -0.0830687 0.566682
0.0452157 -0.0865324 0.360913
-0.0469851 -0.0627991 0.400575
0.27312 -0.0678572 0.556369
0.00610848 -0.126103 0.389392
0.0458245 -0.0874459 0.632549
0.00935805 -0.0726928 0.966658
0.0483863 -0.0777432 0.5363
0.00718784 0.0882519 0.124325
0.00149137 -0.00463814 0.148962
0.0377711 -0.107123 0.458713
-0.00482246 -0.0341386 0.24651
0.0427439 -0.0567359 0.572695
0.174424 -0.0830687 0.612478
-0.0489653 -0.0865872 0.484203
0.0455414 -0.0672987 0.477117
0.119261 -0.061145 0.091833
-0.00932342 -0.0302401 0.297922
0.201371 -0.071102 0.617215
0.118018 -0.0937885 0.657473
-0.128303 -0.046256 0.128988
-0.0667326 -0.0678572 0.64594
-0.0457853 -0.0977739 0.681405
-0.0397123 -0.0482982 0.542036
0.0587267 -0.0738724 0.174149
-0.0140107 -0.0707323 0.612318
0.128114 -0.0830687 0.638317
0.00218674 -0.0294448 0.356419
-0.06802 -0.0766597 0.234543
0.0166271 -0.033065 0.514374
-0.00514749 -0.0292096 0.551451
-0.0914858 -0.0830687 0.631633
0.152231 -0.0677584 0.587101
-0.00987778 -0.00336972 0.130872
-0.0641314 -0.0378903 0.121169
-0.0214642 -0.0709043 0.659663
-0.0116801 -0.125085 0.562464
0.0300449 -0.114585 0.586438
0.0181978 -0.0830687 0.623915
-0.0395733 -0.0946729 0.255821
0.0299459 -0.109784 0.846304
0.141592 -0.0926359 0.62528
0.0124611 -0.12364 0.369631
-0.1768 -0.0830687 0.618449
-0.0459826 -0.0736108 0.265941
0.312167 -0.0830687 0.569183
-0.0156134 -0.119719 0.329171
-0.049329 -0.0710031 0.687048
0.150501 -0.0830687 0.609245
0.0250089 -0.0411302 0.144803
0.0349308 -0.110016 0.383898
0.0101018 -0.0304787 0.128997
0.0017178 0.0843851 0.0977317
0.0222774 -0.0345316 0.558115
-0.00785618 -0.0294659 0.80117
-0.0311785 -0.0568804 0.125339
0.00288523 -0.104942 0.190978
0.137292 -0.0678572 0.623777
-0.050433 -0.0751212 0.558283
-0.0913667 -0.0414193 0.147371
0.0428479 -0.0941109 0.167601
-0.0867794 -0.0680373 0.599555
0.0463044 -0.0855836 0.646051
-0.0211061 -0.0451354 0.0600772
0.0132712 -0.045986 0.0300592
-0.141832 -0.0435543 0.122419
-0.162707 -0.0678572 0.623205
0.0992612 -0.0678572 0.657015
-0.0512861 -0.0648937 0.184497
-0.00771519 0.0162479 0.152988
-0.0432897 -0.0966627 0.842896
0.0346267 -0.110251 0.482242
-0.0548179 -0.0902797 0.22053
-0.0510963 -0.0471877 0.0896894
0.0352128 -0.0499243 0.84755
0.0647564 -0.0830687 0.601173
0.133158 -0.0681699 0.649079
0.010536 -0.124303 0.719482
-0.0466082 -0.0630498 0.364167
-0.0324312 -0.0963877 0.21945
-0.0262403 -0.0364884 0.251892
-0.00132215 -0.0316128 0.201348
-0.148798 -0.0678572 0.591995
-0.00568586 0.0469453 0.143737
-0.266193 -0.0830687 0.581224
-0.00264102 -0.0287193 0.339651
-0.174792 -0.0678572 0.603976
-0.0364952 -0.0445977 0.805617
-0.0121997 -0.0830687 0.648985
0.0411455 -0.0528729 0.399604
-0.202028 -0.0692623 0.613973
0.033897 -0.0447934 0.791839
-0.0410561 -0.0500506 0.391898
-0.0311743 -0.116531 0.381895
0.0134657 -0.0830687 0.663486
-0.110459 -0.0418061 0.0932347
0.0147674 -0.123233 0.674155
0.0311692 -0.111942 0.821284
0.035966 -0.0808739 0.616934
0.0378421 -0.106911 0.547583
0.0627452 -0.0684621 0.146177
-0.0877706 -0.0830687 0.652243
-0.020348 -0.0588847 0.935398
-0.0022555 0.00152217 0.212807
-0.0405783 -0.0494266 0.43827
-0.00855898 -0.0111327 0.192509
0.158788 -0.083045 0.573755
-0.139528 -0.0950436 0.657379
-0.0470843 -0.0934912 0.401263
0.0619444 -0.0916325 0.205184
-0.00319529 0.0358448 0.099453
-0.000944184 -0.0281874 0.662626
-0.00102861 0.0014882 0.102575
-0.0361941 -0.0459298 0.305233
0.0283911 -0.0830687 0.690035
-0.0332904 -0.0415042 0.76367
-0.0443055 -0.098981 0.355153
-0.0778216 -0.0388972 0.130749
-0.00768123 -0.0294302 0.079622
0.0475089 -0.0817165 0.473239
0.0418728 -0.0658852 0.175978
-0.0235012 -0.0500681 0.152426
0.0466267 -0.0850371 0.493169
-0.0424333 -0.058236 0.854268
-0.0728639 -0.0436113 0.0938009
-0.0368941 -0.0452974 0.692246
-0.030943 -0.077233 0.141798
0.0464985 -0.0707723 0.589555
-0.0287158 -0.0615157 0.108077
-0.0927592 -0.0678572 0.624341
-0.152087 -0.0291671 0.100204
-0.295245 -0.0797973 0.535997
0.000742971 -0.0238553 0.167807
-0.00555105 -0.121385 0.860697
0.088779 -0.0642711 0.117302
0.0465895 -0.0708349 0.747256
-0.0480617 -0.066332 0.601252
0.0430048 -0.0938762 0.243273
0.0267583 -0.0964378 0.923773
-0.00496203 0.0636045 0.126499
0.293051 -0.0830687 0.553243
0.00396348 -0.115523 0.901634
0.0315504 -0.0830687 0.645846
-0.00742047 0.0134177 0.169432
-0.0198583 -0.123054 0.488916
0.0475354 -0.0678577 0.612178
-0.0133311 -0.124856 0.43754
-0.184544 -0.067858 0.578567
0.23667 -0.0830687 0.555384
-0.0134892 -0.124839 0.413657
-0.00667286 0.0279276 0.158215
0.0949334 -0.0678572 0.615137
0.004322 -0.0830687 0.640964
-0.026545 -0.0350968 0.590006
-0.0468613 -0.0616405 0.726376
-0.116756 -0.0677809 0.595237
0.0589836 -0.0830687 0.674081
0.0426061 -0.100066 0.510121
-0.312129 -0.07887 0.530832
-0.209927 -0.0678572 0.590791
-0.0331687 -0.0561674 0.901803
-0.031723 -0.0714898 0.694972
0.0109784 -0.0337506 0.847683
0.0284715 -0.116391 0.503255
0.043365 -0.0971122 0.423268
0.0264217 -0.0378348 0.499292
-0.346614 -0.0830687 0.536466
9.65968e-05 -0.0591226 0.124721
0.0203045 -0.0583448 0.113896
0.0929589 -0.070537 0.593702
0.0488849 -0.0628057 0.124622
0.0245208 -0.120005 0.619546
0.230903 -0.0678572 0.571225
0.00608862 -0.046562 0.918093
-0.0183116 -0.0330514 0.417486
0.00250151 -0.0289127 0.743106
0.00917771 -0.0309753 0.602463
0.00703322 -0.0304378 0.0570693
-0.0505397 -0.0760878 0.396211
0.210675 -0.0830687 0.608624
0.0245363 -0.0362576 0.401521
0.284013 -0.0830687 0.56845
0.292907 -0.0678572 0.551975
0.00574181 -0.073958 0.626506
0.0393503 -0.0790811 0.23711
-0.00340556 -0.123835 0.842323
-0.00700644 -0.125957 0.741299
-0.0005911 -0.0166306 0.109105
-0.0830198 -0.0678572 0.665511
-0.0470463 -0.0628814 0.428348
-0.00744576 -0.125922 0.681991
-0.0490115 -0.0698992 0.488377
0.0207955 -0.122132 0.423995
-0.0146326 -0.0319778 0.448577
-0.0425676 -0.0403234 0.124895
0.0442677 -0.0933779 0.609456
-0.394379 -0.0824852 0.52899
-0.045222 -0.0689211 0.159198
-0.132694 -0.0697797 0.648887
-0.0318762 -0.100572 0.902352
0.0368917 -0.0639334 0.187156
-0.0501728 -0.0741015 0.52358
0.0437162 -0.0599909 0.778285
-0.0285592 -0.0371317 0.560947
-0.0243477 -0.114579 0.299486
0.153007 -0.0530046 0.0962748
-0.111933 -0.0678572 0.637109
-0.114456 -0.0899706 0.660167
0.00159669 0.0548159 0.102477
0.158259 -0.0678572 0.605196
0.00452262 -0.124779 0.822903
-0.0260884 -0.043468 0.133759
0.0437434 -0.0678572 0.649273
-0.250367 -0.0830687 0.58765
0.0820812 -0.0830687 0.642133
0.370555 -0.0785102 0.544088
-0.0347499 -0.0433105 0.577629
-0.0102207 -0.0155489 0.149513
-0.0673964 -0.0511939 0.111591
-0.0422132 -0.0508119 0.524064
0.187672 -0.0830687 0.605767
0.0451234 -0.0655399 0.701989
-0.258754 -0.0830687 0.562808
-0.0158241 -0.113792 0.266919
0.00715642 0.105968 0.12599
-0.0291157 -0.117874 0.806683
-0.0451375 -0.0900455 0.327935
-0.027302 -0.120391 0.399735
0.030857 -0.114048 0.442496
-0.264435 -0.0749726 0.548592
-0.169488 -0.0781991 0.633638
0.0406238 -0.103888 0.62387
0.0380562 -0.0491842 0.704452
0.0195771 -0.0522207 0.0650813
-0.315956 -0.076165 0.562757
-0.0417956 -0.0767117 0.21639
-0.010926 -0.0137174 0.122207
0.019283 -0.0337927 0.819942
0.0174159 -0.0331498 0.634181
-0.0275161 -0.119587 0.713511
-0.0462057 -0.0969058 0.498571
0.0345464 -0.0640807 0.135688
-0.135357 -0.0830687 0.590578
-0.0544625 -0.0645941 0.247357
0.164418 -0.0782575 0.637756
0.0421296 -0.10113 0.772098
-0.0512001 -0.0820416 0.235524
-0.0351972 -0.105579 0.858958
-0.00850213 -0.117289 0.283206
0.0367842 -0.0481566 0.512104
-0.041171 -0.0680457 0.890882
0.10983 -0.0868133 0.644969
-0.0461925 -0.081943 0.308486
0.00296582 -0.0286826 0.109485
-0.0371515 -0.0456486 0.656917
-0.00363448 -0.126986 0.652664
0.103002 -0.0558583 0.0877313
-0.0260936 -0.093764 0.940924
-0.0529848 -0.0490827 0.169607
0.0168453 -0.0334878 0.385448
0.0380953 -0.061402 0.213011
-0.0380033 -0.109059 0.746669
-0.041485 -0.0556053 0.26133
-0.0459352 -0.0978056 0.419951
0.0477791 -0.0755053 0.504584
0.0425856 -0.0656667 0.299544
-0.00850592 0.0166236 0.126478
-0.13921 -0.0678572 0.629811
-0.0348905 -0.11233 0.639245
-0.0480437 -0.0826485 0.344011
0.0380847 -0.103628 0.831616
0.00348985 -0.0291443 0.255931
0.117502 -0.0678055 0.12364
0.00995382 -0.0673249 0.159618
0.0305476 -0.0428393 0.326154
0.311659 -0.0678572 0.555618
0.00778291 -0.0827715 0.108835
-0.0292615 -0.118399 0.444979
-0.0155394 -0.0452944 0.0270976
0.0132697 -0.0322872 0.471222
0.0470624 -0.072253 0.160979
0.000455089 -0.0215179 0.153407
-0.0463059 -0.0958331 0.790922
0.204794 -0.0761934 0.565546
0.0286065 -0.115726 0.724325
0.0564673 -0.072458 0.236906
-0.0182098 -0.0543496 0.108883
-0.0376951 -0.0695085 0.173513
-0.0315113 -0.0402482 0.47365
0.0221987 -0.0399316 0.118627
-0.0248493 -0.0409865 0.0997696
0.117994 -0.0830687 0.616432
-0.0346246 -0.101685 0.274524
-0.0064568 -0.0558591 0.944755
0.00574197 -0.0849921 0.97747
0.215122 -0.0830687 0.587074
-0.0379119 -0.0678572 0.660139
-0.0472388 -0.09235 0.709493
-0.0530321 -0.0830687 0.668452
-0.0136358 -0.031391 0.641018
0.00524941 -0.0302138 0.444449
-0.0273996 -0.119632 0.771997
-0.0902682 -0.0512532 0.119997
0.0329268 -0.0441327 0.675164
0.0611746 -0.0459146 0.0978355
-0.00884349 -0.0842269 0.112195
0.0268894 -0.0394669 0.29642
-0.0172867 -0.123305 0.668028
0.0365604 -0.0478976 0.550052
-0.0194364 -0.0830687 0.690945
-0.00647673 -0.119614 0.87562
0.0557409 -0.046653 0.119586
-0.0075606 -0.0830687 0.602238
-0.000666281 -0.127547 0.600542
0.00311062 0.0816886 0.147319
0.0423269 -0.0840904 0.859714
-0.028065 -0.0362309 0.781864
0.0231311 -0.0366659 0.836999
0.0118284 -0.0830687 0.698833
0.0432854 -0.0968139 0.693118
0.351397 -0.0705276 0.530982
-0.0486552 -0.0873613 0.596739
0.0221854 -0.0700881 0.656136
0.015857 -0.032342 0.803798
0.00432223 0.0371049 0.146555
-0.0122065 -0.0304757 0.210703
-0.0216569 -0.0566045 0.0672715
-0.0944289 -0.037414 0.100179
-0.0189303 -0.0327097 0.688743
-0.00165958 0.00882412 0.218066
0.0100871 -0.0315738 0.4219
-0.00761538 -0.000764849 0.19711
0.0470964 -0.0729677 0.685559
0.104424 -0.0635528 0.133456
-0.0344801 -0.113164 0.469048
-0.0221364 -0.0683919 0.628486
-0.0401683 -0.0578398 0.216717
-0.346697 -0.07463 0.548651
0.0240208 -0.0356287 0.437527
0.0197475 -0.0335407 0.74022
-0.0434579 -0.101154 0.828234
-0.0116967 -0.0275327 0.13099
-0.10125 -0.074407 0.586678
-0.0424733 -0.0577901 0.133613
0.0285784 -0.0678573 0.621122
0.11123 -0.0525257 0.127357
-0.347558 -0.07449 0.522292
0.0086647 -0.0633923 0.954754
-0.145344 -0.0432905 0.102295
-0.368334 -0.0733959 0.529058
-0.0215883 -0.122037 0.750773
0.124462 -0.0790858 0.657129
0.0248974 -0.0370661 0.338947
-0.0490863 -0.0696307 0.806991
0.111463 -0.0678572 0.645533
0.0382928 -0.0831347 0.211915
-0.0604671 -0.0385622 0.0993602
0.138022 -0.102097 0.668611
-0.00204696 -0.0830687 0.678612
-0.150008 -0.0678572 0.612338
-0.290231 -0.0830687 0.552001
0.00236808 -0.126415 0.774042
-0.0133492 -0.0308454 0.223274
-0.0471106 -0.0630155 0.448423
0.0768662 -0.0830687 0.666703
0.137875 -0.0610007 0.113849
-0.0336945 -0.113805 0.550757
0.00611187 0.109833 0.113181
-0.214464 -0.0678572 0.606769
-0.0202699 -0.0723081 0.0958442
-0.0368097 -0.0510762 0.868238
-0.0219985 -0.0881503 0.145558
0.0432907 -0.0588716 0.657913
0.0730215 -0.0678572 0.663414
0.134736 -0.0633445 0.0966297
-0.0289457 -0.037971 0.382201
0.0402847 -0.0529949 0.0873874
-0.0328203 -0.114261 0.731142
0.0466836 -0.071817 0.428638
-0.00714201 0.0123782 0.18098
0.0287571 -0.0397096 0.770683
-0.0486596 -0.0686044 0.630799
-0.0448417 -0.0744151 0.876384
0.138693 -0.1031 0.633074
-0.0798697 -0.0558218 0.15775
-0.0647849 -0.071001 0.254467
0.00672208 0.0780845 0.132062
0.0318028 -0.0702108 0.684868
-0.0235202 -0.0559156 0.167062
0.0160512 -0.113647 0.27386
0.244 -0.0678572 0.588956
0.0103545 -0.040004 0.896688
0.0440058 -0.0947253 0.539231
-0.0362944 -0.0462707 0.280196
-0.0501316 -0.0736395 0.779225
-0.00394839 -0.0468366 0.107015
0.0960142 -0.0830687 0.642796
0.000665119 -0.0283449 0.77392
-0.00222451 -0.0282608 0.285998
-0.0258599 -0.0508028 0.0832753
-0.0474638 -0.0919502 0.569652
-0.00252206 -0.0733058 0.0717449
0.0257286 -0.103709 0.237255
-0.325006 -0.0830687 0.536666
0.00456122 -0.126086 0.621944
-0.0146146 -0.12383 0.804113
0.0153129 -0.0961329 0.164566
0.128057 -0.106743 0.656885
0.0405391 -0.0524671 0.364017
0.362215 -0.0741727 0.52292
-0.00498116 0.00654377 0.113499
0.0422032 -0.0591331 0.344502
0.000303186 -0.095506 0.144864
0.0317155 -0.0662229 0.911467
-0.102064 -0.0684198 0.663457
0.0417267 -0.103186 0.394442
0.0791323 -0.0830687 0.601487
0.026498 -0.117854 0.708565
-0.0509904 -0.0773211 0.643723
0.0342435 -0.0455369 0.611838
-0.0198301 -0.0330876 0.60566
-0.143009 -0.0830687 0.63429
-0.210473 -0.0830687 0.595719
-0.02718 -0.0830687 0.625546
0.336213 -0.0830687 0.55217
0.0450943 -0.0815 0.335311
0.0273239 -0.0388377 0.467323
0.029999 -0.114726 0.556306
0.0834907 -0.0678572 0.626965
-0.0348003 -0.112815 0.508969
0.0227303 -0.0346098 0.599481
-0.000919624 0.104145 0.0983418
0.0348563 -0.0611183 0.89651
-0.0930936 -0.0830687 0.619514
0.0286111 -0.0519203 0.129435
0.0380516 -0.0792627 0.597323
0.045102 -0.0906772 0.457328
0.118854 -0.0830687 0.590924
-0.0568746 -0.0799556 0.122038
0.187925 -0.0678572 0.617375
-0.107079 -0.0830687 0.602391
-0.0265987 -0.0917169 0.176508
0.0394501 -0.0507237 0.639347
-0.000760135 -0.0286939 0.230861
-0.00921501 -0.0138185 0.177834
-0.0291465 -0.0377302 0.545223
0.0416675 -0.0534382 0.385868
-0.00658128 -0.0483984 0.167601
-0.00229913 -0.0738727 0.647037
0.0794626 -0.0685525 0.140658
0.00486562 -0.0296054 0.270222
-0.118731 -0.0344265 0.12436
0.0418281 -0.0850554 0.295034
-0.012202 -0.0265345 0.112199
0.0245256 -0.092247 0.937898
-0.0368296 -0.085509 0.907982
0.0300949 -0.0447834 0.0966818
0.0396549 -0.08361 0.144119
-0.117954 -0.103839 0.656296
-0.00817594 -0.0830687 0.631348
-0.00873764 -0.0321127 0.190288
-0.0427272 -0.0627076 0.239623
-0.327072 -0.074539 0.557377
0.0415532 -0.0525912 0.738382
0.000120239 -0.0515726 0.0893655
-0.0193862 -0.122892 0.607815
0.0405753 -0.0519236 0.534367
0.132204 -0.0830661 0.623093
-0.026747 -0.0365437 0.298876
-0.0474283 -0.0916426 0.691726
0.00345301 0.0169023 0.163719
0.338215 -0.0681671 0.53547
0.0240957 -0.111662 0.29452
0.0322161 -0.0494958 0.870524
-0.00904737 -0.125901 0.52348
0.122335 -0.065244 0.109931
-0.121643 -0.106191 0.636694
-0.00843418 -0.0406354 0.121483
-0.0274572 -0.0639002 0.923964
-0.00410586 0.066878 0.144247
-0.00696859 0.0422932 0.11358
-0.0186117 -0.103323 0.19992
-0.0159012 -0.112064 0.248814
0.0566778 -0.0931593 0.145046
0.0371787 -0.0501374 0.258565
0.0083295 -0.118029 0.879044
0.0016218 -0.0127424 0.171167
0.0380727 -0.0569651 0.229029
0.0194897 -0.0336483 0.668366
-0.0263965 -0.0830687 0.650863
-0.000491258 -0.127392 0.638541
-0.0483617 -0.0881599 0.729412
-0.0362494 -0.0486966 0.16185
-0.0417106 -0.105988 0.392964
-0.0187948 -0.0354848 0.852491
0.251161 -0.0830687 0.554792
-0.0106408 -0.0306453 0.586426
0.00303178 0.0185849 0.146524
0.0198951 -0.0395295 0.0877414
-0.0689258 -0.0830687 0.62055
-0.0468853 -0.0942809 0.43509
0.0324648 -0.104757 0.86486
-0.0486547 -0.0877893 0.515776
0.0476819 -0.0483299 0.130302
0.0463525 -0.0844178 0.815721
-0.240297 -0.0770123 0.597567
0.039492 -0.0900932 0.195227
0.0291474 -0.0892873 0.188259
-0.0643427 -0.0695903 0.682382
0.0426994 -0.0708176 0.257934
-0.00557978 0.0182166 0.192509
0.00509342 -0.0761739 0.0842668
0.0419374 -0.101755 0.374876
0.0270408 -0.105723 0.267389
0.0115248 -0.0318058 0.334598
-0.0083455 -0.017449 0.214843
-0.0715611 -0.0694239 0.598789
0.261423 -0.0678572 0.571284
-0.0377868 -0.0471753 0.341345
0.0013839 -0.0572577 0.0268506
-0.0375592 -0.0830687 0.671233
0.0350126 -0.0474353 0.31254
-0.00331823 0.0831648 0.131962
-0.0464486 -0.0604284 0.470614
-0.156849 -0.0811338 0.640684
-0.0506369 -0.0510136 0.10479
0.0433069 -0.0583576 0.80537
-0.0429615 -0.0541404 0.835627
-0.0263436 -0.113153 0.868438
-0.0314555 -0.04372 0.173501
-0.163645 -0.033202 0.0870429
-0.0137704 -0.0830687 0.612581
-0.0477428 -0.0880759 0.187906
0.0229449 -0.0409842 0.877306
-0.00881874 -0.029954 0.707559
0.049663 -0.0715441 0.184953
-0.0432744 -0.057417 0.30419
0.0388154 -0.106111 0.413106
-0.010152 -0.0312584 0.82821
-0.0671487 -0.0808116 0.197082
0.0233858 -0.0344808 0.754434
0.00426957 -0.0336663 0.869451
-0.0338398 -0.108818 0.845035
-0.0475657 -0.085143 0.149394
-0.0426348 -0.0735212 0.18923
0.0251738 -0.0365288 0.525611
0.0154344 -0.056245 0.0516386
0.0203391 -0.103548 0.210574
-0.00856978 -0.0293346 0.17774
0.00808869 -0.125493 0.465721
-0.00658699 -0.0762286 0.659001
-0.0508797 -0.0769101 0.656272
0.0226574 -0.0358457 0.232861
-0.0125886 -0.0688539 0.174788
0.0337294 -0.0710983 0.606616
-0.0331291 -0.114191 0.607667
0.0609455 -0.0552905 0.158174
-0.00490564 -0.010128 0.161214
0.330304 -0.0830687 0.542016
0.033416 -0.0805112 0.915681
0.0336818 -0.0606244 0.119814
-0.041767 -0.105255 0.780163
-0.00631775 -0.0435337 0.205172
0.00960654 -0.0830687 0.604682
-0.0462802 -0.0965525 0.53442
0.0631419 -0.089015 0.237557
-0.00479019 -0.127109 0.471932
-0.0420062 -0.0830687 0.630375
0.0215673 -0.0613477 0.127506
-0.0088096 0.00143695 0.153721
-0.0482016 -0.0893946 0.453686
0.131871 -0.0829989 0.610587
0.250434 -0.0830687 0.570851
0.311228 -0.0830687 0.541905
-0.00790875 -0.034304 0.874548
-0.00332728 -0.0202264 0.242903
-0.00111104 0.0397229 0.162344
0.0447983 -0.0830687 0.683625
-0.00266752 0.0342569 0.125773
-0.00778675 -0.0520688 0.154246
-0.124852 -0.0830687 0.620309
-0.00194114 -0.124666 0.342793
0.047425 -0.0753958 0.37294
-0.0407237 -0.106446 0.658677
0.0463799 -0.0703037 0.571263
0.148842 -0.0633089 0.0914499
-4.49172e-05 -0.0155761 0.124215
0.274249 -0.0804806 0.585943
-0.0527979 -0.0652661 0.172283
-0.0105561 -0.014733 0.136662
-0.200092 -0.0678572 0.580769
0.0419888 -0.0715848 0.868788
-0.104795 -0.0829486 0.634871
0.0130212 -0.123898 0.594185
-0.0285953 -0.0367207 0.797135
-0.0103914 -0.0609293 0.136907
-0.00894099 0.00631328 0.137557
-0.0319682 -0.0405102 0.60371
0.0440649 -0.0939062 0.738645
0.0888617 -0.0771536 0.673601
0.107282 -0.0678572 0.621558
0.00525502 -0.120731 0.318313
0.0575782 -0.0678572 0.676157
-0.00598369 -0.0734404 0.622641
-0.0236002 -0.0355041 0.184748
-0.0316459 -0.0401582 0.645388
-0.0191204 -0.0337227 0.124682
0.170248 -0.0678572 0.598391
-0.00859057 -0.00221577 0.169718
0.0438192 -0.0948206 0.656125
-0.0397096 -0.0478959 0.774149
-0.0528438 -0.0766386 0.242981
0.135765 -0.0830687 0.648283
0.0397124 -0.104625 0.720494
0.0469549 -0.0720547 0.784147
-0.00591713 0.0560919 0.113926
-0.0156432 -0.0324194 0.388073
-0.000579256 0.05768 0.140387
0.0458728 -0.0875296 0.582478
-0.294714 -0.0678572 0.568051
0.0468048 -0.0842693 0.419865
0.0029885 0.00583459 0.203319
0.0239198 -0.0651747 0.102545
-0.0117978 -0.0830687 0.710037
0.0288645 -0.0761386 0.143811
0.039867 -0.0589311 0.269495
-0.00327514 0.0885958 0.120095
0.0110387 -0.0316051 0.501065
-0.0106688 -0.0764702 0.970992
0.0118308 -0.11278 0.252676
-0.281115 -0.0678572 0.560903
0.0526445 -0.0829355 0.240459
-0.0618542 -0.088171 0.240191
-0.00446181 0.036108 0.175585
-0.0246717 -0.121606 0.561835
0.0479172 -0.0759665 0.518026
-0.00907687 -0.123629 0.829454
-0.0194477 -0.0334146 0.369327
-0.00439943 -0.0193453 0.200105
-0.0645439 -0.0830687 0.682888
-0.0504095 -0.0748746 0.728396
-0.0487356 -0.0687445 0.698327
0.0328414 -0.0445377 0.409444
-0.0837267 -0.0359449 0.119027
-0.00448193 -0.0290536 0.529958
0.174331 -0.0718375 0.630666
-0.190227 -0.0826975 0.561929
-0.0449163 -0.0554886 0.375136
-0.031977 -0.0410799 0.822025
-0.14097 -0.029185 0.107725
0.0238888 -0.06454 0.182505
-0.058493 -0.0648287 0.223557
0.00295427 0.1094 0.136296
-0.0129672 -0.0309373 0.759712
-0.0152966 -0.0320918 0.33678
-0.0540632 -0.0804791 0.251996
-0.0102212 -0.0304016 0.678384
-0.000892725 -0.043192 0.0993007
-0.154894 -0.0705718 0.579278
0.0688574 -0.0491997 0.126847
0.0207022 -0.121471 0.796072
0.0608734 -0.092763 0.170111
-0.0348853 -0.111341 0.364372
-0.189675 -0.0678572 0.609198
-0.0378056 -0.103144 0.31656
0.0238964 -0.036677 0.275281
0.0362517 -0.094767 0.251562
0.0590243 -0.0743028 0.158297
0.109754 -0.0830687 0.660999
-0.234416 -0.0830687 0.564097
-0.170133 -0.0830687 0.607396
0.0245023 -0.120065 0.606304
-0.11565 -0.0830687 0.63417
0.00212947 -0.0750577 0.611496
0.000759804 -0.0283283 0.790976
0.0453097 -0.0959371 0.223237
0.00120271 -0.00140809 0.13256
-0.0626323 -0.0579431 0.167995
-0.0105721 -0.00537499 0.113299
0.0388481 -0.0687638 0.20211
0.0309689 -0.0459546 0.174622
0.0448038 -0.0758829 0.849731
0.123947 -0.0806822 0.578088
-0.00436868 -0.0979337 0.969947
0.0343555 -0.0776124 0.185774
-0.0007329 -0.0283636 0.310193
0.000593425 -0.0293364 0.0252691
0.00466725 -0.0297294 0.638435
0.244148 -0.0791071 0.599079
0.0193085 -0.0842259 0.134643
-0.0671789 -0.0786911 0.159665
0.0515869 -0.0505324 0.0902165
-0.0465131 -0.0867742 0.208794
0.000250917 -0.0830687 0.660463
0.0323977 -0.111884 0.766245
-0.3721 -0.0830687 0.522519
0.00804076 -0.0307523 0.523923
-0.129096 -0.076999 0.577719
0.00653378 -0.125425 0.684031
0.0468891 -0.0722653 0.489096
0.0042977 0.0321274 0.156841
0.0405133 -0.0726316 0.888005
0.0446041 -0.064176 0.405872
-0.080704 -0.0830687 0.644003
0.0176755 -0.038298 0.0749822
-0.146135 -0.0316361 0.119488
0.00490747 0.0639753 0.105474
-0.062618 -0.0684043 0.123538
0.26145 -0.0818725 0.548061
0.235309 -0.0830687 0.5899
0.0341933 -0.0690963 0.16692
0.14846 -0.0830687 0.596465
-0.391037 -0.0812341 0.50372
-0.0487822 -0.0694988 0.112819
-0.0653126 -0.0830687 0.607875
0.0934184 -0.0829648 0.590188
-0.0426175 -0.080678 0.177758
0.0260661 -0.0418005 0.107414
-0.0540011 -0.0901609 0.1668
0.0451486 -0.0656547 0.533013
0.00677963 0.0988805 0.103588
-0.0102071 -0.0610387 0.114081
-0.0391831 -0.108261 0.56842
-0.00147211 -0.000790358 0.226608
-0.00768055 0.0226546 0.13847
-0.0176812 -0.0325637 0.555871
0.0116835 -0.0317006 0.550738
-0.285259 -0.0799352 0.577299
-0.00303022 -0.0384308 0.174019
0.0217694 -0.0387431 0.130956
-0.144345 -0.0829034 0.573246
-0.0165597 -0.124039 0.391642
-0.205612 -0.0830687 0.56719
0.0202644 -0.0338948 0.651607
-0.00994645 -0.125702 0.496605
0.136954 -0.0676926 0.590321
-0.0023314 -0.127141 0.790097
-0.0330491 -0.114523 0.528029
0.195998 -0.0678572 0.598395
0.169737 -0.0767643 0.572469
-0.0474269 -0.0678573 0.615802
0.0119811 -0.0830687 0.651254
-0.0489165 -0.0863182 0.609595
-0.00157821 0.0260799 0.180531
-0.0361561 -0.0678572 0.625952
0.200058 -0.0830687 0.603274
-0.189164 -0.0830687 0.612921
0.024771 -0.0784451 0.614181
-0.0321748 -0.106296 0.294114
-0.0302508 -0.11691 0.665905
-0.0471797 -0.0629817 0.559081
-0.0445104 -0.102533 0.755164
0.0323244 -0.112344 0.574269
-0.0301369 -0.0693554 0.12652
-0.0457399 -0.0986217 0.482609
-0.0389384 -0.100364 0.869851
0.278243 -0.0830687 0.557309
0.0345695 -0.0460603 0.474583
-0.00360347 -0.0289279 0.481973
0.0265725 -0.11465 0.835265
0.0117966 -0.0539662 0.926429
0.220752 -0.0830687 0.598256
-0.00264963 -0.108597 0.204733
0.0303806 -0.0489076 0.152978
-0.0397415 -0.10739 0.689796
-0.0467582 -0.0948028 0.469138
-0.00114982 -0.12792 0.512632
0.144503 -0.0830687 0.632438
-0.026775 -0.0600508 0.0958652
0.042634 -0.0560479 0.753662
-0.00576733 -0.110525 0.927825
-0.0467734 -0.0940873 0.740218
0.0269567 -0.117986 0.390354
-0.198407 -0.0830687 0.589473
0.061657 -0.0708344 0.600247
0.0162389 -0.0324267 0.14371
-0.0265631 -0.0946968 0.188548
-0.00156994 -0.127847 0.543937
0.0730697 -0.0830687 0.612777
0.00198373 -0.0125687 0.182342
-0.0389433 -0.108732 0.425816
0.0403171 -0.0940617 0.852652
0.0265298 -0.037444 0.785136
-0.026187 -0.0388384 0.161406
-0.170564 -0.0747892 0.57203
0.0393273 -0.0894805 0.1785
0.0159225 -0.0462934 0.910026
-0.0251106 -0.0342739 0.726097
0.107674 -0.0877526 0.616421
-0.307533 -0.0678572 0.559422
-0.0164248 -0.0317828 0.792631
0.000888533 0.0698562 0.153514
0.227871 -0.0830687 0.565296
-0.0357006 -0.0604662 0.147553
0.0478856 -0.0796444 0.670018
-0.0584649 -0.0689751 0.235137
0.0223262 -0.0358402 0.220578
0.0549247 -0.0848507 0.117964
0.0445953 -0.0711557 0.317268
-0.0267802 -0.0354307 0.500992
-0.0360874 -0.0445289 0.677847
-0.0316664 -0.0403561 0.488603
0.0157186 -0.123209 0.582236
0.0879045 -0.0673108 0.131844
0.00944439 -0.118541 0.306993
-0.0108736 -0.0298377 0.147361
-0.00835343 -0.0302381 0.0476276
-0.0377179 -0.10927 0.808051
0.00366608 -0.117732 0.281994
-0.0460865 -0.063196 0.827637
-0.00262586 -0.0390295 0.113245
0.0842844 -0.0521745 0.0916647
0.0428103 -0.057038 0.611543
-0.0288948 -0.118152 0.75992
-0.0957046 -0.0528313 0.147858
0.0394647 -0.10544 0.44349
-0.00939181 -0.0307145 0.398621
0.321519 -0.0678572 0.545212
-9.67067e-05 -0.12751 0.559473
0.123769 -0.0473567 0.0986998
-0.132762 -0.0908811 0.61792
-0.0152243 -0.0857938 0.123193
-0.0469834 -0.068067 0.332322
0.025616 -0.0369312 0.581276
0.0482907 -0.0774035 0.548467
0.0127851 -0.115399 0.890464
0.00296154 -0.0830687 0.709054
0.0145963 -0.123164 0.755658
0.031646 -0.112946 0.598378
-0.0451121 -0.0553301 0.605489
-0.245542 -0.0698917 0.558627
0.0263392 -0.118059 0.670554
0.000618902 -0.0329238 0.00470021
-0.0464887 -0.0687956 0.127544
0.0466136 -0.0713602 0.465745
0.0409959 -0.0524398 0.489464
-0.0804068 -0.0830687 0.626779
0.0762723 -0.0678572 0.649484
0.0268902 -0.0729428 0.128994
-0.0562714 -0.0678572 0.651951
-0.0249904 -0.121759 0.411814
-0.0252964 -0.0988945 0.929592
0.333364 -0.0828225 0.526504
0.0322534 -0.0678572 0.645674
0.00644283 -0.0914563 0.136788
0.00669408 -0.0303221 0.590709
-0.038228 -0.109428 0.452512
-0.0280757 -0.107309 0.266159
-0.0495529 -0.0842472 0.378925
0.0329164 -0.0444657 0.456012
-0.0467799 -0.061562 0.668455
-0.0161918 -0.120692 0.341129
0.0371713 -0.107077 0.793693
0.0398526 -0.0810333 0.249676
-0.0467882 -0.0621434 0.385549
-0.261817 -0.0730864 0.586245
0.0284613 -0.116291 0.376001
0.03789 -0.106894 0.53751
-0.0123725 -0.0434962 0.113574
-0.00185529 -0.127938 0.43073
0.365515 -0.0830687 0.534233
0.0199188 -0.122383 0.408315
0.114589 -0.0686347 0.591138
-0.0500898 -0.0738234 0.546067
-0.0466902 -0.0611002 0.519972
0.15126 -0.0678572 0.636684
0.0144781 -0.0724253 0.666352
0.0378022 -0.09674 0.871881
0.00667383 -0.0541322 0.0989818
0.0751199 -0.0678572 0.635541
-0.0165336 -0.123447 0.711
-0.0250113 -0.0857267 0.949634
0.0090043 -0.0314029 0.376746
0.166689 -0.0830687 0.62279
0.00878116 -0.0580876 0.116788
0.286531 -0.0678572 0.562
0.00773795 -0.125163 0.647351
0.0344065 -0.105816 0.334953
-0.00400078 -0.12683 0.693314
0.00348259 -0.0542554 0.133857
0.0222567 -0.121718 0.445334
-0.0316263 -0.0808368 0.702277
-0.0314397 -0.102373 0.251911
-0.103135 -0.0476009 0.107472
-0.0381279 -0.0592548 0.183475
0.00984695 -0.0792039 0.674078
-0.0105289 -0.0632198 0.147679
0.0275262 -0.0398222 0.825922
-0.0063141 0.0446448 0.129021
-0.277697 -0.07158 0.547804
-0.0463451 -0.0962305 0.387448
0.0623913 -0.0802771 0.146188
0.00309087 -0.112153 0.225998
0.0244074 -0.0357476 0.546324
0.0357572 -0.047073 0.580125
-0.0327549 -0.0811956 0.159595
-0.134142 -0.0456474 0.109347
0.00444031 -0.06727 0.0579896
0.0280845 -0.103745 0.895305
0.0175665 -0.0656683 0.947362
-0.0292629 -0.106223 0.892339
0.0484253 -0.077635 0.794417
-0.0285181 -0.102558 0.22869
0.0221451 -0.115255 0.309406
-0.108168 -0.0787965 0.664237
0.00608496 -0.0301866 0.563938
-0.0479004 -0.0899301 0.643852
-0.134711 -0.084508 0.655436
-0.0132247 -0.0312513 0.660123
0.034432 -0.110424 0.511423
-0.104421 -0.0678572 0.625641
0.0209023 -0.0909265 0.949544
0.181976 -0.0830687 0.592479
-0.0420812 -0.0785595 0.227751
0.0572529 -0.079471 0.592923
0.18058 -0.0678572 0.603899
0.0439753 -0.0615468 0.459457
0.0127604 -0.0314433 0.22661
-0.117027 -0.0830687 0.612422
-0.0415683 -0.062624 0.877668
-0.0447392 -0.0818035 0.282531
0.0323675 -0.0443127 0.362212
0.0156603 -0.0380149 0.885932
0.00798699 -0.12497 0.730841
-6.51533e-05 -0.008419 0.107639
0.147014 -0.0506774 0.105985
-0.0229746 -0.0607041 0.178121
-0.023984 -0.103238 0.212934
-0.0472956 -0.0632147 0.738313
-0.0115716 -0.125058 0.582458
-0.0205235 -0.122362 0.72232
-0.0364226 -0.0392148 0.100077
-0.0438651 -0.103292 0.669359
0.0126847 -0.111784 0.908622
-0.219454 -0.0830687 0.582479
-0.000162719 0.0571081 0.150604
0.0424468 -0.0999462 0.784024
0.081005 -0.0830687 0.626839
-0.159906 -0.0830687 0.629167
-0.0275714 -0.039044 0.198226
0.0521879 -0.0972266 0.23818
-0.127304 -0.0676927 0.590597
0.0286113 -0.0475012 0.884925
-0.033217 -0.0737327 0.922316
-0.162094 -0.0830687 0.589351
0.330625 -0.0822812 0.561827
0.166726 -0.0618987 0.0828578
-0.0231769 -0.0336442 0.771462
0.320337 -0.0761102 0.565092
-0.004158 0.071735 0.132676
0.0429091 -0.0573345 0.559907
-0.0141665 -0.0388446 0.104359
-0.320384 -0.0830687 0.553617
-0.0145789 -0.122918 0.360162
0.063573 -0.0812332 0.209738
-0.0032617 0.0325851 0.110168
0.0017104 -0.054585 0.932098
0.120905 -0.0678572 0.651984
0.0434216 -0.060617 0.371482
0.189747 -0.0830687 0.621848
-0.0628752 -0.0871927 0.20852
-0.187699 -0.0794962 0.624745
-0.0498638 -0.0831279 0.408274
0.00226921 0.0239963 0.193529
0.0498792 -0.0714625 0.202797
0.0399172 -0.0938249 0.302691
0.196867 -0.0830687 0.571053
0.0523504 -0.0512444 0.142287
-0.00291175 0.0280699 0.132509
0.0785963 -0.0624949 0.112607
-0.0623953 -0.070707 0.243133
-0.203972 -0.0830687 0.607351
-0.0412944 -0.0498723 0.553156
0.383449 -0.0830687 0.514043
0.0100984 -0.0312554 0.308583
0.0101635 -0.124274 0.81141
-0.00644645 -0.105617 0.948766
-0.100266 -0.0680296 0.595976
0.0538683 -0.0678572 0.642872
0.017053 -0.0715387 0.176823
0.0536217 -0.0441783 0.108753
-0.0338983 -0.0437428 0.2939
-0.0361627 -0.049125 0.856567
0.19952 -0.0678572 0.587662
0.374565 -0.0745444 0.534302
-0.357004 -0.0770767 0.54474
-0.0573089 -0.0465933 0.159489
0.0787409 -0.0678572 0.616732
0.045088 -0.0838858 0.346336
-0.0839383 -0.0452843 0.0924622
-0.0486926 -0.0869239 0.680377
0.0296567 -0.0412392 0.445519
-0.0167588 -0.0609368 0.0580898
-0.0179888 -0.0830687 0.674841
0.0475056 -0.0794585 0.10875
-0.0317523 -0.108155 0.30713
-0.02814 -0.119226 0.593205
0.0384987 -0.0507941 0.325799
0.0196072 -0.0830687 0.683008
0.0147892 -0.123595 0.533785
0.0285291 -0.0517251 0.0879837
-0.0619101 -0.0660658 0.212929
0.112075 -0.0678572 0.63332
0.0156983 -0.122934 0.709635
0.0380861 -0.0497543 0.418361
-0.00150018 -0.127258 0.813793
-0.131324 -0.101291 0.661722
-0.000546537 -0.127817 0.456129
-0.0390787 -0.0693609 0.686826
0.0457507 -0.07024 0.821536
-0.171535 -0.0678572 0.616361
-0.0765076 -0.0830687 0.598608
-0.000954379 -0.0321565 0.146052
0.0415389 -0.0528414 0.598658
0.0569296 -0.0719322 0.686662
0.00190341 -0.0181487 0.222688
-0.00785116 -0.0296 0.259936
-0.28911 -0.0830687 0.567344
0.0250989 -0.0361569 0.73083
-0.105048 -0.0364863 0.129139
-0.0457893 -0.0685447 0.145156
0.0438121 -0.0955485 0.497989
0.0216951 -0.0366551 0.848104
-0.0436787 -0.0803852 0.257445
0.0511499 -0.0968855 0.160769
-0.0442262 -0.0621069 0.29418
0.0731416 -0.0830687 0.656261
0.0450311 -0.090301 0.755479
-0.0284561 -0.11907 0.542532
-0.0499019 -0.0824135 0.804461
0.00849778 -0.0311935 0.365344
0.00119714 -0.0420157 0.909096
-0.0195594 -0.12281 0.620557
-0.0522171 -0.0407328 0.130242
-0.00950304 -0.0522987 0.0999216
-0.054628 -0.0640083 0.160947
-0.0872856 -0.0830687 0.67027
-0.00527964 -0.117869 0.891864
-0.0677832 -0.0783361 0.223599
0.0817301 -0.0463056 0.108722
0.0270266 -0.117407 0.648858
-0.0131296 -0.0469639 0.127528
0.047264 -0.0734005 0.734872
0.0458378 -0.087855 0.545494
0.0365673 -0.107658 0.812746
0.0641461 -0.0833437 0.222352
-0.116975 -0.0503327 0.125181
-0.124166 -0.0678572 0.642276
-0.0553817 -0.0678572 0.674381
