-0.0299797 -0.0383233 0.12703
-0.150895 -0.0174004 0.117561
0.0361398 -0.0951547 0.632268
0.0139822 -0.0303288 0.0254
0.00397924 0.098239 0.183458
-0.0437496 -0.046795 0.327824
0.0244806 -0.0679197 0.564278
-0.00295613 0.0640564 0.158865
-0.0178706 -0.102323 0.315952
-0.0471218 -0.0532026 0.438014
-0.32135 -0.052635 0.436865
-0.0653626 -0.0679197 0.518283
-0.0383083 -0.0929008 0.391637
-0.03609 -0.0944589 0.766188
-0.0294178 -0.101681 0.524585
0.0231149 -0.086281 0.206712
0.105182 -0.0411335 0.0876601
-0.023666 -0.106711 0.442228
0.0312128 -0.0679197 0.524799
-0.0105824 -0.0155827 0.658563
0.0812428 -0.0311565 0.110973
-0.00607237 -0.0383217 0.153888
-0.0117231 -0.103037 0.877509
-0.0405348 -0.090274 0.616314
-0.0276225 -0.103561 0.426621
0.200272 -0.052635 0.478408
0.0117166 -0.0630746 0.0961108
-0.335928 -0.052635 0.423664
-0.00443624 -0.0679197 0.588497
-0.0358897 -0.0679197 0.537742
0.0156769 -0.0169179 0.552097
0.0401947 -0.051056 0.199592
-0.0304116 -0.0974185 0.836616
-0.0195312 -0.0758744 0.151717
-0.0131509 -0.108978 0.713741
-0.0632217 -0.0447349 0.152517
0.0173943 -0.108511 0.465307
0.00657055 -0.0237085 0.902473
0.0300718 -0.0444774 0.176394
-0.0449256 -0.0519158 0.840699
0.042763 -0.0884303 0.676683
0.187876 -0.0679197 0.503993
0.0261965 -0.105541 0.40188
-0.0109189 -0.0419732 0.120998
0.0478454 -0.0723712 0.52114
0.0191675 -0.0633953 0.113863
0.026255 -0.0553754 0.562508
0.0237369 -0.0406584 0.102524
0.210005 -0.0679197 0.448497
-0.102702 -0.0765332 0.544901
-0.0336525 -0.0283932 0.532382
0.0486242 -0.056495 0.497712
0.0204207 -0.0182314 0.319996
0.253198 -0.0679197 0.470014
0.0275755 -0.0466339 0.108274
-0.192089 -0.0679197 0.475975
0.0130179 -0.0210708 0.0265054
0.212283 -0.0679197 0.498774
0.0247792 -0.019172 0.687407
0.0439098 -0.0507075 0.281032
0.155692 -0.0679197 0.477999
-0.12444 -0.0679197 0.492156
0.0465003 -0.0485913 0.493423
-0.0195525 -0.0345898 0.918715
-0.0344402 -0.0294536 0.434731
-0.118999 -0.0252899 0.133088
-0.0140534 -0.0664309 0.576256
-0.156199 -0.052635 0.50275
0.0460903 -0.035351 0.143105
0.387862 -0.0630227 0.403823
0.0325639 -0.0270098 0.444718
-0.102812 -0.0527141 0.485806
0.103604 -0.100479 0.588626
-0.225869 -0.0534986 0.453317
0.0744331 -0.052635 0.534782
-0.0419304 -0.0676098 0.507498
0.0881846 -0.048915 0.146981
-0.0177092 -0.0381281 0.105409
0.0224612 -0.0669505 0.133235
0.0752292 -0.052635 0.554934
-0.107244 -0.101323 0.578976
-0.00210623 0.0861692 0.165235
-0.0110363 -0.0158019 0.567711
-0.109727 -0.100222 0.549407
-0.0400788 -0.0712436 0.249228
-0.337644 -0.0679197 0.420838
0.015681 -0.0163759 0.229014
-0.00731676 -0.0152384 0.382881
0.0379227 -0.0679197 0.515646
-0.0719541 -0.0350245 0.11016
-0.00436836 0.0668005 0.180257
-0.142204 -0.0284814 0.104497
0.0340298 -0.0413969 0.150876
-0.0409681 -0.0498302 0.879651
0.221843 -0.0679197 0.473627
0.00677208 -0.0141136 0.782353
0.0399138 -0.0336664 0.793653
0.147256 -0.0903167 0.56947
0.002148 -0.0600452 0.127721
-0.0404301 -0.0900886 0.79092
-0.00413712 -0.111997 0.39123
0.0153456 -0.016392 0.245829
-0.0593593 -0.029732 0.154279
-0.0433042 -0.038724 0.481972
0.0215113 -0.0621555 0.51646
-0.0299262 -0.101115 0.542811
-0.238323 -0.0679197 0.454162
0.132961 -0.0676965 0.465893
-0.0367906 -0.0319735 0.380946
0.0478493 -0.0716458 0.718091
0.184298 -0.052635 0.477386
0.0419514 -0.0362017 0.506715
0.00169215 -0.045691 0.0854154
0.248743 -0.052635 0.476728
0.0113994 -0.0600486 0.0856665
0.0370197 -0.039846 0.893488
0.0260053 -0.0526363 0.524419
0.0432475 -0.0848918 0.828194
-0.00517808 -0.0140688 0.685283
0.0406506 -0.0908792 0.557651
0.101949 -0.0795642 0.523483
-0.00647435 -0.104606 0.875919
0.0194876 -0.0179017 0.588022
-0.0088252 -0.0153246 0.0513702
0.336622 -0.0679197 0.414949
0.0441834 -0.0856512 0.594569
-0.00243798 -0.0412153 0.114435
-0.0336596 -0.0735737 0.200037
0.0433576 -0.0877978 0.707919
-0.110048 -0.0679197 0.508685
0.025073 -0.105921 0.718325
0.0278793 -0.0217016 0.767302
0.287081 -0.0679197 0.437269
0.158338 -0.0741666 0.560941
-0.0432289 -0.0379755 0.777593
-0.0394046 -0.0390153 0.864336
-0.145624 -0.0746531 0.558608
-0.00160806 -0.0330463 0.931724
0.068972 -0.0490693 0.125822
0.0430166 -0.0367557 0.79872
-0.000276647 -0.0633756 0.163601
-0.0421864 -0.0368958 0.575998
0.405741 -0.0670998 0.416386
0.0331871 -0.0679197 0.523452
-0.0529476 -0.0679197 0.559467
-0.13896 -0.0722725 0.551834
-0.0479486 -0.0692751 0.737446
0.00678498 -0.0147269 0.462662
0.0241272 -0.0576975 0.588217
0.029131 -0.0232524 0.649265
0.106756 -0.0902796 0.48618
0.00590708 0.0428349 0.170015
-0.0175678 -0.0334118 0.0898187
0.105749 -0.101337 0.520092
0.0552921 -0.0530284 0.14922
-0.0144666 -0.025633 0.117973
0.0383473 -0.0326566 0.487996
0.0170309 -0.0177068 0.37974
0.0990218 -0.0879518 0.551597
-0.150052 -0.0717531 0.568848
-0.0130664 -0.0525721 0.171381
0.141585 -0.0740239 0.558309
0.0445087 -0.0531123 0.855303
0.0416725 -0.0900242 0.459034
-0.0049192 -0.0897572 0.192383
-0.202749 -0.0679197 0.459545
0.142172 -0.038901 0.11315
0.00111952 -0.0664686 0.187762
-0.00453567 0.00775603 0.131896
-0.110935 -0.0793553 0.53866
-0.0497213 -0.0633439 0.526119
0.259058 -0.052635 0.452222
-0.23399 -0.052635 0.477728
0.119904 -0.0679197 0.540104
0.148363 -0.0817736 0.593416
0.0337145 -0.043511 0.178116
0.0371681 -0.0894778 0.333337
0.157281 -0.0458178 0.0792121
-0.0456559 -0.0469408 0.801417
-0.0439387 -0.084888 0.461621
-0.0446657 -0.0437457 0.67265
0.0220881 -0.0214905 0.138912
0.0468034 -0.053314 0.829621
0.00284813 0.00814896 0.117297
-0.0031512 -0.0679197 0.501115
0.109282 -0.052635 0.494768
0.0439614 -0.0861558 0.742115
-0.026894 -0.103701 0.727871
-0.0313022 -0.0807415 0.219713
-0.37913 -0.0679197 0.399704
-0.325015 -0.0679197 0.426656
-0.0836993 -0.052635 0.558185
0.304277 -0.0610753 0.46063
0.137224 -0.0679197 0.476725
-0.0825281 -0.0398812 0.136656
-0.163617 -0.0679197 0.462916
-0.0963048 -0.0914302 0.611336
-0.00156714 -0.0902744 0.957236
-0.048693 -0.0588905 0.471429
0.145797 -0.0679197 0.486042
-0.0266311 -0.0213792 0.52195
-0.0155846 -0.0221235 0.046777
0.00174007 -0.0131133 0.0600087
-0.0108662 -0.0152748 0.814632
0.0443363 -0.0847571 0.750089
0.133265 -0.0679197 0.535749
0.0178389 -0.0792695 0.962474
0.0192793 -0.017725 0.676569
-0.0431677 -0.0874836 0.586597
-0.0249284 -0.0204954 0.340023
-0.362916 -0.0599814 0.405019
0.00185061 -0.024984 0.107391
-0.275386 -0.052635 0.448684
0.0130679 -0.10859 0.367244
0.0184021 -0.0333552 0.91969
0.0442882 -0.0742686 0.847486
0.142063 -0.0877576 0.53672
0.0145756 -0.108752 0.704829
-0.00395658 -0.0679197 0.547514
0.0446796 -0.0836405 0.624721
-0.0183549 -0.0451871 0.0648073
0.00332029 -0.0131475 0.799131
0.0596988 -0.0564966 0.163892
-0.0474958 -0.0577844 0.354194
0.0985628 -0.0679197 0.546731
-0.0121997 -0.0161295 0.552572
0.157774 -0.0879594 0.566588
-0.0201296 -0.107431 0.570753
-0.0571097 -0.0376173 0.117022
0.143178 -0.071727 0.568304
0.0421948 -0.0415159 0.305594
0.294182 -0.052635 0.443015
-0.274844 -0.052635 0.463472
-0.208522 -0.0623378 0.502496
-0.15204 -0.0764505 0.53998
-0.0456977 -0.0480254 0.411834
-0.0177722 -0.0237439 0.0592214
-0.140565 -0.06986 0.521968
0.140832 -0.0834316 0.56059
0.0156111 -0.108428 0.738323
-0.398252 -0.0679197 0.399539
-0.186506 -0.0679197 0.452321
-0.00311227 -0.0139013 0.345389
0.043376 -0.0878308 0.665536
-0.143007 -0.0928766 0.509575
0.0406177 -0.0367641 0.295601
0.085933 -0.0679197 0.497588
0.0417286 -0.0538115 0.21165
0.158536 -0.0830159 0.482391
-0.0521517 -0.0400889 0.12683
-0.0066344 -0.0593111 0.555344
-0.233324 -0.052635 0.475516
-0.0291848 -0.0242051 0.432604
0.0179542 -0.0679197 0.556597
-0.145312 -0.0739668 0.527857
-0.0482924 -0.0568556 0.782011
0.0253628 -0.0191325 0.787134
-0.245713 -0.052635 0.465476
-0.00263112 0.0899548 0.172119
-0.154165 -0.052635 0.493584
0.0314042 -0.047137 0.919436
-0.0190412 -0.107337 0.758423
0.0184933 -0.017187 0.809712
-0.0110851 -0.0679197 0.545477
-0.0232415 -0.0269755 0.128536
-0.148573 -0.0753539 0.558825
0.0117882 -0.0815512 0.161009
0.03644 -0.0659309 0.19594
-0.0806909 -0.052635 0.522419
-0.0191118 -0.0178667 0.295647
0.136904 -0.0679197 0.500455
0.0186246 -0.0407959 0.0581058
0.152633 -0.0707059 0.577562
0.00140211 0.0177796 0.152076
0.0799269 -0.0505164 0.128703
0.162777 -0.0533767 0.523769
0.329734 -0.052635 0.437236
-0.0329995 -0.0622808 0.487549
0.33875 -0.0660387 0.413903
-0.212422 -0.052635 0.467918
-0.155221 -0.0782749 0.544008
0.0452402 -0.0740012 0.342643
-0.159845 -0.0276954 0.107087
0.062103 -0.0679197 0.573756
-0.277923 -0.0679197 0.469463
-0.0023059 -0.1124 0.475251
0.0602161 -0.0547158 0.15537
-0.158983 -0.0525228 0.470637
-0.0244158 -0.0353856 0.909924
0.253712 -0.0679197 0.461029
0.0290614 -0.0256778 0.214174
-0.0375728 -0.0519008 0.179801
0.00119396 0.0228618 0.16325
0.0452012 -0.0437737 0.632304
-0.0100827 -0.0679197 0.584428
0.03946 -0.0348754 0.300057
-0.0167014 -0.0173228 0.311422
-0.0154621 -0.0173345 0.413544
0.0933442 -0.052635 0.54775
-0.0312006 -0.0415281 0.908548
0.00168196 -0.0482045 0.0836075
-0.136475 -0.0805595 0.560258
-0.000827108 0.0346546 0.138895
0.201327 -0.0557218 0.459886
0.0589534 -0.0679197 0.496275
-0.0288788 -0.0251651 0.265159
-0.145943 -0.0912621 0.574755
-4.25033e-05 -0.0359257 0.172376
-0.0955939 -0.052635 0.503066
0.0416082 -0.0847128 0.330385
-0.00536538 0.0126189 0.17124
-0.00448925 -0.010288 0.120096
0.0424439 -0.0463682 0.858243
0.0998013 -0.0941015 0.575839
-0.380645 -0.0612231 0.400452
0.149787 -0.0346894 0.0871639
-0.37091 -0.0679197 0.420228
-0.0278181 -0.103349 0.449926
-0.0267077 -0.0267208 0.128576
-0.031013 -0.100156 0.448568
-0.0403993 -0.0350367 0.661931
-0.0472391 -0.0533508 0.492986
0.0223878 -0.0189526 0.446873
-0.11659 -0.0679197 0.487604
0.00179075 0.0943205 0.186591
-0.146789 -0.0676617 0.488196
0.0369563 -0.0489341 0.13657
-0.0320165 -0.0339421 0.157557
0.0392546 -0.0871241 0.851306
-0.191264 -0.0679197 0.503591
0.0494733 -0.0592909 0.774522
0.0706986 -0.0679197 0.520468
-0.0211924 -0.0187717 0.448393
-0.0430863 -0.0378135 0.551193
0.0861633 -0.0632423 0.563894
0.011592 -0.0613364 0.500511
0.263534 -0.0679197 0.463586
0.0483991 -0.0699215 0.5939
-0.0481782 -0.0690134 0.424105
-0.265543 -0.052635 0.445373
-0.120408 -0.0526839 0.477406
0.000991598 -0.0587202 0.527054
-0.0425025 -0.0368306 0.778772
-0.0105836 -0.0275711 0.909823
0.000751396 -0.0474946 0.134782
0.00965577 -0.015425 0.332069
-0.0479092 -0.0700136 0.421471
0.000435024 -0.0291025 0.148396
0.0450655 -0.0471036 0.830454
-0.115471 -0.052635 0.492348
0.143211 -0.0720885 0.517769
-0.136877 -0.0829964 0.551858
0.0312641 -0.0271306 0.253065
-0.2992 -0.052635 0.443594
0.0469924 -0.0368095 0.0888539
0.00240638 0.10321 0.168932
0.0366556 -0.0943879 0.800363
-0.00273266 0.00441455 0.123109
-0.0376996 -0.0928416 0.77237
-0.00115219 -0.0154857 0.0114462
-0.179585 -0.0679197 0.501027
0.0227596 -0.107111 0.429197
-0.141911 -0.0877033 0.520863
0.0309592 -0.0247714 0.77114
-0.000356033 -0.112613 0.612077
-0.0956866 -0.0192937 0.118323
0.00705727 -0.014271 0.261269
-0.00081871 -0.0451167 0.182686
0.046823 -0.0497788 0.598339
-0.0412728 -0.046764 0.246689
-0.0151229 -0.0170441 0.48419
-0.177214 -0.052635 0.51251
-0.0302157 -0.100547 0.630914
0.0484433 -0.0505077 0.139854
-0.026435 -0.0422387 0.09894
-0.043965 -0.0800096 0.828768
-0.0629654 -0.0465258 0.16081
-0.142563 -0.088939 0.525445
-0.0363661 -0.0308547 0.718196
-0.0683457 -0.0679197 0.565498
-0.0490308 -0.0599317 0.536529
-0.00423595 -0.0139587 0.30769
0.0501977 -0.0624016 0.618546
0.0362084 -0.0676946 0.483614
0.0119105 -0.0638503 0.555683
0.0768967 -0.0679197 0.529397
0.0480139 -0.0541486 0.545132
-0.214754 -0.052635 0.483946
0.0496656 -0.0648698 0.786576
-0.00210678 -0.0673154 0.189313
0.0185084 -0.0198224 0.850457
0.0352023 -0.0387464 0.162871
0.155315 -0.0838517 0.554058
-0.365445 -0.0579713 0.407702
0.106257 -0.0360274 0.124885
0.0444957 -0.0408273 0.745616
-0.0386 -0.0241566 0.120798
-0.0204825 -0.107518 0.486354
0.000313501 -0.0679197 0.599071
-0.0494695 -0.061662 0.602757
0.0148737 -0.0472049 0.165968
-0.0281978 -0.101683 0.82145
-0.046129 -0.0489255 0.744992
-0.0435202 -0.0393839 0.548711
-0.0248688 -0.105716 0.73705
0.00202287 0.0815921 0.169574
0.0374564 -0.031446 0.704275
-0.111983 -0.0679197 0.491615
0.0618138 -0.052635 0.54575
0.0359063 -0.0679197 0.586304
-0.0167388 -0.016804 0.229253
-0.0811116 -0.042965 0.15059
0.0005315 -0.112504 0.712824
0.0125677 -0.0679197 0.567423
-0.0102678 -0.0190334 0.866658
0.027747 -0.103346 0.759347
0.00890073 -0.0322197 0.0153845
-0.283283 -0.0679197 0.427941
0.0996148 -0.084772 0.524767
-0.117489 -0.0679197 0.495201
-0.0456109 -0.0783474 0.590108
0.0163372 -0.0170275 0.616922
-0.0770312 -0.052635 0.519399
-0.0995002 -0.0679197 0.535952
0.0661054 -0.0505067 0.162086
0.0675894 -0.0461003 0.112415
0.00581956 -0.0135163 0.122408
-0.0673216 -0.0567417 0.570593
0.00504826 0.0303091 0.140044
0.00549744 -0.0679197 0.593993
0.115713 -0.0819079 0.585306
-0.0823917 -0.052635 0.504546
0.00800293 -0.105297 0.317938
-0.0486777 -0.0584326 0.746263
0.00494904 0.0177929 0.131505
-0.0360879 -0.0317028 0.335024
-0.0260305 -0.0224529 0.250994
0.0446472 -0.0413962 0.744749
-0.0150838 -0.016477 0.785326
-0.231986 -0.0624294 0.490657
-0.0182343 -0.10818 0.429003
0.00119593 -0.0215553 0.134596
0.0226 -0.0722908 0.148738
0.0493788 -0.0666045 0.5295
0.0460145 -0.046774 0.67418
-0.00753653 -0.0909071 0.949814
0.0494965 -0.0594507 0.755736
-0.000261777 -0.0458854 0.160549
0.030834 -0.0671318 0.935224
0.157362 -0.0723485 0.490907
0.0473358 -0.0513605 0.762628
0.00561932 -0.0357967 0.102915
-0.107268 -0.0775279 0.48002
0.251865 -0.0679197 0.440545
0.00858315 -0.0679197 0.556159
0.396822 -0.0673439 0.395176
0.0474881 -0.052325 0.644127
0.208974 -0.052635 0.464615
-0.299001 -0.0679197 0.426527
-0.0602915 -0.0679197 0.566694
0.0300734 -0.0323866 0.892363
-0.020687 -0.107479 0.470895
-0.340282 -0.0536835 0.417769
0.400874 -0.0679197 0.410241
0.00174246 0.0270375 0.147162
-0.0636406 -0.0299592 0.156865
0.0468592 -0.0361544 0.146593
0.0576006 -0.0411255 0.0930347
0.149721 -0.0691529 0.46129
-0.00875572 -0.0148797 0.262831
0.0257603 -0.0679197 0.533811
0.000915598 -0.0340144 0.125575
0.0378014 -0.031531 0.802291
0.00171011 0.0153693 0.138195
-0.0407524 -0.0898167 0.749507
0.00457765 -0.0322443 0.172185
0.0993931 -0.0386206 0.137962
0.0289952 -0.0229131 0.731216
-0.0217641 -0.0334009 0.911362
-0.109509 -0.077563 0.624634
-0.0436801 -0.048376 0.31162
0.0364696 -0.057412 0.91179
-0.00753864 -0.0334167 0.0920354
0.0452582 -0.0816123 0.599816
-0.139639 -0.0678207 0.465317
-0.0160273 -0.017068 0.636221
0.018832 -0.059085 0.592259
0.0289931 -0.060019 0.938898
0.100756 -0.0813842 0.503659
0.111719 -0.0782251 0.484366
0.0287557 -0.0251195 0.222063
0.036232 -0.094962 0.676271
-0.032587 -0.0905734 0.871162
-0.137847 -0.0876511 0.491109
-0.018629 -0.0804071 0.166544
0.0176206 -0.0172365 0.694484
0.00215036 -0.112147 0.658508
0.0427981 -0.0883661 0.700692
0.332565 -0.052635 0.445919
-0.0133047 -0.0305278 0.0250124
0.125259 -0.0567396 0.542982
-0.0879359 -0.0553931 0.481919
-0.0461976 -0.0763618 0.392762
-0.21149 -0.06741 0.44503
-0.00985441 -0.0169286 0.84132
-0.112292 -0.052635 0.491325
0.110111 -0.101374 0.564521
0.0346817 -0.0572009 0.164343
0.0229412 -0.106411 0.775479
0.00247658 0.0866359 0.156931
-0.103746 -0.0375766 0.133408
0.0272211 -0.0883303 0.232843
-0.277268 -0.0559355 0.467227
0.00993455 -0.0152653 0.65864
0.0276599 -0.103933 0.537674
0.0419612 -0.046286 0.255919
0.00112026 0.0285052 0.172425
0.0451278 -0.0825263 0.518691
0.0305199 -0.0678511 0.935694
-0.030043 -0.0910167 0.287594
0.000875357 -0.046167 0.130929
-0.0969462 -0.0373217 0.129798
-0.209613 -0.0679197 0.468809
-0.0810162 -0.0679197 0.523202
0.0311029 -0.0249864 0.744225
-0.0434128 -0.0639941 0.88054
0.1466 -0.0876855 0.554495
0.0181494 -0.0679197 0.512929
0.0627846 -0.0315439 0.119347
-0.112237 -0.0965853 0.535405
-0.0278091 -0.0239793 0.277236
0.0108006 -0.0150949 0.0827342
-0.0438091 -0.0770319 0.341198
0.0991139 -0.0903969 0.595282
-0.137047 -0.0771761 0.543641
-0.00338805 -0.0284486 0.917618
0.0264758 -0.10495 0.590741
0.0141828 -0.108735 0.791975
0.0224818 -0.0976948 0.894319
0.0260453 -0.0397608 0.0906182
-0.0222584 -0.0183673 0.798442
0.037941 -0.0359035 0.855045
-0.0195358 -0.10784 0.420316
0.00302427 -0.063361 0.0892582
-0.0216354 -0.0680556 0.135543
-0.236504 -0.0679197 0.468383
-0.0187007 -0.0177428 0.293523
-0.106346 -0.101672 0.584981
-0.0356147 -0.030479 0.481998
0.0991476 -0.0679197 0.487531
0.099894 -0.052635 0.536034
0.0147077 -0.109268 0.430078
0.0392489 -0.0338533 0.394488
-0.0102453 -0.0157865 0.341365
0.00436504 -0.050193 0.161819
-0.0481359 -0.06863 0.645868
0.0183233 -0.0296399 0.0480421
-0.119304 -0.052635 0.539718
0.143617 -0.0902226 0.580054
-0.00463495 -0.0141211 0.534501
-0.0388466 -0.0355121 0.266018
0.106325 -0.0762893 0.548623
0.078458 -0.052635 0.514089
-0.161696 -0.0201368 0.112886
-0.00199136 0.0750901 0.186601
0.155966 -0.0807631 0.471399
0.0112183 -0.0513243 0.168593
0.0403974 -0.070519 0.242067
0.0388093 -0.0326722 0.75202
0.112518 -0.0968922 0.625678
-0.0418216 -0.0363155 0.716129
-0.126978 -0.0679197 0.508517
-0.107503 -0.0762043 0.488998
0.151263 -0.0487724 0.0951822
-0.0275689 -0.0448418 0.140345
0.142968 -0.08885 0.516524
-0.0236421 -0.0492015 0.15936
-0.066574 -0.0402472 0.165406
0.0156996 -0.0372328 0.0884617
0.0468175 -0.0549923 0.834617
-0.0259634 -0.0269125 0.122509
0.157147 -0.0679197 0.527027
-0.0381623 -0.0328329 0.630494
-0.275967 -0.0679197 0.43642
0.0205369 -0.0177731 0.794054
-0.0193351 -0.101227 0.308489
0.0274538 -0.104001 0.581607
-0.16869 -0.0526355 0.471909
0.144212 -0.0821436 0.540592
-0.032355 -0.0425538 0.138042
-0.00755575 -0.0144466 0.245578
0.19119 -0.052635 0.479244
-0.0179805 -0.0679197 0.588141
-0.0191649 -0.0177671 0.705411
-0.0287105 -0.102449 0.461666
0.121928 -0.0353831 0.1163
0.283378 -0.0679197 0.445135
-0.00575168 -0.0304317 0.115553
-0.138215 -0.0731793 0.534537
0.0014989 -0.0132363 0.488936
-0.00655167 -0.105879 0.863238
0.111415 -0.0769391 0.584842
0.187935 -0.063103 0.51502
-0.0345551 -0.0903759 0.32266
-0.0304188 -0.100247 0.66962
0.000840809 0.0225184 0.176443
-0.0036813 -0.111742 0.60476
-0.0423693 -0.0745791 0.304679
0.0104159 -0.0152005 0.737409
-0.0490073 -0.0599767 0.487891
-0.00660552 -0.0140267 0.216951
-0.0318701 -0.0269552 0.411994
-0.335937 -0.0593169 0.414385
-0.00414442 0.0604913 0.166112
-0.0345462 -0.0913938 0.331801
-0.0517895 -0.0306618 0.155942
-0.0424113 -0.0486989 0.267073
-0.0369196 -0.0345737 0.0957653
0.042391 -0.0727979 0.87199
0.0417456 -0.0898991 0.521203
0.0310501 -0.0898606 0.28139
-0.00245499 0.0898661 0.182407
0.0929427 -0.0433861 0.143015
0.0237279 -0.0541986 0.949898
0.0131163 -0.109348 0.6082
0.0392847 -0.0377652 0.242972
-0.0394251 -0.0912433 0.667752
0.00472897 -0.0200464 0.174289
-0.00945543 -0.109848 0.798954
-0.366724 -0.0679197 0.426609
-0.113998 -0.0899056 0.553854
-0.0480169 -0.0690186 0.678165
0.00292067 -0.0556939 0.0663007
-0.0206575 -0.0196177 0.1577
-0.100898 -0.0794731 0.627986
-0.0325718 -0.0983253 0.588343
-0.121476 -0.0566092 0.473029
0.0788233 -0.0355039 0.132187
0.0225967 -0.0486584 0.140382
0.161027 -0.0665231 0.458992
-0.0135789 -0.0281675 0.122836
0.1777 -0.0679197 0.475245
0.0327638 -0.0562457 0.923038
0.00156382 -0.0195553 0.113253
0.0370048 -0.052635 0.518721
-0.032731 -0.0534564 0.182512
0.0404322 -0.0912877 0.426562
0.0495869 -0.0532425 0.493901
0.191584 -0.0526354 0.468096
-0.111094 -0.0795916 0.529515
0.000820454 0.0249646 0.180882
-0.0546741 -0.0679197 0.550879
0.00168908 -0.0365136 0.09357
0.00170369 -0.0214812 0.115344
-0.0108519 -0.0679197 0.551616
-0.0888333 -0.0648055 0.562749
-0.146368 -0.0938371 0.567116
-0.0309244 -0.0679197 0.497629
-0.0150147 -0.109019 0.451415
0.101033 -0.0826933 0.493621
-0.0359103 -0.0322014 0.264673
0.141166 -0.0846017 0.59153
0.0190204 -0.107435 0.794904
-0.00871372 -0.0158314 0.0400992
0.00440294 -0.0284441 0.181271
-0.000703675 -0.046916 0.0879617
0.296892 -0.0679197 0.439822
0.00295981 0.103538 0.16722
-0.173646 -0.0679197 0.472362
-0.02905 -0.0672222 0.155221
-0.041958 -0.0496031 0.244214
0.100411 -0.0817767 0.561069
0.0393005 -0.033466 0.587398
-0.0469217 -0.0731054 0.658124
-0.0497595 -0.0626563 0.540128
-0.00167872 -0.0423483 0.119469
0.1002 -0.0855724 0.49592
0.148056 -0.0463637 0.085047
-0.242518 -0.052635 0.458305
0.0447883 -0.0448006 0.361916
-0.0315456 -0.0905544 0.297017
-0.0270587 -0.040319 0.11899
-0.00609608 -0.0218372 0.169244
0.00609192 -0.0142735 0.0602929
-0.113659 -0.0860216 0.613043
-0.0128092 -0.0560977 0.529779
0.0319709 -0.025667 0.814953
-0.137858 -0.0735481 0.491761
0.0133536 -0.0567634 0.545158
0.000202723 -0.0830932 0.153654
-0.0340626 -0.0283039 0.811362
0.214265 -0.0528904 0.459726
0.00595401 -0.111289 0.600324
0.0274454 -0.0679197 0.52528
0.0427212 -0.0605023 0.235775
-0.023559 -0.0626023 0.953655
-0.00438986 -0.0140905 0.511609
0.011574 -0.0484875 0.055144
0.00154975 0.00529755 0.13556
0.0578478 -0.052635 0.571287
0.0239786 -0.065563 0.955466
-0.0188231 -0.0250038 0.117735
0.00423036 -0.0142697 0.378231
0.00220027 0.0733373 0.157532
0.117824 -0.052635 0.504105
-0.0484075 -0.0648248 0.364293
-0.363918 -0.0679197 0.402164
0.104506 -0.0769874 0.566067
-0.0011441 -0.0133257 0.474454
0.00657523 -0.0142534 0.0679142
0.0340003 -0.09703 0.811156
-0.0205665 -0.0690691 0.962138
0.00113715 -0.0214286 0.900179
0.0033578 -0.0753349 0.129758
-0.0445619 -0.0781882 0.359703
-0.0361717 -0.0938441 0.368723
0.0995523 -0.0914132 0.503644
0.149231 -0.0737835 0.556503
0.0150209 -0.0456585 0.12903
0.00135327 0.0594067 0.180723
-0.0241279 -0.0679197 0.589179
-0.0360356 -0.0312038 0.385577
0.0938281 -0.052635 0.504178
-0.00593782 -0.0935437 0.211947
0.0772176 -0.06791 0.48419
-0.0421082 -0.0367275 0.668726
-0.36795 -0.0581779 0.411388
-0.0176019 -0.0172557 0.743051
0.00640136 -0.0141716 0.718358
-0.0455647 -0.0787835 0.435842
0.000447107 -0.047296 0.146467
-0.13849 -0.0813149 0.576667
0.0925337 -0.0356343 0.0941047
-0.0479595 -0.0694469 0.378066
0.0180588 -0.108401 0.399862
0.000848355 -0.0145411 0.843465
0.0599859 -0.0494368 0.130737
-0.189385 -0.052635 0.481744
0.0572821 -0.0414217 0.094335
-0.00105058 0.0165817 0.127214
-0.0391 -0.0338414 0.531389
-0.00586106 -0.0145017 0.505606
0.0386249 -0.0679197 0.538871
0.0129539 -0.107597 0.356383
-0.0785044 -0.0679197 0.495346
-0.00439249 -0.0517995 0.145262
0.0168517 -0.058646 0.191088
-0.0387189 -0.0679197 0.546526
0.0122058 -0.0657371 0.569778
0.0252548 -0.103071 0.348584
0.0164479 -0.0167914 0.747691
0.0455904 -0.0800792 0.815468
0.00875993 -0.110864 0.427928
-0.0146001 -0.0168447 0.324562
0.340029 -0.0617919 0.415742
-0.0448985 -0.0595924 0.278769
-0.150421 -0.0730525 0.555998
-0.0040071 -0.0414162 0.12651
0.18379 -0.0679197 0.51373
-0.0444468 -0.0804736 0.368366
0.273663 -0.064607 0.434425
0.107222 -0.0343281 0.0957294
-0.0316823 -0.0837338 0.236459
-0.106692 -0.0761254 0.498179
0.0292266 -0.102489 0.432912
-0.047259 -0.0641443 0.341118
0.00387434 -0.014731 0.0167708
-0.0369444 -0.0517242 0.174593
-0.0458569 -0.0753113 0.821988
-0.111429 -0.052635 0.516933
-0.228445 -0.0603885 0.445836
-0.0237095 -0.0791603 0.182212
0.029843 -0.0278604 0.85552
0.000914474 0.0446472 0.141406
0.00224967 0.0915965 0.184136
-0.0370832 -0.0559419 0.184381
-0.0363493 -0.0946863 0.544402
-0.138488 -0.0679197 0.503807
0.130158 -0.0330399 0.0935991
0.00526663 -0.0474524 0.0444112
-0.000844814 -0.0572675 0.173053
0.0498755 -0.0608361 0.763151
-0.00538205 -0.0118981 0.150426
0.013224 -0.0159185 0.751376
0.140541 -0.0812203 0.535454
-0.0294051 -0.0292807 0.867354
-0.153779 -0.0814044 0.57434
0.00182936 0.0319848 0.148146
-0.157948 -0.0588608 0.463346
-0.0814894 -0.0422041 0.147162
0.0449744 -0.0823729 0.669646
-0.00711535 -0.0142209 0.228355
0.0012043 -0.0679197 0.510341
0.0470431 -0.0524457 0.824205
0.0305435 -0.0847401 0.910437
0.047632 -0.0530198 0.454469
0.0329626 -0.0295418 0.215345
0.0256561 -0.0547754 0.167934
0.0279466 -0.103572 0.561255
0.00306391 -0.057416 0.159593
0.127217 -0.0599209 0.543272
0.00103276 -0.0491562 0.964992
-0.0163085 -0.0166409 0.219786
0.148523 -0.0724457 0.462153
0.0212574 -0.0222508 0.113071
0.000295034 0.00661623 0.185066
-0.00695158 -0.0254699 0.906686
-0.140154 -0.0825269 0.539791
-0.0666882 -0.036709 0.116174
0.170833 -0.0679197 0.487167
-0.254281 -0.0679197 0.440397
-0.148099 -0.0932287 0.582022
0.146377 -0.052635 0.522857
-0.3027 -0.058904 0.456716
-0.109946 -0.0782497 0.496114
0.15277 -0.052635 0.496465
-0.151251 -0.0717473 0.595692
-0.0165269 -0.10863 0.435869
-0.037852 -0.0891333 0.341265
-0.0159442 -0.0422225 0.123951
0.170615 -0.0654325 0.523982
-0.0514641 -0.0644087 0.581043
0.0236975 -0.0882843 0.217286
-0.0482861 -0.0680142 0.685748
0.000488594 0.0834153 0.159236
0.00287781 -0.058134 0.153755
0.00670623 -0.111375 0.46561
0.134412 -0.049725 0.105633
-0.0231903 -0.0195064 0.262056
-0.0959094 -0.0884904 0.623004
-0.127833 -0.052635 0.515066
-0.0255123 -0.0223748 0.223229
-0.0040832 -0.0511228 0.0544673
0.00784198 -0.104559 0.874188
0.0317588 -0.0993807 0.721322
0.000440018 -0.0128902 0.0536256
0.0333546 -0.0277583 0.458093
-0.0286188 -0.0834315 0.919334
0.00159737 0.0629915 0.184227
0.00988392 -0.0917796 0.943915
-0.00745845 -0.0398447 0.935032
0.011594 -0.0155411 0.727266
0.0603683 -0.0535294 0.149762
-0.121768 -0.052635 0.499466
0.00244397 -0.0560548 0.103434
0.0838329 -0.0679197 0.512087
-0.233367 -0.0679197 0.452581
0.0114492 -0.109654 0.659562
-0.0152185 -0.0167283 0.280912
-0.0482979 -0.0571773 0.522655
-0.144567 -0.0791584 0.592014
-0.176047 -0.052635 0.478448
-0.144105 -0.0282486 0.104082
-0.0156003 -0.0977119 0.260605
-0.188908 -0.0679197 0.508415
-0.149754 -0.0874518 0.547421
-0.0096058 -0.0679197 0.55321
0.31415 -0.0530672 0.454225
0.302129 -0.0633802 0.426852
0.0452202 -0.0519343 0.313299
0.00550917 -0.0679197 0.520192
0.0499557 -0.0637853 0.733853
-0.0293557 -0.101649 0.377702
0.00129096 0.0105756 0.151665
-0.000932343 -0.0761237 0.180301
0.0467562 -0.052635 0.544865
0.0168022 -0.108619 0.514425
-0.00341296 -0.0464225 0.13916
-0.0253731 -0.0434225 0.132919
-0.0102757 -0.0154375 0.684166
-0.0253136 -0.105756 0.533948
0.0875498 -0.0490592 0.147437
0.0116024 -0.0679197 0.553481
0.0470836 -0.0747751 0.604536
-0.0438971 -0.0845388 0.628973
0.0408577 -0.052635 0.536867
0.0381276 -0.0432164 0.200037
-0.0546463 -0.052635 0.504119
-0.0974218 -0.0296101 0.0938634
-0.0441717 -0.0426486 0.820861
-0.250641 -0.0587333 0.480276
0.00596244 -0.0348222 0.117921
-0.0133699 -0.10938 0.521896
-0.00488637 0.00513862 0.146241
-0.0179018 -0.0501392 0.0756486
-0.00848321 -0.0575351 0.537004
-0.033574 -0.0298723 0.263922
0.043218 -0.0541033 0.873141
-0.0306333 -0.0263658 0.322769
-0.0364862 -0.0627029 0.193754
0.00535712 0.013196 0.171826
-0.0130711 -0.108927 0.764831
0.0413809 -0.0726997 0.269368
0.000992384 0.0265037 0.175605
0.290711 -0.0679197 0.4542
-0.00247606 0.0431785 0.14793
-0.00445675 -0.0379076 0.119175
-0.0224247 -0.0596126 0.95431
-0.113163 -0.0944398 0.588355
0.116529 -0.0676011 0.467901
-0.0401297 -0.0650388 0.899409
0.0442174 -0.0425331 0.363115
0.0379735 -0.0782727 0.896138
0.0971166 -0.052635 0.540687
-0.140427 -0.0707684 0.477104
0.15738 -0.0812901 0.560219
-0.046032 -0.0512515 0.176916
0.0486118 -0.0694666 0.474753
0.0231589 -0.0733257 0.954499
0.0153974 -0.0164024 0.245287
0.052833 -0.0679197 0.521095
0.00768909 -0.0894625 0.193846
-0.0816924 -0.0592988 0.56455
-0.0359773 -0.0307802 0.501491
-0.124889 -0.0536367 0.475399
-0.00352639 -0.0515517 0.188147
-0.0361838 -0.0949442 0.505208
0.0945412 -0.0679197 0.54901
-0.0390133 -0.0757675 0.25179
0.029909 -0.0418868 0.169775
0.0530374 -0.052635 0.541823
-0.0443182 -0.0471722 0.343192
-0.00889769 -0.0990299 0.25554
0.0432361 -0.0511441 0.144685
0.288542 -0.0594832 0.46692
-0.0374712 -0.0342221 0.23217
-0.0165504 -0.0169795 0.264571
0.177755 -0.0610062 0.519344
-0.0138395 -0.0604695 0.519237
0.0154256 -0.0172073 0.368627
-0.152024 -0.0800885 0.518847
0.00864641 -0.0183501 0.0153873
-0.101247 -0.0770902 0.561783
0.0233057 -0.0188752 0.300002
0.0226082 -0.0573583 0.106509
-0.00629595 -0.0472216 0.143925
0.103912 -0.0772299 0.539404
-0.0683163 -0.0261743 0.0959358
0.048577 -0.0562897 0.573424
-0.0214846 -0.0185804 0.587925
0.0933748 -0.038084 0.139093
-0.0437201 -0.0590013 0.876292
0.0298497 -0.1016 0.583153
0.0128785 -0.0155864 0.221372
-0.198428 -0.052635 0.480449
-0.146058 -0.0938523 0.517562
-0.261728 -0.052635 0.449467
-0.142102 -0.068768 0.520259
-0.0131623 -0.0166426 0.352885
0.0377241 -0.0939177 0.522175
0.0130142 -0.0156987 0.235199
0.143573 -0.0785258 0.53856
0.212887 -0.052635 0.490027
-0.0291814 -0.0236342 0.731635
-0.0457095 -0.0694625 0.338959
0.0233816 -0.0933532 0.243572
0.331893 -0.0679197 0.440835
0.0470869 -0.0663457 0.339065
-0.038487 -0.0339391 0.351955
-0.00479368 0.00127626 0.139289
-0.0392079 -0.0353154 0.283775
-0.149887 -0.092468 0.493341
-0.181334 -0.0626492 0.516293
-0.0968652 -0.0944233 0.554233
0.00037477 -0.012144 0.203171
-0.0289997 -0.046268 0.147531
0.116253 -0.0838791 0.571333
-0.00448775 0.0341864 0.156305
0.00094885 0.0225892 0.172385
0.122709 -0.0622016 0.546273
0.025966 -0.101468 0.340504
-0.0442494 -0.0513333 0.304295
-0.0288421 -0.0237659 0.463205
0.0115698 -0.0156981 0.660808
0.151668 -0.0724238 0.525895
0.0478937 -0.0716392 0.625885
-0.0312518 -0.0260289 0.509665
-0.100708 -0.0386622 0.137411
-0.0990681 -0.0679197 0.549188
-0.00352642 -0.111652 0.651329
-0.042156 -0.0539673 0.878749
-0.0314223 -0.0261765 0.516923
-0.047261 -0.0219652 0.113615
0.14727 -0.0837214 0.470969
0.125298 -0.0679197 0.521807
0.144423 -0.0847981 0.517485
-0.0900331 -0.0387844 0.134189
0.0207876 -0.0612044 0.506369
0.0173848 -0.0452918 0.126473
0.0388639 -0.0425919 0.106199
0.0488484 -0.062707 0.831826
0.00148125 -0.0667552 0.166542
-0.055807 -0.0679197 0.527093
-0.0966132 -0.0847461 0.5111
-0.155276 -0.0824694 0.535542
0.0109441 -0.083214 0.968768
-0.161841 -0.0184282 0.110217
0.110166 -0.0764703 0.54885
-0.0193195 -0.0179897 0.30606
0.0020861 0.0580189 0.152003
-0.101319 -0.100779 0.520552
0.0456647 -0.0804237 0.444953
0.15881 -0.0768134 0.569421
0.00675259 -0.0495314 0.158359
0.0177514 -0.0663163 0.559418
0.0440149 -0.0866207 0.473367
0.155127 -0.0694056 0.484286
0.00611892 -0.0142709 0.634767
-0.401674 -0.0666317 0.403903
0.0510649 -0.0489816 0.131778
-0.00143523 -0.0690048 0.185533
0.0267928 -0.0674143 0.54374
0.142935 -0.0890474 0.548629
0.0990263 -0.0879062 0.571617
0.00177165 0.0235799 0.141772
0.0054084 0.0170288 0.172344
0.03493 -0.096755 0.475488
0.0319707 -0.0283116 0.222784
0.00214456 -0.0133048 0.539681
-0.07587 -0.0364544 0.118246
-0.0301262 -0.100596 0.643992
-0.272717 -0.0679197 0.458173
-0.00377603 -0.103359 0.286895
-0.0414202 -0.0680178 0.490706
0.000977257 0.0239276 0.17393
0.0407696 -0.0907777 0.55209
-0.0423978 -0.0650045 0.260486
0.0495595 -0.0655612 0.599541
0.0351716 -0.0447228 0.117489
0.136415 -0.0679197 0.527017
0.23421 -0.0679197 0.475121
-0.0296735 -0.0244464 0.510993
0.00682432 -0.0143225 0.703095
-0.0321838 -0.0989705 0.468911
-0.0183676 -0.057985 0.569523
-0.153513 -0.0730642 0.496372
-0.13638 -0.0816706 0.502566
0.128222 -0.0499768 0.109012
-0.00220088 -0.0679197 0.5701
0.0145122 -0.108847 0.653196
-0.139338 -0.0823794 0.537669
-0.0297567 -0.0241353 0.759629
0.028579 -0.103149 0.41469
0.0502829 -0.0625657 0.781219
0.158284 -0.0872515 0.565392
0.0454917 -0.0662014 0.857719
0.117026 -0.0897763 0.61692
0.0160199 -0.108389 0.688157
0.00493884 -0.0298493 0.160007
0.293754 -0.0653069 0.466004
0.0253555 -0.106338 0.463681
0.255433 -0.0660629 0.438181
-0.00420988 -0.0445362 0.124564
-0.04019 -0.0385532 0.283395
-0.0167049 -0.0169207 0.781542
-0.00483776 -0.111418 0.609711
-0.0196603 -0.0255777 0.0994287
0.142248 -0.0762326 0.595563
-0.269825 -0.0679197 0.446428
-0.113077 -0.082873 0.616032
-0.139849 -0.0711712 0.56983
-0.0468053 -0.0741761 0.45204
-0.000847631 -0.0386653 0.189206
0.235595 -0.0679197 0.466945
0.000278427 -0.0669719 0.987202
-0.0224261 -0.091507 0.227457
-0.0484275 -0.0681542 0.474862
0.063383 -0.0528282 0.570749
0.0172055 -0.0414959 0.927935
0.046192 -0.0778311 0.732394
0.0384415 -0.0363829 0.854857
0.0224136 -0.0186846 0.589051
1.9721e-05 0.0182578 0.126027
-0.160799 -0.0245356 0.113582
-0.0475823 -0.0544237 0.725893
0.380694 -0.0679197 0.410145
-0.0172199 -0.100932 0.29935
-0.0158719 -0.0170146 0.647471
-0.0451872 -0.0797156 0.630584
0.0303648 -0.0290197 0.151068
0.0455077 -0.0447933 0.543654
0.141763 -0.0807296 0.585682
-0.200738 -0.0679197 0.472661
-0.000963062 0.0962933 0.18837
0.158023 -0.0679197 0.463041
-0.0149286 -0.0625213 0.100919
-0.0128429 -0.0160061 0.732666
-0.00062947 -0.0548024 0.182524
-0.00622888 -0.0195305 0.176372
-0.00444856 -0.108187 0.340008
-0.00380205 -0.0595842 0.535392
0.344418 -0.0673504 0.444612
-0.0467858 -0.0252404 0.128782
0.145246 -0.0823633 0.471828
-0.131807 -0.0679197 0.49295
0.141797 -0.0821069 0.594256
0.0364624 -0.042886 0.17837
0.00118179 0.0468686 0.179171
0.379697 -0.0679197 0.40365
-0.0941623 -0.0318706 0.147894
0.0166719 -0.0656294 0.113127
-0.0329422 -0.0594604 0.923532
0.150409 -0.0937336 0.566182
-0.282331 -0.0679197 0.46755
0.00108881 0.0125834 0.159696
-0.105754 -0.101902 0.558096
-0.00525835 0.0194692 0.173112
0.0417534 -0.0422241 0.853421
-0.140849 -0.078713 0.558636
-0.0165035 -0.0190474 0.845607
-0.303299 -0.052635 0.453218
0.0074865 -0.014749 0.527274
0.0358696 -0.0430248 0.900971
-0.155899 -0.0192865 0.115458
0.0758982 -0.04796 0.118166
0.109757 -0.082505 0.480376
-0.000219745 -0.0317463 0.929144
-0.00461271 -0.0243807 0.905399
0.0297573 -0.101654 0.376527
-0.0264158 -0.0211002 0.611315
0.167969 -0.0562282 0.522313
0.00235135 -0.059282 0.127341
-0.0459078 -0.0768923 0.779657
0.141365 -0.0754402 0.548504
0.116051 -0.0828198 0.544233
0.00489594 -0.104603 0.301748
0.387522 -0.0617862 0.416065
0.00162924 0.0507479 0.164672
-0.150849 -0.0857485 0.561785
0.033273 -0.0274446 0.579121
-0.00652846 -0.0915313 0.20301
-0.027874 -0.0230461 0.384465
0.00198707 -0.112649 0.456299
0.00690817 -0.0149161 0.407388
-0.0267537 -0.0679197 0.535709
-0.073171 -0.0214002 0.120182
0.0666076 -0.0679197 0.566037
0.033984 -0.0662235 0.589276
-0.0899274 -0.0335626 0.109705
0.315808 -0.0608143 0.455632
-0.00352659 -0.106188 0.316189
0.0348796 -0.0290093 0.638004
-0.139378 -0.0679197 0.533278
0.115311 -0.0494835 0.111292
0.115172 -0.0679197 0.549736
0.0339722 -0.0400953 0.154421
0.0186299 -0.0608188 0.507116
-0.0359069 -0.0346124 0.856897
0.00118948 -0.0679197 0.524383
0.0477421 -0.0722838 0.610952
0.0142851 -0.0968727 0.912643
0.00868923 -0.105168 0.866003
-0.00064396 -0.0699352 0.173331
-0.100056 -0.0779482 0.517915
0.102809 -0.0411852 0.135916
0.000921699 0.0355993 0.186279
0.000882725 -0.012856 0.646178
-0.0057352 -0.0324529 0.146038
-0.0463458 -0.049961 0.503701
0.00213372 0.0946687 0.161275
0.151349 -0.0836262 0.592862
0.132586 -0.0382091 0.118289
0.156505 -0.0748425 0.577031
0.0361653 -0.0491545 0.159145
-0.0651307 -0.0584121 0.572339
-0.124568 -0.0641491 0.544977
-0.0180352 -0.0679197 0.539224
0.146717 -0.0877183 0.475984
-0.0334803 -0.0327036 0.861525
-0.0447465 -0.0815914 0.586629
-0.38243 -0.0679197 0.396156
0.0409677 -0.0349562 0.704605
0.150222 -0.0755365 0.463276
0.0329668 -0.0971036 0.364371
-0.0202674 -0.107456 0.549061
0.0130966 -0.015964 0.719039
0.00645518 0.0740312 0.169278
0.00230138 -0.0107046 0.104168
0.00400927 -0.111573 0.712183
-0.271643 -0.0643714 0.472121
-0.10705 -0.0798519 0.623487
-0.0436038 -0.080953 0.355925
-0.0455103 -0.0464769 0.780903
-0.243124 -0.052635 0.451638
0.0478074 -0.0592494 0.333923
0.174764 -0.0538603 0.467534
-0.147723 -0.0913235 0.596724
0.0642467 -0.0679197 0.518152
0.00302398 -0.11158 0.370416
0.0448085 -0.0829966 0.801697
-0.0424271 -0.0766426 0.854858
-0.0139985 -0.0679197 0.576251
-0.00539821 -0.0557243 0.0687086
-0.136977 -0.0531383 0.47322
0.0552369 -0.0511465 0.140429
-0.362068 -0.056836 0.415432
-0.00325793 -0.0709198 0.115326
0.00181801 0.0218332 0.139694
-0.0358957 -0.0315644 0.32942
0.0492863 -0.0588853 0.536502
0.0452504 -0.0739435 0.838127
0.0428647 -0.052635 0.559523
-0.0110444 -0.0433382 0.127433
0.159349 -0.0679197 0.514494
0.0294068 -0.0430649 0.172133
0.235441 -0.0549969 0.488956
-0.102504 -0.0764373 0.497807
-0.078593 -0.0679197 0.515086
0.0386904 -0.0393046 0.222167
-0.0419377 -0.0653011 0.25386
-0.0136287 -0.0332716 0.0963485
0.155615 -0.0800818 0.549922
-0.0448134 -0.0442628 0.586574
-0.0471332 -0.0344047 0.0985191
0.00150952 0.0612463 0.175974
0.0354901 -0.0706702 0.913583
-0.10425 -0.0267427 0.0941041
-0.115579 -0.0359889 0.130182
-0.132201 -0.0192851 0.126289
0.0483753 -0.0697173 0.649556
0.33288 -0.0677132 0.449601
-0.0249869 -0.0198968 0.467577
-0.00660736 -0.0421917 0.171123
0.00679869 -0.0988389 0.912845
0.0381794 -0.090198 0.349023
-0.0766342 -0.052635 0.559079
-0.139403 -0.0719409 0.592652
-0.0101249 -0.0358169 0.0918925
-0.0424901 -0.0371145 0.666765
-0.0838958 -0.0352342 0.115386
0.045686 -0.0457539 0.455145
0.0310975 -0.0526353 0.502484
0.0322507 -0.0675379 0.929331
0.0292113 -0.0567052 0.130973
0.0457336 -0.0730532 0.835509
-0.0131136 -0.0165193 0.479385
-0.152655 -0.078624 0.546158
0.0137554 -0.0263056 0.0217584
-0.000572382 -0.0493937 0.169449
0.133016 -0.052635 0.533375
0.101076 -0.0940398 0.498136
-0.00418718 -0.0679197 0.508926
-0.0263864 -0.0803935 0.936633
-0.141142 -0.0914289 0.594412
0.213509 -0.0679197 0.461464
0.110037 -0.0346542 0.0951449
0.157128 -0.081605 0.548595
0.00760092 -0.110534 0.766941
-0.0456317 -0.0469628 0.77242
0.0463105 -0.0773871 0.677991
0.160648 -0.0403325 0.0912833
-0.0354496 -0.0269569 0.0957795
-0.026497 -0.0600682 0.591777
0.0170382 -0.0679197 0.556985
-0.0127796 -0.0512744 0.175032
-0.138863 -0.089023 0.529874
-0.0100555 -0.0913347 0.206616
-0.0464633 -0.0503688 0.509557
0.0200734 -0.0545604 0.533992
-0.0294734 -0.0855929 0.233295
0.142648 -0.052635 0.513729
-0.103206 -0.064778 0.555664
-0.0234817 -0.0189435 0.697384
-0.0317634 -0.0267855 0.431979
-0.000443731 -0.0527865 0.176768
-0.15283 -0.0813499 0.539296
0.0342273 -0.0416848 0.17416
-0.0427046 -0.0372265 0.705485
-0.0707583 -0.052635 0.499161
0.318205 -0.0591833 0.454165
0.0231072 -0.101549 0.863597
0.0764294 -0.0650937 0.476402
0.0087478 -0.0143381 0.193377
-0.00549112 -0.0420057 0.134984
-0.0125742 -0.0426897 0.124941
-0.00011605 -0.0342621 0.176238
-0.00342713 -0.00281179 0.120299
0.0293291 -0.0941762 0.304899
0.00541118 -0.0679197 0.600731
0.0043213 0.0563544 0.184212
-0.00284597 -0.0453444 0.0369013
0.0308639 -0.100756 0.529141
-0.0207338 -0.106911 0.738428
-0.0305945 -0.0512803 0.187059
-0.148536 -0.0929734 0.535042
-0.0050548 -0.0272708 0.12436
0.00308214 0.107243 0.172576
-0.139807 -0.0710401 0.542132
-0.0338121 -0.0292695 0.351399
-0.000917775 -0.0130576 0.599362
0.0476797 -0.05395 0.376386
0.0230681 -0.0191445 0.231255
0.0318164 -0.0572113 0.145315
0.0667659 -0.0679197 0.525401
0.01373 -0.0679197 0.52734
-0.365328 -0.0612361 0.403164
0.00593136 -0.11098 0.767543
0.0483639 -0.0697272 0.776305
-0.0390651 -0.0914679 0.779154
0.0487634 -0.0574519 0.414722
0.0364114 -0.052635 0.546711
0.162276 -0.0679197 0.466286
0.0499335 -0.0617355 0.430491
-0.0477874 -0.0550589 0.759341
-0.149163 -0.0284944 0.107031
0.0398452 -0.0522569 0.19392
0.0984476 -0.0514504 0.126492
0.0244539 -0.0194631 0.34333
-0.137878 -0.0134401 0.100836
0.0208993 -0.0181105 0.28147
-0.0761391 -0.0288124 0.155938
-0.0015513 -0.111945 0.813902
0.159117 -0.0836105 0.54186
-0.0128315 -0.0661333 0.577251
-0.00202374 -0.049169 0.107582
-0.0219071 -0.0197772 0.191749
0.0184703 -0.0175326 0.666662
-0.101132 -0.0197733 0.122504
-0.0308188 -0.0253866 0.819862
-0.147215 -0.052635 0.480401
0.0741445 -0.0385938 0.090176
-0.00298607 -0.0368461 0.0996331
0.116314 -0.084175 0.605552
-0.227351 -0.052635 0.487353
-0.035408 -0.0709936 0.202581
-0.00917896 -0.0864776 0.182076
0.157394 -0.0808766 0.556155
0.377982 -0.060357 0.411228
0.0142342 -0.0884466 0.197399
-0.0325429 -0.0543217 0.496897
-0.0160266 -0.0169727 0.28524
0.0271986 -0.0212076 0.696855
-0.214867 -0.0679197 0.48429
0.0300407 -0.0830771 0.221919
-0.0761925 -0.052635 0.531
-0.0324739 -0.0289965 0.240589
-0.137406 -0.0753988 0.54594
0.0458522 -0.0795923 0.562491
0.0458516 -0.0461272 0.684147
0.126899 -0.0525103 0.478525
0.152218 -0.0402219 0.107743
-0.0321112 -0.0883716 0.282364
0.0395671 -0.0436786 0.882951
-0.183393 -0.052635 0.47821
0.00175465 0.0572376 0.164088
-0.154575 -0.0744463 0.561697
0.0293098 -0.0483845 0.927491
-0.0441656 -0.0414184 0.791186
-0.139748 -0.0901909 0.536708
-0.000330513 -0.0592026 0.168337
-0.0342869 -0.0963481 0.695278
0.156056 -0.0786755 0.517772
-0.165491 -0.052635 0.480931
0.0454848 -0.0443062 0.800206
0.0807794 -0.0380025 0.0909996
-0.0344317 -0.0239762 0.118471
-0.121041 -0.0678049 0.471084
0.000568947 -0.0442055 0.143829
0.211007 -0.0679197 0.480078
-0.0129325 -0.0624002 0.599262
-0.111744 -0.0280027 0.0920315
0.049687 -0.0603218 0.714673
0.142907 -0.0456322 0.0834519
-0.10804 -0.0679197 0.507652
0.0162953 -0.0679197 0.520042
-0.00564241 -0.0791168 0.14499
-0.0195447 -0.0711055 0.963281
0.00144012 0.0317583 0.162946
0.00281461 -0.0347302 0.11213
-0.089569 -0.0678503 0.475588
-0.337733 -0.0679197 0.421834
-0.0417948 -0.0826812 0.332492
-0.0702269 -0.052635 0.506724
0.0304448 -0.0559284 0.930444
-0.112329 -0.0813745 0.521434
0.0360268 -0.0384313 0.161102
0.0427727 -0.036934 0.593015
0.14499 -0.0749668 0.536408
-0.0494396 -0.0679197 0.494248
-0.109042 -0.0255829 0.0944792
-0.114133 -0.0281653 0.0930393
0.0052562 -0.0433026 0.953737
-0.294546 -0.0679197 0.44865
0.00181936 -0.112113 0.745826
0.0431749 -0.0372911 0.656206
-0.0402599 -0.0908715 0.500025
0.0160065 -0.108853 0.494623
0.00326478 -0.110533 0.827676
0.308049 -0.052635 0.450702
-0.032559 -0.0983725 0.577429
0.0180492 -0.0591688 0.5912
-0.0373695 -0.032029 0.646121
-0.0545553 -0.0392181 0.123608
0.0317336 -0.0391581 0.135841
-0.0134614 -0.0324273 0.0935413
-0.00495384 0.0128365 0.155582
0.14474 -0.0703089 0.481347
0.0234921 -0.0666464 0.546567
-0.0183416 -0.023608 0.111027
0.0273015 -0.0210614 0.790872
-0.0178516 -0.0679197 0.577121
0.0637993 -0.0679197 0.506831
0.0419319 -0.0891806 0.743345
0.0358248 -0.0303281 0.426532
-0.0264841 -0.0236495 0.213769
-0.114078 -0.0883448 0.55997
-0.00554664 -0.0679197 0.502023
-0.0429512 -0.0876027 0.761992
0.0124273 -0.0504493 0.0619252
0.042445 -0.088741 0.682716
-0.096802 -0.0189555 0.117136
-0.0238183 -0.10603 0.777409
0.0379498 -0.0428605 0.198903
-0.117225 -0.052635 0.541558
-0.113068 -0.0949379 0.563856
0.043764 -0.0387155 0.429578
-0.000137456 -0.0656757 0.136466
-0.00163617 -0.0679197 0.531953
0.370965 -0.0679197 0.412156
0.0433537 -0.0373749 0.692231
-0.00119671 -0.0131098 0.621012
0.308946 -0.0679197 0.45007
0.0691504 -0.0603481 0.481824
0.0202573 -0.0262445 0.0683717
-0.0089625 -0.0152485 0.311311
0.0477968 -0.0718402 0.671407
0.0126016 -0.107964 0.828338
-0.0161824 -0.0868824 0.948659
0.217735 -0.0561834 0.45563
0.0271806 -0.021814 0.825237
-0.00560234 -0.0292704 0.143706
0.042609 -0.0432846 0.108112
0.0241067 -0.0230812 0.145864
0.192595 -0.0596213 0.457954
-0.0481903 -0.0687835 0.578236
0.0466044 -0.0485161 0.791996
0.210676 -0.0679197 0.44951
-0.143459 -0.0737568 0.534407
-0.0383411 -0.0337302 0.358508
-0.0412405 -0.0776393 0.299307
-0.0112979 -0.110074 0.395089
0.0263167 -0.0518564 0.940504
0.0403342 -0.0754512 0.263986
-0.0398756 -0.052635 0.550858
0.0324259 -0.0278419 0.299951
-0.142887 -0.0268115 0.0969205
0.28315 -0.0679197 0.437367
-0.036562 -0.0310319 0.72519
0.267535 -0.052635 0.45625
0.016497 -0.0324478 0.0389339
0.0305297 -0.0951404 0.32451
-0.0308105 -0.0618934 0.932765
-0.145239 -0.0672718 0.478661
-0.150957 -0.0778912 0.583214
-0.0029508 -0.0185589 0.109295
-0.384721 -0.0679197 0.405022
-0.0589892 -0.0541732 0.573591
-0.0469061 -0.0519859 0.524371
-0.143494 -0.0742414 0.551693
0.00945705 -0.110541 0.532871
0.0295456 -0.0304564 0.137096
0.0014821 -0.112658 0.539863
0.0553949 -0.052635 0.554648
-4.60893e-05 -0.112535 0.68147
0.0247205 -0.0209553 0.226091
0.0583092 -0.0421105 0.0970343
-0.0197431 -0.0566798 0.55609
-0.243466 -0.0679197 0.469922
-0.0220545 -0.107116 0.468133
0.270781 -0.052635 0.457289
0.0118372 -0.10999 0.474585
0.185029 -0.0679197 0.487457
-0.04728 -0.0526351 0.503963
0.00465174 -0.0481936 0.155161
-0.155879 -0.052635 0.502345
-0.0476091 -0.054681 0.50267
0.108348 -0.0333387 0.0971007
0.0493615 -0.0660005 0.666399
-0.0363529 -0.0943374 0.653943
0.0476273 -0.0280364 0.108351
-0.187656 -0.0546198 0.461656
0.000961532 -0.0435832 0.12932
0.109649 -0.0679197 0.487942
-0.136219 -0.0266149 0.0936303
0.142882 -0.0726011 0.499062
0.153522 -0.0871799 0.563592
-0.016325 -0.0175729 0.410998
-0.0304097 -0.0400433 0.12676
-0.0720521 -0.0679197 0.51987
-0.0240157 -0.0321213 0.903726
-0.0270466 -0.0463379 0.107895
0.0381271 -0.0463311 0.123967
0.0488891 -0.0674811 0.375745
0.0248177 -0.022517 0.852666
-0.0468252 -0.0583257 0.327387
-0.0434852 -0.0394957 0.463685
0.0678372 -0.0536765 0.489166
0.0241229 -0.0340905 0.908913
-0.0241511 -0.0302105 0.094627
-0.0327733 -0.0983568 0.502508
0.0288776 -0.0226697 0.778705
-0.0459137 -0.0772216 0.589285
0.0366999 -0.0396422 0.166532
0.146419 -0.0686681 0.550858
-0.0395853 -0.0573067 0.491333
0.00489737 -0.0135 0.0835107
0.0455352 -0.0687301 0.323176
0.00586401 -0.0225398 0.129568
-0.0394644 -0.0803545 0.281055
0.0144698 -0.0161477 0.7939
-0.0349698 -0.0817922 0.248647
-0.0131191 -0.0162065 0.287223
0.0397527 -0.0917108 0.578691
0.320882 -0.0679197 0.427414
0.0999713 -0.0950581 0.508433
0.0497854 -0.0650177 0.542636
0.0917573 -0.0679197 0.494478
0.0210517 -0.0613082 0.113285
-0.0116965 -0.0896123 0.200433
0.0220987 -0.0931452 0.230629
-0.137775 -0.0742649 0.574709
-0.0248471 -0.0577246 0.494893
-0.0295994 -0.0512201 0.927278
0.00157091 -0.0448497 0.105342
0.0249376 -0.0700831 0.149101
0.0448176 -0.0829585 0.677216
0.0360998 -0.0298956 0.777411
0.0272395 -0.103892 0.373996
0.0462188 -0.0479056 0.424188
-0.00726658 -0.0677477 0.606152
-0.0101116 -0.0151425 0.0782209
0.0197305 -0.0176744 0.746302
0.0325247 -0.0366383 0.153953
-0.366676 -0.0581305 0.408658
-0.0375188 -0.0421789 0.202851
-0.0196698 -0.0181138 0.569103
0.0428384 -0.0888803 0.428218
-0.0687259 -0.052635 0.52824
0.00328323 -0.0240181 0.185285
0.0994253 -0.0522249 0.129771
-0.00442171 -0.0575693 0.975209
0.0319582 -0.0277375 0.835497
0.224263 -0.0540403 0.494049
-0.0321837 -0.0679197 0.510814
0.0128756 -0.0816447 0.967992
-0.0114741 -0.109409 0.72645
-0.284438 -0.0679018 0.425805
-0.150772 -0.0679197 0.519597
-0.00886142 -0.0386089 0.930553
0.0615336 -0.0681483 0.481849
0.154602 -0.0911958 0.592372
0.0418636 -0.0497574 0.227304
0.0781631 -0.0416612 0.0878727
0.00273176 -0.0606688 0.183612
-0.0577415 -0.0682116 0.480568
-0.110514 -0.052635 0.505314
-0.00523067 -0.0104858 0.145824
-0.386631 -0.0679197 0.400516
0.155686 -0.0867503 0.550816
-0.0343769 -0.076145 0.213484
-0.36029 -0.0563594 0.417707
-0.00734317 -0.0470917 0.958712
-0.0463476 -0.0504452 0.412899
-0.118716 -0.0599219 0.546551
-0.000892593 -0.112811 0.444439
-0.00653393 -0.0199561 0.0103577
-0.145619 -0.0679197 0.466038
-0.0102663 -0.0407944 0.935582
-0.14584 -0.0704795 0.564642
-0.0181939 -0.0173819 0.258708
-0.00607603 -0.00858312 0.180065
0.0141829 -0.109337 0.498589
-0.00567244 -0.0358165 0.140678
0.158955 -0.0839606 0.559632
-0.00284122 -0.0680288 0.168339
0.043716 -0.0874379 0.586567
0.0243484 -0.0454208 0.0896854
0.00306429 -0.0298436 0.094979
0.00244035 -0.0524207 0.0565199
-0.106506 -0.0679197 0.495365
0.000126937 -0.112469 0.760863
0.144451 -0.0910221 0.533958
8.66766e-05 -0.0355262 0.167727
0.0137878 -0.10951 0.434331
-0.0875039 -0.052635 0.518066
0.178005 -0.0679197 0.498537
-0.00404739 -0.0489832 0.151373
-0.00130691 -0.0679197 0.500767
0.00199456 0.100806 0.183031
0.100043 -0.0679197 0.486213
-0.048633 -0.0588895 0.429077
-0.0801554 -0.0204811 0.118362
0.0245143 -0.0679414 0.497738
-0.0491504 -0.0551253 0.578758
-0.0250212 -0.0197654 0.527299
0.0268668 -0.0215868 0.372363
0.0389463 -0.0604459 0.585282
0.00409587 -0.0159552 0.85038
