-0.0331595 -0.0274968 0.543891
-0.0415397 -0.0450832 0.576428
0.0120523 -0.0281108 0.765044
0.207269 -0.0442364 0.504334
0.0155399 -0.0379151 0.108976
-0.0368872 -0.0442364 0.561511
-0.0220834 -0.0200893 0.20011
0.0350872 -0.0655986 0.160886
0.0399664 -0.045648 0.191871
0.0180429 -0.0500621 0.528666
0.132466 -0.0442364 0.535735
-0.0235411 -0.0673922 0.198476
0.0417937 0.0808255 0.079323
-0.0406688 -0.0653223 0.557136
0.0044792 -0.0395079 0.0850964
-0.0235931 -0.0642015 0.175516
0.0208373 -0.0471727 0.17115
-0.00188138 -0.0821268 0.566198
-0.0683601 0.040382 0.125402
-0.0193276 -0.0403896 0.144934
0.00192091 -0.0493909 0.565968
-0.0772186 -0.0497622 0.239462
0.0209825 -0.0453733 0.499328
0.00602993 -0.0223679 0.507716
0.0424399 -0.0445771 0.14141
-0.0992387 -0.0316366 0.126077
-0.00850701 -0.084001 0.503249
-0.0129767 -0.0416172 0.150168
0.0175029 -0.0558482 0.878104
-0.00273828 -0.0638139 0.971295
-0.0422204 -0.0426519 0.685348
0.049405 -0.0507721 0.238608
-0.0257658 -0.080451 0.647422
-0.0424208 -0.0588677 0.533189
-0.0663222 -0.0601822 0.179836
0.00144135 -0.0314401 0.922149
-0.225865 -0.0480932 0.482394
-0.0334944 -0.0316382 0.16466
0.0507689 -0.067908 0.217838
-0.020007 -0.0452835 0.0744147
-0.0299663 -0.0369436 0.107343
0.0186862 -0.0468708 0.867628
-0.0365782 -0.0347111 0.223989
-0.0242347 -0.0208388 0.791367
0.046658 -0.0616263 0.232083
-0.0656932 0.0171758 0.140903
-0.0339096 -0.0287767 0.345441
-0.0683644 0.025492 0.138474
-0.0183077 -0.0826786 0.525733
-0.0164329 -0.0830753 0.377521
0.0447276 -0.0226946 0.148658
-0.038178 -0.0323 0.749611
0.0458865 0.0373326 0.108934
-0.00763146 -0.0751067 0.24185
-0.0313063 -0.026199 0.34145
-0.0359003 -0.0508322 0.197762
-0.0714948 -0.0587731 0.228061
0.00600374 -0.0537429 0.585774
-0.0251616 -0.0805687 0.68312
-0.0121552 -0.029264 0.927142
-0.177396 -0.0544623 0.519411
-0.0340506 -0.0628958 0.231495
0.0454954 -0.0250561 0.128458
-0.0418366 -0.0607693 0.61257
-0.0187567 -0.0191 0.136057
0.0212949 -0.0557394 0.533296
-0.0279542 -0.0382578 0.134565
-0.0182891 -0.04553 0.546158
0.159234 -0.0466633 0.532606
-0.00595213 -0.0183402 0.142243
-0.0634475 -0.0222509 0.126319
0.0125899 -0.0293561 0.355566
-0.00488368 -0.0335676 0.134074
-0.0404411 -0.0362949 0.421814
-0.01158 -0.0283178 0.923839
0.0175954 -0.0339885 0.48139
0.0429457 0.0190961 0.14246
-0.162373 -0.0442364 0.515042
0.0199942 -0.0309214 0.0935845
-0.0412894 -0.0477993 0.274388
-0.0686279 -0.0498911 0.239859
-0.0766959 -0.0424342 0.202378
-0.00714769 -0.0186289 0.520019
0.0189277 -0.0645017 0.391733
-0.0107694 -0.0177007 0.329727
-0.063694 0.0515042 0.0956805
0.00225923 -0.0210628 0.644995
-0.0546856 -0.0393343 0.156373
-0.000822905 -0.0417422 0.144567
-0.0677772 -0.00394576 0.141192
0.0460517 0.03948 0.100976
-0.026177 -0.0806155 0.470135
-0.0689493 -0.0291598 0.151757
0.00159623 -0.0221653 0.120232
0.0055176 -0.0220461 0.507406
-0.0403687 -0.0355217 0.770242
0.175075 -0.0544623 0.520947
0.0078529 -0.0780925 0.511849
0.0291621 -0.0364691 0.16518
0.0458608 0.0014757 0.140205
-0.00877591 -0.0183618 0.0418846
-0.0279334 -0.0229311 0.325061
0.0104213 -0.0751596 0.743976
0.0136848 -0.0325532 0.858548
-0.0268936 -0.0326998 0.0939979
0.0412108 -0.0442364 0.568982
-0.000603367 -0.0512207 0.521033
0.0540709 -0.0570996 0.242337
0.0188457 -0.0644411 0.736241
-0.000887508 -0.0200661 0.746463
0.0163872 -0.0420008 0.13721
-0.0182704 -0.0780472 0.882003
-0.068486 -0.0361644 0.141474
-0.00975757 -0.0730073 0.217118
0.151169 -0.0544623 0.537759
-0.0408445 -0.0376776 0.456849
0.0840669 -0.0331897 0.112889
-0.0581406 -0.0462136 0.231627
0.016184 -0.0322232 0.775878
-0.0396606 -0.0669504 0.365915
0.0200481 -0.0600367 0.634537
0.0116823 -0.0282647 0.391409
-0.0188666 -0.0822478 0.69125
0.00740469 -0.0771502 0.361154
-0.311873 -0.0474794 0.469736
-0.041173 -0.0466389 0.857571
-0.00520797 -0.0736767 0.924079
0.0399919 -0.0409847 0.159389
-0.0954885 -0.0544623 0.535332
-0.0645176 0.0483294 0.109506
-0.0261268 -0.0750307 0.88989
-0.00997857 -0.0492728 0.577688
0.0196079 -0.0406124 0.39427
0.134102 -0.0442364 0.515185
-0.0156225 -0.018259 0.136375
-0.0870716 -0.0442364 0.553226
0.217454 -0.0446621 0.510213
-0.0697202 -0.0215193 0.112927
-0.000284898 -0.0817863 0.51972
-0.00113492 -0.0544623 0.576363
-0.0328299 -0.0658427 0.254533
0.00335561 -0.0292007 0.0714193
-0.0231646 -0.0216749 0.122539
-0.128472 -0.0463597 0.543355
0.0178578 -0.036459 0.349992
-0.023259 -0.0628114 0.164825
-0.0238225 -0.0533397 0.123156
0.0207981 -0.057354 0.601431
-0.130639 -0.052819 0.54464
-0.0289915 -0.0323484 0.0924185
-0.131348 -0.0544623 0.532366
0.0325856 -0.0553078 0.231109
0.00308454 -0.0210647 0.24897
0.0419533 -0.0126203 0.174062
-0.0306056 -0.0673887 0.908329
-0.0381381 -0.0327116 0.412767
-0.0438107 -0.0533727 0.620923
0.00793913 -0.0544623 0.553321
-0.0413662 -0.0418494 0.832175
0.0429992 0.0158193 0.0812674
-0.0427241 -0.0575938 0.573584
-0.062905 -0.013472 0.121272
-0.0416133 -0.0403291 0.523245
-0.0410863 -0.0385039 0.478434
-0.00811806 -0.0839542 0.420237
-0.0249422 -0.0544623 0.575058
-0.0396334 -0.0340159 0.50352
-0.0265577 -0.0540189 0.137637
0.0151872 -0.0705155 0.376726
0.0136173 -0.0297851 0.703241
-0.0683502 0.0314477 0.132587
-0.0638461 -0.0167707 0.150335
0.00865897 -0.0501557 0.549781
-0.0945114 -0.0442248 0.514801
-0.0389796 -0.0659613 0.341206
-0.0203929 -0.0333904 0.102402
-0.0133473 -0.0493536 0.585886
-0.0185035 -0.024948 0.902063
-0.0312793 -0.0766806 0.405925
-0.0284984 -0.0393194 0.142308
0.0219838 -0.0531395 0.4384
-0.0655884 -0.031396 0.0829879
-0.0238125 -0.0210061 0.568223
-0.0374351 -0.0316104 0.719384
-0.0648718 -0.0267741 0.147235
-0.323025 -0.0544623 0.456108
0.0187839 -0.0646702 0.678484
0.0190182 -0.0637976 0.744009
-0.0035575 -0.0195963 0.516943
0.01047 -0.0752141 0.642409
0.0198987 -0.0413868 0.658658
-0.0576313 -0.0544623 0.5414
0.0171965 -0.068797 0.411166
-0.0644505 -0.0364978 0.208493
-0.16411 -0.0442364 0.519489
-0.0260815 -0.0806492 0.458515
0.0939012 -0.0345563 0.0813699
0.0162758 -0.0323383 0.762784
-0.0644937 -0.0521914 0.507915
-0.0435738 -0.0544044 0.578747
0.0426569 -0.00480716 0.111445
-0.0701809 -0.0559331 0.145907
0.131319 -0.0544623 0.514157
0.256877 -0.0452137 0.479853
-0.0281846 -0.0225789 0.497991
0.0372646 -0.0684612 0.188079
0.0446511 -0.067256 0.227908
-0.0644804 0.0464268 0.110517
0.0871118 -0.0360957 0.111013
0.0199604 -0.0417195 0.453524
0.0421163 0.0466807 0.0880114
-0.0405242 -0.0364264 0.472647
0.0412645 -0.0198917 0.175989
0.0465036 -0.039639 0.11929
-0.0318513 -0.0760494 0.522235
-0.0777337 -0.0456938 0.221521
-0.0242223 -0.0700663 0.219122
0.0198292 -0.0412676 0.442836
-0.0397844 -0.0429127 0.262913
-0.083268 -0.054443 0.503262
-0.0398676 -0.0596269 0.855442
0.0161403 -0.0329003 0.356572
0.020083 -0.0420712 0.659921
0.0470323 -0.0668931 0.232146
-0.065919 -0.034457 0.0978822
-0.0152321 -0.0184502 0.252633
0.0118414 -0.0741045 0.511128
-0.0145708 -0.039008 0.0372503
0.000729747 -0.0206841 0.600402
-0.0113741 -0.0842306 0.717585
-0.0381206 -0.035365 0.119677
0.0157889 -0.0701594 0.50632
-0.0462542 -0.0233919 0.113564
-0.0396109 -0.0444906 0.233521
0.0444041 -0.045964 0.517932
-0.0699343 -0.0327323 0.139415
-0.0116296 -0.0842066 0.6702
0.00632701 -0.0796649 0.414394
0.0179196 -0.058016 0.309203
0.0322135 -0.0604125 0.168629
-0.037223 -0.041142 0.201788
0.162939 -0.0544623 0.511196
-0.0379291 -0.0671911 0.845886
-0.0407616 -0.0374037 0.446705
-0.067298 -0.0509593 0.244647
0.0117817 -0.0741634 0.512649
0.0321546 -0.0601354 0.231478
0.00333863 -0.0808814 0.424541
0.0688306 -0.0442364 0.521527
0.0318026 -0.0338658 0.0905498
-0.00245088 -0.0819671 0.805803
-0.0113343 -0.0192813 0.856585
0.0386981 -0.0442364 0.550318
0.013864 -0.0717586 0.692317
0.0332393 -0.0640318 0.194602
-0.00637249 -0.0217931 0.882719
-0.0413527 -0.062867 0.482883
0.0213163 -0.053716 0.367804
0.0183963 -0.0446663 0.524749
0.186062 -0.0544623 0.50902
-0.0289532 -0.0785819 0.756038
-0.0832162 -0.0544623 0.53966
0.0115033 -0.0742683 0.600646
0.0420071 -0.0700118 0.23253
0.00057951 -0.0220452 0.098393
0.0328333 -0.0625212 0.222333
-0.0313165 -0.0762389 0.730966
-0.0336304 -0.0354749 0.118055
-0.0639417 0.00299347 0.144278
0.0333161 -0.0643386 0.189411
-0.0956021 -0.0322123 0.128181
0.0951638 -0.0544623 0.534395
0.0334525 -0.0463431 0.1586
-0.010228 -0.0544623 0.547422
-0.0013138 -0.0818672 0.623275
-0.0631028 0.0127273 0.106486
0.0435648 -0.0248021 0.0945798
-0.00802906 -0.0189324 0.836658
0.0108816 -0.0750585 0.520602
0.0111707 -0.0294938 0.195988
0.0727003 -0.0379851 0.0840444
0.0142891 -0.0519657 0.205357
-0.299785 -0.0544623 0.479966
0.00100272 -0.0518847 0.590698
0.00771833 -0.0237521 0.778981
-0.0422056 -0.0592705 0.647293
0.0398775 -0.0688882 0.160596
-0.0414677 -0.0501449 0.295464
0.162665 -0.0442364 0.515723
-0.00147315 -0.0804537 0.353118
-0.0308925 -0.0251586 0.667955
0.00234284 -0.080116 0.827831
0.253583 -0.0442364 0.482338
-0.0354105 -0.0582311 0.215036
-0.0248135 -0.0810289 0.400911
-0.0238257 -0.0313977 0.0900122
0.0146117 -0.0306346 0.785154
0.0419984 0.0527829 0.0872341
0.0445925 -0.0516882 0.57752
-0.0323931 -0.0484308 0.930132
0.0104651 -0.0723402 0.337374
-0.0273293 -0.0226922 0.268068
0.00706249 -0.0759117 0.847933
-0.0311393 -0.0651642 0.227561
0.0547292 -0.0547418 0.230499
-0.0160968 -0.0830677 0.633623
-0.189814 -0.0460394 0.491984
0.0201387 -0.0596841 0.638724
-0.00685368 -0.0404673 0.138831
-0.00310072 -0.019507 0.725796
-0.0330962 -0.0745534 0.64172
0.0193089 -0.0391032 0.50609
-0.0666216 0.0177722 0.079848
0.00104752 -0.0207603 0.613255
0.00375707 -0.0520545 0.961335
0.0200754 -0.0423355 0.400456
0.0146734 -0.0361632 0.217203
0.0171322 -0.0429259 0.876158
-0.0427012 -0.0444395 0.68802
-0.0346594 -0.0512935 0.18485
-0.00434566 -0.0544623 0.52214
-0.0286635 -0.0618698 0.942088
0.300473 -0.0544623 0.482101
-0.0324456 -0.027106 0.37768
-0.0378204 -0.0608604 0.882982
-0.0261297 -0.0653559 0.198028
0.0164405 -0.0502677 0.534762
0.245685 -0.0442364 0.495388
-0.0408669 -0.0417168 0.332066
0.0120043 -0.0670607 0.891295
-0.00236925 -0.0609196 0.976477
-0.06776 -0.029292 0.161981
0.0165693 -0.0367208 0.857237
0.0760139 -0.0544623 0.551557
-0.03707 -0.0544623 0.574792
0.0153616 -0.0426323 0.195681
-0.0392529 -0.0383684 0.852458
-0.0392281 -0.0687346 0.40029
-0.00222134 -0.0469564 0.530835
-0.115123 -0.0220138 0.116094
0.00529482 -0.0803457 0.441149
-0.013875 -0.0406292 0.96358
0.0692543 -0.0544623 0.539128
-0.0273958 -0.0353744 0.921979
-0.0240809 -0.079294 0.840801
-0.0672386 -0.0208315 0.13544
0.0150724 -0.063315 0.277335
-0.0331998 -0.0310054 0.174824
0.00926543 -0.0255199 0.642132
0.0528938 -0.0442364 0.549979
0.0119798 -0.0735551 0.80065
-0.00734723 -0.0833552 0.724579
-0.0283411 -0.0544623 0.532353
0.105209 -0.0471052 0.553256
-0.0302784 -0.0291767 0.885291
-0.0432052 -0.0544623 0.525824
-0.062602 0.0136758 0.0870472
0.00761355 -0.0321044 0.114742
-0.0109272 -0.0705967 0.197431
-0.0129584 -0.0189426 0.841837
-0.020402 -0.0296703 0.0277277
-0.0627795 -0.0206042 0.120519
-0.330535 -0.0511275 0.470025
-0.0680364 -0.0558556 0.143379
0.0785541 -0.0412311 0.0986686
-0.0159 -0.0184851 0.0980631
-0.0397139 -0.034845 0.116875
-0.110892 -0.0544623 0.508808
-0.0111963 -0.0816984 0.333314
0.0179979 -0.0435993 0.262614
-0.0389839 -0.068567 0.736219
-0.0311883 -0.0451382 0.184597
0.0216403 -0.0477883 0.510788
-0.037018 -0.0319697 0.332249
-0.0665732 -0.0535551 0.232449
-0.0176717 -0.0188546 0.124616
0.0119768 -0.0710373 0.340206
-0.0424291 -0.0583972 0.725553
0.105769 -0.0544623 0.539921
-0.0225772 -0.0201667 0.183805
-0.0677845 0.0178738 0.123023
-0.0251174 -0.0804993 0.769765
0.0448331 -0.0309258 0.117908
0.0418734 -0.0470313 0.208515
-0.156184 -0.0544623 0.495398
0.0482476 -0.0692678 0.229925
0.0806932 -0.0405831 0.0929787
-0.0426255 -0.0441786 0.600577
0.0197456 -0.0614794 0.423969
0.00518486 -0.0751384 0.303665
-0.000596913 -0.0541964 0.594789
0.0414647 0.0364394 0.12091
-0.0683562 0.0673875 0.102428
-0.0211611 -0.0574832 0.131361
0.0980979 -0.0517512 0.557521
0.0186778 -0.0654536 0.412204
-0.0216498 -0.0448156 0.543901
0.0212948 -0.0454216 0.158612
-0.0186614 -0.0363184 0.150977
-0.000826668 -0.0512001 0.580184
0.00659862 -0.0227845 0.692845
-0.0335235 -0.0743775 0.522104
0.0176287 -0.0412725 0.27514
0.00729834 -0.0491482 0.574563
0.0318633 -0.0590968 0.20609
0.256732 -0.0544623 0.495874
-0.0682443 -0.052995 0.568921
-0.161368 -0.0544623 0.496927
0.0185799 -0.0401639 0.336662
0.0532486 -0.0653635 0.208637
-0.0344146 -0.0681762 0.307765
-0.0259005 -0.0453094 0.559393
0.0088056 -0.0770445 0.563333
0.190149 -0.0544623 0.494603
-0.0437382 -0.0479932 0.810137
0.0116183 -0.0278243 0.681635
-0.0663514 -0.0333954 0.113056
0.166044 -0.0544623 0.53134
0.0186448 -0.0489755 0.26486
-0.0066719 -0.0188379 0.476533
-0.27879 -0.0442364 0.478144
-0.0041074 -0.0758354 0.268452
0.0122619 -0.0284295 0.703381
-0.262866 -0.0544623 0.484185
-0.0280381 -0.0263799 0.126656
0.0191069 -0.0383461 0.567346
0.0469016 -0.0349405 0.144991
-0.0965791 -0.0292527 0.107923
-0.0287914 -0.0444159 0.113856
-0.102499 -0.0208125 0.0964792
-0.193171 -0.0517727 0.486062
0.0172292 -0.0544623 0.541547
-0.00944269 -0.0840169 0.638329
0.0207313 -0.0578017 0.545011
-0.117192 -0.0204465 0.10926
0.0421721 -0.0256405 0.147079
-0.0107211 -0.084362 0.636976
-0.0256651 -0.0466094 0.575962
-0.0242247 -0.0442365 0.526404
0.0343932 -0.0544623 0.537094
-0.0419942 -0.0417764 0.697494
0.0182321 -0.067095 0.554741
-0.0216402 -0.0235951 0.0517676
0.0141619 -0.0349997 0.0892965
0.0545606 -0.0544623 0.526759
-0.0552667 -0.0442364 0.546158
-0.037033 -0.0707594 0.57377
0.000175687 -0.0564694 0.129301
-0.0679779 -0.0442364 0.560595
0.0398504 -0.0694944 0.208009
-0.063282 -0.0310047 0.0957317
-0.0400987 -0.0674016 0.570976
0.0134977 -0.0297145 0.675582
-0.011639 -0.017328 0.211168
0.0398056 -0.0444612 0.142
0.00726025 -0.078649 0.535204
-0.0630223 -0.0147945 0.12675
-0.0643948 -0.0306683 0.115197
-0.0414103 -0.0396883 0.648419
-0.0671083 0.019686 0.0963409
0.194051 -0.0487924 0.49048
0.0913469 -0.0442364 0.519652
0.156028 -0.0442364 0.518184
-0.138468 -0.0442364 0.51348
-0.00617479 -0.0187768 0.293768
0.020018 -0.0420285 0.426795
0.0137903 -0.0717869 0.748384
-0.232705 -0.0442364 0.486046
0.0207397 -0.0578206 0.530672
-0.0673392 -0.0192326 0.13783
-0.0664324 -0.0190488 0.103952
-0.0361908 -0.0717575 0.43055
-0.0181243 -0.0527014 0.523535
0.0186989 -0.0372025 0.399206
0.0222599 -0.0519058 0.599318
-0.0112785 -0.0172765 0.0905855
-0.0257817 -0.080619 0.378287
-0.0314149 -0.0369056 0.913917
0.00727705 -0.0731913 0.305631
-0.0274258 -0.0799193 0.728696
-0.0250714 -0.080898 0.490006
-0.1646 -0.0544623 0.500853
-0.0198071 -0.0215448 0.0555051
0.0339353 -0.0422439 0.129562
-0.0316211 -0.0762971 0.493787
-0.034719 -0.0732505 0.385825
-0.280348 -0.0544623 0.475826
-0.0193636 -0.0226644 0.0285412
0.120528 -0.0442364 0.523047
0.0120265 -0.0369387 0.158375
0.039243 -0.0436437 0.135913
-0.03805 -0.063309 0.298365
0.0207464 -0.0573488 0.801019
0.0421365 -0.0249147 0.17969
-0.0047711 -0.0319394 0.1282
-0.00189192 -0.0195606 0.203114
-0.0549229 -0.0505319 0.188635
-0.0614329 -0.0346548 0.133924
-0.0730512 -0.0511048 0.138095
-0.124674 -0.0272447 0.1088
-0.0180208 -0.0826797 0.565935
-0.00588247 -0.0216437 0.87737
-0.285956 -0.0544623 0.473926
-0.0346311 -0.0291979 0.415929
-0.00895515 -0.0174987 0.152899
-0.0305024 -0.0245777 0.775744
0.00984402 -0.0544623 0.548268
-0.001864 -0.0212136 0.066279
-0.0623824 -0.0359902 0.136996
-0.076606 -0.0422014 0.175654
-0.0682685 -0.00265948 0.15782
-0.00885887 -0.0738013 0.930464
-0.0234956 -0.0453208 0.0877431
0.046579 0.0348975 0.085228
0.0191726 -0.0383168 0.797139
-0.0134753 -0.0184833 0.0384857
-0.0558036 -0.0483277 0.151047
-0.0414211 -0.0442912 0.842485
0.0367641 -0.0549605 0.125022
0.00848897 -0.0674189 0.243664
-0.00727243 -0.0743745 0.231811
-0.275597 -0.0544623 0.465929
0.0421945 -0.020147 0.141606
-0.204741 -0.0442364 0.497978
-0.0387044 -0.0334033 0.371698
0.0166712 -0.0690393 0.376828
0.0050876 -0.0672886 0.926408
-0.0375291 -0.0320535 0.43606
-0.0404606 -0.0660658 0.566731
0.0223162 -0.0505047 0.455536
-0.0341242 -0.0738417 0.393465
-0.000857621 -0.051429 0.103532
-0.0417921 -0.0410262 0.555275
0.0436875 -0.014454 0.169555
0.041138 -0.00504983 0.166001
0.322997 -0.0544623 0.465959
0.00351105 -0.0462854 0.5271
0.00265351 -0.0210666 0.71493
0.0183312 -0.0663602 0.698608
0.0216067 -0.0541379 0.790613
0.0458955 0.0236688 0.120147
0.0726664 -0.0544623 0.522559
-0.0319857 -0.0682116 0.275252
-0.074105 -0.0402272 0.238527
-0.0775987 -0.0512812 0.170816
-0.0292612 -0.0262765 0.860021
-0.256958 -0.0544623 0.472504
-0.00372155 -0.0318653 0.0949707
0.0511049 -0.0496085 0.171577
0.078366 -0.0544623 0.563481
0.0450061 -0.0295477 0.108142
0.0064766 -0.0248071 0.195618
0.228306 -0.0448817 0.48727
0.0027451 -0.0216164 0.170279
-0.0132851 -0.021058 0.880483
0.0552685 -0.0601935 0.225173
-0.0668234 0.0080906 0.153808
0.263928 -0.0544623 0.494443
-0.0765691 -0.0225508 0.123819
0.0136783 -0.0634972 0.260873
-0.0207639 -0.0201648 0.603543
0.0160444 -0.065446 0.860274
-0.226574 -0.0442364 0.498522
-0.0386416 -0.0599294 0.873807
-0.0235371 -0.080944 0.747061
-0.0363658 -0.0292948 0.149739
0.0465754 -0.0403306 0.112318
-0.0238102 -0.0206936 0.239865
0.0048512 -0.0631628 0.94798
0.0088394 -0.05643 0.171936
0.0413553 0.0106386 0.148261
-0.0711137 -0.0544623 0.556777
0.0192224 -0.0633161 0.578272
-0.041397 -0.0605358 0.366355
-0.00994542 -0.0843927 0.494086
-0.0289367 -0.0773005 0.833522
-0.0406222 -0.0651958 0.64268
-0.0408947 -0.0377405 0.671479
0.0380309 -0.048366 0.13914
0.0361379 -0.0442364 0.55384
-0.00832599 -0.0759939 0.253
0.0905747 -0.0418911 0.108089
0.0190231 -0.0464161 0.859741
-0.041031 -0.0516414 0.294537
0.0392831 -0.0694257 0.17929
-0.0325621 -0.0576541 0.190223
-0.0886372 -0.0227492 0.131643
-0.0708416 -0.0386391 0.122299
0.0686522 -0.0321373 0.113717
0.0490058 -0.0690688 0.215539
0.00558449 -0.0655298 0.207792
-0.0213494 -0.020104 0.767961
-0.010359 -0.0291877 0.108463
-0.0289529 -0.0787683 0.607631
0.00719966 -0.0544623 0.5869
-0.0406485 -0.0365658 0.770207
0.0193971 -0.0623832 0.731144
-0.0128238 -0.0180201 0.628149
-0.00571881 -0.0190685 0.48967
0.0182939 -0.0601958 0.334235
0.00791467 -0.0430256 0.11946
-0.0385841 -0.0632094 0.860642
-0.0177466 -0.0824904 0.752607
0.0239622 -0.0535423 0.546132
0.0471928 -0.044274 0.120741
-0.00960869 -0.0843371 0.380216
0.00632103 -0.0792663 0.735982
-0.0233982 -0.0207752 0.693429
-0.00154381 -0.0821746 0.446212
0.114065 -0.0544623 0.550706
4.68933e-05 -0.037235 0.11246
-0.010108 -0.0359963 0.0211291
0.0652487 -0.0379721 0.0854259
0.00696894 -0.0790197 0.421381
0.00630309 -0.0224859 0.694623
-0.00321949 -0.0822872 0.684046
-0.0411864 -0.0634172 0.40762
-0.0641337 -0.0368034 0.221968
-0.0146642 -0.0807372 0.856678
-0.0264844 -0.0216553 0.660983
0.0015637 -0.0516385 0.578577
-0.0293122 -0.078478 0.574793
0.136353 -0.0442364 0.521441
0.222723 -0.0544623 0.490193
-0.0678655 0.0383593 0.10871
0.0214001 -0.0549062 0.666308
-0.0245678 -0.0212268 0.541957
0.0434641 -0.0345668 0.106572
-0.0228176 -0.0234908 0.0738829
0.00909394 -0.0253679 0.601411
-0.0104148 -0.0250414 0.910215
0.0143572 -0.0696788 0.836131
-0.0433339 -0.0465008 0.803778
-0.00433795 -0.0517602 0.592045
-0.00714684 -0.083349 0.673907
-0.0367049 -0.0370069 0.130447
-0.0669927 -0.0255133 0.130252
0.0144461 -0.0629777 0.264244
-0.000845509 -0.0205655 0.388221
-0.0261066 -0.0372467 0.0786617
0.054413 -0.0539158 0.164698
-0.0382901 -0.0544623 0.57207
0.00295286 -0.029402 0.129534
0.0357241 -0.0504214 0.153575
-0.0595793 -0.0578061 0.185354
-0.0183019 -0.037422 0.123554
0.00171406 -0.0544623 0.564998
0.0032032 -0.0354825 0.929553
-0.00997881 -0.0712423 0.203933
0.0212808 -0.0465367 0.649633
0.019991 -0.0601662 0.725499
-0.0442119 -0.0517756 0.649397
0.1013 -0.0442364 0.547199
-0.147417 -0.0544623 0.524313
-0.0555911 -0.0434335 0.218895
-0.178268 -0.0442364 0.521398
-0.192709 -0.0544623 0.495215
0.109493 -0.0442364 0.547613
-0.0174482 -0.0214016 0.865776
-0.0288726 -0.0321423 0.0906508
0.0762401 -0.0442364 0.561327
-0.0192818 -0.0825193 0.3892
-0.0226321 -0.0204445 0.255319
-0.0712936 -0.0442364 0.558085
0.0419916 0.0802882 0.0799308
-0.0549196 -0.0403506 0.163632
0.067531 -0.0544623 0.521785
-0.0430877 -0.0555108 0.375332
0.0127632 -0.0460442 0.169363
-0.0157052 -0.0184343 0.216151
-0.0735462 -0.0424573 0.237326
0.0143299 -0.0308165 0.436959
1.93224e-05 -0.0204619 0.646137
0.0200451 -0.0540837 0.337183
-0.102778 -0.0441905 0.512492
0.0445778 -0.0450277 0.114533
0.00279335 -0.0212477 0.584972
-0.0197702 -0.0202081 0.378356
-0.0218649 -0.0793875 0.848154
0.0710422 -0.0442364 0.549283
0.0462011 -0.045637 0.146847
-0.0026838 -0.0825129 0.398968
-0.0392553 -0.0334632 0.700873
-0.0046495 -0.0237036 0.898204
-0.00441094 -0.081779 0.829992
0.079592 -0.0544623 0.554434
-0.0266702 -0.0253566 0.118261
0.147224 -0.0544623 0.517439
0.0214398 -0.0470644 0.579439
-0.111074 -0.0544623 0.509825
-0.0248312 -0.0451296 0.554765
0.0224653 -0.0539631 0.552625
0.0190178 -0.0379896 0.541661
0.105146 -0.0544623 0.546459
-0.063779 0.0493977 0.10062
-0.0285503 -0.0437711 0.173592
-0.0268465 -0.0273813 0.096462
-0.0403991 -0.0659723 0.66513
-0.0415589 -0.0401364 0.534273
-0.00415673 -0.0195399 0.828467
0.00675554 -0.0435175 0.152993
0.00236038 -0.0484245 0.553751
-0.0679129 -0.0245952 0.13356
-0.0424568 -0.0586706 0.401606
0.0192038 -0.050876 0.535176
0.0442456 -0.0535611 0.224782
0.0100949 -0.0288371 0.856843
0.0213738 -0.0550049 0.689494
-0.0292261 -0.0692723 0.90584
0.14944 -0.0492033 0.537316
0.017691 -0.0443317 0.237813
-0.0316679 -0.028685 0.165163
0.0928156 -0.044208 0.515511
0.101149 -0.0544623 0.533222
-0.0221225 -0.0205744 0.537944
0.0419047 -0.010055 0.143855
0.233725 -0.0544623 0.482416
-0.0221966 -0.0633663 0.963232
-0.054915 -0.0485191 0.572719
0.0183343 -0.0417785 0.303236
-0.0084145 -0.0823074 0.837993
0.116523 -0.0544623 0.521778
0.00613738 -0.069993 0.907841
0.0498285 -0.0536312 0.224394
0.133802 -0.0442364 0.518961
0.0038657 -0.0213584 0.268538
0.071447 -0.0414237 0.103809
0.0160308 -0.0534386 0.230055
-0.0139957 -0.0483014 0.0766585
-0.0207131 -0.0203741 0.432181
-0.0132747 -0.0840453 0.509869
-0.0313518 -0.0256652 0.593831
0.0181876 -0.0672809 0.409934
-0.0295417 -0.0236888 0.735151
-0.0240539 -0.0210125 0.298692
0.0181408 -0.0347162 0.541217
0.0377475 -0.0566916 0.223921
-0.198258 -0.0442364 0.513017
-0.0123453 -0.0267234 0.00743357
0.263548 -0.0543682 0.471899
0.0210177 -0.0458597 0.398284
-0.0290253 -0.0307085 0.901556
0.0174732 -0.0434207 0.239107
-0.00237137 -0.0197607 0.690273
-0.00346177 -0.0195966 0.548811
0.0111288 -0.0650911 0.247895
0.146658 -0.0475368 0.537756
-0.0549257 -0.0464704 0.207149
-0.0270244 -0.0256619 0.119453
0.0463718 0.00268539 0.120179
-0.0283751 -0.0245103 0.848208
0.0179121 -0.0407593 0.295882
0.0420102 -0.0539404 0.22387
0.00490368 -0.0307156 0.137716
0.0219294 -0.0489869 0.47667
-0.0601369 -0.0580651 0.235366
-0.0184372 -0.0826338 0.531063
-0.061215 -0.038811 0.123317
-0.100387 -0.027794 0.0997089
0.0360068 -0.0498288 0.225706
-0.0945222 -0.0544623 0.516428
-0.029189 -0.0472216 0.122884
-0.00866383 -0.0309515 0.0921545
-0.0679732 -0.0442364 0.521504
0.0503865 -0.0683917 0.177826
-0.00327474 -0.0194952 0.704599
-0.0632643 -0.0330353 0.079374
-0.0221465 -0.0545246 0.514493
-0.0160962 -0.0668206 0.968185
0.015304 -0.0476168 0.177217
-0.0152951 -0.018779 0.325009
0.000146643 -0.0204985 0.642524
0.205948 -0.0544623 0.505975
-0.302123 -0.0544623 0.471629
0.0052319 -0.0732511 0.278662
-0.0318721 -0.0266193 0.364141
0.000898303 -0.0514101 0.586573
-0.0402476 -0.03508 0.766235
-0.0229519 -0.0391441 0.948618
0.021077 -0.0561129 0.709166
0.0435417 -0.0130403 0.0854853
-0.092073 -0.054313 0.503029
-0.285572 -0.0544623 0.46414
0.0214419 -0.0551192 0.553601
-0.0351688 -0.0544623 0.546351
-0.0213651 -0.0498698 0.098012
-0.0377113 -0.051438 0.220572
0.00691239 -0.0612184 0.18949
0.311472 -0.0470903 0.478497
0.0169011 -0.0544623 0.550514
-0.0329412 -0.0544623 0.544714
-0.00574407 -0.083332 0.400242
0.00460953 -0.0219481 0.430288
-0.129694 -0.0442364 0.509236
-0.0685107 0.00168883 0.161291
0.0165459 -0.0544623 0.580476
0.0471882 -0.00926103 0.0999133
-0.117468 -0.0224425 0.0870925
0.100335 -0.0544623 0.55354
0.01978 -0.0613391 0.411176
0.05244 -0.0607499 0.233562
0.00423959 -0.0748188 0.287845
-0.0322016 -0.0330956 0.146086
-0.0752526 -0.032578 0.1199
-0.0740078 -0.0468869 0.564693
0.0785725 -0.0535413 0.505358
0.0352348 -0.0544623 0.522088
-0.0131723 -0.0176001 0.170005
-0.273773 -0.0457217 0.488512
-0.0853675 -0.0544623 0.544775
-0.0885745 -0.0327053 0.127896
-0.0504092 -0.0329374 0.109182
-0.0666912 0.0187975 0.0815718
-0.0403067 -0.0651861 0.824524
0.0276998 -0.0274738 0.103645
-0.0684875 0.0784948 0.0979269
-0.0215483 -0.0281091 0.911844
-0.0665918 -0.0206242 0.111202
0.0096948 -0.0405119 0.130322
0.0166949 -0.0544623 0.526776
0.0197097 -0.040541 0.712701
-0.0398322 -0.0368957 0.344724
-0.0217171 -0.081825 0.44942
-0.0755093 -0.0507202 0.144533
-0.0132754 -0.0840745 0.467442
0.0419221 0.0365663 0.103788
-0.0787166 -0.0535134 0.504594
0.00173362 -0.0207139 0.779741
-0.0149482 -0.0684369 0.189393
-0.0659663 -0.0232278 0.090142
-0.0138737 -0.0779601 0.285271
0.0958988 -0.0544623 0.546179
-0.00219764 -0.0778052 0.879665
0.0219097 -0.0485658 0.784123
-0.0275283 -0.0802912 0.415819
-0.0149073 -0.0352604 0.120312
-0.0146663 -0.0187135 0.453592
-0.0298017 -0.0473211 0.127901
0.0167735 -0.0356481 0.307251
0.0184235 -0.0441436 0.859575
0.0191734 -0.0636299 0.541024
0.257269 -0.0544623 0.481602
-0.0427092 -0.0441628 0.80641
0.00398448 -0.0261353 0.896691
-0.0722831 -0.0407547 0.240542
0.130751 -0.0442364 0.535377
0.0925117 -0.0442364 0.553171
0.0412473 0.013369 0.151676
-0.0631209 0.00409161 0.114452
-0.00122105 -0.0202483 0.0982992
0.0533219 -0.0543626 0.140979
0.0296716 -0.0355471 0.0879507
0.018508 -0.037808 0.828923
-0.119515 -0.0544623 0.531683
-0.0164649 -0.0338454 0.938484
-0.010905 -0.0174536 0.702864
-0.0310108 -0.0253413 0.557963
0.0214237 -0.0552697 0.480926
-0.0621626 -0.0122062 0.0925906
-0.0427837 -0.0551528 0.364886
0.0142203 -0.0305583 0.507549
-0.07083 -0.0415945 0.227721
0.0224013 -0.0511717 0.753423
-0.0416379 -0.0613491 0.675533
-0.0198993 -0.0562415 0.978288
-0.0752946 -0.0544623 0.518674
0.0184472 -0.0359181 0.497342
0.0537521 -0.0521235 0.193305
0.0130082 -0.0455938 0.164238
0.00480928 -0.0780097 0.341017
-0.0318898 -0.0377109 0.914991
0.00778011 -0.0243678 0.388855
-0.0636168 0.0594319 0.0861141
-0.00730742 -0.0621951 0.980902
-0.0403704 -0.0606814 0.340567
0.0262243 -0.0395651 0.114866
-0.0181589 -0.0827534 0.48547
0.000554381 -0.0735394 0.2518
-0.0189138 -0.0473406 0.571254
-0.0596393 -0.030709 0.0984567
-0.0606201 -0.0357947 0.165417
-0.0215514 -0.0204853 0.331947
0.0215656 -0.0475708 0.672979
-0.00645317 -0.0185808 0.265603
-0.0635283 -0.0284937 0.101798
0.0479116 -0.069457 0.187
-0.03769 -0.0319114 0.693232
0.01149 -0.0441658 0.184039
0.00433615 -0.0216849 0.315017
-0.0138697 -0.0785629 0.891756
0.0853582 -0.0544623 0.527053
0.00210621 -0.0811519 0.510568
0.0972325 -0.0442364 0.533243
0.000340195 -0.0205757 0.606102
-0.0813227 -0.0442364 0.543567
0.0782228 -0.0325939 0.111821
-0.0305429 -0.0643108 0.218671
0.0147474 -0.0310379 0.566097
0.0466069 0.0288009 0.0893442
-0.00839953 -0.0185414 0.377453
0.0052773 -0.0392934 0.935196
0.0715418 -0.0394625 0.0899883
0.00966612 -0.027084 0.25387
0.0180362 -0.0356912 0.368922
0.0683946 -0.0398914 0.0946769
-0.040802 -0.0373952 0.624041
-0.0702512 -0.0581466 0.240881
-0.0419315 -0.0602539 0.693923
-0.187927 -0.0544623 0.494736
-0.0308875 -0.0601127 0.195037
0.00470454 -0.0219894 0.421843
-0.016192 -0.0829538 0.702624
-0.00460951 -0.0828962 0.545819
0.0118361 -0.0320717 0.876888
-0.0247735 -0.0606637 0.160937
-0.0244463 -0.0212259 0.323805
-0.0316378 -0.0545468 0.518046
0.312598 -0.0544623 0.472992
0.0186572 -0.0298509 0.124314
0.0105716 -0.0403362 0.128622
-0.0286901 -0.036238 0.095843
0.0423102 0.0156594 0.107039
0.0820264 -0.0442364 0.548669
-0.0624023 -0.00291749 0.0936575
0.00994156 -0.0348501 0.905656
-0.0411158 -0.0632993 0.787354
-0.0323837 -0.0442364 0.546881
0.262032 -0.0442364 0.48657
-0.0818442 -0.0235023 0.133309
-0.0250444 -0.0212514 0.672028
-0.00901343 -0.0544623 0.585743
-0.0194438 -0.0230371 0.886756
0.0162215 -0.0477436 0.575152
-0.019701 -0.0781894 0.874279
-0.0151303 -0.0636242 0.15496
0.020027 -0.0575067 0.36067
-0.0312767 -0.0265879 0.276124
-0.0581728 -0.0544623 0.527874
-0.0374219 -0.0705053 0.474904
-0.00628849 -0.0832177 0.613977
-0.0702731 -0.0240061 0.130682
-0.261035 -0.0544623 0.477641
0.0336249 -0.0527694 0.157882
-0.024705 -0.0809271 0.54549
-0.0272437 -0.0457569 0.186839
0.008701 -0.025753 0.310975
0.198956 -0.0544623 0.492884
0.0441498 -0.0346225 0.0811173
0.0180511 -0.0498935 0.255782
-0.0363581 -0.0713521 0.612875
-0.0310201 -0.0764909 0.785827
-0.0115395 -0.068471 0.966047
-0.0751268 -0.0237922 0.131766
0.0014142 -0.0387949 0.122681
0.00440161 -0.0498929 0.521287
-0.00217961 -0.0197256 0.743024
-0.158019 -0.0544623 0.512513
0.0384707 -0.0617358 0.225219
-0.0133395 -0.055182 0.109229
0.00993868 -0.0263467 0.47431
-0.0880952 -0.0263841 0.0936941
-0.0159705 -0.0370858 0.944219
-0.0443182 -0.0502355 0.780196
-0.0236282 -0.0784855 0.854463
0.018361 -0.0666375 0.547985
-0.0339751 -0.035458 0.166228
-0.037824 -0.032224 0.495211
-0.0749379 -0.0365396 0.147546
-0.0196523 -0.0376683 0.952686
0.00655556 -0.0229383 0.486401
-0.0650988 -0.0213866 0.109526
0.0166302 -0.0354839 0.0921664
-0.0657296 -0.0474338 0.236503
0.0979886 -0.0369624 0.0788463
0.0171627 -0.0482452 0.227038
-0.0439884 -0.0529872 0.436625
-0.0671911 -0.0218551 0.134539
0.0191594 -0.0385839 0.612079
0.179412 -0.0544623 0.521622
-0.169526 -0.0544623 0.502167
0.0201514 -0.0423796 0.468558
-0.0394608 -0.068119 0.700368
-0.0680332 -0.0100039 0.155844
-0.00925034 -0.0208188 0.878843
0.21375 -0.0544623 0.500547
-0.0340838 -0.0544623 0.537098
0.0212079 -0.0437575 0.146973
-0.043877 -0.0486747 0.74703
-0.0141818 -0.0183016 0.283447
-0.0214498 -0.0816204 0.640525
-0.0426955 -0.0446717 0.432301
-0.187736 -0.0544623 0.519647
-0.013938 -0.0373605 0.128503
-0.0258518 -0.0333764 0.0701472
0.0534656 -0.0339545 0.0921373
-0.00645749 -0.025531 0.90784
0.0416023 -0.0281911 0.170438
-0.0376867 -0.0631861 0.288017
0.0148952 -0.0301894 0.0946198
-0.0106068 -0.0175115 0.716291
0.046029 0.0369108 0.103994
0.195935 -0.0544623 0.518524
0.0281549 -0.0442366 0.525237
0.0466319 -0.01205 0.122954
-0.0261907 -0.0711726 0.911462
-0.0375556 -0.0703549 0.510035
-0.00290255 -0.0454007 0.0714248
-0.0657209 0.0206764 0.137249
0.0413468 -0.0270519 0.178979
-0.0183418 -0.0544623 0.528624
0.0188437 -0.0373241 0.52467
-0.0288262 -0.0383087 0.926863
-0.00919294 -0.0398675 0.135867
-0.187261 -0.0442364 0.499315
-0.0374908 -0.0700836 0.70729
-0.0554718 -0.052273 0.188634
-0.00449928 -0.0339371 0.103085
0.0088857 -0.0771183 0.389042
-0.00991751 -0.0181057 0.370728
-0.0101464 -0.0796594 0.883725
-0.0245318 -0.0211698 0.610038
-0.012857 -0.0497876 0.538657
0.0417487 -0.0351007 0.148863
0.191301 -0.0544623 0.520465
-0.21212 -0.0492399 0.484171
-0.13138 -0.0542677 0.544676
-0.0384208 -0.0304885 0.159215
-0.0710357 -0.0351732 0.1604
0.091858 -0.0544623 0.537613
0.0215689 -0.0547486 0.503014
-0.0696581 -0.0566865 0.149791
-0.0421807 -0.0422537 0.781909
-0.0448133 -0.0385292 0.145458
-0.000484494 -0.0352209 0.0985455
-0.033927 -0.0442364 0.560317
-0.0257848 -0.0222843 0.189389
0.00228607 -0.0669691 0.196791
-0.0502874 -0.0227465 0.104279
-0.00339177 -0.0341171 0.0924019
-0.0209874 -0.064125 0.169919
-0.0148544 -0.0450743 0.063735
-0.129201 -0.0544623 0.52776
0.0154481 -0.0705413 0.41995
0.0180962 -0.0676912 0.529343
-0.0241554 -0.0212222 0.471655
0.00127324 -0.0544623 0.539199
-0.0126903 -0.0838958 0.698577
0.0146407 -0.0535998 0.214486
0.273988 -0.0544623 0.488828
-0.0134415 -0.0707149 0.202941
-0.041454 -0.039542 0.781784
-0.0673311 0.0491887 0.0796809
0.0428895 -0.0703332 0.18593
-0.0286358 -0.0231089 0.460518
-0.00216661 -0.0313956 0.0912131
0.0360661 -0.0442364 0.562521
-0.0965933 -0.0280412 0.129739
-0.0189609 -0.0392308 0.136603
-0.00898491 -0.0662093 0.169479
0.021369 -0.0513794 0.352825
-0.0277661 -0.0544623 0.571798
0.0182568 -0.0353436 0.458671
-0.0233438 -0.0207249 0.276117
-0.0421093 -0.0422557 0.497397
-0.06723 -0.0544623 0.531837
0.0968369 -0.0442364 0.524981
0.244905 -0.0442364 0.483679
-0.0372421 -0.0609386 0.260675
-0.0299826 -0.0679026 0.90887
-0.202116 -0.0544623 0.501583
0.0173064 -0.0475228 0.894351
-0.0276648 -0.0571107 0.156871
0.00185044 -0.0211058 0.335203
0.00842753 -0.0246851 0.635573
0.0457717 -0.0544623 0.571228
0.0197537 -0.0368295 0.172725
-0.00766113 -0.0185872 0.0474867
-0.0223814 -0.0458996 0.0854743
-0.0237733 -0.0514572 0.585674
0.02016 -0.0599631 0.456516
0.0450425 -0.0442364 0.569249
0.0221893 -0.0495236 0.817024
-0.0183001 -0.0192499 0.79055
0.00242361 -0.0735847 0.260483
-0.0773321 -0.0310726 0.14583
0.0105779 -0.0753365 0.532785
-0.0287622 -0.0736799 0.305762
0.011081 -0.0600588 0.919511
-0.0672619 0.0442715 0.0812623
-0.00675822 -0.0425709 0.0533461
0.100743 -0.0544623 0.540904
0.0498805 -0.0330557 0.130172
0.0430271 -0.0270956 0.116505
0.0268428 -0.0469919 0.16668
-0.0401436 -0.0421269 0.854471
-0.0339062 -0.038999 0.147734
0.0206511 -0.0300061 0.124341
-0.036245 -0.0716834 0.472345
-0.0663583 0.0271325 0.132718
0.0100602 -0.0262639 0.682884
0.00364535 -0.0225436 0.16902
-0.0398951 -0.0452824 0.873286
-0.0325547 -0.0268701 0.589838
0.0129427 -0.0729651 0.535927
-0.0406949 -0.0369847 0.675313
-0.0056094 -0.0192481 0.367968
-0.0267427 -0.0217371 0.646139
-0.026174 -0.0802812 0.700406
-0.0264832 -0.0802905 0.630548
-0.034015 -0.030928 0.192049
-0.0680756 -0.010703 0.158006
-0.0143735 -0.0186146 0.464425
0.00583299 -0.0544623 0.588756
0.0121646 -0.0737981 0.475901
-0.0272331 -0.0258891 0.12096
-0.262427 -0.0516638 0.493989
-0.0275841 -0.0230687 0.249082
-0.0408733 -0.0568824 0.851098
-0.0438468 -0.0535095 0.429987
-0.00578136 -0.0641142 0.160539
0.0422151 0.0489217 0.0824401
0.0217801 -0.0482791 0.520391
-0.017288 -0.0460421 0.973531
-0.0178948 -0.0544623 0.540275
-0.0242958 -0.0757026 0.293772
0.294948 -0.0502148 0.466285
-0.0552245 -0.0513671 0.229632
-0.0632995 0.0319487 0.0975455
0.0361581 -0.0665569 0.160405
0.0330147 -0.0442364 0.539203
-0.0282405 -0.0386714 0.097438
0.284074 -0.0544623 0.476689
0.0217691 -0.048306 0.593123
0.0200778 -0.0363277 0.0955967
0.200381 -0.0442364 0.501459
-0.0582271 -0.0511471 0.509726
-0.00375562 -0.0211951 0.0339596
0.0199339 -0.0370685 0.10069
0.0370465 -0.0488135 0.207465
0.00905512 -0.0765714 0.687578
-0.321769 -0.0490953 0.466768
0.0197581 -0.061037 0.784231
-0.0657665 -0.0278836 0.0866445
0.00966976 -0.0354399 0.165754
0.00792815 -0.0780295 0.486165
0.156357 -0.0514884 0.535383
0.0389668 -0.067686 0.153999
-0.0402282 -0.0377081 0.353521
-0.0284002 -0.0544623 0.53173
-0.033654 -0.0284937 0.349719
-0.00550624 -0.0544623 0.553136
0.00702891 -0.0229923 0.818796
0.0182215 -0.0353204 0.427775
-0.0809429 -0.03298 0.142917
0.219443 -0.0544623 0.491279
0.0176417 -0.0360737 0.344426
-0.0186079 -0.0190594 0.136255
-0.0416687 -0.0406072 0.498506
-0.0312569 -0.0763332 0.688006
-0.0544541 -0.0485153 0.227174
0.00111398 -0.072339 0.235094
-0.0439261 -0.0487401 0.792611
0.0557758 -0.0419553 0.13913
0.0815953 -0.0442364 0.523219
0.03555 -0.066704 0.226855
-0.0729665 -0.0583031 0.168481
-0.042756 -0.0571776 0.777061
0.216354 -0.0472028 0.511373
-0.0329833 -0.0746262 0.663912
-0.00126242 -0.0500193 0.567495
0.00421978 -0.0213177 0.817828
-0.0180149 -0.082708 0.55176
-0.040242 -0.066939 0.40457
0.0192977 -0.0630791 0.565789
0.0453446 0.0497422 0.108032
0.0444324 0.0117276 0.144229
-0.0397675 -0.0518208 0.512741
-0.020399 -0.0714679 0.933293
-0.0413306 -0.0516118 0.302153
-0.0342219 -0.0612609 0.222518
0.0367041 -0.0544623 0.563639
-0.00923043 -0.0494466 0.578384
-0.0246318 -0.0214657 0.173721
0.2284 -0.0445797 0.50639
-0.0543499 -0.0544623 0.519358
-0.0664139 0.005949 0.154239
-0.0418798 -0.0607671 0.56723
-0.245779 -0.0544623 0.491152
-0.0377044 -0.0628685 0.286258
0.0096924 -0.0259137 0.6729
-0.0219016 -0.0813368 0.795497
-0.331471 -0.0539664 0.470178
-0.0434213 -0.0471527 0.497208
-0.269247 -0.0544623 0.475511
-0.0528537 -0.0544623 0.524996
-0.0083808 -0.0179642 0.803941
-0.033628 -0.0291301 0.246349
-0.0434557 -0.0545664 0.761245
-0.116116 -0.0544623 0.524699
-0.0329853 -0.0277309 0.364394
0.000675252 -0.0544623 0.587087
-0.0402497 -0.0423209 0.853542
-0.0745809 -0.0544623 0.514824
-0.00934819 -0.0179935 0.586042
-0.0669375 0.0114909 0.096922
-0.0173255 -0.0759766 0.268434
-0.0421047 -0.0596445 0.647931
0.0419353 -0.0168067 0.14842
0.0219476 -0.0493039 0.405801
-0.0694465 -0.034295 0.187326
0.0326321 -0.0551829 0.190941
-0.0517299 -0.0452435 0.517016
-0.025734 -0.0252029 0.0991985
0.0462185 0.0227718 0.108898
-0.0547547 -0.0544623 0.557161
-0.0284886 -0.0278886 0.115269
0.0913688 -0.0442754 0.557346
0.207044 -0.0544623 0.503992
-0.0663818 -0.036083 0.122512
0.00202255 -0.0255953 0.0674719
0.0116601 -0.027632 0.813988
-0.00982454 -0.0843729 0.475991
-0.0311452 -0.0510199 0.146231
0.0741785 -0.051634 0.507258
-0.0665739 -0.019894 0.109921
0.044813 -0.0442364 0.545573
0.0464591 -0.00995409 0.127607
0.0145448 -0.07131 0.561156
-0.0426774 -0.0257917 0.128507
0.0150904 -0.0362703 0.225203
-0.0327274 -0.0335601 0.151421
-0.0255174 -0.0467161 0.102237
0.0266488 -0.0544623 0.541315
0.0561241 -0.0493703 0.512307
-0.106596 -0.0443218 0.508061
0.000647769 -0.0206892 0.561203
0.00537587 -0.0444278 0.16012
0.0139447 -0.0346345 0.160411
-0.0428014 -0.0506275 0.847037
0.0134693 -0.0721381 0.711039
0.00582905 -0.0241356 0.196742
0.0130813 -0.0725342 0.701078
0.0184959 -0.0369977 0.10096
0.135102 -0.0544623 0.539498
0.00494925 -0.075725 0.873459
0.00873656 -0.0405338 0.130987
-0.0227658 -0.0416249 0.950044
0.0414467 0.0745438 0.0893726
-0.0336849 -0.0740009 0.624477
-0.0405441 -0.0655431 0.626765
-0.103143 -0.0185818 0.110119
-0.269958 -0.0443128 0.489455
-0.0258968 -0.037029 0.124842
0.00424231 -0.0544623 0.567744
-0.0304312 -0.0705533 0.285952
0.0460074 0.00185263 0.134433
-0.0605833 -0.0375392 0.150585
0.0267291 -0.0335797 0.146191
-0.0362006 -0.0376945 0.199744
-0.11561 -0.0543211 0.499532
0.210276 -0.0442364 0.503237
-0.0781787 -0.0544623 0.524986
0.0175073 -0.0684923 0.398504
0.264318 -0.0442364 0.491871
0.27636 -0.0442432 0.475896
0.0440395 -0.0363841 0.0867141
-0.0188229 -0.0381428 0.128891
-0.0401902 -0.0354989 0.381881
0.124837 -0.0481083 0.502461
-0.0175813 -0.0192993 0.621712
0.0191325 -0.0618404 0.367647
-0.0557433 -0.0530156 0.23308
0.0416026 -0.0219557 0.165151
0.0213904 -0.0544623 0.555826
0.0412522 0.0416942 0.124365
-0.0297701 -0.0684993 0.249064
0.0376354 -0.0502607 0.514559
0.0096161 -0.0502182 0.548574
-0.112693 -0.0544623 0.510178
-0.00392476 -0.0188626 0.157641
-0.0441185 -0.0498006 0.654458
-0.0634037 -0.0272647 0.109644
-0.00481047 -0.0828293 0.609904
0.0432884 -0.0342506 0.142074
-0.013802 -0.0354334 0.0209492
-0.0309705 -0.0252289 0.672286
0.0429233 -0.0343488 0.126505
0.0132149 -0.0292602 0.772504
-0.00956427 -0.0181732 0.364422
-0.00365866 -0.0421033 0.148614
0.0864416 -0.034092 0.0847074
-0.026769 -0.0698983 0.229805
-0.033476 -0.0277697 0.635543
-0.0780422 -0.0492838 0.17148
-0.0270588 -0.0220441 0.351193
0.0425426 -0.00809801 0.118477
0.00120332 -0.0480593 0.546203
-0.022679 -0.0811514 0.771117
0.0192186 -0.0390011 0.439239
0.157919 -0.0544623 0.527402
-0.111225 -0.025434 0.0889168
-0.028322 -0.0225635 0.681784
0.2136 -0.0544623 0.50081
0.0416174 0.0400453 0.112184
-0.0639458 -0.0495469 0.237232
0.0192476 -0.0634102 0.501083
0.0197264 -0.040672 0.686274
0.0186529 -0.0651621 0.802654
0.0924316 -0.0341036 0.0988695
0.0210093 -0.045292 0.750835
0.0342888 -0.0654839 0.220407
-0.00828258 -0.0836766 0.653965
-0.0409425 -0.0314419 0.167253
0.016083 -0.0376875 0.107088
-0.0276717 -0.0306623 0.0945452
0.017395 -0.03573 0.336805
-0.0679007 0.0264313 0.120101
-0.0197601 -0.0198123 0.686227
-0.0430856 -0.0559471 0.722253
-0.00659293 -0.0186124 0.700752
0.0459543 0.0270215 0.115125
-0.00390295 -0.0194191 0.634366
-0.0073916 -0.0480098 0.526494
0.219854 -0.0442364 0.499852
0.0413597 -0.0477975 0.238129
-0.0276561 -0.0602549 0.950426
-0.157258 -0.0442364 0.52656
0.0942237 -0.0348633 0.0917029
0.0210754 -0.0459883 0.422934
-0.0262779 -0.0259335 0.0946568
0.222962 -0.0544623 0.481625
0.0205743 -0.0584286 0.468834
0.00781212 -0.0673575 0.233636
0.0803288 -0.0544623 0.526225
-0.0101722 -0.0177906 0.560232
-0.0420055 -0.0599777 0.704489
0.128472 -0.0442364 0.519741
-0.0402551 -0.0356733 0.401172
-0.0303617 -0.0264558 0.20839
-0.0399258 -0.0420172 0.281707
-0.0295551 -0.0241454 0.404809
-0.0226316 -0.0204481 0.767639
-0.0468062 -0.0442364 0.526458
-0.00920249 -0.0839105 0.662507
-0.0712841 -0.0541405 0.141295
-0.037092 -0.0307779 0.160538
0.0560797 -0.0544623 0.526674
-0.0923712 -0.0544623 0.551625
-0.0272542 -0.0799037 0.794269
-0.0426995 -0.057872 0.516848
-0.115736 -0.0442364 0.538615
-0.0102337 -0.0359041 0.953546
-0.0336303 -0.0741974 0.556991
0.293976 -0.0544464 0.464253
0.0182848 -0.0418487 0.851381
0.251548 -0.0442364 0.490556
-0.0377823 -0.0701509 0.462305
-0.00783079 -0.0834635 0.74727
-0.0319839 -0.026687 0.371033
0.011777 -0.0282111 0.461852
0.0160631 -0.0367424 0.257788
0.0193264 -0.0626459 0.680014
0.0471349 -0.00238685 0.0960766
-0.0552649 -0.0515782 0.173959
-0.0293824 -0.0351875 0.113772
0.00863337 -0.0249301 0.553511
-0.0418886 -0.0516206 0.857413
-0.0647822 -0.0375633 0.095969
-0.00514239 -0.0346918 0.0973706
-0.0401341 -0.0348815 0.601425
-0.0676782 -0.0210237 0.151956
-0.0437352 -0.0540017 0.511681
-0.0378144 -0.0612321 0.88148
0.0225826 -0.0397124 0.117841
-0.0878864 -0.0544623 0.539477
0.0387361 -0.0299328 0.114186
-0.004501 -0.0190962 0.747483
-0.0107087 -0.017735 0.487806
0.0186131 -0.06548 0.609567
0.0171301 -0.0401513 0.265368
0.0714159 -0.0315877 0.0946625
-0.0343258 -0.0735172 0.549741
0.230955 -0.0544623 0.507122
-0.0407532 -0.0646862 0.648552
0.30413 -0.0544623 0.48194
-0.0311325 -0.0254222 0.643605
0.0190186 -0.0382889 0.42958
0.00134498 -0.0208141 0.650439
0.0442529 -0.0277186 0.14052
0.0221757 -0.0497806 0.547358
-0.0219439 -0.0506688 0.529907
-0.0404894 -0.0656355 0.685793
-0.254801 -0.0442364 0.481699
-0.0838907 -0.0544623 0.529775
-0.00306953 -0.0483621 0.551088
-0.0632016 -0.0594301 0.205699
0.272512 -0.0544623 0.482966
-0.0392361 -0.0683209 0.728651
0.046056 -0.00816305 0.141099
-0.315129 -0.0544623 0.461885
-0.00187612 -0.0818779 0.736613
-0.0265467 -0.022494 0.840143
-0.0171674 -0.0189245 0.242382
-0.0565807 -0.0420017 0.161949
0.00710662 -0.0785315 0.673343
-0.133839 -0.0507263 0.49728
-0.0420137 -0.0451203 0.83612
-0.010867 -0.0460718 0.524687
-0.14199 -0.0544623 0.528992
0.0532243 -0.0654443 0.193597
-0.128864 -0.049131 0.544275
0.156904 -0.0442364 0.518865
-0.0131939 -0.028396 0.10775
0.184609 -0.0453256 0.522363
-0.0656993 -0.00760658 0.163657
0.168727 -0.0544623 0.497023
-0.0276767 -0.0288084 0.141692
-0.0115618 -0.0178648 0.462465
0.0458201 0.0611814 0.0912386
-0.0431054 -0.0562554 0.549455
0.0200149 -0.0600776 0.73761
0.286527 -0.0544623 0.467185
0.0457666 0.0364535 0.114133
0.0211308 -0.0462516 0.406843
-0.0036216 -0.0544623 0.587321
0.015846 -0.0692908 0.369035
-0.0182494 -0.0197471 0.365962
0.253607 -0.0442364 0.492378
-0.267348 -0.0544623 0.482354
-0.00148307 -0.0276768 0.0994664
0.0210536 -0.056504 0.571935
0.00613702 -0.0289074 0.898707
0.00233034 -0.0648114 0.951918
-0.0236809 -0.0782569 0.857614
0.0190318 -0.0641222 0.401347
0.023813 -0.0544623 0.535939
0.0603809 -0.0544623 0.570039
0.042391 -0.0185416 0.132946
0.0413873 0.0125205 0.145046
0.0191236 -0.0386196 0.446933
0.0278696 -0.0457572 0.157463
-0.0191137 -0.0197772 0.524872
-0.0336646 -0.0368211 0.906349
-0.0420739 -0.0482258 0.305605
0.00135105 -0.0810215 0.727763
-0.0226343 -0.0663631 0.189283
0.199759 -0.0442364 0.509251
0.00717188 -0.0356082 0.162141
-0.340777 -0.0544623 0.464205
0.0438774 -0.0206312 0.079417
-0.0388672 -0.0686796 0.741203
-0.040832 -0.0544623 0.550345
-0.0129986 -0.0426265 0.0510378
0.133008 -0.0544623 0.533735
0.0491725 -0.060777 0.130021
-0.0158765 -0.0186733 0.264335
0.00784667 -0.0781432 0.418735
0.0197737 -0.0544623 0.557385
0.0223381 -0.0518092 0.429896
-0.0677391 0.0142582 0.124395
0.202299 -0.0442364 0.496889
0.0219368 -0.0529051 0.741053
-0.0430585 -0.0560482 0.718854
0.0202223 -0.0462247 0.33759
0.0113328 -0.0741983 0.805276
-0.0433002 -0.046355 0.811523
-0.0356445 -0.0301948 0.423805
-0.0199016 -0.0820437 0.636009
-0.00874679 -0.0544623 0.56269
0.0465856 0.0141673 0.102515
-0.0190779 -0.0344241 0.102919
-0.0530279 -0.039557 0.157053
0.00836321 -0.024383 0.786891
0.0444711 -0.0525526 0.109533
-0.0264071 -0.0571306 0.150202
0.0461339 0.00812896 0.124416
-0.0273769 -0.0252322 0.101307
-0.0180593 -0.0824201 0.73823
0.0729142 -0.040323 0.0952985
-0.00158612 -0.0504495 0.575352
0.0998043 -0.0386445 0.0760475
-0.0434732 -0.0536893 0.372648
-0.0980154 -0.024087 0.128095
-0.0361176 -0.0304415 0.571811
0.00154165 -0.0811067 0.62087
-0.00967013 -0.0179649 0.513444
0.0098305 -0.0443364 0.157103
-0.0175363 -0.0369824 0.942039
-0.0404903 -0.0636082 0.828356
0.0177168 -0.0672759 0.368724
-0.0636456 0.0412783 0.102525
-0.00107941 -0.0197162 0.124467
0.119657 -0.0442364 0.540537
0.0432562 -0.00581351 0.0899966
-0.0381353 -0.0351665 0.283915
-0.0318067 -0.028433 0.183461
-0.116576 -0.0442364 0.512135
-0.077301 -0.0526513 0.177147
-0.0153176 -0.0182629 0.114771
0.00670525 -0.0282779 0.116284
-0.0217586 -0.0198778 0.163164
-0.235507 -0.047469 0.480794
0.0437368 -0.0127977 0.168133
0.00979826 -0.0733804 0.342447
0.0967979 -0.0544623 0.554323
-0.0270322 -0.0795809 0.824963
-0.0315805 -0.0761018 0.626197
-0.0661084 -0.0282503 0.0996807
-0.0838055 -0.0544623 0.546176
-0.0262924 -0.0495786 0.11767
-0.0642667 0.00631671 0.145847
0.0322446 -0.0604407 0.219133
-0.0353364 -0.0296804 0.529697
0.0203238 -0.0462108 0.342775
0.016725 -0.0334892 0.355899
-0.0384468 -0.0326909 0.680377
-0.0163544 -0.0542773 0.108739
0.116428 -0.0544623 0.539114
0.0645085 -0.0443086 0.519338
-0.0402567 -0.0665052 0.784302
0.0191902 -0.0631543 0.69321
-0.0146094 -0.0193361 0.0160321
-0.0669488 -0.0286991 0.131313
0.000352102 -0.0201699 0.205504
-0.0607889 -0.0588276 0.218459
0.045752 0.016595 0.133532
-0.0440305 -0.0494622 0.643617
-0.0250308 -0.0425377 0.189713
-0.0218717 -0.0369059 0.0508739
-0.0334887 -0.0277956 0.607814
-0.318827 -0.0519536 0.47428
0.0220129 -0.049225 0.602708
-0.105028 -0.0538815 0.554855
-0.00566961 -0.0822925 0.827403
0.0321424 -0.0385002 0.104234
-0.0562389 -0.0547014 0.186825
0.275143 -0.0544623 0.469427
-0.0258013 -0.0522356 0.534218
-0.0667361 0.0199315 0.0822821
-0.0371438 -0.0472911 0.904991
-0.00147522 -0.0196622 0.111292
0.0459028 0.0124867 0.129324
-0.0153633 -0.0183742 0.225506
-0.037478 -0.0573593 0.241779
-0.0358532 -0.071755 0.665538
0.00742345 -0.0429614 0.115471
0.0195016 -0.0619923 0.696463
0.0201271 -0.0418475 0.809287
-0.0964419 -0.0306794 0.117866
0.0233613 -0.0544623 0.574556
-0.0240283 -0.0643917 0.179233
-0.0426497 -0.0514666 0.512429
0.0472636 -0.0501164 0.234749
0.00267718 -0.0766279 0.309958
-0.0405372 -0.0363581 0.571693
-0.0402226 -0.0593977 0.32772
0.0132226 -0.0443706 0.155535
-0.295012 -0.0462736 0.466343
-0.0294994 -0.0617969 0.196857
0.00596814 -0.0331029 0.150764
9.06298e-05 -0.0817372 0.445379
0.0458125 0.0134358 0.13297
0.0101285 -0.0291478 0.860561
-0.0371328 -0.0640075 0.288049
0.246336 -0.0442364 0.496214
0.0191439 -0.0414493 0.834774
0.0532006 -0.0619672 0.147019
-0.0668877 0.000514229 0.104348
-0.0304902 -0.0541348 0.15594
-0.0681524 -0.0230167 0.171273
0.203414 -0.0442364 0.494386
-0.0292807 -0.0783759 0.638401
-0.0812541 -0.0291942 0.099343
-0.0337037 -0.0269587 0.131917
0.0749987 -0.0544623 0.555316
-0.000429803 -0.0714399 0.223847
-0.0415315 -0.0434676 0.178381
-0.0126243 -0.0181591 0.457384
0.0570258 -0.0426914 0.120397
0.128242 -0.0442364 0.527647
0.0427098 0.0743616 0.0771508
