0.0442747 -0.0513874 0.304691
0.117964 -0.0540322 0.512725
-0.0302109 -0.0563869 0.170675
-0.024038 -0.0206216 0.309708
-0.00604696 -0.01874 0.0357439
-0.0336699 -0.0738147 0.512104
-0.00382283 -0.0192485 0.829549
-0.0422629 -0.0423226 0.514462
-0.0286624 -0.0533314 0.145473
-0.024074 -0.0208307 0.355951
0.00326519 -0.0778789 0.339193
-0.0204717 -0.0814776 0.628851
-0.0301126 -0.0240207 0.529513
0.0344826 -0.0350015 0.341513
0.017609 -0.0353244 0.166351
-0.00617454 -0.0826716 0.662677
-0.0049495 -0.0183378 0.10121
0.0477243 -0.0327218 0.0936587
-0.0432201 -0.0438053 0.532359
-0.024019 -0.0356386 0.935283
-0.00197807 -0.0632831 0.165014
0.0107949 -0.0665057 0.900012
0.0243981 -0.0444743 0.554566
0.0180332 -0.0336034 0.805959
0.0381238 0.0223928 0.100326
0.00961142 -0.029959 0.0936084
-0.0100314 -0.0836957 0.672564
-0.0234085 -0.0808076 0.566805
0.0159944 -0.0540322 0.535639
0.0183737 -0.0657791 0.676265
0.239662 -0.0463614 0.482909
-0.0647665 0.0497461 0.0898163
0.0796747 -0.0438053 0.553582
-0.00282317 -0.0816483 0.796273
-0.00905291 -0.0837811 0.414724
-0.0253731 -0.0540322 0.549353
0.00641682 -0.0540322 0.550234
0.15064 -0.0540322 0.494866
-0.0670924 -0.0256586 0.143637
0.00670098 -0.0788307 0.484019
-0.047283 -0.0465942 0.366579
0.0565415 -0.0540322 0.519592
0.00715264 -0.0229247 0.681636
-0.0140657 -0.0834901 0.38906
-0.0621281 0.00553432 0.132516
0.0156882 -0.0647507 0.86724
0.00201515 -0.080832 0.390906
-0.00487481 -0.01896 0.437336
-0.0587365 -0.034713 0.129128
-0.00329738 -0.0450669 0.969971
0.0205674 -0.0433476 0.55556
-0.00108406 -0.0491821 0.563354
-0.0235134 -0.0207446 0.403506
-0.0480881 -0.0390298 0.153761
0.0405014 0.0374672 0.115592
0.238451 -0.0438053 0.486234
-0.0339359 -0.0322777 0.180536
0.0188782 -0.0407429 0.130091
-0.00804139 -0.0834577 0.490297
-0.0894023 -0.0194613 0.104933
-0.00667627 -0.0180625 0.758217
-0.0116776 -0.0172688 0.642911
-0.0263624 -0.0424494 0.938005
0.0130347 -0.0288843 0.581139
-0.00960256 -0.0169529 0.171043
-0.0545076 -0.0438053 0.545839
0.012332 -0.0291528 0.279409
-0.00230536 -0.0193676 0.676565
0.00169106 -0.0540322 0.536145
-0.0658613 -0.0438982 0.566882
-0.0360177 -0.0662638 0.30937
0.0400981 -0.0171568 0.164577
-0.20665 -0.0536666 0.514775
0.0270821 -0.0534942 0.303205
0.235909 -0.0453643 0.484669
0.0413712 -0.0253679 0.122798
-0.0191257 -0.0193164 0.568107
0.0210828 -0.0560833 0.442303
-0.00869481 -0.0174557 0.798457
0.0248541 -0.0399801 0.121551
-0.0356653 -0.0296086 0.505231
-0.0635533 0.0336797 0.13186
-0.0060836 -0.0292949 0.0136947
0.0473 -0.0426731 0.367554
-0.00932638 -0.0811201 0.852828
0.0297806 -0.0563589 0.327646
-0.0536243 -0.0415602 0.392281
-0.283308 -0.0473274 0.468135
0.0158478 -0.0540322 0.531663
-0.0333427 -0.0294286 0.188389
-0.0481121 -0.0514857 0.389471
0.0085498 -0.0767861 0.604911
0.0378359 0.0648949 0.0870723
0.0113503 -0.0700603 0.32426
-0.0348673 -0.0722664 0.726754
-0.0842829 -0.0438053 0.555312
-0.0652781 -0.000227293 0.13989
0.0448956 -0.0401179 0.111837
-0.0635901 -0.017106 0.0882354
-0.286905 -0.0515135 0.464121
-0.0647521 -0.00185432 0.16028
0.0303084 -0.0384324 0.29064
-0.0833401 -0.0329769 0.130055
0.0110659 -0.0740458 0.795754
-0.0328336 -0.027352 0.331875
0.0113393 -0.0273267 0.468061
-0.0909775 -0.0438053 0.517186
0.0222956 -0.0515342 0.417929
-0.149222 -0.0438053 0.533119
0.0425095 -0.0183527 0.0764717
0.0103967 -0.0263246 0.496332
-0.000569022 -0.020091 0.828992
0.0202351 -0.0592443 0.541295
-0.03399 -0.043604 0.916428
-0.307786 -0.0469442 0.462601
-0.166575 -0.0540322 0.52332
0.0123983 -0.0731775 0.391595
-0.0534045 -0.0438053 0.531917
0.0207409 -0.0438009 0.770534
0.00834697 -0.0485831 0.535503
-0.291192 -0.0472764 0.483007
-0.170096 -0.0540322 0.503476
-0.0210291 -0.0192147 0.151295
-0.0247333 -0.0205655 0.77491
0.0202767 -0.0591051 0.536693
0.0265152 -0.0540322 0.548904
-0.0102717 -0.0175448 0.420926
0.0391322 -0.0236984 0.0919631
0.00932755 -0.0253599 0.446678
0.221502 -0.0463596 0.48703
0.0117807 -0.0737255 0.523874
-0.302247 -0.0510663 0.480086
0.281935 -0.0540322 0.47839
0.00992874 -0.0752707 0.687536
-0.0328662 -0.0540322 0.553323
-0.0635347 -0.0397356 0.39644
0.0195014 -0.0619807 0.43715
0.014098 -0.0708636 0.372499
0.00895641 -0.0430211 0.151377
0.182478 -0.0505462 0.525303
-0.0605533 -0.0258555 0.0940956
0.0391767 -0.0384765 0.155831
-0.0243258 -0.0207176 0.825978
-0.0223403 -0.0204697 0.382577
0.0729376 -0.0451312 0.51348
0.0270584 -0.0540322 0.535308
0.0410118 0.0405012 0.0948876
0.0101015 -0.0540322 0.529287
-0.0352085 -0.0721709 0.568163
-0.0423438 -0.0425828 0.717566
-0.0620361 -0.0100526 0.0825701
0.0121374 -0.0732507 0.580028
0.0295165 -0.040729 0.124323
0.0165274 -0.0458717 0.167356
0.0497303 -0.0438053 0.563625
0.020786 -0.0439821 0.765572
-0.033056 -0.0550265 0.926686
0.0191015 -0.0379345 0.617774
-0.0154149 -0.071393 0.94073
0.132648 -0.0438053 0.518835
-0.0364412 -0.0643047 0.888608
-0.0245631 -0.0385998 0.17578
-0.0532624 -0.0392787 0.302303
-0.0521742 -0.0424583 0.395684
-0.0392471 -0.064357 0.339902
-0.041 -0.0633157 0.723155
-0.0225545 -0.0811286 0.514446
-0.00634937 -0.0464603 0.538776
0.0199029 -0.0409277 0.4931
-0.0482073 -0.0517944 0.370076
-0.0372559 -0.0540322 0.556581
0.0205867 -0.0575209 0.727854
-0.0176549 -0.0821147 0.724147
-0.0500238 -0.0410369 0.33974
0.00620079 -0.0737314 0.304189
-0.0443282 -0.0503559 0.421667
-0.0312658 -0.07591 0.674823
0.0106578 -0.0497697 0.546185
-0.0629145 -0.0438053 0.558055
-0.100504 -0.0540322 0.53889
0.0121261 -0.0495474 0.540154
-0.0394305 -0.0540322 0.529013
-0.0108077 -0.0778491 0.278765
-0.0532485 -0.0540322 0.557873
-0.0654563 -0.0540518 0.510884
0.0125023 -0.0498611 0.179518
0.0148117 -0.0657525 0.312751
0.00581283 -0.0797072 0.508206
0.0328244 -0.0438056 0.522602
0.225016 -0.0438053 0.505821
0.0127698 -0.044963 0.167426
0.0151058 -0.0618604 0.265628
0.0194843 -0.0616354 0.737613
0.0406543 -0.0557327 0.401037
-0.00495088 -0.0732833 0.231537
-0.0297612 -0.0234142 0.768151
-0.0426646 -0.0481666 0.329645
0.0200389 -0.0415095 0.471981
0.294567 -0.0540322 0.465854
0.0144656 -0.0709389 0.378515
-0.305042 -0.0480509 0.461939
0.00452213 -0.0633649 0.190651
-0.0639693 -0.00798624 0.0965033
0.0203281 -0.0428628 0.287073
-0.0613358 0.0269177 0.0899574
-0.0510394 -0.0564456 0.341883
-0.0520824 -0.0540322 0.541541
-0.078886 -0.0330105 0.127917
0.0420085 -0.00462754 0.0863488
-0.0336225 -0.0604452 0.915009
0.15807 -0.043806 0.502465
-0.00380525 -0.0192173 0.452864
0.0286729 -0.0377351 0.373904
-0.00410845 -0.0189373 0.624721
-0.0414641 -0.0619412 0.556724
0.0552348 -0.0540322 0.522106
0.000947318 -0.0202027 0.698752
0.0244262 -0.0468497 0.383676
0.0211167 -0.0451093 0.806639
-0.042561 -0.0451906 0.363838
-0.0167974 -0.0533289 0.51584
0.102619 -0.0398514 0.0938959
-0.0178614 -0.036707 0.152077
0.000225196 -0.0760912 0.297812
0.0449176 -0.0543395 0.346442
0.0407761 0.0555177 0.0941843
-0.111028 -0.0540322 0.507283
-0.0364987 -0.0313961 0.167612
0.0182132 -0.0346502 0.484918
-0.0124379 -0.0249177 0.910602
-0.0434724 -0.0545631 0.506471
0.0030444 -0.0540322 0.595831
0.00247533 -0.0206952 0.63372
0.0167764 -0.0397733 0.869846
-0.020511 -0.0740441 0.258099
0.0147899 -0.0688976 0.835336
0.209058 -0.0540322 0.509222
0.0117796 -0.0276113 0.618929
-0.0381888 -0.0459582 0.210417
-0.0101875 -0.0689238 0.18989
0.00659098 -0.0451029 0.11436
-0.0638708 -0.00679236 0.17041
-0.0386817 -0.0674896 0.362214
-0.0603142 -0.0369414 0.32329
-0.0323181 -0.0534051 0.532968
-0.0307915 -0.0245573 0.704443
0.0073982 -0.0612624 0.93841
0.0405021 -0.0072864 0.143525
0.00343509 -0.0225907 0.144117
0.0827989 -0.0354296 0.0828451
-0.0913081 -0.0284731 0.102679
0.00698988 -0.078232 0.659885
-0.0343562 -0.0729469 0.604434
0.0376406 -0.00464696 0.135028
-0.013916 -0.0175711 0.0850428
0.0096788 -0.0602498 0.203157
0.013207 -0.0290662 0.560688
0.00381628 -0.0209902 0.687271
-0.0334772 -0.0273661 0.570283
-0.189492 -0.0521064 0.486358
-0.199819 -0.0438053 0.500552
-0.0384513 -0.0376369 0.261006
0.00583781 -0.0329095 0.914155
-0.01142 -0.0800369 0.31467
-0.00384945 -0.0193872 0.832329
-0.0158707 -0.0284601 0.116253
0.0385457 0.0196397 0.0864919
-0.0605468 -0.0135258 0.0861528
-0.0647825 0.0426953 0.0948055
0.030965 -0.0438053 0.547151
-0.339654 -0.0519285 0.466994
-0.02112 -0.0815328 0.485915
-0.0435158 -0.0539275 0.767649
0.0291845 -0.0371811 0.385639
-0.0406259 -0.0365141 0.428715
-0.00395099 -0.0760978 0.900346
-0.0501454 -0.053451 0.405147
-0.00414165 -0.044357 0.970225
0.0338238 -0.0577768 0.375862
-0.0611098 -0.0357511 0.120778
0.141629 -0.0438053 0.535612
-0.011367 -0.0839038 0.636018
-0.0352372 -0.0665031 0.302018
-0.0272458 -0.0221622 0.26974
-0.00587529 -0.0626789 0.153102
-0.0306092 -0.0765367 0.711705
-0.0434838 -0.0525115 0.289132
-0.0412311 -0.0624534 0.727405
-0.10105 -0.0540322 0.54464
-0.0625879 -0.00971922 0.158986
-0.0380148 -0.0596444 0.883384
-0.0576542 -0.0532862 0.284593
0.0326943 -0.0438053 0.546626
-0.00909649 -0.0819299 0.840023
-0.0779915 -0.0525133 0.565188
-0.028544 -0.0787461 0.610628
-0.0422765 -0.0424351 0.606376
0.0184072 -0.0438064 0.274299
0.0385888 0.0228437 0.0828941
0.0667105 -0.0430221 0.120599
0.00737979 -0.023246 0.546533
0.0425344 -0.0488012 0.577525
0.0147053 -0.0308351 0.400398
0.0146596 -0.0708693 0.490122
-0.0639235 4.0119e-05 0.0898056
-0.0200838 -0.0194565 0.691516
-0.0231324 -0.0428998 0.949354
0.0580164 -0.0438053 0.563239
-0.0399717 -0.0564546 0.303507
0.0257335 -0.0516707 0.354646
-0.0828419 -0.0540322 0.539945
-0.0388136 -0.0403153 0.243499
0.00470777 -0.0281168 0.902268
-0.0147858 -0.0521424 0.561436
0.0200003 -0.0598205 0.626703
0.0199623 -0.0412641 0.460472
0.00302183 -0.0209004 0.196497
-0.0427016 -0.0573731 0.542436
0.0191153 -0.0630138 0.798148
-0.0610533 0.00752298 0.0916642
-0.0350336 -0.053951 0.531433
-0.0365118 -0.070595 0.759789
0.00186337 -0.0459746 0.190502
0.0144248 -0.0711403 0.414126
-0.0383438 -0.0336375 0.308526
0.0185334 -0.0397228 0.33444
0.0054691 -0.0766177 0.853124
-0.255629 -0.0512447 0.496423
0.0175863 -0.0676854 0.635375
-0.0396573 -0.0435871 0.871698
-0.111322 -0.0540322 0.528998
-0.0175739 -0.0188613 0.624829
-0.00449576 -0.082395 0.568836
0.00874417 -0.0257876 0.244648
-0.0133239 -0.0822133 0.834071
0.0106731 -0.0487348 0.154883
0.0189835 -0.0635037 0.695937
-0.0383116 -0.03207 0.708645
0.00418566 -0.0798026 0.761865
0.0389887 0.00157687 0.0814475
-0.0158946 -0.018102 0.0848259
-0.0632745 -0.0278836 0.130976
0.0121146 -0.0704589 0.847704
-0.0414821 -0.0391625 0.796592
0.0771364 -0.0540322 0.563873
-0.0321348 -0.0558824 0.179374
-0.127898 -0.0540322 0.531221
0.0101013 -0.0540322 0.570799
0.00704685 -0.0689512 0.250733
-0.00649942 -0.0185447 0.4267
0.00751356 -0.0243163 0.282219
-0.0424797 -0.0577948 0.817875
-0.133048 -0.0540322 0.534413
-0.0234457 -0.0204674 0.57755
-0.0233583 -0.0284676 0.913211
0.0269045 -0.0369155 0.0989436
-0.16695 -0.0438057 0.499124
-0.0529171 -0.0438053 0.548921
-0.029992 -0.0773274 0.596684
-0.0292966 -0.0569949 0.168799
-0.0318029 -0.0756889 0.496998
-0.081554 -0.031194 0.116584
-0.000959269 -0.0211493 0.0755339
0.00772066 -0.0343711 0.106564
-0.0422396 -0.0524548 0.314948
-0.0566367 -0.0540322 0.521842
0.00505674 -0.0223397 0.224401
0.00477382 -0.0799836 0.530316
-0.0255556 -0.02106 0.215609
-0.0333437 -0.073921 0.622712
-0.00574321 -0.0825805 0.647747
0.00787505 -0.0592207 0.938811
-0.00861033 -0.0365061 0.946236
0.106072 -0.0438053 0.54191
1.08331e-05 -0.0199769 0.288258
0.0330984 -0.0575883 0.374852
0.00752826 -0.0240933 0.319306
-0.0159605 -0.0812336 0.838085
0.0918607 -0.0420475 0.10035
-0.00678408 -0.0786403 0.308489
0.00859896 -0.0255242 0.263098
-0.0962692 -0.0196678 0.117129
-0.0310336 -0.0751543 0.362463
0.232135 -0.0516373 0.480358
0.0220871 -0.0522843 0.388013
-0.197854 -0.0540322 0.492156
0.0123427 -0.0732096 0.441047
-0.027525 -0.0708753 0.256661
-0.12561 -0.0528138 0.546771
0.00294067 -0.0210849 0.421064
-0.0113891 -0.016995 0.771795
-0.0288578 -0.078217 0.799792
0.0035117 -0.0220837 0.164009
-0.017203 -0.0662954 0.967282
0.0141345 -0.0349328 0.210495
0.152938 -0.0438053 0.524719
0.0376098 0.0206225 0.120367
0.0968655 -0.035958 0.0945305
-0.00802028 -0.0834781 0.45272
-0.00251623 -0.0239104 0.0223935
0.040287 0.0601247 0.109333
0.0408535 -0.0187304 0.137724
0.200199 -0.0438053 0.505453
-0.0644865 -0.0188809 0.122386
0.0360077 -0.0583482 0.375235
0.0199403 -0.0599329 0.704114
-0.122126 -0.0438053 0.511336
-0.0390863 -0.0368199 0.303097
-0.0662839 -0.0308638 0.106127
-0.0374302 -0.0316546 0.377747
-0.00305408 -0.082147 0.453198
-0.0662292 -0.0500895 0.301335
-0.0119587 -0.0172639 0.700899
-0.149709 -0.0438053 0.505621
-0.02306 -0.0209872 0.126143
-0.000475151 -0.0813051 0.575481
0.0199777 -0.0411681 0.578588
0.116089 -0.0540322 0.509192
0.044701 -0.0545413 0.350995
-0.300837 -0.0479726 0.479814
-0.0116734 -0.0296146 0.110172
0.0119323 -0.0278698 0.491761
0.271638 -0.0535346 0.494061
-0.0636622 -0.0256017 0.125211
0.00351379 -0.0634832 0.950984
0.0384599 0.00545381 0.0985153
-0.0194435 -0.0764963 0.893976
-0.0293653 -0.032871 0.166225
-0.20232 -0.0540322 0.483429
0.0145605 -0.0314646 0.266426
-0.0984669 -0.0540322 0.551383
0.00559708 -0.0697441 0.241813
0.0523242 -0.0291959 0.10482
-0.0222351 -0.0203797 0.4154
-0.0187693 -0.0194783 0.371975
-0.00765338 -0.0179961 0.612269
0.00807557 -0.0256604 0.103325
-0.0201723 -0.0375889 0.161109
-0.0389181 -0.0325536 0.778274
-0.294927 -0.0540322 0.478455
-0.00340713 -0.0329385 0.026133
-0.157513 -0.0540322 0.528646
0.0439892 -0.0552218 0.361431
-0.0195582 -0.0820023 0.412373
-0.0134708 -0.0178072 0.559258
0.162925 -0.044194 0.500364
0.0649442 -0.0346181 0.0893431
-0.0165995 -0.0185296 0.687376
0.241251 -0.0488327 0.503425
0.0208855 -0.0445921 0.493935
0.0419505 -0.0117288 0.0929315
0.337747 -0.0540322 0.467461
-0.0293706 -0.0232555 0.578248
-0.185822 -0.0508498 0.487823
-0.00348524 -0.0776818 0.880347
-0.0357752 -0.0298726 0.156529
0.0403124 0.0289109 0.127896
0.0189413 -0.0636627 0.777563
0.0186098 -0.0360362 0.55005
-0.153538 -0.0453987 0.533299
0.0331519 -0.0433275 0.140631
-0.0125102 -0.0665575 0.972245
0.0190168 -0.0512222 0.541757
-0.00148489 -0.027576 0.119144
-0.0581012 -0.0380599 0.164285
-0.0226989 -0.0199813 0.798716
-0.0278079 -0.0217153 0.530768
0.00464059 -0.0250582 0.113385
0.00703573 -0.0785131 0.447976
0.0401936 -0.0437248 0.139667
-0.0357052 -0.029548 0.660915
-0.0279677 -0.0281689 0.140405
-0.0363575 -0.0420015 0.168371
-0.0284378 -0.0460747 0.580524
0.00869964 -0.0768512 0.443912
0.155312 -0.0540322 0.50529
-0.188127 -0.0477618 0.520443
0.0447322 -0.0515874 0.577602
0.0131624 -0.0358446 0.185429
0.100708 -0.0437301 0.513066
-0.0396759 -0.0503023 0.252714
0.0357362 -0.0371864 0.392859
-0.0252552 -0.0227538 0.136589
-0.00615316 -0.0298051 0.119526
0.067788 -0.0313436 0.111656
-0.0404373 -0.0371097 0.365873
-0.0621572 0.0448276 0.109035
-0.0343294 -0.0284384 0.426419
0.0499119 -0.0322562 0.0947769
-0.0404635 -0.0655772 0.58481
0.158239 -0.0438053 0.52585
0.0156944 -0.0526796 0.90365
-0.0274097 -0.0622079 0.189203
-0.0270541 -0.0797918 0.377379
-0.00646169 -0.0255871 0.0101557
-0.0421198 -0.0592791 0.617949
0.0102438 -0.0532373 0.934358
-0.0656694 -0.0438053 0.533533
-0.0606198 -0.0215264 0.0938416
-0.0645417 0.0348149 0.0908518
0.0376502 0.0633127 0.0922132
-0.0431317 -0.0553609 0.777368
0.0100812 -0.0258522 0.682297
-0.181289 -0.0540322 0.489552
-0.307608 -0.0540322 0.458908
-0.0162494 -0.0621772 0.150546
-0.0401068 -0.034432 0.469915
-0.0620863 0.019428 0.122294
0.0481044 -0.0455593 0.342308
-0.0408581 -0.0371088 0.571228
-0.0344543 -0.0730777 0.412224
0.312735 -0.0512943 0.461106
-0.103065 -0.0257526 0.124966
0.00305838 -0.0434327 0.185933
-0.0106082 -0.0401833 0.0404715
-0.232815 -0.0438053 0.492361
-0.0369476 -0.0658682 0.86682
0.013243 -0.029618 0.348967
-0.0214794 -0.0401279 0.0626585
-0.109581 -0.0540322 0.514308
-0.092341 -0.0438053 0.535273
0.0400172 -0.000318356 0.15891
-0.287861 -0.0438053 0.471756
0.0181273 -0.0343256 0.663013
-0.0160872 -0.0753393 0.25985
0.0415028 0.0242727 0.0869295
-0.00411264 -0.0191568 0.441263
0.00646303 -0.0786402 0.806243
0.0188966 -0.0371368 0.686155
0.0410389 -0.0438053 0.568415
0.0183184 -0.0660904 0.628753
0.2463 -0.0469663 0.480751
-0.0658309 -0.0428156 0.386809
0.341724 -0.0540322 0.468132
0.0129825 -0.0370445 0.175101
-0.192674 -0.0438053 0.496196
0.0396851 -0.0223262 0.179523
-0.042953 -0.054746 0.825214
-0.0516807 -0.0540322 0.530035
-0.11561 -0.0438053 0.513774
-0.0717184 -0.0329696 0.123807
0.0303284 -0.0551271 0.399958
-0.00404118 -0.0242847 0.901839
0.0208088 -0.0444203 0.461347
0.0405639 -0.0246512 0.152103
0.0404052 0.0469449 0.113212
0.202246 -0.0499277 0.517543
-0.0359101 -0.0699633 0.358174
-0.0437079 -0.0479319 0.452838
-0.00432511 -0.0189395 0.537787
0.0117884 -0.0549771 0.922715
-0.117318 -0.0477506 0.502267
0.0158342 -0.0463181 0.560768
-0.0128652 -0.0712218 0.208602
0.0189336 -0.0475574 0.265467
-0.0603727 -0.0199665 0.0837631
-0.0199992 -0.019562 0.31495
-0.000877695 -0.047537 0.188325
-0.132704 -0.0540322 0.522113
-0.00490425 -0.0185945 0.273069
-0.0205476 -0.0707643 0.935145
-0.0038852 -0.0500245 0.56769
-0.0499549 -0.0554054 0.327275
0.0147086 -0.0309911 0.363414
0.0182618 -0.0346007 0.750463
0.000806365 -0.0807934 0.670843
-0.0246234 -0.0802475 0.724172
-0.0618866 0.0146594 0.117917
-0.0175406 -0.0540322 0.586482
0.00741939 -0.0233206 0.509102
-0.282941 -0.0470653 0.485848
-0.00855858 -0.083343 0.643446
0.0245405 -0.0457286 0.384062
0.0404036 -0.0119239 0.150051
0.000128457 -0.073605 0.257863
-0.0325962 -0.0547514 0.175266
-0.041798 -0.0409628 0.407624
-0.0376846 -0.0312481 0.818973
0.00383641 -0.0798954 0.762659
0.0718886 -0.0438053 0.523728
-0.0628556 0.00263471 0.162003
-0.0209332 -0.0429279 0.166654
0.0153108 -0.0540322 0.5307
-0.0623805 0.0563109 0.110099
-0.0483318 -0.0521397 0.393973
0.0143317 -0.0299927 0.744558
-0.00378584 -0.0192033 0.828499
-0.0219116 -0.0435956 0.07675
0.0206663 -0.0436867 0.518768
-0.0434355 -0.0542264 0.693366
-0.0439121 -0.0484986 0.50857
-0.265213 -0.0438053 0.48617
-0.0843221 -0.0540322 0.559293
-0.0148243 -0.0832873 0.388461
-0.051366 -0.0560418 0.293985
-0.0324063 -0.0282561 0.199444
-0.0419555 -0.0601452 0.420995
-0.0465126 -0.0502567 0.360656
0.0380118 0.041783 0.0923278
0.027774 -0.0387617 0.322539
0.0414283 0.0279834 0.0873539
0.0286246 -0.0424086 0.388852
-0.0257364 -0.0210516 0.303877
-0.0666727 -0.0438402 0.520044
0.304176 -0.0475682 0.465961
-0.00486355 -0.0445225 0.169285
-0.001753 -0.0815841 0.609138
-0.0345783 -0.0725636 0.716688
-0.00628565 -0.0804178 0.338879
0.220366 -0.0438053 0.502002
-0.174797 -0.0540322 0.501855
-0.055994 -0.0579404 0.30082
0.0178302 -0.067376 0.678933
-0.0210108 -0.0392408 0.169375
-0.126892 -0.0438053 0.522122
0.0302574 -0.0568295 0.333357
0.0144792 -0.0301998 0.710878
-0.0304144 -0.0251984 0.290414
-0.0937641 -0.0319926 0.128702
-0.0114773 -0.0206985 0.00120377
0.0327353 -0.0540322 0.523724
-0.029803 -0.0276377 0.876946
-0.27947 -0.0447964 0.486427
-0.0675795 -0.0401451 0.348295
0.103221 -0.0540322 0.514571
-0.0699647 -0.0313909 0.152532
-0.015567 -0.0471512 0.567382
0.0626641 -0.0399123 0.100923
-0.0623407 0.0298757 0.125135
0.319073 -0.049726 0.477388
0.0112379 -0.0709158 0.334356
-0.039697 -0.0381234 0.315992
-0.02783 -0.0794272 0.626235
-0.0612086 -0.019302 0.11415
0.00839481 -0.0640267 0.924145
-0.00856967 -0.0352612 0.120409
-0.0633789 -0.0228985 0.12228
0.0442276 -0.0424431 0.385732
-0.316064 -0.0478953 0.466056
-0.0437884 -0.0324885 0.105543
0.0127076 -0.0606685 0.908574
-0.0333445 -0.0589385 0.918955
-0.0320464 -0.0267305 0.306022
-0.232603 -0.0500168 0.47872
-0.0400766 -0.0346128 0.386456
0.0175962 -0.041742 0.261583
-0.0410519 -0.0378383 0.578092
0.12466 -0.0438053 0.51316
0.0462008 -0.0529592 0.373763
0.0075631 -0.076544 0.360908
0.320103 -0.0489297 0.462621
-0.106446 -0.0192531 0.0965968
0.00809245 -0.0543403 0.945113
-0.0334701 -0.0327854 0.168137
-0.029449 -0.0779839 0.542647
-0.0306121 -0.0321335 0.126821
-0.019356 -0.0369263 0.156603
-0.0653123 0.00982773 0.134862
-0.00475102 -0.0420848 0.164263
-0.00243873 -0.0540322 0.584831
-0.0151262 -0.040661 0.0468822
-0.0506536 -0.0483582 0.513505
-0.0395491 -0.0576197 0.300626
0.0406253 0.0678223 0.0920465
-0.059512 -0.0438053 0.532018
-0.0773827 -0.0289989 0.0989506
0.00169986 -0.0208088 0.376217
-0.0582701 -0.0382841 0.401584
0.0173235 -0.0488699 0.311974
-0.0394841 -0.067253 0.369899
-0.0360047 -0.0354273 0.205785
-0.234602 -0.0540322 0.499099
-0.0653365 -0.0228643 0.103454
0.0902859 -0.0401113 0.087595
0.0018335 -0.0790073 0.839924
-0.018331 -0.0815834 0.823609
0.0212531 -0.0489185 0.347075
-0.0438957 -0.051935 0.336802
0.0376386 -0.00286463 0.152019
-0.228024 -0.0471205 0.482521
-0.0278352 -0.0793381 0.677988
0.00359265 -0.020777 0.251217
-0.0651192 -0.0120893 0.166132
-0.0151983 -0.0290978 0.0128061
0.0406014 0.0605945 0.0974551
-0.00298337 -0.0211411 0.0407495
0.0223057 -0.0495749 0.79578
-0.0309862 -0.0248821 0.555274
0.202199 -0.0540322 0.510461
-0.0336339 -0.0738879 0.433664
-0.0548135 -0.0438053 0.564262
0.0131666 -0.0293051 0.396198
-0.246428 -0.0535352 0.473695
-0.00813739 -0.0180876 0.436393
-0.0528885 -0.0567399 0.401512
-0.0911093 -0.0438053 0.544033
-0.062773 -0.0540322 0.546698
-0.0160913 -0.0187412 0.367444
-0.298716 -0.0540322 0.460967
-0.00967924 -0.0477689 0.563015
-0.0392603 -0.0678737 0.726133
-0.0366624 -0.0409538 0.899603
0.0677856 -0.0438053 0.56093
0.0606777 -0.0418581 0.115643
0.0384468 -0.0092434 0.108185
-0.0215253 -0.0212847 0.851084
0.0171904 -0.0533419 0.562355
0.224069 -0.0540322 0.490256
0.0102111 -0.0261472 0.492411
0.013643 -0.0296303 0.468106
0.0205987 -0.0432912 0.762412
-0.0386952 -0.048848 0.225229
-0.0411987 -0.0625736 0.667773
-0.0434178 -0.0468124 0.463281
0.0465493 -0.0438053 0.542795
-0.0112504 -0.0277791 0.102249
-0.0342888 -0.0649795 0.268433
0.0135267 -0.0716426 0.724682
0.0930527 -0.0439125 0.511372
0.321683 -0.0489489 0.465829
0.0182518 -0.0443972 0.25884
-0.151203 -0.0540322 0.531819
0.0208765 -0.0444925 0.699274
0.00614393 -0.0794303 0.394842
0.0379976 -0.0482411 0.397483
-0.00176555 -0.0428383 0.155808
-0.0112671 -0.0174032 0.435261
-0.0431857 -0.0458633 0.643978
-0.0268418 -0.0797747 0.626766
0.0181899 -0.0668264 0.555782
-0.112689 -0.0186687 0.116759
0.149018 -0.0540322 0.511973
0.0124843 -0.0711335 0.836116
-0.0352386 -0.0293479 0.426259
0.0217564 -0.0535044 0.558993
-0.0408157 -0.0517105 0.292337
-0.114743 -0.0540322 0.523145
-0.0278054 -0.0223229 0.332001
-0.0817389 -0.0318428 0.121239
0.0109626 -0.0420191 0.142172
-0.0610501 -0.0513413 0.39298
0.0135396 -0.0718478 0.580361
0.0416228 -0.00475217 0.100646
0.0115752 -0.0735596 0.767249
-0.294117 -0.0540322 0.472386
0.087155 -0.0438053 0.544119
-0.0600388 -0.0580205 0.402899
0.0147278 -0.0371503 0.107081
0.0143411 -0.0329038 0.225951
-0.0383333 -0.0689606 0.608802
-0.0401091 -0.0343735 0.667182
-0.0241321 -0.0512727 0.117526
-0.0649982 0.0127244 0.121485
-0.0644109 0.0129288 0.148507
0.0377684 0.0419047 0.101235
-0.0423783 -0.0581716 0.686288
-0.00915355 -0.0837987 0.428261
0.0391766 -0.00710849 0.0799528
-0.0230723 -0.033136 0.151619
0.0210777 -0.0357069 0.167187
-0.0422132 -0.0587892 0.790086
-0.0148807 -0.0341305 0.0184398
0.0063894 -0.040205 0.132971
0.0123731 -0.0731618 0.477397
-0.0331132 -0.0277275 0.316905
-0.00588053 -0.0183533 0.277794
0.0951532 -0.0423588 0.100781
0.0188401 -0.0540322 0.545142
-0.0148688 -0.0180183 0.0694001
0.0143223 -0.0540322 0.560859
0.0190489 -0.0437252 0.15094
0.0178179 -0.0482707 0.241327
0.00639971 -0.043362 0.109194
-0.0172683 -0.0188699 0.324143
0.00909276 -0.0463642 0.136647
0.00689726 -0.0721938 0.292758
0.0388642 0.0670517 0.102433
-0.0218287 -0.0711479 0.92971
0.00180411 -0.0808724 0.414147
0.0386523 -0.0124225 0.102602
-0.010211 -0.0827063 0.833003
0.0195463 -0.0508147 0.86521
-0.297366 -0.0450502 0.468579
-0.201844 -0.0469575 0.488202
0.00475889 -0.0212514 0.682044
-0.0334405 -0.0271324 0.746167
0.00900832 -0.0764442 0.549357
-0.249817 -0.0468261 0.477269
0.0135672 -0.0485195 0.187667
-0.0432154 -0.0550485 0.772238
0.0110911 -0.0535127 0.174526
-0.0292294 -0.0525329 0.532653
-0.243777 -0.0540322 0.498106
0.222936 -0.0461234 0.486975
0.136767 -0.0540322 0.499268
-0.00162025 -0.0817896 0.414614
-0.00282937 -0.0457388 0.0744759
0.00956052 -0.0759823 0.460684
-0.0368866 -0.0420471 0.168973
0.0604336 -0.0403136 0.104929
-0.0631852 -0.0277447 0.090389
0.038834 -0.0502735 0.513958
-0.00547527 -0.0310509 0.016081
-0.0443562 -0.0500464 0.735636
-0.232543 -0.0438053 0.486974
-0.0432661 -0.0459254 0.755933
-0.0400842 -0.0491187 0.889856
0.0267728 -0.0400616 0.302046
-0.0251277 -0.0800431 0.797953
0.0105877 -0.0280703 0.215059
-0.0417792 -0.0604422 0.648736
0.312907 -0.0540322 0.461506
0.0214831 -0.0467376 0.526159
0.0424775 -0.0373427 0.0895171
0.296413 -0.0540322 0.476556
-0.0327135 -0.0743583 0.803268
0.239085 -0.0438053 0.499082
0.036187 -0.0347782 0.32077
-0.108945 -0.0284862 0.112174
-0.0282759 -0.0433079 0.108375
-0.233554 -0.0438053 0.489211
0.0419786 -0.0207985 0.0975637
-0.0403215 -0.0663331 0.520468
-0.0129871 -0.0178106 0.463707
-0.0335148 -0.0736114 0.735955
0.101519 -0.0540322 0.529367
0.0917014 -0.0539846 0.508262
-0.0410617 -0.0379111 0.616922
-0.0307657 -0.0246728 0.531716
0.22658 -0.0438053 0.506213
-0.123158 -0.0540322 0.526883
0.0223333 -0.0499353 0.552311
-0.338427 -0.0530897 0.467714
0.00978266 -0.0750136 0.823048
-0.0165273 -0.0185987 0.598967
-0.0216034 -0.0195944 0.220243
0.0136794 -0.029438 0.68934
0.097996 -0.0438053 0.544179
-0.0220894 -0.0809005 0.751813
0.0088135 -0.0763342 0.751414
0.0467312 -0.0406483 0.329441
0.0108759 -0.0266944 0.64664
-0.117536 -0.0472877 0.502703
-0.00277261 -0.0657958 0.181636
-0.0336715 -0.0734385 0.756058
-0.101771 -0.026642 0.0954006
-0.0180499 -0.0192294 0.43069
-0.00079502 -0.0192925 0.141279
0.0200403 -0.0599758 0.44389
-0.0679984 -0.0476711 0.387594
-0.0167061 -0.0546268 0.983752
0.0207877 -0.0439653 0.77443
0.0199368 -0.0599482 0.8078
0.0173509 -0.0681808 0.484273
-0.00919577 -0.0765594 0.265122
0.0138433 -0.0617889 0.245742
0.0077945 -0.0248701 0.239631
-0.0717394 -0.0438053 0.55642
-0.0679646 -0.0528822 0.402298
-0.0296717 -0.0280109 0.883715
-0.0388572 -0.0422726 0.171607
-0.0221537 -0.0325054 0.0970859
-0.0292938 -0.0782409 0.406392
-0.0153157 -0.0179236 0.224392
0.0501436 -0.0322539 0.127451
0.00537595 -0.0253278 0.124731
-0.0680166 -0.0405139 0.385472
-0.0261131 -0.080042 0.58849
0.000593642 -0.0812122 0.391817
0.0191603 -0.0380853 0.544356
0.00710263 -0.0781029 0.680115
0.0374148 -0.0540322 0.528327
0.0127614 -0.0293064 0.322435
-0.0195608 -0.0815834 0.746162
0.0465784 -0.0402787 0.379682
0.0375629 0.00189163 0.133795
-0.244736 -0.0540322 0.48186
-0.162417 -0.0438053 0.517164
0.0182967 -0.0660663 0.669151
0.038629 0.0244126 0.130699
-0.0670807 -0.0250991 0.139703
0.0410347 -0.0134145 0.127732
-0.048909 -0.0461667 0.271649
0.0137621 -0.0528108 0.565429
-0.0432434 -0.0549493 0.656985
-0.0160877 -0.0826435 0.633553
-0.0625064 0.0708001 0.105687
-0.0139657 -0.0408675 0.152436
-0.0875673 -0.0298799 0.110564
-0.0628383 0.00928449 0.154691
-0.041397 -0.0387938 0.816296
0.0312191 -0.036012 0.322104
-0.0836553 -0.0209235 0.103779
0.0177285 -0.0348939 0.358528
-0.0150939 -0.0815353 0.837063
-0.0150661 -0.0178392 0.0951417
-0.0552658 -0.0340853 0.122872
-0.00303345 -0.0398709 0.0525336
-0.0288914 -0.0784445 0.588791
0.018993 -0.0418576 0.328906
0.0666245 -0.0540322 0.540589
0.2047 -0.0540322 0.49394
-0.040998 -0.037697 0.641944
-0.0345291 -0.0285236 0.480912
0.0277997 -0.0446273 0.564187
-0.0678682 -0.0303179 0.103139
-0.209888 -0.0540322 0.507232
0.0414307 -0.0216716 0.118299
0.326449 -0.0497186 0.464531
-0.0351237 -0.0723608 0.512245
-0.157985 -0.0540322 0.52326
-0.022606 -0.0202278 0.598618
0.0120685 -0.0340324 0.172888
0.0185407 -0.0357423 0.711625
0.108055 -0.0516254 0.553917
0.0164064 -0.0605318 0.290293
-0.0248013 -0.0205484 0.79642
-0.0374074 -0.0514075 0.218279
-0.0473549 -0.0232561 0.102418
-0.0196751 -0.0819184 0.488224
-0.0121071 -0.06427 0.977947
-0.0211597 -0.0446459 0.184908
-0.0189766 -0.0509393 0.542285
-0.00201645 -0.0540322 0.556102
0.017319 -0.0380658 0.296459
-0.0150881 -0.0308261 0.0912822
0.165234 -0.0534215 0.491954
-0.0646823 -0.0219263 0.105615
0.0465398 -0.0402129 0.111628
-0.195162 -0.0495421 0.518319
-0.0568833 -0.0306425 0.0995628
-0.0590843 -0.0503801 0.283588
-0.275988 -0.0438053 0.483417
0.0411268 0.00479196 0.112959
-0.137994 -0.0540322 0.540189
0.0130565 -0.0490359 0.520087
0.0872339 -0.0438053 0.524616
-0.0116857 -0.0168045 0.180928
0.015744 -0.0695473 0.626074
-0.00980459 -0.0170195 0.10563
0.00429297 -0.0212693 0.515536
-0.0387405 -0.0429304 0.220752
-0.00110294 -0.0785653 0.857982
0.00816246 -0.0773711 0.479984
-0.199828 -0.0438053 0.512854
-0.104243 -0.0174818 0.106032
0.0175054 -0.0361694 0.330689
-0.0322408 -0.0749329 0.677314
-0.0140111 -0.0175592 0.0944614
0.137636 -0.0540322 0.510158
0.0670997 -0.0377469 0.127626
-0.0159205 -0.0184838 0.530254
-0.0158823 -0.0194699 0.84531
-0.0152485 -0.0180844 0.267466
0.0375973 -0.0438057 0.524111
0.0828068 -0.0438053 0.543819
-0.0277311 -0.036347 0.0894436
-0.012223 -0.0836796 0.63325
-0.00113746 -0.0197321 0.626644
-0.0168276 -0.0827454 0.395764
0.0378494 0.0141999 0.11555
-0.0367491 -0.0511814 0.209969
0.0212761 -0.0552527 0.571589
-0.062721 0.0236672 0.142665
0.151673 -0.0438053 0.506575
-0.00185632 -0.0771442 0.881832
-0.0119216 -0.0550512 0.108833
0.0377651 0.0626516 0.0883906
-0.040592 -0.0361043 0.50937
0.296566 -0.0540322 0.481304
-0.0563123 -0.0540322 0.567748
-0.00796733 -0.0831591 0.656968
0.0333547 -0.0576641 0.36694
-0.0199547 -0.0763778 0.893704
0.0124447 -0.0540322 0.571835
-0.000833832 -0.0540322 0.58733
0.00948925 -0.0255128 0.450834
0.000653348 -0.0455948 0.0870188
-0.00952671 -0.0675091 0.967597
-0.0758455 -0.0210799 0.105477
-0.0357975 -0.0297241 0.513181
-0.050433 -0.0405138 0.390057
0.0390491 0.000334864 0.0799965
0.0223638 -0.0513111 0.451521
-0.0330822 -0.0743621 0.537271
0.0318945 -0.0438053 0.530556
-0.021857 -0.077648 0.867549
0.0380066 0.0325419 0.0983007
-0.00148184 -0.0816885 0.506924
-0.029304 -0.077773 0.796928
-0.00690237 -0.0375029 0.121088
-0.0603872 -0.0199251 0.0842694
0.0465124 -0.0527323 0.337337
-0.105543 -0.0459913 0.552341
0.164607 -0.0540322 0.506543
-0.0609905 -0.0247109 0.109494
-0.00715031 -0.0258286 0.911745
-0.0278927 -0.051466 0.584265
-0.0056294 -0.0317223 0.93199
-0.315833 -0.0500318 0.457481
-0.0103859 -0.0172771 0.593337
0.0122716 -0.0488013 0.922136
0.288122 -0.0503765 0.467592
-0.0295066 -0.0724838 0.876002
-0.0405627 -0.036009 0.57424
-0.0296504 -0.0471384 0.127227
-0.0552573 -0.0591477 0.357369
-0.0369099 -0.0641899 0.293311
-0.0162519 -0.0719392 0.220344
0.0406338 0.0723745 0.0888916
-0.255696 -0.0438053 0.488789
-0.161887 -0.0438053 0.526284
-0.228151 -0.0475277 0.505288
-0.0164498 -0.0810313 0.83913
-0.0590305 -0.0348587 0.130308
-0.0164173 -0.0185945 0.562624
-0.03183 -0.0616669 0.9235
-0.0304634 -0.0239353 0.112013
-0.0284597 -0.0515099 0.136884
-0.0373836 -0.0315731 0.828053
0.0117833 -0.0730042 0.823139
0.0391047 -0.0129725 0.0862633
-0.174495 -0.0540322 0.500186
-0.0411641 -0.03226 0.176164
-0.0228763 -0.0809043 0.591162
0.0380049 -0.0349882 0.335595
-0.0607659 -0.0597548 0.373654
-0.00157136 -0.0335569 0.0897864
0.00329982 -0.0321947 0.144474
0.0355409 -0.0346921 0.360745
-0.042572 -0.0434579 0.520402
-0.044385 -0.0507336 0.64423
-0.0155409 -0.018588 0.414281
-0.0427788 -0.0570542 0.401432
0.00398669 -0.0232258 0.865471
0.0402551 -0.056303 0.309828
-0.000732809 -0.0288395 0.917134
0.0139386 -0.0294868 0.808426
-0.0653262 0.00477611 0.13853
0.0210681 -0.045243 0.584069
0.0106697 -0.0265253 0.568632
0.0530496 -0.0302826 0.112062
-0.040111 -0.034289 0.702554
-0.00393618 -0.0762774 0.283046
-0.018091 -0.0184593 0.143225
0.0201608 -0.0418421 0.691206
-0.0396408 -0.0678781 0.439957
-0.0241746 -0.0432749 0.170819
0.0171513 -0.0331415 0.466754
-0.00423241 -0.0189393 0.573972
0.000246558 -0.0415269 0.070361
0.0933626 -0.0508122 0.559234
0.0251551 -0.0495106 0.389533
0.018253 -0.0649739 0.369606
0.0256297 -0.0424064 0.392387
0.0277589 -0.0304065 0.0949045
0.0124575 -0.0609176 0.224287
0.102834 -0.0438053 0.519152
0.0419334 -0.0317407 0.106061
0.0196645 -0.0398643 0.739575
-0.0418477 -0.0605402 0.413531
-0.15805 -0.0438053 0.527309
-0.174561 -0.0540322 0.506678
0.0464664 -0.0464055 0.311061
-0.0350806 -0.0289806 0.546619
0.00323255 -0.036451 0.0720336
-0.022567 -0.0786333 0.339839
0.0197882 -0.040872 0.387091
-0.0622908 0.0609461 0.103894
-0.00412523 -0.0188559 0.0662479
0.0791708 -0.0415045 0.103303
-0.0417591 -0.0451894 0.277721
0.0178207 -0.0540322 0.536968
-0.0351759 -0.0713609 0.82554
-0.0418262 -0.0405033 0.774756
0.0376661 1.85128e-05 0.131168
0.0103847 -0.0658511 0.905278
0.225155 -0.0438053 0.495938
0.000202286 -0.020102 0.611007
-0.0611994 -0.0349305 0.12357
-0.300722 -0.0448488 0.478675
0.0134425 -0.0363302 0.188522
0.0371031 -0.0438053 0.566234
-0.0920726 -0.0275993 0.096954
-0.0060362 -0.0185523 0.488536
-0.0670303 -0.0396179 0.352695
0.0219337 -0.0482484 0.772031
-0.00102221 -0.0540322 0.539459
0.0534723 -0.0540322 0.558284
-0.0656471 -0.0383592 0.33012
-0.0372285 -0.0701705 0.558826
-0.0304442 -0.0453257 0.936357
-0.0614416 -0.0287694 0.128647
-0.0593467 -0.0492098 0.399584
-0.0493222 -0.0515213 0.272635
-0.0616263 -0.0523585 0.38831
-0.190615 -0.0540322 0.497617
0.253332 -0.0540322 0.479566
-0.0607386 -0.0334529 0.105674
0.0350468 -0.0438053 0.557054
0.131396 -0.0438053 0.515597
0.0380525 -0.0123538 0.124652
-0.00695848 -0.0176403 0.164783
-0.0226467 -0.0225621 0.869702
-0.0440728 -0.0491186 0.584338
0.0726835 -0.0320746 0.114178
-0.0342931 -0.0296936 0.844295
0.0204701 -0.058127 0.609648
-0.0611379 0.0248864 0.0839397
-0.0299525 -0.0772113 0.689615
0.0117898 -0.027502 0.715629
-0.0286777 -0.0253208 0.120789
-0.0359127 -0.0297749 0.626255
-0.0429526 -0.0564546 0.454073
0.0308647 -0.0308263 0.127703
-0.00952955 -0.0169367 0.145145
0.0181828 -0.0510898 0.542479
-0.0267891 -0.071041 0.907133
-0.0216734 -0.0352587 0.156102
-0.0522373 -0.0357729 0.168939
0.0205366 -0.0436652 0.387092
0.0388842 0.000492378 0.0859797
-0.039187 -0.0655201 0.839346
-0.0290066 -0.0348744 0.916633
0.0693191 -0.043443 0.122162
0.0207113 -0.0574884 0.46209
0.179256 -0.0540322 0.519947
0.0176261 -0.0483123 0.23661
-0.00888448 -0.0176695 0.305888
-0.024505 -0.0540322 0.53659
-0.0375113 -0.0672982 0.343714
0.231931 -0.0506606 0.507152
-0.00101418 -0.0269697 0.0297215
0.0169759 -0.0425097 0.879027
0.000675573 -0.0808059 0.694855
-0.107808 -0.0455676 0.50613
0.0276949 -0.0542118 0.371587
0.0383229 0.000575083 0.106614
-0.0408964 -0.0424985 0.317335
-0.0583982 -0.0393745 0.161677
0.00336365 -0.0804474 0.424357
0.0977534 -0.0539437 0.506195
0.00285804 -0.0206289 0.26254
0.00150967 -0.0804679 0.816924
-0.0695084 -0.0540322 0.556557
-0.0285411 -0.0234261 0.274661
0.0394182 -0.0554601 0.397368
-0.00476462 -0.0450421 0.0681687
0.0553067 -0.0438053 0.56759
0.00639293 -0.0245607 0.182952
-0.012782 -0.0838213 0.40762
-0.0437746 -0.045883 0.340596
-0.0199956 -0.0814302 0.785239
-0.0616016 0.00791576 0.111631
-0.0634431 -0.023004 0.184748
-0.0232688 -0.0456624 0.194175
0.295203 -0.0540322 0.474602
0.0412283 0.0136728 0.103669
-0.0644177 0.0183754 0.142404
-0.0525121 -0.0577677 0.382095
-0.01581 -0.0462894 0.976415
-0.060375 -0.0216054 0.0848711
-0.0399284 -0.0529913 0.278132
-0.0262975 -0.0624639 0.183955
-0.0281667 -0.0793351 0.475613
-0.0192912 -0.0820281 0.478367
-0.0112005 -0.0540322 0.522847
-0.0411282 -0.0385179 0.391969
-0.0192455 -0.0513022 0.0998324
-0.0329505 -0.0742121 0.690943
0.0412244 0.015796 0.102483
-0.0400853 -0.055181 0.869345
-0.0024006 -0.0189274 0.124827
0.036921 -0.0383889 0.292824
0.00865655 -0.0249253 0.365541
-0.0275774 -0.0212988 0.792472
0.00106671 -0.0202527 0.687799
0.0165329 -0.0540322 0.540083
-0.0315785 -0.0695224 0.293343
-0.00414072 -0.0186941 0.787326
-0.0197041 -0.0219952 0.0384581
-0.0349248 -0.0722569 0.667418
-0.0648324 -0.0338963 0.126643
0.0203622 -0.0587962 0.467362
-0.0418763 -0.0604673 0.449531
0.0619777 -0.0315668 0.11632
-0.0206966 -0.0212482 0.854618
-0.11133 -0.0438053 0.51941
-0.0300279 -0.0249623 0.266945
-0.000803877 -0.0491593 0.56246
0.0224682 -0.050923 0.537492
-0.0391344 -0.0540322 0.538553
0.202638 -0.0438053 0.495399
-0.119212 -0.0205498 0.104617
-0.0335185 -0.0282148 0.304118
-0.0553463 -0.0362202 0.137902
-0.0647963 0.0273952 0.104878
-0.00498775 -0.0188594 0.474665
0.0182109 -0.0343594 0.770201
-0.0344318 -0.0729751 0.555053
0.0290125 -0.0540322 0.53981
0.0951523 -0.0540322 0.553269
0.233301 -0.0473711 0.483668
0.017394 -0.0661199 0.355196
-0.042242 -0.0591388 0.488602
-0.0684078 -0.0494333 0.310982
-0.0646615 0.012345 0.109309
0.0126281 -0.0723626 0.820883
-0.0614571 -0.0326525 0.131647
-0.172603 -0.0540322 0.506996
-0.0244538 -0.0235792 0.87986
-0.00267167 -0.0193657 0.562082
0.0178102 -0.0561369 0.296188
-0.0555458 -0.0282737 0.155843
-0.124979 -0.0438053 0.528986
0.0463779 -0.0438057 0.52176
-0.0388987 -0.0326304 0.723792
0.00583116 -0.0359617 0.924081
0.0952777 -0.0540322 0.526425
-0.00723139 -0.0176205 0.127996
0.0399041 -0.0494296 0.388674
-0.0421245 -0.0417011 0.742007
0.340753 -0.0539164 0.454888
-0.0461152 -0.0232821 0.102472
-0.0558454 -0.0592282 0.391214
0.0141745 -0.0304621 0.362596
0.00322473 -0.0792809 0.361316
-0.0313978 -0.028014 0.163551
0.152849 -0.0438053 0.518308
0.000499047 -0.0540322 0.548837
-0.063442 0.0757382 0.0879446
-0.0618022 -0.0227389 0.138178
0.0489652 -0.0540322 0.544657
0.0146306 -0.0353488 0.16811
-0.00979708 -0.0202343 0.878835
0.0398498 -0.0430097 0.386548
-0.0161084 -0.0185242 0.54463
0.0313427 -0.0288592 0.113639
-0.00524219 -0.0298885 0.0952566
0.0149432 -0.0295462 0.0951067
-0.0366334 -0.0519361 0.210971
0.0648745 -0.0512598 0.569995
-0.00157899 -0.0745842 0.266161
0.0112771 -0.0421548 0.144925
-0.00983183 -0.0257422 0.914377
-0.0105167 -0.0169109 0.231264
0.0377558 0.0554748 0.0932026
0.0107329 -0.0461046 0.546558
0.00902648 -0.024861 0.61304
0.0168309 -0.0686995 0.487182
0.0402707 -0.0299935 0.160111
-0.00764515 -0.0434977 0.971361
0.0420441 0.00235709 0.0806767
-0.0330097 -0.0745329 0.389979
0.0417942 -0.0287569 0.109328
-0.0223884 -0.0198856 0.136616
-0.0126353 -0.0838365 0.442338
-0.0292243 -0.0782963 0.436098
0.0285757 -0.0289996 0.1161
0.00974068 -0.0540322 0.572563
-0.0327769 -0.0723369 0.347863
0.0198756 -0.036536 0.173648
-0.0646678 0.0675452 0.104783
0.00541728 -0.0374499 0.930252
-0.0125809 -0.0175356 0.607118
0.00329069 -0.0802018 0.625506
-0.0613126 -0.0365752 0.122737
-0.0981126 -0.0539444 0.505179
-0.0723661 -0.0463063 0.511678
-0.1829 -0.0450704 0.493915
-0.0106626 -0.0166382 0.161968
-0.0675182 -0.0485326 0.304096
-0.0322599 -0.0267401 0.337827
0.00905677 -0.0252051 0.391585
0.0262784 -0.0445845 0.153121
-0.0443745 -0.0502703 0.612174
0.0171552 -0.0343251 0.337782
0.0021891 -0.0636577 0.954774
0.0192469 -0.0384651 0.497168
0.0326438 -0.0540322 0.538135
-0.0620031 0.0304183 0.112365
-0.00522918 -0.0181598 0.181432
-0.00473808 -0.0794188 0.859757
0.171508 -0.0438053 0.520231
-0.031247 -0.0540322 0.525303
-0.0209101 -0.0812148 0.753662
-0.01525 -0.0827044 0.782507
-0.0379075 -0.0695831 0.499418
-0.0368252 -0.030769 0.504952
0.0379483 0.0172014 0.110033
-0.230717 -0.0540322 0.482999
-0.0438054 -0.053213 0.390525
0.222413 -0.0438053 0.499305
0.0160282 -0.038997 0.227089
-0.0102747 -0.0168367 0.190005
0.00072884 -0.0766286 0.879226
-0.0377607 -0.0694812 0.633496
0.0106559 -0.050416 0.159896
-0.0268597 -0.021159 0.821453
0.0177836 -0.0399136 0.294964
-0.0378141 -0.0695757 0.563187
-0.0370742 -0.0704655 0.396136
-0.206044 -0.0438053 0.503764
0.121594 -0.0540322 0.547042
-0.043233 -0.0460339 0.666287
0.0811832 -0.0438053 0.543762
-0.095172 -0.0437713 0.513482
0.0131501 -0.0290051 0.569443
-0.176081 -0.0540322 0.493276
0.0403673 0.0359531 0.12148
0.00812263 -0.0377961 0.17353
-0.0092537 -0.0172083 0.0952367
0.302804 -0.0540322 0.474043
0.0103284 -0.0261975 0.540279
-0.040812 -0.0643939 0.401232
-0.173796 -0.0438053 0.512703
-0.0353733 -0.0295252 0.405957
0.10789 -0.0540322 0.510713
-0.0454574 -0.048985 0.355901
-0.191216 -0.0521786 0.485983
-0.0178386 -0.082477 0.392315
0.0159348 -0.0679656 0.83297
-0.18081 -0.0540322 0.494015
-0.0625055 0.0825122 0.0983249
0.030083 -0.0335431 0.147195
0.0110342 -0.0740975 0.771143
-0.00209335 -0.0193671 0.7115
0.0030899 -0.0716738 0.912579
-0.0105856 -0.0171617 0.668787
-0.0108843 -0.0188766 0.858512
0.0246722 -0.0518127 0.343083
-0.0419592 -0.0426576 0.367626
-0.0438068 -0.0528418 0.796627
-0.0344918 -0.0728514 0.585402
-0.0363167 -0.0531593 0.910692
0.0383252 0.0010083 0.10626
-0.00602963 -0.0496737 0.558154
-0.118573 -0.0205914 0.088287
-0.0200537 -0.0817475 0.545068
0.0852731 -0.0540322 0.515005
0.000665917 -0.0809008 0.627829
-0.0349691 -0.0433352 0.165074
0.000367339 -0.0495352 0.570429
-0.0293328 -0.0778756 0.649445
-0.00476786 -0.0824989 0.552389
-0.02739 -0.0412431 0.19093
-0.0602447 -0.0540322 0.54323
0.00803701 -0.0339682 0.112201
-0.010006 -0.0840321 0.380507
-0.018659 -0.0360901 0.0378837
-0.0803074 -0.046797 0.509719
0.00474016 -0.0216257 0.38997
0.021344 -0.0546948 0.73308
0.0645311 -0.0438314 0.521277
0.0178494 -0.0422008 0.862591
0.0219242 -0.0503514 0.363121
0.0117647 -0.0277056 0.490146
-0.022896 -0.0501431 0.527074
0.0679063 -0.0540322 0.540092
-0.0187503 -0.0540322 0.544948
0.103764 -0.0438053 0.522113
0.0175942 -0.0675849 0.712472
-0.0267563 -0.0800739 0.41181
0.0285978 -0.0347303 0.156323
0.037262 -0.0583097 0.327944
0.046179 -0.0518562 0.395212
0.0214288 -0.0462697 0.808307
0.0163309 -0.0357284 0.27862
-0.0584553 -0.057887 0.301645
-0.0066368 -0.080214 0.334142
0.220327 -0.0540322 0.49577
-0.041043 -0.0631553 0.717205
-0.0271658 -0.0396815 0.0920289
-0.0509774 -0.0540322 0.519811
0.00048693 -0.0721973 0.237004
0.0297808 -0.0318741 0.135638
-0.0209869 -0.0239385 0.896977
-0.0148283 -0.0179718 0.0721252
0.0415567 -0.00802319 0.105126
-0.0390711 -0.038357 0.857667
-0.0524613 -0.0384643 0.357171
-0.00665237 -0.0179179 0.0920105
0.0843341 -0.0438053 0.547002
-0.0163476 -0.0185927 0.538193
-0.00123317 -0.0340795 0.0384498
0.0348293 -0.0427102 0.278719
-0.0283338 -0.0236469 0.224577
0.140894 -0.0540322 0.528988
-0.00310523 -0.0191374 0.68624
0.0403662 -0.00917356 0.14971
0.0832494 -0.0540322 0.54935
-0.0845668 -0.0438225 0.516481
0.0218934 -0.053061 0.445634
0.0213432 -0.0434683 0.338108
-0.0277168 -0.0793846 0.760351
-0.0407608 -0.0646576 0.478716
-0.0375422 -0.0699506 0.49486
-0.0623866 -0.0156959 0.155302
-0.02882 -0.0540322 0.53431
-0.0710452 -0.022275 0.12199
0.0059214 -0.0215274 0.775646
-0.0203233 -0.0453124 0.0772191
0.0130592 -0.029468 0.343705
-0.0141697 -0.0180051 0.543871
0.0139164 -0.0391029 0.182985
0.0272416 -0.0395385 0.305514
0.0376034 0.0241265 0.118415
0.22566 -0.0438053 0.49931
-0.00418885 -0.0468537 0.539364
-0.0414983 -0.039548 0.624661
0.00367321 -0.0212611 0.210115
0.00766631 -0.0240046 0.354688
0.00649058 -0.0673451 0.227129
-0.0214209 -0.0693414 0.211575
-0.0301297 -0.0715831 0.301662
0.0290529 -0.0377726 0.300651
-0.0578343 -0.0564196 0.293582
-0.0302458 -0.0240994 0.644152
0.127256 -0.0438053 0.531397
-0.00099792 -0.0197901 0.596929
-0.0111421 -0.022861 0.903473
-0.0453548 -0.0284658 0.151759
0.0175908 -0.0520461 0.891288
0.0423092 -0.034365 0.0938577
-0.0188676 -0.0813435 0.367178
-0.19857 -0.0438053 0.510494
-0.0112442 -0.084185 0.477419
-8.25673e-05 -0.0195144 0.174189
-0.0271697 -0.0214556 0.591492
-0.0158749 -0.0182049 0.766944
-0.0386305 -0.0377587 0.268231
-0.0295128 -0.0261699 0.161625
-0.0403344 -0.0594093 0.333661
0.0193283 -0.0387726 0.608598
-0.0376401 -0.0377901 0.226445
0.188571 -0.0438053 0.514435
-0.0623851 -0.00395947 0.0832068
-0.0657293 -0.0321715 0.156475
-0.00489772 -0.0473854 0.547846
0.0104802 -0.0262268 0.696139
-0.0129981 -0.0280541 0.107611
0.041194 -0.0438053 0.557693
0.106054 -0.0540322 0.540634
-0.017477 -0.0218669 0.882847
0.0329642 -0.0565138 0.39796
0.0337957 -0.0571755 0.307825
-0.0647265 0.0419773 0.0931899
-0.0249599 -0.0209435 0.327069
-0.0164041 -0.0186954 0.337379
0.0014042 -0.0206639 0.426004
0.189456 -0.0540322 0.498164
0.0147498 -0.0540322 0.550164
0.0214721 -0.0467573 0.591128
-0.0970624 -0.0246419 0.128899
-0.00445376 -0.0187976 0.673095
0.33575 -0.0525129 0.456801
-0.01145 -0.0540322 0.541495
0.025583 -0.0418276 0.364379
0.0178341 -0.0673059 0.760847
-0.020464 -0.0812724 0.819679
-0.0132632 -0.0764753 0.265884
0.0402607 0.0505968 0.0776973
0.0179222 -0.0433112 0.301188
0.0378668 -0.0183809 0.142008
-0.00980887 -0.0701379 0.199399
-0.160977 -0.0438054 0.502237
-0.0202284 -0.0606928 0.148437
0.268933 -0.0540322 0.479334
0.0204812 -0.0582875 0.398081
-0.0197087 -0.0194679 0.57497
-0.0386252 -0.0324801 0.641176
-0.0142415 -0.0455324 0.543319
-0.0209182 -0.0199943 0.432652
0.0203629 -0.0586344 0.579117
-0.0147188 -0.0180911 0.301934
-0.0279768 -0.0217241 0.714845
0.0182671 -0.0347581 0.551161
0.0772435 -0.0540322 0.533385
0.0153766 -0.0697964 0.720043
-0.0328394 -0.0269485 0.426371
0.028879 -0.0285453 0.0991464
-0.0108805 -0.0671714 0.175883
0.0154574 -0.0663681 0.855995
0.313414 -0.0481861 0.47887
0.0162739 -0.0525005 0.231294
-0.0625107 -0.0209374 0.163151
-0.00748916 -0.024725 0.907523
-0.0509477 -0.0514354 0.394963
0.0173454 -0.0654474 0.837667
0.0200853 -0.0590683 0.821117
-0.042754 -0.0567706 0.766426
-0.0674035 -0.0399344 0.382553
-0.0228149 -0.0526329 0.547678
-0.0402379 -0.0348115 0.501101
0.0185512 -0.0358384 0.572404
-0.0280324 -0.079241 0.61853
-0.0246586 -0.0801942 0.770897
-0.104308 -0.0216155 0.0933364
-0.0567509 -0.0540322 0.519545
-0.0268459 -0.0569135 0.956521
-0.0999699 -0.0540322 0.545355
-0.160961 -0.0468591 0.530904
0.0150227 -0.0705299 0.440333
-0.0324931 -0.0495908 0.931864
-0.0502274 -0.0480953 0.513862
0.0931491 -0.0421704 0.100526
-0.0398199 -0.0399141 0.298398
-0.0070629 -0.0360973 0.943284
-0.0434166 -0.0542981 0.781405
-0.0616053 0.00672913 0.112506
-0.0642129 0.0149105 0.0911884
-0.0455784 -0.0375336 0.141918
-0.25134 -0.051964 0.473226
-0.0402549 -0.0661726 0.636843
-0.0979547 -0.0540322 0.530114
0.040542 -0.00814452 0.142589
-0.0150747 -0.078438 0.304814
0.0212613 -0.0554285 0.53723
-0.0344246 -0.0296524 0.154264
0.016826 -0.0687397 0.412972
-0.0815606 -0.0456671 0.561517
0.00570624 -0.0363024 0.925591
-0.0667132 -0.046982 0.384448
-0.095747 -0.0540322 0.524169
0.0378883 -0.0540322 0.531186
-0.00409973 -0.0431399 0.15917
0.0109116 -0.0543011 0.928841
0.0964123 -0.0438053 0.53104
-0.0412428 -0.0384591 0.723333
0.0375 0.00695822 0.132844
-0.0239337 -0.0358275 0.936173
0.00618804 -0.0729236 0.29304
0.166271 -0.0540322 0.504356
-0.0229666 -0.0806055 0.815743
-0.00833788 -0.0653854 0.167896
0.00884001 -0.0540322 0.573584
0.0117586 -0.0580103 0.202171
0.148698 -0.0540322 0.509486
-0.0109911 -0.0495946 0.546086
-0.0273182 -0.0214252 0.672995
0.17134 -0.0540322 0.500026
0.332357 -0.051546 0.458236
-0.0305736 -0.0698036 0.893899
-0.233296 -0.0540322 0.4916
-0.0147926 -0.0547993 0.111435
-0.0152767 -0.0371517 0.123086
-0.0253136 -0.0702239 0.918475
-0.0260556 -0.0802608 0.413127
-0.32369 -0.0486086 0.47165
-0.00746031 -0.0692052 0.197204
-0.228992 -0.0540322 0.488933
-0.0579113 -0.0365342 0.334337
-0.0243621 -0.0205096 0.748301
-0.00928578 -0.017348 0.76757
-0.0351656 -0.0539197 0.530885
-0.0166631 -0.0758791 0.270888
-0.00200329 -0.0194465 0.290384
0.0115701 -0.027389 0.646018
0.00606304 -0.021829 0.685066
0.00835636 -0.0740349 0.849738
-0.0114779 -0.0800515 0.315149
-0.0406056 -0.0646161 0.820476
-0.0700193 -0.0438053 0.527267
0.0394123 -0.0576361 0.368795
0.00377458 -0.0255412 0.0855388
-0.0286798 -0.0247985 0.186842
-0.00933854 -0.0382684 0.142886
0.189012 -0.0540322 0.490545
-0.0339773 -0.0421823 0.150743
0.0201336 -0.0592118 0.71919
-0.0401549 -0.0455312 0.240741
0.0183098 -0.0349397 0.688875
-0.0345373 -0.0293979 0.278484
-0.0252565 -0.0360483 0.0717026
-0.0620469 -0.0148752 0.142285
0.274467 -0.0438053 0.485608
-0.0815489 -0.0484387 0.507785
0.0341858 -0.0330743 0.141717
-0.0182723 -0.0309996 0.0180924
