0.168511 -0.0438053 0.513172
-0.0354036 -0.0501923 0.918196
-0.0143918 -0.0467903 0.0724636
-0.0732438 -0.0540322 0.541796
0.000533888 -0.0807645 0.779476
0.019005 -0.0375561 0.598203
-0.012818 -0.0777526 0.284299
0.0290523 -0.0316467 0.13443
-6.84876e-05 -0.0540322 0.542368
-0.0126774 -0.0671923 0.179115
-0.0280575 -0.0791259 0.665414
0.0397627 0.010075 0.151841
-0.0439824 -0.0320678 0.102692
0.0394851 0.0622135 0.0771572
0.179034 -0.0527621 0.48988
0.0171407 -0.0328039 0.743259
-0.0035408 -0.0191214 0.578606
-0.123561 -0.0438053 0.51034
0.0286073 -0.039188 0.11399
-0.0536337 -0.0560742 0.290419
-0.0182578 -0.0187937 0.797258
0.00786074 -0.0236802 0.644516
0.0209906 -0.0447578 0.760918
0.0301958 -0.0513117 0.514807
-0.0315479 -0.0515027 0.151305
0.00429708 -0.0759997 0.313704
-0.0334318 -0.0739974 0.544466
-0.0391503 -0.0359154 0.3182
-0.293742 -0.0540322 0.478961
-0.0623626 0.016808 0.13411
-0.0159541 -0.0185022 0.0546377
-0.0583339 -0.0378345 0.308408
-0.0145763 -0.0180154 0.670364
0.0328819 -0.0438053 0.563662
-0.0847416 -0.0203481 0.115761
-0.0408941 -0.037018 0.777299
-0.0388655 -0.0513078 0.23859
-0.103779 -0.0170482 0.10274
-0.066097 -0.0577552 0.354807
-0.0232104 -0.0540322 0.543966
-0.0899323 -0.0438053 0.516616
0.07235 -0.0540322 0.553328
0.0284899 -0.0380251 0.323856
-0.0505429 -0.0542455 0.508962
-0.0247385 -0.0208507 0.52438
0.018572 -0.0504876 0.303179
-0.0348714 -0.0284793 0.820244
0.0891626 -0.0540322 0.530648
0.0207787 -0.0571735 0.394183
0.0479353 -0.0449642 0.37225
0.0188907 -0.0639575 0.627932
0.0324761 -0.0438053 0.529774
0.0215356 -0.0539784 0.679116
0.00679018 -0.0487086 0.57337
0.00028871 -0.0369885 0.0541131
-0.00312455 -0.0341419 0.0950354
0.00426761 -0.0518342 0.519339
-0.0316235 -0.0268091 0.841404
0.119459 -0.0540322 0.530386
-0.0570879 -0.0438053 0.566817
0.162528 -0.0540322 0.508323
-0.0173563 -0.0727792 0.926477
-0.303609 -0.0538643 0.458626
-0.0198741 -0.044607 0.180867
0.292067 -0.0540322 0.468528
-0.0204525 -0.0293719 0.0282869
-0.0245404 -0.0474925 0.961642
0.0359175 -0.0363133 0.30333
-0.0387718 -0.0684974 0.620498
0.0804332 -0.0391492 0.0860915
-0.0223312 -0.0349299 0.111247
0.021188 -0.0556983 0.45042
-0.0424886 -0.0435412 0.407232
-0.0374929 -0.0315249 0.462944
-0.0131616 -0.0599198 0.135016
0.106235 -0.0438053 0.534769
-0.0331985 -0.0438053 0.544457
0.0343029 -0.0355642 0.395002
0.00246577 -0.0208549 0.475612
-0.0429486 -0.0449017 0.693713
-0.0161455 -0.0180639 0.200034
-0.0307309 -0.024967 0.375921
-0.0417865 -0.0603807 0.724932
0.0154107 -0.0420837 0.197329
-0.0217825 -0.081116 0.634359
0.0323869 -0.0356495 0.0879115
-0.00270276 -0.0441461 0.967092
-0.0158897 -0.082798 0.579683
-0.0441316 -0.0520362 0.434286
-0.0299495 -0.0540322 0.562039
-0.0684845 -0.0301606 0.153446
0.0220822 -0.0524033 0.495642
-0.0839616 -0.0438053 0.548977
-0.0629149 0.0616902 0.114456
-0.065072 -0.0377466 0.346135
0.00472014 -0.0798423 0.612998
0.0125315 -0.0509804 0.183325
-0.164024 -0.0438053 0.512334
-0.0349891 -0.0372186 0.902935
-0.061029 -0.0596808 0.371504
0.00665861 -0.0261302 0.136431
-0.0320486 -0.0750656 0.750967
-0.0119267 -0.0762022 0.255846
-0.0175398 -0.0815321 0.827478
-0.0404821 -0.0656934 0.474281
-0.0260065 -0.0773602 0.334247
-0.040322 -0.0623648 0.834693
-0.0036697 -0.0822777 0.502626
0.0125263 -0.0467765 0.5597
-0.253804 -0.0463877 0.476586
-0.03707 -0.070115 0.663262
-0.0417915 -0.0603618 0.708178
-0.0543186 -0.0403127 0.29137
-0.0189104 -0.067829 0.195784
-0.128235 -0.0438053 0.528153
0.0303459 -0.0438053 0.552557
-0.222617 -0.0438053 0.494023
-0.00164479 -0.0194243 0.749888
-0.00589851 -0.0185221 0.531741
-0.0445795 -0.0233067 0.115123
0.0957569 -0.0428166 0.103672
0.00754923 -0.0282365 0.888838
-0.099999 -0.0540322 0.554154
0.00695835 -0.0228212 0.553678
0.0123561 -0.0296112 0.0946585
-0.0375742 -0.0311668 0.802468
0.00457882 -0.0215781 0.392316
-0.0945164 -0.0203351 0.120881
-0.0548962 -0.0578202 0.402145
-0.0255029 -0.0449749 0.096615
0.00701956 -0.0782269 0.647504
0.0105809 -0.0655688 0.252782
0.00903472 -0.0489547 0.141646
-0.00135922 -0.0812937 0.756019
0.113632 -0.0538491 0.500054
-0.0650598 0.0253222 0.115876
0.0120656 -0.0730949 0.735628
-0.0184966 -0.0189617 0.733884
0.0134127 -0.0528334 0.589456
-0.0391885 -0.0343988 0.340112
0.00621737 -0.0246215 0.171876
-0.0257531 -0.0803004 0.472802
-0.025907 -0.0209093 0.260269
0.0349589 -0.057417 0.306424
-0.0223434 -0.0229413 0.878477
0.150515 -0.045742 0.535821
-0.0411176 -0.038101 0.596797
0.0117588 -0.073784 0.460949
0.0406618 0.00307812 0.131169
-0.179078 -0.0540322 0.510208
-0.0319736 -0.026134 0.402034
0.0169634 -0.0674848 0.82689
0.0196491 -0.0613706 0.558544
-0.0429018 -0.0456914 0.374025
0.0424286 -0.0568668 0.336267
0.200051 -0.0438053 0.498129
-0.0912578 -0.0303367 0.115739
-0.0611813 -0.0596234 0.383639
0.00964315 -0.0758848 0.491989
0.0196578 -0.0410929 0.371772
0.0196521 -0.0487786 0.861918
-0.0258285 -0.0391228 0.142547
-0.0395358 -0.0399891 0.283404
0.0607862 -0.0540322 0.55618
-0.0308212 -0.0763381 0.695055
0.0296702 -0.0561525 0.384115
0.0251784 -0.0416965 0.349645
0.0196784 -0.0401246 0.657196
0.0389236 -0.0244254 0.146658
-0.0667017 -0.0541748 0.506082
-0.065145 -0.0377606 0.384692
-0.00506375 -0.0188586 0.344249
0.0204057 -0.0426586 0.72881
-0.0317575 -0.0753326 0.78076
-0.0262737 -0.0354675 0.0773716
-0.00288976 -0.0635196 0.971441
-0.00315352 -0.0191208 0.688465
-0.0269369 -0.0799606 0.505363
-0.239208 -0.0438053 0.490775
-0.0339334 -0.0278284 0.557173
-0.208378 -0.0438053 0.500598
-0.0122844 -0.08379 0.565958
-0.0425441 -0.0432347 0.754555
-0.051868 -0.0391496 0.33096
-0.00737973 -0.0755324 0.911445
0.0387505 -0.00902868 0.0968653
0.0384593 -0.0216612 0.137724
0.0638608 -0.0404112 0.103788
0.0705495 -0.0540322 0.525617
0.0176304 -0.0675542 0.7057
-0.00162422 -0.0214807 0.0583424
0.00886645 -0.0247968 0.495195
-0.0526309 -0.0438054 0.523573
0.0988464 -0.0438053 0.545137
0.00742074 -0.0780836 0.524721
-0.273782 -0.0531843 0.490397
0.204974 -0.0438053 0.511313
-0.061653 -0.0158292 0.128355
0.04186 0.0153008 0.0793761
-0.0598237 -0.0601091 0.337639
0.326173 -0.0536871 0.475699
-0.0537535 -0.0540322 0.557802
-0.0310018 -0.0514443 0.514393
-0.0204458 -0.0255802 0.116807
0.0352055 -0.03581 0.159234
-0.00421869 -0.0824586 0.453788
0.0420627 -0.0261001 0.0977781
0.0175124 -0.0470194 0.89059
-0.0390932 -0.061703 0.857244
0.0220229 -0.0491346 0.409252
-0.0608464 0.00606549 0.0849512
-0.0522684 -0.0263162 0.140352
-0.000802356 -0.026907 0.909156
0.0378671 0.0129617 0.115673
0.020645 -0.0573039 0.738442
0.0120525 -0.0277702 0.712518
0.0139466 -0.0714626 0.570005
0.26218 -0.0450925 0.495318
0.0171541 -0.0335534 0.831328
-0.0376476 -0.0319366 0.17202
0.300844 -0.0540322 0.483514
0.00302816 -0.021072 0.440368
-0.0555527 -0.0438053 0.53889
0.00153747 -0.0204497 0.625379
-0.0625925 -0.0180583 0.164365
-0.0410325 -0.0532961 0.309097
0.00934668 -0.0251932 0.588012
-0.101643 -0.0540322 0.526174
0.00456318 -0.0801536 0.384741
-0.00780074 -0.0177968 0.268047
0.0418764 -0.0547343 0.400733
-0.00222921 -0.0189951 0.119307
-0.00810756 -0.0802348 0.861037
-0.0375622 -0.0363126 0.234672
0.315459 -0.0540322 0.46015
-0.128581 -0.0260095 0.105253
-0.0376826 -0.0693787 0.815973
-0.0350347 -0.0533265 0.526308
0.0159614 -0.0477465 0.255394
-0.0316585 -0.0686331 0.894845
0.0500744 -0.0540322 0.573476
-0.0344411 -0.0310866 0.861001
-0.0846435 -0.052884 0.503725
-0.0376395 -0.0444809 0.19949
-0.00150629 -0.0197341 0.326224
0.0403432 0.0397491 0.120002
-0.011927 -0.0837243 0.651618
-0.00236283 -0.0190198 0.208711
-0.156066 -0.0479619 0.496171
0.0794132 -0.0438053 0.554217
0.133586 -0.0438053 0.521293
-0.0317453 -0.0254358 0.746966
0.0178512 -0.0339852 0.156819
-0.00313919 -0.0820895 0.538036
-0.00283627 -0.0801151 0.842036
0.0205487 -0.0434325 0.466209
-0.283753 -0.0438053 0.481447
-0.0368434 -0.0656846 0.312717
-0.00976462 -0.083978 0.405813
-0.0417065 -0.0609663 0.57679
0.0166923 -0.0684057 0.81272
-0.0387348 -0.0566148 0.272327
0.00288525 -0.03359 0.925936
0.0206916 -0.0290141 0.120404
-0.0384505 -0.0323363 0.576152
-0.00603372 -0.0474228 0.550745
-0.0217357 -0.0354585 0.157004
-0.0239464 -0.0378171 0.942587
0.172648 -0.0540322 0.518176
-0.0326804 -0.0748573 0.400285
-0.0121452 -0.0550454 0.109106
0.0575577 -0.0438053 0.54091
-0.0311901 -0.060973 0.928282
-0.0617778 0.0621935 0.0842071
-0.0327604 -0.0265815 0.673167
-0.0363675 -0.0711794 0.38097
-0.121134 -0.0540322 0.520394
0.119809 -0.0438053 0.527426
-0.105045 -0.0273931 0.102421
-0.0637462 -0.0211832 0.0965337
-0.0108624 -0.0388902 0.034602
-0.0302197 -0.0763197 0.825527
-0.0146809 -0.0178684 0.777054
-0.0196787 -0.0819152 0.491421
-0.00263817 -0.0359755 0.108092
0.0348177 -0.0348737 0.37098
-0.0441978 -0.0496494 0.653811
0.0219777 -0.048664 0.612217
0.0658395 -0.0415343 0.128779
-0.0328618 -0.0268478 0.484956
-0.0133363 -0.0540322 0.53137
-0.215949 -0.0540322 0.493693
-0.0190758 -0.0186909 0.151387
0.0168261 -0.0348874 0.314136
-0.0014025 -0.0757145 0.284888
-0.0110047 -0.0485242 0.575741
-0.0619406 -0.00212238 0.130394
-0.0183978 -0.082291 0.444436
-0.0303997 -0.0707222 0.293632
0.0128268 -0.0452842 0.539996
0.132135 -0.0540322 0.517186
0.0114641 -0.0275703 0.411581
0.0415671 -0.0540322 0.555051
-0.0395953 -0.0678941 0.502119
0.249877 -0.0438053 0.496143
-0.0641252 0.035042 0.0868136
-0.0302855 -0.0257247 0.218675
-0.0313315 -0.0272187 0.135527
-0.00885738 -0.0835711 0.37807
0.255003 -0.0540322 0.482727
0.0411061 0.0346449 0.0950722
-0.179362 -0.0438053 0.521354
0.0195664 -0.0396628 0.676122
-0.061679 0.00787238 0.114507
0.0401391 -0.00911306 0.158306
-0.0150338 -0.0182675 0.512232
-0.0405376 -0.0608452 0.349019
-0.0309983 -0.0505887 0.940628
0.0298117 -0.0366346 0.337441
0.0212146 -0.0459954 0.444075
-0.0224253 -0.020381 0.441797
0.0405874 0.0645964 0.0954636
0.0128484 -0.0723635 0.671966
-0.0312817 -0.0658775 0.239785
-0.0401038 -0.0342459 0.519626
0.0167621 -0.0665082 0.349511
-0.0160111 -0.0185967 0.476585
-0.00206483 -0.0345736 0.942523
-0.0339839 -0.0438053 0.556515
0.0380822 -0.029267 0.112911
-0.0423153 -0.0587978 0.547283
-0.0310329 -0.0271999 0.184587
-0.0258141 -0.0210317 0.294442
0.0125329 -0.0459735 0.16782
-0.0334937 -0.0278627 0.355168
-0.0280024 -0.079464 0.526751
-0.00714625 -0.0175822 0.143414
0.0887247 -0.0540322 0.548702
0.09586 -0.0484462 0.506163
0.0142472 -0.0604547 0.233369
0.0147768 -0.0402826 0.129045
0.0288408 -0.0553435 0.371732
-0.0125966 -0.0837443 0.545824
-0.0272046 -0.0796394 0.647005
-0.335804 -0.0509732 0.467343
0.0148891 -0.032485 0.847378
0.0171809 -0.0570917 0.876192
0.0194625 -0.0619863 0.58152
-0.0280329 -0.0722245 0.281893
0.156345 -0.0438053 0.516409
-0.175415 -0.0438053 0.498512
0.21118 -0.0540322 0.497321
0.0127951 -0.0558495 0.915532
-0.15509 -0.0438053 0.523263
0.0254304 -0.0447491 0.267106
-0.273958 -0.0517025 0.467423
0.183402 -0.0438053 0.506217
0.0380677 -0.00424019 0.11903
0.00946471 -0.025563 0.827264
-0.199253 -0.0540322 0.501016
0.0937926 -0.0438053 0.521372
0.0120816 -0.0280651 0.469889
0.0394741 -0.0230155 0.0789299
0.0211319 -0.0454733 0.575909
-0.0198164 -0.0815088 0.752703
-0.059041 -0.0367847 0.321602
0.00157966 -0.0664882 0.945694
-0.0669201 -0.034506 0.132036
0.0112582 -0.046366 0.551288
-0.111036 -0.0438053 0.524296
-0.0279317 -0.0217869 0.640638
-0.141461 -0.0438056 0.505967
-0.0393507 -0.0515157 0.252716
-0.0411567 -0.0382848 0.637143
-0.017236 -0.0527381 0.516136
-0.0113818 -0.01719 0.642204
-0.0584347 -0.0363254 0.368761
-0.00518232 -0.0825255 0.597181
-0.0197386 -0.0324591 0.102501
0.0398295 -0.0438193 0.140524
0.00612889 -0.0219419 0.658023
-0.0202259 -0.0206115 0.0713303
0.00688385 -0.0783 0.706858
0.229069 -0.0438053 0.496359
-0.0653529 -0.0579928 0.395881
0.0199045 -0.0408472 0.705965
0.0155825 -0.0345965 0.256677
-0.040231 -0.0454459 0.870403
0.0174799 -0.0603268 0.316889
-0.00822997 -0.0180828 0.425747
0.273587 -0.0540322 0.472034
-0.0249559 -0.0805556 0.412916
-0.237056 -0.0540322 0.499004
-0.0110746 -0.0171263 0.615261
-0.00150366 -0.0718044 0.227522
-0.0815283 -0.0540322 0.520022
-0.00645677 -0.0780869 0.301082
-0.0255483 -0.0801324 0.620859
0.000627348 -0.0204409 0.357567
-0.0181316 -0.0635685 0.163483
0.000438694 -0.0215597 0.096243
-0.0558007 -0.0379412 0.40041
-0.0423535 -0.0435881 0.825353
0.0120223 -0.0278968 0.528388
-0.0215743 -0.059219 0.973225
0.0119192 -0.0736419 0.422646
0.0778598 -0.0318028 0.10951
-0.0320011 -0.0265761 0.323018
-0.0250378 -0.0800409 0.372751
-0.0314396 -0.02531 0.608804
-0.193188 -0.047386 0.489599
-0.02297 -0.0792452 0.351288
-0.00106629 -0.0800082 0.354601
-0.0092534 -0.0833551 0.81347
-0.0423298 -0.0425567 0.707449
-0.0622515 0.0507467 0.108819
-0.0393479 -0.0524796 0.892778
-0.0402872 -0.038864 0.148438
-0.0341932 -0.073101 0.608667
0.0643907 -0.0541062 0.510025
-0.0209523 -0.0198024 0.573111
-0.011689 -0.0171925 0.700346
-0.0659377 -0.0476252 0.299449
0.0163332 -0.0351154 0.28683
-0.0155508 -0.0401324 0.0450931
0.0164585 -0.0689338 0.378343
0.0111586 -0.0270615 0.508223
-0.0292172 -0.0231699 0.500732
-0.0029551 -0.0187988 0.190221
0.00154855 -0.040417 0.13704
0.0157561 -0.0386999 0.882438
-0.028754 -0.0238642 0.239511
-0.0647934 -0.0195623 0.14746
0.000671871 -0.074658 0.901846
-0.0432911 -0.0462095 0.500361
0.0219212 -0.0484069 0.693265
-0.0682105 -0.0438053 0.558013
-0.0109535 -0.0718699 0.209701
-0.0617489 0.0310194 0.102613
-0.0180291 -0.0819559 0.786592
-0.0299279 -0.0594088 0.187474
-0.00169811 -0.0469664 0.530793
-0.0441108 -0.0489814 0.793251
0.0658055 -0.0438053 0.521839
0.0155279 -0.0384828 0.219618
0.0113654 -0.0741696 0.477172
0.271247 -0.0540322 0.489224
0.0382484 -0.0202399 0.123266
-0.112275 -0.0540322 0.531654
-0.00624617 -0.0503058 0.981749
0.11648 -0.043746 0.511081
-0.0538629 -0.0283229 0.155291
-0.0234836 -0.0243205 0.895783
0.0173669 -0.0569146 0.290055
0.0136039 -0.0296641 0.433428
0.131189 -0.0539411 0.497576
-0.0410797 -0.0630187 0.745691
-0.302405 -0.0453904 0.474217
0.0194883 -0.0557913 0.337589
-0.0134937 -0.0801225 0.324866
0.0166325 -0.0684763 0.799445
0.0186028 -0.0363838 0.405285
-0.0317265 -0.0416624 0.131987
0.00599021 -0.0227737 0.28522
-0.0440269 -0.0489828 0.622846
-0.0189845 -0.061031 0.148463
0.229373 -0.0540322 0.492014
-0.0382498 -0.0665324 0.844999
-0.156714 -0.0540322 0.534656
0.00283403 -0.0632714 0.179729
0.0079949 -0.0237619 0.684557
0.0274797 -0.0399563 0.288398
-0.0383738 -0.069147 0.436013
-0.0647229 0.0121313 0.147109
0.215819 -0.0438053 0.495161
0.0160666 -0.031685 0.768697
-0.000295158 -0.0479185 0.190693
-0.0283482 -0.0220826 0.722133
-0.0334705 -0.028423 0.264137
0.0543343 -0.0430624 0.127478
0.178947 -0.0438053 0.524165
0.00297416 -0.0206047 0.784812
-0.0118159 -0.0176061 0.405687
0.0121511 -0.0729976 0.750079
0.0199755 -0.060207 0.54301
-0.00659951 -0.0828774 0.611948
0.0197758 -0.0373964 0.106119
-0.0518106 -0.0540322 0.568832
-0.0880137 -0.0463247 0.559271
0.0295785 -0.0465515 0.165171
0.0423036 -0.0568312 0.378698
0.0192428 -0.0630049 0.52499
0.0179335 -0.0334835 0.807342
0.037897 0.0527185 0.0897262
0.0456248 -0.0536069 0.350773
-0.0106932 -0.0841833 0.468658
-0.00134916 -0.0194905 0.82153
0.0223487 -0.0509462 0.775119
-0.0209209 -0.0195765 0.755037
-0.0112068 -0.0838549 0.710867
0.0404394 -0.0365193 0.313931
0.00204076 -0.0734343 0.263297
-0.0472557 -0.0510975 0.364115
-0.0623484 0.0684028 0.101352
-0.0704303 -0.0511431 0.342794
0.019494 -0.0393403 0.554473
-0.115792 -0.0532079 0.498282
-0.0627619 -0.0293437 0.167636
0.0156554 -0.0698943 0.446532
-0.0266761 -0.0257871 0.0973281
-0.0288734 -0.0423348 0.111015
0.0171655 -0.034169 0.340348
0.0184175 -0.0656167 0.725265
0.00287349 -0.0208437 0.311396
0.146808 -0.0464008 0.50076
-0.0579479 -0.0211361 0.107655
0.0418069 0.00251381 0.0893167
-0.00369274 -0.0220073 0.88146
0.00680282 -0.0419435 0.109371
-0.00382697 -0.0540322 0.56586
-0.0639624 -0.00392685 0.0937188
-0.0399983 -0.0438053 0.530621
-0.0441187 -0.0516773 0.73736
-0.0428815 -0.0566726 0.403131
-0.0118038 -0.0752757 0.240589
-0.0415496 -0.0616202 0.557326
0.0046441 -0.0432586 0.0952
0.00721203 -0.0779897 0.684715
-0.00568051 -0.0185382 0.592789
0.0302355 -0.0412456 0.127567
0.0447351 -0.0469588 0.300202
-0.00226898 -0.0438455 0.163149
0.000752807 -0.0810854 0.513058
0.0219733 -0.0523444 0.664453
0.0954517 -0.0352017 0.0950831
0.0164816 -0.0445936 0.52476
0.17603 -0.0540322 0.501496
-0.0226879 -0.0540322 0.575024
0.0145129 -0.0303437 0.620911
-0.0955225 -0.0247445 0.0933818
-0.0177055 -0.0425986 0.162621
-0.0420991 -0.0416624 0.720386
0.130017 -0.0540322 0.534661
-0.0409193 -0.0375392 0.448696
-0.0347438 -0.0295221 0.29132
-0.0425198 -0.0469547 0.338514
-0.125869 -0.0540322 0.532064
-0.0259237 -0.0801296 0.568928
-0.00275331 -0.0193755 0.0751789
-0.00099056 -0.0427936 0.0704719
-0.0576199 -0.0469942 0.39076
-0.021035 -0.0198483 0.538952
0.0263844 -0.0469568 0.39859
-0.0630452 -0.0121083 0.177562
0.0163922 -0.0669397 0.839277
0.0164527 -0.0368961 0.269204
-0.0153328 -0.0181355 0.720714
0.0165598 -0.043483 0.150567
0.119269 -0.0540322 0.510415
-0.0437112 -0.0477705 0.585882
0.00032001 -0.0201671 0.562512
-0.0303543 -0.0724014 0.867507
0.0358083 -0.0540322 0.532281
0.0402151 0.0791811 0.0797784
-0.0187853 -0.050534 0.587518
-0.0382426 -0.0325387 0.366574
0.203329 -0.0540322 0.517382
-0.016506 -0.0434434 0.969816
-0.0303044 -0.0768668 0.680357
0.286885 -0.0540322 0.483382
-0.0577667 -0.0597306 0.325463
0.0223301 -0.051016 0.797817
0.164965 -0.0438056 0.501908
0.00376965 -0.0209562 0.700426
-0.0720649 -0.02074 0.106887
0.0615098 -0.0298053 0.099766
-0.324384 -0.0540322 0.458106
0.0258343 -0.0408607 0.362912
0.0425146 -0.0406103 0.0901871
0.0128854 -0.0349364 0.184733
-0.0142049 -0.0540322 0.556614
-0.126385 -0.053956 0.498184
0.0065924 -0.0226023 0.457428
0.0271066 -0.0522449 0.280417
0.337852 -0.0540322 0.468111
-0.0111072 -0.016928 0.256604
0.120456 -0.0520391 0.549367
-0.00150068 -0.0815729 0.579177
0.0455457 -0.0333998 0.137947
-0.0177355 -0.0188373 0.685346
-0.0612473 -0.0249716 0.119109
-0.0117379 -0.0838241 0.625564
-0.00560725 -0.0187449 0.0443759
0.0413667 0.00583742 0.103459
0.0135354 -0.0359214 0.898657
0.0204478 -0.0346695 0.087837
0.0211968 -0.05479 0.821664
0.0155654 -0.0317706 0.375476
-0.0776371 -0.0438053 0.538947
-0.0614458 0.00417079 0.108233
0.0803074 -0.0438053 0.523075
0.192346 -0.0540322 0.501992
0.141495 -0.0527839 0.541528
-0.0302088 -0.031556 0.123516
-0.00187767 -0.0192029 0.224479
0.0311739 -0.0415169 0.276179
0.00597817 -0.0238645 0.85125
-0.0440592 -0.0518997 0.781425
-0.0220731 -0.0782176 0.858329
-0.03296 -0.0706324 0.327191
-0.182476 -0.0540322 0.524291
0.0130994 -0.03147 0.208275
-0.0420619 -0.0597703 0.444641
-0.0333718 -0.0436957 0.178675
-0.0269164 -0.0210965 0.807845
-0.0270141 -0.052811 0.136275
-0.0970218 -0.0315608 0.127406
-0.0370563 -0.0540949 0.904958
-0.0189162 -0.0761789 0.897934
-0.0606484 -0.0475898 0.512476
0.247225 -0.0438783 0.483064
-0.0619822 0.0791685 0.081127
-0.0683813 -0.040914 0.360346
-0.000693696 -0.051678 0.10712
0.0378535 0.0282084 0.106643
0.0151971 -0.0610176 0.262115
0.0198233 -0.0607559 0.41197
-0.0605914 -0.0356223 0.101605
0.0859445 -0.0528672 0.562488
-0.0610812 0.0189987 0.0855225
-0.0236416 -0.0807671 0.555137
-0.0435027 -0.0469495 0.514531
-0.0635283 -0.0540322 0.550148
0.0382415 0.0175173 0.13609
0.0181685 -0.0344778 0.64474
0.0118364 -0.0571352 0.197281
-0.0297447 -0.040802 0.932227
-0.0295275 -0.0361328 0.919028
0.00887609 -0.0664861 0.909603
0.0182403 -0.0347105 0.496539
-0.0246785 -0.0438053 0.53559
-0.0135174 -0.0339424 0.0172497
-0.0535631 -0.0587395 0.354805
-0.0124744 -0.0172261 0.808223
0.00754917 -0.0360242 0.165954
0.0382628 -0.0496592 0.389876
-0.0358755 -0.030061 0.38997
-0.246388 -0.0540322 0.482201
-0.117575 -0.0198072 0.101856
-0.0315462 -0.0234377 0.108979
0.0389708 -0.03515 0.383732
-0.0133083 -0.0367541 0.13904
-0.0428857 -0.0444737 0.768313
0.0276141 -0.0540322 0.548766
-0.0408976 -0.0480655 0.324093
0.0207839 -0.0441886 0.590923
0.293116 -0.0441945 0.475789
0.0212995 -0.0460619 0.536249
0.00706952 -0.0745482 0.327087
0.0136052 -0.0717143 0.612671
0.0158944 -0.0531348 0.901786
-0.00869768 -0.0172211 0.129612
-0.0401834 -0.0663628 0.673787
-0.0265623 -0.0236132 0.86642
-0.0344118 -0.0726928 0.762604
-0.00436403 -0.0372418 0.117902
-0.0406967 -0.0367601 0.433934
-0.0167915 -0.0183882 0.24204
0.0130653 -0.0286536 0.785735
-0.0398519 -0.0336569 0.682207
-0.00312848 -0.0540322 0.575428
-0.048836 -0.054227 0.316583
-0.0327278 -0.0267848 0.451158
0.00969773 -0.0756501 0.599207
-0.162692 -0.0540322 0.50175
-0.0180603 -0.0819936 0.737447
0.00176875 -0.080892 0.399568
0.0200164 -0.0600806 0.460661
0.00163588 -0.0629677 0.958744
-0.0625946 0.0302513 0.134257
0.00846819 -0.0742647 0.342234
0.0673919 -0.0379892 0.0849006
0.0148472 -0.0707288 0.391294
0.0633847 -0.0540322 0.543463
0.0456942 -0.0409385 0.398001
-0.219503 -0.0484838 0.482983
0.0373754 0.000663979 0.142644
0.0155685 -0.0695701 0.762569
-0.0474544 -0.0333337 0.113431
0.00775345 -0.024153 0.345125
-0.0390563 -0.0275938 0.14228
-0.00774636 -0.0182868 0.378349
-0.0421956 -0.0421364 0.609982
-0.00164641 -0.021667 0.864527
-0.0619852 0.00886115 0.125169
-0.0181897 -0.0185685 0.18724
0.0507858 -0.0391171 0.101672
-0.0168687 -0.0495688 0.0879008
-0.0350001 -0.02886 0.631246
0.0416748 -0.0438057 0.522061
-0.0317955 -0.0264933 0.303862
0.0185151 -0.0653083 0.642406
-0.042131 -0.0595804 0.518187
-0.0406248 -0.0363472 0.475114
0.0391493 -0.0459923 0.156143
-0.0256144 -0.0803467 0.459598
-0.0205206 -0.0318471 0.140465
-0.0358122 -0.0540322 0.551524
-0.00997954 -0.0173427 0.655853
0.0102594 -0.0748601 0.786115
-0.0147928 -0.0180507 0.287961
0.0721696 -0.0331512 0.122011
-0.0650103 -0.0133843 0.138251
-0.0433555 -0.0542805 0.820758
-0.0229694 -0.0382558 0.0612732
0.0193015 -0.0554172 0.849369
0.0199968 -0.0412259 0.564257
-0.0428352 -0.0406836 0.177872
0.0165226 -0.0347948 0.300398
-0.028833 -0.023074 0.82872
-0.261698 -0.0540322 0.485983
-0.0155911 -0.0179027 0.114643
-0.0249622 -0.0805398 0.433263
-0.0377913 -0.0315697 0.697377
-0.0421478 -0.0590315 0.66153
0.00899362 -0.0540322 0.531752
-0.0261155 -0.0209407 0.771976
0.030917 -0.0370575 0.0978016
-0.0430962 -0.0554934 0.758022
-0.0471169 -0.0517974 0.282361
-0.0405549 -0.0357152 0.791591
-0.0596656 -0.048301 0.283746
0.0289752 -0.0419222 0.387818
-0.0389868 -0.0396786 0.260442
-0.0436458 -0.0538349 0.419014
-0.0233797 -0.0217231 0.849971
-0.0243403 -0.0206761 0.622192
-0.0563797 -0.0346689 0.127562
0.0436154 -0.0373942 0.362692
-0.0955421 -0.0479562 0.505788
-0.0219058 -0.0730484 0.248207
-0.188708 -0.0438053 0.499542
-0.0302683 -0.0646914 0.221957
-0.0289661 -0.0225691 0.796441
-0.0415125 -0.0615745 0.609627
0.0124334 -0.0281159 0.732409
0.0127014 -0.0727416 0.55392
-0.00928756 -0.0177721 0.440241
-0.0449273 -0.0437077 0.311798
0.00360997 -0.0258611 0.0824949
-0.0126417 -0.0177121 0.466806
0.0172025 -0.0508165 0.243076
0.040944 -0.0122057 0.130319
0.03762 0.0397696 0.108028
-0.0298814 -0.0267296 0.152677
-0.218256 -0.0438053 0.507216
-0.019012 -0.0210661 0.042543
0.166292 -0.0438053 0.525581
-0.0415031 -0.039382 0.742124
-0.0616843 -0.0375329 0.150499
0.00874608 -0.0765511 0.623363
0.10305 -0.0540322 0.527072
-0.0393213 -0.0332205 0.547863
0.0185406 -0.0358347 0.610678
-0.0494163 -0.0548884 0.33258
-0.0782478 -0.0453918 0.511563
-0.0212332 -0.0366886 0.123009
0.0137402 -0.029307 0.797856
-0.00857241 -0.0271388 0.105485
0.0181375 -0.0671247 0.494578
-0.0203003 -0.0817317 0.515793
-0.0505471 -0.0284378 0.0925752
0.0436484 -0.0351868 0.150686
0.0377524 -0.0387456 0.10601
-0.105756 -0.018878 0.11664
-0.0359502 -0.0711968 0.710247
0.0414076 0.0300139 0.0868455
-0.078365 -0.0298248 0.144692
0.0415274 -0.0438053 0.547276
-0.0240071 -0.0770405 0.320645
-0.0704644 -0.0508904 0.365952
0.0459461 -0.0540542 0.51691
0.109395 -0.0438053 0.549757
-0.0395286 -0.0334923 0.495411
-0.0323906 -0.0729296 0.35067
-0.0108605 -0.0842788 0.395443
-0.0196946 -0.074086 0.91202
-0.0410563 -0.0450706 0.292989
-0.0330966 -0.0407005 0.157499
0.18872 -0.0458702 0.493992
-0.0674363 -0.0438053 0.544949
-0.00221977 -0.0540322 0.55708
-0.000828631 -0.019929 0.498448
-0.02739 -0.0240344 0.162219
-0.00549783 -0.0574116 0.126848
0.19253 -0.0438053 0.514476
0.0304048 -0.027759 0.106893
0.105323 -0.0423674 0.0954188
-0.0106383 -0.0178882 0.838418
-0.0938554 -0.0186629 0.108788
0.000698863 -0.040048 0.952844
0.0427819 -0.0452019 0.575974
-0.0229286 -0.0540322 0.532427
0.020044 -0.0596931 0.616567
-0.0143859 -0.0452272 0.539618
0.00870823 -0.0441814 0.933685
-0.153434 -0.0438053 0.506369
0.0402308 -0.0219682 0.162697
-0.00747309 -0.0540322 0.544335
-0.0479954 -0.0469778 0.397319
-0.00202116 -0.0815619 0.659307
-0.016828 -0.0823887 0.668225
0.0155485 -0.0700066 0.435129
-0.0140303 -0.0831239 0.68361
-0.0539705 -0.0375663 0.388778
0.0101171 -0.0259851 0.542518
0.0421532 -0.0184845 0.0896853
-0.134325 -0.0540322 0.518296
0.0186814 -0.0362545 0.716568
0.00789429 -0.0772377 0.770762
0.000563562 -0.0300317 0.0431261
0.0397135 0.0638039 0.106947
0.10775 -0.0438053 0.523187
-0.142208 -0.0540322 0.538177
-0.0647827 0.0196145 0.109232
0.00862642 -0.024282 0.747619
-0.314786 -0.0478445 0.464097
-0.0616834 -0.0235857 0.134327
0.22287 -0.0487296 0.484447
-0.0644343 -0.0540322 0.524748
0.134618 -0.0438053 0.533001
-0.0219968 -0.0207339 0.838179
-0.0277397 -0.0794117 0.704972
0.014509 -0.0540322 0.553814
0.0891844 -0.0408752 0.0935466
0.0876048 -0.0438053 0.542375
-0.0896412 -0.0222058 0.131412
0.000558526 -0.0811692 0.46731
-0.000444821 -0.0202087 0.40461
-0.0651396 0.0360171 0.112136
-0.143061 -0.0438053 0.517328
0.0178403 -0.047652 0.317959
-0.0304829 -0.0708223 0.883602
-0.00969178 -0.0173432 0.067871
0.0253082 -0.0514695 0.294896
-0.0308655 -0.024794 0.512231
0.0216449 -0.05036 0.355886
-0.00982322 -0.0171673 0.78994
0.166849 -0.0540322 0.492465
-0.281184 -0.0540322 0.47653
-0.0640139 0.0719589 0.090026
0.061501 -0.0540322 0.53218
-0.0406446 -0.0647377 0.631317
-0.00408933 -0.0712472 0.936887
0.0127192 -0.0286768 0.482204
-0.0156825 -0.0183802 0.587649
-0.03938 -0.0665458 0.358876
-0.0310345 -0.0249346 0.546479
-0.00684226 -0.0679059 0.18901
-0.0623356 0.032026 0.123605
0.0261015 -0.0526094 0.311623
0.0149831 -0.0702392 0.659187
0.0214259 -0.0464349 0.7407
-0.247392 -0.0462553 0.498061
-0.00274921 -0.032216 0.0258982
-0.104437 -0.0297157 0.118405
0.0182659 -0.0347761 0.574934
0.0235557 -0.0330257 0.147042
-0.0149421 -0.0805109 0.337215
-0.033348 -0.0722375 0.836101
0.0376816 0.00921799 0.12485
-0.00727589 -0.079244 0.872321
-0.00633703 -0.083034 0.442667
0.00337013 -0.0210844 0.336345
0.00788271 -0.0451545 0.527278
0.0143257 -0.0301498 0.635027
0.0999892 -0.0540322 0.540555
-0.0308899 -0.0764336 0.594736
-0.0401185 -0.0666051 0.698985
0.031653 -0.0550419 0.397127
0.158021 -0.0540322 0.522702
-0.0216089 -0.0316772 0.0399708
0.0187811 -0.0646546 0.42172
0.00706758 -0.0325653 0.10431
-0.036171 -0.0620836 0.254655
-0.00902984 -0.0833595 0.744948
-0.0317958 -0.0258779 0.439258
-0.039578 -0.0447964 0.227713
-0.263427 -0.0503623 0.470852
-0.014633 -0.0181809 0.328102
-0.0625 -0.0371031 0.333574
0.0184562 -0.0351497 0.818321
-0.0650928 0.062209 0.0940596
-0.012422 -0.0171177 0.21532
-0.164144 -0.0525373 0.490952
-0.0126405 -0.0170055 0.16466
-0.0299932 -0.0238829 0.568181
-0.0426831 -0.0574694 0.463739
0.0197791 -0.0401999 0.774945
-0.183148 -0.0540322 0.495725
-0.0393156 -0.0329909 0.755774
0.015334 -0.0314733 0.39584
-0.0350568 -0.0289352 0.59213
-0.00185099 -0.0813797 0.804921
-0.0899378 -0.0438053 0.53914
0.00262733 -0.0251972 0.898199
0.0567871 -0.0339437 0.135772
-0.0370312 -0.0701054 0.723072
0.209918 -0.0540322 0.508232
-0.0033083 -0.0755457 0.274083
-0.0356028 -0.0336856 0.109585
0.0400534 -0.0313062 0.126176
0.00901281 -0.076084 0.81425
-0.0653342 0.00351668 0.139614
-0.0232838 -0.068045 0.205812
-0.0352771 -0.0722288 0.467218
0.266264 -0.0540322 0.481159
-0.229855 -0.0438053 0.485108
0.0110667 -0.0741097 0.716043
-0.0365782 -0.0314459 0.277372
-0.0277666 -0.0677486 0.918578
-0.0256963 -0.0611283 0.956606
-0.0339319 -0.0540322 0.573567
-0.0410524 -0.0635828 0.493221
0.253612 -0.0540322 0.49656
0.0154717 -0.0515785 0.517236
-0.0269196 -0.0435165 0.951362
0.0421189 0.00104429 0.0787447
-0.246774 -0.0540322 0.473395
-0.0672961 -0.049677 0.382911
-0.211249 -0.0540322 0.503485
-0.101338 -0.0438028 0.513975
-0.113141 -0.0438053 0.513371
-0.00682854 -0.0182269 0.307396
-0.0317543 -0.0308081 0.893311
0.326754 -0.0540322 0.457542
0.0736794 -0.0540322 0.536121
0.0486377 -0.0438053 0.531909
-0.0301103 -0.0238261 0.732628
-0.0437108 -0.0253788 0.129208
0.0157727 -0.0385056 0.116041
0.0578108 -0.0412157 0.112661
-0.00870378 -0.0177776 0.521373
0.314337 -0.0540322 0.470857
-0.110535 -0.0525159 0.552556
-0.0522744 -0.0576307 0.344179
-0.145058 -0.0540322 0.496906
-0.0224699 -0.0388412 0.171495
-0.00175558 -0.0813883 0.76849
3.90573e-05 -0.0527474 0.973393
-0.267978 -0.0441528 0.490284
-0.0630502 -0.0285138 0.0907983
-0.0521765 -0.0497859 0.382406
-0.0401131 -0.0558223 0.866145
0.0114023 -0.0282336 0.27776
0.00495423 -0.079658 0.696418
0.051806 -0.0292924 0.105774
-0.00666026 -0.0183998 0.480717
0.0193258 -0.0622255 0.672679
0.00335756 -0.0484338 0.562018
0.280334 -0.0446931 0.47423
0.0955084 -0.0496926 0.558107
-0.00452653 -0.0187703 0.677881
-0.00743185 -0.0829533 0.721512
-0.0641474 -0.0540322 0.561098
-0.0519375 -0.0299423 0.165634
0.00574556 -0.0256308 0.878072
-0.0266189 -0.0214874 0.350101
-0.125061 -0.0231869 0.0950771
-0.00464398 -0.0182234 0.153741
0.0185755 -0.0358875 0.527852
0.00479018 -0.0540322 0.583445
-0.00920389 -0.0533953 0.584075
-0.0244725 -0.0635372 0.17935
-0.0329246 -0.0745669 0.497507
-0.021101 -0.0281879 0.128197
0.0141015 -0.0315453 0.141688
-0.249683 -0.0438053 0.485996
0.0255273 -0.0522829 0.344473
0.0199034 -0.0600703 0.698572
-0.0258527 -0.0661859 0.935775
-0.0264949 -0.021141 0.711768
-0.06558 -0.012564 0.158724
0.0218977 -0.0528238 0.602515
0.0102326 -0.0735885 0.833867
-0.0499534 -0.0416653 0.300874
0.214323 -0.0438053 0.505653
0.0150335 -0.0308973 0.551112
-0.00913602 -0.0174358 0.738463
-0.0675917 -0.0450061 0.392342
-0.0626245 0.0790621 0.104868
-0.0247693 -0.0540322 0.552876
-0.0363001 -0.0711089 0.554074
0.0695568 -0.0438053 0.557899
0.0109283 -0.0540322 0.544701
-0.040921 -0.0400081 0.351439
-0.105659 -0.0256953 0.0908276
-0.0401162 -0.0429165 0.273361
-0.0637199 -0.0140808 0.0911258
0.0120143 -0.0735022 0.515812
0.00248226 -0.0714224 0.916829
-0.12162 -0.0540322 0.507508
0.0706402 -0.0431217 0.119203
-0.0423122 -0.0586571 0.590546
0.0748374 -0.0539615 0.509567
-0.00179306 -0.0196101 0.549128
0.0108228 -0.0728763 0.355355
-0.0294873 -0.0238004 0.363912
-0.0145905 -0.0182145 0.338541
-0.0361031 -0.0322846 0.225153
-0.042899 -0.0450045 0.426688
-0.00905522 -0.0837812 0.415426
-0.203974 -0.0438053 0.509953
-0.0271624 -0.0305772 0.086515
0.158292 -0.0438053 0.529184
-0.0175926 -0.0191993 0.381588
0.043021 -0.0368297 0.338878
0.0180235 -0.0670874 0.741673
-0.0560896 -0.0243155 0.128343
-0.0384471 -0.0321886 0.718207
-0.0434445 -0.0546225 0.536125
0.0562671 -0.0438053 0.551191
-0.0112713 -0.0306639 0.114038
-0.0414625 -0.0619892 0.425397
-0.0311037 -0.0726277 0.85668
-0.00180889 -0.0814777 0.688397
0.0304731 -0.0448887 0.573675
0.0501041 -0.0540322 0.563129
0.0117522 -0.0274924 0.699759
-0.00993512 -0.0839624 0.494199
-0.00908767 -0.0823808 0.833362
0.0104466 -0.0260845 0.757629
-0.0861471 -0.0226778 0.0994048
-0.314155 -0.0540102 0.455843
-0.012279 -0.0177685 0.0354537
-0.00238345 -0.0786494 0.327382
-0.0421986 -0.0588424 0.690372
-0.051514 -0.0432633 0.279985
0.0147796 -0.0646441 0.297254
0.00820956 -0.0771863 0.57634
-0.0291635 -0.0231771 0.471796
-0.0122539 -0.0540322 0.568437
-0.013493 -0.0203323 0.873943
0.126335 -0.0438053 0.513991
0.0117266 -0.0689071 0.313704
0.00865018 -0.0249407 0.362134
0.0174856 -0.0397483 0.85754
0.018713 -0.0435832 0.292318
-0.0402189 -0.0662313 0.757145
-0.0618511 -0.0280441 0.143293
0.00413708 -0.0212378 0.23573
0.0165625 -0.0385749 0.867999
-0.0430371 -0.0528238 0.83212
0.227879 -0.0438413 0.506534
0.0218623 -0.0481726 0.547016
-0.0610468 -0.0565829 0.29894
-0.0699015 -0.0540322 0.516109
0.00915453 -0.024996 0.598564
-0.0230624 -0.0810712 0.401081
-0.00126665 -0.0194502 0.106081
-0.015076 -0.0777731 0.294246
0.17317 -0.0450328 0.49766
0.0382631 -0.00120307 0.10993
-0.0365796 -0.0451721 0.189382
0.0268591 -0.0540322 0.537115
0.0213968 -0.0549705 0.50546
-0.0623579 0.0438295 0.117059
0.015935 -0.0540322 0.564769
-0.303469 -0.0540322 0.468788
0.0218468 -0.0481858 0.623175
-0.022726 -0.0443322 0.545541
0.0180217 -0.0341788 0.41561
-0.0323685 -0.0610856 0.212717
0.169922 -0.0540322 0.528596
0.0268712 -0.0540322 0.527654
-0.0224851 -0.0211882 0.107245
0.11767 -0.0438053 0.543917
0.00875605 -0.033633 0.122948
0.0197244 -0.0443365 0.332226
-0.00163586 -0.0195871 0.643227
-0.0690479 -0.0547053 0.331635
-0.0499584 -0.0540322 0.548919
-0.00898529 -0.083695 0.512797
0.0561859 -0.0445977 0.13727
-0.0262734 -0.0222825 0.191971
0.0187615 -0.0364603 0.7525
0.0156663 -0.0314812 0.653979
-0.0617215 0.000448081 0.120707
-0.0430007 -0.0453316 0.441685
0.148463 -0.0540322 0.5192
-0.227979 -0.0540322 0.494717
0.00219543 -0.0205036 0.274641
0.0387645 0.00110094 0.15618
-0.0978562 -0.0438053 0.523364
-0.028674 -0.0332477 0.165923
0.0403888 -0.0149104 0.152458
-0.0663093 -0.0561998 0.31955
-0.03706 -0.070021 0.791685
-0.0383649 -0.0322362 0.606786
-0.0405263 -0.0650846 0.807402
-0.0196 -0.0256311 0.0190632
-0.0390192 -0.0444706 0.886738
0.0441404 -0.0550491 0.369045
0.028632 -0.0552243 0.33393
-0.173431 -0.0438053 0.50899
-0.038318 -0.035171 0.121461
-0.162896 -0.0438053 0.502141
-0.0646327 -0.0105063 0.122537
-0.213491 -0.0438053 0.490012
-0.0154665 -0.0428123 0.0565515
0.00237218 -0.0621207 0.16984
-0.0614182 0.0112906 0.102762
-0.026904 -0.0795998 0.763175
-0.0230488 -0.0338122 0.932502
-0.0112102 -0.0838106 0.757107
0.00216036 -0.0219522 0.128619
0.0248282 -0.0483075 0.377481
-0.0289627 -0.0442176 0.522542
-0.119879 -0.0273224 0.109832
0.0879891 -0.0343704 0.0828375
0.0385147 0.0208603 0.0868749
-0.0363576 -0.0565436 0.222066
-0.0192854 -0.0498713 0.976817
-0.0343281 -0.0729251 0.628148
-0.0412241 -0.0626622 0.379665
-0.0373787 -0.0312333 0.641917
-0.0263972 -0.0306625 0.911426
-0.0396718 -0.03712 0.327998
-0.0406611 -0.0649544 0.39824
-0.030399 -0.0768332 0.638119
-0.0616715 -0.0500987 0.398772
-0.00576269 -0.0828869 0.432844
-0.107784 -0.0540322 0.516502
0.0180046 -0.0597708 0.3267
-0.0257757 -0.0589712 0.159337
-0.0150933 -0.0414561 0.153207
-0.0525396 -0.0235237 0.120891
-0.0407757 -0.0371234 0.414476
-0.032795 -0.0744006 0.655519
-0.00943717 -0.0776797 0.899515
-0.0204556 -0.0815443 0.595719
0.242016 -0.0445047 0.50194
0.00269254 -0.0806125 0.445535
0.0191048 -0.0633686 0.568147
0.0219481 -0.0485741 0.634162
0.0102005 -0.0312469 0.150632
-0.0291285 -0.0543663 0.95046
0.00422152 -0.0219795 0.202148
-0.0017122 -0.0284022 0.121837
-0.0296712 -0.0778566 0.421017
0.0399969 -0.029561 0.0881224
-0.0756849 -0.034485 0.136562
0.0326821 -0.035483 0.34966
-0.00995083 -0.0173715 0.625362
-0.0160963 -0.0352166 0.947715
-0.231635 -0.0467314 0.503787
-0.0586975 -0.0540322 0.541717
-0.00222486 -0.0205419 0.84604
-0.0307371 -0.0407912 0.122389
-0.0202915 -0.0642966 0.965079
-0.0414164 -0.0620824 0.56718
0.00891232 -0.0258442 0.838449
0.0508932 -0.0438053 0.570893
0.0205152 -0.0436034 0.381917
0.0159666 -0.046322 0.267123
-0.0558572 -0.0371 0.34332
-0.00900434 -0.0177296 0.503084
-0.0234308 -0.0804686 0.819907
-0.0256434 -0.080322 0.484003
0.0220286 -0.0521396 0.728072
-0.00168156 -0.0195935 0.616326
-0.0184269 -0.0456864 0.554211
0.10451 -0.0448797 0.508471
-0.0242599 -0.0209523 0.399477
0.0186136 -0.0363084 0.43828
-0.0309458 -0.05369 0.538345
-0.0394364 -0.0332607 0.671287
0.015624 -0.0406921 0.209405
-0.0245531 -0.0204997 0.78561
-0.0419587 -0.0412215 0.577155
0.257487 -0.0539395 0.473466
0.0387462 0.0496965 0.110161
-0.0101851 -0.0837811 0.642191
0.0125261 -0.0540015 0.577446
-0.0382094 -0.0235035 0.102795
-0.0699278 -0.0438053 0.533256
-0.0138454 -0.0814004 0.346687
-0.0285607 -0.0788809 0.538532
-0.0397424 -0.0624692 0.33962
-0.0146112 -0.0519566 0.0968793
0.201876 -0.0540322 0.501246
-0.0265406 -0.0786643 0.834171
0.0187928 -0.0645937 0.403379
0.0215156 -0.0467613 0.170943
-0.0652756 0.0211337 0.126449
-0.0882844 -0.0540322 0.513297
0.239186 -0.0540322 0.488311
-0.240446 -0.0540322 0.490101
-0.0706848 -0.0500981 0.352309
-0.0351259 -0.0536167 0.198758
-0.0608468 -0.00481814 0.0813559
-0.00741764 -0.0626331 0.150548
0.00248962 -0.0540322 0.59089
-0.0386718 -0.0581859 0.281681
-0.0955998 -0.0540322 0.545756
-0.0845294 -0.0317745 0.122248
-0.011811 -0.0173765 0.316919
-0.00138171 -0.0470769 0.0846787
0.0141193 -0.0298205 0.7218
0.012329 -0.0290634 0.292874
0.005641 -0.0794346 0.738394
0.016225 -0.0481479 0.217236
-0.00991159 -0.0478191 0.564166
-0.00791885 -0.0562666 0.117819
0.0180714 -0.0672947 0.548429
0.038565 0.0111599 0.0910731
0.0571267 -0.0438053 0.527887
-0.0338682 -0.0257556 0.126607
0.0293625 -0.0291611 0.116815
-0.0175042 -0.0823009 0.613914
0.0471192 -0.0510498 0.359673
-0.0322334 -0.0723978 0.341307
-0.0297038 -0.0249438 0.228001
0.206387 -0.0450343 0.491331
0.091706 -0.0351673 0.107267
-0.0341306 -0.0282588 0.417287
-0.0389466 -0.037506 0.855885
-0.116993 -0.0438053 0.531521
-0.00384857 -0.0187327 0.811508
-0.0393635 -0.0335658 0.382036
0.0328965 -0.0331331 0.142817
-0.0253237 -0.0226401 0.141028
0.00703785 -0.0453438 0.943541
-0.0337043 -0.0287389 0.251325
0.00544856 -0.0369941 0.0883239
0.010709 -0.0488076 0.155523
0.0191693 -0.0632231 0.44041
-0.0293165 -0.0235127 0.385023
-0.0112541 -0.0819844 0.845586
-0.0465465 -0.0280576 0.149528
-0.0405432 -0.0363196 0.396336
0.119214 -0.0540322 0.539692
0.0220113 -0.0524583 0.585924
-0.0475646 -0.053513 0.302492
-0.032943 -0.0485674 0.92826
-0.00302255 -0.0738488 0.248316
0.301114 -0.0449712 0.481542
-0.202189 -0.0451692 0.489879
-0.0503206 -0.0406955 0.367731
0.0410829 0.00368178 0.115273
0.0197429 -0.0424495 0.831188
0.0182038 -0.034655 0.473515
-0.0408712 -0.0576993 0.845922
-0.186672 -0.0540322 0.487163
-0.0300985 -0.0259575 0.199013
-0.0274476 -0.0215522 0.559596
0.00273833 -0.0325077 0.0618149
-0.0111867 -0.0748228 0.23138
-0.0318306 -0.0255047 0.756206
0.0385594 0.0737445 0.0948535
-0.0336101 -0.0274932 0.582349
-0.0404722 -0.0568667 0.319461
-0.0201451 -0.0815079 0.659656
0.0219208 -0.0488198 0.390442
-0.0102463 -0.0700647 0.198023
-0.0219792 -0.0198751 0.745881
-0.0694801 -0.0294337 0.0977908
-0.0619938 0.0426771 0.104368
0.00514102 -0.0799159 0.503958
0.00624538 -0.0618069 0.191659
-0.0231262 -0.0239797 0.0632732
-0.0762319 -0.0467291 0.563995
-0.0181997 -0.0188047 0.25111
0.00244616 -0.0207603 0.528657
0.00487841 -0.0469223 0.544754
-0.0425521 -0.057666 0.617855
-0.00947784 -0.0272983 0.920469
-0.183553 -0.0438053 0.507122
-0.00445217 -0.0784227 0.314962
-0.0431269 -0.055425 0.645212
0.0110987 -0.0688622 0.304565
-0.15232 -0.0540322 0.525524
0.0108226 -0.026426 0.777144
-0.0712464 -0.0214037 0.115979
-0.0440394 -0.0524463 0.52358
0.0222198 -0.0412635 0.131966
-0.0628218 -0.00493394 0.166055
-0.0376517 -0.0315604 0.528004
-0.00396098 -0.0813218 0.363159
-0.0217861 -0.0202935 0.373563
0.0209833 -0.0362117 0.0971583
-0.037373 -0.0577692 0.244846
0.00819147 -0.0410329 0.185705
0.0191247 -0.0634556 0.510767
0.00714181 -0.0423486 0.147622
0.00860128 -0.0768703 0.540303
-0.00250653 -0.0349549 0.933444
0.00585217 -0.021531 0.734385
-0.01902 -0.0302195 0.0938385
0.0056058 -0.0216803 0.4841
-0.0205936 -0.0752508 0.277641
-0.038679 -0.0552039 0.260994
-0.0417642 -0.0404639 0.542953
-0.0635187 0.0532767 0.0842151
0.12608 -0.0463673 0.503661
-0.0423882 -0.0425758 0.784325
0.0113059 -0.0735253 0.822656
-0.0144122 -0.0382682 0.130463
-0.0420819 -0.059279 0.788867
0.00993975 -0.0258194 0.519305
0.0411237 0.0140652 0.10728
0.0411401 -0.0415305 0.293892
0.00339769 -0.0392211 0.127659
0.0915346 -0.0438053 0.534209
-0.0361984 -0.0304572 0.828979
0.0408193 0.0432509 0.100274
-0.000393253 -0.01995 0.600054
-0.013805 -0.0176485 0.76805
-0.00878381 -0.045485 0.525376
0.292789 -0.0475848 0.485677
0.0408108 -0.033996 0.0778298
0.00816838 -0.0240234 0.570152
0.0194516 -0.0392093 0.583518
0.00375251 -0.0378487 0.0779251
-0.00129194 -0.081324 0.704568
0.0714531 -0.0438053 0.54909
0.0176251 -0.0679093 0.478819
0.0223828 -0.0511794 0.555265
-0.0411679 -0.0447243 0.301326
-0.0248812 -0.0249322 0.0777106
0.0212978 -0.054898 0.64941
-0.0659798 -0.0414314 0.311491
-0.000699053 -0.0198319 0.652169
0.0416828 0.0257874 0.0793518
0.00666901 -0.0787574 0.561815
0.0473496 -0.0436895 0.135603
-0.0423381 -0.0447114 0.359179
0.0438068 -0.0554087 0.322882
0.0422132 -0.0361075 0.391384
0.0144224 -0.0707802 0.683495
-0.0467182 -0.0438053 0.5359
0.00494575 -0.0774423 0.849783
0.022493 -0.0504069 0.74865
-0.024564 -0.0802437 0.745224
0.0383306 -0.0154796 0.116368
0.0168994 -0.0554597 0.887717
0.0360279 -0.0540322 0.545821
-0.00390834 -0.0192554 0.418016
0.0245003 -0.0540322 0.573899
-0.0414514 -0.0535273 0.854536
-0.0162672 -0.0179776 0.141465
-0.102496 -0.0213458 0.124746
-0.0322428 -0.0282793 0.852823
-0.00554207 -0.0185459 0.635278
0.0179032 -0.0672726 0.716518
-0.0403364 -0.0353192 0.821916
-0.00736164 -0.0182799 0.352841
-0.0286929 -0.0381236 0.184234
-0.0642658 -0.036089 0.141737
-0.000480429 -0.0196923 0.776664
-0.023588 -0.0809439 0.381478
0.119275 -0.0540322 0.5215
-0.0266431 -0.0213334 0.312878
0.0581041 -0.0540322 0.516901
0.0137652 -0.0441557 0.176428
0.0101153 -0.0754565 0.399873
-0.0622335 0.0579496 0.103649
0.0403228 -0.00650728 0.149644
0.041792 -0.0238281 0.106335
0.0692196 -0.0314156 0.111399
0.00296586 -0.02215 0.143422
0.0032967 -0.0802421 0.603237
0.323762 -0.0540322 0.467194
-0.108516 -0.0438053 0.549621
-0.171498 -0.0540322 0.50566
-0.062303 -0.0440554 0.291879
0.0952563 -0.0379558 0.0754566
-0.116979 -0.0454166 0.504679
0.0123002 -0.0610636 0.224217
0.0171962 -0.0590373 0.867591
-0.0207109 -0.0471947 0.578855
-0.0609549 -0.0149345 0.102078
-0.0267989 -0.0800408 0.443069
-0.0410347 -0.0622951 0.823562
-0.0148037 -0.0832955 0.384554
0.0163508 -0.0320804 0.705683
-0.0366095 -0.0303171 0.737488
0.00795431 -0.0540322 0.566304
0.0277627 -0.0461896 0.581911
0.0383925 -0.0530737 0.51225
-0.296124 -0.0449032 0.468126
-0.00479653 -0.0695032 0.951337
-0.135055 -0.0468157 0.500557
0.0375417 0.0330829 0.115084
0.0288699 -0.0381347 0.296831
-0.0197859 -0.0193729 0.693816
-0.23826 -0.0446105 0.482134
-0.0360156 -0.0305307 0.332406
-0.0692015 -0.0258215 0.145905
-0.0442814 -0.0510694 0.686988
-0.0645946 0.0437487 0.0872283
-0.0245642 -0.0692786 0.217206
-0.0341624 -0.0662104 0.283441
-0.188672 -0.0490451 0.520713
-0.00125175 -0.0813066 0.37446
-0.0140156 -0.0830385 0.778931
-0.00608027 -0.0183694 0.668453
0.0095671 -0.0412633 0.925519
0.0250954 -0.0438055 0.525164
0.0399751 0.0178656 0.144607
-0.00250737 -0.0416593 0.0608958
-0.0146673 -0.0759863 0.26409
0.0215521 -0.0519493 0.828166
-0.0347517 -0.0727351 0.50744
0.261792 -0.0540322 0.493682
0.275029 -0.0540322 0.481428
0.0187447 -0.0430149 0.310991
-0.129332 -0.0438053 0.536741
-0.0421201 -0.059563 0.455359
0.183641 -0.0540322 0.497393
0.00629518 -0.0509565 0.133694
-0.0369498 -0.0592412 0.897601
-0.0640886 -0.0239865 0.175167
0.0898525 -0.0438894 0.512942
-0.0148392 -0.0181807 0.549442
-0.0327812 -0.074043 0.371103
-0.0415504 -0.0397704 0.483958
0.0359405 -0.0346508 0.326593
0.0892476 -0.0438053 0.557475
-0.0132143 -0.0834682 0.604488
0.0509115 -0.0542502 0.509878
0.177116 -0.0438053 0.513062
-0.0402845 -0.0350218 0.62841
-0.0435766 -0.0541716 0.503583
-0.0436326 -0.0473606 0.729949
-0.01387 -0.0254325 0.911149
0.0134693 -0.0720363 0.524191
0.189028 -0.0497325 0.522545
-0.0193537 -0.0195429 0.449749
-0.028183 -0.0790685 0.628934
0.009932 -0.0671171 0.265005
-0.00497498 -0.0187164 0.608485
0.0210609 -0.0557525 0.782069
0.0335223 -0.0574172 0.314848
-0.0317907 -0.0246069 0.117435
-0.0321826 -0.0448166 0.142207
-0.230934 -0.0540322 0.484473
0.0294439 -0.0375927 0.165277
-0.322317 -0.0491344 0.472593
0.0215022 -0.0455568 0.162493
-0.041945 -0.0601986 0.43612
0.0303 -0.042453 0.136011
-0.00978592 -0.0289374 0.0961705
-0.0533555 -0.0547133 0.394355
-0.0799804 -0.0438053 0.556497
0.0406867 -0.0547151 0.300757
0.0191762 -0.0631893 0.431594
0.0035056 -0.0211824 0.449645
0.00927503 -0.0758321 0.801515
0.060574 -0.0501513 0.571346
-0.0422493 -0.04243 0.46943
-0.0359321 -0.0338033 0.213251
-0.0168271 -0.0826738 0.499347
-0.332145 -0.0509857 0.459477
0.0484437 -0.0438053 0.540356
0.0426234 -0.0451656 0.148487
-0.0343656 -0.0672427 0.300228
0.00636583 -0.02443 0.187806
0.0385208 -0.00146365 0.100594
0.0162643 -0.0540322 0.525244
0.0820187 -0.0540322 0.543626
0.318312 -0.0518507 0.478048
-0.036067 -0.0493148 0.580482
-0.00532135 -0.0540322 0.528031
-0.0623588 -0.0111038 0.15141
0.0408467 0.022612 0.112141
0.0381814 0.0681242 0.088237
-0.0440293 -0.0488756 0.716557
0.0381636 0.0474544 0.0832005
-0.341267 -0.0540322 0.461761
-0.0185695 -0.0193672 0.431444
0.0421257 -0.00949242 0.0850686
0.0684327 -0.0313714 0.0953395
-0.0173766 -0.0222395 0.890461
-0.00295014 -0.0193084 0.317199
-0.0112791 -0.034557 0.102739
0.0687274 -0.0438053 0.538153
-0.0436312 -0.0475246 0.664606
0.103356 -0.0508666 0.502768
0.00572484 -0.0603463 0.949522
0.00242788 -0.0804915 0.594472
0.241272 -0.0540322 0.480247
-0.00870496 -0.0172788 0.196375
-0.0790111 -0.0540322 0.527961
-0.0507032 -0.0540322 0.517284
0.00478476 -0.0255816 0.104151
-0.0206261 -0.0791595 0.850188
-0.0206884 -0.0198348 0.484673
-0.028222 -0.0791989 0.548371
0.0212012 -0.0552297 0.811456
-0.0442168 -0.0517738 0.494273
-0.0169534 -0.082686 0.432969
0.0210921 -0.0307398 0.132306
0.274037 -0.0466509 0.491754
-0.0234196 -0.0200246 0.203485
0.029325 -0.0542745 0.287864
-0.0278301 -0.0217154 0.577315
-0.131356 -0.0514076 0.54419
-0.00488564 -0.0445534 0.170966
-0.0134665 -0.0365213 0.027116
-0.0406181 -0.065178 0.465886
-0.0328867 -0.0741786 0.811256
-0.0350509 -0.0724785 0.417792
-0.00616939 -0.0181585 0.782453
-0.0224881 -0.0756036 0.291324
0.0401439 0.0325124 0.13009
0.00859037 -0.0582051 0.183944
0.151332 -0.0438053 0.522965
-0.0319458 -0.0257983 0.646627
0.0020544 -0.0396144 0.170003
-0.0642593 -0.001852 0.103359
0.0208523 -0.0444557 0.497443
-0.0255274 -0.0733501 0.901958
-0.0427738 -0.0452139 0.332
-0.0308764 -0.0293308 0.885265
0.0733878 -0.0438574 0.518646
-0.0380576 -0.0364117 0.866122
-0.0234741 -0.0540677 0.521323
-0.00411852 -0.0186352 0.0832517
-0.0601708 -0.0365112 0.394453
-0.00631232 -0.0185095 0.471977
-0.106349 -0.0445004 0.507512
0.00997149 -0.0261043 0.398951
-0.017739 -0.0440103 0.0643401
-0.0681354 -0.0555598 0.388565
0.00175985 -0.0207474 0.432277
-0.113644 -0.0540322 0.510775
0.0203239 -0.0424702 0.683781
-0.038165 -0.039077 0.876561
-0.161819 -0.0463835 0.530383
0.038106 0.0401882 0.0898558
-0.0141727 -0.0180122 0.534894
0.0181043 -0.034149 0.697965
0.00581994 -0.02193 0.409788
-0.0245395 -0.0783235 0.343317
-0.0654279 -0.0548526 0.306871
0.0426477 -0.0565435 0.389528
-0.0175304 -0.0820819 0.794745
-0.0649674 0.0173869 0.117437
0.0135731 -0.066617 0.874147
0.0469586 -0.0414013 0.354247
-0.0211472 -0.063928 0.171919
-0.0854275 -0.0540322 0.558707
-0.0301404 -0.0350464 0.116227
-0.00379506 -0.0652072 0.175403
0.00575244 -0.0213367 0.792436
-0.0642817 -0.0169257 0.11361
-0.000873414 -0.0815946 0.407233
0.0121396 -0.0283866 0.368928
0.041885 0.00802461 0.0829918
0.247288 -0.0540322 0.487984
0.0147417 -0.0305436 0.664883
-0.245231 -0.0540322 0.49737
-0.0923425 -0.0438053 0.546875
0.0145356 -0.0707532 0.627264
0.00771989 -0.077818 0.470931
0.0126294 -0.05191 0.922595
0.0707139 -0.0415218 0.107934
-0.0362028 -0.0710343 0.635775
-0.0268018 -0.054863 0.144082
0.0125447 -0.028397 0.575334
-0.0179167 -0.0399169 0.143906
0.0518317 -0.0415314 0.118064
-0.0100667 -0.01746 0.495095
0.0405822 -0.0283994 0.153772
-0.028936 -0.0266815 0.875747
-0.024262 -0.0203545 0.233821
0.0215903 -0.0472572 0.65398
-0.0416985 -0.0607091 0.732979
0.020082 -0.0417445 0.450819
-0.0415632 -0.0616796 0.525932
