-0.0387166 -0.0413308 0.851197
-0.0314826 -0.0316741 0.280126
-0.144124 -0.0593028 0.518058
0.0546705 0.00600516 0.15467
0.0573818 0.0159685 0.120534
0.0126291 -0.0593028 0.537085
0.0164864 -0.0379063 0.41292
0.0681362 -0.0265994 0.180097
-0.0481024 -0.052875 0.514137
0.00381728 -0.0278204 0.158342
0.0194306 -0.0452621 0.376069
0.0754189 -0.0508409 0.198959
-0.0112762 -0.0894275 0.445747
-0.0275556 -0.0849472 0.554956
0.00558658 -0.0552124 0.558419
0.00651701 -0.0822385 0.836171
-0.087322 -0.0140579 0.190059
-0.0374622 -0.075249 0.465391
-0.0145521 -0.0415866 0.156923
0.00823271 -0.0479761 0.122095
-0.0309918 -0.0302466 0.52518
-0.0213499 -0.0539677 0.970523
-0.341391 -0.0593028 0.458169
0.00967782 -0.0810988 0.455809
0.0601191 -0.0417646 0.109493
-0.237844 -0.0282517 0.116519
-0.0360359 -0.0593028 0.569042
0.0247577 0.0751381 0.117535
-0.0211732 -0.0278288 0.87519
-0.0555363 0.0611097 0.0904778
0.052038 -0.0638879 0.570464
0.0325333 -0.0423932 0.127137
-0.0303058 -0.0365839 0.126111
0.0184572 -0.0406628 0.767338
-0.0694312 0.0272239 0.125433
0.0155243 -0.0367908 0.173231
-0.187447 -0.0585487 0.485395
-0.0918893 -0.0251043 0.159787
0.0165533 -0.0510743 0.224952
0.0988613 -0.0478842 0.158448
-0.0540295 0.0618498 0.124817
-0.184781 -0.0490885 0.495249
-0.0928179 -0.0253742 0.133502
-0.0426557 -0.0566422 0.842605
0.0698317 -0.0271624 0.130227
-0.0172384 -0.023816 0.238922
-0.0352366 -0.0344574 0.596806
0.0362737 -0.0508562 0.214771
0.218015 -0.0555176 0.483335
-0.0197476 -0.024889 0.491207
-0.0309166 -0.0591378 0.159583
0.00347514 -0.0441559 0.198919
-0.0923886 -0.0191687 0.16595
0.185251 -0.0593028 0.502139
-0.0441331 -0.0571112 0.445594
-0.0599215 -0.0593028 0.529082
-0.0141519 -0.0361075 0.932072
-0.032816 -0.0798248 0.540548
0.297457 -0.0503648 0.471948
-0.0835061 -0.0121594 0.0918582
0.0395599 -0.0593028 0.521066
0.00756051 -0.0753755 0.273443
-0.0383916 -0.044888 0.2342
0.279511 -0.0490885 0.474698
-0.0855611 -0.0104446 0.187501
-0.0233897 -0.058387 0.122168
-0.0293236 -0.0445563 0.928595
0.119395 -0.0390993 0.168023
-0.0236357 -0.0369377 0.0533715
0.0767293 -0.0343824 0.126152
-0.106739 -0.0279075 0.140561
0.0629019 -0.00316078 0.163516
-0.0254512 -0.0260369 0.799087
-0.11962 -0.0269085 0.13519
0.270832 -0.0557806 0.493115
-0.0177381 -0.0872374 0.814089
-0.0047359 -0.0874664 0.722696
-0.0780853 0.00509121 0.16635
0.0560343 0.0162488 0.135003
-0.0411453 -0.0683062 0.492908
0.0338024 -0.0593028 0.546674
-0.0359929 -0.035299 0.496063
-0.0169712 -0.0875393 0.373995
0.101823 -0.0490885 0.531198
-0.023935 -0.0856637 0.721643
-0.0434039 -0.0594159 0.811036
-0.0823947 -0.0144409 0.161822
-0.0561543 0.0482981 0.108591
-0.0431953 -0.0551287 0.342443
-0.0186179 -0.0503497 0.545871
0.0241877 0.0844444 0.0897941
0.0327196 0.0552773 0.0952673
-0.0583018 0.0616663 0.0957476
0.0434868 0.0301994 0.152754
0.00830994 -0.0329782 0.142737
-0.00536758 -0.0241318 0.441328
0.0648359 -0.0252647 0.195465
-0.0221011 -0.0439177 0.165033
0.00214484 -0.0324873 0.0629371
-0.041584 -0.0510489 0.310203
0.0726125 -0.0408025 0.0957703
-0.0947926 -0.0295074 0.194342
0.0312922 0.053806 0.120884
-0.0420947 -0.0646282 0.564363
-0.0915459 -0.0238367 0.152589
-0.0849034 -0.0863214 0.58569
-0.0860622 -0.00798171 0.0951334
0.00818995 -0.0822519 0.67412
0.283897 -0.0593028 0.482167
-0.0273636 -0.0442107 0.092132
0.044719 0.0297027 0.0986857
-0.0301101 -0.0293397 0.577913
-0.165856 -0.0593028 0.518222
-0.0212226 -0.0246141 0.144308
-0.0584053 0.0541689 0.150764
-0.0889311 -0.0176838 0.141253
-0.0830849 -0.000215684 0.170415
-0.0595109 0.0532984 0.145654
-0.0920415 -0.032954 0.196002
-0.00705741 -0.0230703 0.105074
0.0148055 -0.0359964 0.531011
-0.096555 -0.0391971 0.145083
-0.146601 -0.0545988 0.495653
0.0496324 -0.0844107 0.568434
0.0409271 0.0420115 0.113901
-0.00018202 -0.0293262 0.0470559
-0.0547271 0.0626246 0.096604
0.0182016 -0.0678593 0.351795
0.0113604 -0.0325194 0.598337
-0.0404626 -0.0410729 0.528031
0.0121439 -0.0332845 0.63722
0.00130808 -0.066384 0.157008
0.000431487 -0.025512 0.558364
0.0138714 -0.0765744 0.668925
-0.00836448 -0.0235236 0.0286435
-0.0284164 -0.0306477 0.151236
-0.149264 -0.0385762 0.159619
-0.0563904 -0.0490885 0.545618
-0.252807 -0.0490885 0.481068
-0.122046 -0.0320354 0.190154
-0.0137111 -0.0230035 0.730538
0.0732785 -0.0191299 0.133317
-0.0380346 -0.0490471 0.253795
0.114149 -0.0593028 0.532489
0.0023683 -0.0287662 0.877057
-0.0323262 -0.0315643 0.560331
0.0022908 -0.0857764 0.587858
-0.0251515 -0.0398113 0.0684253
0.0211901 -0.0608581 0.446411
-0.0471762 -0.0593028 0.550698
-0.17277 -0.0593028 0.523579
0.0115676 -0.0340031 0.232533
-0.0908832 -0.0221074 0.140842
-0.0788061 -0.0490885 0.544418
0.02042 -0.0445426 0.222783
-0.0291434 -0.0492579 0.553842
-0.131139 -0.0396633 0.163821
-0.0839943 -0.0386699 0.134511
-0.0111495 -0.0890967 0.713922
-0.0429429 -0.050393 0.596446
-0.0618009 0.0454954 0.107832
0.0214947 -0.0595975 0.573819
-0.00537184 -0.0879999 0.459947
-0.0406218 -0.0496998 0.28059
-0.0204626 -0.0413025 0.945743
-0.0287087 -0.0760831 0.272313
0.074949 -0.0235543 0.0807835
0.0405435 -0.0490885 0.547639
-0.0626946 -0.04468 0.18929
0.00217093 -0.0400817 0.114931
0.122226 -0.0362598 0.136988
0.150869 -0.0593028 0.510311
-0.101791 -0.0490885 0.535845
0.0728754 -0.0287026 0.139049
-0.033879 -0.0787845 0.529692
0.161122 -0.0593028 0.504941
-0.0312092 -0.0811711 0.674616
0.00840446 -0.0521299 0.937546
-0.0604065 0.0550587 0.123017
-0.00933565 -0.0890336 0.501043
-0.0931522 -0.023946 0.0923739
0.0798402 -0.0354566 0.095784
-0.0332442 -0.0338825 0.225153
0.0229069 0.0791042 0.118295
-0.00267453 -0.0420442 0.143576
0.0084105 -0.0395424 0.116166
-0.0246311 -0.0261906 0.49486
-0.0683075 -0.0490885 0.550217
0.0152056 -0.0720657 0.332326
-0.0107639 -0.0593028 0.566244
0.253697 -0.0535514 0.477157
0.0778591 -0.0493877 0.18268
-0.137058 -0.0593028 0.534577
0.108322 -0.0435173 0.108681
0.233769 -0.0599105 0.486305
-0.0680512 -0.0558213 0.567848
-0.0849873 -0.00954701 0.158877
0.00308057 -0.0374061 0.0981005
-0.0231656 -0.0252155 0.184975
-0.0313675 -0.0411221 0.124073
0.00309619 -0.0578175 0.126729
-0.0729033 0.0212004 0.0996528
0.123501 -0.0443803 0.111703
0.0407717 0.0397707 0.127789
0.0817856 -0.0354069 0.109964
0.144448 -0.0478688 0.15571
-0.03989 -0.0607307 0.295345
0.0120425 -0.0711684 0.895591
-0.00165877 -0.0868138 0.598989
-0.0841913 -0.0593028 0.526083
0.119498 -0.0593028 0.544657
0.00947312 -0.0605973 0.171571
-0.0646307 -0.0550409 0.508792
0.0221951 -0.0566899 0.657381
-0.133016 -0.027823 0.150177
-0.066829 0.0379154 0.146751
0.00101418 -0.0792726 0.268016
0.0188204 -0.0664538 0.358116
-0.00691545 -0.0593028 0.584742
-0.0634349 0.0401087 0.13522
0.0556459 -0.0434542 0.129073
0.019383 -0.046657 0.355299
-0.0615143 0.0440883 0.142952
-0.12458 -0.0593028 0.541658
-0.0314046 -0.0366974 0.140309
-0.0383043 -0.0490889 0.521663
-0.00967019 -0.0415604 0.0246267
-0.0360979 -0.0361304 0.304957
-0.0911139 -0.059219 0.505814
0.00280575 -0.0278965 0.128805
-0.128882 -0.0585789 0.544868
-0.171952 -0.049089 0.496756
0.0119342 -0.0784925 0.692751
-0.0206687 -0.0737542 0.203845
-0.042745 -0.0495086 0.736556
-0.0407574 -0.0454733 0.835209
-0.0416055 -0.0456935 0.415678
0.0753016 -0.0315933 0.149022
0.00801464 -0.0735227 0.903879
-0.0802237 0.00411148 0.11561
0.000435255 -0.0413484 0.179488
0.00993448 -0.0749422 0.8792
0.0220732 -0.0542408 0.735449
-0.0968585 -0.0342465 0.130622
0.0565075 -0.0331957 0.130989
-0.197997 -0.0593028 0.488322
0.0186426 -0.0607997 0.858021
-0.030601 -0.0625487 0.178567
0.230209 -0.0648104 0.547131
-0.0773659 0.00814687 0.147518
-0.0733568 0.0100429 0.101489
-0.0717579 0.020592 0.147146
-0.0129789 -0.0252343 0.867585
0.171545 -0.0455622 0.104939
-0.0141889 -0.0882747 0.721971
-0.0143666 -0.0232456 0.0661128
0.224207 -0.0656348 0.527298
0.0471323 0.0257578 0.132657
-0.0952003 -0.0329113 0.205848
-0.0561639 -0.05198 0.513599
-0.0213993 -0.0636395 0.138207
-0.00831022 -0.0885542 0.621194
-0.0797939 0.00160878 0.164343
-0.0798448 -0.00385787 0.0925458
-0.0731453 -0.0551747 0.565688
-0.0172858 -0.0873621 0.810337
-0.0713435 0.019933 0.169589
0.00416983 -0.0851016 0.699926
-0.0728201 0.0182841 0.145631
0.0730993 -0.0581366 0.50582
-0.0854476 -0.00045462 0.0861805
-0.00686465 -0.0235372 0.308747
0.225097 -0.0856528 0.539741
-0.0503382 -0.034345 0.10188
-0.0898515 -0.0676108 0.548458
0.057018 -0.0802671 0.588738
0.122769 -0.0576462 0.498379
0.0129233 -0.0340701 0.62425
0.0611157 -0.0044615 0.137004
-0.0751197 0.0162977 0.0988716
-0.236507 -0.0279653 0.0964582
-0.0198616 -0.0867223 0.75657
-0.0777454 -0.0445081 0.193498
0.107608 -0.0488407 0.165025
-0.264776 -0.0541095 0.491967
-0.0426311 -0.0491992 0.691836
0.064062 -0.0357069 0.154417
-0.0958575 -0.0372889 0.207247
-0.0405229 -0.0536575 0.262359
-0.0598403 0.0482068 0.132316
0.00445642 -0.0593028 0.537252
-0.0329832 -0.0323499 0.467324
-0.226631 -0.0636451 0.542197
0.226108 -0.0837876 0.504343
0.164047 -0.049207 0.499774
-0.0169642 -0.0874413 0.817829
0.0173828 -0.0565362 0.586875
-0.00406929 -0.039683 0.113232
0.215536 -0.044773 0.104047
0.0418606 0.0520482 0.0982037
0.00605865 -0.0272353 0.561175
-0.0125298 -0.0262337 0.00366341
-0.0176355 -0.0242152 0.598787
0.0495843 -0.0662401 0.589279
-0.0641311 0.0296466 0.115563
0.0153589 -0.0497316 0.533588
-0.0219727 -0.0253823 0.591663
-0.0388697 -0.0383464 0.414886
-0.0274989 -0.085061 0.474174
0.0190858 -0.0402241 0.109498
0.0129803 -0.0773836 0.770247
0.0601254 -0.00189414 0.0932342
-0.0405386 -0.0412945 0.728778
-0.0889105 -0.00907424 0.132835
-0.0171988 -0.0238632 0.776136
0.215791 -0.0593028 0.504959
0.00899837 -0.0581265 0.940938
-0.0781779 0.0040544 0.175037
0.0811133 -0.0593028 0.552799
0.0157597 -0.0366702 0.782422
-0.228938 -0.086898 0.539084
0.019018 -0.0430109 0.627
-0.0290798 -0.0572639 0.527805
0.047407 0.0231071 0.103833
0.0279035 0.0698292 0.10649
-0.0426027 -0.0628665 0.49244
0.0709406 -0.037596 0.20986
-0.000255045 -0.0253482 0.529188
-0.0308852 -0.0383229 0.109625
-0.0353344 -0.0429739 0.180201
-0.234863 -0.0304347 0.108098
-0.0437981 -0.0593028 0.561887
-0.0384385 -0.0568684 0.231039
0.0197949 -0.0457565 0.728385
0.0627541 -0.00174505 0.103613
-0.00719021 -0.0541811 0.544386
-0.0063425 -0.0787044 0.92375
-0.00082644 -0.0253584 0.436113
-0.0752607 -0.0329682 0.181274
-0.089024 -0.0156126 0.115489
-0.0705771 0.025436 0.162899
-0.232755 -0.0606898 0.506887
-0.00964893 -0.0248183 0.00875494
-0.0139723 -0.0235353 0.388266
-0.0299139 -0.0824743 0.664928
0.0130651 -0.0713253 0.293188
-0.0299979 -0.02988 0.328416
0.0200594 -0.0619771 0.830239
-0.107637 -0.029741 0.16023
0.165445 -0.0593028 0.506953
-0.0693889 -0.0333305 0.182741
0.0185851 -0.045562 0.330432
-0.00715392 -0.0231643 0.240221
0.0682372 -0.0282165 0.188209
0.0513063 -0.0346689 0.148585
0.0474129 -0.0469799 0.169494
0.234632 -0.0862272 0.542137
0.0420137 -0.0487138 0.189913
0.0259018 0.0796199 0.111208
-0.00577441 -0.0855949 0.849034
0.0516606 0.0206996 0.107463
0.0985926 -0.0555018 0.556406
0.0133678 -0.0444652 0.902637
-0.0198853 -0.0247203 0.692496
-0.019794 -0.0822346 0.301661
-0.0639698 -0.0534117 0.510641
0.0715133 -0.0318309 0.173411
0.0188619 -0.043257 0.374508
0.0348385 0.0473617 0.143988
-0.100473 -0.0356764 0.109576
-0.000588704 -0.0252637 0.522143
-0.0180703 -0.0699693 0.969579
-0.312813 -0.0538188 0.475043
-0.0151517 -0.0396848 0.161835
0.147525 -0.0593028 0.537173
-0.0305814 -0.0305747 0.311059
0.13697 -0.0450355 0.161113
-0.0440209 -0.0575051 0.418638
-0.0353182 -0.0593028 0.520674
-0.0430733 -0.0508525 0.566999
-0.0597907 0.0508769 0.0946383
0.136665 -0.0359539 0.127994
-0.094185 -0.0197821 0.116409
-0.196869 -0.0283889 0.100851
-0.170819 -0.0275222 0.162121
-0.0222546 -0.0289619 0.0542636
0.0208153 -0.0414458 0.121845
-0.0948353 -0.0254725 0.157573
0.145479 -0.043362 0.0921907
-0.0519933 -0.0451916 0.190399
-0.0163153 -0.023483 0.215589
-0.0384396 -0.0374496 0.760819
-0.077971 -0.00189172 0.125543
-0.040908 -0.0430364 0.431103
0.0107512 -0.0331561 0.237308
-0.234239 -0.0490885 0.501057
-0.132631 -0.0372415 0.138911
-0.0853758 -0.0102567 0.0830248
-0.000320419 -0.0355434 0.105399
-0.0915766 -0.0497576 0.50949
-0.0177721 -0.0593028 0.527677
-0.00899283 -0.0244661 0.853111
-0.0532057 0.072722 0.10134
0.229854 -0.0868989 0.538146
0.0714347 -0.0351354 0.145451
-0.0147231 -0.086869 0.353758
-0.0962489 -0.0270123 0.124416
0.0727316 -0.0143769 0.112248
-0.0563866 -0.044936 0.189464
-0.229059 -0.0838861 0.540036
-0.0142787 -0.0233041 0.615489
0.0092576 -0.0814908 0.514976
-0.0311762 -0.0378344 0.10379
0.0115425 -0.0648593 0.915771
0.000309567 -0.0250962 0.22251
0.023674 0.0774607 0.117989
-0.0552326 -0.0435028 0.173909
-0.076417 -0.0345079 0.100823
-0.00893578 -0.088519 0.800267
-0.237315 -0.0684611 0.533883
0.00910163 -0.0812998 0.723973
-0.0451213 0.0825073 0.11415
0.257676 -0.0593028 0.48998
0.0568119 0.00549651 0.131357
-0.00708532 -0.0234698 0.0589544
0.00407392 -0.0508819 0.101444
-0.0882852 -0.0174609 0.166295
-0.0266175 -0.0412132 0.13836
0.0231286 0.0765746 0.139065
-0.144324 -0.0284671 0.161478
-0.0356959 -0.0505167 0.239967
0.0450971 -0.0761848 0.57837
0.0032584 -0.0537751 0.110264
-0.0440279 -0.0593028 0.554114
-0.106387 -0.0270065 0.13093
-0.0448419 -0.0308905 0.147232
-0.0433865 -0.0594798 0.707546
0.044235 -0.047466 0.175884
-0.0730788 -0.0500551 0.512522
-0.128315 -0.0367294 0.192433
-0.00390066 -0.0485121 0.0614415
-0.103938 -0.0304924 0.111096
-0.0783855 -0.0502478 0.51134
0.0425233 -0.0593028 0.553229
-0.0287132 -0.0491714 0.232921
0.00621525 -0.0819636 0.84257
0.115252 -0.0490885 0.543763
0.109796 -0.0469986 0.14475
-0.0719569 -0.0820854 0.577369
-0.0301426 -0.0571864 0.945297
-0.04679 0.0826026 0.110918
-0.0844091 -0.00484462 0.109096
0.0345203 0.0557355 0.109534
0.0182316 -0.0714816 0.717573
-0.0932171 -0.0762214 0.587577
0.0574611 0.0134225 0.134113
-0.0156853 -0.0397573 0.147176
0.0187006 -0.0701908 0.49065
0.170675 -0.0499664 0.52696
-0.0424659 -0.0632769 0.384981
0.068491 -0.0227539 0.113036
-0.0196155 -0.033265 0.134063
-0.0297016 -0.0827776 0.617385
-0.0440517 -0.0569981 0.785979
0.0201948 -0.0644052 0.586324
-0.0715542 0.0262666 0.154921
-0.178511 -0.03618 0.146076
-0.0245272 -0.077613 0.248328
0.104723 -0.0460017 0.136279
-0.0441647 -0.0549337 0.504358
0.0100067 -0.0648253 0.92472
-0.0217997 -0.0593028 0.5232
0.00802506 -0.0294946 0.389317
-0.0168208 -0.0780537 0.227472
0.159572 -0.0374678 0.134779
0.0420847 0.0360168 0.134574
0.127484 -0.0490885 0.534229
0.170718 -0.035495 0.109549
-0.222135 -0.0249554 0.118957
0.0200237 -0.0652181 0.536719
0.010336 -0.0314671 0.656904
-0.00935331 -0.0229642 0.330498
0.0117902 -0.0788767 0.557011
0.277845 -0.0493634 0.474687
0.00429796 -0.0272741 0.206455
-0.0898693 -0.0177514 0.111144
-0.0367625 -0.059857 0.220933
-0.0016816 -0.0724734 0.9546
-8.35583e-06 -0.0253147 0.664182
-0.0647516 0.0419129 0.147178
0.0659334 -0.0681591 0.551717
-0.215247 -0.0256856 0.100309
-0.00908725 -0.0841784 0.302997
-0.101526 -0.0381479 0.136021
-0.0104984 -0.0893946 0.429654
-0.0590798 -0.0490885 0.534444
-0.0304141 -0.0300805 0.362076
0.0515163 0.0236028 0.0926831
0.0303021 0.065706 0.101872
0.235526 -0.0644781 0.530791
0.0188799 -0.0498136 0.854159
0.0206028 -0.0628239 0.602991
-0.0551795 -0.0566583 0.573032
0.0931828 -0.0479303 0.195703
-0.0854551 0.00113306 0.096819
0.00478284 -0.0593028 0.55494
0.0766805 -0.0328337 0.117145
-0.00174937 -0.0812344 0.28744
-0.0135811 -0.0888231 0.426798
0.253426 -0.0490885 0.481087
0.0316207 0.0554095 0.107695
-0.00589042 -0.0411367 0.147188
0.049819 0.0319404 0.119921
-0.0913011 -0.0818281 0.577338
-0.0320003 -0.0806925 0.504134
-0.170389 -0.0490885 0.518406
-0.144656 -0.03837 0.155605
0.147323 -0.0490805 0.151673
0.0201603 -0.0490886 0.529059
-0.26257 -0.0535055 0.492573
-0.0890357 -0.00962892 0.1368
-0.0184466 -0.0875038 0.449405
0.012501 -0.0783084 0.387119
0.12884 -0.0375039 0.105887
0.0904698 -0.0439057 0.119907
0.000629628 -0.0255852 0.529283
-0.114533 -0.0324342 0.19135
-0.282868 -0.056087 0.464863
-0.175468 -0.0512066 0.493844
0.0423093 0.0269557 0.144648
-0.0398917 -0.0641657 0.319434
0.0864093 -0.0593028 0.543525
0.0196745 -0.0663216 0.593523
0.0996353 -0.0492923 0.509537
0.0206065 -0.0492501 0.402017
-0.0874981 -0.0256999 0.171991
-0.0393837 -0.0414833 0.328064
0.0336843 0.0535881 0.147442
-0.0187334 -0.0776039 0.227923
0.0118564 -0.0330036 0.623402
-0.0442756 -0.05664 0.51105
-0.198623 -0.0345363 0.136805
-0.0947729 -0.0352824 0.203368
-0.100449 -0.0593028 0.55487
-0.147202 -0.0389536 0.162769
0.204737 -0.0560671 0.516075
-0.0677085 -0.0456872 0.201902
0.0115184 -0.0531424 0.248744
-0.0777669 -0.0527086 0.562939
-0.152921 -0.0275374 0.115798
0.0176145 -0.0528132 0.242841
-0.118326 -0.0264155 0.129476
0.0282728 -0.0428031 0.223059
0.0457225 0.0277068 0.138344
-0.0419686 -0.0649274 0.613176
-0.00512039 -0.0833083 0.880059
0.148378 -0.0433921 0.0913486
0.010715 -0.0764267 0.854065
0.0724156 -0.0593028 0.560825
-0.233798 -0.0318227 0.122291
-0.0665587 0.0361135 0.0886144
-0.152439 -0.0593028 0.515505
-0.0928576 -0.0182703 0.137679
0.0646914 -0.00207302 0.0824006
-0.221775 -0.0855656 0.541781
0.0284957 0.0707436 0.139236
0.00551744 -0.0846423 0.804556
0.0650767 -0.0131397 0.0985717
0.0173559 -0.0385129 0.602348
-0.0145282 -0.0730057 0.962381
-0.01533 -0.0232747 0.0837962
-0.00114575 -0.0571742 0.588929
-0.0159513 -0.0351744 0.124125
0.00095188 -0.0861026 0.605192
0.00440243 -0.0276783 0.845938
-0.00652201 -0.0236033 0.0602859
0.0204209 -0.056893 0.846275
0.0064274 -0.0281621 0.341891
-0.0400372 -0.0724179 0.467368
-0.0881206 -0.0192908 0.192368
-0.190331 -0.0249007 0.142312
-0.037281 -0.0409928 0.210323
-0.229763 -0.0555653 0.496561
-0.0184554 -0.0243396 0.690997
0.0628547 -0.0652376 0.549978
0.0320401 0.072949 0.0937708
-0.0648027 0.0266622 0.137743
-0.00909195 -0.0339192 0.0104587
0.155087 -0.0593028 0.519038
-0.0783232 0.017065 0.0946438
0.0368649 -0.0316585 0.121804
-0.0223971 -0.0368438 0.123202
-0.0972638 -0.0395698 0.149291
0.0733811 -0.0218896 0.143451
0.0364428 -0.0490885 0.555233
0.0196207 -0.0452253 0.589548
0.000323994 -0.0865162 0.398852
0.0680347 -0.0783373 0.572974
-0.234793 -0.0593028 0.491936
0.0356823 0.0554613 0.0972988
0.0177274 -0.039236 0.377212
0.230269 -0.0621838 0.488846
0.0515546 -0.0589403 0.508927
-0.0212941 -0.0246549 0.138831
0.0664561 -0.0229668 0.138687
-0.23024 -0.0593028 0.477333
-0.0776216 0.0142409 0.157197
0.0753165 -0.0339198 0.136147
-0.0325061 -0.0422138 0.135319
-0.176361 -0.0490885 0.517645
0.221569 -0.0822503 0.541759
-0.0641225 0.0319088 0.154268
0.055304 -0.0490885 0.540222
-0.0883504 -0.0411249 0.219852
-0.0035775 -0.0408015 0.0347437
-0.244618 -0.0559805 0.474948
0.00726851 -0.0507238 0.120314
-0.0769398 0.0107492 0.124834
0.248851 -0.0568074 0.476151
-0.0287553 -0.0839538 0.469706
-0.047181 -0.0469733 0.20724
-0.042856 -0.0502764 0.439633
0.019233 -0.0371683 0.180062
-0.029358 -0.0286704 0.493018
-0.119002 -0.0490885 0.534764
0.055522 0.00912469 0.164581
0.00918623 -0.0303671 0.552459
-0.0142538 -0.0229688 0.226923
-0.00726701 -0.0235777 0.465266
-0.036838 -0.0593028 0.565391
0.158902 -0.0393413 0.0962585
-0.232905 -0.0593028 0.497814
-0.00980267 -0.0891201 0.533086
0.0189669 -0.0309072 0.121895
-0.0320735 -0.0313604 0.505238
0.091032 -0.0360524 0.109729
0.0224179 -0.0558353 0.451893
-0.0362913 -0.0620983 0.222435
0.0404053 0.0356098 0.116453
0.00462167 -0.0331929 0.0884064
-0.140331 -0.0360546 0.129491
-0.0573282 -0.0360564 0.206627
-0.0359828 -0.0350249 0.742497
0.0102453 -0.0533267 0.929992
-0.093589 -0.027839 0.144118
0.0261477 0.0717331 0.138312
-0.120831 -0.0414333 0.178342
0.0890362 -0.0351833 0.138919
0.0705081 -0.0380056 0.100383
-0.0858657 -0.00321876 0.147047
-0.258153 -0.0490885 0.482565
-0.0697923 0.0354533 0.10175
-0.0177536 -0.0520438 0.0761626
-0.0923608 -0.032413 0.172255
-0.232298 -0.0288683 0.0905747
-0.0513454 0.058994 0.112517
0.0548284 -0.0563887 0.52665
-0.0900349 -0.0675137 0.57651
0.018336 -0.0402381 0.756623
-0.0276912 -0.0326293 0.145505
-0.111307 -0.0592516 0.502859
0.0518161 -0.0610395 0.552723
-0.0788037 -0.0558585 0.538163
0.00522186 -0.0593028 0.519296
-0.302978 -0.0593028 0.464146
0.0690963 -0.022699 0.146088
-0.022414 -0.0253866 0.699349
0.0660729 -0.0246846 0.200734
0.0612662 -0.0642964 0.542467
0.0111157 -0.0795887 0.539171
-0.0257188 -0.0770842 0.907221
-0.0394332 -0.041399 0.331619
0.157062 -0.0371705 0.102905
-0.0439875 -0.0576132 0.400956
-0.0201094 -0.0243087 0.158893
-0.0428599 -0.046056 0.195851
-0.00148932 -0.0247122 0.789559
-0.012101 -0.0891921 0.466609
-0.0956522 -0.0291747 0.0855107
-0.00220234 -0.0241932 0.150053
-0.0835444 -0.00825266 0.185274
0.0540851 -0.049068 0.188816
-0.0252127 -0.0263425 0.202114
0.0481947 -0.0464165 0.163246
0.0079892 -0.0321826 0.150671
-0.285408 -0.0490885 0.473757
-0.0118875 -0.0231828 0.0201466
-0.0750879 -0.0791084 0.583622
0.24274 -0.0530406 0.50186
0.116979 -0.0344936 0.116044
-0.0165903 -0.0236112 0.0840932
-0.0222918 -0.042898 0.0565119
-0.0421029 -0.0496177 0.354683
-0.107721 -0.0490885 0.513395
-0.100409 -0.0335872 0.10362
0.0212165 -0.0605423 0.600462
-0.0195678 -0.0381658 0.029576
0.0870775 -0.0555771 0.560737
0.0562633 -0.0490885 0.551686
-0.0133751 -0.0230489 0.634412
0.016869 -0.0382072 0.451755
0.0134602 -0.0715724 0.877459
-0.000659377 -0.0248406 0.118827
-0.00811703 -0.0299049 0.906584
0.0464981 0.0291927 0.154929
-0.0543444 -0.0593028 0.557017
-0.0930256 -0.0180974 0.129711
0.056555 0.0103642 0.107727
0.017534 -0.0614933 0.872823
-0.0219687 -0.0256266 0.415548
-0.0114722 -0.0893707 0.451952
0.0185696 -0.0519998 0.233893
-0.0845062 -0.0176784 0.138898
-0.0648107 0.0361168 0.151146
-0.0718277 0.0243349 0.0898887
-0.071823 -0.0819506 0.584505
0.00236774 -0.032515 0.132584
-0.00362007 -0.0757618 0.213806
0.0739061 -0.0366809 0.168993
-0.0910441 -0.0446902 0.200731
0.07782 -0.0301752 0.112893
-0.0192879 -0.0245667 0.688537
-0.0258584 -0.0518789 0.581292
-0.131094 -0.0274857 0.119574
0.00277212 -0.0263845 0.403349
-0.226926 -0.0606649 0.521179
-0.0884635 -0.0593028 0.517084
0.0643485 -0.069038 0.541258
-0.0889045 -0.0490885 0.544146
-0.0799817 -0.0505029 0.510775
-0.202357 -0.0537016 0.486004
0.149037 -0.0490885 0.519641
-0.141576 -0.0381777 0.152346
0.00529037 -0.0851902 0.39206
0.0549849 -0.0593028 0.555566
0.0899764 -0.047638 0.159407
0.00124872 -0.0593028 0.539595
-0.0830036 0.00266009 0.154095
-0.0947879 -0.0352321 0.171001
0.0171187 -0.0382522 0.651633
0.0167607 -0.0691213 0.323001
-0.0819046 0.00195181 0.0906883
-0.090153 -0.0345799 0.204202
0.0675085 -0.0105874 0.152404
-0.0258279 -0.0853445 0.589846
-0.137133 -0.040302 0.172943
-0.18303 -0.0333048 0.117602
0.0117945 -0.0708475 0.269436
-0.0399173 -0.0439639 0.321607
-0.08083 0.00779473 0.149369
-0.00153241 -0.0713548 0.185995
0.121851 -0.0365366 0.140052
-0.0910974 -0.0298784 0.204482
0.0112856 -0.0333897 0.284261
0.0702498 -0.0209843 0.180113
-0.0889874 -0.080072 0.586614
-0.0756193 -0.0301033 0.151244
0.00345788 -0.0536214 0.560327
-0.0464558 -0.0587292 0.50958
-0.0960408 -0.0316771 0.172164
-0.124989 -0.0593028 0.544103
0.212581 -0.0496625 0.490078
-0.0827759 0.00288967 0.158472
0.0709216 -0.0160508 0.0858405
-0.219834 -0.0726691 0.540203
0.233212 -0.0626027 0.526441
0.0014056 -0.0534034 0.522919
0.0203619 -0.0484008 0.38393
0.00408028 -0.0850974 0.729935
-0.118355 -0.0572855 0.548667
0.24182 -0.0593028 0.500561
-0.127409 -0.0291742 0.162167
-0.233107 -0.0490885 0.496187
-0.241325 -0.0293583 0.118713
0.0502007 -0.0490885 0.548295
0.0772474 -0.038117 0.101086
0.0130011 -0.0777597 0.489098
0.0179764 -0.072652 0.575382
-0.038167 -0.039931 0.288585
0.0234174 -0.033812 0.150708
0.0411299 -0.0345862 0.107246
0.00672078 -0.0607958 0.155916
-0.0407561 -0.0422498 0.673197
0.21358 -0.0455575 0.0880837
0.205429 -0.0412723 0.0796223
-0.0262575 -0.029911 0.116587
-0.0192538 -0.082752 0.878643
0.0592021 -0.0545701 0.510807
-0.102335 -0.0441244 0.199287
-0.0122282 -0.0226322 0.275705
-0.0071437 -0.0567817 0.572426
-0.0442255 0.0782975 0.12252
-0.034367 -0.0588413 0.529037
-0.0327306 -0.0338795 0.848689
-0.0497427 0.0722579 0.140085
-0.0241931 -0.0836035 0.342172
0.0835538 -0.0437463 0.120993
0.0659806 -0.0185234 0.159396
-0.0891876 -0.0680336 0.59176
0.022406 -0.0563144 0.540154
-0.0930486 -0.0431896 0.185731
0.0224503 -0.0555694 0.765579
0.0182735 -0.0403672 0.452039
0.259247 -0.0554459 0.496956
0.0816945 -0.0593028 0.556454
0.00217582 -0.0535007 0.104509
-0.00884867 -0.0229904 0.608797
-0.0202991 -0.0816206 0.89115
-0.0410076 -0.049077 0.30783
0.163069 -0.0593028 0.504362
-0.290072 -0.0549294 0.463751
-0.0882543 -0.0237584 0.10306
-0.0833112 -0.0351236 0.099533
0.00661237 -0.0285119 0.316182
-0.092739 -0.0270289 0.160035
-0.190567 -0.0244302 0.112926
-0.0594918 0.0510469 0.102505
-0.212853 -0.0593028 0.509206
-0.012356 -0.0415046 0.135728
0.014552 -0.0762066 0.493914
0.0358268 -0.0584591 0.511986
-0.0440832 0.079462 0.112949
-0.0129019 -0.0249897 0.00871044
0.0464589 0.0303204 0.114535
-0.0217445 -0.0254885 0.457041
-0.00780213 -0.0876457 0.826886
0.00669602 -0.0278774 0.551331
-0.0240726 -0.0260648 0.335779
-0.0848948 -0.058494 0.561943
-0.0174601 -0.024213 0.534223
0.0618244 -0.00598132 0.0963158
-0.0628575 0.0417017 0.128426
0.0412313 -0.0593028 0.557246
0.0508778 0.0093881 0.171625
0.0195925 -0.0459771 0.374604
0.16331 -0.0376403 0.0998886
0.0166984 -0.0737212 0.701271
-0.0455279 0.0841118 0.133658
0.00246201 -0.0564279 0.575583
-0.0347672 -0.0593028 0.530416
-0.206092 -0.0490885 0.498596
-0.0123266 -0.0227189 0.677854
-0.0758892 0.0198722 0.1324
0.00622684 -0.0273611 0.65008
-0.0308092 -0.043222 0.161188
-0.0792429 0.00307789 0.157732
0.0306208 0.0642632 0.10926
0.00797535 -0.0791088 0.329803
0.0377199 0.0494208 0.109658
0.170904 -0.0593028 0.524869
0.08109 -0.0492146 0.51426
-0.0398017 -0.0333169 0.10502
-0.0689508 0.0300342 0.0997062
-0.140442 -0.0268666 0.143074
-0.016374 -0.0240916 0.0425643
0.0395568 0.0484419 0.139161
-0.00149503 -0.0248687 0.693234
-0.224385 -0.0626903 0.491474
-0.00096755 -0.0762345 0.222357
-0.0104811 -0.0893459 0.493219
0.0189108 -0.0693173 0.395772
0.0345078 0.0480258 0.115627
-0.0101818 -0.0368422 0.0999027
-0.0841865 -0.00567081 0.128804
-0.0267508 -0.026511 0.72225
-0.0606368 0.0462806 0.14934
-0.0775275 -0.000673719 0.122182
-0.231677 -0.0631837 0.525618
0.0181503 -0.051945 0.876524
-0.228412 -0.0606124 0.486574
0.115907 -0.0343696 0.119611
-0.0210529 -0.03621 0.102352
0.079333 -0.0528592 0.509179
0.00715593 -0.0381402 0.0966228
0.0915269 -0.0592546 0.507626
0.0092295 -0.0302998 0.691989
-0.166042 -0.0490885 0.518916
0.0131287 -0.0593028 0.567255
0.168145 -0.0593028 0.52838
-0.0315923 -0.0807339 0.741544
0.0489551 0.0145396 0.133891
0.00496047 -0.026462 0.776498
0.0189181 -0.0583117 0.303673
0.0431852 -0.0455721 0.232156
0.0318746 0.0554977 0.104139
-0.0299456 -0.082386 0.734916
0.130317 -0.0485649 0.153041
-0.0317869 -0.0312619 0.415806
-0.0120153 -0.0227342 0.56266
-0.0144718 -0.0437397 0.16011
0.0280751 0.0671856 0.134387
-0.0171225 -0.0240647 0.617493
0.109217 -0.0470396 0.145412
-0.00136576 -0.0247924 0.760877
0.0150693 -0.0444637 0.206476
-0.0819951 -0.0442731 0.192722
0.149266 -0.0490885 0.534443
0.265315 -0.0513379 0.493805
0.0600229 -0.0340607 0.138693
0.0226679 0.0740812 0.122027
-0.030689 -0.0819507 0.541045
-0.0412867 -0.0561345 0.299643
-0.0424577 -0.0484566 0.81973
-7.77328e-05 -0.0443048 0.160305
0.008477 -0.0730077 0.904138
0.0744355 -0.0490885 0.532252
0.00195363 -0.0731143 0.935888
0.0704114 -0.0109638 0.120048
-0.0779342 -0.0306831 0.110526
-0.0817932 -0.042098 0.169734
0.255428 -0.0593028 0.495854
-0.00367834 -0.0875777 0.414486
-0.0308676 -0.0490885 0.54287
-0.0214211 -0.025157 0.289997
0.0453937 -0.037325 0.178921
-0.0490714 0.0786514 0.118575
0.0252873 0.0740017 0.137414
-0.0433291 -0.0517872 0.54512
-0.0125128 -0.0890631 0.493572
-0.12452 -0.0279316 0.147927
-0.0150091 -0.0651867 0.13738
0.00607704 -0.0847103 0.433354
-0.0336726 -0.0593609 0.517722
-0.0675317 0.0322027 0.114003
-0.0318669 -0.0310487 0.663506
0.0441467 0.0365566 0.106717
0.0398958 0.0389282 0.146847
-0.0420396 -0.0469728 0.699062
0.0119654 -0.0338795 0.313902
-0.00918104 -0.0227821 0.709774
0.00481603 -0.0848694 0.762785
0.0445239 0.04253 0.121742
-0.0962145 -0.0286 0.139466
0.127592 -0.0437308 0.103226
-0.0267838 -0.0267103 0.535502
0.0607105 -0.00853718 0.165158
0.0167135 -0.0740788 0.423053
-0.026317 -0.0264085 0.713882
0.000666606 -0.0744463 0.212596
-0.0406923 -0.0419418 0.540659
0.0376518 0.045172 0.135418
0.0338923 0.0662425 0.11065
-0.0051822 -0.0240285 0.318138
-0.0925743 -0.0191766 0.160028
0.13005 -0.0346731 0.117153
0.0335633 -0.0490885 0.543619
0.074847 -0.0377411 0.17153
-0.0994361 -0.0275404 0.120458
-0.0247338 -0.0858552 0.397264
0.0222796 -0.0566882 0.568132
-0.0293383 -0.082928 0.815696
-0.170217 -0.0254901 0.14048
-0.00829431 -0.0784435 0.929611
-0.263911 -0.0593028 0.475948
0.0175088 -0.052185 0.888657
0.0782031 -0.0593028 0.523089
-0.0183388 -0.0598208 0.979721
-0.0552203 -0.0593028 0.522705
-0.0236571 -0.0607631 0.133385
-0.0119709 -0.0229638 0.406973
-0.0807376 -0.0366271 0.111933
0.0189895 -0.0686533 0.732148
-0.09145 -0.0262537 0.190741
0.0046047 -0.0796689 0.885907
-0.170792 -0.0368132 0.149658
0.0148117 -0.0740904 0.354484
-0.0411366 -0.0433473 0.797836
0.0294513 0.0666965 0.106249
0.118508 -0.0448035 0.118155
-0.0921862 -0.0185729 0.163905
-0.0365359 -0.0758704 0.651973
0.0573998 -0.00721383 0.178026
0.0243221 0.0762132 0.125125
-0.083662 0.00167535 0.147151
-0.0301013 -0.0826015 0.483014
0.0592796 -0.056814 0.530443
-0.0896862 -0.0253416 0.0902971
-0.0286906 -0.0286515 0.316125
0.0696741 -0.0261199 0.158878
-0.0947805 -0.0593028 0.52574
0.0662277 -0.0171854 0.148717
-0.0693926 -0.0364161 0.215239
0.240779 -0.0716697 0.500206
0.0699396 -0.0172528 0.162153
0.174075 -0.048316 0.13669
0.066649 -0.0174094 0.144953
-0.0212335 -0.0390655 0.930401
0.0401472 -0.0593028 0.575395
-0.0401236 -0.0398879 0.613966
-0.0122764 -0.0888474 0.657869
0.220279 -0.0798761 0.534565
0.0303933 0.0620964 0.127493
-0.0942916 -0.0348286 0.208473
-0.0204244 -0.024949 0.61831
-0.0276979 -0.0430208 0.0922496
-0.0562086 0.0481595 0.135026
0.0219755 -0.0575099 0.758651
0.145322 -0.0593028 0.516725
-0.0364788 -0.076255 0.417784
0.191877 -0.0377827 0.110474
-0.0206076 -0.0869224 0.452766
-0.00292877 -0.0593028 0.518207
-0.199548 -0.0593028 0.500262
-0.00587033 -0.0780377 0.927787
-0.0379398 -0.0370477 0.705344
-0.0131597 -0.0232075 0.446722
0.00512523 -0.085203 0.437274
-0.0611431 0.0517302 0.135527
-0.0246614 -0.0260721 0.635856
-0.181229 -0.0490885 0.50262
0.0778075 -0.0279239 0.106137
0.0894881 -0.0504489 0.189206
0.0172733 -0.0556949 0.896774
-0.00800552 -0.0886692 0.512607
0.128148 -0.0533985 0.500965
0.0277683 0.0729568 0.135986
0.00170397 -0.0403022 0.126297
0.163025 -0.0481998 0.13612
-0.0168333 -0.0234268 0.147105
-0.0385939 -0.0737875 0.673059
-0.0291269 -0.0490885 0.541288
-0.0776086 0.0086471 0.133523
-0.0754869 0.0147638 0.112196
-0.0822824 -0.000818724 0.116489
-0.0738765 0.0143177 0.173793
0.139186 -0.0518574 0.539746
0.00450624 -0.0266114 0.547487
-0.0191328 -0.0243546 0.79254
-0.00954618 -0.0714988 0.171522
0.0189618 0.0872377 0.111869
-0.0265035 -0.0321179 0.0914734
0.0134646 -0.0347428 0.480298
0.0574492 -0.0839302 0.548199
-0.121487 -0.0345348 0.195894
0.0161495 -0.0460085 0.220212
0.0600071 0.00322353 0.0834358
0.00239471 -0.0859151 0.465304
-0.084849 -0.0591706 0.505442
0.0792901 -0.0430266 0.115118
0.0027167 -0.0857599 0.536022
-0.0570125 0.0573281 0.0978351
-0.0113628 -0.0547064 0.542316
-0.0402231 -0.0401736 0.518287
0.0602289 -0.0612689 0.536923
-0.0520062 -0.0593028 0.54697
-0.0283675 -0.0789959 0.873131
-0.0282799 -0.0798309 0.864839
0.100363 -0.0490885 0.552625
-0.0357066 -0.0770001 0.474752
-0.0837967 -0.0345298 0.201132
-0.006344 -0.0232911 0.215889
-0.0977889 -0.02807 0.138695
0.0278441 -0.058828 0.540731
0.00590424 -0.0495535 0.107144
0.0516892 0.0133325 0.149239
-0.151107 -0.0338485 0.110569
-0.00620681 -0.061943 0.983754
-0.0374809 -0.0642484 0.257059
0.0148015 -0.0334807 0.150662
0.0565008 -0.0543475 0.571724
0.0594892 0.00955406 0.131996
-0.0153159 -0.0236643 0.510933
-0.0101781 -0.0888747 0.77594
0.0552574 -0.00200972 0.175782
-0.021962 -0.025118 0.789247
-0.0295826 -0.042006 0.104902
0.107403 -0.0383589 0.16502
-0.00383015 -0.0875795 0.470476
-0.0752301 0.00467104 0.119067
-0.0887521 -0.0136859 0.0890954
-0.0292288 -0.0284251 0.648111
0.00417134 -0.0491975 0.0947098
0.0149377 -0.0753954 0.808327
-0.158492 -0.0593028 0.499886
-0.0318556 -0.0303222 0.11754
0.144921 -0.0447879 0.107429
0.134326 -0.0490885 0.517233
0.234492 -0.0863369 0.517338
-0.0313339 -0.061316 0.9337
-0.0401624 -0.0716361 0.622384
-0.0159364 -0.0234485 0.234595
-0.0998748 -0.0544704 0.555047
0.0083911 -0.0324307 0.156649
0.10652 -0.0490885 0.529347
-0.0443219 -0.041313 0.225212
-0.18705 -0.0289199 0.103184
0.00258565 -0.0554994 0.114728
-0.137105 -0.0293002 0.167367
-0.0600558 -0.0368956 0.106258
-0.0363466 -0.0362256 0.328894
0.0374827 0.0532048 0.0877425
-0.26813 -0.0593028 0.470191
0.0145675 -0.050825 0.523351
0.0346056 0.046208 0.124936
-0.239523 -0.0744274 0.518611
0.0651912 -0.0353152 0.149841
-0.247283 -0.0490885 0.481846
-0.0100642 -0.0226476 0.633479
-0.0366525 -0.0442975 0.17485
-0.0208064 -0.0866556 0.608089
-0.0127999 -0.0625382 0.121067
-0.199984 -0.0226033 0.114501
0.014401 -0.0409502 0.195044
-0.0252486 -0.085313 0.720203
-0.0901087 -0.0200349 0.136391
-0.0477604 0.076951 0.13798
-0.0227278 -0.042525 0.943387
0.0463404 0.0364063 0.13566
-0.0010656 -0.0868711 0.423817
0.0207864 -0.0492367 0.812951
-0.0475169 0.0689296 0.0950215
-0.150636 -0.0593028 0.502028
-0.0223128 -0.0458022 0.942485
0.0974828 -0.0567928 0.50267
-0.0968016 -0.0323702 0.0938551
0.0345131 -0.0349521 0.158281
-0.228826 -0.0800014 0.541838
0.0183958 -0.0325441 0.139363
0.0159823 -0.0408619 0.117628
-0.0612561 0.0448035 0.139189
0.0416195 0.044856 0.0880462
-0.0385122 -0.0378708 0.471028
0.0130103 -0.0713948 0.884423
0.096716 -0.0361656 0.146193
0.0152758 -0.0725283 0.846702
0.0430882 -0.0335364 0.110951
0.0101322 -0.0709234 0.247887
0.0233177 0.0772227 0.118153
0.068616 -0.0191929 0.0910053
-0.0759981 0.0139713 0.104243
-0.00733905 -0.059337 0.107379
0.0123583 -0.0335729 0.510452
0.19784 -0.0593028 0.485387
0.046931 0.0266229 0.13012
-0.000766348 -0.0593028 0.564401
-0.22663 -0.0554394 0.491742
0.0647766 -0.042276 0.113016
0.00431402 -0.0853946 0.474302
0.0781017 -0.0416599 0.101258
0.166622 -0.036859 0.12555
-0.00743331 -0.0882032 0.707697
-0.217467 -0.0698676 0.509844
-0.0174781 -0.0239916 0.743501
0.139918 -0.0358432 0.125528
-0.0503651 0.0623576 0.096131
-0.00833133 -0.0885128 0.646122
0.164306 -0.0490891 0.500149
0.0121625 -0.0498885 0.915871
-0.0231949 -0.0355833 0.116457
0.122116 -0.0442062 0.110422
-0.0857197 -0.0613975 0.564164
-0.0393332 -0.0409151 0.33308
-0.17669 -0.0291286 0.159812
-0.0756644 -0.0844827 0.553582
-0.082372 0.000509298 0.0919866
-0.0936022 -0.0341709 0.176867
0.203256 -0.040422 0.0874349
-0.022858 -0.0593028 0.539045
-0.0976865 -0.0316213 0.117356
-0.0420516 -0.0473495 0.41825
-0.0127444 -0.0340204 0.107647
-0.0436457 -0.0355853 0.191775
-0.036202 -0.0633753 0.902312
0.066522 -0.0819153 0.582147
0.134565 -0.0593028 0.505343
-0.00384136 -0.0430276 0.148362
0.109615 -0.0502032 0.178572
-0.0130792 -0.0603011 0.988789
0.135497 -0.0432544 0.0950488
-0.0239175 -0.0330371 0.108694
-0.226161 -0.0774546 0.545644
-0.0620753 -0.0451562 0.194058
0.0116274 -0.0328697 0.497307
0.0108063 -0.0797805 0.595081
-0.160102 -0.0353229 0.12969
-0.03523 -0.0770808 0.760375
0.0318773 0.0579379 0.142274
-0.168423 -0.0257909 0.14293
0.0189935 -0.0492113 0.302374
-0.0268283 -0.026991 0.379309
-0.182895 -0.0352051 0.13756
0.0662763 -0.0218373 0.174956
-0.0172426 -0.0875881 0.620004
0.0634767 -0.0236332 0.178281
-0.237546 -0.0819327 0.531564
-0.0382208 -0.0600031 0.246663
-0.00657728 -0.0881106 0.610155
-0.0559945 0.0586838 0.111866
0.0700674 -0.0276274 0.131223
-0.0423969 -0.0486604 0.411808
0.0221471 -0.0570246 0.613165
-0.0174594 -0.0705354 0.969724
0.00349764 -0.0307454 0.0824453
-0.0109787 -0.0890588 0.803141
-0.0379677 -0.0715111 0.849629
-0.0387642 -0.0379959 0.573306
-0.0146437 -0.0570724 0.516633
-0.0372421 -0.0645164 0.252699
-0.0595839 0.0496101 0.12477
0.0205693 -0.0484522 0.802994
0.0629907 -0.0682388 0.591058
-0.0976076 -0.0350846 0.118393
-0.0241764 -0.0820465 0.869623
-0.224994 -0.0582552 0.486625
-0.00778287 -0.0233237 0.539784
0.166259 -0.0490885 0.515336
-0.0943127 -0.0222723 0.146775
-0.00637134 -0.0408971 0.126938
-0.00290007 -0.0248895 0.390058
0.0551469 0.0176163 0.137807
0.0441162 -0.035245 0.157527
-0.233522 -0.085772 0.528218
0.036894 0.0460711 0.142542
-0.0509513 -0.0455041 0.244828
-0.102633 -0.0490885 0.546327
-0.0129692 -0.0757314 0.950878
-0.0311198 -0.0814157 0.59063
-0.0699972 -0.0593028 0.532462
0.0193718 -0.0443426 0.638893
0.150756 -0.037537 0.139032
0.0203925 -0.0509747 0.348048
0.0474024 -0.0684213 0.57752
0.0853248 -0.0490885 0.517286
-0.290004 -0.0583242 0.483982
-0.0305625 -0.0529845 0.135707
0.0181966 -0.0720921 0.512085
-0.0371169 -0.0460104 0.193075
0.0211259 -0.0606813 0.774701
-0.0658269 -0.0529936 0.567677
0.0635649 -0.00985029 0.0977435
-0.000109054 -0.0251449 0.751213
-0.0125571 -0.0629538 0.987423
-0.0284628 -0.0277131 0.534395
0.0183932 -0.0427709 0.357829
-0.144833 -0.0255116 0.13056
-0.0197108 -0.0304424 0.902251
0.159829 -0.0387626 0.0976483
0.00778041 -0.0459573 0.114295
0.0132644 -0.0670847 0.238277
0.11441 -0.0593028 0.532933
-0.0233519 -0.0861634 0.486787
-0.027402 -0.0270458 0.43504
0.0212737 -0.0601306 0.810366
-0.0219491 -0.0250694 0.816796
0.019641 -0.0453416 0.666981
-0.0193523 -0.0871154 0.570807
0.224296 -0.0709718 0.538506
-0.0211465 -0.0273684 0.866553
-0.0694923 0.0287605 0.10064
0.051219 0.0168871 0.0933258
0.0223883 -0.055967 0.659881
-0.0387725 -0.0736574 0.640779
-0.0220459 -0.0801379 0.277911
-0.032011 -0.0806756 0.517083
-0.0806032 0.000694285 0.084053
-0.0236433 -0.081363 0.881765
0.122276 -0.0475484 0.145552
-0.0264159 -0.0274251 0.207763
0.0181593 -0.0721956 0.474113
-0.0378373 -0.0748753 0.462533
-0.0247437 -0.0857984 0.475308
-0.0276922 -0.0494898 0.553811
-0.0651131 0.0367564 0.128326
-0.0479673 -0.0559346 0.511085
0.0182347 -0.0402849 0.434322
0.00888247 -0.0315803 0.843445
0.0733044 -0.0335784 0.162239
0.00268457 -0.0258923 0.751969
0.074924 -0.0308787 0.101785
0.004676 -0.0495218 0.213349
-0.134562 -0.0538058 0.541286
-0.00999793 -0.048069 0.0523134
-0.0854051 -0.020835 0.186644
-0.00644805 -0.0813345 0.269015
0.0639647 -0.0593028 0.518221
0.000582196 -0.0691719 0.174311
0.0127996 -0.072791 0.871269
0.134352 -0.0369908 0.139839
0.0205183 -0.062947 0.697203
-0.215683 -0.031918 0.116051
-0.0742189 0.00793531 0.104171
-0.0368715 -0.0390795 0.235971
0.00168888 -0.0554761 0.110827
-0.0771117 -0.0860513 0.586443
0.0327329 -0.0349451 0.105363
-0.0954669 -0.0255796 0.137669
-0.219795 -0.0669577 0.511395
0.00444947 -0.0265251 0.6498
0.0078954 -0.0291004 0.515112
-0.0649331 0.0356805 0.154499
0.0450001 0.0210338 0.144465
0.0953353 -0.0490885 0.529854
-0.0131684 -0.0232427 0.429301
-0.0392273 -0.0686721 0.333629
0.0636654 -0.0108858 0.145251
0.00152952 -0.0257536 0.63423
-0.23778 -0.0691948 0.507082
-0.0939256 -0.0244321 0.0838297
0.0227238 -0.0377891 0.0975984
-0.0972439 -0.0499156 0.508326
0.0127397 -0.0338745 0.649501
0.0979636 -0.0461083 0.140103
-0.0401615 -0.0689163 0.359735
0.063073 -0.0136611 0.168407
0.221793 -0.0681594 0.515025
-0.0841319 0.00385609 0.0998541
0.00721064 -0.0835649 0.458067
-0.0265807 -0.0776653 0.264905
0.00164732 -0.0260816 0.404137
0.242606 -0.0490885 0.498264
-0.0904276 -0.0210869 0.149129
-0.0720642 0.0237609 0.0895063
-0.0347936 -0.0428972 0.169481
-0.0330343 -0.0796293 0.529701
0.175902 -0.0521627 0.494661
-0.0314323 -0.0739537 0.280378
0.0369791 0.0491862 0.118287
-0.0358765 -0.075366 0.359939
0.134964 -0.038246 0.152811
-0.0382366 -0.0744084 0.53857
0.0544144 -0.0593028 0.571282
0.0171591 -0.046057 0.171866
-0.0434973 -0.059067 0.786593
-0.0703668 0.0252746 0.123605
-0.0201854 -0.0249131 0.577819
-0.0598186 0.0577171 0.103625
-0.205363 -0.0593028 0.512159
0.0215384 -0.0591392 0.672278
-0.0365012 -0.0366665 0.284219
-0.153638 -0.0490885 0.521913
-0.0289772 -0.0281502 0.668407
0.0346787 -0.0490885 0.533415
0.0576653 -0.0511864 0.209696
-0.00560112 -0.0238412 0.636665
-0.0100973 -0.0593028 0.520403
0.0655788 -0.0181078 0.16182
0.142903 -0.0434934 0.0946047
-0.0166032 -0.0865618 0.356882
-0.199943 -0.0355435 0.147937
0.0154582 -0.0608603 0.231383
-0.028205 -0.0274167 0.615621
-0.0198883 -0.0245311 0.240111
0.0225513 0.0760843 0.133891
0.13076 -0.0474817 0.141458
-0.161043 -0.026165 0.143919
0.238169 -0.0844842 0.536759
0.0431464 0.0339355 0.133835
-0.247305 -0.0501538 0.478872
0.0175204 -0.072806 0.816549
0.00870478 -0.0300179 0.463662
0.0134489 -0.0769134 0.772273
0.0136573 -0.035112 0.39639
0.0581764 -0.00026323 0.148348
-0.027742 -0.0461108 0.0991023
-0.0411933 -0.0593028 0.558565
-0.0966531 -0.0275845 0.116083
0.0673016 -0.00926777 0.0901633
0.329116 -0.0593028 0.469815
-0.159049 -0.0490885 0.508264
-0.0223655 -0.0257559 0.403374
-0.00944868 -0.0767202 0.20945
0.157157 -0.046871 0.124476
-0.0839857 -0.0317879 0.172331
0.0499187 -0.0667037 0.542369
0.0556638 0.0196282 0.120202
-0.0508688 -0.0323701 0.165222
-0.0341077 -0.0781583 0.815728
-0.0650964 -0.0490885 0.554499
-0.0832251 -0.00355132 0.123683
-0.0971755 -0.0327658 0.144259
-0.146243 -0.0295668 0.110711
-0.0170194 -0.0816302 0.280228
0.00920727 -0.0512568 0.13665
0.103693 -0.0505814 0.184922
-0.0131957 -0.0795344 0.231156
-0.0201324 -0.0443622 0.95457
-0.0907538 -0.0171601 0.0816416
0.0187185 -0.0417296 0.732017
0.00960561 -0.0811597 0.479532
0.0217787 -0.0560136 0.828274
-0.155573 -0.0286812 0.168229
0.0133829 -0.0773996 0.443725
-0.00687824 -0.0419664 0.1384
0.0782689 -0.0318939 0.1114
0.0512262 -0.063117 0.558593
0.0654226 0.00219707 0.103221
0.0201649 -0.0472332 0.506942
-0.0890208 -0.0431125 0.183308
0.0342152 0.0592652 0.137843
-0.0112006 -0.0721741 0.174095
-0.0711167 0.0216155 0.152961
-0.0210026 -0.0807668 0.897496
-0.0110083 -0.0718443 0.171339
0.0632655 -0.0852944 0.576819
0.0206449 -0.0628448 0.394923
0.0867356 -0.0593028 0.552412
0.062535 -0.0481389 0.175653
0.0528244 -0.0843132 0.593889
-0.0512624 0.0691731 0.116251
-0.0255133 -0.0260216 0.818564
0.0312912 -0.0521441 0.230326
-0.0278819 -0.0848156 0.494025
-0.0645142 0.0368985 0.150482
0.138095 -0.0444581 0.106685
-0.00159646 -0.0386155 0.935617
0.00968884 -0.0308473 0.599576
0.0219406 -0.0538724 0.686874
-0.0562174 -0.0490885 0.550725
0.00748349 -0.0593028 0.562553
0.0591246 -0.00840952 0.18412
-0.043993 -0.0576191 0.429303
0.0024063 -0.0552132 0.579726
-0.0853316 -0.0100909 0.150191
0.0147058 -0.0362871 0.365843
-0.222977 -0.0321598 0.136126
-0.0212979 -0.057287 0.973591
-0.0403314 -0.0509869 0.249278
-0.0595165 -0.0593183 0.513048
-0.0285782 -0.0689041 0.205145
-0.0597503 -0.042728 0.167555
0.232165 -0.086999 0.511581
-0.186061 -0.0593028 0.490285
0.019256 -0.041276 0.120681
-0.0163809 -0.0879086 0.377353
0.0264939 -0.0312451 0.122444
-0.0194074 -0.087163 0.537707
-0.144177 -0.0525729 0.537
-0.015182 -0.0877292 0.821545
0.00145639 -0.0257746 0.31055
0.0222052 -0.0490885 0.531538
0.0747288 -0.0260912 0.101847
-0.0240628 -0.0281146 0.865886
-0.0479004 0.0771613 0.136659
-0.139074 -0.0266575 0.140326
0.184639 -0.0593028 0.516438
0.0470914 -0.0472786 0.172768
0.0104718 -0.0712906 0.257489
0.00447232 -0.0773352 0.25812
-0.00597723 -0.0317843 0.117879
-0.090475 -0.0303124 0.184318
-0.0511597 0.0671164 0.145264
-0.105536 -0.0380603 0.136702
-0.0275726 -0.0847174 0.691369
-0.0306137 -0.0462683 0.193191
-0.0950789 -0.0232801 0.130324
-0.0565594 0.056056 0.125321
-0.0950959 -0.0272172 0.164264
0.0189825 0.0866903 0.120358
0.0753958 -0.0319342 0.127814
-0.0384942 -0.0601457 0.254801
-0.0117717 -0.0228621 0.432622
-0.0382766 -0.0345768 0.176126
0.075013 -0.0361635 0.156907
0.02201 -0.0578428 0.49389
-0.0873763 -0.0319658 0.17556
0.224287 -0.0805148 0.539076
0.00543248 -0.0438163 0.199642
0.0472608 0.0331093 0.0891686
-0.0263046 -0.0267336 0.444687
0.221623 -0.0593028 0.501137
0.160179 -0.0593028 0.506218
0.0591638 -0.0386959 0.187855
-0.00582142 -0.0240142 0.439215
-0.00470298 -0.0242262 0.334214
0.00770772 -0.0693481 0.926041
0.0106327 -0.0497349 0.213212
-0.0236789 -0.0550428 0.964746
0.010709 -0.0709227 0.903405
-0.158581 -0.0343991 0.119354
-0.0111045 -0.0854335 0.315513
-0.0234259 -0.0278448 0.0979388
-0.0881309 -0.00702796 0.128556
0.00655515 -0.0292727 0.218572
0.0184832 -0.0659843 0.838309
-0.0439368 -0.0543515 0.427743
-0.018378 -0.024209 0.757979
0.0466702 -0.0396622 0.203025
-0.00823753 -0.0547747 0.550168
0.182313 -0.0360719 0.110988
0.0235531 0.0774973 0.139991
-0.0589184 0.041391 0.138448
0.0418409 0.0348774 0.144159
-0.0862694 -0.00220786 0.119277
0.0208522 0.0833651 0.101214
0.0024811 -0.0312603 0.118526
0.0494257 -0.0791242 0.585686
0.0168033 -0.0379025 0.6756
-0.141529 -0.0593028 0.529883
-0.0265032 -0.0593862 0.513994
0.00137498 -0.0857764 0.778798
0.0151813 -0.0752398 0.699408
-0.0308453 -0.0335137 0.144204
0.0721084 -0.0217118 0.158959
-0.0434725 0.0868004 0.121204
-0.0935149 -0.0451024 0.20606
-0.22338 -0.0321072 0.13591
0.0350673 0.0460275 0.139943
-0.0234121 -0.033008 0.108944
-0.226982 -0.0551863 0.485481
0.0731633 -0.0235692 0.102296
-0.0245549 -0.0261003 0.553988
-0.0126478 -0.0242519 0.850552
0.0822153 -0.0593028 0.558995
0.0141618 -0.0762839 0.669152
0.0211785 -0.0510156 0.564114
0.158242 -0.0490888 0.503042
-0.0551554 -0.0325752 0.169097
-0.0751768 0.0151193 0.116423
-0.0406734 -0.0418987 0.689741
-0.0318852 -0.0308992 0.758246
0.00855504 -0.0297533 0.51832
-0.00792332 -0.0252701 0.862975
0.0618904 -0.0645997 0.577381
0.0188761 -0.0639422 0.840779
-0.0302684 -0.0294413 0.668472
-0.0798917 0.0042517 0.124751
0.0271601 -0.0497774 0.560347
-0.0441833 -0.0565071 0.810197
-0.0203413 -0.0309948 0.0270823
0.0541825 0.0121291 0.126382
-0.0288497 -0.0836302 0.617077
0.0224166 -0.0562374 0.400108
-0.0645142 -0.0490885 0.525282
0.0205874 -0.0487884 0.541806
0.0734807 -0.0347757 0.149851
-0.00905591 -0.0792375 0.228405
0.018666 -0.0702592 0.425707
-0.136638 -0.0341202 0.107646
0.0656351 -0.0283355 0.190265
0.0167518 -0.0421788 0.284737
0.00152164 -0.0330947 0.909123
-0.0202354 -0.0251463 0.423959
-0.0337634 -0.0406172 0.160834
-0.0654434 0.0274327 0.105025
0.321205 -0.0570318 0.458135
-0.066643 0.032288 0.142779
0.225512 -0.0490885 0.503525
-0.0246254 -0.0858777 0.380179
0.0190342 -0.0494927 0.850028
0.00804842 -0.0775666 0.309842
0.022146 -0.0547181 0.481043
-0.0184955 -0.0244923 0.531631
0.0623383 -0.0083747 0.144669
-0.0416988 -0.0456415 0.722102
-0.226607 -0.0593028 0.490116
-0.209844 -0.033536 0.130757
-0.0798047 -0.038295 0.128888
0.0974627 -0.0481466 0.16177
-0.0180739 -0.0636987 0.134021
-0.099283 -0.0423881 0.179782
-0.00665398 -0.023005 0.148888
-0.168349 -0.0490885 0.506831
0.00115676 -0.0258131 0.338101
-0.00957287 -0.0890898 0.511704
-0.0354589 -0.0346732 0.610303
0.00226765 -0.0489332 0.0855163
0.180733 -0.0447081 0.0922712
0.00595624 -0.0445092 0.0969322
0.0101444 -0.0744501 0.88233
-0.000342864 -0.0825272 0.313991
-0.0567149 -0.0445417 0.185443
0.000307762 -0.0373658 0.0449864
0.0197577 0.082865 0.127893
-0.211088 -0.0230202 0.123339
0.210412 -0.0474436 0.109217
0.0579906 -0.0757266 0.592398
-0.00619416 -0.0284539 0.898389
-0.0499347 0.0778393 0.106029
-0.0435343 -0.0526491 0.649031
-0.0829196 -0.00401768 0.145116
0.0183698 -0.0412349 0.376954
0.0181152 -0.0722101 0.573865
-0.0905544 -0.025263 0.197562
-0.000896782 -0.0310323 0.120146
-0.0297735 -0.0342011 0.127514
0.0194777 -0.0571122 0.860462
-0.0839929 -0.00727635 0.153282
-0.289688 -0.0491641 0.469808
-0.301977 -0.0512056 0.465605
-0.272271 -0.0490885 0.477557
0.0735888 -0.0231556 0.0948059
0.01874 -0.066136 0.353793
-0.000814402 -0.0250383 0.700997
-0.228021 -0.0632645 0.53985
0.0113804 -0.0793846 0.480335
-0.189595 -0.0508237 0.518284
-0.0172145 -0.078827 0.91959
-0.076262 -0.0336606 0.188967
