-0.269962 -0.0545531 0.486807
-0.0285976 -0.0227013 0.736516
-2.07856e-05 -0.0208073 0.8291
0.160809 -0.0687822 0.542245
0.157925 -0.0545505 0.502862
0.0678291 -0.0763178 0.56254
0.0619524 -0.054554 0.522738
0.00885997 -0.0255427 0.308402
-0.0753822 -0.0323 0.109471
0.0149065 -0.0508911 0.211515
0.28061 -0.0545538 0.487855
-0.0287547 -0.0783916 0.454616
0.136651 -0.0421734 0.125407
0.146557 -0.0364672 0.0899454
0.0345097 -0.0495874 0.58202
0.102142 -0.0337299 0.156212
-0.225216 -0.0646046 0.543354
0.246121 -0.0727932 0.538652
-0.0313238 -0.0249318 0.622566
-0.0834846 0.0392668 0.139742
-0.0631503 -0.054552 0.565286
-0.0342464 -0.0282763 0.361107
0.034037 -0.0306854 0.151804
0.0208174 -0.0569035 0.539763
0.0469254 -0.0545559 0.552528
0.0167301 -0.0365128 0.846984
-0.019713 -0.0228027 0.024944
0.185036 -0.0441815 0.507824
-0.0263058 -0.0667335 0.211016
-0.00648117 -0.0342717 0.128565
-0.00998737 -0.0821266 0.824397
-0.170144 -0.0283566 0.150654
-0.0310925 -0.0394762 0.117469
-0.223976 -0.0441769 0.496249
0.225785 -0.0681908 0.498238
0.0147157 -0.0320069 0.831859
-0.00400831 -0.0211478 0.866917
0.0765108 -0.0380046 0.185409
0.0873625 -0.0545564 0.548555
-0.0113788 -0.0174165 0.212544
0.24217 -0.0617331 0.509397
0.0566711 -0.0542928 0.53228
-0.0389589 -0.0664115 0.390797
0.0429106 -0.0327756 0.167459
-0.0381114 -0.0320269 0.530099
0.174495 -0.0324038 0.120471
0.0104262 -0.0709063 0.320487
-0.0161816 -0.079374 0.320398
-0.231982 -0.0206379 0.0971989
-0.00367003 -0.0500688 0.984158
-0.00618262 -0.0832596 0.533156
-0.0278748 -0.0458531 0.563896
0.0676098 -0.0545537 0.519286
0.0108245 -0.0722634 0.351497
-0.0132276 -0.0335616 0.100825
-0.0110485 -0.0172175 0.166151
0.0465522 -0.054549 0.570375
-0.21887 -0.0282404 0.127825
0.0135874 -0.0721323 0.581936
-0.168875 -0.0287701 0.15134
-0.146577 -0.0545547 0.528127
0.0168824 -0.0638287 0.349935
-0.00459308 -0.0183895 0.120655
0.0605377 -0.0765463 0.588294
-0.0385474 -0.0523553 0.897557
-0.0142376 -0.0834197 0.452075
0.0520272 -0.0580669 0.560274
-0.124314 -0.0369501 0.166508
-0.210278 -0.0203727 0.0979591
-0.0355384 -0.0593981 0.235037
-0.117711 -0.031277 0.114517
-0.0201303 -0.0824119 0.502941
-0.00570398 -0.0819292 0.382978
-0.158047 -0.0545529 0.508339
0.000640919 -0.0472557 0.97224
-0.236334 -0.0556405 0.505777
-0.0377369 -0.0405473 0.208429
-0.0339304 -0.0274548 0.570343
-0.156045 -0.0223101 0.142007
0.0392275 -0.044424 0.546821
-0.16731 -0.0318349 0.135939
0.00567743 -0.0544594 0.566342
-0.0368788 -0.0305156 0.532482
0.123077 -0.0512844 0.549607
0.0494426 -0.0349407 0.184278
0.285984 -0.0445681 0.478783
-0.0243749 -0.0807279 0.449057
-0.0370039 -0.0708643 0.483754
-0.0131246 -0.0497697 0.535968
-0.0626519 -0.0545552 0.527932
0.185975 -0.0441816 0.50176
-0.0903138 -0.0441768 0.539432
-0.083385 0.0272468 0.14619
-0.0356606 -0.0319183 0.231676
-0.0359123 -0.0438614 0.912261
-0.0335905 -0.0727667 0.372675
0.0517545 -0.0537711 0.511254
0.0327391 -0.0545531 0.536999
-0.014545 -0.0343394 0.107648
-0.0451456 -0.0545663 0.520317
-0.0268334 -0.0545516 0.530109
0.0138748 -0.0716838 0.64404
0.00141584 -0.0803151 0.787266
-0.0140892 -0.0298348 0.115439
-0.0435964 -0.0498909 0.644586
-0.00997906 -0.0177894 0.73798
0.0211874 -0.0496379 0.74543
0.0156506 -0.0667836 0.362194
-0.0117621 -0.0813558 0.846573
0.018746 -0.0506604 0.296199
-0.0450894 -0.0443498 0.549724
-0.0827624 -0.0208342 0.163465
-0.0434035 -0.0471054 0.573132
-0.0123706 -0.0791253 0.308829
0.0213094 -0.0504269 0.670079
0.00556061 -0.0399109 0.14945
0.0212375 -0.0485898 0.621094
-0.139089 -0.0738431 0.54983
0.106577 -0.0414773 0.129317
0.0171563 -0.0340252 0.50696
-0.0255055 -0.0787093 0.37427
-0.0395944 -0.0343649 0.751722
-0.0829366 -0.0545488 0.559078
0.00586129 -0.0272539 0.108078
-0.00799346 -0.0545673 0.103142
-0.0332628 -0.0317296 0.88413
0.146484 -0.0516936 0.515318
0.0525169 -0.0545548 0.535338
0.0211833 -0.0480831 0.680287
0.048452 -0.0654244 0.593921
0.000532759 -0.0204637 0.409641
-0.03927 -0.0423989 0.248949
0.115248 -0.0432619 0.162176
-0.221471 -0.0443019 0.506847
0.016502 -0.0615475 0.86766
0.0212771 -0.0523493 0.685313
-0.0134272 -0.0355269 0.11827
-0.0413578 -0.059164 0.827492
-0.080131 0.0654002 0.122614
-0.0824403 -0.0206408 0.151198
0.0084714 -0.0265681 0.184633
-0.039108 -0.0333473 0.710012
-0.019598 -0.0824379 0.59591
-0.0294414 -0.0431322 0.199744
-0.200453 -0.0302484 0.134346
0.00797111 -0.0241997 0.778917
0.00726598 -0.0241545 0.303146
-0.0228509 -0.0537571 0.586727
-0.230382 -0.0441814 0.487936
0.0082386 -0.0762627 0.397373
-0.0334762 -0.0270264 0.552564
-0.105508 -0.0224107 0.113126
-0.0478843 -0.0545559 0.541622
-0.116548 -0.032625 0.125959
0.0205526 -0.0437119 0.705061
0.159917 -0.0508996 0.495349
0.0558654 -0.0545544 0.528026
0.262811 -0.054554 0.483793
0.0135837 -0.0300186 0.345816
-0.017635 -0.0189999 0.468558
0.0802218 -0.0512035 0.56567
0.00771011 -0.0242121 0.798784
-0.0206916 -0.0207165 0.0707388
-0.102417 -0.0311213 0.108089
0.00523017 -0.0225876 0.318086
0.055963 0.0216128 0.136684
-0.135414 -0.0535085 0.496547
0.0565094 -0.0441846 0.540372
-0.0351468 -0.0286944 0.548107
-0.018662 -0.0192362 0.484531
-0.0376889 -0.0695405 0.433538
0.223883 -0.0663817 0.518925
-0.11977 -0.044171 0.512777
-0.129957 -0.0365941 0.165292
-0.0218286 -0.0201064 0.466497
0.255742 -0.0484778 0.478386
-0.0128092 -0.0178958 0.29587
-0.0428687 -0.0438254 0.535799
0.222031 -0.0545546 0.505017
-0.0288976 -0.0228928 0.713268
0.128833 -0.0545499 0.512151
0.00111555 -0.0482648 0.525576
0.0189659 -0.0504849 0.58733
-0.00770669 -0.0180618 0.728145
-0.0324301 -0.0749773 0.776947
0.20922 -0.042698 0.107153
-0.0175545 -0.0183023 0.13481
0.00129447 -0.0204934 0.773312
-0.0918601 -0.0545552 0.533797
0.00645521 -0.0785016 0.500094
-0.125816 -0.0527637 0.547945
0.187694 -0.0459385 0.495432
-0.00509788 -0.0189861 0.0497588
-0.0828058 0.027565 0.12408
0.272604 -0.0444077 0.492154
-0.0183772 -0.0798869 0.859033
-0.0401753 -0.0355585 0.753331
-0.0516798 -0.0308419 0.0954401
-0.227044 -0.0703528 0.540817
0.00311342 -0.0404895 0.0763319
-0.0042629 -0.0512169 0.986044
-0.0825753 0.0218176 0.120372
0.0365498 -0.0430364 0.166343
0.0661434 -0.041871 0.146246
-0.0105482 -0.055221 0.105155
0.0013925 -0.0580809 0.142216
0.00210931 -0.0218119 0.132929
-0.0297738 -0.0778178 0.499505
-0.0313085 -0.0249432 0.597054
-0.043496 -0.0508551 0.43773
0.0208131 -0.0462595 0.765601
0.0934598 -0.0306758 0.132302
-0.0302198 -0.0269119 0.865662
-0.0169435 -0.053369 0.555191
-0.0927793 -0.0722266 0.551222
-0.0733045 -0.0302202 0.0965875
-0.0187517 -0.0825571 0.65091
-0.238559 -0.0752248 0.541106
-0.0216396 -0.0429637 0.0666125
-0.0419141 -0.0500562 0.84709
-0.0274126 -0.0261419 0.88462
-0.183557 -0.0227223 0.100972
0.019149 -0.060561 0.386513
-0.029803 -0.0752415 0.842833
0.0601705 0.0120349 0.143949
-0.0793092 0.00272225 0.166254
-0.00714181 -0.018214 0.661673
-0.0386418 -0.0504417 0.235114
-0.0236086 -0.0645867 0.181364
-0.0820886 -0.0183208 0.13619
-0.00454125 -0.0828001 0.643007
-0.105981 -0.0284151 0.178524
-0.0308515 -0.0364784 0.179294
-0.0140874 -0.0179981 0.728201
-0.077771 0.00643017 0.110237
-0.020501 -0.0658682 0.968096
-0.0052611 -0.0752103 0.919363
-0.0188257 -0.0825125 0.669207
-0.0182723 -0.0434778 0.0582207
-0.0802547 0.0196678 0.157152
-0.0134708 -0.0181672 0.355278
-0.274316 -0.0544998 0.468678
0.228967 -0.0804711 0.542599
-0.0578582 -0.0401535 0.172483
-0.00141953 -0.0673984 0.192438
0.156201 -0.0794302 0.563511
-0.0165917 -0.0809912 0.843409
-0.0180294 -0.0218246 0.0153326
0.0135228 -0.0640018 0.890761
0.0553084 0.0612472 0.127584
0.0168282 -0.033308 0.727722
-0.0112092 -0.01807 0.409143
0.0179161 -0.0363944 0.3908
0.00856981 -0.0598722 0.190806
-0.119373 -0.024959 0.105101
-0.172506 -0.0300554 0.122051
-0.0400267 -0.0444009 0.543131
-0.00953359 -0.0324093 0.126512
-0.0140456 -0.0486345 0.577293
-0.0192047 -0.0672028 0.966425
-0.0395247 -0.0420646 0.87241
-0.0432322 -0.0458826 0.614966
0.00662972 -0.0781552 0.66364
-0.035154 -0.035189 0.121363
-0.0375228 -0.0633684 0.30376
0.23481 -0.0779822 0.50051
0.039278 -0.0463491 0.194519
0.125248 -0.0545538 0.523949
-0.0884668 -0.0230265 0.125868
0.0170152 -0.043881 0.245315
0.224133 -0.0753747 0.51679
-0.00534135 -0.0830095 0.605279
-0.0810855 -0.0441768 0.538569
0.210169 -0.0545529 0.490823
0.0980216 -0.0442826 0.513917
-0.0398429 -0.0387525 0.303075
-0.0819985 -0.0117362 0.127299
0.00883121 -0.0258053 0.264854
0.00872966 -0.0750394 0.825114
0.0602338 -0.0038793 0.154886
-0.0370624 -0.0494185 0.204522
-0.0118192 -0.0172437 0.0929131
-0.0330344 -0.0750883 0.581954
-0.0453008 -0.0444773 0.559232
-0.0144145 -0.0728106 0.226356
-0.126844 -0.0221276 0.130674
0.189377 -0.0441802 0.508181
0.00159602 -0.0246661 0.889863
-0.136275 -0.0331115 0.136801
-0.0342167 -0.0739727 0.574458
0.0818047 -0.0545528 0.537609
0.0206718 -0.0577374 0.519431
-0.0604346 -0.054553 0.565388
-0.00339979 -0.0703558 0.211586
0.00824848 -0.0244031 0.544226
-0.0869664 -0.0571324 0.538452
0.210835 -0.0545547 0.502771
-0.0431332 -0.0460596 0.757006
0.0230585 -0.0471246 0.579498
-4.4513e-05 -0.0332374 0.937089
0.0735045 -0.0441852 0.560019
-0.0812916 -0.0263736 0.113404
-0.00408335 -0.0815783 0.382085
-0.0319953 -0.0726564 0.338476
-0.00311944 -0.0598877 0.983794
-0.0379773 -0.0694241 0.571025
0.160478 -0.0545509 0.503099
0.139761 -0.0638908 0.55356
0.00443734 -0.0402441 0.152948
0.116451 -0.0343082 0.15581
0.153552 -0.0331765 0.0956758
0.123584 -0.0441791 0.533512
-0.0450721 -0.0545562 0.550113
-0.185267 -0.054554 0.501944
0.0280742 -0.0545517 0.528186
-0.0783213 -0.00408857 0.139569
0.0160719 -0.0360851 0.272462
-0.235487 -0.0441768 0.4976
-0.160968 -0.0247921 0.10146
0.0186518 -0.0589016 0.842337
-0.00406842 -0.0624117 0.151718
-0.0100147 -0.0185728 0.82961
-0.0348014 -0.0291933 0.303961
0.00693447 -0.0235548 0.439107
0.00273756 -0.0804496 0.583008
0.236518 -0.0519201 0.480196
0.0202595 -0.0423148 0.671913
0.161548 -0.0411056 0.134245
-0.221786 -0.0196231 0.120372
0.0287116 -0.0545538 0.544893
-0.0802707 0.0630541 0.100596
-0.0174843 -0.0454724 0.533794
-0.00186616 -0.0410885 0.166763
-0.0145543 -0.0682081 0.185525
-0.255396 -0.0489605 0.497384
0.231984 -0.0515289 0.488266
0.0679032 -0.0652868 0.557257
-0.122612 -0.030691 0.176535
0.236635 -0.0756011 0.542675
0.0208544 -0.0547196 0.770673
0.0160538 -0.0586649 0.275245
-0.0483421 -0.0365888 0.206167
0.0989736 -0.054556 0.540893
0.0683916 -0.054554 0.525606
-0.0834994 0.0199463 0.156652
-0.0395383 -0.0568061 0.878558
0.144981 -0.0441771 0.529706
-0.0320205 -0.0587381 0.193065
-0.0789512 -0.0260697 0.102525
-0.00561639 -0.0832067 0.489355
-0.0353963 -0.0291326 0.437917
0.0751733 -0.0472776 0.56607
-0.0283574 -0.0771897 0.377241
0.0128642 -0.0729297 0.594942
-0.1921 -0.019072 0.1256
0.0142611 -0.0479501 0.522571
0.100282 -0.0446689 0.159423
-0.0283136 -0.0228126 0.453745
-0.0508221 -0.0545549 0.528589
-0.0290044 -0.0337061 0.106076
-0.0220707 -0.0401605 0.0583148
0.103496 -0.0411202 0.169818
-0.0177154 -0.0188552 0.77364
-0.0268033 -0.0735777 0.290357
-0.00560745 -0.0185313 0.668307
-0.193478 -0.018073 0.109045
-0.00970906 -0.0541174 0.559438
-0.0920588 -0.0777548 0.575422
0.015321 -0.0414513 0.200408
-0.225184 -0.0208887 0.0930276
-0.0351432 -0.0541795 0.92269
-0.0848813 -0.0322095 0.111793
-0.00101497 -0.040158 0.960864
-0.0420711 -0.0540791 0.345881
-0.0385196 -0.0684355 0.668525
-0.0481322 -0.0545541 0.525979
-0.0789823 0.00439906 0.157062
-0.0840784 -0.0500072 0.563588
0.0596017 -0.0204215 0.168983
-0.0424924 -0.0588598 0.749451
0.0671416 -0.0702007 0.548163
0.0198606 -0.0409686 0.473399
0.177947 -0.0394453 0.087705
-0.0122805 -0.0483011 0.569243
-0.144783 -0.0809384 0.557756
0.0174128 -0.0652748 0.793503
0.0594844 -0.0511804 0.537074
-0.00725485 -0.0732919 0.232513
-0.0354995 -0.0290111 0.583776
-0.027189 -0.0260773 0.885745
-0.0271133 -0.0545532 0.54197
-0.212158 -0.018666 0.101453
-0.000421078 -0.0199039 0.664728
-0.0789063 0.0396715 0.124252
-0.0711962 -0.0716857 0.566441
-0.0275322 -0.0236568 0.171623
-0.0115421 -0.08339 0.703389
0.151036 -0.0545561 0.532489
0.00294992 -0.0799584 0.754355
-0.0269387 -0.0669626 0.216875
-0.000327206 -0.0801065 0.827672
0.00616565 -0.0785321 0.448566
-0.0388896 -0.0401604 0.249066
-0.0647026 -0.054556 0.544686
-0.149104 -0.0208773 0.113475
-0.0379876 -0.0319354 0.486233
-0.273499 -0.0442025 0.486845
-0.187715 -0.0183617 0.1103
0.00670709 -0.0403986 0.153363
0.018074 -0.0356931 0.715064
0.00586181 -0.0545017 0.557919
0.0394612 -0.0455241 0.576442
-0.0289781 -0.0319632 0.0984447
-0.0280115 -0.0534249 0.138669
-0.0832182 0.0653104 0.107617
0.0207909 -0.0505249 0.800142
-0.03881 -0.0331927 0.771544
0.100031 -0.0441792 0.550275
-0.0110725 -0.0181378 0.0160396
0.00792025 -0.0241719 0.511091
-0.0425834 -0.0415092 0.17934
-0.0331754 -0.0438753 0.928282
0.0455779 -0.0307643 0.149032
-0.0327866 -0.0754318 0.4987
-0.0102427 -0.0834562 0.648481
-0.141136 -0.0441768 0.531514
0.207617 -0.0517634 0.517577
-0.00438717 -0.0189595 0.545795
-0.19163 -0.0277423 0.10812
0.0597847 -0.0545524 0.563503
-0.0651084 -0.0293939 0.0962045
-0.0909078 -0.0277322 0.0989063
-0.140225 -0.0230518 0.108303
-0.166328 -0.0545526 0.501427
0.0149976 -0.0539971 0.548219
-0.0777507 -0.0640263 0.588831
0.00492067 -0.0244803 0.132077
0.00569979 -0.0544678 0.537454
-0.0159018 -0.0828608 0.749156
0.0412753 -0.0336817 0.175403
-0.14352 -0.0789572 0.528253
-0.0351987 -0.0703934 0.83634
0.110844 -0.0326017 0.099457
-0.0313659 -0.0251461 0.780262
-0.0148271 -0.0649637 0.16274
-0.036737 -0.0303106 0.577957
0.175968 -0.0417719 0.108787
-0.142737 -0.0764203 0.564188
-0.0787072 0.0218906 0.13201
-0.122666 -0.0228488 0.110699
-0.0133961 -0.0185278 0.820904
0.00242299 -0.0806457 0.547078
-0.0341323 -0.0738783 0.691804
0.00712127 -0.037498 0.0999156
0.0314738 -0.026939 0.119896
-0.0819637 -0.0189458 0.132083
-0.0798683 0.0434996 0.134615
-0.0128098 -0.081515 0.357839
-0.0420246 -0.0450588 0.82887
0.276335 -0.049791 0.472317
0.0604944 -0.0275485 0.11094
-0.00282352 -0.0195026 0.442533
0.0606859 0.03022 0.109256
-0.232547 -0.0784653 0.501551
0.00490812 -0.0537711 0.135922
0.0575519 -0.0174482 0.110663
-0.0294897 -0.0467385 0.579782
-0.0401971 -0.0355863 0.499713
-0.031922 -0.0317209 0.140827
0.0811803 -0.0488447 0.509387
0.0195073 -0.06158 0.705578
0.157537 -0.0647893 0.516267
0.190787 -0.0389511 0.0801203
0.00959294 -0.0427883 0.130014
-0.151313 -0.0545544 0.52535
-0.190078 -0.0545518 0.490631
-0.198186 -0.0264993 0.0993958
-0.0152729 -0.0177705 0.111614
0.0970959 -0.0542748 0.557927
-0.100351 -0.039663 0.182558
0.0902414 -0.0446954 0.163001
-0.121951 -0.0303076 0.107422
-0.0347917 -0.0734571 0.512303
-0.0385567 -0.0344468 0.322856
-0.0849583 -0.0719878 0.539949
0.0557796 0.0195678 0.145251
0.0160281 -0.0323752 0.457356
-0.00992014 -0.0181104 0.435455
-0.0222634 -0.0642061 0.96795
-0.016414 -0.0832449 0.506714
-0.0274564 -0.0221343 0.57899
-0.0588977 -0.0289084 0.167158
-0.0245737 -0.0761786 0.311534
0.0175768 -0.0404628 0.283881
-0.131788 -0.0260226 0.102119
0.0201006 -0.0418253 0.733072
-0.00146148 -0.0742026 0.26004
0.0999134 -0.0441751 0.521285
-0.0388859 -0.057012 0.273691
0.0125227 -0.038061 0.164804
-0.000430734 -0.0268031 0.0344383
0.0448452 -0.0317793 0.158185
-0.0227846 -0.0280431 0.126413
-0.227471 -0.0199227 0.105152
0.0181471 -0.0425284 0.290992
0.141984 -0.0745142 0.559939
-0.00784142 -0.0808637 0.853546
0.227043 -0.0630168 0.497509
0.0169104 -0.0610938 0.863803
-0.0772481 -0.0171406 0.106445
0.234388 -0.0441868 0.500037
-0.00384838 -0.0190198 0.627669
0.142571 -0.041462 0.117192
0.0661378 -0.0349465 0.178886
0.187779 -0.0545543 0.503237
0.129696 -0.0407481 0.115216
-0.0104077 -0.0641053 0.15533
0.116008 -0.0417804 0.128835
-0.0614713 -0.0441768 0.539151
-0.116698 -0.0315975 0.116992
-0.0176046 -0.0776108 0.295228
-0.0129544 -0.048194 0.569287
-0.0278361 -0.0278593 0.895325
0.0147723 -0.0524719 0.555308
0.0515581 -0.0653306 0.58943
-0.0156907 -0.0186816 0.805808
0.0822073 -0.0398114 0.122814
0.106715 -0.0316419 0.101851
-0.0780504 -0.00428275 0.12973
0.199671 -0.0350878 0.0825866
0.039891 -0.0275106 0.122221
-0.322555 -0.0544761 0.460138
-0.0349549 -0.0725852 0.767626
0.0740514 -0.0444028 0.562662
-0.0396514 -0.0375341 0.31408
-0.0691157 -0.0545555 0.532813
-0.220723 -0.0226418 0.1273
0.15894 -0.0641995 0.528923
-0.272937 -0.0477062 0.471796
-0.0139108 -0.0505231 0.542958
-0.0122639 -0.0759159 0.260845
0.0131566 -0.0690192 0.339273
-0.021496 -0.0235075 0.886932
0.123033 -0.05455 0.509891
-0.00539904 -0.018746 0.519434
0.0231964 -0.0424808 0.212427
0.0748764 -0.0545373 0.513498
0.00319346 -0.0288206 0.0660036
-0.0318125 -0.0761848 0.556152
-0.0143626 -0.0181068 0.0422049
0.0625304 -0.0545538 0.561472
-0.0860904 -0.0789418 0.589232
-0.0340652 -0.0570364 0.201995
0.00740595 -0.0698013 0.905347
-0.0218564 -0.0367458 0.165589
-0.0374514 -0.0611206 0.279256
0.142236 -0.0614388 0.558565
0.0166424 -0.0679192 0.574133
0.105695 -0.0441839 0.513456
-0.154574 -0.0210013 0.13003
-0.0466941 -0.0381668 0.151334
-0.0101784 -0.0324369 0.131488
-0.0214278 -0.0796716 0.844794
-0.111049 -0.0465666 0.551624
-0.0262202 -0.0695695 0.236976
-0.0542523 -0.0253897 0.106172
-0.0371821 -0.0583452 0.251643
0.00492159 -0.0679964 0.228208
-0.039161 -0.0270524 0.139776
-0.026666 -0.0766924 0.340953
-0.0148276 -0.0642628 0.158126
0.211757 -0.0441839 0.506485
0.140239 -0.0726025 0.563774
0.0153681 -0.0313101 0.613116
-0.153205 -0.0545535 0.512033
-0.0052155 -0.054507 0.551852
-0.0311596 -0.0248142 0.59602
0.00589722 -0.0428672 0.19327
-0.00166695 -0.0193079 0.218493
-0.0131649 -0.0300544 0.117548
0.0602381 0.0211458 0.133615
0.246046 -0.068014 0.532163
-0.0425025 -0.0595635 0.594285
-0.0835464 0.00985909 0.17541
0.00578577 -0.0225187 0.633246
0.010989 -0.0587136 0.204362
0.0556243 0.00782058 0.160983
-0.229281 -0.0457036 0.484747
-0.0318664 -0.0266433 0.254882
0.230421 -0.0777468 0.501991
-0.0398131 -0.0443494 0.87579
0.013069 -0.0542236 0.525893
-0.0396424 -0.0387208 0.293698
-0.0758263 -0.0644738 0.591728
-0.00886511 -0.0370328 0.135189
0.209514 -0.0380002 0.109105
-0.0147416 -0.0181982 0.617597
-0.177114 -0.0304803 0.127318
0.0663453 -0.0545469 0.515366
-0.0831011 0.0252532 0.137087
-0.0432336 -0.0548654 0.431092
-0.183286 -0.0545531 0.499468
0.0640484 -0.060774 0.586707
0.143175 -0.0441799 0.525468
-0.0391974 -0.0335329 0.655472
0.118636 -0.044179 0.527965
0.0790084 -0.0439163 0.159905
0.0202216 -0.0596112 0.537129
0.149731 -0.0765009 0.517117
-0.201862 -0.0175685 0.113566
-0.130148 -0.0291195 0.171678
0.148269 -0.0587393 0.506948
-0.110332 -0.0441768 0.540918
0.173559 -0.0545549 0.511397
-0.0184118 -0.0826026 0.673954
0.0200096 -0.0500611 0.835515
0.231466 -0.0590804 0.490307
-0.0401797 -0.0355138 0.51993
0.0112693 -0.0459283 0.152699
-0.242707 -0.0736971 0.516609
-0.0196729 -0.0388788 0.150608
-0.0281284 -0.0357281 0.171551
0.150248 -0.0489089 0.498662
-0.0659592 -0.0367221 0.145068
-0.0157084 -0.0182365 0.271156
-0.0434957 -0.0481321 0.611178
0.138178 -0.0674146 0.547435
0.178495 -0.0441813 0.506515
-0.0422658 -0.0602415 0.647231
-0.110613 -0.0378501 0.169841
-0.0149605 -0.083442 0.517569
-0.082748 0.0533062 0.101504
0.0173551 -0.0635018 0.831657
0.0881427 -0.0428988 0.147933
-0.00879209 -0.0493507 0.574996
-0.0330199 -0.0403568 0.138617
0.0362697 -0.0385817 0.127327
-0.0316071 -0.0759832 0.425867
-0.000330842 -0.0783518 0.866125
-0.0262287 -0.0213584 0.717875
-0.0226855 -0.0799444 0.824587
0.0572519 -0.0325431 0.136186
0.0166449 -0.0676275 0.718324
-0.0322079 -0.0257879 0.573504
-0.147366 -0.0785622 0.559337
-0.0739243 -0.0699687 0.590352
0.0572233 -0.0170719 0.122549
-0.040567 -0.0363073 0.733593
0.0203203 -0.0592652 0.499293
-0.0429291 -0.0569826 0.746455
0.229867 -0.0559241 0.502289
-0.136101 -0.0306887 0.11548
0.018639 -0.0374785 0.443645
-0.0827328 -0.0113282 0.1542
0.178928 -0.0428078 0.116904
0.00625488 -0.0777143 0.400042
-0.0638093 -0.0313422 0.189602
-0.00535192 -0.0808552 0.845479
-0.342727 -0.0535327 0.463649
0.176364 -0.0404091 0.126553
-0.0304765 -0.0445514 0.942186
0.0209335 -0.0527702 0.783138
-0.018886 -0.0191322 0.301344
-0.00714967 -0.0180107 0.0691959
0.0175741 -0.0361068 0.36607
-0.0204798 -0.0774804 0.30533
0.00415162 -0.0225744 0.178399
-0.125231 -0.0213062 0.122932
0.0503816 -0.042226 0.154616
0.0189183 -0.0630453 0.723013
-0.0147237 -0.0175918 0.132492
-0.0313882 -0.0435189 0.198156
0.0509202 -0.0613022 0.550499
0.0978678 -0.0380686 0.102303
-0.0802099 0.0284781 0.102056
-0.0100391 -0.0710275 0.207473
0.0139745 -0.0297706 0.607252
-0.0344532 -0.0290323 0.280934
-0.16174 -0.0216795 0.108521
0.00888532 -0.0764481 0.709303
-0.0990402 -0.0545549 0.535649
-0.268385 -0.0455447 0.491652
-0.0256469 -0.0238712 0.107761
-0.00569059 -0.018578 0.603476
0.0202267 -0.0511481 0.531754
0.0776574 -0.0464622 0.512713
0.105426 -0.05069 0.556075
0.0515111 -0.0423585 0.155403
0.163947 -0.0418782 0.132821
0.02901 -0.0545527 0.53724
-0.147201 -0.0579242 0.545749
-0.0730414 -0.038692 0.164712
0.00275817 -0.0210572 0.572803
0.0114395 -0.0698966 0.321232
0.0160923 -0.0678255 0.783712
-0.187304 -0.054552 0.490254
-0.0821717 0.00971472 0.115602
-0.00902526 -0.0768878 0.909458
-0.270551 -0.0545316 0.491103
0.0199555 -0.0455799 0.356232
-0.021225 -0.0366106 0.129395
-0.21661 -0.0449304 0.488709
-0.186251 -0.0268719 0.0987484
-0.00327212 -0.0444832 0.974935
-0.0363586 -0.032178 0.848684
0.297132 -0.0504076 0.486272
-0.180467 -0.0299934 0.124164
0.138768 -0.0332258 0.139586
0.00141296 -0.0809602 0.641275
-0.22148 -0.0186825 0.101649
-0.0341357 -0.0277425 0.501387
-0.0291506 -0.0237853 0.29915
0.0571983 -0.00972041 0.189248
0.0602083 -0.0554422 0.566071
0.0611066 -0.0253562 0.125359
-0.0279907 -0.0507746 0.127038
0.172294 -0.0391142 0.12869
-0.0408101 -0.0445822 0.292419
-0.0836962 0.0753234 0.117352
-0.0139797 -0.0182285 0.351256
-0.0322005 -0.0759372 0.489245
-0.156989 -0.0635685 0.512191
-0.0421512 -0.0360725 0.131445
-0.101565 -0.030997 0.106737
0.0148835 -0.0306557 0.707796
0.127637 -0.0545499 0.506083
-0.0081454 -0.01805 0.657396
-0.19098 -0.0305129 0.132233
-0.00181149 -0.032598 0.938916
-0.0229231 -0.0474885 0.0895578
-0.0783144 0.0210406 0.118094
-0.00946474 -0.0835529 0.565893
-0.286577 -0.0545506 0.467127
-0.00550216 -0.0540112 0.588651
0.233565 -0.0515784 0.481038
-0.0245542 -0.0765714 0.317983
0.245042 -0.0761879 0.521078
0.013942 -0.0298736 0.489471
0.0607147 -0.0116065 0.143578
-0.032445 -0.0704674 0.309526
0.0149928 -0.0293892 0.13921
-0.0392818 -0.0340817 0.434055
-0.0378415 -0.0545565 0.556711
0.000343103 -0.020843 0.825518
-0.101548 -0.0229377 0.11112
-0.0873169 -0.0545562 0.552241
0.0635084 -0.0458917 0.182425
-0.0491941 -0.0444224 0.564387
-0.0306309 -0.0245225 0.467837
-0.0365565 -0.0309183 0.337743
0.0832355 -0.0364788 0.0952734
0.0553677 0.0780507 0.116538
0.0926053 -0.030389 0.130073
0.271352 -0.0524606 0.471876
0.314538 -0.0545332 0.465836
-0.161771 -0.0695167 0.557152
-0.212854 -0.0177933 0.10832
0.0181159 -0.0579267 0.86002
0.00219469 -0.0406655 0.0716853
0.0606912 -0.000333091 0.13492
0.00736515 -0.026935 0.140539
-0.0337615 -0.0743146 0.445365
0.055964 0.0132418 0.143736
-0.202513 -0.0228745 0.0954342
-0.0288106 -0.0781155 0.719093
-0.0181159 -0.0575285 0.123903
-0.220321 -0.0739256 0.534583
-0.0600284 -0.0312216 0.0971316
0.0779079 -0.0441785 0.537266
-0.0435925 -0.05269 0.575298
0.0657723 -0.0295282 0.131468
0.059421 -0.0280326 0.151022
-0.0411612 -0.0377108 0.690485
-0.0583277 -0.0267946 0.148807
0.0644475 -0.0441797 0.550794
-0.221032 -0.0657275 0.513593
0.0155121 -0.0316494 0.480182
-0.00680226 -0.0833418 0.548531
-0.00826007 -0.0406105 0.97094
-0.0424429 -0.0422493 0.459377
-0.236467 -0.0441808 0.488795
-0.0791523 0.0610609 0.113463
0.060897 0.0193345 0.109523
-0.155877 -0.0578037 0.527647
0.00302059 -0.0719546 0.257627
-0.0888609 -0.0598408 0.549535
0.142803 -0.0800002 0.532588
-0.168787 -0.0258603 0.150568
-0.0972634 -0.0244066 0.140822
0.189871 -0.054555 0.51689
-0.0156488 -0.0322684 0.0962246
0.0125622 -0.0344748 0.179647
-0.012255 -0.0410474 0.0397988
-0.04038 -0.0358279 0.725555
0.0100436 -0.028197 0.103561
-0.147059 -0.0732052 0.513899
0.00653436 -0.0566845 0.955864
-0.0393181 -0.0338465 0.535612
-0.0133218 -0.0181597 0.359704
0.00989469 -0.0399434 0.925923
-0.192866 -0.0222706 0.0992658
0.004157 -0.067826 0.935132
-0.00381242 -0.0545325 0.540142
0.1611 -0.031614 0.118001
-0.00168074 -0.0809287 0.81488
-0.032435 -0.037594 0.141562
-0.0353094 -0.060803 0.909089
-0.00379257 -0.0189516 0.713508
-0.0257043 -0.0801721 0.557496
-0.0247935 -0.0804523 0.654339
-0.200515 -0.0291965 0.123866
0.254712 -0.0545538 0.481141
0.00380698 -0.0217381 0.28616
-0.0808448 0.0433465 0.13833
-0.303198 -0.045703 0.475984
-0.0552648 -0.0442122 0.553018
-0.00667067 -0.0810538 0.845829
0.0522773 -0.0545554 0.544847
0.0124782 -0.0716289 0.820053
-0.0190168 -0.0811371 0.82443
0.187854 -0.0330125 0.118003
-0.0157991 -0.0833469 0.481567
-0.00675517 -0.0820921 0.814307
0.00226969 -0.0768858 0.870835
0.00501676 -0.0224616 0.309061
-0.0293528 -0.0239949 0.288829
-0.0421198 -0.0411087 0.448537
0.0205359 -0.0582978 0.529508
0.000457756 -0.0718643 0.241526
0.0178923 -0.0362535 0.395938
0.0609392 -0.0249689 0.129953
0.0212583 -0.0534742 0.545835
-0.0349568 -0.0364282 0.185582
-0.0061396 -0.0186684 0.447653
-0.0423427 -0.0415344 0.579433
0.0123873 -0.0622347 0.908926
0.148784 -0.0686924 0.508745
-0.0301531 -0.0337818 0.165761
-0.104392 -0.0441768 0.546626
0.0205234 -0.0435429 0.699683
0.0580054 -0.032594 0.107544
0.124341 -0.054552 0.543741
-0.0820107 -0.0556804 0.533168
-0.0227822 -0.0540906 0.530614
0.232349 -0.0518624 0.504742
-0.00551009 -0.0615735 0.985632
0.0121597 -0.0279727 0.765034
-0.00964711 -0.0179198 0.625418
-0.293207 -0.0454416 0.482874
0.0983451 -0.0392292 0.112329
0.0121373 -0.0413899 0.160119
-0.151496 -0.0512799 0.500241
0.00307377 -0.0514951 0.588792
0.0261022 -0.046177 0.570635
0.00827399 -0.0767058 0.753705
-0.0294731 -0.0288795 0.139958
-0.00885423 -0.0173874 0.1653
-0.317168 -0.0545341 0.47491
-0.0262698 -0.0253206 0.884389
-0.151261 -0.0232785 0.14891
-0.211546 -0.0278032 0.115319
-0.0384232 -0.0364316 0.270391
-0.151304 -0.0823561 0.549982
-0.034595 -0.0435767 0.159862
0.217603 -0.040332 0.0926639
-0.0783777 0.0235181 0.11835
-0.0223678 -0.0815466 0.595894
0.011263 -0.0278326 0.316084
0.0118416 -0.0739874 0.616957
0.0192827 -0.0468474 0.31535
-0.0136971 -0.0833958 0.634211
0.0333271 -0.0380271 0.201634
0.0983735 -0.0441753 0.525485
-0.0773373 -0.0195794 0.112482
0.0137341 -0.071547 0.424609
0.0483733 -0.0545569 0.562963
-0.0178049 -0.0751817 0.917707
-0.00718547 -0.0771391 0.281181
0.00701601 -0.0775613 0.760764
0.16765 -0.0305402 0.100339
-0.0762672 -0.0421978 0.197654
-0.0883417 -0.0698806 0.586762
0.0211779 -0.0535747 0.715404
0.0539932 -0.0817712 0.569159
0.164348 -0.0444643 0.502299
-0.141425 -0.0718464 0.519372
-0.000922631 -0.0482495 0.544505
0.0802605 -0.0456362 0.174696
-0.0322945 -0.070039 0.30127
0.0034871 -0.0774417 0.346927
0.153805 -0.0302636 0.10438
-0.0818442 0.016442 0.101891
-0.0832257 0.0147069 0.150778
-0.00602043 -0.0701094 0.958208
-0.0267585 -0.0225745 0.192727
0.0454137 -0.0368208 0.10886
0.00411758 -0.0721236 0.267637
0.151946 -0.0816 0.531427
-0.0276791 -0.0706157 0.259519
-0.0405665 -0.0647353 0.652071
0.117869 -0.0337625 0.151259
-0.0798262 -0.0195523 0.170634
0.0149209 -0.0704014 0.617474
-0.0721438 -0.0737245 0.591464
-0.103088 -0.0368446 0.158508
0.0296938 -0.0465885 0.199822
0.0209393 -0.0558401 0.673842
-0.0307199 -0.0732863 0.86317
0.14502 -0.0405536 0.108404
0.0198482 -0.0545384 0.571267
0.0032298 -0.0229025 0.129692
-0.0288085 -0.0364229 0.130079
-0.0384818 -0.0687204 0.473963
0.0044168 -0.022068 0.340858
0.0473155 -0.0662776 0.590665
0.0180061 -0.0384517 0.333993
-0.0168224 -0.0180947 0.146739
-0.102237 -0.0218736 0.119719
-0.0418171 -0.0384012 0.205461
-0.00185541 -0.019752 0.376094
-0.0342793 -0.0277616 0.612116
0.00478287 -0.0757189 0.327327
0.0109221 -0.0685625 0.294629
0.0378174 -0.0296519 0.141856
0.00611716 -0.0665973 0.223686
0.0721764 -0.0460701 0.181525
0.0084413 -0.0709232 0.293855
-0.0156703 -0.0180053 0.0874119
-0.0419462 -0.0414618 0.400202
0.0955021 -0.0441973 0.552899
-0.0233751 -0.0812257 0.55576
0.235826 -0.057392 0.528194
0.00215292 -0.0804416 0.732314
-0.0309046 -0.054553 0.53615
-0.0827539 0.0549611 0.101006
-0.0809767 -0.0271111 0.165681
-0.129757 -0.0545554 0.527771
-0.165811 -0.0545548 0.523031
-0.0714779 -0.0728006 0.587675
-0.0276474 -0.0788161 0.726514
-0.0430218 -0.0546639 0.404915
0.0573309 -0.0315412 0.13164
0.00254858 -0.0631979 0.961484
-0.0178496 -0.021678 0.877
-0.0400067 -0.0350379 0.660617
-0.125208 -0.0273506 0.100137
0.0568038 -0.0223463 0.142606
0.0211551 -0.048001 0.474937
0.1315 -0.033604 0.0968057
-0.235254 -0.0441809 0.489208
-0.0219307 -0.0204063 0.11049
-0.0262531 -0.0214793 0.60865
-0.00800512 -0.025161 0.913396
0.0210964 -0.0470737 0.498041
-0.0225658 -0.0201933 0.565916
0.0554005 0.0671176 0.11928
-0.148443 -0.0224855 0.141013
-0.0244667 -0.020854 0.204436
-0.0704321 -0.0315998 0.102066
0.250251 -0.0445191 0.48379
-0.0443607 -0.0402531 0.215263
-0.0408592 -0.0384013 0.381537
-0.220439 -0.0743411 0.521138
-0.0412659 -0.0626464 0.751101
-0.0384396 -0.0323863 0.616758
0.0111753 -0.0269159 0.670733
0.056179 0.0393345 0.113666
-0.0329822 -0.0265898 0.769604
-0.0105093 -0.0835552 0.587857
-0.00834983 -0.0668163 0.174631
0.240569 -0.0804106 0.513121
-0.0046187 -0.0347494 0.109784
0.00677891 -0.023149 0.659529
0.0280827 -0.0373408 0.119158
-0.0771435 -0.0335396 0.12086
0.181182 -0.0441863 0.520367
0.0835128 -0.054554 0.528329
-0.032154 -0.0503042 0.153393
-0.0399144 -0.0621893 0.349031
-0.0212194 -0.074427 0.913995
0.0165917 -0.0658644 0.817907
-0.0159816 -0.0193464 0.0199159
0.0495691 -0.0623949 0.575258
-0.0330993 -0.0275406 0.820402
-0.0816296 -0.0507837 0.538071
-0.00618912 -0.0480948 0.524579
0.0191232 -0.0384775 0.734903
0.0160353 -0.0348374 0.29418
-0.14151 -0.0204381 0.120735
-0.0419957 -0.0403124 0.542547
0.0389569 -0.0333182 0.172689
0.016464 -0.0643904 0.346274
0.000362059 -0.0503136 0.57221
-0.00266267 -0.0330291 0.116944
-0.00189902 -0.0310825 0.106162
0.0510831 -0.0741412 0.546582
0.0146254 -0.0306266 0.472237
-0.0570013 -0.0545568 0.561833
0.133311 -0.0450526 0.542658
-0.0206609 -0.0539785 0.517174
-0.00614778 -0.0182086 0.243095
0.0803872 -0.0434804 0.155621
-0.0482071 -0.0309891 0.174678
-0.0794481 -0.0577481 0.571778
-0.00236588 -0.0347638 0.120843
-0.0388511 -0.0397729 0.162821
-0.222579 -0.0193537 0.112569
-0.0129886 -0.0180258 0.32627
-0.0793791 -0.0545552 0.528062
-0.040885 -0.037139 0.512702
0.00860178 -0.024537 0.719551
-0.115648 -0.0222728 0.128223
-0.0130146 -0.0175605 0.219248
0.0194743 -0.047745 0.321531
-0.0336276 -0.0293972 0.208904
-0.0399139 -0.0619924 0.84221
0.0125398 -0.0292813 0.296604
-0.0139265 -0.0801007 0.328855
-0.0824239 0.00822044 0.126237
0.110213 -0.0445569 0.510582
-0.025838 -0.0793288 0.786732
-0.0064338 -0.0833002 0.533654
-0.0761121 -0.0608829 0.573674
-0.0354164 -0.0728055 0.502877
-0.0404589 -0.0474284 0.872751
-0.0850356 -0.0224375 0.119007
0.0153728 -0.0461872 0.547077
0.250945 -0.0545542 0.490757
-0.00835986 -0.0612448 0.139045
0.0863937 -0.0344767 0.0942397
0.0162092 -0.0449116 0.223447
-0.0298796 -0.0432962 0.197619
-0.0299796 -0.035035 0.118288
0.0605838 -0.0192498 0.147893
0.2127 -0.0410589 0.107643
-0.0264745 -0.0455161 0.523718
0.177555 -0.0368879 0.125927
0.0188869 -0.0378208 0.514988
-0.0116225 -0.0503219 0.545764
0.121781 -0.0436514 0.143331
-0.0269243 -0.0456523 0.557921
0.00480659 -0.0794951 0.510451
-0.14522 -0.0811906 0.536291
-0.053979 -0.0305603 0.177019
-0.114433 -0.0358466 0.153529
0.0124905 -0.0558615 0.923197
0.0568174 -0.00133154 0.183188
-0.0421769 -0.0578285 0.385085
0.23349 -0.0665017 0.488083
-0.196426 -0.0541361 0.485684
0.158894 -0.0415566 0.112585
0.0129748 -0.0427668 0.167795
-0.140637 -0.0661742 0.521523
0.229367 -0.0811065 0.523573
0.0575064 -0.0462831 0.18804
-0.155133 -0.0279452 0.0996681
0.0608311 0.0166098 0.115395
-0.192075 -0.0545549 0.516135
0.0216252 -0.0514517 0.53129
-0.0406515 -0.0557575 0.308263
-0.0345255 -0.0279491 0.671855
0.00684818 -0.0233112 0.557226
-0.0117397 -0.0173018 0.181971
0.0131992 -0.0584129 0.227417
-0.0823957 0.0312997 0.105711
0.00362492 -0.0216433 0.380406
-0.0351748 -0.0713862 0.814242
-0.00873707 -0.0260584 0.918691
0.0172043 -0.0339477 0.716503
0.0169307 -0.0542862 0.530325
-0.227058 -0.0580863 0.495782
0.123929 -0.0322602 0.136055
-0.0117985 -0.034113 0.104604
-0.0382657 -0.0323321 0.479503
0.0207314 -0.0527216 0.526718
0.0199359 -0.0413968 0.750306
-0.037047 -0.0344036 0.863615
-0.00239614 -0.070341 0.214448
0.0135414 -0.0702401 0.372518
-0.0865889 -0.0563976 0.566287
0.0151374 -0.0702787 0.50729
-0.0772646 -0.0213333 0.105664
-0.0376899 -0.0333823 0.106055
0.0211991 -0.0505923 0.439887
-0.0212496 -0.0199845 0.421224
-0.234977 -0.054553 0.484363
0.0149833 -0.0309843 0.496109
-0.0120808 -0.018998 0.844806
-0.0148668 -0.0741887 0.931146
-0.0514132 -0.0352672 0.12746
-0.0830572 0.0522707 0.112579
-0.0344782 -0.028517 0.359345
-0.0204251 -0.0196679 0.516374
-0.0797069 0.0679195 0.11032
0.010213 -0.0702991 0.308174
-0.0258401 -0.0786733 0.818642
-0.146732 -0.064056 0.506988
-0.240996 -0.02322 0.103241
-0.0737939 -0.0348513 0.131257
-0.208042 -0.0173823 0.108192
-0.00751159 -0.054564 0.524968
-0.0219194 -0.0200185 0.558475
-0.0349549 -0.0545527 0.529637
-0.165729 -0.0441768 0.513883
0.0545624 -0.0545539 0.523198
-0.0135117 -0.0832685 0.715583
-0.180029 -0.0223855 0.102597
0.019956 -0.0570009 0.378552
-0.0147926 -0.0823223 0.387413
-0.105756 -0.0270035 0.166442
0.0581974 -0.0322503 0.103698
0.0098296 -0.0712077 0.872633
0.0261956 -0.0450308 0.543862
-0.07607 -0.0800283 0.588091
0.0558991 0.079999 0.115698
-0.0290271 -0.0403617 0.165531
-0.0169841 -0.0185993 0.752309
-0.206797 -0.0545547 0.511276
-0.218106 -0.0545529 0.485804
0.00822381 -0.0740473 0.854227
0.0185402 -0.0636895 0.425848
-0.179222 -0.0441768 0.51561
0.057897 -0.0298719 0.169215
-0.0906394 -0.0632713 0.544393
0.0874108 -0.0545531 0.536245
-0.0110764 -0.0740312 0.23758
-0.107852 -0.051053 0.554681
-0.0383737 -0.0360342 0.129851
-0.0945465 -0.0545427 0.555268
-0.0411532 -0.0632255 0.440111
0.0140704 -0.0327728 0.157883
-0.145704 -0.0770682 0.558301
0.1043 -0.0348574 0.163907
0.0135312 -0.0293846 0.5373
-0.082803 0.0190341 0.131187
0.0046492 -0.0217723 0.726344
0.00371942 -0.0798345 0.669673
0.0212125 -0.051731 0.742194
-0.0241545 -0.0206623 0.772854
0.211801 -0.0463898 0.490164
0.261012 -0.0545538 0.479308
-0.15775 -0.071329 0.515927
-0.0232955 -0.0204735 0.787365
0.260517 -0.054554 0.482043
-0.0328911 -0.0305252 0.876762
-0.0882442 -0.0335055 0.124259
-0.0118941 -0.0499024 0.540269
-0.157125 -0.0545544 0.518062
0.0612166 -0.00172407 0.10616
-0.264786 -0.0545525 0.485974
-0.0171285 -0.0545509 0.553499
0.0602301 -0.0132375 0.161407
-0.138674 -0.0464073 0.501646
0.00855796 -0.0764127 0.76395
-0.00381302 -0.0329963 0.14121
-0.0482508 -0.0443519 0.556632
0.0867558 -0.0314568 0.14139
-0.0645311 -0.0441768 0.541196
0.09004 -0.0327396 0.151554
-0.0832541 0.00774616 0.15766
0.0148849 -0.047184 0.562878
-0.0770492 -0.0545557 0.538145
0.0158526 -0.0319014 0.628533
-0.00456403 -0.0325049 0.941299
0.179725 -0.0354275 0.0855559
-0.0151516 -0.0182682 0.625071
-0.0428434 -0.0437756 0.492468
0.171047 -0.0428058 0.119505
0.00178423 -0.0212519 0.145921
0.0141032 -0.0602122 0.253716
-0.021838 -0.0348831 0.157591
-0.0107458 -0.0832385 0.744507
0.0194457 -0.0541751 0.845647
0.00430467 -0.0219813 0.367875
-0.139276 -0.0327995 0.135063
0.075401 -0.0302391 0.134493
-0.0403114 -0.0537493 0.874777
0.0185711 -0.0412805 0.322456
0.0617201 -0.0213426 0.112457
0.0556838 -0.0599022 0.533945
0.160901 -0.0713914 0.55749
0.157994 -0.0441795 0.521661
-0.121225 -0.0248413 0.15262
-0.198575 -0.0285649 0.117672
-0.0750401 -0.0775762 0.593285
-0.0310711 -0.0256324 0.280185
0.0517129 -0.0545546 0.530917
0.056969 -0.00874195 0.124946
0.0212951 -0.0501059 0.688649
0.00791802 -0.0774663 0.526306
-0.224903 -0.0642818 0.493152
-0.0332204 -0.0267055 0.624983
-0.0144447 -0.0188013 0.8264
-0.00638221 -0.0277252 0.923929
0.156673 -0.0398966 0.136889
0.120101 -0.030195 0.119207
-0.0345781 -0.0283522 0.786549
-0.0216385 -0.0433358 0.0680654
0.0182511 -0.0361861 0.535268
0.0601659 0.0187001 0.138405
-0.077254 -0.0351808 0.135301
0.130461 -0.03499 0.150109
-0.0823804 0.0302144 0.106055
-0.037956 -0.069475 0.55785
0.018925 -0.0507828 0.302147
-0.0381501 -0.0321567 0.487922
0.319837 -0.048776 0.477854
-0.141498 -0.0269574 0.164348
-0.0823142 0.0176161 0.114219
0.00301981 -0.0514734 0.588651
-0.19687 -0.0257898 0.0947083
-0.0281929 -0.0378508 0.142526
-0.00682379 -0.0830181 0.425276
-0.0759565 -0.0316865 0.195825
0.238817 -0.0634487 0.541769
0.0909688 -0.0372016 0.097354
0.00864579 -0.0257865 0.831689
0.186731 -0.0312671 0.0951099
-0.00205692 -0.0359005 0.950797
-0.04028 -0.0653879 0.641677
-0.0332369 -0.0747565 0.441029
0.0512751 -0.0540066 0.575485
0.00973734 -0.0256045 0.625616
0.0147152 -0.0545502 0.552534
0.0167167 -0.0334343 0.449288
0.0807001 -0.0284868 0.109656
-0.0826838 -0.000895531 0.143589
-0.0188792 -0.0373832 0.0371878
-0.0431102 -0.0451779 0.490397
0.0559593 0.0400211 0.121252
-0.0325393 -0.0261596 0.515524
-0.0014472 -0.0197907 0.50665
0.0568101 -0.0545552 0.543768
-0.0808588 0.00373981 0.174789
0.25504 -0.044184 0.494319
0.0573296 -0.0655 0.587362
-0.033699 -0.0744996 0.557301
-0.0641899 -0.054372 0.569212
-0.00522164 -0.0181673 0.138259
0.0321658 -0.0451093 0.559515
0.0208258 -0.0453457 0.721182
-0.0358583 -0.0312848 0.258844
-0.26355 -0.0483988 0.473652
-0.0798588 -0.0306909 0.0990534
0.00969065 -0.0761092 0.506852
0.00235264 -0.0702974 0.929844
0.0462891 -0.0394275 0.204163
0.02422 -0.0286362 0.136257
-0.130236 -0.0233803 0.1428
0.198154 -0.0506521 0.488777
-0.0823925 -0.023319 0.151982
-0.00922047 -0.0826219 0.39258
-0.153866 -0.0677437 0.559088
-0.0428475 -0.0580396 0.63391
0.0879683 -0.0323674 0.148977
-0.0247966 -0.0706851 0.926708
0.0152278 -0.0701425 0.513739
0.0644503 -0.0337233 0.168713
-0.0826873 0.0191206 0.126814
-0.0212052 -0.0820097 0.560013
-0.0501763 -0.0246425 0.109561
0.160044 -0.0441806 0.513046
-0.14824 -0.0700096 0.510292
-0.026338 -0.0230581 0.150121
0.230568 -0.0583359 0.491865
0.0467002 -0.0670967 0.571808
-0.0199957 -0.0191546 0.229092
-0.0313958 -0.0763802 0.651116
-0.15318 -0.0545552 0.528393
-0.0222414 -0.055086 0.121754
-0.0378581 -0.0521462 0.227131
0.0132722 -0.0545442 0.554618
0.241896 -0.0614719 0.538849
0.000339327 -0.0814631 0.581216
-0.00670277 -0.0827899 0.411845
-0.0237269 -0.0408869 0.0683664
-0.0412091 -0.0408921 0.348401
-0.0321233 -0.0257691 0.770687
0.0234159 -0.0448616 0.532208
0.0559785 0.00862717 0.147105
-0.285278 -0.0508776 0.46619
-0.315702 -0.0473955 0.471139
-0.0668606 -0.0545555 0.533739
-0.0102088 -0.0228969 0.900984
-0.0324772 -0.0260699 0.544518
-0.0179314 -0.0758419 0.911599
0.11582 -0.0545518 0.508709
-0.290408 -0.0545506 0.471004
-0.0276864 -0.0261137 0.111188
0.269883 -0.0545539 0.480205
-0.00378596 -0.0191641 0.505751
-0.0389434 -0.041069 0.174363
0.0634051 -0.044185 0.528747
0.0637344 -0.0293003 0.130149
0.00909663 -0.0618018 0.208226
-0.252439 -0.0447641 0.480118
0.00167245 -0.0207653 0.329687
-0.0409608 -0.0410013 0.835141
0.0203049 -0.057468 0.781149
0.0144127 -0.0359084 0.111129
-0.0202285 -0.0823519 0.468564
0.0195638 -0.060547 0.772237
0.0385593 -0.0344511 0.181459
0.015362 -0.0534909 0.517832
-0.109523 -0.0441552 0.513094
0.116166 -0.0385982 0.100855
-0.0139611 -0.0732122 0.939962
-0.0835098 0.0128846 0.163055
-0.227699 -0.0681437 0.490694
0.0204147 -0.0454761 0.796958
0.0674821 -0.0545567 0.555121
-0.0540932 -0.0321688 0.101202
0.146189 -0.0415114 0.116421
-0.0829728 -0.0146431 0.1659
-0.0355608 -0.0725198 0.586469
0.00976224 -0.0740735 0.827186
-0.0333311 -0.0748029 0.585411
0.0553143 0.0510119 0.136129
-0.0210392 -0.0545835 0.522438
-0.0205522 -0.0394612 0.156408
-0.0145835 -0.0482609 0.573604
0.0480728 -0.0771202 0.582072
-0.0306989 -0.0738096 0.855586
0.00928525 -0.0252989 0.774276
-0.197666 -0.0545537 0.509829
-0.0855717 -0.0528275 0.555201
-0.081629 0.0719278 0.123426
0.0177283 -0.0545365 0.56915
-0.241651 -0.0450581 0.482523
-0.0348142 -0.0396761 0.16213
-0.104574 -0.0265083 0.101612
-0.00354517 -0.0193085 0.443867
0.0554586 -0.00844504 0.180725
0.178571 -0.0469858 0.495871
-0.0785543 0.0111041 0.135463
-0.0322962 -0.0758595 0.490332
0.00387523 -0.0305419 0.0699345
-0.00297972 -0.0284006 0.120192
0.0011066 -0.029233 0.128131
-0.0405684 -0.0480161 0.277331
-0.00303853 -0.0194109 0.469377
0.240899 -0.0656669 0.492118
-0.0281076 -0.0786913 0.646491
-0.036075 -0.0545883 0.520052
0.0829928 -0.0441772 0.535438
0.116636 -0.0543792 0.502829
-0.00603017 -0.0194097 0.0219964
0.0119286 -0.0320764 0.183682
0.0177865 -0.0422964 0.277632
0.00924516 -0.027041 0.200462
-0.148326 -0.0700738 0.562206
0.0599115 -0.00660338 0.168737
-0.15199 -0.0545551 0.528299
0.0020402 -0.0215155 0.82958
-0.0827019 0.00430917 0.139874
-0.00984181 -0.0292181 0.112286
0.0345329 -0.0272266 0.121454
0.142189 -0.0798803 0.535953
0.229472 -0.0811225 0.532008
-0.0550991 -0.0286233 0.162913
-0.0399108 -0.0473343 0.518006
-0.231445 -0.0821852 0.541529
0.0834209 -0.0406608 0.129865
0.0306998 -0.0545556 0.555976
0.137404 -0.0441796 0.529624
-0.0156664 -0.0815213 0.366073
-0.0428347 -0.0436298 0.606102
-0.0909112 -0.0441768 0.543379
0.015845 -0.0329726 0.348366
-0.0222194 -0.0812112 0.756433
0.241585 -0.0791024 0.510017
-0.00835347 -0.0815664 0.838209
0.0156354 -0.0692692 0.702304
-0.322156 -0.0516518 0.456371
-0.0341855 -0.0378151 0.155259
-0.0395177 -0.0669595 0.466459
-0.00591467 -0.0651178 0.165663
-0.0430659 -0.056574 0.725227
-0.0331788 -0.029321 0.858435
0.0173276 -0.0577069 0.29545
-0.0462557 -0.025027 0.128902
-0.0834945 -0.00590174 0.177548
0.00616037 -0.0746235 0.869341
0.0554522 0.0472137 0.134031
-0.0792874 0.045828 0.129931
0.0138907 -0.0302506 0.363858
0.0133979 -0.0714893 0.784882
-0.0410597 -0.0636496 0.646283
-0.177687 -0.0300863 0.12405
0.153359 -0.0411911 0.111222
0.186156 -0.0406521 0.0955645
-0.0013294 -0.0197037 0.611039
0.0562148 0.00359301 0.142559
0.205374 -0.0415919 0.111438
-0.021242 -0.0199185 0.489763
-0.0367795 -0.0709874 0.619594
-0.0208537 -0.0730685 0.246548
0.0598396 0.00482944 0.161429
-0.10687 -0.0346714 0.140695
0.0602002 0.0304808 0.106091
-0.21028 -0.0533917 0.514625
-0.0824825 -0.0238277 0.155983
-0.14543 -0.044178 0.507162
-0.042225 -0.0472039 0.832047
-0.254908 -0.0545514 0.479996
0.0573241 -0.0317674 0.132161
-0.0429331 -0.0499725 0.80987
-0.0391353 -0.0654198 0.375527
-0.210357 -0.0256898 0.132288
-0.00177617 -0.0532927 0.588842
-0.0218263 -0.0388776 0.150575
-0.0170909 -0.046057 0.544962
-0.0179259 -0.0655868 0.171592
0.0972659 -0.054553 0.521389
-0.14457 -0.0296973 0.109601
0.0698567 -0.0441792 0.545346
-0.0239241 -0.0205199 0.657741
-0.186487 -0.0196106 0.128457
0.140355 -0.0335075 0.0964806
-0.00548283 -0.0796451 0.327854
-0.0090049 -0.0509982 0.55898
0.157476 -0.0773457 0.527091
0.148601 -0.0396363 0.0991589
-0.0102071 -0.0177699 0.729481
-0.0414099 -0.0613937 0.789277
-0.040911 -0.0554107 0.31343
0.00437455 -0.0596586 0.961581
-0.0410271 -0.0637424 0.453126
0.0177367 -0.0411826 0.156333
0.0209582 -0.0560384 0.546882
0.0411729 -0.0305177 0.148336
0.0889869 -0.0419699 0.139499
0.0177982 -0.0356407 0.424402
0.226488 -0.0789444 0.535594
0.113065 -0.0441765 0.518611
0.00486478 -0.021922 0.688389
-0.0221234 -0.0580331 0.978644
0.0563305 -0.0233887 0.161013
0.00242177 -0.0328285 0.104948
0.142736 -0.0545524 0.513537
-0.309065 -0.0500834 0.460688
-0.0105935 -0.0475407 0.555246
-0.0429246 -0.0280423 0.0998254
-0.00467419 -0.0307035 0.110598
-0.0133018 -0.0553437 0.992722
-0.0189283 -0.0545514 0.537381
-0.0239359 -0.080517 0.7598
0.0830527 -0.0400745 0.124842
-0.159285 -0.0632175 0.539333
-0.115952 -0.0314033 0.180378
0.173143 -0.0415163 0.107484
-0.289577 -0.0504564 0.485749
-0.137589 -0.022981 0.108853
-0.0211204 -0.0325314 0.118154
-0.179219 -0.0210676 0.138821
-0.122265 -0.0375676 0.176659
0.0178887 -0.0352706 0.702966
-0.269557 -0.0441924 0.481436
0.203099 -0.0345689 0.0863453
-0.0133305 -0.0834134 0.647035
-0.0499284 -0.0324525 0.102117
0.0610039 -0.00205046 0.124746
-0.0534083 -0.0250515 0.107478
-0.229417 -0.0457439 0.505492
-0.00170521 -0.045695 0.0739666
-0.0435562 -0.0489958 0.69787
0.0880002 -0.0284899 0.113621
-0.00191251 -0.0674481 0.962101
-0.0062123 -0.0694659 0.197694
-0.0425921 -0.0430183 0.756671
0.151333 -0.0586964 0.552577
0.226463 -0.0629108 0.502487
-0.0800453 -0.074434 0.590005
-0.027438 -0.0220287 0.668634
0.00826775 -0.024496 0.783925
-0.0810811 -0.0342178 0.115158
-0.02913 -0.0781051 0.613111
0.161801 -0.0301605 0.10367
-0.0435934 -0.052239 0.631238
0.000698954 -0.0202078 0.248482
-0.0293027 -0.0363394 0.12951
-0.0146837 -0.0824666 0.801088
-0.0646799 -0.0339164 0.120018
0.137225 -0.0545528 0.516685
0.151673 -0.0596449 0.506473
-0.0363869 -0.0318844 0.268514
0.0125407 -0.0733448 0.550479
-0.0433893 -0.0470319 0.638736
-0.011445 -0.0177658 0.705831
0.0206837 -0.0449224 0.750892
-0.0539114 -0.0314475 0.183225
0.0464259 -0.0731685 0.579124
0.0554122 -0.0195355 0.192241
-0.234647 -0.0819621 0.529794
-0.0141614 -0.0834175 0.588114
-0.00413139 -0.0322373 0.116549
0.0137754 -0.0299908 0.387837
0.0581688 -0.0427716 0.156812
-0.204227 -0.0181673 0.105084
0.0554592 0.075736 0.112487
-0.00742094 -0.0181797 0.64706
-0.0408158 -0.042536 0.306688
0.000201053 -0.0265684 0.0404808
0.0117332 -0.074028 0.658574
-0.236278 -0.0574915 0.495369
-0.00114874 -0.0268678 0.0288143
0.0588609 -0.0191587 0.185386
-0.0416875 -0.0394155 0.483545
-0.146888 -0.0443458 0.504325
-0.319795 -0.0545329 0.469353
-0.0812905 -0.022996 0.110511
-0.015019 -0.0829749 0.750524
-0.0562172 -0.0441809 0.54121
0.178891 -0.0471929 0.495592
-0.105585 -0.0317759 0.18581
-0.0688209 -0.0382249 0.159208
-0.0365564 -0.0301565 0.532254
-0.0811246 -0.0273069 0.160899
0.0091859 -0.0273257 0.854853
-1.69131e-05 -0.0643367 0.174707
-0.0425609 -0.0591813 0.668833
-0.0104497 -0.0180558 0.459945
-0.0379661 -0.0688621 0.418444
0.010421 -0.0487559 0.152792
0.0175811 -0.0347254 0.571086
-0.130203 -0.024118 0.149263
-0.0237312 -0.0223313 0.098995
0.0110569 -0.0415835 0.923547
0.174459 -0.0429032 0.119228
-0.0774079 -0.0235914 0.127056
0.0160945 -0.0323622 0.511474
-0.0366337 -0.0334913 0.10669
-0.0144609 -0.0183394 0.458401
0.106963 -0.0545341 0.551933
0.0158381 -0.0566021 0.25618
-0.0272126 -0.0407826 0.0884254
-0.0306732 -0.0244278 0.559712
-0.0402517 -0.0613871 0.839295
-0.000680782 -0.0819257 0.527852
0.0501252 -0.0776358 0.555155
-0.0806726 0.0570255 0.128894
-0.0219168 -0.0816006 0.671737
-0.00854659 -0.0832148 0.426502
-0.00488313 -0.0188094 0.571698
-0.0083426 -0.0729924 0.227889
-0.144831 -0.0810209 0.55289
-0.0135098 -0.0834668 0.598782
-0.00328332 -0.0827037 0.510546
0.0371441 -0.046088 0.19294
-0.136155 -0.0348117 0.151685
0.0436032 -0.0545534 0.529817
-0.125373 -0.0240297 0.14688
0.00106855 -0.0471088 0.971006
0.110011 -0.0450719 0.161088
-0.0359135 -0.0714377 0.771629
0.0866781 -0.0307691 0.13538
-0.173805 -0.0507017 0.528604
0.223949 -0.0664142 0.539598
0.153615 -0.0300817 0.106886
-0.264235 -0.0441771 0.483212
-0.00814926 -0.0176741 0.0792449
0.00105932 -0.0671676 0.199706
-0.0170726 -0.018249 0.195834
0.00684273 -0.0234116 0.789011
0.0346342 -0.0444717 0.539308
-0.117534 -0.0453647 0.506479
0.137561 -0.0358073 0.0917662
-0.0117966 -0.0180221 0.489922
-0.0433842 -0.0545561 0.546839
-0.0272467 -0.0792987 0.590888
-0.0314712 -0.0250251 0.742763
-0.026575 -0.0262775 0.89136
-0.0398046 -0.0359518 0.369649
-0.0267195 -0.0788289 0.788594
0.126328 -0.0310864 0.124954
0.0378076 -0.0455994 0.521288
0.0569433 -0.00434644 0.122183
-0.180324 -0.0482931 0.492285
-0.0862454 -0.0817082 0.562071
0.158015 -0.038536 0.087783
0.00863118 -0.0767676 0.64481
-0.0403719 -0.0651723 0.648836
-0.0372489 -0.0323995 0.306073
-0.0360314 -0.0675663 0.860767
0.046863 -0.074678 0.582928
0.00484863 -0.0650907 0.202601
-0.00999584 -0.0808374 0.857319
0.0075228 -0.0427241 0.94238
-0.0796224 0.0173943 0.156109
