0.00518481 -0.107159 0.204634
-0.174883 -0.0830687 0.590955
-0.042047 -0.0967396 0.305368
-0.0431732 -0.0517753 0.519215
-0.102163 -0.0830687 0.621615
0.0375089 -0.0696619 0.895322
0.00832955 -0.0556669 0.0317367
0.280169 -0.0678572 0.56653
-0.365481 -0.0814813 0.511928
0.152423 -0.0830687 0.577857
-0.0368403 -0.110542 0.587915
-0.232686 -0.0804357 0.552976
-0.0252314 -0.034955 0.40005
0.21522 -0.0678572 0.597379
0.0107391 -0.06992 0.171488
0.0245463 -0.0357768 0.665742
-0.0502292 -0.0817974 0.537775
0.0199659 -0.0684959 0.628159
-0.140232 -0.0702985 0.645368
0.234152 -0.0678572 0.573162
0.0532031 -0.068775 0.371593
-0.0443999 -0.0529351 0.612736
-0.0298627 -0.117231 0.721336
0.0378042 -0.107059 0.502636
-0.0192794 -0.109946 0.235957
0.00628081 0.0864875 0.135686
-0.216036 -0.0827034 0.611163
-0.0507871 -0.0791083 0.723526
-0.0349546 -0.112045 0.798431
-0.0828656 -0.0511981 0.0923603
-0.0445309 -0.103096 0.455371
-0.305815 -0.0830687 0.561481
-0.0518976 -0.0675616 0.174464
-0.0160312 -0.067066 0.954568
-0.1183 -0.109089 0.705243
0.0027211 0.0397577 0.176853
-0.00950031 -0.125915 0.406325
-0.0261467 -0.0358481 0.308785
0.030661 -0.100684 0.254532
0.00298408 0.0274925 0.125186
-0.00595611 -0.126195 0.772034
0.0438252 -0.0628818 0.820992
0.0111654 -0.0683741 0.0691817
0.0293332 -0.0430381 0.214617
-0.0270085 -0.110992 0.879507
-0.0460243 -0.0970417 0.622966
-0.00850515 -0.00997079 0.191416
-0.106783 -0.0795576 0.665097
-0.0235715 -0.0666314 0.0891176
0.0723682 -0.0830687 0.612213
0.0439791 -0.073006 0.280726
-0.174865 -0.0678572 0.598386
-0.0318861 -0.0497512 0.890692
0.0471634 -0.0731086 0.713534
0.0150407 -0.0323698 0.125171
0.0267961 -0.118103 0.450797
0.0645483 -0.0609579 0.435639
0.135906 -0.1118 0.677519
-0.0257122 -0.0783676 0.628286
-0.082 -0.0856257 0.617004
-0.0891338 -0.0822997 0.407106
-0.122201 -0.0878982 0.678543
-0.368705 -0.0830687 0.539104
-0.0274388 -0.0693472 0.112391
-0.0401979 -0.107481 0.420756
-0.0385717 -0.0470217 0.674647
-0.0329317 -0.0414663 0.61416
0.108392 -0.0830687 0.615765
-0.0477247 -0.0650111 0.504732
0.0027266 -0.0136553 0.208503
0.0164388 -0.122859 0.637571
0.0243478 -0.0398574 0.854672
0.0393082 -0.0753881 0.219349
0.0835647 -0.0456108 0.104816
0.0637663 -0.0678572 0.631074
-0.03871 -0.0413004 0.108864
-0.036968 -0.0465725 0.318879
0.0246082 -0.0870092 0.160388
0.128972 -0.0678572 0.637449
-0.0235833 -0.119486 0.349349
0.0668676 -0.080747 0.353401
-0.00225487 -0.0995613 0.160673
0.0398327 -0.0511659 0.555634
-0.107441 -0.0678572 0.609193
0.000488947 -0.0197688 0.150597
0.0884336 -0.0730044 0.672203
-0.00964681 0.00133369 0.126867
0.0283247 -0.0804892 0.93537
-0.151242 -0.044209 0.0891752
0.0912656 -0.0594948 0.142149
-0.301624 -0.0820376 0.532757
-0.0228989 -0.0520214 0.149637
0.0384857 -0.0501747 0.411772
0.0167441 -0.115465 0.295112
-0.0469027 -0.0625044 0.398134
0.0173788 -0.0335059 0.354933
0.0159325 -0.122738 0.804577
-0.152444 -0.0837276 0.609133
0.0363646 -0.098337 0.882682
0.1585 -0.0695319 0.637508
0.00557215 -0.121438 0.852882
0.00492818 -0.0298397 0.599574
0.0538781 -0.0857292 0.390579
0.0354574 -0.0464538 0.754123
-0.050859 -0.0788415 0.78478
0.0329476 -0.111454 0.667888
0.021685 -0.121335 0.706021
0.0853449 -0.0843102 0.409699
-0.0138629 -0.0311796 0.758788
0.0130613 -0.0316355 0.786448
-0.0459998 -0.0810116 0.345926
-0.014511 -0.0316277 0.0838336
-0.0338503 -0.0830687 0.672632
0.00370348 0.0317752 0.138638
-0.0247248 -0.121527 0.584796
-0.0115508 -0.125311 0.459133
0.0202858 -0.121463 0.368776
-0.0626194 -0.0739229 0.596112
0.00236965 0.112966 0.0962229
-0.0677941 -0.0940389 0.465891
-0.0420482 -0.0548085 0.286857
0.0337262 -0.0425639 0.107859
0.296552 -0.0787229 0.540227
0.0300613 -0.114244 0.747091
-0.0387346 -0.10887 0.517505
-0.135431 -0.092266 0.63159
0.0329628 -0.0830687 0.620739
0.000651995 -0.0830687 0.646323
0.0597399 -0.0830687 0.66047
0.0403126 -0.103935 0.794474
0.242999 -0.0830687 0.57251
-0.0087398 -0.125558 0.694297
-0.0311802 -0.0646695 0.920999
0.0917222 -0.0680841 0.596598
0.0417491 -0.0621122 0.303349
0.0487123 -0.0678572 0.683078
0.0419349 -0.0910012 0.324643
0.0139591 -0.123846 0.523511
0.0137019 -0.0325629 0.41466
-0.0106448 -0.118914 0.306525
0.00987903 -0.0309969 0.699443
0.0437373 -0.0953204 0.616488
-0.0069769 -0.0447311 0.914394
-0.276516 -0.0830687 0.571836
0.0427107 -0.0566308 0.58619
0.0354169 -0.0546949 0.200889
-0.018947 -0.0998041 0.183392
0.0477167 -0.0749107 0.780793
-0.0615283 -0.0830687 0.671873
-0.020597 -0.0328613 0.80873
-0.00895783 -0.0492624 0.125591
-0.0464891 -0.060439 0.584083
0.037794 -0.049063 0.645954
0.269798 -0.0830687 0.577526
0.0271354 -0.0457804 0.882731
-0.0152844 -0.0314446 0.237196
-0.00358095 -0.0287141 0.624336
-0.0318787 -0.0404588 0.550312
-0.0500594 -0.0818645 0.645417
0.0415132 -0.05422 0.365084
-0.020611 -0.0678572 0.615734
-0.0291471 -0.0429475 0.864051
0.0117639 -0.0463855 0.0239143
0.177192 -0.0804358 0.568728
-0.025222 -0.121202 0.652569
-0.0815436 -0.0653169 0.388548
-0.0438304 -0.103867 0.394534
0.066061 -0.060652 0.108435
0.0112815 -0.124685 0.420332
-0.122699 -0.042947 0.12358
-0.0243127 -0.0905753 0.948206
0.0640107 -0.0654751 0.161363
-0.0646294 -0.0637266 0.146954
0.00736266 -0.113559 0.24825
0.131644 -0.0666892 0.116778
-0.0028002 0.00959563 0.176394
-0.0491179 -0.085786 0.567947
-0.0297537 -0.117297 0.756215
-0.00367572 -0.0288071 0.559269
0.166979 -0.0612125 0.0967605
-0.0313164 -0.0718955 0.699203
0.138245 -0.0830687 0.603392
-0.112315 -0.0524633 0.0919892
-0.159863 -0.0539728 0.103003
0.229407 -0.0830687 0.597522
-0.00191458 -0.0312639 0.856324
0.0352569 -0.0701924 0.694334
-0.0716821 -0.0628834 0.376258
0.13418 -0.0973029 0.623969
-0.0507022 -0.0765594 0.421791
-0.255683 -0.0678572 0.567612
0.182842 -0.0678572 0.621799
0.0284989 -0.108416 0.867135
-0.0447258 -0.0613596 0.83759
0.0230998 -0.0360747 0.255069
-0.00621395 -0.0291776 0.262463
0.0462936 -0.08619 0.428861
0.00645116 -0.0449751 0.114162
0.0605456 -0.0787293 0.592664
0.337642 -0.0792955 0.558342
0.0404059 -0.0995926 0.835863
-0.0719591 -0.0605493 0.448997
0.137991 -0.0894151 0.664488
0.120853 -0.0677725 0.595655
0.134045 -0.0579355 0.0811396
0.00166439 0.100896 0.115927
-0.140733 -0.0716203 0.580911
-0.0118775 -0.0198696 0.106432
-0.0469076 -0.0822385 0.371737
-0.00473199 0.0661324 0.127773
0.0301932 -0.11449 0.569634
0.000494104 -0.0291159 0.382076
-0.0419592 -0.101281 0.3373
-0.233188 -0.0830687 0.578184
-0.0301969 -0.103142 0.899418
-0.028166 -0.109113 0.28332
0.118089 -0.0973309 0.696289
-0.0422008 -0.0695754 0.208377
0.0306788 -0.0518515 0.152832
0.136672 -0.0903197 0.713462
-0.0488197 -0.0694482 0.438119
-0.0122996 -0.0305693 0.224294
-0.00919802 -0.0908482 0.134744
-0.0392272 -0.0477332 0.653472
-0.00122351 -0.127708 0.596185
-0.0359574 -0.0790988 0.179944
0.0297197 -0.111221 0.341467
0.0104485 -0.124361 0.695002
-0.0178478 -0.122992 0.784316
0.0311633 -0.0420787 0.813575
-0.0458811 -0.0919692 0.828622
-0.129803 -0.0880584 0.708858
0.0359193 -0.0470825 0.691241
0.0388554 -0.0591647 0.111142
-0.037288 -0.0465907 0.350262
0.0455668 -0.0526294 0.151182
0.0135924 -0.0320951 0.106108
-0.00186732 0.0291181 0.162771
-0.0135047 -0.0314844 0.517632
0.0355649 -0.108766 0.725664
0.11828 -0.0965776 0.676822
0.0370209 -0.079265 0.597551
0.00245668 -0.028634 0.0946798
-0.043451 -0.0694157 0.876959
0.0668803 -0.095185 0.408609
0.0115641 -0.0341219 0.0527071
-0.0448183 -0.0814753 0.282377
-0.0078131 -0.1139 0.908262
0.0482729 -0.0771382 0.741921
-0.0340893 -0.113189 0.620893
-0.0375698 -0.0463281 0.466787
-0.261979 -0.0830687 0.54544
-0.00113494 -0.0102578 0.233002
0.00772704 -0.0306849 0.512683
-0.0351548 -0.110655 0.821712
-0.344907 -0.0830687 0.539676
-0.0331041 -0.0413432 0.754141
0.07438 -0.0610207 0.45827
0.177028 -0.0830687 0.609197
-0.0781926 -0.0639995 0.472646
0.190712 -0.0722672 0.572743
-0.0679372 -0.0936011 0.381115
-0.177371 -0.0830687 0.566491
0.00756706 -0.0663044 0.959921
-0.00864998 0.00190774 0.157737
0.0298404 -0.0411942 0.526997
-0.00673575 -0.100213 0.966471
0.0125258 -0.0318293 0.644021
-0.00646576 -0.0300153 0.824963
0.0587493 -0.0819839 0.68904
-0.0152244 -0.123862 0.665232
0.368805 -0.0830687 0.515726
0.00554267 -0.0830687 0.624072
-0.0437251 -0.0773691 0.244176
-0.0258421 -0.0345585 0.690043
-0.0368103 -0.0472665 0.230275
0.112389 -0.0830687 0.639576
-0.00655933 -0.0649363 0.0507908
-0.192858 -0.0678572 0.609175
0.188695 -0.0678572 0.606292
0.305881 -0.0830687 0.555269
0.337369 -0.0830687 0.533055
-0.0320458 -0.0543728 0.17002
0.0620454 -0.0932313 0.454043
-0.0422075 -0.0917244 0.868613
-0.0102087 -0.051206 0.0188733
0.0377718 -0.0875265 0.235938
-0.00692295 -0.0298089 0.330714
-0.347385 -0.0697505 0.526657
0.0318793 -0.0433354 0.485583
-0.00523082 -0.0180804 0.1701
0.0838429 -0.0827021 0.585177
-0.0315386 -0.116102 0.474533
-0.0392418 -0.0475822 0.716037
0.010987 -0.124793 0.392369
-0.32081 -0.0830687 0.54785
-0.0785122 -0.0678572 0.660733
0.0520389 -0.0780545 0.453561
-0.0574403 -0.0830687 0.616599
-0.110145 -0.0582845 0.121916
0.0468102 -0.0843674 0.504129
0.015316 -0.031753 0.152365
0.0328814 -0.0678572 0.63976
-0.00625913 -0.0210606 0.134079
0.257544 -0.0678572 0.57309
0.0377003 -0.0503933 0.284428
-0.00557156 -0.0382035 0.208193
0.381759 -0.0807437 0.53965
0.0254337 -0.0830687 0.643867
-0.136358 -0.107092 0.650529
-0.0928408 -0.049745 0.147355
0.0294622 -0.0642825 0.13844
-0.115695 -0.106419 0.668517
0.0318524 -0.0834564 0.178561
0.064374 -0.0678572 0.655357
0.0437792 -0.0602937 0.760899
-0.0218519 -0.0615654 0.132896
-0.0750846 -0.0785435 0.47808
0.0446821 -0.0916003 0.663136
0.0307042 -0.114175 0.479298
-0.0245327 -0.109483 0.25376
0.00852042 -0.112521 0.910509
0.0104872 -0.102993 0.951431
0.0304119 -0.0419374 0.463561
0.0705908 -0.0830687 0.634587
-0.0505197 -0.0808276 0.513564
0.00665029 -0.0305027 0.475036
-0.0133648 -0.120139 0.327239
-0.0449772 -0.0898222 0.324101
-0.0104515 -0.070993 0.631178
-0.156818 -0.0830687 0.635157
-0.0134754 -0.0583063 0.936112
-0.00955609 -0.125802 0.500967
-0.0834355 -0.0912336 0.444997
0.00433253 0.047661 0.123395
0.139897 -0.0694035 0.585138
-0.00657445 -0.00836389 0.102903
-0.0104274 -0.0388706 0.152593
0.0165195 -0.103781 0.933342
-0.00711124 -0.126098 0.637365
-0.0445015 -0.0537967 0.816918
0.0274476 -0.0390425 0.441597
0.0558217 -0.0830687 0.604154
-0.0746024 -0.044968 0.130768
-0.050489 -0.0802202 0.696867
0.1436 -0.100624 0.688381
-0.0505114 -0.0801379 0.746413
0.059384 -0.0655535 0.471132
-0.0454905 -0.0617672 0.135536
0.00139931 0.0760762 0.156123
0.0352779 -0.10967 0.383171
-0.121627 -0.0677347 0.592044
0.149968 -0.0678572 0.600929
-0.0472708 -0.0928409 0.434098
-0.0780684 -0.0945297 0.427276
0.0967102 -0.0678572 0.650504
0.0469245 -0.0722613 0.517675
-0.00595402 -0.0774219 0.0867517
-0.301544 -0.0678572 0.554523
0.142792 -0.0804335 0.648716
-0.0316671 -0.0407061 0.377821
0.0393156 -0.0565336 0.853173
-0.0449491 -0.101325 0.571587
0.0424672 -0.0805219 0.371485
0.0421892 -0.055255 0.388409
0.123809 -0.0889814 0.646479
-0.0199946 -0.122993 0.513018
0.0585767 -0.0430456 0.102786
0.0964456 -0.0601691 0.0953741
0.0827537 -0.0684962 0.392692
0.00954436 -0.124868 0.580335
-0.0592443 -0.0552106 0.16838
-0.240407 -0.0678572 0.574247
-0.0559614 -0.0678572 0.634334
-0.0124164 -0.030983 0.284648
0.0397008 -0.10457 0.774857
-0.00736773 -0.0741431 0.664234
0.00366282 0.00497822 0.198734
0.0538772 -0.0830687 0.639023
-0.00206885 -0.0355081 0.161575
-0.0122151 -0.12458 0.728117
-0.1253 -0.0830687 0.655161
0.0019879 -0.0288279 0.721629
-0.0202927 -0.0830687 0.693362
-0.0841666 -0.0830687 0.672333
0.0219918 -0.0718073 0.679056
-0.0382343 -0.108975 0.642911
-0.109361 -0.0678572 0.648532
-5.73639e-05 -0.127584 0.529883
0.249743 -0.0747415 0.556176
0.0386452 -0.0698763 0.161365
-0.0540076 -0.0684585 0.60405
-0.0133701 -0.0324253 0.0612791
0.0239065 -0.108535 0.893295
0.0152529 -0.0550277 0.0494081
0.111332 -0.0830687 0.662735
-0.0377265 -0.109938 0.439809
-0.0128177 -0.121572 0.839781
-0.0466264 -0.0678572 0.65917
-0.136889 -0.108403 0.696791
-0.019123 -0.0332246 0.433169
-0.0181539 -0.106143 0.212918
-0.160807 -0.0678572 0.616593
-0.23612 -0.0702774 0.597139
0.0136495 -0.123411 0.760498
-0.0170873 -0.0851818 0.123271
0.110574 -0.0678572 0.615828
0.0372575 -0.0501574 0.262903
0.0938272 -0.0656978 0.122187
-0.0282269 -0.0655526 0.153926
-0.0229367 -0.122343 0.378834
-0.0892517 -0.0566586 0.112103
0.00340518 0.0219854 0.150892
0.0337992 -0.086669 0.200207
0.295871 -0.0829309 0.576865
0.00201384 0.0156377 0.120558
0.296042 -0.0678572 0.556374
-0.0456471 -0.070919 0.386576
0.00927161 -0.0304267 0.210398
0.0847225 -0.0691482 0.425522
-0.0466269 -0.0946353 0.801533
-0.0394115 -0.0627448 0.188269
-0.0246078 -0.0498203 0.0761499
-0.0440408 -0.0563328 0.338927
-0.018265 -0.0571529 0.109857
-0.289371 -0.0678572 0.571789
0.0384941 -0.10613 0.588388
-0.123982 -0.0856515 0.614083
0.00426756 -0.111821 0.225917
-0.0344353 -0.0430977 0.497233
0.144761 -0.0648853 0.100281
0.022433 -0.052262 0.0776647
0.0028941 0.0287926 0.186328
0.0229971 -0.0354848 0.305755
0.0431431 -0.0680862 0.844805
0.172299 -0.0829611 0.634982
-0.0988056 -0.0422048 0.118128
-0.0337482 -0.0422993 0.590887
-0.0206766 -0.0333233 0.597105
-0.00898263 -0.0408193 0.104176
-0.0171285 -0.0830687 0.647559
-0.0194922 -0.0329304 0.660211
-0.0200618 -0.0354064 0.112627
0.0181832 -0.0747425 0.191421
0.211805 -0.0678572 0.580345
0.0146073 -0.0326098 0.3312
0.0470988 -0.0729719 0.56065
-0.0891291 -0.0740535 0.426882
0.014124 -0.123745 0.543653
-0.0441571 -0.0492448 0.150805
0.0456935 -0.0878275 0.710955
0.0170721 -0.0331313 0.563498
-0.020401 -0.122753 0.56103
0.0544595 -0.067307 0.417685
-0.247074 -0.0830687 0.559982
-0.0623183 -0.064012 0.401639
-0.033165 -0.113865 0.773642
0.00445434 -0.126482 0.451512
0.038033 -0.0481449 0.0921553
-0.0310173 -0.0828981 0.611892
0.0274363 -0.0391615 0.400267
0.0385378 -0.0919966 0.270138
0.00205417 0.0291098 0.104628
-0.14916 -0.0836464 0.58902
-0.0458039 -0.0977057 0.737785
0.0389655 -0.0962861 0.860738
-0.0302349 -0.0388315 0.527117
0.0726981 -0.0533294 0.144815
0.142894 -0.103456 0.662916
-0.0362659 -0.0443713 0.804554
-0.220077 -0.0830687 0.590813
-0.0970494 -0.0680408 0.596691
0.0762135 -0.0830687 0.670993
-0.0252469 -0.0378857 0.161799
-0.122832 -0.094521 0.622049
0.0122154 -0.0790932 0.666828
-0.00310194 -0.0386926 0.900493
0.0437961 -0.080501 0.352742
-0.0361108 -0.0446758 0.571397
0.0261839 -0.118201 0.681567
-0.0116176 -0.0710792 0.0723447
0.0425025 -0.0557853 0.537321
-0.104106 -0.084207 0.642231
0.0429498 -0.0987642 0.52074
0.0144615 -0.0319592 0.807401
0.0708273 -0.0629895 0.37638
0.0259247 -0.118497 0.652766
-0.0476188 -0.0645866 0.535084
0.030182 -0.114737 0.423005
-0.171898 -0.05017 0.0841713
-0.383785 -0.0830687 0.515312
0.014681 -0.0936251 0.151664
-0.210805 -0.0830687 0.571097
0.041762 -0.0528648 0.735271
0.11957 -0.0478417 0.102463
0.0144276 -0.0827868 0.710072
0.0449113 -0.0914266 0.484207
0.0451396 -0.0760302 0.31057
0.0283745 -0.116482 0.511103
0.0346901 -0.0469773 0.128587
0.00310996 0.106013 0.137151
-0.0454157 -0.0994077 0.604947
-0.0264661 -0.0900481 0.169141
-0.0244712 -0.121901 0.408515
0.00937217 -0.121412 0.337228
-0.0498289 -0.0725653 0.764986
0.0118922 -0.0596238 0.156712
0.00429106 -0.124686 0.824426
0.0801187 -0.0911124 0.457897
-0.00958427 -0.00287619 0.139168
-0.0446826 -0.0974818 0.354723
0.041279 -0.102807 0.814052
-0.0018317 -0.127261 0.800042
-0.00407952 -0.0830687 0.616501
0.0212468 -0.121936 0.495716
0.0324768 -0.102594 0.288284
-0.0157507 -0.0313948 0.204648
-0.0463862 -0.0961999 0.526219
-0.138762 -0.0935552 0.664934
-0.186073 -0.0830687 0.606764
-0.115761 -0.093647 0.693971
0.035566 -0.0468671 0.601015
0.0231946 -0.109888 0.270289
-0.31285 -0.0678572 0.541649
0.0188137 -0.0627979 0.941156
0.00931053 -0.0309226 0.667701
0.207008 -0.0710947 0.614462
-0.00444308 0.0015887 0.216895
-0.0219111 -0.0693066 0.172893
-0.0484116 -0.0676793 0.484818
-0.0284442 -0.071872 0.936483
-0.0457779 -0.0739929 0.26416
0.0455749 -0.0675406 0.454954
-0.0497884 -0.0454243 0.131448
0.0580539 -0.0884985 0.470852
-0.0615252 -0.0404772 0.107443
0.00664394 0.0850325 0.114114
-0.00433986 0.0476574 0.162685
0.159063 -0.0846286 0.596507
-0.0150278 -0.118306 0.865978
0.232472 -0.0678572 0.590983
-0.00945719 -0.04344 0.162521
0.135905 -0.111753 0.694704
-0.0451666 -0.100085 0.781183
0.0065896 -0.0590016 0.121846
-0.00341525 -0.0279969 0.186341
-0.265577 -0.0716124 0.58407
-0.151951 -0.0678572 0.594411
0.0371128 -0.0555261 0.221133
-0.115929 -0.0400838 0.10833
0.0347574 -0.0476193 0.831
-0.062333 -0.0788571 0.451793
0.042091 -0.101886 0.436759
-0.108639 -0.0830687 0.602389
0.0258477 -0.037121 0.639812
-0.0767137 -0.0948276 0.398691
-0.139543 -0.0452859 0.121635
-0.0411332 -0.0681365 0.676281
-0.0161436 -0.0836186 0.968576
-0.00278101 0.0976541 0.105456
0.276995 -0.0830687 0.564007
-0.169231 -0.0677876 0.579525
0.0339177 -0.110593 0.62434
0.0466416 -0.0713599 0.662521
0.0914004 -0.0830687 0.627346
0.000543199 -0.00298711 0.114991
0.345072 -0.0690963 0.535233
0.0619986 -0.0614354 0.451952
0.000204643 -0.127183 0.372379
0.142408 -0.0973075 0.648599
-0.0338283 -0.0419762 0.788538
0.0359378 -0.0678576 0.612408
-0.0309112 -0.0542183 0.119934
0.00433778 -0.0297056 0.576301
-0.198583 -0.0811399 0.619627
-0.018395 -0.0331565 0.373049
-0.0796912 -0.0871998 0.637437
-0.00566858 0.048373 0.14081
0.181306 -0.0830687 0.586365
0.00543259 -0.0298008 0.276952
0.125477 -0.111911 0.661548
0.0446832 -0.0770834 0.405506
0.0224833 -0.0588477 0.115476
0.128622 -0.0830687 0.587123
-0.0218651 -0.101293 0.933003
0.0018894 -0.0118036 0.177627
-0.0663697 -0.0793656 0.348527
-0.0893116 -0.0750224 0.447041
0.108784 -0.05203 0.125905
-0.0395929 -0.0485351 0.408463
-0.0246276 -0.121289 0.703201
-0.0286939 -0.11896 0.45416
-0.0357025 -0.0454655 0.302381
-0.00371456 -0.0766447 0.687242
-0.0480735 -0.0897826 0.389315
0.0351818 -0.0483201 0.238088
0.0731079 -0.0907017 0.374795
0.0364953 -0.0830687 0.659189
0.229661 -0.0830687 0.579932
-0.0155282 -0.0814169 0.600988
-0.0313397 -0.046324 0.0948346
0.0379854 -0.0492156 0.665926
-0.225023 -0.0689763 0.565021
0.000202153 0.111059 0.11613
0.0240727 -0.0350218 0.771925
0.200084 -0.0678572 0.596183
-0.051081 -0.0783507 0.588667
0.220751 -0.0764325 0.609766
-0.00950082 -0.0304995 0.485087
0.181619 -0.0678572 0.585106
-0.0134992 -0.0536772 0.0912349
-0.00328164 -0.0406966 0.131634
-0.00368979 0.0785677 0.131155
0.00879883 -0.0312072 0.429481
-0.117366 -0.0918613 0.661241
-0.0748939 -0.0832007 0.590072
0.0209111 -0.0339887 0.684833
-0.0174875 -0.0321933 0.741506
-0.0250562 -0.0344635 0.629028
0.0868854 -0.0505327 0.12668
0.0855323 -0.0720998 0.464942
-0.00632588 -0.126746 0.425422
0.0752924 -0.0678572 0.640565
0.0688363 -0.060285 0.417693
0.0617039 -0.0893348 0.363952
-0.0462433 -0.0960925 0.648041
-0.0371009 -0.048671 0.844113
-0.024731 -0.0345917 0.332417
-0.0451925 -0.100698 0.506816
0.0182386 -0.122312 0.667872
0.0240909 -0.0354843 0.505578
0.0414826 -0.0523469 0.804016
0.35799 -0.0804826 0.54982
0.0993065 -0.0480341 0.110567
0.122504 -0.0830687 0.624816
-0.0970356 -0.0608749 0.134411
0.0028878 -0.103928 0.186096
0.0262691 -0.103141 0.237014
0.0443224 -0.0630152 0.426611
0.355321 -0.0830687 0.525154
0.0216924 -0.0411762 0.0936145
0.00448913 -0.125926 0.717451
-0.000427619 -0.0280611 0.770277
0.015335 -0.0438035 0.903543
-0.0186438 -0.113344 0.27018
0.0467309 -0.0809074 0.821728
0.0446882 -0.0638165 0.727508
-0.127317 -0.080462 0.575936
0.0225606 -0.0585042 0.923831
0.0475827 -0.0748166 0.588199
-0.000880721 -0.0242402 0.116784
-0.0213541 -0.0426916 0.898024
0.0424697 -0.0702018 0.388576
-0.0316397 -0.107613 0.301196
-0.139686 -0.0381742 0.0994723
-0.00356661 0.0173773 0.137418
-0.0384283 -0.0678576 0.61426
-0.0899421 -0.0830687 0.601037
-0.129864 -0.0508601 0.0891084
0.0457745 -0.068123 0.627191
0.112802 -0.0830687 0.597372
0.0323815 -0.0437062 0.5679
-0.038846 -0.0933346 0.237107
0.00319968 -0.0551336 0.943295
-0.0470236 -0.0622389 0.728273
-0.355234 -0.0830687 0.522611
0.0241959 -0.0407501 0.137772
-0.0714724 -0.0584621 0.161896
0.089697 -0.0678572 0.619112
0.0371844 -0.0830687 0.634398
-0.0100701 -0.0302797 0.170495
-0.0308159 -0.116517 0.60369
0.0743186 -0.0714473 0.596822
0.0414269 -0.0964669 0.341308
0.0090623 -0.0520886 0.0880962
-0.0453905 -0.085516 0.85235
-0.17759 -0.0678572 0.61724
-0.00759934 -0.0590287 0.034607
-0.03672 -0.0495925 0.199685
-0.325127 -0.0678572 0.536953
0.0270083 -0.0830687 0.702121
0.13208 -0.0830687 0.632987
-0.00997915 -0.116599 0.891916
-0.00785391 -0.125724 0.745393
-0.0441676 -0.0695829 0.228457
-0.19065 -0.0678572 0.591876
0.140862 -0.1059 0.711167
-0.00552767 -0.126904 0.479012
0.0300799 -0.0421627 0.347891
-0.0448601 -0.0549481 0.385497
0.0251522 -0.0362693 0.708528
-0.0487167 -0.0793293 0.834494
-0.0164686 -0.0369029 0.0454244
-0.0858454 -0.0801959 0.381314
-0.00954448 -0.0830687 0.632875
-0.00415864 -0.0256572 0.24506
-0.280928 -0.0797999 0.540446
0.0339943 -0.110895 0.465442
0.00894358 -0.0908814 0.137107
0.0396117 -0.0511023 0.474638
-0.00260063 -0.0604469 0.13695
0.274369 -0.0701277 0.583111
0.0793888 -0.0639374 0.119077
0.0408974 -0.0573159 0.317584
0.0306979 -0.0723608 0.920305
-0.152363 -0.0678572 0.633246
0.031394 -0.0427342 0.546115
-0.349532 -0.0690399 0.542968
-0.00695122 0.0212022 0.165617
-0.00678608 0.0378028 0.130447
-0.0045982 0.0731201 0.115047
-0.0376927 -0.0618384 0.896888
-0.0295491 -0.118124 0.427299
0.0110606 -0.124356 0.617828
0.0265885 -0.037607 0.745728
0.0271071 -0.041435 0.195157
-0.0642129 -0.0611508 0.133619
-0.0307246 -0.0909624 0.190287
-0.388235 -0.0803331 0.531368
-0.0462375 -0.0966024 0.555212
0.02852 -0.115734 0.789107
0.00786567 -0.0728998 0.611165
-0.0260008 -0.0358952 0.288697
-0.00399769 0.0226604 0.109068
0.0784243 -0.0678572 0.661146
-0.045155 -0.0714662 0.35261
-0.0600851 -0.0537571 0.095607
-0.0439973 -0.0664452 0.159603
0.259311 -0.0830687 0.56163
-0.0582398 -0.0881409 0.428761
0.00498197 -0.0736865 0.656851
-0.030946 -0.0477106 0.135682
0.325244 -0.0830687 0.548234
0.0260328 -0.118246 0.768454
-0.139189 -0.0951923 0.682759
0.0418694 -0.0782172 0.881427
0.0139166 -0.0972518 0.168157
0.0779869 -0.0656219 0.151958
0.0479943 -0.0798604 0.4416
-0.0327265 -0.114828 0.533405
0.00798142 -0.0830687 0.679361
-0.0475695 -0.0911154 0.67817
-0.0488522 -0.0750663 0.332117
0.0238706 -0.0417238 0.116676
-0.107884 -0.0731609 0.586471
0.0110867 -0.0830687 0.637973
0.0257895 -0.0568393 0.165525
0.0567631 -0.0743779 0.343615
0.00477327 0.040152 0.154187
0.0224111 -0.0830687 0.612457
0.0412763 -0.103037 0.740135
0.0115074 -0.121254 0.839097
0.0179447 -0.122578 0.594376
0.00696317 -0.11942 0.309264
0.0338266 -0.0536455 0.182897
0.0104573 -0.124815 0.507313
0.0574329 -0.065493 0.385148
0.0316667 -0.110963 0.356764
-0.192893 -0.0826283 0.561324
-0.140513 -0.0830687 0.620557
-0.0617049 -0.0785266 0.687059
-0.128967 -0.105793 0.634878
-0.0166769 -0.0323116 0.539586
0.0207493 -0.114679 0.878146
0.0480283 -0.0678572 0.646385
0.148262 -0.0830687 0.63516
0.000815342 -0.00934474 0.137838
-0.00411963 -0.0182 0.196074
-0.0609019 -0.0830687 0.633346
0.0454277 -0.0888202 0.730699
-0.0739184 -0.0584077 0.120102
0.156632 -0.0678572 0.622603
-0.221378 -0.0694395 0.604259
0.0184868 -0.0718495 0.953563
-0.0448748 -0.0830687 0.66053
0.164673 -0.0735403 0.576611
0.229985 -0.0798662 0.557127
0.285053 -0.0830687 0.55073
-0.0121201 -0.0802906 0.101926
0.013966 -0.0326915 0.394175
-0.0650788 -0.0619368 0.435859
0.0480329 -0.0760103 0.801433
0.024835 -0.0361331 0.605141
-0.00793735 -0.031675 0.841043
-0.00393071 -0.00261118 0.167432
-0.0525125 -0.0701576 0.366324
-0.0247704 -0.0687499 0.64028
-0.000395142 0.0609121 0.164929
-0.294509 -0.0830687 0.548568
-0.0498517 -0.0832464 0.46082
-0.00571813 -0.029322 0.590434
-0.321684 -0.0678572 0.553358
-0.00780418 -0.0470943 0.142621
-0.032877 -0.114568 0.568234
-0.00333675 -0.02785 0.141967
-0.00826882 -0.0365855 0.11695
-0.106525 -0.0678572 0.629624
0.0397159 -0.0787879 0.341739
0.00406452 -0.126143 0.648623
-0.0270681 -0.0352626 0.771098
-0.281486 -0.0830687 0.556497
0.0015262 -0.119243 0.291943
-0.0252662 -0.034586 0.565431
-0.102413 -0.0424408 0.101774
-0.0328883 -0.114274 0.664684
-0.0153224 -0.0367915 0.880918
0.216655 -0.0830687 0.594337
-0.0173472 -0.0599715 0.162536
0.070952 -0.0491553 0.125895
0.00529713 0.0677926 0.109435
0.310737 -0.0830687 0.542388
0.254333 -0.0830687 0.586701
0.0502271 -0.0625586 0.122988
-0.0879359 -0.0678572 0.608375
0.0599323 -0.0684518 0.353246
-0.0463306 -0.0663364 0.326104
-0.131479 -0.0803399 0.634089
-0.0450978 -0.0552719 0.492545
0.103738 -0.0668195 0.133858
0.052561 -0.061523 0.168376
-0.0159296 -0.123539 0.760234
0.0309259 -0.0428495 0.364461
0.0069663 -0.0300524 0.252305
0.0413172 -0.102977 0.755885
-0.0239533 -0.0342151 0.250469
-0.0452965 -0.0561128 0.473678
0.12244 -0.0910739 0.633467
-0.00375909 -0.0224654 0.217082
0.128602 -0.0845022 0.675028
-0.0446447 -0.0630161 0.299928
-0.00269148 -0.0286603 0.0507229
0.127066 -0.0623424 0.0946644
0.0708764 -0.0678572 0.618052
-0.001761 0.018797 0.189136
-0.0207875 -0.0830687 0.664126
0.0158006 -0.121017 0.351304
0.0310194 -0.096236 0.224329
-0.265783 -0.0830687 0.560497
0.00489675 -0.0436347 0.0111251
-0.129864 -0.0874738 0.691486
0.0267268 -0.0948899 0.926666
0.00780812 -0.0971814 0.967857
-0.0352886 -0.0827817 0.637555
0.0385016 -0.106371 0.488508
0.154981 -0.0553214 0.104433
-0.0684307 -0.067875 0.609597
-0.00389887 -0.0291798 0.420854
0.205695 -0.0830687 0.569943
-0.0393695 -0.104619 0.835177
-0.203864 -0.0678572 0.599112
-0.0469272 -0.0619418 0.712072
-0.229682 -0.0830687 0.602843
-0.0381139 -0.10951 0.497218
-0.0300506 -0.117021 0.739131
0.0450251 -0.0906016 0.59988
0.0575375 -0.0904247 0.419978
0.0459115 -0.0875442 0.552258
-0.108668 -0.05555 0.107688
-0.00836808 -0.125803 0.622574
0.045073 -0.0901421 0.680392
-0.0313343 -0.0400481 0.480954
-0.0468992 -0.0614802 0.804045
-0.00141367 -0.0738114 0.640562
-0.0456586 -0.057606 0.446666
0.0788009 -0.0654442 0.473158
0.0447455 -0.0641809 0.505036
-0.00223431 -0.0496137 0.931496
0.0677857 -0.0511182 0.0916363
-0.0486749 -0.0875716 0.413329
-0.0106527 -0.0310527 0.398499
-0.0110036 -0.0124225 0.116536
0.0123179 -0.0359845 0.87151
-0.0273404 -0.113361 0.314336
-0.00286877 0.0360208 0.115417
-0.0421923 -0.105448 0.474695
-0.144342 -0.0820505 0.571678
0.00589438 0.0916364 0.0997556
-0.00467669 0.061671 0.140453
0.0238243 -0.0823162 0.598541
-0.0210452 -0.102497 0.19908
0.00471356 0.0289794 0.174898
0.0254272 -0.119516 0.38868
-0.0066599 0.0319567 0.148798
-0.00614848 -0.0297301 0.439475
-0.0584586 -0.0853746 0.472894
0.0574074 -0.0678572 0.6686
0.017898 -0.0430794 0.060786
0.00993032 -0.0312426 0.313565
-0.0250085 -0.0534484 0.91356
0.113297 -0.0678572 0.642625
0.034864 -0.0464918 0.431167
-0.00421673 -0.0562047 0.112593
-0.0280132 -0.0368336 0.447183
0.0319007 -0.0427922 0.793731
-0.0287777 -0.0742396 0.126266
0.0287628 -0.115472 0.805139
0.0449116 -0.0830687 0.694012
-0.0810712 -0.0649218 0.15424
0.00788291 -0.030615 0.615309
0.0248769 -0.0543349 0.0928695
-0.165972 -0.0830687 0.602605
-0.0494399 -0.0714329 0.570948
-0.0182604 -0.123486 0.485439
-0.119782 -0.0830687 0.643874
-0.0767303 -0.0614215 0.401929
-0.00660679 -0.126388 0.582634
-0.00657201 -0.0830687 0.70101
0.056493 -0.0887078 0.376938
0.0171659 -0.0706514 0.649702
0.105965 -0.0680109 0.59394
-0.0598988 -0.0659985 0.457484
-0.0338771 -0.0438612 0.279379
-0.111861 -0.0609843 0.135979
-0.0074541 0.00122632 0.197159
0.0518243 -0.0830687 0.62528
-0.0338338 -0.11329 0.69616
-0.340511 -0.0826513 0.553037
0.117875 -0.100997 0.655739
-0.159435 -0.0431969 0.106669
-0.043143 -0.0688741 0.691376
0.0449261 -0.0648825 0.574487
0.0140069 -0.0830687 0.652725
-0.0076089 -0.00533392 0.2091
0.0830704 -0.0671544 0.407076
0.0619303 -0.0830687 0.674992
0.136519 -0.0816525 0.575231
0.00284611 0.121961 0.106835
0.128689 -0.0913095 0.701878
0.075141 -0.0613556 0.445401
0.0428881 -0.0572788 0.681132
0.0030927 0.00159722 0.186261
-0.049615 -0.0841065 0.444133
-0.0430311 -0.062604 0.250526
-0.133135 -0.0581232 0.122637
0.0436348 -0.0599917 0.700039
0.0322843 -0.0447151 0.311675
0.170085 -0.0678572 0.628392
0.324538 -0.0681254 0.561087
-0.0455146 -0.0991256 0.588436
0.152608 -0.0608606 0.078649
-0.0105311 -0.0606416 0.102443
-0.0166016 -0.123671 0.596379
-0.0724344 -0.0830687 0.606693
-0.0338068 -0.113898 0.382666
0.0408735 -0.0664138 0.144363
0.0989655 -0.0830687 0.654457
-0.0506112 -0.0804631 0.497065
-0.000686886 -0.122594 0.321191
-0.293584 -0.0830687 0.568808
0.0453261 -0.0898355 0.45334
0.122133 -0.109568 0.694749
0.0348352 -0.109513 0.711471
0.00765687 -0.0328441 0.0224507
-0.251955 -0.0830687 0.573344
-0.0360424 -0.0444519 0.689938
-0.0551907 -0.0693635 0.379438
0.0197583 -0.122402 0.431129
-0.0383509 -0.066766 0.172899
-0.0454697 -0.0830687 0.625382
-0.0382554 -0.0468432 0.539362
-0.00701017 -0.0729319 0.970436
-0.044983 -0.0548703 0.66474
0.0238287 -0.121058 0.46903
-0.00290791 0.0917192 0.124358
0.0444737 -0.0929175 0.382805
-0.00818068 -0.0951259 0.148191
-0.00225853 -0.0283345 0.648699
0.0040881 -0.0718486 0.62925
-0.0395891 -0.0504816 0.244133
0.034521 -0.107934 0.826133
0.00346677 -0.0432877 0.0989456
-0.0095634 -0.0109161 0.159477
-0.0269856 -0.102213 0.913076
0.290597 -0.0830687 0.560509
-0.0798896 -0.0491528 0.152745
0.390781 -0.0830687 0.528299
0.000919684 0.0784661 0.142035
0.0857627 -0.0705628 0.454011
-0.0225971 -0.033946 0.507285
0.121829 -0.05194 0.120848
-0.0019477 0.00157204 0.225394
-0.0369392 -0.101244 0.878134
0.317532 -0.0830687 0.563519
-0.00103274 -0.0703728 0.0626975
0.0360288 -0.0528162 0.866129
0.0158213 -0.0811627 0.963823
-0.187047 -0.0678577 0.578458
0.0351517 -0.109226 0.687159
0.0259561 -0.118378 0.72298
-0.0178087 -0.123621 0.471596
0.00139372 -0.126804 0.682465
-0.0216021 -0.0377096 0.100241
-0.0767741 -0.0860458 0.455927
0.0314679 -0.0458351 0.844462
0.0181534 -0.0645693 0.143802
0.00136841 -0.0830687 0.670906
-0.0181346 -0.0718609 0.663259
0.0434094 -0.0591516 0.524167
0.0377055 -0.0743052 0.204758
0.0851482 -0.0833216 0.659706
0.0255287 -0.119192 0.557608
-0.00342858 -0.0237843 0.230579
0.0097363 -0.0303144 0.140183
-0.226765 -0.0678572 0.578585
-0.00324373 0.01059 0.164433
0.0119116 -0.0472536 0.126003
0.00256158 0.0477708 0.171296
0.060642 -0.0543882 0.154058
0.0379057 -0.106992 0.45292
-0.0353575 -0.0439769 0.510859
0.0413875 -0.0699176 0.870556
-0.07658 -0.0709725 0.595971
0.124943 -0.0830687 0.606471
-0.0497709 -0.0731534 0.408625
-0.00234026 -0.035347 0.195095
-0.0450844 -0.0559745 0.17667
0.0462819 -0.0699831 0.603266
-0.0778138 -0.0946133 0.41225
0.0223861 -0.115832 0.857508
-0.292185 -0.0693768 0.544799
0.119974 -0.0770648 0.581204
-0.0109518 -0.125037 0.648721
-0.364413 -0.0730919 0.522998
-0.0483174 -0.0668702 0.778965
-0.00521617 -0.0396731 0.228374
-0.0455106 -0.0567693 0.571087
0.0134402 -0.0396293 0.0355119
0.000472194 0.00176534 0.104285
0.00623528 -0.0749597 0.0814804
-0.0174923 -0.0494703 0.0405883
-0.0499874 -0.082629 0.551246
-0.0526774 -0.0830687 0.603968
0.0817223 -0.0867754 0.473252
-0.0375436 -0.0457498 0.766591
0.378609 -0.0760923 0.521832
0.0160413 -0.039411 0.890807
0.0442456 -0.0938006 0.405346
0.0993474 -0.0830322 0.590875
-0.0466765 -0.0949833 0.379748
0.0306415 -0.113952 0.59821
-0.081231 -0.0628418 0.455184
0.225239 -0.0678572 0.583245
0.00358023 -0.12673 0.438091
-0.0207646 -0.122267 0.743877
-0.0189359 -0.0328431 0.610429
-0.206051 -0.06788 0.611415
0.00857283 -0.124727 0.791779
-0.115338 -0.103659 0.655212
0.00749138 -0.125714 0.407528
-0.0874372 -0.0440943 0.127121
-0.0266434 -0.120605 0.630475
0.0380662 -0.0898564 0.251937
0.0211674 -0.0351682 0.205368
0.0256224 -0.114123 0.330644
0.323132 -0.0779505 0.532166
0.0855023 -0.0836604 0.60983
0.00873614 -0.125292 0.49246
-0.0504634 -0.0821869 0.355367
-0.182084 -0.0830687 0.579713
-0.00592511 -0.11179 0.921308
0.0446935 -0.0645355 0.400967
0.020721 -0.0686563 0.162024
0.00519109 -0.0467963 0.919412
0.0173737 -0.0332474 0.529478
0.155054 -0.0679546 0.583936
-0.0166681 -0.123014 0.367106
-0.139769 -0.101642 0.706738
-0.0569896 -0.0667755 0.162188
-0.211908 -0.0678572 0.570841
0.00164382 0.00551214 0.131256
0.241519 -0.0747006 0.59899
0.00170889 -0.000101544 0.145822
-0.00844114 -0.0229928 0.207906
-0.261603 -0.0684067 0.555777
0.00392505 -0.0774382 0.704043
0.0257495 -0.119068 0.527172
-0.0873508 -0.0691088 0.40375
0.027192 -0.0577194 0.912121
-0.047836 -0.089127 0.815854
-0.12901 -0.0402704 0.110178
0.00734271 -0.0577491 0.111207
-0.0823415 -0.0633161 0.430495
-0.0404391 -0.0503184 0.828988
0.130527 -0.0678572 0.604612
-0.00414961 -0.0289827 0.317872
-0.00864965 -0.110904 0.223596
-0.0398911 -0.0557246 0.220692
0.00358047 0.0172518 0.167015
0.0703949 -0.0603599 0.394847
-0.0668132 -0.0913311 0.368237
-0.0236603 -0.0381832 0.125982
0.00227965 -0.126467 0.753666
-0.00845985 -0.0585085 0.948161
0.247944 -0.0678572 0.56418
0.166766 -0.0830687 0.586214
-0.0208582 -0.0431147 0.0621722
0.287179 -0.0730632 0.547382
-0.220399 -0.0830687 0.556557
-0.0150548 -0.0320369 0.467708
-0.0427532 -0.0915455 0.293421
-0.00840705 -0.0297899 0.729437
-0.0915431 -0.0678572 0.660666
0.00596283 -0.126064 0.464901
0.027502 -0.0433007 0.150047
-0.0165503 -0.0320112 0.272367
0.0327519 -0.0437124 0.767696
0.00169915 -0.00859627 0.219288
-0.00877564 -0.115103 0.2608
-0.00514436 -0.078273 0.606103
0.017984 -0.0330967 0.26658
-0.0694067 -0.0427813 0.119121
0.142988 -0.0830687 0.5867
0.0204514 -0.0957674 0.179214
-0.0168764 -0.0321809 0.679995
0.040462 -0.0517491 0.620285
-0.0455159 -0.0568299 0.600477
-0.167865 -0.0765079 0.633961
0.00370457 -0.126297 0.628245
-0.00194827 0.0254903 0.199587
0.0417114 -0.056402 0.352385
-0.328458 -0.0830687 0.537481
0.107116 -0.0708989 0.662517
0.03682 -0.107596 0.656237
-0.134108 -0.0678572 0.595016
0.0346797 -0.0614008 0.123094
-0.0976204 -0.0678572 0.620356
0.0716157 -0.0832656 0.590526
0.0230969 -0.0350567 0.423061
0.00106965 -0.127322 0.515708
0.191067 -0.0821937 0.564608
-0.0466529 -0.0430177 0.118802
0.0317184 -0.0430896 0.512529
0.0445268 -0.0921828 0.746126
0.0448547 -0.0715231 0.322561
-0.0384093 -0.05137 0.856558
0.00464536 -0.117252 0.27969
-0.00842013 -0.0491948 0.107435
0.0228575 -0.121588 0.415058
-0.0454354 -0.0996522 0.406484
0.0540851 -0.0694858 0.445635
-0.0351605 -0.108923 0.344955
0.0440439 -0.0939917 0.651484
0.124401 -0.0868494 0.657917
0.0233342 -0.0350358 0.452987
0.0303655 -0.0431328 0.276647
-0.00881496 -0.12388 0.827685
0.0136963 -0.123508 0.682567
0.063975 -0.0934606 0.38996
-0.015334 -0.0830687 0.622479
-0.0349736 -0.0743774 0.162603
0.00390535 -0.0795382 0.094494
-0.0876686 -0.0832895 0.393507
-0.0258423 -0.120831 0.797342
0.0500801 -0.0572574 0.0982226
-0.318336 -0.0813708 0.562673
0.185866 -0.0830687 0.618273
-0.00236456 -0.0284688 0.54671
-0.139452 -0.0961959 0.695343
0.0220503 -0.108529 0.247607
0.0720075 -0.0947283 0.420117
0.0436485 -0.0961718 0.507192
0.0102103 -0.125014 0.379718
0.0324561 -0.0678572 0.626697
-0.00346302 -0.00199332 0.181
-0.118992 -0.109836 0.680142
-0.148831 -0.0678572 0.607081
0.0341184 -0.0451548 0.739109
-0.0125149 -0.12453 0.706216
-0.00831464 -0.0758583 0.649086
0.0441972 -0.0628009 0.378623
-0.0474305 -0.0750017 0.297644
0.00111924 -0.0287813 0.635929
-0.207806 -0.0830687 0.592486
-0.0272372 -0.0355905 0.71113
0.0407471 -0.0612459 0.278043
0.143347 -0.098176 0.701679
-0.00771775 -0.113348 0.239187
-0.044715 -0.101865 0.634985
-0.00530935 -0.107569 0.943171
-0.0427807 -0.0509262 0.789586
0.0463351 -0.0703138 0.467066
-0.0953939 -0.0830687 0.633414
-0.0476716 -0.0907363 0.788992
0.012982 -0.0348404 0.85471
-0.237882 -0.0711789 0.55942
0.00227184 -0.0286676 0.0822685
0.0211741 -0.0342443 0.55015
-0.108203 -0.0828963 0.578807
-0.205604 -0.0779429 0.561096
0.0271552 -0.0567926 0.104195
0.0372931 -0.0498212 0.30158
0.048067 -0.0763104 0.75718
0.124149 -0.0885468 0.688524
-0.337203 -0.0678572 0.53432
0.0378374 -0.0616713 0.885905
0.196142 -0.0721642 0.620166
0.0236648 -0.0345456 0.797716
0.0370061 -0.0830687 0.60923
0.0396802 -0.0903293 0.282249
0.0730152 -0.0467773 0.114028
-0.0064618 -0.029228 0.745992
0.171085 -0.0830687 0.61992
0.0263259 -0.0972634 0.209345
-0.0349362 -0.0439111 0.39812
-0.136346 -0.0830687 0.600136
-0.047574 -0.0648956 0.419775
-0.031171 -0.0629531 0.140695
-0.2642 -0.0830687 0.580018
-0.359277 -0.0714184 0.533967
-0.00604714 0.0310094 0.171768
-0.0549554 -0.0501955 0.156445
0.0897181 -0.0678572 0.638066
-0.045417 -0.0567976 0.428978
0.0208617 -0.082934 0.673858
-0.0044011 -0.0369107 0.242923
-0.0467312 -0.0614195 0.639144
-0.0159683 -0.123635 0.68466
-0.0662542 -0.0830687 0.644306
-0.078506 -0.0774161 0.466428
0.0514568 -0.0830687 0.651521
0.0631999 -0.0646028 0.365996
0.0439459 -0.0424081 0.101211
0.143935 -0.0583566 0.11053
-0.004459 -0.017447 0.183552
0.0201775 -0.0778896 0.635892
-0.118729 -0.0918445 0.710799
-0.00444906 -0.102267 0.176547
-0.344094 -0.0830687 0.527464
-0.233429 -0.0830687 0.566038
0.0398698 -0.105071 0.39343
0.0665299 -0.0830687 0.623142
0.0391651 -0.0989555 0.315897
-0.0256843 -0.0732174 0.606093
-0.00232 -0.127652 0.541802
0.0595201 -0.0922922 0.433322
-0.00633533 -0.0264621 0.154813
-0.0472374 -0.092355 0.696096
-0.0736502 -0.0671536 0.365086
-0.0464772 -0.0634577 0.823964
0.0230728 -0.0817495 0.13828
0.032679 -0.111766 0.645286
-0.00403969 -0.0830687 0.660059
0.021188 -0.121404 0.751226
0.0467853 -0.0717788 0.544036
-0.013031 -0.0521256 0.134763
0.126926 -0.0787147 0.642386
0.00784286 0.0976469 0.124352
-0.0290316 -0.037814 0.4592
-0.0204012 -0.0336136 0.360592
0.0827536 -0.0830687 0.635786
-0.0560883 -0.0738582 0.34538
0.281719 -0.0830687 0.579469
0.0482756 -0.078191 0.724429
0.0380096 -0.101552 0.847532
0.0345811 -0.10933 0.368363
-0.0267588 -0.115602 0.847247
-0.187135 -0.0830687 0.622714
0.0349003 -0.0760011 0.909614
-0.0621235 -0.0641038 0.420898
0.122539 -0.0936901 0.708196
0.00525695 -0.0302608 0.0418327
-0.00343502 -0.0289231 0.467712
-0.0765153 -0.0548493 0.101895
-0.0508371 -0.0789214 0.708811
0.210055 -0.0830687 0.605348
-0.378396 -0.0753906 0.526596
0.0327508 -0.0441624 0.499685
0.0966859 -0.0678572 0.609365
0.00887535 -0.124986 0.602045
-0.0195704 -0.0830687 0.681396
0.0966453 -0.062687 0.107091
-0.0616268 -0.0456265 0.133293
-0.0171986 -0.0523202 0.926426
-0.051811 -0.0678572 0.669834
-0.00618676 -0.0129288 0.126586
-0.0786748 -0.0678572 0.672694
0.0585802 -0.0678572 0.644908
-0.329851 -0.0792373 0.55721
-0.0700772 -0.0649582 0.46365
0.0264471 -0.117921 0.695612
0.129191 -0.0880293 0.617035
0.143173 -0.102401 0.676379
-0.0490596 -0.0595584 0.124366
0.174248 -0.0830687 0.595982
0.0167706 -0.033319 0.438093
-0.128983 -0.11278 0.657973
0.160035 -0.0830687 0.626442
-0.0216915 -0.0634541 0.929184
-0.0447795 -0.0542656 0.458066
-0.0398428 -0.0727127 0.602798
0.0304266 -0.0434705 0.247867
-0.0319263 -0.102811 0.260285
0.0370457 -0.0485943 0.456267
0.0199434 -0.0355519 0.84005
-0.00363759 -0.12148 0.864793
-0.0919332 -0.0588217 0.12346
-0.0450011 -0.0548314 0.544977
0.051294 -0.0830687 0.668807
-0.0325394 -0.115143 0.41399
-0.013699 -0.0966182 0.161263
0.0116427 -0.0314304 0.715312
0.00865526 -0.12514 0.568399
0.000259123 -0.0290179 0.394455
-0.0423804 -0.0518961 0.328124
-0.00600436 0.0125985 0.197
0.0194091 -0.108354 0.908729
-0.121357 -0.0889785 0.632344
0.00850553 -0.0529975 0.100398
0.0137535 -0.123999 0.44332
0.133595 -0.078665 0.623534
0.0143336 -0.0320264 0.766104
-0.0815503 -0.0678572 0.649422
-0.0122957 -0.0317735 0.104124
-0.0159417 -0.0321116 0.31312
0.019908 -0.0338792 0.574936
-0.027868 -0.114239 0.327062
-0.0505834 -0.0798674 0.674187
-0.0208237 -0.122293 0.714158
-0.0484196 -0.0674043 0.739649
-0.0102898 -0.000561356 0.110682
-0.124739 -0.0784047 0.625661
0.0868863 -0.0803096 0.423094
-0.029326 -0.0378042 0.664037
-0.0399138 -0.0614836 0.199812
0.116323 -0.0678572 0.625898
-0.0306908 -0.0427807 0.178952
-0.0908064 -0.062877 0.144333
0.00467862 -0.0302088 0.371324
-0.0432155 -0.0518452 0.5076
-0.0618851 -0.0834024 0.589502
-0.00505287 -0.105789 0.194302
0.19581 -0.0678572 0.582142
0.0365102 -0.068344 0.183222
0.347425 -0.0687917 0.546544
-0.0402906 -0.0875666 0.892488
-0.0397801 -0.0483366 0.5831
0.0154778 -0.123084 0.649081
0.156445 -0.0642419 0.093115
-0.250197 -0.0759847 0.551417
-0.00381373 0.0103542 0.146567
-0.000303656 -0.0509419 0.12134
0.033321 -0.0608895 0.149891
-0.127833 -0.0981381 0.703668
0.0671279 -0.0764129 0.460501
-0.00460991 0.040645 0.102435
-0.370186 -0.0830687 0.524182
0.132949 -0.0755168 0.652001
0.344403 -0.0786699 0.525119
0.0214545 -0.0368888 0.160589
0.126773 -0.102796 0.630793
-0.00235776 -0.127741 0.490899
-0.0276633 -0.117417 0.827128
-0.0247938 -0.0343715 0.649904
0.0792051 -0.0517289 0.0921723
0.043835 -0.0607905 0.560367
0.0240511 -0.035202 0.695769
-0.0271174 -0.0719464 0.688567
0.143114 -0.0678572 0.61008
0.0132735 -0.0322421 0.48755
-0.0503522 -0.0493757 0.0915179
-0.0564289 -0.0686889 0.390658
-0.12033 -0.0678572 0.603389
-0.0419977 -0.0509042 0.419815
-0.0256825 -0.0830687 0.651661
0.0284057 -0.106656 0.88085
-0.0196045 -0.119544 0.338651
-0.0102389 -0.125019 0.792655
-0.0190675 -0.0350248 0.845718
-0.00662688 0.0444194 0.119448
-0.0469318 -0.0934956 0.707434
0.0541769 -0.0711989 0.162036
-0.00123977 -0.124153 0.84417
0.00943333 -0.0620261 0.134995
-0.0820781 -0.0752776 0.371765
0.0312847 -0.0785676 0.16408
-0.0183362 -0.0746779 0.700787
-0.00866652 0.0181465 0.117561
0.0429168 -0.0631771 0.832313
-0.0342251 -0.0830687 0.683984
0.0420166 -0.0540219 0.573
0.370669 -0.0830687 0.540324
0.0217792 -0.0663689 0.18466
-0.160764 -0.0481496 0.0834585
-0.0207772 -0.0871529 0.958851
-0.026546 -0.0775676 0.946093
-0.201111 -0.0830687 0.608758
-0.0138613 -0.112811 0.250945
-0.00168192 0.102229 0.12581
-0.0187973 -0.0368758 0.87016
-0.0333729 -0.0610534 0.91051
-0.00200235 0.0203893 0.177873
0.0049641 0.0520653 0.133782
-0.13369 -0.0885684 0.649966
0.0292755 -0.042178 0.26259
-0.0164205 -0.0635143 0.142596
-0.0283641 -0.0367854 0.815917
0.029723 -0.114755 0.634814
0.0476174 -0.0694313 0.36181
0.068226 -0.0932457 0.471889
-0.00776221 -0.126154 0.55594
0.157142 -0.0830687 0.642081
0.0164741 -0.0331817 0.342287
-0.0420325 -0.080556 0.229776
-0.0133157 -0.030663 0.188935
-0.0671443 -0.0678572 0.635596
-0.111852 -0.0711056 0.65968
0.00273566 -0.0613473 0.0396487
-0.0109837 -0.0682449 0.166669
-0.0880157 -0.0856246 0.41777
-0.0283685 -0.0647262 0.187942
0.0668879 -0.0608071 0.464282
0.0473169 -0.0737412 0.528778
-0.0237771 -0.12148 0.729733
0.0423185 -0.0868046 0.311735
-0.192024 -0.0713002 0.619798
-0.101622 -0.053229 0.0952221
-0.0101041 -0.0154996 0.153167
-0.22068 -0.0830687 0.576355
-0.0311361 -0.0395763 0.678339
0.147475 -0.0678572 0.637412
0.000663479 0.0704484 0.144783
-0.0064341 -0.029535 0.570044
-0.162737 -0.0678572 0.597171
0.0055862 0.0631765 0.12894
-0.0372583 -0.109915 0.655423
0.0322665 -0.043934 0.418569
0.0434262 -0.0962909 0.76843
0.0353483 -0.0533746 0.877213
0.0376846 -0.107233 0.426314
-0.0299402 -0.0421148 0.849505
-0.030899 -0.0394412 0.603432
-0.049226 -0.0849345 0.736496
-0.0185867 -0.0974522 0.171592
-0.00304765 -0.115746 0.251343
-0.000100166 -0.0126252 0.115882
0.0193416 -0.0499211 0.912218
-0.0314668 -0.0400255 0.580302
-0.0767127 -0.081174 0.680287
0.0191496 -0.0712361 0.663264
0.0184031 -0.118567 0.847316
0.0853813 -0.0699691 0.442531
0.0474555 -0.0819244 0.479186
-0.0249846 -0.0410346 0.884172
0.0401283 -0.060272 0.266277
0.0414231 -0.075825 0.244898
-0.0452203 -0.0817065 0.865081
-0.119126 -0.109933 0.694271
-0.0453515 -0.058658 0.361533
0.104913 -0.0571085 0.0864922
-0.000875066 0.0640075 0.116861
-0.0503817 -0.0812287 0.432204
0.0265174 -0.0830687 0.654534
-0.136731 -0.108626 0.664661
0.0393792 -0.100437 0.331254
-0.0220653 -0.033164 0.219944
0.0399234 -0.0644517 0.226909
-0.0117389 -0.125168 0.527688
0.013899 -0.110176 0.230943
-3.69307e-05 -0.117634 0.896456
-0.147114 -0.0678572 0.622002
0.0111936 -0.0314635 0.295374
-0.0277919 -0.0363811 0.537533
0.0803503 -0.0522465 0.137025
-0.172378 -0.0830687 0.62373
0.00710258 -0.0755285 0.687959
-0.043567 -0.104103 0.432594
-0.0897487 -0.0403438 0.107901
-0.0496272 -0.083438 0.763747
0.0787512 -0.0830687 0.601236
-0.00999588 -0.0246403 0.178981
-0.0255995 -0.0567054 0.0850177
0.0655923 -0.0679026 0.60504
-0.0537209 -0.0637894 0.146541
0.240657 -0.0788695 0.55508
0.0378819 -0.106804 0.568717
0.03432 -0.0492275 0.139253
-0.00760902 -0.108778 0.212007
-0.0357901 -0.101381 0.282325
0.0437699 -0.060716 0.471616
-0.0122452 -0.0279345 0.114218
0.047392 -0.074497 0.42178
-0.0144549 -0.124216 0.60703
0.350564 -0.0830687 0.542312
-0.0138566 -0.107944 0.929883
-0.0687997 -0.09507 0.432899
-0.0239363 -0.0830687 0.636926
0.0249512 -0.0904147 0.938147
-0.0377581 -0.0467715 0.385879
-0.182351 -0.0737882 0.570702
0.20945 -0.0705674 0.570136
-0.00837534 0.0173835 0.128849
-0.0355801 -0.097633 0.24647
0.30079 -0.0830687 0.564802
-0.0345994 -0.113047 0.465158
-0.00593241 -0.059139 0.126941
-0.000828803 -0.127364 0.708175
-0.010502 -0.0300557 0.0938662
-0.0275306 -0.120066 0.520154
0.00730778 -0.0647275 0.148398
0.0144961 -0.0495375 0.0396197
0.0233453 -0.121388 0.482454
-0.0310905 -0.11592 0.789148
0.0232222 -0.0830687 0.690565
0.0483137 -0.0775289 0.576821
0.026322 -0.0830687 0.630208
-0.0310173 -0.0434531 0.119994
0.0394139 -0.0504873 0.725041
0.0266866 -0.11763 0.73745
-0.0261442 -0.0603994 0.177199
0.0483445 -0.078159 0.610121
-0.369848 -0.0733238 0.534198
-0.0103256 -0.0917502 0.972495
-0.000686564 -0.124326 0.339557
-0.00848671 -0.116242 0.272054
-0.0245956 -0.0887123 0.156032
0.0443023 -0.0936672 0.530079
-0.0208617 -0.0333306 0.297754
-0.00143854 -0.0278764 0.107048
0.0349957 -0.109914 0.436925
-0.027277 -0.0990503 0.209271
-0.245913 -0.0709615 0.592868
0.000362382 -0.0281133 0.225016
-0.0221037 -0.122008 0.673211
0.0211477 -0.110585 0.258061
-0.335324 -0.0822845 0.521404
0.0217744 -0.118612 0.342775
-0.31376 -0.0678572 0.560527
-0.157331 -0.0830687 0.624486
0.0565054 -0.0803518 0.464136
0.00475114 -0.0830687 0.71456
-0.168964 -0.0470815 0.0979988
0.0696239 -0.0950103 0.461327
-0.121518 -0.0830687 0.601659
0.0259131 -0.1085 0.282335
-0.0148954 -0.124031 0.63079
0.133835 -0.0678226 0.594499
0.0173996 -0.0688504 0.61359
0.03839 -0.0497503 0.51744
0.188859 -0.0678572 0.595678
0.0173714 -0.0332605 0.516281
0.118764 -0.105214 0.670727
0.0386183 -0.106122 0.551399
0.00456221 -0.125831 0.770954
-0.00154585 -0.120693 0.877994
0.0147987 -0.0511254 0.924294
0.119016 -0.0978651 0.643333
0.101849 -0.0830687 0.628932
-0.029859 -0.0391518 0.351308
-0.0409718 -0.0626916 0.884713
-0.0216299 -0.033327 0.731868
0.0914381 -0.0830687 0.673099
-0.086367 -0.0816248 0.47205
-0.0326272 -0.0421496 0.327404
0.0451499 -0.0905525 0.495759
0.138184 -0.108657 0.65075
-0.0430296 -0.0830687 0.68975
-0.0321513 -0.0500678 0.154244
-0.027656 -0.0367931 0.367513
-0.00378625 -0.0289252 0.500262
-0.0108197 -0.0671875 0.060542
-0.0495426 -0.0719196 0.644981
-0.0165159 -0.113331 0.899468
-0.0184171 -0.0830687 0.610954
0.0848891 -0.0781888 0.389247
-0.0128837 -0.0309135 0.254533
0.0963922 -0.0830687 0.640549
-0.00697756 -0.0503741 0.155035
-0.0325885 -0.0451225 0.165085
0.0475011 -0.0745189 0.675059
-0.0213677 -0.0568972 0.0663471
-0.00398075 -0.127354 0.445356
0.0441543 -0.061774 0.740232
-0.115193 -0.0956741 0.67853
0.0249307 -0.0363758 0.489157
-0.146979 -0.0830687 0.631623
-0.00721804 -0.0830687 0.677244
0.0334966 -0.0448139 0.578234
-0.0115303 -0.0374013 0.89063
0.0680821 -0.0644059 0.12529
-0.16758 -0.0678572 0.606414
0.055466 -0.0849515 0.356831
-0.0429859 -0.0519696 0.395312
-0.00874695 -0.047472 0.115642
-0.0514574 -0.0678572 0.685172
0.0338793 -0.110077 0.815025
0.0270076 -0.0383547 0.53661
-0.149777 -0.0732132 0.641786
-0.00134087 -0.0778395 0.977645
-0.0433195 -0.0772743 0.891421
0.000405657 0.0664561 0.152331
-0.0327357 -0.0606428 0.127887
0.0719124 -0.0946576 0.451154
-0.23074 -0.0830687 0.58827
-0.046059 -0.0587533 0.526333
0.0312561 -0.0430093 0.391419
0.0430417 -0.097724 0.712568
-0.0429703 -0.0821488 0.253342
-0.0480017 -0.0895039 0.750048
-0.0197413 -0.122611 0.694246
