0.0568627 0.0375344 0.533873
-0.0457026 0.0274973 0.545015
-0.00893196 0.0426904 0.221912
0.152059 -0.0264739 0.354615
0.0225213 0.0563701 0.0881412
0.00560968 0.0306048 0.622296
-0.171687 -0.0525723 0.376105
-0.218333 -0.04344 0.391347
-0.085028 -0.055399 0.503015
0.417805 -0.0783619 0.347513
-0.0625875 -0.0648826 0.18434
-0.0114325 0.0834013 0.557947
0.000692811 0.0444172 0.184748
0.113831 -0.0382187 0.40542
0.159907 -0.0497394 0.372762
-0.0379375 0.0341027 0.407579
-0.0809156 -0.0683324 0.371837
0.0512543 -0.105057 0.359276
0.0355457 -0.0719402 0.655155
-0.0866 -0.0609961 0.416192
-0.233924 -0.0629309 0.338846
-0.0283178 -0.00349856 0.0632123
0.129819 -0.0403515 0.492941
-0.27284 -0.0587543 0.415202
-0.0835779 -0.0104566 0.17787
-0.0830321 -0.0292856 0.106473
0.138311 -0.0451386 0.321656
-0.109731 -0.0139207 0.326087
0.0698944 -0.0349715 0.0890048
0.0849151 -0.0242843 0.309713
0.0809913 -0.0245201 0.558939
0.0119468 -0.0988291 0.159315
0.127784 -0.0412547 0.102375
-0.0081557 -0.00842847 0.12537
-0.0107504 -0.119314 0.346456
0.0456269 -0.0898673 0.19634
0.0302852 0.0829941 0.131779
-0.1248 -0.041206 0.372229
0.00379162 -0.0666327 0.0767615
0.00410823 -0.121768 0.381869
-0.0736223 0.017547 0.485261
0.0824336 -0.0647637 0.365005
-0.0103387 -0.122607 0.42798
0.122576 -0.017336 0.466834
0.0597116 -0.0200608 0.13912
0.00102065 -0.086249 0.654841
-0.0811103 -0.0305788 0.149876
-0.136652 -0.0216022 0.0567485
0.216696 -0.0435932 0.34925
0.0303954 0.0168136 0.104627
0.0525932 -0.106965 0.446965
0.00220274 -0.0401793 0.913854
-0.0163465 0.0186781 0.654737
0.0762855 -0.058969 0.566494
-0.318118 -0.0715653 0.33908
0.248938 -0.0489473 0.394836
0.302974 -0.0643671 0.30651
0.0357605 0.0381898 0.570086
-0.03522 -0.114079 0.480533
-0.148919 -0.0243745 0.398584
-0.0100061 -0.10545 0.60331
0.0138793 0.114258 0.0508677
-0.11114 -0.00531261 0.0778281
0.299531 -0.0696768 0.376966
-0.0122579 0.0973858 0.498655
0.0782311 0.0108248 0.400088
-0.0743835 -0.0643556 0.562198
0.0698052 -0.05227 0.0563146
0.0380867 -0.111144 0.345098
-0.12609 -0.0237346 0.0854189
0.00770196 -0.000552222 0.0673352
-0.230663 -0.0458147 0.352711
0.0444757 0.0300005 0.22385
-0.0610697 -0.0987516 0.413772
0.00578224 0.0464909 0.252352
-0.105883 -0.0125435 0.499228
-0.228652 -0.0462949 0.424982
0.196704 -0.058712 0.436879
0.0727692 0.00451761 0.277226
-0.0199529 -0.0332693 0.708731
0.0392611 0.0478073 0.461301
-0.028495 -0.0303877 0.0665087
0.0489781 -0.0955545 0.253464
0.0186363 -0.0889399 0.106243
-0.0735663 -0.0472447 0.595081
0.0431244 0.078246 0.515338
0.0936712 -0.00647299 0.436735
0.0525711 0.0314975 0.284778
0.204759 -0.059742 0.393492
-0.0482504 0.03739 0.301303
0.263399 -0.0510496 0.359724
-0.263413 -0.0659587 0.338353
0.0552155 -0.0207101 0.646811
-0.103924 -0.0100343 0.0141236
0.0238178 0.0515997 0.14951
0.0648172 0.025869 0.342765
-0.157235 -0.0497055 0.32805
0.141554 -0.0454494 0.441867
0.326754 -0.0716805 0.303445
-0.00979115 -0.0317804 0.764001
0.117342 -0.0141701 0.410873
0.0354398 0.0436639 0.542979
-0.284917 -0.0680105 0.362505
0.00548903 0.0575946 0.0694806
-0.0755022 -0.0347733 0.213948
-0.0314984 -0.114292 0.513033
0.0565018 -0.0741323 0.614227
0.002426 0.05209 0.152951
0.00673772 0.052667 0.310683
0.041886 -0.0972607 0.585487
0.0352691 0.0423715 0.596056
0.0789544 -0.0304598 0.245741
-0.12026 -0.0404766 0.482858
-0.126987 -0.041769 0.446677
0.00428826 0.0560165 0.368872
-0.022847 -0.0527587 0.0943351
0.0281043 -0.0238014 0.0420387
0.00946975 0.0963065 0.110691
0.25256 -0.0650394 0.42082
-0.0809854 -0.042263 0.275434
-0.32088 -0.0615371 0.318911
0.143697 -0.0616939 0.039456
0.353323 -0.075286 0.325772
-0.264929 -0.0660928 0.387195
0.0448843 -0.00687716 0.0961707
0.0510115 0.0389327 0.418449
0.0567526 -0.0931829 0.549163
-0.26451 -0.0516275 0.344209
-0.31576 -0.0598692 0.364082
0.0107741 -0.0194623 0.71342
0.0906069 -0.0353848 0.45143
-0.0566223 -0.0323039 0.103683
0.0219135 0.0411854 0.587297
-0.0311443 0.00130097 0.666395
-0.0219908 -0.100103 0.178951
-0.0219427 0.0432082 0.575824
-0.00671683 -0.0389203 0.808375
0.0334738 0.0778791 0.411604
0.0248512 0.0642118 0.109023
0.112457 -0.0381472 0.455543
0.0256506 -0.0469651 0.0935622
-0.0252597 0.0386818 0.214622
0.0335349 0.108098 0.0792131
-0.00980375 -0.11759 0.312531
0.346831 -0.0729824 0.395172
0.394644 -0.0797594 0.303472
-0.0850751 -0.0260193 0.53718
-0.0482959 0.0357367 0.457466
0.00349962 0.050851 0.54911
0.0279166 -0.109822 0.275211
-0.0201383 -0.0885165 0.108291
-0.0438833 0.0614779 0.475344
-0.0484568 -0.000158503 0.120075
0.301443 -0.0583187 0.398334
-0.288818 -0.0686235 0.329097
-0.219301 -0.0613678 0.403643
-0.0218821 0.0274218 0.629105
-0.105995 -0.011016 0.393963
-0.0591073 -0.08346 0.240491
-0.128751 -0.018432 0.382524
0.0243343 -0.0922374 0.142585
0.0706921 -0.0123549 0.19788
0.0459845 -0.108037 0.491294
0.0520092 0.0679773 0.483981
0.06285 -0.0530745 0.116919
0.122997 -0.0430389 0.0373994
0.12703 -0.0420916 0.472646
0.0802116 -0.073198 0.412302
-0.0522627 -0.0730008 0.156562
0.0104521 0.0849698 0.0411453
-0.0825239 -0.0449563 0.29355
-0.208732 -0.0506026 0.319751
-0.00962201 0.0781483 0.39069
0.0615384 -0.0532925 0.143734
0.0710935 0.0191487 0.517778
-0.248754 -0.0491231 0.401622
0.0393982 -0.113654 0.417526
-0.0847817 -0.0114689 0.0320437
-0.0351991 0.0202349 0.136913
0.184452 -0.0559269 0.3599
-0.0941299 -0.00708374 0.130195
-0.0179888 0.0577818 0.378438
-0.0701538 -0.0861274 0.505055
-0.0649483 -0.00943773 0.17475
0.184053 -0.0361403 0.401599
0.0403259 -0.107962 0.312335
-0.297573 -0.0695715 0.388027
0.0727308 -0.00256279 0.575076
0.391576 -0.0736758 0.380599
-0.0119053 0.0164603 0.0767545
0.0250321 -0.0160167 0.0815029
0.117074 -0.0560974 0.00242692
-0.114262 -0.00316374 0.10766
-0.336037 -0.0736401 0.385139
-0.357996 -0.0672859 0.336327
-0.0814907 -0.0011045 0.335847
-0.0759412 -0.00940856 0.573976
0.0755386 -0.0338806 0.153841
-0.13543 -0.0208253 0.435264
0.0241076 0.0459294 0.185637
-0.133263 -0.0209117 0.341591
-0.0649904 0.0291148 0.458574
-0.0500178 0.0155835 0.178221
0.0860559 -0.0484355 0.504602
-0.0649385 -0.0294768 0.626053
0.0985374 -0.0384278 0.0805507
-0.0587662 0.0211474 0.257357
-0.0496819 0.0243335 0.218426
-0.0881485 -0.0517463 0.448594
0.0627671 -0.0833309 0.263796
-0.0682275 0.0226611 0.346419
-0.082845 -0.0543449 0.536217
0.0776764 -0.0635805 0.291994
0.0201843 -0.120675 0.418582
-0.0730196 -0.0111395 0.0808657
0.0215576 0.0615719 0.0564734
0.0709966 -0.0855385 0.354352
0.00119727 0.0556836 0.506454
0.228325 -0.0624152 0.329655
0.0238121 -0.0627432 0.0569241
-0.0670907 0.0264828 0.394977
-0.0834394 -0.0607364 0.341149
0.0708985 -0.0642751 0.238568
0.000245103 0.0239645 0.0874261
-0.16361 -0.0294728 0.378273
0.274719 -0.0528958 0.374143
-0.0421252 -0.0789631 0.63125
-0.0144785 0.0338809 0.163642
-0.355166 -0.0696998 0.299111
0.0429026 0.0425887 0.324746
-0.0213339 0.0924362 0.4813
-0.0660402 -0.0944403 0.440695
0.000465392 -0.123156 0.402341
-0.00696196 -8.32276e-05 0.0469177
0.211425 -0.0429153 0.413912
0.327875 -0.0724787 0.359306
0.264943 -0.0660732 0.384484
0.0657444 -0.0434571 0.620997
-0.0435758 0.0618634 0.499323
-0.0308996 0.0489332 0.521824
0.0552285 0.00465523 0.161949
-0.0118094 0.0861604 0.410705
-0.041901 0.044572 0.358304
0.0329015 0.00505748 0.660091
0.00348504 -0.0314813 0.125785
0.0425115 -0.108498 0.516553
0.0738666 0.0167176 0.488696
-0.0212241 0.0437377 0.249516
0.164771 -0.0298172 0.379114
-0.0820043 -0.0132379 0.299001
-0.0883311 -0.00489236 0.445505
-0.14161 0.000366729 0.0382363
-0.00464781 0.0376577 0.36232
-0.0521429 -0.106284 0.397542
0.0980664 -0.0351923 0.517097
-0.0468172 -0.102225 0.547324
0.0536402 0.0530872 0.439096
-0.0575225 0.00376841 0.61814
0.115173 -0.0460664 0.125609
0.0489796 0.0633954 0.53344
0.00586393 0.0718459 0.120145
0.0611722 0.0228086 0.552185
0.156655 -0.0282553 0.438876
-0.295816 -0.0695295 0.406619
-0.0492888 -0.0893059 0.21427
0.0803607 0.00801467 0.448917
0.153324 -0.0481265 0.421499
-0.169915 -0.0522995 0.417228
0.0869377 -0.0526848 0.172627
-0.00195951 0.097406 0.43746
-0.0671756 0.0224462 0.527294
-0.0528964 -0.0563406 0.643003
0.0711546 0.023027 0.457402
0.0124808 -0.027542 0.725891
0.160758 -0.0504512 0.336072
0.0241112 0.0964781 0.462474
-0.0626536 -0.0507829 0.157586
-0.00596493 -0.0260643 0.836675
0.0742961 -0.0543079 0.0836198
0.0544491 -0.0845599 0.593426
0.382333 -0.0716442 0.320652
-0.0445027 -0.10819 0.352274
0.152114 -0.054545 0.0549884
-0.0239495 0.0542865 0.459221
-0.186129 -0.0381201 0.332921
0.0140047 0.0462671 0.613535
0.0346961 0.0536639 0.384232
0.0167482 0.097323 0.515144
-0.0278919 -0.119026 0.455879
0.00959846 0.0870526 0.0658295
0.054043 -0.104655 0.393472
0.319545 -0.0606846 0.36982
0.103684 -0.0111289 0.359122
-0.0157605 0.0564001 0.424464
0.12646 -0.041875 0.344691
0.0710382 -0.0343616 0.112939
0.118174 -0.0599697 0.0266138
-0.395336 -0.0796074 0.354567
0.0508966 0.024633 0.586418
0.0299815 -0.0976022 0.60866
-0.0727223 -0.082716 0.352138
0.0839844 -0.056946 0.15747
-0.0690058 -0.0808905 0.293232
-0.108742 -0.0259789 0.0942209
0.00392191 -0.0250493 0.861764
0.0490197 -0.0686801 0.637292
-0.0347858 -0.105538 0.268692
-0.064534 -0.0698814 0.5981
-0.0464774 -0.0400776 0.664654
0.219872 -0.0434553 0.375343
-0.402663 -0.0803293 0.328715
0.366117 -0.0764258 0.348993
-0.212712 -0.0607243 0.343692
-0.0925565 -0.0335119 0.494872
0.0788509 -0.072781 0.482423
0.0176199 -0.0706574 0.673011
0.0555284 0.0138438 0.19242
0.000543057 0.077779 0.576683
-0.190376 -0.039253 0.423624
-0.0052392 -0.120943 0.365554
0.0246293 0.042728 0.245603
0.1322 -0.0190566 0.401557
-0.00519523 -0.0394941 0.859271
0.0802839 -0.0666814 0.338283
-0.0393035 0.0369657 0.567341
0.256997 -0.0506028 0.335647
-0.12206 -0.0407013 0.355414
-0.348445 -0.0744536 0.395079
-0.108692 -0.037224 0.459147
0.0199239 0.02475 0.11522
0.022773 -0.0534458 0.0440797
-0.00370561 0.0547289 0.334017
-0.0322761 0.00221015 0.079338
-0.0442361 -0.011172 0.661306
0.0483037 -0.0493249 0.0688933
0.0071753 -0.0288504 0.893242
0.0141954 -0.118109 0.521959
-0.207866 -0.0599937 0.383677
-0.36532 -0.0763861 0.352664
0.275224 -0.0607033 0.31042
0.0585471 0.0187664 0.240195
-0.0649532 0.0262668 0.502798
0.0670547 0.0173081 0.286721
-0.0628272 -0.0839717 0.26842
0.072558 -0.0557084 0.196657
0.023508 -0.0331141 0.703093
-0.00848576 0.0274957 0.11496
0.280516 -0.0679322 0.410474
-0.127688 -0.0415521 0.409232
0.0387343 0.0153822 0.634392
0.0326868 -0.0757907 0.0954508
0.0994326 -0.0574378 0.0476214
-0.16752 -0.0359155 0.321635
0.0793794 0.00369341 0.510383
0.0428605 0.0753871 0.433572
-0.163827 -0.0459315 0.463082
0.0276707 -0.117801 0.375953
-0.0820498 -0.0300164 0.131493
0.180837 -0.0554409 0.435396
0.18688 -0.056198 0.383306
-0.090446 -0.032679 0.39004
-0.0838808 -0.0579533 0.518915
-0.0930984 -0.0337608 0.344684
0.0377492 -0.00994332 0.0760666
0.0199511 -0.0116004 0.125299
-0.0813366 -0.00393793 0.534729
0.206167 -0.0600842 0.338778
-0.0812924 -0.0727616 0.435473
0.0171958 0.031921 0.0860879
-0.126946 -0.0214466 0.030881
-0.235241 -0.062912 0.384236
0.0101339 -0.107493 0.219923
-0.00172385 0.058862 0.436621
0.0487852 -0.0335307 0.662624
-0.140881 -0.0234673 0.460773
0.0210057 -0.0530993 0.118507
-0.0860669 -0.0578268 0.472541
-0.169023 -0.0318136 0.357106
0.144295 -0.0676289 0.0683153
-0.0325982 -0.0573884 0.675161
-0.211734 -0.042291 0.368208
0.113325 -0.0389474 0.323744
-0.0417027 0.0435277 0.332207
0.0227136 0.0547608 0.453252
0.0127273 -0.114578 0.289032
-0.0174141 0.0652799 0.583965
-0.0451027 -0.0428922 0.0851695
-0.0456289 -0.0186926 0.0665796
-0.263448 -0.0508431 0.37158
-0.0528849 0.0193763 0.59966
0.220765 -0.0448218 0.32738
0.0369479 -0.0284494 0.058327
0.00739357 0.0918609 0.412138
-0.0903226 -0.0380309 0.416414
0.0736637 0.00313316 0.5555
-0.178338 -0.0457865 0.449895
0.139155 -0.0214481 0.41972
0.0324498 0.0214597 0.134998
-0.0735139 0.0133436 0.321828
0.199839 -0.0593759 0.413655
0.18062 -0.0358723 0.346992
-0.0158978 0.0545862 0.480106
-0.0541676 -0.00861596 0.639857
0.102287 -0.0585833 0.144477
-0.175696 -0.0540067 0.344345
0.00571361 0.0415133 0.599959
-0.065414 0.00683727 0.225883
-0.010331 -0.0304501 0.740528
-0.0411891 -0.0806409 0.140383
0.134182 -0.062024 0.0883975
-0.028264 -0.0381039 0.0816513
0.0369396 -0.114498 0.455513
0.0804791 -0.0703871 0.38576
-0.0271717 0.0534986 0.396826
0.144737 -0.0459077 0.387512
-0.0268992 -0.0937345 0.62088
0.0184323 -0.11995 0.46817
-0.410054 -0.0814174 0.374196
0.0878899 -0.0368198 0.350136
0.0022555 0.0471378 0.128073
0.0623804 -0.0765418 0.219705
0.080354 -0.0408293 0.267523
0.038313 -0.0540009 0.669865
-0.365629 -0.0766158 0.319371
-0.126113 -0.0203093 0.0104544
0.0320347 0.0482426 0.523994
-0.0855848 -0.0458637 0.328074
-0.363667 -0.0685408 0.372949
0.188966 -0.0573256 0.341236
0.0271051 0.0488577 0.307076
0.00865169 0.0909886 0.544926
0.141525 -0.0237784 0.335105
0.0367578 0.0746906 0.550386
-0.00452493 0.0517776 0.299251
-0.00609609 -0.034325 0.931269
-0.110586 -0.0128312 0.454403
0.283689 -0.054763 0.345617
0.0339877 0.0872954 0.44023
0.0049565 0.0605217 0.0920478
-0.101091 -0.00725037 0.0545096
-0.399593 -0.080338 0.296551
0.0180952 0.0537016 0.491579
0.0656317 0.0285779 0.406483
-0.0919628 -0.0296988 0.165655
-0.019742 -0.0669726 0.0578088
0.275222 -0.0670852 0.351665
0.0816683 -0.0442113 0.03517
0.174377 -0.0480416 0.321717
0.00607905 -0.0254859 0.799482
0.00309089 0.04188 0.0766432
0.0562759 0.0115263 0.609988
0.0708708 -0.076504 0.548528
0.37915 -0.0778652 0.353126
-0.0229358 -0.0326707 0.12542
0.417515 -0.0816655 0.291783
-0.0378235 0.0237648 0.163316
-0.079066 0.0102673 0.412632
-0.193345 -0.0578966 0.374429
-0.124048 -0.00288602 0.0614995
0.0838006 -0.0408927 0.299391
0.0782358 -0.0390137 0.576032
0.352574 -0.0751456 0.362188
-0.0260177 -0.0441559 0.0503896
-0.124016 -0.00147725 0.0921425
-0.0734135 -0.0167061 0.197152
-0.050329 0.0430757 0.422067
-0.222291 -0.0448767 0.335142
-0.0854407 -0.00529812 0.492634
-0.0772727 -0.0174849 0.249178
0.105655 -0.011103 0.453455
-0.074441 -0.0560197 0.235185
-0.0661456 -0.0925134 0.468612
0.00348989 0.0491265 0.273301
0.0496433 -0.0287262 0.0941186
-0.0429787 0.0381104 0.284955
0.171592 -0.0524718 0.384147
-0.20969 -0.0425529 0.412086
-0.0135584 -0.120162 0.480191
0.0132588 0.113069 0.0987191
0.0619616 0.0300498 0.366729
-0.0637579 -0.0120075 0.116144
-0.0325632 0.0412771 0.267157
0.089202 -0.0491097 0.434967
0.0778662 -0.0116837 0.263127
0.312344 -0.0709495 0.342785
-0.000539741 -0.0424645 0.762207
0.403894 -0.0750301 0.328945
0.0804529 -0.0078241 0.292608
0.0387809 -0.105904 0.549442
-0.0379154 0.0632741 0.431929
0.0519012 -0.0710994 0.149592
0.176627 -0.0428372 0.450927
-0.348295 -0.0658298 0.372877
-0.107683 -0.0373645 0.338812
-0.0691302 -0.0109006 0.134315
0.322601 -0.065176 0.401389
-0.0637782 -0.0851378 0.553294
0.0262963 0.0638631 0.382145
-0.0718138 -0.0528184 0.206291
-0.0188174 0.0933303 0.460161
-0.28605 -0.0660154 0.309003
-0.147447 -0.0147823 0.0685864
-0.084818 -0.00543089 0.349884
-0.406221 -0.0752995 0.344201
0.227085 -0.0622598 0.411848
-0.250822 -0.0647481 0.325699
-0.212968 -0.0606307 0.362503
-0.043715 -0.00175382 0.0987187
0.0246804 0.0701684 0.0719164
0.112848 -0.0433204 0.0157821
-0.00117817 -0.123836 0.443514
-0.0307627 -0.111391 0.300321
-0.0427626 0.0201671 0.618677
-0.0903216 -0.00532237 0.426201
0.0625599 -0.0901488 0.30743
0.0269375 -0.101412 0.201126
-0.0145612 -0.118036 0.52229
-0.0134947 -0.072242 0.673756
-0.0116452 -0.0256745 0.725367
-0.0255405 -0.115301 0.533647
0.00935475 -0.118605 0.322973
0.0575027 0.044992 0.458633
-0.0180158 -0.117533 0.330546
0.25662 -0.050784 0.410487
-0.21269 -0.0608376 0.425817
0.100339 -0.0352656 0.474556
-0.000411132 -0.0722729 0.0561267
0.251064 -0.0648579 0.317275
0.0300735 -0.085474 0.122911
-0.150611 -0.0474336 0.377428
0.158901 -0.0492246 0.400818
0.022938 -0.0730584 0.0711198
0.0493286 0.0399256 0.514448
-0.078116 -0.0296563 0.579816
-0.042576 -0.112607 0.430551
0.0586351 -0.0749214 0.189854
0.0297048 -0.102901 0.225235
0.043373 -0.00876065 0.660779
0.0700538 -0.0327359 0.174297
-0.0848772 -0.0286222 0.0887651
0.0919459 -0.0333336 0.493052
-0.0160188 0.0475699 0.556452
0.13758 -0.0234032 0.483336
0.397451 -0.0739594 0.352161
-0.0805009 -0.0184112 0.556244
-0.0409119 0.0652259 0.451252
-0.0282646 -0.0932978 0.15841
-0.141026 -0.0456916 0.329245
-0.0916563 -0.00821607 0.0852292
0.103507 -0.0115609 0.493736
-0.00902424 -0.109912 0.578941
-0.333856 -0.0731959 0.336523
0.103812 -0.0406268 0.0450519
0.0455958 0.0348835 0.269207
-0.0747504 -0.0184215 0.224558
-0.263565 -0.051592 0.396933
0.0291308 -0.0320633 0.102505
-0.044922 0.030434 0.585852
-0.3201 -0.0718194 0.373012
0.0038647 -0.00789149 0.700321
-0.307096 -0.0592915 0.397563
-0.0254623 0.0877034 0.510944
0.0120649 0.0400911 0.202523
-0.0863809 -0.0577399 0.395697
0.313888 -0.060352 0.320431
0.0642748 -0.0255611 0.62616
0.0157658 -0.104367 0.604068
0.00823953 -0.0363368 0.821983
0.068416 0.00513187 0.243625
-0.117035 -0.0389594 0.428726
0.231276 -0.0462814 0.40948
0.0510743 0.0363639 0.307018
-0.143751 -0.0229674 0.418227
-0.0224624 -0.0111902 0.0780757
-0.169349 -0.0517966 0.398195
-0.0167054 0.0399267 0.599086
0.238204 -0.0631835 0.36809
0.0229455 0.0747009 0.149475
0.053687 0.0198135 0.215028
0.0723134 -0.0312891 0.608398
0.0140829 0.108945 0.0325133
-0.226446 -0.0548692 0.317309
0.072995 0.0198413 0.385455
-0.0618129 0.0306926 0.483092
0.0701796 -0.0338223 0.130765
0.0400034 0.085124 0.473478
-0.140399 -0.0452411 0.348557
0.0628617 -0.0922 0.327707
0.062391 -0.0527149 0.0983996
0.0878962 -0.0457319 0.38595
0.00281383 0.0577644 0.172241
-0.0256444 -0.104588 0.590324
0.0490583 0.0468852 0.562737
-0.0853033 -0.0567126 0.364364
0.0801121 0.00935532 0.42589
-0.0665219 -0.0733311 0.578982
0.0365627 0.0470311 0.352371
-0.0187418 -0.0580953 0.0708274
-0.0015303 0.0272066 0.639454
0.00409278 0.04153 0.056495
-0.0369117 0.0595988 0.548741
0.0619234 0.00187352 0.186464
0.0526374 -0.0608337 0.130708
-0.0773185 -0.0794479 0.41893
0.0666034 -0.0828121 0.285693
0.0721613 -0.0360959 0.0694072
0.0451869 0.0457241 0.404351
-0.30352 -0.0700009 0.368788
-0.106988 -0.0368101 0.378841
0.326416 -0.0617927 0.347007
-0.000624432 -0.0229874 0.779396
0.357205 -0.0676467 0.38174
0.0989339 -0.0346951 0.395065
0.0676187 -0.0367629 0.0487094
0.0171617 -0.118636 0.500605
0.0675521 -0.066673 0.591038
0.122228 -0.0168976 0.361219
0.00180208 -0.121398 0.493566
-0.0582906 -0.0983239 0.355783
-0.0510878 -0.0506647 0.102614
0.0897386 -0.00763258 0.32301
-0.0157894 0.0518675 0.532342
0.0822999 -0.0560118 0.114195
-0.0265864 0.0794086 0.53742
-0.280034 -0.0538912 0.35614
-0.0722363 0.0203356 0.376861
-0.123731 -0.0203514 0.495428
0.0426657 -0.110708 0.472365
-0.238546 -0.0634096 0.402967
-0.0346948 -0.0825715 0.12176
0.0040012 0.060899 0.1363
0.29237 -0.0688319 0.353588
0.2911 -0.0689273 0.321925
-0.0255282 -0.101595 0.197703
-0.331982 -0.0706799 0.302504
0.0868784 -0.0349099 0.165874
-0.0377842 0.0523791 0.413395
-0.421013 -0.082166 0.333668
0.0295767 0.0845355 0.112916
-0.120147 -0.0398668 0.393766
0.0278149 -0.115459 0.324163
-0.118558 -0.0159219 0.353903
0.0251528 0.034762 0.608867
0.0119615 -0.0620825 0.0935444
0.0762589 -0.0494053 0.242291
-0.00397652 -0.110263 0.23647
0.149717 -0.0383854 0.474548
0.031522 0.107488 0.0471887
0.0483503 0.01707 0.176291
-0.0353965 0.0486345 0.375356
0.081685 0.00230844 0.379914
0.119727 -0.0398219 0.387849
-0.0335982 -0.0129771 0.677955
-0.107949 -0.0157088 0.137177
0.0755801 -0.0835258 0.426674
-0.140749 -0.0451521 0.434763
-0.275323 -0.0538085 0.328737
-0.0355126 0.0779037 0.477909
0.00798471 0.0129269 0.666035
0.201884 -0.0594313 0.3723
0.346304 -0.0714249 0.300442
0.00245477 0.101101 0.490734
0.138272 -0.0428745 0.0863789
-0.0107933 0.0110662 0.668296
-0.294793 -0.0562534 0.367162
0.252209 -0.0648304 0.398809
0.145998 -0.0244014 0.433774
0.259465 -0.0654069 0.361418
-0.243841 -0.0638485 0.354472
-0.254215 -0.0505699 0.417336
-0.032234 -0.113884 0.339567
0.160811 -0.0332682 0.463736
-0.0914799 -0.025879 0.0440144
-0.150696 -0.00112861 0.0551396
-0.0381201 0.0130829 0.12018
0.1134 -0.0136546 0.380872
0.238147 -0.0472334 0.34558
0.0392717 -0.0299382 0.677376
0.0408022 0.0496784 0.580307
0.0376757 -0.100474 0.238819
-0.0557508 -0.100609 0.503848
-0.0682794 -0.0106928 0.155968
-0.0663822 -0.08596 0.305007
-0.0777169 0.011103 0.469594
0.0993255 -0.0345954 0.415321
0.0144434 0.0913612 0.128373
-0.0735042 -0.0792756 0.33001
0.0976461 -0.0311414 0.320417
0.0744641 -0.0160312 0.588265
-0.0458422 -0.095817 0.234696
0.110839 -0.0121813 0.431127
-0.0266605 -0.0448486 0.114393
0.0659937 -0.0580255 0.611644
0.0135566 -0.119688 0.367119
-0.0184799 0.0527887 0.509823
0.0193016 -0.101379 0.183619
-0.04616 -0.11002 0.413221
-0.00718333 -0.0640409 0.0956275
-0.0248749 0.0484781 0.298552
-0.246169 -0.0485284 0.346815
0.081268 -0.0621925 0.532677
-0.0634238 0.0253363 0.315741
0.0777662 -0.0768278 0.463549
0.0660982 0.0269107 0.475374
0.0349686 -0.111038 0.53315
-0.0049673 -0.026311 0.903525
0.340783 -0.0646889 0.325334
0.0560663 0.0370275 0.441425
0.0179572 0.0420693 0.0642186
-0.00667649 0.00311129 0.68204
-0.181525 -0.0348984 0.392851
-0.0164574 -0.119819 0.382049
0.0325299 0.0385762 0.377783
-0.0690747 -0.0897537 0.395812
0.0218165 0.0379452 0.16926
-0.0162089 0.0384715 0.195468
0.0656366 -0.0902192 0.511565
0.00656623 -0.0274311 0.877771
0.0474361 -0.0600225 0.651056
0.0559378 -0.00352737 0.146042
-0.0332835 0.0759295 0.439713
-0.165407 -0.0296339 0.395022
0.116012 -0.0402876 0.0857675
-0.0460929 0.0433572 0.532305
0.220877 -0.0440797 0.397547
-0.0448877 -0.109111 0.377733
0.107589 -0.0370579 0.368291
0.0245372 -0.0156302 0.102625
0.211103 -0.0487505 0.432227
-0.10159 -0.0272302 0.11109
-0.0125367 -0.106496 0.214245
-0.0135365 0.0221911 0.0951085
-0.0383326 -0.105875 0.286532
-0.0775162 0.0136827 0.448084
-0.0410037 0.0467028 0.39644
-0.0979256 -0.028549 0.147261
-0.0781219 -0.0714735 0.509381
-0.0731398 0.00457613 0.280551
0.340125 -0.0740615 0.38341
-0.0666392 -0.0336706 0.164161
0.0970944 -0.0213595 0.519667
-0.125059 -0.0242956 0.103311
-0.00427898 0.0433738 0.614393
0.0851398 -0.0365699 0.0901929
-0.29299 -0.0689412 0.346407
-0.0250122 0.0493819 0.592158
0.0244056 -0.108708 0.251971
-0.132845 -0.0193328 0.398484
0.0496778 -0.0888165 0.213608
-0.0478285 0.0218514 0.193998
-0.150001 -0.034595 0.32133
0.0239765 0.0449846 0.265032
0.0119736 0.0554223 0.384609
-0.0765438 -0.0674528 0.298979
0.017977 0.0506983 0.536997
-0.019274 0.027794 0.130911
0.124047 -0.0409621 0.44228
0.0322054 -0.0101346 0.0608014
-0.193127 -0.0394559 0.406404
0.0394444 -0.0832514 0.145047
0.0237675 0.0464309 0.555954
-0.173172 -0.0534319 0.433063
0.0798061 -0.0530172 0.280267
-0.0742465 -0.0813516 0.487022
0.085171 -0.0537924 0.349355
-0.0584787 -0.0815779 0.589182
0.0433084 0.00579991 0.113534
0.0491459 -0.0611776 0.114902
-0.088225 -0.0553789 0.432835
0.0121907 0.108008 0.0718548
0.0790574 -0.0647673 0.308508
0.371707 -0.0772862 0.314871
-0.0864934 -0.0407702 0.521244
0.0355207 0.0488355 0.478248
-0.300318 -0.069952 0.314296
-0.0156413 0.055599 0.403755
-0.29707 -0.0574993 0.32411
0.00653968 -0.123202 0.427792
0.0239696 0.0797518 0.0341076
-0.145287 -0.0236487 0.381364
0.0718302 -0.00575038 0.225906
0.000272153 0.0389233 0.168234
0.0287648 -0.0313655 0.0761324
0.0588294 -0.098624 0.48708
0.287385 -0.0555595 0.389268
0.048866 0.0729074 0.49943
-0.00168654 -0.101449 0.616892
0.0560591 0.0513437 0.523028
-0.0730412 -0.058313 0.584765
-0.0135035 -0.00441471 0.0609823
0.0555006 -0.0347792 0.0603906
0.0155047 0.0811521 0.568646
0.0837164 -0.061415 0.500296
-0.144631 -0.0457397 0.413073
0.0726968 0.0105715 0.302277
-0.0853235 -0.00738624 0.320266
0.0468087 -0.108028 0.375355
-0.292026 -0.0567093 0.400051
0.0241673 0.1033 0.109799
0.113402 -0.0619719 0.110651
0.118135 -0.0397487 0.355217
0.23854 -0.0466501 0.379211
-0.0844264 -0.0273476 0.0597583
0.135752 -0.0213618 0.352051
-0.143353 -0.0461304 0.46017
0.149222 -0.0248844 0.381331
-0.379984 -0.0709846 0.356194
-0.0657016 -0.0894574 0.522252
-0.0916896 -0.0112164 0.523103
-0.0256175 0.0273931 0.148658
0.375102 -0.0777818 0.383409
0.00986117 0.0961112 0.0906456
0.00136505 0.0558128 0.352033
0.0515642 -0.0956226 0.270983
0.0577593 0.0325471 0.516793
0.0214115 0.0458429 0.11519
0.349685 -0.0660734 0.372792
0.0565188 -0.0289336 0.117877
-0.0847219 -0.0421662 0.30974
0.0299731 0.0917746 0.506587
0.311148 -0.0707216 0.359286
0.143961 -0.0451646 0.0399564
-0.017116 -0.0479318 0.703672
-0.102474 -0.00945976 0.412725
0.00168473 -0.115048 0.556459
0.157942 -0.0439506 0.32144
-0.269006 -0.0664315 0.354194
-0.0226415 -0.120645 0.439029
-0.404055 -0.0753691 0.313919
-0.124995 -0.0188024 0.326095
-0.25856 -0.0509954 0.330362
-0.19497 -0.039472 0.370054
-0.120253 -0.0234864 0.0595411
-0.0546121 0.0404952 0.443213
0.380077 -0.0752994 0.295741
-0.226677 -0.062301 0.422698
-0.0800017 -0.0236828 0.265288
-0.0326533 -0.115885 0.390032
0.00155113 0.0452267 0.234518
-0.315749 -0.068476 0.304777
-0.0899366 -0.00595607 0.39483
0.00746962 -0.0552309 0.125403
-0.0563468 0.0211266 0.241252
0.0495702 0.0297215 0.571179
0.157876 -0.0495841 0.43741
0.000297437 -0.102479 0.170589
0.0454193 0.0104348 0.138715
-0.0510656 -0.0318705 0.0797527
0.059217 -0.101556 0.430985
-0.0503686 -0.107067 0.466874
0.306667 -0.070567 0.391659
-0.136365 -0.0225962 0.483836
0.0146762 -0.0875477 0.646391
0.194774 -0.0401495 0.419505
-0.0563811 -0.0606636 0.14593
-0.0671205 -0.0747548 0.251553
0.104375 -0.0386428 0.0973217
-0.0525036 -0.0755139 0.618893
-0.229465 -0.0450159 0.377864
0.0309772 -0.115388 0.359255
0.0176798 0.0535572 0.360331
-0.314681 -0.0715119 0.403517
0.0258726 0.0543511 0.413158
-0.125397 -0.0416088 0.467342
-0.09047 -0.0360825 0.452008
0.0459676 -0.110983 0.43292
-0.0251477 -0.115553 0.316153
0.208693 -0.0419077 0.363507
0.0640864 -0.078188 0.24087
-0.0625856 -0.0319744 0.118612
-0.0338824 -0.0165049 0.0581963
-0.414308 -0.0774368 0.297367
-0.00715355 -0.0380849 0.829772
0.0597191 0.0226014 0.27324
0.0760809 -0.015104 0.241673
0.0112742 -0.0645039 0.686533
-0.0458223 -0.106794 0.335794
0.0288854 0.112003 0.0967774
0.0885152 -0.00637255 0.358978
0.00066653 0.0221275 0.652446
0.0745456 -0.0799689 0.494838
0.0463318 -0.0795249 0.622746
0.103725 -0.0399007 0.0606833
0.126634 -0.0189059 0.338281
-0.0973248 -0.00861306 0.380753
-0.0251226 -0.101229 0.606074
-0.22578 -0.0620139 0.351655
0.0454854 0.0152508 0.622588
0.064854 -0.026195 0.159309
0.000606685 -0.0930968 0.108347
0.109588 -0.0130965 0.474875
0.0417434 -0.111899 0.404763
-0.0182145 -0.0540575 0.0408287
0.359996 -0.0675775 0.337867
-0.0581594 -0.00126062 0.16304
-0.181712 -0.0548876 0.388856
0.033731 0.00747238 0.0923532
-0.0859411 -0.00999409 0.0579422
0.0797265 -0.0569878 0.183915
-0.188494 -0.0397068 0.439617
-0.0706421 -0.0426373 0.609123
-0.0871293 -0.0485171 0.377701
-0.081146 -0.0246289 0.185954
-0.102709 -0.0261471 0.32052
0.394714 -0.0796986 0.367342
0.015663 0.0453439 0.569369
-0.105553 -0.0366555 0.478902
-0.107871 -0.00401579 0.123299
-0.136953 -0.00898501 0.0232887
0.0708035 0.0191742 0.329953
-0.0443223 -0.083362 0.164273
0.145762 -0.0297116 0.321269
-0.00220078 -0.12015 0.333392
-0.0368039 0.0742526 0.507376
0.161919 -0.0504125 0.357279
-0.0331432 0.0101577 0.653678
0.221272 -0.0614309 0.384843
0.0392336 0.049206 0.434559
-0.0510585 0.000630159 0.134131
-0.00703681 -0.0428134 0.731629
-0.0371306 0.0440903 0.309908
-0.032879 0.0501268 0.479301
-0.0752178 -0.00468086 0.258607
0.0321405 -0.114486 0.502969
-0.0847108 -0.00804758 0.159559
0.0324735 -0.104075 0.575181
-0.307246 -0.0588964 0.336242
-0.0964835 -0.0258074 0.520857
0.0308853 -0.118564 0.430579
-0.0766888 -0.00189601 0.553142
-0.0636624 -0.0142931 0.623242
0.00233817 -0.0417602 0.793672
0.0702894 -0.0212787 0.189133
0.0838838 -0.0355949 0.123833
0.0834735 -0.054185 0.049463
-0.310717 -0.07072 0.352598
0.375154 -0.0702309 0.331614
0.0253038 0.116208 0.0610523
0.341016 -0.0739229 0.337681
0.249072 -0.048594 0.363125
0.126826 -0.0608862 0.013888
-0.0583337 0.0359362 0.407574
-0.0389642 -0.0943754 0.19557
0.0789211 0.00797423 0.477113
-0.0955978 -0.00925815 0.3314
0.0734961 -0.0859113 0.406885
-0.0437365 0.0571673 0.520105
-0.282512 -0.0678719 0.377649
0.0403254 0.0398993 0.28859
-0.0177091 -0.107259 0.228828
-0.345094 -0.0649677 0.3436
0.167601 -0.051697 0.416736
0.0630313 0.0113119 0.5885
0.176855 -0.0334004 0.387789
-0.230456 -0.0458547 0.400318
0.0288944 0.000556991 0.069758
-0.212916 -0.0608307 0.330272
-0.048183 -0.0996724 0.276682
-0.190989 -0.0389215 0.354731
0.0439535 -0.100657 0.562772
0.0274604 0.0503462 0.322232
-0.00806648 -0.0278386 0.798052
-0.0275418 0.0399128 0.234531
0.323297 -0.0722583 0.319876
0.188487 -0.0574745 0.323791
-0.00849858 0.0551399 0.49334
-0.0867338 -0.0448121 0.352888
0.11133 -0.0126495 0.395654
0.0713365 -0.0669255 0.253442
0.00539022 -0.0978608 0.145738
0.0278217 0.0805674 0.0998508
0.0897692 -0.00670664 0.489799
-0.0229225 -0.118019 0.494296
0.0648557 0.00289354 0.601082
-0.0364973 -0.105966 0.555067
0.00661423 0.0967841 0.526908
-0.0830946 -0.03028 0.28417
0.0190285 0.0568126 0.601808
-0.0215078 0.0754616 0.40066
0.260111 -0.0503873 0.376706
-0.252102 -0.0492419 0.386277
-0.0610337 -0.0879582 0.282894
0.0324459 0.0352545 0.216569
0.0887504 -0.0329152 0.526552
-0.0459374 0.0545154 0.462217
0.0308004 0.0507027 0.369128
0.00164778 -0.11972 0.530015
-0.11192 -0.0140689 0.480534
0.129051 -0.0641572 0.0744942
-0.0353497 -0.0934327 0.179723
0.00442283 0.0676493 0.16115
-0.0327351 -0.0785622 0.100962
0.0823382 -0.00778806 0.310042
0.00718909 -0.0307227 0.925513
-0.0046865 -0.0238262 0.752647
-0.174332 -0.0344175 0.441128
0.0208545 0.0372454 0.146816
-0.00592112 0.0903579 0.54238
-0.0631038 0.0289078 0.366729
-0.0564798 0.0368897 0.469848
-0.182491 -0.0553854 0.409885
-0.322866 -0.0610864 0.351696
0.0196669 0.0544484 0.470268
-0.0308991 0.0425469 0.560493
0.0308022 0.100018 0.0670874
0.413343 -0.0813883 0.332591
-0.376325 -0.070779 0.314553
0.0365187 0.0105728 0.646919
-0.027232 0.0306536 0.615719
0.00378306 0.0559688 0.11385
0.102936 -0.0588865 0.0958256
-0.0390862 -0.0117936 0.077173
-0.053515 0.0278516 0.562778
0.404783 -0.0808938 0.37764
-0.195628 -0.0408011 0.321957
0.0730445 -0.0802252 0.330573
-0.0620332 -0.0405651 0.146969
-0.0791739 -0.0704943 0.35725
-0.257441 -0.0501322 0.357049
0.0876826 -0.00476658 0.448785
0.038593 0.0851588 0.455699
0.306123 -0.0585133 0.377346
-0.087826 -0.0447327 0.479277
-0.00783822 -0.0806825 0.0717127
0.0525405 0.0641669 0.46518
-0.100091 -0.0232451 0.0192375
-0.070672 -0.0280506 0.0470848
-0.13373 -0.0343685 0.321044
-0.370885 -0.0770396 0.330932
-0.0313914 -0.0289621 0.0449597
-0.0849419 -0.0316669 0.299176
0.185197 -0.0381974 0.32206
-0.0744214 -0.0862187 0.431525
-0.0490525 0.040399 0.346248
0.0866207 -0.0503315 0.372132
0.0364103 0.0626992 0.395496
0.00605024 0.100236 0.449346
0.289547 -0.0555076 0.374082
-0.062521 0.00581064 0.60457
0.00893762 0.0504816 0.293749
0.205407 -0.0421943 0.330839
0.396795 -0.0741188 0.31644
0.00389146 -0.11799 0.307586
-0.0760896 -0.0423571 0.230436
0.270303 -0.0591179 0.415945
0.00439081 -0.0397932 0.870406
-0.0554539 -0.0464454 0.11972
-0.179433 -0.0344337 0.378458
-0.00633975 0.0415548 0.207658
-0.108161 -0.0372973 0.357866
0.171194 -0.0333443 0.441424
-0.123894 -0.0412876 0.341054
0.00988968 0.0669846 0.373736
-0.000128082 -0.0407315 0.897067
0.00402853 0.0856558 0.398408
0.000946198 0.0116236 0.063483
-0.03646 -0.115293 0.44487
0.0618405 -0.0941161 0.343891
0.229773 -0.0555139 0.316847
-0.0997747 -0.00655023 0.111643
0.168904 -0.0308859 0.400717
0.0132 -0.0855499 0.0892942
0.0182673 -0.109014 0.575736
-0.273108 -0.0670607 0.323594
0.000391921 -0.0721948 0.677443
0.0272071 -0.110384 0.556675
-0.0170689 0.0537692 0.363252
0.0987493 -0.0103204 0.507177
-0.0135433 -0.0208681 0.711861
0.0955304 -0.0579598 0.109139
-0.0454083 -0.06136 0.654081
0.198272 -0.0402911 0.404038
0.0952951 -0.0403996 0.0332984
-0.0367711 -0.110934 0.526011
0.105582 -0.0551862 0.0126626
0.0184135 -0.111036 0.264683
0.126816 -0.0354087 0.320919
-0.221021 -0.0614355 0.388857
-0.127893 -0.022024 0.045581
0.358394 -0.0678939 0.311009
0.0729151 -0.0750254 0.300895
0.00580397 0.0693253 0.106198
-0.330692 -0.0628 0.375683
-0.00622097 0.0563488 0.385007
0.190282 -0.0576537 0.424306
0.0157364 -0.039293 0.713183
0.08407 -0.0555053 0.0665566
-0.0980964 -0.00749326 0.0683342
0.0567807 -0.0578414 0.632556
-0.0776358 0.00737733 0.346485
-0.0296302 0.0537111 0.424082
0.1436 -0.0547524 0.074071
0.130819 -0.042782 0.360596
0.0181031 0.0499174 0.0493188
-0.123865 -0.0174426 0.4555
-0.0420425 -0.0294964 0.67284
0.272086 -0.053043 0.337806
-0.0775973 -0.07583 0.383276
0.147463 -0.047224 0.332796
0.0589705 -0.0513544 0.0778378
0.0675601 -0.0896934 0.367344
0.0530323 0.041069 0.548767
-0.0777786 -0.0645046 0.54448
0.0684498 0.0229942 0.35647
-0.197044 -0.058145 0.321654
-0.0833793 0.0012588 0.457108
0.0119745 0.0892706 0.0278795
0.000322627 0.0332587 0.128022
0.010547 -0.0625237 0.0613771
-0.355789 -0.0757263 0.383239
-0.0758402 0.0119352 0.497651
-0.0543894 -0.106286 0.437703
0.128327 -0.0475758 0.00785673
-0.303593 -0.0582126 0.382573
-0.0795059 -0.0420972 0.261552
-0.0271042 0.0563767 0.579302
0.369743 -0.0693138 0.361373
0.27711 -0.0533461 0.358562
0.0207739 -0.00974238 0.069796
-0.0717878 -0.0434362 0.195971
0.00612813 0.00277658 0.0507695
0.0685993 -0.0641107 0.218748
-0.0365303 -0.0386811 0.0577112
0.0739493 0.0149723 0.504272
-0.382348 -0.0715737 0.324136
0.289882 -0.0599648 0.308279
0.0606789 0.0144546 0.225808
-0.119055 -0.0127129 0.00118671
-0.0756515 -0.0104519 0.099076
-0.143283 -0.0457636 0.365741
0.240961 -0.0636754 0.33528
0.0312412 -0.109747 0.288674
-0.0496977 0.0124149 0.164724
0.332729 -0.0733668 0.399544
-0.0293201 0.0722739 0.550193
0.273163 -0.0670341 0.395595
-0.0740373 -0.0118644 0.067069
0.140142 -0.0441429 0.0532262
-0.279999 -0.0548801 0.314575
0.096142 -0.0503641 0.157351
-0.0716593 0.0200083 0.360506
-0.240677 -0.0481404 0.416002
-0.0770907 -0.0432127 0.578752
0.258451 -0.0654026 0.345756
0.0848315 -0.0406291 0.179569
-0.0474495 0.0480704 0.50962
-0.0174781 -0.114904 0.298971
-0.0234562 0.0211834 0.641321
-0.0722528 -0.0672225 0.262317
-0.023451 -0.0899401 0.125524
0.00187129 -0.0203269 0.730973
0.0423679 -0.0915618 0.608053
0.0573967 0.0337604 0.351279
-0.19775 -0.058979 0.392962
-0.142303 -0.0243303 0.326325
-0.0548144 0.0214995 0.583245
0.0258958 0.0517236 0.507475
0.113576 -0.0599641 0.0604671
-0.329921 -0.0727083 0.349698
-0.0529562 -0.0675335 0.630053
-0.0338929 0.0389933 0.253797
0.157972 -0.0279667 0.367342
-0.0191181 0.00237179 0.676344
0.0738416 0.0170179 0.371967
0.403798 -0.0808026 0.29335
0.0588226 0.031916 0.45499
0.124894 -0.0166317 0.421952
-0.33376 -0.0637331 0.31554
0.0729778 0.0217401 0.415673
-0.252056 -0.0649141 0.411633
0.219636 -0.0613791 0.400512
-0.047424 0.0439671 0.40865
0.0721127 -0.0161096 0.601641
0.00675451 0.0955847 0.427256
-0.0704351 -0.074926 0.279844
0.00853266 0.0362609 0.359609
-0.0789358 -0.0313105 0.169273
0.0993967 -0.0351674 0.357708
-0.00967867 -0.0330061 0.777448
0.0368592 -0.10425 0.266769
0.000735722 0.031677 0.0999958
0.140555 -0.0219262 0.391248
-0.126512 -0.00676776 0.102639
-0.0954995 -0.00933924 0.0395947
-0.283693 -0.0663164 0.412531
-0.078671 -0.0218969 0.569721
0.0551458 -0.000142761 0.627957
0.0798047 -0.0269461 0.258712
-0.0119575 -0.0248935 0.125583
0.328197 -0.072692 0.373819
-0.00402599 -0.0628535 0.0543379
-0.0649148 -0.0910804 0.344581
-0.00870692 -0.033209 0.847934
0.0707006 -0.0661353 0.576364
0.180555 -0.0555471 0.449383
-0.0216656 -0.0815617 0.654223
0.244582 -0.0545147 0.423014
-0.0550075 -0.0439303 0.647554
0.120202 -0.0400983 0.113344
0.284543 -0.0681682 0.385795
0.0875151 -0.00464014 0.417958
0.0223407 0.0870644 0.547515
0.0311491 0.0283909 0.168493
0.0785101 -0.0234704 0.572038
0.116604 -0.0601065 0.0398916
0.0350966 -0.043971 0.055713
-0.0694646 -0.0907225 0.420384
0.049498 -0.0807401 0.176007
0.0362528 0.0886847 0.495207
0.331754 -0.0634243 0.314501
-0.310856 -0.0709851 0.388133
-0.0586375 -0.0798148 0.213331
-0.140616 -0.0109238 0.0793628
0.0253778 0.0699433 0.0921767
-0.066313 0.0269387 0.471657
-0.0277619 -0.0521512 0.686422
0.0975995 -0.0341503 0.440157
0.0204387 -0.020187 0.702204
-0.040953 -0.109904 0.504747
0.00830466 -0.0777102 0.666633
0.114969 -0.0260819 0.320737
-0.0584326 0.0150209 0.214722
0.0107112 0.0914027 0.0527807
-0.0950254 -0.034356 0.331545
0.0843455 -0.0615438 0.48688
-0.0139152 0.0426174 0.586361
-0.0746239 -0.0769858 0.522692
-0.0542271 -0.0744319 0.169591
0.139702 -0.0418 0.484234
0.293687 -0.069331 0.410201
0.0154915 0.0184058 0.0860375
-0.121278 -0.00429387 0.0457782
0.0499883 0.064698 0.444299
-0.0246365 0.0788427 0.417952
-0.043512 0.0423052 0.43338
0.0625495 -0.0785765 0.584849
-0.356051 -0.0666282 0.350822
0.0743846 -0.055667 0.169747
-0.00455047 -0.10662 0.203725
-0.0431394 0.0283531 0.204486
-0.0822507 -0.0536265 0.30369
0.13102 -0.0624983 0.0281347
-0.110774 -0.0383624 0.32087
-0.15 -0.0473524 0.425644
0.0678665 0.0111742 0.564179
0.0275459 -0.116251 0.339073
0.269064 -0.0663496 0.370382
-0.183724 -0.0559474 0.422973
0.404485 -0.080501 0.34799
0.17258 -0.0337123 0.335076
0.306636 -0.0704394 0.330948
0.0742711 0.0119008 0.528279
-0.0766298 0.00797852 0.521336
0.251425 -0.0646448 0.385699
0.024643 0.0743254 0.0566117
0.0897581 -0.0384062 0.403672
0.041287 0.0429801 0.531264
-0.0605928 0.0347484 0.426948
0.0242047 -0.0746502 0.662426
0.044362 0.0588411 0.560275
0.00714047 0.0864258 0.560095
0.0260764 0.0680696 0.12145
-0.368186 -0.069733 0.300264
0.0409322 0.0415844 0.392723
0.0736995 0.00867074 0.540915
-0.183276 -0.0450191 0.321883
0.0264424 0.0641481 0.14708
0.262796 -0.057143 0.312117
-0.0426229 -0.0587578 0.0914118
0.010018 0.0749568 0.151944
0.0288681 -0.0338626 0.0896161
0.00107466 0.0403144 0.139089
0.0335412 0.0478485 0.335916
-0.0125016 -0.120934 0.394386
0.298184 -0.0695021 0.341978
-0.019161 0.0680486 0.390247
0.0200462 0.0433393 0.0915636
0.0795153 -0.0607229 0.545446
0.176478 -0.0339688 0.411896
0.0814492 -0.072209 0.429022
0.0306094 -0.116902 0.471384
0.0100069 0.0566969 0.454885
0.00672637 0.0713797 0.0845501
-0.0575789 -0.0780251 0.605365
-0.0017999 -0.0173304 0.715981
0.0435428 0.000834798 0.65176
0.105371 -0.0104913 0.407643
0.116174 -0.0153875 0.345025
-0.0112091 -0.0399915 0.125598
-0.100284 -0.00994296 0.476727
-0.307243 -0.070504 0.330577
0.0402798 -0.0748348 0.116069
-0.087216 -0.0421097 0.501229
0.0603478 -0.0946989 0.523964
-0.326763 -0.0727625 0.399098
0.0254525 -0.0196325 0.0539295
0.272688 -0.0535443 0.320799
-0.0298 0.0341095 0.197258
-0.0267355 -0.0336048 0.697816
0.0215175 -0.0907599 0.633724
-0.0736845 -0.0518137 0.222069
0.0873209 -0.0546212 0.456549
-0.0664571 -0.0913727 0.481319
-0.0245348 -0.0503752 0.0812479
-0.0616216 0.0210471 0.275539
-0.14377 -0.0318605 0.47895
0.0754322 0.0157902 0.467586
0.169227 -0.0320894 0.426433
0.126709 -0.0194144 0.488791
-0.073923 -0.0136248 0.589174
0.030276 -0.0976219 0.189374
0.0876448 -0.0184044 0.527791
0.0636361 -0.0320194 0.149575
0.0147588 -0.0623602 0.0469213
0.00102821 -0.122342 0.475999
-0.0284753 -0.0677517 0.668027
-0.187143 -0.057167 0.443503
-0.00596027 -0.0652182 0.0686536
0.0415191 -0.0695405 0.102187
-0.0621832 -0.0705049 0.19577
-0.0965294 -0.0273234 0.0908502
-0.0499019 0.0350941 0.482131
0.141225 -0.0449795 0.419076
-0.0240821 -0.110003 0.263437
0.0583781 0.0427805 0.509311
0.306286 -0.0671223 0.406142
0.285749 -0.0558166 0.407013
-0.0338557 0.0398791 0.578636
-0.129207 -0.0421129 0.430483
0.0358614 0.0234771 0.621962
0.0306292 -0.102508 0.587975
0.00848536 -0.0341586 0.853261
-0.0279435 0.0874137 0.471746
-0.0583966 -0.0240762 0.640217
-0.137644 0.000469755 0.0616045
0.0609439 -0.0385322 0.634897
0.00863351 0.0845962 0.0815753
0.0481957 0.0231182 0.200595
0.0291227 -0.0606786 0.675373
0.0266118 0.077552 0.563854
0.0533404 -0.106706 0.42108
-0.0425738 0.0305109 0.557093
-0.0510628 0.00464139 0.631562
-0.0805553 -0.0534914 0.549938
-0.0509481 -0.00929994 0.111963
-0.0350004 -0.101346 0.582543
0.326439 -0.072428 0.337649
-0.0134665 -0.0903182 0.639968
-0.119177 -0.0158144 0.366449
0.0643178 0.0283692 0.378947
0.147119 -0.0674681 0.0497914
0.00678406 0.0553132 0.0472878
-0.0544082 -0.0992157 0.534221
-0.275872 -0.067233 0.338934
0.0817424 -0.0632668 0.520197
0.0447907 -0.0226625 0.0842795
-0.1672 -0.0349011 0.458191
-0.0324055 -0.053263 0.0590248
0.0205789 0.0517772 0.524354
-0.0219968 -0.119445 0.466913
0.0405385 0.0325794 0.590339
0.0731247 0.00672175 0.289523
-0.0826868 -0.0405646 0.549461
0.0977143 -0.0374642 0.158144
-0.0397759 0.0318677 0.219463
-0.00455026 -0.0799227 0.66405
-0.00357164 0.10006 0.457298
-0.0443344 -0.0319828 0.0692475
-0.0607491 0.0294018 0.519183
-0.111905 -0.021947 0.0154773
0.0402597 0.0131004 0.127689
0.0375348 0.0788444 0.536523
0.0510005 -0.100346 0.298441
0.0901611 -0.0334266 0.467611
0.0404297 0.0269186 0.187127
-0.0800287 -0.0652748 0.530991
0.0556925 0.0577717 0.477902
0.117973 -0.0152049 0.448563
0.232798 -0.0626092 0.380379
0.0876619 -0.0378201 0.0685056
0.0609526 0.010495 0.204282
0.0717094 0.0234271 0.442768
-0.354751 -0.0755001 0.319106
0.0699149 -0.0737475 0.560576
0.294424 -0.0571492 0.31996
0.0860929 -0.0577275 0.388389
-0.0699525 0.00623623 0.261079
-0.0164415 -0.121037 0.451665
0.127276 -0.0178275 0.388421
0.109489 -0.0284261 0.509467
-0.0820722 -0.0113656 0.0462988
-0.0402638 -0.0844362 0.152095
-0.0342893 0.0500425 0.467052
0.0891606 -0.0573746 0.134142
-0.0889342 -0.0421406 0.397782
0.0880058 -0.0345199 0.510044
-0.285833 -0.0684123 0.399513
-0.102386 -0.036081 0.498785
-0.0287978 0.0513419 0.360442
-0.0227228 0.0158446 0.0899487
0.0726415 -0.0153171 0.209653
0.148156 -0.0474113 0.464222
-0.0124093 -0.00535072 0.114259
-0.387933 -0.0726402 0.366069
-0.157835 -0.0489601 0.401368
-0.212302 -0.0427169 0.35514
-0.00715694 -0.122475 0.411913
-0.0596723 -0.0916032 0.543735
-0.0877922 -0.0213336 0.173563
0.0820136 -0.0616721 0.319978
-0.114471 -0.025003 0.0817792
0.259072 -0.0656513 0.410472
0.0965634 -0.0557941 0.0357615
0.127362 -0.0417323 0.080972
-0.0771495 -0.0746571 0.496835
-0.0288323 0.0196808 0.115773
0.0216183 0.0397264 0.21311
-0.00523879 0.0938875 0.425704
0.0791621 -0.00798923 0.280468
0.0162912 0.033666 0.617237
-0.0786055 -3.13492e-05 0.306483
-0.0731865 0.0130288 0.532203
0.00259798 0.0437972 0.0944477
-0.149738 -0.0479155 0.472414
0.0814142 -0.0695959 0.397883
0.0146357 0.0636831 0.166471
0.0756582 -0.0640767 0.277312
-0.0737136 0.019729 0.462024
0.0323573 0.0179878 0.116564
-0.0300258 -0.106078 0.253016
-0.00401477 0.0581592 0.421912
0.00762139 -0.0429621 0.729481
0.0879917 -0.0394515 0.363236
-0.0514557 -0.0323671 0.0918718
0.377663 -0.0703502 0.343715
0.313294 -0.0600611 0.387004
0.234904 -0.0623915 0.426206
0.0434126 0.0439586 0.361888
0.0133711 -0.120238 0.479175
0.0383342 -0.088696 0.61911
0.0651485 -0.0617297 0.189205
-0.158829 -0.0282385 0.367219
0.0369482 0.046507 0.509166
-0.0326906 -0.113113 0.327313
-0.0228293 -0.107868 0.578135
0.0222664 0.0576755 0.37085
-0.0660311 -0.0135195 0.0568305
-0.071641 -0.0266944 0.608261
-0.0861281 -0.051836 0.491543
0.0248523 0.0920402 0.522345
0.157427 -0.0490229 0.384542
0.307984 -0.070697 0.318579
0.0180777 0.0391629 0.0759128
0.0416062 0.0452252 0.488092
-0.163951 -0.0513215 0.452308
-0.071203 0.0187833 0.332326
0.0192182 0.0291263 0.13808
-0.25186 -0.0647537 0.341513
0.383788 -0.0785922 0.30853
0.000831597 0.0350665 0.115713
0.113869 -0.0416822 0.0456188
0.00309769 0.0543501 0.322016
0.0266282 -0.0443949 0.12497
-0.0445514 -0.108756 0.365733
-0.167342 -0.0491678 0.321588
-0.0250732 -0.117132 0.348638
-0.0791341 0.00244006 0.323299
0.0566372 -0.0329255 0.102895
0.0196166 0.0974668 0.451419
0.0315452 -0.0349051 0.0448903
0.0857307 -0.00137126 0.429383
0.0466511 0.0652178 0.428542
0.133593 -0.0436571 0.462771
-0.0377247 -0.113766 0.400648
-0.0197212 -0.0091234 0.0437313
-0.0605458 0.00437418 0.186521
-0.103427 -0.00638681 0.0868905
-0.0767736 -0.0808655 0.442999
0.0067319 -0.102913 0.180629
0.0528178 -0.0409419 0.654187
-0.0698321 -0.00337746 0.21934
-0.0388703 -0.0410673 0.676551
-0.066146 -0.0667678 0.209602
0.0146422 0.0866566 0.403731
-0.0675426 -0.0918874 0.456795
-0.136328 -0.0223917 0.0794825
-0.133291 0.000400155 0.0833042
-0.0737709 -0.0103761 0.122374
0.216997 -0.0611534 0.34532
-0.00225243 0.0540088 0.53236
0.149374 -0.0247505 0.414615
0.00697909 -0.114359 0.278625
0.0812524 -0.0366514 0.0789557
-0.0468831 -0.0999064 0.558986
-0.000414528 -0.0423259 0.774088
-0.328901 -0.0625076 0.335041
-0.0360104 0.042677 0.293408
0.389971 -0.0789473 0.347386
0.0102133 0.0572679 0.424192
0.028859 -0.0917384 0.153539
0.0397633 -0.0514617 0.0768332
-0.0691479 0.0214215 0.512771
0.0898299 -0.0359984 0.135675
0.166471 -0.032037 0.452212
0.00475874 -0.0247963 0.815783
0.0134078 -0.0250123 0.125559
0.0751483 -0.048375 0.230548
-0.120105 -0.0282082 0.320821
-0.141312 -0.0201138 0.0353167
0.0676621 0.023774 0.499479
-0.0137958 0.0561638 0.453458
-0.342554 -0.0643792 0.355848
-0.400295 -0.0804408 0.380758
0.0329672 0.0516877 0.448296
0.0559579 -0.0987167 0.320708
0.0114626 0.0757568 0.0338653
0.0991499 -0.0142637 0.320491
0.0119911 0.0478534 0.558461
-0.0440883 -0.0982446 0.247455
-0.0718332 0.0232659 0.443341
0.0328755 0.0528308 0.59121
-0.311784 -0.0711066 0.3167
0.253457 -0.0504554 0.316704
-0.226138 -0.062211 0.326496
0.0252575 0.0238006 0.125994
0.16244 -0.0508841 0.448168
-0.0104046 -0.120037 0.493552
0.133432 -0.0437253 0.335411
0.33458 -0.06373 0.384188
-0.0113496 -0.0625119 0.0452299
0.0120652 -0.0937655 0.126233
-0.0252203 -0.0690771 0.0679749
0.137972 -0.0443572 0.430336
-0.0282326 0.0507457 0.340297
-0.246674 -0.0642076 0.314736
0.0229503 0.0174765 0.0950435
-0.075887 -0.054818 0.246761
-0.164312 -0.0511982 0.344492
0.0406185 -0.061422 0.661097
0.0162738 0.0503095 0.302876
0.0175053 0.0426297 0.233872
0.0524075 -0.0933241 0.566193
-0.0745853 -0.0323727 0.191767
-0.0694514 -0.054549 0.193195
-0.00246408 0.0647144 0.372791
0.0347776 -0.0783596 0.645428
-0.0492437 -0.0724775 0.14259
-0.0650049 -0.0122361 0.0892753
0.176694 -0.0536121 0.394579
-0.225017 -0.0453141 0.413942
-0.072196 -0.0742269 0.54769
-0.10843 -0.0370496 0.390402
-0.0556516 0.0362605 0.492188
0.00455462 -0.078226 0.0668344
0.00250109 -0.024151 0.844429
-0.0660452 -0.0741343 0.239981
-0.10684 -0.00539409 0.0989832
0.00865245 -0.00883617 0.125373
0.353127 -0.0751285 0.343432
-0.0269817 0.0540278 0.409432
0.029151 0.0226872 0.63142
-0.399943 -0.080271 0.368579
0.10384 -0.0360408 0.379235
-0.109778 -0.0378726 0.490016
0.179386 -0.0548076 0.421496
-0.0826722 -0.0283324 0.0773787
0.166161 -0.0516226 0.346549
0.233476 -0.0463194 0.398089
-0.079731 0.0047963 0.492757
0.380745 -0.0713319 0.364436
-0.0103552 0.0541645 0.346372
-0.088616 -0.0458537 0.458565
0.118879 -0.0532051 0.117265
0.0921078 -0.0335666 0.33985
0.0591091 -0.0919468 0.296521
-0.0427594 0.045495 0.545914
-0.0747053 -0.0269817 0.596718
0.0508048 -0.0837175 0.607294
0.0366519 0.0211411 0.145746
-0.41175 -0.0814445 0.361731
0.00419242 0.0524376 0.0838515
0.165019 -0.0512464 0.427971
-0.0456619 0.0433867 0.37496
0.251559 -0.049287 0.352039
-0.0377622 0.0105739 0.108939
0.065327 -0.000246488 0.197257
-0.031118 -0.0885843 0.141084
0.0228639 0.0601004 0.0771763
0.0565205 0.00949589 0.179756
-0.0242609 0.0104435 0.0789115
-0.150492 -0.02603 0.435687
-0.134511 -0.020056 0.0182986
0.114599 -0.0153852 0.493716
-0.0739991 -0.0299435 0.092166
0.00755717 -0.0267565 0.788315
-0.0332776 0.0425531 0.280797
-0.04684 0.0294365 0.233348
-0.023932 0.089668 0.499776
-0.153218 -0.0193669 0.0598383
0.0140732 -0.117169 0.533356
0.0492943 0.0691454 0.518476
0.0794452 -0.0388871 0.256308
0.0499785 -0.10655 0.480708
-0.076898 -0.0280454 0.230305
0.00572048 0.00158186 0.684724
0.109959 -0.0373945 0.393212
-0.0508152 0.0285894 0.253995
0.027639 0.0486481 0.601732
-0.0443485 -0.104185 0.297966
0.0148002 0.100152 0.467882
-0.0804082 -0.0582572 0.293465
-0.098267 -0.00844447 0.449738
0.0873992 -0.00640164 0.507011
