-0.00468869 -0.12875 0.570078
-0.353983 -0.0533677 0.391077
-0.116548 -0.0528962 0.555498
0.00977535 0.0502308 0.0612651
0.0932759 -0.0161639 0.358059
-0.0262425 -0.0544625 0.094077
-0.187377 -0.0719614 0.487992
0.320895 -0.07925 0.320456
-0.421313 -0.0857582 0.354599
-0.396834 -0.0713751 0.406853
-0.0290083 -0.117073 0.416236
-0.179715 -0.0291985 0.326224
0.254819 -0.0751426 0.318137
0.0873622 -0.0653612 0.421534
0.0216241 -0.126797 0.499878
0.218102 -0.0735369 0.425431
-0.0429875 -0.0211746 0.287164
0.00943696 0.0153036 0.615695
-0.0416956 -0.0285446 0.166944
0.187719 -0.0796112 0.536454
0.129389 -0.0195771 0.514182
0.342664 -0.0808732 0.361954
-0.258308 -0.0761338 0.445285
-0.0843967 0.0695523 0.0609321
-0.0143694 0.0500365 0.134117
0.0186818 0.0107598 0.434043
0.238269 -0.0377868 0.321247
0.00832975 -0.00326413 0.0547356
-0.189061 -0.0718661 0.449967
-0.056712 -0.0876624 0.430204
0.431256 -0.0865566 0.375138
-0.120068 0.0720356 0.0148164
0.0433411 0.0577126 0.123908
0.221251 -0.0731656 0.340612
-0.186356 -0.096439 0.496789
0.171855 -0.0704139 0.391253
-0.267358 -0.0712798 0.293278
0.141115 -0.0567123 0.542308
0.0244447 -0.0476701 0.761606
0.00141572 -0.12875 0.500893
0.0134141 0.0715208 0.108467
0.157171 -0.0237778 0.501191
-0.325897 -0.0510036 0.277718
0.36157 -0.0594152 0.266207
0.158451 -0.0865882 0.46672
0.122931 -0.0677563 0.444517
-0.143635 -0.068689 0.396395
-0.113195 -0.0173297 0.458359
0.00680522 0.0170664 0.180979
0.285111 -0.0752286 0.288163
-0.179935 -0.0706095 0.343817
0.0544891 -0.0919888 0.409024
-0.374017 -0.0830074 0.385166
0.255101 -0.0383327 0.436301
0.0670016 -0.0657217 0.469689
-0.126085 -0.0681123 0.476893
-0.434156 -0.0657981 0.385201
-0.0382816 0.070364 0.0826477
0.0444848 -0.0835862 0.272946
-0.0255779 -0.0399521 0.737936
0.239134 -0.0574812 0.49014
0.053667 -0.00872493 0.578754
-0.0391348 -0.0826519 0.249202
-0.311947 -0.0486624 0.314522
-0.25581 -0.0757696 0.407757
0.0383554 -0.11464 0.579362
0.0536167 -0.0698819 0.7188
0.192569 -0.0359345 0.313028
-0.335913 -0.0508902 0.423796
-0.0278134 -0.0176548 0.134955
-0.24258 -0.0401747 0.298978
-0.056469 -0.0937113 0.578814
0.162081 -0.0694693 0.340448
0.195951 -0.0723204 0.45642
-0.0598829 -0.0188675 0.589177
0.0131085 0.0419792 0.120491
-0.021546 -0.126853 0.488056
-0.160699 -0.0309249 0.528007
-0.00965273 -0.12875 0.631517
0.4213 -0.0651265 0.265581
0.276351 -0.0433481 0.322305
0.390951 -0.0603722 0.312408
0.0180758 -0.000921599 0.256784
0.0651139 -0.0793887 0.621642
-0.0723771 -0.060931 0.627973
0.0676187 -0.0431147 0.613804
-0.0290946 -0.094615 0.279571
-0.0646422 -0.0593815 0.328276
0.00716348 -0.114273 0.333029
-0.136391 -0.0691544 0.529701
0.251111 -0.0752176 0.371324
0.0842734 -0.0657037 0.515341
0.0144074 0.112277 0.100784
0.291833 -0.0776389 0.35489
0.114317 -0.0436211 0.556342
0.0639049 -0.0696635 0.357775
0.120182 -0.0189891 0.431888
-0.0323525 -0.0169364 0.186064
0.0444604 -0.0209331 0.301018
0.0648677 -0.0777363 0.550988
-0.213245 -0.0727269 0.350495
0.13151 -0.0213779 0.378973
0.166206 -0.0525819 0.499021
0.192145 -0.0465103 0.514759
-0.400558 -0.0611288 0.346878
-0.338501 -0.080312 0.313878
0.0420944 0.000905231 0.650651
0.0419211 -0.0265413 0.173384
0.463043 -0.0813698 0.259904
-0.0171563 -0.00485016 0.178562
-0.383477 -0.0829224 0.267937
-0.176972 -0.0548949 0.487721
0.0928321 0.0684321 0.0649126
0.0324675 -0.0406089 0.0848088
0.0423645 -0.111728 0.655428
0.374382 -0.0829697 0.377483
0.260659 -0.076244 0.439058
0.28078 -0.0771115 0.376351
-0.060868 -0.0841748 0.536008
-0.270062 -0.040704 0.438101
0.0326477 -0.0661353 0.158049
0.221596 -0.0330861 0.440191
0.343178 -0.0814763 0.43169
-0.0562161 -0.0274705 0.674994
-0.313666 -0.0790603 0.362143
0.0427095 0.0721668 0.0586205
-0.0119689 0.021673 0.111327
0.233729 -0.0741513 0.374
0.0644774 -0.00895243 0.501769
0.00758125 -0.12383 0.415222
0.104803 0.0593002 0.0383259
-0.154496 -0.0863791 0.519349
0.027329 -0.0802742 0.200945
-0.386473 -0.0835315 0.351132
-0.179431 -0.0893125 0.541836
-0.102926 -0.0660128 0.378672
-0.0647716 -0.0121197 0.356633
0.138884 -0.0684828 0.408479
-0.165945 -0.0260654 0.404626
-0.179194 -0.0708444 0.387512
-0.407745 -0.0845469 0.306625
-0.472552 -0.0713837 0.344539
0.120085 -0.0669057 0.3508
-0.160773 -0.0700903 0.442338
-0.0403033 -0.113225 0.625564
-0.0121646 0.0568131 0.0983737
0.453309 -0.0874651 0.318578
-0.066302 -0.073045 0.676362
-0.0405821 0.00143101 0.421251
-0.0345873 -0.0576957 0.771057
-0.0191909 0.00348967 0.691947
-0.0125812 0.0740772 0.0446727
-0.328621 -0.0805722 0.435103
-0.0253656 -0.0250873 0.066821
0.0389449 -0.041595 0.116328
0.00917516 0.0245482 0.059498
0.0374243 0.0033867 0.407588
-0.1217 -0.0195772 0.402748
0.0529462 -0.0185992 0.346691
0.172006 -0.0254436 0.457195
-0.0638024 -0.0699245 0.359769
0.435843 -0.0671595 0.293614
0.396322 -0.0836876 0.258727
-0.0098495 0.0176044 0.0746296
0.0674515 0.0567538 0.0838265
-0.17337 -0.0259972 0.447441
-0.0221546 -0.0931435 0.776476
0.0498449 -0.105925 0.504016
-0.0144091 0.101526 0.104298
-0.0176049 -0.00173181 0.217092
0.152426 -0.0697627 0.483219
-0.0941521 -0.0662137 0.491672
-0.0496854 -0.100011 0.361095
0.00944136 0.0132207 0.478041
-0.0256617 -0.123863 0.548367
-0.0108865 0.0100613 0.67555
-0.0524238 -0.0069391 0.556972
-0.26205 -0.075628 0.324811
0.0169409 -0.0136514 0.0847672
-0.253151 -0.0614701 0.482666
-0.0473194 -0.0292708 0.22761
0.228624 -0.035971 0.353814
0.0484795 -0.01962 0.701881
-0.013449 0.0118643 0.524207
0.261176 -0.0453006 0.476433
0.00101414 0.0546153 0.0292836
0.155233 -0.0244078 0.410977
-0.352328 -0.0542451 0.346044
-0.155886 -0.0256364 0.334809
0.0252776 -0.123567 0.466921
-0.101779 0.0593432 0.0394308
0.467009 -0.0758907 0.370378
-0.35061 -0.053601 0.364123
0.369673 -0.0561782 0.364442
0.0550838 -0.0577428 0.250389
-0.258726 -0.040225 0.366177
0.0176017 -0.125293 0.70025
-0.00958687 0.096018 0.0421066
-0.0670387 -0.0116791 0.395375
-0.184426 -0.0879528 0.47874
0.305515 -0.0459367 0.405342
0.0546592 -0.0970655 0.560526
-0.0680384 -0.0679382 0.511967
-0.0621924 0.0661178 0.103359
-0.326512 -0.0796313 0.327988
0.00366385 -0.0660685 0.0864955
0.0193502 0.010835 0.524258
0.286247 -0.0471281 0.286958
-0.147417 -0.0217476 0.465004
0.306823 -0.0467191 0.451457
-0.272597 -0.0765416 0.368739
0.0117971 0.0089148 0.33403
0.220822 -0.0735234 0.397633
-0.395828 -0.0627034 0.256668
0.0296222 0.00864559 0.566987
-0.0121521 0.12843 0.0730756
0.11652 -0.066949 0.39031
0.368361 -0.0559503 0.420268
0.0766157 -0.0635172 0.577489
0.401375 -0.084463 0.350799
-0.297054 -0.0601486 0.284603
-0.01231 -0.12844 0.687258
-0.454024 -0.0872414 0.254314
0.0121766 -0.000414012 0.132517
0.189158 -0.071725 0.421683
0.157027 -0.081636 0.530178
0.157008 -0.025521 0.354552
0.110624 -0.0674991 0.534389
0.306607 -0.0782014 0.282294
-0.0139894 0.0711856 0.116526
0.0202416 -0.100119 0.76969
0.0573934 -0.0330313 0.688306
0.181005 -0.0957144 0.553865
-0.216918 -0.0732971 0.399992
0.216908 -0.0590573 0.307668
0.0357522 -0.0123252 0.275818
-0.0432692 -0.107277 0.412053
0.0138269 0.010935 0.368207
0.16067 -0.0327927 0.322053
0.0514322 -0.0599753 0.227301
0.0717012 -0.0125984 0.382546
0.181286 -0.0774368 0.489875
0.141613 -0.023449 0.343774
-0.0673594 -0.0423271 0.350323
0.361565 -0.0817228 0.311979
-0.0332693 0.00948174 0.615679
0.0497158 -0.00551179 0.430884
-0.106907 -0.015535 0.488582
-0.213364 -0.03217 0.468688
-0.113559 -0.0668434 0.400927
0.11426 -0.0175063 0.532331
0.0674289 -0.0567405 0.669857
0.00904617 0.118331 0.0241506
-0.0391429 -0.114068 0.476204
0.18819 -0.0711631 0.349897
0.345314 -0.0714842 0.270778
-0.0487946 -0.00459937 0.443423
-0.219345 -0.0350842 0.317147
-0.179686 -0.0275864 0.512719
-0.0569462 0.0722808 0.0473553
0.0340705 -0.111811 0.392741
0.0388351 -0.0178021 0.224603
0.0134706 0.0139695 0.647553
-0.0232207 0.00206686 0.313641
-0.165642 -0.0853909 0.552842
0.305291 -0.0792029 0.44796
-0.44485 -0.0870868 0.335916
0.110556 -0.0160982 0.487274
0.0033524 -0.0737317 0.127481
0.0207686 -0.109351 0.318339
-0.0485365 -0.0871091 0.308731
0.00752849 -0.032606 0.741174
0.0119155 0.0521722 0.0963121
0.154391 -0.0853389 0.499729
0.0638631 -0.0500449 0.346697
-0.105272 -0.015938 0.525772
-0.00434362 -0.0525181 0.790042
-0.0181597 -0.108309 0.307362
-0.127687 -0.0683144 0.501119
0.11792 -0.0197254 0.359426
-0.0332013 -0.0274505 0.110255
-0.352983 -0.0549965 0.27567
0.0100651 -0.0586224 0.0585338
0.0111163 0.0733234 0.0744399
-0.130983 -0.0217846 0.350655
0.0984002 0.0610007 0.0236069
-0.0953564 -0.0365064 0.341605
0.0064302 -0.0259951 0.0585338
-0.251205 -0.0395916 0.327855
0.0247966 -0.124492 0.636087
0.0545666 -0.0937807 0.454316
-0.102408 -0.0164578 0.425195
0.0507537 -0.0803553 0.302702
-0.0710965 -0.0666429 0.647425
0.425542 -0.0856342 0.305678
-0.373593 -0.0582255 0.418513
0.0188772 -0.000204733 0.699138
-0.110809 -0.0315175 0.555929
0.34079 -0.0805272 0.331739
0.065975 -0.0662937 0.401879
0.011246 0.126219 0.0601283
-0.027784 0.00901321 0.4938
-0.160647 -0.0698837 0.413854
-0.166414 -0.0644985 0.473486
-0.397119 -0.0613281 0.303354
-0.257543 -0.0391083 0.463511
-0.0464626 -7.23018e-05 0.507052
-0.0218576 0.0103986 0.551352
-0.0273853 -0.103265 0.745476
-0.286781 -0.0778034 0.426829
-0.162817 -0.104279 0.492434
-0.0476532 -0.0534246 0.182114
0.456466 -0.0700848 0.30771
0.0282267 -0.104384 0.740768
0.250603 -0.0383301 0.403597
-0.0385981 -0.00201471 0.350409
0.303861 -0.0786574 0.391684
0.0826894 -0.0132418 0.450347
-0.287282 -0.0431721 0.417483
0.0495653 -0.106496 0.600142
0.297859 -0.0463649 0.336594
-0.00844162 0.10763 0.0160613
-0.194693 -0.0304024 0.396671
0.330868 -0.080438 0.406996
-0.440334 -0.0864781 0.286915
-0.128992 -0.0195879 0.518015
-0.438407 -0.0870582 0.380223
-0.00895626 -0.086174 0.194027
-0.346949 -0.081405 0.400319
-0.319908 -0.0495595 0.341578
0.285285 -0.0770088 0.313789
0.0348608 0.0619747 0.0396253
-0.0797067 -0.0120121 0.534728
-0.151501 -0.0686563 0.327018
0.414428 -0.0627376 0.353176
0.0634804 -0.0244279 0.593677
-0.442757 -0.0682134 0.289764
0.142602 -0.0599795 0.329291
-0.0225597 0.007656 0.37373
-0.063452 0.0693894 0.0761365
0.0411837 0.0680404 0.103522
-0.0211237 0.0604531 0.0693612
0.353605 -0.0545384 0.338745
0.144815 -0.0691532 0.451677
0.0100886 -0.12875 0.547361
-0.0864257 -0.0313479 0.569615
0.0878545 -0.0154939 0.563603
-0.0419402 -0.0392547 0.717426
0.163249 -0.104764 0.53486
0.126372 -0.0681668 0.485826
-0.0713837 -0.0668935 0.594687
0.0576652 -0.0226078 0.646352
0.0144086 0.0283552 0.147579
-0.0199375 0.00943552 0.410875
-0.0444373 -0.0555141 0.735319
-0.012895 -0.0794277 0.159585
-0.0410479 -0.0446483 0.146704
-0.336826 -0.0507576 0.396446
0.0360736 -0.108067 0.35287
0.0515777 -0.0933973 0.345553
0.0386089 -0.0679709 0.186145
-0.0576486 -0.0850406 0.698637
-0.0431342 -0.0243763 0.264477
-0.235719 -0.0742848 0.375193
0.134489 -0.0332601 0.543173
0.0681694 -0.0655441 0.491262
0.186426 -0.0294537 0.376107
-0.0551143 -0.0927637 0.459003
0.180845 -0.0278032 0.514345
0.0518164 -0.00642815 0.557925
-0.00258006 0.00433053 0.236584
-0.212388 -0.0334628 0.362417
-0.148439 -0.0694229 0.462526
-0.457245 -0.0875504 0.297751
-0.0758054 -0.0643939 0.388763
-0.0163182 0.0674644 0.133708
0.461626 -0.0698322 0.338219
0.0635074 0.0706083 0.062003
-0.0431302 0.00146565 0.62741
0.148875 -0.0230771 0.436718
0.208711 -0.0733819 0.488626
-0.32569 -0.0626838 0.444481
0.13632 -0.0203078 0.492679
0.397544 -0.0655892 0.406438
0.0296853 0.00581341 0.391443
-0.0446543 -0.110064 0.527082
-0.231677 -0.0749531 0.493038
0.035004 -0.0947854 0.295205
0.0553198 -0.094504 0.690242
0.0107397 -0.0769721 0.144812
0.0251905 -0.0168077 0.713213
-0.0605698 -0.0450189 0.309275
0.313913 -0.0475241 0.431431
0.425047 -0.069952 0.392371
0.124152 -0.0199227 0.403967
0.230675 -0.073656 0.322754
0.0467426 -0.108547 0.530264
-0.0687834 -0.0702057 0.545023
0.0412226 -0.0606058 0.74922
0.0569892 -0.0904479 0.482837
-0.0644128 -0.0501791 0.68355
-0.0276508 -0.112098 0.720539
-0.191323 -0.0901193 0.520208
-0.115438 -0.0666589 0.357711
0.0602108 -0.0393444 0.332136
0.45681 -0.0878324 0.334932
0.0139699 -0.12875 0.593877
0.00630245 0.0141241 0.452147
-0.0349802 -0.0137714 0.238521
-0.0670536 -0.0647996 0.435131
0.0195093 -0.00251658 0.232892
0.407571 -0.061542 0.375464
-0.0418665 -0.00654987 0.334377
0.280994 -0.0426816 0.454757
0.0211557 0.0630382 0.135574
0.280649 -0.0776877 0.455461
0.117492 -0.0677269 0.510173
-0.109116 0.0568965 0.0788627
-0.167606 -0.0723939 0.532013
-0.0389398 -0.00596671 0.688232
-0.25331 -0.0380025 0.420622
-0.460847 -0.0840355 0.237497
-0.199545 -0.0319294 0.337466
-0.0123248 0.00724371 0.12861
-0.412623 -0.0830153 0.395901
-0.161345 -0.0257242 0.379826
-0.0371114 0.0728753 0.0497834
-0.363731 -0.0817779 0.29217
0.0520274 -0.0384931 0.22596
0.0854693 -0.0654693 0.451831
0.00924125 0.0904239 0.0375227
-0.390751 -0.0834403 0.28797
-0.00073279 0.0154606 0.419619
-0.207129 -0.0728924 0.432188
0.0243629 -0.0122252 0.162012
0.0520612 -0.00934479 0.38448
0.261032 -0.0752556 0.477598
0.100094 0.0537195 0.0816848
-0.203574 -0.0719772 0.324745
0.218375 -0.0395882 0.305909
-0.0115698 0.104281 0.0717208
-0.045113 -0.109731 0.66461
0.0156671 -0.090126 0.787936
-0.0576532 -0.0239408 0.6526
-0.428642 -0.0647257 0.366811
0.260154 -0.0753657 0.295985
-0.000814645 -0.118489 0.351675
-0.405698 -0.0624441 0.321221
-0.0611227 -0.0823765 0.495094
0.10894 -0.0493842 0.338632
-0.166243 -0.0685145 0.505206
-0.183506 -0.105015 0.532295
-0.0509176 -0.0627792 0.23915
-0.239312 -0.0746988 0.400159
-0.297305 -0.0458864 0.366153
0.063999 0.0665424 0.0979055
0.167776 -0.0685389 0.526847
0.217159 -0.0736487 0.459083
0.189688 -0.0949832 0.550333
0.346827 -0.0539955 0.291107
0.0321898 0.010195 0.624753
-0.013535 -0.117242 0.735515
0.0553096 -0.0489971 0.712602
0.0156702 -0.0906431 0.220268
0.0467218 -0.00115238 0.485464
0.170968 -0.0740637 0.552848
0.361875 -0.0545883 0.391877
-0.0287506 -0.00415776 0.286928
-0.0444833 -0.000701658 0.594905
0.197103 -0.0720492 0.398847
-0.0144893 -0.00615349 0.150093
-0.155061 -0.0864703 0.480305
0.392551 -0.0835363 0.283272
0.0238959 -0.125146 0.568767
0.166617 -0.0704784 0.448288
0.197509 -0.0305391 0.507572
-0.293309 -0.0778618 0.371963
-0.278114 -0.043104 0.363725
-0.305788 -0.0788378 0.40255
0.0296636 -0.120956 0.599104
-0.410424 -0.0622081 0.394875
0.0831676 0.0609145 0.0309973
-0.175909 -0.0704609 0.361612
-0.146373 -0.0465926 0.539265
-0.428295 -0.0847862 0.246512
0.3497 -0.0529767 0.376053
-0.0294334 -0.0802131 0.206125
-0.0155321 0.0136271 0.654534
-0.13699 -0.0679358 0.346189
0.320764 -0.0498258 0.329537
0.372419 -0.0789452 0.262781
-0.195286 -0.0484255 0.513351
0.285637 -0.0443608 0.352946
-0.10457 -0.0666239 0.446567
-0.0106728 0.000138904 0.101444
-0.0151815 0.00776202 0.19343
-0.0984302 0.0718144 0.0292373
0.0327058 -0.0697364 0.777017
0.0144847 0.0918887 0.110497
0.0708438 -0.0651228 0.53417
-0.064202 -0.0705108 0.410884
0.190797 -0.0927263 0.520096
-0.0341745 -0.10974 0.36209
0.020499 -0.0557791 0.0759662
-0.121182 -0.040904 0.334431
-0.0282301 -0.115069 0.384983
-0.0587991 -0.0674122 0.312384
-0.280188 -0.0775976 0.450545
-0.200657 -0.0299339 0.452705
-0.0304078 -0.120415 0.571528
0.0850679 0.0710841 0.0486595
0.0307545 -0.0586467 0.13112
-0.0355405 -0.116686 0.506455
-0.0881737 -0.0654679 0.429007
-0.233016 -0.0356263 0.410944
0.0600509 -0.0605432 0.297131
0.191959 -0.0285975 0.455459
-0.0115017 -0.0142577 0.0585338
-0.325563 -0.0735166 0.276467
-0.00847129 0.075 0.0212464
0.114823 -0.0177876 0.452448
0.108469 -0.0667174 0.426503
0.041857 -0.00442066 0.673797
0.0910608 -0.0146761 0.434164
-0.445964 -0.0683755 0.317548
0.244218 -0.0749393 0.391382
0.0628978 -0.00914718 0.525741
0.0107083 0.0390933 0.0823292
-0.0916822 -0.0152048 0.39956
-0.0999609 -0.0566153 0.564616
-0.0010303 -0.12875 0.659644
-0.168124 -0.0252556 0.48585
-0.0288377 0.00764554 0.673964
0.0523555 -0.0300823 0.315912
-0.355702 -0.0817685 0.37364
-0.0509522 0.0652872 0.0223519
0.309805 -0.0478728 0.355497
0.0747892 -0.0111173 0.48238
-0.221622 -0.0493347 0.305806
-0.0741609 0.0600107 0.0447788
0.352596 -0.0816546 0.385146
0.205909 -0.0721143 0.32344
0.355889 -0.0539941 0.420871
-0.45527 -0.0700622 0.376968
0.0585265 -0.0102076 0.408401
-0.114525 -0.0176919 0.53972
0.218466 -0.0599516 0.501001
0.0569946 -0.0935898 0.642007
-0.0880389 -0.0649944 0.366844
0.412476 -0.0847937 0.293674
0.0100732 0.0173225 0.078869
0.209356 -0.0329922 0.364181
-0.0464327 -0.0213028 0.30987
0.011733 0.103233 0.0745067
0.0378008 -0.0161431 0.251595
0.0139191 -0.126252 0.44404
-0.143706 -0.0228853 0.397285
-0.365105 -0.0820696 0.334991
0.0620665 -0.0761835 0.448121
0.455165 -0.0700801 0.283395
-0.249074 -0.0754464 0.425028
0.43414 -0.0860327 0.262335
0.0260965 0.00126134 0.317412
0.22967 -0.0355799 0.393781
-0.0987653 -0.0669813 0.553007
-0.309417 -0.0786312 0.340239
-0.380509 -0.0585561 0.333834
0.0287787 0.0604289 0.0653819
0.172611 -0.0702511 0.36094
-0.027963 -0.0449556 0.074408
0.0518483 0.0597476 0.0611648
0.427065 -0.0861164 0.353477
0.169524 -0.0253549 0.478588
0.0467761 -0.00250871 0.599804
0.0466304 -0.0490477 0.173042
0.158134 -0.101529 0.502827
0.00747119 0.0131893 0.576122
0.0541793 -0.0914131 0.386174
-0.0184561 -0.12875 0.588148
0.0961852 -0.0527176 0.566488
0.387031 -0.0626255 0.259165
0.465048 -0.0745605 0.243078
0.0694806 -0.0487209 0.590013
-0.28092 -0.0453089 0.288354
-0.0986409 0.0567537 0.0629129
-0.261743 -0.076574 0.465468
-0.28302 -0.0770216 0.344366
-0.205562 -0.0730591 0.479998
-0.06345 -0.0733048 0.456483
0.420366 -0.0645879 0.320937
-0.0849787 -0.013587 0.449678
-0.233019 -0.0352446 0.465745
0.0554642 -0.094317 0.535412
0.377899 -0.0582104 0.331549
0.312966 -0.0475854 0.385386
0.243511 -0.0746011 0.350122
-0.180011 -0.0712204 0.431567
0.177873 -0.0867054 0.463649
-0.436745 -0.0861969 0.263597
0.439986 -0.0678658 0.273037
-0.0502336 -0.0347978 0.205663
0.0644404 -0.0405212 0.654639
0.0317776 0.00723928 0.446656
0.364282 -0.0565914 0.287616
-0.0182255 -0.065216 0.111963
0.0255353 -0.0766488 0.181738
-0.051755 -0.0660525 0.259751
-0.00964742 -0.100547 0.2709
-0.0578878 -0.010846 0.371345
0.0559261 -0.0092644 0.453113
0.0264457 -0.0948772 0.272917
-0.289585 -0.0453284 0.32011
0.235352 -0.0359408 0.484528
-0.0133791 -0.12823 0.467584
-0.0455463 -0.109416 0.572325
-0.064674 -0.0643949 0.340917
0.236876 -0.0746345 0.413859
-0.0832539 -0.0120104 0.489098
-0.0122361 -0.12875 0.613545
0.0774461 -0.0356635 0.346818
-0.101048 -0.0665536 0.471105
0.325971 -0.049226 0.417656
-0.41086 -0.0712017 0.252325
0.04268 -0.0963752 0.715321
0.0419183 -0.110685 0.456973
-0.135379 -0.0227385 0.330253
-0.173056 -0.0268596 0.424601
-0.388424 -0.0841172 0.406276
0.0189026 0.0738745 0.0438561
-0.00876145 0.00547195 0.0592883
-0.283875 -0.0768771 0.304257
-0.312791 -0.0471145 0.412644
0.285881 -0.0778261 0.438308
0.391034 -0.0836661 0.331654
0.0386531 -0.114424 0.676461
-0.211422 -0.0732791 0.456367
0.363214 -0.0821049 0.35486
-0.37544 -0.0566686 0.390384
0.406166 -0.0627383 0.291454
0.103178 -0.0662388 0.406793
-0.154128 -0.0459733 0.32525
-0.175232 -0.0282972 0.344298
0.166732 -0.063602 0.322401
0.230325 -0.0748539 0.492281
0.0268464 -0.113419 0.718177
0.0251202 -0.0147746 0.141139
-0.0252226 0.0695647 0.101083
0.0744437 -0.0646569 0.435329
-0.0197615 -0.0281414 0.72446
0.0569272 -0.0413667 0.296387
-0.0333518 0.00901805 0.649994
-0.349852 -0.0686986 0.431057
-0.425598 -0.0858266 0.331034
0.323438 -0.0744815 0.444183
-0.118823 -0.0667317 0.336595
0.18795 -0.0294013 0.397346
0.0320579 0.00935345 0.663618
-0.267022 -0.07636 0.390688
0.00274272 -0.0656762 0.80418
0.178179 -0.0622925 0.505675
-0.132045 -0.0683684 0.451733
-0.18243 -0.070415 0.554216
-0.0723051 0.0581109 0.0658444
-0.441402 -0.0870964 0.361738
0.438833 -0.0867283 0.338595
0.161953 -0.0258891 0.37537
0.352082 -0.081773 0.405631
0.261128 -0.0412968 0.304762
0.0595189 0.0542563 0.112945
-0.000133094 0.00643158 0.264402
0.0892076 -0.0650271 0.360859
0.12427 0.0622626 0.048594
-0.0495206 -0.0945602 0.336351
-0.361319 -0.0697642 0.266382
-0.0484593 0.0666878 0.110384
-0.00307224 -0.0951841 0.792235
0.0393946 -0.11121 0.435924
-0.0291404 0.00927396 0.512262
-0.254364 -0.056314 0.296727
-0.0555923 -0.0931688 0.478919
-0.419449 -0.0851888 0.284021
0.0437099 -0.0790227 0.249755
0.411447 -0.0852986 0.37507
-0.0728696 -0.0250377 0.346924
-0.00959406 0.0131416 0.47925
0.00674794 -0.11571 0.748356
-0.21178 -0.0420574 0.502775
0.307027 -0.0481511 0.289476
-0.192712 -0.0725668 0.506768
0.0298157 0.00878528 0.497457
0.450106 -0.0679707 0.355438
0.00261599 0.0100838 0.309132
0.0714346 -0.0674597 0.605746
0.0185573 -0.094619 0.247996
0.0150725 -0.053838 0.783773
-0.368691 -0.0828548 0.407172
-0.0547124 0.0573653 0.0863977
0.116603 -0.0619962 0.555701
0.215425 -0.0729926 0.372113
0.155808 -0.0837867 0.552269
-0.0104184 0.0251098 0.167657
-0.465478 -0.0716697 0.256708
0.238801 -0.0740784 0.305565
0.233956 -0.0527218 0.302439
0.147205 -0.0226183 0.524212
0.239879 -0.036196 0.419929
-0.3297 -0.079691 0.294745
-0.228226 -0.0735864 0.338622
-0.0508941 -0.00726512 0.403678
0.0507878 -0.0379081 0.189192
0.0606842 -0.0858989 0.575663
0.0900989 -0.0665718 0.564129
0.339106 -0.0526208 0.318253
0.0403469 -0.0762841 0.21577
-0.446497 -0.0870116 0.315233
-0.0934561 0.0625697 0.0205623
0.285012 -0.042769 0.409987
-0.0587766 0.073117 0.0313962
0.0419736 -0.00880354 0.31888
-0.017039 -0.0948859 0.244688
0.00175861 -0.10914 0.310332
0.165073 -0.0579117 0.479423
-0.0432322 -0.111097 0.597475
-0.0380657 0.00620429 0.560728
-0.0359918 -0.0800903 0.22338
0.00395454 0.0150432 0.594213
-0.0619991 -0.0249011 0.612717
0.0392886 -0.113962 0.561878
-0.0171257 -0.0407186 0.755075
-0.396516 -0.061384 0.276456
0.151026 -0.069106 0.390445
0.0160404 0.0106476 0.412
0.248121 -0.0388502 0.352837
0.0725775 -0.0605629 0.624685
-0.310749 -0.0486893 0.290101
0.208612 -0.0317135 0.425178
-0.0657922 -0.0780697 0.619281
-0.0253076 -0.00963385 0.203142
-0.21005 -0.0325165 0.407651
0.259691 -0.0407257 0.336661
0.328482 -0.0801696 0.389178
0.171621 -0.0881326 0.540492
0.0211831 -0.127117 0.531066
-0.155391 -0.0236334 0.508909
0.16564 -0.0708256 0.510898
-0.276976 -0.042674 0.383016
-0.00351431 -0.00279764 0.70231
0.171565 -0.047283 0.320236
0.110431 -0.0164144 0.507035
-0.0447713 0.0618653 0.0367329
-0.132867 -0.0636023 0.546895
0.0397618 -0.0448635 0.138161
-0.366869 -0.0820695 0.316902
0.00173609 -0.12875 0.520625
0.180189 -0.0705648 0.333395
-0.00252529 -0.12245 0.398796
0.306843 -0.0786994 0.370765
-0.302708 -0.0469495 0.347337
-0.274077 -0.0769047 0.408635
0.174196 -0.0477465 0.524527
0.447686 -0.0875159 0.364725
-0.0748862 -0.0651797 0.529119
0.42007 -0.0842604 0.248907
-0.0947673 0.0708045 0.0467861
-0.0246615 -0.121315 0.434799
-0.0574518 -0.00852729 0.538976
0.0568207 -0.0784431 0.334242
0.0582667 -0.0818587 0.371481
-0.0116545 0.0394936 0.097928
0.0701916 -0.0639416 0.375179
0.0963629 -0.0346809 0.565043
-0.194199 -0.071572 0.355355
0.0932679 -0.0186598 0.340192
0.437927 -0.0672864 0.312888
0.0898008 -0.015237 0.381575
-0.0532335 -0.0994381 0.684415
-0.235769 -0.0569934 0.491917
0.0273262 0.00907887 0.471092
0.0264455 0.0564499 0.118033
0.0029282 0.0135638 0.535296
0.0374026 -0.115333 0.493481
-0.245614 -0.0744988 0.304449
0.128257 -0.0679505 0.426056
-0.399468 -0.0838827 0.259419
-0.172249 -0.101573 0.554813
0.103873 0.0692399 0.0512463
-0.120003 -0.01885 0.440889
-0.0452493 -0.109632 0.64555
0.181639 -0.107808 0.552618
-0.254443 -0.0753849 0.36594
-0.0376524 0.00668981 0.477059
0.253197 -0.0759068 0.456853
-0.0122975 0.0427358 0.154673
-0.0535978 -0.00787396 0.609383
-0.196297 -0.0955769 0.552185
-0.335916 -0.0805873 0.382057
-0.377454 -0.0586243 0.269176
0.064596 0.0721194 0.0448293
-0.0718699 -0.0101778 0.504086
-0.0411182 -0.109762 0.430601
-0.266466 -0.041757 0.333843
-0.0275654 -0.0696333 0.157925
0.340865 -0.0532296 0.273399
-0.0105066 0.0895793 0.0602406
-0.249151 -0.0374218 0.438923
-0.0270502 -0.122854 0.677842
-0.0334871 0.0563466 0.131697
-0.0654654 -0.0476282 0.664442
0.0520681 0.0693175 0.0844244
-0.0728567 0.0663434 0.0914008
-0.00153581 0.0151588 0.38473
0.0211757 -0.015713 0.102132
0.372993 -0.0564607 0.405361
-0.0727191 -0.0649107 0.494454
-0.391744 -0.0841402 0.386045
0.0749288 0.0686742 0.0743225
0.0182238 -0.11727 0.346283
0.268383 -0.0405851 0.448842
0.0900837 0.0589946 0.0496584
0.309682 -0.0784901 0.305655
-0.0020243 0.011759 0.0477881
-0.0138226 0.0319844 0.136322
-0.16466 -0.0738347 0.487965
-0.0688109 -0.0491952 0.602879
0.19426 -0.0292102 0.472718
0.113164 0.0708115 0.0350823
-0.000905288 -0.0704458 0.109907
-0.157257 -0.0928539 0.541763
-0.0383213 -0.0089662 0.299593
-0.0681856 -0.043791 0.622997
0.0502784 0.0621542 0.0298526
0.029868 -0.04255 0.737833
-0.183119 -0.111215 0.554453
-0.0502834 -0.0656722 0.723634
0.193052 -0.0722639 0.481406
0.211923 -0.0338746 0.328582
0.164773 -0.0704447 0.466559
0.35491 -0.0678688 0.428676
0.449366 -0.0692896 0.257493
-0.251451 -0.0437863 0.481485
0.0145143 0.0753169 0.131415
-0.0594755 -0.0795006 0.379915
-0.0489452 -0.0374692 0.180841
0.0145883 0.0629336 0.0363715
0.169816 -0.0258383 0.439309
-0.168145 -0.0474417 0.527731
-0.119608 0.0587417 0.0382203
-0.190013 -0.0286491 0.43815
-0.173673 -0.107388 0.503671
0.222162 -0.0428505 0.497318
0.324656 -0.0795747 0.339682
-0.0479311 -0.00316816 0.460974
-0.173534 -0.0520411 0.31998
-0.0191476 -0.0491144 0.773072
0.0445243 -0.0744943 0.737685
-0.00847484 -0.104277 0.28883
-0.0145542 0.00977064 0.168367
0.0127688 0.0924146 0.0929134
0.252866 -0.0383417 0.462152
0.0642132 -0.0505937 0.686975
-0.331463 -0.0801814 0.363172
0.00855398 -0.12875 0.630006
-0.037831 -0.0271893 0.148565
0.0304485 -0.0508898 0.103679
0.467898 -0.0782212 0.325687
0.015407 0.00667032 0.192645
0.272043 -0.0763725 0.350145
-0.0638344 -0.0800606 0.570025
0.0441331 -0.046356 0.726234
-0.0999376 -0.0666399 0.508514
0.28157 -0.0443196 0.303301
0.00388472 -0.127898 0.463623
0.029863 0.00928924 0.540375
0.173758 -0.0706664 0.408939
-0.334392 -0.0807651 0.418346
-0.343806 -0.0807135 0.331932
-0.287045 -0.043329 0.435251
-0.460474 -0.0701134 0.326966
0.0111045 0.00366388 0.280922
0.134059 -0.068719 0.504035
-0.00881954 0.0520607 0.0428528
0.379256 -0.058741 0.296723
0.341953 -0.0805224 0.313414
-0.0775868 -0.0134624 0.381369
0.0539213 -0.0981126 0.666803
0.0600566 -0.0816923 0.467054
0.099492 -0.01551 0.551207
0.0230499 0.0728188 0.0615169
0.132859 -0.0679665 0.389427
-0.159932 -0.069587 0.37973
0.0337878 -0.00531104 0.303086
-0.145986 -0.0691108 0.432978
-0.0559781 -0.026352 0.346141
0.183914 -0.0927248 0.478923
0.392097 -0.059354 0.361404
-0.0103427 0.00782131 0.089905
0.285241 -0.0775115 0.393223
-0.0946919 -0.0656423 0.397934
0.085326 -0.0126095 0.518881
-0.0128385 -0.119599 0.36486
0.244542 -0.0389498 0.298681
-0.0103725 -0.115271 0.337443
-0.0354023 -0.0397203 0.0956929
-0.154119 -0.0629422 0.535562
-0.216772 -0.0344631 0.337335
0.315293 -0.0492183 0.30639
0.0519097 -0.0682979 0.269289
-0.361259 -0.0560823 0.297941
-0.0259776 -0.0138108 0.160647
-0.390589 -0.0835969 0.326381
0.207179 -0.0491932 0.507054
-0.0412466 -0.0974064 0.321383
0.0103555 0.000793716 0.0943341
0.0133592 0.0113408 0.145163
-0.0539992 -0.00713476 0.522086
0.00929331 0.00032963 0.0716141
-0.0105456 0.112439 0.0538204
-0.461053 -0.0709674 0.2762
-0.463701 -0.087949 0.347873
0.198463 -0.0723923 0.439337
-0.0435771 -0.08659 0.284459
0.0515977 -0.102739 0.583819
0.0122597 0.0171686 0.119191
-0.0145697 0.0100238 0.358652
-0.305731 -0.0782947 0.317844
-0.00991775 -0.0314046 0.0585338
0.186102 -0.102889 0.535816
-0.35694 -0.0541062 0.4173
-0.412741 -0.0623232 0.37312
-0.045171 -0.0805617 0.26616
-0.034004 -0.112709 0.704599
0.0667144 -0.070701 0.510936
0.0454813 -0.000381144 0.622855
0.202103 -0.0720908 0.359876
0.29292 -0.051053 0.460497
0.0838034 0.0562538 0.0769972
-0.308238 -0.0564663 0.453128
0.00797984 -0.0866387 0.196513
-0.176176 -0.103534 0.482304
0.201606 -0.0301015 0.441423
0.136932 -0.0679661 0.351278
0.230894 -0.0365411 0.336881
0.410368 -0.066301 0.252509
0.00817283 0.0807434 0.020829
-0.154699 -0.0252276 0.3517
-0.0127742 0.0374723 0.117732
-0.402962 -0.0845336 0.346912
0.100814 -0.0658316 0.371863
0.442793 -0.0710112 0.383348
-0.0144977 0.00669363 0.323371
0.125164 -0.0673805 0.374062
-0.231228 -0.0743038 0.417106
-0.393963 -0.0595929 0.39252
0.22646 -0.074153 0.444936
-0.0145212 0.00193606 0.27768
-0.00319712 -0.12875 0.484632
0.184155 -0.077336 0.504444
0.0068001 0.0270998 0.167413
-0.0359914 0.0573949 0.100049
0.0457195 -0.10929 0.615882
-0.0603407 -0.086327 0.552712
-0.343753 -0.0534948 0.296353
0.018134 -0.015736 0.0648996
0.0326265 0.00138107 0.684937
0.112612 -0.0180737 0.416043
-0.246628 -0.0382891 0.377617
-0.0325026 -0.118893 0.639754
-0.00466633 0.0618077 0.143435
0.270113 -0.0467235 0.291533
-0.062556 -0.0488282 0.699982
0.0137486 0.0621478 0.0488201
0.378753 -0.0580021 0.350699
0.0149777 -0.0246757 0.723859
0.188809 -0.0300675 0.357871
-0.0230909 0.012136 0.63107
-0.372563 -0.0827311 0.360325
0.0335286 -0.110542 0.369451
-0.461084 -0.0871949 0.32332
-0.0279498 -0.121441 0.464721
0.0340531 -0.117766 0.52461
-0.0486807 -0.00446666 0.579241
-0.329822 -0.0508218 0.354863
-0.123385 -0.0672569 0.372324
-0.0219275 0.0117085 0.603707
-0.0400789 -0.00762301 0.317871
0.358593 -0.0814491 0.289169
-0.044407 -0.105117 0.391764
-0.0567686 -0.050839 0.225405
0.129557 -0.0685804 0.521566
-0.0397103 -0.113656 0.557371
0.0696732 -0.064255 0.42144
0.0481303 -0.103215 0.398595
0.0724841 -0.0653135 0.558867
-0.245236 -0.0754792 0.464706
-0.19313 -0.0721938 0.466006
0.023447 0.00522547 0.345176
0.0411305 0.00246151 0.577116
-0.0254553 0.00771937 0.395393
-0.16356 -0.0241732 0.462441
-0.206228 -0.0529307 0.310552
0.032414 -0.0290417 0.101546
-0.0699181 0.0540398 0.105028
0.376858 -0.0585202 0.272258
-0.101219 -0.066163 0.41299
0.0664715 -0.0121586 0.366969
-0.0210226 -0.101903 0.762631
0.363044 -0.0826275 0.419762
-0.430308 -0.0660231 0.321858
0.0978777 -0.0154927 0.449051
-0.0283442 -0.0906093 0.258562
0.0343532 -0.0997954 0.313392
-0.0127406 0.110734 0.0867027
0.208012 -0.0311607 0.45725
-0.00495395 0.126342 0.0215123
0.110786 -0.0277612 0.554785
-0.0160804 -0.0116902 0.710777
-0.249729 -0.0390898 0.352611
0.128475 -0.0673413 0.336816
0.00644013 0.0282683 0.0405043
0.036673 -0.0258562 0.144267
-0.301889 -0.0788088 0.43289
-0.152457 -0.0239992 0.41099
0.00956255 -0.0370776 0.756699
-0.136729 -0.0221031 0.38118
-0.293515 -0.0450037 0.383739
0.12207 -0.0178445 0.475942
-0.00393356 -0.12875 0.59958
0.234342 -0.0365991 0.369008
0.17075 -0.074618 0.479624
0.44959 -0.0869634 0.252743
-0.324266 -0.0796193 0.348642
0.0302044 -0.0161488 0.177539
0.131379 -0.0690575 0.546167
0.0763569 0.0583203 0.0623675
0.244879 -0.0752835 0.44252
0.126698 -0.021239 0.34593
0.169669 -0.0577689 0.51614
0.296693 -0.0644674 0.284822
0.385176 -0.0834554 0.351796
0.378964 -0.082824 0.319414
0.40512 -0.0623809 0.319888
0.257139 -0.040533 0.320725
0.0346928 -0.00516117 0.699547
0.154836 -0.0691967 0.368742
0.0228031 -0.11858 0.38354
-0.0296243 0.067652 0.118016
-0.461293 -0.0709369 0.298012
-0.0575904 -0.0897521 0.521309
0.0588822 -0.0870546 0.499364
0.167476 -0.0274154 0.523211
-0.125089 -0.0674805 0.389797
0.334262 -0.0507226 0.379762
0.238946 -0.0360079 0.454541
0.138992 -0.0211532 0.450971
0.293441 -0.0694374 0.460477
-0.266948 -0.0760639 0.351346
-0.284664 -0.0762827 0.288273
0.0396946 0.00517755 0.552328
-0.057008 -0.00805727 0.498143
0.00937821 -0.00911019 0.708433
0.0499189 -0.103101 0.427027
-0.0403195 -0.00197739 0.365133
0.14071 -0.0229443 0.365999
0.37788 -0.06782 0.416922
-0.0211659 -0.00360246 0.239994
-0.0213837 0.0617703 0.0497157
0.0772702 -0.0221897 0.57173
-0.0209317 -0.123149 0.699546
-0.00146216 0.0151817 0.366991
0.110093 0.0567358 0.0562152
-0.014298 0.0118474 0.427747
-0.0339737 -0.0590175 0.147987
0.00557707 -0.0433852 0.0585338
-0.114303 -0.0673278 0.462396
-0.420087 -0.08586 0.376607
-0.0394579 -0.0600272 0.170295
0.319773 -0.0799041 0.426596
0.158459 -0.0701981 0.497678
0.0287505 -0.00405089 0.287688
-0.00932254 0.0124569 0.563532
0.404382 -0.084436 0.323234
-0.234902 -0.0630339 0.302607
-0.00199602 -0.0625943 0.0679143
-0.056081 -0.0491847 0.208469
0.144944 -0.0232038 0.387036
0.00846635 0.0471216 0.0380841
0.0223016 -0.104802 0.303321
-0.0228906 -0.125877 0.508427
-0.0512148 -0.0774454 0.296578
-0.176432 -0.0278747 0.384276
0.0464047 0.0728754 0.0442178
-0.00858518 0.0940654 0.0240689
0.157065 -0.0970081 0.478442
0.164647 -0.0256358 0.423533
-0.0780943 -0.0114434 0.518489
-0.0107733 0.0232586 0.0892872
0.207416 -0.0727838 0.41071
0.0523399 -0.0128938 0.657527
-0.0219689 0.0591747 0.0863025
0.207219 -0.073092 0.471258
-0.243696 -0.0367453 0.453649
-0.0321268 -0.00851368 0.272199
-0.180566 -0.0859784 0.554515
-0.0330334 -0.118507 0.65986
0.180666 -0.071422 0.465638
0.0711653 -0.0108752 0.546669
0.0282047 -0.122016 0.614658
0.0434956 -0.0666354 0.200939
-0.121581 -0.0680935 0.524788
-0.0414885 0.0739817 0.0277274
-0.0424277 -0.0215937 0.21494
-0.267589 -0.0758982 0.310234
0.0339281 -0.0877052 0.261266
-0.052801 -0.0397041 0.26959
-0.00151959 0.0158119 0.664529
0.0954892 -0.0664356 0.526098
-0.156954 -0.0244745 0.425877
-0.0678983 -0.0676736 0.690868
0.181149 -0.0713452 0.442848
-0.00186442 -0.12875 0.537465
-0.344729 -0.0806287 0.297933
0.0932687 0.0715844 0.0359609
-0.0888795 -0.0145918 0.414795
0.0105018 -0.12851 0.686856
0.0437229 -0.0739269 0.23076
0.0600769 -0.0786696 0.392684
-0.109141 -0.0162715 0.510802
-0.0675848 -0.0103794 0.550502
0.172055 -0.0279884 0.333623
-0.00356042 0.00279978 0.212638
0.24945 -0.0673284 0.484312
-0.268248 -0.0646984 0.474337
0.0406234 0.0593346 0.0720381
-0.309711 -0.0745767 0.281043
-0.00466566 0.115719 0.0033727
0.394648 -0.0843684 0.390557
0.320344 -0.0790855 0.289162
0.172171 -0.0276911 0.355972
0.417039 -0.0644235 0.280334
0.321354 -0.0483625 0.398228
0.0816496 -0.0143083 0.367922
-0.0654518 -0.0761455 0.658075
-0.376386 -0.0825314 0.282659
0.043438 -0.0239413 0.239654
-0.00148777 0.00761699 0.687411
-0.0153564 0.0114768 0.502416
-0.289438 -0.0454868 0.301087
0.147078 -0.0693578 0.46682
0.0311566 -0.0879783 0.763336
0.046196 -0.0268288 0.200186
-0.138197 -0.068525 0.419823
0.176544 -0.0639496 0.552728
-0.106468 -0.0174196 0.39642
-0.350109 -0.0541492 0.330938
0.434408 -0.0670868 0.255433
-0.114306 0.0604073 0.0240092
-0.000672268 0.0126405 0.325887
-0.364944 -0.0562148 0.337692
0.0272202 -0.0100862 0.218447
0.266159 -0.0405511 0.401229
-0.0324035 0.00675395 0.440021
0.01296 -0.00363735 0.152961
0.198214 -0.0306926 0.414156
-0.0748234 -0.0163798 0.571152
-0.204606 -0.030784 0.434659
-0.00157044 -0.12875 0.6445
-0.334136 -0.0506633 0.380767
-0.0114386 -0.12875 0.672161
0.016479 0.0596377 0.0839756
-0.319903 -0.079871 0.422766
-0.334625 -0.051895 0.325433
-0.272397 -0.0769312 0.431401
-0.00437058 -0.0769214 0.144541
-0.065131 -0.0776574 0.586096
0.464805 -0.0784389 0.275318
0.288441 -0.077299 0.332873
0.266404 -0.0618661 0.293453
-0.047359 -0.0297662 0.242681
-0.0247713 -0.12451 0.620759
0.177093 -0.0550613 0.488926
0.0658052 -0.0260382 0.349112
0.0820564 0.0657306 0.0882476
-0.0482462 0.060643 0.0512721
-0.0338482 -0.0719099 0.775907
-0.0391683 -0.0628177 0.757688
-0.0609955 -0.0784337 0.442569
-0.00984885 0.056185 0.0603974
-0.134616 -0.0688212 0.514794
-0.0394936 -0.113814 0.5413
0.261506 -0.0759498 0.382131
-0.15855 -0.0696121 0.395197
-0.0553902 -0.095282 0.670174
-0.0504299 -0.104152 0.467542
-0.203827 -0.0724239 0.392769
0.45458 -0.0688617 0.374856
0.434373 -0.0863238 0.32433
0.121393 -0.0678026 0.471737
0.010736 0.102901 0.0596069
0.448666 -0.0874654 0.349785
0.00791537 0.105218 0.112199
0.000742881 -0.0277657 0.727034
-0.0671035 -0.00988445 0.48691
0.277247 -0.0433126 0.337169
0.129484 -0.0496689 0.548378
-0.404506 -0.0624957 0.290479
0.158491 -0.0238127 0.451179
-0.0634737 -0.0714355 0.396049
0.295268 -0.0456141 0.364201
-0.0755195 -0.0580352 0.34883
0.0170491 -0.124788 0.426621
-0.0681877 -0.0736966 0.634707
-0.152466 -0.0697353 0.47678
0.056734 -0.0132339 0.602058
-0.0361766 -0.116223 0.491677
0.0485141 -0.107259 0.687134
-0.319653 -0.0791414 0.312935
0.202745 -0.0578488 0.31171
0.0674616 -0.0714998 0.669609
-0.0438754 -0.0630518 0.192647
0.0253671 0.00561144 0.359802
0.0482936 -0.0133901 0.683578
-0.00260747 -0.0912774 0.221323
-0.177108 -0.0531976 0.510397
-0.364109 -0.06859 0.423899
-0.0395191 -0.0363409 0.130088
-0.405353 -0.0843441 0.289719
-0.104864 -0.0641217 0.340514
0.0614226 -0.0373141 0.67203
-0.239617 -0.0753099 0.480651
-0.0505371 -0.0331404 0.283121
0.0380237 -0.114881 0.508165
0.0649745 -0.0594393 0.334083
-0.010573 -0.0645514 0.0831826
0.0958687 -0.0145201 0.530413
0.421347 -0.0649898 0.294412
0.0788429 -0.0646304 0.395024
-0.012502 0.0739017 0.0951953
-0.0263469 -0.106175 0.319331
-0.387798 -0.0607542 0.411368
-0.00338544 0.117361 0.0981655
-0.00943355 -0.111226 0.319558
-0.0507659 -0.104281 0.608031
-0.342342 -0.0642714 0.271785
-0.00376866 -0.0354058 0.750895
0.0562654 0.0581866 0.0754366
-0.184606 -0.0784482 0.542188
-0.0300026 0.00923874 0.536771
-0.0505584 -0.0103252 0.35138
-0.0313507 0.0717011 0.069876
-0.185484 -0.102388 0.510612
-0.318535 -0.0481278 0.390561
0.38148 -0.0575592 0.372874
0.0833359 -0.0655513 0.491839
-0.157535 -0.101322 0.505724
-0.269086 -0.0419041 0.471431
0.0191371 -0.128604 0.51674
0.0996011 -0.016079 0.422471
0.438067 -0.0863578 0.292504
0.149996 -0.041787 0.326083
-0.256808 -0.0407519 0.296806
-0.0992662 -0.0172624 0.345758
0.0403185 0.00359241 0.636492
0.00898761 0.1044 0.0282403
-0.091274 -0.0141299 0.548157
-0.0107026 0.0534251 0.0766666
-0.0178141 -0.0817585 0.79289
-0.383269 -0.0592745 0.307078
-0.196968 -0.0722148 0.421897
-0.0801758 -0.0143839 0.353421
-0.117233 0.0547702 0.0646318
-0.262489 -0.0405879 0.380131
0.0712197 -0.0121762 0.401767
0.0353826 -0.103644 0.725462
0.00281352 0.12881 0.0714072
-0.0361343 -0.094089 0.738103
0.0235605 0.0580293 0.10252
0.175273 -0.0264767 0.490547
-0.085468 -0.0138819 0.431783
0.0592448 -0.0424603 0.310172
-0.0492639 -0.0158019 0.68617
0.296651 -0.0776533 0.299596
-0.0223247 -0.0811774 0.192255
0.011396 0.0298193 0.0970954
-0.182653 -0.0291965 0.356573
0.297156 -0.0466533 0.296286
-0.0165357 0.0632593 0.0306219
0.46313 -0.0826114 0.301586
-0.0121792 -0.0653487 0.800558
-0.101096 -0.0159441 0.450812
0.209717 -0.0358589 0.502293
0.0248038 0.071433 0.0781246
-0.292437 -0.0441016 0.401991
-0.0772245 0.0723941 0.0328152
0.259045 -0.0755983 0.355994
0.0524405 -0.101507 0.653025
-0.112515 -0.0679566 0.556671
-0.110807 0.0708841 0.0354735
0.0205095 -0.113032 0.73165
-0.378564 -0.0705684 0.261497
0.155706 -0.0818597 0.513474
-0.0129282 -0.0311376 0.735657
-0.219547 -0.0740555 0.485647
0.151128 -0.0225924 0.488381
-0.120887 -0.0177981 0.48978
-0.0133315 0.0570075 0.115924
-0.0323615 -0.118995 0.592876
-0.0132895 0.0156016 0.181255
-0.413806 -0.0634409 0.332837
0.101235 -0.0663568 0.438713
-0.273334 -0.0414202 0.451884
0.15271 -0.0693246 0.40547
-0.242009 -0.0374296 0.390988
0.187237 -0.0712012 0.366726
-0.0841119 0.0670222 0.078709
0.0309307 0.00669613 0.428245
-0.135212 -0.0203395 0.504917
-0.061424 -0.0104167 0.425047
0.057196 -0.086813 0.439116
-0.0262449 0.00472956 0.351635
-0.0807654 -0.0657476 0.551032
-0.0181867 -0.0563473 0.785147
-0.0174885 -0.0793577 0.172922
-0.0685246 0.0569657 0.0804788
0.0790147 0.0677756 0.019397
0.211169 -0.0732057 0.445391
0.0191057 -0.0597034 0.089431
-0.213466 -0.0324929 0.486496
0.0446157 -0.0918725 0.308002
0.0654599 -0.0315505 0.606069
-0.153865 -0.0702256 0.523519
0.127245 -0.020206 0.417692
-0.422842 -0.0640439 0.349305
0.352878 -0.0532976 0.405446
0.266021 -0.0757985 0.309663
0.0314635 0.06994 0.093547
-0.055222 -0.0916602 0.443587
0.0667359 -0.074683 0.581532
-0.0115365 -0.114663 0.749158
0.0218169 -0.0440993 0.0585338
0.031399 0.00406529 0.375011
0.0941572 0.0722782 0.0164937
0.229002 -0.0737641 0.360845
-0.444083 -0.0808518 0.242466
-0.306611 -0.0787261 0.376167
0.0163959 -0.0111019 0.11443
0.103787 -0.0673788 0.557047
0.426399 -0.0643914 0.361285
0.341024 -0.0803309 0.280664
-0.0272586 -0.0488931 0.760031
0.0267676 -0.12306 0.585644
0.0567933 -0.0708383 0.310851
-0.052063 -0.101877 0.562628
0.0223285 0.0101837 0.555257
-0.311877 -0.0795797 0.443651
-0.181072 -0.0714967 0.475618
0.00546099 0.014326 0.436395
0.0767243 -0.0550089 0.348311
0.292613 -0.0444152 0.448315
0.00977818 0.102932 0.0435051
-0.0381779 -0.0427802 0.116324
-0.390855 -0.0604845 0.289167
0.320161 -0.0500383 0.293182
0.253127 -0.0394072 0.36574
-0.0496898 -0.106248 0.481213
-0.0652928 -0.0111488 0.411782
0.150126 -0.0701215 0.533525
0.0520161 -0.101391 0.519668
-0.147541 -0.0319769 0.325787
0.108499 -0.0181775 0.36943
0.317763 -0.0795554 0.397887
-0.062284 -0.0289397 0.627759
-0.0903509 -0.0135222 0.524524
-0.149548 -0.0973817 0.552286
0.0398065 -0.0299063 0.713724
-0.0950467 -0.0438801 0.566642
-0.00961007 -0.000647563 0.0790477
0.0276299 -0.122433 0.486846
0.0166046 -0.0699999 0.126895
0.0716744 0.0537704 0.106091
-0.0477228 -0.0857393 0.714666
-0.0611341 -0.0100201 0.454151
0.293034 -0.0443091 0.398918
-0.0128814 0.0209735 0.128073
0.207608 -0.0723111 0.339113
-0.419988 -0.0648692 0.279379
0.0577115 -0.00877703 0.482299
-0.15562 -0.0815232 0.506542
-0.0315842 -0.0339409 0.0838237
0.0585014 -0.0838742 0.698346
-0.107483 -0.0158917 0.474864
0.450993 -0.0870845 0.266404
0.335423 -0.0803302 0.350298
0.022402 0.0122044 0.634141
-0.0521535 -0.0253856 0.697641
0.0383715 0.0049077 0.612414
-0.0881141 0.0599136 0.040077
0.0127929 -0.0841991 0.183465
-0.414121 -0.0850495 0.323642
-0.0516858 0.0712422 0.0636937
0.0225987 -0.126089 0.680968
-0.043076 -0.0405854 0.160632
-0.196252 -0.0717948 0.371474
-0.0230201 -0.119547 0.396772
-0.459006 -0.0694167 0.340508
-0.0493733 -0.106635 0.586154
0.0587887 -0.0377346 0.701022
0.322858 -0.0499721 0.343
-0.353394 -0.0812482 0.318715
-0.00489789 0.0155727 0.604551
0.0524872 0.0608478 0.0460615
0.0403384 -0.1132 0.592724
-0.186477 -0.0290538 0.407394
0.0901118 -0.0658547 0.464575
0.111762 -0.0664526 0.361505
0.131967 -0.0265148 0.329738
0.385951 -0.0585852 0.411129
-0.31008 -0.0600877 0.280839
-0.435078 -0.065705 0.354834
0.445448 -0.0833519 0.3785
-0.439496 -0.067801 0.270041
0.314377 -0.0792559 0.383206
-0.0135161 -0.00301517 0.164122
0.379894 -0.0828198 0.303932
-0.425601 -0.0716504 0.248138
-0.052899 0.0547122 0.114707
-0.100098 -0.0242532 0.559712
0.200676 -0.0315727 0.3744
0.141707 -0.0687894 0.42581
0.0428881 -0.0999554 0.33563
0.0420453 -0.0227704 0.270109
-0.33474 -0.0505211 0.410388
0.412626 -0.0848552 0.309384
-0.0178892 -0.123591 0.412374
0.354574 -0.0811571 0.276338
-0.0691468 -0.0598731 0.66028
0.452025 -0.0692144 0.320372
-0.0639456 0.0621917 0.0238204
-0.441197 -0.066753 0.373813
-0.0614251 0.0598885 0.0537042
-0.214611 -0.0721247 0.502804
-0.0879424 -0.0651098 0.383095
0.0528835 -0.0986479 0.471407
0.0192472 -0.0114715 0.129546
0.394483 -0.0595442 0.377557
-0.0710633 0.0704079 0.0599103
-0.251082 -0.0382389 0.407414
-0.0150427 0.095181 0.116078
-0.215175 -0.03343 0.395313
0.011559 0.115063 0.0682543
0.429572 -0.085782 0.274906
0.248731 -0.0758226 0.47401
0.0235454 -0.101808 0.756865
0.18562 -0.0279928 0.439519
-0.144243 -0.0238323 0.343523
-0.209869 -0.0338257 0.307847
-0.0630419 -0.0361136 0.652122
-0.0516429 -0.00994147 0.652051
-0.460727 -0.0710099 0.240258
-0.0461936 -0.000501542 0.490792
0.00689408 0.0114359 0.673856
0.0983311 -0.0418553 0.341294
0.185341 -0.0857453 0.552419
-0.0321435 -0.0899739 0.757135
0.0212918 -0.0407491 0.747798
0.062948 -0.0690827 0.344556
0.418377 -0.0632988 0.382947
-0.349837 -0.0528057 0.403659
0.164665 -0.0976462 0.462867
-0.148637 -0.0693702 0.447625
-0.437227 -0.0865056 0.324708
-0.0105758 0.0772529 0.0650586
-0.0525888 -0.100195 0.530926
-0.22534 -0.0735076 0.355793
-0.188322 -0.0852091 0.503493
-0.133529 -0.0504176 0.546197
-0.278927 -0.0768475 0.356934
0.337707 -0.0525613 0.300565
-0.0324668 -0.00325649 0.699424
0.356046 -0.0817406 0.36595
0.388004 -0.083213 0.270875
0.00511367 0.00428556 0.252476
0.0529255 -0.00572949 0.507276
-0.375428 -0.0712565 0.417609
0.232987 -0.0372125 0.303976
0.0683113 -0.0525812 0.647835
-0.0318861 -0.000841865 0.325649
0.163455 -0.104669 0.491191
0.344139 -0.0813693 0.416128
-0.0395456 -0.105095 0.713804
0.25948 -0.0604114 0.479318
0.114314 -0.0664636 0.338994
0.0351449 -0.0224604 0.156876
0.340494 -0.0524696 0.349029
0.309215 -0.0628982 0.281197
0.03058 0.0738528 0.0360397
-0.344318 -0.0540416 0.433369
-0.0791496 -0.0379714 0.346563
-0.0115478 -0.0444195 0.0585338
0.0447092 -0.110024 0.543465
0.158838 -0.0937726 0.544325
0.17229 -0.0707539 0.433211
0.472346 -0.074548 0.344085
-0.000829071 -0.104798 0.77692
-0.0142298 0.0793843 0.128741
0.129493 -0.0528343 0.332765
0.015377 0.0355954 0.158419
-0.303275 -0.0786026 0.388802
0.0248232 -0.0540176 0.77508
-0.0709706 -0.0603767 0.583376
-0.427787 -0.0761609 0.389946
0.0198635 -0.0765804 0.167274
0.0659521 -0.0733739 0.525321
-0.196868 -0.0295142 0.46518
0.349129 -0.0811906 0.35063
0.467401 -0.0718757 0.287527
-0.0583311 -0.0837772 0.417872
-0.100975 -0.0482391 0.340883
0.156508 -0.0690509 0.328683
-0.0721903 -0.0667731 0.616343
-0.439668 -0.0676828 0.302395
-0.0103741 0.00615998 0.301766
0.0389146 0.00557792 0.477541
0.0393304 0.070344 0.0820428
-0.407204 -0.0630497 0.262939
0.412785 -0.0693201 0.398608
-0.268537 -0.0431013 0.291737
0.145416 -0.0684291 0.341451
-0.431357 -0.0862885 0.342669
0.0118043 -0.12875 0.560232
0.0614748 -0.0858013 0.632328
-0.150204 -0.0226321 0.452354
-0.199056 -0.0312566 0.380269
0.331407 -0.0517491 0.285823
-0.194952 -0.0721632 0.436608
-0.0114558 0.00195667 0.114267
0.240653 -0.0361102 0.441682
0.269937 -0.0763313 0.362983
0.0184432 0.0112106 0.448679
0.224432 -0.0741732 0.469786
-0.281378 -0.0428795 0.462979
-0.224326 -0.0335728 0.445362
0.0132062 0.0817492 0.100212
-0.145572 -0.0222216 0.517198
-0.0384132 -0.0451022 0.730585
-0.189163 -0.0370575 0.513909
0.182097 -0.0273587 0.478669
0.279051 -0.0463652 0.466989
-0.0255433 0.0569908 0.11171
0.296896 -0.0465088 0.30919
-0.164244 -0.0388303 0.321617
-0.126325 -0.0194869 0.534817
-0.0377311 -0.106603 0.350094
0.0248981 -0.0616938 0.11782
-0.454289 -0.0878747 0.356669
0.0114957 0.00671175 0.684918
-0.395567 -0.0607425 0.335018
0.378387 -0.0584885 0.314454
0.037121 0.00597739 0.599241
-0.0309805 -0.0367613 0.723682
-0.00926503 0.105475 0.0334014
-0.0303826 0.0740753 0.0322825
0.14957 -0.0234131 0.423883
0.0164389 0.0111697 0.488624
0.208341 -0.0722001 0.310825
0.186043 -0.0977077 0.497581
0.374652 -0.0828641 0.360643
0.0150301 0.0535549 0.141679
0.122481 -0.0180844 0.491572
0.0605898 -0.0107702 0.394746
-0.0196067 -0.090644 0.230509
0.344678 -0.0810898 0.375096
0.00142375 -0.124771 0.426411
-0.363068 -0.0820586 0.350036
0.0233404 0.0677592 0.123148
-0.160772 -0.0254599 0.392601
-0.0438068 0.000354322 0.609463
0.362402 -0.0819134 0.336642
-0.180506 -0.0730991 0.528466
0.145709 -0.0335403 0.537067
0.0518296 -0.00652926 0.632072
0.0630801 -0.0755744 0.477847
0.0624994 -0.0830451 0.64736
0.184087 -0.0712555 0.401457
-0.173266 -0.108357 0.525442
-0.0531254 -0.0321374 0.310755
-0.263133 -0.0414035 0.321536
0.265174 -0.041126 0.369554
-0.0406716 -0.0527035 0.747167
0.0729654 -0.0647053 0.454171
0.0143448 0.0390041 0.140585
0.0748034 -0.0118281 0.564757
-0.254334 -0.075563 0.390218
0.00560743 -0.0451778 0.777571
-0.386579 -0.058332 0.380948
-0.0840689 0.0533295 0.098539
0.0226637 -0.0998374 0.283969
0.0465049 -0.00440113 0.394759
0.0274476 -0.00744299 0.251254
-0.0108499 0.0363578 0.0856641
0.0621298 -0.0181722 0.578817
0.422203 -0.0646454 0.333486
0.229532 -0.0357264 0.381101
-0.109083 0.0720636 0.0211431
-0.136136 -0.0214771 0.420648
-0.190735 -0.0874324 0.535691
0.00743583 -0.0992691 0.784745
0.0376811 -0.0647678 0.173957
0.118094 0.0592796 0.0335649
-0.00535163 0.0133918 0.514636
-0.114888 -0.0184427 0.413322
0.240825 -0.0743656 0.337784
-0.0534371 -0.00703749 0.622083
-0.129625 -0.0682738 0.464123
-0.0572531 -0.0654188 0.295324
0.0246687 0.0100764 0.508872
-0.15996 -0.100517 0.480773
0.0699886 -0.0299927 0.578388
-0.219734 -0.0344012 0.372584
