0.253733 -0.0376764 0.309312
0.436074 -0.0636101 0.386048
-0.0469296 -0.000151224 0.574634
0.0476611 -0.0918546 0.325396
-0.0537466 -0.0163618 0.667749
-0.327639 -0.0672285 0.416508
-0.0416714 -0.0377941 0.142594
0.00465389 0.00737317 0.267791
0.0690057 -0.0502642 0.641604
-0.143548 -0.0505166 0.328964
-0.35344 -0.0519647 0.34293
0.0959121 -0.0492543 0.158726
0.287022 -0.0748329 0.347885
0.0428188 0.00360492 0.608361
0.0129978 0.0934999 0.0953849
0.0551976 -0.0896015 0.447939
0.00170273 -0.0342043 0.058575
-0.0255401 -0.017493 0.0944614
-0.022208 -0.0751194 0.791441
-0.209485 -0.0701782 0.373575
-0.284729 -0.0561055 0.466487
0.193436 -0.0957923 0.458787
0.0378582 -0.0179726 0.215
-0.0795254 -0.0606812 0.576335
0.179496 -0.0260977 0.367555
-0.0442587 -0.0260839 0.225354
0.0240057 -0.112326 0.720765
0.189091 -0.0604343 0.316091
0.00077609 -0.102686 0.2927
-0.139397 -0.0188944 0.525539
-0.130995 -0.0660252 0.492052
0.434417 -0.064355 0.30919
-0.0678607 -0.00920213 0.401477
0.148166 -0.0200965 0.515246
-0.0150467 0.0809484 0.129409
-0.32782 -0.0720319 0.356896
-0.0844833 -0.063264 0.51541
-0.0295143 0.00672836 0.365351
0.130943 -0.0184782 0.400322
-0.0593086 -0.00884501 0.356993
-0.0264211 -0.0832743 0.224709
0.33334 -0.0675771 0.416251
-0.447606 -0.0850362 0.361953
0.049417 -0.0303774 0.275188
0.162437 -0.0678578 0.468707
0.277104 -0.0392386 0.431865
-0.159118 -0.116737 0.458525
-0.148743 -0.0209816 0.409535
-0.229361 -0.0615541 0.304493
-0.0138019 0.0436789 0.131311
-0.0289499 -0.11908 0.523006
-0.190149 -0.0692668 0.412944
-0.021373 -0.114712 0.353992
0.312664 -0.125581 0.446745
-0.0952512 -0.0635455 0.440972
-0.131081 -0.0400309 0.152927
-0.386852 -0.0807916 0.301873
0.175745 -0.0489878 0.427662
0.117442 0.0593238 0.0514779
-0.0555583 -0.0916489 0.522822
0.00957012 0.129443 0.03133
0.0407143 -0.110533 0.531982
-0.0704436 -0.00886117 0.457507
-0.441576 -0.0840424 0.263557
0.0997047 -0.0145585 0.360387
0.0292323 -0.118875 0.635003
0.014945 0.0599084 0.118536
0.197069 -0.0697046 0.413638
-0.0125182 0.0151375 0.433808
0.0517933 -0.0948968 0.395973
-0.16725 -0.0248718 0.328913
-0.0349599 0.0626834 0.0656153
0.017052 -0.00925105 0.112255
0.208602 -0.0301312 0.383285
-0.402705 -0.0821015 0.352013
0.00869588 -0.00994093 0.0589596
-0.0844623 -0.0468352 0.155131
-0.00948806 0.0395877 0.0607414
-0.0283021 -0.0151803 0.137345
0.130813 -0.048829 0.121507
-0.128522 -0.0651688 0.37868
-0.0126926 0.0519604 0.11042
0.0582228 -0.0279157 0.349126
0.00962842 0.0152409 0.490903
0.050272 -0.00362018 0.418845
0.265111 -0.0611499 0.294101
-0.299989 -0.114292 0.422586
-0.0300584 0.0132844 0.647736
-0.0629806 -0.0608932 0.326045
-0.194656 -0.0494175 0.514172
0.0524673 -0.028551 0.311417
-0.18052 -0.0687879 0.484331
0.079488 -0.0406638 0.110398
0.033791 -0.0947719 0.301836
0.0681479 -0.0646014 0.692797
-0.0556027 0.0706784 0.020873
-0.368901 -0.0802664 0.390378
-0.0871652 -0.0515125 0.207356
0.39631 -0.0821042 0.399673
-0.407266 -0.0591707 0.391484
0.00813123 6.10799e-05 0.702266
0.00633463 -0.0871927 0.212629
-0.314116 -0.0762253 0.284583
0.0365288 -0.0328694 0.104541
0.00182762 -0.112551 0.751958
0.0661244 -0.0638936 0.411139
-0.0557841 -0.0862739 0.400387
-0.0634863 -0.0232373 0.601315
0.302821 -0.0602146 0.283296
-0.0277062 -0.107597 0.726746
-0.0275234 0.0119856 0.553282
0.165873 -0.118377 0.456973
0.362519 -0.0534979 0.329773
-0.263313 -0.0386718 0.345307
0.189097 -0.0798402 0.472452
0.027628 0.0753812 0.057914
-0.340619 -0.048848 0.396907
-0.147684 -0.0204404 0.436568
0.397176 -0.0587626 0.317612
0.00397536 0.0539339 0.0306744
-0.0825901 0.0708759 0.0740045
-0.343732 -0.0783609 0.345725
0.156886 -0.0232639 0.336819
-0.00519938 0.00499148 0.214635
-0.00837584 0.0890967 0.0226106
-0.0124906 -0.121059 0.411175
0.449616 -0.0654383 0.348599
-0.454309 -0.0661806 0.362479
0.010243 0.00197893 0.0925828
0.32705 -0.0836883 0.447477
-0.0082061 -0.126346 0.54853
-0.0883952 -0.0114726 0.563166
0.195164 -0.111405 0.508409
0.136369 -0.0203875 0.330639
0.0914021 -0.0111891 0.524537
-0.0833714 -0.0255297 0.0955001
0.00152006 -0.126346 0.58289
0.0564733 -0.0295994 0.693012
-0.397891 -0.0590897 0.277466
0.0220548 -0.0531866 0.0897071
0.195541 -0.0318924 0.510072
0.192293 -0.0809413 0.528033
-0.254547 -0.0728451 0.352427
-0.0876021 0.0622007 0.0431402
0.101356 -0.0639655 0.44612
-0.1123 -0.0653433 0.547413
0.242 -0.0720742 0.353631
0.412744 -0.0822315 0.252004
0.010646 0.0135855 0.350638
0.178242 -0.0781586 0.441101
-0.0666043 -0.0744274 0.634631
0.456531 -0.0849973 0.275738
0.438104 -0.0844901 0.369479
-0.253225 -0.0732502 0.425196
0.0726336 -0.00949766 0.431895
-0.101776 -0.018565 0.338243
0.298631 -0.113581 0.395026
-0.182353 -0.0262776 0.382741
0.392756 -0.0567869 0.381777
0.112078 -0.0643928 0.413726
-0.0653973 -0.0663485 0.444535
-0.0100356 0.0166853 0.600883
0.0475074 -0.06691 0.241119
0.107156 -0.0347128 0.172539
-0.249763 -0.0349099 0.428767
-0.280032 -0.0605321 0.28983
0.162266 -0.0232332 0.389321
0.348541 -0.0783149 0.271867
-0.303239 -0.0908563 0.357927
0.154352 -0.113403 0.523893
0.0482497 -0.0213269 0.144092
-0.386496 -0.0808515 0.321919
0.0532627 -0.0926623 0.416761
-0.305719 -0.0758886 0.328068
0.046782 0.00208666 0.524865
-0.258428 -0.0729329 0.321774
0.104494 -0.0487335 0.562409
0.0757603 -0.063298 0.573453
-0.423863 -0.0615182 0.357257
0.0444757 -0.026133 0.23031
-0.407829 -0.0821517 0.317361
0.014427 0.0144223 0.162053
-0.130068 -0.0475883 0.119917
0.00113348 -0.0387956 0.771459
-0.0537249 -0.0844091 0.339679
0.0690628 -0.0622119 0.488859
-0.309287 -0.0768667 0.435867
0.310049 -0.0842488 0.4179
-0.464784 -0.0779018 0.297023
0.0046748 0.0157583 0.556372
0.00954387 0.040839 0.0613189
-0.030114 -0.0521498 0.115813
0.157643 -0.0210946 0.454251
0.0118542 0.0603267 0.0930521
0.0221508 -0.06478 0.131945
0.196628 -0.0694692 0.38612
-0.326403 -0.0469026 0.424901
-0.0688483 -0.0441857 0.252686
-0.11549 -0.0155229 0.548762
-0.190794 -0.0922539 0.449368
-0.020924 0.00227928 0.282411
-0.016071 -0.00297134 0.166631
-0.163362 -0.0711777 0.484636
0.0985765 0.0732476 0.0451525
-0.345685 -0.103493 0.380363
-0.188003 -0.0256298 0.444709
-0.168173 -0.02828 0.524267
-0.354503 -0.0786754 0.269066
-0.165959 -0.0794747 0.428666
-0.0117872 0.0757815 0.0621089
0.406086 -0.082188 0.335917
0.0311596 -0.117475 0.585587
-0.314377 -0.0810136 0.380935
0.156185 -0.0829437 0.431924
0.000854224 -0.0264767 0.728996
-0.00951009 0.0151838 0.386758
-0.0507549 -0.101947 0.584677
-0.208278 -0.029707 0.412262
-0.00289483 -0.118654 0.382549
0.0734939 -0.0418986 0.578607
0.331077 -0.0579902 0.380986
-0.0486639 -0.0503512 0.724753
0.00288118 -0.0681787 0.112291
-0.105006 -0.044897 0.197669
-0.261851 -0.0587226 0.478431
0.0601147 -0.0166529 0.59042
-0.298921 -0.0438749 0.349374
-0.0319927 0.00393125 0.687246
0.0466797 -0.0715089 0.73092
0.453662 -0.0850166 0.316513
-0.00011339 -0.126346 0.474673
0.0503845 -0.102723 0.64597
-0.347813 -0.0514604 0.313882
-0.346187 -0.121896 0.431328
0.0286515 0.00662182 0.35798
0.0126821 0.0167409 0.662772
0.335101 -0.0509433 0.438567
0.168813 -0.0678768 0.405452
-0.0591326 -0.0223516 0.121044
-0.00891827 0.0104612 0.0611373
0.153086 -0.0664478 0.339911
0.306883 -0.0896462 0.441619
0.201144 -0.0283172 0.422613
0.317483 -0.0854312 0.35211
0.102943 -0.0644634 0.529891
0.13538 -0.0345853 0.54426
0.0654462 -0.0548073 0.349615
0.0340519 -0.0767609 0.213371
-0.116972 0.0743191 0.0192759
-0.46207 -0.068761 0.238685
-0.0572677 -0.0265315 0.192824
0.0582858 -0.0859538 0.497079
-0.061631 -0.0830048 0.620727
-0.164215 -0.121715 0.486842
0.371165 -0.0747039 0.263441
-0.101342 -0.0461694 0.115275
0.121859 -0.0655924 0.520461
-0.0718706 -0.047482 0.180124
0.0881812 -0.038555 0.217608
0.435705 -0.0754239 0.245399
0.0850662 -0.0625421 0.391951
0.150246 -0.0859987 0.516043
-0.0707327 -0.054011 0.607109
0.00699497 0.120081 0.0976388
0.050697 -0.0776305 0.301517
-0.193899 -0.028829 0.32208
-0.403169 -0.0824296 0.387467
0.0088287 -0.123877 0.444718
-0.0805927 -0.0622167 0.385803
-0.306982 -0.121849 0.360945
-0.16514 -0.1176 0.534793
-0.0379388 0.0644407 0.0392698
0.176755 -0.0303525 0.317636
0.1706 -0.0730961 0.528239
0.314201 -0.0567517 0.377137
0.00591641 0.0163015 0.410365
0.0110073 0.0905074 0.0682022
0.418189 -0.0827446 0.309833
0.0204415 0.00382626 0.295467
0.070082 -0.0681994 0.618803
-0.343294 -0.0783468 0.433416
-0.25506 -0.0377573 0.319331
-0.103467 -0.0316678 0.152901
0.0417902 -0.102764 0.363948
0.334681 -0.109883 0.344897
-0.0131572 0.0149842 0.468159
-0.0152639 0.0362031 0.157775
-0.167766 -0.0223205 0.458248
-0.314737 -0.0527258 0.383149
0.133718 -0.0655128 0.38141
0.0229482 -0.121134 0.694027
0.0596502 -0.0223688 0.637142
-0.0466946 -0.0211978 0.144878
-0.11887 -0.0514911 0.336196
-0.0120421 0.0187113 0.115858
-0.125387 -0.0652151 0.412482
-0.177797 -0.0682155 0.375286
0.00975239 0.0651949 0.0436689
-0.146235 -0.0194814 0.49832
0.341468 -0.0872672 0.41046
-0.120413 -0.0165347 0.431815
0.0972625 -0.0402171 0.341912
-0.413374 -0.0822778 0.254922
-0.155144 -0.10021 0.418961
0.145632 -0.0932773 0.478626
0.190988 -0.0524617 0.516129
0.219302 -0.0594432 0.307326
0.119341 -0.053921 0.165154
-0.0479538 -0.101754 0.412464
0.278953 -0.040538 0.3784
0.0686575 0.0757974 0.0242404
0.161543 -0.120613 0.505279
0.116614 -0.0160514 0.42577
0.316185 -0.13126 0.421579
-0.136948 -0.0668404 0.537072
0.229712 -0.0324661 0.48035
0.412749 -0.0598305 0.373409
0.0655729 -0.0659372 0.443623
-0.44374 -0.0842469 0.29083
0.0652401 0.0589425 0.0905509
-0.408854 -0.0604408 0.319674
0.12481 -0.0183764 0.351698
-0.121139 -0.0155814 0.467288
0.0932799 0.0591563 0.0673061
0.246064 -0.0726702 0.400606
-0.194801 -0.0836489 0.531704
0.292308 -0.0753752 0.375923
-0.318359 -0.0471834 0.305463
0.057435 0.072811 0.0706587
0.0606727 -0.0484477 0.222729
-0.219836 -0.0308808 0.479608
0.341097 -0.078418 0.375961
0.168679 -0.0233109 0.511962
0.267087 -0.073421 0.311677
0.0722804 -0.0235918 0.103542
0.0313476 0.0115592 0.540308
-0.0122382 -0.00571623 0.118015
0.0394561 -0.0809875 0.25493
0.257477 -0.0379448 0.333977
-0.0698174 0.0692854 0.103739
0.297568 -0.0424274 0.430796
-0.0649236 -0.0369547 0.647016
0.339402 -0.127237 0.428746
-0.0121285 0.0844649 0.08701
-0.0288832 -0.039804 0.0791658
0.000958944 -0.076662 0.156308
-0.317747 -0.0899386 0.448983
0.0105928 -0.104126 0.772233
0.299734 -0.0442217 0.330444
-0.220838 -0.0321712 0.365566
-0.196024 -0.104998 0.491904
0.000849856 -0.118122 0.731037
0.224714 -0.0715376 0.434923
0.129818 -0.016491 0.474272
-0.0498643 -0.00278608 0.451794
0.183445 -0.119954 0.531254
-0.389595 -0.0598471 0.411014
0.391292 -0.0574182 0.346248
-0.00645569 -0.126346 0.602148
-0.161276 -0.0668783 0.325566
0.243611 -0.0347552 0.407013
0.267875 -0.0736288 0.343556
0.0183895 -0.126346 0.52869
-0.0392189 -0.0146132 0.278381
-0.155773 -0.067325 0.441362
0.461136 -0.0858035 0.349818
-0.329501 -0.0773165 0.316586
0.138316 -0.0662522 0.442979
0.0515486 -0.0264189 0.201834
0.346871 -0.103084 0.388014
0.0632997 -0.0783597 0.552015
0.147128 -0.0562867 0.539602
-0.0822691 -0.0123802 0.344074
-0.113065 0.0715243 0.04704
-0.051984 -0.0966877 0.440663
-0.173823 -0.0688956 0.509693
0.0372206 -0.113071 0.506896
0.415151 -0.0615503 0.298485
0.382445 -0.0777163 0.412562
-0.335186 -0.120381 0.360066
-0.192913 -0.0802945 0.500008
-0.221563 -0.0380151 0.30533
-0.0135287 0.0892875 0.101401
-0.0541303 0.0613585 0.0696001
0.0448416 0.0702901 0.11264
-0.278018 -0.0746467 0.399745
-0.345639 -0.118261 0.405123
-0.0259078 -0.117229 0.425179
-0.0389506 -0.111329 0.691697
-0.345498 -0.0789333 0.409779
-0.000135498 -0.0758297 0.807785
0.0237702 0.0126046 0.505387
-0.0361896 -0.0775111 0.761229
-0.345788 -0.0590474 0.270975
0.211183 -0.0699965 0.324965
0.0370643 -0.0471246 0.146113
0.223991 -0.0718312 0.481161
-0.379132 -0.0802327 0.277859
-0.162143 -0.0425083 0.4462
-0.120494 -0.0176894 0.354984
0.063763 -0.0313595 0.235352
0.0158756 0.0143319 0.438951
-0.381196 -0.0562512 0.328665
0.00101816 -0.115208 0.348074
0.0938995 -0.0332299 0.188232
-0.153562 -0.0796242 0.516131
0.168904 -0.111379 0.429686
-0.00668919 0.0631914 0.14378
0.0246754 0.0691801 0.134534
0.0260385 -0.0706201 0.790949
0.0403395 0.00198623 0.383993
0.378176 -0.0562406 0.268999
-0.159977 -0.022921 0.387409
-0.207167 -0.0697161 0.319456
-0.0506768 -0.00177891 0.493289
0.145167 -0.0668652 0.484147
0.317081 -0.0453672 0.420842
-0.36164 -0.0522747 0.412485
0.0342853 -0.0432074 0.739603
-0.173325 -0.113957 0.436698
-0.300804 -0.0761452 0.413372
0.450985 -0.0669904 0.27592
0.368622 -0.080048 0.362658
-0.260102 -0.03763 0.388766
0.311733 -0.124755 0.35834
-0.0424313 -0.00503677 0.330326
-0.337426 -0.0902206 0.447537
0.362979 -0.0522927 0.396971
-0.00893713 0.0612304 0.042588
-0.103571 -0.0643488 0.494397
0.0235285 -0.00154085 0.25851
-0.00913602 0.121151 0.0257506
-0.0144198 -0.106888 0.311283
-0.044448 -0.0641466 0.214194
-0.010914 -0.0955839 0.783189
0.168499 -0.0663708 0.322306
-0.436456 -0.0648637 0.268888
-0.0702083 -0.00873976 0.57214
0.0102456 0.112393 0.0498131
-0.0170111 0.00684701 0.310939
-0.0296786 0.0105962 0.451489
-0.164459 -0.0242052 0.34767
0.102692 -0.0131783 0.464253
-0.226248 -0.0721072 0.490673
-0.0651053 -0.0752869 0.567192
-0.356575 -0.078999 0.320688
0.179231 -0.0539613 0.462842
0.182417 -0.0268046 0.347265
0.30373 -0.0757647 0.327858
-0.0121644 0.00271245 0.699454
-0.0751292 -0.0106964 0.377712
0.014984 0.0809616 0.125586
0.117169 -0.0503534 0.136724
0.0366548 -0.109144 0.410417
0.231208 -0.0334714 0.382014
0.114537 -0.0649653 0.480121
-0.00490797 0.131266 0.0766603
-0.135346 -0.0659652 0.429501
-0.393883 -0.0586013 0.25885
-0.263262 -0.063709 0.294656
-0.0359461 -0.113997 0.650281
0.419548 -0.0808184 0.392617
0.180751 -0.0458762 0.477923
-0.264411 -0.0374921 0.451073
0.327246 -0.0649988 0.347637
-0.0163843 0.013823 0.503387
0.154971 -0.0226199 0.361363
0.0595995 -0.0848185 0.671596
-0.106537 0.0575988 0.0681073
-0.0513061 -0.0790752 0.309429
-0.00117284 -0.0928597 0.242937
0.288878 -0.0599484 0.463874
0.00966922 -0.0534026 0.0653637
0.0313855 -0.0816057 0.769493
-0.0585344 -0.0425285 0.292808
-0.275554 -0.0739111 0.305109
0.315995 -0.0763643 0.289861
-0.0299273 0.0725775 0.094623
0.242734 -0.0344057 0.472736
-0.162031 -0.0729745 0.465349
0.0543922 -0.0442243 0.179225
-0.260185 -0.0738898 0.455202
0.0443124 0.00129252 0.436347
-0.0439332 -0.0782871 0.257713
0.221847 -0.0306872 0.433964
0.109007 -0.0636871 0.34077
-0.295676 -0.0750844 0.286415
-0.0220072 0.0149513 0.629987
-0.0495495 0.0584464 0.112216
-0.346365 -0.0514147 0.293675
-0.0541803 -0.0950088 0.541331
0.039167 -0.0167582 0.258904
0.336907 -0.0495794 0.340557
-0.373241 -0.0544552 0.358115
0.27906 -0.0751545 0.457652
0.415716 -0.0614068 0.321849
0.26963 -0.0380927 0.412249
-0.207265 -0.0705938 0.461628
0.266915 -0.0739296 0.394719
0.0278889 0.0115663 0.563188
0.303576 -0.120902 0.378396
0.331676 -0.070237 0.393891
0.0248199 -0.0471478 0.766943
-0.215792 -0.0708204 0.406356
-0.0112138 -0.126346 0.507581
-0.446117 -0.0721109 0.381674
-0.361208 -0.0796223 0.367989
0.0592288 -0.0165489 0.616388
0.0265312 0.0126348 0.594565
-0.427954 -0.0833267 0.304956
0.0808547 -0.0282211 0.167123
0.348671 -0.097009 0.432239
0.0680991 -0.0684392 0.663864
0.197008 -0.027321 0.483685
-0.0866259 -0.0333061 0.204524
0.121046 -0.029139 0.109682
0.281429 -0.0750422 0.431497
-0.0393907 -0.111494 0.602934
-0.205165 -0.0297693 0.372553
-0.04121 -0.0469548 0.165562
-0.329053 -0.0771628 0.28632
-0.0651121 -0.00849092 0.423435
0.20197 -0.0294498 0.361929
0.316276 -0.0630417 0.408465
0.0111519 0.0778124 0.02233
-0.056487 -0.0834323 0.377253
0.315832 -0.071548 0.448579
-0.0727424 -0.00787022 0.507231
-0.322899 -0.0908158 0.334698
0.300959 -0.105594 0.349429
0.0106268 0.0607587 0.0735704
-0.0205374 -0.0152246 0.074646
-0.0572463 -0.0482038 0.228875
0.245324 -0.0537424 0.299621
-0.181748 -0.0681767 0.327894
-0.101599 -0.0634568 0.376133
-0.043285 0.0050011 0.53637
0.043766 0.0641782 0.0401958
-0.0112161 0.0411875 0.0908645
-0.100632 0.0554613 0.09917
0.130593 -0.0651183 0.351465
0.0876289 -0.0505055 0.229714
-0.191587 -0.0689773 0.359306
-0.056718 -0.0307935 0.33469
0.178212 -0.0245814 0.437481
-0.0246603 -0.122197 0.61677
0.116455 -0.0544142 0.180746
-0.0582177 -0.0818329 0.424477
-0.0367064 -0.0189413 0.173134
0.13011 -0.0654266 0.401362
-0.0853823 -0.0623172 0.35861
-0.0325367 0.0108908 0.588489
-0.301595 -0.0677107 0.456475
-0.0487388 -0.00470453 0.377285
-0.00286991 -0.126346 0.657296
-0.172915 -0.0233819 0.477705
0.0680577 0.0575336 0.108252
-0.432113 -0.0839085 0.34623
0.0126756 0.0361846 0.117797
0.0674758 0.0565709 0.123488
-0.204835 -0.0281012 0.453214
-0.0526665 -0.0984042 0.608393
0.18914 -0.0688993 0.37196
0.0412568 -0.0852331 0.28297
0.0813602 -0.0114469 0.385578
0.111918 0.0620713 0.0313769
-0.026225 -0.12106 0.563057
-0.0531859 -0.0638911 0.27116
-0.330678 -0.0488065 0.326793
0.143457 -0.0189077 0.490598
0.0345344 -0.015832 0.190069
-0.0508634 -0.100948 0.470479
0.460372 -0.0684195 0.258631
0.0844919 -0.0100885 0.47933
-0.186427 -0.0691789 0.435156
-0.0880242 -0.045135 0.131343
-0.318845 -0.0467148 0.355276
0.265336 -0.0633464 0.476277
0.0862509 -0.0459232 0.14191
-0.330299 -0.0630756 0.375026
-0.0557006 -0.092781 0.564678
-0.199857 -0.0280096 0.496661
-0.067233 -0.0678063 0.683557
-0.119477 -0.0652368 0.472819
0.0274794 -0.120148 0.489882
0.314182 -0.0793239 0.376642
-0.0401677 -0.0903106 0.725403
-0.330586 -0.113718 0.338813
-0.000924086 -0.126151 0.68708
-0.126518 -0.0523342 0.138313
-0.230053 -0.0325775 0.414955
-0.0714561 -0.0626512 0.651424
0.37927 -0.0803074 0.297734
-0.00995053 0.113787 0.10797
-0.0380062 0.000558833 0.348159
-0.0551879 -0.00897757 0.624883
0.0243486 0.0723677 0.101894
0.116407 -0.0199305 0.334106
0.0310751 -0.0186009 0.125522
0.111974 -0.0144375 0.521993
0.299331 -0.0437094 0.365075
-0.0756494 -0.0625556 0.473606
-0.177795 -0.0877238 0.524018
0.317578 -0.0765331 0.306757
-0.311335 -0.0448893 0.448829
-0.27951 -0.0752933 0.466611
0.0644206 -0.00684851 0.523603
0.137747 -0.018768 0.53263
0.0383085 -0.108218 0.702759
0.0246493 -0.112698 0.353852
0.0805589 -0.0118785 0.357117
0.0950392 -0.0355986 0.0963426
0.00277451 -0.122355 0.426597
0.303014 -0.0879941 0.402542
-0.0124409 -0.0863578 0.208163
-0.120886 -0.0168541 0.411854
-0.0302073 -0.0338985 0.724342
0.139333 -0.0193514 0.429172
0.161965 -0.06558 0.440894
0.435272 -0.0632625 0.367667
-0.000406465 0.0276637 0.171013
-0.195594 -0.0941372 0.474274
-0.0648377 -0.0410382 0.131484
0.169899 -0.067751 0.379349
-0.22984 -0.0337046 0.350726
0.00196624 0.0142188 0.322326
-0.143072 -0.021002 0.354258
0.0691961 -0.0085678 0.571667
-0.35507 -0.0517295 0.364091
0.0384938 0.00777371 0.626602
-0.0869939 -0.0631372 0.455414
0.274371 -0.0405505 0.323655
0.0381568 -0.112391 0.55144
0.348225 -0.0500663 0.381562
0.31287 -0.129976 0.39704
-0.0473795 -0.0110478 0.687742
0.107398 -0.0464944 0.108448
-0.165454 -0.0591788 0.434167
0.0543363 -0.00610182 0.46183
-0.277465 -0.0411529 0.310798
-0.0589502 -0.0878316 0.644373
-0.217236 -0.0705392 0.35368
0.0454284 -0.0223586 0.164785
0.284323 -0.0516916 0.288243
-0.251135 -0.0727855 0.374035
0.191898 -0.0276713 0.383663
-0.31978 -0.0772839 0.406131
-0.334731 -0.10923 0.43673
-0.0320559 -0.0561296 0.138927
0.0988483 -0.0639681 0.471645
-0.0925204 -0.0632263 0.421128
0.0549533 -0.0921201 0.477787
-0.0547078 -0.030207 0.243426
0.238628 -0.0353025 0.325463
0.0631607 -0.0414348 0.139921
-0.0328808 0.0111441 0.518173
0.21333 -0.0702804 0.350834
-0.414388 -0.061629 0.259936
0.416389 -0.0619401 0.253726
-0.150954 -0.103918 0.438962
0.150164 -0.0666581 0.398418
-0.0659916 -0.069864 0.5121
-0.131292 -0.0652379 0.362832
-0.231385 -0.0716781 0.390792
0.0131512 0.0167268 0.612277
-0.0346775 -0.0701837 0.188231
-0.237786 -0.0716107 0.315477
0.245407 -0.0342105 0.427653
-0.454463 -0.084798 0.247302
0.340982 -0.116524 0.372519
0.0965083 -0.0144821 0.559709
0.00897293 0.105817 0.0282752
-0.0214354 -0.124501 0.473636
0.00445883 0.0122246 0.195218
0.11339 -0.0160695 0.389034
0.153776 -0.113893 0.47355
-0.0991739 -0.0393224 0.0965954
-0.126179 -0.0340813 0.13388
-0.0852121 -0.0463789 0.229549
-0.0144479 -0.0623047 0.102055
-0.296502 -0.0757658 0.394809
-0.284805 -0.0408332 0.395864
-0.0448982 -0.107493 0.518912
-0.300576 -0.104834 0.442891
-0.0319175 0.0597435 0.107821
-0.0326525 -0.0113965 0.221036
-0.272815 -0.0744789 0.427099
0.0730762 -0.0097959 0.412736
-0.0624011 -0.0439587 0.165551
0.225659 -0.0714217 0.404261
-0.013324 -0.0199098 0.722131
-0.309987 -0.0762761 0.349172
0.36485 -0.0799903 0.421673
0.0513608 -0.00342841 0.556759
-0.132579 -0.0170622 0.483932
-0.34861 -0.0996923 0.413627
-0.0638068 -0.0476232 0.344979
-0.227997 -0.0718492 0.455311
-0.0946705 -0.059955 0.568078
0.320858 -0.0536834 0.333144
0.040847 -0.0575706 0.183081
-0.285327 -0.0746211 0.326428
0.0633934 -0.0685449 0.36482
0.186793 -0.107142 0.44436
0.0169378 -0.126346 0.600461
0.0338762 0.0101798 0.486169
-0.438121 -0.0638568 0.344151
0.38813 -0.0811384 0.345527
0.343246 -0.0934548 0.447035
-0.0474982 -0.080192 0.289391
0.137718 -0.0543146 0.156159
0.00491853 0.0986785 0.0120053
0.0967786 0.0574579 0.104268
0.436406 -0.08371 0.258411
0.405184 -0.081846 0.279243
0.39792 -0.0590266 0.289989
0.0294906 -0.105374 0.334243
0.0554865 -0.0938532 0.632567
0.00564866 0.131902 0.0507911
-0.148894 -0.109856 0.48146
0.332478 -0.0773653 0.284319
0.0447698 -0.0203667 0.292714
-0.0835 0.0728104 0.0558239
-0.119193 -0.037754 0.169091
-0.0423461 -0.098799 0.339626
-0.0540638 -0.0947694 0.502896
-0.337249 -0.0564392 0.438149
-0.062041 -0.0395226 0.686343
0.0525374 0.0746357 0.0538425
-0.0119734 -0.126346 0.528743
0.431604 -0.0634021 0.334307
-0.0874287 0.0689577 0.0933069
0.0280533 0.0136788 0.648894
0.0804221 -0.0479405 0.171082
0.32697 -0.0920448 0.338838
0.33677 -0.0499922 0.293321
0.24293 -0.0716359 0.300669
-0.330117 -0.130825 0.438812
-0.0908884 -0.0637315 0.534307
0.000403127 -0.0966208 0.263053
-0.113647 -0.0646362 0.433079
0.0171147 0.0659773 0.0280188
-0.209539 -0.0533691 0.309953
0.301109 -0.104946 0.445299
0.416064 -0.0619829 0.397263
0.0213971 -0.119874 0.418238
0.171723 -0.0654919 0.511329
-0.0148891 0.00134052 0.192626
-0.472579 -0.0711596 0.367116
-0.0052605 -0.0540983 0.797315
0.331162 -0.0523756 0.400138
-0.0425833 -0.0246831 0.205823
-0.109151 -0.0645188 0.454961
0.19648 -0.0292844 0.31624
-0.237846 -0.0407596 0.300878
-0.375245 -0.0558235 0.266533
0.0785474 -0.0367051 0.347132
0.0309596 -0.0119871 0.70908
-0.00733961 -0.0325454 0.750065
-0.0592095 -0.0294018 0.221309
-0.18323 -0.0865481 0.433141
-0.0696239 0.0595408 0.0792372
0.0147275 -0.126346 0.645492
0.24394 -0.0731016 0.477947
-0.140105 -0.0665101 0.474722
-0.0782103 -0.0632356 0.558654
0.213777 -0.0714182 0.500536
0.455735 -0.0848986 0.256038
-0.0179967 -0.0466411 0.0660994
0.439454 -0.0653276 0.260388
0.0468246 -0.00588099 0.671061
-0.0267884 0.0121371 0.668869
-0.0458353 -0.106812 0.673425
0.30713 -0.0950431 0.335691
-0.0869803 -0.0424448 0.571436
-0.176275 -0.0679506 0.348039
0.0589732 0.0644683 0.0287546
-0.0184002 0.0124187 0.403006
-0.348456 -0.111153 0.445547
-0.0717049 0.0637177 0.0324185
0.0951648 -0.012846 0.429735
0.0382892 -0.0998654 0.719508
-0.171706 -0.122454 0.503466
0.0589924 -0.046752 0.277335
0.016596 -0.111365 0.738367
0.327127 -0.0774776 0.365987
0.33931 -0.084904 0.430727
0.00738202 0.0100705 0.684862
0.357267 -0.0529572 0.30288
0.381697 -0.0552156 0.396509
-0.178792 -0.0663728 0.466094
-0.111005 0.0613974 0.0384563
-0.094749 -0.0112244 0.49687
-0.111358 -0.0269159 0.0866837
0.39637 -0.0731981 0.256524
-0.156586 -0.0974511 0.535894
-0.0686067 -0.0305763 0.349384
0.088014 -0.0110063 0.543193
-0.424458 -0.0788925 0.390494
0.178114 -0.0432358 0.446051
-0.402755 -0.0816903 0.277173
-0.396426 -0.0573483 0.376168
-0.0499507 -0.00446888 0.396545
0.0487751 -0.00334599 0.399979
-0.0876932 -0.0122594 0.392202
0.115652 -0.0167223 0.370171
-0.469496 -0.0727046 0.325073
0.0673917 -0.071571 0.596749
-0.244789 -0.0728208 0.441922
0.0301708 -0.118193 0.653703
-0.162463 -0.0385734 0.322605
-0.0491025 -0.0367793 0.116371
-0.106841 -0.0486057 0.136199
-0.0804709 -0.0240046 0.127132
0.0980864 -0.0510678 0.179672
-0.177282 -0.0548094 0.445468
-0.0252824 -0.116733 0.703209
0.335342 -0.0482205 0.418476
0.115955 -0.0647717 0.43193
-0.12032 -0.0552045 0.554004
0.0283418 -0.113564 0.396798
0.329956 -0.0982483 0.437339
-0.0198253 -0.0549728 0.785779
0.017393 -0.104528 0.300848
0.0119014 0.077682 0.0856773
0.164222 -0.0621025 0.486249
-0.0452896 0.00231648 0.554614
0.40031 -0.0580615 0.359768
0.320825 -0.0805743 0.433253
-0.362584 -0.0535629 0.324854
-0.180003 -0.0514683 0.470407
-0.400847 -0.0744207 0.403999
0.449205 -0.0682439 0.242111
0.0126337 0.00334781 0.219248
0.110678 -0.0293258 0.556525
0.19744 -0.0922616 0.494983
0.0252896 -0.0772399 0.192878
0.0422395 -0.10353 0.382771
-0.310867 -0.126664 0.378294
-0.465146 -0.0842455 0.35633
-0.311831 -0.128707 0.422843
-0.0517782 -0.0706978 0.719315
0.163565 -0.0676947 0.424883
0.0453015 -0.105259 0.443461
0.00893998 0.0143715 0.0600113
0.15075 -0.0987015 0.533998
-0.197311 -0.105937 0.510144
0.216776 -0.0709751 0.420164
-0.123089 -0.0164049 0.531561
-0.084314 0.0744268 0.0370562
-0.272005 -0.0739531 0.355998
-0.027305 0.0101035 0.423391
0.421437 -0.0832325 0.345673
-0.389861 -0.0814747 0.375071
0.0562809 -0.0311365 0.329037
-0.303748 -0.0586398 0.282968
0.0472379 -0.0614775 0.223762
0.200117 -0.0286825 0.398812
0.448737 -0.0659628 0.328861
-0.0154714 -0.126346 0.575123
-0.435808 -0.0646988 0.287034
0.371866 -0.0803811 0.380509
0.125155 0.0562728 0.0676035
0.299153 -0.0756917 0.361286
0.0170108 -0.0111986 0.0848677
0.440725 -0.0771561 0.382735
0.310995 -0.0462065 0.293582
-0.300603 -0.0429044 0.430568
-0.357919 -0.0514522 0.38196
0.0528497 -0.0973045 0.532174
-0.171266 -0.0679673 0.397137
-0.371256 -0.0792401 0.418346
0.082012 -0.0626904 0.437283
0.0149785 0.103952 0.111303
0.0130109 0.00738235 0.145666
-0.0626013 -0.0559318 0.306535
0.149547 -0.0664922 0.380551
-0.132508 -0.0655378 0.3962
-0.236934 -0.0717624 0.354014
0.00642491 0.0161433 0.367786
0.144434 -0.0671739 0.525724
0.454393 -0.0673382 0.305358
0.323042 -0.0775013 0.408056
-0.181767 -0.0567267 0.49572
-0.194863 -0.070293 0.509773
0.059925 -0.0793462 0.461692
-0.00932894 0.106046 0.0351191
-0.112562 -0.0268519 0.107339
-0.0205966 -0.118643 0.395547
0.0475323 -0.0378656 0.130728
0.37362 -0.064029 0.419587
0.156817 -0.0761295 0.495807
0.185289 -0.0692139 0.457527
-0.0210483 0.000462469 0.264832
0.0585603 -0.0696129 0.326335
0.0872278 -0.06331 0.484915
-0.142844 -0.0203535 0.39078
-0.000681452 -0.0808144 0.178516
-0.296742 -0.103719 0.373005
0.261869 -0.0369465 0.440409
-0.313424 -0.0762841 0.309086
-0.0149202 -0.00474439 0.142015
-0.365226 -0.0794265 0.294873
-0.166629 -0.0234469 0.422823
-0.0421352 -0.1095 0.571338
-0.00426804 -0.117186 0.365079
0.0854355 -0.0099205 0.508049
0.196396 -0.0697724 0.431199
-0.00948012 0.0856167 0.0439537
-0.184822 -0.027249 0.340353
0.400177 -0.0815999 0.297484
0.0490967 -0.0136061 0.333062
0.195447 -0.100509 0.475493
-0.0552164 -0.0550096 0.254124
-0.0149592 -0.126346 0.67401
0.361976 -0.0792443 0.29981
-0.0108343 0.0146966 0.548457
0.469396 -0.0707858 0.318581
0.0145916 0.0570233 0.13495
-0.0119816 -0.126346 0.488124
0.304229 -0.0764354 0.426102
0.288654 -0.0408755 0.415957
0.0871189 -0.0502107 0.57176
-0.381213 -0.0565595 0.292628
0.054076 -0.00765264 0.630154
-0.0635564 -0.00718186 0.480192
-0.0809387 -0.0109067 0.416772
-0.300478 -0.120319 0.401467
-0.320079 -0.122531 0.349627
0.0210983 -0.0856371 0.222179
-0.169871 -0.0241946 0.401545
-0.411124 -0.0604981 0.336799
0.151934 -0.0996167 0.430675
-0.05682 -0.0420897 0.28093
0.0637265 -0.0226464 0.131059
0.198724 -0.0966322 0.531085
0.0237536 0.00513951 0.321537
-0.0374628 -0.0858914 0.275335
-0.106771 -0.0132503 0.476473
-0.205414 -0.0702774 0.420826
0.020122 -0.0228005 0.058575
0.069723 -0.0499507 0.593331
0.0334057 -0.115843 0.604047
-0.370034 -0.0734792 0.263832
0.346916 -0.0512552 0.322465
0.0614578 -0.0580188 0.707191
-0.185721 -0.117629 0.486489
-0.363631 -0.0538907 0.304302
-0.0738593 -0.0626904 0.536
-0.32311 -0.0776928 0.429113
0.102327 -0.0136706 0.448042
-0.0097969 0.0585054 0.0594295
-0.0720501 -0.0235077 0.109962
0.0221114 0.0764853 0.0401446
0.214584 -0.0704576 0.367885
-0.280397 -0.041167 0.347902
-0.339379 -0.049769 0.352368
0.0266374 -0.00643381 0.209347
0.0300999 0.00956308 0.430897
0.212409 -0.0296501 0.476816
-0.333955 -0.1284 0.398054
-0.270914 -0.0383092 0.43538
-0.257174 -0.0363404 0.413534
0.338395 -0.126527 0.411695
-0.0602149 -0.0830729 0.681031
0.0584142 -0.0805276 0.402149
0.0989868 -0.0468101 0.130743
-0.396639 -0.0815982 0.336183
0.0765895 0.0692896 0.0977303
-0.0376415 -0.105317 0.713216
-0.0164511 -0.126346 0.639671
-0.0732725 0.061023 0.0624008
0.0736159 -0.0316635 0.214087
0.00813327 -0.126346 0.544147
0.00907163 -0.0600569 0.0808963
-0.397823 -0.0589874 0.294629
0.113202 -0.0647866 0.457612
0.0298872 -0.0255621 0.0895394
-0.31204 -0.0461317 0.321088
-0.167282 -0.0719106 0.522024
-0.0703479 -0.0662212 0.593191
0.012392 -0.126346 0.485583
-0.174824 -0.118502 0.454797
0.0100537 0.0143527 0.0811729
-0.246371 -0.0363351 0.333696
-0.164355 -0.0226933 0.437277
-0.45695 -0.0678624 0.279276
-0.0239839 0.0758417 0.0515352
0.454517 -0.0663128 0.371776
-0.0661234 -0.00842335 0.441261
0.375037 -0.0551559 0.340856
-0.302611 -0.0441501 0.368043
-0.139729 -0.0187628 0.451256
0.261305 -0.0464989 0.477571
0.0239762 0.00811912 0.683287
-0.213999 -0.0314471 0.345756
-0.148449 -0.106187 0.465121
0.178055 -0.122783 0.506971
0.295996 -0.0751057 0.286745
0.190528 -0.0691914 0.516205
0.0845805 -0.0633345 0.532013
0.315578 -0.11159 0.438075
0.0656677 0.074868 0.0405679
-0.0213827 -0.069041 0.147994
0.123684 0.0687625 0.039205
0.0785385 -0.0628546 0.504727
-0.176223 -0.120607 0.471814
0.0653033 -0.0749838 0.579102
0.0706597 -0.051632 0.617142
0.191335 -0.0261572 0.466579
-0.455736 -0.067627 0.295877
0.0454518 -0.0540761 0.733036
0.140388 -0.0184423 0.461576
-0.149565 -0.0221759 0.339005
-0.376284 -0.0803239 0.336143
0.122037 -0.0654879 0.495174
-0.359575 -0.0793149 0.340827
-0.100537 0.0708443 0.0600951
0.0192114 -0.00875648 0.131665
-0.210306 -0.0312339 0.321465
-0.280419 -0.0402482 0.464265
-0.244748 -0.065861 0.300077
0.101078 -0.0648469 0.564034
0.084382 0.071987 0.0618502
-0.00827942 0.123985 0.0911232
0.168871 -0.12186 0.523687
-0.0151594 -0.0779589 0.171069
0.17992 -0.0707132 0.479201
0.0237827 0.0145272 0.629905
0.284944 -0.0745772 0.322372
0.0564983 -0.0640835 0.294084
-0.00732987 -0.013745 0.058575
-0.0584864 -0.0816539 0.442391
-0.0233844 -0.123124 0.543034
-0.16951 -0.0472527 0.527498
0.143605 -0.0212129 0.346277
0.301798 -0.0436947 0.38275
0.444889 -0.0848103 0.354668
0.00430458 -0.0640957 0.0960531
0.0924258 -0.0251108 0.108664
-0.152626 -0.0669847 0.421402
-0.0417817 -0.0476643 0.739353
-0.243098 -0.0351552 0.386811
0.327567 -0.123058 0.354771
-0.40137 -0.0816594 0.293382
-0.332523 -0.0621811 0.401694
-0.0392168 0.00719152 0.626304
0.312668 -0.0462263 0.320738
-0.0658436 -0.0640032 0.392492
0.380437 -0.0810352 0.394333
0.466534 -0.0721668 0.272334
-0.186115 -0.109894 0.44591
0.299597 -0.113091 0.36469
-0.190945 -0.0268439 0.510661
-0.329614 -0.0472172 0.408964
-0.0977669 -0.0397751 0.341741
-0.166865 -0.0226724 0.49278
-0.341894 -0.120896 0.385917
-0.0101249 0.00457412 0.237298
0.0135802 0.0105549 0.333072
-0.341123 -0.0780861 0.329697
0.369912 -0.0532888 0.379781
0.161696 -0.0505241 0.435604
-0.301856 -0.0758811 0.363919
-0.0476233 0.0741782 0.0621685
-0.054039 -0.0881527 0.359825
0.36326 -0.0608934 0.266138
-0.00017634 0.019458 0.653383
-0.211348 -0.0304543 0.389475
0.383455 -0.0810174 0.368872
-0.061085 -0.053361 0.706228
0.157906 -0.0218223 0.436991
0.00771526 -0.084249 0.196885
-0.266941 -0.0740279 0.412147
-0.340783 -0.0934951 0.368779
-0.345546 -0.0936208 0.396489
0.0796237 -0.0506702 0.211514
-0.0143297 -0.119091 0.720612
0.131985 -0.0498828 0.547522
-0.0984231 -0.0238627 0.561747
0.0406411 -0.0722729 0.752901
0.0666541 -0.0100433 0.349449
0.0604672 -0.0422692 0.309622
-0.0446644 0.00130603 0.647298
0.100865 -0.063607 0.402388
0.0975798 -0.0346703 0.565378
0.0792881 -0.0430958 0.126156
-0.142802 -0.0657651 0.333524
-0.117751 -0.0199482 0.33371
-0.452974 -0.0848703 0.303752
0.328543 -0.125285 0.447359
-0.100083 -0.0642469 0.521356
-0.0659302 -0.0655347 0.460397
0.294815 -0.075087 0.45969
0.0208436 -0.0615389 0.115399
0.0234413 -0.120346 0.441538
0.0568605 -0.0257175 0.673717
0.202052 -0.0620524 0.510035
0.0459581 -0.0773436 0.268924
0.232583 -0.0719545 0.42085
-0.0413567 -0.0205711 0.248099
-0.0928708 -0.0494026 0.168309
-0.371143 -0.0798694 0.314531
-0.013557 -0.123299 0.437836
-0.343958 -0.0784969 0.361557
-0.063917 -0.0262558 0.178468
-0.263012 -0.0743105 0.474431
-0.0970611 -0.0124154 0.464026
0.19726 -0.0867249 0.514196
0.233237 -0.0716246 0.368516
-0.0280007 -0.0880483 0.769667
0.0535995 -0.0330154 0.296077
-0.0532922 -0.0176717 0.34538
0.0141667 0.00246281 0.174364
-0.0592908 -0.0311084 0.673298
-0.176819 -0.0340576 0.317965
-0.00450465 -0.0524025 0.058575
0.0701236 -0.00892348 0.448664
0.0458551 -0.0839432 0.718493
-0.0800492 -0.0625788 0.438767
0.154044 -0.0786046 0.460873
-0.195413 -0.0869549 0.488245
0.116417 -0.0152026 0.46057
-0.123612 -0.0323909 0.117016
0.300461 -0.0957949 0.42029
0.0324611 0.058274 0.128555
0.0430995 -0.1088 0.580315
-0.0400866 -0.0615141 0.755638
-0.0151364 0.0227314 0.165611
0.453943 -0.0851765 0.332517
0.0560671 -0.0286964 0.220099
0.0788031 0.0621571 0.0474967
-0.0202403 0.0581775 0.137786
0.0282599 0.0130181 0.610713
0.0353425 -0.112846 0.455179
-0.0771936 -0.049159 0.193308
-0.0353989 -0.0746609 0.207006
-0.0344194 -0.00494725 0.291192
-0.0865266 -0.0632739 0.486681
-0.315428 -0.101147 0.438333
0.270464 -0.0454462 0.291774
0.210528 -0.0703914 0.393122
-0.126025 -0.0321096 0.548736
-0.0884829 -0.0111694 0.547637
-0.069738 -0.0331336 0.240906
-0.0300677 -0.118268 0.49816
0.232031 -0.0326436 0.419949
0.121535 -0.0329217 0.133681
-0.268688 -0.0493467 0.292545
0.0152193 0.0298688 0.161126
0.06689 -0.0554988 0.680343
-0.423931 -0.0831805 0.319899
0.176408 -0.0254021 0.382718
-0.0599936 -0.0418151 0.150422
0.010737 0.00449888 0.252254
-0.3007 -0.0950789 0.420007
0.353617 -0.0791367 0.366239
0.00565213 0.0163837 0.383579
-0.0243256 -0.0142637 0.116102
0.0632818 -0.00854695 0.400862
-0.118858 -0.0360975 0.335128
0.262926 -0.0738945 0.432684
-0.33117 -0.0491691 0.292265
-0.186068 -0.0774446 0.472874
0.056977 -0.00716262 0.433974
0.0523347 -0.00354731 0.538083
0.463619 -0.0846256 0.368661
-0.273402 -0.0398154 0.371661
-0.00168612 0.0436569 0.159183
-0.197525 -0.0878448 0.517161
-0.0144481 -0.102217 0.290628
0.0659 -0.0334704 0.622535
0.0563842 -0.0222013 0.114024
-0.113297 -0.0144341 0.510614
-0.0253672 0.0132752 0.601856
0.108585 -0.0639223 0.380032
0.0993581 -0.052961 0.213962
0.14839 -0.029418 0.535525
-0.0137893 -0.00911491 0.711273
0.06202 -0.0824474 0.622737
0.0479878 0.061347 0.0742985
-0.0328137 -0.116273 0.628322
0.0273428 -0.103095 0.319294
0.0869258 -0.0125064 0.371395
-0.0932711 0.0580132 0.0756577
0.304506 -0.123352 0.40795
0.0557368 -0.0528712 0.25169
0.0625892 -0.031695 0.648827
0.0966141 -0.0640128 0.516049
-0.162836 -0.0672489 0.369967
-0.0213996 0.0108666 0.377524
-0.0307505 -0.0638468 0.780052
0.0338846 -0.0179218 0.152392
-0.287815 -0.0754277 0.42916
-0.150452 -0.106673 0.52191
-0.0459799 0.0708548 0.104293
-0.223973 -0.0716882 0.469911
0.0401596 -0.0519368 0.750491
0.266476 -0.0379527 0.459082
-0.0598742 -0.0274191 0.657598
-0.0516127 -0.0831472 0.32311
0.324994 -0.131306 0.433841
-0.461128 -0.0797851 0.371851
0.195332 -0.106727 0.491209
-0.321334 -0.126721 0.364078
-0.0137004 0.0733639 0.0971146
-0.0103392 0.0239644 0.0820862
0.013445 0.0164909 0.646368
0.0220133 -0.0897459 0.778061
0.043438 0.00509826 0.510473
0.381736 -0.0566845 0.283644
-0.0695675 -0.0482749 0.59323
0.434813 -0.0837031 0.291779
0.0519639 -0.0930404 0.369266
0.10102 0.074158 0.0296137
0.00977771 0.0611317 0.0581445
0.257321 -0.0734246 0.410529
0.210323 -0.0437456 0.309087
0.0230543 -0.0535314 0.780405
0.0137541 0.0797049 0.109573
0.0528045 -0.00484762 0.601075
-0.149214 -0.0837767 0.491208
-0.450514 -0.0846249 0.275551
0.281687 -0.0746037 0.361867
-0.0815688 -0.0106837 0.442676
0.0662312 -0.0449085 0.167507
-0.0280555 -0.112151 0.377692
0.0372901 -0.0785094 0.23293
0.309329 -0.117894 0.345291
0.0267343 0.00613364 0.343179
-0.0140378 -0.00858858 0.0977607
-0.40303 -0.0822525 0.368116
0.0658313 0.0606937 0.068464
-0.269421 -0.0453958 0.472903
0.030298 0.0708965 0.115822
0.457088 -0.0851129 0.301879
-0.0586985 0.0686935 0.1217
-0.0645736 -0.0317866 0.628499
0.0593459 -0.0241692 0.159906
-0.153145 -0.067404 0.494741
-0.0111164 0.0155862 0.101389
-0.0246787 -0.122183 0.601939
-0.153756 -0.0878171 0.42762
0.00709127 -0.0469234 0.785267
-0.305064 -0.0438368 0.389981
0.0602216 0.0687717 0.119278
-0.0310718 -0.0110648 0.205864
0.033229 -0.00318616 0.297809
0.0523775 -0.0982904 0.491511
-0.0624346 -0.0461604 0.325254
-0.0485869 -0.000968926 0.466388
-0.153939 -0.021236 0.526456
-0.115908 -0.0484861 0.115735
0.0143121 -0.0804347 0.179627
0.33356 -0.0655231 0.440235
-0.316131 -0.0768015 0.367506
-0.447834 -0.0696262 0.242358
0.0580367 -0.0775122 0.703209
-0.00662514 0.0152169 0.0473975
0.42787 -0.0622006 0.350369
0.09201 -0.0636573 0.498815
-0.144041 -0.0671259 0.524202
-0.0120243 0.0574724 0.096823
0.0134744 -0.0308462 0.741355
-0.0134097 0.0493804 0.151574
0.0376527 -0.0156688 0.238012
0.0506365 -0.0993019 0.431156
0.16773 -0.0673674 0.33999
-0.0591046 -0.0770243 0.351152
-0.00567972 0.0160917 0.493657
0.0685269 -0.0686996 0.561671
0.229099 -0.0329533 0.3979
-0.0665202 -0.0714819 0.661361
-0.341558 -0.0868742 0.421403
-0.0439861 -0.0233722 0.267703
0.338377 -0.0678973 0.273073
-0.0980569 0.0741152 0.0323406
-0.00850871 0.103398 0.0198714
-0.0699005 -0.0307428 0.211517
-0.0848715 -0.0300476 0.344539
-0.00424804 -0.0991544 0.276603
0.0807657 -0.0100981 0.555766
-0.0595594 -0.0857604 0.606435
0.252271 -0.0370328 0.347936
0.0853268 0.0633398 0.0312533
0.131428 -0.0530721 0.136873
0.0176912 -0.124839 0.456168
-0.301574 -0.111095 0.352843
0.164654 -0.084071 0.53562
-0.0415505 -0.109925 0.532809
-0.413722 -0.0711883 0.398164
0.026 0.064174 0.048872
0.156157 -0.11026 0.439555
0.0644707 -0.0668196 0.389036
-0.0908045 -0.0328369 0.191433
0.185055 -0.0690183 0.422222
0.218243 -0.0318242 0.363139
0.0649319 -0.0687051 0.476594
0.0113086 0.104983 0.0682945
-0.0375551 0.0575939 0.134154
0.00877457 0.0504492 0.0434091
-0.106499 -0.0145349 0.428031
-0.321489 -0.076914 0.338379
-0.371153 -0.0545442 0.34382
-0.0188156 0.00768112 0.326293
-0.00777707 0.00730855 0.279181
0.0113542 0.0435801 0.0923069
0.439629 -0.0839445 0.272473
-0.399665 -0.0719597 0.255663
-0.189224 -0.025763 0.462542
0.0533084 -0.00608242 0.583385
0.157232 -0.0755686 0.479701
0.363658 -0.0792627 0.274853
0.0149368 0.0145571 0.468762
-0.326257 -0.0770563 0.302592
0.156352 -0.0880043 0.418483
-0.000796028 0.0196072 0.614125
0.233016 -0.0404161 0.491841
-0.0255064 -0.121582 0.656568
0.138835 -0.0344291 0.329103
-0.0372046 -0.113083 0.586488
0.0549268 0.0744892 0.0193422
0.133465 -0.066577 0.534925
0.0100859 0.084391 0.0552824
0.369962 -0.0547198 0.317601
-0.0100487 -0.110358 0.759648
-0.132343 -0.0184343 0.420279
-0.197324 -0.0284586 0.384448
0.170237 -0.0309743 0.523939
-0.00341079 0.0171723 0.478395
-0.0505683 -0.020047 0.327538
0.0222351 -0.00180998 0.703624
0.0396358 0.0065999 0.640792
-0.332486 -0.0695209 0.274751
-0.182458 -0.0456701 0.520586
0.407041 -0.0826623 0.386003
-0.0345695 -0.0469016 0.128343
0.205973 -0.0625719 0.311258
-0.0340621 0.0770318 0.0231428
-0.0752966 -0.0110012 0.363478
0.0147843 0.0139029 0.568235
-0.310486 -0.0898527 0.34493
-0.385887 -0.0558697 0.396117
0.10355 -0.0148048 0.378871
0.295894 -0.0758476 0.41482
0.0517188 -0.0180249 0.684474
0.0276999 -0.119988 0.572064
0.230328 -0.0711028 0.307126
-0.297056 -0.0544828 0.459705
-0.00399789 -0.12438 0.450699
0.0105944 -0.118294 0.37827
-0.0989316 -0.0535051 0.21496
-0.146592 -0.0660859 0.347144
0.0121711 0.0999869 0.0828523
-0.235591 -0.0349177 0.320425
-0.00868624 0.01544 0.412804
-0.0310717 0.00311658 0.332272
0.125448 -0.0439326 0.109413
0.106985 -0.0132311 0.477691
0.296638 -0.103182 0.385708
-0.327991 -0.0472505 0.383074
0.166241 -0.120444 0.474054
-0.162444 -0.0705743 0.451476
0.137548 -0.0665399 0.513455
-0.110793 -0.0643189 0.414575
-0.313805 -0.0450595 0.434957
0.339229 -0.11392 0.358797
-0.0684685 0.072183 0.0695012
-0.0282856 0.011502 0.496246
0.419794 -0.0833576 0.373041
-0.147613 -0.0915899 0.508001
-0.120734 0.0550793 0.0700654
-0.0242889 -0.0792105 0.19971
-0.0521165 -0.0971552 0.454703
0.283624 -0.0421337 0.302771
-0.0675861 -0.065297 0.496961
-0.0653475 -0.0615379 0.343914
-0.0144884 0.00295758 0.250538
-0.219416 -0.0704292 0.30888
-0.304053 -0.100776 0.338878
0.0184485 -0.013278 0.715282
-0.0436735 -0.0782203 0.731572
-0.10054 -0.0607563 0.342005
0.34996 -0.0519878 0.289012
-0.175127 -0.0793898 0.534965
-0.159607 -0.114271 0.442726
0.0905981 -0.0624217 0.345002
-0.0545447 -0.0470535 0.208748
-0.054841 -0.00603826 0.560519
-0.30618 -0.0861942 0.38953
0.0125851 0.0489703 0.110142
-0.0508317 -0.0261303 0.107468
-0.0534531 -0.0973881 0.625434
-0.207575 -0.0303275 0.358126
0.0585237 0.0711494 0.089435
0.156663 -0.117111 0.492659
0.0554615 -0.0927927 0.66089
-0.0122797 -0.116161 0.735398
0.428563 -0.0834649 0.319157
0.334247 -0.117182 0.437529
0.0388979 -0.000564066 0.344598
-0.0322782 -0.0864521 0.26239
-0.00859424 0.0160792 0.453642
0.31981 -0.045675 0.406601
-0.314089 -0.0720916 0.44948
-0.00286729 0.0427559 0.0354341
-0.355939 -0.0788158 0.284496
0.187343 -0.0264286 0.422666
0.0561068 -0.0867371 0.433648
0.0115262 0.00395742 0.233115
0.0700607 -0.00874128 0.462584
-0.0447116 -0.0208389 0.289536
-0.274806 -0.074232 0.369598
0.323624 -0.0470326 0.374071
-0.421256 -0.083486 0.377322
-0.0638327 0.0585389 0.0973205
-0.0768321 0.0573335 0.103264
-0.266285 -0.0380915 0.401162
0.0228954 0.00142253 0.282044
0.334273 -0.0812291 0.420637
0.102129 -0.0397518 0.197253
0.0603017 -0.0803233 0.482673
0.0577505 -0.0877732 0.684991
0.0733763 -0.0105308 0.373413
0.0261161 0.0609625 0.0942563
0.0684287 0.0734768 0.0570043
0.123562 -0.0295149 0.549324
-0.42446 -0.0621848 0.339992
-0.0638527 -0.0504724 0.263899
0.344091 -0.0494255 0.403925
0.043659 -0.0645811 0.210663
0.0379758 0.00923823 0.554082
0.00881448 0.117355 0.0207338
0.00951286 -0.00137682 0.0787584
-0.183091 -0.101974 0.431457
0.00141742 -0.126346 0.525484
0.369456 -0.0804559 0.40785
-0.0912239 -0.040856 0.215089
0.212843 -0.0709193 0.45746
-0.005803 -0.0727187 0.135218
-0.273563 -0.0402919 0.335977
-0.0129532 0.0249023 0.128125
0.0354694 -0.086119 0.270414
0.244607 -0.0353647 0.387725
0.0113157 0.0146636 0.539707
0.0420664 -0.10955 0.59543
0.310839 -0.0446156 0.436655
0.0241014 -0.0964855 0.764384
-0.0109212 0.00165573 0.106365
-0.104752 -0.0153158 0.359235
-0.132692 -0.0173387 0.49912
-0.463795 -0.0676819 0.336644
0.3833 -0.056722 0.315148
-0.0334266 -0.000854992 0.31537
0.305945 -0.109846 0.334735
0.00256699 0.0175256 0.439182
0.0765407 -0.0339506 0.231199
-0.176274 -0.0704432 0.444241
-0.0112346 0.0848912 0.0733735
-0.0250636 -0.0998913 0.753121
-0.180352 -0.0248366 0.493306
-0.255413 -0.0469242 0.480915
0.01262 0.128519 0.0838569
-0.014714 0.0994042 0.110502
0.374557 -0.0802793 0.344283
-0.331342 -0.0668464 0.388106
-0.0872003 -0.0267359 0.568955
0.0607759 -0.0397747 0.701011
0.174895 -0.0679775 0.366663
0.0769267 -0.0617409 0.352056
0.208905 -0.0286598 0.447189
0.184824 -0.0274197 0.328219
-0.0259429 0.0123937 0.539766
-0.034303 -0.112348 0.438536
0.187321 -0.118617 0.51829
-0.0412951 -0.020959 0.117018
0.350141 -0.110307 0.434999
-0.0770439 -0.0506179 0.219564
0.185723 -0.0952161 0.432809
0.168228 -0.0250433 0.326758
-0.166336 -0.0875291 0.417765
0.0485408 -0.104846 0.547109
0.198164 -0.0508216 0.313151
0.144637 -0.0207275 0.383718
0.0449748 0.0740068 0.0655077
0.0161707 0.0749413 0.0710709
-0.387648 -0.056079 0.365964
0.0278679 -0.114476 0.704717
-0.0399846 -0.0308828 0.715508
0.406322 -0.0589423 0.385257
-0.0679209 -0.0423124 0.613245
-0.293821 -0.0432751 0.336888
-0.388767 -0.081559 0.393107
-0.442034 -0.0844642 0.3371
-0.355475 -0.0794136 0.389346
0.269399 -0.0387587 0.395243
-0.414646 -0.0828061 0.34579
-0.328062 -0.0772013 0.441644
-0.400314 -0.0582284 0.402991
-0.010328 0.0365802 0.07736
-0.311155 -0.0457488 0.344083
0.063856 0.0696621 0.104205
0.168578 -0.0597927 0.528195
0.334436 -0.0822613 0.399261
0.0435819 -0.0212085 0.110014
0.0505106 -0.102189 0.519862
0.274531 -0.0743218 0.383639
0.0575143 -0.077458 0.342688
-0.183229 -0.0696567 0.519261
-0.0710837 -0.0562928 0.636677
-0.013026 -0.0276593 0.733102
-0.0258147 -0.0878068 0.248667
-0.155895 -0.0209396 0.452136
0.0414879 -0.0983115 0.335414
0.183749 -0.0296205 0.516048
-0.0621774 -0.071359 0.375941
-0.348037 -0.11528 0.419819
-0.0297296 -0.0345291 0.0660385
-0.160485 -0.0679986 0.5088
-0.056468 -0.0220371 0.13577
0.386612 -0.0573012 0.302103
0.0566786 -0.0904758 0.543001
-0.0817822 0.0718804 0.0185776
0.0102541 0.0404078 0.0746439
0.303181 -0.0930558 0.353425
-0.309288 -0.0852485 0.425489
0.0381508 0.0606814 0.0880755
-0.0532776 -0.0911712 0.388244
0.0725905 -0.0607762 0.607643
-0.0655442 -0.0748767 0.647903
0.383574 -0.077892 0.25979
0.250092 -0.0724553 0.33052
-0.139846 -0.0664286 0.459535
0.171973 -0.0242388 0.422368
-0.0737683 -0.0507422 0.234755
0.118168 -0.0418869 0.174562
-0.0460275 0.0763175 0.0288846
0.0105278 -0.068679 0.804411
-0.00882142 0.0423897 0.0472879
-0.0591445 -0.0782533 0.390371
0.234481 -0.0349687 0.301417
0.303773 -0.0761503 0.384198
0.061424 -0.0821735 0.591516
0.117913 -0.0165441 0.401679
0.00637853 -0.0908618 0.232252
-0.111259 0.0734615 0.0330174
-0.0182453 -0.0658806 0.800045
0.111049 -0.0459534 0.189358
-0.0664096 -0.0701132 0.525318
0.34453 -0.0498312 0.429361
0.417683 -0.0605853 0.358645
-0.0659151 -0.00919542 0.387065
0.315635 -0.0559218 0.39688
-0.0438736 -0.108237 0.614927
-0.0640959 -0.0398266 0.664639
0.209423 -0.070443 0.409111
-0.0365988 0.0706977 0.113946
-0.32718 -0.0472227 0.438049
0.0440305 -0.100541 0.351159
0.0100834 0.0992626 0.0507974
-0.195993 -0.0557408 0.313926
-0.183893 -0.120379 0.505212
-0.132128 -0.0192773 0.361576
-0.357772 -0.0790116 0.306032
-0.0293864 0.0638502 0.0516401
-0.0490987 -0.0581225 0.226095
-0.265234 -0.0394126 0.304862
-0.182675 -0.0261091 0.399343
-0.0617067 -0.0816495 0.578797
-0.112758 -0.0392705 0.180431
0.156439 -0.0212306 0.505121
-0.171579 -0.0250794 0.358649
-0.134791 -0.0186094 0.435068
0.0911266 -0.0312239 0.174692
-0.0149351 -0.109996 0.325026
0.0236695 0.0771918 0.0261458
0.164087 -0.0240894 0.352092
-0.0308976 -0.0458431 0.104388
-0.407909 -0.0604448 0.302817
0.0365522 -0.0689305 0.187915
-0.0619121 -0.0810574 0.555438
-0.144805 -0.0275806 0.326639
-0.0188575 -0.0534876 0.0827547
0.16681 -0.109201 0.527623
0.00800969 -0.0830626 0.800334
-0.114526 -0.0642593 0.374522
-0.125627 -0.0491602 0.107067
0.326779 -0.0770662 0.297152
0.119953 -0.06468 0.386363
0.256516 -0.0365303 0.406714
0.110363 -0.0651135 0.540574
0.252863 -0.0389479 0.296382
-0.466446 -0.0763064 0.31294
0.0471473 -0.0467298 0.189742
-0.092935 0.0556548 0.109644
0.0296132 -0.118598 0.68316
-0.219943 -0.0318471 0.379607
0.385401 -0.0559134 0.362622
-0.0494459 -0.0666459 0.254246
0.309354 -0.0452963 0.356976
0.125356 -0.0354182 0.120187
0.0488032 -0.104283 0.468201
-0.413912 -0.0824384 0.296567
0.0697034 0.0716534 0.0746818
-0.0685004 -0.0690586 0.57804
-0.0883812 -0.0103944 0.508127
-0.0135987 0.102025 0.0978651
0.161278 -0.0557619 0.324067
0.254186 -0.0726132 0.310872
-0.0263239 -0.0101291 0.169939
0.101412 -0.0260711 0.0903519
0.0621406 -0.0312187 0.106033
0.337505 -0.0968753 0.353003
-0.00912105 -0.104206 0.773728
-0.31734 -0.130276 0.440655
-0.0101156 -0.0470666 0.782597
0.267671 -0.0733856 0.297334
-0.0112724 0.0173176 0.636746
-0.0465321 0.0577838 0.124889
0.043904 -0.108215 0.687354
0.07949 0.0572453 0.102283
