0.0422901 0.00468737 0.622353
0.00597124 0.0162844 0.412093
-0.0689878 -0.0676319 0.653626
-0.23245 -0.0338057 0.370905
0.130798 -0.065223 0.365268
0.0504149 -0.0485274 0.209171
0.191176 -0.0266562 0.498292
-0.124129 -0.0489694 0.334536
0.382589 -0.0566916 0.305642
-0.0140615 0.0290723 0.143122
-0.309673 -0.0460425 0.290055
0.178533 -0.0719061 0.466596
0.316391 -0.0727309 0.413647
-0.0131496 0.0647609 0.0481017
0.158349 -0.0871072 0.536009
0.315762 -0.0835809 0.440867
-0.293641 -0.075604 0.397644
0.0793159 -0.0627844 0.474578
0.0450652 -0.107372 0.608187
0.0739363 -0.0480274 0.183815
-0.0155189 0.0580575 0.142437
-0.0259375 0.00102383 0.292621
-0.342102 -0.105657 0.358462
0.0194035 -0.0851691 0.785871
-0.0597355 -0.0296756 0.223556
0.318923 -0.0682556 0.347506
0.0489172 -0.0892411 0.324303
0.355961 -0.0515735 0.425424
0.0100494 0.01573 0.450274
-0.301529 -0.116822 0.359432
0.0939572 -0.0132248 0.389287
-0.170341 -0.0689025 0.526311
0.00417647 -0.075722 0.806407
0.0511196 -0.00407055 0.588393
-0.101165 0.0628418 0.0946992
0.0603499 -0.07809 0.456878
-0.0688401 -0.0434702 0.598001
0.178799 -0.047317 0.454822
0.0498742 -0.0299122 0.281707
0.0601133 0.0696964 0.107168
-0.0434104 -0.0807173 0.728526
0.292562 -0.0695098 0.286326
-0.0699227 -0.0617488 0.412395
0.388335 -0.0571388 0.338529
-0.0819123 -0.0469805 0.161182
0.300709 -0.117478 0.419258
-0.375252 -0.0807329 0.397671
0.0148807 0.0944661 0.11583
-0.122502 -0.0647592 0.374128
0.44862 -0.0756821 0.37955
0.0756504 -0.0107391 0.379319
-0.000275022 -0.0814103 0.803646
-0.0231393 0.00901537 0.359629
-0.358896 -0.0789861 0.280538
-0.00809086 0.11352 0.00765945
-0.125577 -0.0649564 0.374648
0.0405988 -0.0369752 0.130529
0.012 -0.0482675 0.0588516
0.0099917 0.0172397 0.660399
-0.0286165 0.00592484 0.688347
-0.0632763 -0.0271544 0.621684
-0.227055 -0.0325667 0.404533
-0.0626683 -0.0418567 0.344468
0.134438 -0.0665999 0.531997
0.0495101 -0.00270228 0.439614
0.0602433 -0.00687343 0.476475
-0.32821 -0.123922 0.357545
-0.44235 -0.0657001 0.282194
-0.310852 -0.119426 0.346055
0.0971739 -0.0125834 0.46015
-0.0478136 -0.0390999 0.145035
0.0959199 -0.0121781 0.538245
0.0510203 -0.0144507 0.34071
0.176243 -0.116457 0.446207
0.233195 -0.0330385 0.481337
-0.00423799 0.0164139 0.494335
-0.0665972 -0.00774185 0.476564
-0.165596 -0.0509252 0.426135
-0.0691387 0.0708832 0.0843574
-0.16917 -0.0666372 0.527804
0.0176113 0.0159839 0.630745
-0.155251 -0.0611686 0.535403
0.227409 -0.031451 0.4352
-0.029335 -0.00414725 0.272192
0.059044 -0.0473869 0.27487
-0.0300595 -0.0127353 0.172711
0.0716906 0.0731066 0.0585046
0.0473585 -0.0846305 0.301406
-0.317952 -0.0647491 0.414915
-0.0146798 0.0260693 0.154936
0.286695 -0.0747564 0.336609
0.0776345 -0.0294006 0.18382
0.268691 -0.0390901 0.374166
-0.392786 -0.0584716 0.257759
0.0585409 -0.07564 0.343692
-0.106307 -0.0349164 0.176505
-0.391459 -0.0810593 0.296432
-0.0184431 -0.00735421 0.14065
0.00174735 0.0282628 0.0416085
0.0319783 0.00646518 0.377406
0.0395093 0.00693024 0.627669
-0.369422 -0.0535211 0.413835
-0.182208 -0.0754019 0.534239
0.0952612 -0.0645152 0.567784
0.0587895 -0.0170706 0.623542
0.193326 -0.0891869 0.46947
-0.0415496 0.0736785 0.0710393
-0.162773 -0.0734271 0.516105
-0.067348 -0.0686903 0.675277
-0.00144645 0.0539297 0.151899
-0.310438 -0.0926957 0.335858
-0.2363 -0.0338257 0.405328
-0.122769 0.0616012 0.0355201
0.0936566 -0.0297644 0.341907
0.237703 -0.0349608 0.343642
-0.367111 -0.0796958 0.329249
-0.256769 -0.0728796 0.331885
0.0311201 -0.0648114 0.157998
0.121116 0.0670033 0.0622784
-0.164923 -0.0676088 0.402154
-0.00145941 0.131581 0.063865
0.291815 -0.0416091 0.436943
0.311481 -0.118029 0.340963
-0.185035 -0.074273 0.497218
0.17377 -0.0545511 0.320396
0.01593 -0.00571815 0.139271
0.179262 -0.0681953 0.357857
-0.311562 -0.0863903 0.353698
-0.0333994 -0.0984144 0.315265
-0.396944 -0.0812655 0.256186
-0.0203805 -0.0189236 0.058575
0.0258763 -0.0258922 0.0620618
0.0128949 0.00451042 0.272335
0.0935815 -0.0636982 0.484591
0.0597031 -0.0485435 0.228766
0.0640937 -0.069316 0.44758
-0.0364648 -0.11362 0.629664
-0.0502114 -0.100733 0.439115
0.337749 -0.0499722 0.313061
0.186754 -0.0263005 0.513418
0.0902066 -0.0343446 0.207762
0.0643154 0.0697282 0.102914
-0.342947 -0.0494533 0.420778
0.217608 -0.0303152 0.466935
-0.0879064 0.0561123 0.111023
0.0648793 -0.0605258 0.337348
-0.0947346 0.0626072 0.0341355
0.191965 -0.105524 0.533116
0.222818 -0.0314145 0.482877
0.0467242 0.0751867 0.0481578
0.254518 -0.0726826 0.320618
0.3334 -0.0781168 0.403178
0.308621 -0.0842616 0.395464
-0.27926 -0.0414018 0.31224
-0.0444413 -0.0366237 0.122432
-0.00983774 0.00345851 0.0829333
0.00614719 0.032501 0.165679
0.108619 -0.0637302 0.350936
0.105091 -0.0303003 0.142089
0.0393546 0.0587841 0.115932
0.049108 -0.0120955 0.684558
-0.137154 -0.0663008 0.468257
-0.00650611 0.0161181 0.371097
-0.430245 -0.063129 0.390059
-0.313959 -0.0451017 0.436147
-0.175824 -0.0466004 0.427095
-0.425085 -0.0632023 0.262138
-0.193632 -0.0691555 0.367863
-0.0240275 -0.0378082 0.74215
0.316163 -0.0644068 0.407391
0.0554735 -0.091826 0.49484
0.321508 -0.0769346 0.341107
0.269643 -0.0739023 0.368716
-0.223978 -0.0321146 0.404522
-0.0152096 0.0050287 0.194334
0.198946 -0.0699953 0.444821
-0.0262031 -0.022314 0.719192
0.0379942 -0.0983656 0.721482
0.0681266 0.0631951 0.0397608
0.128611 -0.0478966 0.115162
0.405563 -0.0819397 0.300414
-0.120625 -0.0437676 0.172551
-0.0381509 -0.0946978 0.312579
0.300843 -0.0918125 0.382864
0.0856247 -0.0622883 0.351971
0.0957249 -0.0128293 0.437652
-0.018948 -0.100752 0.288178
-0.300969 -0.11642 0.428841
-0.0752214 -0.0374825 0.348166
-0.0962877 -0.0128249 0.444616
0.049354 -0.0169641 0.696004
0.0808923 -0.0312369 0.0992162
-0.252669 -0.0730139 0.391427
-0.457174 -0.0666051 0.344784
0.01589 -0.00604186 0.135601
-0.0577435 -0.0883952 0.66783
0.0135476 0.0383213 0.130243
0.12189 -0.0322309 0.107616
0.0143925 -0.0757584 0.800884
-0.0107938 0.0166015 0.601999
-0.060736 -0.0478758 0.288559
0.058435 -0.0799613 0.392749
-0.182618 -0.0861476 0.525573
-0.0387848 -0.0194164 0.211135
0.0134162 -0.123145 0.436008
0.0216785 -0.0714781 0.798044
-0.0198204 -0.0275519 0.058575
-0.0112646 0.0690123 0.138445
-0.0501518 0.0608771 0.0783948
-0.0700062 -0.0519471 0.591692
0.240553 -0.0724853 0.428758
0.111552 -0.0498702 0.192271
0.0134603 -0.102944 0.770679
0.27278 -0.0403274 0.322589
-0.329845 -0.131438 0.433764
0.162055 -0.0675581 0.419256
-0.43811 -0.0699456 0.386088
-0.0625663 -0.0497506 0.24978
-0.0334333 -0.112474 0.430278
0.097599 0.0628832 0.0292955
0.0827726 -0.0112672 0.409375
-0.331185 -0.114249 0.340803
-0.324552 -0.0775357 0.399243
-0.021319 -0.00186269 0.219102
0.0786591 -0.0412287 0.114852
0.309729 -0.0765131 0.383123
-0.0562012 -0.0926108 0.625438
0.0472454 -0.105788 0.652212
0.0256513 -0.115435 0.39763
0.317269 -0.0770186 0.388982
0.000192452 -0.126346 0.666396
0.347808 -0.117486 0.426247
-0.0288542 0.0124475 0.666913
-0.240161 -0.0723008 0.400573
0.054119 -0.0240493 0.336861
0.31072 -0.0761774 0.323896
-0.361787 -0.0792737 0.309681
-0.0107712 0.117105 0.10229
-0.182032 -0.111483 0.533702
0.151591 -0.112013 0.471921
0.0987209 -0.0460647 0.11922
-0.378752 -0.0809475 0.39656
-0.174151 -0.0539122 0.320257
-0.279292 -0.0416004 0.290763
-0.0545392 -0.0444628 0.180895
-0.153925 -0.0634118 0.536097
-0.119871 0.0563427 0.0745375
-0.408425 -0.0824678 0.352869
-0.0131582 0.11125 0.0910079
-0.0594284 -0.0803236 0.458441
-0.392085 -0.081012 0.270518
-0.147897 -0.0663437 0.373664
-0.0909532 -0.0642264 0.567729
-0.367608 -0.0543687 0.317763
0.311829 -0.1156 0.333728
0.334833 -0.0782543 0.410135
0.0364013 -0.106377 0.369618
-0.0402065 0.00627928 0.632543
-0.0760962 -0.0463231 0.164403
0.0574741 0.0586522 0.130971
0.342563 -0.108694 0.365763
-0.0444925 0.0023821 0.460925
-0.0364412 0.00972562 0.485964
0.0403289 -0.0419882 0.727361
-0.029537 0.0595497 0.112827
0.308854 -0.0449081 0.37674
-0.0251887 0.0120969 0.466482
-0.159598 -0.112729 0.438638
-0.0702648 -0.0390768 0.580186
0.0398354 -0.111171 0.55048
-0.406007 -0.0826664 0.393571
0.000304122 0.016899 0.563976
0.341942 -0.078192 0.338351
0.131144 -0.065575 0.412512
0.105498 -0.0154414 0.358272
0.152045 -0.0669061 0.415774
-0.323119 -0.074077 0.424377
0.124888 0.0640314 0.051007
0.44754 -0.0662238 0.311611
0.358337 -0.0778775 0.267101
0.313727 -0.0598041 0.367551
0.0181886 -0.00774624 0.134694
0.126672 -0.0187626 0.34502
-0.0406207 0.00686557 0.487524
0.0621078 -0.0746886 0.469446
0.0370323 0.0739506 0.070315
-0.305296 -0.124065 0.39796
0.138289 -0.0196927 0.390013
0.0903949 -0.0635929 0.50689
-0.30162 -0.0762731 0.426216
0.167938 -0.0678524 0.409462
0.0536374 0.0738451 0.0616
-0.0618828 -0.0811153 0.555546
-0.442948 -0.0648474 0.336321
-0.0546312 -0.0703573 0.303226
-0.2271 -0.0720606 0.483005
0.0209369 -0.0982813 0.7672
0.00505512 0.104099 0.11501
-0.299465 -0.0427982 0.435504
-0.382588 -0.0566434 0.311888
-0.066593 -0.0745452 0.624587
0.126427 -0.0501578 0.119334
0.0612075 0.0752024 0.0186155
-0.178712 -0.0527229 0.457322
-0.0803071 -0.0632561 0.550816
0.0843237 -0.0179781 0.567658
-0.0964577 -0.0253918 0.112044
0.232126 -0.0343528 0.325936
0.280081 -0.0741681 0.299618
0.427743 -0.0832753 0.293396
-0.060781 -0.00708846 0.565303
-0.0389035 -0.0166361 0.254034
0.0243979 -0.085666 0.23121
-0.155658 -0.0674225 0.464563
-0.0409582 -0.0209977 0.155819
-0.021376 -0.0664389 0.797155
-0.0472634 -0.0408486 0.1629
0.00136184 0.0178148 0.459359
-0.0641873 -0.0268034 0.610224
0.139857 -0.0601536 0.543558
-0.240857 -0.0601243 0.30114
0.153744 -0.0223544 0.366404
0.0211635 0.010432 0.369079
-0.00892925 0.13041 0.0323356
0.0349081 -0.0836713 0.755387
0.313928 -0.130435 0.397662
0.0250395 -0.120587 0.458227
0.346603 -0.115376 0.446155
-0.00416802 -0.0631425 0.0913787
0.271233 -0.0736934 0.314958
-0.113843 0.061267 0.0383815
-0.381388 -0.0619086 0.415416
0.129516 -0.0657568 0.450906
-0.166627 -0.0858108 0.527565
-0.0218022 -0.1177 0.393921
0.197334 -0.0902092 0.501567
0.0138569 -0.119864 0.39695
0.0282298 0.00787513 0.375075
0.0139796 0.0839592 0.110022
-0.0262703 0.0115527 0.570251
-0.191563 -0.0264401 0.482971
-0.00239687 -0.0579094 0.0618247
-0.0823853 -0.062422 0.398293
-0.120737 -0.0653424 0.479367
-0.287505 -0.0751317 0.38341
0.053063 -0.0403931 0.713247
-0.209208 -0.0352322 0.503483
0.0683353 -0.0349757 0.592387
0.18109 -0.118933 0.475493
0.198857 -0.0678108 0.313466
-0.0856829 -0.0393 0.222157
-0.100824 -0.0464586 0.12174
0.00862457 -0.126346 0.545512
-0.00448082 -0.015127 0.058575
0.426271 -0.0834795 0.338139
0.16363 -0.0455217 0.471863
0.0216585 -0.0593772 0.110002
0.125579 -0.0498306 0.113237
-0.0380523 0.0653778 0.0267927
0.387297 -0.081222 0.363535
0.328621 -0.0692329 0.363035
-0.0487242 -0.0990512 0.373562
0.305828 -0.0453405 0.307071
-0.256651 -0.036968 0.396497
-0.322569 -0.0706579 0.445233
0.304274 -0.0581791 0.456193
-0.421746 -0.083199 0.33874
-0.31272 -0.0648072 0.280531
-0.0328028 -0.103864 0.336395
0.0131525 -0.126346 0.527905
0.0526657 -0.0165516 0.674812
-0.0265702 -0.0177684 0.715607
0.0139462 0.0758684 0.058718
0.0400446 -0.0627526 0.756479
-0.0370605 0.00997321 0.556188
0.333224 -0.0688895 0.439985
-0.0903979 -0.0118487 0.45338
0.440155 -0.0840553 0.299261
0.0124268 0.0747339 0.0774582
-0.0347414 -0.0196962 0.142014
-0.0122123 -0.126346 0.587231
-0.118834 -0.0151294 0.49928
-0.255896 -0.0728149 0.329863
-0.122153 -0.0660299 0.549237
-0.149451 -0.108504 0.45564
-0.33352 -0.0932738 0.347219
-0.419148 -0.0833644 0.37866
0.310277 -0.044181 0.405213
-0.251388 -0.0373582 0.307307
0.110128 -0.0142255 0.526329
-0.113331 -0.0147829 0.46051
0.312074 -0.0763439 0.340643
-0.00139861 0.0162441 0.339334
-0.315091 -0.0762668 0.279968
0.298464 -0.0995826 0.41198
0.0149824 0.0341838 0.154569
-0.0819266 -0.0493733 0.187771
-0.373785 -0.0778635 0.417174
0.0671088 0.0583035 0.0978696
-0.055308 -0.00571012 0.540449
0.298649 -0.0974703 0.404096
-0.0494556 -0.0835354 0.71147
-0.378296 -0.0548277 0.407698
0.0141914 0.0114448 0.161206
0.29856 -0.109424 0.422087
-0.0231183 -0.00113388 0.260798
-0.0303062 0.0772473 0.0214877
-0.036384 0.0630314 0.0596308
0.0628671 -0.03775 0.255836
-0.0520616 -0.0995255 0.556403
0.146703 -0.0202998 0.436729
0.429486 -0.0833689 0.289422
0.207121 -0.0297887 0.392887
0.0099485 0.0826637 0.053311
0.064198 -0.058646 0.3264
0.0802084 -0.0115628 0.370576
-0.075226 -0.00836556 0.512387
0.190218 -0.0833807 0.461216
-0.438409 -0.0838334 0.258271
0.310684 -0.0764337 0.363976
-0.0109673 0.0148798 0.574149
-0.0451291 -0.0399374 0.158796
-0.450095 -0.0681518 0.241885
0.0535706 -0.0247202 0.179533
0.00901654 -0.124691 0.454409
-0.334052 -0.106172 0.436852
0.0693738 0.0586752 0.0908315
0.192269 -0.0285223 0.326815
-0.46325 -0.0780586 0.238447
-0.0663891 -0.0742288 0.639771
-0.419881 -0.06097 0.377917
0.141557 -0.019408 0.534237
0.368888 -0.0797746 0.325053
-0.170074 -0.0232271 0.495098
-0.225305 -0.0311269 0.435935
0.468437 -0.0754965 0.326456
-0.143999 -0.0211606 0.352905
-0.258175 -0.038341 0.307565
-0.00871137 0.0166389 0.596212
-0.0396535 -0.0190128 0.230704
-0.173444 -0.113648 0.436196
-0.0715647 0.0618795 0.0551695
-0.289754 -0.0414157 0.445569
-0.00423325 0.00924081 0.283871
-0.0152969 0.0550442 0.147081
-0.315638 -0.0454168 0.386661
0.0607342 0.0747239 0.0465521
-0.240341 -0.0334282 0.42926
0.335963 -0.0481213 0.395364
0.420968 -0.0835542 0.386693
-0.150467 -0.0798977 0.487974
-0.299869 -0.118484 0.399218
0.439539 -0.0729041 0.24441
-0.248592 -0.0354831 0.481007
-0.088364 -0.0117407 0.438101
0.234549 -0.0722726 0.458687
0.124474 0.0612124 0.049151
-0.282085 -0.0743262 0.307479
-0.433098 -0.0834799 0.248209
-0.0117158 -0.126346 0.531706
-0.30637 -0.0762119 0.370278
-0.43021 -0.0820663 0.386682
0.15094 -0.0919227 0.529984
0.454097 -0.0660784 0.355504
0.0651706 -0.0670613 0.453491
0.312842 -0.0455439 0.374536
-0.305948 -0.095908 0.449043
0.460068 -0.0670364 0.344665
0.191573 -0.0285185 0.31988
0.179575 -0.0680562 0.330615
-0.0945812 -0.0320039 0.174506
-0.431581 -0.0626765 0.364678
0.409387 -0.0606236 0.310477
0.12285 0.0720394 0.0314681
-0.188873 -0.02582 0.442946
-0.00744797 0.00579309 0.24882
-0.000743339 -0.038673 0.771251
-0.0735169 -0.0631987 0.576773
-0.401027 -0.0814409 0.402248
-0.0654577 -0.0415234 0.654697
-0.335546 -0.101082 0.436863
-0.470071 -0.0784609 0.35743
-0.0262756 -0.00931411 0.17707
-0.161505 -0.0495106 0.431325
-0.270874 -0.0743752 0.430152
0.181589 -0.121788 0.525617
-0.00576865 0.00579557 0.232184
0.0998616 -0.0531818 0.207298
-0.0175342 -0.0408326 0.762167
-0.0603976 -0.0340622 0.108109
0.13907 -0.0186336 0.514767
-0.0299726 -0.082103 0.22919
-0.23639 -0.0348847 0.333766
0.00210087 -0.108222 0.31718
0.336925 -0.0499564 0.300335
0.157281 -0.0795561 0.527779
0.0577404 -0.0322191 0.695147
0.0451636 -0.0918868 0.319202
-0.0625444 -0.0770617 0.504773
0.115768 -0.0363842 0.169367
-0.0607679 -0.082567 0.673906
0.200609 -0.0289086 0.386978
0.0678925 -0.0073546 0.520976
-0.104893 -0.0133253 0.523196
0.0178038 0.0598264 0.117749
0.320659 -0.0545915 0.27793
0.0716982 -0.0622847 0.584751
0.0191201 0.000786546 0.239293
-0.105716 -0.0643163 0.456601
-0.0177494 0.00805946 0.325668
-0.0099018 0.102802 0.0464536
-0.146927 -0.0501291 0.539555
0.0641544 -0.0246943 0.600834
-0.046387 -0.0225053 0.164747
0.0314742 0.0736291 0.0776965
0.281778 -0.0743676 0.319562
0.388815 -0.0816565 0.403336
-0.0830266 -0.0417898 0.228593
0.0844949 -0.0474312 0.573018
-0.44741 -0.0663929 0.294116
-0.0969092 0.05615 0.0958064
0.0779902 -0.0488412 0.187592
0.0548788 -0.0949095 0.625116
0.043388 -0.10859 0.484134
-0.0470137 -0.0384252 0.138618
0.00906724 -0.126346 0.476179
0.0644811 -0.0597631 0.332101
0.381603 -0.0567615 0.2657
-0.443833 -0.0655702 0.317941
0.0149423 0.00241015 0.219129
-0.0805466 -0.0620966 0.370109
-0.424762 -0.0617715 0.380809
-0.17298 -0.0439139 0.319998
-0.192429 -0.0983002 0.455225
0.0685201 -0.0100095 0.364673
-0.160361 -0.04086 0.323433
-0.0912367 -0.0638581 0.542215
-0.0461285 0.00267967 0.521766
0.0933269 -0.0499839 0.17571
0.064747 0.0584397 0.127154
0.212884 -0.0703316 0.364351
-0.090505 -0.0129236 0.377378
0.342106 -0.0490566 0.385809
0.00850758 -0.00891111 0.711263
0.0225237 0.0594623 0.119447
-0.164374 -0.100465 0.524698
0.391209 -0.0608761 0.258233
-0.0110332 0.0602049 0.0801775
0.149147 -0.0661326 0.328246
-0.326336 -0.0469798 0.430759
-0.326911 -0.116592 0.339863
0.0132344 0.0694645 0.137591
-0.08375 -0.0323175 0.200339
-0.294895 -0.0437791 0.302813
-0.0699348 -0.0668339 0.591407
0.0463373 -0.0225884 0.165975
0.290539 -0.0411427 0.407372
-0.336496 -0.0654171 0.438741
-0.101201 -0.0639584 0.446452
-0.351227 -0.050883 0.429136
0.397385 -0.0815835 0.328354
-0.124752 -0.0159121 0.489575
0.119018 0.0637944 0.0169358
-0.319492 -0.130349 0.394946
0.102882 -0.0307906 0.148389
-0.198511 -0.0941857 0.501988
0.0929779 0.0620178 0.0420449
-0.0699851 -0.0490771 0.617416
0.102382 -0.0636124 0.39042
0.135119 -0.052551 0.1585
0.0470994 -0.0519083 0.199526
-0.0102126 0.0137083 0.0849912
0.255829 -0.0367902 0.398094
-0.266213 -0.0733784 0.313966
-0.289444 -0.0754832 0.421095
-0.0184867 -0.110982 0.735062
0.244849 -0.0720645 0.317891
0.32177 -0.0477047 0.302661
0.0128575 0.0143974 0.530688
0.141374 -0.0204149 0.374101
0.373125 -0.055507 0.267493
0.0681179 0.0744064 0.0469532
-0.319485 -0.13129 0.41838
-0.0246648 0.00194739 0.294258
-0.0444296 -0.0656672 0.743071
0.0924121 -0.0452571 0.122949
0.0157658 -0.0985971 0.273622
0.111518 -0.0445341 0.0974221
0.0311428 -0.114672 0.440606
-0.00504961 0.0115326 0.308723
0.0371492 -0.0133769 0.266438
0.0485726 0.0650404 0.02623
0.321652 -0.0718376 0.42213
-0.170468 -0.0379291 0.525677
-0.344611 -0.0572491 0.434382
0.336635 -0.0831551 0.418635
0.0791311 -0.0335564 0.224813
0.0460279 -0.106672 0.604465
-0.332034 -0.054667 0.402506
0.267416 -0.0741199 0.423294
-0.0936876 -0.0627591 0.346366
0.047942 -0.00452682 0.370066
0.442121 -0.0841061 0.275504
0.0201904 -0.125444 0.61229
-0.0294605 0.0746549 0.0662756
0.38817 -0.0572927 0.327403
-0.242979 -0.0721541 0.356917
0.000466961 -0.126346 0.528779
0.0100005 0.0125874 0.338361
0.0923988 -0.0432885 0.568587
0.45367 -0.0673361 0.292636
0.113212 -0.0158115 0.404951
-0.113642 -0.0397454 0.179516
-0.174223 -0.0686888 0.49083
0.0563863 -0.0905193 0.686125
-0.0754836 -0.00844388 0.514329
0.298212 -0.103989 0.430212
-0.017224 -0.126346 0.659834
-0.0117421 -0.120235 0.720265
-0.0432263 0.00525927 0.515181
-0.310002 -0.0445184 0.439007
-0.423751 -0.0762478 0.391512
0.149244 -0.0662798 0.351467
0.113433 -0.0154402 0.437211
0.0416992 0.00662952 0.509249
-0.304619 -0.0998982 0.337897
-0.171673 -0.0544791 0.428935
-0.031053 -0.117526 0.473793
-0.0951478 -0.0476164 0.144722
-0.114251 -0.0514912 0.337554
-0.341975 -0.1249 0.421246
-0.0432071 -0.0145809 0.302653
-0.00671146 0.0131992 0.192052
0.233562 -0.0719441 0.407994
0.221762 -0.0709 0.367439
-0.262775 -0.0733761 0.35602
-0.0685473 -0.0613026 0.364169
-0.196094 -0.0294204 0.311907
-0.112674 -0.0577198 0.338301
-0.0259634 -0.12125 0.53005
-0.166888 -0.0732971 0.528193
-0.195752 -0.0691368 0.34181
0.0464581 0.000497865 0.605138
0.0931722 -0.0125452 0.430348
0.167157 -0.0721122 0.523275
-0.236202 -0.0350513 0.316399
-0.00606358 0.0157794 0.514377
0.262965 -0.0381064 0.384702
0.0462218 -0.103587 0.424365
-0.103978 0.0671153 0.0879868
0.0717421 -0.0117739 0.346232
0.107061 -0.0140396 0.457621
-0.108857 0.0670895 0.0815582
-0.182373 -0.0686353 0.508574
-0.279683 -0.044666 0.467241
-0.0693452 -0.049296 0.635015
-0.0190961 0.0734248 0.0915171
-0.00733464 -0.1166 0.735711
0.0790375 -0.0626978 0.463162
-0.134883 -0.0179901 0.516091
0.383801 -0.0810034 0.363477
0.0189413 0.0658 0.0295697
-0.0276858 0.0135546 0.61877
-0.153615 -0.108861 0.533401
0.0147233 -0.0613551 0.099478
-0.119903 -0.0324638 0.552294
-0.0385686 -0.112092 0.600854
-0.0209446 -0.124896 0.590883
0.100149 -0.05117 0.175561
-0.428966 -0.0634065 0.317653
-0.0520192 -0.0994263 0.679295
0.0853165 0.0706405 0.0747181
0.39654 -0.0819447 0.380796
0.0130223 0.123162 0.0859422
-0.170791 -0.0249807 0.357568
-0.0775016 -0.0100853 0.442631
-0.311183 -0.104668 0.438944
0.0493336 -0.0531879 0.214788
0.067956 -0.0612535 0.362552
0.055389 -0.0728636 0.316376
0.00817923 0.09436 0.0166765
-0.267577 -0.0387965 0.383714
0.349838 -0.0787381 0.345086
0.0398978 -0.111126 0.542297
0.04148 -0.0303369 0.113051
0.112611 -0.0648238 0.474555
-0.0322765 0.0054607 0.681969
-0.174141 -0.0911729 0.524203
-0.0977382 0.0700222 0.0172658
-0.221084 -0.0705723 0.316654
0.0523533 -0.0217192 0.134426
0.0496085 -0.104071 0.560897
0.155727 -0.0672603 0.432285
-0.0638247 0.0730074 0.0635123
0.355632 -0.0796068 0.411719
0.0447052 -0.107633 0.68119
-0.142429 -0.0667867 0.505017
0.0715312 -0.00865285 0.470617
-0.463166 -0.080154 0.277932
0.022572 -0.038987 0.058575
0.107012 -0.0140618 0.543665
-0.324915 -0.0770315 0.316698
-0.0261723 0.0704086 0.123822
-0.0188085 0.0762233 0.0479059
0.156327 -0.0666014 0.331362
0.313099 -0.0464168 0.305295
-0.0624833 -0.0389413 0.351276
0.0134026 -0.0711428 0.133748
-0.0188762 -0.123334 0.438252
0.0108668 -0.02202 0.724308
-0.0400697 0.00618803 0.644219
0.191708 -0.0946425 0.450629
-0.111932 -0.0159121 0.385777
-0.107331 -0.0641681 0.423305
-0.402293 -0.058388 0.391309
-0.181753 -0.111783 0.443843
-0.00070293 -0.0627321 0.0830483
-0.0527965 -0.0985296 0.641441
-0.326653 -0.0590283 0.444234
0.185759 -0.0696022 0.503304
0.412288 -0.0597657 0.366822
0.0122299 0.0446197 0.106463
-0.0649717 -0.0594186 0.334166
-0.0667168 -0.057845 0.68918
0.382293 -0.0811546 0.394344
-0.136401 -0.0195875 0.379982
-0.0139908 0.0110274 0.158127
0.000185203 0.0346059 0.166117
-0.220107 -0.0709861 0.392547
-0.36545 -0.0543878 0.266089
-0.082118 -0.0321875 0.201994
-0.189628 -0.0810887 0.467141
-0.183481 -0.0693413 0.495108
-0.0276049 -0.0523594 0.106409
0.0263127 -0.098239 0.755295
-0.148197 -0.0944333 0.522321
0.308958 -0.0849495 0.37568
0.032221 0.0112545 0.553767
0.346438 -0.112896 0.394434
0.0537435 -0.0312841 0.306696
-0.0590066 -0.0162005 0.617177
-0.113551 -0.0652194 0.533126
-0.153394 -0.0872829 0.53318
0.0139278 0.053103 0.148829
-0.0124261 0.0421349 0.110658
0.0609433 -0.00654953 0.537126
0.061396 -0.0443185 0.312884
-0.125259 -0.0658392 0.521802
-0.281369 -0.039956 0.436561
0.390391 -0.0574096 0.340421
-0.254434 -0.0732148 0.40479
0.0907412 -0.0270554 0.567059
-0.0408319 -0.100777 0.343998
0.0104401 -0.010089 0.0641678
-0.0229166 0.00764256 0.342435
0.0314333 -0.085759 0.762752
0.313635 -0.0575552 0.365577
0.0922842 -0.042654 0.105428
0.279846 -0.039531 0.419295
-0.435903 -0.0838746 0.3129
0.154719 -0.115035 0.515412
-0.129983 -0.0654863 0.41036
0.332829 -0.0865896 0.447959
0.21549 -0.0707166 0.395104
0.292192 -0.0671627 0.286423
0.049839 -0.0292948 0.284918
0.329797 -0.0807302 0.431673
0.36022 -0.0529914 0.340574
-0.12922 -0.0312739 0.331566
-0.0934199 0.0650779 0.0199053
0.0578086 -0.00580558 0.524461
-0.0096252 0.0658041 0.0345097
0.0606307 -0.0205536 0.619753
0.225591 -0.032124 0.411152
-0.0472031 -0.0649072 0.733124
0.0203314 -0.107831 0.321142
0.162583 -0.0514849 0.455688
-0.0452035 -0.0855322 0.718382
0.336147 -0.127478 0.404822
-0.182279 -0.0259198 0.409412
0.463707 -0.0851831 0.341962
0.109298 -0.0135302 0.478128
0.070359 -0.0546985 0.597256
-0.0566143 -0.0293337 0.338561
-0.137711 -0.0668752 0.53597
-0.0873743 0.0701381 0.0791598
0.118744 -0.0158595 0.539353
0.379898 -0.0549976 0.366627
0.0580939 -0.0375067 0.312045
0.0491471 -0.104406 0.478017
0.343583 -0.0603229 0.43532
-0.199554 -0.0701165 0.461844
0.324831 -0.107429 0.330401
-0.00833493 0.00799866 0.287863
-0.358444 -0.0529196 0.328227
0.0521068 -0.0988556 0.496231
0.0618606 -0.0363449 0.349054
-0.19815 -0.0560621 0.313314
0.122837 -0.0526711 0.55257
-0.460688 -0.0842343 0.30087
-0.187078 -0.118752 0.511504
-0.218503 -0.0705376 0.339936
-0.207452 -0.0700712 0.376207
0.123929 -0.0329577 0.130335
0.179287 -0.0844863 0.428319
-0.386483 -0.0815416 0.406758
-0.43233 -0.0643092 0.247269
-0.464938 -0.0763821 0.274125
0.0314805 -0.0516597 0.125421
-0.431085 -0.0761365 0.246549
0.101719 0.0608695 0.0501635
0.268537 -0.0743784 0.450281
0.0238428 0.000697353 0.280197
-0.0653596 0.0566902 0.128042
-0.37299 -0.0554147 0.281004
0.0299012 -0.101473 0.739472
0.0601578 -0.0536482 0.282544
-0.0555302 -0.0353079 0.110526
-0.0941762 0.0688496 0.0843775
0.178797 -0.076351 0.446213
0.30271 -0.111609 0.445454
0.255988 -0.0553514 0.481693
-0.0393313 -0.0424219 0.729012
-0.310792 -0.0453246 0.369926
-0.0487424 5.20363e-05 0.497064
-0.387059 -0.0559325 0.385578
-0.0244624 -0.0716377 0.79243
0.225274 -0.0315268 0.424755
-0.0499398 -0.0405491 0.156667
0.380304 -0.0562803 0.314721
0.0201963 -0.121017 0.421456
0.00975946 -0.120126 0.400069
0.0469576 -0.0427063 0.177998
-0.014275 -0.126346 0.6083
-0.0998056 -0.0327193 0.563696
-0.0605683 -0.0498485 0.259622
-0.0542703 -0.0954129 0.656031
0.067492 -0.0708292 0.569492
-0.189734 -0.0939656 0.44354
-0.3308 -0.0807033 0.389996
-0.244436 -0.0461431 0.299353
0.0396188 -0.0206804 0.138281
0.0107302 0.00507494 0.20433
-0.0721918 -0.00943314 0.431841
-0.313035 -0.0553432 0.352072
-0.352887 -0.0524691 0.279872
0.0475721 -0.0375438 0.126753
-0.0588623 0.0633904 0.0423321
-0.0201629 0.0759014 0.0532817
-0.0754815 -0.0251698 0.145401
-0.145335 -0.0198684 0.442781
-0.106301 -0.058351 0.561711
0.295405 -0.043558 0.332568
-0.321133 -0.0770393 0.357754
0.118987 -0.0286531 0.551636
-0.230828 -0.0719829 0.447049
0.0917025 -0.0386589 0.0990017
0.196552 -0.097015 0.474949
0.0550477 -0.00875125 0.625302
-0.00059277 0.0349173 0.0387735
0.0128674 -0.126346 0.561282
0.0609162 -0.00601241 0.500708
-0.00502859 0.113366 0.00554365
0.192559 -0.0276871 0.389934
0.108971 -0.0648896 0.531496
-0.293926 -0.0751127 0.318535
0.343188 -0.094203 0.447022
-0.164722 -0.109733 0.425616
-0.0863109 -0.00996965 0.502685
0.10305 0.0636792 0.019399
-0.0490817 -0.0862917 0.709724
0.0135663 -0.0104048 0.0729877
-0.000101956 0.023087 0.178173
-0.00830333 -0.126346 0.559231
-0.377602 -0.0579258 0.262001
-0.014218 0.0366815 0.141081
0.102105 0.0743409 0.0262253
-0.0773034 -0.0625136 0.453011
-0.104892 -0.0649064 0.551241
0.308309 -0.125739 0.43118
0.182081 -0.107364 0.434745
0.0514248 -0.0922089 0.700327
-0.33119 -0.0856203 0.361417
-0.161721 -0.0501332 0.436191
-0.0846673 -0.0516262 0.235331
0.330847 -0.0762108 0.388038
-0.0941666 -0.0628696 0.358445
-0.0220683 0.0128293 0.474571
0.0496868 -0.0935957 0.341633
0.303407 -0.121962 0.429687
-0.285768 -0.0404594 0.419556
-0.0129071 -0.0568881 0.794391
0.031839 -0.111421 0.399148
0.131696 -0.0509045 0.547706
0.175929 -0.12275 0.508541
-0.0306291 -0.0279916 0.0870592
0.315213 -0.0536759 0.390144
-0.297941 -0.109331 0.412057
-0.0832791 -0.0425377 0.228909
0.100779 -0.0631801 0.342494
-0.146458 -0.0665628 0.41656
0.111217 -0.0654045 0.556161
-0.0284403 -0.11945 0.638325
0.00299794 0.131385 0.0718407
0.040562 -0.0209231 0.114082
-0.0733935 -0.0096791 0.426193
0.0629438 0.0692632 0.110304
0.0346673 -0.0904107 0.286788
-0.0387892 -0.0680629 0.195849
-0.239612 -0.0335166 0.447799
-0.0137095 -0.0977147 0.268903
-0.0955314 -0.0132194 0.403628
0.0280803 -0.118908 0.464538
0.0198962 0.0737915 0.0852667
0.0207906 0.0127601 0.494845
-0.31857 -0.0457333 0.429598
0.149925 -0.0924848 0.526586
-0.0645343 -0.0500493 0.690094
-0.139775 -0.0663247 0.440501
-0.2718 -0.0396458 0.366862
0.00886006 0.0475647 0.0460842
-0.400543 -0.0815593 0.278541
-0.416971 -0.0617533 0.311047
0.133779 -0.0197134 0.350176
0.0252629 -0.0716825 0.171551
0.147614 -0.104505 0.474971
-0.161919 -0.0320935 0.322138
0.051463 -0.00311062 0.477334
0.00998696 -0.0612761 0.0873747
-0.160377 -0.0217289 0.497912
0.0538326 -0.0766844 0.31794
-0.147013 -0.0675058 0.536869
-0.0273978 -0.120208 0.615851
0.0593353 -0.0268615 0.192272
0.437425 -0.0636271 0.348564
0.34086 -0.0989619 0.35985
-0.0705801 0.0611214 0.0627629
0.0112297 0.0169029 0.607576
0.0993081 -0.0410727 0.341366
-0.0856818 0.0644305 0.021232
-0.425868 -0.0837558 0.374771
0.0853168 -0.0249231 0.127046
0.242409 -0.0350745 0.385298
-0.301794 -0.063934 0.456743
0.160043 -0.0676672 0.458811
0.11208 -0.0639799 0.355681
-0.0622894 -0.0065658 0.526681
0.100399 -0.0411707 0.097022
-0.113844 -0.0553523 0.55753
0.300505 -0.104873 0.350414
-0.0946729 -0.0637649 0.484548
0.203849 -0.0292364 0.398383
0.00973931 0.0933756 0.0463282
-0.383393 -0.0554095 0.390887
0.119273 -0.0648264 0.4116
0.00648642 -0.0997179 0.279575
-0.00482576 0.0164432 0.356792
-0.296296 -0.105446 0.39583
-0.0424344 -0.109283 0.672029
-0.157305 -0.115465 0.460294
0.150258 -0.0670322 0.451077
0.000624605 0.000979742 0.701542
-0.175766 -0.0484441 0.42757
0.237751 -0.0715709 0.307922
-0.200041 -0.0975863 0.519873
-0.140923 -0.0552252 0.542869
0.326888 -0.0582843 0.276272
-0.300637 -0.0978903 0.432522
-0.054643 -0.0267904 0.334015
-0.3441 -0.050419 0.355186
0.0441292 -0.108052 0.495715
0.00987238 0.0322019 0.070489
-0.0565913 -0.0414157 0.709407
-0.386537 -0.0574385 0.27452
-0.128307 -0.0657396 0.46401
0.450942 -0.0846788 0.286449
-0.064397 -0.0670457 0.392177
0.043952 -0.0211521 0.11967
-0.0217608 0.0655818 0.0312274
0.120286 -0.0496746 0.553881
0.122013 -0.065558 0.511591
-0.200789 -0.0694141 0.335589
-0.318145 -0.0915261 0.331566
-0.00307532 0.031919 0.167097
0.252362 -0.0731414 0.414682
-0.196713 -0.065185 0.512895
-0.0692804 -0.0677632 0.587888
-0.177993 -0.0248395 0.514035
0.173047 -0.0507102 0.320433
-0.180363 -0.073035 0.47303
0.452639 -0.085362 0.362944
-0.0110161 -0.064354 0.802403
-0.157816 -0.0210927 0.454893
-0.0145027 -0.11729 0.725665
-0.286031 -0.0612106 0.46525
-0.0511596 0.0585083 0.109833
0.168464 -0.0243387 0.376196
0.0640019 -0.0714593 0.4809
0.115223 -0.0462118 0.0995238
0.311869 -0.128662 0.4259
0.283508 -0.0753988 0.4539
0.0058706 0.0176178 0.601421
0.260229 -0.0730917 0.331028
0.0348681 -0.0947069 0.737991
-0.0444098 -0.0667611 0.743755
-0.315512 -0.0768797 0.384311
0.24023 -0.0352039 0.352681
0.273197 -0.0743238 0.395384
-0.19756 -0.104575 0.524451
0.121733 -0.0166847 0.435344
0.0107782 -0.114471 0.743243
-0.20374 -0.0303963 0.311085
-0.16752 -0.0678869 0.41754
0.155762 -0.0221127 0.401833
-0.33266 -0.119408 0.354036
-0.0112846 0.0534686 0.0867193
0.03487 -0.0797292 0.761763
0.00080113 0.0628991 0.0269066
0.0492079 -0.0784845 0.716586
-0.336167 -0.0775537 0.273849
0.386576 -0.0807706 0.300741
-0.0589673 -0.0579282 0.289331
-0.0638696 -0.0743553 0.520344
-0.17212 -0.0682974 0.434716
-0.00449226 -0.118586 0.728596
0.114232 -0.0164963 0.371255
0.0233683 -0.053385 0.0936704
-0.0645921 -0.069088 0.47285
0.120229 0.0618478 0.030189
-0.12871 -0.0659042 0.496536
-0.0429543 -0.0218109 0.268482
-0.0403922 0.00607849 0.635424
0.18767 -0.0473715 0.517862
-0.216194 -0.0702587 0.31509
-0.099572 -0.0130938 0.455539
0.344569 -0.0611671 0.271396
-0.267791 -0.0740051 0.3984
-0.337404 -0.0784671 0.414978
0.00855754 0.0673794 0.140323
0.0112881 -0.126346 0.49019
0.301632 -0.0989711 0.43835
0.467742 -0.076416 0.324592
-0.284409 -0.0422744 0.299616
0.282008 -0.0743259 0.308358
0.154625 -0.0830214 0.435169
0.328899 -0.0773412 0.331484
0.106969 0.0582686 0.0646265
0.191206 -0.0691863 0.39352
0.00906778 0.016412 0.0615727
0.0898982 -0.0635871 0.512833
0.0304996 -0.0704106 0.17916
-0.0282869 -0.0997448 0.307766
0.227753 -0.0321682 0.481118
0.164493 -0.0244294 0.332069
0.386252 -0.0815071 0.404945
-0.104004 -0.0323679 0.156505
0.24852 -0.0544741 0.298738
-0.057062 -0.0436381 0.275856
0.292826 -0.0420849 0.456518
0.21802 -0.0301679 0.452105
-0.101425 0.0633782 0.0229654
0.144391 -0.0667073 0.45936
-0.255198 -0.0393555 0.479439
0.0197944 0.0643611 0.0499605
-0.298419 -0.0990764 0.373535
0.15211 -0.0666817 0.385047
0.0847555 0.0692837 0.0914627
-0.246044 -0.072694 0.404277
0.0881803 0.0625529 0.038696
0.193464 -0.0811043 0.491026
-0.290893 -0.0754149 0.394246
0.321845 -0.0773669 0.399334
-0.029696 -0.0369661 0.0737534
-0.119314 -0.0161327 0.447156
-0.16118 -0.0478703 0.424039
0.050076 -0.067433 0.261783
0.308154 -0.0761037 0.341019
0.0525735 -0.00743574 0.643786
-0.0660263 -0.0669434 0.482377
0.337638 -0.0854405 0.443171
-0.144824 -0.0529499 0.540742
-0.442989 -0.0843672 0.318952
0.14119 -0.0194413 0.439304
0.0168315 0.0137956 0.538221
0.0321005 -0.109455 0.7117
0.274192 -0.0532656 0.471949
0.0500237 -0.0301834 0.281432
0.044996 0.0606343 0.0842376
0.23469 -0.0719247 0.396078
0.0577583 -0.0156151 0.627491
0.00125841 0.0171707 0.347594
0.285669 -0.0523124 0.465588
-0.0882506 0.0586304 0.0755347
0.03743 -0.0375035 0.110936
-0.0454733 -0.0475102 0.184187
0.316947 -0.0703458 0.420535
-0.314192 -0.0670748 0.377585
0.154786 -0.0203787 0.46242
0.161586 -0.0218828 0.495743
0.297294 -0.0760041 0.426417
0.0692194 -0.043618 0.151242
0.193285 -0.105976 0.4746
0.173349 -0.049784 0.49425
0.432557 -0.0628234 0.365139
0.145786 -0.0335812 0.326991
-0.0804971 -0.0459467 0.15357
0.242721 -0.0728207 0.461697
-0.364083 -0.0541532 0.272381
0.0664565 0.0599648 0.076645
0.233209 -0.0329603 0.476905
-0.317987 -0.0456985 0.387578
0.0595963 -0.0469781 0.195183
-0.0305662 -0.0271126 0.0891425
-0.148837 -0.030492 0.325775
0.376824 -0.0802805 0.326299
0.137766 -0.0193139 0.413747
0.369424 -0.0797099 0.301614
0.209679 -0.0291996 0.429641
0.247984 -0.0346549 0.43115
-0.0370068 0.0100589 0.49848
-0.0158614 -0.00045843 0.187207
0.182817 -0.0260093 0.408626
0.172077 -0.0834414 0.531566
-0.0692549 -0.0699174 0.624056
0.0473905 0.0597272 0.0946509
-0.0217158 -0.0491123 0.774906
0.0374455 -0.111786 0.460752
0.343256 -0.123422 0.440604
0.0838021 -0.0464077 0.1519
0.180495 -0.0689569 0.465402
-0.0657504 -0.0760006 0.635096
-0.0279657 0.0723216 0.0220912
0.286862 -0.0406491 0.407187
-0.0224029 -0.080155 0.785309
0.162979 -0.0680596 0.501001
-0.107291 0.0745949 0.0205195
-0.07641 -0.00881869 0.48342
0.30579 -0.0454866 0.288704
-0.0525691 -0.0939532 0.410078
0.0596556 -0.0423338 0.704821
-0.0540365 -0.0240471 0.336466
0.454297 -0.0671491 0.31486
-0.164561 -0.0677952 0.429976
0.025587 -0.111995 0.35184
0.0477321 -0.105345 0.473047
0.160895 -0.0213394 0.468785
-0.228869 -0.0715712 0.397472
0.0431909 0.0732604 0.0749345
-0.071412 -0.0625426 0.536716
-0.0634883 -0.0313075 0.235373
-0.185218 -0.0837549 0.440156
0.0636191 -0.0456703 0.348386
0.0342864 0.0102575 0.58419
0.180594 -0.0684516 0.384054
0.380721 -0.0558965 0.34713
-0.328362 -0.120368 0.438204
0.155986 -0.0283137 0.323463
0.0388106 0.0674771 0.131663
0.034366 -0.0132138 0.222595
0.0989336 0.0694587 0.068996
-0.425308 -0.062283 0.340383
-0.181578 -0.0244531 0.452144
-0.0621497 -0.0770134 0.695305
-0.127228 -0.0653916 0.420675
0.273232 -0.0385685 0.425869
-0.300079 -0.0430548 0.392458
0.181742 -0.0633345 0.498121
0.234763 -0.072435 0.47296
0.0744374 -0.00899999 0.551686
-0.208404 -0.0285414 0.443561
-0.154289 -0.0671699 0.432218
-0.227563 -0.0330125 0.376348
-0.054403 -0.0898478 0.697755
-0.114651 -0.0320995 0.335942
0.187853 -0.0693492 0.452382
0.316674 -0.0752188 0.35451
0.177103 -0.0239046 0.467608
0.144806 -0.0951514 0.484773
-0.410384 -0.0823739 0.325282
-0.437881 -0.0637097 0.347264
-0.037462 -0.0394902 0.115633
0.338887 -0.0786699 0.424854
0.0134231 0.000491282 0.160339
0.0306314 -0.117858 0.490057
-0.152901 -0.0785795 0.478174
0.302432 -0.121481 0.394512
0.101901 0.063299 0.0235394
0.464591 -0.074068 0.238927
0.135077 -0.0199276 0.34874
0.136 -0.0660273 0.432316
0.0537869 -0.013073 0.655404
-0.0796047 -0.0145579 0.569143
0.03691 -0.106694 0.380987
0.030014 0.0725975 0.0942908
0.206993 -0.0708494 0.491414
-0.0330699 -0.0959389 0.30463
-0.0771444 -0.0629548 0.544923
-0.0404148 -0.059909 0.753609
-0.161063 -0.10162 0.527361
-0.100102 0.0674815 0.0179952
-0.408398 -0.0826287 0.372192
0.165747 -0.12231 0.506096
-0.329489 -0.047137 0.398846
0.0391182 0.00707826 0.459608
0.0817232 -0.0243692 0.0992875
0.0985866 -0.0117604 0.492188
0.257562 -0.0730304 0.352164
-0.165104 -0.0692797 0.50123
-0.273488 -0.0749261 0.468695
-0.379145 -0.0802381 0.279213
-0.247703 -0.0724885 0.3632
-0.322634 -0.122185 0.348175
-0.0171101 0.00327087 0.276788
-0.336723 -0.0581635 0.273487
0.0514292 -0.0824232 0.319889
-0.0549818 -0.00773894 0.621543
-0.0100237 -0.126346 0.537866
0.00614742 0.128195 0.0843752
0.186885 -0.0276576 0.332478
0.000699323 0.063455 0.0266672
0.11674 -0.0643247 0.363384
0.0261043 -0.0281035 0.058575
0.466732 -0.0689459 0.315739
-0.0305627 -0.0841934 0.767913
-0.115165 -0.0147316 0.468107
0.412357 -0.0823981 0.31275
0.31449 -0.0672747 0.384252
0.0607399 0.0699688 0.103
-0.0086966 0.0161918 0.0548067
0.40764 -0.0590645 0.367244
-3.13485e-05 0.0176197 0.347114
0.242406 -0.050274 0.300233
0.133082 -0.0176765 0.514767
0.00138806 0.0141368 0.676732
0.268802 -0.038275 0.456303
-0.0631821 -0.0464778 0.184296
-0.0948076 -0.0479081 0.148137
-0.0918541 -0.0628052 0.370404
-0.190367 -0.0280181 0.342653
0.00572169 -0.116712 0.359435
0.0417378 0.00510245 0.621632
-0.05242 -0.0350989 0.111564
-0.137922 -0.0197664 0.382532
-0.178144 -0.0264644 0.327553
-0.02887 -0.00900843 0.7079
-0.31338 -0.0575983 0.337749
0.0643228 -0.0228713 0.111177
-0.0113982 0.101349 0.0707559
0.00550948 -0.0769079 0.157623
-0.183412 -0.0695431 0.510523
-0.0713686 -0.0608146 0.58594
0.0678663 -0.0619731 0.45962
-0.0761854 -0.0494167 0.198589
0.032668 0.00919861 0.44081
-0.369565 -0.0798985 0.335513
-0.294467 -0.0418427 0.421763
0.0627465 -0.0717213 0.422376
0.0140208 -0.126346 0.530891
0.0420992 -0.0234375 0.186389
-0.0405653 0.00584041 0.641042
0.0630322 -0.0226282 0.125636
-0.154816 -0.100944 0.420993
0.0665465 -0.0733619 0.644555
0.0683258 0.0574013 0.110008
-0.113459 -0.0645963 0.429327
-0.00801573 -0.125558 0.46472
0.103023 -0.0148961 0.369021
-0.312349 -0.128959 0.429072
-0.358676 -0.0517425 0.407934
-0.0157048 0.0143728 0.43886
0.0463148 -0.00632025 0.340475
0.201347 -0.0699411 0.409535
-0.0114935 0.0169918 0.609631
0.263528 -0.0732618 0.323804
0.0486364 0.0734182 0.0702828
0.144213 -0.0670702 0.519545
0.146184 -0.093655 0.449335
0.347328 -0.064371 0.433147
-0.442094 -0.0656497 0.284863
0.0105426 0.0853108 0.0628069
0.0470608 -0.100671 0.384442
-0.18298 -0.0696278 0.518401
-0.00387518 -0.122885 0.432913
0.231486 -0.0723852 0.485677
-0.295031 -0.0751604 0.314327
-0.342536 -0.0595598 0.271907
0.0505365 -0.0769261 0.298493
-0.367444 -0.0691878 0.421951
0.272914 -0.0744715 0.424713
-0.0590883 -0.0222952 0.128484
0.0077898 0.00701504 0.694271
0.111765 -0.0651996 0.540042
0.176196 -0.0557613 0.435604
-0.0542208 -0.00466311 0.497912
0.00027559 -0.0758074 0.151737
0.0530182 -0.0473024 0.220805
-0.308482 -0.0456339 0.318459
-0.381371 -0.0562872 0.328009
0.29514 -0.0751295 0.305261
0.0420779 0.000495507 0.38047
-0.0969839 -0.0127382 0.455552
-0.180145 -0.026866 0.319527
-0.291866 -0.0448005 0.460723
0.0683306 -0.0428026 0.626907
0.272489 -0.0578688 0.472748
-0.176227 -0.120177 0.468233
0.264065 -0.073702 0.388234
-0.331792 -0.0754105 0.397546
-0.226089 -0.0331584 0.350374
-0.0207594 -0.125031 0.63536
-0.312928 -0.0847072 0.356071
-0.0378568 -0.112609 0.644303
-0.395466 -0.0583707 0.326815
0.0600402 -0.00616395 0.493803
0.112879 -0.0190244 0.552112
-0.248625 -0.0349901 0.451281
0.109617 -0.0638828 0.364423
0.319815 -0.0474984 0.293075
-0.0118668 0.100321 0.0781508
0.136948 -0.0656502 0.371867
0.0641279 -0.0267218 0.610488
0.18598 -0.112737 0.533384
-0.0479913 -0.0377702 0.128578
0.124999 -0.0161271 0.499902
-0.00813581 -0.106708 0.310485
0.431766 -0.0836774 0.320651
0.304213 -0.0756884 0.303786
-0.0502107 -0.0843855 0.318131
-0.278045 -0.0742603 0.344233
-0.335722 -0.0986516 0.436908
0.1075 -0.0273405 0.115904
0.184221 -0.0732246 0.507006
-0.062488 -0.0737544 0.46857
0.0961714 -0.0518578 0.195974
0.068367 -0.0424166 0.620606
0.0154426 0.0276402 0.166125
0.0638679 -0.0494668 0.237634
-0.0870486 -0.0120156 0.400962
-0.233898 -0.032885 0.465838
-0.00925025 0.0896258 0.0385973
0.362503 -0.0536307 0.315321
-0.000704926 -0.0587988 0.062014
0.0121855 0.0144856 0.534332
0.00796728 0.0392852 0.0369127
0.166908 -0.0551355 0.529075
-0.252244 -0.0363827 0.395736
-0.334345 -0.0856378 0.376623
-0.162693 -0.119401 0.46664
-0.289339 -0.0755232 0.429214
0.133269 -0.0470624 0.15618
-0.145224 -0.0951094 0.467613
-0.192933 -0.0558474 0.51504
0.0422672 -0.0361702 0.121674
-0.0652824 -0.064573 0.365291
-0.0673236 -0.0316446 0.22997
-0.0325938 -0.116433 0.59196
-0.0992625 -0.0436309 0.205322
-0.0292702 -0.0258713 0.0846756
0.0542569 -0.0255507 0.334581
-0.00658718 -0.0654964 0.804529
-0.054377 -0.0475864 0.22325
-0.0103622 -0.0373609 0.765806
0.162354 -0.0473029 0.45074
-0.11544 0.0580238 0.0604131
0.062486 -0.0381141 0.677273
0.0704553 -0.0492723 0.20853
-0.0356903 0.0100168 0.573129
-0.279158 -0.0741624 0.310871
-0.328512 -0.0485988 0.313609
0.0127321 0.0116898 0.135731
-0.116284 -0.0531721 0.162006
0.19346 -0.0402167 0.513443
0.017966 -0.00795686 0.709955
0.0855082 -0.0291925 0.167424
0.281805 -0.074827 0.390503
-0.303519 -0.107206 0.341281
0.457044 -0.0678671 0.282854
-0.0620626 -0.00822478 0.40908
-0.292268 -0.0534644 0.46217
0.00361136 -0.126198 0.47234
0.346959 -0.0971955 0.401003
0.459471 -0.0682969 0.254519
0.0130595 -0.0273214 0.731928
0.161245 -0.0673912 0.403794
-0.271 -0.0395073 0.368408
-0.0929459 -0.0123204 0.445645
-0.178295 -0.0242843 0.44513
0.267683 -0.074395 0.456204
0.0915743 0.0625035 0.0372366
0.0577412 -0.0816083 0.394653
-0.10086 0.0734728 0.0401322
-0.331253 -0.13024 0.398359
-0.337513 -0.0483655 0.39623
0.0390158 -0.111265 0.468127
0.290316 -0.0414227 0.440336
0.0640492 -0.0562314 0.319388
0.372527 -0.0799217 0.306661
0.380616 -0.0552409 0.41088
-0.297917 -0.106111 0.42735
-0.299031 -0.10058 0.359032
-0.119231 0.061691 0.032108
0.166925 -0.0224662 0.48013
0.168597 -0.111774 0.534546
-0.0450692 0.00267669 0.480165
-0.26978 -0.0383166 0.449505
-0.0833664 -0.0314074 0.192502
-0.0602639 -0.0491226 0.276858
0.0282378 0.0118815 0.517076
0.211758 -0.056504 0.309409
-0.0880412 0.0756083 0.0171577
-0.19136 -0.100631 0.533276
-0.0580401 -0.0262391 0.18873
-0.08188 0.0618257 0.0500951
0.104498 -0.0151943 0.364179
0.188019 -0.100746 0.526061
0.0240871 -0.103878 0.743968
-0.0474078 -0.057355 0.728169
-0.174701 -0.0515688 0.49602
-0.0841701 -0.0472399 0.159963
-0.203889 -0.0702181 0.427845
0.23847 -0.0722982 0.41728
0.167167 -0.117905 0.452579
-0.45169 -0.0846522 0.257496
0.387439 -0.0574035 0.305671
-0.197508 -0.0453851 0.512557
0.3066 -0.114367 0.341836
-0.0134389 0.0254864 0.135467
0.328362 -0.0669583 0.359344
0.33011 -0.0907395 0.44806
-0.106701 -0.015 0.394414
-0.0561878 -0.0870889 0.444226
0.18756 -0.05547 0.517955
-0.0542322 -0.0944177 0.506153
0.092125 -0.0444636 0.217099
-0.0847501 -0.0626072 0.403311
0.0282504 -0.0300189 0.724216
0.0301127 0.0132681 0.64698
-0.0295277 -0.11866 0.501263
0.0239601 0.0124153 0.500863
-0.463968 -0.0791272 0.29771
0.30135 -0.0444179 0.334211
0.026966 0.0114505 0.451732
-0.0137602 0.00136103 0.166732
0.162518 -0.0232018 0.394598
0.040503 0.00674939 0.480102
-0.0517304 -0.0528641 0.228073
-0.146386 -0.0209675 0.384635
0.369314 -0.0574863 0.421418
0.0224153 -0.000149366 0.267287
-0.323031 -0.126543 0.447732
0.199784 -0.0282677 0.419233
-0.453163 -0.0662345 0.336247
-0.0581951 -0.0418703 0.154585
0.105789 -0.0519093 0.171434
-0.0492099 0.0630602 0.0523703
0.163816 -0.0679758 0.482436
0.0293677 -0.118776 0.604359
0.0109785 0.020353 0.0960716
0.333294 -0.0525422 0.439753
-0.0662105 -0.0752101 0.633435
0.040647 -0.0945278 0.318224
-0.0513691 0.0689451 0.125046
-0.0826901 -0.0631845 0.523331
-0.218365 -0.0315451 0.384872
0.162379 -0.0445975 0.451452
-0.425972 -0.0825619 0.247426
-0.400356 -0.0821042 0.370801
0.159768 -0.119057 0.47812
-0.310475 -0.0767855 0.419114
0.00207739 0.0174955 0.380761
-0.00860697 0.00785356 0.287534
0.330401 -0.0472645 0.396404
-0.300089 -0.116709 0.379344
0.0180394 0.00148505 0.247741
-0.0321532 0.00416989 0.345962
0.0601323 -0.0753313 0.3609
-0.149614 -0.0202666 0.512085
0.154634 -0.0210967 0.443877
0.355254 -0.0791231 0.351057
-0.235262 -0.0722932 0.453904
-0.036524 -0.0133131 0.250738
-0.0539056 -0.026669 0.200025
0.383411 -0.055677 0.361828
-0.241522 -0.033699 0.437092
-0.0507382 -0.0950152 0.355556
-0.190726 -0.0694116 0.428656
0.044983 -0.0686912 0.22941
0.00964414 0.0483377 0.153394
-0.402682 -0.059247 0.338046
-0.0353923 0.0630838 0.0594639
-0.131602 -0.0659879 0.474746
0.323612 -0.0658446 0.344661
0.0126974 0.118741 0.09953
-0.323197 -0.0477924 0.444503
-0.303639 -0.0757149 0.318738
-0.0481095 -0.0640792 0.235588
-0.367641 -0.060312 0.422664
0.0701903 -0.0275558 0.179666
-0.446355 -0.0657033 0.327453
-0.280138 -0.0395793 0.419545
0.0848036 -0.0339956 0.344986
-0.185718 -0.0697084 0.511384
-0.413454 -0.0614974 0.257459
0.238146 -0.0347376 0.364025
0.270778 -0.0382384 0.43081
-0.0210679 0.0109983 0.377427
0.0456336 -0.00443418 0.350508
0.0455865 -0.106993 0.523584
0.0657996 -0.0717431 0.529586
-0.391615 -0.0580188 0.305261
0.105085 -0.0261883 0.099956
-0.0165659 0.00507419 0.696618
0.181636 -0.0465701 0.317693
-0.40756 -0.0819333 0.260814
-0.00736521 -0.0765714 0.804401
0.0726729 0.0566007 0.11798
-0.465491 -0.0720723 0.245757
0.318235 -0.0765175 0.293159
-0.114703 0.0669023 0.0739643
0.345256 -0.103236 0.378287
-0.224098 -0.0334083 0.306111
0.000174698 0.131788 0.0554135
0.237006 -0.0343362 0.381153
-0.0170187 0.0669981 0.138253
-0.222515 -0.0717533 0.482595
-0.11478 -0.0275154 0.0907578
-0.00760182 0.131917 0.0501802
-0.00604506 -0.0538888 0.796263
0.0955223 0.0675377 0.0982432
0.07214 0.0581839 0.0953544
-0.0302761 0.0605078 0.0976153
-0.125486 -0.0657918 0.516751
0.0362656 -0.00778454 0.703274
-0.0136429 -0.0368548 0.75812
0.0486174 -0.0017065 0.575267
0.273987 -0.0740191 0.346123
-0.286062 -0.0748437 0.357487
-0.267631 -0.0392899 0.347082
-0.03299 -0.116145 0.481211
-0.0574437 -0.0904413 0.623381
0.186536 -0.0764969 0.481139
-0.00851738 0.115489 0.0154749
-0.0389083 -0.111845 0.566591
-0.0151424 -0.126346 0.492055
-0.313002 -0.129758 0.393544
0.053871 -0.0536835 0.242789
0.0590881 0.0731331 0.0656734
0.0344294 0.0765631 0.0198912
0.0483104 -0.0214782 0.122653
0.072323 -0.0606337 0.635946
0.163476 -0.0347216 0.528729
-0.31355 -0.0762148 0.290544
-0.18623 -0.0259797 0.504562
-0.406823 -0.0821949 0.399003
0.0380166 -0.0303094 0.114272
0.267229 -0.0733893 0.303578
0.0550044 -0.0888507 0.41926
-0.309885 -0.0768518 0.430905
0.119786 -0.0657109 0.5383
0.130378 -0.066566 0.54833
-0.112027 -0.0649106 0.503963
0.0167942 0.00626962 0.304468
0.0577793 -0.0175835 0.351011
-0.0115619 -0.115053 0.347389
-0.255895 -0.07337 0.416583
0.0936097 -0.0134127 0.375312
-0.142365 -0.0207725 0.361643
-0.0216127 0.0150431 0.630083
-0.0289601 -0.0348646 0.0635698
-0.265141 -0.074027 0.4318
-0.0682393 -0.0421223 0.619757
0.362929 -0.0536735 0.317781
-0.343723 -0.12423 0.427452
0.0624453 -0.047142 0.192322
-0.0359878 -0.0754303 0.765152
-0.296231 -0.105326 0.396683
0.296212 -0.0421095 0.421214
-0.0880773 0.0606669 0.0584815
-0.249039 -0.0368073 0.326101
-0.353297 -0.0515076 0.363647
0.0528607 -0.0980443 0.574237
-0.279183 -0.0749525 0.439969
0.366253 -0.0801999 0.402557
-0.00821648 0.00535857 0.238202
-0.0778913 -0.0107149 0.398747
0.0112145 0.0872102 0.0723523
-0.177511 -0.0679193 0.329355
-0.00768702 -0.126332 0.686047
0.0583334 0.0589144 0.0966712
-0.00163422 -0.076995 0.158088
-0.162918 -0.023782 0.361335
-0.205685 -0.0283418 0.460642
0.00972932 -0.00216062 0.0839073
0.00551245 -0.0359401 0.761851
-0.0841676 -0.0287428 0.166039
0.10779 -0.0317889 0.147204
-0.0720962 -0.0279122 0.179645
-0.324672 -0.077803 0.4299
-0.382671 -0.0811407 0.390217
-0.177387 -0.121276 0.476968
-0.0308032 -0.0541476 0.128151
-0.330816 -0.0773341 0.301388
-0.303935 -0.0766763 0.449434
-0.0089211 0.121129 0.0214456
0.00169502 0.00654083 0.227356
-0.0366875 0.00460646 0.671102
-0.243083 -0.0359785 0.322855
-0.0506342 -0.072309 0.283466
0.261064 -0.0742148 0.476883
-0.0210878 -0.101789 0.297938
-0.102997 -0.052575 0.189433
-0.313583 -0.072642 0.280173
-0.352161 -0.0785949 0.288559
0.0137207 0.014849 0.473104
0.325407 -0.0770943 0.324411
-0.0196294 -0.000212854 0.226406
-0.049496 -0.104152 0.627931
0.179779 -0.0688126 0.443858
-0.375941 -0.0553112 0.339302
-0.0345626 -0.115002 0.618424
0.0486292 -0.104782 0.572767
-0.125541 -0.0447804 0.550897
0.104363 0.0614315 0.0420411
0.03495 0.0749001 0.0606062
