0.0528354 -0.0946928 0.500642
-0.0264062 -0.057493 0.141945
0.0152374 -0.11036 0.359194
-0.0363718 0.0102392 0.705687
0.0840943 -0.0981183 0.608707
-0.0463991 0.0103548 0.66158
-0.0715311 -0.0985333 0.555703
0.0399986 -0.0170708 0.121989
0.0296663 -0.144385 0.535777
-0.0632379 -0.0165643 0.188943
-0.463509 -0.0941575 0.402334
-0.184005 -0.0261038 0.107782
-0.0257441 -0.130636 0.643597
0.113913 -0.0384538 0.111105
-0.0100117 0.0234278 0.0762334
-0.333857 -0.0894263 0.418929
-0.0440062 -0.0127148 0.283678
0.0356042 -0.135343 0.454519
0.0693327 -0.120564 0.512304
0.0511254 0.00729118 0.607146
-0.0351455 -0.110892 0.654813
0.0548448 -0.0924323 0.538049
0.223469 -0.0932885 0.462859
-0.436295 -0.0851657 0.360272
0.0846722 -0.0236372 0.210216
-0.335808 -0.0859429 0.330269
0.0523951 -0.0228145 0.729934
-0.286827 -0.0914211 0.469091
-0.0738804 -0.0519445 0.658487
-0.0538095 -0.0258846 0.730077
0.230904 -0.110041 0.529677
0.134632 -0.109014 0.605398
-0.477614 -0.0913536 0.327026
0.185808 -0.0897945 0.361586
0.0108933 0.121676 0.0570956
0.168333 -0.105336 0.349799
-0.401118 -0.0867385 0.383536
-0.305164 -0.0875757 0.358592
0.182687 -0.10992 0.582158
-0.174461 -0.0894623 0.34889
0.00330735 -0.141435 0.476348
0.295954 -0.105599 0.513961
-0.0809643 -0.0208536 0.197761
0.118147 -0.0286981 0.201928
-0.0539137 -0.0982199 0.506089
-0.0418016 -0.00993922 0.280774
0.0271134 0.0224093 0.595612
0.0478616 0.0100721 0.580333
-0.0358821 0.0199946 0.563169
-0.0198988 0.0151039 0.328196
0.0673778 -0.121164 0.523883
0.0579773 -0.0333586 0.292787
0.0281863 0.0224195 0.6536
0.2816 -0.106579 0.490222
-0.132897 -0.0435289 0.140861
0.0707779 -0.112531 0.362969
0.0455828 -0.0353855 0.157247
-0.0272995 0.0221919 0.577373
-0.0589778 -0.123089 0.602673
0.0716182 -0.0335945 0.263784
-0.0910255 -0.0257959 0.218782
-0.0331183 -0.0460067 0.794381
0.234357 -0.0956734 0.340915
0.0688726 -0.0527388 0.390708
0.0135832 0.012357 0.721
-0.0679742 -0.0405834 0.209941
-0.13253 -0.116758 0.584921
-0.138195 -0.043618 0.132089
0.468103 -0.0854326 0.43861
-0.0547841 -0.0952191 0.436434
0.452024 -0.0936884 0.448817
0.196848 -0.092407 0.429491
-0.148555 -0.0959889 0.557662
0.0605811 -0.0829508 0.57195
-0.345491 -0.100568 0.384481
-0.0138887 0.0975663 0.106872
-0.0632894 -0.115263 0.381136
-0.351667 -0.0882744 0.398138
0.401812 -0.0874207 0.401419
-0.371674 -0.100429 0.454344
-0.0246101 -0.118546 0.652605
-0.10859 -0.0965822 0.491104
-0.0881153 -0.119791 0.528546
0.0630434 -0.0399459 0.212082
-0.318624 -0.103154 0.414566
0.150095 -0.0309111 0.0675353
0.066918 -0.0428235 0.41814
0.201788 -0.110926 0.450839
0.204617 -0.0927813 0.442059
-0.425845 -0.0967295 0.454019
0.191815 -0.0903941 0.378554
-0.00475685 -0.0107107 0.744273
0.20387 -0.108776 0.40155
-0.425379 -0.0967613 0.460959
0.0853226 -0.0968744 0.488036
-0.344193 -0.0875397 0.375495
-0.0990746 -0.11756 0.479114
-0.282223 -0.106537 0.47205
-0.369133 -0.100602 0.422259
-0.287939 -0.0880849 0.364012
0.453321 -0.085921 0.429942
0.0964363 -0.093224 0.407575
0.213678 -0.111217 0.530735
-0.471681 -0.0935457 0.380971
-0.39686 -0.0870203 0.388638
-0.0145818 0.0250545 0.586587
-0.00928734 -0.144649 0.627593
0.104941 -0.0963394 0.483887
0.0368819 -0.0664802 0.796043
0.0168694 -0.00282756 0.0884641
-0.0357153 -0.003471 0.242018
-0.0387099 -0.13131 0.427233
0.0259051 -0.0421136 0.0801738
-0.0856389 -0.114239 0.384959
-0.083936 -0.0236813 0.0948196
0.259631 -0.108079 0.512754
0.0504093 0.00309209 0.682206
0.00934714 -0.0312914 0.79526
0.171203 -0.0466515 0.117766
0.0869048 -0.0437019 0.213742
0.470255 -0.0839142 0.341607
-0.357288 -0.101411 0.481554
-0.291276 -0.0912741 0.49288
-0.20355 -0.0941722 0.488725
-0.0519832 0.0067259 0.579882
-0.103514 -0.0919101 0.378927
0.0146406 -0.00251833 0.0773612
0.437597 -0.093897 0.339433
0.186424 -0.113078 0.557983
0.208964 -0.10249 0.344339
0.137959 -0.0259052 0.07673
0.275691 -0.10644 0.438336
0.396164 -0.0987563 0.410081
0.0641602 -0.121427 0.605598
0.433584 -0.086573 0.424014
0.18584 -0.0988264 0.578927
-0.222343 -0.10909 0.433138
-0.0672691 -0.121215 0.60512
-0.0237327 -0.0579446 0.136014
-0.152161 -0.0938818 0.446595
-0.386908 -0.0867794 0.377439
0.186419 -0.0914449 0.401745
0.0668516 -0.04278 0.405879
0.0267027 -0.0813113 0.799869
0.181137 -0.0446941 0.152071
-0.173929 -0.1088 0.364339
0.0455725 -0.132829 0.625932
0.0596097 -0.0989271 0.589942
-0.0658353 -0.0987215 0.525698
-0.0705426 -0.0401558 0.660168
0.065317 -0.0349007 0.40215
-0.374268 -0.0885325 0.419293
-0.188613 -0.111769 0.454578
0.275631 -0.1037 0.53613
-0.43716 -0.0944008 0.353373
-0.0011402 -0.0934773 0.282171
0.043213 -0.0115533 0.250587
0.347449 -0.0894184 0.445431
0.115917 -0.113929 0.415286
0.0589884 -0.00869058 0.595806
0.0646756 -0.029214 0.498007
0.332294 -0.0861857 0.334944
-0.239586 -0.108419 0.439295
0.0127273 0.0925757 0.0957277
0.0142761 0.0671035 0.15094
0.153737 -0.11531 0.510672
0.0557527 -0.082993 0.371227
-0.0341722 -0.0715168 0.22023
0.0164998 0.021885 0.504239
0.0814955 -0.120243 0.613147
-0.06936 -0.0620557 0.535979
-0.0684316 -0.0387189 0.551228
-0.391845 -0.0877631 0.319953
0.326432 -0.103518 0.437047
0.0353104 -0.0792263 0.780637
0.0802314 -0.096067 0.467033
-0.0372826 -0.0397508 0.77002
-0.0812512 -0.12026 0.621749
0.257638 -0.105354 0.388628
-0.0306923 -0.143639 0.571265
-0.311293 -0.0932898 0.330644
0.0522437 0.00660995 0.56005
0.0500767 -0.0647081 0.270932
0.00660328 -0.0759822 0.188602
-0.107543 -0.118464 0.512944
-0.333871 -0.10301 0.456871
0.0710097 -0.0642482 0.611952
0.0631513 -0.0652288 0.358412
0.221504 -0.0935791 0.537027
0.0323613 -0.140212 0.493133
0.0678729 -0.0488491 0.374755
0.0821437 -0.0388379 0.151297
0.0632287 -0.115894 0.395763
-0.391289 -0.0879702 0.419991
0.0156439 0.0151521 0.714699
0.458044 -0.0945307 0.436149
-0.0645944 -0.032088 0.36388
-0.0367284 0.0198401 0.573717
0.0262102 0.00962443 0.301527
0.0867968 -0.0938992 0.419234
-0.0195712 -0.00522062 0.0816756
-0.0462225 -0.132356 0.640077
-0.0185652 -0.0693749 0.172006
-0.0280521 -0.0890126 0.292125
-0.183379 -0.0423017 0.0702612
-0.10907 -0.111367 0.357819
-0.0284955 -0.106901 0.738603
0.0824851 -0.0981715 0.563229
-0.0290192 0.0195395 0.500473
-0.142527 -0.096188 0.522906
0.0546511 -0.0613707 0.744031
0.000689681 -0.1064 0.782417
-0.0154482 0.0519168 0.154214
-0.318335 -0.104071 0.515179
-0.179972 -0.0949511 0.527192
0.0913467 -0.104816 0.62558
0.0571211 -0.0115997 0.366944
0.124557 -0.0211936 0.123457
0.0641305 -0.0740441 0.698442
0.156959 -0.0911899 0.383473
0.344707 -0.0998538 0.365017
0.093433 -0.11901 0.505944
-0.231012 -0.107591 0.40813
0.0621862 -0.0354458 0.317362
0.465517 -0.0855181 0.42959
-0.00702128 0.0233858 0.452292
0.135551 -0.0460956 0.159804
-0.373328 -0.0975277 0.345375
0.067992 -0.0700602 0.605589
-0.0556889 -0.0990567 0.593615
0.224824 -0.0904998 0.396039
-0.0878483 -0.106902 0.360588
-0.0894885 -0.0194536 0.123253
-0.0458157 -0.0422949 0.757887
0.00872712 0.0806793 0.142961
-0.152816 -0.115315 0.597516
-0.348411 -0.102017 0.447095
0.231891 -0.109973 0.526973
-0.0523668 -0.0690426 0.740678
0.188113 -0.112963 0.569165
0.025639 -0.0869494 0.275762
0.0517756 -0.0963932 0.488769
-0.0685088 -0.0301236 0.652776
0.0447873 -0.0329928 0.745069
-0.0964253 -0.0912302 0.359574
-0.00859239 -0.0591177 0.0984052
0.157974 -0.0937161 0.444975
0.197845 -0.112298 0.557662
0.388967 -0.0982283 0.385313
-0.466189 -0.0939205 0.382901
-0.182467 -0.0481485 0.119343
-0.0366267 0.0189684 0.628344
0.214386 -0.0927695 0.446196
0.0232279 -0.000199249 0.165783
-0.106754 -0.0201401 0.126042
-0.0368882 -0.0813639 0.283315
-0.172515 -0.0518939 0.150721
-0.159407 -0.113876 0.468012
0.00111647 0.1076 0.0131897
0.13623 -0.0344547 0.19557
-0.0135975 0.00757567 0.161353
0.0253006 0.00150898 0.207261
-0.0350315 -0.0904603 0.316032
-0.0613326 -0.0771182 0.503889
0.119411 -0.0239578 0.173577
-0.170253 -0.094951 0.479236
0.0650531 -0.0751766 0.595207
0.427611 -0.0940266 0.32788
0.0527292 -0.120727 0.388097
-0.0502048 -0.122239 0.38731
0.399483 -0.0974032 0.378857
0.348085 -0.0865134 0.351073
-0.0572758 -0.088697 0.668732
-0.0421938 -0.0397381 0.164093
-0.350951 -0.0876422 0.381527
-0.0457528 0.00808404 0.420757
-0.00998162 -0.119688 0.722829
0.214497 -0.111161 0.475733
0.198248 -0.0904998 0.384005
0.0512875 0.00735708 0.566201
-0.0147645 0.0255572 0.614604
-0.3849 -0.0863066 0.364279
0.0512545 -0.1287 0.574323
0.0526206 -0.127049 0.517028
-0.0354271 -0.00182952 0.258081
0.0609806 -0.0152119 0.560502
0.405313 -0.0981316 0.427062
-0.0644519 -0.073728 0.690218
-0.269887 -0.107379 0.480944
0.0603643 -0.0281857 0.335587
-0.0423662 -0.0141938 0.184035
-0.0289476 -0.142347 0.491764
0.242774 -0.10923 0.508376
-0.0568622 -0.0200295 0.229152
0.386825 -0.099394 0.414261
-0.0475219 -0.0187709 0.276988
0.0110331 -0.000532696 0.0837128
-0.0711011 -0.0499645 0.546699
-0.0698936 -0.0421462 0.56701
0.0295078 0.0213333 0.550674
-0.067308 -0.0536803 0.724867
0.204438 -0.110421 0.442072
-0.128599 -0.0501206 0.214125
0.0698672 -0.0630514 0.563679
0.354272 -0.0989332 0.354773
0.219748 -0.106973 0.378551
0.0701526 -0.0499038 0.516654
0.284615 -0.106373 0.461935
0.170674 -0.0497007 0.1413
-0.101513 -0.0975429 0.513973
0.0044925 0.0137769 0.224173
-0.146261 -0.0960647 0.515125
0.151972 -0.0941537 0.452864
0.14819 -0.0998619 0.597318
0.131173 -0.0965631 0.533662
-0.0108432 0.0100637 0.101497
-0.19945 -0.0446116 0.102021
0.0999483 -0.118983 0.542377
0.234767 -0.0931409 0.488057
0.0161668 -0.0593927 0.119885
-0.0592324 -0.015386 0.437296
-0.39142 -0.0879658 0.463617
0.124515 -0.0401568 0.114165
0.215445 -0.110368 0.455072
-0.0497823 0.00834509 0.502804
-0.315398 -0.0904772 0.456059
-0.00292039 0.0250793 0.453529
0.300097 -0.0866477 0.332486
0.368023 -0.0990648 0.377438
-0.016442 -0.144649 0.61729
-0.0733189 -0.0461198 0.634469
-0.0720194 -0.0550888 0.536745
0.328327 -0.101857 0.39426
-0.175311 -0.113837 0.563751
-0.0577261 -0.00361779 0.499529
0.0357332 -0.139977 0.58988
-0.0578011 -0.0819025 0.443741
-0.304096 -0.104084 0.418231
-0.359402 -0.0991238 0.366864
-0.117172 -0.0429607 0.161655
-0.391045 -0.0879782 0.418549
0.457234 -0.0857917 0.416941
0.186252 -0.109096 0.38696
0.0685988 -0.062806 0.523379
0.339716 -0.0986928 0.328245
-0.170859 -0.111647 0.429331
-0.276023 -0.0886417 0.373017
-0.199366 -0.0399134 0.051794
-0.136124 -0.112963 0.417527
0.0638921 -0.0297504 0.358922
0.250443 -0.108707 0.460974
0.0372323 -0.0409014 0.139975
-0.204914 -0.0941271 0.522256
-0.0769009 -0.0195864 0.194675
-0.0696504 -0.0606113 0.523322
-0.0910128 -0.0188822 0.156565
0.0845577 -0.0229734 0.206408
0.0551383 -0.0990749 0.529898
-0.0195838 -0.0577209 0.12313
0.0498466 -0.0437821 0.215414
-0.0592531 -0.016412 0.388904
0.0472439 0.0109725 0.552015
-0.0205075 -0.142829 0.64323
-0.356945 -0.101434 0.440806
0.403831 -0.0980928 0.402675
-0.163382 -0.02412 0.107272
-0.0456053 -0.126222 0.414541
0.0634144 -0.0776771 0.579742
0.231737 -0.107629 0.410003
-0.0114577 0.135141 0.0959788
0.307609 -0.0894883 0.408839
-0.0489073 0.00880687 0.495779
0.0644688 -0.0394695 0.201873
-0.261395 -0.105099 0.38732
-0.0550511 0.00401865 0.62442
0.238138 -0.109547 0.520758
0.11812 -0.0960576 0.48291
-0.0428277 0.013776 0.648475
0.319738 -0.103975 0.447215
0.389081 -0.09924 0.446899
0.371115 -0.0852516 0.328917
0.00615348 -0.0340547 0.800531
-0.0369378 -0.0563607 0.177133
-0.287423 -0.102155 0.346982
-0.107512 -0.028642 0.215013
0.0648664 -0.0301916 0.498551
0.416029 -0.0854049 0.356684
0.180474 -0.106002 0.348177
-0.281182 -0.102673 0.3519
0.00144924 0.0330533 0.0449008
0.0641689 -0.0732832 0.541632
-0.385116 -0.0977125 0.366656
-0.0551904 -0.0990731 0.630398
0.066779 -0.0399688 0.463156
-0.229283 -0.106357 0.376058
0.349576 -0.0859759 0.33801
0.106651 -0.0969927 0.499858
-0.0107345 -0.118106 0.73189
0.0661253 -0.0373649 0.463648
0.0690009 -0.0643919 0.557427
0.0770076 -0.0983524 0.549601
-0.118639 -0.117707 0.547969
0.0634918 -0.0721804 0.493699
-0.069215 -0.051005 0.440004
0.420038 -0.0943494 0.32563
-0.116166 -0.117876 0.567259
-0.438408 -0.0958716 0.397337
0.117329 -0.10155 0.356577
0.271956 -0.0906998 0.422219
-0.071999 -0.050218 0.674001
-0.0482824 -0.122658 0.369627
-0.135023 -0.0275773 0.169637
-0.360451 -0.0989909 0.36492
0.0129961 -0.144649 0.566319
-0.128878 -0.116019 0.480136
0.470756 -0.085345 0.402759
-0.0106491 -0.116707 0.740623
0.102492 -0.0945587 0.441293
0.0184111 -0.0340276 0.786923
-0.0207858 0.0224953 0.539175
0.00425889 -0.0942379 0.286239
0.0558569 -0.0160076 0.174513
-0.000380783 0.0423275 0.0408924
-0.0741425 -0.0984471 0.526594
0.219671 -0.107152 0.382804
-0.0603083 -0.122123 0.60902
0.0130603 0.0229594 0.135749
0.0502208 0.00808035 0.595906
0.00190721 -0.103831 0.329213
-0.00023654 0.122752 0.114761
0.0127922 0.095608 0.0957166
0.177015 -0.11372 0.569176
0.336277 -0.100642 0.37373
-0.0780818 -0.111871 0.633208
-0.0429465 -0.00913781 0.29503
-0.109265 -0.116683 0.47131
-0.112141 -0.112759 0.38247
-0.196358 -0.0439752 0.109498
-0.321623 -0.0900877 0.429907
0.169926 -0.0369898 0.161397
-0.0404052 -0.0831164 0.756317
-0.00782661 -0.0803397 0.211907
0.015598 -0.0702599 0.167195
0.0536852 -0.094921 0.676161
-0.0432177 -0.0636655 0.777117
0.0287902 -0.0281071 0.060564
-0.0849835 -0.0183743 0.13713
0.151868 -0.0958795 0.535047
0.166738 -0.0904534 0.369681
0.0146627 0.0710631 0.148051
-0.167713 -0.0423871 0.0874128
0.200762 -0.0891638 0.352838
0.139205 -0.0961631 0.494329
0.10285 -0.0273106 0.212198
-0.128795 -0.117013 0.560161
-0.387663 -0.08809 0.443266
-0.0635876 -0.0966338 0.473187
0.0749186 -0.120692 0.58439
-0.141414 -0.0962248 0.513324
0.179135 -0.0949787 0.525123
-0.109166 -0.114378 0.417385
0.181843 -0.0454517 0.151236
-0.358729 -0.0886933 0.412455
-0.0579244 -0.0647204 0.324245
0.129755 -0.0454457 0.164758
0.0234025 -0.0322902 0.773184
-0.364142 -0.100943 0.454702
0.0275521 -0.0200679 0.0670018
0.065053 -0.121366 0.62852
-0.412852 -0.0863204 0.378694
0.0124132 -0.075577 0.186435
0.0621403 -0.0429981 0.282698
-0.0544117 -0.0287219 0.284993
-0.0665873 -0.0446584 0.716978
-0.0798964 -0.120093 0.514416
-0.397577 -0.0954103 0.32196
-0.0127096 -0.10038 0.314342
-0.0119575 0.118605 0.116228
-0.391223 -0.0958035 0.32362
0.425338 -0.0868454 0.430403
-0.168842 -0.0953187 0.507683
-0.125869 -0.117213 0.556166
0.0530305 0.00443558 0.476878
0.0620048 -0.0739569 0.462818
-0.051857 -0.0981174 0.547705
0.161832 -0.0401314 0.0747943
0.195947 -0.0477713 0.101858
0.0215552 -0.0567588 0.125001
-0.123137 -0.0911046 0.367513
-0.0688566 -0.0512351 0.413757
-0.193922 -0.0944902 0.539221
-0.132069 -0.11441 0.446551
0.15983 -0.114894 0.53486
0.07053 -0.0423959 0.666953
0.0658265 -0.0418923 0.351628
0.18122 -0.0913955 0.398414
-0.161854 -0.11382 0.59289
-0.0380597 -0.129991 0.394713
0.324319 -0.0926643 0.328886
0.0492385 -0.0625536 0.256757
-0.0529597 -0.0930855 0.469181
0.145097 -0.110385 0.366454
0.0518771 -0.124839 0.471856
-0.0200246 -0.140438 0.461956
0.427354 -0.0966265 0.460368
0.0247285 -0.0746458 0.8084
0.0315804 0.021174 0.57854
-0.00165798 -0.0826133 0.224067
-0.0136235 -0.0324283 0.791304
-0.06562 -0.116927 0.42285
-0.0104689 0.0896431 0.0595697
-0.25264 -0.102146 0.547154
0.015066 -0.0683846 0.15678
0.0965865 -0.116675 0.455392
0.0495038 -0.045534 0.217207
-0.462089 -0.0942545 0.428919
0.0622635 -0.0160711 0.656707
-0.0569947 -0.0891857 0.647137
0.198245 -0.0909719 0.395421
0.338744 -0.0864318 0.344277
0.174319 -0.110903 0.415675
0.0549104 -0.00552445 0.398028
-0.120337 -0.0911264 0.366889
-0.426031 -0.086545 0.391095
-0.0193798 -0.0776351 0.211054
0.0870338 -0.0212887 0.193734
-0.224696 -0.105784 0.355974
-0.0127983 0.0867664 0.0989397
0.121789 -0.0453584 0.178904
0.21929 -0.0969117 0.56246
0.309183 -0.104696 0.502334
0.131262 -0.0919062 0.390234
-0.0947392 -0.0458525 0.230727
-0.305612 -0.0880534 0.37107
0.196784 -0.0920778 0.421501
-0.403351 -0.0855929 0.355215
0.0364792 -0.136963 0.489175
0.422653 -0.0852234 0.35486
-0.258694 -0.0923505 0.532919
0.029094 -0.0361509 0.0788862
-0.0646905 -0.0310199 0.427663
0.210746 -0.111417 0.501781
-0.0451924 -0.0142418 0.244988
-0.214616 -0.0938066 0.496654
0.0542447 -0.126528 0.566016
0.0155493 0.102513 0.124336
-0.0707828 -0.0419159 0.592505
0.106079 -0.0973921 0.589771
0.169781 -0.0337446 0.152788
-0.263723 -0.0921843 0.485625
0.0236693 0.0159056 0.351153
-0.292041 -0.105866 0.513898
-0.166517 -0.0278082 0.0742387
-0.317313 -0.104141 0.471043
-0.100013 -0.118979 0.528419
0.0129526 0.0255771 0.683272
0.0416446 -0.0408066 0.163736
0.0128998 -0.040643 0.806281
-0.0918069 -0.0916194 0.367085
-0.116659 -0.0486873 0.22596
0.0794564 -0.0440401 0.240295
-0.0531127 -0.022956 0.30263
-0.0996628 -0.119003 0.519969
0.119297 -0.0464615 0.193401
0.00180951 0.105261 0.0142436
-0.118117 -0.111799 0.366752
-0.111795 -0.0930149 0.409044
-0.477325 -0.0931482 0.37863
-0.0915015 -0.0323174 0.0975826
-0.0272123 0.022067 0.56197
0.241361 -0.106986 0.406952
-0.0177794 -0.009512 0.742807
0.155457 -0.0286653 0.0645331
0.478898 -0.0921407 0.351819
-0.0150724 0.0168402 0.180988
0.0733898 -0.0521043 0.664339
-0.45141 -0.0858083 0.384929
0.0661606 -0.0290699 0.557986
-0.151224 -0.110221 0.370175
-0.0293048 0.00103082 0.729762
-0.366767 -0.0854371 0.332041
-0.0897508 -0.118577 0.491269
-0.180616 -0.0398561 0.060481
-0.0962407 -0.0977171 0.582861
0.0599134 -0.0287201 0.329513
-0.228122 -0.0933604 0.493896
-0.0542868 -0.0936713 0.677027
0.165136 -0.0954412 0.544485
0.038113 0.0177081 0.639154
-0.0596779 -0.0168586 0.418698
-0.041573 -0.0402136 0.764127
-0.232061 -0.0932303 0.547359
-0.0895056 -0.118618 0.491934
0.352468 -0.08841 0.402023
-0.0464789 -0.00756921 0.320007
0.0103418 0.0216772 0.353439
0.139782 -0.0924461 0.406792
-0.306307 -0.0905634 0.434476
-0.196031 -0.0448317 0.0780593
-0.0274654 -0.136938 0.643402
-0.081457 -0.0982054 0.562795
-0.0515165 -0.0127536 0.334203
0.345421 -0.0894854 0.496463
0.421561 -0.0861708 0.379228
-0.0765628 -0.0944104 0.426817
-0.284873 -0.0887655 0.38014
-0.0421141 -0.0966196 0.73615
-0.0659546 -0.121304 0.56827
-0.0998991 -0.117696 0.623623
-0.135079 -0.0964341 0.511502
0.0704722 -0.041404 0.664646
0.041437 -0.0445558 0.172493
-0.381981 -0.0864801 0.367269
0.182414 -0.0446818 0.0910997
-0.0208994 -0.0496402 0.09069
-0.17933 -0.0369164 0.146295
-0.0709658 -0.0648976 0.630591
0.0158954 -0.144649 0.628604
0.3656 -0.100316 0.406198
-0.0220238 0.016286 0.708085
0.0235185 -0.0498886 0.100637
0.0308776 0.0139976 0.711437
-0.330377 -0.10288 0.423256
0.331558 -0.101789 0.396848
-0.305519 -0.104319 0.425772
0.00758513 -0.139787 0.451272
0.00544999 -0.00298892 0.73663
-0.00698767 -0.0447242 0.0604908
0.0668573 -0.0637588 0.462328
0.0548248 -0.00907021 0.35744
0.00914247 0.0697784 0.0429852
-0.118332 -0.0243939 0.0798039
-0.185565 -0.109477 0.395315
0.0275914 -0.0690355 0.808757
0.132132 -0.116785 0.51273
-0.199041 -0.0484917 0.105253
0.0249115 -0.111061 0.733141
0.0906786 -0.0949892 0.446319
0.0614922 -0.0164457 0.181165
0.037761 -0.0928777 0.332871
-0.0153027 0.0540272 0.150833
-0.0722946 -0.0177351 0.188719
0.0143857 0.0804533 0.122934
-0.0127414 0.0216494 0.371455
0.316341 -0.0904461 0.495418
0.00466437 0.0569454 0.16092
-0.105368 -0.0951457 0.456212
-0.108249 -0.0916663 0.374976
-0.0156231 0.0251478 0.659122
-0.158831 -0.0432797 0.104168
0.00821448 -0.122209 0.695786
-0.0560215 -0.0908776 0.646497
-0.0359887 -0.130227 0.37064
-0.398182 -0.0986185 0.468601
0.106473 -0.0428903 0.232914
-0.419105 -0.0971897 0.409656
-0.141209 -0.0497403 0.200529
-0.220904 -0.0935989 0.500003
0.00619264 0.0224535 0.344256
-0.23862 -0.0894508 0.376922
-0.0114348 -0.0557439 0.827103
-0.00536187 -0.118233 0.732275
0.0683067 -0.0273739 0.640107
0.443777 -0.0941188 0.355341
0.0212005 0.015967 0.709502
0.00162105 0.0478532 0.168329
-0.455107 -0.0947313 0.400098
-0.110376 -0.0949164 0.35734
-0.204127 -0.111869 0.495626
-0.140936 -0.113351 0.432864
0.0630953 -0.0279449 0.358862
-0.0813738 -0.0429884 0.216174
0.105619 -0.115166 0.431384
-0.101308 -0.111367 0.621927
0.0209687 -0.0247221 0.0604908
0.182918 -0.109054 0.381762
-0.00675858 0.0487818 0.166048
-0.306009 -0.104912 0.440995
0.0484067 -0.0182638 0.11094
-0.0161828 -0.144649 0.563056
-0.00873395 0.0709587 0.0350224
0.00973062 0.0621674 0.0566144
0.432163 -0.0960292 0.389376
-0.0564409 -0.0331942 0.281103
-0.135162 -0.0964313 0.527182
-0.45321 -0.0948608 0.429061
0.102106 -0.1147 0.416147
0.134629 -0.110575 0.357886
-0.0341859 -0.140126 0.512174
-0.0413647 -0.126719 0.365577
-0.296385 -0.0898752 0.413341
-0.0728836 -0.0480392 0.606752
-0.0931578 -0.091936 0.35954
0.0671374 -0.0664502 0.70725
-0.0643459 -0.035707 0.715122
-0.185183 -0.0899973 0.366232
-0.126733 -0.0967098 0.562246
-0.0717106 -0.0636028 0.63634
0.0680036 -0.0435948 0.698258
0.474614 -0.0849424 0.37369
0.143431 -0.116014 0.594557
-0.0842404 -0.0954586 0.454537
0.103199 -0.0276039 0.213556
-0.183633 -0.113103 0.582185
0.118423 -0.0909469 0.361762
0.111947 -0.0426642 0.226934
-0.0478758 -0.0825712 0.737131
0.180429 -0.0494335 0.129932
-0.393598 -0.0978329 0.381646
0.178393 -0.108957 0.373741
-0.0640346 -0.072609 0.528755
0.180727 -0.0486647 0.125663
-0.0167209 -0.105855 0.766439
-0.0662091 -0.0366733 0.14633
0.00926148 0.143842 0.0786498
-0.366198 -0.088799 0.471062
-0.126251 -0.0923424 0.398724
0.368273 -0.100661 0.479317
0.139681 -0.0313513 0.183467
0.0866727 -0.0936897 0.414293
0.13878 -0.0908984 0.368955
-0.0246479 0.00994658 0.297319
-0.2774 -0.106866 0.464025
-0.0210426 -0.0780978 0.811309
0.0071774 0.0275961 0.637339
0.0201238 0.0185199 0.379433
0.156676 -0.0267306 0.0779209
-0.0813157 -0.0920796 0.373902
-0.00483474 -0.0288694 0.786851
-0.115372 -0.0487963 0.226716
-0.31197 -0.0892915 0.405723
-0.0408903 -0.106718 0.664336
0.379622 -0.0998859 0.45884
0.169013 -0.0953131 0.544605
-0.0149144 0.058179 0.156979
0.198082 -0.0434847 0.0646861
-0.103974 -0.118708 0.585091
0.00748331 0.0145009 0.271118
-0.0591997 -0.00850391 0.605549
-0.188093 -0.0912877 0.398631
0.0365409 -0.0345712 0.109345
0.352839 -0.0892404 0.459711
-0.340012 -0.0896641 0.452298
0.162634 -0.0340423 0.163022
0.274376 -0.106583 0.440088
-0.337162 -0.102785 0.503534
0.319677 -0.103198 0.417058
0.191522 -0.0945695 0.508523
0.0289766 -0.0792836 0.246261
-0.0268952 -0.0949112 0.31318
0.0616905 -0.0216171 0.428736
0.147419 -0.115741 0.551487
-0.160392 -0.0251056 0.0925263
0.0428421 -0.1053 0.709372
-0.0518625 -0.0979888 0.696415
-0.33873 -0.0897065 0.436285
0.0144605 -0.134937 0.37714
-0.0710542 -0.0376862 0.634874
-0.0604915 -0.0183697 0.443234
-0.0682635 -0.0615934 0.479825
-0.231816 -0.0932384 0.528369
-0.283032 -0.106481 0.51097
0.183128 -0.0445726 0.145424
0.0837885 -0.0235501 0.210948
0.012457 0.0720573 0.0989095
-0.342333 -0.0895874 0.439732
-0.115258 -0.0912179 0.356611
-0.0556138 -0.0915864 0.611731
0.304217 -0.0903086 0.427366
-0.102516 -0.0371242 0.111989
-0.290092 -0.104268 0.404492
0.214728 -0.111145 0.505062
0.0449159 -0.0150054 0.191863
0.209397 -0.108477 0.401504
0.0418907 -0.0958983 0.356381
-0.0878009 -0.113566 0.37141
-0.307454 -0.0976311 0.33111
0.209845 -0.111479 0.514727
-0.0499816 -0.129625 0.565382
0.0628453 -0.0687039 0.385205
-0.131403 -0.116835 0.532804
-0.0880762 -0.116202 0.433783
-0.0120732 0.0870511 0.086991
-0.323614 -0.0870823 0.354126
0.0646007 -0.0987623 0.561631
0.0704561 -0.0415055 0.586184
-0.0202836 -0.128884 0.363988
-0.0779241 -0.0424098 0.215295
-0.00320845 -0.0214048 0.760933
-0.048505 -0.125109 0.429997
0.0462243 -0.132086 0.523014
-0.0689762 -0.0418145 0.229245
-0.194476 -0.0935687 0.456506
0.0200697 -0.121845 0.665577
-0.14306 -0.091752 0.352958
-0.0973057 -0.0976819 0.587722
-0.120961 -0.0919851 0.387909
-0.0175133 0.019807 0.460374
0.202592 -0.0900286 0.374578
0.0726032 -0.0491913 0.591626
0.120728 -0.112688 0.391526
0.0728289 -0.120835 0.568099
0.0348157 0.020569 0.627911
0.081143 -0.0945855 0.432848
0.0212843 -0.0887513 0.271144
0.0455932 0.00757749 0.409782
-0.0157372 0.022067 0.505372
-0.112044 -0.11388 0.40935
0.00185438 0.028906 0.64056
-0.0624396 -0.0988337 0.557703
-0.159354 -0.0956322 0.588073
0.0264693 -0.0633177 0.817092
-0.0386191 0.0175784 0.607738
0.0968602 -0.0248878 0.204363
0.036042 -0.11024 0.646052
0.474103 -0.0844834 0.360115
-0.0669175 -0.0597096 0.375799
0.0566806 -0.124758 0.558585
0.0612167 -0.081846 0.600019
0.0395866 0.0106538 0.69477
-0.00313864 0.0245855 0.51281
0.147977 -0.112806 0.428622
-0.366484 -0.0898067 0.490288
0.00371263 0.0247443 0.454277
-0.0497183 -0.128607 0.643199
0.0630802 -0.119142 0.471361
0.0253024 -0.120655 0.643863
-0.0954147 -0.0917283 0.359238
0.125561 -0.0967485 0.579973
0.0295215 0.0220619 0.620046
-0.2967 -0.0893697 0.400935
-0.328555 -0.0880397 0.38093
-0.0502774 -0.0998975 0.701481
0.211166 -0.0927945 0.445343
-0.0580273 -0.0783735 0.374893
0.0122427 0.0277747 0.116125
-0.235482 -0.0995486 0.555043
-0.269087 -0.10437 0.379253
-0.151549 -0.112132 0.416807
-0.0499235 -0.128747 0.513009
0.0561174 -0.00827972 0.40893
-0.214423 -0.102337 0.565631
0.071015 -0.0332353 0.112652
-0.0308523 0.020421 0.528922
-0.265062 -0.0921401 0.48748
-0.113425 -0.0279705 0.0838846
0.16144 -0.114784 0.578151
-0.220809 -0.0898132 0.377618
0.381215 -0.085318 0.336088
-0.118517 -0.112884 0.393503
0.0647408 -0.121387 0.548605
-0.135932 -0.0964059 0.579212
-0.329313 -0.0900175 0.432161
-0.0836406 -0.117043 0.447908
0.186467 -0.0899404 0.365384
0.334377 -0.102976 0.502747
-0.0410421 -0.0379408 0.758756
-0.392783 -0.0989872 0.413004
0.0106393 0.0887659 0.0628947
-0.179614 -0.0259903 0.113692
0.0283746 -0.056384 0.143223
-0.0357013 -0.000665366 0.281413
-0.0315672 -0.0752991 0.231586
0.0967029 -0.113126 0.371963
-0.128619 -0.0922138 0.396587
-0.0139493 0.113559 0.101406
0.309951 -0.101992 0.373046
-0.256583 -0.107719 0.44444
0.0606055 -0.0140268 0.566158
-0.189147 -0.030486 0.0644335
-0.051227 -0.0797784 0.32796
0.0649462 -0.0323056 0.42938
0.0132419 0.0212797 0.391903
-0.051304 -0.0947829 0.428248
0.101943 -0.115818 0.442032
0.0468384 -0.031931 0.127157
0.0543974 0.00390811 0.648595
0.000578478 -0.049164 0.0604908
0.0189733 0.0098148 0.268851
0.0629844 -0.0988157 0.583281
0.403828 -0.098233 0.456823
-0.138238 -0.0911617 0.375099
-0.249396 -0.103859 0.339667
-0.146629 -0.115795 0.566715
0.0502376 -0.0155689 0.168481
-0.141569 -0.103293 0.353369
0.0528837 -0.0706076 0.310891
-0.0642704 -0.0945037 0.42377
0.136887 -0.110989 0.37075
0.030275 -0.00677464 0.163333
0.0681419 -0.0252799 0.258505
0.244174 -0.109135 0.497637
0.151848 -0.0955517 0.485434
0.0466706 0.0107878 0.496784
-0.225969 -0.110005 0.459962
0.0589777 -0.0800952 0.458798
0.191723 -0.112716 0.509761
0.0175395 0.00605985 0.185331
0.0703717 -0.121003 0.565215
0.0652721 -0.0167768 0.173231
-0.0167032 -0.0524007 0.089357
-0.126508 -0.0316979 0.204071
0.189844 -0.108464 0.376184
-0.0643979 -0.0187975 0.647347
-0.104545 -0.116484 0.460805
-0.224505 -0.0893528 0.36816
-0.467464 -0.0839465 0.341095
-0.0392889 -0.128314 0.373146
0.0462704 -0.0718254 0.269877
-0.067898 -0.107861 0.637414
-0.104096 -0.0974576 0.532392
-0.0621304 -0.0737248 0.463511
0.235626 -0.104845 0.346513
0.0669464 -0.121237 0.546022
-0.0732588 -0.0420862 0.222331
0.195252 -0.0272791 0.0880904
0.266974 -0.104237 0.37302
-0.292924 -0.102983 0.375651
-0.113178 -0.0971576 0.530232
-0.034886 -0.11108 0.681093
0.072388 -0.0396656 0.192567
0.0685833 -0.0314647 0.655935
0.0603861 -0.0172845 0.134967
-0.0115914 0.00567224 0.119355
-0.0621214 -0.0165434 0.158219
-0.290732 -0.0912921 0.517918
-0.102205 -0.116536 0.459107
-0.0532299 -0.0179851 0.216236
-0.0655602 -0.035613 0.42457
0.00251642 -0.0221726 0.0604908
-0.184515 -0.0509281 0.153028
0.00244758 0.0253808 0.440249
0.0659615 -0.0465076 0.337997
0.147854 -0.0980103 0.597156
-0.213542 -0.089805 0.37413
-0.001631 -0.0831236 0.226796
-0.0642994 -0.0281697 0.460982
0.0530364 -0.0991443 0.591438
-0.351278 -0.101821 0.463295
0.0406439 -0.136409 0.550372
-0.0660848 -0.0361741 0.480145
0.212083 -0.0922936 0.433645
-0.0636158 -0.06671 0.376981
-0.159905 -0.095614 0.581563
-0.0791326 -0.0982822 0.578788
0.0653486 -0.0428585 0.257935
-0.269582 -0.1074 0.506119
-0.145106 -0.0506522 0.186735
0.0354803 -0.110648 0.695127
-0.379697 -0.0997624 0.411738
0.0525075 -0.0960826 0.455618
0.0280572 0.0201755 0.511278
0.0100932 0.0721392 0.0597019
-0.111453 -0.0460569 0.200527
0.0618487 -0.0142254 0.653081
0.174428 -0.0951342 0.509075
-0.0355614 0.0153336 0.429753
-0.470892 -0.0936534 0.395675
-0.201925 -0.0942259 0.516671
0.0535608 -0.00759602 0.354218
-0.0167188 -0.0145566 0.747738
-0.365117 -0.0888347 0.452467
0.0828693 -0.114779 0.394128
-0.0142634 0.031077 0.149265
-0.281249 -0.105176 0.414976
-0.35484 -0.0891742 0.454867
-0.0739093 -0.0575911 0.603588
-0.0154518 0.0568102 0.15126
-0.313701 -0.0905333 0.461491
-0.0280522 -0.0469528 0.106913
-0.067489 -0.0589483 0.385532
-0.375504 -0.0884916 0.446868
0.334175 -0.0898569 0.480538
0.0630874 -0.0290991 0.108707
-0.250103 -0.108061 0.444297
-0.0103743 0.0357523 0.0781402
-0.272685 -0.107188 0.527363
-0.0752195 -0.0334668 0.110168
-0.192112 -0.03459 0.049324
-0.177789 -0.113668 0.531048
-0.0648055 -0.0291144 0.512524
-0.0495154 -0.128651 0.506978
-0.0486033 -0.130627 0.611013
-0.111183 -0.0468391 0.230551
0.0629627 -0.117299 0.42822
0.0713301 -0.0321348 0.107054
0.42558 -0.0868374 0.455091
0.0386143 -0.0770455 0.265904
0.0813456 -0.0320562 0.102225
-0.0469978 -0.131793 0.590061
0.0394863 -0.00636945 0.240111
0.0090923 0.111172 0.0281144
-0.0680566 -0.0510309 0.71969
0.073036 -0.0197786 0.107814
-0.0446576 -0.126103 0.398238
0.0107548 0.0523667 0.0793016
0.368835 -0.100622 0.444896
-0.31635 -0.102335 0.390452
0.0331183 -0.0776186 0.250555
0.0265238 -0.137547 0.417903
-0.0561958 -0.011107 0.360075
0.0669746 -0.042579 0.706555
-0.0083978 0.0228529 0.493987
0.0353492 0.0162259 0.449484
-0.0139993 0.0311939 0.144845
-0.267328 -0.0920652 0.504116
-0.101897 -0.0408967 0.152142
0.0812524 -0.0929285 0.394229
-0.0290731 -0.144649 0.601476
-0.0837114 -0.0956866 0.459635
-0.027599 -0.144649 0.610957
0.151275 -0.0410202 0.18396
-0.422285 -0.0869462 0.418987
-0.375623 -0.0851233 0.327537
0.183575 -0.110595 0.419845
-0.0607761 -0.0973216 0.488043
0.266877 -0.107309 0.44789
0.00782325 0.101725 0.127941
-0.00122605 -0.0785795 0.202493
-0.297305 -0.105507 0.449015
-0.0170581 0.0159177 0.711551
-0.151299 -0.112465 0.597817
-0.0454558 -0.103401 0.677987
0.409405 -0.0975891 0.397548
0.029092 0.01115 0.326883
-0.00897298 0.0934185 0.0315353
0.189594 -0.0263047 0.101311
0.0654356 -0.0260657 0.56277
-0.448174 -0.0847049 0.353075
0.0339551 -0.111757 0.676556
-0.0677025 -0.0470169 0.711694
-0.0347953 -0.100436 0.357205
0.0661446 -0.0232403 0.626942
-0.458875 -0.0930861 0.348538
0.315029 -0.0901512 0.428458
0.161236 -0.09014 0.359842
-0.0434565 -0.130643 0.469966
-0.471049 -0.0920094 0.335978
-0.0341708 -0.00247426 0.240664
-0.215822 -0.0912037 0.408983
-0.0656336 -0.0366611 0.397432
0.0849615 -0.0957728 0.462177
0.471901 -0.0919193 0.334671
0.188443 -0.0946712 0.57216
0.041409 -0.0115439 0.198918
0.054056 0.00212948 0.443301
0.119856 -0.0436942 0.219205
-0.0872565 -0.0919958 0.374318
0.0292638 -0.0149249 0.0998809
0.125433 -0.117243 0.594004
-0.0359831 -0.0449066 0.145019
0.412386 -0.0845991 0.331423
-0.272178 -0.0880555 0.35624
-0.0697488 -0.0567132 0.441109
0.0473702 -0.0772626 0.743011
-0.187772 -0.0918329 0.411684
0.083812 -0.0981276 0.546238
-0.241702 -0.0895381 0.380428
-0.06335 -0.0255213 0.43797
0.104039 -0.028855 0.223281
-0.0468463 0.011571 0.537872
0.0664199 -0.0717957 0.584825
0.32939 -0.090015 0.460414
-0.0284996 -0.015856 0.087975
-0.043646 -0.01315 0.277873
0.288506 -0.0888321 0.383469
-0.0336161 0.0146606 0.406403
0.0158671 0.0158889 0.712188
-0.0809541 -0.12028 0.542369
-0.409911 -0.0855025 0.356193
-0.0260968 -0.046324 0.802633
-0.203756 -0.10791 0.380454
0.443421 -0.0955293 0.402918
-0.0143768 0.128159 0.0995511
-0.396587 -0.0985806 0.405055
0.0634929 -0.0319256 0.344127
-0.042133 -0.0526375 0.776352
0.07289 -0.0517473 0.582128
-0.039506 0.0169639 0.59833
-0.385708 -0.0861115 0.359671
0.186676 -0.0347591 0.129779
-0.330806 -0.0899682 0.446829
0.056881 -0.0123393 0.360972
0.21933 -0.106573 0.368342
0.0646859 -0.0410877 0.333799
0.340523 -0.089322 0.419456
0.0612287 -0.0981168 0.506791
-0.0304074 -0.114334 0.682718
0.190773 -0.0911009 0.395217
-0.0799069 -0.0956075 0.456172
-0.36817 -0.100592 0.416903
-0.450805 -0.085684 0.381428
0.246144 -0.0881155 0.346193
0.0299612 -0.0786156 0.797006
0.0985879 -0.0208077 0.111627
-0.0222891 -0.0591366 0.822118
-0.163153 -0.0489679 0.145225
0.0108978 0.0326952 0.0893091
0.0397152 0.00292453 0.719297
0.161505 -0.0955611 0.587271
-0.00435565 0.0897164 0.1376
-0.148473 -0.113615 0.448368
0.0835634 -0.120102 0.577145
-0.354374 -0.0870514 0.368065
0.0710122 -0.0961778 0.4657
0.00134709 0.0256448 0.46465
0.0493983 -0.123939 0.415451
-0.0342318 0.0188933 0.506528
-0.0669133 -0.060888 0.401598
0.0515402 -0.024266 0.281994
0.0599276 -0.0258492 0.343932
-0.151167 -0.115485 0.596849
-0.251151 -0.090934 0.41846
-0.188272 -0.0946769 0.550165
-0.0792963 -0.0382534 0.146529
0.0496917 -0.126735 0.479513
0.0533622 0.00559052 0.583007
-0.0432897 -0.0613634 0.777296
0.0044331 0.0265209 0.576877
0.335736 -0.101047 0.3834
0.065139 -0.02057 0.21825
0.0272645 -0.0120396 0.107425
-0.0926604 -0.0212868 0.101402
0.0719986 -0.039945 0.195896
-0.16688 -0.0405552 0.0730268
-0.0138015 0.123634 0.0963978
0.0410488 -0.0729453 0.770375
0.0182451 0.0244803 0.589222
0.428458 -0.0839043 0.319617
-0.0476019 -0.0895575 0.731321
0.0553304 -0.052185 0.74235
0.0542846 -0.12523 0.643201
-0.115963 -0.0431581 0.165332
0.404226 -0.0871118 0.394693
0.053429 0.00537216 0.617015
-0.158142 -0.0956722 0.514567
0.14333 -0.0961615 0.598005
-0.353875 -0.0999114 0.379355
0.0489083 0.00707091 0.454674
0.0379167 -0.0921755 0.751163
-0.333475 -0.08988 0.493122
-0.0118474 0.0491299 0.0988346
-0.107339 -0.100525 0.617122
0.142408 -0.0379816 0.19136
0.147661 -0.115725 0.509329
-0.119631 -0.0214953 0.116623
-0.0465683 -0.0153432 0.219405
0.0545126 -0.118694 0.366124
-0.0635338 -0.027148 0.379714
0.1825 -0.113346 0.508439
-0.0569317 -0.0990156 0.583564
-0.0692559 -0.0416996 0.226417
0.0985216 -0.0206552 0.113566
-0.0350611 -0.140465 0.54383
0.0588187 -0.00799295 0.600118
-0.041372 -0.129771 0.433303
-0.0731654 -0.0965994 0.476453
0.430469 -0.0918279 0.459466
-0.0732915 -0.0174151 0.15538
-0.0648495 -0.12138 0.609621
-0.0227518 -0.141442 0.477531
-0.420052 -0.0971251 0.404408
0.0708791 -0.0415129 0.218605
0.131561 -0.0428409 0.132428
0.0752814 -0.0573534 0.638949
-0.0647547 -0.117776 0.441566
0.163476 -0.105591 0.590842
-0.0338031 -0.083618 0.284639
-0.338313 -0.101029 0.386408
0.312235 -0.102968 0.518136
-0.0091396 0.12852 0.0225056
-0.164458 -0.0927486 0.424245
0.431034 -0.0963752 0.451604
-7.34221e-05 0.00263976 0.731059
-0.388146 -0.0974391 0.363879
0.0591248 -0.0823214 0.715803
0.0497519 0.00698534 0.660628
-0.0121439 0.0206722 0.198105
-0.159863 -0.0911079 0.382685
-0.16349 -0.0279958 0.0718968
-0.0604375 -0.122029 0.622526
-0.0235056 0.0235534 0.683907
-0.00771641 0.045171 0.168272
0.447829 -0.0852652 0.369146
0.0570908 -0.121358 0.465104
-0.456843 -0.0837857 0.330916
-0.0869742 -0.0957385 0.46223
-0.0995861 -0.0195796 0.168805
0.0605733 -0.073062 0.375889
0.0125197 0.0235491 0.526756
-0.156607 -0.0432803 0.179799
0.0458201 -0.132649 0.531966
0.163404 -0.0954984 0.539194
-0.0997064 -0.114888 0.623287
0.120392 -0.0459763 0.187025
0.05971 -0.00968399 0.654971
0.0676688 -0.0440988 0.453117
0.0753385 -0.0236152 0.228119
-0.116565 -0.117032 0.488503
-0.204839 -0.108318 0.39172
0.474533 -0.0924616 0.354436
0.0750433 -0.0189723 0.119656
-0.0639382 -0.0706721 0.480218
0.268784 -0.107454 0.509714
-0.00454652 0.0273588 0.673381
-0.0631279 -0.0373049 0.157734
-0.0543882 -0.0044 0.389955
-0.0135276 0.0768047 0.113151
0.0637307 -0.0667655 0.383538
-0.0585438 -0.0233358 0.719337
0.0106672 0.0462604 0.0798406
0.0311111 -0.108699 0.364962
-0.186641 -0.0972858 0.578302
0.0700822 -0.0202409 0.0998091
0.129158 -0.09172 0.384868
-0.279294 -0.0879188 0.355895
0.0622423 -0.0350239 0.136755
0.270035 -0.107369 0.475208
-0.0218472 -0.0607662 0.14179
0.331446 -0.089947 0.438623
-0.0583447 -0.108664 0.642158
-0.0657271 -0.0354013 0.468454
-0.0669341 -0.0344261 0.682868
0.117863 -0.0234791 0.089402
-0.0125626 0.0185182 0.128863
-0.335197 -0.0898232 0.453998
-0.225674 -0.0891427 0.36348
-0.162395 -0.0955317 0.559075
0.00491904 -0.08208 0.221215
0.0115986 0.101417 0.127682
-0.0874229 -0.0967666 0.486413
0.171292 -0.049417 0.139205
0.318853 -0.102347 0.394139
-0.124551 -0.0251223 0.0771598
0.0343171 -0.0983689 0.347179
0.165804 -0.108848 0.355287
-0.35946 -0.100426 0.400408
-0.212886 -0.0938638 0.473586
-0.0669165 -0.0434829 0.39099
0.0118956 0.106833 0.0770993
0.120311 -0.0232323 0.0940768
0.00547784 -0.140419 0.460859
-0.431474 -0.0940511 0.334512
0.0392349 -0.0535809 0.182736
-0.0201139 0.0240348 0.660185
0.0983302 -0.116671 0.457447
0.278468 -0.106793 0.453264
-0.0845382 -0.119066 0.496227
0.15917 -0.0521313 0.173732
-0.010416 -0.122209 0.694061
-0.0091435 0.0895701 0.0357377
-0.068207 -0.121151 0.540097
-0.118674 -0.0913926 0.372642
0.402924 -0.0868193 0.386523
0.0111851 0.110701 0.0648021
-0.126581 -0.115457 0.464174
0.0155318 0.0912744 0.131102
-0.142847 -0.0387737 0.0834081
-0.185241 -0.0361855 0.133275
-0.441769 -0.0863026 0.398023
-0.309029 -0.0890278 0.397635
0.0229671 -0.0796196 0.229884
-0.00772535 0.0973861 0.0180222
-0.104545 -0.118669 0.547702
0.227549 -0.0933794 0.490427
0.0541887 -0.087142 0.390278
0.0640714 -0.0272454 0.450414
0.0931833 -0.0920023 0.37691
-0.199104 -0.0907239 0.389812
-0.457377 -0.085787 0.430673
-0.0478092 -0.0608787 0.240075
-0.0547261 -0.0931296 0.566894
-0.0656104 -0.0306092 0.686102
-0.0935702 -0.0196174 0.17672
0.0753127 -0.117206 0.441389
-0.38483 -0.0875132 0.395255
0.0564931 -0.124894 0.587339
-0.158585 -0.0458126 0.179393
-0.0289131 -0.0939976 0.314546
0.0621297 -0.0225157 0.437865
-0.0621037 -0.121567 0.563513
-0.0852863 -0.0184295 0.164673
-0.074044 -0.0174987 0.170312
-0.00650991 0.027793 0.64475
-0.23583 -0.106878 0.397146
0.341642 -0.102479 0.484416
0.147371 -0.0509555 0.185297
-0.0875953 -0.0228437 0.202335
-0.244291 -0.109093 0.461714
0.439138 -0.0857695 0.377756
0.0133809 0.0124879 0.277316
0.0126525 0.0187801 0.130614
-0.0314831 -0.041548 0.78478
0.0629455 -0.0494684 0.730423
0.316437 -0.0863911 0.333166
0.0530039 -0.127429 0.541379
-0.231184 -0.107052 0.395329
-0.0490026 0.00426141 0.68425
-0.061214 -0.11693 0.417454
0.00811197 -0.114854 0.748946
-0.339256 -0.102435 0.423812
0.151114 -0.0959044 0.546295
0.029003 0.0194854 0.49916
-0.0689359 -0.0314576 0.652035
0.344377 -0.0895199 0.431039
-0.35132 -0.0892905 0.490621
0.013856 -0.0574067 0.102939
0.0117871 0.0218786 0.392578
-0.0455632 0.00823405 0.681752
0.0417859 -0.120179 0.364479
-0.270548 -0.107153 0.448903
-0.368149 -0.0892895 0.323075
0.27381 -0.10268 0.342173
0.00864261 0.0512809 0.163728
-0.0361398 -0.139682 0.573114
0.0568618 -0.124627 0.553009
-0.0650446 -0.120644 0.641027
0.220944 -0.0923298 0.438535
0.235027 -0.10532 0.357921
0.00831919 0.108556 0.0135871
-0.219858 -0.109874 0.448872
0.297705 -0.0907157 0.434263
0.226268 -0.0893613 0.369163
0.094962 -0.0192016 0.156319
-0.13468 -0.0964472 0.57563
0.0175757 -0.0909177 0.270182
-0.420211 -0.0965442 0.38585
-0.459501 -0.0855804 0.383139
0.101174 -0.0197177 0.16577
-0.0868293 -0.0217029 0.19641
0.0633047 -0.0416003 0.241009
0.0259345 -0.110734 0.731813
0.0531102 -0.038376 0.742416
0.0791322 -0.108482 0.361774
-0.128014 -0.0487044 0.213882
0.47301 -0.0924354 0.351341
-0.0217516 -0.0571816 0.127251
0.467604 -0.0920908 0.333057
-0.136042 -0.0964023 0.579003
0.11618 -0.105277 0.613693
-0.134588 -0.113258 0.422722
0.456316 -0.0946487 0.429285
0.0127584 0.132809 0.0820178
0.240657 -0.105517 0.370509
-0.204344 -0.111854 0.515793
-0.0559004 -0.124996 0.522089
0.473576 -0.0934701 0.406034
0.277093 -0.106887 0.528383
-0.385395 -0.0994917 0.415941
0.0166398 -0.00246757 0.0918608
0.0665545 -0.0436874 0.269471
-0.0497233 -0.129813 0.567625
0.00986081 0.0808715 0.142512
0.0775202 -0.0363592 0.131846
-0.0118958 0.132771 0.0688169
0.00472182 -0.0656536 0.133362
-0.0955094 -0.0977412 0.563281
-0.0101465 0.125704 0.0431468
0.067153 -0.0420078 0.702899
0.239245 -0.092993 0.52481
0.0849875 -0.0264113 0.236625
0.355871 -0.101508 0.464074
-0.067374 -0.0459597 0.386884
0.0388284 0.0109444 0.385729
-0.0299853 -0.136479 0.409265
-0.0133586 0.0520859 0.161722
-0.274149 -0.0956701 0.53579
0.118454 -0.0922935 0.356214
-0.0518027 -0.128302 0.596992
0.232721 -0.109917 0.512728
0.119023 -0.0266515 0.189178
-0.0529626 -0.000869618 0.375761
0.0481268 -0.0211171 0.110166
0.0667889 -0.0412308 0.443589
-0.14199 -0.116112 0.559492
-0.175446 -0.113828 0.570361
0.0635169 -0.0207368 0.574864
0.175607 -0.0950953 0.538028
0.288392 -0.08733 0.344811
-0.440646 -0.0957188 0.409321
0.0187159 0.0121003 0.294311
0.0180931 0.0194362 0.370221
0.170613 -0.09115 0.38812
-0.136455 -0.0905742 0.36016
0.29465 -0.0889545 0.389351
-0.120051 -0.11761 0.526254
-0.152436 -0.0248766 0.14113
-0.0771154 -0.0950305 0.441521
0.0242322 -0.0864257 0.269073
-0.326565 -0.103509 0.480732
0.190949 -0.112769 0.556527
0.120574 -0.0939385 0.434501
0.320336 -0.103934 0.49251
0.209041 -0.0887044 0.344811
0.253786 -0.108478 0.522137
-0.196487 -0.0338133 0.0603745
-0.0670535 -0.0595655 0.378934
-0.45174 -0.0845282 0.349802
-0.134353 -0.116634 0.584352
0.049731 -0.00584914 0.717237
0.0781692 -0.0978351 0.507416
0.419835 -0.0950837 0.346615
0.0311495 -0.133441 0.375583
-0.0137717 -0.139274 0.443729
-0.00299832 -0.0561939 0.0827675
0.0197423 -0.0695991 0.176617
-0.0723275 -0.0551527 0.685024
-0.473479 -0.083707 0.337271
0.24773 -0.107512 0.427937
0.0606181 -0.013242 0.549337
-0.293009 -0.0902197 0.420142
-0.0308066 0.0180728 0.473825
-0.107337 -0.114512 0.418246
0.0888382 -0.114104 0.385716
0.144936 -0.115224 0.481512
0.151297 -0.0262554 0.0791717
0.0280177 -0.10719 0.365054
0.000581533 -0.122209 0.696425
-0.0501462 0.00708964 0.480535
0.183774 -0.0893842 0.350828
0.0403466 0.0166498 0.574153
0.172366 -0.0471698 0.123131
0.178018 -0.0950156 0.556471
-0.288856 -0.0907844 0.431916
-0.434336 -0.0853685 0.365035
0.150646 -0.0982317 0.595849
-0.224776 -0.108972 0.433444
0.0117585 0.0850036 0.082615
-0.00970377 0.016822 0.304251
0.0722985 -0.0253828 0.25138
0.118538 -0.117714 0.571826
-0.321569 -0.0897893 0.422667
-0.219804 -0.10897 0.426924
0.238635 -0.107517 0.416236
-0.0658348 -0.0707486 0.554243
-0.212509 -0.0973136 0.565794
-0.0440811 -0.109061 0.64381
-0.0839165 -0.0186584 0.131658
0.0863986 -0.119908 0.593836
0.0120368 -0.0989706 0.307974
-0.0564867 -0.112864 0.364434
0.0125892 0.063707 0.104597
-0.0583064 -0.0850247 0.535352
0.129152 -0.0408053 0.114701
-0.417121 -0.0871168 0.459081
-0.142772 -0.0457949 0.196217
-0.433996 -0.095214 0.370994
-0.0989947 -0.0955723 0.463459
0.0110445 -0.142622 0.495005
0.167903 -0.0417739 0.0821052
-0.446317 -0.0861523 0.415845
0.0924184 -0.0962207 0.475796
-0.0422132 -0.0103664 0.281834
0.370501 -0.0879716 0.399827
0.0546139 -0.0990922 0.58579
-0.168771 -0.114283 0.501763
0.417854 -0.0858467 0.369033
0.0131729 -0.0324244 0.792151
0.0148749 0.108013 0.122978
-0.031832 -0.142662 0.524854
-0.104953 -0.0974293 0.573129
0.108862 -0.118374 0.574953
0.103628 -0.116156 0.452018
0.454772 -0.0947542 0.407606
0.00255055 0.0300994 0.186142
-0.00291472 -0.0627891 0.118041
-0.0264366 0.012969 0.716919
0.0607181 -0.0268333 0.345036
0.19412 -0.0316014 0.111879
0.413464 -0.097575 0.407718
-0.0434481 -0.133085 0.507376
-0.0628922 -0.0330794 0.723334
-0.0637291 -0.0693446 0.440357
0.344375 -0.102293 0.468742
-0.0543349 -0.0434834 0.742169
-0.147174 -0.0947168 0.463964
-0.0785407 -0.0202157 0.105833
-0.0642676 -0.0689833 0.457379
-0.175395 -0.0951023 0.523929
-0.0280048 -0.1354 0.384998
0.00879385 0.106556 0.0238692
-0.118267 -0.114435 0.430009
-0.0075802 -0.106857 0.343065
-0.0704768 -0.0525364 0.494956
-0.0116436 0.020982 0.351941
0.0653597 -0.0732495 0.671167
0.122938 -0.0469039 0.192619
-0.0603 -0.0183978 0.206443
0.0712596 -0.0583806 0.539763
0.0415104 -0.032666 0.132163
0.0462213 -0.0717454 0.26922
0.102878 -0.0431048 0.183396
-0.175086 -0.111557 0.432455
-0.0099981 0.103762 0.046938
0.059568 -0.0806003 0.4993
-0.0206877 0.0181962 0.390742
0.0159651 -0.136463 0.400662
0.0436201 -0.0963 0.733349
0.0653699 -0.0187552 0.115968
-0.342559 -0.0893641 0.421561
0.0346975 -0.0229559 0.743771
-0.310206 -0.100623 0.338212
-0.126495 -0.0931429 0.418181
-0.0174999 0.0161842 0.329008
0.206704 -0.094068 0.567405
-0.449995 -0.0860308 0.408839
0.303204 -0.101479 0.350801
-0.361438 -0.099039 0.367542
0.250399 -0.0926245 0.539345
0.0674866 -0.0986669 0.570083
0.0282128 -0.108561 0.733704
0.192916 -0.110854 0.437857
-0.261836 -0.0881795 0.354822
-0.445844 -0.0855362 0.375134
-0.210185 -0.0905266 0.390058
0.0472686 -0.127205 0.459687
-0.388583 -0.099274 0.421783
-0.115797 -0.117901 0.515932
-0.198201 -0.0444754 0.0728145
0.102913 -0.0941561 0.432077
-0.00884862 -0.134507 0.643512
0.0124069 -0.144649 0.551841
0.00440079 -0.109553 0.354727
0.040786 -0.0705702 0.775247
-0.0706642 -0.0924638 0.378817
-0.0563441 -0.12136 0.454498
0.16205 -0.110252 0.384525
-0.110594 -0.0283827 0.210123
-0.0447879 -0.0145203 0.269537
-0.0474931 -0.0686715 0.266966
-0.0253087 0.0210062 0.691255
-0.366567 -0.0852833 0.327477
0.156298 -0.0428818 0.103512
-0.0910165 -0.0938854 0.420706
-0.215777 -0.107168 0.378129
0.358341 -0.101339 0.482773
0.0442569 -0.090335 0.737482
-0.309932 -0.0899389 0.421016
-0.243669 -0.107752 0.428476
0.314259 -0.102939 0.403178
-0.066533 -0.029918 0.107679
0.0364019 -0.00531062 0.226965
-0.0143361 0.0996747 0.110843
0.0613409 -0.0290142 0.339727
0.294583 -0.0879327 0.363059
-0.0790335 -0.025242 0.236822
-0.457694 -0.0841448 0.341773
-0.383968 -0.088212 0.423345
-0.0927364 -0.113095 0.366215
0.0173437 -0.0217971 0.754378
-0.0521615 -0.0098881 0.342949
0.0824668 -0.0382175 0.255337
0.111096 -0.0924397 0.394848
0.149381 -0.0233208 0.109726
0.185506 -0.0463971 0.101935
0.230584 -0.0932791 0.538996
0.472898 -0.0934669 0.380652
-0.0508126 -0.129021 0.627463
-0.334682 -0.100392 0.36515
0.146967 -0.113409 0.441697
0.0368931 0.00184606 0.298051
-0.00435186 0.0244098 0.463
-0.212034 -0.111329 0.52185
-0.0153546 0.118744 0.115801
0.127666 -0.0229069 0.102629
-0.115057 -0.115722 0.456073
0.0431293 -0.0149847 0.17059
-0.0748975 -0.056848 0.621336
-0.056913 -0.124589 0.636302
0.0100688 0.104473 0.0480017
0.352851 -0.0908169 0.496998
-0.275355 -0.0874464 0.341999
-0.266877 -0.0888775 0.375007
0.25229 -0.10858 0.526352
-0.0114305 0.0239067 0.532139
0.122557 -0.116613 0.486168
0.1434 -0.113001 0.427567
-0.314273 -0.097999 0.516588
-0.0106692 0.13952 0.0483303
-0.000442033 -0.144649 0.525947
-0.10304 -0.0418114 0.170322
0.0462392 0.0111747 0.624983
-0.130931 -0.116867 0.545623
0.172036 -0.0952132 0.497888
0.0962548 -0.119235 0.607185
0.388995 -0.0992458 0.4375
-0.0582843 -0.0797133 0.416374
0.0506846 -0.123842 0.431552
0.402785 -0.0875904 0.423176
0.101599 -0.029759 0.090857
-0.26616 -0.0889406 0.376311
0.131407 -0.0227705 0.106594
-0.0465735 -0.129442 0.486302
0.146771 -0.0442853 0.126256
0.231537 -0.102622 0.341339
-0.0309306 -0.143466 0.534024
0.199298 -0.0911069 0.399162
-0.0943383 -0.115027 0.414139
-0.00448481 -0.0313848 0.795584
-0.087555 -0.037738 0.132801
0.081665 -0.0927743 0.390804
-0.0266445 -0.0603378 0.15398
0.128583 -0.041209 0.118661
0.19274 -0.0402805 0.0548845
0.0540519 0.00294978 0.46265
0.0723782 -0.0324229 0.106771
-0.203547 -0.0900141 0.374661
-0.172337 -0.0984816 0.585439
-0.0493468 -0.0225175 0.11058
-0.00435892 0.144399 0.0559705
-0.146225 -0.0960659 0.581909
-0.0660103 -0.0391295 0.376596
-0.0138437 0.0133648 0.159508
0.144051 -0.112137 0.601293
-0.46753 -0.0854516 0.431728
0.0106114 0.0482555 0.165235
-0.0341548 -0.106041 0.728908
0.0673301 -0.102216 0.636699
-0.0128796 0.127348 0.108599
0.209455 -0.0939771 0.474617
0.0767014 -0.0960701 0.465604
0.181115 -0.0930083 0.43737
-0.334001 -0.0862791 0.338106
0.0375521 -0.0164136 0.130677
0.0181148 -0.144649 0.604539
0.446364 -0.0861508 0.395697
-0.322204 -0.0869178 0.349268
0.357817 -0.0985519 0.349943
