-0.252827 0.0356391 0.5484
0.011003 0.0520007 0.078712
-0.198797 0.0348683 0.523741
0.0108562 -0.0525518 0.223001
-0.112238 0.0356591 0.556837
0.018454 -0.0510267 0.327091
-0.264076 0.0355363 0.539028
0.033678 -0.032686 0.126884
0.0104452 0.046362 0.0159913
-0.300415 0.0196685 0.576845
0.250147 0.0336679 0.587512
-0.0177291 -0.026831 0.719249
-0.0170877 -0.0514681 0.506613
-0.0101146 0.0353769 0.534634
0.0401983 0.00179942 0.503583
-0.0338248 -0.0246628 0.25166
-0.0231669 0.0144256 0.306991
0.166203 -0.058589 0.435913
0.0133992 -0.0523155 0.118298
-0.194757 -0.0268545 0.432334
-0.0304242 -0.0393203 0.617173
-0.245543 -0.049296 0.502789
-0.0202036 0.0169401 0.196226
0.148746 -0.00245523 0.52918
0.0322555 -2.4408e-05 0.398262
0.229813 0.00602901 0.503332
-0.173905 -0.0710395 0.433716
-0.228767 -0.0113073 0.61651
0.106654 0.0181901 0.563162
-0.0298673 0.0140964 0.1641
0.0465637 0.0136402 0.0319477
-0.161607 -0.030979 0.644256
0.253378 0.0128885 0.550364
0.00952354 -0.0527121 0.621185
-0.24839 -0.028357 0.547291
-0.211004 -0.0945103 0.460941
0.0428871 0.0171707 0.0872302
-0.0230813 -0.0486317 0.467354
0.22035 0.0341061 0.584977
-0.409122 0.0351662 0.561229
0.0311363 -0.0379441 0.530733
-0.151638 -0.0706845 0.502528
0.0340447 -0.0228306 0.351043
0.368026 0.0355492 0.560622
0.319828 0.0319869 0.503204
0.0106183 -0.0526191 0.45013
-0.127309 0.0201161 0.505289
0.335381 0.0350379 0.572569
-0.0350598 -0.0164558 0.6355
-0.324381 0.0196126 0.567515
0.212902 -0.0622428 0.661325
0.0179513 0.0168404 0.349341
-0.34213 0.0195686 0.535692
0.221251 -0.0389596 0.633874
0.120126 0.00799112 0.0178116
-0.0325105 -0.0328296 0.406949
-0.0372599 -0.0112982 0.595478
-0.172572 -0.060474 0.642372
-0.37873 0.035644 0.556395
-0.200917 0.0097001 0.494039
-0.247025 -0.0247164 0.57048
0.215373 0.00560841 0.604768
0.1806 -0.0977884 0.491606
-0.166768 -0.0911993 0.59551
-0.149573 -0.0564245 0.488187
-0.18096 -0.0993032 0.564095
-0.0318014 -0.0364805 0.071721
0.035287 0.00699252 0.464369
-0.192458 0.0296222 0.603682
0.0805007 0.00494385 0.0807998
0.160521 -0.0797516 0.465033
0.301822 0.0194702 0.573312
0.0171788 0.0169565 0.25075
-0.231798 -0.0290108 0.642906
0.0967335 0.00739457 0.0686671
-0.145684 -0.019795 0.550476
0.216767 -0.045406 0.654169
0.15491 -0.00411464 0.507467
0.280902 0.0184993 0.570824
0.159519 -0.0499774 0.443543
-0.012518 0.0400482 0.0208386
0.0251759 -0.0471718 0.417894
0.229349 0.00697711 0.596457
0.00988214 0.0112753 0.0124386
0.149248 -0.0361575 0.603784
-0.215611 -0.00108021 0.61082
-0.20749 -0.0839322 0.633057
-0.0339687 -0.0230726 0.26877
-0.159987 -0.00908335 0.602984
-0.165704 0.0173815 0.497705
-0.196696 -0.0195676 0.634903
0.153218 -0.0341567 0.622393
-0.0483606 0.0355819 0.541431
-0.0767331 0.0349559 0.525704
0.241718 0.00701035 0.580792
-0.149362 -0.011954 0.518472
-0.0580391 0.00697143 0.0118788
0.40184 0.0337213 0.584801
0.0146751 -0.0520788 0.450946
0.0761562 0.0047446 0.0885542
0.239011 -0.0732213 0.482101
-0.0288071 0.00807935 0.364122
-0.0219778 0.0150446 0.266986
0.0323081 -0.024753 0.679844
-0.0115659 0.0203089 0.180216
-0.399828 0.0226447 0.50653
-0.150289 0.0229652 0.604658
-0.123627 0.0314624 0.598734
0.215884 -0.0407207 0.429993
0.24613 -0.0584575 0.547446
0.0269463 -0.0452986 0.615315
-0.0477059 0.00479344 0.559086
-0.0198812 0.0161312 0.240049
0.207312 -0.0727859 0.651893
-0.0258295 -0.0464286 0.350158
-0.236417 -0.00863147 0.499977
0.0307278 0.00581304 0.0208393
-0.24415 -0.0408172 0.4893
-0.152998 -0.0521479 0.463022
-0.247186 -0.0509122 0.564664
0.244307 -0.0526375 0.489262
0.0605983 -0.00180413 0.0754569
0.0340358 -0.000222974 0.44545
-0.205238 -0.00666383 0.467085
-0.0904777 0.00512049 0.0507446
0.146633 -0.0533274 0.560786
-0.175044 0.0350143 0.57302
-0.244625 -0.0606964 0.509107
0.0210714 0.0170674 0.185908
0.114909 0.0316269 0.598162
0.0344796 0.00494238 0.180012
-0.394721 0.0354226 0.560554
-0.266869 0.021726 0.59983
0.0289817 0.0189025 0.0698858
-0.0427452 0.00361711 0.585461
0.30447 0.0310842 0.600351
-0.309777 0.0356542 0.550198
-0.21632 -0.00559798 0.617988
-0.0691752 0.00671594 0.105123
-0.0135938 -0.0522595 0.341041
-0.179699 -0.0982404 0.503126
-0.0190989 -0.050851 0.582982
0.174898 0.0187492 0.605207
-0.118028 0.0131777 0.0177574
0.218956 -0.0964208 0.583917
-0.18073 -0.0504452 0.427002
0.200502 -0.0525797 0.425201
-0.063669 0.0155421 0.0848587
0.152762 -0.0508235 0.46378
-0.356872 0.0353717 0.532768
0.265081 0.0197067 0.506938
-0.339554 0.0314739 0.501466
-0.132035 0.0300066 0.497608
-0.104351 0.0180262 0.551158
0.187568 -0.0800387 0.632424
0.0424312 0.0273681 0.493215
-0.0516969 0.0314467 0.501026
-0.148342 -0.0225771 0.517492
-0.417484 0.0264623 0.59999
-0.229559 -0.0257223 0.643221
0.00251941 -0.0529727 0.582636
-0.219339 -0.0514672 0.650395
-0.369309 0.0203627 0.521481
0.163181 -0.0874164 0.491992
0.221255 -0.0936554 0.48561
0.0205935 0.0161953 0.211547
-0.232721 -0.0876036 0.535517
0.0235315 0.0144665 0.415227
-0.275929 0.0356251 0.542106
-0.129854 0.00983084 0.034091
0.22116 -0.046977 0.642723
0.214998 -0.0227193 0.440153
0.0338971 -0.0245924 0.381883
-0.00428279 -0.0529453 0.270586
-0.0379639 -0.0109276 0.578185
0.242229 -0.0731108 0.546982
-0.16235 -0.0860389 0.480691
-0.220759 -0.0957172 0.523911
-0.0535866 0.0140309 0.591152
0.080238 0.0137258 0.0819347
0.0638216 0.0357093 0.547262
-0.149287 -0.0447245 0.608191
-0.130552 0.0356792 0.552775
0.247482 -0.0477306 0.549994
0.29089 0.0184946 0.54665
0.0330221 -0.0320223 0.547059
0.168823 -0.0928099 0.595171
0.229308 0.0295199 0.49681
-0.215545 0.0275678 0.606225
-0.0275158 -0.0445421 0.545911
-0.246272 -0.0346481 0.584901
-0.331303 0.0201612 0.523939
-0.233094 -0.087134 0.561511
-0.247398 -0.027666 0.531095
-0.013927 0.0414201 0.0828263
0.00327509 0.0185486 0.295715
-0.152922 -0.0765346 0.547189
0.0297203 -0.0411876 0.635769
0.315146 0.0332696 0.509486
0.0419757 0.031551 0.598839
0.244003 -0.0681587 0.552295
0.239062 -0.075043 0.488827
-0.200456 -0.097139 0.466309
-0.038105 0.00660852 0.159954
-0.365211 0.021956 0.50844
0.226513 0.0350362 0.527713
-0.0954672 0.0208866 0.506692
-0.359221 0.0317214 0.502014
-0.128303 0.0337657 0.512679
-0.0429768 -0.000725685 0.560907
-0.110044 0.0187699 0.576648
-0.0341767 -0.0189649 0.235753
-0.144947 0.00827959 0.547446
0.033679 -0.00746018 0.320655
0.0289222 -0.0421906 0.263957
-0.251292 0.0176434 0.590901
-0.0336943 -0.00750112 0.316871
-0.0907262 0.018417 0.526706
-0.40918 0.0348562 0.529762
-0.0955406 0.0200854 0.511431
0.222008 0.0332036 0.508481
0.00171767 -0.0529813 0.395549
-0.147048 0.0355189 0.537854
-0.291327 0.0324039 0.504916
-0.145944 -0.0440976 0.53145
-0.236857 -0.0261692 0.624339
-0.15101 -0.0282064 0.491132
-0.168394 0.0330406 0.507584
-0.388587 0.0223668 0.593882
0.0183197 -0.0510201 0.216512
-0.246207 -0.0104607 0.568121
-0.0317411 0.00242423 0.664507
-0.0322752 0.000370022 0.253738
-0.0447339 -0.00509881 0.138897
0.315727 0.020111 0.57817
-0.0372358 -0.00935381 0.173559
-0.331473 0.0200819 0.57504
-0.0171834 0.0106257 0.69547
-0.0300248 -0.0407625 0.522323
0.309078 0.0340344 0.515346
0.247965 -0.0411867 0.558231
-0.0269625 -0.0195147 0.709944
-0.0472923 0.00610033 0.528424
0.156992 -0.0827679 0.573742
0.440447 0.0320232 0.523972
-0.208482 -0.100285 0.564101
0.00244357 -0.0521333 0.0883877
-0.17614 -0.0956073 0.48638
-0.0254378 0.0135312 0.205421
0.0971407 0.00694818 0.0650477
-0.172362 -0.0953351 0.512067
-0.000556514 0.0234836 0.165837
0.108145 0.00684951 0.0341451
-0.0409579 0.0168583 0.0630325
-0.00649802 0.0541355 0.0964584
0.188762 -0.100991 0.557933
0.240269 -0.0493736 0.461937
-0.0121722 -0.0525159 0.12811
-0.171309 -0.0919634 0.621231
0.034249 -0.0111643 0.421139
0.210791 -0.0958565 0.469667
0.246938 0.0145549 0.515345
-0.0337564 -0.0255422 0.29458
-0.174794 0.0266674 0.49341
0.0160054 -0.0517871 0.275713
-0.0300143 -0.031364 0.689256
0.0207831 0.015621 0.327632
-0.000792108 -0.0092575 0.722599
0.148864 -0.0655718 0.54343
-0.416451 0.0245455 0.597356
-0.393591 0.0309928 0.500909
0.0335764 -0.0278116 0.36644
0.0298957 -0.0410002 0.464016
0.242853 -0.0629921 0.60865
-0.334924 0.0208239 0.584371
0.00721803 0.0759652 0.037343
0.39735 0.0355132 0.547895
0.30065 0.0352083 0.571041
0.266163 0.0332641 0.591031
0.0285586 -0.0334677 0.694435
0.294888 0.0323381 0.59559
-0.00469382 -0.052962 0.256455
-0.031887 -0.0379611 0.0885801
0.0968085 0.014173 0.057704
-0.346363 0.0194981 0.538074
0.146795 0.00497148 0.561747
-0.173629 -0.0544101 0.430298
0.0386089 0.00935981 0.0232551
-0.187843 -0.0246406 0.63064
-0.0970142 0.0144543 0.0519441
0.188143 0.0320424 0.596908
-0.0326302 -0.0322791 0.334372
-0.320256 0.0201314 0.522696
-0.31074 0.0194762 0.5695
-0.00646431 -0.0529225 0.305954
0.0381112 0.00285643 0.165129
0.0939697 0.005905 0.0214936
0.0235776 -0.0485018 0.421619
-0.0164309 0.0171704 0.361602
-0.172915 -0.0959396 0.570953
0.139973 0.0341802 0.583598
-0.0280023 -0.0434458 0.238472
-0.0215426 -0.049454 0.234342
-0.0162711 0.0146507 0.679439
0.034112 -0.0266636 0.510891
-0.249474 0.0247261 0.494676
0.0119103 0.0355036 0.562439
-0.00615637 -0.0521203 0.65652
0.0186732 0.0289403 0.0626009
0.0332832 -0.00530045 0.330051
0.238538 -0.0631144 0.458407
-0.233882 -0.0295062 0.638815
-0.118724 0.0352915 0.56748
-0.0254267 -0.0475278 0.100527
0.0576483 0.0125558 0.527894
-0.369654 0.0209184 0.51573
-0.177674 -0.0976343 0.512411
-0.288137 0.0339455 0.51405
-0.24402 0.0299296 0.497327
0.0526805 0.035465 0.564521
-0.185553 -0.00733041 0.628125
0.000804777 -0.0529863 0.528159
-0.0182842 -0.0510946 0.534298
0.181926 -0.0983535 0.494161
-0.178014 0.0145511 0.603672
-0.031476 -0.0366231 0.172181
-0.16567 -0.0909355 0.589257
0.240354 0.0189445 0.500686
-0.199032 -0.0967737 0.464308
0.178485 -0.0496841 0.660985
-0.114908 0.0135521 0.0260876
0.154974 0.0356292 0.556832
0.135398 0.0313139 0.500637
-0.228782 -0.07043 0.640581
-0.033978 -0.0272034 0.493569
-0.165265 0.0319215 0.502933
0.242919 -0.0182696 0.588782
-0.241639 -0.073994 0.539619
-0.203553 -0.0934514 0.452673
0.246924 0.0120572 0.523348
-0.251475 0.0342382 0.517167
-0.419387 0.0343355 0.528364
-0.202205 -0.0786245 0.638796
0.228597 -0.0903269 0.589433
0.0145153 0.0391032 0.0849246
-0.446023 0.0240095 0.526043
-0.352217 0.0314298 0.500985
-0.243136 -0.0694254 0.533246
0.433876 0.0208643 0.553899
-0.176883 0.0337029 0.511906
0.27268 0.0356818 0.555215
-0.152709 -0.0380982 0.470729
0.192888 0.020701 0.607352
-0.235332 0.0341389 0.515845
0.275544 0.0341631 0.584365
0.138454 0.0142189 0.536599
0.0369711 -0.0215254 0.137878
0.3757 0.0351275 0.57078
-0.209761 -0.0671847 0.660224
-0.164985 -0.0808356 0.643811
0.0276575 -0.0444331 0.471786
-0.157143 -0.0825954 0.581334
0.212595 -0.0712206 0.646943
0.207741 -0.098719 0.488794
0.125659 0.0191268 0.511782
0.188316 -0.100882 0.531823
0.0340502 -0.0242366 0.440687
-0.204516 0.0301855 0.497653
0.0135402 -0.0521701 0.194509
0.0315279 -0.00555528 0.682593
-0.0284685 -0.0448658 0.102754
-0.192635 -0.0948326 0.64175
-0.24389 -0.0654078 0.518953
-0.247363 -0.048945 0.54533
-0.152273 0.0312552 0.500488
0.228927 0.0108257 0.503069
-0.00964407 -0.0527528 0.603325
0.145903 -0.041465 0.567671
0.0564715 0.0154111 0.0390047
-0.34454 0.0356733 0.546674
-0.182155 0.0354641 0.536398
-0.0367275 -0.0167603 0.556538
-0.113621 0.0182673 0.529419
-0.239153 -0.0170112 0.601069
0.0903591 0.00483098 0.0382615
-0.166666 -0.0875131 0.46794
-0.235364 -0.0161965 0.612976
-0.0295314 -0.0411338 0.555061
0.00467201 0.0829181 0.054982
-0.239072 -0.0133613 0.596346
-0.0280635 -0.0439534 0.511534
0.0369045 -0.022943 0.0663689
0.268081 0.0331534 0.50842
0.032141 -0.0348616 0.560996
-0.377902 0.035323 0.566272
0.367119 0.035633 0.555937
0.0420029 0.016633 0.489641
-0.227957 -0.091791 0.537605
0.00883685 -0.0528027 0.246318
0.0228886 0.0349677 0.525317
0.159101 -0.0784097 0.467438
-0.0347387 -0.0169975 0.645424
-0.10019 0.0356666 0.547425
-0.218586 -0.0965844 0.518549
0.158256 -0.0842123 0.549185
-0.2348 0.0353118 0.532407
0.214917 -0.0398817 0.652515
-0.187334 -0.00340948 0.618807
-0.00980799 -0.0525026 0.634241
-0.308051 0.0191084 0.559367
0.168468 -0.0892683 0.626531
0.0481677 0.00744283 0.0154549
-0.164434 0.0314582 0.501468
-0.0218825 0.0219047 0.124224
0.232384 -0.0833956 0.473344
-0.00228575 0.0301768 0.00852786
0.362522 0.0356476 0.551244
-0.220321 -0.0964594 0.537054
-0.236248 -0.0814502 0.594835
0.15564 0.030964 0.49978
0.242306 -0.0601975 0.619579
-0.0651218 0.0304208 0.498773
0.417375 0.0343968 0.527645
0.0205411 -0.0505558 0.113249
0.0200995 0.0159793 0.293147
-0.165507 -0.0135604 0.472855
0.0352716 -0.0284826 0.0827228
-0.37295 0.021345 0.588187
0.113962 0.0345527 0.5799
0.246593 -0.0208159 0.527408
0.00787316 -0.0523222 0.649029
-0.137806 0.0165851 0.581292
0.225163 0.00273939 0.601575
-0.102796 0.0253733 0.604481
-0.0532206 -0.00438049 0.0951116
0.0903733 0.0348535 0.576679
0.028818 0.00855441 0.289101
-0.357865 0.0193931 0.553308
0.0305824 -0.0392269 0.506873
0.370756 0.0196905 0.567297
-0.0409652 -0.00401102 0.535153
0.408722 0.0198448 0.561186
0.222248 0.0344921 0.580643
0.205248 0.0204129 0.493139
0.0448888 0.0167942 0.0936667
0.430364 0.021573 0.57432
0.187938 -0.0229412 0.435806
-0.0135899 0.035009 0.526461
0.163213 0.035691 0.554319
-0.238939 0.0150357 0.594828
0.0800117 0.0126247 0.0131005
0.0338916 -0.00997273 0.346891
-0.042188 0.0170727 0.0932277
-0.239308 -0.0128234 0.503136
0.0336569 -0.0294507 0.562322
-0.0240662 0.0145186 0.204297
0.354904 0.0336724 0.512652
0.0345107 -0.0202093 0.44733
0.030533 -0.0391409 0.540541
-0.267326 0.0347743 0.523121
-0.222553 -0.0132586 0.629678
0.159405 0.0313101 0.599354
0.168614 -0.0929688 0.589631
0.331699 0.0204812 0.519565
0.224458 -0.0196506 0.64188
0.220314 -0.0649375 0.431749
0.015825 0.0346774 0.578754
-0.216698 -0.0920121 0.637341
0.0350595 -0.0206656 0.487512
0.209868 -0.0251514 0.434909
0.0335483 -0.0279887 0.449002
0.159687 -0.0861632 0.558264
0.233428 -0.0745988 0.454483
-0.035184 -0.014068 0.459483
-0.0586178 0.00178322 0.0183094
-0.0253985 0.0136389 0.424802
-0.146553 0.00340084 0.557235
-0.212698 -0.098751 0.576513
-0.0378565 0.00140064 0.167398
0.427428 0.022202 0.516852
0.24163 -0.0271001 0.60871
-0.0375067 0.00902332 0.474971
0.00853471 0.053962 0.0115673
-0.349814 0.020453 0.52029
-0.0331718 -0.0302905 0.468217
-0.0630078 0.0356812 0.545037
-0.108146 0.0135348 0.0494058
0.123877 0.0190247 0.513531
-0.192945 -0.0354102 0.662062
0.187757 -0.085658 0.438862
0.00677049 -0.0135451 0.0164752
-0.0336729 -0.026757 0.359605
-0.248421 0.00906555 0.539375
0.039201 0.00390685 0.48913
-0.244244 -0.0618061 0.592459
0.274497 0.0330542 0.507654
-0.0344452 -0.0224241 0.63461
-0.0323769 0.00162426 0.661292
0.0163162 -0.0346745 0.714239
0.248251 -0.0318381 0.557505
-0.202359 -0.00799545 0.632273
0.142888 0.0355542 0.560423
-0.382446 0.0356894 0.548025
-0.34542 0.0224751 0.594733
-0.205783 -0.099286 0.492187
-0.200747 -0.00429825 0.622743
0.402119 0.0200012 0.56986
-0.0194124 -0.0506549 0.476939
-0.250452 0.0193652 0.503342
0.142359 0.0345245 0.580341
-0.16009 -0.0171138 0.619498
0.241017 -0.0715272 0.493271
-0.0326244 0.00248189 0.433659
0.190395 -0.100844 0.51532
-0.24666 0.00403905 0.561051
-0.0574633 -0.00219196 0.0924026
-0.158198 -0.03728 0.642835
-0.416648 0.0206281 0.573189
0.121599 0.0351339 0.529353
-0.20161 0.0325219 0.505554
0.0228847 -0.0487462 0.240202
-0.105134 0.0354536 0.564094
0.0600046 0.000486194 0.104522
0.0703204 0.00102155 0.0567539
-0.212494 0.0342511 0.58329
-0.118764 0.0356022 0.541121
-0.244847 -0.0286254 0.590569
-0.0229059 -0.0492224 0.143613
-0.159513 -0.0831939 0.48824
0.0317803 -0.0211274 0.0333674
-0.0681997 0.0148977 0.54128
0.235565 -0.0839607 0.552682
-0.20041 -0.0988189 0.61975
-0.0916343 0.0336488 0.512565
0.32642 0.0193762 0.560466
0.239404 -0.0785758 0.557624
-0.000184537 -0.0529863 0.536069
0.0563128 0.0343498 0.518131
-0.417966 0.021319 0.58038
0.0110352 -0.0525511 0.280709
0.161926 -0.0755222 0.451782
-0.0339493 -0.0227923 0.231532
-0.0124947 0.048282 0.0372162
-0.0344875 -0.0229294 0.628674
-0.179256 -0.0260463 0.436267
-0.0165667 0.0186568 0.647448
-0.0280127 -0.0276721 0.704352
0.0137799 0.042109 0.080766
-0.32516 0.0334082 0.509846
-0.0121755 0.0355885 0.559513
0.00217397 0.0319888 0.597242
-0.0254354 0.0197668 0.125266
0.0318209 0.0355689 0.560165
0.0334828 -0.0277694 0.253941
-0.122482 0.00833848 0.029484
0.0710249 0.0178204 0.587469
-0.311952 0.0336884 0.512484
0.382936 0.0352452 0.56731
-0.0229232 0.014513 0.264887
0.285075 0.0343749 0.518187
0.14939 -0.0573922 0.493306
-0.414163 0.021488 0.517028
0.221698 -0.0934871 0.610118
-0.286293 0.0322683 0.504238
0.154791 -0.0710875 0.624289
-0.246919 -0.0012297 0.554413
0.023578 -0.0178249 0.716666
-0.0619169 0.0160796 0.0484773
-0.0312774 0.0186127 0.0909914
0.36329 0.0349263 0.575565
0.034184 -0.0207401 0.274737
-0.140743 0.0126052 0.553854
0.0373421 -0.0124765 0.585545
-0.00188008 0.0283767 0.147734
-0.205216 -0.0989051 0.610861
0.0170808 -0.051534 0.395902
-0.0026515 0.0836886 0.0598441
0.0289646 -0.0426779 0.396538
0.2975 0.035546 0.561048
0.033671 -0.0265676 0.299217
0.20935 -0.0819281 0.631084
-0.164807 0.0354307 0.564367
0.0829391 0.0176321 0.530565
0.0272568 0.0349455 0.525648
0.00421756 -0.052944 0.211931
0.0117067 0.0305775 0.132534
-0.0256141 0.0158828 0.037573
-0.167307 -0.0384671 0.437133
-0.244191 0.033948 0.514642
0.235674 0.0356579 0.544791
0.0743702 0.0160372 0.551752
-0.203799 -0.00345426 0.619759
0.0142781 -0.0521575 0.107534
-0.238258 -0.0278413 0.473305
0.241468 -0.0646791 0.478576
-0.0207851 -0.0210972 0.0224812
-0.244971 -0.00586205 0.572456
0.0134749 0.0107494 0.697729
-0.000125649 -0.0529863 0.22129
-0.24911 0.0208582 0.600706
0.157783 -0.0815401 0.496948
0.00709021 -0.0528385 0.573198
0.0625344 0.0349079 0.525317
0.0340297 -0.011368 0.339552
0.0332783 -0.0305192 0.614426
-0.175649 0.0357133 0.547913
0.261355 0.0155365 0.552708
0.191915 -0.00749991 0.46334
0.245081 -0.0287936 0.509735
-0.15601 0.0238429 0.494384
-0.182789 0.0350963 0.572272
0.0771305 0.0196526 0.593111
0.228354 0.0321759 0.596369
-0.239512 -0.0775501 0.528734
0.0326707 -0.0358183 0.0838274
0.227234 -0.0812022 0.451334
0.18098 -0.0215659 0.637186
-0.126941 0.0169161 0.566052
-0.183186 -0.0859455 0.44132
0.0320554 -0.000553784 0.670138
0.167396 0.012426 0.5008
0.225108 -0.0106035 0.475574
-0.269786 0.0339105 0.586669
-0.392912 0.0342775 0.518638
0.16792 -0.0743577 0.440707
-0.0126356 -0.0521764 0.100363
0.208076 -0.0746456 0.430755
-0.0243292 -0.0227907 0.0258664
-0.192348 -0.0209967 0.632166
-0.300855 0.0190691 0.564928
-0.0359632 -0.0139486 0.183398
-0.342944 0.0333485 0.509781
0.0795397 0.0200904 0.593892
0.233489 0.0258414 0.493561
-0.172499 -0.0597885 0.431317
0.0200236 0.0303318 0.497323
-0.032236 0.00227221 0.214555
0.373138 0.0353215 0.532996
-0.0344762 -0.00691514 0.43685
0.303884 0.0236759 0.600633
0.0452282 -0.00723152 0.0320447
-0.244887 -0.0551007 0.596403
-0.0344638 -0.0212103 0.450269
0.0157101 0.0240402 0.146771
0.0903512 0.0188584 0.579815
0.0327922 -0.0140992 0.679894
-0.255401 0.031915 0.597444
0.0243387 -0.0479918 0.606302
-0.0394151 -0.00761525 0.564044
-0.0949379 0.0140518 0.0621243
-0.0161385 0.0245201 0.615647
-0.238006 -0.0807463 0.545854
-0.0171065 0.0144868 0.0183806
-0.146844 -0.00520099 0.557967
0.160292 -0.0805188 0.467856
0.0135448 -0.0522242 0.439935
-0.0518325 0.00904039 0.567469
-0.0340964 -0.0219457 0.291861
0.0666837 0.0136913 0.0979409
-0.0249795 -0.0474734 0.546619
0.0104347 0.0579432 0.0342343
-0.146951 -0.0556792 0.540106
-0.0372775 -0.0144029 0.538014
0.0780924 0.0353717 0.533742
0.245822 -0.0450788 0.50389
-0.165342 -0.0531066 0.436428
-0.115261 0.0180059 0.566981
-0.000654429 0.0729469 0.000906995
-0.156443 0.00521243 0.511376
-0.0187691 0.0258114 0.0398115
0.192126 0.0335593 0.588448
-0.218013 -0.0697461 0.638147
-0.0316473 -0.0363262 0.454214
-0.0318585 0.00124508 0.292616
0.161482 0.0334917 0.589669
-0.148037 -0.0597572 0.576707
-0.242748 -0.069202 0.523827
-0.145258 -0.0365651 0.554579
-0.144909 0.033337 0.589861
0.0986844 0.00633826 0.0540154
0.147219 -0.041532 0.588818
0.237031 -0.0539382 0.450407
0.0299387 0.00616645 0.357262
-0.0332122 -0.029404 0.24844
-0.241008 -0.0654864 0.619582
0.0256363 0.0121603 0.335928
-0.288244 0.0328961 0.507104
-0.197357 0.0351306 0.57257
0.0342147 -0.020721 0.343621
0.0316638 -0.028495 0.0457708
0.0335659 -0.00521872 0.22998
0.208962 0.0262412 0.493243
-0.341847 0.020193 0.52352
-0.181859 0.00166404 0.489665
0.237076 -0.082058 0.563915
-0.00510489 -0.0472573 0.692819
-0.00381575 0.0672835 0.0811727
0.115515 0.0356161 0.558459
-0.233157 0.0348453 0.576066
0.148052 -0.0472473 0.501251
0.0443906 0.00738894 0.510679
-0.319103 0.0191721 0.549654
0.0107331 0.05757 0.0498599
-0.396392 0.0327091 0.507629
0.044355 0.0171342 0.0814377
-0.364623 0.024199 0.499309
-0.246679 -0.0442428 0.51306
0.00561028 -0.0529464 0.492379
-0.290955 0.0337136 0.512338
-0.0114585 0.0356694 0.544192
0.0622621 0.00894414 0.0118795
0.226443 -0.0921684 0.587045
0.236434 -0.000600527 0.593129
-0.127877 0.0124142 0.0242897
-0.147728 -0.0283857 0.517133
0.221631 0.0344756 0.519338
-0.00688436 -0.0528519 0.212423
0.17025 -0.0491044 0.432616
0.0995027 0.00819536 0.00673939
-0.00229437 0.0105892 0.70033
0.214411 -0.00882521 0.627614
-0.189207 -0.0979579 0.473849
-0.175561 0.0278175 0.605989
-0.173639 -0.0922748 0.469441
-0.14187 0.0352754 0.56976
-0.164706 -0.0322991 0.643738
-0.024337 -0.0478615 0.384788
-0.0287369 0.00851285 0.294512
-0.216824 -0.097988 0.561509
0.225724 -0.0870881 0.63306
0.229017 -0.086708 0.471811
-0.0107188 -0.0413269 0.70792
-0.246394 -0.00400391 0.560833
0.146456 -0.0517793 0.559644
-0.0369438 0.000604854 0.626381
0.381951 0.0207015 0.582202
-0.00632375 0.0765382 0.0578294
-0.00674821 -0.0529144 0.248849
-0.0260075 0.0122482 0.243519
-0.00104895 0.0863202 0.0579535
0.0284574 0.0171383 0.143291
-0.126323 0.00870312 0.0186371
-0.0340058 -0.0250451 0.636517
-0.391272 0.0355596 0.543223
0.0347267 -0.0230562 0.494719
-0.0375592 -0.00333999 0.487707
0.0236662 -0.046221 0.67243
-0.0123564 0.0351812 0.529946
0.000915185 -0.0529863 0.436552
-0.195926 0.00412978 0.489835
-0.246386 -0.0568901 0.535488
0.0301641 0.00312179 0.675848
0.0389916 -0.00620548 0.513144
0.24467 -0.0654077 0.558699
9.66001e-05 -0.0285163 0.0231358
-0.192357 -0.0956494 0.638113
-0.131759 0.0173931 0.520703
-0.179488 0.0356984 0.548582
-0.0323876 6.09376e-06 0.253361
-0.067607 0.0198087 0.59941
0.0262722 -0.0458703 0.251294
-0.0985488 0.024198 0.496932
-0.447257 0.0257978 0.580042
0.0323979 -0.0355703 0.141042
-0.430102 0.0329361 0.519909
0.199844 -0.0466399 0.673828
-0.146276 0.00343476 0.548088
0.179444 0.0340267 0.514669
0.0270086 0.000955899 0.0181719
0.0388372 0.0337294 0.587819
0.00418892 -0.0529481 0.531641
-0.3118 0.0255586 0.496588
0.348295 0.0194708 0.56102
0.074362 0.0290304 0.496154
-0.105572 0.0180199 0.549602
-0.224489 -0.0825642 0.448389
0.203606 -0.100578 0.511897
-0.0407848 0.00136747 0.156392
-0.251612 0.0355844 0.541574
-0.15278 0.0349518 0.575049
0.288364 0.0197622 0.58279
-0.0231444 -0.00777224 0.713817
-0.0122167 0.043797 0.0937049
-0.35586 0.0197297 0.569409
0.0139019 0.0207544 0.631888
0.23814 0.0118225 0.590273
-0.204863 -0.0991015 0.608624
0.247199 -0.0493498 0.525696
-0.024488 0.0206516 0.117919
0.228233 -0.0843822 0.462505
0.0395308 0.00833386 0.151512
-0.0148012 0.0405644 0.0562001
0.188072 -0.100653 0.575703
0.0273491 -0.0444414 0.251859
0.226351 -0.0929003 0.54517
0.0817901 0.0154089 0.0464387
-0.218838 -0.0974491 0.553831
0.025393 -0.0468328 0.246358
-0.230725 0.0352608 0.531706
-0.00960205 0.0183244 0.260688
-0.0382258 -0.020993 0.108694
-0.0723719 0.0157912 0.0462941
-0.0851479 0.0356517 0.547523
0.193284 0.013739 0.494325
-0.299434 0.019007 0.564146
-0.286346 0.0190905 0.524291
-0.213284 0.0355921 0.540949
-0.375297 0.0349031 0.525425
0.0340144 -0.0100774 0.237218
-0.188755 -0.0431338 0.669601
0.231448 0.0167463 0.600859
-0.297833 0.0192266 0.52935
-0.0128905 0.0435407 0.0289146
-0.0317087 0.00162081 0.384588
-0.243477 -0.0662504 0.585918
0.013937 0.0146317 0.682377
0.0982888 0.0181125 0.561024
0.0351315 -0.0104216 0.451732
-0.130095 0.033222 0.591168
0.415836 0.0315362 0.594358
0.0342923 -0.0183303 0.286165
0.31497 0.0191307 0.548116
0.187712 0.0101024 0.494525
0.0184037 -0.0389398 0.706974
0.133204 0.0353634 0.567216
0.209046 -0.0501622 0.66967
-0.0166879 -0.0514499 0.184628
-0.153492 -0.0417986 0.632807
0.00189284 0.0699925 0.00163754
-0.0205066 -0.0503205 0.148098
-0.346988 0.0244433 0.601411
-0.376714 0.032272 0.504401
-0.1478 -0.0605454 0.558651
-0.0975402 0.00805064 0.00806347
-0.149714 -0.0684996 0.542912
0.0320184 -0.0351428 0.594438
-0.0272025 0.00880833 0.674307
-0.016565 -0.0394936 0.0378076
0.454668 0.0286172 0.537548
0.28741 0.0204693 0.589041
-0.179127 -0.00332817 0.615077
0.0562399 0.0098193 0.0151582
0.244105 -0.0644189 0.516341
-0.0309892 -0.0384388 0.576439
-0.126577 0.0331018 0.508178
0.162871 -0.0895048 0.53887
-0.241113 -0.0400388 0.46996
-0.263033 0.0356734 0.546866
0.0541913 0.0356301 0.55618
-0.249052 0.0352795 0.569671
0.110772 0.0295277 0.603191
-0.0379173 -0.00289591 0.169303
-0.227028 -0.0198058 0.458946
-0.0612138 0.0172195 0.594815
-0.148243 -0.0533263 0.503779
-0.209251 -0.0719065 0.651483
-0.385162 0.0201018 0.527004
-0.0341492 -0.0137164 0.322924
0.151686 -0.0635128 0.479037
0.138585 0.0190505 0.594553
-0.0163417 -0.0512769 0.648095
0.111727 0.0134574 0.018634
0.304257 0.0192718 0.568131
0.245842 -0.0234709 0.578171
0.296364 0.0335553 0.588653
-0.22021 -0.057836 0.64646
0.222092 -0.0951704 0.525251
0.0730718 0.0223679 0.497394
0.221151 -0.00646553 0.480847
-0.235449 -0.0652915 0.450657
0.244234 -0.0273637 0.504652
0.0151473 -0.0518627 0.487637
-0.0279658 -0.0440744 0.34008
0.230018 -0.0898171 0.545551
0.393976 0.0354833 0.541535
-0.239 -0.0749852 0.60829
0.246312 -0.0343312 0.584105
-0.203708 0.0140984 0.494605
-0.0226996 0.0201383 0.0445471
0.021383 0.0153609 0.362015
0.0956988 0.0350207 0.525975
0.383464 0.0193443 0.552952
0.00598098 0.0794548 0.0524861
0.0307169 -0.0381425 0.649667
-0.0436025 0.0354178 0.566038
0.130579 0.0158552 0.548352
0.430522 0.0340733 0.563661
0.0301284 -0.0402772 0.507195
0.0301153 -0.0404572 0.512556
-0.20281 -0.0956001 0.637444
0.213824 0.0346738 0.578377
-0.156069 0.0348753 0.575882
-0.0327343 -0.032613 0.513789
-0.213468 -0.0658932 0.429402
-0.228682 -0.0561285 0.436896
-0.0268345 0.0181265 0.47109
0.0313985 0.0185526 0.0987213
0.201403 -0.0759591 0.43037
0.204193 0.0202329 0.607066
0.0425261 -0.00167074 0.554199
-0.0940882 0.0122038 0.0071474
-0.156506 -0.0301527 0.464892
0.151588 0.00546639 0.579746
-0.0343239 -0.0045699 0.438784
0.0057168 0.058234 0.0058486
-0.246804 -0.0530421 0.574223
0.0171041 -0.0515256 0.466174
0.010273 0.0185199 0.656854
-0.25311 0.0356187 0.544456
0.0710934 0.0357034 0.553698
-0.0331241 -0.00424043 0.291765
0.0183804 -0.0509525 0.235778
-0.145207 -0.0268249 0.549382
0.0293203 -0.0417079 0.620914
0.181513 -0.0989675 0.522547
-0.146557 -0.0103246 0.556718
0.000531077 0.0622554 0.00259017
0.0268753 0.0157807 0.45758
0.0456247 0.00415153 0.571525
-0.214392 -0.0697155 0.646346
-0.15719 -0.0416364 0.643634
0.0200608 -0.0503715 0.284505
0.198076 0.0356295 0.553938
-0.0524555 0.00827212 0.553323
-0.258695 0.024387 0.604744
-0.0221539 0.0355715 0.540342
0.289703 0.0327334 0.593847
-0.0296393 0.0190326 0.090477
-0.252236 0.0135898 0.568898
-0.0167497 0.0338541 0.0756508
0.112942 0.00838474 0.0516975
0.00795463 0.0682671 0.0624224
0.0736566 0.0102796 0.0992689
0.0174504 0.0240943 0.0282107
0.0176818 -0.0413056 0.0413743
-0.00692627 0.0184933 0.242524
0.136534 0.0352708 0.53061
0.244436 -0.0529653 0.605057
0.357614 0.0196322 0.533254
-0.197074 -0.00158179 0.480524
-0.0196574 0.0272744 0.0728148
-0.041058 -0.000651587 0.516784
0.241357 -0.0725923 0.583996
-0.305705 0.0322087 0.504063
-0.22624 -0.0922313 0.587952
-0.0255262 -0.0469446 0.605007
-0.304104 0.020508 0.58443
-0.196956 0.0256103 0.492984
0.159203 0.0331217 0.591902
-0.14513 0.00899663 0.539589
-0.0189597 0.0165358 0.397765
0.029825 -0.0410863 0.394515
-0.297877 0.0251993 0.49652
0.379137 0.0203728 0.578156
0.246365 -0.0239346 0.575012
0.219403 -0.0692191 0.432717
0.246311 -0.0574682 0.539573
-0.0296779 0.0147099 0.637847
-0.00251663 -0.0529743 0.394776
0.0500216 0.0346393 0.579187
0.00427766 0.0185494 0.249173
0.191023 -0.100871 0.514546
-0.304915 0.0223402 0.504581
-0.00819242 0.0697855 0.0525402
-0.0069551 0.018451 0.354502
-0.171185 -0.0369833 0.434442
0.371423 0.0352212 0.5697
-0.217857 -0.0931223 0.468005
0.00793215 -0.0528585 0.143887
-0.0133888 0.0353542 0.0211758
-0.0381595 0.0256719 0.490826
0.0492825 0.00132769 0.134268
-0.176334 0.0355774 0.559942
0.0344237 -0.0255147 0.581224
-0.312163 0.034026 0.515211
0.175982 -0.00871387 0.623796
-0.0190018 0.00989074 0.695399
0.00205257 -0.0529823 0.562244
-0.188124 -0.0358622 0.428398
0.0825672 0.0170871 0.546084
0.0322359 -0.0192465 0.68669
0.214362 -0.0110748 0.634732
-0.203953 -0.0996039 0.602781
0.0671353 0.0155247 0.0796908
-0.247529 -0.0466162 0.533225
0.0248187 0.0154411 0.034431
0.398202 0.0205739 0.578852
0.0360787 0.0135583 0.146927
-0.0170726 0.0165941 0.663724
-0.322776 0.0346929 0.578052
-0.0237195 0.0221117 0.0932417
0.0340666 -0.0251478 0.462735
0.104638 0.0241151 0.603016
-0.0273011 0.0109488 0.228786
-0.240512 -0.0703136 0.611193
0.397711 0.0353464 0.538173
-0.0888596 0.019094 0.583048
-0.034523 -0.0282461 0.145581
0.0336096 -0.00101839 0.203728
0.0844553 0.00397129 0.0530921
-0.22341 -0.026002 0.642559
-0.275529 0.0339669 0.513935
-0.377495 0.0350906 0.571206
-0.103355 0.00853515 0.0648315
0.159708 0.0350074 0.526626
-0.163706 -0.0560119 0.63418
-0.173754 -0.0960432 0.514796
0.240588 -0.0458997 0.632305
0.113395 0.0356404 0.557556
-0.175472 -0.0968052 0.586899
0.224959 -0.0271286 0.643215
0.195187 -0.0608474 0.673487
-0.0337468 -0.0268565 0.459665
-0.171143 -0.0893632 0.462297
0.0983124 0.0213201 0.504902
0.245725 -0.0435581 0.595207
-0.00878784 -0.0440891 0.0441788
0.236168 -0.0170665 0.612307
0.0454576 0.00792028 0.587181
-0.27069 0.0211111 0.502846
-0.0228568 0.0215293 0.621443
0.028449 -0.0433801 0.450034
0.166458 -0.0391242 0.437794
0.142061 0.0353745 0.532848
-0.0294209 -0.0412723 0.489054
-0.249766 0.0165034 0.512029
-0.154902 -0.0288173 0.621928
-0.0295431 0.0191475 0.479626
0.201237 -0.0701484 0.427596
0.103777 0.0266242 0.605129
-0.0289188 -0.0422114 0.548819
0.0812665 0.0154244 0.0453271
0.0113714 0.0189953 0.198542
-0.180234 -0.0493461 0.663977
0.0314926 -0.0365529 0.172525
0.11334 0.0233494 0.498509
-0.14246 0.0317797 0.597962
0.127121 0.0179432 0.579536
0.0009588 0.0185665 0.357946
0.0313879 0.00305987 0.24636
-0.0318119 -0.0242559 0.685544
-0.161561 0.0356167 0.541767
0.180653 -0.0714553 0.645698
-0.0147776 -0.0360166 0.0319739
0.0217399 -0.0495114 0.529371
-0.320115 0.0325798 0.59468
-0.117651 0.0213833 0.597398
0.415484 0.0259597 0.500214
-0.288771 0.0332519 0.591093
0.01162 0.0181252 0.251992
-0.0209161 -0.0499151 0.278057
0.0589268 0.025997 0.493431
0.146809 -0.035647 0.58019
-0.0359343 -0.0152503 0.609244
0.174223 0.00244652 0.494227
0.0938559 0.035606 0.54298
0.174135 -0.0115237 0.629825
0.244217 -0.0231362 0.511503
0.241157 -0.0751428 0.540229
0.201314 -0.0533729 0.674754
-0.034066 -0.021759 0.304448
-0.0616599 0.00295452 0.0164744
-0.0144649 0.0321012 0.116319
-0.0238383 -0.0483577 0.365463
0.237407 -0.00444794 0.594087
-0.0703123 0.00126712 0.0668846
-0.132163 0.0118689 0.0153017
-0.248318 -0.0368099 0.549183
-0.0009759 0.0236158 0.619848
0.0174871 -0.0455206 0.693645
0.401313 0.0220408 0.590125
-0.306306 0.031385 0.599442
0.244548 -0.0555154 0.600401
0.265448 0.0198573 0.506341
-0.0175665 0.0320599 0.0652573
-0.152213 0.0352085 0.52964
0.2453 -0.0610015 0.574298
0.0274056 -0.0454766 0.138942
-0.411601 0.0349953 0.534762
-0.179561 -0.0746238 0.636305
-0.229287 -0.0453544 0.634423
-0.00193672 0.0214076 0.468886
0.00349682 0.0185586 0.315257
-0.148562 0.013706 0.515054
0.238672 -0.0206598 0.610614
-0.239748 0.0060765 0.584079
0.00837952 -0.0527722 0.21179
-0.0067281 0.0473292 0.107025
0.0486169 0.0355344 0.561636
-0.212606 -0.0497056 0.427022
0.0355074 0.00391152 0.176105
-0.0698348 0.00109948 0.0558532
0.246391 -0.0107618 0.566546
0.0613324 0.0152969 0.516433
-0.0104524 -0.0526716 0.420983
-0.354111 0.0327259 0.593576
0.0321051 -0.0339559 0.186212
-0.118694 0.00799948 0.0244318
0.0430432 0.00724456 0.144363
-0.00858318 -0.0132993 0.723409
0.0220053 0.0173011 0.645868
-0.210852 -0.0108666 0.45758
-0.149489 -0.0308357 0.600307
0.141976 0.0353513 0.532246
0.246796 -0.0451168 0.584215
-0.163747 0.00531502 0.596763
-0.0329211 -0.030005 0.649545
-0.0394296 -0.00262491 0.592649
0.0108751 -0.0526067 0.118592
0.00786254 0.0699681 0.0575227
-0.1963 -0.101302 0.549524
-0.243494 -0.0381374 0.486647
0.00147553 0.0187828 0.217502
0.0790073 0.0339672 0.514392
-0.0885551 0.0349075 0.524246
-0.0193257 -0.00989169 0.718936
-0.25429 0.0355882 0.541572
-0.14858 -0.013737 0.578345
-0.182435 0.0162005 0.605054
0.158531 0.0344441 0.581165
0.244292 0.0353578 0.567614
-0.354521 0.0202562 0.522452
0.232965 -0.0130405 0.612079
-0.0628261 0.015649 0.0843888
-0.0324121 -0.0255913 0.677491
0.306456 0.0189988 0.551932
-0.0229937 -0.0486958 0.267981
0.16578 -0.08991 0.495681
-0.0111024 0.0184721 0.422753
-0.0267865 0.0194152 0.120962
0.0244166 0.0155886 0.182127
-0.0318648 -0.034615 0.235811
-0.235658 -0.0311928 0.458627
0.0088896 0.0667258 0.0366989
0.257045 0.0349359 0.57542
0.0225066 0.0149376 0.228756
-0.0588619 0.0148128 0.585129
0.146383 -0.0510415 0.556605
-0.23638 -0.0829797 0.543894
0.00977519 0.0183026 0.323813
0.0138312 -0.0521238 0.186619
-0.193511 -0.0991676 0.616814
0.0340778 -0.00852053 0.22154
0.302063 0.0347669 0.577727
-0.230637 -0.0409871 0.639978
-0.231157 -0.0891926 0.564963
-0.341479 0.0203553 0.578755
-0.213436 -0.0569428 0.427365
-0.0348611 -0.0109037 0.202314
0.00470076 0.0185041 0.339798
-0.0426714 -0.00780531 0.14301
-0.244622 -9.1243e-05 0.570657
-0.151249 -0.0369187 0.48087
-0.0830487 0.0174949 0.566602
0.0583918 0.0115701 0.544516
0.0310608 0.00353644 0.384836
0.248019 -0.0223648 0.554409
-0.449631 0.0308047 0.53414
-0.251384 0.0151704 0.520037
-0.0333852 0.00372095 0.649182
0.200627 -0.0422498 0.670841
0.105696 0.0352485 0.569258
-0.156346 -0.0749284 0.473571
0.2198 0.0264656 0.493332
0.190905 -0.0146282 0.445879
0.0296872 -0.0407486 0.431136
0.177917 -0.0571727 0.659372
-0.0694682 0.0159222 0.065652
-0.155168 -0.0790015 0.514466
0.355987 0.0216086 0.589384
-0.0315402 -0.0375825 0.147829
0.395216 0.0312682 0.598487
0.186146 0.0322237 0.596107
0.0227776 0.0230148 0.0900623
0.176868 -0.0500919 0.657601
-0.20725 0.0307434 0.601148
-0.0294565 0.00778718 0.232204
0.197173 -0.077384 0.644201
0.0135521 0.0178 0.365017
-0.235168 -0.0831714 0.506548
0.0353736 -0.00930955 0.459517
0.194889 -0.0994796 0.613468
-0.0229716 -0.0487361 0.178788
0.081425 0.00596815 0.0853357
0.318721 0.034271 0.517206
-0.132657 0.0220973 0.601649
0.200392 -0.065508 0.669285
-0.00782422 -0.0527901 0.227804
-0.120389 0.0173497 0.54198
-0.0382769 -0.0191097 0.13017
-0.0237605 -0.0483708 0.379991
0.386364 0.0303672 0.600951
-0.0608015 -0.0017077 0.0718366
-0.195567 0.0354582 0.564684
0.0231231 -0.0480211 0.0755738
-0.00786853 0.0201375 0.458118
-0.122649 0.021561 0.501386
-0.211754 0.0185967 0.60594
0.215146 0.0327521 0.593967
-0.309991 0.035618 0.55647
-0.0688803 0.015475 0.531546
-0.209745 -0.0998127 0.528475
-0.147274 -0.0575798 0.552287
0.269026 0.0171175 0.56391
0.169956 -0.0933858 0.597838
-0.0427713 -0.0132153 0.107243
0.218897 -0.0075186 0.619814
0.0265022 -0.0457601 0.469069
-0.0186735 0.0165741 0.266892
-0.0339495 -0.0251088 0.43692
0.0366546 -0.0247113 0.110463
-0.0842591 0.0041512 0.0546516
-0.247378 0.00456419 0.553729
-0.216297 -0.0431693 0.653279
0.196729 -0.0840693 0.630748
-0.0566245 -0.00374697 0.0653946
0.013752 0.0259157 0.0170362
0.084763 0.03396 0.514715
0.242173 -0.0703807 0.511173
-0.0315916 -0.0356357 0.244944
0.0542589 0.00241071 0.124378
-0.0266279 -0.0457141 0.434068
-0.0325778 0.0231278 0.612759
-0.112378 0.0324594 0.595264
-0.00630144 0.0240361 0.162786
-0.282777 0.0183987 0.566426
-0.454531 0.0286424 0.563263
0.0603106 0.0305941 0.498991
-0.00622985 -0.0528741 0.158705
0.0234728 0.0141257 0.384587
0.326723 0.0357189 0.548407
0.00635712 0.0802424 0.0272284
-0.0812564 0.0128765 0.0133777
-0.185904 -0.0366476 0.659209
-0.391466 0.0237741 0.598646
-0.0342057 -0.011085 0.226812
0.21259 -0.0908179 0.451291
-0.0273459 -0.044759 0.492063
0.231114 -0.0882478 0.510468
0.0341301 -0.0141873 0.378787
-0.446473 0.0322939 0.542322
-0.0637283 0.0196125 0.498912
0.271625 0.0259976 0.495096
0.0324089 -0.0328864 0.240973
0.190091 -0.0569916 0.42542
-0.0994612 0.0323023 0.59575
-0.0319462 -0.0350423 0.297313
-0.0250097 -0.0471944 0.24535
0.110221 0.0337704 0.512433
0.388164 0.0228837 0.504293
-0.244695 0.0206722 0.499165
0.0341483 -0.0101866 0.225924
0.194273 -0.0725956 0.658509
-0.225284 -0.0397562 0.630831
-0.00733557 0.00497099 0.0127016
-0.00901191 -0.0527479 0.15532
0.0118747 -0.0523914 0.629577
0.208289 -0.0233323 0.631583
-0.0266297 0.0118916 0.414301
-0.0301494 -0.0399451 0.498025
-0.0519911 0.0143465 0.0326849
0.00481904 -0.052919 0.340397
0.0869903 0.0123691 0.00980988
0.148363 -0.015653 0.57819
-0.180689 -0.0543637 0.426935
0.0303987 -0.0396645 0.506656
-0.313266 0.0197256 0.527007
0.0318565 -0.0358075 0.52517
-0.0338948 -0.0302456 0.0685619
-0.0328771 -0.0053784 0.67131
-0.149082 -0.0655551 0.536183
-0.191937 -0.098894 0.478251
0.158605 -0.0832462 0.504237
-0.0550889 -0.00342346 0.092476
0.0169426 -0.0496385 0.668039
-0.0668315 0.0153122 0.0839274
0.0366821 -0.0164245 0.568161
0.107412 0.0255562 0.604651
0.199511 -0.0188538 0.439027
-0.378973 0.0353127 0.566367
0.184254 -0.0996519 0.516782
0.229151 -0.0252286 0.643286
0.00964786 -0.0523454 0.0998039
-0.00474356 0.0185172 0.293861
-0.322191 0.0330915 0.50804
0.197469 -0.101618 0.529162
0.330164 0.0355136 0.561928
-0.0424026 -0.00736 0.145579
0.0333302 -0.0293503 0.058932
-0.0352233 -0.0128415 0.458341
-0.0232383 -0.0488825 0.148775
-0.244552 -0.0457026 0.491272
0.0167373 -0.0257578 0.0234281
0.408659 0.0221947 0.510896
0.0110617 -0.0526118 0.547207
0.0362851 0.0169266 0.0605608
0.249388 0.0349864 0.57487
-0.22433 -0.0488605 0.63375
-0.0379649 -0.00462262 0.169449
0.210344 0.0343887 0.581723
-0.327265 0.0193623 0.540473
-0.282487 0.0356714 0.555921
-0.28066 0.0342787 0.517039
0.0619026 0.00387748 0.112171
-0.0154481 -0.0518517 0.623688
0.364722 0.0338933 0.514182
0.144447 0.0354486 0.535194
0.30037 0.0355977 0.542287
-0.15821 -0.0845715 0.574575
0.011447 -0.0525575 0.309321
0.19561 0.0355697 0.55963
0.0213025 -0.0498234 0.423316
0.0339777 -0.0263743 0.179544
-0.00562426 -0.0513578 0.0775803
0.251141 0.0323362 0.504707
-0.168974 -0.0114376 0.472723
0.236839 -0.0748039 0.470262
0.0339492 -0.0320077 0.0810945
0.393353 0.0205222 0.521343
0.158443 -0.0102431 0.496298
0.230811 -0.089455 0.520084
0.255977 0.0160688 0.577561
0.229062 -0.0909588 0.576973
-0.147661 -0.0299442 0.582846
-0.390576 0.0218404 0.590938
-0.407171 0.0338395 0.517633
0.0256583 0.00121754 0.701199
0.148938 -0.0478127 0.605
-0.0200526 0.0176108 0.445989
-0.15105 -0.0618149 0.481187
-0.356434 0.0355543 0.539611
0.00648436 0.0789703 0.0242385
-0.0344256 -0.0223204 0.458007
-0.181115 -0.0785479 0.630784
-0.239696 -0.0772574 0.568731
0.1744 -0.0660805 0.641182
0.000328311 0.0354493 0.53523
-0.196426 -0.075503 0.650677
0.392487 0.0197757 0.533853
-0.17625 -0.0294088 0.435625
-0.209097 0.0113599 0.604817
0.160137 -0.0838501 0.486246
-0.0306497 0.00669816 0.212972
-0.0659345 0.0257517 0.606421
-0.223969 -0.0898499 0.468614
-0.00299736 0.07615 0.0700726
-0.0289192 -0.04199 0.180492
-0.0343241 -0.0306859 0.0790203
-0.44553 0.0225241 0.54411
0.202613 -0.0784225 0.6392
-0.162563 -0.0430647 0.441221
-0.0238592 -0.0483147 0.305783
-0.00411449 0.0892236 0.00995781
-0.0411545 -0.00350371 0.566695
-0.0275567 -0.0444859 0.485179
-0.0450056 0.0169403 0.0686347
-0.159427 -0.0621324 0.44612
0.105778 0.0193103 0.58192
0.0731703 0.0353851 0.534678
-0.313255 0.0217725 0.507946
-0.0121942 0.00436839 0.711158
0.0502203 0.0112332 0.585411
0.147739 -0.047255 0.504516
0.16938 -0.0942113 0.527779
0.216523 0.0257208 0.607122
-0.108088 0.0107891 0.0022966
0.04039 0.0351083 0.527977
-0.040248 0.00396528 0.601811
-0.0293762 0.00911991 0.659736
-0.15227 -0.0730435 0.575698
0.0229856 0.0144242 0.3871
0.358292 0.0194425 0.558954
-0.146353 -0.0453893 0.577457
0.178415 -0.070017 0.43121
0.152194 -0.0432429 0.627511
0.323098 0.0344402 0.518945
0.00395659 0.0185356 0.266142
0.443896 0.0304609 0.581183
-0.196565 0.0344805 0.580788
-0.419175 0.02016 0.540312
-0.0449791 0.0122503 0.497542
0.00591008 0.0185866 0.409007
0.139864 0.0191042 0.50495
0.0210834 0.0155072 0.364467
0.199225 0.0126989 0.494294
0.0737621 0.00248453 0.0753157
-0.142899 0.035147 0.527957
-0.369478 0.0199653 0.572993
-0.0405513 0.00218426 0.595061
0.246837 -0.00877377 0.541989
0.0624595 0.0308396 0.499696
-0.154781 -0.0646115 0.636752
-0.0345044 -0.0223565 0.464655
-0.0281056 0.00923838 0.314995
-0.179308 -0.0966768 0.485691
0.251848 0.0327652 0.506932
0.0234281 -0.0486328 0.365074
0.13071 0.0180969 0.516164
0.161021 -0.0232105 0.463684
0.147088 -0.056542 0.540318
-0.34543 0.0194822 0.538719
0.249318 0.0356128 0.556061
0.0566456 0.0320028 0.503236
0.00201303 0.0185585 0.34488
-0.148042 -0.000675677 0.566282
-0.0965392 0.00607309 0.0517593
-0.0672119 0.0120021 0.102749
-0.149047 0.0349788 0.525416
-0.123881 0.0344064 0.581673
0.210189 -0.0269678 0.433645
-0.0017831 0.0731345 0.0747374
0.063954 0.0302594 0.498355
-0.041249 0.0345884 0.520563
0.408224 0.0321152 0.593498
0.243792 -0.0109188 0.517469
-0.0365496 0.0265263 0.608707
0.0200357 0.023571 0.122064
0.2171 -0.0529372 0.657304
-0.1552 -0.0761405 0.609126
0.0109256 0.0225333 0.623143
0.0029751 0.0355694 0.540298
-0.0664634 0.0180155 0.593028
-0.227875 -0.0916502 0.517787
0.0408482 0.00872138 0.0209682
-0.154755 -0.0781876 0.583917
-0.119776 0.0219385 0.599384
0.15259 -0.0371899 0.623424
0.333587 0.0336224 0.511178
0.0252158 -0.0423444 0.0534185
-0.167238 0.0218245 0.605381
0.0338129 -0.00875992 0.36859
-0.0654785 0.0352793 0.532455
0.17024 -0.0515319 0.6376
0.148997 -0.0507609 0.491629
0.196058 -0.101321 0.517427
0.404902 0.0210818 0.582385
-0.145392 -0.0383351 0.557697
0.187136 -0.0402646 0.666002
0.0487313 0.0356184 0.544691
0.383728 0.0345912 0.57853
-0.0421194 0.00307076 0.512812
-0.265954 0.0305131 0.498806
0.191739 -0.100158 0.501994
0.0076376 0.0191781 0.440406
-0.285787 0.0337585 0.587813
-0.0224737 -0.016209 0.717839
-0.0311198 -0.0374509 0.311498
-0.345588 0.034942 0.574968
0.146285 -0.0350253 0.526898
0.389783 0.034295 0.581797
-0.228808 -0.089012 0.496055
-0.062662 0.00280379 0.107593
-0.185348 -0.100208 0.528019
0.00474455 0.0354383 0.535591
-0.214352 -0.0224554 0.440038
0.339464 0.0345433 0.580059
0.402334 0.0318876 0.504596
-0.0375312 0.0124512 0.622117
0.453875 0.0251758 0.542009
-0.224252 0.0334229 0.509804
0.238191 -0.0543557 0.454473
0.221507 -0.0724053 0.435753
-0.180416 0.0350658 0.527649
0.168762 -0.0856819 0.642192
-0.354064 0.0296763 0.497085
0.02553 -0.0466528 0.458551
0.0818584 0.0170916 0.541698
0.10718 0.0183523 0.568225
-0.416525 0.0350542 0.555109
-0.146626 -0.0495063 0.519453
-0.203147 0.0135558 0.494538
-0.307181 0.0356135 0.543686
-0.14471 0.0341966 0.516796
-0.209449 -0.0730227 0.648494
-0.0232025 -0.0486744 0.299354
0.165295 -0.0106794 0.615831
-0.233008 -0.0869347 0.555334
-0.16497 -0.0483011 0.436965
-0.0242926 -0.000309943 0.0178808
0.173454 0.0355509 0.539341
-0.00594108 -0.0524504 0.647422
-0.0216265 0.0353322 0.531976
-0.183394 -0.0992565 0.504321
0.363867 0.0193954 0.555354
0.0179187 -0.0510187 0.196758
-0.248057 -0.0222001 0.549288
0.136515 0.0339474 0.585597
0.170146 0.0341839 0.516098
-0.204859 -0.00582555 0.469541
-0.198332 0.0320093 0.503175
-0.0340995 0.00224352 0.451226
0.224637 -0.0896199 0.469313
0.0105176 -0.0526068 0.581997
-0.333189 0.0341403 0.515617
0.242519 -0.0641369 0.486758
-0.0205599 -0.0500828 0.260045
-0.21971 -0.0909913 0.461504
-0.0411634 -0.0165213 0.0866259
0.00200426 0.0239066 0.1638
-0.266237 0.0342066 0.583777
0.02816 0.0124486 0.187956
0.326052 0.020133 0.576506
0.0477925 0.0168782 0.0703122
-0.406247 0.0322318 0.50689
-0.0265126 0.0202676 0.0903106
-0.0030462 0.0968792 0.0219134
-0.306712 0.0210678 0.511992
-0.216765 0.0350849 0.571941
0.0258816 -0.0462219 0.274502
-0.122192 0.0124502 0.00972579
-0.0282065 -0.0288326 0.702594
0.332016 0.0306927 0.600691
-0.0641404 0.000600221 0.0320951
-0.0878441 0.00531787 0.0658614
0.181108 -0.0105402 0.459732
0.0100066 0.0590818 0.0290093
-0.280892 0.0338289 0.587453
0.407272 0.0197361 0.547961
-0.388258 0.0199114 0.53065
0.0345993 -0.0116452 0.210036
0.0366058 0.0176834 0.079917
0.0296045 -0.0404566 0.249203
0.145354 -0.0323685 0.558822
-0.119679 0.033814 0.512633
0.00677432 -0.0528792 0.29544
-0.191289 0.0351106 0.572727
-0.039286 0.00228256 0.494555
-0.00785946 0.0708529 0.0233844
-0.436731 0.0327292 0.575202
-0.0666312 0.0354394 0.536234
0.436602 0.0211679 0.553721
0.450365 0.0300325 0.569117
-0.0136275 0.0178096 0.327528
0.241601 -0.0643681 0.617137
0.211744 -0.0998798 0.549088
0.00966139 -0.0516676 0.662111
-0.324558 0.0198165 0.52851
-0.0339308 -0.0242004 0.36678
0.21168 -0.000415888 0.486315
-0.0266499 0.0116203 0.230751
-0.363587 0.0193737 0.552989
0.193868 0.0027464 0.610434
-0.00141552 0.0344592 0.51919
-0.0267318 0.0171258 0.0462411
-0.146744 -0.015723 0.567154
-0.00298763 0.018562 0.389103
0.02718 -0.0237436 0.0288815
-0.201741 0.0330397 0.508414
0.0754195 0.0348125 0.576514
0.0106694 -0.0518855 0.0883126
0.205578 0.00473168 0.60787
0.00738337 -0.0462349 0.0504366
-0.0321529 0.0169131 0.131907
0.330534 0.021398 0.510806
0.032816 -0.0323105 0.518007
0.327836 0.0333081 0.591127
0.0340728 -0.00149299 0.442659
-0.0411009 0.00384019 0.59572
0.134008 0.0337163 0.512605
0.104377 0.0344161 0.581459
0.0340206 -0.0113682 0.305509
0.0160217 0.0175279 0.411289
-0.0242944 0.0320972 0.596719
-0.0362822 -0.00864521 0.620013
0.00577648 0.0832387 0.0244612
0.206831 -0.0102019 0.63729
-0.198291 0.00894521 0.606152
-0.0308047 -0.0386754 0.414121
0.289117 0.0184132 0.546764
-0.132319 0.0239683 0.49606
-0.0168862 0.0181943 0.651257
0.0253143 -0.0471626 0.546287
-0.263551 0.0179948 0.582544
0.199246 -0.0780735 0.64184
-0.35445 0.0195201 0.563192
0.0383383 0.00943293 0.478059
0.105122 0.0207734 0.592879
0.192123 0.033333 0.510237
-0.165043 -0.0284165 0.447044
-0.225018 -0.0846483 0.643549
0.301107 0.0350351 0.574129
-0.115669 0.0130303 0.04425
-0.198313 -0.00583717 0.627246
0.00733004 0.0240576 0.481817
0.148828 -0.06533 0.557151
-0.0512985 0.00958698 0.57336
0.0989789 0.0134612 0.0138646
-0.332495 0.0347008 0.52241
-0.0670313 0.032747 0.506211
-0.159968 -0.0202451 0.624163
-0.0295935 -0.00226801 0.0167871
0.0454927 0.0354473 0.565166
0.030452 -0.0395668 0.637985
-0.332413 0.0193589 0.558352
0.172102 -0.0264886 0.440856
0.143426 0.0172087 0.590416
0.215134 -0.0754525 0.433659
0.00403017 0.0771823 0.0669677
0.275504 0.0177259 0.562737
-0.0437701 -0.00412472 0.144742
-0.370445 0.0196235 0.534636
-0.0028317 0.0222188 0.00982096
-0.034006 -0.0228481 0.29527
0.000973621 -0.0529863 0.557583
-0.0206358 -0.050113 0.40797
-0.437294 0.0225886 0.523227
-0.209035 -0.100102 0.566546
0.0824052 0.0153097 0.0586344
-0.00384883 0.0186786 0.657605
0.0110629 -0.0525598 0.168678
-0.147426 -0.00951518 0.531644
-0.34146 0.0313556 0.501034
-0.182795 -0.10005 0.557129
-0.294887 0.0332269 0.50932
-0.0224353 0.0355354 0.538684
0.176299 -0.0971192 0.518959
0.0339807 -0.00870761 0.228598
0.0328421 -0.0316552 0.29983
-0.332875 0.0328303 0.593671
0.163944 -0.0640565 0.439816
-0.353328 0.0194192 0.542533
0.421328 0.0208565 0.527537
0.213897 0.0246247 0.607223
0.243605 -0.0130808 0.515658
-0.183734 -0.0964221 0.625488
0.344752 0.0211278 0.51376
0.181003 0.0187514 0.494285
-0.0479243 0.0169271 0.0736216
0.301352 0.0331771 0.509334
0.156598 0.032802 0.506739
0.0336187 -0.025775 0.219597
-0.0314236 -0.0358576 0.198744
