-0.271521 -0.0927998 0.467811
0.0318812 -0.0091699 0.276362
-0.054656 -0.0323813 0.487562
-0.054686 -0.0654276 0.74252
-0.0627788 -0.000347195 0.393749
0.060045 -4.39065e-05 0.39566
-0.318471 -0.0201202 0.384156
-0.0125804 0.0422324 0.116189
0.0132804 -0.000275478 0.201754
0.0737469 -0.0386631 0.0748352
0.0370776 0.00245375 0.677512
0.423873 -0.0401764 0.268927
0.0563997 -0.0405903 0.141281
-0.467896 -0.0315622 0.335184
-0.00146926 -0.0844137 0.20886
0.106346 -0.0143463 0.52414
-0.0589926 -0.0563005 0.600472
0.0556061 -0.0692986 0.632786
0.421308 -0.0441331 0.343682
-0.253106 -0.0303778 0.441425
0.321011 -0.0206381 0.374555
0.197821 -0.0255797 0.417927
-0.133385 -0.0850618 0.506135
-0.0248067 -0.101173 0.359474
0.0277859 0.00688713 0.509875
0.00882598 0.0649534 0.0483721
-0.144177 -0.00415335 0.488088
-0.100318 -0.0151014 0.457599
0.00569723 -0.115861 0.744901
-0.425065 -0.0469467 0.395466
-0.0365678 -0.0775741 0.774196
-0.149909 -0.0643931 0.457035
-0.0510869 -0.0699427 0.398338
0.0347065 -0.0022975 0.351755
0.0461402 -0.0875963 0.412287
0.000995586 -0.116535 0.587313
0.126683 -0.033 0.0730338
-0.0698694 -0.010883 0.513071
-0.196043 -0.0096626 0.444644
-0.0254803 -0.0523656 0.820835
-0.287906 -0.045004 0.393016
0.232522 -0.0145504 0.386149
-0.18012 -0.0235664 0.420348
-0.0662298 -0.0373675 0.0661026
0.156161 -0.00715234 0.420307
-0.415822 -0.0311785 0.302586
0.436833 -0.029164 0.346269
-0.256063 -0.0287582 0.352546
0.208818 -0.0177674 0.328703
-0.00956113 0.100889 0.0496405
0.0644205 -0.0394895 0.104165
-0.274316 -0.0959679 0.397678
-0.0459646 -0.0265803 0.300479
-0.262469 -0.0185607 0.340332
-0.387172 -0.0416476 0.361231
0.39919 -0.0250696 0.402887
0.253019 -0.0136167 0.449305
-0.306303 -0.0782877 0.420057
-0.135458 -0.0174437 0.373848
0.00813596 0.0968321 0.024661
0.150336 -0.00953027 0.34456
-0.00738296 -0.116535 0.518916
0.395545 -0.0426987 0.365509
0.116985 -0.0388858 0.12504
0.270516 -0.0591693 0.449558
-0.022751 -0.112423 0.66588
-0.448471 -0.0344386 0.28719
-0.209487 -0.00930195 0.487095
-0.238507 -0.0287239 0.390087
-0.400851 -0.0327265 0.275064
0.144804 -0.0190818 0.485443
-0.00447997 0.0113457 0.170528
-0.267139 -0.0155917 0.41908
-0.436782 -0.0288819 0.357163
-0.282531 -0.0214994 0.310693
0.0214686 -0.096448 0.286903
-0.0403942 -0.0293864 0.186374
0.253136 -0.0306626 0.402014
0.0952583 -0.00122207 0.441364
-0.0539646 -0.0319795 0.448249
0.0277757 -0.0978028 0.341249
0.0369532 0.00107993 0.551104
-0.0504831 -0.0824591 0.671729
-0.010192 0.0766024 0.112953
-0.296506 -0.0176707 0.415243
0.228962 -0.0279861 0.463529
0.00876634 0.00113147 0.0721424
0.037384 -0.101791 0.663429
-0.329632 -0.0223285 0.355232
0.0541426 -0.0614648 0.449477
-0.272765 -0.0597967 0.416742
-0.108845 -0.00424502 0.392388
-0.0356307 -0.0390961 0.141574
0.0219464 -0.0839718 0.819517
-0.327891 -0.034098 0.31395
0.176143 -0.0227445 0.461269
0.0212526 -0.0516252 0.0822114
-0.149352 -0.0183693 0.51166
0.137436 -0.044301 0.544198
-0.0587532 -0.0506873 0.566406
-0.159466 -0.00800972 0.405171
0.00896589 -0.111463 0.770652
-0.0454036 -0.0911326 0.43032
0.339016 -0.0383932 0.418333
-0.0472425 -0.0806208 0.356375
0.0220487 -0.0649677 0.14658
0.157334 -0.0625381 0.487666
-0.0353202 -0.102363 0.473804
-0.100905 -0.0348988 0.0383775
0.272129 -0.0299678 0.344689
0.0116672 0.00889669 0.125626
0.301677 -0.0737683 0.406263
-0.321505 -0.0322748 0.44934
-0.0921143 -0.0135662 0.493327
0.298086 -0.0173191 0.428583
-0.118529 -0.0307271 0.0925703
-0.017267 0.00964247 0.466671
0.0163186 -0.112694 0.439132
-0.0458797 -0.00728888 0.600368
0.0588592 -0.0452134 0.605625
-0.378309 -0.0291582 0.295434
-0.0441665 -0.0107561 0.409628
-0.0618609 -0.0421261 0.162235
-0.0154548 0.00800464 0.372415
0.200933 -0.00961689 0.459642
-0.205093 -0.0120019 0.401164
0.28703 -0.0185784 0.37198
-0.0508503 -0.0799414 0.546881
-0.0491038 -0.028019 0.331631
0.25086 -0.0252499 0.318218
-0.189309 -0.0241033 0.460124
0.0385564 -0.0454589 0.160973
-0.0907697 -0.0265116 0.08338
0.111629 -0.0160471 0.469479
0.0619375 -0.0109223 0.475693
-0.0552789 -0.0373187 0.706084
-0.0119432 0.0100983 0.12897
0.0439962 -0.00614973 0.587276
0.0489022 -0.0726378 0.339948
-0.0354402 -0.0140256 0.268808
-0.123154 -0.0401353 0.493343
-0.049473 -0.0187392 0.521938
-0.0431951 -0.0134109 0.744223
0.0509821 -0.0606604 0.312774
-0.0474671 -0.0436297 0.251096
0.0288635 -0.0194182 0.106271
0.144829 -0.00665075 0.408382
-0.0490188 -0.085588 0.598289
0.315338 -0.0325776 0.306668
0.035419 -0.0362132 0.0921455
-0.406627 -0.02773 0.340181
0.360617 -0.0258345 0.329607
0.0128262 -0.116535 0.656916
0.0972947 -0.0033949 0.389481
-0.152472 -0.0759267 0.488577
-0.0408589 -0.0218821 0.1282
-0.0178998 -0.109599 0.408735
-0.0344435 -0.103927 0.565032
-0.0438261 -0.0368603 0.089662
0.0510036 -0.0347572 0.340515
-0.056468 -0.0103685 0.46616
0.138667 -0.00666768 0.513941
0.0743215 0.000303667 0.435364
-0.374843 -0.0240951 0.378143
-0.0107338 -0.103237 0.33025
0.0292281 -0.00861355 0.24533
0.0453959 -0.00516282 0.641708
-0.0492557 -0.0655575 0.299211
-0.134405 -0.041339 0.458448
0.0376692 -0.101584 0.594164
0.110093 -0.00391075 0.403614
-0.029997 0.00799095 0.703065
-0.0371266 -0.0203887 0.213777
0.186538 -0.0226156 0.372343
-0.12529 -0.00298061 0.473238
0.0241531 -0.111404 0.532302
0.265218 -0.0889956 0.401849
0.0436505 -0.0349103 0.055439
0.309334 -0.0666994 0.485101
0.252556 -0.0168611 0.363589
0.15687 -0.0726129 0.514647
-0.360139 -0.0267888 0.314698
0.0546558 -0.0706382 0.567918
-0.274264 -0.0155073 0.466224
0.0128143 0.00795493 0.362753
0.363601 -0.024016 0.360945
0.123101 -0.073145 0.446256
0.329093 -0.0201824 0.404508
0.0126887 0.00591513 0.145647
-0.107525 -0.0309919 0.123092
0.40493 -0.0279778 0.334608
-0.111177 -0.0668267 0.498523
0.0476023 -0.0896946 0.68398
-0.191713 -0.00813546 0.480784
0.210961 -0.0141555 0.356463
-0.0182073 0.00840559 0.554959
0.189566 -0.0234861 0.494009
-0.00230476 -0.115214 0.469122
-0.307946 -0.0611903 0.459884
-0.0738256 0.000510502 0.439657
-0.125622 -0.0553229 0.537538
0.0210783 0.00865679 0.614722
-0.226316 -0.0117851 0.449921
0.361354 -0.0285807 0.43495
-0.0672386 -0.0407365 0.122767
0.045928 -0.0278746 0.296175
-0.272914 -0.0173777 0.379631
-0.0235721 0.00778217 0.496644
-0.0079185 0.0107374 0.591694
-0.0345722 -0.0521782 0.791224
0.0295685 0.00490298 0.428881
0.0487642 -0.0847811 0.741211
-0.329506 -0.0370041 0.386032
0.290097 -0.100479 0.455923
0.00794165 0.00558899 0.0537537
0.457361 -0.0455945 0.280921
-0.0512536 -0.0149683 0.646049
0.11692 -0.0103541 0.353759
-0.0594486 -0.0541638 0.661263
0.0469259 -0.016516 0.453795
-0.0959663 -0.013209 0.52757
-0.11793 -0.0157546 0.513719
0.00940858 0.0993504 0.0478535
0.045495 -0.0146391 0.5059
-0.0028773 -0.00251266 0.755901
-0.3904 -0.024486 0.401598
0.0868533 -0.0368947 0.0428694
-0.164908 -0.0201149 0.356827
0.0961484 -0.0424714 0.0970216
0.00854609 0.0289646 0.0560729
0.0548935 -0.0231744 0.121014
0.289602 -0.033839 0.403651
0.369269 -0.0411202 0.402276
0.0629323 0.0031633 0.520183
-0.0412205 -0.0990036 0.649537
0.148086 -0.00506453 0.465664
0.0109417 0.064066 0.082194
-0.00399903 -0.106032 0.79328
-0.0291558 -0.107769 0.596961
-0.161958 -0.0214539 0.454129
-0.182641 -0.02202 0.361857
-0.203809 -0.0145527 0.329611
-0.278458 -0.0800594 0.489189
0.0382971 -0.095291 0.392652
0.327861 -0.0349652 0.447057
0.00682154 -0.0392592 0.0528316
-0.0517793 0.00397695 0.508483
0.279472 -0.0149215 0.462856
0.0462717 -0.0498037 0.225783
-0.230313 -0.0138069 0.40139
-0.271183 -0.0947868 0.45112
-0.3376 -0.0370803 0.364311
0.0539502 -0.0584692 0.366905
-0.0540138 -0.0225335 0.0763495
0.322716 -0.0354121 0.35822
0.240246 -0.0123866 0.47842
0.0555451 -0.0367648 0.500521
0.00670744 0.011771 0.409066
0.281563 -0.0206193 0.324012
-0.0268803 -0.109423 0.726838
0.381253 -0.0290188 0.300864
-0.415873 -0.0444029 0.360006
-0.299738 -0.0747582 0.400714
-0.171938 -0.00620621 0.494018
-0.0523634 -0.0233423 0.375036
0.0266146 0.00819189 0.659365
0.0377867 -0.101498 0.711872
0.180346 -0.0236679 0.424042
-0.113488 -0.0707853 0.519319
0.0416793 -0.00308544 0.707694
-0.0158226 -0.0573462 0.837961
0.0328357 -0.0554384 0.797863
-0.0234924 -0.0479702 0.0842319
-0.0462668 -0.0922596 0.736689
-0.0182094 -0.0999862 0.301765
0.011127 0.0127386 0.677837
-0.27865 -0.053906 0.463512
-0.265409 -0.0302612 0.366758
0.0397309 0.00204198 0.405587
-0.298585 -0.0980167 0.458126
-0.236204 -0.0287203 0.461344
-0.0517748 -0.0333756 0.731865
-0.0408322 -0.0232653 0.159095
-0.113903 -0.0705341 0.46209
-0.0531604 -0.0351021 0.0507816
-0.0258276 -0.000569511 0.32404
0.0532112 -0.0302296 0.401298
-0.00822794 0.086833 0.0300037
-0.00525452 0.0138661 0.707904
0.361995 -0.0230896 0.38244
-0.00986523 0.0758706 0.0623822
0.037352 -0.0910304 0.765065
-0.00260048 0.115078 0.07285
0.279607 -0.0823192 0.485475
0.0508082 -0.0308172 0.731484
0.0112138 0.0259322 0.104407
0.0525144 -0.0190187 0.67061
0.417599 -0.0371847 0.414516
-0.0157794 -0.107862 0.38161
-0.0171623 -0.010989 0.116885
0.453042 -0.0317319 0.322221
0.295259 -0.0588829 0.423515
-0.139622 -0.0192342 0.439348
-0.0161577 -0.0344771 0.795295
-0.0407919 -0.000544259 0.678576
0.446486 -0.0484924 0.389935
0.0457542 -0.0933631 0.546003
-0.0118947 0.000480846 0.218549
-0.150388 -0.0688765 0.542671
-0.451302 -0.029331 0.378093
0.18068 -0.021632 0.355911
-0.0310659 -0.106381 0.538241
-0.00514264 0.0436726 0.0286862
-0.270559 -0.0151186 0.439277
0.462295 -0.030744 0.352262
0.0771165 -0.0124225 0.391714
0.0528774 -0.0665071 0.470073
0.0592883 -0.0521101 0.646179
0.110055 -0.0435628 0.0827738
-0.0548023 -0.0539967 0.434431
-0.445792 -0.0321526 0.313082
0.0444963 -0.0570842 0.240652
-0.266637 -0.0678912 0.470603
0.0569386 -0.0416054 0.52262
0.125485 -0.0278121 0.457621
0.0457729 -0.0926687 0.483242
-0.105834 -0.0152368 0.417942
0.104719 -0.0335189 0.128758
-0.119797 -0.0485409 0.129822
0.00586515 0.0123786 0.456037
0.110544 -0.0645185 0.497942
-0.00956818 0.0246069 0.076308
-0.00333446 -0.111767 0.4281
0.114497 -0.0734106 0.523619
-0.368595 -0.0416232 0.416979
0.0413488 -0.0148464 0.318592
-0.161809 -0.0209616 0.477792
-0.30564 -0.0351121 0.396641
-0.0571479 0.00349277 0.49025
-0.00944425 -0.0790902 0.180387
-0.206538 -0.011102 0.429258
0.415875 -0.0321069 0.288978
-0.345006 -0.0208773 0.417337
0.0280122 -0.027626 0.772715
0.223239 -0.0281796 0.421826
0.0183099 0.00771537 0.730431
0.023001 -0.00542819 0.214216
0.202565 -0.0118128 0.400517
0.0559511 -0.0252891 0.604213
0.30416 -0.0322315 0.325407
-0.0810009 -0.0457549 0.147606
-0.423776 -0.0327855 0.412397
0.119061 -0.0167406 0.426083
-0.0413184 -0.0776591 0.258276
-0.0558881 -0.0255889 0.570945
0.029674 0.00666509 0.483554
0.306459 -0.0821496 0.425488
-0.290338 -0.0481481 0.410825
-0.011782 -0.011293 0.081243
0.0933484 -0.0270943 0.0779256
0.248442 -0.0292385 0.380461
-0.152691 -0.0793281 0.522329
-0.1464 -0.0192375 0.401307
-0.00953239 -0.116535 0.495108
0.0136678 0.000664219 0.176102
0.00644107 0.0999868 0.097745
-0.0518297 -0.0685171 0.423758
-0.348428 -0.0236723 0.352608
-0.187985 -0.0235485 0.394386
0.23586 -0.0287888 0.443898
0.311919 -0.0357736 0.423293
-0.013676 0.0105014 0.647789
0.303554 -0.0950071 0.467966
0.268435 -0.0162752 0.401088
0.126842 -0.0243914 0.487127
0.107871 -0.0150285 0.375114
-0.427383 -0.0291685 0.335888
-0.012124 -0.0684403 0.129295
-0.0659947 -0.0112484 0.420615
0.0723612 -0.0265186 0.140336
0.357005 -0.0283231 0.287549
-0.252975 -0.0154029 0.397487
0.276405 -0.0963576 0.469228
-0.264342 -0.0899866 0.419698
-0.101945 -0.000277328 0.511398
-0.152381 -0.0192079 0.376545
0.128777 -0.0317398 0.516898
0.444405 -0.0339039 0.29007
0.0337039 -0.0814417 0.254119
0.0426918 -0.0172056 0.757118
0.0860167 -0.0423459 0.119203
-0.082567 -0.0131768 0.46356
0.048028 -0.013067 0.562172
0.0101233 0.00308464 0.280636
0.0542229 -0.0387296 0.444104
0.425147 -0.0436785 0.319385
0.376887 -0.039255 0.323156
0.0990616 0.000104448 0.522555
-0.310483 -0.0342095 0.357451
-0.292328 -0.0282493 0.439965
-0.000244098 -0.0948397 0.823702
0.0188114 -0.115285 0.633681
-0.199992 -0.0134975 0.349481
-0.00297827 -0.0977764 0.280329
-0.0871017 -0.0275707 0.12636
0.0458203 -0.0110737 0.384587
0.0450277 -0.0787634 0.284316
0.275149 -0.0326372 0.451234
-0.263887 -0.0748723 0.400238
-0.118558 -0.016043 0.379151
-0.0547442 -0.0224844 0.620079
0.00754361 -0.0333312 0.80372
0.0566382 -0.0603456 0.736869
-0.0958292 -0.0404322 0.0669323
0.143854 -0.0477534 0.453554
-0.327695 -0.023502 0.332316
0.171342 -0.00709207 0.463189
-0.0507918 -0.0822219 0.700039
0.00345805 0.0119472 0.513562
0.228408 -0.0267489 0.367668
0.103101 -0.00111572 0.464395
-0.399753 -0.04053 0.299062
0.0457173 -0.0366421 0.256813
-0.0265921 -0.0766504 0.21548
0.0204502 -0.0608876 0.122344
0.0994806 -0.000431316 0.483422
0.274479 -0.0154977 0.435637
-0.0294883 0.00495906 0.430601
-0.233443 -0.0154757 0.366145
-0.0566064 -0.0392511 0.518039
0.159347 -0.0567747 0.531263
0.407369 -0.0260941 0.384864
0.154128 -0.00615857 0.442168
0.0046424 -0.0570828 0.845774
-0.125043 -0.0484303 0.437061
0.0579175 0.0022766 0.450585
0.0584091 0.000811779 0.541381
0.0104369 -0.116535 0.560708
0.143612 -0.0851437 0.518849
-0.200312 -0.0244468 0.384375
-0.102881 -0.00220634 0.432336
0.0304048 -0.103143 0.432447
-0.0115649 -0.116535 0.607201
-0.0445713 -0.0838316 0.75524
0.382018 -0.0250768 0.360632
-0.0297012 -0.091548 0.78581
0.0730466 0.00201091 0.483714
-0.320351 -0.0249448 0.299088
0.0348196 -0.0179378 0.197399
0.275527 -0.0992073 0.436858
-0.289811 -0.0973741 0.483969
-0.0578668 -0.0589999 0.531727
0.275218 -0.0515359 0.400822
-0.03978 -0.00865616 0.466016
-0.0497333 -0.016409 0.699497
0.230031 -0.0252119 0.330391
-0.0031633 0.00887487 0.735314
0.121646 -0.0799815 0.482318
0.0289471 0.00577441 0.448113
-0.0591996 -0.0586189 0.621759
-0.46231 -0.0468899 0.356199
-0.0461407 -0.0898091 0.455395
-0.140993 -0.0251471 0.474043
-0.054223 -0.0480998 0.396443
0.018624 -0.115421 0.709067
0.0606067 -0.0108917 0.443153
-0.00259408 0.114372 0.0242605
0.0669763 -0.0106035 0.512365
0.343586 -0.0231212 0.356936
0.0470924 -0.0903509 0.573952
-0.250442 -0.0133873 0.451037
-0.15436 -0.0547413 0.480373
-0.00545953 -0.0911467 0.24487
-0.183432 -0.0100928 0.403441
0.0450209 -0.0123603 0.731487
-0.334994 -0.0382487 0.432837
0.0413264 -0.0566707 0.198651
0.124497 -0.0791273 0.543243
-0.0737724 -0.0120827 0.397317
-0.0941931 -0.0457314 0.13523
0.0440743 -0.0476089 0.178002
-0.290567 -0.0310805 0.329624
0.16051 -0.0172829 0.507569
-0.00928445 0.0458784 0.0637393
-0.0222261 0.00833498 0.605124
-0.373355 -0.0389454 0.323969
-0.105977 -0.0436518 0.0941474
-0.0533727 -0.047459 0.351144
0.0230119 -0.112233 0.611191
0.0133977 -0.0472777 0.827088
0.1608 -0.00837847 0.398236
-0.0799222 0.00172601 0.519227
0.0136557 0.0703253 0.116783
0.444699 -0.04697 0.355021
0.165072 -0.0201995 0.360429
-0.116987 -0.0162756 0.484456
-0.0548205 -0.04636 0.468459
-0.0106847 -0.116535 0.64996
8.93466e-05 0.0874196 0.0100572
0.27409 -0.0579561 0.42682
-0.402024 -0.0440619 0.390254
0.422372 -0.0452895 0.364648
-0.0242176 -0.0694826 0.174742
0.0561091 -0.0615238 0.513195
-0.19989 -0.02478 0.481747
0.446813 -0.0290269 0.377678
0.0263643 -0.0481585 0.10339
0.202191 -0.0250092 0.391769
-0.0425548 -0.0218124 0.0640924
-0.230354 -0.0171238 0.48228
-0.101334 -0.000866865 0.469059
0.148342 -0.0436587 0.4864
-0.0552178 -0.00592596 0.37076
0.162433 -0.0213663 0.413528
0.0362193 0.00172002 0.389915
0.33481 -0.0375616 0.393876
-0.0286663 -0.0610806 0.150838
0.0589458 -0.0629223 0.681475
-0.0431752 -0.0329447 0.228424
0.299671 -0.0535337 0.470584
-0.0433697 0.00481505 0.527007
-0.0152949 0.00506042 0.337852
0.340955 -0.035277 0.311437
0.297353 -0.0978278 0.438665
0.189878 -0.0099016 0.422891
0.0675471 -0.0404939 0.157291
0.0132631 0.0295077 0.134607
0.0545628 -0.0542545 0.402955
-0.0115189 -0.0133367 0.766452
-0.363442 -0.0400848 0.382643
-0.0222255 -0.00428149 0.237802
0.473468 -0.0362513 0.321782
0.0464351 -0.0874351 0.427847
0.209469 -0.025902 0.474037
-0.0475228 -0.0213987 0.0990724
0.330038 -0.0239629 0.326776
0.0588865 -0.0527197 0.586547
-0.436003 -0.0433883 0.276835
0.168471 -0.021469 0.487145
-0.0631408 -0.0111645 0.442854
0.0633914 -0.023359 0.100271
0.021172 -0.0642424 0.829725
0.0177472 -0.0808537 0.205583
0.0732527 -0.000616889 0.409159
0.0239988 -0.111516 0.50858
-0.34035 -0.0218176 0.376244
-0.0504732 -0.0756578 0.48049
-0.275166 -0.0186117 0.358742
-0.43024 -0.0438751 0.309104
-0.0704193 -0.0115804 0.485068
-0.0121476 -0.0358937 0.0528316
-0.0086215 -0.112801 0.762558
-0.237086 -0.0263191 0.339641
-0.26937 -0.0314825 0.385824
0.255733 -0.0146597 0.423979
-0.138863 -0.0430492 0.544123
-0.142413 -0.0556718 0.439349
-0.0277134 -0.108817 0.687208
-0.0461366 -0.0921961 0.532628
0.380791 -0.0265075 0.336315
-0.174669 -0.00753907 0.454454
0.0724399 -0.0368338 0.0559108
0.0403899 -0.0996071 0.503018
-0.059919 -0.0390032 0.103006
-0.225873 -0.0126156 0.42597
-0.050563 -0.0241626 0.354067
0.355115 -0.0383174 0.353602
-0.399878 -0.0412243 0.316308
0.141456 -0.0668365 0.439588
0.400656 -0.041486 0.32321
0.309143 -0.017489 0.447281
-0.0262922 -0.10985 0.637403
-0.0318503 0.00609376 0.659802
-0.46433 -0.0331807 0.313302
-0.15308 -0.00922816 0.358759
-0.445647 -0.0421825 0.392768
0.379654 -0.0231241 0.422948
0.136381 -0.0178171 0.389407
-0.462837 -0.0461697 0.282319
-0.117688 -0.00599978 0.365773
0.226228 -0.0232292 0.484119
0.216499 -0.0119905 0.426141
-0.0184958 -0.00113624 0.276088
0.0188269 -0.086096 0.231806
-0.2218 -0.018655 0.325107
0.265049 -0.0748534 0.476385
-0.320044 -0.0346109 0.344517
0.0465125 -0.0133447 0.365083
0.444938 -0.045655 0.323781
-0.00206249 0.0114985 0.570988
-0.0425063 -0.0856613 0.296973
0.139141 -0.0189975 0.430477
-0.13138 -0.0178646 0.418996
-0.262755 -0.0247101 0.470811
-0.274939 -0.0562147 0.439478
0.0248995 -0.0123238 0.762612
0.342013 -0.0213096 0.396087
0.107543 -0.0299938 0.059027
-0.0442635 0.00455658 0.479433
0.401491 -0.0306191 0.296382
-0.129511 -0.0172702 0.394052
-0.0723135 -0.0393896 0.0886784
-0.0521937 -0.0231051 0.396148
0.13953 -0.0209566 0.458069
-0.0205532 -0.113724 0.481314
-0.147655 -0.00579999 0.4369
0.0442765 -0.089761 0.363393
-0.0559297 -0.0473798 0.501741
-0.0579408 -0.0563317 0.713981
-0.0284393 -0.104256 0.429104
0.118181 -0.0757563 0.466228
0.274554 -0.0330842 0.394776
0.0035566 -0.107458 0.376808
-0.0476819 -0.0806577 0.377862
0.0207551 -0.0355849 0.790003
-0.0325689 0.00155491 0.369478
-0.0583387 -0.0602385 0.547882
-0.348393 -0.035796 0.306195
-0.0310755 -0.0742101 0.796922
0.0244421 -0.00304326 0.296404
0.156417 -0.00524815 0.483521
-0.113649 -0.00228125 0.453915
-0.0897239 -0.0135965 0.395634
0.066644 -0.0240765 0.0668559
0.0585183 -0.0347072 0.58387
0.015621 -0.0976059 0.803435
0.305977 -0.0184805 0.409965
-0.277501 -0.0407087 0.426587
0.266597 -0.0678951 0.399723
-0.0901829 -0.0134564 0.374573
-0.31231 -0.0801196 0.460291
-0.145042 -0.0385094 0.518384
0.0807824 0.00132483 0.500678
-0.000667355 -0.0878568 0.227275
0.030756 -0.0198066 0.0857523
0.0408105 -0.0225905 0.261088
0.0481765 -0.0870096 0.720757
0.303841 -0.0192677 0.381588
-0.0467676 -0.00941266 0.428864
-0.128066 -0.036762 0.508802
0.0060396 0.0059683 0.300319
0.122422 -0.0429792 0.531562
0.0456228 -0.0942147 0.646686
-0.170421 -0.0220315 0.403678
0.118195 -0.0159047 0.507763
-0.0232097 -0.0200557 0.0580336
-0.0132224 0.0128466 0.147282
-0.0451983 -0.0952919 0.583675
-0.122234 -0.0174381 0.445892
0.0536103 0.00376826 0.481847
0.309435 -0.0346892 0.372018
0.258123 -0.0181612 0.342684
-0.327661 -0.0190148 0.438681
0.406748 -0.0454794 0.405169
0.0232646 0.0100335 0.692777
0.0268171 0.00683794 0.531942
-0.456795 -0.0473119 0.339152
0.0183919 -0.11559 0.67478
-0.142188 -0.0358504 0.491463
0.0471471 -0.0381236 0.108781
-0.0436724 -0.0799627 0.277153
-0.3998 -0.0263448 0.35793
0.152979 -0.0764858 0.493234
0.0431301 -0.0101257 0.523076
-0.255795 -0.0273657 0.322175
-0.00199661 0.0508343 0.133442
0.0429976 -0.013365 0.477563
0.101614 -0.000386273 0.504074
0.188538 -0.0242916 0.446771
0.00748615 0.0569168 0.0260602
0.0505646 -0.0816618 0.617833
-0.042635 -0.0593492 0.233505
0.120378 -0.0314351 0.101309
-0.0355378 -0.103132 0.670386
-0.371029 -0.0226639 0.418306
-0.0460748 -0.0334265 0.276444
-0.240445 -0.0295409 0.425986
-0.0461759 -0.0388212 0.124971
-0.239203 -0.0150942 0.383146
-0.0459486 -0.045641 0.196501
0.150842 -0.00887674 0.363044
0.0594446 -0.0399585 0.122149
-0.219459 -0.0107113 0.466932
0.0803251 -0.0126193 0.483026
0.456147 -0.0462938 0.308689
-0.0512869 -0.0234097 0.4769
-0.0892889 -0.0271796 0.0564308
0.0204918 -0.114064 0.586986
0.289083 -0.033777 0.436198
-0.0583696 -0.00900314 0.54362
0.101031 -0.0151935 0.453027
-0.382513 -0.0403972 0.341236
0.415175 -0.0275805 0.350537
-0.0995152 -0.0281805 0.104251
-0.372676 -0.0261993 0.333872
-0.310236 -0.0190056 0.402245
-0.0662449 0.00287975 0.525966
0.00643097 -0.102702 0.32436
-0.298824 -0.030652 0.304928
-0.051971 -0.0488595 0.29218
-0.0021563 0.00247555 0.192198
0.0190589 -0.00173702 0.260579
-0.000918413 -0.113385 0.44735
-0.045309 0.00212379 0.419536
-0.0498313 -0.0809201 0.517876
0.0524745 -0.0331186 0.358713
0.256023 -0.0308172 0.450821
-0.0554474 -0.0688362 0.587781
0.0515186 -0.0453609 0.29987
-0.473411 -0.0461252 0.325659
-0.0773989 0.00161875 0.500433
-0.423296 -0.0425065 0.290364
-0.249389 -0.0304494 0.406526
-0.368715 -0.0229355 0.402902
-0.154623 -0.0205584 0.418544
-0.00869608 0.0786643 0.041399
-0.0529422 -0.0632014 0.380423
-0.0458734 -0.0886037 0.413789
-0.0123382 0.0752247 0.094837
0.0546541 -0.0286834 0.687153
-0.28922 -0.0158429 0.455676
-0.0533557 -0.0253693 0.431547
-0.126539 -0.0464301 0.0948205
0.187176 -0.0111215 0.384145
0.017045 -0.0501012 0.0610299
-0.0269177 -0.109395 0.496705
-0.0865517 -0.0132445 0.416685
0.055118 -0.0530012 0.482183
-0.119234 -0.0317117 0.0426845
0.0899202 -0.0134747 0.376959
0.0325093 -0.062879 0.173377
0.0251685 0.000836407 0.335728
0.038874 -0.100708 0.730327
-0.22717 -0.0279987 0.446808
-0.408773 -0.0256564 0.406299
0.125023 -0.005543 0.393658
-0.0541564 -0.0649712 0.495926
0.00197315 -0.0146437 0.0528316
-0.0107515 0.0365605 0.0909349
0.056612 -0.0517407 0.719846
-0.0394134 0.00188032 0.400793
0.373267 -0.0410672 0.384439
0.0406433 -0.0893051 0.329931
0.0432777 -0.0731809 0.764082
-0.0367552 -0.0929776 0.347447
0.00762977 0.0109414 0.601765
0.049624 -0.0749985 0.402766
0.129205 -0.0469023 0.116778
-0.0567042 -0.0681783 0.68105
-0.285955 -0.0176885 0.393031
-0.388813 -0.0250716 0.377233
0.0157446 -0.0087597 0.127142
0.426235 -0.0426816 0.286165
-0.0866501 -0.00117909 0.423618
0.367522 -0.0415849 0.420859
0.0499164 -0.0757486 0.438223
-0.431672 -0.0280751 0.374189
-0.0812851 -0.025579 0.102046
-0.107361 -0.0157861 0.438805
0.392362 -0.0284156 0.320959
-0.30961 -0.0214099 0.349214
-0.284334 -0.0612594 0.399312
0.0277641 -0.103579 0.415665
-0.0321622 -0.098135 0.37617
0.0458551 -0.036318 0.0736419
0.0757938 -0.0121906 0.416724
-0.434655 -0.0275131 0.404499
0.124704 -0.0441179 0.451742
-0.308098 -0.0330349 0.334981
0.143224 -0.0289507 0.500525
-0.305313 -0.0620566 0.440988
0.0342738 0.00401348 0.575961
-0.0195553 -0.00734986 0.158388
0.302059 -0.0816986 0.479734
-0.0513613 -0.0670893 0.360125
-0.331771 -0.0337704 0.296242
-0.172826 -0.00866092 0.417665
0.157159 -0.0208278 0.460869
0.0344572 0.00355744 0.63021
0.0427579 -0.0104821 0.439796
0.434941 -0.0306025 0.323385
0.0426287 -0.0134852 0.336142
-0.0946956 -0.00089795 0.448469
-0.0203388 -0.0488692 0.0663984
-0.322262 -0.0191836 0.421385
0.133624 -0.0554471 0.534368
-0.0693938 0.00195911 0.467074
-0.0558433 -0.0413031 0.146476
0.0698642 -0.0116222 0.372329
0.155149 -0.0194298 0.373329
0.1585 -0.0575411 0.505033
0.00843277 0.0451249 0.0482679
0.349563 -0.0390954 0.403832
0.0100709 0.0162574 0.0893467
-0.284208 -0.100823 0.440396
-0.163106 -0.0207679 0.494521
-0.0449063 -0.0135376 0.446213
0.122711 -0.0354141 0.0524203
-0.0380438 0.000601577 0.614348
-0.00884302 0.0126983 0.0676115
-0.297361 -0.0482252 0.464317
0.226266 -0.0278321 0.396248
0.0184342 -0.0721365 0.167584
-0.0586316 -0.0386087 0.588491
0.220299 -0.0129626 0.40663
0.260392 -0.0164278 0.383507
0.289331 -0.0315852 0.343351
0.0438703 -0.0970784 0.61219
-0.399867 -0.0423281 0.348882
-0.137074 -0.00314089 0.51218
0.0583179 -0.032157 0.626474
0.201943 -0.0241983 0.372873
-0.0413581 -0.00928857 0.508829
0.153794 -0.0634146 0.47059
-0.0252723 -0.110591 0.521686
-0.271338 -0.0164391 0.401984
0.0129474 0.00989639 0.425894
0.429299 -0.0481503 0.409246
-0.114538 -0.0596867 0.448249
-0.0468609 -0.0368614 0.168494
-0.313435 -0.0352893 0.376825
-0.139635 -0.0199448 0.458407
-0.115323 -0.0693113 0.536575
0.00614302 0.0312828 0.0339627
-0.378027 -0.0280668 0.312967
0.0880324 -0.0019979 0.405416
0.268147 -0.0302532 0.35996
0.440511 -0.0419921 0.264056
0.294705 -0.0504967 0.442719
0.417357 -0.02625 0.406601
-0.00597293 0.0142473 0.690398
0.017533 -0.113896 0.457249
-0.0474977 -0.0276489 0.75343
-0.424626 -0.0444921 0.344886
-0.458766 -0.0304197 0.355549
0.137519 -0.00376937 0.483102
-0.123489 -0.0166719 0.496682
-0.414998 -0.0450149 0.37867
0.199897 -0.0100757 0.442281
-0.00664591 0.0117895 0.386141
0.104115 -0.015414 0.436647
-0.126316 -0.0760238 0.449869
0.117848 -0.0606768 0.436569
0.0591181 -0.0597305 0.615128
0.149866 -0.0428808 0.533273
0.235774 -0.0124036 0.450677
0.037343 -0.0221284 0.180762
0.0507231 -0.0225617 0.491402
0.0588144 -0.0542788 0.564041
-0.0520767 -0.0100771 0.38711
0.0533404 -0.0560569 0.342182
0.377297 -0.0409168 0.365722
0.02722 -0.0829355 0.803081
-0.0479626 -0.0882707 0.62413
0.381232 -0.024127 0.391083
-0.0750879 -0.0248414 0.0689126
-0.0313711 0.00622192 0.565913
-0.0257193 -0.00748584 0.758581
0.00980659 0.0218716 0.151535
-0.226673 -0.0283166 0.406093
0.0458662 -0.0326916 0.276687
0.290602 -0.0959289 0.402625
0.193941 -0.0224346 0.345536
-0.305617 -0.0350207 0.455189
0.156839 -0.0725653 0.539771
0.221458 -0.0265921 0.379872
0.0129663 0.00363217 0.746215
0.0140124 0.00988672 0.500116
-0.0510097 -0.0405928 0.320144
-0.296794 -0.0345556 0.412434
-0.263085 -0.0781198 0.456127
0.0479953 -0.0881876 0.591794
0.0327168 -0.0487887 0.144193
-0.041015 -0.0545178 0.774305
-0.216896 -0.0263768 0.487219
0.43296 -0.0283495 0.367804
-0.113398 -0.0496348 0.503104
-0.187895 -0.0243167 0.441931
-0.299981 -0.062723 0.422527
-0.0245365 -0.111125 0.576775
-0.356513 -0.0231605 0.368316
0.0489441 -0.020068 0.469759
-0.00659989 -0.116535 0.735117
-0.268127 -0.0609123 0.455224
0.163932 -0.0218841 0.430366
-0.0318858 -0.0202208 0.0776499
-0.124645 -0.0162628 0.360893
-0.444219 -0.0466779 0.350433
0.0119802 -0.111049 0.419551
-0.275895 -0.0455203 0.408767
0.0243259 -0.111278 0.724422
-0.218431 -0.0135234 0.389451
-0.119955 -0.0324064 0.11098
0.0461128 -0.021446 0.106514
0.0122084 0.0114199 0.660713
0.171978 -0.00869786 0.414823
-0.189518 -0.00964873 0.429119
0.0789736 0.00180359 0.524099
0.0651884 0.00226124 0.465765
0.22444 -0.0108306 0.472914
-0.0611325 -0.0238383 0.0542186
0.0492798 -0.0321819 0.75337
-0.0516006 -0.0701376 0.445256
0.266503 -0.0773602 0.385263
-0.017245 0.00941372 0.726258
0.0537511 -0.037697 0.0883381
-0.0282346 -0.0111007 0.180487
-0.0453926 -0.0615752 0.256089
-0.0528855 -0.0362982 0.361239
-0.00723006 0.0919645 0.103038
-0.252604 -0.0303497 0.458127
-0.161415 -0.0145707 0.341796
0.0490947 -0.0804847 0.478368
0.344499 -0.02216 0.374132
-0.0142184 -0.0818785 0.198467
0.00711972 -0.116535 0.499995
0.0501195 -0.0340029 0.164297
-0.0571582 -0.0301002 0.531891
-0.0208252 -0.111801 0.460791
0.0125288 -0.104286 0.341778
0.295224 -0.0565982 0.486253
0.237545 -0.0292125 0.43012
-0.0120868 0.0574544 0.101806
-0.0365873 0.00057647 0.718938
-0.00879794 -0.0941249 0.260799
-0.272057 -0.0293969 0.332308
0.00977299 0.0615845 0.0658784
0.124997 -0.0391825 0.486899
0.235445 -0.0293063 0.409924
0.215945 -0.01121 0.446498
-0.369657 -0.0378861 0.30649
0.181505 -0.00749305 0.476164
0.107132 -0.045273 0.118354
-0.10686 -0.0291528 0.0811675
-0.422637 -0.0435484 0.323234
-0.0121815 0.0108036 0.447907
-0.0398236 -0.0144165 0.309651
0.0074018 -0.116535 0.608462
-0.28092 -0.0329984 0.396175
-0.278172 -0.0833679 0.379344
-0.0257394 -0.0687259 0.819839
-0.0579435 -0.0386305 0.656256
-0.0227313 0.0033169 0.352331
-0.128002 -0.00285054 0.490242
-0.0336968 -0.0365252 0.10247
-0.0301825 -0.0106216 0.224873
-0.00760693 0.00761866 0.0467811
0.077126 -0.0427084 0.134194
0.30991 -0.0335179 0.341704
-0.0133573 0.0367343 0.131476
-0.138649 -0.0857233 0.527449
-0.172517 -0.00793098 0.43656
-0.314015 -0.020754 0.364543
-0.0153814 -0.0892058 0.822158
0.403417 -0.0315854 0.419817
0.321113 -0.0200873 0.390757
0.0540096 -0.0406576 0.41863
-0.0533584 -0.0449237 0.743118
-0.179269 -0.0116102 0.353679
0.0372338 -0.1019 0.533148
0.054331 -0.0515495 0.38753
0.293006 -0.0332636 0.375235
0.126137 -0.0294073 0.47227
-0.297835 -0.0172162 0.431349
-0.0108626 0.087648 0.0734008
-0.145636 -0.0776781 0.474049
0.0510424 -0.0816325 0.703129
0.0603247 -0.0102671 0.497691
0.424198 -0.0317315 0.302517
-0.0350161 -0.101393 0.4566
0.25655 -0.0130932 0.47046
-0.192489 -0.0117872 0.378246
-0.0458917 -0.0920756 0.480225
-0.331518 -0.0206892 0.393513
0.405431 -0.0427218 0.345648
0.107303 -0.0303494 0.113527
-0.0484417 -0.036284 0.0677293
0.050795 -0.0140262 0.653933
0.370702 -0.0391031 0.336535
0.103786 -0.046944 0.133451
-0.14343 -0.0312864 0.504193
-0.232623 -0.0265193 0.353597
0.0878639 0.000119687 0.459765
0.16853 -0.0222553 0.447236
0.318367 -0.0218657 0.350963
0.113723 -0.00503383 0.382388
0.0382811 -0.0651337 0.212975
-0.0537962 -0.0734539 0.619467
-0.352675 -0.0392382 0.39437
0.0259093 -0.00831968 0.180955
-0.05862 -0.0394198 0.61941
0.221408 -0.0253685 0.352117
-0.416713 -0.0468298 0.412445
0.458238 -0.0308616 0.33687
-0.0331985 0.00576155 0.509149
-0.00624241 0.00733636 0.32224
-0.0109173 0.00225423 0.115204
-0.0292467 0.0087943 0.684119
-0.193043 -0.00889109 0.462512
-0.0435563 -0.00942925 0.533944
0.137631 -0.0172217 0.350077
0.0857699 -0.0135756 0.438471
-0.0464956 -0.00536038 0.664619
-0.130728 -0.0713641 0.534204
0.010896 0.0100954 0.107653
-0.023283 -0.098344 0.316638
-0.443969 -0.0449427 0.301379
0.00944532 -0.116535 0.529834
-0.0116679 -0.00336391 0.137167
0.0559915 -0.0565327 0.498248
0.0496981 -0.0838628 0.633849
0.00932938 0.116123 0.0411589
-0.24037 -0.0130979 0.438962
0.27154 -0.0697504 0.48976
0.340394 -0.0206327 0.414805
0.115101 -0.00138543 0.51208
-0.000749552 -0.0468472 0.833919
0.0242102 -0.0385192 0.0688636
0.263871 -0.0195204 0.321007
-0.048084 -0.0637719 0.282447
-0.406968 -0.0424315 0.334685
-0.40622 -0.0289457 0.323747
-0.304991 -0.0353753 0.43956
-0.0312181 -0.0405968 0.782609
0.0710232 -0.0249229 0.118192
0.0265883 -0.0186059 0.121741
0.0998082 -0.0145369 0.398475
-0.0279965 -0.00924687 0.205548
0.267274 -0.0644247 0.463935
0.0629887 -0.00982307 0.528873
-0.0149634 0.00891401 0.539675
-0.00827503 0.101848 0.0256111
-0.0274379 -0.102371 0.398694
-0.276014 -0.0993355 0.412835
-0.0174697 0.0095938 0.482276
-0.115023 -0.00399315 0.41223
-0.0103177 -0.0578566 0.0742896
0.0492892 -0.0651374 0.297929
0.11452 -0.0490752 0.515485
0.0770186 -0.0248546 0.0928765
-0.0105844 0.0035154 0.297046
0.10294 -0.0285171 0.0957999
-0.0800659 0.000545372 0.45391
0.163596 -0.0172052 0.341882
-0.166938 -0.00628226 0.477832
0.292461 -0.0422885 0.422601
0.11786 -0.0170054 0.451036
0.293297 -0.0161104 0.455906
0.252081 -0.0151865 0.40152
0.284632 -0.0296377 0.462835
-0.197643 -0.025199 0.40639
0.111874 -0.0590502 0.528798
-0.12762 -0.0400188 0.533503
0.0864109 -0.038419 0.0582524
-0.0533438 -0.0357982 0.387082
0.055402 -0.0242886 0.138044
-0.273402 -0.0687216 0.489485
0.113975 -0.0452122 0.103817
0.437656 -0.0278369 0.399898
-0.358479 -0.0250294 0.339822
-0.0535576 -0.0570971 0.755468
0.0908099 -0.0139518 0.469588
0.00521691 0.013722 0.720555
-0.0528573 -0.0766464 0.651691
-0.158395 -0.0639145 0.49624
-0.285057 -0.0187044 0.367609
0.0512228 -0.078695 0.545204
-0.0404321 -0.0995764 0.684566
-0.297295 -0.0338383 0.37887
-0.13919 -0.0185064 0.485524
-0.0950091 -0.00336957 0.385172
0.275471 -0.0161682 0.418358
-0.0466743 -0.0796013 0.330944
-0.223273 -0.0273262 0.469562
-0.0400403 -0.00985573 0.332857
-0.386682 -0.0395721 0.307056
0.439131 -0.0472225 0.370844
-0.102007 -0.0149639 0.475073
-0.198704 -0.0178972 0.493806
-0.00614477 -0.101283 0.811113
-0.115193 -0.0159863 0.399346
-0.00161897 0.00343029 0.207473
0.216418 -0.0243517 0.34024
0.00396305 -0.0734098 0.150006
-0.284937 -0.0334342 0.458431
0.448994 -0.0327959 0.307995
0.360571 -0.0248367 0.344864
-0.0110618 0.106287 0.086941
0.154014 -0.0560883 0.542708
0.379908 -0.0381478 0.28663
-0.247247 -0.0168686 0.356152
-0.441489 -0.030347 0.330271
0.244337 -0.0176895 0.329557
-0.0183927 -0.103637 0.343401
0.121843 -0.0161531 0.368811
-0.0748642 -0.012162 0.377959
-0.0437264 -0.0904386 0.367992
-0.0541034 -0.0297243 0.463481
-0.0228536 0.00597721 0.385504
0.403903 -0.04393 0.3781
0.14768 -0.0192867 0.399342
-0.390235 -0.0264328 0.346183
-0.159823 -0.0202155 0.389683
0.027275 0.00704156 0.46863
-0.0521828 -0.0739735 0.531087
-0.0555935 0.00165986 0.429773
-0.118329 -0.00152445 0.519543
0.0117613 -0.0702642 0.84391
0.175578 -0.0219216 0.500452
0.144153 -0.0192968 0.416506
-0.0399666 0.00509492 0.541652
0.0333592 -0.00054858 0.732969
0.0475861 -0.00955055 0.411057
-0.0403989 0.00404011 0.457997
0.0463095 -0.0854764 0.384571
0.0237582 0.00607747 0.397075
0.458183 -0.0345389 0.293133
-0.179065 -0.00755195 0.469092
0.45769 -0.0325882 0.368005
0.0942055 -0.0283779 0.120595
0.347364 -0.0295304 0.439992
0.324692 -0.0347112 0.336241
0.012167 -0.0162465 0.769351
-0.111646 -0.0665692 0.483617
-0.0551697 -0.0458844 0.724486
-0.283012 -0.100013 0.461619
0.444956 -0.0293909 0.359016
-0.00288533 -0.108583 0.3902
0.0100219 0.0814582 0.0629207
0.0242365 -0.111343 0.547188
0.299981 -0.0925942 0.414848
-0.151345 -0.00433124 0.508128
-0.0542545 -0.0619306 0.476183
0.303499 -0.0246354 0.30246
0.107355 -0.0408438 0.0560223
0.00782088 0.0172363 0.0469719
0.0324496 -0.105376 0.642356
-0.414608 -0.0273425 0.358335
0.0407836 -0.00059209 0.693085
0.0110858 0.110486 0.0694051
0.469437 -0.0404755 0.277121
0.0210693 -0.10043 0.325201
-0.466667 -0.0349739 0.295004
0.264802 -0.0663939 0.418909
0.391108 -0.0409382 0.334541
0.270152 -0.0291071 0.330026
0.010793 -0.116535 0.731
-0.0571915 -0.0604554 0.728786
0.0288986 0.00703108 0.596269
0.320798 -0.0185614 0.438221
0.0664598 -0.0114364 0.429571
-0.346073 -0.020489 0.432486
-0.0645237 -0.0106675 0.498611
-0.275916 -0.0923862 0.482962
0.00731484 0.108977 0.00376364
-0.0424271 -0.0981269 0.63363
-0.437603 -0.0417286 0.407131
0.115977 -0.0767187 0.509331
0.0456885 0.00253648 0.430983
-0.115342 -0.0165561 0.462925
-0.0864772 -0.00167201 0.531933
0.0256373 -0.105423 0.75819
0.00712409 -0.116535 0.515336
0.053052 -0.0544846 0.327589
0.154925 -0.00471903 0.502427
0.0116866 -0.0621787 0.0988727
-0.0107621 -0.116535 0.578548
-0.267212 -0.0802442 0.47847
-0.116974 -0.00681239 0.352739
0.0165993 -0.0135584 0.0926255
-0.0060446 -0.0526443 0.0528316
0.0530374 -0.024113 0.516501
0.0525484 -0.0266748 0.3737
-0.0392477 -0.100437 0.605834
0.209591 -0.026432 0.404282
-0.055742 -0.0675657 0.560236
-0.00753175 0.0761751 0.0201117
0.0176183 -0.0168606 0.0699208
-0.0171041 -0.0237055 0.775038
-0.110107 -0.0449031 0.108062
0.0931573 -0.0128623 0.530136
-0.0450505 -0.00692473 0.709776
0.284254 -0.0192593 0.357709
0.0145611 0.00605317 0.348433
0.1178 -0.0162099 0.404639
0.296715 -0.0221571 0.316774
0.290255 -0.0997059 0.471996
-0.0489568 -0.0098496 0.621991
0.280724 -0.0199188 0.338732
0.133216 -0.00391258 0.459528
-0.274303 -0.044638 0.391168
-0.286133 -0.080538 0.478688
0.039136 -0.0917695 0.35002
-0.225758 -0.0157645 0.345234
-0.00816471 0.0487279 0.0418888
0.125932 -0.0161739 0.51997
0.0285671 -0.0654143 0.814469
-0.146107 -0.00732871 0.393147
0.048762 -0.0759209 0.361142
-0.0381407 -0.101241 0.723034
0.28023 -0.0487665 0.451915
7.69369e-05 -0.0691562 0.852265
-0.199454 -0.010946 0.416726
-0.377334 -0.0413718 0.379106
0.0332642 0.00441853 0.644522
0.272486 -0.0973335 0.411001
-0.0125236 -0.00930661 0.103404
0.00937628 -0.0690132 0.126492
-0.261691 -0.017015 0.370754
0.140827 -0.0852955 0.504809
-0.294247 -0.021849 0.318902
0.00278795 0.0124995 0.371889
-0.206979 -0.0100991 0.45952
-0.0112573 0.0194015 0.108417
0.146759 -0.0781704 0.480488
-0.173246 -0.022287 0.469356
-0.106966 -0.00114449 0.482168
0.0110079 -0.0877385 0.828858
-0.288527 -0.0324437 0.365943
0.240869 -0.0134669 0.429766
-0.152499 -0.0202753 0.464737
0.284314 -0.0178525 0.385959
-0.0522969 -0.0532845 0.30576
0.00720002 0.00243656 0.223024
0.376034 -0.0241857 0.377828
-0.108469 -0.0415752 0.0604936
-0.0422784 -0.0325395 0.20851
-0.0803833 -0.0377145 0.059838
-0.257249 -0.0307253 0.394706
-0.226756 -0.0272464 0.382267
0.205903 -0.0114906 0.41673
-0.337571 -0.0361762 0.341654
0.036135 -0.043313 0.780271
-0.143386 -0.0531782 0.533708
-0.279476 -0.0400828 0.443554
-0.112451 -0.0576277 0.529313
0.123889 -0.031674 0.0876081
-0.442787 -0.0284074 0.391345
-0.160234 -0.0587236 0.523923
-0.188383 -0.021851 0.344424
-0.0537727 -0.0735136 0.605359
0.0442367 -0.0848098 0.298696
-0.344483 -0.0243216 0.338283
0.0093672 0.0177275 0.0753448
-0.0468691 -0.0438319 0.235858
0.141034 -0.0736646 0.451395
0.173532 -0.0107028 0.365033
-0.423725 -0.0334917 0.27958
-0.261674 -0.0751629 0.426795
0.268809 -0.0147147 0.448462
-0.00292216 0.0209535 0.154809
0.00752061 0.0826304 0.0175276
-0.00878731 0.00189839 0.232149
0.223511 -0.0278433 0.439372
-0.25088 -0.0275718 0.337599
0.253519 -0.0276114 0.332815
0.27319 -0.0961495 0.452442
-0.0308269 -0.0856243 0.26298
-0.0966176 -0.00240976 0.413287
-0.0923738 0.000243131 0.491151
-0.00271395 0.0110594 0.547633
0.0542257 -0.0632569 0.753545
0.0445863 -0.0136952 0.349407
-0.00907572 0.065745 0.052791
-0.0566841 -0.0297553 0.645058
0.00193912 -0.116328 0.482371
0.0341691 -0.104127 0.514662
-0.00503487 0.0129471 0.658458
-0.011398 0.00806514 0.358895
-0.363171 -0.0362797 0.286726
-0.0549498 -0.0531683 0.45631
-0.0195443 -0.114753 0.509696
0.0546217 -0.041776 0.459971
-0.0392857 -1.27265e-06 0.649736
-0.211095 -0.0260629 0.393025
-0.0316157 -0.105982 0.712707
0.153244 -0.0456784 0.500038
0.38943 -0.0394253 0.296656
0.131421 -0.0794565 0.458987
-0.0540534 -0.039208 0.432252
-0.0258913 -0.0471586 0.0981784
0.084718 -0.0414635 0.105424
0.20098 -0.012289 0.384024
0.0669651 -0.0114145 0.403211
0.0478328 -0.0870195 0.495066
-0.0496103 -0.0201086 0.50634
-0.430409 -0.032493 0.296724
0.2816 -0.0375896 0.381753
-0.296328 -0.0637761 0.408379
0.344367 -0.0348663 0.292792
0.142184 -0.0191034 0.470825
0.271349 -0.0902374 0.38442
0.141721 -0.035557 0.524912
-0.315514 -0.0179215 0.447279
-0.0221365 -0.012848 0.130785
-0.394911 -0.0429653 0.372547
0.0177878 -0.012247 0.110178
0.0572454 -0.0665137 0.694638
-0.0435028 0.00474679 0.497808
-0.1446 -0.0050578 0.450269
0.412645 -0.0427902 0.32978
-0.020499 -0.114059 0.542452
-0.121267 -0.0808104 0.510945
0.0241237 0.00948063 0.674918
0.0319993 0.00624611 0.710351
0.0788964 -0.0119796 0.504411
0.285803 -0.0932613 0.388655
0.125966 -0.0843879 0.514704
0.00346524 -0.0396097 0.821623
0.246816 -0.0296306 0.46675
-0.0340718 0.00420752 0.599693
-0.0191977 -0.069143 0.831832
0.124593 -0.00431445 0.424806
0.0381884 -0.100213 0.473014
0.287916 -0.0508566 0.395858
-0.383962 -0.0236962 0.414061
0.139059 -0.0153404 0.503457
-0.0104612 0.100735 0.0632178
0.203745 -0.0141229 0.341067
-0.0575932 -0.0403599 0.681136
-0.00431699 -0.110106 0.408327
0.111538 -0.0157565 0.48307
0.0408592 -0.0267705 0.219199
0.119711 -0.0431214 0.0632045
-0.0600841 -0.0592402 0.69243
0.0506381 -0.0727156 0.425016
0.0478154 -0.0160163 0.718729
0.058802 -0.0106516 0.456664
-0.052216 -0.0602428 0.341538
-0.262651 -0.0725703 0.413525
0.0729299 -0.0408634 0.114591
0.0424012 -0.0358952 0.184557
-0.0190921 -0.0019582 0.250749
0.0612655 0.00311081 0.493852
-0.166816 -0.0205618 0.370198
0.103797 -0.0383616 0.0406806
-0.0452776 -0.0835994 0.313283
0.0723158 -0.0250513 0.0482861
-0.0207251 -0.0746109 0.186722
0.247561 -0.0154518 0.387544
-0.157919 -0.00736779 0.418554
0.11976 -0.0479257 0.543812
-0.00898009 0.0107539 0.60564
0.00130958 0.0120942 0.356994
0.0379684 -0.00300143 0.366184
-0.0269046 -0.00648386 0.261649
-0.018531 -0.0844023 0.222956
-0.00981432 0.0384104 0.0749145
-0.0226131 -0.112523 0.624745
0.00126827 -0.116535 0.641357
-0.3678 -0.0407367 0.396314
-0.0152811 0.0091446 0.571677
0.0383458 -0.0969103 0.420595
0.346079 -0.0362736 0.323822
-0.186738 -0.0234807 0.479335
-0.0393487 -0.022562 0.145783
0.00471071 0.00459759 0.257235
-0.00987168 0.116004 0.0616381
-0.105259 -0.0148499 0.378107
-0.400595 -0.0255363 0.388023
0.0189068 -0.0895677 0.248364
0.0487956 -0.0495507 0.255159
-0.0251611 -0.110672 0.609378
-0.0830005 -0.0121744 0.515165
0.0543425 -0.0734278 0.672938
-0.259934 -0.0135558 0.464047
0.281853 -0.051786 0.466669
-0.0310966 -0.101406 0.416348
-0.032778 -0.102165 0.443481
0.0545989 -0.0492695 0.43595
0.352449 -0.037442 0.337819
0.0312162 -0.0801513 0.241097
-0.0169148 -0.0625883 0.118331
-0.0385019 -0.0195324 0.761233
-0.274692 -0.0149598 0.452925
0.0954922 -0.0282485 0.0540001
0.102266 -0.0045878 0.369125
0.0405483 -0.096636 0.437543
-0.292065 -0.0522023 0.424172
0.025028 -0.00710518 0.201215
0.117339 -0.0458565 0.462634
0.409223 -0.0439405 0.363586
0.11288 -0.0704819 0.480181
-0.00709867 0.031518 0.0338625
0.0518127 -0.0184823 0.573648
0.377802 -0.0425409 0.412292
0.07146 -0.0241518 0.0808891
0.0401845 -0.0821548 0.272486
0.0803543 -0.0117209 0.523349
-0.000561193 -0.100601 0.301262
0.0694615 0.00244005 0.508732
0.053883 -0.0709435 0.729497
-0.271057 -0.0302956 0.354182
-0.0146668 -0.0748276 0.167371
-0.149244 -0.0172574 0.346124
0.255206 -0.0292975 0.367104
-0.232186 -0.0116939 0.463605
-0.30966 -0.023649 0.307661
-0.119724 -0.0788871 0.529522
-0.306331 -0.0931068 0.467589
0.00583763 -0.116535 0.670915
-0.0516271 -0.036466 0.344109
0.341325 -0.0238238 0.343095
0.434041 -0.0478702 0.39414
-0.059693 -0.0534007 0.674384
0.0586222 -0.0443854 0.621681
-0.0408251 -0.0210146 0.110367
0.0437322 -0.0971787 0.700985
-0.381047 -0.0241568 0.389718
-0.454825 -0.0449037 0.264542
0.444871 -0.0303728 0.332396
-0.0137658 0.0525075 0.127888
0.35234 -0.0217601 0.404156
-0.12078 -0.0166353 0.41119
-0.118819 -0.0775746 0.480476
0.0469073 -0.066842 0.279203
0.0511646 -0.0549933 0.289851
0.396709 -0.029555 0.308651
-0.283102 -0.0519979 0.475679
-0.21991 -0.0126469 0.414313
-0.0249419 -0.110831 0.559253
0.162899 -0.00658492 0.451861
0.144073 -0.00736254 0.387804
-0.0321754 -0.00920462 0.280516
0.0151725 0.00918898 0.573336
-0.290053 -0.0990381 0.413957
0.370541 -0.0380138 0.307525
0.044655 -0.0965082 0.562704
-0.0165364 -0.112173 0.432938
0.2617 -0.0807424 0.422028
-0.0538056 -0.0234509 0.128518
-0.346123 -0.0392033 0.419662
0.299428 -0.0347827 0.412153
0.38798 -0.0251709 0.372209
-0.0701598 0.000338968 0.427165
-0.0970788 -0.0328421 0.132851
-0.40554 -0.0406843 0.28741
-0.216451 -0.0241991 0.3368
-0.16039 -0.0634809 0.536346
0.0875598 0.000688755 0.488498
0.0539109 -0.0230084 0.0600635
-0.0463148 -0.0416199 0.156409
0.00609229 0.0140656 0.695233
0.253612 -0.0284937 0.351989
0.0150811 -0.00541794 0.151525
0.0487517 -0.0866654 0.659142
0.331324 -0.0220794 0.361074
-0.302154 -0.0951408 0.445986
-0.139776 -0.0387178 0.469963
0.307271 -0.0604197 0.461548
0.0455603 -0.00941743 0.397444
-0.310547 -0.0716293 0.450657
0.289469 -0.0407859 0.456228
-0.226595 -0.028215 0.433877
0.284374 -0.096801 0.486581
0.0177767 -0.116037 0.571358
0.147671 -0.0620032 0.449856
0.296712 -0.0343 0.392853
-0.165732 -0.014501 0.505529
0.216185 -0.0267938 0.462025
0.0243505 -0.0785424 0.216441
-0.191079 -0.0123474 0.360417
-0.337137 -0.0253972 0.311647
0.199148 -0.00850332 0.486959
-0.00197832 -0.110206 0.777366
-0.0135445 0.0274502 0.140427
0.0457765 -0.0938232 0.62452
0.0422767 -0.0272173 0.248727
-0.0131563 -0.00174656 0.168065
0.00844331 0.0889369 0.10493
0.083219 -0.00263235 0.378793
-0.357098 -0.0214593 0.425913
0.0497422 -0.013292 0.596306
-0.00950922 -0.04321 0.825229
0.36104 -0.0399462 0.388251
-0.329627 -0.0215425 0.368058
0.312201 -0.0816645 0.464486
0.00940975 -0.0293068 0.789747
0.189322 -0.0233615 0.387335
0.0533355 -0.0419326 0.737369
-0.194435 -0.023316 0.366733
0.402593 -0.0267183 0.352883
0.0160177 -0.0205624 0.0528316
0.0310946 -0.0118955 0.221772
-0.0215089 -0.0959605 0.794628
0.10896 -0.0153546 0.388314
-0.270104 -0.0640524 0.403152
-0.0318821 -0.0588991 0.801789
0.0536829 -0.05028 0.357064
0.197047 -0.0124158 0.371791
0.00124643 -0.0708312 0.136215
-0.315572 -0.0224876 0.336291
0.269913 -0.0184878 0.355251
0.290362 -0.0540556 0.413271
-0.452478 -0.0464542 0.327143
0.0148876 0.00898864 0.554889
-0.0552867 -0.0710424 0.668553
0.0839189 -0.00082097 0.426995
0.0110917 0.0438275 0.0933653
-0.159669 -0.00535803 0.48829
0.0704271 0.000526547 0.537086
-0.0922582 -0.0380563 0.047213
0.00715799 0.109674 0.0815128
0.00606847 -0.116535 0.710998
-0.0142815 -0.0894559 0.235827
0.024853 -0.00611149 0.233625
-0.141342 -0.00746437 0.379153
-0.0898623 -0.0136679 0.478695
-0.0585496 -0.0391599 0.57181
-0.312734 -0.0705808 0.468705
-0.0271765 -0.0733654 0.202635
-0.434082 -0.0372915 0.265843
0.175038 -0.0223414 0.476292
-0.002858 -0.0354122 0.810945
-0.0577919 -0.0438209 0.536396
-0.0666869 -0.0115029 0.455042
0.0180806 -0.00310749 0.190349
-0.225452 -0.0262978 0.364064
-0.0346866 -0.0465873 0.15177
0.0313013 -0.0990265 0.38276
0.306262 -0.0887189 0.436325
-0.043204 -0.0238652 0.288412
-0.187487 -0.0108772 0.391463
0.141307 -0.0178063 0.362177
-0.00891687 0.0264578 0.0638096
-0.280047 -0.0522221 0.451059
-0.285757 -0.0167204 0.42183
0.436054 -0.0450828 0.332744
-0.0094633 -0.00138655 0.0887163
0.288543 -0.0771348 0.478223
-0.377259 -0.0246098 0.365771
0.0250643 -0.0654975 0.15916
0.016504 0.00913455 0.43797
0.264823 -0.0314855 0.459796
0.0447071 -0.0964704 0.743506
0.0650424 -0.0354223 0.0458354
0.130502 -0.0112157 0.435267
-0.0952237 -0.0028451 0.399131
0.126346 -0.0176209 0.464933
0.281087 -0.0314196 0.358118
-0.0533215 -0.00967389 0.493001
0.0281298 0.0049601 0.409395
-0.241585 -0.029343 0.446293
0.154711 -0.018945 0.351605
-0.245277 -0.0240419 0.477213
-0.338349 -0.0321586 0.443259
-0.0950523 0.000443473 0.523053
0.13439 -0.0821395 0.474468
0.138735 -0.0341649 0.457574
-0.133336 -0.0182747 0.467515
-0.117601 -0.0165387 0.423284
0.0108064 -0.00269019 0.117388
-0.127306 -0.0284798 0.49512
0.0154543 -0.116535 0.598136
0.0593428 -0.0577525 0.629883
0.232097 -0.0154999 0.363734
0.304348 -0.0706763 0.4211
-0.00866955 -0.0997434 0.291839
-0.0430042 -0.0704398 0.766266
0.187812 -0.00894261 0.445067
0.0498978 -0.0117959 0.6804
0.0152104 -0.102698 0.788648
0.0507309 -0.0709037 0.391071
-0.135068 -0.0180468 0.407119
0.306286 -0.0219888 0.332133
-0.020551 0.0107253 0.714349
0.00173215 -0.0953384 0.267289
0.00165885 -0.116535 0.548473
0.0315515 -0.106029 0.584315
-0.0561532 -0.0257875 0.607791
-0.0505912 -0.0721557 0.411963
0.0701662 0.00119498 0.44926
0.295709 -0.0184001 0.390938
0.367588 -0.026988 0.319419
-0.034924 -0.103578 0.734766
-0.079296 -0.0420151 0.125277
0.0709279 -0.0114813 0.491421
-0.0738944 -0.0120413 0.409694
-0.410557 -0.041861 0.305956
0.029455 -0.0903911 0.279677
-0.0753359 -0.0360155 0.0449785
-0.134556 -0.0143865 0.516633
-0.360178 -0.0379573 0.332528
0.0503552 -0.0793212 0.532914
-0.0551626 -0.00900525 0.529785
-0.177804 -0.0220877 0.387581
0.195289 -0.0242845 0.483115
-0.0558155 -0.0259519 0.633361
0.0361623 0.000776872 0.720585
0.0601403 0.00154324 0.43666
-0.125902 -0.0175909 0.434136
-0.00900483 0.066665 0.120129
0.0307833 -0.036311 0.103553
0.022516 -0.112593 0.663411
-0.0796258 -0.0129025 0.451606
-0.339543 -0.0209322 0.402845
-0.0482982 0.000806685 0.392342
-0.29338 -0.0340672 0.396668
0.0549979 -0.0540786 0.459278
0.43278 -0.0340203 0.280381
0.159697 -0.0207333 0.401553
-0.0122504 -0.013546 0.0645055
-0.338532 -0.0245873 0.326627
-0.0398228 -0.00578177 0.35981
0.370929 -0.0354494 0.431497
0.470702 -0.0479484 0.319272
0.132783 -0.0248005 0.448217
0.0403907 -0.00305622 0.568006
-0.0458506 -0.0126736 0.397423
-0.102778 -0.00509769 0.356916
