0.053162 -0.0357616 0.751244
-0.0395686 -0.0564084 0.787744
-0.289712 -0.0928052 0.461284
0.0730698 -0.0300138 0.652163
-0.380214 -0.0866254 0.4785
-0.231315 -0.0986455 0.502329
0.0362929 0.0828982 0.123793
0.010435 0.0205883 0.0959779
0.0535063 -0.0193985 0.23193
0.0356656 -0.101637 0.368578
0.0110359 0.141473 0.0590846
-0.0678784 -0.0469263 0.425543
-0.0121606 0.103679 0.0890301
0.169226 -0.101032 0.534449
-0.124073 -0.0840009 0.636337
0.0139435 -0.10897 0.694579
-0.237959 -0.0923652 0.373449
0.0618359 -0.016591 0.339075
-0.0396238 -0.028806 0.159162
0.0588771 0.0682932 0.0537385
0.00999796 0.0344185 0.343715
-0.0361328 -0.0816839 0.34108
-0.195216 -0.0811007 0.545816
0.0710161 -0.0478315 0.695067
0.00916747 0.0148881 0.0719057
-0.0638231 -0.00218439 0.647895
0.10098 -0.104966 0.500871
-0.0232688 -0.0239473 0.794585
0.0322007 -0.0477492 0.812046
-0.0805714 -0.107086 0.637581
0.377519 -0.0866861 0.417168
-0.0111957 0.0405415 0.632151
-0.466008 -0.0706233 0.346024
0.0383041 -0.115625 0.372193
-0.35596 -0.0757905 0.494965
0.154196 -0.102059 0.504389
0.0491727 -0.117197 0.647249
-0.32151 -0.090634 0.472525
-0.0355598 0.0288584 0.423654
-0.367835 -0.0741746 0.39169
-0.19552 0.0787233 0.0391389
0.15207 -0.0825261 0.586976
-0.059243 -0.0723753 0.644411
0.06652 -0.0488933 0.405888
0.0283953 -0.101744 0.718612
-0.0968901 -0.0816398 0.453672
-0.0251869 0.0248908 0.312508
-0.457391 -0.0707925 0.346456
0.259732 -0.0789694 0.533183
-0.12976 0.0795043 0.0819571
0.0174295 -0.131525 0.536983
0.135777 -0.0830643 0.570771
-0.253296 -0.11538 0.569793
-0.0325318 0.0165562 0.285223
-0.0210145 -0.0444378 0.830117
-0.159605 0.0619237 0.0826243
-0.0170657 0.0167266 0.155547
-0.134257 -0.0996716 0.418274
-0.0470067 0.0224364 0.449626
0.407666 -0.0829325 0.362976
-0.030347 -0.106171 0.649077
0.0644189 -0.0147694 0.40848
-0.0230438 0.0200362 0.251048
-0.148998 -0.0826275 0.534694
-0.1639 -0.101396 0.583373
-0.138308 0.0628542 0.0790116
0.114453 0.0753209 0.106628
0.13529 -0.110979 0.617162
0.0676748 0.084481 0.0765774
0.369102 -0.0873841 0.49098
0.0395809 -0.0765836 0.754903
0.133982 -0.118751 0.571131
0.0310412 0.0137596 0.244351
-0.0366214 0.00424421 0.189585
0.044602 -0.00839197 0.183251
-0.12219 -0.0833386 0.504063
-0.0698902 -0.0497277 0.562102
-0.432835 -0.0720092 0.368732
-0.0407643 -0.00303478 0.170124
0.25048 -0.0778679 0.429718
-0.281781 -0.0782411 0.52889
0.0671733 0.0679495 0.0490729
-0.0139253 0.0603109 0.135963
0.247258 -0.086271 0.554772
0.0687827 -0.0848405 0.516419
-0.286439 -0.0930287 0.461027
0.0417848 0.0781617 0.0283808
-0.0629035 -0.00457048 0.582962
0.261067 -0.0829289 0.341283
-0.133058 -0.131503 0.595181
0.125766 -0.0816485 0.634734
-0.0301917 0.0271668 0.72003
-0.171578 -0.0807629 0.464899
-0.0478179 -0.0885186 0.652775
-0.0498497 -0.00366545 0.307755
0.158177 -0.0823243 0.579961
0.0100086 0.126297 0.0460452
0.0108178 0.0146757 0.0988556
0.0127385 -0.0663871 0.212302
-0.102386 -0.0777848 0.364452
0.224306 -0.125836 0.499091
0.0362876 0.0281274 0.413759
-0.0623418 -0.058793 0.430348
-0.114778 0.0643061 0.0750383
0.178366 -0.0816574 0.581809
0.0340964 0.0346812 0.670856
0.189911 -0.0981855 0.452239
-0.031894 -0.0111235 0.0853456
0.0617839 -0.0679581 0.588662
-0.112952 0.0660833 0.0569728
-0.0939191 -0.0841957 0.51205
0.0266357 -0.106415 0.64914
-0.159637 -0.0813751 0.474153
-0.0114169 0.109195 0.0749286
-0.417087 -0.0831008 0.380513
0.0461191 -0.0897529 0.669286
0.215079 -0.107501 0.535005
0.411676 -0.084477 0.457158
0.00606644 0.00539279 0.747785
0.0462235 -0.048709 0.236223
0.0122514 0.0375369 0.530135
-0.0767695 0.0676658 0.0520844
0.0625256 -0.0806621 0.416257
-0.0658161 -0.0203261 0.47767
-0.242705 -0.096015 0.533613
0.0795157 0.0673657 0.0351521
0.142738 -0.0828344 0.52184
-0.0138623 -0.0396801 0.0860136
-0.252315 -0.118938 0.569863
-0.108567 -0.11037 0.619737
-0.170468 0.0811106 0.0360537
-0.0739208 -0.0334736 0.638614
0.0634654 0.0838442 0.0880363
0.195256 -0.0783269 0.415809
-0.0559011 0.0154536 0.479845
-0.421456 -0.0722944 0.370339
0.140932 -0.102885 0.501887
0.012501 -0.102694 0.368027
0.0205784 -0.0908389 0.768337
0.0715392 0.0872196 0.0392886
0.127457 0.0632698 0.0815539
-0.0428242 0.00340235 0.246336
0.201318 -0.0954428 0.400285
-0.00285707 0.0388586 0.488351
0.0442864 -0.119516 0.512911
0.399615 -0.0853006 0.437059
-0.0650219 -0.0150986 0.514822
-0.0634473 -0.0793857 0.386864
-0.367938 -0.0806363 0.326929
-0.176663 0.0765436 0.0722938
0.306229 -0.0882059 0.358392
0.40187 -0.0831509 0.360462
-0.0827431 -0.101462 0.396477
-0.396397 -0.0744256 0.412508
0.329591 -0.0899398 0.433794
0.070822 -0.0476452 0.560183
0.335865 -0.0883327 0.401468
0.0669683 -0.0537391 0.714868
0.182717 0.0609912 0.0796191
-0.060421 0.0812918 0.121739
0.239809 -0.0790213 0.452776
-0.153906 0.0804411 0.0541288
0.0420914 -0.122342 0.595192
0.436231 -0.0715416 0.357194
-0.278069 -0.0936002 0.495219
0.13704 -0.0830226 0.582319
0.0544872 0.0844391 0.0875463
0.068601 -0.029826 0.700672
-0.255533 -0.0922626 0.393789
0.065437 -0.085388 0.592484
-0.390042 -0.0828896 0.335705
-0.0131963 0.0604448 0.168634
0.400504 -0.0852399 0.469708
0.00201331 -0.131525 0.634316
0.273845 -0.0910331 0.387549
0.0278939 0.0312668 0.448387
0.296752 -0.0734405 0.339456
-0.0675747 -0.0578911 0.633925
0.478057 -0.0790757 0.360045
0.185789 -0.0814122 0.54062
0.00900496 0.0132977 0.0693274
0.159794 0.0774831 0.0772931
-0.187998 -0.0997506 0.510933
0.0233717 0.0365272 0.693545
0.0520154 0.0206636 0.510464
0.0594322 0.0840299 0.0890763
-0.414068 -0.0843137 0.414074
-0.0641984 -0.00942693 0.556761
-0.147652 -0.0983285 0.40262
-0.116647 -0.11117 0.547294
0.0132433 -0.0784465 0.276799
0.100664 -0.0842243 0.521992
-0.0498311 0.0887984 0.0328083
0.0737675 -0.102355 0.406175
0.00361825 0.0412734 0.601408
-0.155518 -0.101969 0.537894
0.187743 -0.0926626 0.351095
0.303546 -0.074431 0.367939
0.0126985 -0.123548 0.408372
0.0702544 -0.0852288 0.578874
-0.210077 -0.0980745 0.475296
0.0579059 0.0115343 0.646315
-0.151933 -0.102213 0.552835
0.35113 -0.0886114 0.462831
0.0271334 -0.131525 0.624965
0.184429 -0.0999944 0.513708
0.183895 -0.100031 0.491988
-0.242343 -0.109864 0.57058
0.256796 -0.0913249 0.372145
-0.00757164 -0.13051 0.51503
0.0415753 0.00438391 0.283395
0.291773 -0.0759955 0.402907
0.126462 -0.100701 0.432973
0.0566473 0.0757196 0.02683
-0.0106405 0.0541661 0.0829302
0.454381 -0.0713087 0.359864
-0.352627 -0.0748106 0.400384
0.402551 -0.0738916 0.401879
-0.345944 -0.0875195 0.394306
0.216977 -0.0803819 0.53644
0.318949 -0.0878189 0.365535
0.00878003 0.0919887 0.0346897
0.0347241 -0.0478963 0.18376
-0.332277 -0.0732318 0.349906
-0.035794 -0.0442229 0.805232
-0.0815192 -0.107022 0.57298
0.137689 -0.102009 0.47743
-0.122378 -0.101062 0.43634
-0.400755 -0.0852228 0.444012
-0.229036 -0.109564 0.572466
-0.390049 -0.0833971 0.35021
0.189252 -0.0801348 0.456973
-0.175182 -0.0817626 0.520485
0.0134209 -0.0947267 0.352536
0.00794715 0.0114091 0.0627926
0.399212 -0.0714293 0.334715
-0.473836 -0.0718964 0.403001
-0.00417918 0.0385341 0.360184
-0.298105 -0.0915285 0.431321
0.0480188 -0.0889896 0.649189
-0.0524693 -0.114802 0.56066
-0.0707699 -0.0428649 0.470156
0.214695 -0.0804572 0.517089
-0.322313 -0.0766467 0.432716
0.0147662 0.084958 0.134692
0.0345042 -0.0721985 0.298147
-0.030905 0.0668761 0.115419
-0.120178 -0.126894 0.635136
0.00732625 0.0416325 0.649151
-0.0843363 0.0808848 0.10573
-0.358876 -0.0861784 0.377973
0.380215 -0.0742244 0.399196
0.417604 -0.0828804 0.375576
-0.0421704 0.0224619 0.69919
-0.0296558 -0.0622659 0.231476
-0.0611147 0.0838225 0.0906511
-0.310358 -0.077297 0.456939
-0.21721 -0.0952551 0.570638
0.0578084 -0.10774 0.466806
-0.0257565 0.0370512 0.633138
0.0483244 -0.0196374 0.196601
0.016026 -0.127984 0.476693
0.146811 -0.0777968 0.382998
0.269038 -0.0781756 0.445562
0.059348 0.00253353 0.485289
0.0671187 -0.0194013 0.686086
0.12732 -0.106928 0.636104
-0.0723594 -0.0851593 0.583867
0.256493 -0.0950735 0.511424
-0.0365273 -0.0369905 0.162919
-0.045431 -0.0277251 0.765483
0.0433882 0.0257726 0.45995
-0.362125 -0.0828028 0.327671
0.222754 -0.0752325 0.352572
0.345715 -0.0753052 0.409619
-0.0709982 -0.0519394 0.648943
0.104308 -0.126682 0.59566
0.0579034 -0.0218242 0.282499
-0.0949478 -0.114376 0.635876
0.249639 -0.0793029 0.489288
-0.0255366 -0.104357 0.716332
0.428592 -0.0821478 0.372156
-0.177572 -0.0979682 0.431486
0.075433 -0.0850577 0.526449
0.124802 0.083045 0.049726
0.0462695 0.0164774 0.704867
0.277849 -0.0783709 0.472907
0.131812 -0.103587 0.583768
-0.0709208 -0.0315289 0.56941
0.0122013 0.0844453 0.152093
-0.180813 -0.0972161 0.41737
-0.161318 -0.101572 0.556455
-0.014227 0.122296 0.107787
-0.108626 -0.0839612 0.584955
0.148183 0.0650623 0.033488
0.346697 -0.0889141 0.435862
-0.174259 0.0697362 0.0796913
0.237092 -0.0791448 0.454533
0.064187 0.0681329 0.0555195
-0.229041 -0.107682 0.572552
-0.173428 0.0629702 0.0451933
0.0269529 0.0827438 0.0290702
-0.0713262 -0.0286802 0.66733
-0.357398 -0.0741855 0.386718
0.0607211 0.000977239 0.561747
0.16954 -0.101011 0.516158
0.45042 -0.0818314 0.451418
0.385821 -0.0764873 0.486333
-0.0995845 -0.102771 0.447913
-0.0430548 0.0189315 0.706815
-0.0297522 -0.0730142 0.2887
0.374378 -0.0744414 0.401838
-0.349557 -0.0852285 0.34049
0.191774 -0.0774197 0.392355
-0.0382501 -0.0554604 0.221244
-0.199715 -0.079703 0.451104
-0.0147861 -0.0431692 0.10525
-0.0117955 0.0287602 0.117573
0.0715806 -0.0848142 0.516994
-0.0344977 -0.0107202 0.102553
-0.422272 -0.0837535 0.441027
-0.0154458 0.108133 0.130111
0.092801 0.0859267 0.0397592
-0.151624 -0.102234 0.534322
-0.0609882 -0.0855349 0.603402
0.026616 -0.00675412 0.0627926
-0.262681 -0.0782796 0.445197
-0.0277375 -0.0668074 0.250571
0.370637 -0.0753057 0.480529
0.00760287 0.107905 0.136606
0.097399 -0.083392 0.494776
0.107079 -0.0835353 0.502231
0.0742154 -0.0381455 0.612377
0.0502157 -0.00774852 0.252579
0.181039 -0.0815691 0.579484
-0.00994749 0.0288343 0.0805502
0.200977 -0.0809104 0.522146
-0.0618464 0.0829513 0.101013
0.025316 -0.0605051 0.21176
-0.430356 -0.0747855 0.464587
0.0690409 -0.0334917 0.473662
-0.265409 -0.0780298 0.440393
-0.286282 -0.0930394 0.471793
0.0240953 -0.0851443 0.324473
0.316212 -0.0909957 0.501832
-0.0675183 -0.102847 0.409905
0.0015513 -0.00899085 0.771448
0.0164694 0.0899818 0.0396831
0.0568898 -0.0439431 0.74703
0.047176 -0.00248257 0.291823
-0.355752 -0.0757974 0.433161
-0.0958755 -0.11873 0.63581
0.111544 -0.0786669 0.389546
0.0214981 0.0260243 0.726635
0.314748 -0.0895455 0.404269
-0.0682174 -0.056322 0.604105
-0.107028 0.080244 0.0924531
-0.0910729 -0.0845411 0.568694
-0.275294 -0.0739981 0.339312
-0.0238978 -0.127952 0.476637
0.0602379 -0.0120324 0.724798
0.324503 -0.0870805 0.354019
0.0266132 -0.103924 0.675916
0.0100639 0.156741 0.0370517
0.150153 -0.115343 0.63339
-0.429387 -0.0785289 0.465427
-0.133159 -0.102503 0.483331
0.223772 -0.0758188 0.368075
0.472573 -0.0803188 0.412967
0.05416 -0.110462 0.478194
0.228466 -0.0784524 0.345544
0.0227725 0.0233048 0.287408
-0.0285615 -0.00726023 0.0736578
-0.342178 -0.0762458 0.433896
-0.0589024 0.0884757 0.0313106
-0.1468 -0.0777771 0.382516
-0.0576319 -0.0687308 0.431785
0.013031 0.094562 0.106569
-0.335725 -0.0865916 0.35653
0.0367262 -0.0229557 0.118672
0.0768792 0.0676036 0.0473635
-0.311787 -0.0909989 0.436283
0.000207793 0.0400017 0.482962
0.275432 -0.0771039 0.422543
-0.0447653 -0.0172512 0.17424
-0.0140072 -0.0440313 0.10662
-0.0556246 -0.0857121 0.545234
-0.108544 0.0776261 0.0172416
-0.177827 -0.0793102 0.432339
0.0666828 -0.0208248 0.527808
-0.110836 -0.0803976 0.430609
-0.0460843 -0.00677557 0.739839
-0.0584751 -0.0672052 0.437203
0.0634534 -0.0116961 0.420075
0.164701 -0.0979457 0.414777
0.0554779 -0.0789209 0.617457
0.455679 -0.0814723 0.412707
0.0146726 0.0344529 0.424905
0.0642124 -0.0146845 0.368284
0.240016 -0.0983217 0.540944
-0.0341463 -0.093673 0.732009
0.117251 0.0637142 0.113287
0.172824 0.0615135 0.0702847
0.0624451 -0.0068886 0.684203
0.451606 -0.0796415 0.335896
-0.410207 -0.083707 0.386446
0.050918 -0.059306 0.307192
0.0643825 -0.0145617 0.409229
0.10194 0.0668659 0.0540874
0.0538779 0.0808891 0.133524
-0.00273346 -0.0146065 0.790945
-0.0352461 0.0847129 0.101973
0.273675 -0.0747499 0.362837
-0.402731 -0.0731478 0.382852
0.0690938 -0.0250966 0.681255
0.0386639 -0.0567926 0.790599
0.11055 -0.0823859 0.476884
0.100799 -0.105705 0.621694
-0.357315 -0.0819843 0.500732
0.00533089 -0.131525 0.623345
0.0617581 -0.079106 0.379619
-0.119763 -0.0773342 0.360696
-0.290277 -0.0779604 0.532416
-0.0627432 -0.0102345 0.405732
0.143961 -0.102758 0.570116
0.146508 0.0625934 0.0718124
0.01114 0.0400383 0.670631
-0.137367 -0.114739 0.62349
0.228275 -0.0973893 0.519983
0.0824712 -0.0901773 0.365109
0.189105 -0.0813026 0.50248
-0.407327 -0.084774 0.467258
-0.0292706 -0.0953388 0.368851
-0.0406148 0.0687337 0.0387582
0.0169888 0.0672792 0.12847
0.0285998 0.0862603 0.0844964
-0.12849 -0.0776484 0.371881
-0.35302 -0.0758877 0.43177
0.0934089 -0.10621 0.535487
0.0336792 -0.0780201 0.772723
0.0606713 -0.00416772 0.453376
0.416021 -0.0841803 0.430209
0.310979 -0.0742414 0.366375
0.422551 -0.0837345 0.437885
0.184136 -0.0772568 0.385277
-0.429046 -0.0733761 0.438951
-0.0154917 0.0249476 0.252418
-0.172945 -0.100779 0.564458
-0.467761 -0.0712967 0.366464
0.0999459 0.0667638 0.0405964
-0.0650258 0.0731224 0.0264441
0.0405719 -0.0896191 0.731439
0.0522255 -0.112191 0.489001
0.0328651 -0.0819076 0.769053
0.170357 -0.0819219 0.567671
0.049196 -0.110229 0.401857
0.276391 -0.0784191 0.535907
0.146292 -0.0985222 0.405595
-0.072312 -0.0438865 0.551322
-0.14259 -0.120254 0.633934
0.026445 0.0314447 0.446665
-0.061006 -0.0593624 0.380911
0.204514 -0.0973594 0.450781
0.109134 -0.105136 0.567637
0.00173871 0.0307618 0.272866
0.0668211 0.0840617 0.0824438
0.182573 -0.100121 0.507566
-0.0688933 -0.0248526 0.560383
-0.0573381 0.0156459 0.532481
0.00829379 0.151213 0.0036157
0.115081 0.0651562 0.113399
0.340664 -0.0883048 0.407196
-0.231705 -0.0982355 0.507335
-0.445427 -0.0709096 0.343642
-0.145209 0.0698965 0.014099
0.00951241 0.139404 0.032536
-0.167709 -0.0992384 0.449812
-0.012487 0.0642041 0.110625
-0.319832 -0.0897072 0.415255
-0.0557744 0.00338795 0.69996
-0.14756 0.0625035 0.0757818
-0.109403 -0.0883222 0.62173
-0.0182657 -0.0543345 0.166486
-0.0322908 -0.0978054 0.722902
0.12233 -0.10528 0.630919
-0.0154284 0.0317896 0.188772
0.0755866 -0.0838307 0.495746
-0.049779 -0.0318468 0.220311
-0.108679 -0.102632 0.455965
-0.0376824 -0.035921 0.166158
-0.0310252 -0.121585 0.39669
0.474576 -0.071872 0.391308
-0.01043 0.0406764 0.655862
0.0736541 -0.107147 0.517848
-0.411051 -0.0739706 0.428046
-0.218944 -0.0803169 0.536542
-0.0219669 0.0120214 0.142444
0.172791 0.0746656 0.0770072
-0.0663149 -0.0805894 0.41617
-0.0541583 -0.113575 0.552466
-0.0818703 -0.10298 0.637565
0.251599 -0.0755723 0.374146
0.124878 -0.104061 0.585586
-0.0944228 0.0664911 0.065001
0.212029 -0.0800401 0.464832
-0.438784 -0.0713652 0.353404
0.0314282 0.0874084 0.0665033
0.115237 -0.101184 0.430304
-0.0688876 -0.0273276 0.543684
0.0557556 -0.107727 0.437182
-0.0102617 0.036734 0.367227
0.205638 -0.0985461 0.56384
0.185683 -0.0969671 0.417467
0.39441 -0.085656 0.416778
0.0372363 0.0234072 0.357039
0.0464946 0.0261302 0.535764
0.429226 -0.0714126 0.349818
0.126042 -0.103981 0.589442
0.10874 -0.103797 0.483225
-0.142945 0.0830371 0.0377647
0.0687998 -0.0225085 0.573925
0.00929886 0.0364891 0.449665
0.06119 -0.000730071 0.559232
-0.217036 -0.110931 0.494898
0.321815 -0.0769185 0.506812
-0.215023 -0.115016 0.518145
0.0401188 -0.042618 0.193978
0.355494 -0.0758059 0.484522
-0.0124122 -0.0899077 0.792806
-0.118119 0.0792439 0.0149657
-0.25575 -0.0757108 0.379555
-0.0673096 -0.0495811 0.457705
-0.0100324 0.055717 0.0711441
-0.194257 -0.0805955 0.470215
-0.0614397 -0.055453 0.36083
-0.0399392 0.0684322 0.0830936
0.0519531 -0.0849619 0.706592
-0.177868 0.0787878 0.0511107
-0.21482 -0.117899 0.534359
0.161455 -0.081344 0.4742
0.0806715 -0.0834554 0.489149
-0.0351216 0.0690793 0.078322
-0.0496105 -0.0131387 0.210965
0.039 -0.10395 0.368461
0.155179 -0.0798891 0.437031
-0.059305 -0.0718226 0.677598
-0.221818 -0.100671 0.558537
0.404009 -0.0850006 0.453479
0.0578346 -0.0411131 0.745292
0.233569 -0.0966389 0.523628
-0.241438 -0.0960367 0.466748
0.0399664 -0.00810187 0.143797
0.414623 -0.0832275 0.380317
-0.0168235 0.0695493 0.0385587
-0.0359242 0.0330565 0.678914
0.0645793 0.0669248 0.138203
0.0384923 0.0319098 0.607342
-0.201792 -0.0938907 0.36337
-0.151954 -0.0975251 0.388596
0.0260072 -0.0515071 0.176604
-0.37872 -0.0750386 0.445525
-0.00975971 0.0234603 0.0796602
0.0137104 0.0262177 0.160033
0.000997933 0.0179346 0.0601238
-0.238035 -0.100139 0.508362
0.039619 -0.0373589 0.180663
-0.0886931 -0.106532 0.581911
0.0316667 0.0319026 0.478227
-0.241661 -0.0985887 0.552202
0.254098 -0.0933609 0.418483
0.247014 -0.0957208 0.496788
-0.16736 -0.0820209 0.559747
-0.346241 -0.0761116 0.491181
0.242696 -0.074887 0.352571
0.0253902 0.0877389 0.0273375
0.441978 -0.0812138 0.366734
-0.258975 -0.094904 0.507921
0.0555342 -0.00318673 0.72188
0.117318 0.0658829 0.0214585
0.0678388 -0.044573 0.371797
-0.0910089 -0.0845432 0.524872
-0.0552429 -0.0836816 0.483623
0.0696781 -0.0247112 0.582411
-0.0417497 -0.040982 0.198606
-0.040055 -0.0749045 0.323449
0.223714 -0.102943 0.491269
0.0379255 -0.121087 0.466054
-0.0761499 -0.107388 0.596523
0.473088 -0.0793621 0.360729
0.00226299 0.00660686 0.0627926
-0.0144661 0.0430501 0.156114
0.0688197 -0.055227 0.606254
-0.191732 0.0692052 0.0710538
0.0863148 0.0678161 0.024947
-0.237302 -0.0921785 0.367893
-0.000236583 0.105524 0.0221955
-0.0587535 -0.0856088 0.641636
0.0742778 -0.037767 0.616558
-0.0577478 0.00172751 0.388331
0.00164768 0.040976 0.580847
-0.148289 0.0623301 0.088609
0.051859 -0.0815614 0.450362
-0.0576766 -0.0661894 0.376982
0.0580795 0.00265289 0.447616
0.178589 0.0679904 0.00918431
-0.0124532 0.0208633 0.138574
0.237499 -0.0988737 0.518624
0.43354 -0.0806044 0.336122
0.100176 -0.105748 0.611489
0.00273097 -0.0696892 0.229963
-0.0225086 0.0235511 0.288733
0.245974 -0.120922 0.527078
-0.0869229 -0.0810204 0.434982
0.173211 -0.0977082 0.419721
-0.194198 -0.0757608 0.35328
0.0584489 0.000896065 0.432835
0.0443723 0.000285304 0.270635
0.0318399 -0.121282 0.40113
-0.109018 -0.11265 0.62992
-0.0622958 -0.046219 0.739604
0.16408 0.077319 0.0752759
0.0217365 0.0847943 0.112889
-0.00978231 -0.125495 0.648645
-0.176798 -0.0962802 0.389697
-0.0458856 -0.0499038 0.237162
0.0789687 -0.107196 0.594677
-0.151454 0.0684129 0.0136306
-0.00972978 0.0134997 0.739648
0.215747 -0.0912408 0.570736
-0.0211144 0.068692 0.0961139
0.243259 -0.0795136 0.504143
0.0474159 -0.113168 0.445008
-0.0713191 -0.100321 0.642185
0.0313587 -0.13014 0.637113
0.0335251 -0.118382 0.368264
-0.0947169 0.083328 0.0684047
0.0400461 -0.0751635 0.755422
-0.0164572 0.0860427 0.0996368
0.0488542 -0.102085 0.368349
0.142773 0.0654007 0.0443048
-0.0131729 0.0620724 0.123385
0.352044 -0.0869222 0.387509
0.0049532 0.0393417 0.546902
-0.213541 -0.0804954 0.541341
-0.238909 -0.0958803 0.459679
-0.246638 -0.119574 0.565653
0.0164872 -0.0253523 0.806626
0.291451 -0.0912518 0.415991
0.0310977 -0.0345396 0.806794
0.179027 -0.100363 0.541633
0.121873 0.0856508 0.0117629
-0.0211428 0.0695398 0.0512307
0.0398295 -0.0423188 0.192022
-0.0837172 -0.0789694 0.385425
-0.0829129 -0.0848106 0.567905
-0.00665802 -0.0685404 0.223819
-0.431674 -0.0732893 0.428499
-0.0329793 -0.119107 0.377383
-0.18915 -0.0813011 0.533465
0.0341223 0.0337332 0.530333
0.170043 -0.0792023 0.42653
0.13407 -0.0831207 0.512553
-0.022184 0.0235641 0.287552
-0.263346 -0.0773514 0.423055
-0.0975408 -0.105086 0.499415
0.202008 -0.0985951 0.477406
0.0673475 -0.0504795 0.479284
0.254384 -0.0932497 0.416165
0.0503708 -0.00809661 0.256443
0.195738 0.0808296 0.0155878
0.216214 -0.113935 0.572458
0.0419276 -0.0172117 0.750509
0.102775 -0.105235 0.509389
-0.10154 -0.0841953 0.554622
0.198558 -0.0990295 0.542678
-0.0984499 -0.116855 0.637106
0.0550347 -0.0729245 0.403305
0.391243 -0.0858723 0.465232
-0.323465 -0.0868964 0.347893
-0.0431403 0.0231944 0.411089
-0.0357143 -0.126975 0.603627
-0.117871 0.0817214 0.0685959
0.171928 -0.0798785 0.443657
-0.0335785 0.0114445 0.238465
-0.0909633 -0.0816371 0.45109
-0.0161811 0.0248042 0.264195
0.459109 -0.0713614 0.363848
-0.0247624 -0.131525 0.543439
0.0649962 -0.103057 0.411677
-0.0866467 -0.106091 0.509351
-0.0650455 -0.0542175 0.4549
0.0207047 0.0321917 0.394025
0.104787 0.0639792 0.101139
0.30186 -0.0919757 0.482677
0.0654259 -0.0605453 0.582652
-0.257775 -0.0789653 0.459557
0.332189 -0.0888899 0.410849
0.0629441 -0.0111398 0.385382
-0.144237 -0.0827848 0.594363
0.057308 0.0157006 0.524544
0.295156 -0.0889851 0.363543
-0.00571206 -0.0759919 0.263672
0.0572914 0.0089275 0.471921
0.105485 -0.120845 0.622204
0.103473 -0.0777656 0.364435
-0.297028 -0.0777374 0.515339
-0.102704 -0.0841568 0.607706
0.0111666 0.152156 0.0945081
-0.12773 -0.125081 0.63352
-0.0680796 -0.0226272 0.553724
-0.402901 -0.0742398 0.450689
-0.0104064 0.0638226 0.0751912
-0.454026 -0.0712581 0.358213
0.219508 -0.0830083 0.346774
-0.167136 -0.0998001 0.462423
-0.218169 -0.0803425 0.475743
-0.0576542 -0.0732475 0.71704
-0.174633 -0.100663 0.551947
0.170292 -0.0966359 0.390127
-0.181261 -0.0966585 0.40445
-0.0323119 -0.129447 0.579564
-0.182231 -0.0807517 0.469005
-0.18434 -0.0776784 0.395556
-0.221817 -0.0782363 0.425646
0.0112893 0.062323 0.0913718
-0.0706158 -0.0453314 0.51741
0.1705 0.0769386 0.0736017
-0.0243084 0.0121069 0.161818
-0.0557586 -0.0784329 0.640064
0.015173 -0.124614 0.424886
-0.0621099 -0.0653049 0.705804
0.143359 0.0624379 0.0974233
0.434189 -0.080865 0.344676
0.436099 -0.0731431 0.437775
-0.0013937 0.0360947 0.70654
0.122809 -0.104202 0.587452
-0.0155608 -0.0539816 0.156653
0.146703 -0.0994885 0.429477
-0.386294 -0.0747884 0.449346
0.424845 -0.0824259 0.374048
0.0290141 0.00139747 0.123772
0.0498628 0.0215642 0.662397
0.0943455 -0.101337 0.407951
-0.0324763 -0.0700439 0.789083
-0.129503 -0.105627 0.6181
0.00427346 -0.130835 0.519851
0.404868 -0.0826496 0.351475
0.07061 -0.103243 0.643038
0.0275762 -0.0680839 0.257552
0.014102 -0.10489 0.368006
0.114282 -0.104429 0.504859
-0.00560849 -0.125207 0.433465
-0.123142 -0.0998512 0.408656
-0.0574969 0.011479 0.604014
0.277604 -0.078379 0.489796
-0.159165 -0.100034 0.457991
-0.00736658 0.0406682 0.690523
-0.01966 0.0375891 0.572917
0.0120588 0.0898051 0.0461172
-0.135073 0.0631106 0.104519
-0.153495 0.0620985 0.0898582
0.09072 -0.101609 0.409814
-0.0140066 0.0579913 0.138347
-0.473126 -0.0778424 0.316715
-0.0825747 0.0673009 0.0380137
0.479619 -0.0717054 0.422223
-0.0533838 -0.0253469 0.22602
0.00888452 -0.128925 0.490761
-0.0575198 0.00308426 0.427786
-0.188549 0.076804 0.0599434
-0.184721 -0.0814475 0.525182
-0.00763341 0.102362 0.140619
-0.00405218 0.0391638 0.69655
0.40258 -0.0834754 0.369796
-0.320662 -0.0906918 0.512323
-0.384341 -0.0837066 0.487835
0.0198143 0.0170526 0.176463
0.0343204 -0.0232118 0.107321
0.076318 0.0823922 0.0954074
0.0990813 -0.101077 0.407768
-0.124606 -0.0790464 0.404089
0.0216182 -0.0762142 0.279296
0.330493 -0.0737692 0.362924
0.259134 -0.0763722 0.397468
0.236755 -0.0945216 0.561028
0.0622065 -0.0618961 0.494831
0.441662 -0.0729593 0.399083
0.0595504 -0.0344999 0.278963
0.158202 -0.076502 0.356369
0.221952 -0.0775961 0.410227
-0.141242 0.0810648 0.0577149
0.252393 -0.0953535 0.478014
0.00464875 -0.131299 0.526995
0.444948 -0.0728508 0.419848
-0.29333 -0.0925582 0.501345
0.388539 -0.0720883 0.348286
-0.0891879 -0.106498 0.627816
0.0131669 -0.07975 0.283771
-0.0678942 -0.0423526 0.36163
-0.133534 -0.0819679 0.476896
0.0284572 -2.10563e-05 0.102654
-0.398088 -0.0827373 0.343624
-0.0645712 -0.0519759 0.38344
-0.473865 -0.0718955 0.428434
-0.33261 -0.072569 0.333019
0.0388362 0.0893705 0.0323523
-0.28669 -0.0930116 0.496285
-0.160618 -0.0822437 0.541986
-0.0107029 0.0798881 0.0329767
-0.00416943 0.0414748 0.610954
0.0161453 0.0699942 0.0794145
0.0111038 -0.13059 0.648472
-0.0124822 0.0354099 0.418943
0.0475383 -0.00286521 0.229184
-0.127678 -0.133684 0.636078
0.314127 -0.091138 0.469057
-0.33237 -0.0863159 0.344937
0.0680934 -0.0149708 0.61377
0.0367284 -0.0367407 0.163334
0.0687124 -0.0136268 0.647669
0.0178587 0.0362197 0.522296
0.0594171 0.00365932 0.668012
0.231201 -0.0768338 0.395982
0.008908 -0.0735273 0.250491
-0.109465 -0.112856 0.556564
0.0720584 0.065194 0.114187
-0.164623 -0.0959921 0.367438
-0.0458781 -0.119591 0.539586
0.171786 -0.100858 0.536419
0.097597 -0.122878 0.637168
-0.0831962 -0.0820686 0.457859
-0.273136 -0.0899639 0.359117
0.457039 -0.0806432 0.373278
0.01494 0.0188196 0.161777
0.0703317 -0.0270767 0.67351
-0.00908025 0.0410876 0.0590425
-0.049417 0.0748367 0.140498
-0.248499 -0.0915822 0.367612
0.12505 -0.0999162 0.634785
-0.0200609 -0.0780945 0.283453
-0.166756 -0.101201 0.524475
-0.066659 -0.0241175 0.473634
-0.167843 -0.101127 0.539619
0.0127785 0.0492355 0.122754
0.106187 -0.117407 0.558824
-0.0558406 -0.0176302 0.253268
0.108881 -0.132286 0.606535
-0.133509 -0.0831392 0.579692
-0.00141502 0.139961 0.00763074
-0.339541 -0.0749548 0.397508
0.292245 -0.0908869 0.408199
0.0368799 0.00655786 0.737986
-0.0146211 -0.131525 0.645223
-0.0613024 -0.0855221 0.529146
0.0541066 -0.0813047 0.557308
0.0927593 -0.106254 0.601567
0.00289283 0.0133726 0.739887
-0.0984416 0.079641 0.0181535
0.0696691 0.0677868 0.0429275
0.393357 -0.0826095 0.332665
-0.282834 -0.08892 0.537858
0.0259807 -0.0190601 0.0627926
0.0181521 -0.10897 0.705335
-0.220417 -0.10138 0.554334
-0.179409 -0.0816229 0.557178
-0.298317 -0.0776948 0.454591
-0.068757 -0.0147229 0.635661
-0.0657333 -0.049115 0.374267
0.0242558 0.0802908 0.149664
0.0427337 -0.0354915 0.192728
0.00092025 0.150686 0.0974243
0.151329 0.0621365 0.0945799
-0.00221048 -0.131525 0.602621
0.227965 -0.142444 0.571204
0.00987634 0.0189088 0.0848756
0.388978 -0.086027 0.470506
-0.33287 -0.0765533 0.482957
-0.242986 -0.095536 0.456649
-0.223585 -0.0973186 0.474562
0.0652937 -0.0554246 0.493994
0.0493209 0.0178856 0.393413
-0.0184777 -0.128367 0.482708
0.239331 -0.0926242 0.381494
0.228745 -0.0799931 0.535015
0.0180891 0.0824963 0.14696
-0.109743 -0.101539 0.431774
0.167828 -0.0820055 0.514427
-0.170282 -0.0765506 0.362508
0.0438734 0.0872221 0.0588491
0.0597698 -0.0714595 0.601968
0.390629 -0.074082 0.400775
-0.345696 -0.073169 0.354707
-0.113651 -0.107845 0.563336
-0.0665922 -0.0796297 0.393892
-0.35229 -0.0759118 0.439268
-0.305932 -0.0916976 0.455973
-0.0154887 0.0950693 0.13874
0.0853081 -0.103636 0.450402
0.397077 -0.0846086 0.391202
-0.0941094 0.0642432 0.119348
0.250155 -0.091784 0.554167
0.014522 -0.0633993 0.197546
-0.243105 -0.0959877 0.512786
0.0188109 -0.122379 0.390747
0.216234 -0.0777745 0.411951
0.385632 -0.071913 0.341694
0.014284 0.0425091 0.153667
-0.376233 -0.0868972 0.482054
-0.0558377 0.01638 0.635914
0.39938 -0.0853166 0.460913
-0.0316929 -0.0574113 0.213532
0.0584553 0.000417725 0.409871
0.225878 -0.097164 0.523536
-0.0316625 0.0217201 0.317791
-0.291987 -0.0900198 0.385879
0.0157097 0.0571382 0.165297
0.084254 -0.0812639 0.439531
0.0920845 -0.104215 0.632811
0.229136 -0.125125 0.490339
0.0277569 -0.0898597 0.354035
0.0450166 -0.0551234 0.250387
-0.336921 -0.0764195 0.495857
0.0234907 -0.0344889 0.0943562
0.263294 -0.0759916 0.390129
0.204995 -0.0914222 0.348777
0.330673 -0.0900082 0.470671
0.292624 -0.092017 0.436016
-0.245688 -0.107798 0.570339
0.0712059 -0.0482554 0.684961
0.0684044 -0.0226645 0.562071
0.107744 -0.0797413 0.413963
0.210018 -0.098247 0.513064
-0.150633 -0.0825735 0.528047
-0.121607 -0.124729 0.541881
-0.0476082 -0.113979 0.648552
-0.00851176 0.131367 0.0154894
-0.287781 -0.0778034 0.445049
-0.364022 -0.0841891 0.333497
0.323867 -0.0882577 0.38342
-0.359562 -0.087294 0.40761
-0.0756957 -0.0813106 0.436986
-0.0484868 0.0677982 0.0848531
0.294384 -0.0778247 0.515925
0.127351 -0.135856 0.597308
0.0657045 -0.0339167 0.731595
-0.0148898 -0.0631414 0.828399
-0.235671 -0.108612 0.479385
-0.470748 -0.0719985 0.441906
0.0558174 -0.0857057 0.59899
0.449287 -0.0709387 0.346488
0.0169992 0.037814 0.565254
-0.151534 -0.0825438 0.59717
0.00869538 0.0390957 0.559935
-0.027657 0.0343021 0.517459
-0.113743 -0.12322 0.634526
-0.0286131 0.0108556 0.190513
-0.131362 -0.100214 0.427689
0.0626736 -0.0214057 0.32399
0.00604596 0.100208 0.142616
-0.0019538 -0.106385 0.729913
-0.00227124 -0.126768 0.457267
0.0128807 0.0899026 0.0439289
0.217433 -0.112599 0.563911
-0.131248 0.0658173 0.0469855
0.159228 0.084268 0.0156067
0.128464 0.0798016 0.0799997
-0.0385052 -0.124948 0.620419
-0.31355 -0.0893995 0.398905
-0.434304 -0.0829319 0.427704
-0.0572351 -0.0670229 0.374877
-0.0889806 -0.0805725 0.425406
0.0525787 -0.0858127 0.635761
-0.469939 -0.0709536 0.357645
-0.0419863 0.0260003 0.446618
0.069043 -0.0553386 0.63652
-0.0370856 0.0840654 0.10862
-0.0430888 0.028817 0.553326
-0.151133 0.0795593 0.0639023
0.0324977 0.0284544 0.402019
-0.00459805 0.110175 0.0205792
0.0998378 0.0667954 0.0428576
-0.122308 -0.0994294 0.39741
-0.0764946 -0.104846 0.467693
-0.0220479 0.0104604 0.130857
0.223536 -0.076941 0.395104
0.0419685 0.00409684 0.26198
-0.0589391 0.00830692 0.554344
0.000138036 -0.123525 0.407318
0.132019 -0.132832 0.594014
-0.179322 -0.0816258 0.55998
-0.0469001 0.0818629 0.127298
-0.0251147 -0.131525 0.546945
-0.135153 0.0650043 0.0533597
-0.0561142 0.00771116 0.426748
-0.0705256 -0.107772 0.534467
0.239756 -0.0796294 0.553284
-0.0402431 -0.0478757 0.204692
-0.146324 -0.0994191 0.427324
0.0402067 -0.0438919 0.792441
0.131317 -0.100314 0.429958
0.0697851 -0.0837506 0.491412
0.0513884 0.0196479 0.473531
-0.0160737 0.018157 0.163118
-0.0277222 -0.031914 0.806047
0.379788 -0.0848668 0.373592
0.016851 0.0327787 0.355415
0.18765 -0.0909841 0.584295
-0.0709687 -0.0357072 0.542743
-0.0853694 -0.102398 0.421573
0.225211 -0.0920946 0.349495
-0.145606 -0.0987039 0.409128
-0.198073 -0.0810064 0.553624
0.319151 -0.0770065 0.49573
0.142803 -0.0828322 0.579328
0.329911 -0.0739186 0.366505
0.268469 -0.0925779 0.418213
0.0354348 0.0332366 0.524153
0.068278 -0.0963277 0.642951
-0.334747 -0.0897301 0.438096
0.0564403 -0.0856852 0.626186
-0.119871 -0.0835898 0.597335
0.0599663 -0.000794717 0.478489
-0.355827 -0.0732168 0.36103
-0.0209625 0.0380144 0.685311
0.3422 -0.0892211 0.482688
0.139324 0.0651583 0.0485829
-0.0558397 -0.0178403 0.264033
0.462757 -0.0770649 0.314105
0.150827 -0.102289 0.561876
-0.45128 -0.0817727 0.395872
0.0425215 -0.0564294 0.776353
0.0406443 -0.114325 0.375281
-0.0586794 0.00613913 0.492692
0.163754 0.0785806 0.0629233
0.0348084 0.0340081 0.542743
0.440425 -0.0825139 0.411142
0.383382 -0.0748846 0.476643
-0.00683358 0.0339639 0.326855
0.0197412 -0.0935407 0.762471
-0.0272145 0.0858593 0.0920397
0.277928 -0.0769106 0.418998
0.15529 -0.100144 0.455753
-0.0487392 -0.0578222 0.751923
-0.250245 -0.0951823 0.457523
0.0375414 -0.0439255 0.184203
0.0542235 -0.107472 0.409345
0.255581 -0.0791066 0.511449
-0.255511 -0.0791089 0.535861
0.166259 -0.101235 0.520458
0.0253218 0.0314398 0.442035
-0.234547 -0.114727 0.559322
0.00412631 -0.10897 0.650003
0.337239 -0.076409 0.463783
0.0696696 -0.0323114 0.696304
0.1555 -0.10197 0.564532
0.342773 -0.089182 0.452765
-0.0606012 -0.0621429 0.423459
0.237622 -0.116858 0.571991
-0.0703466 -0.0369368 0.50077
-0.0346194 3.05478e-05 0.147042
0.163653 -0.0812928 0.473938
-0.265944 -0.0915695 0.39055
-0.375752 -0.0869301 0.453839
0.00920442 0.0375873 0.519044
0.130775 -0.106023 0.612601
-0.0168327 -0.00581683 0.757354
-0.156274 -0.0990701 0.43138
-0.334454 -0.0897501 0.491983
0.00494101 0.0326541 0.307172
-0.189654 0.0608188 0.0696165
0.406265 -0.0848466 0.476722
0.440103 -0.0706346 0.332901
0.0138488 0.0634406 0.133244
0.308479 -0.0881602 0.360241
-0.0299553 -0.0584392 0.213934
0.000800365 0.1307 0.121928
-0.257568 -0.0880908 0.34172
-0.0604824 0.0655594 0.124652
0.044656 0.026942 0.5081
0.106036 -0.112316 0.599522
0.439962 -0.0730155 0.408389
-0.132521 -0.102209 0.475688
0.354755 -0.0857748 0.36182
-0.140246 -0.0829166 0.546718
-0.109795 0.0724723 0.111018
0.0435878 -0.013595 0.171996
0.0313052 0.0117272 0.223197
0.0237238 0.0873823 0.0729285
-0.16812 0.083864 0.014459
-0.100277 -0.084237 0.557869
-0.00771019 -0.129952 0.506479
-0.415096 -0.0738369 0.434777
-0.109067 -0.0991597 0.374259
0.115485 -0.10668 0.565783
0.0276626 0.0104181 0.175839
-0.180082 -0.0774844 0.389114
0.0233406 -0.0387933 0.113755
-0.110872 -0.083887 0.552456
-0.0270076 0.0134783 0.204021
0.27451 -0.0750114 0.369929
0.098938 -0.0997439 0.375663
-0.0523279 -0.0842395 0.695006
0.0214759 0.0714809 0.157247
-0.136861 0.0852527 0.0203326
-0.22525 -0.0988237 0.559827
0.426588 -0.0834588 0.434222
0.341732 -0.088992 0.426293
0.122892 -0.0834899 0.59743
0.149438 -0.0999243 0.44336
-0.162147 -0.0788849 0.415611
-0.0277939 0.0367238 0.688252
-0.422725 -0.0813336 0.340688
0.280826 -0.0742502 0.353176
-0.234295 -0.117896 0.564553
-0.470962 -0.0699302 0.328496
-0.297697 -0.0775655 0.443785
0.0585147 0.0100755 0.55211
0.0157325 0.0238193 0.207917
-0.347726 -0.0754257 0.41373
-0.0251777 -0.0200779 0.0627926
-0.439525 -0.0706372 0.332675
0.22509 -0.0950288 0.421146
-0.0544749 -0.0627457 0.339452
0.431533 -0.0712802 0.347175
0.251099 -0.0921215 0.384619
0.106219 0.0652652 0.0700065
0.182621 -0.100118 0.520901
-0.0313395 -0.0352569 0.133079
-0.226335 -0.0971328 0.487839
0.230807 -0.109082 0.565132
0.469888 -0.0796887 0.365296
-0.0252106 -0.0383572 0.818424
-0.0167807 0.0827536 0.144792
0.313406 -0.0907129 0.431471
0.262108 -0.117587 0.569159
0.0693083 -0.0237907 0.67502
0.0508092 -0.0284804 0.753558
0.310232 -0.0894901 0.396776
0.109804 -0.0999972 0.395434
-0.0397684 0.0241976 0.387111
0.0564051 0.0147789 0.651128
0.155408 -0.082119 0.489714
0.003843 -0.0942359 0.784059
-0.18595 -0.0960998 0.396829
0.152147 0.0784505 0.0741381
0.106752 0.0829142 0.0631978
0.285844 -0.0781068 0.521172
0.0123699 -0.12128 0.373507
-0.0600437 -0.0448872 0.318371
-0.133661 -0.109696 0.604298
0.371598 -0.0752739 0.471398
-0.192578 0.0606884 0.0702219
0.0506611 0.0208252 0.486487
-0.0227381 0.069724 0.0745058
0.33213 -0.0761746 0.425477
-0.294637 -0.0762376 0.410289
-0.0541742 -0.07405 0.387827
-0.0262209 -0.123844 0.413659
-0.147425 -0.102153 0.492859
-0.190056 -0.0812712 0.560721
0.218239 -0.0765242 0.382625
0.264869 -0.0782729 0.446027
0.0250784 -0.10504 0.702087
0.318137 -0.0879246 0.367161
0.0313952 -0.130113 0.646381
0.166195 0.0797722 0.0512415
-0.0343315 0.0667109 0.114671
-0.0362315 -0.0559893 0.799856
0.0534416 -0.0638534 0.737605
-0.115823 -0.081552 0.459667
-0.0294559 -0.123441 0.407686
0.222405 -0.0966814 0.457621
0.14842 0.0791489 0.0703285
0.0353429 -0.0629331 0.253636
-0.165359 0.0683341 0.011297
0.0213876 0.0267595 0.315325
0.218203 -0.115041 0.570833
-0.333158 -0.0861709 0.342267
0.141089 -0.0828888 0.528411
-0.0408181 0.0305382 0.514496
-0.0700237 -0.107807 0.629424
0.112705 0.0663342 0.0210525
0.0130401 0.112694 0.100216
0.0792478 -0.0849317 0.525602
0.0664656 -0.0218146 0.498295
-0.0570604 -0.0837535 0.486073
0.039856 -0.0429712 0.793235
-0.184486 -0.0797889 0.44665
-0.0569512 -0.0732118 0.503235
0.0913044 -0.10327 0.449287
0.222431 -0.0802017 0.546135
-0.124705 -0.109582 0.557871
0.178143 -0.0955295 0.373234
0.0705308 -0.107772 0.628823
-0.0707047 -0.0507061 0.672342
-0.0387199 0.0189218 0.721349
-0.113438 -0.105689 0.588891
-0.0700048 -0.107808 0.618837
0.209911 -0.0806153 0.485228
0.10573 -0.105368 0.557042
0.0579446 -0.0664096 0.394279
0.111881 -0.0781298 0.376696
0.359376 -0.0720167 0.331066
-0.0854345 -0.104594 0.472899
0.0478916 -0.0483089 0.245795
0.460149 -0.0810542 0.388307
0.457224 -0.0701452 0.327598
0.046788 0.0249003 0.617188
-0.0279708 0.000694517 0.104665
0.0114114 0.0537615 0.0964724
-0.228528 -0.0755717 0.57235
-0.22641 -0.0971277 0.510891
-0.13426 -0.10342 0.548755
-0.0572384 -0.0800793 0.400411
0.010702 -0.131525 0.536892
-0.429512 -0.0733607 0.447058
-0.00597661 0.128007 0.12277
-0.0602141 0.00233787 0.510131
-0.0794718 0.0859157 0.0498578
-0.393194 -0.0714177 0.331254
0.0154313 0.0901207 0.140627
0.017226 -0.121074 0.370611
-0.195242 -0.099256 0.522318
0.077147 -0.0961777 0.365951
-0.153939 -0.0784481 0.401676
-0.451425 -0.0726368 0.419075
-0.0372194 -0.0244594 0.127733
-0.162483 -0.098057 0.414681
0.227441 -0.0918284 0.572724
0.228281 -0.0969999 0.5051
0.407083 -0.0716393 0.344894
0.029431 0.0693521 0.0599654
-0.172993 0.072375 0.00838136
0.273644 -0.0935347 0.44807
0.240909 -0.0795913 0.470169
0.187789 0.0812601 0.02586
0.0678133 -0.032959 0.385708
-0.0685571 -0.0458264 0.432782
-0.311045 -0.0908384 0.43144
-0.149445 -0.0826128 0.569623
-0.320065 -0.0865823 0.335249
-0.153281 0.0794866 0.0627964
-0.0386862 -0.095153 0.674083
0.151144 0.0623712 0.0742043
-0.392885 -0.085645 0.411961
-0.0283974 0.0364248 0.664551
-0.180238 -0.0977665 0.429957
0.233839 -0.077243 0.40707
-0.0547857 -0.113119 0.560311
0.012201 0.111518 0.0869225
-0.389048 -0.0746975 0.438574
-0.423692 -0.0716238 0.353069
0.0728678 0.0810519 0.113976
-0.117985 0.0779035 0.103004
-0.229656 -0.0930916 0.571083
0.0355019 0.066599 0.121116
-0.010071 -0.0995878 0.762124
0.213951 -0.118848 0.57262
-0.0982321 0.0876798 0.0167363
-0.0391884 -0.0571486 0.232619
0.0229048 -0.083279 0.31345
0.306242 -0.0887672 0.372837
0.00926541 0.0497505 0.0590808
0.0427891 -0.120385 0.509558
0.151579 0.0637259 0.0537335
-0.158681 -0.0823077 0.539425
-0.138243 0.0653229 0.0300411
-0.244955 -0.0782294 0.435957
-0.110792 0.0639097 0.0852847
-0.0396479 -0.0482256 0.202527
0.179344 -0.0953917 0.371411
-0.460002 -0.0723535 0.411817
0.153835 -0.102083 0.541499
0.0025388 0.111387 0.0198914
0.232177 -0.0798797 0.503082
0.226429 -0.0780877 0.424142
-0.275682 -0.0760383 0.396845
0.0573419 -0.105429 0.406211
-0.0674737 -0.0516691 0.512405
-0.123604 -0.110315 0.554386
-0.213454 -0.0804983 0.513597
0.0596741 0.00132133 0.485882
0.233894 -0.133756 0.570778
0.474907 -0.0801594 0.397891
-0.0324867 -0.0753267 0.780664
-0.330723 -0.087266 0.367141
-0.0298559 0.0360727 0.655259
0.0123542 0.0916836 0.096899
0.0884827 0.0664209 0.12623
-0.0289503 -0.0841194 0.770866
0.0605776 -0.103317 0.403153
0.110938 -0.121048 0.634727
0.16709 -0.0984867 0.430858
0.000370725 -0.131312 0.526955
0.128661 -0.136922 0.636007
0.115201 -0.104497 0.507585
-0.0297321 -0.0838107 0.333468
0.0431544 0.0281454 0.588222
0.371222 -0.085604 0.380526
0.100789 -0.102151 0.434953
0.0677363 -0.0448596 0.73164
-0.302069 -0.091949 0.446638
-0.0324824 0.0312164 0.465676
-0.0436517 -0.0314031 0.773739
0.351821 -0.0885642 0.457839
0.0533702 -0.00143919 0.34073
-0.358169 -0.0868057 0.393106
-0.298313 -0.0776949 0.495437
-0.00946489 0.0461541 0.0641617
0.0356592 0.0318447 0.492946
0.149747 -0.102067 0.604431
0.0331615 -0.0696235 0.283009
0.364757 -0.0718746 0.32974
-0.26175 -0.0947146 0.467731
-0.391049 -0.0811981 0.484315
0.120331 -0.122464 0.636606
-0.0594423 0.0849589 0.0767121
0.045768 -0.114083 0.442838
0.0151182 0.0847659 0.13973
-0.0114798 -0.127049 0.648592
-0.0258384 0.00209445 0.0911842
0.123578 -0.10415 0.544573
-0.129054 -0.100948 0.441948
0.003709 -0.0916644 0.338187
-0.0603752 0.0818998 0.114485
-0.385856 -0.0748029 0.434248
-0.0706645 -0.034998 0.539433
-0.39767 -0.0714328 0.334018
0.0430319 -0.0546611 0.234203
0.296624 -0.0909749 0.416013
-0.129316 -0.123277 0.634888
0.0543879 0.00938586 0.692434
-0.0122974 0.0578894 0.109927
0.0253568 0.0354759 0.536981
0.136737 -0.10007 0.431
-0.315956 -0.0771121 0.500827
0.185974 -0.0814061 0.522161
-0.0549726 0.086176 0.0648293
-0.124423 0.0784113 0.0979991
0.160212 -0.0957229 0.35539
0.0656298 -0.0497346 0.383131
0.129836 -0.0832605 0.590908
-0.15332 -0.0968017 0.37282
-0.0480996 0.0846686 0.0901934
-0.105424 -0.115796 0.563525
-0.0374339 -0.0782718 0.33029
0.292973 -0.0906934 0.404464
0.0560745 -0.109532 0.483841
0.108559 -0.0839634 0.534718
-0.118068 -0.1132 0.636759
-0.0498004 0.0684147 0.0385053
0.00412102 -0.0587647 0.171534
-0.0150007 0.127223 0.112649
0.0814443 -0.107027 0.622135
0.156044 -0.0897772 0.355317
0.237996 -0.146471 0.570483
-0.0977851 -0.082052 0.463671
-0.106689 -0.0840252 0.521004
-0.249852 -0.0785991 0.447114
-0.0616837 -0.0122615 0.711505
0.0337885 -0.100568 0.649157
0.0641831 -0.104581 0.446236
0.232306 -0.130785 0.547757
0.0835443 -0.106582 0.51694
-0.464192 -0.071717 0.376801
-0.103698 0.0639237 0.111618
-0.0985556 0.086758 0.0256093
-0.0630757 -0.0143317 0.359364
0.227061 -0.0785603 0.435857
-0.424962 -0.0834098 0.399501
-0.070913 -0.0407985 0.707765
-0.389157 -0.0845429 0.378408
-0.168961 0.0643086 0.0275917
-0.265791 -0.0944386 0.50557
-0.0406474 -0.00850536 0.163097
0.43951 -0.0715521 0.359201
-0.157694 -0.101406 0.488182
-0.0115511 0.0340152 0.110076
0.238305 -0.091537 0.352755
0.0564624 -0.0188141 0.252396
0.361101 -0.0852661 0.357648
0.331238 -0.0899696 0.495817
0.415846 -0.0841923 0.410835
0.218572 -0.0964446 0.570139
0.427904 -0.0723133 0.374068
0.050194 -0.0357937 0.230622
-0.110702 0.0661301 0.0229082
0.143068 0.0624431 0.0980549
-0.231368 -0.0779261 0.422472
-0.103181 -0.100312 0.39474
0.454411 -0.070605 0.339473
0.0110956 0.0383978 0.550967
-0.00805099 0.105206 0.0229829
0.312633 -0.0912401 0.483696
-0.184553 -0.081453 0.493589
0.119244 -0.114565 0.542051
0.0432451 -0.114739 0.422107
-0.325969 -0.0766752 0.43506
0.051019 -0.00692814 0.299117
0.0703853 -0.0307367 0.560533
-0.0394438 0.070582 0.0318117
0.0476382 -0.0676325 0.313646
0.109301 -0.0989907 0.370463
0.135005 -0.103369 0.583578
0.0224772 0.0686155 0.0959883
0.196917 -0.0965368 0.421171
0.193765 -0.0758499 0.355238
-0.30975 -0.0758318 0.406704
-0.168428 -0.0776992 0.38952
-0.147289 -0.0999765 0.441912
0.231136 -0.10429 0.565469
-0.0137623 0.133505 0.0996863
0.0203696 0.0141312 0.152727
-0.00278134 0.0396436 0.393125
0.340842 -0.0755648 0.413841
0.0535638 -0.0383735 0.751026
0.240732 -0.0795971 0.477773
-0.232317 -0.0968547 0.561563
0.0722038 -0.0471823 0.677955
0.0382588 -0.0031144 0.151718
0.156429 -0.0823821 0.597769
-0.0306837 0.0787239 0.147444
0.0142892 0.0449426 0.151404
0.076251 0.0676509 0.0495122
0.23197 -0.075373 0.360285
-0.147502 0.0784287 0.0783227
-0.415823 -0.0841939 0.411222
-0.00625496 -0.0544936 0.14869
-0.204876 -0.0974804 0.454178
0.0672147 -0.0568053 0.582446
0.269136 -0.074903 0.364751
-0.0823104 0.0647701 0.114846
0.029754 -0.0310413 0.109845
-0.111892 0.0638039 0.0907038
0.0144477 0.123678 0.109129
0.0458662 -0.049788 0.236587
0.00655007 0.0411111 0.671594
-0.0319211 0.0288234 0.408213
0.0551606 -0.0148815 0.292829
-0.026421 -0.104064 0.655696
-0.269147 -0.0786584 0.475324
0.0653247 0.0673439 0.0779601
-0.0603096 -0.0705212 0.594799
-0.138296 -0.124969 0.615578
0.227393 -0.0932248 0.380514
-0.0408346 -0.0692067 0.302417
-0.0714888 -0.0397172 0.528213
0.0576351 -0.0448763 0.302397
-0.144668 -0.0827706 0.575454
0.0390907 0.0300566 0.681164
0.329064 -0.0755942 0.332184
0.0278246 0.0294534 0.713633
-0.281991 -0.0933324 0.520152
-0.0555345 -0.00762033 0.333446
0.236173 -0.091657 0.352973
0.0656371 -0.0612595 0.649143
-0.244433 -0.0920279 0.373603
-0.0135952 0.0610749 0.168072
0.0667886 -0.0142255 0.580707
0.214521 -0.0979395 0.568898
0.0281138 -0.0859532 0.338363
-0.236854 -0.0950744 0.437524
-0.043887 -0.0220894 0.164926
0.298777 -0.0776796 0.514154
-0.332312 -0.0735912 0.359159
0.312952 -0.0742145 0.36656
-0.113642 -0.0837955 0.595852
0.137323 -0.125735 0.599154
0.00496196 -0.10897 0.708786
0.398562 -0.0821615 0.32765
-0.00751717 -0.0741816 0.25399
0.0943524 -0.106145 0.61488
0.0277498 -0.128061 0.47852
0.0115083 -0.0515064 0.837306
-0.221779 -0.10231 0.564118
-0.281451 -0.0933693 0.538541
-0.330753 -0.0886461 0.402653
-0.000862079 0.0321891 0.211811
0.0606533 -0.105461 0.454264
0.127029 -0.116242 0.635583
0.0113323 0.158322 0.058448
-0.17351 -0.0818178 0.497734
0.35005 -0.0849513 0.334056
0.427322 -0.0734331 0.41938
0.0236432 -0.101389 0.730021
0.0148163 0.0582761 0.150298
-0.0112488 0.0953509 0.077582
0.271807 -0.0764675 0.339798
0.0839142 -0.0847776 0.57932
-0.42822 -0.0734034 0.437859
0.207182 -0.0769262 0.38734
-0.0107633 0.0441021 0.089191
-0.238402 -0.0857232 0.344305
-0.209632 -0.097245 0.454663
0.160394 -0.0822511 0.54785
-0.0263248 -0.125864 0.444698
0.245304 -0.107763 0.512601
0.0156186 0.0910921 0.142613
0.0149257 -0.0379042 0.0813749
0.012755 0.0496796 0.122116
-0.0542751 -0.0752025 0.419508
0.124597 -0.107494 0.564809
0.425014 -0.0835663 0.422544
-0.011318 0.153202 0.0597787
0.0207148 0.036996 0.559788
0.122303 -0.081893 0.470376
-0.24313 -0.095986 0.521369
0.00863234 -0.126414 0.452165
-0.0380209 0.0663678 0.135722
-0.0343895 0.00914106 0.219221
-0.220657 -0.117388 0.482375
0.0551888 -0.0169257 0.275583
0.0228113 0.0283769 0.336741
0.0472062 -0.00271521 0.238634
-0.470863 -0.0804355 0.428494
-0.0143392 0.123011 0.108465
0.0431009 -0.0560039 0.239736
0.15361 -0.102099 0.579278
0.047311 -0.112743 0.433601
-0.465011 -0.072188 0.38971
-0.0398329 0.0688053 0.0423312
0.440397 -0.0825159 0.446103
0.419821 -0.0817274 0.347656
-0.051915 -0.115205 0.604695
-0.353384 -0.0884575 0.498075
-0.069996 -0.0184963 0.642241
0.112195 -0.0775537 0.362896
0.00289251 0.0331494 0.303994
-0.105825 0.0639666 0.0983229
0.461427 -0.0803585 0.371749
-0.121217 -0.104311 0.618382
0.055219 -0.0143662 0.735802
-0.00625279 0.0415125 0.661168
0.00352263 0.0311373 0.28735
-0.198655 -0.1126 0.572238
0.442992 -0.0727033 0.391683
-0.130337 -0.102084 0.470056
0.0371765 0.0716499 0.03177
0.0862435 -0.105922 0.504896
-0.0650983 -0.0615261 0.671256
-0.0502257 -0.0864035 0.721583
-0.012395 0.151656 0.0764419
0.060826 0.000328576 0.668169
-0.215857 -0.120285 0.530705
-0.224204 -0.0801431 0.482873
0.070653 -0.0265845 0.59646
-0.182362 -0.100136 0.53231
0.0533565 -0.0470062 0.28071
0.0825006 -0.106955 0.540794
0.0566758 0.0150105 0.597488
-0.127138 -0.0996262 0.408234
-0.251511 -0.079241 0.528491
-0.079782 0.0654527 0.0909619
0.0668036 -0.0281345 0.368621
0.0112992 -0.0399845 0.832012
-0.0785826 -0.0801301 0.410664
-0.25139 -0.0880466 0.553047
-0.265361 -0.0787835 0.476301
-0.00633912 -0.0834583 0.301799
0.0251634 -0.129511 0.500663
-0.0219291 -0.0915248 0.345951
-0.228739 -0.110254 0.570076
-0.0734089 -0.0851246 0.552821
-0.321836 -0.0769178 0.478002
0.00946602 0.0273578 0.249518
0.341415 -0.0729417 0.346711
0.207497 -0.0956521 0.413371
0.00628366 0.0288554 0.267406
0.0990115 -0.126487 0.637066
0.173953 0.0780935 0.0596236
-0.390444 -0.0859269 0.462569
-0.0139848 0.0842807 0.030661
-0.0257763 0.0245856 0.311923
-0.175871 -0.100579 0.528293
-0.386275 -0.0862115 0.459955
-0.17706 0.061381 0.0669653
0.018365 0.0684713 0.102351
-0.0376226 0.0322283 0.641665
-0.454062 -0.0723064 0.387049
0.0693425 -0.0348112 0.471545
-0.332467 -0.0765666 0.477402
-0.0680428 -0.0174384 0.59228
-0.419449 -0.0736931 0.431199
-0.0530142 0.0879033 0.0420917
-0.248877 -0.112998 0.546068
-0.397658 -0.0827204 0.342475
-0.06573 -0.0543297 0.489669
-0.269196 -0.0881032 0.544442
-0.0156225 -0.121347 0.374717
0.446716 -0.079618 0.327715
0.00433575 0.113697 0.133297
0.230313 -0.123664 0.572517
0.0535258 -0.0137523 0.262578
-0.124704 -0.100526 0.426709
0.0791963 -0.0865557 0.635978
-0.0876133 -0.106606 0.594079
-0.101975 -0.105625 0.603845
-0.129997 -0.103711 0.562512
-0.00446928 0.0405804 0.583937
-0.153642 -0.0824741 0.504504
-0.00741271 0.147243 0.102598
-0.458984 -0.0803475 0.367685
0.125884 -0.0996958 0.408342
0.097277 -0.105946 0.537763
-0.0510275 -0.0403167 0.244327
-0.00105791 -0.122921 0.398097
-0.123081 -0.104184 0.51391
0.00633382 -0.121995 0.384159
-0.0294538 -0.0265959 0.0937541
-0.0576331 0.0114378 0.501633
-0.458027 -0.081312 0.412592
0.255151 -0.112396 0.569659
0.237535 -0.129125 0.549155
0.101591 -0.105651 0.601504
0.194603 -0.0936418 0.581319
-0.0154806 0.123905 0.120747
-0.139777 -0.0829321 0.594971
0.0524294 -0.0815671 0.478245
-0.128991 -0.109195 0.569997
0.0820315 -0.0848398 0.623626
0.393897 -0.0725962 0.364233
-0.193515 -0.0811569 0.555819
-0.461907 -0.0707912 0.348765
0.438129 -0.0802601 0.333172
-0.229145 -0.0945932 0.415879
-0.0430507 -0.0353521 0.193972
-0.430966 -0.0712733 0.346678
-0.399146 -0.0825023 0.338429
0.0132321 -0.0352167 0.824154
-0.204078 -0.080808 0.528751
0.0578015 -0.0735632 0.712425
