-0.00915833 0.108703 0.0473711
-0.257054 -0.0255028 0.351276
0.177773 -0.0446257 0.43732
-0.0414279 -0.00684421 0.204949
0.0902035 0.000933857 0.429334
-0.392102 -0.0346376 0.160115
0.440829 -0.0484544 0.136064
-0.241236 -0.0188081 0.218985
-0.208236 -0.00225845 0.372583
0.00997962 0.0424051 0.084489
0.131802 -0.0867338 0.43879
0.235179 -0.0220306 0.374306
0.000120206 -0.0910431 0.339654
-0.030001 0.0773211 0.0806896
-0.12568 0.0089909 0.401423
-0.0460684 -0.0322525 0.179441
-0.254794 -0.0226087 0.221567
-0.228993 -0.0188497 0.24577
0.00565419 0.0281325 0.417983
-0.207417 -0.0161369 0.31874
0.292237 -0.01444 0.316186
-0.0234643 -0.0261897 0.666765
0.197619 -0.000700925 0.339843
-0.260409 -0.0262529 0.353939
0.180625 -0.0123405 0.328034
0.052481 -0.00303061 0.482947
0.0295319 -0.0402099 0.137866
-0.0298664 -0.0200276 0.639708
-0.0436551 0.00550309 0.341451
-0.162053 -0.042859 0.437017
0.0595739 -0.027112 0.444612
0.0554436 -0.013798 0.317376
0.0589519 -0.0108759 0.483696
0.0294083 0.0773427 0.080905
0.0433629 -0.0348219 0.17415
-0.0422871 0.0791276 0.0507769
0.0314582 -0.0485992 0.67911
-0.299699 -0.0195167 0.216316
0.0405197 -0.00578189 0.208146
-0.0258185 0.0223651 0.379173
-0.343158 -0.0366149 0.240125
0.0243984 0.0769287 0.0879391
0.0110039 0.110127 0.0747348
0.18504 -0.0125652 0.245466
0.1061 0.0110234 0.363218
0.0357794 -0.0629394 0.640886
0.322502 -0.0206089 0.238233
0.124872 -0.00414022 0.434942
0.21779 -0.0175554 0.308554
0.13112 -0.0289125 0.415602
0.0233661 0.00055271 0.11256
-0.177382 0.00195229 0.383087
-0.00752247 0.114107 0.0146454
0.0654624 0.0135392 0.310467
-0.410413 -0.0383938 0.141657
-0.113266 -0.0601223 0.341632
0.118756 -0.00350727 0.31156
0.021198 -0.0942411 0.475054
-0.149503 -0.00789111 0.328701
0.146052 -0.0652719 0.429348
0.155294 0.00495452 0.392537
-0.139763 -0.00655507 0.353259
-0.0135813 -0.0742933 0.246629
-0.0191041 0.00341843 0.107618
0.0465167 0.00275615 0.464374
0.309873 -0.0801746 0.352906
-0.218271 -0.00422131 0.309058
0.0546698 0.0712527 0.0198104
0.33835 -0.0374139 0.278439
-0.054927 0.0686224 0.0446993
-0.0474703 0.0655332 0.0833521
-0.290859 -0.0300216 0.309188
-0.0151733 -0.0975355 0.519764
-0.443134 -0.0421346 0.162186
0.0139811 -0.0517577 0.13725
0.258347 -0.0256018 0.34799
-0.360485 -0.0389359 0.203758
0.365335 -0.0379838 0.299117
0.34032 -0.02137 0.278173
0.110572 -0.0613897 0.403855
0.304437 -0.0686364 0.336534
-0.0123385 0.0883836 0.0967616
-0.322994 -0.0982691 0.329096
-0.289738 -0.0886794 0.309119
-0.0940109 0.0749037 0.0544206
-0.0513625 -0.0575475 0.358894
0.0326329 -0.0859332 0.574394
0.136884 -0.00609674 0.394938
-0.251789 -0.00844534 0.320999
0.029388 -0.0348618 0.12464
0.301776 -0.0318104 0.303069
-0.0577939 0.0675879 0.0548751
-0.00990915 0.0918622 0.0638434
0.0473429 -0.0323178 0.193487
0.0659385 0.00385909 0.377784
-0.0359893 0.0784351 0.0619679
0.329939 -0.0388265 0.320556
0.302277 -0.0471089 0.25191
0.321608 -0.054983 0.325272
0.0116923 0.0773566 0.0947544
0.00441971 0.0203028 0.239082
0.246745 -0.0234846 0.349596
-0.146756 -0.0340941 0.398235
-0.00904906 0.00971309 0.0856209
-0.0511794 -0.0584654 0.374892
-0.0329963 -0.0810274 0.350561
-0.212766 -0.0165832 0.264759
-0.127588 -0.01684 0.338135
0.0625202 0.0797665 0.0271619
0.341902 -0.0225557 0.241177
-0.416774 -0.0233932 0.170093
0.0862446 0.0776054 0.0423168
0.059816 -0.0443637 0.60274
0.0134547 0.0188791 0.610351
0.132991 -0.0104509 0.441334
0.0828872 0.0794527 0.020706
-0.216701 -0.017413 0.310678
0.00194422 -0.00280565 0.633997
0.00376296 0.0822083 0.0182572
-0.0106542 0.0300818 0.102992
0.185413 -0.012772 0.27042
-0.00519744 -0.0752626 0.250916
-0.0969331 0.00898334 0.294374
0.0495927 -0.0675736 0.561563
-0.288597 -0.022192 0.34414
-0.173194 0.000937921 0.31127
-0.266598 -0.0131674 0.355452
-0.400989 -0.00694324 0.274889
-0.418862 -0.0473999 0.139451
-0.408471 -0.0457357 0.14182
0.0351138 -0.0190654 0.102453
-0.0810755 0.00842948 0.28959
-0.0483341 -0.0322922 0.203919
0.179786 0.00158443 0.397123
0.0618038 -0.0300015 0.481453
-0.140983 -0.0524599 0.441097
0.29646 -0.028968 0.215458
0.13236 -0.0564359 0.443617
0.300233 -0.0908796 0.242973
-0.0243787 -0.0779709 0.285307
-0.0457512 0.015881 0.309665
-0.0601624 -0.0412998 0.601542
0.0103105 -0.0830889 0.665243
0.317377 -0.0422774 0.311125
0.0158281 -0.0763098 0.671068
0.0454901 -0.0746269 0.547004
-0.317536 -0.0483446 0.295561
0.397636 -0.0298348 0.232932
0.0445831 -0.0623549 0.287365
-0.282616 -0.02999 0.338983
-0.0250153 0.0235235 0.412684
-0.28468 -0.0293474 0.319342
0.0604977 0.0178048 0.45833
0.323819 -0.0875878 0.33979
-0.415076 -0.035856 0.169096
0.380278 -0.0302701 0.196656
0.133581 -0.051367 0.449213
0.312712 -0.118241 0.34877
0.135768 -0.0478611 0.436846
-0.100077 0.0121115 0.372231
-0.0470082 0.00747916 0.451225
0.0445032 0.0159369 0.475188
-0.397808 -0.0333003 0.183514
-0.0215859 -0.0793503 0.649118
0.0773559 0.0633073 0.0841146
-0.144749 -0.0318956 0.413218
0.320476 -0.0923273 0.351172
0.298581 -0.05796 0.267391
-0.0189972 0.0688395 0.0623009
-0.0428023 -0.0473497 0.228657
-0.330616 -0.0386401 0.320304
-0.12628 0.00589108 0.303811
0.169477 -0.0105579 0.280246
0.0819486 0.00161183 0.38822
-0.361125 -0.0340571 0.301755
-0.0505471 0.0648045 0.0878617
-0.0286348 -0.0445103 0.14725
0.0222286 0.0794124 0.0580693
-0.432104 -0.030881 0.229893
0.0558729 -0.00949315 0.437843
-0.31244 -0.0545406 0.328451
-0.0123498 0.0814468 0.0285312
0.0225335 -0.0272336 0.67135
-0.0405449 0.000166966 0.619021
-0.0253662 -0.0834018 0.313474
0.332863 -0.072486 0.301973
-0.0654282 0.00400495 0.410995
0.172003 -0.0113135 0.356939
0.226678 -0.00535468 0.306095
0.21205 -0.00481461 0.286018
-0.047551 -0.0410999 0.63196
-0.131104 0.0043287 0.28247
0.424619 -0.0144538 0.138968
-0.0248276 -0.0736332 0.268409
-0.138566 -0.0287049 0.379789
-0.331878 -0.0843471 0.298393
-0.307696 -0.100624 0.296446
-0.311385 -0.0986945 0.274641
0.296047 -0.029534 0.273491
-0.0474447 -0.032362 0.194859
-0.120496 -0.00373871 0.306866
-0.397685 -0.0444512 0.166375
-0.00273037 0.129266 0.0569127
-0.0764878 0.0731505 0.0777458
-0.433597 -0.0142062 0.15215
0.0578106 -0.0274899 0.381095
0.19442 -0.00090993 0.320562
-0.306854 -0.0848753 0.332492
-0.062427 -0.0359494 0.489193
0.0510228 -0.00432833 0.434662
-0.339267 -0.0214234 0.295496
0.00727955 -0.0802405 0.272929
0.0123524 0.0284597 0.552139
0.331321 -0.034235 0.20308
-0.220173 -0.0174904 0.243026
0.114844 0.0104258 0.372694
0.0580487 0.0175332 0.386924
0.434448 -0.0508752 0.221847
0.111971 -0.0640175 0.414747
0.101689 -0.00114039 0.312222
0.110599 -0.0563446 0.347913
0.0408413 0.0122214 0.51392
0.194204 -0.00461095 0.252194
-0.323065 -0.0324414 0.32474
-0.120395 -0.0402606 0.326741
0.00990416 0.0259022 0.502107
0.0628846 0.017516 0.429367
0.141559 -0.0744513 0.41119
-0.0309084 -0.0871861 0.459206
-0.330679 -0.0741986 0.286324
0.0588628 -0.011579 0.464761
-0.317376 -0.031839 0.186594
-0.043507 -0.0245269 0.154561
0.269784 -0.0111897 0.331503
-0.0397436 0.0104047 0.303701
0.298798 -0.0201004 0.205881
0.10141 -0.000618771 0.440623
-0.0226897 0.069241 0.0547108
-0.331164 -0.0354736 0.270451
-0.0136231 0.00252736 0.628477
-0.418111 -0.0142166 0.218971
-0.315522 -0.10091 0.31631
0.435713 -0.0450759 0.125935
0.0482621 0.0175143 0.358623
0.2933 -0.090336 0.254508
-0.0436803 -0.0720202 0.311962
-0.24023 -0.0207175 0.266455
-0.391894 -0.0487756 0.271195
0.384939 -0.0278413 0.232154
0.148832 -0.0351179 0.412247
0.104742 -0.00151793 0.29051
0.254298 -0.0229685 0.272134
0.00137082 -0.0349594 0.0515106
0.323923 -0.021941 0.222639
-0.169899 0.00189575 0.321948
0.292644 -0.0613607 0.304605
0.0447989 0.000886792 0.597652
-0.419395 -0.0124252 0.260746
-0.352311 -0.0427291 0.304854
0.187628 -0.0136893 0.371039
0.184507 -0.00844817 0.402058
-0.25176 -0.0242647 0.345842
-0.365319 -0.04372 0.281741
-0.259131 -0.0231796 0.212411
-0.059981 0.0790981 0.0396107
-0.0632383 0.0748526 0.0751341
-0.228482 -0.0050466 0.331352
0.0344986 -0.0845776 0.501558
0.00773814 0.117311 0.0888477
-0.425786 -0.0482609 0.240921
0.0116658 -0.079234 0.268478
-0.00853656 0.0236509 0.285457
-0.14063 -0.100169 0.44117
-0.12169 -0.00345358 0.273995
-0.280346 -0.0869795 0.349505
-0.00981793 0.0902075 0.062977
-0.102337 -0.00128697 0.371836
0.302274 -0.0196759 0.218495
0.112713 0.0107254 0.421582
-0.404013 -0.0340648 0.182542
-0.158356 0.000770919 0.274013
0.172545 0.0022373 0.335484
0.371745 -0.0400995 0.160851
-0.218777 -0.0040684 0.312818
0.0802356 0.0018481 0.38375
0.109633 -0.0512108 0.346229
-0.208498 -0.0167265 0.352119
-0.00325838 -0.0519161 0.127149
-0.0686913 0.0685056 0.0388965
0.301676 -0.0303122 0.262112
0.0494848 0.00617204 0.360517
0.0248387 -0.00781027 0.0718407
0.0537124 -0.00588035 0.323873
-0.0110041 0.0317743 0.108152
0.0613255 -0.02437 0.497072
-0.00778032 0.0377211 0.0468018
-0.433045 -0.0506811 0.184642
0.417309 -0.0339353 0.199799
-0.0431432 -0.078297 0.598956
0.128363 -0.0713455 0.357199
-0.258126 -0.0103259 0.282419
-0.316419 -0.0746754 0.332521
-0.283048 -0.016477 0.23298
-0.0766393 0.00292357 0.428868
-0.388758 -0.0490445 0.280554
0.00855989 0.0274724 0.402448
-0.0419616 -0.0321089 0.161588
-0.44231 -0.0383029 0.148489
-0.0540301 -0.0534102 0.411635
0.0552845 -0.0123683 0.319301
-0.310368 -0.0229638 0.186399
0.285095 -0.0738446 0.350073
0.394081 -0.0464439 0.24274
0.0314702 0.0182401 0.309923
-0.286643 -0.0810082 0.34747
-0.166215 -0.0104869 0.359584
-0.40216 -0.0304957 0.229177
0.0666825 0.0169782 0.440888
0.417833 -0.0486576 0.257943
-0.304407 -0.09997 0.32826
-0.081731 0.014095 0.36881
-0.138265 -0.00945655 0.365826
0.0198141 -0.0878885 0.327206
0.117402 -0.0476695 0.431859
-0.0536368 -0.00675038 0.366217
0.0441423 0.0024327 0.396167
0.156424 -0.00895306 0.356044
-0.0538717 -0.0565535 0.437883
0.350298 -0.0378179 0.241205
0.0455734 -0.0396705 0.22109
-0.0086043 -0.035991 0.700029
-0.0213027 0.0783388 0.0735953
-0.00387645 -0.0296501 0.0515106
0.041813 0.00729857 0.404748
0.0605172 -0.0160607 0.501014
-0.0126303 0.0279783 0.578746
-0.00854157 0.0559629 0.0542852
0.0548515 -0.00423148 0.527202
0.0415316 -0.0519951 0.236248
-0.0221521 0.0237699 0.449548
0.11764 -0.0343794 0.414614
-0.191233 -0.00259305 0.283556
-0.053017 -0.0049509 0.458179
0.184267 -0.013492 0.389575
0.0622809 -0.0426405 0.576358
-0.354597 -0.0376203 0.178699
0.163908 -0.00977081 0.279195
-0.0186943 -0.0298664 0.0530813
-0.0346631 0.00276832 0.244204
0.0105537 0.11671 0.0658991
0.0837212 0.00133757 0.368915
0.0582487 -0.0486068 0.464072
0.318 -0.0836071 0.341118
-0.0568903 -0.0228536 0.339976
0.0212832 0.0239642 0.449165
0.0516249 -0.0327418 0.240637
0.13258 0.00807098 0.364996
-0.017455 0.0242648 0.476776
-0.00442516 -0.0519338 0.127243
-0.0561583 0.0697186 0.0298776
0.0262439 0.0215223 0.348167
0.045252 -0.0148579 0.621873
0.333454 -0.066183 0.327784
-0.366456 -0.0278072 0.207698
-0.161282 -0.00982619 0.365361
-0.0251607 -0.091362 0.507981
-0.131155 -0.0136164 0.438804
0.312608 -0.109712 0.348772
-0.0353762 0.0744232 0.104628
0.139487 -0.0180273 0.438625
0.0564691 -0.0451284 0.318341
-0.0590479 -0.0300758 0.580569
0.199331 -0.00382027 0.277425
0.301679 -0.0336818 0.238243
0.0220383 0.022324 0.328879
-0.00362204 -0.0949236 0.385838
-0.0276786 -0.0157575 0.0687166
-0.269845 -0.0853143 0.349253
0.0186987 -0.096057 0.517598
0.0405269 0.0114608 0.582376
0.437017 -0.051846 0.216269
0.30633 -0.0306292 0.227519
0.0300526 0.0181004 0.304078
-0.040704 0.0798088 0.0172268
-0.191046 -0.00151284 0.303096
0.1539 0.00509636 0.415236
-0.119315 0.00988188 0.371976
0.248624 -0.0126115 0.227379
0.0459152 -0.0704115 0.377132
-0.344963 -0.0268022 0.311259
-0.0396029 0.0124148 0.481369
0.04875 -0.0672477 0.427946
0.0609813 -0.0285432 0.524626
0.00521633 0.111823 0.00550936
0.00568984 -0.0975355 0.598806
0.135243 -0.0201969 0.405427
0.117114 -0.00336889 0.375217
0.397079 -0.0452264 0.214429
-0.00356931 0.025323 0.595757
0.266203 -0.0122761 0.267059
0.305754 -0.0304897 0.299477
-0.0508169 -0.0131165 0.601535
-0.0550338 0.0172573 0.370914
0.187736 -0.0135648 0.349986
-0.0768746 0.0145357 0.365841
-0.301499 -0.0361401 0.286409
0.134322 0.00505381 0.305839
-0.198759 -0.0147329 0.291925
-0.162965 -0.0101727 0.393581
0.298178 -0.0153888 0.322128
0.314951 -0.0827312 0.356365
0.0725494 0.0121743 0.299634
0.124266 0.00736185 0.330135
0.0607843 0.0178093 0.421031
-0.00912153 0.0883905 0.0529917
0.0462862 -0.00501907 0.269535
-0.401159 -0.0365286 0.150619
-0.317004 -0.0457497 0.351246
-0.131774 -0.0659406 0.438791
-0.00863415 0.043132 0.0606687
0.215962 -0.0181373 0.363429
-0.0343669 -0.000198988 0.622395
0.00877616 0.00850118 0.622657
0.161642 -0.00964342 0.335687
0.0226144 -0.0454784 0.694513
-0.0818333 0.062873 0.0785906
0.0401819 -0.029636 0.641453
-0.0384686 -0.0816933 0.592992
-0.186401 -0.0556099 0.438328
-0.0785038 0.00208042 0.31791
0.00840565 0.0355364 0.0591665
-0.245122 -0.00771904 0.36287
0.0448712 0.00660965 0.491526
0.169903 -0.0110657 0.371445
-0.0543077 -0.050153 0.339093
-0.304639 -0.0795903 0.347084
0.0624471 -0.0360118 0.495898
-0.00282267 0.0288492 0.408488
0.226214 -0.0185842 0.270901
-0.196151 -0.00390382 0.268824
0.278075 -0.0191656 0.200747
0.00432315 -0.0945101 0.621343
-0.00174779 0.0272991 0.469975
-0.246809 -0.0135325 0.367068
0.382367 -0.0428496 0.219489
0.317556 -0.0565729 0.286526
-0.0824594 0.0148745 0.406326
0.426385 -0.0210528 0.244528
-0.119133 0.00770389 0.324749
-0.146595 -0.00749367 0.336662
0.122577 -0.020601 0.351655
0.271544 -0.0264904 0.310374
0.300939 -0.0303872 0.279555
0.0581944 -0.0241263 0.425275
-0.444418 -0.0240596 0.15147
-0.180257 -0.0124562 0.351018
-0.0209784 0.00116359 0.100238
0.0359622 -0.0579624 0.230354
-0.404409 -0.0115371 0.251322
0.054449 0.00551432 0.404464
0.0757549 0.0664387 0.0565018
0.0200814 0.0247075 0.406408
0.0390699 -0.0438677 0.653285
-0.0298387 0.079898 0.045967
-0.44507 -0.015413 0.179863
-0.31532 -0.0402241 0.348714
0.124624 0.00797638 0.344091
-0.0600294 -0.0298029 0.56896
-0.0604799 0.00473617 0.414378
0.422873 -0.0506222 0.246838
-0.00760954 0.0221593 0.173323
-0.358592 -0.0241915 0.24318
-0.27974 -0.0123853 0.291119
0.211551 -0.0166574 0.307475
0.273059 -0.0121835 0.280762
0.447979 -0.0157779 0.194441
0.258733 -0.0119887 0.258071
0.145996 -0.00752057 0.377346
-0.313464 -0.0178241 0.2632
-0.0500643 0.0192579 0.432828
-0.109147 0.0112261 0.414694
-0.364065 -0.028877 0.191141
-0.0600752 -0.0253133 0.456829
0.256788 -0.0242508 0.318816
-0.0260486 0.0232756 0.411423
0.0574129 -0.0170843 0.558543
-0.0249272 0.00160826 0.139908
0.012581 0.0214782 0.147381
-0.167081 0.00257942 0.329825
0.0269662 -0.0321286 0.102353
0.352833 -0.0380106 0.22481
0.0246486 -0.0917342 0.596687
-0.325903 -0.0339043 0.242024
-0.179996 -0.0121067 0.300673
0.0121204 0.105345 0.0868105
0.379579 -0.0317874 0.176047
-0.204971 -0.00322365 0.3003
-0.0639126 0.016262 0.371662
-0.311586 -0.0633354 0.348794
-0.199916 -0.0124188 0.394065
-0.303665 -0.0301383 0.220088
-0.409719 -0.0173107 0.237623
-0.349735 -0.0375826 0.231065
-0.231559 -0.00836197 0.264333
-0.0534837 -0.0274347 0.256332
0.118673 0.00990278 0.425888
0.199114 -0.00116758 0.325941
0.0455468 0.00346305 0.335262
-0.253951 -0.0237613 0.364189
0.229284 -0.00896266 0.248747
-0.0442515 0.00479407 0.459931
0.108025 -0.00196577 0.286933
0.407899 -0.0470819 0.218408
-0.0249013 -0.0915505 0.477813
-0.412842 -0.0473385 0.268836
-0.0341666 0.0793539 0.0524721
-0.0213288 -0.0308793 0.0696449
0.223047 -0.00936624 0.228445
0.0153752 -0.0198891 0.0515106
-0.206305 -0.0048325 0.388771
0.0860659 0.0776874 0.0420241
0.414441 -0.047482 0.18147
-0.109604 -0.0598847 0.373964
0.27628 -0.0206528 0.350917
0.315142 -0.0318342 0.272621
0.137274 -0.0366678 0.341964
0.0277271 -0.0894975 0.567461
0.233825 -0.0202569 0.319488
-0.142442 -0.0654033 0.351631
0.0562707 -0.0189686 0.330049
0.0195157 -0.0862348 0.63405
0.314813 -0.102579 0.351293
0.059411 -0.0281739 0.439648
0.0168879 -0.0840759 0.291627
0.282197 -0.0274325 0.283018
-0.05575 -0.0066478 0.491561
-0.364058 -0.0312277 0.162423
-0.166851 -0.0486588 0.438748
-0.0326841 0.0166925 0.591581
0.0239859 0.0231293 0.465334
-0.14521 -0.00728689 0.332886
0.308486 -0.0167952 0.306424
0.0337019 0.0198383 0.517606
-0.12075 -0.00388699 0.371343
-0.0291272 0.0217933 0.390498
-0.135452 -0.0549794 0.439422
-8.91548e-05 0.0302999 0.535907
0.312507 -0.101857 0.348774
-0.054882 -0.00801871 0.331539
-0.136804 -0.00595531 0.280883
-0.0100562 -0.0971274 0.605572
-0.0359267 -0.0223127 0.63763
-0.00130418 0.0292136 0.380308
-0.0126766 -0.0613224 0.17812
-0.0432821 0.00502624 0.354766
-0.436827 -0.0502717 0.135474
-0.189187 -0.00913372 0.241842
0.0481838 -0.0665296 0.402525
-0.375764 -0.0414649 0.203364
0.287846 -0.0797356 0.316055
-0.137645 -0.0507359 0.419806
0.0253094 0.0815511 0.0188192
-0.428863 -0.0488403 0.129943
-0.0112686 0.0974236 0.0819364
0.0154393 -0.0614275 0.693535
-0.0271982 -0.0884694 0.400114
-0.278386 -0.0153211 0.242308
-0.140841 0.00192878 0.438596
0.194373 -0.00284946 0.285846
-0.0279303 0.0176652 0.603143
-0.358333 -0.0828252 0.345931
-0.0629069 -0.0354907 0.53885
-0.0252166 0.0231898 0.441612
0.126692 -0.0046743 0.345552
0.117084 -0.0700395 0.395177
0.285834 -0.0161032 0.243421
-0.0279716 -0.0496527 0.684051
0.0541058 -0.0550853 0.428357
-0.0753987 0.0158092 0.429434
-0.209251 -0.0163635 0.313056
-0.285138 -0.0271765 0.212872
-0.139415 -0.0744642 0.393631
-0.377985 -0.0274886 0.287282
-0.14894 -0.0693684 0.409647
0.172809 0.00260936 0.371847
-0.0527688 -0.00475361 0.307319
0.145188 0.00635759 0.385352
0.30747 -0.0305275 0.202215
-0.0553789 -0.00627486 0.513246
0.0112636 -0.097344 0.414644
-0.349301 -0.0230034 0.245752
-0.0423549 0.00357398 0.603507
0.161426 -0.00598083 0.414774
-0.0103295 0.0160742 0.107404
0.31266 -0.0644849 0.35134
-0.118774 0.000500026 0.273748
-0.212957 -0.0169567 0.324675
-0.172217 -0.00200802 0.252884
-0.0116136 0.0815132 0.0911105
0.326241 -0.0191898 0.263869
-0.351189 -0.0232668 0.290993
0.0194615 0.026625 0.573657
0.0278671 0.000344562 0.155749
0.00166114 -0.0620287 0.70382
-0.38185 -0.0442218 0.246916
-0.0516404 0.00586358 0.362635
-0.05798 -0.0423915 0.338224
-0.320497 -0.0187223 0.319008
-0.316707 -0.0181373 0.317782
0.315352 -0.0454201 0.278697
-0.0413606 -0.0769911 0.37224
-0.415269 -0.0069605 0.240435
0.119224 -0.0319932 0.39405
0.146177 -0.0344752 0.383086
0.177817 -0.0117477 0.286791
0.387789 -0.0443802 0.235619
-0.0561673 -0.00862916 0.459395
0.364032 -0.0398161 0.220691
-0.0384369 -0.0274595 0.145566
0.0315831 -0.0228073 0.0951486
-0.329294 -0.0849716 0.346555
0.122643 -0.053115 0.439697
-0.447562 -0.0260569 0.193725
0.0470969 -0.0226138 0.166088
0.0153895 -0.0435579 0.104859
0.0481263 -0.0653894 0.379487
0.0399983 0.0131844 0.510666
-0.17527 -0.000412396 0.290567
-0.093513 0.0125705 0.365078
-0.00219346 -0.0975355 0.566253
-0.408131 -0.0140251 0.242102
0.253549 -0.00890915 0.352016
0.278336 -0.0266126 0.261876
0.0992749 -0.000852068 0.364088
0.294665 -0.014909 0.327768
0.179277 -0.00103102 0.403296
0.0447551 0.00605888 0.481358
0.152556 -0.00768713 0.259894
0.0303342 0.0220126 0.480736
-0.268745 -0.0269896 0.335002
0.0144158 0.0134013 0.169511
0.307413 -0.0407663 0.310894
-0.0344822 -0.0139743 0.124117
0.322173 -0.0339718 0.273336
-0.427237 -0.0118101 0.171164
-0.0219192 0.0229415 0.362653
-0.0420947 -0.0457645 0.217592
-0.0273356 -0.0823373 0.316024
0.398198 -0.0220628 0.263103
-0.00434591 0.0138082 0.617491
0.321072 -0.0776043 0.249971
-0.0353033 -0.083993 0.458457
0.116277 -0.0441155 0.438097
-0.320484 -0.0776935 0.345416
0.314574 -0.0771936 0.34687
0.30015 -0.056699 0.271647
-0.36792 -0.0253389 0.246945
-0.219829 -0.00796577 0.246038
0.111383 -0.0424019 0.411476
-0.278665 -0.0265065 0.246131
0.0326261 -0.0176715 0.0918591
0.124531 -0.0183543 0.388251
-0.109853 -0.0439858 0.352712
-0.28722 -0.0743621 0.310202
-0.354617 -0.0396464 0.261585
0.041435 -0.0795381 0.51852
-0.232302 -0.00751016 0.279225
0.114272 -0.0453734 0.430697
0.290615 -0.0314019 0.334419
0.0392127 -0.00404197 0.219026
-0.151304 0.00555256 0.369442
0.128494 -0.0903096 0.44143
0.394842 -0.0460294 0.236913
0.0445358 0.00173926 0.596983
0.0141636 0.0134243 0.168163
0.300811 -0.0524975 0.279505
-0.118934 -0.0331597 0.35572
0.273043 -0.0126784 0.273161
0.165259 -0.0486483 0.436213
-0.361012 -0.0245263 0.268931
0.0133528 -0.0136678 0.649497
0.321699 -0.0416785 0.348577
0.316257 -0.0577135 0.276708
-0.0510759 -0.0507208 0.29332
-0.134923 0.00207092 0.441292
-0.131974 -0.0753236 0.402825
-0.154764 -0.0076587 0.418956
0.389336 -0.0434407 0.188314
-0.0237888 0.0187339 0.290254
-0.395069 -0.0169638 0.27159
-0.229431 -0.0197652 0.329474
-0.0452588 -0.00968641 0.244674
0.111341 -0.0488257 0.339868
0.396917 -0.0300216 0.220218
-0.139957 -0.0274836 0.395456
-0.255833 -0.0107524 0.271785
0.020006 -0.0951072 0.480144
-0.325634 -0.0196252 0.256152
-0.142374 -0.0166998 0.438563
0.374348 -0.0269436 0.290073
-0.0269977 0.00947249 0.240337
0.206129 -0.00195664 0.371326
0.409049 -0.0371888 0.153284
-0.00458879 -0.0633436 0.188267
-0.0421771 -0.013052 0.623536
0.439806 -0.0365477 0.211931
-0.395134 -0.0294154 0.231295
-0.0599042 0.00512835 0.426323
-0.0581294 0.0051149 0.416647
-0.314174 -0.0855795 0.351307
-0.429639 -0.0494433 0.232393
-0.435747 -0.0476726 0.219346
-0.0548181 -0.022819 0.284704
-0.006841 -0.0975355 0.430057
0.109763 -0.043974 0.35523
-0.0408764 0.00339502 0.279275
-0.114877 0.00788175 0.317014
0.14476 -0.00701692 0.264177
-0.312939 -0.100099 0.28882
0.053788 -0.0303282 0.619929
0.00124136 0.0292287 0.402194
0.437823 -0.0163938 0.134354
-0.168624 -0.0105481 0.311276
0.00452588 0.0622731 0.13171
0.418688 -0.0507123 0.230929
-0.0587381 -0.0298744 0.424318
-0.314569 -0.030903 0.267968
-0.00235162 0.0162283 0.0464636
-0.138837 -0.0677175 0.351194
0.136447 -0.0946945 0.43869
0.0111079 -0.0388098 0.0689497
0.0069477 -0.0975355 0.422062
0.145072 -0.0071233 0.282185
-0.0215205 -0.0938148 0.414638
-0.0930686 0.00527313 0.451031
0.385202 -0.0335479 0.163461
-0.0136825 0.068849 0.0653822
0.23776 -0.00643519 0.333739
-0.0779374 0.0774622 0.0479176
-0.0322807 0.0196367 0.584292
0.00792526 -0.0907286 0.335911
0.0392094 -0.0811551 0.453804
-0.0435471 -0.0780035 0.532987
0.260607 -0.024109 0.288987
0.0808739 0.00258329 0.450025
-0.0152019 0.0756712 0.110582
0.0274306 -0.0822128 0.629126
-0.31128 -0.0226988 0.191321
-0.0453168 -0.0748128 0.500277
-0.0608447 0.00466081 0.413394
0.0162202 -0.0426276 0.103559
-0.0450125 -0.0753768 0.491828
0.0444769 -0.000391338 0.28291
0.302362 -0.0721338 0.341905
0.42818 -0.0290794 0.238814
0.0271757 0.010148 0.244686
-0.332066 -0.0903177 0.316757
-0.0126917 0.0791807 0.0682971
-0.187541 -0.000167455 0.320111
0.0641857 0.0040696 0.309302
0.0112892 0.108405 0.0785418
-0.0182396 -0.0615038 0.193455
0.00953251 -0.0655235 0.199925
0.318907 -0.0419503 0.305634
0.127864 -0.0519777 0.428969
0.0562492 -0.0138011 0.384122
0.27734 -0.0122509 0.321905
0.265128 -0.0267784 0.345675
-0.12436 0.00921292 0.369745
-0.0597444 -0.0480733 0.515995
-0.0612267 -0.0438328 0.471687
0.00979255 0.0682502 0.0712596
-0.124017 -0.00252612 0.435313
-0.0537204 0.0121689 0.301912
0.244713 -0.022633 0.338258
-0.00843974 -0.0975355 0.601443
0.0603214 -0.016955 0.476298
-0.28901 -0.0139407 0.314703
0.300749 -0.0534594 0.278694
0.00880687 0.0232235 0.282632
0.230566 -0.0195592 0.313499
-0.0507007 0.0173572 0.361297
0.312947 -0.0927794 0.351333
0.129361 -0.0539947 0.424334
0.213502 -0.0171643 0.333441
-0.0325424 -0.0586574 0.2228
-0.0589245 -0.0108573 0.480644
-0.231283 -0.00605942 0.302976
-0.044765 0.00463441 0.464019
0.0220065 0.0122043 0.618449
0.247053 -0.0230492 0.338409
0.0566608 -0.0173883 0.383509
-0.0102279 0.0179775 0.103357
0.0142899 0.00734644 0.112317
0.0129098 0.0159045 0.202958
-0.0140475 0.0158219 0.233622
-0.0194094 -0.0955406 0.463975
-0.380617 -0.027843 0.225983
-0.0193894 -0.0955552 0.558281
-0.128118 0.00692375 0.330007
-0.0242822 -0.0520105 0.165477
-0.0831823 0.0103871 0.288925
-0.0159546 0.0253588 0.426574
-0.0896634 0.0138568 0.431089
-0.327547 -0.0338395 0.217861
0.369772 -0.0262611 0.293847
0.005351 -0.0975355 0.591483
0.313747 -0.054846 0.330228
-0.0428427 0.00568885 0.453369
0.0524397 0.0663867 0.0710735
-0.0253381 -0.0042992 0.629992
0.240687 -0.0209221 0.279615
-0.154909 -0.055266 0.393102
-0.184592 -0.013603 0.396253
-0.288707 -0.0900602 0.276512
-0.011 -0.0604036 0.172542
0.0466213 0.0708249 0.020924
0.0536089 -0.0282108 0.256706
-0.359822 -0.0331398 0.302566
0.418141 -0.022478 0.187704
0.0115539 0.102019 0.0829376
0.301395 -0.0333423 0.32905
0.203728 -0.0016337 0.373508
-0.0735372 0.00279658 0.386026
-0.299847 -0.0153318 0.284591
0.325767 -0.0331233 0.185502
-0.265546 -0.0246677 0.266745
-0.376193 -0.0413425 0.192072
0.0427059 0.0202739 0.416556
-0.156669 -0.051986 0.418063
-0.149796 -0.0594446 0.369096
0.00775641 0.0529153 0.0408003
-0.0406808 -0.00729907 0.178242
0.132163 -0.0144929 0.335364
-0.173705 -0.0563723 0.436031
-0.124156 0.00924212 0.37991
0.322841 -0.100978 0.348552
-0.138279 -0.0218242 0.406841
0.442578 -0.0503665 0.157401
-0.121223 0.00930372 0.363939
-0.0547181 0.0686753 0.0441127
-0.250448 -0.0220439 0.231447
0.0738391 0.0791931 0.0302103
0.229739 -0.0192476 0.285639
-0.129472 -0.0720584 0.362735
0.0119173 0.103946 0.0854897
-0.25944 -0.00974556 0.345924
-0.248082 -0.0239771 0.355047
-0.277901 -0.013496 0.269359
-0.0196699 -0.0953514 0.578155
-0.151698 -0.00837692 0.37367
0.0107773 0.109849 0.0713968
-0.117533 0.0100968 0.406039
0.38719 -0.0285997 0.262858
-0.115776 -0.00308926 0.309434
-0.0400784 0.00752731 0.391766
0.213035 -0.00554613 0.385028
0.335735 -0.0348844 0.200667
-0.255478 -0.0252582 0.352469
0.00984239 0.014129 0.0984086
-0.00923285 0.0603272 0.0654923
-0.0910297 0.0070477 0.451635
0.167369 -0.0103235 0.304001
-0.0538349 -0.0601987 0.558253
-0.303321 -0.0812521 0.332911
0.11479 -0.00303266 0.361515
0.0432607 0.019213 0.386246
-0.0182881 -0.0700094 0.235918
-0.0455059 -0.00344912 0.273476
-0.35391 -0.0232509 0.255734
0.031641 -0.00585609 0.628081
0.0174747 0.0128783 0.19848
-0.167924 -0.0104071 0.30471
0.155294 -0.00862675 0.308577
-0.282277 -0.0303461 0.348305
-0.0565625 -0.0230648 0.31172
-0.247819 -0.0222246 0.307426
-0.00754312 0.0651618 0.0324127
0.125884 -0.0324534 0.34684
0.0795138 0.0684647 0.0345294
0.0181521 -0.0921751 0.365906
0.0504612 0.00122887 0.549273
-0.0889024 0.0140271 0.390122
0.0694609 0.0153239 0.36432
0.311576 -0.0173303 0.314012
-0.0515169 -0.0398404 0.262676
0.30298 -0.051986 0.256803
0.315547 -0.0381155 0.277179
0.0258623 0.0230621 0.436744
0.432821 -0.0143902 0.149317
-0.272144 -0.025443 0.239248
0.20276 -0.00518044 0.259819
0.1752 -0.00178646 0.263022
-0.046104 0.0078569 0.524058
-0.402102 -0.0354371 0.163906
0.0388912 -0.0813863 0.532206
-0.373686 -0.0462016 0.286763
0.16649 -0.0581924 0.436186
0.319566 -0.0977087 0.291166
0.204715 -0.00440044 0.278363
0.0114644 0.0607864 0.100846
-0.158786 -0.0480296 0.438921
-0.00799052 -0.0876437 0.305667
0.0594804 -0.0406379 0.417662
-0.139814 -0.0208126 0.390834
0.322176 -0.0325617 0.185129
0.327833 -0.092984 0.296469
-0.292846 -0.0287685 0.248075
-0.00108904 -0.0848213 0.293186
0.144644 0.00127442 0.422279
-0.252779 -0.00885473 0.361265
-0.0568503 -0.0465018 0.402165
0.186525 0.000684544 0.387502
-0.243377 -0.0213165 0.277135
0.187141 0.000702475 0.350143
-0.00508692 0.0263204 0.297695
-0.00448723 0.0416896 0.146329
-0.316597 -0.0963525 0.274467
-0.0542626 -0.0169223 0.588432
0.116772 -0.0681091 0.420823
-0.00414175 0.0184681 0.196169
0.0175385 0.0247994 0.433153
0.179384 -0.00242646 0.260314
-0.0106244 -0.080148 0.27252
0.195241 -0.00106908 0.319359
0.318056 -0.0338244 0.283082
0.443965 -0.0265148 0.149848
0.00634159 0.0293429 0.569931
0.211316 -0.0161883 0.233855
-0.0263537 -0.0904953 0.444315
0.152673 -0.00850442 0.377047
-0.410138 -0.0149482 0.237234
-0.326501 -0.0782863 0.262935
-0.0738454 0.0160478 0.406624
-0.0269101 0.065683 0.097498
0.116464 -0.00325125 0.380979
-0.0291886 -0.0180407 0.637303
-0.32258 -0.024843 0.180883
-0.362237 -0.0392754 0.206634
0.0898161 0.0113021 0.327466
0.054506 0.0186765 0.410272
-0.0996349 -0.000880784 0.354206
-0.115343 0.00800926 0.436861
0.326716 -0.071786 0.346904
0.00766399 0.0276874 0.39287
0.0467635 -0.0721316 0.497845
-0.329554 -0.0824141 0.282983
0.415445 -0.00749867 0.260284
-0.0563817 0.0183714 0.452886
-0.0755611 0.0157542 0.452421
-0.0403537 0.0050663 0.282876
0.146056 -0.0487473 0.427832
-0.380024 -0.042231 0.206293
-0.382017 -0.0431425 0.235686
0.0545015 -0.00975172 0.555637
0.317369 -0.0768452 0.329336
-0.0164131 -0.0975355 0.432219
0.016723 -0.0279983 0.681275
-0.299569 -0.0577536 0.320203
-0.00794467 0.123991 0.0779125
0.0426326 -0.0729081 0.314846
0.364318 -0.0249526 0.260813
0.025453 -0.0911497 0.573832
0.0728151 0.013841 0.340351
-0.136845 -0.0358964 0.343006
-0.0482032 -0.0514698 0.277932
-0.0259875 -0.0907614 0.514363
0.433307 -0.0256126 0.22848
-0.325206 -0.0593895 0.306484
-0.00994818 -0.0758693 0.253599
-0.267237 -0.0247388 0.245104
-0.0664526 0.0165198 0.385801
-0.320538 -0.0945858 0.278802
-0.144807 -0.00711863 0.296892
0.252153 -0.0106651 0.266527
-0.077737 0.0151686 0.384537
-0.122191 -0.030897 0.356831
-0.279229 -0.0124211 0.306746
0.286033 -0.0806878 0.286127
0.0812833 0.0149923 0.436078
0.2996 -0.0293615 0.205971
-0.131942 0.00532764 0.305792
0.416338 -0.0283257 0.173036
0.369161 -0.0412011 0.244046
0.0434362 0.00828071 0.583276
-0.324091 -0.0591953 0.299935
0.117108 0.0100397 0.369489
-0.00945371 -0.0532012 0.705997
-0.385171 -0.0425267 0.172655
-0.257707 -0.0230396 0.220098
-0.0406239 -0.0669804 0.625082
0.146511 -0.0672119 0.375087
0.0991244 -0.000349061 0.435581
0.00816068 -0.0487535 0.708405
0.274767 -0.0257049 0.225489
0.194488 -0.0141797 0.301081
-0.0574457 -0.0194207 0.420692
-0.299212 -0.0323795 0.32068
0.058629 -0.023804 0.566567
0.302918 -0.045254 0.300017
-0.0528548 -0.0072978 0.561407
-0.075076 0.0723099 0.0794069
-0.0198567 0.0683121 0.0682471
-0.348069 -0.0377459 0.255044
-0.0576168 -0.0175563 0.558578
-0.117469 -0.0592637 0.439808
-0.124576 -0.0711672 0.357077
0.366824 -0.0404645 0.233852
0.347407 -0.0232181 0.240205
-0.132215 -0.0162949 0.337109
0.00737845 0.0187241 0.235492
-0.0603135 -0.038928 0.436101
-0.331347 -0.084617 0.29495
-0.0754906 0.0648066 0.069922
0.132164 -0.0103574 0.438782
-0.0686296 0.00417756 0.443916
-0.056743 -0.0198031 0.575446
-0.389835 -0.0379077 0.284261
-0.056645 -0.0213577 0.335294
-0.0476647 -0.0703623 0.481445
-0.322471 -0.0230688 0.204066
0.0253369 -0.0299206 0.0868122
-0.00339914 0.0285054 0.346665
-0.0559049 -0.0461455 0.310688
0.253748 -0.022648 0.24323
0.26998 -0.025535 0.284092
0.110066 0.0683066 0.0531121
-0.355725 -0.0422107 0.28851
-0.028171 0.0660455 0.0929033
-0.0658504 0.0045747 0.441566
0.322425 -0.0915256 0.34916
-0.426695 -0.0491733 0.16342
-0.189696 -0.0140119 0.364268
0.329431 -0.0749147 0.279816
0.4155 -0.0256984 0.156359
0.0603429 -0.0172045 0.476236
-0.169579 -0.0112157 0.407428
0.0470086 -0.017963 0.200138
0.0210521 -0.0767989 0.657197
0.0502444 -0.0622004 0.411065
0.211127 -0.0175255 0.376199
0.00771599 0.0239793 0.16995
-0.333052 -0.0234794 0.215464
0.364045 -0.0359396 0.161693
0.00695321 -0.0923347 0.633564
0.00354533 -0.0975355 0.419462
0.345121 -0.022273 0.288882
0.0523173 -0.00716741 0.294596
0.206664 -0.0158827 0.295211
-0.0342625 -0.000853694 0.187668
0.0445284 -0.0452621 0.233825
-0.319105 -0.0320771 0.184513
-0.0137345 0.0249179 0.477968
0.123168 0.00930275 0.417875
-0.0163245 0.0147414 0.222125
0.330947 -0.0669034 0.339259
-0.0117536 -0.0410345 0.0814062
-0.396236 -0.0196525 0.268232
-0.137489 -0.0469449 0.435095
-0.141354 -0.0960647 0.441154
0.242691 -0.00854678 0.282044
0.215723 -0.0174444 0.330231
-0.28594 -0.0732537 0.266964
0.0981783 0.0649783 0.0538503
0.00310522 0.121139 0.00141163
-0.0294169 0.0224214 0.501299
-0.124029 -0.0253022 0.38379
0.0525083 0.00570526 0.323265
0.362457 -0.0398177 0.23956
0.136916 -0.0505215 0.447947
-0.213491 -0.00284074 0.329066
-0.108827 -0.0521071 0.35027
-0.116062 -0.00313008 0.30998
0.128524 -0.0505709 0.437842
-0.424604 -0.0495547 0.200054
-0.0155094 0.0698453 0.0500874
0.0564306 -0.0518578 0.462429
-0.281825 -0.0265736 0.204349
-0.353338 -0.0415748 0.287754
0.01005 0.101462 0.0630026
0.127405 -0.0893771 0.440706
0.0288318 0.0224853 0.406683
-0.103648 0.00766354 0.283546
0.26833 -0.0277327 0.352661
0.047569 -0.00849356 0.261888
-0.08928 0.000574452 0.386331
0.393697 -0.0259339 0.282252
0.182154 -0.00056921 0.401504
0.0372576 0.0652663 0.0942522
0.382404 -0.0281004 0.225105
0.196199 -0.015294 0.384196
-0.315996 -0.0411514 0.351268
-0.392312 -0.0186098 0.277563
-0.0399754 -0.0274491 0.14958
0.289103 -0.0282889 0.259379
-0.134395 -0.038986 0.43064
0.0215009 -0.0940211 0.486091
0.356112 -0.0241116 0.295956
0.43828 -0.0505079 0.135329
0.140443 -0.0235417 0.40021
-0.0454945 0.00252114 0.356718
-0.0226459 0.0111882 0.232469
-0.292921 -0.0934527 0.28012
0.116686 -0.069613 0.382361
-0.0860378 0.00103203 0.31186
-0.383582 -0.0419946 0.158728
-0.299116 -0.0409436 0.262111
0.149066 -0.0370891 0.380598
-0.0475741 -0.0703383 0.590254
0.135444 -0.00591786 0.390042
0.0165462 -0.0204244 0.662878
0.017452 0.00238703 0.0848648
-0.0602047 -0.0132441 0.510461
0.107891 -0.0492299 0.353507
-0.00981447 0.104126 0.05864
-0.0364381 -0.0647519 0.262586
0.441663 -0.0141404 0.162376
0.380069 -0.0367099 0.15336
0.271249 -0.0112295 0.306247
0.112266 -0.00260645 0.311415
0.125585 -0.0622624 0.426693
-0.0480291 -0.0668726 0.612002
-0.353747 -0.0272592 0.196979
-0.253393 -0.0225249 0.234449
-0.0130083 -0.061735 0.180958
-0.0327472 -0.0858501 0.448462
0.0310339 -0.0509234 0.677673
0.20458 -0.0164673 0.375347
0.266659 -0.0127812 0.26015
-0.318469 -0.0228633 0.200472
0.0141986 0.0247366 0.31791
0.31847 -0.0681932 0.331104
0.0467142 -0.0695755 0.395682
-0.351732 -0.0407023 0.283075
-0.144153 0.00492031 0.325344
0.312777 -0.0318423 0.242817
-0.236044 -0.00618267 0.334117
-0.140996 -0.0708158 0.441162
0.0606157 -0.0178681 0.485743
-0.312333 -0.0452554 0.25862
0.107993 -0.0512199 0.409079
-0.00121346 0.0292354 0.385359
0.0241985 -0.00439762 0.0759904
0.313993 -0.081757 0.357702
0.0434923 0.0120279 0.557651
-0.0210343 0.0696318 0.049831
-0.155404 -0.0528421 0.436424
-0.128512 -0.0596955 0.438926
-0.0538267 -0.0507182 0.319185
-0.0982106 -0.000650442 0.340898
-0.0564524 -0.015831 0.381544
0.415303 -0.0467731 0.137578
-0.0594696 -0.0340826 0.429696
0.0556326 -0.0124445 0.555862
-0.316403 -0.0902459 0.338117
0.354116 -0.0375574 0.179834
-0.0186243 0.0808466 0.0356733
-0.0538531 -0.0565922 0.436139
-0.32051 -0.082581 0.330867
-0.441336 -0.0501298 0.141968
0.286416 -0.0185934 0.34492
0.0460721 0.00667507 0.38688
0.0973573 -0.000538641 0.311862
-0.0548284 0.0675554 0.0967685
0.382611 -0.0430116 0.228178
-0.108781 -0.0577144 0.379679
0.315495 -0.080789 0.240255
-0.0302169 -0.0759869 0.291919
-0.280693 -0.0866081 0.350167
-0.245421 -0.0107681 0.367401
0.155785 -0.056644 0.408529
-0.301551 -0.0737275 0.34715
0.0482158 -0.0666856 0.406694
-0.00623853 0.0276524 0.343258
-0.294217 -0.0946573 0.286123
0.385025 -0.0431747 0.212011
-0.344177 -0.0222133 0.296153
-0.256802 -0.0208329 0.362118
0.0085621 -0.00486253 0.636033
0.312072 -0.0230086 0.349388
0.154356 -0.060007 0.420795
-0.195157 -0.0152647 0.392595
0.271029 -0.0166954 0.207536
0.00935095 0.0215098 0.269467
0.119825 -0.00359379 0.28257
0.297272 -0.0206288 0.196523
0.0516681 -0.0274723 0.242228
0.0143962 -0.0239714 0.67672
0.0676772 0.0157101 0.368646
-0.0374268 0.0209417 0.471558
0.0904368 0.000420549 0.318419
-0.0441575 -0.0169697 0.165367
-0.0401294 0.00676506 0.390332
-0.00931038 -0.0920137 0.634237
0.248693 -0.0223523 0.305997
0.0565286 -0.0453028 0.331636
-0.0284793 0.0227147 0.510694
-0.115778 0.0063316 0.28636
0.0474626 -0.0562193 0.287176
-0.0129944 0.039181 0.135889
-0.00399129 0.0527681 0.0304805
-0.398899 -0.0302669 0.248972
-0.019412 0.026603 0.569668
-0.0627325 0.0772326 0.057088
0.0577402 0.00499619 0.337079
0.386329 -0.0431017 0.197027
0.0597086 -0.0230183 0.53796
-0.438597 -0.0397274 0.214145
0.0289173 -0.0828486 0.623922
0.0606189 -0.0258554 0.465483
0.315271 -0.0697993 0.242807
0.0993044 0.0125453 0.427992
0.12402 -0.0093529 0.377796
-0.131853 -0.0140598 0.441358
-0.0114205 0.0361379 0.148759
0.00726071 -0.0700704 0.224243
-0.0151203 -0.0322189 0.0519525
0.0311276 -0.0387695 0.142427
0.329654 -0.0938311 0.326469
-0.168719 -0.0110384 0.390804
0.0585515 -0.021189 0.559661
-0.307585 -0.0346425 0.349377
0.0787686 0.00207859 0.343372
-0.252568 -0.0128551 0.23113
0.369401 -0.0297726 0.187343
0.387324 -0.0284365 0.248958
-0.154779 -0.0588334 0.40619
-0.113123 -0.00262589 0.406159
-0.0790105 0.0110441 0.457163
-0.333224 -0.0254443 0.18972
-0.291592 -0.0622728 0.307286
-0.287641 -0.0862276 0.284604
0.0701637 0.0800893 0.0186476
0.320979 -0.0349841 0.351162
0.0562714 -0.0108316 0.411909
-0.139656 -0.00657339 0.399754
0.0756412 0.0784176 0.040883
-0.116807 -0.0376149 0.343321
0.0290286 -0.0562054 0.19636
0.0110624 0.0427529 0.1034
-0.389339 -0.0288516 0.256652
0.297024 -0.0294614 0.251017
-0.362067 -0.041983 0.272041
-0.0612929 -0.0239619 0.511096
0.0253694 0.00642951 0.197887
0.37425 -0.0466633 0.290824
0.00807704 0.124073 0.0220098
-0.439132 -0.0425083 0.128119
0.0243961 -0.0919176 0.599794
-0.198567 -0.0146507 0.277369
-0.164147 -0.0103467 0.412675
-0.0588321 0.0176055 0.391099
-0.0105648 0.114898 0.0666245
-0.406658 -0.0436923 0.274019
-0.123704 -0.0713286 0.358735
0.0132263 -0.0874773 0.304931
-0.306373 -0.0306442 0.228328
0.171493 -0.00304382 0.248334
0.310419 -0.090092 0.3399
0.163654 0.00391179 0.351453
-0.0456288 0.0186341 0.3784
0.109687 -0.0451819 0.402266
0.229918 -0.0196928 0.322433
0.179462 -0.0124949 0.366641
0.298284 -0.0351464 0.253548
0.302988 -0.0305715 0.267164
0.123723 -0.00455634 0.371874
-0.0449628 0.0689384 0.0462681
-0.293451 -0.0905788 0.2549
-0.312475 -0.0284642 0.351344
0.109741 -0.0446768 0.352162
-0.00400527 0.127736 0.0246577
0.104296 0.0118669 0.426135
-0.106704 0.0115343 0.427962
-0.0509181 -0.000337868 0.506381
-0.0482497 -0.0184828 0.242395
0.0442277 0.00241274 0.394967
-0.123447 -0.0286993 0.370765
0.0575143 0.0153636 0.332363
0.319606 -0.033206 0.266859
-0.0757266 0.0794462 0.0253192
0.145217 -0.0601239 0.348227
-0.11146 -0.00231565 0.40937
-0.0361871 -0.0833509 0.449463
-0.22477 -0.00475861 0.377941
0.191435 -0.00322435 0.27113
-0.337009 -0.0385207 0.295857
0.0437713 -0.00108813 0.609136
-0.126938 -0.00349724 0.433945
0.07058 0.0659568 0.0627017
-0.0619478 -0.031308 0.483989
0.0794498 0.0681599 0.0380867
0.438131 -0.0361598 0.126792
0.0511373 0.00587861 0.310591
0.0635294 -0.0429584 0.541802
-0.0575476 -0.0442636 0.372643
-0.166023 0.00342395 0.345296
0.307176 -0.0375221 0.35127
-0.152589 -0.0620807 0.394916
-0.115644 0.00616789 0.282534
-0.286344 -0.074951 0.304206
0.0449821 -0.075589 0.556369
-0.334091 -0.0745432 0.306829
0.0993411 0.0118932 0.365046
-0.0446441 -0.0761766 0.567007
-0.210362 -0.00639146 0.254043
0.439469 -0.0510589 0.151693
0.276807 -0.0127994 0.278055
-0.0609117 -0.0286214 0.536392
0.0322532 0.0217393 0.431308
0.127289 -0.0738318 0.42775
0.0563205 0.0184137 0.424603
0.0472634 0.000932493 0.339895
0.134828 -0.0278341 0.348037
-0.00841626 -0.0975355 0.58099
0.331144 -0.034985 0.26171
-0.415577 -0.0354295 0.181069
0.0441915 -0.0738497 0.366676
0.0126264 0.022917 0.291744
-0.371834 -0.0410011 0.213212
-0.224366 -0.0191779 0.344064
0.0513474 0.00590821 0.361131
0.0290153 -0.0838352 0.352264
-0.289219 -0.0776936 0.243501
-0.0565926 0.0166909 0.361657
-0.246572 -0.0218525 0.280881
0.0417333 0.0109415 0.504375
0.289147 -0.0833147 0.251652
0.362741 -0.0287286 0.191108
-0.0818186 0.00162242 0.381976
-0.361313 -0.0385384 0.168291
-0.0102572 0.0163461 0.184778
-0.18885 -0.00222134 0.285585
-0.0462927 -0.00365473 0.276923
-0.0117309 0.0809022 0.0398627
0.0393805 0.0690951 0.047103
-0.346808 -0.077628 0.346179
0.029618 0.0180759 0.302533
0.0261924 0.0111883 0.617978
-0.0513962 -0.0629727 0.596471
0.325128 -0.0780885 0.25832
-0.139363 -0.0188539 0.384108
-0.0115093 0.0253414 0.467868
0.00448763 -0.0975355 0.486224
0.0275056 0.0750064 0.105829
0.357981 -0.0325553 0.303701
-0.0372385 0.0174083 0.565379
-0.121633 -0.00464213 0.331084
0.412129 -0.03354 0.198049
0.0561043 -0.0469612 0.357983
0.212046 -0.00320834 0.314656
0.128701 -0.0501713 0.438788
-0.063304 -0.0396075 0.562082
-0.0547709 0.0158738 0.337023
-0.158133 -0.00901388 0.304757
-0.0621802 -0.0330106 0.506307
-0.00447433 -0.0602292 0.17161
-0.221363 -0.0180407 0.301937
0.108358 0.00820284 0.307106
-0.291913 -0.0198717 0.198055
0.0308522 -0.00443981 0.132067
0.0288202 -0.05434 0.186674
0.2921 -0.0613038 0.297745
0.0679857 0.0789647 0.0364501
-0.0382985 0.00753504 0.409801
0.125871 -0.0751928 0.416384
0.412144 -0.0468841 0.169832
-0.0404301 -0.0631775 0.266459
0.323143 -0.103727 0.348546
-0.00579688 0.0295355 0.538486
-0.348067 -0.0375399 0.247868
-0.0124729 -0.0962914 0.402117
-0.124776 -0.0276328 0.348919
0.00535098 0.122495 0.000815142
0.112817 -0.0650722 0.366315
-0.00644989 0.0275889 0.361441
-0.084066 0.0128332 0.347361
-0.0389458 -0.0813466 0.447083
0.0292929 0.0797594 0.0491502
0.28567 -0.0825361 0.347491
-0.349138 -0.029709 0.308915
0.118783 -0.00349842 0.305683
-0.145003 -0.00724837 0.329034
0.043236 0.0802355 0.0313779
0.149654 0.00569891 0.404738
0.328413 -0.0199342 0.315036
0.0583138 -0.021735 0.563895
0.332632 -0.070497 0.304844
0.117582 -0.0684445 0.361978
0.345502 -0.0225303 0.304804
-0.03429 -0.0547772 0.659881
0.0669283 0.0638391 0.082156
0.00823059 -0.0965273 0.609008
0.0727576 0.0148159 0.361645
-0.192209 -0.0147143 0.387249
0.213366 -0.00396959 0.303707
0.0335545 -0.0318762 0.138363
0.14366 -0.0725444 0.419775
-0.108027 -0.0535439 0.367918
-0.382403 -0.0276735 0.250008
-0.153168 -0.0606838 0.395701
0.444629 -0.037689 0.176266
-0.0103282 0.0119176 0.111283
0.405 -0.0136265 0.249441
0.00842819 -0.0975355 0.552009
0.0904677 0.0011407 0.447615
0.0120178 0.0704699 0.0428231
0.0341453 0.0195118 0.486281
-0.0217409 0.025791 0.537187
0.244986 -0.0211813 0.228812
-0.0048244 -0.0531754 0.133884
0.0414754 -0.0743564 0.328223
0.422921 -0.0139855 0.14187
0.315187 -0.0848412 0.343161
0.00558757 0.0949306 0.01294
0.402446 -0.0306766 0.238536
0.0606774 -0.027462 0.554908
-0.202463 -0.00141625 0.35803
-0.353945 -0.0272393 0.19754
0.0323152 0.0211025 0.528901
0.00199913 -0.0924811 0.634234
0.0147284 0.0251018 0.333416
-0.0373996 0.000884433 0.249896
0.239848 -0.0215104 0.325364
0.182497 -0.0132705 0.392891
0.377158 -0.0383962 0.15524
0.0570894 -0.0157175 0.421202
-0.291239 -0.0663061 0.320533
-0.000917998 -0.0506183 0.120208
-0.290039 -0.0163184 0.246817
-0.122936 0.00587359 0.294996
0.376798 -0.0269356 0.262001
-0.00606063 0.0277058 0.355659
0.0455591 -0.0562589 0.275655
-0.226165 -0.00490532 0.366521
-0.0293595 -0.0302409 0.111084
-0.158661 -0.00905967 0.291861
-0.110043 0.0656491 0.0598079
0.0483992 -0.00605203 0.594246
-0.0343461 -0.00188993 0.17673
-0.064588 0.0700878 0.0224184
-0.147582 -0.0414299 0.358481
-0.301335 -0.0568676 0.324656
0.018874 0.0225694 0.307964
0.243289 -0.00711625 0.310978
0.252288 -0.0244828 0.348527
0.0574358 -0.0216456 0.412344
-0.360474 -0.0398548 0.249348
-0.150911 0.00213938 0.284759
0.116071 0.00818744 0.327482
0.309062 -0.0665402 0.332222
0.0218893 0.0123852 0.2371
0.0596106 0.0144029 0.314133
0.30136 -0.0566345 0.321653
0.136765 -0.0555448 0.446187
0.0386158 0.0701881 0.0329418
-0.0600661 -0.047369 0.50099
0.33877 -0.0362917 0.315366
0.11406 -0.00287454 0.336689
0.251387 -0.00848534 0.337923
-0.440047 -0.0521251 0.197696
0.0258958 0.0686873 0.0603988
-0.431458 -0.0317824 0.231089
0.0091434 -0.0975355 0.470819
-0.059198 -0.0297545 0.577964
0.170092 -0.0107373 0.307996
0.10554 0.00755568 0.286109
-0.314167 -0.0346517 0.266802
0.411547 -0.0465041 0.270954
0.357898 -0.0404136 0.262568
0.335322 -0.0808102 0.337646
0.422685 -0.012205 0.161436
-0.428833 -0.01273 0.162884
-0.306559 -0.0311956 0.272814
0.328331 -0.0358973 0.285347
0.437539 -0.0106097 0.195555
-0.315527 -0.0992997 0.285628
0.405734 -0.0204678 0.246065
0.340566 -0.0378486 0.277948
-0.00726872 0.0969296 0.0160444
0.0167742 0.0182932 0.610754
0.420523 -0.048651 0.188982
0.440741 -0.0434595 0.135786
-0.0503881 -0.00146966 0.561146
0.33216 -0.0200156 0.268654
-0.00381759 -0.0625508 0.703252
-0.328055 -0.0337559 0.204958
-0.00154626 -0.0954543 0.616051
0.0193794 0.0185023 0.608884
0.36155 -0.0390065 0.196378
-0.0631931 -0.0386189 0.529008
-0.359576 -0.028251 0.192652
-0.0391247 -0.0555488 0.640033
0.0774392 0.00301261 0.447646
0.376223 -0.0418443 0.220696
-0.302979 -0.099189 0.283193
-0.0304623 -0.0474566 0.162823
0.0105653 0.0228366 0.284725
-0.291936 -0.0926369 0.306316
0.319508 -0.0515417 0.312451
0.139409 -0.0485278 0.439212
-0.166851 0.00239843 0.325427
-0.0229011 0.0695914 0.0492626
0.126885 -0.0436211 0.421662
0.0117975 0.0618051 0.105035
-0.0331705 0.00487816 0.24693
0.00291225 -0.0834681 0.287202
-0.0554586 0.0644454 0.0867704
0.0122773 0.0163534 0.219584
-0.0556513 0.00527054 0.325192
-0.150281 -0.0458747 0.366676
0.138627 -0.0876658 0.438644
-0.299301 -0.0867235 0.343029
-0.00100093 -0.0565681 0.152028
-0.31234 -0.0679588 0.351347
-0.0064014 0.128781 0.0702335
0.0577472 0.00591486 0.450406
0.110009 -0.0603837 0.39921
-0.276831 -0.0778037 0.34768
-0.00924547 0.110653 0.0480837
0.0108321 0.0196453 0.115217
0.018823 0.0266881 0.566103
0.355247 -0.0419082 0.286717
-0.151358 -0.00823179 0.358495
0.359047 -0.0258742 0.221467
0.00156727 -0.0305414 0.695403
-0.32478 -0.0970405 0.32881
-0.0100688 0.104456 0.0623637
0.324414 -0.0332567 0.209501
-0.222 -0.0179819 0.277649
0.117301 0.00670192 0.298145
-0.0520111 -0.0357321 0.252883
-0.0110848 -0.0146519 0.656523
0.076796 0.0122417 0.31197
-0.160184 0.00434943 0.364147
-0.0402838 -0.0480922 0.212675
0.424411 -0.0482393 0.136028
0.290814 -0.0282356 0.230053
0.0933625 0.0648124 0.0584638
0.409595 -0.0377094 0.272493
-0.28941 -0.0284013 0.265646
0.19681 -0.00365676 0.274682
-0.0268434 -0.00098294 0.129918
0.01209 -0.0975355 0.513133
0.00826247 -0.0975355 0.594607
0.0182775 -0.096363 0.42126
0.140177 -0.00656214 0.424295
0.112427 -0.0372374 0.363062
-0.0238966 -0.0922805 0.471152
0.299864 -0.0559554 0.268565
0.0817886 -0.0525592 0.438005
-0.148514 0.00593755 0.367552
0.0354081 0.0107893 0.600857
0.048436 -0.0627552 0.335492
-0.288603 -0.0145386 0.271546
-0.0127173 -0.0933304 0.366877
-0.00874984 -0.0975355 0.444755
-0.011943 0.0436818 0.116781
0.334635 -0.0344742 0.183899
0.0504923 -0.0636097 0.465636
0.287194 -0.076277 0.253725
-0.0124222 0.0449524 0.123298
0.307675 -0.0986231 0.275364
-0.324853 -0.0330129 0.187681
-0.211889 -0.0168124 0.326986
-0.304629 -0.083765 0.349653
-0.18998 -0.0134558 0.284202
0.131937 -0.0548927 0.447085
0.140366 -0.03103 0.376634
0.0201679 -0.0949896 0.537104
0.302409 -0.0545196 0.302301
0.254747 -0.0235183 0.309622
0.0190734 0.0249494 0.406247
-0.227919 -0.00491727 0.32263
0.025063 0.0244758 0.526332
0.0143181 0.0173962 0.249578
0.153101 -0.00842275 0.336033
0.303881 -0.0772936 0.349669
-0.325345 -0.075711 0.33029
0.324542 -0.0189908 0.281419
0.0180165 0.004341 0.108193
-0.0520003 -0.0433854 0.276904
-0.152082 -0.0553006 0.373204
0.310615 -0.0293282 0.187448
0.15342 -0.0418264 0.402398
-0.366939 -0.0252381 0.241144
0.015147 -0.0975355 0.555299
-0.203925 -0.0161393 0.363072
0.103941 -0.00144891 0.325512
-0.0786749 0.0135017 0.348285
-0.0733973 0.00279926 0.323893
0.390918 -0.0348222 0.156572
-0.116869 -0.0355428 0.349871
0.0527875 -0.00673811 0.405754
-0.262226 -0.0101551 0.293421
-0.368966 -0.0404496 0.209398
0.377283 -0.0460565 0.277561
0.00908624 -0.0518657 0.126879
-0.0161706 0.0162655 0.245735
-0.409258 -0.0366942 0.159029
-0.126806 -0.0716581 0.441467
-0.0023899 -0.0252096 0.0515106
-0.0347891 0.0798561 0.0430001
-0.072126 0.0700755 0.0196577
0.0510762 -0.057402 0.344767
-0.0406033 0.00534441 0.407693
0.051145 -0.0434366 0.271634
-0.317164 -0.0337674 0.289672
0.333259 -0.0202527 0.276927
-0.0464923 -0.0354494 0.204497
0.103375 -0.00130548 0.405421
0.423347 -0.0471362 0.246364
0.175612 0.00216897 0.391794
0.291051 -0.0652128 0.315336
0.308187 -0.0308544 0.221178
-0.313005 -0.0345302 0.31141
