-0.192083 -0.0793525 0.506966
-0.0647387 -0.0519023 0.346934
-0.0338957 0.00946024 0.455498
-0.134683 -0.0190353 0.399763
0.00197322 -0.0911691 0.795395
0.0739904 -0.0489875 0.196698
-0.147898 -0.0915507 0.445434
0.0265358 -0.120834 0.507527
-0.075386 -0.0109122 0.368636
0.314246 -0.0809234 0.385087
0.129284 -0.065307 0.392235
-0.0579315 -0.0334909 0.259426
-0.417986 -0.0829032 0.332037
-0.107039 -0.0651222 0.555969
0.0935738 -0.0332825 0.342312
-0.148595 -0.106148 0.460788
0.00897274 0.0179282 0.616261
-0.385962 -0.0557592 0.384873
-0.0108219 -0.126346 0.551314
-0.191467 -0.0694901 0.435454
-0.32033 -0.0590981 0.408571
-0.225913 -0.0708198 0.305751
0.101349 -0.0641008 0.466908
0.19498 -0.0273464 0.50291
-0.34118 -0.121167 0.446532
-0.164343 -0.11037 0.42754
0.123069 -0.0352473 0.14567
0.00970951 -0.000472402 0.0824811
-0.0364266 -0.113648 0.633555
-0.213281 -0.0709569 0.459561
-0.388935 -0.057666 0.297704
0.0192994 -0.0491333 0.777298
-0.327903 -0.0778327 0.412023
0.301964 -0.075483 0.288083
-0.151551 -0.0677992 0.536323
0.0582575 0.073057 0.0671869
-0.393742 -0.0819774 0.4038
-0.0523861 -0.00477058 0.633771
-0.0728399 -0.0601225 0.628764
0.0887494 -0.0624994 0.354104
-0.0542463 -0.00770539 0.378093
-0.0115868 0.0151317 0.426576
-0.0170647 -0.0290041 0.729701
-0.0696086 -0.0593934 0.662052
-0.46619 -0.0692285 0.27836
0.262845 -0.0735374 0.376639
-0.422172 -0.0622808 0.326084
-0.130225 -0.0653058 0.383137
-0.226573 -0.0523383 0.305
0.0254929 -0.0839748 0.225649
0.16011 -0.0250114 0.321912
-0.0260942 -0.117341 0.428714
-0.367038 -0.0534171 0.422089
0.024657 0.00456146 0.319571
-0.195136 -0.0283592 0.368011
0.155763 -0.0665716 0.332326
-0.0100216 0.0150247 0.403403
-0.310903 -0.0459308 0.325249
-0.02125 -0.0315476 0.72947
0.0650864 -0.0668182 0.435062
-0.160026 -0.0224288 0.426549
0.0299276 -0.0055239 0.262567
-0.216653 -0.0711683 0.459983
-0.070174 -0.062037 0.448872
-0.349489 -0.0640279 0.270046
0.0577765 -0.0889337 0.593748
-0.334513 -0.0668031 0.439585
-0.0256265 0.0119334 0.581058
-0.289686 -0.0752755 0.384379
0.0208818 -0.039174 0.751579
-0.107177 -0.0640028 0.40257
0.010174 0.0427446 0.0723386
0.0192752 -0.0674093 0.134093
-0.306846 -0.0764326 0.3994
-0.246843 -0.0556019 0.486507
0.138309 -0.0194594 0.408508
-0.0496041 -0.0678553 0.259928
0.246082 -0.056452 0.4869
-0.447404 -0.0665142 0.255179
-0.251847 -0.0545186 0.483882
-0.0936322 -0.0527701 0.215137
0.0581162 -0.00697453 0.463266
-0.245568 -0.0343783 0.440846
0.252618 -0.0731991 0.422379
-0.0673869 -0.037457 0.613738
0.0445984 0.00398508 0.505415
-0.000540249 -0.10718 0.312575
0.393531 -0.0583091 0.303598
-0.0184126 -0.0927355 0.250253
-0.25445 -0.0396445 0.479912
-0.0664168 -0.0435952 0.255875
-0.0217058 0.067078 0.0246914
0.125955 -0.0610638 0.334551
-0.0554584 -0.00665886 0.456981
-0.0712533 -0.0487173 0.197923
-0.12575 -0.0651554 0.401522
0.0364455 0.00756623 0.430367
0.0137764 0.0170693 0.625571
0.0825515 0.0575305 0.0957847
-0.386289 -0.0808243 0.320114
0.0264184 0.0645715 0.0425829
-0.180017 -0.0531847 0.471296
0.0745541 -0.0498074 0.207523
0.342113 -0.106312 0.359038
-0.0916387 0.074677 0.0161714
-0.443286 -0.0655438 0.314853
-0.0806161 -0.00925454 0.513719
-0.0622818 -0.0793737 0.675928
-0.0518273 -0.0386243 0.130569
-0.251031 -0.0727109 0.365088
-0.101188 -0.0319096 0.562668
0.0377974 0.00514099 0.401525
-0.261426 -0.0368031 0.433594
-0.251652 -0.0724856 0.317047
-0.165554 -0.0220008 0.46314
0.0618074 -0.0433154 0.700152
0.215894 -0.0599748 0.502765
0.325676 -0.0771852 0.339806
0.275025 -0.0623654 0.471113
-0.101647 -0.0144415 0.383856
0.0428311 0.0581241 0.122934
-0.417158 -0.069217 0.396858
-0.424746 -0.0616506 0.358083
-0.00961786 0.000218696 0.0800875
0.0295574 -0.0242334 0.0906195
-0.161831 -0.0307793 0.528519
-0.036222 -0.013528 0.241176
0.0755956 -0.0113929 0.345794
-0.132511 -0.0173435 0.5011
-0.300812 -0.0430769 0.394354
0.239197 -0.0354502 0.319636
0.0225399 -0.0375523 0.744079
-0.0226915 0.00612961 0.326859
-0.360104 -0.0705076 0.26678
0.422055 -0.0617713 0.342032
-0.249811 -0.0354991 0.409527
-0.155487 -0.0217226 0.42961
0.0617797 -0.0794989 0.531027
-0.31314 -0.0765919 0.449724
0.0621829 -0.0514723 0.302205
-0.0413012 -0.00324319 0.680072
0.30504 -0.0445385 0.365687
0.00382625 -0.0855801 0.204004
0.464366 -0.0677263 0.340196
0.0764069 -0.0354838 0.102944
-0.0103585 0.0178774 0.625996
-0.392635 -0.0579579 0.326699
-0.447804 -0.0652979 0.374563
0.441876 -0.0845955 0.351929
-0.170945 -0.0587353 0.433147
-0.41559 -0.0832592 0.391776
-0.348288 -0.0512658 0.339141
-0.0312054 -0.0109115 0.208998
-0.380905 -0.0565555 0.284967
0.177045 -0.114416 0.533997
0.0708196 -0.00874585 0.56764
-0.0193489 -0.126056 0.662029
-0.320378 -0.0463851 0.378969
0.0526611 -0.00565873 0.635586
0.0778186 -0.0104034 0.420312
-0.070323 -0.0230407 0.577142
0.0108566 0.0958442 0.0642993
0.0857083 -0.0521548 0.22801
-0.217405 -0.029958 0.437006
0.315102 -0.0467217 0.303791
-0.136032 -0.0653872 0.340918
0.197908 -0.104023 0.509018
-0.342686 -0.0925626 0.381536
0.0533543 0.058811 0.103085
-0.145497 -0.0947127 0.494819
0.0469 0.0760096 0.0336789
-0.195066 -0.0289362 0.326616
0.260151 -0.0741074 0.473204
0.297273 -0.106436 0.414866
0.202994 -0.0700074 0.404675
0.413811 -0.0825709 0.323021
-0.00583341 0.00994745 0.198506
0.222306 -0.0713858 0.434254
-0.119703 -0.0323958 0.133182
-0.0626491 -0.0538181 0.302469
-0.0365119 0.0629163 0.135504
0.216244 -0.0299643 0.457478
0.259394 -0.0376699 0.378212
-0.168603 -0.120243 0.533404
0.0304021 -0.118025 0.659491
-0.0501592 0.0644799 0.0328085
-0.108519 -0.0264112 0.103504
0.15116 -0.0914743 0.432635
0.391316 -0.0810955 0.310006
0.123281 -0.0160779 0.51309
-0.0234053 0.0633269 0.0633621
0.0531228 -0.0906799 0.373145
0.297736 -0.110103 0.404822
-0.332557 -0.0684765 0.404735
-0.209778 -0.0311365 0.32332
-0.023335 0.0123612 0.496137
-0.0217219 0.0029529 0.292155
-0.0761914 0.0753875 0.0266897
-0.0997586 -0.0258692 0.0944259
0.367415 -0.0795025 0.276882
-0.405904 -0.0602818 0.277933
0.053466 -0.00607535 0.420472
0.0435632 -0.0236396 0.186033
0.120124 -0.0393225 0.553583
-0.141886 -0.0184143 0.475997
-0.013482 0.00348173 0.260563
0.0553815 -0.04624 0.193699
0.0869638 -0.0631364 0.455553
0.323732 -0.0603867 0.277264
-0.16489 -0.0677548 0.421857
-0.443425 -0.0841567 0.263561
-0.0667603 -0.0279284 0.189185
0.254617 -0.0728914 0.359355
0.0127535 0.0143538 0.568794
-0.00543317 0.121457 0.0954691
-0.0189787 -0.0106404 0.110309
0.0180031 0.0123166 0.378146
-0.275236 -0.0394982 0.468533
-0.0851169 -0.0449891 0.13445
-0.0215458 0.0129711 0.470088
0.00896946 -0.0912844 0.234512
0.1697 -0.117269 0.446714
-0.0504049 -0.0842382 0.31889
0.26362 -0.0727287 0.294647
0.0240501 -0.013007 0.126073
-0.345072 -0.0496049 0.40812
0.0107204 0.0333207 0.0854367
0.297938 -0.0438696 0.338116
0.168234 -0.0674628 0.350938
-0.00456922 -0.0393125 0.058575
-0.0396806 0.00670956 0.632368
0.282042 -0.0742489 0.289708
0.0278903 -0.0605883 0.131858
0.347274 -0.101557 0.392998
0.171391 -0.0974335 0.417161
-0.210876 -0.0702367 0.36943
0.119793 -0.0165664 0.421995
0.028196 -0.116035 0.431286
0.122255 -0.0651203 0.425924
0.299945 -0.0446661 0.284724
-0.0141534 -0.114919 0.346797
0.0178703 0.0648199 0.139527
0.0280869 -0.115958 0.428578
-0.332615 -0.0820692 0.390768
-0.0783587 -0.0239528 0.115403
-0.0708798 -0.00904248 0.448051
0.0917703 0.0578364 0.0807402
0.166771 -0.121966 0.49247
0.028141 -0.112507 0.710612
-0.0721064 -0.0494327 0.206687
0.177286 -0.0239779 0.470693
-0.304002 -0.0912542 0.436488
-0.00867131 -0.00444751 0.0624057
0.0271626 -0.0292068 0.0624484
0.178675 -0.101914 0.421215
-0.182982 -0.0269866 0.34012
0.243182 -0.0719917 0.324202
-0.0733529 -0.0234459 0.126321
0.0133448 0.0154992 0.14328
0.46733 -0.0693795 0.28522
-0.300537 -0.105423 0.44363
0.260849 -0.0374595 0.398496
0.0507609 -0.00370592 0.589963
-0.0242739 0.0145011 0.626999
-0.0124637 0.089788 0.0904265
0.11323 0.0677049 0.0667693
0.163342 -0.0640562 0.472016
-0.468099 -0.0692376 0.310721
-0.233079 -0.0719632 0.416861
0.367779 -0.0530937 0.401714
-0.0951422 -0.0461077 0.129817
-0.185609 -0.0266235 0.393012
-0.191394 -0.0837956 0.467396
0.00674272 0.128015 0.0149084
0.00109991 0.0741833 0.0221253
-0.280367 -0.0749978 0.435322
-0.0344523 -0.0184046 0.15201
0.0494998 0.0741776 0.0609122
-0.31348 -0.0459102 0.356435
0.295929 -0.0753449 0.340242
0.110206 -0.0156119 0.388575
-0.337813 -0.116756 0.446695
0.0757875 -0.00832157 0.505047
0.0711524 -0.0277624 0.578256
0.466476 -0.0692916 0.270071
0.00803932 0.101162 0.0112974
-0.366131 -0.0543338 0.294716
0.454099 -0.0851704 0.330791
-0.0589161 -0.0807647 0.444829
-0.0141594 -0.124514 0.452303
-0.0680271 -0.0100344 0.359838
0.276855 -0.0741056 0.327974
-0.0292423 -0.109363 0.718554
-0.0173125 -0.100479 0.282941
-0.0396362 -0.0994999 0.335642
-0.00719218 -0.126346 0.672644
0.0254834 -0.0227993 0.0670683
0.183252 -0.10656 0.435696
0.109917 -0.0149253 0.437014
0.20289 -0.0707676 0.505478
0.181827 -0.0250988 0.436917
0.0484929 0.0626385 0.132258
0.192537 -0.0681418 0.315319
0.0876362 -0.0103503 0.512202
-0.313967 -0.129753 0.391973
-0.285772 -0.07271 0.464706
-0.0824673 -0.0630045 0.481416
-0.0969718 0.0590342 0.0655991
0.117896 -0.0645913 0.391725
-0.0385422 -0.106576 0.394888
0.46285 -0.080588 0.273477
0.0424527 0.0622021 0.134296
0.0345402 -0.115018 0.503065
-0.440285 -0.0844649 0.349101
0.013639 0.0642475 0.0555785
0.0639358 -0.00924447 0.37025
-0.0290261 0.0111761 0.465888
-0.305787 -0.0438111 0.436324
-0.158402 -0.117108 0.468702
-0.159458 -0.0797319 0.534168
0.259479 -0.03806 0.349696
0.068646 0.0752655 0.032167
0.157582 -0.0364668 0.532485
0.00561256 -0.0622359 0.0886564
-0.0552605 -0.0207984 0.670354
0.0329114 -0.00631179 0.703855
-0.0991037 -0.0641478 0.51137
-0.0529267 -0.0571085 0.246035
0.0335061 -0.0442691 0.111044
-0.00138715 -0.0399343 0.773395
-0.365715 -0.0542099 0.303164
0.142071 -0.0657442 0.337816
-0.0856833 -0.0633882 0.528369
-0.0975197 -0.0631479 0.36852
0.288341 -0.0427362 0.312909
-0.082772 -0.0502701 0.236972
-0.24655 -0.0444173 0.48528
0.331739 -0.09404 0.342407
0.0284734 -0.119426 0.524157
-0.0678844 -0.0401731 0.624011
0.0301392 -0.0307289 0.0769814
-0.162908 -0.0758964 0.528045
-0.0829477 0.0681815 0.10633
-0.045174 -0.0256763 0.257524
-0.0198176 -0.00805195 0.709982
0.353475 -0.0794055 0.405413
0.317659 -0.0472651 0.283213
0.0829086 -0.0259792 0.141569
0.0520278 -0.0304942 0.254071
-0.0167531 -0.10917 0.744797
0.422357 -0.0613409 0.376625
0.143874 -0.066646 0.452533
-0.0513514 -0.0556541 0.233016
-0.193141 -0.0697605 0.469916
-0.0586908 -0.0442897 0.268428
0.18489 -0.027547 0.319832
-0.0238002 0.00212833 0.29253
-0.0541867 -0.0729608 0.309205
-0.266142 -0.0379045 0.45936
-0.0376141 0.0593298 0.10916
0.0153639 -0.126346 0.605944
0.0977273 -0.0327037 0.174232
0.176484 -0.118369 0.456645
0.332742 -0.048771 0.354196
-0.0684882 -0.033944 0.587852
-0.00887409 0.0802462 0.0345911
0.0845254 -0.0437539 0.345812
-0.299683 -0.113101 0.362396
-0.039027 0.00680406 0.610906
0.181466 -0.0619054 0.49391
0.135331 -0.0189583 0.413544
-0.380832 -0.0806331 0.339276
0.45302 -0.0851461 0.33585
-0.319337 -0.127192 0.447987
0.321666 -0.0459224 0.394281
0.315136 -0.073925 0.448807
0.00073775 0.0477979 0.0332866
-0.19537 -0.0691528 0.348668
-0.0778304 -0.0102225 0.435336
-0.0656012 -0.0634933 0.35163
0.164167 -0.121094 0.480206
-0.0824468 -0.00962393 0.517705
0.3101 -0.0759532 0.281121
0.342986 -0.0943869 0.380168
0.0806324 -0.0103661 0.457035
0.232806 -0.0715338 0.358708
0.0735343 -0.0475297 0.177802
0.0137041 0.0164852 0.61008
-0.0492987 -0.052608 0.724153
0.103814 -0.0183195 0.337617
-0.0404185 0.00612029 0.631781
0.113035 0.0555176 0.0841477
0.00645676 0.126541 0.0870265
-0.0743685 -0.0100284 0.409293
-0.00647924 -0.113978 0.342633
-0.197823 -0.0346324 0.311876
0.0806111 -0.0102759 0.46103
-0.473742 -0.0691151 0.353015
-0.00269865 -0.056395 0.0592216
-0.327017 -0.0770137 0.280986
-0.00911388 0.0166179 0.597136
-0.181603 -0.0650147 0.50972
-0.0962462 -0.0411194 0.566421
-0.00841414 0.125236 0.00971907
0.465276 -0.0690551 0.293562
-0.0788052 -0.0333732 0.101017
0.0911216 0.0675356 0.0192012
-0.00965418 -0.052786 0.0640594
-0.0443399 -0.0261035 0.227185
0.0172526 -0.00506903 0.155631
-0.105078 -0.0151891 0.369448
-0.317372 -0.131088 0.413912
0.0881063 -0.0263294 0.135655
-0.0854471 -0.0541142 0.572853
-0.26696 -0.0741004 0.424862
-0.163725 -0.0699915 0.48029
-0.406264 -0.0588634 0.360212
-0.356836 -0.0788495 0.277884
-0.465036 -0.0844004 0.363215
0.0373306 0.0732488 0.0783866
0.0480853 -8.8172e-05 0.477697
-0.346391 -0.0789644 0.406927
0.0159666 0.0763078 0.0484041
-0.341122 -0.0867063 0.417345
-0.0637197 -0.0738949 0.493941
0.44938 -0.0763236 0.378921
0.0285272 0.0111193 0.574535
0.0520562 -0.0995353 0.586234
0.175774 -0.0241909 0.498036
0.288016 -0.048271 0.286958
0.241912 -0.0351562 0.373945
-0.0735734 -0.0480566 0.249055
-0.0261518 -0.107983 0.336592
-0.344947 -0.0498713 0.427657
0.0503445 -0.0303612 0.256638
-0.291527 -0.0433892 0.29048
0.141286 -0.0659869 0.381878
0.113596 -0.0653013 0.538599
-0.311362 -0.0443407 0.40365
-0.329191 -0.0711302 0.369501
0.0168186 -0.084974 0.207876
-0.376057 -0.0801336 0.305391
0.00544554 0.0114739 0.681985
0.179685 -0.0507243 0.465924
-0.346964 -0.0511192 0.336061
0.00378763 0.0169636 0.382346
0.0578934 0.0604812 0.0771203
-0.150057 -0.0206351 0.439794
0.317916 -0.0454041 0.410641
-0.0298654 -0.0236945 0.0939946
-0.0403532 -0.110795 0.650386
0.171964 -0.0964541 0.417142
0.287779 -0.075613 0.448639
-0.390634 -0.0580336 0.2757
-0.00613133 -0.121808 0.713217
-0.296475 -0.0756178 0.373549
-0.288065 -0.0521525 0.464268
0.218532 -0.0710823 0.419947
0.178684 -0.0259149 0.371369
-0.0129896 0.0511554 0.115293
-0.473657 -0.0691109 0.353865
0.21261 -0.0309072 0.369418
0.0517221 -0.100397 0.645238
0.14726 -0.0665906 0.413591
-0.0289339 -0.0427505 0.747286
-0.416391 -0.0618158 0.283881
0.0961274 0.0615765 0.0452913
0.344645 -0.0503911 0.362279
-0.0423087 -0.109374 0.68563
0.0133404 0.0146899 0.428941
-0.0751413 -0.0281849 0.0997329
0.0827609 -0.0631254 0.507365
0.0123395 -0.118226 0.377463
0.106722 -0.0636295 0.353762
-0.17636 -0.0257213 0.36211
0.230432 -0.071631 0.392442
0.00866988 0.00924937 0.301001
-0.411847 -0.0610672 0.296593
0.214182 -0.0404241 0.502117
0.203708 -0.069743 0.360955
0.0281808 -0.0408836 0.0794098
0.234683 -0.0341977 0.366263
-0.33737 -0.0785514 0.422942
-0.33542 -0.0493613 0.340582
0.0250628 0.00802845 0.356649
0.42133 -0.0611259 0.371355
-0.190456 -0.069243 0.407241
-0.0520712 -0.00320708 0.623747
0.0466134 -0.0545943 0.729341
-0.0232033 0.0109249 0.408517
0.392971 -0.0788006 0.25712
0.195441 -0.0694839 0.397885
-0.0322663 -0.112466 0.416008
0.128078 -0.0651282 0.376783
0.0493085 0.0685855 0.127876
-0.0133565 0.0127832 0.354942
0.235162 -0.0348576 0.320221
-0.333431 -0.0907191 0.352949
-0.0574046 -0.0812814 0.369753
-0.0176581 -0.0796962 0.184792
0.00259821 -0.108612 0.318906
0.330361 -0.0738015 0.382105
0.012295 0.0617632 0.0940101
-0.263599 -0.0738483 0.417079
-0.205645 -0.0283186 0.437822
-0.0980383 -0.0313858 0.160445
0.168345 -0.0245093 0.365185
0.0142318 0.0624773 0.0813431
0.0503423 -0.0762108 0.294904
-0.426593 -0.0831842 0.287171
-0.378805 -0.0803363 0.313464
0.100123 0.0611377 0.0479996
-0.0353516 -0.0734869 0.20242
-0.322356 -0.0774929 0.413127
-0.304287 -0.0757357 0.314054
0.0881824 0.0754817 0.0186772
-0.117171 -0.0234822 0.334264
-0.0288759 -0.119134 0.494314
0.0640355 -0.0743842 0.523403
-0.025046 0.076119 0.0451912
0.109864 0.0569912 0.0873055
0.285894 -0.0752938 0.426731
0.0481588 -0.0689082 0.253349
0.029461 -0.118709 0.502614
-0.344084 -0.0783274 0.338512
-0.180697 -0.096346 0.421184
-0.321283 -0.0471 0.353418
-0.116569 -0.0169686 0.363595
0.202704 -0.0703209 0.463697
-0.209985 -0.0699465 0.329111
-0.362753 -0.0533858 0.338948
-0.0311309 -0.115896 0.455061
-0.0157704 -0.000587848 0.702636
0.0929997 -0.0123968 0.440174
0.108836 0.0633295 0.0204499
-0.0864365 0.0695202 0.0873157
0.371403 -0.053785 0.410608
-0.00936001 0.081866 0.0429001
0.284477 -0.0745587 0.324435
0.288764 -0.075311 0.399361
0.152665 -0.0499099 0.536504
-0.219671 -0.0303415 0.445559
-0.187315 -0.0466798 0.518033
0.0749552 -0.028642 0.181439
0.314005 -0.0595124 0.373804
-0.366838 -0.0543982 0.300603
-0.115601 -0.0152089 0.457609
-0.147622 -0.0351504 0.537676
0.370237 -0.0536907 0.416586
0.11445 0.0563324 0.0683654
-0.467411 -0.0816331 0.363854
0.344501 -0.0782672 0.323293
-0.000253613 -0.0637959 0.805427
0.00108868 -0.126346 0.637329
0.334372 -0.0820047 0.40415
0.303091 -0.0431755 0.420376
0.000260839 -0.118362 0.379071
-0.149998 -0.0666033 0.392543
-0.0523656 -0.0432522 0.174486
-0.0250114 -0.0187756 0.0782425
0.0693128 -0.0233212 0.106577
0.0538393 -0.0898282 0.386526
0.272791 -0.0735299 0.291983
0.305663 -0.103362 0.331899
0.169744 -0.0247302 0.36423
-0.192117 -0.102466 0.461623
-0.0136806 -0.0876013 0.214814
0.024503 -0.0976475 0.760401
0.0536504 -0.0520281 0.717652
-0.0127131 -0.0966171 0.779865
0.0276833 0.013709 0.643589
-0.00832857 0.0350555 0.0408252
0.0649382 -0.0416972 0.35139
0.155991 -0.0771508 0.463731
0.155359 -0.0768047 0.491057
-0.100422 -0.0635066 0.39265
0.043367 -0.0231713 0.180118
0.38698 -0.0559104 0.368279
-0.0844455 -0.0107663 0.461942
0.069341 -0.00830019 0.471942
-0.00885483 -0.0677988 0.110781
-0.348881 -0.051584 0.318067
-0.375393 -0.0701645 0.262549
0.0121678 0.0651366 0.0430247
-0.225983 -0.0335895 0.314404
0.0362191 -0.0798309 0.757455
-0.26448 -0.0736879 0.382977
-0.16398 -0.120312 0.473766
-0.265997 -0.0374824 0.415056
-0.461957 -0.0819728 0.279005
-0.0411322 -0.0694029 0.755677
-0.415589 -0.0832453 0.390276
0.0567527 0.0643266 0.0312266
0.0628467 -0.00670758 0.52943
0.284823 -0.0745984 0.328114
-0.277212 -0.040783 0.340238
0.161988 -0.111745 0.431955
-0.185839 -0.069635 0.50536
0.191658 -0.0562685 0.515726
0.110902 -0.0600631 0.559251
-0.0128027 -0.00203356 0.150201
0.226025 -0.0714445 0.404245
0.0636405 -0.00801098 0.445051
-0.000772704 0.0179292 0.66648
-0.321359 -0.123439 0.35205
0.0353738 -0.11441 0.474062
-0.369069 -0.0532027 0.392364
0.173056 -0.111453 0.532007
-0.331774 -0.114536 0.342251
-0.149721 -0.105303 0.445154
-0.232972 -0.0718379 0.398809
-0.0304185 -0.00718713 0.240072
-0.0651593 -0.0385488 0.649154
-0.162555 -0.0670837 0.347051
-0.091234 -0.0374391 0.211855
0.064609 0.0750948 0.0184263
-0.315878 -0.0810495 0.429119
-0.0130166 0.0492493 0.11664
0.0673886 -0.0082224 0.467108
-0.274607 -0.0404116 0.339043
0.0491498 0.060693 0.0813324
0.0341185 0.0764411 0.0333756
0.100405 -0.0505917 0.165912
-0.0518386 -0.00499376 0.639134
-0.178742 -0.0624211 0.463499
-0.0628191 -0.0070135 0.545629
-0.200894 -0.0286072 0.5063
0.052053 -0.0995414 0.602409
-0.192039 -0.0261409 0.457614
-0.0561242 0.0693733 0.115075
0.0747313 -0.0297851 0.347497
0.356502 -0.0530636 0.268023
-0.018474 -0.0727793 0.15676
-0.185815 -0.0264208 0.410937
-0.0055362 0.0108084 0.303731
-0.331463 -0.0593217 0.386605
-0.0603715 0.0758271 0.0278184
0.146404 -0.0926778 0.455091
0.0656515 -0.00703683 0.523137
-0.0148004 -0.00211987 0.166241
-0.330053 -0.047617 0.381034
-0.17218 -0.0685444 0.48663
-0.0824851 -0.00962005 0.51718
-0.193467 -0.100879 0.465709
-0.301942 -0.104926 0.448109
-0.0611887 0.0582944 0.103339
-0.0311144 0.0707768 0.116689
-0.00885327 0.0473215 0.046048
-0.218129 -0.0312763 0.40289
0.178219 -0.024615 0.436672
-0.0172127 0.0765926 0.0417688
-0.187654 -0.0572676 0.517885
-0.315935 -0.0665379 0.404992
-0.339456 -0.122354 0.385067
-0.128036 -0.0657511 0.470497
0.0314674 -0.107282 0.72026
0.333815 -0.11027 0.343223
-0.164949 -0.0672531 0.35034
0.0256821 0.0759954 0.0471657
-0.00515811 -0.111176 0.757123
0.0955436 -0.0637509 0.468238
-0.278705 -0.0751758 0.461285
-0.0925839 0.0578088 0.0797335
0.0179474 -0.0116274 0.0867688
0.0456175 -0.0152348 0.313031
0.154044 -0.0819106 0.527683
0.239654 -0.0720019 0.365379
-0.057591 -0.0809447 0.372252
0.0398419 -0.109063 0.446164
-0.316407 -0.114068 0.33086
-0.0678965 0.0566895 0.121272
-0.0420975 0.00617848 0.528633
-0.318315 -0.117946 0.437725
0.259959 -0.0737825 0.445257
0.017595 0.00673935 0.312247
-0.029811 -0.0954039 0.294263
-0.199793 -0.0456488 0.511351
0.0408224 -0.110454 0.686863
0.0505644 -0.0986588 0.416492
-0.175653 -0.0450104 0.424561
-0.0316225 0.000392453 0.315536
0.0732405 0.0690573 0.103626
0.00227096 -0.113247 0.3394
0.294148 -0.0430576 0.357355
-0.394692 -0.0816352 0.356942
0.0122582 0.00735912 0.199259
-0.032665 -0.109842 0.709321
-0.0545813 -0.0845909 0.345442
-0.17566 -0.0490157 0.3196
0.170571 -0.117058 0.534408
0.18493 -0.111391 0.449587
-0.179747 -0.073777 0.465348
0.0494764 -0.0088536 0.344227
0.264685 -0.0460792 0.475617
0.215004 -0.0420518 0.50209
0.0249132 -0.0985359 0.757157
-0.0115483 -0.12442 0.451177
-0.148317 -0.0669938 0.469812
-0.0702438 -0.0666732 0.59777
0.0061839 -0.0894798 0.796419
0.00692654 0.0154871 0.502353
-0.241206 -0.0337648 0.447559
-0.332027 -0.0783683 0.437894
0.0655079 -0.0746046 0.582899
0.309159 -0.126618 0.422971
-0.0142252 -0.0535226 0.0724475
-0.271729 -0.0398013 0.354871
0.348889 -0.106481 0.446315
0.0350741 -0.0875839 0.748666
-0.226532 -0.0317333 0.467033
-0.159429 -0.0668006 0.332125
0.121353 -0.0652038 0.444562
0.430172 -0.083355 0.270482
0.0391468 -0.00452779 0.317642
-0.103378 -0.0154473 0.341471
0.034706 -0.114898 0.489464
0.0560565 -0.00907283 0.614034
-0.308588 -0.0440912 0.395468
-0.334087 -0.0479197 0.409851
0.264084 -0.0733214 0.328872
-0.026244 0.0115918 0.481274
0.0470909 -0.0709365 0.730269
-0.192179 -0.0275719 0.394502
-0.0175885 -0.076457 0.171356
-0.027095 -0.00671566 0.210878
0.098813 -0.0639188 0.461143
-0.175294 -0.0593151 0.524561
-0.00855652 0.0456449 0.0411486
0.449751 -0.0654356 0.359352
-0.0573766 0.0742991 0.0552781
0.00756499 -0.0551129 0.0651814
0.410423 -0.0786764 0.39796
0.179523 -0.0687409 0.432336
0.0717145 -0.0585116 0.58041
0.0127176 -0.126346 0.543907
-0.302748 -0.116437 0.439134
0.0267535 -0.0058166 0.222451
0.315587 -0.085971 0.448111
0.298915 -0.0424609 0.413642
-0.129024 -0.0432356 0.124224
-0.00458193 -0.0859584 0.206027
-0.00158442 -0.0451525 0.782261
-0.289854 -0.0427968 0.32733
0.164894 -0.0226463 0.440271
-0.23824 -0.0722573 0.412434
0.0441435 0.0644631 0.036253
-0.00896498 -0.126346 0.547928
-0.010748 0.0620934 0.0749654
0.0579513 -0.0886098 0.590026
0.0693033 -0.0698333 0.624608
0.313611 -0.112776 0.438191
0.0279382 -0.119815 0.535741
-0.205632 -0.070476 0.45831
-0.0102532 0.0587708 0.0678255
-0.0170781 -0.106006 0.75379
0.430449 -0.0834549 0.297533
0.0407894 -0.0593164 0.751988
0.0942773 -0.0639861 0.536987
0.0934608 -0.0636077 0.464614
0.0440324 -0.0215434 0.107446
0.09179 -0.0631689 0.41955
-0.0714104 -0.0267179 0.16891
0.0098447 0.014798 0.36376
0.227765 -0.0318154 0.459672
0.125162 -0.0647209 0.343158
0.285993 -0.0746217 0.318319
0.0221992 -0.115313 0.368681
0.0228045 -0.0476928 0.0765794
-0.113554 -0.0649834 0.499134
-0.0143487 0.0438657 0.139346
-0.179362 -0.0763034 0.447515
-0.429178 -0.0839778 0.376028
0.0116128 0.0556907 0.0910317
-0.201617 -0.0474662 0.510421
-0.00395482 0.0465863 0.0338025
-0.198229 -0.0922112 0.505876
-0.122773 -0.0169319 0.427829
0.124096 -0.0512507 0.551849
0.0490555 -0.104473 0.493766
0.457993 -0.0850298 0.252708
0.157489 -0.0340207 0.323632
-0.360454 -0.0603407 0.266905
-0.0701075 -0.0105005 0.351284
-0.17983 -0.0688476 0.450436
0.185562 -0.025831 0.431438
0.0644689 -0.0403484 0.66209
0.465531 -0.0681177 0.331483
-0.0633636 -0.0700828 0.412136
-0.176803 -0.0679401 0.340544
-0.193795 -0.0959041 0.460699
0.11215 -0.0630381 0.338697
0.283337 -0.0400841 0.419987
0.100467 -0.0143802 0.37735
0.170067 -0.0795992 0.428418
-0.0442037 -0.000336801 0.661606
-0.153253 -0.0513707 0.536228
-0.000548108 -0.115873 0.739487
-0.032712 -0.112055 0.702298
0.00863659 0.0824961 0.0296227
-0.214869 -0.0702814 0.334637
0.0145575 0.0755716 0.0636673
0.0400962 -0.0180153 0.260935
-0.137051 -0.0184458 0.521732
-0.115988 -0.0146741 0.499359
-0.0129907 -0.075684 0.801695
-0.0520442 0.0581906 0.113813
0.0533249 -0.097184 0.586211
-0.0289998 -0.0702499 0.17498
-0.0910576 -0.0522037 0.209767
-0.120821 0.0641174 0.0194342
0.383815 -0.0767293 0.412001
-0.100054 0.067423 0.0921211
-0.0568658 0.0660583 0.022699
0.0294943 0.00896823 0.41298
-0.188083 -0.0696547 0.495711
0.0430619 0.0603382 0.0890644
0.0369726 -0.0137436 0.254951
-0.079744 -0.0481288 0.174836
0.121331 -0.016131 0.454137
-0.277014 -0.0735144 0.290759
-0.287185 -0.042019 0.358453
0.162883 -0.0697802 0.461369
-0.318478 -0.046332 0.374056
-0.0118125 0.00492657 0.121652
-0.25831 -0.0380775 0.332933
-0.00340584 -0.0355297 0.760426
0.397587 -0.0777283 0.404867
0.0243101 -0.122451 0.675182
0.0115458 0.0124581 0.675967
-0.0166867 0.0656432 0.0326371
0.341007 -0.0896792 0.383445
-0.118348 -0.0161384 0.439209
0.454789 -0.0662287 0.359943
0.161505 -0.1178 0.453743
-0.177137 -0.0570702 0.445291
-0.00874458 0.124477 0.0166376
-0.0580768 -0.08935 0.628544
-0.178924 -0.0725042 0.522332
0.352602 -0.0787721 0.324869
-0.000576049 0.0536381 0.152375
0.0399146 -0.0566856 0.177336
-0.314771 -0.128484 0.441338
0.0168032 -0.0812934 0.793092
0.187536 -0.0258258 0.438264
0.299329 -0.0949209 0.399145
0.00664595 0.0152536 0.553312
-0.0408059 0.00258729 0.395785
0.257625 -0.0362438 0.43737
0.228165 -0.0710543 0.32452
0.308292 -0.0438521 0.401965
-0.128633 -0.0174125 0.447038
-0.420168 -0.0624287 0.274983
-0.331361 -0.0753764 0.274968
0.0708841 -0.0288956 0.190975
-0.0963746 0.0705531 0.0641264
0.0863011 0.0590737 0.0727328
-0.0601984 -0.0454337 0.293078
0.331361 -0.0724129 0.275023
-0.124032 -0.0558923 0.552002
0.0349413 -0.11261 0.69596
0.0397691 -0.0885499 0.292335
0.300166 -0.0942595 0.408786
-0.113085 -0.0152942 0.444784
0.0227232 -0.0680669 0.14747
0.167622 -0.0236492 0.41833
0.0739801 -0.0619417 0.404297
0.121125 -0.0516581 0.140906
0.348141 -0.0971787 0.417095
-0.0364268 0.00277037 0.359275
0.0955693 -0.0452446 0.117709
-0.180252 -0.0682432 0.35541
0.328543 -0.124941 0.447367
-0.217008 -0.0319331 0.342663
0.010998 -0.000806062 0.109212
-0.18464 -0.0579337 0.519512
-0.11615 -0.0151632 0.524894
0.0460106 -0.0215005 0.153187
0.0858237 -0.0517736 0.217654
0.114734 -0.0649148 0.465544
-0.224261 -0.0324635 0.380985
0.0648047 -0.0259295 0.599519
-0.0622509 -0.075732 0.482311
0.0116653 0.0147008 0.522803
0.00897149 0.116314 0.0242787
0.133543 -0.0652967 0.350593
0.0726116 -0.040851 0.349113
0.0117904 0.0646905 0.05003
0.154182 -0.0675434 0.506045
-0.389921 -0.0564726 0.393681
0.10811 -0.0309517 0.14159
-0.0208416 0.0131401 0.466016
-0.315872 -0.0708926 0.40571
0.199085 -0.0699998 0.443993
0.0966445 -0.0641508 0.537428
-0.196139 -0.0290766 0.327835
-0.0509436 0.0691065 0.123268
0.302411 -0.0908154 0.359914
0.0544499 -0.0950991 0.593512
0.0556124 -0.0908002 0.47937
0.0819693 -0.0636764 0.571049
-0.284898 -0.0404125 0.427784
-0.467694 -0.0682453 0.338048
0.0981547 -0.0460474 0.12122
-0.167504 -0.116345 0.534649
-0.160413 -0.0217101 0.496553
-0.143286 -0.0659079 0.351312
0.0107627 -0.00760781 0.0907086
-0.258757 -0.0736088 0.428052
0.0633248 -0.0786508 0.570273
0.0236051 0.0113362 0.672937
-0.296408 -0.0424894 0.44674
0.130977 -0.0206665 0.329928
0.00618654 -0.10778 0.315227
0.033256 0.0110875 0.518376
0.105418 -0.0525003 0.181598
-0.027854 0.0769515 0.0279929
0.233804 -0.0716119 0.36149
0.0426072 -0.044528 0.167072
-0.00931902 0.118991 0.0302399
-0.0668528 -0.00793228 0.558952
0.368051 -0.0540137 0.349074
0.197936 -0.0284234 0.394081
-0.336727 -0.127972 0.415681
-0.00989795 0.105481 0.0455842
-0.380938 -0.0566707 0.264411
-0.0421836 0.0059584 0.502461
0.0223989 0.0759084 0.0514228
-0.157784 -0.0229623 0.365383
-0.466149 -0.0763048 0.307698
0.0371497 -0.102135 0.340272
0.0437142 -0.043663 0.170131
-0.197403 -0.0893744 0.523807
0.121842 -0.0169328 0.416814
-0.236586 -0.0334112 0.471736
0.00628412 0.110719 0.00670835
0.460381 -0.0854852 0.321828
-0.0488178 -0.000535948 0.484237
0.0146483 0.059264 0.127181
-0.315772 -0.0707222 0.404247
-0.0665529 -0.0451552 0.653424
0.0682237 -0.0693087 0.65177
0.0121053 0.00333395 0.215497
0.122751 -0.0164943 0.538963
-0.118817 0.0697112 0.0535991
0.104627 -0.0482899 0.136542
-0.335603 -0.128799 0.439057
-0.0507538 -0.101681 0.495434
0.248902 -0.0728671 0.403672
0.0668103 -0.0418731 0.253647
-0.408225 -0.0825089 0.35914
-0.315685 -0.0611357 0.399503
-0.0152328 0.0346081 0.158301
-0.323872 -0.0693093 0.419164
0.464498 -0.0676741 0.346474
-0.012686 0.048669 0.111955
-0.304663 -0.106339 0.449553
0.256046 -0.0554907 0.481661
-0.2169 -0.0319848 0.337908
0.0998082 -0.0467238 0.128605
-0.0146035 0.0470688 0.141078
0.303361 -0.0435881 0.390376
-0.471333 -0.0728133 0.338237
0.148142 -0.0276489 0.535129
0.314876 -0.130988 0.413581
-0.0731596 -0.0497064 0.349449
0.0501046 -0.0972672 0.370995
-0.340104 -0.0863047 0.408089
-0.0956188 -0.0120682 0.535065
0.337535 -0.127066 0.443166
-0.38678 -0.0814853 0.398944
0.0463725 -0.0711806 0.248854
0.422764 -0.0829978 0.301682
-0.0544498 -0.0279368 0.214266
-0.181807 -0.0367195 0.519021
-0.0281263 -0.0350217 0.0602277
-0.105998 -0.0134336 0.469208
0.226353 -0.0708924 0.314791
0.138009 -0.0511559 0.544314
-0.467948 -0.0696714 0.288033
-0.0742986 0.0739461 0.0507015
-0.262171 -0.0367858 0.421114
-0.348681 -0.0724635 0.270001
0.188084 -0.0688013 0.366826
-0.027137 0.0730498 0.0902337
-0.174793 -0.117682 0.447979
-0.350691 -0.0517533 0.329948
0.197372 -0.0976043 0.532907
-0.356959 -0.0518798 0.366608
-0.161681 -0.0679039 0.48845
0.0629068 -0.0716468 0.434444
0.00495412 0.117379 0.102399
0.0855147 -0.0467324 0.151946
-0.174293 -0.0682003 0.402935
0.0264023 0.00939468 0.387133
0.433684 -0.0643167 0.298839
-0.0427873 -0.00745023 0.690195
-0.31071 -0.0761517 0.317869
-0.00927744 -0.0457099 0.781458
-0.00931654 0.0800989 0.042641
0.0332913 -0.100924 0.732966
0.0698951 -0.0664337 0.575965
-0.0614871 -0.0725226 0.362997
0.461996 -0.0819222 0.279919
0.161203 -0.081566 0.425128
0.0705067 -0.0502098 0.624987
-0.0622671 -0.0458315 0.32337
-0.188744 -0.0276466 0.352382
-0.14311 -0.0186981 0.464509
-0.041282 -0.105242 0.705941
-0.0458002 -0.0455757 0.727807
0.130107 -0.0185714 0.385611
-0.0165672 0.0749172 0.0710927
-0.286818 -0.0756337 0.455456
-0.00693925 0.00831401 0.20079
0.116126 -0.0643743 0.376657
-0.248296 -0.0733427 0.474415
0.132964 -0.0658383 0.432425
0.17571 -0.0678803 0.342049
0.0272859 -0.0795807 0.77818
-0.103882 -0.0354581 0.187442
-0.0260051 0.0118364 0.563621
-0.263669 -0.0735086 0.366091
-0.034561 0.0708151 0.11405
-0.0782261 0.0738545 0.0495586
0.348434 -0.0792979 0.426019
-0.392715 -0.0571172 0.408863
0.116811 0.054889 0.0794974
0.0465307 -0.0493997 0.191891
-0.0546709 -0.0066524 0.619879
0.347569 -0.114389 0.410939
-0.0334102 0.0105934 0.586721
0.0121313 -0.0753167 0.149509
0.239712 -0.0357402 0.300349
-0.0561913 -0.0926279 0.635445
-0.010912 0.056898 0.0795391
-0.191809 -0.0281575 0.347764
-0.172193 -0.0721644 0.446056
-0.426106 -0.0618489 0.367395
0.0191534 -0.0708757 0.149873
-0.251648 -0.0731625 0.427191
-0.0480173 -0.0432506 0.18076
-0.165371 -0.0237128 0.387611
-0.31303 -0.0547774 0.335046
0.00889351 -0.0957559 0.258427
-0.0617968 -0.0718976 0.364234
-0.195617 -0.0861211 0.531761
0.015376 -0.108189 0.751707
-0.0437802 -0.105278 0.425391
0.16306 -0.0815169 0.421651
-0.116963 -0.0164564 0.397439
0.323866 -0.0607717 0.44581
0.0433157 -0.108442 0.471719
-0.0491942 -0.000238605 0.526782
0.400126 -0.0679076 0.405613
0.148062 -0.0886306 0.499529
-0.0709695 -0.0387709 0.10693
0.338487 -0.0914007 0.360327
0.0257308 0.0738046 0.0800137
0.182026 -0.101617 0.52338
-0.354158 -0.0795836 0.418342
-0.0448158 0.059703 0.0972516
0.184788 -0.0694826 0.499182
-0.0263632 -0.0285178 0.0588308
0.19319 -0.0287615 0.3195
-0.273915 -0.0742071 0.373642
-0.0580985 -0.0820993 0.424546
0.0514249 -0.0821802 0.319158
0.317711 -0.131331 0.422147
0.052682 -0.0416528 0.161409
0.196069 -0.106965 0.500436
0.0527696 -0.0982133 0.588484
0.0533877 0.0591976 0.0971614
0.0342048 0.0111483 0.606055
0.262901 -0.0731574 0.310722
-0.193047 -0.0355091 0.313333
0.157281 -0.076808 0.452219
-0.345028 -0.110088 0.381531
0.082895 -0.0257713 0.139543
-0.358109 -0.0525049 0.352752
-0.238548 -0.0716038 0.304537
-0.333085 -0.0808339 0.408112
-0.0505598 -0.00411765 0.642251
0.0585936 -0.0697285 0.326874
0.0493527 -0.104257 0.538507
-0.334301 -0.124522 0.378514
0.0141641 -0.00374201 0.705863
-0.360746 -0.0791724 0.300727
-0.0583391 -0.0878911 0.587985
-0.433149 -0.0637304 0.331633
0.0912066 0.0619098 0.0443633
0.327694 -0.082247 0.361181
0.0535843 -0.0294023 0.316044
0.117844 0.0727795 0.0387606
0.179768 -0.0264765 0.343381
-0.0264242 -0.108994 0.725341
-0.0653581 -0.00687369 0.517054
-0.0496887 -0.0474131 0.722434
-0.0705316 -0.0614174 0.36295
0.328905 -0.0482114 0.353972
0.224223 -0.0713072 0.400989
-0.27031 -0.0740756 0.385987
0.0756104 -0.0302508 0.195332
0.0398395 0.000991315 0.366929
0.00347638 -0.0981174 0.271057
0.254292 -0.0368336 0.38449
0.399835 -0.0590254 0.325889
0.131673 -0.0184877 0.408142
0.0286749 0.0034832 0.325297
0.0554642 -0.0221361 0.145578
0.0762346 0.0571298 0.106586
-0.293385 -0.0751973 0.342168
-0.0227157 0.0712928 0.115878
0.0206962 -0.0950928 0.268196
0.0537547 -0.0313208 0.260501
-0.327516 -0.0952121 0.33248
0.0269989 -0.0122462 0.155336
0.373084 -0.0553682 0.292222
0.117818 0.069861 0.0536885
-0.02857 -0.0188102 0.104814
-0.45309 -0.0660831 0.339538
-0.0926823 -0.0427357 0.105379
-0.0256841 0.0119234 0.453425
0.336286 -0.0777904 0.330143
-0.0252892 -0.0995326 0.299251
-0.201132 -0.0274805 0.450723
-0.0222203 -0.107625 0.325093
0.126677 -0.0344869 0.135627
0.0321698 -0.0551917 0.137536
-0.380523 -0.0563782 0.306926
0.0604634 -0.0467759 0.190904
-0.131677 -0.0191775 0.36356
-0.340655 -0.0505572 0.294765
-0.337502 -0.115163 0.442801
0.305935 -0.120758 0.445892
0.214075 -0.0294238 0.438971
-0.377982 -0.0545301 0.3723
-0.336595 -0.0498371 0.308722
-0.180981 -0.0248119 0.486402
-0.229494 -0.0469149 0.495225
-0.368774 -0.0796348 0.291303
-0.056322 -0.0590139 0.275548
0.168151 -0.0682893 0.485181
0.177193 -0.0279919 0.519203
0.100739 0.0580439 0.0986252
-0.033307 -0.103961 0.338082
0.00181969 -0.0889708 0.798241
0.108616 -0.0289956 0.124988
0.214552 -0.0307286 0.404592
-0.349395 -0.0783652 0.271089
0.193262 -0.0804619 0.502474
-0.154275 -0.0205656 0.486807
0.00674534 -0.089079 0.796344
-0.187447 -0.0815331 0.453742
-0.0547213 -0.0931556 0.481416
-0.470262 -0.0720553 0.328232
0.0771751 0.0706687 0.0806988
0.432151 -0.0840662 0.363026
0.00939305 0.0940975 0.0398474
-0.010926 0.0555312 0.0802843
-0.0145297 0.0217691 0.156551
0.00568083 -0.109092 0.764947
0.26841 -0.0738375 0.370333
-0.341603 -0.0865975 0.428767
-0.238746 -0.0352766 0.329307
-0.0505892 -0.044489 0.186812
-0.0154542 -0.0754896 0.160363
0.0288832 -0.00840717 0.207308
-0.165319 -0.0605262 0.501021
-0.0144314 0.00525385 0.285283
-0.135082 -0.0176476 0.494918
0.00718127 -0.126346 0.519485
-0.149991 -0.0535626 0.327235
0.159982 -0.0670807 0.371392
0.308216 -0.120741 0.448898
-0.0945019 -0.0634848 0.439124
0.188768 -0.0967647 0.526833
-0.0659571 -0.0671238 0.482518
-0.102441 -0.0504012 0.563591
0.048557 -0.0484531 0.198861
0.141002 -0.0662124 0.415324
0.00861841 -0.0215976 0.72389
-0.34216 -0.0507783 0.29506
-0.315851 -0.0769932 0.399574
-0.315422 -0.0556695 0.393804
-0.174728 -0.0285398 0.318033
-0.00847039 0.0558564 0.0358746
-0.0556865 -0.00627861 0.565648
-0.445481 -0.0653829 0.331986
-0.0733199 -0.0235836 0.112568
-0.338408 -0.0772002 0.436179
0.277498 -0.0393477 0.436267
-0.299194 -0.109367 0.360175
-0.0510037 -0.101646 0.637668
0.19057 -0.0692289 0.404438
-0.238932 -0.0721883 0.395861
-0.332872 -0.0778605 0.369045
0.250632 -0.0367042 0.354686
0.313876 -0.0451077 0.437418
0.192219 -0.0695844 0.445332
0.227919 -0.0315782 0.439523
-0.0882395 -0.0110688 0.544553
0.314211 -0.061669 0.378324
0.186542 -0.0694258 0.48534
-0.0498311 -0.080378 0.30419
0.436621 -0.0818573 0.244414
-0.0455967 -0.0265161 0.218299
0.047333 -0.0851896 0.714321
0.186862 -0.118214 0.503102
-0.073098 -0.0504843 0.230478
-0.309663 -0.0759603 0.287563
-0.030707 -0.00839263 0.228868
-0.0714287 -0.0542719 0.626909
0.032604 0.00368189 0.343684
-0.381193 -0.0550555 0.389957
0.330446 -0.0575574 0.373012
0.116784 -0.0191723 0.333912
-0.2083 -0.065071 0.310664
0.0697223 0.061093 0.0633685
0.028456 -0.0850382 0.241337
-0.33248 -0.0647931 0.402206
-0.110731 -0.0137298 0.493426
-0.23116 -0.0479095 0.303353
-0.17806 -0.0251298 0.422734
-0.0327677 -0.0125389 0.210722
-0.0796078 -0.0303668 0.189384
0.399685 -0.0815544 0.292871
0.0647246 -0.0400985 0.351363
-0.0130094 0.0872317 0.0975263
-0.311828 -0.108793 0.441602
0.31736 -0.0800853 0.429903
-0.0390152 -0.00438091 0.691799
0.445415 -0.084824 0.352274
0.139364 -0.0186659 0.514016
0.070211 -0.0332101 0.349223
0.0578038 -0.0869603 0.490655
0.0283141 -0.119542 0.669204
-0.147086 -0.0660566 0.337412
0.0358873 0.0638667 0.0477803
-0.0353773 0.0584772 0.123989
0.347977 -0.102219 0.395982
0.151838 -0.0857386 0.438198
-0.0747031 -0.0624251 0.462924
0.461262 -0.0835527 0.303169
0.0593363 -0.0192803 0.627397
-0.0252944 0.0758558 0.0502464
0.309745 -0.117882 0.344352
0.104273 -0.0644324 0.503663
0.000229862 -0.0920696 0.794028
0.12224 -0.0648765 0.393564
-0.445686 -0.0843396 0.280738
0.111707 -0.028326 0.0868428
0.0382797 -0.104707 0.360221
-0.18183 -0.076847 0.456071
-0.331373 -0.0805327 0.394446
0.072449 -0.0617732 0.394546
-0.119065 -0.0158026 0.533764
-0.0363281 0.00430583 0.673057
0.186041 -0.0251418 0.450184
0.143622 -0.0517624 0.54135
-0.42635 -0.0830669 0.249832
0.0114895 -0.126346 0.502285
0.0175046 -0.126346 0.641223
-0.0551418 -0.00880249 0.587804
-0.252862 -0.0370428 0.353912
-0.055228 -0.0308705 0.250809
0.0228935 -0.0488465 0.0797622
0.0958036 0.0733506 0.0455305
-0.341656 -0.116709 0.376448
-0.0281514 -0.101997 0.316787
0.178932 -0.0254433 0.408149
0.128261 -0.018297 0.385881
-0.242977 -0.0339273 0.436963
0.466682 -0.0823698 0.347182
0.0595865 -0.0357329 0.10925
0.134802 -0.0656748 0.395352
-0.0856623 -0.0268331 0.145031
-0.110345 -0.0138698 0.505293
-0.357343 -0.0518708 0.368071
0.0367116 -0.0616325 0.767789
-0.438616 -0.0845019 0.366659
-0.209248 -0.0432337 0.505537
-0.0472424 -0.000248264 0.457124
-0.19561 -0.0290037 0.327494
0.12012 -0.0167031 0.414924
0.169128 -0.0913127 0.524566
-0.176941 -0.121247 0.476886
0.399445 -0.0592466 0.290764
0.201374 -0.0693932 0.325788
-0.165746 -0.0519477 0.497421
0.049376 -0.00847679 0.344481
-0.197843 -0.0273956 0.434286
0.165433 -0.0733543 0.524535
0.161534 -0.0674801 0.413206
0.0526594 0.0572299 0.127855
0.0615686 -0.0227056 0.105625
0.0422127 -0.10753 0.447143
-0.159624 -0.0828022 0.424674
-0.0208648 -0.0101154 0.129626
-0.0572082 -0.0892734 0.682444
-0.346786 -0.0788534 0.387675
-0.014728 -0.0909334 0.232634
0.17736 -0.078973 0.534811
-0.0210319 -0.0596075 0.109229
0.00731044 -0.0493846 0.788603
0.132157 -0.0186831 0.398219
-0.0333338 -0.115569 0.470218
-0.0391671 -0.0473114 0.157544
-0.317277 -0.0770502 0.394075
0.175442 -0.0679791 0.361804
-0.377438 -0.0801537 0.285713
-0.0668796 -0.0232665 0.139817
0.233923 -0.0336536 0.398557
0.0595598 -0.0291466 0.217059
0.0431734 0.00300919 0.596892
0.121082 -0.0649393 0.411585
-0.198053 -0.0511936 0.512313
0.0278338 0.0114622 0.473097
0.127837 -0.0370165 0.149425
-0.0556581 -0.0405459 0.145473
0.122108 -0.0526549 0.147007
0.463946 -0.0791617 0.297863
-0.0610307 -0.0461617 0.299857
0.0221972 0.000666618 0.272044
0.117047 -0.063117 0.337262
0.120447 -0.0549367 0.553928
-0.0458879 0.00133461 0.561535
0.186722 -0.0685847 0.344333
-0.287203 -0.0410765 0.3979
0.0704169 -0.0617971 0.41472
0.316116 -0.045072 0.402031
-0.00893826 0.0174911 0.608934
0.313695 -0.06535 0.345244
-0.227604 -0.0712762 0.369006
-0.00470721 -0.0545477 0.79822
0.0289333 0.0707106 0.118746
-0.0265754 -0.0824446 0.776941
-0.048675 -0.0011633 0.560837
-0.322801 -0.131145 0.408887
0.00852294 0.0219421 0.0493555
-0.101165 -0.0486037 0.145064
-0.432846 -0.0638836 0.323207
0.349378 -0.0507828 0.368194
-0.189775 -0.116103 0.501204
-0.157927 -0.0670273 0.533892
-0.169823 -0.068575 0.505574
0.120618 -0.0648872 0.408498
0.293119 -0.0432981 0.325663
0.250165 -0.0370458 0.319384
-0.346997 -0.0786026 0.350573
0.444071 -0.0651799 0.33226
0.0270119 -0.120488 0.629406
0.150357 -0.0666251 0.392451
0.0487043 0.0635723 0.131546
-0.0251448 -0.121845 0.506566
-0.173771 -0.0672634 0.320789
0.00996624 -0.0941355 0.786137
-0.0734718 -0.0100134 0.401997
-0.0362775 -0.113756 0.4854
0.12283 -0.0171849 0.40828
-0.377157 -0.0801063 0.276686
0.340394 -0.120224 0.377242
0.018531 -0.0997576 0.282981
0.00411513 -0.126346 0.569779
0.358915 -0.0796508 0.392365
-0.312624 -0.0517204 0.342933
-0.297982 -0.100017 0.37754
0.00337221 -0.126346 0.597304
-0.137324 -0.0663228 0.470931
0.0511096 -0.100938 0.489756
-0.00510528 0.0173078 0.594724
0.101836 -0.0327592 0.165359
-0.178571 -0.0530036 0.456204
-0.191949 -0.0652627 0.515475
-0.05951 -0.038363 0.319615
0.0262868 0.0765361 0.0360849
-0.0101895 0.074411 0.134845
-0.000894793 0.0120984 0.298117
0.080467 -0.0508937 0.214264
-0.109993 0.0676122 0.0732863
-0.252614 -0.0371591 0.341092
0.166207 -0.0453473 0.529203
0.442226 -0.0653596 0.31646
-0.314121 -0.0806971 0.375202
-0.0200837 -0.125522 0.626771
-0.19256 -0.080488 0.523598
0.163797 -0.0218447 0.456561
-0.124011 -0.0654358 0.45464
0.0204548 0.00471671 0.304153
0.0178646 0.0157719 0.635522
-0.112103 -0.0652728 0.543554
-0.391958 -0.0812088 0.323898
-0.146338 -0.0971993 0.453115
-0.176388 -0.0687345 0.471707
-0.312943 -0.0465012 0.292321
-0.0658139 -0.022893 0.137826
-0.344331 -0.0510888 0.296495
-0.0536807 0.062796 0.053306
0.388595 -0.0561743 0.386445
-0.0520259 -0.0128773 0.348664
0.0450676 -0.0452008 0.178441
0.0379562 0.0582905 0.124636
-0.315405 -0.0700566 0.398879
0.00251491 -0.126346 0.498325
-0.105326 -0.0518744 0.172172
-0.298281 -0.0423742 0.415664
0.113421 0.0676388 0.0672627
0.363005 -0.0791974 0.267393
-0.056876 -0.0906027 0.569383
-0.261304 -0.0575508 0.29516
-0.036056 -0.0619479 0.170631
0.451321 -0.0850369 0.33555
0.0916007 -0.0208115 0.564554
0.245588 -0.0725596 0.389898
0.0608679 0.0593617 0.0883609
0.118169 -0.0651507 0.471433
-0.0208685 0.0130476 0.551874
0.243399 -0.0339257 0.430643
-0.196249 -0.0693401 0.371351
0.0103351 -0.0857827 0.205087
-0.417807 -0.0620415 0.281282
-0.0100519 0.0150817 0.492542
-0.00310173 -0.0870039 0.211619
0.165421 -0.0869167 0.53163
-0.0503559 -0.0987402 0.407718
0.443534 -0.084787 0.363107
0.114482 -0.0655961 0.554419
0.184388 -0.0747446 0.481776
-0.410653 -0.0711772 0.399666
0.325219 -0.0465657 0.414073
-0.015894 0.0631449 0.0703971
-0.0944685 -0.0637484 0.48352
-0.0613573 -0.0373648 0.687474
0.00253233 0.017354 0.393523
-0.0357447 -0.0204335 0.129346
-0.329108 -0.0486363 0.319608
0.237251 -0.0337773 0.486482
-0.018975 -0.117598 0.370188
0.0558812 0.0621456 0.0607341
-0.0128112 0.0385439 0.119031
0.0486684 -0.0269685 0.288223
-0.138351 -0.066135 0.427084
0.369137 -0.0801787 0.376962
0.322453 -0.0462812 0.388197
-0.156539 -0.0672381 0.422567
0.0858027 -0.027513 0.569982
0.288746 -0.0747196 0.302478
-0.0128067 0.0498355 0.113361
0.123008 -0.0495759 0.117001
0.00289302 -0.126346 0.494641
0.147468 -0.0198049 0.451674
0.311351 -0.0444596 0.395668
0.221307 -0.0313716 0.49378
0.156533 -0.0206204 0.46235
-0.0354641 -0.0952025 0.735372
-0.0701984 -0.0507815 0.63006
0.0640201 -0.0726845 0.490198
0.186618 -0.0278387 0.316839
-0.0591655 -0.0174345 0.621163
0.375758 -0.080143 0.312044
0.00578243 0.0157576 0.520214
-0.359324 -0.0526693 0.353675
0.021314 -0.0360799 0.742115
0.155861 -0.0642407 0.325942
-0.0644367 -0.0737969 0.683227
-0.325263 -0.0475439 0.363061
0.0561486 -0.00583072 0.488698
0.0946965 -0.0637831 0.488841
-0.0512986 -0.0961802 0.399304
0.163371 -0.055247 0.530955
0.0150052 0.0405974 0.150865
-0.0419901 -0.109606 0.511502
0.0820821 -0.0443632 0.133589
0.106613 -0.0137353 0.530121
-0.0533438 -0.00477058 0.546338
0.0863034 -0.03085 0.570728
-0.0391879 -0.0181044 0.234794
0.09706 -0.0484473 0.149942
-0.180956 -0.0689026 0.447484
0.403621 -0.0822619 0.364705
-0.30283 -0.0949134 0.437168
0.119236 -0.0653643 0.506328
0.174103 -0.0233675 0.463474
0.238358 -0.0634959 0.301916
-0.0394853 0.0768946 0.0225067
-0.344653 -0.103001 0.375159
-0.0969579 -0.0144969 0.343156
-0.148788 -0.0664836 0.386357
-0.0361742 0.00437639 0.673318
0.0254436 -0.0813131 0.212778
0.336707 -0.0494586 0.346834
-0.242082 -0.0341757 0.465162
-0.00433 -0.119824 0.396474
-0.177113 -0.0697013 0.451848
-0.173574 -0.0755634 0.442187
0.149473 -0.0911731 0.439746
-0.0508815 -0.00243269 0.619346
0.0555852 -0.025334 0.183581
0.0536133 -0.0274929 0.327144
0.208876 -0.0288082 0.436626
0.0393486 -0.111525 0.635579
0.333864 -0.049532 0.296708
-0.32099 -0.110968 0.437694
-0.390341 -0.0798513 0.408059
0.176356 -0.042179 0.318845
-0.131668 -0.0181905 0.431824
-0.11179 -0.0581169 0.338579
0.21943 -0.0716355 0.488969
-0.0318327 -0.0123077 0.201009
-0.135269 -0.0560931 0.1548
0.0704987 -0.0575574 0.350662
-0.0471274 -0.0802655 0.287338
-0.195622 -0.110192 0.522961
-0.330878 -0.0654848 0.381807
-0.0995711 -0.0482112 0.143678
-0.0980026 -0.0384434 0.565346
0.0903615 -0.0630998 0.422245
0.0359091 -0.114024 0.559826
0.0126769 -0.12152 0.416659
-0.048645 -0.0627147 0.235233
-0.00833242 -0.126346 0.543418
0.059894 -0.043279 0.163813
0.0905745 0.0572535 0.0910502
0.15474 -0.0661562 0.326329
-0.0855216 -0.0633092 0.510613
-0.0749602 -0.0628164 0.545442
0.038059 0.00876686 0.560585
0.179733 -0.0248055 0.49705
0.016619 -0.126346 0.539205
0.060167 -0.00730175 0.461237
0.280629 -0.0400743 0.400491
-0.133459 -0.0652342 0.341996
-0.0893932 0.073838 0.0426204
-0.0199444 0.0130749 0.48209
0.077868 -0.058857 0.34858
-0.0389159 0.000589818 0.675972
0.166797 -0.111082 0.534825
-0.0779707 -0.00924335 0.535325
0.199265 -0.027991 0.500844
0.382391 -0.0568725 0.266578
-0.144064 -0.0667221 0.467449
-0.0315311 -0.0188449 0.126564
-0.0270358 0.0137962 0.638769
0.0233438 -0.123153 0.578533
0.00868466 0.103851 0.023233
-0.435618 -0.0839361 0.322867
0.0397448 -0.0366966 0.12095
-0.174087 -0.0245392 0.423219
-0.0120518 0.0418188 0.104544
-0.00280056 0.0788658 0.133633
0.0575443 -0.0400929 0.135902
-0.0380033 -0.0884899 0.736687
-0.168029 -0.0677335 0.392965
-0.111463 -0.0468946 0.558595
0.299234 -0.0441032 0.334389
-0.301429 -0.0434283 0.387908
-0.159622 -0.021773 0.444036
0.0511249 -0.0215616 0.143195
-0.0131142 -0.0882463 0.218264
0.253501 -0.0376572 0.308024
0.366247 -0.06433 0.423505
0.277203 -0.0392826 0.434496
0.329142 -0.0563096 0.360293
0.033039 -0.116109 0.527659
-0.141053 -0.0669562 0.526195
-0.0084617 0.117304 0.102182
-0.191031 -0.0274816 0.388439
0.0233275 -0.123165 0.563996
-0.027104 0.0131674 0.608115
-0.439472 -0.0838729 0.247857
-0.31684 -0.0471238 0.285838
0.0103516 -0.118127 0.37628
-0.31777 -0.0774537 0.439099
0.432604 -0.083692 0.315884
-0.00842342 0.0458223 0.155569
-0.064689 -0.022972 0.104208
0.241942 -0.0337115 0.432093
-0.0480665 -0.0151224 0.325101
0.131953 -0.0186444 0.398914
-0.460902 -0.0684268 0.286748
0.13582 -0.01746 0.476838
-0.0158978 0.0580943 0.141708
-0.279222 -0.0394979 0.42525
-0.117473 -0.0162782 0.417755
0.00943794 0.0104479 0.682706
-0.0741225 -0.0237511 0.102086
-0.0679931 -0.0683432 0.66776
-0.297003 -0.108187 0.397761
0.347997 -0.100376 0.402639
0.375612 -0.0556935 0.300732
0.3062 -0.0767126 0.440175
0.411693 -0.0821709 0.25372
0.104283 0.0711633 0.0548277
-0.0660321 -0.0606752 0.345488
0.00972882 -0.0774312 0.160422
0.24252 -0.0351496 0.38099
0.265422 -0.0390602 0.338514
0.154034 -0.0212231 0.525006
-0.324355 -0.124134 0.447692
0.00599831 0.00645306 0.255049
0.0108163 -0.115913 0.351191
-0.176706 -0.0835815 0.530325
0.445175 -0.0660676 0.29256
0.331689 -0.0554016 0.387963
-0.0223782 -0.0731628 0.794112
0.228282 -0.072208 0.488204
-0.0687812 -0.0699462 0.637416
0.0554968 -0.0891191 0.696684
-0.180988 -0.074888 0.533576
-0.163201 -0.114315 0.439237
-0.321005 -0.127296 0.368985
0.124313 -0.0183754 0.347506
0.0753414 -0.0617754 0.370649
-0.0544202 -0.0277816 0.330992
-0.0692004 0.058076 0.0992908
-0.0146889 0.013573 0.408684
0.0598382 -0.0851126 0.580515
0.213496 -0.070922 0.449821
0.438047 -0.0650625 0.281697
-0.221095 -0.0307971 0.462127
-0.0570816 -0.0863966 0.46937
