0.0744606 -0.0438126 0.142889
-0.178722 -0.0685745 0.415846
-0.0902541 -0.0125065 0.399653
-0.0510991 -0.0840756 0.322663
0.226033 -0.0332291 0.344809
0.0282122 -0.119616 0.603399
-0.310173 -0.0932464 0.449459
0.208708 -0.0288848 0.465217
0.148428 -0.020664 0.431212
0.0502022 -0.102971 0.621878
0.0854417 -0.0630239 0.453229
-0.200035 -0.0499304 0.511253
-0.25912 -0.0684589 0.479324
0.145947 -0.0979219 0.49757
0.0454124 -0.0709181 0.240879
0.215204 -0.0327424 0.499567
0.145754 -0.0211405 0.369097
-0.297196 -0.075401 0.33583
-0.0137382 0.0545792 0.124133
-0.0443874 -0.00950994 0.692232
-0.0973245 0.0681127 0.0881907
0.0453218 -0.025059 0.270718
-0.0131001 0.0245288 0.130664
0.290012 -0.0437819 0.286084
0.293243 -0.0755729 0.396465
-0.120879 -0.0644809 0.347656
-0.152335 -0.0898688 0.532694
0.064174 -0.0327479 0.35094
-0.0191028 -0.118898 0.38668
-0.0609826 -0.0828859 0.55869
-0.15494 -0.114593 0.520451
0.050827 -0.0395943 0.144466
-0.422317 -0.0625789 0.306112
0.125857 -0.0183662 0.361254
-0.0887098 0.0742634 0.0366399
0.331958 -0.0628625 0.394555
-0.331857 -0.0771486 0.399108
-0.117432 -0.0172207 0.356219
0.0515368 0.0721596 0.0205393
-0.020549 -0.103655 0.304329
-0.20238 -0.0279369 0.468812
0.0133842 0.0399271 0.15821
-0.00784253 0.0162596 0.459729
0.0859916 -0.00989498 0.501308
-0.312244 -0.122048 0.350011
0.0512104 -0.020553 0.694597
-0.0307058 -0.00989012 0.213562
-0.00635755 0.0769994 0.0213764
-0.242096 -0.0720561 0.349514
0.414339 -0.0689248 0.251597
-0.206513 -0.0307412 0.316258
-0.451788 -0.0659999 0.33737
-0.413125 -0.0827758 0.354491
0.0269786 -0.102754 0.316949
0.189376 -0.0613288 0.316035
0.30454 -0.103123 0.449638
-0.0837405 -0.0481227 0.233458
0.127139 -0.0657306 0.478458
-0.0197537 -0.0499123 0.0730667
0.0967484 -0.0645729 0.565051
-0.277716 -0.0398643 0.395928
0.0404796 -0.107205 0.701451
-0.236832 -0.0330165 0.442443
-0.0651056 -0.0267279 0.599958
-0.0938574 -0.0633464 0.425994
0.25165 -0.036186 0.398908
-0.114085 -0.0141897 0.488832
-0.0466112 -0.0673141 0.736511
0.240224 -0.0723833 0.413078
-0.115894 -0.0494888 0.130759
-0.0588248 -0.0810861 0.446795
-0.066876 -0.00987839 0.359412
0.0161396 -0.126346 0.491969
0.0867934 -0.0293875 0.166412
-0.178291 -0.0448889 0.448681
-0.293304 -0.0429749 0.354522
0.313523 -0.130376 0.408632
0.176894 -0.0429912 0.434712
0.111599 -0.0639729 0.359181
0.185852 -0.087329 0.533422
0.407056 -0.0822802 0.339761
0.0367135 -0.0205946 0.11704
-0.101322 -0.0641588 0.481042
-0.0385936 -0.0821109 0.258617
0.00890471 0.00573753 0.0627345
-0.467561 -0.0714873 0.296676
0.251217 -0.0354813 0.456327
-0.299202 -0.0758436 0.380788
-0.313974 -0.0639119 0.372857
-0.149553 -0.0582311 0.327572
-0.379466 -0.0548541 0.395692
0.357118 -0.0788324 0.267476
0.22255 -0.0372098 0.304973
0.0417383 0.00447702 0.454117
-0.377078 -0.0756476 0.261738
0.0569348 -0.0111872 0.616386
-0.0532714 -0.0977039 0.629977
-0.0378056 -0.0121809 0.280231
0.0521142 -0.0458379 0.19525
-0.29603 -0.0492358 0.459393
0.405284 -0.059006 0.353502
0.0544612 -0.0311218 0.3137
0.444424 -0.084305 0.295699
-0.205558 -0.0706061 0.480305
-0.02076 0.00515932 0.309674
0.0138053 -0.0011871 0.168251
-0.0328523 -0.115159 0.692291
-0.0201802 0.0133373 0.54591
0.210114 -0.0710694 0.492499
0.0221025 -0.00275496 0.213008
0.120371 -0.0165845 0.427342
0.127825 -0.0504448 0.5498
0.0601748 -0.00785025 0.41622
-0.0692188 -0.049564 0.637194
-0.274074 -0.0464218 0.29081
-0.337389 -0.0557882 0.437991
0.176583 -0.121319 0.477618
-0.0240361 -0.0115624 0.139841
-0.0172954 -0.126346 0.636539
-0.203274 -0.0296471 0.36153
0.0699344 -0.0633563 0.524444
0.43281 -0.0628656 0.359618
0.0183459 -0.124989 0.457952
-0.0413952 -0.110038 0.564658
-0.0586345 -0.084915 0.69217
0.313719 -0.0800264 0.366198
0.305627 -0.115696 0.347501
-0.00890014 0.0153735 0.389775
0.146621 -0.091361 0.466238
0.347831 -0.0963293 0.416214
-0.401489 -0.0594003 0.317563
-0.0123386 0.0878968 0.0891225
0.0595924 -0.0708141 0.336127
0.0452253 -0.0649175 0.739918
-0.0770124 -0.00887327 0.523992
-0.468313 -0.0805942 0.367077
-0.0258388 -0.0693055 0.162703
0.330371 -0.0473547 0.412203
-0.149315 -0.0843279 0.495281
0.102963 -0.0284258 0.129557
-0.0675572 -0.0518612 0.351198
-0.337483 -0.0778544 0.327824
0.299169 -0.0755193 0.335119
0.126726 -0.0168502 0.52454
0.349667 -0.0517811 0.308481
-0.0150202 0.0132985 0.671759
-0.0994754 -0.0339982 0.183066
-0.0397635 0.00610122 0.596852
-0.214839 -0.0707239 0.401455
-0.114903 0.0738688 0.013324
0.0859259 -0.046193 0.345542
-0.178811 -0.0246403 0.438053
-0.322385 -0.129446 0.38639
0.249829 -0.0731902 0.452473
-0.413078 -0.0829009 0.369032
0.000101504 -0.102781 0.293119
-0.032151 -0.0489154 0.116638
0.197287 -0.0286786 0.367776
0.0156333 -0.054512 0.0782228
0.0659293 -0.0650725 0.440504
0.00502544 0.015934 0.507184
0.00686197 0.131172 0.0378882
-0.158145 -0.0766564 0.44783
-0.0860612 -0.041732 0.108549
-0.105558 -0.0636683 0.370618
-0.0423523 0.0711427 0.103442
0.01166 -0.121351 0.414648
0.033981 0.0072766 0.671568
0.232622 -0.0322454 0.431825
-0.124443 -0.0621586 0.551939
0.261813 -0.0389932 0.29723
0.19395 -0.0697897 0.465742
0.198582 -0.0697509 0.407238
0.00939758 -0.0957794 0.78458
-0.0149733 -0.126346 0.49069
0.0422876 -0.10939 0.507419
-0.227531 -0.0330724 0.371614
0.0108131 -0.0294297 0.739248
0.063759 0.0588357 0.0932629
0.162187 -0.0674259 0.445832
-0.0160241 -0.126346 0.657202
0.0570349 -0.00577894 0.52956
0.138696 -0.0179756 0.467488
0.422469 -0.0626832 0.291257
0.136005 -0.065718 0.390857
-0.0916326 -0.0265661 0.131633
0.0123882 0.118641 0.0803623
-0.0104881 0.110713 0.0541993
-0.441608 -0.0840584 0.269146
0.0198935 0.0607923 0.102304
0.0892708 0.0690017 0.018847
-0.081486 -0.0483116 0.174204
-0.0312127 -0.0200029 0.714949
-0.0284012 -0.062386 0.783623
0.116012 0.0552269 0.0760825
-0.0305192 0.0645681 0.0408308
0.0177462 0.00294357 0.276131
0.0125459 -0.126346 0.566794
0.370483 -0.0798666 0.323609
0.0677738 -0.0724923 0.623617
-0.0447475 -0.103294 0.405262
0.448614 -0.0852091 0.375532
-0.276524 -0.0745571 0.400291
-0.338974 -0.0499949 0.332047
-0.118215 -0.0163283 0.422462
0.0766203 -0.0255326 0.574468
0.106446 -0.0640131 0.410032
-0.164028 -0.056115 0.530628
0.0382539 0.00747693 0.606417
0.0266225 -0.0904318 0.264098
0.0569043 -0.0564919 0.270519
0.158164 -0.0678498 0.509192
0.17285 -0.023101 0.458804
-0.0341254 0.00866311 0.438933
-0.0631853 -0.0358811 0.661815
-0.318602 -0.128746 0.447581
0.28453 -0.0506863 0.465867
-0.227549 -0.0323301 0.491852
-0.0855064 -0.0627256 0.573134
-0.348607 -0.102154 0.403953
0.0211314 -0.0821751 0.205692
0.0276956 -0.0674723 0.159705
0.0575931 0.0606221 0.0756779
0.0530901 -0.0927735 0.409675
-0.241143 -0.0358348 0.310493
-0.0584707 -0.0855678 0.51704
0.301584 -0.0922949 0.418247
-0.14917 -0.0196819 0.482645
0.458795 -0.0680432 0.301923
0.327012 -0.128071 0.373278
0.232337 -0.0327344 0.471685
-0.024621 0.0142438 0.636612
0.182057 -0.0603852 0.501029
0.188009 -0.0949423 0.438599
-0.122819 -0.0303318 0.333331
0.340872 -0.0779438 0.299254
0.0159276 -0.117503 0.721938
0.175519 -0.0249341 0.408651
-0.332236 -0.0542614 0.394675
0.044579 -0.107725 0.592015
0.267827 -0.0736018 0.33874
-0.0390928 -0.0756947 0.22247
0.0652566 -0.0401842 0.121765
0.115871 0.0604182 0.0468175
-0.0112777 0.0263902 0.0978539
-0.194782 -0.0604655 0.314425
0.408347 -0.0825411 0.362041
-0.0602595 -0.026427 0.186582
-0.342258 -0.0509446 0.273151
0.230714 -0.0715075 0.373854
-0.124786 -0.0176345 0.395352
0.023226 0.0636512 0.0585566
0.154946 -0.0857245 0.535282
-0.182313 -0.120402 0.492433
-0.0431921 -0.101113 0.351404
-0.207658 -0.0700354 0.369104
-0.182436 -0.0691239 0.474887
0.307365 -0.0749489 0.281933
0.067305 -0.0642421 0.484419
0.0508666 -0.00807371 0.663
0.0678048 0.0627595 0.0455756
-0.0930889 -0.0123069 0.448403
-0.180769 -0.0266432 0.341812
-0.441668 -0.0656196 0.274182
0.0940327 -0.036719 0.206866
-0.0783686 0.0613039 0.0578846
0.228272 -0.0710542 0.323168
-0.0748636 0.0656467 0.021634
-0.0462787 0.00206102 0.540447
0.140573 -0.0668323 0.519807
0.447141 -0.0764364 0.242169
-0.0393024 -0.100947 0.716441
-0.184443 -0.0735711 0.520609
0.327634 -0.0478727 0.364387
-0.061014 -0.0352119 0.346091
0.0315636 -0.0442004 0.103232
0.00651446 -0.11033 0.7603
-0.148015 -0.0258091 0.534644
-0.268026 -0.0734852 0.312922
0.00858052 0.104661 0.0208366
0.158205 -0.0667107 0.329893
-0.245157 -0.0728492 0.442891
0.0487508 -0.0953002 0.341796
-0.401039 -0.0580632 0.365965
0.378563 -0.0559471 0.323566
-0.0573778 -0.0489973 0.249077
0.00590054 -0.0726724 0.13497
-0.305527 -0.0908565 0.3528
0.0263084 0.00741978 0.355201
0.0674035 -0.0697798 0.662802
-0.0340734 -0.0155101 0.183696
0.0651581 -0.00763536 0.474251
-0.152927 -0.105494 0.433889
-0.0603043 -0.00779022 0.422728
0.000718748 -0.126346 0.535838
0.0595368 -0.0435114 0.166162
0.333619 -0.0948192 0.441435
-0.165789 -0.0675442 0.386433
0.271877 -0.0715377 0.292275
0.107874 -0.0494164 0.142595
0.366123 -0.0527248 0.388402
0.0133482 -0.00374274 0.142264
-0.287847 -0.0757888 0.46267
-0.0625202 -0.0498658 0.313899
-0.0087869 0.0261182 0.052594
-0.29876 -0.10118 0.423802
-0.348653 -0.0501323 0.404584
-0.00131709 -0.0786911 0.16716
0.310892 -0.0591091 0.452678
-0.0646679 -0.00660535 0.498706
-0.0895335 -0.0349854 0.56969
-0.370962 -0.0799827 0.335103
0.0139146 0.0450654 0.132099
-0.374061 -0.0806966 0.402023
-0.0631872 -0.078576 0.654618
0.366649 -0.0721219 0.421742
0.0575012 -0.0888621 0.680482
-0.0349121 0.00976357 0.472226
-0.0468227 -0.106095 0.479741
0.122477 -0.0360639 0.151564
0.147334 -0.0218585 0.338654
0.00856412 0.0119465 0.193182
-0.0613332 -0.0823419 0.591987
-0.412815 -0.0791206 0.396587
0.31108 -0.0905059 0.341489
-0.0703239 0.0579144 0.100601
-0.326738 -0.0485031 0.293834
-0.00385998 0.0105402 0.294749
-0.338338 -0.0871592 0.446654
-0.185915 -0.0257589 0.495161
-0.112909 -0.0331696 0.148053
-0.434515 -0.0678222 0.24601
0.0749354 -0.0106785 0.377213
0.0379306 -0.0758186 0.757562
-0.162985 -0.0643348 0.463985
-0.183766 -0.112264 0.450104
0.0136323 -0.125748 0.689387
-0.054124 -0.0454307 0.714689
-0.145644 -0.066156 0.366542
0.387327 -0.080694 0.26365
-0.0373803 0.0022973 0.361718
0.0934068 -0.0499938 0.175702
-0.00692896 0.119802 0.0981163
0.0279212 -0.109842 0.348828
-0.443644 -0.0846897 0.349912
0.390575 -0.0601172 0.25842
-0.341546 -0.0945311 0.371475
0.0517166 -0.0530004 0.228342
-0.258612 -0.0366955 0.458598
0.0505802 -0.0966638 0.379191
-0.0396915 -0.111276 0.604901
-0.187188 -0.0692522 0.440616
0.428651 -0.0832545 0.267868
-0.0250843 -0.0953851 0.282223
0.0844267 -0.0634015 0.542128
-0.0318986 -0.0246478 0.102881
0.394285 -0.0570167 0.380691
-0.0665871 -0.0642468 0.46775
0.136797 -0.0503752 0.146495
-0.0859593 -0.0512258 0.205628
-0.105693 -0.0516224 0.16726
0.176864 -0.0246961 0.515953
0.0505358 0.0583635 0.11262
0.0281738 0.0111983 0.574652
0.0966665 -0.0638638 0.478559
0.39345 -0.0819645 0.404343
0.18133 -0.0687541 0.418056
0.0625519 -0.0311357 0.235517
0.0793607 -0.0104163 0.437963
0.0554665 -0.0918405 0.531272
0.145133 -0.0667323 0.454584
-0.186666 -0.0265872 0.407782
0.32285 -0.0775107 0.411199
0.000767775 0.0179574 0.431652
0.360269 -0.0536054 0.270104
-0.409951 -0.0821505 0.282961
-0.22455 -0.0718414 0.497755
-0.0196459 0.0752508 0.0646464
-0.0150474 -0.126346 0.568919
-0.410029 -0.0823647 0.326938
0.0217727 0.0775856 0.0203583
-0.0119096 0.00169428 0.700486
-0.31299 -0.0563318 0.351006
0.334252 -0.0492882 0.438799
-0.0121124 -0.00510921 0.122885
-0.0763551 -0.062744 0.510292
-0.0607642 -0.0223998 0.132669
-0.317984 -0.0728472 0.423623
0.472205 -0.0729537 0.361703
-0.0439729 -0.0446371 0.172917
0.00114532 -0.126346 0.608666
0.219001 -0.0709245 0.39356
0.00462339 0.0791909 0.132899
-0.272751 -0.0402924 0.325309
0.11565 -0.0323064 0.0878727
0.265721 -0.0738011 0.387641
0.419546 -0.0620301 0.317798
0.0345506 -0.115011 0.561731
-0.133853 -0.0661935 0.490329
0.205256 -0.0284298 0.43375
0.131941 -0.0187845 0.388834
0.0203913 0.00037833 0.251523
0.077716 -0.00953678 0.552228
-0.177177 -0.0238283 0.461459
-0.0807593 -0.0273641 0.158517
0.333669 -0.0842908 0.381853
-0.327084 -0.0474299 0.375845
0.20439 -0.0490816 0.311253
0.233907 -0.033988 0.37325
-0.349313 -0.101968 0.441315
0.0742186 -0.0235116 0.126736
0.0544469 -0.0956604 0.650543
-0.328814 -0.112812 0.437079
-0.0905041 -0.013068 0.368914
0.0948187 -0.0439285 0.110109
-0.00813682 -0.0387694 0.771415
-0.24091 -0.0340005 0.416416
0.28176 -0.0417059 0.318034
0.173949 -0.122608 0.506048
-0.0474028 -0.0827752 0.296298
-0.155149 -0.0228036 0.351728
-0.000659599 0.0169534 0.568892
0.22747 -0.0718189 0.455791
0.278625 -0.0395322 0.407046
-0.272076 -0.0738989 0.345679
-0.19554 -0.0837755 0.502411
0.322859 -0.063766 0.342723
0.0262419 -0.0200008 0.0790038
0.0591884 -0.0840692 0.503807
-0.352275 -0.0790315 0.363431
0.000211248 -0.0889981 0.222284
0.196114 -0.0451505 0.513273
-0.0805999 -0.032487 0.207467
-0.35542 -0.051161 0.378778
-0.0672614 -0.00775226 0.478616
0.057701 -0.0178748 0.637396
0.0399472 -0.085061 0.278898
-0.304973 -0.0763675 0.407701
0.017447 0.0139355 0.47465
-0.00453122 0.0192401 0.621201
-0.00119913 -0.0196166 0.721929
-0.431027 -0.0625989 0.356559
-0.442892 -0.0848737 0.37861
-0.059396 -0.0785724 0.40624
0.000356508 0.0153631 0.326982
0.147528 -0.0966206 0.522089
0.169789 -0.0248915 0.353622
-0.426462 -0.0628955 0.326769
-0.161246 -0.0228034 0.410967
0.0501809 -0.0131458 0.339211
0.0392268 0.00706459 0.633154
-0.452287 -0.0848749 0.30965
0.157485 -0.0751672 0.487825
-0.0342188 -0.0694917 0.184504
-0.113089 0.0656777 0.0769553
0.3149 -0.0467665 0.294808
0.0349568 -0.114716 0.630949
-0.29964 -0.114469 0.374247
-0.0580332 -0.0796881 0.357858
-0.149174 -0.110076 0.492988
0.340593 -0.12563 0.418817
0.266031 -0.0740316 0.422993
0.108122 -0.0361409 0.184491
-0.0163458 0.061365 0.0965961
-0.366538 -0.0540603 0.331414
0.194053 -0.11328 0.52568
0.313808 -0.128505 0.437827
0.0566474 -0.0551599 0.713915
-0.102686 -0.0439575 0.340545
0.299039 -0.0975572 0.37066
0.0209404 0.0116287 0.391687
-0.0493034 -0.101651 0.426656
-0.145649 -0.0938482 0.469084
-0.0176137 -0.0130206 0.0626603
-0.00902993 0.0598905 0.0447764
0.201406 -0.0297014 0.33836
0.119777 -0.0187328 0.332982
-0.156419 -0.0671562 0.41266
0.368249 -0.0796089 0.293334
0.330302 -0.0772096 0.279076
-0.109837 -0.0641779 0.403756
-0.235582 -0.0724359 0.468625
0.176528 -0.0682545 0.391627
0.198548 -0.0692995 0.339764
0.0681581 -0.0417271 0.620207
-0.182559 -0.121133 0.525551
-0.465642 -0.0743662 0.269545
-0.0354 0.0751889 0.0557743
0.0219411 -0.0758985 0.790762
-0.0404868 -0.0190122 0.253201
0.102411 0.0673649 0.0889182
-0.125246 -0.0161237 0.467784
-0.0348003 -0.0793366 0.7626
-0.112643 -0.0646755 0.446718
0.105797 -0.0151231 0.379463
-0.105706 -0.0458507 0.106695
-0.0348186 -0.100609 0.32799
-0.0511769 -0.100797 0.538749
0.433766 -0.0841079 0.355509
0.0278779 0.0761849 0.0417011
0.0324893 -0.0136044 0.185379
0.0612395 -0.0372357 0.688388
0.0637254 -0.0266229 0.182316
-0.217656 -0.0489916 0.307372
0.0987329 -0.0378235 0.564925
-0.0134944 5.67054e-05 0.162637
0.316045 -0.0609529 0.404469
0.00468462 0.0605413 0.146256
0.194533 -0.0270377 0.489788
-0.344713 -0.110389 0.380443
0.140422 -0.0197939 0.406622
-0.0358766 -0.0912936 0.740308
0.398654 -0.0815548 0.311967
0.119511 -0.0150183 0.486366
-0.0379602 -0.112534 0.49583
-0.102064 0.0617937 0.0392061
-0.388904 -0.057688 0.292759
0.0359258 -0.113566 0.468794
0.440729 -0.0655014 0.266119
0.0138915 0.120451 0.096788
-0.0526865 -0.0496558 0.225453
-0.078535 -0.0622646 0.409429
-0.313888 -0.0614201 0.280146
0.112372 -0.0646231 0.441968
-0.0179839 -0.121584 0.417423
0.33818 -0.125574 0.398189
-0.0878982 -0.0103503 0.484462
0.232811 -0.0618736 0.303509
0.0397945 -0.0179215 0.254513
0.0405382 -0.0140909 0.290702
-0.0599485 -0.00667842 0.551768
-0.0738358 0.0709226 0.0802379
-0.0707485 -0.0575405 0.590596
0.113207 -0.0652661 0.537961
-0.00694049 0.00700392 0.27308
-0.231946 -0.0340006 0.351686
-0.404999 -0.0601481 0.277663
0.0100357 0.0128979 0.67555
0.159511 -0.0228188 0.389993
-0.0116224 -0.0624618 0.0955369
0.152174 -0.0319675 0.534205
0.240989 -0.0356663 0.323578
0.263982 -0.0372202 0.434871
-0.0962422 -0.0639788 0.513198
-0.13019 -0.0171174 0.50953
-0.00881253 0.102273 0.0263941
-0.0522869 -0.0301249 0.300942
-0.0361227 -0.0503363 0.147983
0.08386 -0.0506906 0.573525
0.00131005 -0.110527 0.327373
-0.36747 -0.0546252 0.277088
0.158612 -0.0276014 0.322623
-0.00441768 -0.0441539 0.058575
0.0101006 -0.00538205 0.0938485
-0.0628448 0.0594247 0.0858536
0.0822986 -0.0626654 0.431538
-0.318833 -0.0766747 0.321986
0.0482154 -0.0879909 0.709953
0.296258 -0.0755646 0.368351
0.0906314 -0.0111453 0.52871
0.0909016 -0.0627639 0.372847
0.0264407 -0.0838467 0.227501
0.000354401 0.131592 0.0634101
-0.273023 -0.039754 0.372083
-0.0931427 0.0570569 0.109353
0.154122 -0.114231 0.474241
-0.00975425 0.0855634 0.0489299
0.0129328 0.0917313 0.095392
0.122368 -0.0633733 0.33571
-0.0106117 -0.117214 0.732465
-0.322806 -0.13122 0.411559
-0.181674 -0.0354415 0.518756
0.000168639 0.00669409 0.223206
-0.27275 -0.0491097 0.471873
0.0576929 -0.0841006 0.453612
0.0498884 0.0744708 0.057225
0.0085007 0.0593584 0.0351937
-0.313891 -0.0650438 0.450393
0.0326029 -0.0102089 0.706925
-0.165344 -0.0682369 0.502514
0.0341417 -0.100932 0.73034
0.0431963 -0.00828882 0.314951
-0.0588661 -0.067187 0.711278
0.326536 -0.124953 0.357421
-0.233507 -0.0328329 0.466443
-0.0947981 -0.0466554 0.135769
-0.0338459 0.0575485 0.137168
0.00935535 -0.126346 0.655197
0.17454 -0.0769026 0.437707
-0.176551 -0.0809539 0.43177
-0.304028 -0.103571 0.335509
-0.0390232 0.00503405 0.661969
0.229979 -0.0718344 0.429099
-0.297195 -0.0432007 0.379391
-0.0458623 0.00171433 0.620832
0.342537 -0.107124 0.362595
0.43985 -0.0841782 0.319926
-0.0241171 -0.00193819 0.258363
-0.0522914 -0.099307 0.655015
0.387662 -0.0568337 0.34837
0.147872 -0.0942671 0.441631
-0.0537262 -0.00638546 0.591061
0.219068 -0.0518297 0.501175
-0.00978956 0.105686 0.11349
0.319779 -0.0462978 0.379104
0.44241 -0.0655951 0.303402
-0.391721 -0.068903 0.409849
-0.125393 -0.0334513 0.12559
0.0801483 0.0697955 0.0888876
0.063283 -0.0220407 0.597981
-0.166583 -0.100568 0.524534
0.049366 -0.0264709 0.208043
0.0683533 -0.070036 0.599055
0.0689623 -0.0616962 0.413389
0.0926971 0.0590371 0.0687381
0.0107437 0.0558008 0.0773139
0.0161652 -0.080076 0.182728
0.0662317 -0.062419 0.35851
-0.218509 -0.0704651 0.327424
0.0698603 -0.0662916 0.566647
0.0193637 -0.0149068 0.0615913
-0.100239 -0.0631723 0.346439
0.128373 -0.0246507 0.545133
-0.292259 -0.0749944 0.315448
-0.104741 -0.0528366 0.562418
-0.149309 -0.020794 0.431184
0.15017 -0.0585629 0.538045
-0.199488 -0.0699 0.419483
-0.0140477 0.00678133 0.199618
-0.119676 -0.065228 0.467958
-0.0128243 -0.126346 0.683943
-0.351375 -0.079128 0.385776
-0.0639254 0.0739865 0.0549442
-0.315327 -0.0641731 0.395614
-0.0704062 -0.00995554 0.38106
-0.00110429 0.0237664 0.176318
0.0134125 0.0177495 0.142213
0.0654478 -0.0502277 0.251704
0.347456 -0.0784271 0.318045
0.232407 -0.0333609 0.403698
-0.374761 -0.0799833 0.284391
-0.0125637 0.014528 0.524141
0.202924 -0.0292038 0.390435
-0.187336 -0.0270446 0.380192
-0.256226 -0.0377683 0.333515
-0.0159176 0.00212374 0.228559
-0.269933 -0.038206 0.440012
0.347806 -0.0790835 0.409976
-0.250416 -0.0468851 0.297658
0.0122152 0.0346534 0.110389
-0.329088 -0.077547 0.35907
0.0582905 -0.087981 0.583577
-0.0497891 -0.0310489 0.267097
-0.00624166 -0.123323 0.438117
0.285882 -0.0756223 0.459525
-0.0957013 -0.0121499 0.538596
-0.196899 -0.106258 0.506842
0.192962 -0.0801293 0.504794
-0.187579 -0.0975717 0.438105
-0.0713962 -0.0545042 0.616448
0.0410627 0.00305569 0.406714
-0.0637323 -0.0795183 0.630813
0.158314 -0.118409 0.492288
-0.400503 -0.0588523 0.342002
-0.0239026 0.0121654 0.493329
0.000306461 -0.126346 0.51195
-0.0628736 0.0751669 0.0372794
0.191315 -0.103862 0.460069
0.419629 -0.0829214 0.32123
0.100345 -0.0306334 0.151203
0.0872803 0.0738342 0.0441597
0.0107141 0.0804339 0.0668896
-0.143883 -0.0208999 0.367177
-0.352165 -0.0786802 0.309291
-0.0996192 -0.0123858 0.518263
0.180911 -0.0479467 0.491435
0.267679 -0.0389981 0.370018
0.0426358 -0.0645424 0.205889
-0.0238353 0.0108594 0.416013
0.439712 -0.0641224 0.381615
-0.0241376 -0.122576 0.617996
0.0628865 -0.0234709 0.147495
0.308502 -0.0768291 0.437105
-0.0276658 -0.111366 0.363152
-0.349519 -0.0783723 0.270898
-0.446885 -0.0660487 0.315929
0.448559 -0.0848827 0.338159
-0.0146154 0.0421975 0.144236
-0.123171 -0.0648727 0.384842
0.20125 -0.0637254 0.510452
-0.17148 -0.0539549 0.321032
0.386685 -0.0809515 0.33316
-0.14371 -0.0475926 0.541199
-0.220651 -0.0510285 0.500349
-0.455579 -0.0663137 0.356329
-0.0315604 0.00268902 0.331584
-0.255253 -0.0727765 0.330215
0.350282 -0.0515809 0.33757
-0.328847 -0.064362 0.3625
0.106561 -0.0262473 0.10473
-0.061476 -0.0654223 0.331607
-0.301383 -0.120831 0.411331
0.328892 -0.0669711 0.364412
0.0604871 -0.0375485 0.331218
0.30161 -0.042889 0.415003
-0.233537 -0.0717753 0.385846
0.027891 -0.0125347 0.159063
-0.312797 -0.0762064 0.299785
-0.295767 -0.075455 0.358033
-0.00262874 -0.0596949 0.0702133
-0.039824 -0.00641992 0.307546
0.388639 -0.0812382 0.354499
0.00916265 0.0891577 0.0371531
0.300131 -0.115373 0.419717
0.186736 -0.0761022 0.485338
-0.0604263 -0.00814945 0.400332
-0.0930891 -0.0251371 0.111297
0.453906 -0.0848501 0.281707
0.1288 -0.0416102 0.127021
-0.271076 -0.0688596 0.292476
0.311199 -0.126332 0.371843
0.0340937 -0.115343 0.681365
-0.322444 -0.0773005 0.382837
-0.0509409 0.063022 0.0518741
-0.161763 -0.0578438 0.436732
-0.153633 -0.0202975 0.460493
0.0381248 -0.020565 0.137784
0.194628 -0.111529 0.502919
-0.31412 -0.0462822 0.336216
-0.0223128 0.0123044 0.566142
0.0804051 -0.0118763 0.356114
0.407111 -0.0604552 0.279202
-0.0858821 0.0582456 0.0830967
0.0266024 -0.0866461 0.773458
0.0647188 -0.0755625 0.546809
-0.065825 -0.0316239 0.233539
-0.030413 0.0127419 0.615592
-0.315096 -0.0452355 0.433064
0.0576537 -0.0407368 0.293818
0.0290913 0.00529761 0.690181
-0.470623 -0.0776872 0.345797
0.0378341 -0.0501924 0.752907
0.314848 -0.0768565 0.387136
-0.0216695 0.0717888 0.110886
0.046554 -0.0873194 0.304639
-0.0145463 0.0156073 0.599339
-0.16752 -0.0675083 0.365151
-0.0310152 0.076969 0.0259292
-0.166048 -0.117278 0.447764
-0.0876447 -0.0118936 0.416978
0.0665773 0.0728093 0.0637026
-0.00230722 -0.0842763 0.801517
-0.099156 0.0588515 0.0655161
0.214773 -0.0703939 0.354953
0.0277218 0.0707405 0.119134
0.121273 -0.0163099 0.449437
0.452723 -0.0658725 0.353747
0.0352533 -0.0583785 0.771266
-0.146412 -0.095606 0.511535
0.455485 -0.0676423 0.28079
-0.055837 -0.0315774 0.322769
0.351737 -0.0506467 0.4076
0.00414451 -0.117921 0.373831
0.0128844 0.0140067 0.371232
-0.00917457 0.126168 0.0246278
-0.0150658 0.0788633 0.127998
-0.119943 -0.0525146 0.149034
0.0366696 -0.043345 0.128559
0.0820525 -0.0113302 0.398335
-0.0566927 -0.0637318 0.294166
-0.0516368 -0.0131057 0.671898
-0.452369 -0.0847704 0.287795
0.0130977 -0.126346 0.588777
0.00441798 -0.0983005 0.272036
-0.161548 -0.0748667 0.520258
0.26185 -0.0387314 0.320902
-0.0186247 -0.0696266 0.142409
0.0321672 -0.110517 0.391005
-0.0300274 -0.0313312 0.0747426
0.349488 -0.110695 0.442162
-0.0287105 0.00547491 0.689775
0.0212752 -0.0128645 0.106327
0.0612614 -0.0838137 0.634176
-0.0624575 -0.0724727 0.427063
0.173942 -0.0677862 0.344956
-0.0996119 -0.0259184 0.0910091
-0.0518871 -0.00731679 0.374551
-0.0562399 -0.0882383 0.467203
0.298428 -0.0753754 0.315152
-0.317809 -0.0898789 0.337111
0.465266 -0.0720687 0.24015
-0.225364 -0.0715 0.419223
-0.0373674 -0.0391319 0.725725
0.0118844 0.0152896 0.450077
0.153056 -0.066972 0.41613
0.338834 -0.0781292 0.355459
-0.179946 -0.0688821 0.456781
0.0246883 0.00217531 0.296562
0.0566788 -0.0825316 0.357335
-0.0390468 0.0614547 0.0778132
0.0613403 -0.0320807 0.663445
-0.0771144 0.0680114 0.11373
0.105629 0.0714179 0.0518207
-0.424256 -0.0829557 0.257068
0.0240788 0.0126656 0.512199
0.0320291 0.009187 0.436009
0.15603 -0.0669412 0.387355
-0.210711 -0.0303711 0.388673
-0.391766 -0.0813224 0.339913
0.049389 -0.00249472 0.592034
-0.324489 -0.0480107 0.313688
0.0468004 0.00106289 0.477849
0.167229 -0.100585 0.524486
-0.395255 -0.0812953 0.296576
-0.368302 -0.0533834 0.416429
-0.395922 -0.0812316 0.265123
0.034503 -0.112828 0.447715
0.166678 -0.0721422 0.522972
-0.082244 -0.0630253 0.490263
-0.0910764 -0.0629254 0.393
-0.182052 -0.0557285 0.520937
0.0115994 0.0143505 0.554719
-0.156588 -0.0838467 0.428105
-0.0695384 -0.0403281 0.118342
-0.00903975 0.00887295 0.0640003
0.144999 -0.0668936 0.49307
-0.0681504 -0.048051 0.194445
-0.174651 -0.0254779 0.361871
0.319254 -0.108202 0.437886
0.00328678 -0.126346 0.633681
0.0571751 -0.0844254 0.436308
0.318295 -0.0765601 0.302487
-0.0152519 0.0293064 0.162007
0.038719 -0.107929 0.412398
-0.182541 -0.0686605 0.395624
0.177636 -0.0677124 0.455775
-0.11972 -0.0654502 0.520131
0.0779382 0.0591413 0.0775639
0.0699163 0.075266 0.031543
0.314509 -0.0452274 0.438726
0.099423 -0.0628544 0.342429
-0.260044 -0.0738515 0.452827
0.421644 -0.0829226 0.299706
0.0903767 -0.0322799 0.186888
0.468446 -0.0734737 0.320378
0.156047 -0.116114 0.513727
0.00173168 -0.125981 0.469761
0.103933 -0.0534849 0.200921
-0.02029 0.0110294 0.372798
0.103936 -0.0402011 0.339972
0.280036 -0.0412101 0.339374
-0.101376 -0.0128744 0.467366
0.0414133 -0.102913 0.362475
0.32813 -0.08136 0.435938
-0.126058 -0.0653009 0.418339
0.190228 -0.0268804 0.421254
-0.411033 -0.05986 0.399186
0.049804 -0.0869276 0.323015
0.0223449 -0.100809 0.297064
0.272357 -0.0387807 0.452852
0.0314955 0.0620705 0.0746395
0.0255689 0.0142221 0.657408
0.262847 -0.0742204 0.467938
-0.0981469 -0.0638652 0.459535
0.0544822 0.0588082 0.132493
-0.0447609 -0.0820246 0.72249
-0.343098 -0.0878403 0.426937
-0.18232 -0.117628 0.472966
0.00105946 -0.119903 0.397421
-0.119011 0.0620849 0.0283872
-0.0298823 -0.0837348 0.238509
-0.03562 -0.114234 0.583269
-0.204797 -0.0324811 0.505176
-0.298985 -0.076098 0.424371
0.0598564 -0.00755665 0.436505
-0.0113347 0.0455233 0.0912574
-0.0334698 0.0110958 0.523556
-0.0471543 -0.000307253 0.573483
0.314792 -0.116449 0.332818
-0.0515286 -0.100063 0.504195
0.373221 -0.0553104 0.304905
0.368573 -0.0803908 0.407082
-0.253787 -0.0730921 0.39252
0.135283 -0.0177386 0.498382
-0.0493517 -0.0712685 0.270877
-0.329874 -0.126532 0.373657
-0.0572798 -0.00573377 0.525138
0.0586401 -0.00600638 0.492924
0.0344741 0.001613 0.338123
-0.0344294 -0.0170896 0.163977
0.348208 -0.0789651 0.390719
0.16093 -0.0495297 0.323887
0.280225 -0.0744889 0.358822
0.0513297 -0.100882 0.54789
-0.181694 -0.0573356 0.495012
0.0388983 -0.050191 0.161692
0.049147 -0.104406 0.667153
-0.0222612 0.00253681 0.290293
-0.170657 -0.0833454 0.529419
0.0521368 -0.0228727 0.105264
0.270586 -0.0744229 0.441606
-0.0993803 -0.0373999 0.199272
-0.0657628 -0.0741322 0.575379
-0.0572446 -0.0899195 0.607399
-0.135104 -0.0189345 0.412772
-0.12469 -0.0472221 0.105773
-0.143468 -0.0204574 0.389871
-0.0219078 0.0625171 0.0745329
-0.0226017 -0.0871779 0.779248
-0.0771644 -0.0101018 0.437184
-0.387972 -0.0814641 0.388358
-0.0107889 0.00748879 0.1005
-0.206469 -0.0288577 0.427248
0.1265 -0.06525 0.407874
-0.390054 -0.0810825 0.322984
0.0679064 -0.0658659 0.507206
0.121498 -0.0654619 0.496822
0.00821399 0.117678 0.00856023
0.226719 -0.031516 0.450296
0.0778265 -0.0326701 0.216514
0.0696076 0.0571131 0.113153
-0.180747 -0.0509638 0.479968
0.24003 -0.039907 0.487883
-0.063918 -0.0281117 0.619178
0.0818739 -0.0260764 0.144394
0.0613229 -0.009148 0.356222
-0.45785 -0.0850236 0.253796
0.0171269 -0.0929862 0.247568
0.157581 -0.115403 0.457252
-0.0845291 -0.0468681 0.155348
0.16392 -0.0568089 0.43203
-0.276807 -0.0390235 0.415023
-0.198027 -0.026983 0.450219
0.0593762 -0.0818174 0.477814
0.0427015 0.00559316 0.534983
0.0246218 -0.118379 0.428329
-0.0613653 0.0565296 0.130061
0.428192 -0.0831782 0.248801
-0.45944 -0.0671179 0.374444
-0.102504 -0.0251066 0.559831
0.306449 -0.0856537 0.402081
0.157507 -0.0222202 0.413599
0.190156 -0.0259934 0.468261
0.332741 -0.0493316 0.300717
0.0507052 -0.10036 0.453186
0.267929 -0.0510883 0.474881
-0.0408559 0.00371584 0.420289
0.310566 -0.0455308 0.353107
0.0720037 -0.0589318 0.634406
0.373637 -0.0668278 0.263167
-0.0492901 -0.104302 0.591319
0.282825 -0.0744624 0.325582
-0.331443 -0.0662889 0.275113
-0.063519 -0.0767325 0.676006
-0.0597799 -0.0331847 0.680058
0.0334456 -0.00681696 0.27306
0.0115982 -0.0622637 0.0947955
0.102521 -0.0124125 0.493417
-0.0499743 -0.0975934 0.371657
-0.0516829 -0.0406006 0.154037
0.363183 -0.0580536 0.424717
-0.013176 -0.0520017 0.786759
0.260462 -0.0367137 0.415383
-0.442239 -0.0837505 0.242679
-0.0514744 -0.0369631 0.115141
-0.354181 -0.0513379 0.428429
-0.42546 -0.0834209 0.337344
0.156746 -0.0211551 0.449644
-0.0349169 -0.114745 0.630999
0.224326 -0.0718448 0.480529
0.24441 -0.0721789 0.345962
-0.31215 -0.111334 0.448258
0.0865606 -0.0632974 0.49217
-0.0838275 -0.0302015 0.180413
-0.062334 -0.0787699 0.53387
-0.258368 -0.0366199 0.410698
-0.196614 -0.0290919 0.331675
-0.132988 -0.0196613 0.34646
-0.118088 -0.0170008 0.374712
-0.112266 -0.0281355 0.115107
-0.294288 -0.0478442 0.28514
0.0599251 0.0698792 0.104927
0.164622 -0.0604196 0.491224
0.0813363 -0.0470315 0.162417
-0.062775 -0.0288363 0.204739
0.209045 -0.0701422 0.372458
0.21748 -0.0316818 0.36527
0.318835 -0.0471927 0.312765
0.327698 -0.0772877 0.336434
0.0413038 -0.0740874 0.222834
0.0322447 -0.0266302 0.0992502
0.402956 -0.0662416 0.404074
0.178361 -0.0246998 0.435053
-0.0102298 0.129786 0.0443337
0.0841534 -0.0113379 0.420314
0.0660965 -0.00692857 0.513731
-0.41705 -0.0609689 0.344922
0.0144566 -0.111499 0.743914
-0.0876211 0.0716251 0.0632756
-0.337091 -0.126606 0.445649
-0.0264118 -0.115378 0.40301
-0.163089 -0.0241798 0.335398
-0.0704218 -0.0661466 0.64308
-0.0901351 0.0754189 0.0185164
-0.243309 -0.072002 0.487635
-0.337773 -0.125324 0.394676
0.13521 -0.0668287 0.544301
0.364568 -0.079658 0.344804
0.0480994 -0.0704969 0.258867
0.422999 -0.0614249 0.375136
-0.0849325 -0.0538577 0.346259
-0.0682357 -0.052856 0.657759
-0.262313 -0.0389172 0.310504
-0.0993261 -0.0140869 0.384755
-0.163091 -0.0465159 0.464692
-0.275856 -0.074801 0.445809
0.247572 -0.0727336 0.396516
0.238562 -0.0663172 0.490531
-0.456654 -0.0853926 0.337336
-0.0100774 0.0167691 0.0802573
0.070214 -0.0472575 0.180281
0.0677281 -0.00828133 0.569166
-0.440069 -0.0652408 0.304252
0.1967 -0.0848539 0.516953
0.427046 -0.0838106 0.372234
0.385013 -0.0811434 0.372144
-0.0256357 -0.0511705 0.0959144
0.460276 -0.084255 0.252419
0.018184 -0.126346 0.509979
0.0797348 -0.0627967 0.471503
-0.0178132 -0.126346 0.518869
-0.436383 -0.0838132 0.295969
-0.144006 -0.0661752 0.38473
0.0518678 -0.0305266 0.254906
0.244305 -0.0363447 0.305949
-0.063532 -0.049383 0.333882
0.0875362 -0.044655 0.126498
0.0274367 -0.0626462 0.138735
0.407796 -0.0601022 0.331203
0.206417 -0.0696936 0.323685
0.457766 -0.0856172 0.353495
0.201383 -0.0299421 0.321112
-0.0238192 -0.0830673 0.216952
-0.205701 -0.0664145 0.508069
-0.39506 -0.0571478 0.382772
0.0101155 0.0101333 0.0850039
-0.0855731 -0.0353875 0.344909
0.00941951 -0.00873159 0.0740772
0.293542 -0.0435753 0.30357
-0.0371561 -0.113118 0.513641
-0.00265965 0.128734 0.0835116
-0.451723 -0.0670635 0.289313
0.107704 -0.0638562 0.378534
-0.331898 -0.0741586 0.440004
0.095208 -0.0487523 0.155855
-0.152043 -0.0673195 0.490965
-0.113625 -0.0357765 0.168254
0.273022 -0.0737833 0.310835
-0.223963 -0.0332557 0.318034
0.0146364 0.074135 0.084619
-0.0784715 -0.0618978 0.360857
-0.243788 -0.0353742 0.378199
0.321346 -0.130168 0.392774
0.250377 -0.0730943 0.429133
-0.048355 -0.00070581 0.467522
0.017284 0.0153236 0.603991
0.405483 -0.0600581 0.307277
0.0756312 -0.0306597 0.199121
-0.0432919 -0.0209969 0.1347
0.0440173 0.0733434 0.0735574
0.139327 -0.0188234 0.448349
0.0198454 -0.0999039 0.765167
0.0567068 -0.0221241 0.125818
-0.0143986 0.0145241 0.47872
0.314548 -0.0886717 0.449247
0.0415261 0.00362536 0.653808
-0.312371 -0.127527 0.374747
-0.16791 -0.0228014 0.490605
0.0662119 -0.0333638 0.10562
-0.191804 -0.0698573 0.492395
-0.0232463 -0.00506214 0.195183
0.309393 -0.0767032 0.416541
-0.0817109 -0.0243866 0.098252
-0.265986 -0.0736263 0.362516
-0.0149221 -0.126346 0.543719
-0.288839 -0.042596 0.331833
0.0487496 0.0718028 0.089588
-0.0569401 -0.0130029 0.624595
0.116164 -0.0163559 0.396003
-0.454687 -0.0675942 0.253162
0.248908 -0.0570562 0.298729
-0.0807966 -0.00915744 0.506941
-0.0294659 -0.0587038 0.130795
-0.153567 -0.0784455 0.471307
-0.0458158 0.00230108 0.489912
0.198191 -0.0287089 0.507801
0.335623 -0.0883357 0.365786
0.0179535 0.0132887 0.49583
-0.299032 -0.0977916 0.367373
-0.0122182 0.0148595 0.58172
0.108451 -0.0160846 0.345908
0.0183131 -0.00193968 0.189418
-0.0315654 -0.00797873 0.243174
-0.279146 -0.0644012 0.468771
0.181227 -0.0681491 0.328757
-0.377575 -0.0805496 0.354945
-0.0769405 -0.0248965 0.140721
-0.113333 -0.0652892 0.538983
0.0319622 0.0656268 0.0261597
-0.382876 -0.0563679 0.336738
-0.0422327 -0.108245 0.460006
0.0141351 0.0772076 0.116317
-0.0214158 -0.113414 0.347125
0.112768 -0.0482446 0.122439
-0.00821176 -0.107662 0.76899
0.10909 -0.0443574 0.0984103
0.378402 -0.0545927 0.374284
-0.312741 -0.0825354 0.372356
0.148699 -0.0196921 0.487642
-0.338308 -0.0487417 0.422074
0.115781 -0.0147608 0.469492
0.000442671 0.00919234 0.691034
0.0125027 0.00832705 0.307133
0.250702 -0.0364161 0.376393
0.0470629 -0.0765143 0.722788
0.277702 -0.0744564 0.375265
-0.426375 -0.0831397 0.277839
-0.117713 -0.0156996 0.452537
0.0159012 -0.0182858 0.720405
0.32424 -0.0478167 0.332762
0.0168769 -0.112454 0.335894
-0.0780433 -0.0458723 0.576382
-0.0809834 -0.00995774 0.547189
0.123522 0.0675662 0.0580383
0.0416095 -0.00644338 0.690521
-0.136529 -0.0475859 0.330864
-0.0237508 0.0145691 0.657073
-0.252821 -0.0725003 0.305341
-0.0523953 -0.0887071 0.344014
-0.370018 -0.0535051 0.370194
-0.380458 -0.0565908 0.266159
0.0464543 -0.106362 0.570401
-0.130821 -0.0400739 0.144756
0.359248 -0.0530866 0.322545
-0.0406645 0.0057251 0.643046
-0.00185423 -0.126346 0.583557
-0.367031 -0.0538454 0.350374
0.425978 -0.0632988 0.274582
-0.0478521 -0.0201913 0.70505
0.115802 -0.0361755 0.167219
-0.14359 -0.0190758 0.499237
0.0472719 -0.0486575 0.726512
-0.170168 -0.112267 0.432055
0.0177127 -0.119228 0.389381
-0.282534 -0.0747787 0.377885
0.00402002 0.01698 0.415044
0.18827 -0.0394673 0.315089
-0.427844 -0.0636034 0.264605
0.17688 -0.116545 0.448541
-0.0630769 -0.0332019 0.25123
0.0647559 -0.0547403 0.337362
0.00619443 -0.123199 0.704376
0.219632 -0.0309037 0.421096
0.00204279 -0.0456543 0.783113
0.377422 -0.0548176 0.416233
0.175777 -0.023825 0.476801
0.151348 -0.0671821 0.470249
-0.411426 -0.0610221 0.293344
-0.0101676 -0.0323024 0.749222
-0.215754 -0.0702098 0.310807
0.00522709 0.00677873 0.256163
-0.0515798 -0.0999561 0.522427
0.102868 0.0629317 0.0267025
-0.0131201 0.104265 0.0929491
-0.209154 -0.0307343 0.345808
-0.327234 -0.0623806 0.346117
0.00851428 0.026994 0.0472337
-0.119972 -0.0467336 0.335656
-0.349897 -0.051986 0.288086
0.165508 -0.0673203 0.355705
0.150874 -0.0834836 0.512159
-0.235807 -0.0469552 0.491747
-0.362809 -0.0665627 0.266243
0.250577 -0.0356999 0.475521
0.203131 -0.069892 0.388244
0.0404374 -0.110734 0.484672
0.218671 -0.0315851 0.385265
0.352572 -0.0786039 0.283582
0.288318 -0.0746502 0.292203
-0.0268254 -0.120624 0.676794
0.0145056 -0.00623979 0.125771
0.0314215 -0.0843318 0.247276
0.292305 -0.0751793 0.35035
0.115765 -0.0647124 0.42561
0.0881003 -0.0624625 0.354697
0.347237 -0.0949014 0.442376
-0.0438355 -0.108265 0.643527
0.0130379 0.0527169 0.115186
-0.0355927 -0.108231 0.391088
-0.315147 -0.0453067 0.387693
-0.18009 -0.0680447 0.32309
-0.190153 -0.0826901 0.462018
-0.144051 -0.0642238 0.541434
-0.0495602 0.0580284 0.118552
-0.240279 -0.0724599 0.426999
-0.212673 -0.0709475 0.465283
0.452105 -0.0659199 0.370354
-0.0361174 -0.109984 0.417752
0.166891 -0.0241258 0.375196
-0.248577 -0.0353375 0.472873
0.109201 0.0681261 0.0682935
0.00649913 0.0154721 0.533463
0.384127 -0.0714618 0.413063
-0.437979 -0.0840447 0.317857
-0.0376976 -0.0860997 0.27702
0.218366 -0.0685924 0.307802
-0.278771 -0.0398129 0.453808
0.347549 -0.11299 0.405007
0.246573 -0.0725309 0.378052
0.177525 -0.0537887 0.447079
-0.0472146 -0.0534095 0.727244
-0.312567 -0.0764392 0.3494
0.299748 -0.109362 0.43496
-0.107724 -0.0295735 0.132298
-0.305904 -0.122068 0.439698
0.0703699 -0.0482543 0.350179
0.0104515 -0.123792 0.443705
0.180453 -0.0689915 0.472894
-0.0466937 0.0756943 0.0393531
0.292856 -0.0422397 0.388393
0.346229 -0.0503442 0.368446
-0.0725382 -0.00890314 0.561851
0.0656289 -0.0527296 0.68599
-0.012521 0.0449151 0.111111
0.000719698 0.00723118 0.206608
-0.0321997 0.00996653 0.455014
0.252869 -0.0726369 0.332114
0.0240189 -0.117078 0.404183
-0.154899 -0.0666434 0.353219
-0.00381606 0.100799 0.0110367
-0.0733083 -0.0629659 0.562452
-0.000195203 -0.0671952 0.106021
0.0142112 -0.126346 0.54483
-0.0170195 0.00926652 0.334431
-0.00829014 0.0359963 0.039761
0.168343 -0.0682041 0.464956
0.0363892 -0.0168523 0.209193
0.0565778 -0.0911552 0.599348
-0.330043 -0.0774856 0.343345
-0.0120185 0.0177742 0.116009
0.05632 -0.0419007 0.277742
-0.0112322 0.0853369 0.0731997
0.0626342 -0.0492244 0.235817
-0.0574174 -0.0545389 0.266939
-0.121253 0.0550986 0.0691739
0.000902992 0.0194366 0.64854
-0.041601 -0.109888 0.548525
-0.0370924 -0.0718184 0.200203
-0.249235 -0.0348421 0.430198
-0.0886685 -0.0414915 0.219623
-0.315559 -0.0773207 0.440093
-0.10834 -0.0147175 0.435084
0.213307 -0.0709776 0.463411
0.343477 -0.049609 0.425602
-0.0432937 6.99474e-05 0.38621
0.339421 -0.0497573 0.353595
-0.0474874 -0.0700562 0.25276
0.14529 -0.0660589 0.355252
0.0753127 -0.00962764 0.453506
0.37467 -0.0799415 0.273534
-0.0595497 -0.0438846 0.169088
0.024859 -0.122052 0.641045
0.051489 -0.0969445 0.695922
-0.016414 -0.0920489 0.24102
0.351582 -0.10736 0.427207
0.30446 -0.0875951 0.384496
0.100184 -0.0642816 0.528701
-0.128785 -0.0650715 0.361563
-0.135101 -0.0661913 0.472128
-0.0234908 -0.0136578 0.115561
0.106474 -0.064515 0.491388
0.163617 -0.0242072 0.338876
-0.324482 -0.0464011 0.406254
0.0104183 0.121259 0.0499181
0.0318458 -0.0742236 0.19689
-0.42928 -0.0758284 0.38878
-0.0981593 -0.0117672 0.496617
-0.105162 0.0634084 0.0211668
0.0305649 0.0108068 0.463602
-0.312683 -0.0456986 0.362908
-0.129218 -0.0173555 0.530067
-0.00232971 -0.0113594 0.058575
-0.192057 -0.0983411 0.453331
0.0312086 -0.0075822 0.243033
-0.0265317 -0.0189141 0.0884154
-0.129214 -0.0507337 0.122217
-0.146942 -0.0994824 0.454315
0.407186 -0.0589928 0.371693
-0.0570378 -0.0903027 0.572128
0.19358 -0.0858462 0.476691
0.142074 -0.0199272 0.53615
0.427473 -0.0626488 0.338695
-0.179262 -0.0545627 0.46349
-0.229633 -0.0719441 0.453971
-0.182403 -0.0248743 0.476355
0.212046 -0.0706552 0.415497
0.125567 -0.0657787 0.512102
-0.0422139 -0.109443 0.531463
-0.187587 -0.0263672 0.425016
0.0164981 0.00187069 0.227038
0.0267643 -0.093672 0.279694
0.0638727 -0.0253545 0.16638
-0.194043 -0.110272 0.491239
0.454702 -0.0850677 0.314784
0.047579 0.000356507 0.621622
-0.0324445 -0.0941791 0.29608
-0.157208 -0.0384554 0.533224
0.299402 -0.113239 0.371208
-0.26338 -0.0380978 0.389794
0.401647 -0.0823652 0.390979
-0.428838 -0.0636799 0.282981
-0.0744445 -0.00928237 0.464777
0.390228 -0.0809251 0.279029
-0.0174459 0.0134621 0.43006
-0.399931 -0.0821327 0.377484
0.0600796 -0.0409739 0.263166
0.146499 -0.0906869 0.481857
0.152092 -0.0670302 0.431903
0.0209682 0.0134897 0.58891
-0.085534 -0.0500174 0.19005
0.331975 -0.0774669 0.316145
-0.445052 -0.0648019 0.368795
0.333633 -0.0780936 0.397594
-0.0364701 -0.0608386 0.170391
-0.0125611 -0.00243533 0.14521
-0.00110917 -0.107126 0.312332
-0.22099 -0.071649 0.482307
0.0446409 -0.0257425 0.241924
-0.0108676 0.0978178 0.0638603
-0.0609498 -0.0397041 0.698889
-0.0196736 0.0767561 0.0366194
-0.0622151 -0.0482558 0.212099
-0.0244355 -0.114228 0.713627
0.0797532 -0.024092 0.112189
0.297949 -0.0658264 0.458552
-0.0686966 -0.0262494 0.168302
-0.0521336 -0.0971375 0.455102
0.094985 -0.0127988 0.431394
0.0650301 -0.0725194 0.683343
0.467875 -0.0681651 0.347423
-0.0599016 -0.0435596 0.299187
5.31813e-05 0.0491484 0.15575
0.193834 -0.104866 0.475364
0.0407331 0.0600332 0.0957801
-0.0699849 -0.0300101 0.579656
0.176832 -0.0860347 0.420551
-0.0551957 0.0586351 0.103976
0.0182424 -0.037127 0.750486
-0.345345 -0.0784914 0.349561
0.011279 0.0946893 0.0710143
0.0633702 -0.0269877 0.619899
-0.0539543 -0.0740912 0.311165
0.325363 -0.0602831 0.445102
-0.332386 -0.131796 0.426856
0.111719 -0.0143909 0.521701
0.0442967 -0.0359548 0.714526
0.353111 -0.0788605 0.334449
0.328063 -0.116252 0.340747
0.117555 -0.0650911 0.466343
-0.230814 -0.07172 0.401064
0.347939 -0.0780984 0.430965
0.238897 -0.0719212 0.360392
-0.310644 -0.0832311 0.388072
0.0807759 -0.0400253 0.105007
-0.175834 -0.0516877 0.429965
-0.115327 -0.014802 0.513009
0.122718 -0.0534388 0.152036
-0.00804441 -0.0758103 0.151753
0.331417 -0.0726153 0.421885
0.323271 -0.0985875 0.330724
0.179127 -0.0256598 0.393704
-0.278767 -0.0409033 0.34992
0.0275483 -0.114408 0.705639
-0.0987519 -0.0641978 0.529801
0.13209 -0.0280933 0.330393
-0.344662 -0.0931197 0.392166
-0.109526 -0.0652566 0.553885
-0.0266008 -0.103527 0.740119
-0.326965 -0.0777821 0.413285
-0.203047 -0.0698526 0.383727
-0.0237435 -0.0327514 0.728566
-0.169888 -0.0265612 0.522802
0.287435 -0.0587599 0.287684
-0.171589 -0.111979 0.533379
0.0959421 -0.0117231 0.514409
-0.219391 -0.0307999 0.479059
0.048013 -0.0214822 0.150131
-0.237629 -0.0341595 0.401539
0.46599 -0.0748934 0.290382
-0.325777 -0.047806 0.350262
0.303466 -0.0756227 0.299177
0.106293 -0.0532662 0.561585
-0.0615327 -0.0764432 0.475253
-0.324789 -0.0923561 0.442184
-0.0566047 -0.0905897 0.666669
-0.029186 -0.118909 0.658431
0.199967 -0.0996012 0.51608
-0.0172676 0.0010095 0.213554
-0.0125495 0.00971562 0.133527
0.408427 -0.0819755 0.256316
-0.304492 -0.0767426 0.451894
0.00261052 -0.126346 0.554465
0.160514 -0.117205 0.528082
-0.330861 -0.0773364 0.301274
0.352205 -0.050577 0.383063
-0.164066 -0.10707 0.41797
-0.15389 -0.067132 0.430492
0.0930149 -0.0525343 0.211242
-0.0686192 -0.0412476 0.59813
-0.304241 -0.0436742 0.443365
-0.00963024 0.0280654 0.0674747
-0.153546 -0.0251014 0.323832
0.153539 -0.0201395 0.466828
-0.105573 -0.0638032 0.389274
0.00931817 0.0205268 0.064586
0.0962433 -0.0634968 0.426163
0.145798 -0.0516733 0.328364
0.408071 -0.0826449 0.377002
-0.0724247 -0.0441444 0.247139
0.0130759 0.0780146 0.101359
-0.0792634 -0.06298 0.524958
0.0385883 -0.105528 0.378483
0.012633 -0.126346 0.618197
-0.0280405 -0.119741 0.565708
-0.0642089 -0.0494105 0.234924
0.209482 -0.0306843 0.352731
0.33706 -0.0640525 0.273573
-0.276259 -0.0740858 0.33138
-0.0420139 -0.01518 0.295704
-0.179889 -0.0692425 0.505532
0.313732 -0.0541176 0.367972
-0.42075 -0.0610415 0.367144
-0.00843792 0.0109157 0.315898
-0.378645 -0.0731311 0.415425
0.0614427 -0.0744309 0.414351
0.0137652 0.076503 0.0462054
-0.281937 -0.0742893 0.300967
-0.00545864 0.0150122 0.189533
-0.0498988 -0.00353974 0.411091
-0.195382 -0.0280676 0.392571
-0.0102146 0.0631397 0.0654987
0.0833061 0.0574109 0.0968185
0.025661 -0.0134187 0.134391
0.21548 -0.0318239 0.334541
0.00678313 -0.122515 0.428505
0.000643929 -0.086292 0.207811
-0.349769 -0.112462 0.429229
0.0270284 0.0121713 0.550271
0.0432995 -0.0234048 0.183416
0.0263988 0.0138679 0.630869
0.106611 -0.0527093 0.181538
0.0113388 0.0388841 0.0937336
0.173919 -0.0875196 0.524306
0.396641 -0.0588155 0.294328
0.117732 -0.0289834 0.113822
-0.105822 -0.0206889 0.337311
0.360147 -0.0534229 0.298368
-0.00918582 -0.00710067 0.0750592
0.191337 -0.0895006 0.457274
0.0714144 -0.0636429 0.648236
-0.0157833 -0.0203741 0.722507
-0.349278 -0.0516116 0.321811
-0.0152132 -0.00840948 0.710512
-0.290674 -0.075454 0.403825
0.0638865 -0.0682438 0.397575
-0.472593 -0.0690022 0.359287
-0.0459887 0.0719917 0.0893372
0.177248 -0.0379995 0.521909
-0.372761 -0.080467 0.384105
-0.0765483 -0.0440573 0.141339
-0.126495 -0.0620092 0.334435
-0.055776 -0.0146077 0.351245
-0.301075 -0.106126 0.349541
-0.0414523 -0.0696564 0.754034
0.00896547 0.0775813 0.0283977
-0.351658 -0.0787411 0.330815
-0.000600626 -0.120392 0.722451
0.135027 -0.017442 0.483341
0.017 -0.0725731 0.151337
0.0470259 -0.00081284 0.437068
0.226642 -0.0335828 0.323572
0.153665 -0.105481 0.432247
0.330771 -0.0558219 0.376082
0.0289068 -0.105258 0.332276
-0.0487987 -0.0263222 0.207543
0.186137 -0.0691926 0.441648
0.0146791 0.0131749 0.169735
0.0523663 -0.0469972 0.215229
0.0674475 -0.0334847 0.605775
-0.341985 -0.0495471 0.3737
0.0210971 -0.0583135 0.104942
0.0622054 -0.0464809 0.319994
0.370909 -0.0798259 0.307529
-0.102132 0.0566587 0.0796311
-0.241434 -0.0718514 0.317989
-0.024261 -0.0927874 0.268073
-0.165714 -0.067143 0.323195
-0.193324 -0.114483 0.518687
-0.028507 0.00989568 0.675414
-0.210582 -0.070072 0.344294
0.0455938 -0.106988 0.521202
0.0101119 0.111692 0.109468
-0.367333 -0.0799998 0.367251
0.092661 0.0614362 0.0490003
-0.0998053 -0.0392479 0.0963304
0.372574 -0.054501 0.354947
0.441564 -0.0656658 0.249802
-0.0348461 -0.0386704 0.103032
0.0494145 -0.104212 0.636129
0.0733251 -0.00794019 0.494926
-0.193043 -0.0694007 0.406711
0.00633471 0.0162963 0.483359
-0.0714567 -0.0233246 0.123207
-0.172613 -0.0685652 0.485263
0.0922086 -0.0631163 0.409068
0.0440443 -0.0322271 0.113145
0.123485 0.0716632 0.0423692
-0.139603 -0.0188228 0.520145
0.00902236 -0.126346 0.523272
-0.0728939 -0.0630575 0.629361
0.0336929 -0.0722596 0.774205
0.338698 -0.127285 0.433129
0.0832621 0.0711281 0.0704518
-0.286219 -0.07478 0.347215
-0.0509112 -0.00146915 0.513122
0.278972 -0.0634209 0.468924
-0.115183 -0.06502 0.484008
0.0953768 -0.0133541 0.393862
-0.127382 -0.0655814 0.444663
0.320527 -0.0476954 0.28182
-0.217504 -0.070723 0.379277
0.144641 -0.0658828 0.333913
-0.114988 0.0715147 0.0463298
-0.045728 -0.0385089 0.142423
0.116048 0.0617609 0.0327146
0.0868243 0.0632371 0.0315497
-0.031969 0.006599 0.379467
-0.199122 -0.0277807 0.490489
0.0480416 0.00100594 0.521016
0.319352 -0.07546 0.426283
0.330314 -0.0707149 0.379829
-0.244809 -0.0360195 0.341646
-0.284361 -0.0420965 0.317469
0.0765867 -0.0630662 0.554668
-0.112161 -0.06454 0.432636
-0.0106286 0.0144743 0.556167
-0.436886 -0.0640361 0.336113
0.188605 -0.0992432 0.52653
0.0532244 -0.025695 0.329302
-0.197541 -0.0944485 0.487793
-0.0295388 -0.0412357 0.0868158
0.0249281 -0.101463 0.749034
-0.305037 -0.0877182 0.419424
0.175981 -0.0240929 0.4908
0.0785629 -0.00933224 0.477876
0.0770826 0.0606855 0.0635149
-0.0240662 -0.0748071 0.788335
-0.00265735 0.0967676 0.120684
0.0274187 0.0112322 0.484049
-0.00220933 -0.113135 0.749767
-0.0690281 0.0605741 0.0679258
0.0979978 -0.0328807 0.175368
-0.066471 -0.0629056 0.402472
-0.231021 -0.0499123 0.303533
0.387806 -0.0571265 0.334452
-0.391659 -0.0810275 0.283131
0.0347507 -0.0946477 0.303773
-0.360176 -0.0798071 0.402288
0.162308 -0.0539564 0.449315
-0.363282 -0.0793988 0.317613
0.403883 -0.0819631 0.324836
-0.342305 -0.10992 0.366765
-0.0692692 -0.0642384 0.67797
0.0145848 0.027247 0.152661
-0.224362 -0.0342698 0.304186
0.217938 -0.031297 0.399134
-0.37349 -0.0552284 0.319455
-0.0131542 -0.0799474 0.174282
-0.0364711 0.0093346 0.631352
-0.0538742 -0.0246057 0.334584
-0.0839027 0.0735885 0.0496076
0.189223 -0.0616761 0.51699
-0.189875 -0.0276101 0.366603
0.00887125 0.00514755 0.242917
-0.149271 -0.0871559 0.446317
0.455569 -0.0849119 0.265405
-0.313061 -0.130082 0.39656
-0.125208 -0.0404289 0.162346
-0.0514212 -0.0332849 0.707576
-0.0842293 -0.0118376 0.387256
-0.0298215 -0.110891 0.37677
0.0825437 -0.0150891 0.567685
0.0690001 -0.0094925 0.394345
-0.0414672 -0.0580186 0.18684
0.325844 -0.120268 0.437742
0.164715 -0.0677552 0.423363
0.261277 -0.037235 0.465523
-0.057443 -0.0837549 0.43308
0.0558088 -0.0911257 0.487259
-0.025784 -0.0768443 0.192459
0.184639 -0.115195 0.46834
-0.227575 -0.0317058 0.454114
0.0337026 0.0108794 0.593924
0.0237975 -0.122823 0.676235
0.0799377 -0.0629755 0.513137
0.0274615 -0.0726386 0.180423
-0.0245229 -0.122296 0.58317
-0.257072 -0.0735507 0.436144
-0.18565 -0.110372 0.533464
-0.0310638 -0.00568622 0.269573
0.439984 -0.0839923 0.282734
