0.248068 0.0928066 0.422704
-0.10083 -0.00829739 0.464371
0.438634 0.107048 0.381057
-0.0321988 -0.0224684 0.119783
-0.11488 -0.0496137 0.479237
0.113988 -0.0589267 0.435802
-0.138442 -0.00778466 0.472199
-0.283574 0.0409421 0.456219
-0.00716699 0.0905603 0.511963
0.0654897 -0.0331146 0.483964
0.330665 -0.0205768 0.411838
0.0871395 -0.00820164 0.374061
0.0439472 0.0819134 0.390294
0.00843055 -0.0183209 0.615023
-0.144753 0.0879872 0.445841
-0.0985789 0.017949 0.0108895
-0.0200417 0.0573482 0.415647
-0.294263 -0.021535 0.484394
0.345472 -0.0160172 0.332659
0.0406708 0.011889 0.363095
-0.0269838 0.104909 0.430209
-0.297671 0.108179 0.38269
-0.24226 0.104169 0.488834
0.0490197 0.10206 0.460307
-0.477004 0.0981341 0.419684
-0.0546112 -0.00800873 0.386867
0.321677 0.108545 0.396504
0.00777049 0.0815454 0.377369
-0.0380415 0.0815454 0.488549
-0.163822 0.0891625 0.474972
0.0390638 0.029633 0.408082
0.0005353 0.0446757 0.00443023
0.265246 0.107726 0.335418
-0.0143987 0.0990368 0.492415
-0.299426 0.0941634 0.437343
0.300488 -0.0948532 0.503137
0.141769 0.0347104 0.359703
-0.0240691 0.105968 0.40776
0.166643 -0.0263509 0.429406
0.244871 -0.0144612 0.334519
-0.027555 0.0537057 0.404002
-0.394216 -0.0197048 0.425404
-0.388013 0.0958959 0.358693
0.334253 0.108338 0.484884
-0.344712 -0.0541571 0.492597
0.229999 -0.00843001 0.345259
-0.063689 -0.0295147 0.607546
0.0311527 -0.0399184 0.447578
-0.168944 0.0894782 0.456119
-0.131222 -0.0319668 0.468191
-0.0323189 -0.0378803 0.28975
-0.37359 0.0957719 0.395003
-0.187792 0.0906399 0.392852
0.224901 0.0921678 0.408195
0.00626433 0.100307 0.478973
0.262138 -0.0224657 0.411453
0.134964 -0.0745942 0.494692
0.153868 -0.0086184 0.386854
-0.0587535 -0.0141676 0.496703
0.00128041 -0.0376379 0.093265
0.316839 0.10754 0.48502
0.0828706 -0.00817498 0.398248
0.224108 -0.0235139 0.355044
0.052313 0.0824299 0.498368
-0.0348349 0.0142414 0.147295
-0.104629 0.102156 0.464834
-0.0147847 -0.0480208 0.216299
0.300551 -0.0243111 0.502982
-0.210244 -0.0110139 0.49339
-0.0441845 -0.0108286 0.332356
-0.0120112 -0.046082 0.164174
-0.3269 0.09493 0.348211
-0.106246 0.0102525 0.609221
0.197576 0.103242 0.47691
-0.292614 0.0254183 0.356175
0.277677 0.0908787 0.35622
0.0373917 -0.0193782 0.160798
0.388931 0.108038 0.350708
-0.00487335 0.0902217 0.00702397
-0.295111 0.0940482 0.453881
-0.0534633 0.0823614 0.392349
0.00167162 -0.0525826 0.58496
-0.00725422 0.0725994 0.0456694
0.0513753 0.107455 0.36597
-0.324792 -0.02764 0.432861
-0.0436302 0.0817544 0.488514
0.282852 0.093784 0.453368
-0.0152477 -0.0502839 0.478961
0.00974737 0.0920161 0.338188
-0.00808755 0.0392365 0.032518
0.0475243 -0.00749989 0.530974
0.00459523 0.0346988 0.243692
-0.260078 0.105152 0.482967
0.0807927 -0.008162 0.478395
0.388297 -0.00936784 0.331508
-0.153183 -0.042929 0.435231
0.050178 0.0822981 0.382586
0.289253 0.0450097 0.458877
-0.0849606 -0.031703 0.337542
-0.0249203 0.0815454 0.487547
-0.023334 0.0302944 0.484448
0.0316036 0.052747 0.429102
-0.0250841 0.000791904 0.587634
0.448137 -0.019253 0.385693
-0.236472 0.107032 0.42516
0.416876 0.107482 0.432906
-0.46115 0.101998 0.46772
0.130792 -0.0878152 0.508192
0.293281 -0.0216072 0.431831
-0.0108772 0.0815454 0.45823
0.320794 0.108533 0.412216
-0.0343281 0.00448101 0.595501
0.0269547 0.00862798 0.610292
0.314191 -0.0210309 0.442897
0.0617748 0.083014 0.429737
-0.132451 -0.0173885 0.336578
-0.134808 0.0841783 0.468878
0.193807 -0.00886784 0.470798
-0.0396694 -0.0165338 0.212401
0.290397 -0.0395211 0.501758
0.106292 -0.0303863 0.342252
0.0899818 0.0847555 0.425573
0.307229 -0.068152 0.487484
0.0664673 0.0833037 0.392663
0.0167017 0.0250659 0.587867
0.0699026 0.107976 0.345647
0.00922864 0.0595264 0.401976
0.253662 0.107567 0.345595
0.0418207 0.0981766 0.500818
0.304963 -0.0073739 0.354803
0.292269 -0.0315581 0.42946
0.029157 -0.0339332 0.595501
-0.0194262 -0.025593 0.0680455
0.01705 -0.0712213 0.613334
-0.436507 0.107136 0.40554
-0.0335496 -0.0354986 0.238373
-0.365424 0.108551 0.458289
-0.208221 -0.0239066 0.44398
0.070996 0.0188044 0.0296819
-0.299963 -0.0356019 0.422085
0.198331 -0.00887615 0.436941
0.0146295 0.106429 0.395282
-0.195236 -0.00888701 0.480949
0.361993 0.108575 0.453413
-0.187391 0.104582 0.455112
0.0279689 0.0231548 0.202304
0.272698 0.0934874 0.472175
0.0408281 -0.0313556 0.554199
-0.0322971 0.0213005 0.407771
-0.0153123 -0.0491678 0.609138
0.180909 0.106629 0.380674
0.04036 -0.0303429 0.527194
0.297523 0.108208 0.371888
0.140215 -0.00769475 0.467258
0.0676074 0.0169633 0.0843877
0.337613 -0.0203852 0.447636
-0.108603 0.10441 0.337076
0.313006 -0.0332878 0.412993
-0.270312 0.0933576 0.376841
0.0351295 -0.00360654 0.0943665
-0.040218 0.00788487 0.314801
-0.400896 0.107758 0.470851
-0.0352137 0.0402052 0.410094
0.125089 -0.0125088 0.610292
-0.0367481 0.0117895 0.201939
0.303657 -0.00943268 0.333423
-0.0370585 0.024242 0.435721
-0.421178 0.107441 0.353556
0.00690265 0.112569 0.609138
-0.000131547 -0.0179915 0.00778902
0.00489633 0.0420495 0.100344
0.00927552 -4.30699e-05 0.613334
0.0339372 -0.0165906 0.610292
-0.34576 0.10885 0.392908
-0.444535 0.106976 0.386974
0.287805 0.0939196 0.448404
-0.0100687 -0.0098224 0.587634
0.045564 -0.00405356 0.296524
0.308232 -0.025144 0.451592
0.0018784 0.0429857 0.495507
0.0177017 0.0486701 0.370993
-0.337885 -0.0470777 0.460793
0.294558 0.0940913 0.453678
-0.00296638 -0.0303608 0.0566986
-0.368586 0.108488 0.362226
0.0445525 -0.0147434 0.295954
-0.149407 0.0911387 0.49467
0.1453 -0.0198052 0.336364
-0.0316635 0.0173766 0.440009
-0.051859 -0.00799154 0.484033
0.0793267 0.107301 0.360748
0.332785 0.0951572 0.445653
-0.176567 -0.00877041 0.4778
0.291905 0.108127 0.374823
-0.083236 -0.00842491 0.610292
0.178312 -0.00877107 0.366882
0.0509236 0.0178566 0.095325
0.0392108 -0.0348718 0.442479
-0.207972 0.0916388 0.492657
-0.20414 0.0915331 0.486848
0.369325 -0.00724124 0.391028
0.0388782 0.0109283 0.443695
-0.225313 -0.0234355 0.351411
0.262786 -0.00796809 0.343852
0.421388 -0.0194706 0.365448
-0.363065 -0.00720647 0.43528
0.136069 0.075784 0.359488
-0.12904 0.0526908 0.367851
-0.0341832 0.0207794 0.285848
-0.393573 0.107991 0.448474
-0.290284 -0.00755759 0.451688
0.445836 -0.0192577 0.347955
-0.282652 0.0159486 0.356218
0.0594472 0.107955 0.349714
0.0748993 -0.0081252 0.424945
-0.0163746 -0.0495783 0.500207
-0.00108195 -0.0516425 0.398071
-0.242526 0.0980837 0.33461
0.0394142 0.0127773 0.565413
0.457918 -0.0191199 0.442972
0.30677 0.0944313 0.446759
-0.103563 -0.00831446 0.415608
-0.029029 0.0244942 0.306223
-0.331641 -0.030581 0.453062
0.0853429 -0.0270824 0.606131
0.384304 0.0958882 0.344869
0.304352 -0.0691216 0.463616
0.0711303 0.0835916 0.39133
0.0224154 -0.0870703 0.609138
0.0221853 -0.0464329 0.438822
0.00882987 0.0697188 0.0390491
0.315599 -0.0389521 0.406678
-0.162378 -0.0506344 0.505464
0.026058 -0.00784478 0.606131
-0.0358354 0.0342153 0.404371
0.141005 -0.0445659 0.406796
0.0505133 -0.0182786 0.338061
0.025136 -0.0442893 0.394479
-0.111838 -0.00836614 0.412589
0.116567 -0.0296993 0.373299
-0.000944388 -0.131824 0.610835
0.192101 -0.0246486 0.393413
-0.0380393 0.0159188 0.00839162
0.0436906 -0.00220635 0.19157
-0.0386366 0.00995857 0.551295
0.176097 -0.00875724 0.390545
0.339086 -0.0203447 0.450767
0.388655 0.0959209 0.373501
0.0872692 -0.0491896 0.508646
-0.00974212 -0.107693 0.609138
-0.378524 -0.00745228 0.364656
-0.202723 0.0914941 0.394129
-0.326367 -0.00704924 0.337159
-0.17559 -0.00876431 0.45331
-0.267716 0.093286 0.481362
0.141226 -0.0280504 0.443166
0.407675 0.0961457 0.467868
0.212378 0.0918226 0.381847
0.213295 0.106444 0.430976
0.130511 -0.0065787 0.462135
-0.336672 -0.0489749 0.435695
-0.0394093 -0.0221803 0.240498
-0.0149345 0.108091 0.350319
-0.0548141 0.104503 0.435059
0.0147202 -0.0526369 0.609138
-0.316383 -0.0233826 0.454802
0.0990506 0.0903524 0.337154
0.468248 0.0974001 0.329271
0.46407 -0.0152565 0.329476
-0.125695 -0.0581393 0.497221
-0.055792 -0.0282975 0.606736
0.123698 0.0381027 0.359984
0.263636 0.10696 0.434985
0.165333 -0.0264385 0.444273
0.384388 0.0959217 0.441737
0.132768 -0.0508684 0.49498
0.194771 0.0958301 0.494058
-0.19708 0.0912123 0.453448
0.115625 -0.00837955 0.347523
-0.452581 0.096455 0.385406
-0.373266 0.095773 0.338689
0.312306 0.0945858 0.389915
0.0177499 -0.00761188 0.00520986
-0.0609276 0.0828223 0.47668
-0.0696534 0.105704 0.414403
0.0274071 -0.0428034 0.501648
0.00865021 -0.110247 0.613334
-0.0227805 0.0301792 0.56842
-0.302198 -0.0280298 0.472545
0.145715 -0.0277503 0.405569
0.0318519 0.00256028 0.0587761
0.289064 -0.0514399 0.415999
0.467733 0.0966208 0.364362
-0.12316 -0.0354128 0.456236
-0.394856 0.107857 0.477902
0.0149867 0.0842499 0.613334
-0.143827 -0.0109934 0.336358
-0.0072913 0.048192 0.0226952
0.00172647 0.0378025 0.573348
0.119553 -0.0503618 0.506968
-0.165628 -0.0263092 0.444941
-0.0579913 0.102625 0.455108
-0.0212373 -0.0040717 0.610292
0.212898 -0.00867093 0.467761
0.138661 0.0155455 0.461058
-0.156603 0.0887175 0.339348
0.138242 0.0877275 0.402211
-0.229745 0.0922391 0.471655
-0.229477 -0.00841426 0.394225
0.109186 -0.00833934 0.388365
0.0873822 0.1062 0.398028
0.198163 -0.0242433 0.351897
0.0420571 0.0147698 0.03785
0.0670566 0.0170718 0.0813853
0.438733 0.0963516 0.410111
-0.0735074 -0.0324688 0.373538
-0.0438462 -0.0144359 0.526268
0.112485 -0.00835994 0.339421
0.181967 0.106639 0.365239
0.116551 0.00509948 0.606131
0.125338 0.0869323 0.407367
0.0984877 -0.0309082 0.403061
0.00497465 0.0350613 0.252121
0.0193463 0.0282327 0.149475
-0.198526 0.10678 0.377833
-0.0438564 -0.00383326 0.292084
-0.23658 0.0924276 0.445977
-0.0234589 0.0264341 0.226938
-0.138036 0.0136249 0.0533089
-0.250608 0.0928143 0.340223
-0.0468336 0.0180381 0.0947969
0.430211 -0.00842212 0.35688
0.0282496 0.0415739 0.471323
-0.302561 -0.0213062 0.414672
0.0022792 0.0815454 0.364283
0.0390901 -0.0257262 0.220199
-0.0588146 0.0195518 0.00672574
0.0195942 0.0320985 0.516309
0.10171 0.0965554 0.497488
-0.350237 -0.0200755 0.335599
-0.357377 0.108712 0.417669
-0.264651 0.0932015 0.334417
0.0197877 0.0558091 0.451416
-0.120755 -0.0682811 0.481626
-0.0463752 -0.0342831 0.367487
-0.314127 -0.0670201 0.493786
0.0393157 0.107649 0.362287
-0.00160056 0.0863112 0.00193298
-0.268928 0.0933194 0.384374
-0.0355775 0.0196462 0.0593531
-0.273924 -0.00778807 0.395393
-0.263677 -0.022378 0.385226
-0.132309 -0.0320802 0.491135
0.0460393 -0.0124242 0.522788
-0.28508 0.0742501 0.356201
-0.126603 0.0868708 0.416554
0.0413532 -0.0245914 0.282346
-0.414666 0.107542 0.453343
0.172602 -0.00873541 0.340062
-0.291055 -0.0428584 0.492597
0.0919427 0.106508 0.38385
-0.134374 0.0132434 0.367979
0.373967 0.108336 0.449005
-0.0575448 0.0195305 0.0273645
0.138956 0.0877703 0.487837
0.132563 -0.0686398 0.41824
0.382386 -0.00760366 0.437549
0.342733 0.108839 0.377153
0.0186443 0.033502 0.527852
-0.333194 -0.0204619 0.459374
-0.430899 -0.00846499 0.345756
-0.0552713 -0.0336882 0.394796
0.00193638 -0.0457187 0.160547
0.306427 0.0944218 0.473724
0.13678 0.0876399 0.392676
0.219505 -0.00857785 0.491458
-0.346139 0.108779 0.467627
-0.13681 -0.028236 0.426617
0.206781 0.106921 0.370185
-0.117062 -0.0436774 0.490423
-0.460041 0.0966277 0.467143
0.258327 0.107631 0.371376
-0.40773 -0.0195751 0.342096
-0.403823 -0.0196231 0.410489
-0.373617 -0.00744352 0.466632
0.0644549 0.0198496 0.0103302
-0.0363326 0.0189065 0.266025
0.130641 -0.00869478 0.466336
0.0050375 0.0388989 0.349957
0.145407 0.0881667 0.403371
0.206369 -0.0240029 0.395655
-0.312475 -0.00724497 0.394189
-0.476079 0.0992513 0.343958
-0.289494 -0.00756873 0.435763
0.0344811 0.0815454 0.344361
0.0190159 0.054636 0.385971
-0.012123 -0.0843867 0.609138
-0.164978 -0.0263526 0.421586
0.295706 -0.0130974 0.48986
0.263178 -0.00796257 0.476064
0.165479 -0.0264288 0.348374
-0.143402 0.0114069 0.0455732
0.00976158 0.0672389 0.0646453
-0.215946 0.0918586 0.464283
0.112011 0.017057 0.0170924
0.183098 0.10665 0.393509
-0.12606 -0.0289549 0.352139
0.123397 0.0151406 0.0091961
0.0197908 0.0617885 0.613334
0.14022 0.0896215 0.336436
0.157678 -0.0269504 0.357643
-0.441915 0.106017 0.330118
0.0745753 0.0847354 0.337562
0.167023 0.107037 0.344509
0.24472 -0.0147108 0.334523
0.408248 0.107654 0.406765
0.204343 -0.0240587 0.43665
0.316469 -0.0209681 0.462859
0.0702671 0.0194033 0.013538
-0.243927 -0.0229224 0.421986
0.264661 -0.0223961 0.38956
-0.0351456 -0.0358264 0.365063
-0.11808 0.0863507 0.342467
-0.270146 -0.0078413 0.476872
-0.218039 -0.023636 0.394376
0.099687 0.103107 0.454352
-0.182214 0.0902961 0.38805
0.387093 0.0959478 0.439819
0.0274688 -0.0366223 0.595501
-0.330053 0.10863 0.377279
0.304348 -0.00738256 0.334651
-0.285549 0.093795 0.405522
-0.0130056 -0.0516425 0.479116
0.0690345 0.00752662 0.610292
-0.0571774 -0.00802476 0.495183
-0.475263 -0.0190129 0.392117
-0.372237 0.0957831 0.441759
-0.452834 0.106811 0.373677
-0.121542 -0.068316 0.455177
-0.00934654 0.0574076 0.0876735
0.128027 -0.092757 0.508192
0.235849 0.103852 0.49295
-0.0609722 -0.00804846 0.46084
-0.28158 0.0819793 0.461147
-0.005286 0.0888117 0.512621
0.149835 0.0884396 0.385615
0.0171 -0.0144043 0.0158242
-0.135619 0.0108772 0.0241954
-0.0273413 -0.0429828 0.539103
0.290807 -0.0216754 0.392628
-0.131821 0.00873779 0.463478
-0.136647 0.0865666 0.46649
-0.00841985 0.0354098 0.0365407
-0.287207 0.00928824 0.364483
0.306694 0.100957 0.491702
0.461332 0.106597 0.361997
-0.0228038 0.0290489 0.334699
-0.311214 -0.025213 0.477491
0.172914 -0.0259316 0.407539
-0.131295 -0.00848766 0.471382
-0.0346997 0.0815454 0.439797
0.444837 -0.0088642 0.434103
0.042444 -0.0153537 0.226688
0.0784524 0.10021 0.482938
-0.0361039 -0.0184493 0.606131
-0.269477 0.0933346 0.467821
0.0219054 0.0467745 0.478795
-0.0151216 0.107187 0.374769
-0.135179 0.0155436 0.0219045
0.108795 -0.030219 0.346292
-0.0535426 -0.0338038 0.466419
0.460513 -0.0191582 0.417018
0.0975649 -0.0186302 0.610292
0.0757497 0.0838768 0.351923
0.454249 -0.00906484 0.436443
0.267384 -0.00790332 0.450613
-0.380138 -0.0198238 0.449227
-0.0985932 -0.00873623 0.495936
-0.325244 0.107821 0.467228
-0.309519 -0.0565566 0.481011
-0.0269149 0.100186 0.480128
-0.131124 0.0871509 0.460077
0.0402478 -0.0264348 0.25515
0.301781 -0.0329185 0.504625
0.137305 -0.0647474 0.502797
0.341944 -0.0068529 0.448521
-0.46602 0.0965833 0.368585
-0.128733 0.102857 0.46077
-0.0364251 0.0208044 0.0239647
-0.200033 -0.00882907 0.351571
0.0173435 -0.0499503 0.350645
-0.444233 0.0964169 0.428517
-0.227981 0.0921905 0.424147
0.0143839 -0.0325934 0.0776429
0.262596 -0.022453 0.395752
-0.243951 0.0926308 0.44495
0.297561 -0.0259969 0.463502
-0.126455 -0.0724986 0.459277
0.459475 0.106633 0.368477
-0.253553 -0.0226571 0.378239
-0.165753 0.106457 0.419376
0.12811 -0.0743971 0.480917
-0.0330512 -0.0373482 0.319192
-0.469877 0.106001 0.329364
-0.371541 0.0957701 0.421011
-0.0102236 0.0815454 0.494467
-0.0271829 0.10301 0.450339
0.414363 -0.0195316 0.358681
0.0601161 -0.00803287 0.453267
-0.120915 0.0865247 0.481435
0.119458 0.106047 0.422608
-0.0287214 0.0815454 0.450938
0.298063 -0.0214754 0.464761
-0.19263 0.106722 0.422494
0.0202058 -0.0491003 0.531823
0.134007 -0.00569644 0.509835
-0.277828 0.107057 0.443914
-0.441454 0.107037 0.3395
-0.0443077 -0.0104491 0.321702
-0.378456 -0.00745097 0.382051
-0.365499 0.10855 0.402243
-0.0541122 0.0998136 0.484189
-0.0723864 0.100433 0.479691
0.233782 -0.00837671 0.381129
-0.331914 0.0950699 0.341993
-0.252313 -0.00809254 0.480056
0.140539 0.00863107 0.0551257
0.433449 -0.0193746 0.379795
0.254519 0.0929844 0.348665
0.0891642 -0.0244422 0.606131
-0.00159155 0.0358701 0.512281
0.258982 0.0931075 0.485881
-0.433473 0.107196 0.357059
0.0526294 0.10615 0.400877
0.0352157 0.00289135 0.593386
-0.421132 0.0962534 0.456292
-0.221918 0.0920233 0.414843
0.131183 -0.0174616 0.470213
0.00872909 0.0715876 0.613334
0.152463 -0.0272991 0.404464
0.143379 -0.00855289 0.409399
-0.00121839 -0.0207877 0.609138
0.0869257 0.107834 0.343764
-0.055087 0.0830081 0.5108
-0.389673 -0.0197424 0.410282
0.1455 -0.00856614 0.491651
-0.149632 -0.0273787 0.367133
0.0752439 0.0838456 0.432662
-0.000734395 0.0872947 0.338188
-0.047092 -0.0342351 0.402587
0.26276 0.102786 0.334186
0.128305 0.0826275 0.468998
-0.155146 -0.0617731 0.442768
0.016791 -0.0503517 0.486937
0.0528986 0.082466 0.464745
0.171481 -0.0087284 0.405866
0.0075687 0.0600095 0.401644
0.349052 -0.0201001 0.379177
-0.0597702 -0.025966 0.610292
-0.146974 -0.00858559 0.39715
0.425441 -0.0194547 0.440495
0.396118 0.107895 0.350743
-0.448148 -0.0192384 0.383814
0.024783 0.0297499 0.353137
-0.378763 -0.00745694 0.390062
-0.250125 -0.00812336 0.455757
-0.0720669 -0.0325652 0.474157
0.0412806 0.0069567 0.227532
0.286517 0.0122929 0.464079
-0.22299 0.0920529 0.444392
0.43918 -0.0192809 0.453267
0.291908 0.0378259 0.359326
0.247672 0.107484 0.383482
0.319993 -0.00716215 0.348992
0.288427 0.089378 0.363648
0.108493 0.102656 0.459988
0.103884 -0.0305473 0.488298
0.401262 0.0960722 0.432891
0.13627 0.0876048 0.337387
0.000910171 0.0280722 0.593863
0.318067 -0.0518055 0.503436
-0.452077 -0.00887304 0.335725
0.151196 -0.0273838 0.448693
0.332213 0.0951412 0.449226
-0.206376 0.102441 0.492924
-0.00902806 -0.0237692 0.0316871
-0.243933 -0.00821059 0.432319
0.335292 0.0952272 0.376878
-0.313094 0.0945447 0.347921
-0.385758 -0.0197663 0.375307
0.451005 0.106768 0.429716
-0.193708 0.103563 0.471277
-0.357049 0.108718 0.358503
-0.00663328 0.0835202 0.609138
-0.427615 0.0962455 0.415284
0.245865 -0.0229142 0.430001
-0.078342 0.106032 0.401274
-0.0640707 0.107285 0.367069
-0.309089 -0.0211263 0.411306
-0.23085 -0.00839491 0.38206
0.163187 -0.0086766 0.37229
-0.198484 -0.00885088 0.448913
-0.0113296 0.0584258 0.448727
-0.0149488 0.0251501 0.589948
0.140911 -0.0272932 0.509835
-0.0913582 -0.0312752 0.453537
0.132073 0.103503 0.455607
0.259645 -0.00801235 0.484116
0.117428 -0.0296417 0.444054
-0.127962 0.0176764 0.36145
-0.0413521 -0.000714248 0.174802
-0.0265378 0.00637113 0.0300073
-0.251795 0.10751 0.364866
0.0980814 -0.0309353 0.417597
-0.0356989 0.0174804 0.381907
-0.0900926 0.105129 0.431513
-0.329411 0.108012 0.471956
0.406911 0.107545 0.472918
-0.125427 0.106314 0.407954
-0.0690327 0.100454 0.479098
-0.00775047 0.0815454 0.44867
-0.385132 -0.019777 0.401116
0.257263 -0.0402213 0.502889
-0.0216061 -0.0237515 0.0668965
-0.0106305 -0.0119949 0.613414
-0.31778 0.108459 0.368705
-0.0844803 0.00887761 0.0834015
-0.151648 -0.0660186 0.439384
0.209453 0.102254 0.335174
0.0159435 0.10562 0.417185
0.366945 0.097037 0.486777
-0.146965 -0.00858553 0.459433
-0.0111905 0.0327927 0.113674
-0.0330254 -0.02662 0.148077
0.0661812 0.0191015 0.0287023
-0.292189 0.0244779 0.36425
0.0393845 0.0160518 0.363884
0.0425533 0.0057554 0.328
-0.142494 0.0878491 0.451974
-0.0169281 0.0265168 0.0472916
-0.202406 -0.0240669 0.397296
0.223331 -0.0235353 0.388624
-0.00176888 0.0357249 0.270373
-0.301119 0.0942106 0.367912
0.0355979 -0.037412 0.517489
0.418981 0.10744 0.424481
0.0688164 0.0984527 0.337725
0.288005 -0.0588821 0.489208
0.456796 -0.0190826 0.460155
0.0428587 -0.00074496 0.498409
0.141587 0.0139863 0.0186228
-0.318064 0.101512 0.333207
0.0842904 -0.00818385 0.405188
-0.0337318 0.0396508 0.443799
0.0180669 -0.050137 0.588862
0.0188144 -0.035375 0.104463
-0.101707 0.0853399 0.461016
0.131104 0.106004 0.426095
0.00538431 0.0319925 0.180764
0.289496 0.0361898 0.458271
-0.121478 -0.0413497 0.434753
0.0665975 0.102067 0.462155
-0.0421569 -0.0121662 0.23573
-0.10648 0.0856346 0.343649
0.0038181 -0.0516425 0.363369
-0.0917599 -0.0312484 0.35956
-0.320291 -0.0208175 0.354934
0.0427644 0.00500264 0.394817
-0.208872 0.0916636 0.426262
-0.287235 0.0453682 0.45616
-0.315282 0.0946058 0.346633
0.00745701 0.10642 0.395523
-0.301607 -0.0213325 0.447292
0.176447 0.10468 0.335784
0.0881726 0.0846438 0.405264
-0.366597 -0.00728582 0.466245
-0.0710455 0.0100613 0.0778925
-0.463449 0.106599 0.389858
-0.376277 -0.0198539 0.406499
0.302236 -0.0244181 0.471525
-0.271009 -0.0221759 0.411691
-0.356312 0.09563 0.48131
-0.104927 0.106918 0.367389
0.267319 0.0936785 0.492556
-0.189715 0.10669 0.423664
-0.0692681 -0.0327523 0.400586
-0.0999378 0.015962 0.0521429
-0.229682 -0.00841137 0.48854
-0.00827156 0.0321287 0.167778
-0.176334 -0.0255933 0.34803
0.0552175 -0.0338015 0.424075
0.044793 -0.0161057 0.521021
0.186109 -0.0250493 0.438261
0.319 0.107639 0.477041
0.286018 -0.0449872 0.503436
-0.332407 -0.060738 0.455896
0.203529 -0.0240812 0.489301
-0.000123161 0.0280556 0.00520986
0.428617 -0.0194129 0.373828
-0.101576 -0.030592 0.393163
0.0987399 -0.0082741 0.363412
-0.0761484 -0.0322922 0.36455
-0.151769 0.0884196 0.397608
-0.138384 0.0486691 0.359491
-0.334967 -0.0560744 0.440824
-0.139309 -0.00853772 0.372519
0.0377764 0.0172263 0.391362
-0.012411 -0.0527892 0.535983
0.293605 -0.0123655 0.333614
0.0335376 -0.00035597 0.0762936
-0.00520259 0.0834785 0.00812958
0.199199 0.0914592 0.429891
-0.0377996 0.0114504 0.22348
0.302402 -0.00740997 0.335549
-0.302322 0.0942442 0.396604
0.280393 0.106861 0.451995
0.00772837 0.0338434 0.223802
-0.140177 0.103373 0.457756
-0.383963 0.108182 0.466169
-0.335377 -0.0534728 0.42875
-0.277162 0.0983641 0.333969
-0.203385 -0.0104995 0.493678
0.289606 -0.0439157 0.414308
0.0263628 -0.00645226 0.033156
-0.0649779 0.0830723 0.405272
-0.255516 0.0929497 0.460624
-0.0290664 0.0524525 0.436138
-0.0247697 -0.0253374 0.0842551
0.478348 -0.00935292 0.351117
0.0689463 0.0834568 0.35495
-0.304644 0.094309 0.381717
-0.119911 -0.0407222 0.45127
-0.085155 -0.0488658 0.506552
0.261437 -0.022485 0.435327
-0.141989 0.0878183 0.439444
0.312566 -0.0661922 0.45
0.0728702 0.083699 0.487249
-0.137233 -0.0653376 0.406824
0.0457857 -0.0169752 0.565269
0.0797075 0.0137625 0.0200308
0.179635 0.106618 0.364925
0.0314632 4.89755e-05 0.587634
-0.000509504 0.00759284 0.608256
0.393699 0.0960113 0.462031
-0.196247 -0.0088824 0.419641
0.184757 -0.00881132 0.415775
0.269177 -0.00787806 0.471059
-0.45077 -0.0192135 0.376919
0.307166 0.101641 0.49169
0.300917 0.108256 0.377259
-0.142091 -0.00151759 0.465092
-0.290902 0.0120772 0.364483
0.390887 0.107999 0.354132
-0.209089 -0.0238827 0.475397
-0.0080383 0.11439 0.609138
0.00591725 0.106717 0.00837069
-0.165701 0.0892783 0.370471
-0.269729 -0.0222112 0.48647
-0.0509122 0.0822039 0.380564
0.216478 -0.0237242 0.386751
-0.253713 0.107536 0.362623
0.426151 0.107297 0.384506
0.247697 0.0927964 0.38001
-0.00541834 -0.0416189 0.119619
-0.0151801 -0.0505222 0.502363
0.263066 -0.00796414 0.414689
0.0455159 -0.0057964 0.466661
0.324084 -0.0406878 0.429413
-0.0796901 -0.00816536 0.42687
0.0825145 0.0842945 0.453173
-0.0282121 0.00198118 0.610292
-0.387053 -0.0134659 0.479012
0.020759 -0.0474691 0.445362
-0.465105 0.106566 0.4142
0.280925 -0.0219478 0.396995
0.135738 0.0574321 0.359491
0.394872 -0.00773868 0.362469
-0.0514262 -0.0339453 0.432231
0.00922637 0.0446691 0.09849
-0.407513 -0.0195776 0.374977
0.0412682 0.0102757 0.587295
-0.0313308 0.00797234 0.0593872
0.119533 -0.0347551 0.473274
0.353157 -0.0200644 0.394633
-0.0725043 -0.0325359 0.485154
0.0106827 -0.0516795 0.498261
0.270726 -0.0222289 0.447194
-0.0379813 -0.0348443 0.458721
-0.423976 -0.0194532 0.425461
-0.000658778 -0.0477142 0.180617
-0.390357 -0.0150691 0.331406
-0.00954998 -0.0347085 0.0785452
0.215483 -0.0086345 0.354333
-0.0371345 0.00952244 0.15059
-0.444061 0.0963896 0.365041
0.308513 -0.0211874 0.449585
0.0638626 0.017601 0.0682281
-0.371058 -0.00730691 0.380775
-0.16464 0.0892129 0.453203
0.25593 -0.0226368 0.484516
0.131866 0.106786 0.377562
0.34063 0.108809 0.408808
-0.0610053 -0.000862322 0.610292
0.00119949 0.0815454 0.39549
-0.124916 -0.0446054 0.415279
-0.202879 -0.0240539 0.379906
0.00601575 0.0590073 0.00357063
-0.320693 0.108185 0.429901
0.393033 -0.00784285 0.43778
0.356768 0.108679 0.477483
-0.194817 -0.00888439 0.337876
0.278252 0.0793124 0.356219
-0.100335 0.0852552 0.452629
0.0366089 0.020453 0.0371837
-0.0397256 0.009315 0.394559
0.141889 0.0983622 0.336425
0.135437 -0.044581 0.508192
0.0554007 0.0995124 0.487737
0.05452 -0.00799792 0.487289
-0.0883055 0.0845125 0.452191
0.442286 -0.00866191 0.399584
-0.0431242 -0.00170945 0.274014
0.000920545 0.105569 0.418573
-0.0432788 0.0817327 0.490909
0.0318008 0.0233045 0.262884
-0.407316 -0.00801291 0.385221
-0.284467 0.0186072 0.464096
0.434489 0.0969688 0.33021
0.125264 -0.00843975 0.45004
0.00357947 0.117068 0.0435511
-0.294343 0.0452971 0.358524
-0.10062 -0.0306559 0.434069
0.0698625 0.100468 0.479285
0.0101788 0.0623641 0.070586
-0.087739 -0.0227206 0.337344
0.00745244 -0.0483106 0.19387
0.105494 -0.0304397 0.346825
-0.0222801 0.0464189 0.370713
0.464859 -0.0191214 0.414566
0.00721112 0.08258 0.0145727
0.382658 -0.0198076 0.371034
0.409781 0.0961026 0.403622
0.177423 -0.00876552 0.361957
0.32155 0.0948437 0.401193
-0.37846 0.0958138 0.395218
0.401826 0.0960895 0.455223
-0.188963 0.106719 0.35066
-0.318612 0.0946987 0.358958
0.0960529 0.0989648 0.497928
0.0185028 -0.0135227 0.0162891
0.0242706 -0.0465265 0.580468
-0.00757447 0.0671427 0.0485619
0.0461516 0.00920462 0.103944
0.0662725 -0.0330623 0.430633
-0.0589662 -0.0334411 0.399914
0.464321 -0.019095 0.428862
0.0651437 -0.00974806 0.606131
-0.468509 0.0966109 0.420221
0.0396277 -0.0303495 0.502108
-0.0319132 0.020566 0.0388755
-0.0207516 0.0260757 0.162822
-0.463404 0.0966362 0.454299
-0.225939 0.0921342 0.34312
-0.116818 -0.0295729 0.421708
0.0162729 -0.113818 0.609138
0.0791772 0.0840884 0.492049
-0.0479851 0.107478 0.3669
-0.35095 0.0955772 0.412745
-0.0412019 0.00466456 0.302739
0.432212 -0.00846323 0.369202
0.447435 0.0964777 0.435007
-0.156245 0.1064 0.405137
-0.00255725 0.0329229 0.202399
-0.0857844 0.106684 0.376022
0.00655486 0.0913444 0.00872412
0.304879 -0.0589291 0.491299
-0.450943 0.106848 0.40958
0.0975949 0.0997673 0.337209
0.00421268 -0.0457757 0.161116
-0.0531977 0.019692 0.00650223
-0.0430529 -0.0043646 0.495804
0.312519 -0.0660558 0.448543
-0.182165 -0.0252034 0.414821
-0.0214067 0.107897 0.355568
-0.203542 -0.0240356 0.408564
-0.00861769 -0.0177287 0.613334
-0.28832 -0.00758526 0.342023
-0.00757094 0.0388619 0.0208416
0.0289394 -0.041928 0.508387
0.137516 -0.0282985 0.422788
0.451206 0.0964733 0.416875
0.0422961 0.00363656 0.526161
-0.0469356 -0.0102688 0.606131
0.024954 0.0234158 0.0906619
0.117217 0.10703 0.368838
-0.438433 0.107098 0.343768
0.291882 0.017759 0.360542
0.144554 -0.00856023 0.370468
-0.434908 0.107168 0.374234
-0.0405659 0.00688758 0.384468
0.287016 0.093894 0.415302
-0.026015 0.0534521 0.397906
0.46203 0.106454 0.436989
-0.24313 0.0926081 0.375334
0.184572 -0.00881017 0.450429
-0.447717 -0.0089753 0.43755
0.383837 -0.0075238 0.368247
-0.219246 0.106127 0.436283
-0.457898 -0.0191539 0.378399
-0.140643 -0.0279798 0.471417
0.383324 0.095875 0.390682
-0.0134706 -0.0515751 0.431768
0.163839 -0.0452951 0.508646
0.020202 -0.00166802 0.00520986
-0.0648421 -0.00815219 0.337822
0.26392 -0.0224165 0.435457
-0.0586452 -0.00803392 0.375975
-0.127047 -0.0554289 0.402211
0.060442 -0.0334521 0.402621
-0.101722 0.102582 0.459987
0.00687777 0.0815454 0.505857
0.35632 -0.0200368 0.388763
-0.402067 -0.0196286 0.387479
-0.0300038 0.0236622 0.558776
-0.411533 0.0960982 0.38903
0.0535308 -0.0339142 0.370327
-0.180584 0.0901956 0.394384
-0.141805 -0.00983511 0.508332
-0.30826 -0.0288098 0.418831
-0.153427 -0.0669078 0.488926
-0.115601 0.101109 0.477086
-0.341748 -0.0202261 0.428106
-0.311028 -0.0705263 0.493786
0.30158 -0.00742156 0.383716
-0.0338091 -0.0367976 0.442806
-0.25292 0.0928781 0.37501
-0.359786 0.108664 0.417564
-0.136826 -0.00852221 0.351114
0.399355 -0.0196752 0.439972
-0.148855 0.102839 0.465651
-0.434504 -0.00881128 0.461166
0.339094 -0.00689305 0.476018
0.345582 0.0955143 0.384454
0.324922 -0.0442055 0.437884
-0.205272 -0.00875525 0.39123
0.444007 0.106786 0.452447
-0.254889 -0.00805624 0.340134
-0.338261 0.108745 0.375429
-0.161662 0.0929616 0.336085
-0.177261 -0.00877475 0.372534
0.0370122 0.0166579 0.219803
-0.00970718 0.0430899 0.0800247
-0.153569 0.0885306 0.452387
-0.104279 0.0166282 0.0374386
0.350322 -0.00687122 0.397476
-0.390242 -0.00768046 0.394265
0.125771 0.0701022 0.464064
0.0214675 -0.0458119 0.245211
-0.287316 -0.0217265 0.431694
0.012665 -0.0528032 0.536459
-0.00811292 0.032761 0.198633
-0.309402 0.0978719 0.333373
-0.311309 -0.0676339 0.472146
-0.308603 0.0944194 0.363394
-0.0284542 -0.0391749 0.237862
-0.0422388 -0.0147604 0.25106
0.434519 -0.00851067 0.408219
-0.279375 -0.00771128 0.473697
-0.392037 -0.0078573 0.465004
-0.283057 -0.0218438 0.398318
-0.46987 -0.0190568 0.416598
-0.191936 -0.0088664 0.376757
0.286754 -0.0358557 0.44901
0.091832 0.0123061 0.0401615
0.192744 -0.00886121 0.479752
0.168119 -0.00870741 0.466595
0.0344456 -0.0137941 0.105991
-0.198944 0.0913272 0.464956
0.119927 -0.0242769 0.495501
-0.371907 -0.0198751 0.478583
-0.298726 0.0941438 0.441133
0.141949 -0.00855365 0.359487
-0.100762 0.0852816 0.378513
0.0295682 0.0206402 0.109184
0.320261 -0.0430997 0.413779
-0.140217 0.0277019 0.461058
-0.27259 -0.0221324 0.375159
0.278946 0.093677 0.455215
0.162273 -0.0207513 0.494712
0.103623 0.0855977 0.453893
0.213484 -0.0238068 0.366547
-0.125897 0.0868269 0.389078
0.150192 -0.00859544 0.46742
0.214225 -0.0237863 0.414979
0.469409 0.0966463 0.343691
-0.433389 0.107198 0.331654
0.118451 -0.0111508 0.606131
0.177792 -0.0256054 0.377498
-0.124452 -0.0363399 0.440188
0.137514 0.0360248 0.46307
-0.203515 -0.0240364 0.389442
0.263006 0.107695 0.357736
0.00302252 -0.0457225 0.160585
0.126796 0.106185 0.416858
-0.0172101 -0.0274486 0.0691406
0.0396707 -0.00760261 0.152094
0.198266 0.0993403 0.493983
-0.427744 -0.00841068 0.386134
0.471172 -0.00921512 0.356933
0.152912 -0.0272691 0.393676
-0.324922 0.0948748 0.366195
-0.108059 -0.0301585 0.45892
0.197816 0.0913969 0.404802
-0.0271435 0.0218397 0.00791201
0.0964374 0.0109592 0.0531612
-0.171739 0.0896505 0.413249
0.0260105 -0.043654 0.38754
0.225905 0.103503 0.490063
0.0308029 0.0472401 0.451513
0.338205 -0.00690557 0.348199
0.141454 0.0132975 0.359485
0.308932 -0.0352077 0.495567
0.242869 0.0926632 0.36761
0.314829 -0.0298385 0.427084
-0.294615 0.108134 0.380181
-0.410914 -0.00808121 0.361725
-0.211037 -0.023829 0.431964
-0.0921277 -0.0312238 0.491734
0.0443858 -0.000215053 0.33893
0.0908678 -0.00822493 0.446798
-0.292086 0.0241891 0.463856
-0.191742 0.0908833 0.442056
-0.00456999 0.0444764 0.358673
0.363427 0.0957201 0.428294
-0.44012 -0.0192188 0.465904
-0.041861 0.00266797 0.379022
-0.131668 0.0836335 0.461077
-0.220905 0.0919954 0.425774
0.127783 -0.0352045 0.430493
0.0134609 0.0352405 0.256287
0.00813555 -0.0299542 0.0546552
-0.031255 -0.0259346 0.594344
-0.294732 0.107174 0.458606
0.409416 -0.0195836 0.39521
0.0648852 -0.00806265 0.418415
0.246101 -0.0229077 0.456275
-0.0222773 0.0285201 0.252303
-0.0379286 0.00836588 0.112148
0.0430924 0.00399897 0.384408
-0.029661 0.0216021 0.220191
0.135955 0.0589794 0.468737
0.0156352 -0.0279121 0.613334
-0.274084 0.0934616 0.35303
-0.32028 -0.007135 0.458808
0.0143971 -0.017121 0.0183735
-0.00343237 0.121715 0.0149713
0.116969 -0.0603254 0.425668
0.0324122 0.103912 0.440627
0.0176661 0.0334977 0.318865
-0.142092 0.0878248 0.365944
-0.302385 0.0942459 0.487151
0.192071 -0.008857 0.43697
0.0624071 -0.00804718 0.374433
-0.140201 -0.00854329 0.370225
-0.140618 0.0182966 0.367979
0.114968 -0.0298062 0.425708
-0.16469 -0.0443794 0.505464
-0.292897 -0.0052297 0.456648
0.0475865 0.0205857 0.0146071
-0.395498 0.0962826 0.481497
0.0279551 0.00773607 0.0283966
0.475199 0.0966665 0.409407
-0.157325 -0.0617827 0.470523
-0.327134 -0.0547262 0.48931
0.155568 -0.0270914 0.386506
-0.0082395 -0.0169957 0.613334
-0.42326 -0.00832335 0.38769
0.0770809 0.0137932 0.0223913
0.0145162 0.103267 0.447397
-0.184353 0.0904279 0.420524
-0.0374279 -0.0062121 0.141594
-0.339856 0.108491 0.46925
-0.419795 0.107469 0.332274
-0.391775 0.107869 0.48184
0.326833 -0.0528432 0.484054
0.05636 0.0826797 0.340156
-0.164665 -0.0107458 0.494619
0.012414 0.0815454 0.361738
0.323558 -0.044513 0.501758
-0.306581 0.108303 0.35071
0.0168306 -0.0495343 0.25224
0.0453918 -0.00349267 0.318007
0.101363 -0.0185112 0.606131
-0.237996 -0.0230859 0.406134
-0.113653 0.106452 0.396781
-0.0923512 -0.0312088 0.430958
-0.131298 -0.0286046 0.337367
0.107898 0.106263 0.405149
-0.0271828 0.0983915 0.498953
-0.115978 0.086221 0.443642
-0.465345 -0.0100626 0.444507
0.116796 -0.029684 0.357328
-0.0117042 -0.000538005 0.60688
-0.00632994 -0.0437433 0.140826
-0.354447 0.095612 0.421315
0.278996 0.047306 0.361817
-0.298159 0.10676 0.480633
-0.115388 0.106617 0.388863
0.278146 0.0238913 0.358703
-0.0215865 0.106115 0.403793
-0.0256574 0.0274742 0.561411
-0.29197 -0.00753384 0.449898
-0.280965 0.06238 0.36208
-0.0144075 -0.00887929 0.587634
-0.26731 -0.00788125 0.466962
-0.424678 -0.00834795 0.363185
-0.0409047 -0.0346488 0.482018
0.230916 -0.00841709 0.415521
0.300508 -0.0639631 0.502982
0.041619 -0.0011539 0.610292
-0.16569 0.107178 0.337096
-0.309213 -0.00729091 0.380892
-0.273945 -0.00778778 0.442193
0.0529193 -0.00798792 0.476668
0.179893 -0.025465 0.36348
-0.013597 0.030159 0.610537
0.106161 0.106268 0.403977
0.329206 -0.00703236 0.339666
-0.31402 -0.072033 0.495464
-0.12009 -0.00923784 0.495507
0.407433 -0.00816632 0.448961
0.253136 0.0929463 0.429984
0.12571 -0.0906975 0.50846
-0.0151021 -0.0503897 0.474574
0.406334 -0.0196015 0.352029
-0.0784999 0.0186295 0.0196199
-0.13743 -0.0408084 0.493226
0.334425 -0.00695883 0.337737
-0.162859 -0.0264943 0.488955
0.343019 -0.0202362 0.478851
-0.131666 0.0870577 0.367979
0.0547923 0.0825829 0.345933
0.116382 0.0863854 0.479162
-0.364794 -0.0071834 0.336306
-0.227982 0.105647 0.444773
-0.180698 0.0902026 0.381294
-0.365031 0.108543 0.482867
0.430184 -0.00841839 0.340413
-0.144263 -0.0470761 0.505971
0.0643099 0.100338 0.337819
-0.33335 0.108676 0.355438
0.0381383 -0.0305049 0.235325
0.0468896 -0.00167227 0.610292
-0.0435241 3.20226e-05 0.566621
-0.206186 0.0915895 0.435987
-0.0693154 0.108271 0.338626
0.250647 0.104549 0.491742
0.0811905 0.0997164 0.488416
0.241581 -0.00832946 0.492127
-0.0210859 -0.046042 0.432159
0.169712 0.0896648 0.421586
0.323088 -0.0207856 0.468799
-0.301718 -0.0355133 0.412853
-0.297421 -0.0574691 0.450454
0.180016 -0.00878171 0.414571
-0.12484 -0.0290364 0.397287
0.278759 -0.00774306 0.355003
0.206556 -0.0239977 0.458493
-0.137347 0.0875366 0.415117
0.364557 0.095731 0.480898
0.0338665 0.0300015 0.461401
0.0243877 -0.0409193 0.190193
-0.337397 -0.0406298 0.478282
0.32318 0.0948892 0.365933
-0.182585 -0.0251752 0.439697
0.461329 -0.0190302 0.462409
-0.304461 -0.0212539 0.350882
-0.0226477 0.101014 0.471512
0.447306 0.106876 0.335681
-0.278864 -0.00771849 0.428836
-0.217811 0.0919101 0.438615
0.417674 -0.00817856 0.352621
0.0194037 -0.0484537 0.284898
-0.337283 -0.00689546 0.471602
0.151511 -0.00860368 0.412828
0.187384 -0.024964 0.458819
-0.00686291 0.0566779 0.0205554
-0.0680104 -0.0328364 0.443905
-0.469345 0.106482 0.410365
-0.277718 0.0935744 0.420716
0.443471 -0.00868208 0.373662
-0.121141 -0.0686898 0.471419
-0.0176131 0.0282624 0.139871
0.443964 -0.011557 0.330034
-0.0585963 0.0179638 0.0634283
-0.364732 -0.0199541 0.414977
0.358045 -0.00705688 0.443151
0.303608 -0.0504372 0.508335
0.0950821 -0.00825125 0.378627
-0.0433205 0.0210006 0.00741747
-0.0065814 0.0848261 0.040766
-0.015435 -0.0869199 0.609138
0.0447853 -0.00151651 0.374178
0.0838569 -0.0318865 0.443877
-0.0191626 0.0307241 0.513155
0.0107759 -0.0520707 0.511558
-0.0259289 -0.0425494 0.497746
0.453649 0.096498 0.359237
-0.0828991 -0.0081854 0.425351
0.352765 -0.0200691 0.447698
-0.0235904 -0.0459835 0.546909
-0.132488 0.106415 0.401995
-0.425371 0.0962829 0.443102
0.255707 0.0930172 0.454151
0.0438168 -0.0345638 0.356774
-0.201506 -0.00880832 0.385772
-0.167046 -0.0262143 0.450659
-0.0405941 -0.0346696 0.452933
-0.0129456 -0.0270711 0.611401
-0.283534 0.0111157 0.464071
-0.139374 0.0150432 0.0282623
-0.284989 0.040645 0.356205
0.160629 0.089105 0.460726
0.13983 -0.0281438 0.371755
0.0380974 0.0115611 0.449457
0.0096887 0.0442778 0.359351
0.0128506 0.035735 0.268738
0.244455 -0.0229531 0.482445
-0.00684183 0.0989559 0.493335
-0.056581 0.0942223 0.337965
0.0922134 -0.00823333 0.468626
-0.132013 0.107252 0.353888
-0.0380464 0.0348568 0.429191
0.0467065 0.0183622 0.0861727
0.446107 -0.0087363 0.404
-0.403606 0.09603 0.375586
-0.424964 -0.00835653 0.388942
-0.0678852 -0.00809163 0.482486
-0.330443 -0.0599872 0.427097
-0.222377 -0.0132203 0.334904
0.40846 0.0961075 0.336527
-0.00374293 0.0815454 0.514262
-0.0104558 0.108302 0.3446
-0.138615 0.0227911 0.359494
-0.29269 -0.0075237 0.37064
0.0482581 0.0143514 0.042032
0.293523 0.0940658 0.340758
0.378466 0.0958332 0.393542
-0.14433 -0.0277333 0.401095
0.0358637 0.0109112 0.489123
0.1198 0.103438 0.452551
0.0225429 0.0284265 0.504277
-0.257221 0.107585 0.353762
0.366492 0.108485 0.451889
0.220781 0.107114 0.408712
0.435639 0.100024 0.330206
-0.378942 0.108282 0.342441
0.00227221 0.123229 0.0255442
0.163862 -0.00868082 0.345336
0.186934 -0.0249941 0.343363
0.120224 0.00629939 0.606131
-0.387933 0.0959341 0.445502
0.12719 -0.0661128 0.503681
0.0872442 0.0845865 0.44942
-0.121631 -0.0282281 0.336708
0.339352 -0.0203373 0.394762
-0.411783 0.0961004 0.37811
0.0624864 0.0177326 0.0666615
0.351107 -0.0200831 0.452406
-0.152946 0.0884922 0.338295
-0.136832 -0.00852225 0.39227
0.287953 0.108067 0.37284
0.139647 0.0992117 0.336465
-0.188985 0.105809 0.436836
0.201392 -0.0241401 0.472591
-0.163171 0.105263 0.441693
0.0164666 0.10595 0.408249
0.109207 -0.00833947 0.473538
-0.273995 -0.00778708 0.371396
0.00612534 0.119251 0.0221249
0.0584853 -0.00802268 0.359565
-0.000491172 -0.0447952 0.151327
0.13492 -0.00850006 0.397075
-0.00753441 0.0326062 0.195034
0.46278 -0.0191204 0.363182
0.128865 -0.0440797 0.509835
0.0802001 -0.0081583 0.436969
0.00425899 0.0363992 0.589883
0.22586 0.0921943 0.403807
0.167281 -0.00870217 0.434739
0.438921 -0.0193407 0.424352
0.0347328 0.0815454 0.378301
-0.254003 0.104901 0.482372
-0.380975 0.0958354 0.367328
-0.32942 -0.0300294 0.485448
-0.297311 -0.0382789 0.427852
-0.355877 0.0956195 0.3511
-0.074561 0.10714 0.367454
0.127449 -0.0084534 0.356295
-0.167982 -0.00871679 0.453277
-0.0585719 0.0186938 0.00670268
0.0805632 -0.00816057 0.360249
-0.0276048 0.0929369 0.510742
0.156396 -0.00863419 0.460307
-0.00996531 -0.0332435 0.0715136
-0.329039 -0.0611382 0.422456
0.365724 0.1085 0.441408
0.0555348 0.014769 0.0213356
-0.288913 0.0600807 0.356187
-0.256375 -0.00803531 0.488449
-0.00562742 0.108472 0.339993
0.118904 -0.0397562 0.437656
-0.208779 0.106917 0.37609
-0.0379892 -0.0298983 0.336346
-0.14606 -0.00857988 0.453294
0.310801 0.0945438 0.345498
-0.398146 0.0959831 0.361772
0.134665 -0.00729475 0.359501
0.239198 0.107367 0.34252
0.192504 0.0910695 0.468428
0.0103871 -0.0737162 0.609138
0.0439346 -0.0166453 0.279822
-0.127284 0.0869141 0.479251
0.18702 0.0907315 0.372994
0.00841782 -0.116414 0.609138
0.0332448 0.0224238 0.280001
-0.00232212 0.0815454 0.507676
0.101307 -0.0307197 0.489538
0.147385 -0.0355216 0.476526
-0.0654228 -0.00807625 0.402546
-0.115248 -0.0455432 0.4724
0.184154 -0.00880755 0.398211
-0.33151 -0.0619671 0.455494
-0.132475 0.0111952 0.0210601
-0.0508946 0.0822029 0.403697
0.296323 0.0980099 0.333574
-0.306431 -0.00733012 0.478916
-0.212142 -0.00865847 0.433801
0.00478472 0.0393669 0.350468
-0.144526 -0.0712754 0.439818
-0.428053 -0.00856717 0.434399
0.0167358 -0.0390893 0.121195
-0.175908 0.0899074 0.392927
-0.224977 -0.0234448 0.42942
0.0248326 -0.0464738 0.552637
-0.283054 0.10675 0.455588
-0.0342283 0.0202721 0.0439724
0.359259 0.108629 0.44363
-0.2937 0.1034 0.49202
-0.329217 -0.0070091 0.372369
0.00708148 0.102216 0.0283823
0.157303 -0.0269754 0.485092
-0.149833 -0.0346629 0.458259
-0.382484 -0.019804 0.449662
-0.00847304 -0.0305856 0.587634
-0.303167 -0.0548054 0.48931
-0.257818 -0.0225395 0.407638
-0.412804 0.0961733 0.448566
0.266885 -0.00791035 0.408171
-0.128255 -0.0342843 0.496967
0.203826 0.10688 0.373772
0.14057 0.0482439 0.359483
0.290804 -0.0107153 0.356177
0.00801112 -0.0328079 0.0689951
-0.265989 -0.0223143 0.462916
-0.284094 0.0296175 0.456216
-0.137908 -0.00852896 0.367647
0.200144 -0.00885061 0.451671
-0.448322 0.106901 0.370038
0.0195896 0.0815454 0.416116
0.143702 -0.00855491 0.406556
-0.15835 -0.0598331 0.489094
0.298564 -0.0265845 0.447872
0.0329598 0.026483 0.467226
-0.460221 -0.00903582 0.362037
-0.0104733 0.0223156 0.587634
0.00569773 0.107146 0.375894
0.137362 0.0737397 0.359486
-0.414118 0.107582 0.419933
-0.315002 -0.00720936 0.355523
0.135865 -0.0732939 0.444783
-0.139298 -0.0502451 0.508332
0.0215437 -0.046899 0.432855
-0.413527 0.107593 0.416756
-0.000193689 0.0357081 0.283822
-0.0694869 0.0833507 0.458327
-0.39965 -0.00802832 0.473811
-0.132297 0.0872237 0.445473
0.301688 0.108266 0.340137
-0.437677 -0.0193145 0.343619
0.158576 -0.00864781 0.363384
0.210529 -0.0087043 0.383249
-0.0873132 -0.00294463 0.610292
0.0141444 0.107246 0.373183
0.0396685 0.0136591 0.591564
0.120612 -0.034971 0.494266
0.110253 -0.008346 0.45234
-0.184552 -0.00882028 0.424354
0.0203141 -0.0460378 0.233054
-0.0344325 0.0217829 0.35209
-0.00152224 -0.0227473 0.596332
0.134633 -0.0284913 0.394137
-0.181494 0.092248 0.335733
-0.402736 -0.00792372 0.366149
-0.40686 -0.00819029 0.448164
0.00181877 -0.0496724 0.22413
0.29033 -0.0309179 0.489569
-0.363468 -0.00715914 0.407676
0.351892 0.108776 0.3767
-0.000673305 0.102237 0.45861
0.00139488 -0.0516425 0.271264
-0.013038 0.0815454 0.438519
0.0528949 0.0985612 0.497444
0.131309 -0.00765377 0.46109
0.00779069 0.101983 0.0513873
-0.0153198 -0.0502316 0.394482
0.153147 0.106978 0.361811
-0.0320848 0.0174902 0.512929
-0.234881 -0.00833812 0.430543
0.117139 -0.0296611 0.381872
0.345624 0.108879 0.35143
-0.288212 0.0362074 0.456149
0.0309233 -0.040085 0.481228
-0.0227365 -0.0448427 0.320835
0.0141826 -0.00390722 0.61392
-0.261875 0.105078 0.487734
0.0499101 0.105832 0.410378
0.30867 -0.0644676 0.423201
-0.407 0.0960726 0.340019
-0.372659 0.0957872 0.43909
0.267495 -0.00790175 0.445981
0.0390274 -0.00561031 0.595501
0.147432 0.0882916 0.369765
0.256842 -0.0159469 0.3343
0.444347 -0.0192782 0.36874
0.350288 0.0955909 0.356578
-0.133317 -0.032138 0.493669
0.192623 0.106764 0.34178
-0.359545 0.0956611 0.476505
-0.137277 0.00969588 0.0596914
0.141456 -0.0482787 0.49473
0.355347 0.0956344 0.397597
-0.100984 -0.0306316 0.37726
-0.338409 0.108425 0.433058
0.0434345 0.0203833 0.027807
0.041997 -0.0226096 0.275729
0.0247371 0.0242138 0.124618
-0.183206 0.0903572 0.369577
0.472469 -0.00923964 0.353893
-0.445072 0.0964837 0.46511
-0.403208 0.10774 0.465166
0.0205603 -0.0833282 0.609138
0.134907 0.102979 0.462072
0.132211 0.0873584 0.413576
0.130502 -0.00644258 0.472268
-0.394408 -0.0196911 0.355241
-0.411563 -0.0195482 0.386664
-0.204637 0.10686 0.343885
-0.0724935 -0.00812041 0.422601
0.277394 -0.0403585 0.501758
-0.12873 0.0795982 0.469242
-0.0321086 0.022593 0.585777
-0.438815 -0.0193045 0.350611
-0.311672 0.0945051 0.402125
-0.285236 0.0856383 0.356199
0.0373025 0.106463 0.394373
-0.345252 -0.0201295 0.367445
0.416672 -0.00815696 0.341201
-0.0341962 0.0179139 0.54782
0.422495 0.107292 0.454347
-0.00781601 -3.67481e-05 0.606131
0.0532007 -0.00798968 0.380855
0.030572 0.0252732 0.583524
-0.0240457 -0.000299786 0.0213864
0.230683 0.0957526 0.33479
0.018801 0.0258575 0.595501
0.429663 0.0962736 0.402753
-0.173959 0.0897873 0.386317
0.276376 0.107658 0.425651
0.0423253 -0.0172311 0.233
0.442195 -0.00890875 0.449322
0.00945712 -0.0532407 0.551331
-0.0266381 0.0563616 0.428178
-0.0334025 0.0815454 0.449699
0.0534749 0.0995775 0.486843
0.0593457 -0.0273278 0.610292
0.312939 0.108423 0.386056
-0.373393 0.108393 0.423832
0.0866906 0.0901662 0.337369
-0.0303311 0.0240801 0.582205
-0.123516 -0.0380298 0.437809
-0.00835635 -0.0123761 0.582095
-0.374746 -0.0198694 0.448893
-0.339894 -0.0202772 0.46754
0.302463 -0.00740912 0.489362
-0.152285 0.106672 0.388064
0.100987 -0.00828813 0.42476
-0.331449 -0.00697766 0.418555
-0.423186 0.107401 0.40978
0.251794 0.107541 0.365875
0.316824 -0.0072068 0.415729
-0.035353 0.0161052 0.00643781
-0.0354232 0.0167999 0.412555
-0.00931048 -0.0494414 0.218998
0.0443882 -0.000222899 0.400142
-0.302373 0.0942456 0.480035
0.00410632 -0.0518765 0.504958
0.274363 -0.00780499 0.435616
0.195668 0.0912645 0.355919
-0.39017 0.0959242 0.41724
-0.0621945 -0.00805609 0.472761
-0.0110753 -0.0196894 0.0229203
0.0805936 -0.0161249 0.606131
0.317734 -0.0209332 0.455639
0.00996606 0.0478087 0.0454149
-0.00239037 0.0597065 0.465683
0.294659 0.0940938 0.415485
0.0970247 -0.00826338 0.376448
-0.0375076 0.0815454 0.4969
0.300564 0.0942582 0.38006
-0.033462 -0.0249532 0.148152
0.271278 -0.0222137 0.419862
-0.0396564 -0.0263108 0.590048
-0.342548 0.0953666 0.469305
-0.025947 0.0131992 0.0244097
0.0190529 0.0263851 0.0530736
0.356971 -0.0200335 0.432883
0.139182 0.0399046 0.364195
-0.0750029 -0.0143136 0.496391
0.229768 -0.00843326 0.487006
0.106529 -0.0303705 0.470529
-0.245667 0.104364 0.487514
0.0653901 -0.0213383 0.337779
-0.281686 0.0677555 0.363888
-0.0380704 0.0268319 0.416868
-0.383748 0.108186 0.391814
0.426852 -0.00856158 0.442344
0.166876 0.0894899 0.397472
-0.234089 -0.0231936 0.418136
-0.0175334 0.0325135 0.301409
-0.244934 0.0926579 0.345138
-0.0138242 0.0279344 0.0292152
-0.449589 -0.0192117 0.347801
0.340528 0.108625 0.484732
0.386172 0.108093 0.464689
0.0212127 0.10737 0.369812
0.0435421 0.00178432 0.264392
-0.30086 -0.0213531 0.425361
0.0341807 0.0190577 0.210882
0.426373 0.105282 0.330477
-0.0774016 0.0102202 0.072195
0.0992204 -0.0087341 0.495956
0.107033 0.101614 0.471095
-0.205773 -0.00874821 0.465113
-0.00340492 -0.0516425 0.29693
0.305307 -0.0212758 0.475597
-0.0278987 -0.0235588 0.606131
0.0302788 -0.0144961 0.0729791
-0.349435 -0.00690029 0.433511
0.350058 0.0955916 0.474752
0.406204 -0.007959 0.365402
0.168321 -0.00870867 0.485991
-0.135746 -0.00528023 0.506688
0.153571 0.101105 0.488748
0.312518 -0.0306225 0.420438
-0.218463 -0.00856942 0.412478
-0.0387414 -0.0339923 0.567874
0.134565 0.0875041 0.416802
0.0130769 -0.011817 0.584244
0.00274898 0.0924137 0.613334
0.141431 -0.0280367 0.426305
-0.0157976 -0.045871 0.188229
0.458696 0.0965279 0.388708
0.244648 -0.0229478 0.480475
-0.261941 -0.0201017 0.334181
-0.0924089 -0.0082448 0.475522
0.277798 -0.0481804 0.503436
0.297611 -0.0657094 0.504625
-0.281639 -0.0529163 0.49424
0.178643 0.0902152 0.434631
-0.131314 0.0736504 0.367979
0.0336201 0.0489672 0.427017
-0.269854 -0.00784541 0.383904
0.0148625 0.0305848 0.595501
0.45135 0.106795 0.388605
0.320706 0.108532 0.403592
0.0174437 -0.0498776 0.428708
0.46402 0.0966227 0.435498
0.0491558 0.0196057 0.0419734
-0.350502 -0.0200732 0.359721
0.0777976 -0.0081433 0.360513
-0.388572 0.10809 0.382492
0.0850041 0.0188309 0.00898829
-0.11879 0.0863946 0.468921
0.234938 0.0924446 0.490436
0.134902 -0.0349674 0.426856
0.00374935 0.0616024 0.449732
0.122588 0.0111605 0.0762374
-0.308387 -0.0136699 0.333312
-0.015867 0.0272598 0.0466854
-0.324487 -0.00707574 0.406278
-0.303231 0.108256 0.354724
-0.333568 -0.0332936 0.448124
-0.0412312 0.00551684 0.572462
0.01901 -0.0250423 0.0589168
-0.413084 -0.00833011 0.462741
-0.0408383 -0.0255472 0.546647
-0.107746 0.0942746 0.497063
0.130959 -0.00847532 0.467986
-0.0327528 0.00461628 0.0755082
0.336016 0.108745 0.390142
0.0786283 -0.0322361 0.458493
-0.0234366 0.0444912 0.479442
-0.00786596 0.0721487 0.0633815
0.335387 -0.0120405 0.332839
0.0433374 0.000601028 0.227022
0.385967 -0.00768411 0.473491
0.401392 0.10779 0.42134
-0.0193914 0.0310794 0.323816
-0.315506 -0.0209494 0.472048
-0.00426735 0.0815454 0.513386
0.389265 -0.0197566 0.402655
0.0785981 0.0993298 0.492189
-0.0938324 -0.00825369 0.486223
0.181663 -0.0253466 0.387666
0.46488 -0.0191213 0.417553
-0.116882 -0.0295686 0.464823
-0.354369 0.0956066 0.3728
-0.335202 -0.00692479 0.458892
0.285692 -0.00764539 0.450385
0.168803 -0.00871168 0.356996
-0.129909 -0.0850443 0.508332
0.411964 0.10758 0.364789
-0.0223714 0.0245845 0.104384
-0.138098 -0.0755836 0.477966
-0.308084 -0.0338663 0.401266
0.301087 -0.0074285 0.476435
-0.156544 -0.0269166 0.359574
-0.146718 -0.0720407 0.492472
-0.290141 0.107788 0.426391
0.237011 0.0925017 0.389722
