0.155476 -0.0270976 0.337799
0.154666 -0.0501005 0.459204
0.145161 0.106703 0.390144
-0.162911 0.0891063 0.486393
-0.158689 0.101111 0.336157
-0.384657 0.100521 0.331675
-0.0202975 -0.0466149 0.328087
-0.0645656 -0.0161656 0.49658
-0.0216308 0.0476877 0.476454
0.253448 -0.0227052 0.440525
0.0386253 -0.0349109 0.369724
0.0218573 -0.0450398 0.2355
0.204093 -0.00879498 0.340755
0.0879905 -0.0538013 0.506968
-0.140983 -0.0279571 0.439515
-0.184858 -0.0250233 0.40808
0.326609 -0.0514377 0.454937
-0.143445 0.0417959 0.35999
0.0124169 0.0322703 0.156242
0.479585 -0.0155322 0.380711
-0.0553132 0.0141222 0.0378181
-0.140864 -0.0132401 0.508332
-0.224828 0.0921035 0.426115
-0.0441222 -0.00126676 0.567174
0.309497 0.108375 0.391683
-0.0291914 0.0521836 0.398698
-0.310957 -0.0907794 0.493786
-0.00859888 -0.0691227 0.613334
0.104978 0.105676 0.427133
-0.0222148 0.0245392 0.0998554
-0.477929 0.104825 0.384954
0.399422 -0.007993 0.331229
0.372565 0.0957825 0.391665
-0.252738 -0.0226796 0.465005
-0.159898 -0.0086663 0.446706
0.00124216 0.0815454 0.358809
-0.27599 0.0935205 0.345494
-0.109774 -0.00835325 0.340127
0.409387 -0.0111628 0.474534
0.10044 -0.00828472 0.473987
0.134638 0.0195204 0.461072
0.165027 0.089376 0.432955
0.0154955 0.0235907 0.00520986
0.00414593 0.0911783 0.0655815
-0.0446186 -0.0094923 0.296452
0.286369 -0.00763585 0.341033
0.0455979 -0.0173443 0.562926
-0.326586 -0.00704616 0.409801
0.191742 -0.00885495 0.443768
-0.413063 -0.00811952 0.344909
-0.0348918 -0.0137285 0.12998
-0.108233 0.0857428 0.4348
-0.359923 -0.0199947 0.478557
-0.115142 -0.0584038 0.458568
-0.0255971 0.00907229 0.606131
0.291686 -0.00756094 0.434313
-0.325977 -0.0658224 0.452745
0.0577579 0.0899718 0.508254
0.47328 0.105098 0.329202
-0.0374557 0.0097777 0.197891
-0.296889 -0.00746454 0.336497
-0.445418 0.0963897 0.409599
0.337039 0.0952759 0.444341
0.270671 0.106877 0.44725
-0.0222515 -0.0425491 0.215376
-0.158567 -0.0551393 0.478008
0.0130327 -0.0519618 0.507856
-0.131372 -0.050875 0.402211
-0.016684 -0.0513241 0.60971
-0.0763589 0.083775 0.45056
-0.245295 -0.0228847 0.437339
0.0321968 -0.0121955 0.0848291
0.0162961 0.106707 0.387776
-0.115674 0.0168655 0.0151274
0.471024 0.106403 0.392992
0.283252 -0.0481075 0.463972
0.171121 -0.0209131 0.494538
-0.0273672 0.0261425 0.338395
0.325149 -0.00708951 0.48514
0.364405 0.0957295 0.435283
-0.0100209 0.0760608 0.613334
-0.330419 -0.00699216 0.368656
-0.144543 0.0879743 0.382811
0.059035 0.0828449 0.426041
-0.028364 -0.0094659 0.0623892
-0.0865849 0.105688 0.423911
0.223169 -0.00852623 0.400988
0.132327 -0.0480712 0.403714
0.335612 0.0952361 0.353984
0.292058 -0.021641 0.388775
0.0406367 0.0114043 0.58092
-0.227773 -0.00843827 0.363429
0.321915 -0.0363088 0.43515
-0.00096864 0.0753515 0.00259033
0.132774 0.0873929 0.45313
0.0348836 0.0144206 0.0517704
0.00863904 0.0348715 0.247708
0.0234171 0.0313389 0.487151
-0.371873 0.108423 0.375743
0.433664 -0.0193829 0.404937
0.043758 0.00183059 0.342944
-0.373985 -0.0073639 0.365057
-0.167608 -0.0261767 0.348812
0.0328598 0.0815454 0.42732
-0.12317 -0.00843691 0.464388
-0.0133707 -0.0129234 0.00567436
-0.31839 0.0946925 0.455968
0.11301 0.0126231 0.0112696
-0.321487 0.00700316 0.493786
0.25557 0.107593 0.366787
-0.428765 -0.00868237 0.457903
0.259763 0.093129 0.40724
0.0908469 0.102329 0.46196
-0.0890493 -0.00822381 0.405472
0.0974725 0.0928808 0.33719
-0.296646 -0.0417816 0.423927
-0.0161906 0.102655 0.454109
0.10784 -0.0302828 0.489468
-0.132802 0.106822 0.376407
0.200661 0.106837 0.367656
-0.0467208 -0.0342599 0.428269
0.041319 0.00346164 0.160023
0.380779 -0.0198323 0.445034
0.0209585 0.106548 0.338188
0.140282 0.00161371 0.366705
0.213575 -0.00866138 0.378603
-0.00692688 0.0354942 0.320497
-0.373798 0.0957982 0.458052
0.283894 0.108004 0.367508
-0.11774 0.0863298 0.45415
-0.00684843 0.0815454 0.466315
-0.443155 -0.00870752 0.372792
-0.17258 -0.0612086 0.505502
-0.169095 0.105208 0.443306
-0.0236346 0.0239307 0.150485
0.00710615 -0.0164792 0.620605
0.4229 0.0962922 0.469087
-0.201239 -0.0240991 0.450872
-0.111355 0.0859355 0.342571
0.0242311 -0.0449467 0.320409
0.239637 0.0925741 0.453759
-0.240384 0.0925324 0.388768
-0.323487 0.0948347 0.387792
0.00903473 0.050826 0.0272925
-0.385352 0.108154 0.41284
0.0349645 0.0439584 0.406526
0.0168192 -0.0418932 0.145772
-0.0285924 0.0815454 0.402761
0.388168 -0.00760813 0.361662
-0.37164 -0.0198924 0.405015
-0.0562331 -0.0336239 0.46791
0.0217108 -0.0467776 0.456679
0.308922 -0.0436546 0.494161
-0.0444159 -0.00440633 0.528064
0.13317 -0.0285891 0.374205
0.125858 -0.0736715 0.481725
-0.0676964 -0.0301324 0.607094
0.199168 0.105899 0.437124
-0.255273 0.105945 0.451777
0.0291967 0.0815454 0.396135
-0.414248 0.0995184 0.330862
0.0414385 0.00845502 0.269484
0.0176647 -0.0518744 0.575342
-0.206494 0.101838 0.493853
0.0636825 -0.0332354 0.437503
0.201978 0.0915358 0.472314
0.113984 -0.029872 0.449192
-0.476748 0.104806 0.329165
-0.308584 -0.0447978 0.480324
-0.336913 -0.0475727 0.43813
0.440541 0.10701 0.400244
0.0537893 0.101173 0.470137
-0.000761309 0.0494415 0.0951132
0.0601239 0.011226 0.606131
0.031156 -0.0410452 0.529002
0.121221 0.0974264 0.493181
0.37181 -0.00728964 0.363221
0.176083 0.0900574 0.38119
-0.0758728 0.083745 0.496469
0.279218 0.0211674 0.360778
-0.0163143 0.0336659 0.516893
0.313069 -0.0210618 0.364013
-0.281227 -0.00768519 0.413669
-0.209837 -0.0238621 0.491357
-0.28695 -0.00760456 0.487883
-0.33557 -0.0069196 0.393943
0.374025 -0.0198697 0.478785
0.0336834 0.0169722 0.433303
0.0027053 0.0280722 0.595495
0.0104388 0.104691 0.432455
-0.0399533 -0.0347125 0.346298
0.0126564 0.0326891 0.122115
-0.0432825 0.0817329 0.480488
-0.0295105 0.0236447 0.260134
-0.293405 0.108116 0.358741
-0.433956 0.107187 0.381023
0.418212 -0.0195044 0.38306
0.0622257 0.103266 0.337874
0.279143 -0.0197166 0.490582
-0.298972 -0.0597232 0.460482
-0.0801981 0.107399 0.358551
-0.0658029 -0.032984 0.428498
-0.0916435 0.0125697 0.606338
-0.186138 -0.00883019 0.375022
0.0830127 0.0124675 0.0443345
-0.0120418 -0.0323396 0.0742164
-0.199249 0.106787 0.34375
0.180776 -0.00878646 0.423484
0.0854157 -0.0287721 0.606131
0.0222636 0.0975544 0.613334
0.43552 -0.01935 0.441975
0.245666 0.107146 0.334496
-0.132825 -0.0559369 0.508741
-0.124767 0.0867604 0.485609
0.257725 -0.00803939 0.34504
-0.0370897 0.0167681 0.407825
0.13274 -0.0447397 0.509835
-0.0130115 -0.0460283 0.16773
0.368285 0.108449 0.359366
-0.445394 -0.00874254 0.330012
0.331622 0.0951247 0.404664
0.0150844 0.0321654 0.195018
-0.174989 0.0898508 0.415246
0.264776 -0.00794005 0.405178
-0.328201 -0.0270922 0.472278
-0.185859 0.0905207 0.370324
-0.429708 0.0963191 0.442381
-0.139132 0.00407038 0.359495
-0.474764 0.0966767 0.425821
0.0354663 0.00999817 0.075815
0.0142918 0.0815454 0.482062
-0.399166 -0.019663 0.427615
-0.438456 -0.0193299 0.408074
-0.0455332 0.106968 0.380716
0.148461 -0.00858463 0.398158
-0.102033 -0.0131307 0.495874
-0.0557026 -0.0336594 0.371766
-0.324427 0.108552 0.371716
0.174896 0.107005 0.339704
-0.235538 0.105154 0.453303
-0.038802 0.00298919 0.489895
0.00724578 -0.0516425 0.382664
0.312336 -0.0670088 0.484089
-0.268088 0.104705 0.334127
0.077015 -0.032344 0.366058
-0.0281751 -0.0408911 0.495719
-0.0502074 -0.00798122 0.455728
0.290624 -0.0365255 0.420769
0.0283541 0.025968 0.304377
-0.0881431 -0.00821815 0.447467
0.111422 -0.0083533 0.437851
-0.257059 -0.0225605 0.367982
0.457848 -0.0191607 0.359881
0.173882 -0.0258668 0.351304
-0.0159736 0.0357634 0.563834
-0.00594286 -0.0516425 0.29013
0.0708732 -0.00810005 0.418595
0.151919 -0.0462825 0.435601
0.0682347 -0.00808357 0.493513
-0.140739 0.0203661 0.467722
-0.298739 0.0941442 0.487905
-0.0283712 0.0535657 0.437443
-0.105732 -0.0303141 0.43072
0.085023 0.0844493 0.372281
0.121761 -0.0284511 0.336734
0.0656635 0.105685 0.414515
0.399967 0.107819 0.380995
-0.0413506 -0.0121429 0.59429
-0.128152 -0.0241759 0.336615
0.0324941 0.0196978 0.464692
-0.118472 -0.0294623 0.384684
-0.198304 0.106778 0.421371
0.240992 0.107392 0.385881
0.0398761 -0.0229531 0.217307
-0.110225 0.015543 0.0493236
-0.0419391 -0.0113216 0.228224
0.0389362 -0.0319696 0.267402
0.289164 -0.0313362 0.456479
0.284966 0.0681058 0.45615
-0.0108965 0.108027 0.352056
0.200647 -0.0241606 0.471067
0.0679092 -0.00808154 0.370785
0.404438 -0.0080061 0.424546
-0.0252789 0.020899 0.0595946
0.225249 -0.00849693 0.427566
0.27315 0.0991795 0.492422
0.00820281 -0.0484581 0.197148
-0.00637874 0.0868824 0.0367866
-0.0542695 0.0176148 0.0909967
0.118726 -0.0295549 0.418982
-0.000360595 0.0632778 0.413269
-0.301581 -0.00739844 0.382674
-0.356416 0.095631 0.447507
-0.368074 0.108499 0.340858
0.119863 0.107349 0.353097
-0.221332 -0.008529 0.470077
-0.31697 -0.0209091 0.340139
0.366316 -0.00718714 0.41407
0.0168646 0.0155288 0.613334
0.0724744 -0.0324296 0.337588
0.301506 0.0942845 0.450263
0.0231778 -0.0786677 0.613334
-0.0188361 0.0234077 0.0101397
0.261517 -0.00798597 0.466896
0.106804 0.0144064 0.0782101
0.0461625 0.0820502 0.471797
0.131171 -0.0172691 0.463863
0.178001 0.1066 0.408091
-0.317955 -0.0208819 0.438298
-0.0721616 -0.00811834 0.375151
-0.119975 0.106313 0.407455
0.319131 -0.0071743 0.415004
0.0397105 0.0146489 0.382935
0.13095 0.0872803 0.416958
0.195878 0.0912775 0.39496
0.355971 -0.00698123 0.397221
-0.00391941 -0.0516425 0.363832
-0.29301 0.0693451 0.35993
0.024455 0.00697095 0.012228
0.153268 0.0886513 0.461806
-0.159331 0.106904 0.363851
0.00328759 -0.00239075 0.624957
0.373781 -0.0198849 0.333669
-0.225531 -0.0234295 0.336745
0.310318 -0.0666483 0.447364
-0.0437113 -0.0033603 0.364281
-0.059797 0.0988654 0.49476
0.00950594 0.0624696 0.0512079
-0.138419 -0.00853215 0.417208
-0.0332026 -0.00702865 0.0977911
-0.456983 0.0965068 0.360869
-0.299537 0.0941665 0.449427
-0.211949 -0.0238039 0.371565
-0.0863912 -0.0316074 0.346493
-0.159331 0.102171 0.477578
0.343243 0.10875 0.473041
0.165257 -0.00868953 0.464888
-0.269327 0.0933304 0.371098
0.0460449 0.106158 0.402629
0.0289094 0.0235784 0.52127
0.0965341 0.08516 0.407169
0.230688 -0.0233326 0.346016
-0.118224 -0.0642529 0.489622
0.0416826 -0.0247726 0.591307
0.384324 0.10813 0.408022
-0.170885 -0.0259576 0.469195
-0.0685254 0.0832913 0.414626
-0.00984928 0.000126688 0.587634
-0.00716854 -0.0508495 0.250286
0.396502 0.107876 0.460768
0.331156 -0.00700489 0.460063
0.39909 0.107836 0.341236
0.000316308 -0.0516425 0.429826
-0.232343 0.107242 0.402541
-0.0441718 0.0817878 0.369064
-0.0566981 0.104182 0.438637
-0.100941 -0.00829809 0.373981
0.0213884 -0.0392885 0.610421
-0.0138823 0.0440145 0.613334
-0.286626 -0.0217455 0.452294
0.0151451 -0.039266 0.112793
-0.272539 0.105924 0.476217
0.120179 0.0866164 0.364677
-0.137313 0.0875339 0.440536
0.0850084 -0.00818833 0.462579
-0.0371519 -0.0352699 0.527834
-0.0664593 0.108143 0.34304
-0.132976 -0.0284924 0.468325
0.143245 0.104845 0.441025
-0.0127427 0.0498787 0.371157
-0.0383266 -0.0349285 0.573441
-0.379696 -0.0198276 0.458856
0.444589 0.10693 0.368799
-0.225522 -0.00846997 0.42472
-0.392284 -0.00772022 0.371478
-0.316063 0.108172 0.427908
0.0558759 0.0125677 0.0598515
-0.303694 0.0944269 0.333485
-0.127281 -0.0084626 0.389944
0.0320855 0.107544 0.365125
0.242403 -0.0230097 0.407369
0.467767 -0.017146 0.329363
0.0388634 -0.0325622 0.338186
-0.254084 -0.00806758 0.389337
-0.477289 -0.0101478 0.369203
0.0932483 0.0849571 0.440933
0.0286709 -0.00533406 0.046403
0.0190537 0.032149 0.344268
-0.0494788 0.0821154 0.428664
-0.0111301 0.0325767 0.131274
0.231836 0.092359 0.35828
0.298915 -0.0074591 0.465049
-0.378727 -0.0198275 0.341031
0.156859 0.0888726 0.409336
-0.0827115 0.106271 0.390693
-0.0189801 0.106456 0.394563
0.316503 0.108205 0.333183
-0.125471 0.0655434 0.359514
-0.00847455 0.0633275 0.0698737
-0.292567 0.00688057 0.364475
-0.13865 0.0876148 0.476352
-0.392728 0.0959802 0.438236
-0.41435 -0.00814988 0.38006
-0.123455 0.107535 0.343748
-0.0141253 -0.109461 0.61128
-0.153423 -0.00862586 0.476443
0.0850294 -0.0318081 0.468812
-0.254756 -0.0149703 0.491526
0.276912 0.107897 0.392419
-0.336407 -0.0069078 0.4513
-0.187872 -0.00884102 0.352763
-0.0852333 0.018006 0.0273582
0.374501 0.108326 0.455809
-0.345407 -0.0201252 0.424709
0.0446672 0.0115036 0.10421
0.180189 0.0903105 0.448929
0.0600099 0.0829051 0.393401
0.13876 -0.0282153 0.493141
-0.346251 -0.0201102 0.356644
-0.290572 0.0790866 0.460983
-0.16102 -0.0266173 0.423712
0.0048543 0.115958 0.0467953
0.467839 -0.00920571 0.416401
0.191357 0.0909988 0.345835
-0.404751 0.0960418 0.361125
0.0444443 -0.000405721 0.322064
0.419046 0.0961823 0.397054
-0.0352764 0.0201723 0.291801
-0.0285136 0.0998662 0.483454
0.137113 -0.0674884 0.508192
0.0194834 0.0815454 0.351099
0.0581567 0.103301 0.44828
-0.022756 -0.0448285 0.405861
0.0439289 0.000998527 0.538504
0.186373 -0.00882141 0.363808
0.087938 0.0977447 0.500076
0.110818 0.0157926 0.0465499
0.463141 0.096576 0.416397
-0.126681 -0.0716385 0.450312
-0.187364 0.104555 0.455514
-0.278472 0.093594 0.446009
0.207849 -0.0239621 0.443254
0.0344415 0.0179867 0.19268
0.0202246 0.0548592 0.390961
-0.0813264 -0.031946 0.483414
-0.267105 -0.00788415 0.46867
-0.200091 -0.00882826 0.470143
-0.358523 -0.00706284 0.383387
-0.323302 -0.0668397 0.472718
-0.0254646 0.00798403 0.0242883
-0.144004 -0.0645477 0.411013
0.348599 0.108841 0.424637
-0.144467 0.0118012 0.0274177
0.2033 -0.0240875 0.39487
-0.0185149 0.0282637 0.190504
-0.311097 -0.0319036 0.404191
-0.0599435 0.0176806 0.0715324
0.271214 -0.00784935 0.441535
0.289328 0.0939561 0.402994
0.345697 -0.00680002 0.424864
-0.128979 0.087018 0.411411
-0.25444 0.107464 0.421256
-0.303841 -0.0344 0.48931
0.395578 0.0990589 0.480805
-0.38912 -0.0155059 0.478621
0.238353 -0.0231213 0.466645
0.0151277 -0.0526133 0.530003
0.470478 0.0966425 0.369557
0.155067 -0.0497951 0.488381
0.273299 -0.00781999 0.381538
0.439029 -0.0192549 0.462954
-0.122072 -0.0292215 0.358978
-0.168203 -0.026137 0.379623
0.311089 -0.0372104 0.399493
0.0106559 0.0323979 0.047139
0.157357 0.106911 0.363052
-0.00896905 -0.0415026 0.587634
-0.0809517 -0.00817324 0.476819
0.0109085 -0.0516425 0.346428
-0.455 -0.00904208 0.425437
0.436291 0.0980526 0.33017
0.241821 0.107404 0.417074
-0.346945 0.0954893 0.378104
-0.114501 0.00760011 0.606131
-0.033414 -0.0370846 0.294799
-0.283481 0.013031 0.459286
0.449723 0.0986856 0.469841
-0.138566 -0.0281187 0.40697
0.312299 -0.021083 0.439544
-0.00442762 0.0962242 0.00309546
-0.00595385 0.0618836 0.436864
0.28052 0.107802 0.422903
0.0977394 -0.0309582 0.350869
-0.0421032 -0.0166388 0.263026
0.29038 0.106846 0.468959
0.0454885 -0.00708367 0.24221
0.310912 0.0945469 0.368088
0.254365 0.0929802 0.437716
-0.204033 -0.00877271 0.396158
0.109973 0.0859897 0.476346
0.424431 -0.019444 0.351469
0.297031 -0.0645163 0.504625
0.14592 0.0102139 0.0287174
0.136578 -0.065624 0.411986
-0.215727 0.0953594 0.335109
-0.12243 -0.0355732 0.487508
-0.0545438 -0.0337369 0.495311
-0.429618 -0.00856142 0.428632
0.0325186 0.0815454 0.510599
0.179203 -0.0255111 0.447295
0.209495 0.104874 0.454058
0.0144145 -0.0342681 0.0852274
-0.307008 0.108309 0.402808
0.119878 -0.00840611 0.49483
0.436756 0.107086 0.420108
-0.245237 0.0926663 0.343185
0.0593632 -0.0180536 0.610292
-0.0122417 0.0348082 0.346537
0.116551 -0.00838533 0.371153
-0.368552 0.108489 0.436646
-0.133289 0.103299 0.457579
-0.445961 0.0964922 0.462483
0.113191 0.0974019 0.336931
-0.142175 -0.0742993 0.483383
-0.00420261 -0.0495606 0.221645
-0.00611069 -0.0111524 0.577325
0.0333725 0.0210971 0.240876
0.203898 0.106881 0.338098
0.357663 0.108661 0.39927
-0.157528 -0.0086515 0.345246
0.300692 -0.0214029 0.480451
-0.180724 0.0902042 0.343262
0.00224331 -0.0516425 0.47662
0.259217 0.093114 0.351758
-0.146887 0.0881187 0.349371
-0.325159 0.107817 0.482206
-0.0626417 -0.00805888 0.416871
-0.0458732 0.0818928 0.452299
0.0227652 0.0300752 0.273587
0.391964 0.0959818 0.428175
-0.0235394 -0.023326 0.607765
-0.313974 0.0945693 0.35379
0.389003 0.0959239 0.357386
0.120019 0.102995 0.457351
-0.27137 -0.00782406 0.439696
0.341104 0.108816 0.372502
-0.339048 0.0952689 0.35991
0.00070011 0.0344966 0.504725
-0.0271205 0.0815454 0.347427
-0.377373 -0.00751948 0.426937
0.312707 -0.0072648 0.393166
-0.302245 0.094242 0.419839
-0.289894 0.106737 0.468209
-0.156418 -0.0455783 0.445931
-0.399005 0.0960406 0.473689
0.339497 0.0953445 0.333463
-0.00721453 0.105571 0.418506
0.211544 0.106987 0.392784
0.21104 0.102751 0.492844
-0.406227 -0.00817607 0.449316
-0.0152031 -0.0222708 0.041798
-0.213087 0.0917798 0.382841
-0.147001 -0.0347655 0.496279
-0.412452 0.107615 0.425709
0.0152386 0.0377699 0.577252
-0.0640678 0.105834 0.406343
0.0588395 0.0142049 0.0331743
0.112294 -0.0612946 0.463055
0.0290498 -0.0414461 0.47277
-0.251825 -0.0227047 0.410671
0.0433358 -0.0214922 0.53131
-0.335881 0.108712 0.398783
0.311339 -0.0180881 0.502982
0.417884 -0.00840109 0.448559
0.0781836 0.0840271 0.353421
0.205682 -0.0203638 0.493682
-0.100002 0.103905 0.445585
-0.0964051 0.0850126 0.485905
-0.321462 -0.0207852 0.389055
0.316149 0.107508 0.46819
0.0909225 0.0133601 0.0176087
0.33787 -0.0203782 0.352412
0.138001 -0.0282661 0.446071
-0.0413963 0.0041821 0.319986
0.00955555 -0.00973856 0.00520986
0.0460317 -0.00668938 0.430242
-0.0386998 -0.0159876 0.193295
-0.41479 0.107568 0.367188
0.135223 0.0875449 0.384897
0.132568 0.0219483 0.359501
-0.0325663 0.0279586 0.384476
-0.451975 -0.0191222 0.457575
0.137644 -0.00851707 0.338386
-0.438277 0.0963485 0.344817
-0.162877 0.0891043 0.457468
0.117362 -0.0377807 0.470079
0.430439 0.0963396 0.439701
-0.0167176 -0.0501198 0.522618
0.0252174 0.0724394 0.609138
-0.0856404 0.0163497 0.0589387
-0.256981 0.0929901 0.465304
0.0184802 0.119312 0.609138
-0.0812993 -0.0319478 0.365881
0.348587 0.0955774 0.490116
-0.0311625 0.0242606 0.361462
0.00761014 0.0555094 0.472619
0.067868 -0.0329556 0.411102
0.112146 -0.0524301 0.494749
-0.11237 -0.00836947 0.442768
-0.00930822 0.0815454 0.444623
-0.292388 -0.0215866 0.429329
0.43156 -0.00845098 0.371001
-0.00663933 0.0524415 0.0120089
-0.281495 -0.0218869 0.340628
-0.337537 0.0952268 0.427943
0.326354 -0.04625 0.487364
0.215377 0.107039 0.418685
-0.0461519 -0.034298 0.401599
0.316491 -0.0613196 0.422445
-0.0864045 -0.0082073 0.352966
-0.390469 0.095917 0.376956
0.257828 0.0930757 0.471419
0.283479 -0.0405451 0.485941
0.13188 0.0676296 0.461071
-0.369989 0.10846 0.475663
-0.329137 -0.0600233 0.416647
-0.297165 -0.0350577 0.464105
-0.01436 0.0815454 0.38063
0.0318773 -0.039392 0.297628
0.0288636 0.105493 0.420609
-0.042316 -0.0214733 0.552256
-0.113542 -0.0297919 0.410412
0.147978 -0.0275989 0.475451
-0.00789119 -0.00731335 0.606131
0.0300125 -0.0409649 0.503186
0.00776192 0.0814786 0.025574
0.0203425 -0.103833 0.613334
0.144652 -0.0278213 0.418875
0.0786659 -0.0322336 0.49541
-0.253851 0.107538 0.390326
0.0457101 0.020568 0.0183139
0.185396 0.103137 0.476896
-0.0179242 0.0255296 0.0416129
0.00847111 0.102304 0.457693
-0.329312 -0.0311852 0.488367
-0.179817 0.102641 0.480007
-0.211253 -0.023823 0.424615
0.233014 -0.0232684 0.371306
0.24616 -0.0229061 0.485684
-0.218649 0.103499 0.477057
0.307033 -0.0212282 0.340041
-0.0422667 0.102535 0.455203
0.455742 0.096523 0.3469
0.0696443 0.0834999 0.451281
-0.24089 0.104452 0.478203
-0.332797 0.108167 0.450458
-0.118505 0.106659 0.388209
-0.0417493 0.0149351 0.103705
-0.00266914 0.0225075 0.609138
0.0324098 0.0446125 0.448668
0.390133 -0.00777769 0.47119
-0.00428887 0.0321527 0.165825
0.278628 0.0832273 0.363113
0.00471568 0.0815454 0.399653
0.181106 0.0923277 0.494324
0.28671 -0.0413157 0.503436
0.458522 -0.0191707 0.398777
-0.323846 -0.0686307 0.495464
-0.378467 0.0958138 0.357353
-0.418796 0.0961607 0.40678
0.0385201 0.0880507 0.338188
-0.23218 -0.0210686 0.492497
-0.0187045 -0.0387864 0.141077
0.0299492 0.035891 0.372762
-0.0829246 0.0841803 0.431975
0.27741 -0.0220447 0.35277
-0.330346 -0.0342711 0.414917
-0.0365919 -0.0341994 0.322023
-0.0224734 0.0293843 0.541052
0.00811748 0.0815454 0.421715
-0.0924164 0.101774 0.337356
-0.309163 -0.0211243 0.371771
-0.00994268 0.0815454 0.496407
0.170276 -0.026108 0.426664
0.290778 0.0408422 0.361522
0.287279 0.0111734 0.464076
0.266317 0.0944256 0.334133
0.0110402 0.0364922 0.530949
-0.428929 -0.0194021 0.387815
0.331491 0.0951211 0.427577
0.0802617 0.106207 0.394016
-0.0411263 -0.0212778 0.508817
0.319711 -0.0296536 0.463586
0.0394849 0.00839096 0.12921
-0.0350675 -0.0342659 0.235795
0.139458 0.106006 0.336486
-0.314587 -0.0442253 0.499575
0.387954 0.0959148 0.376176
0.0961827 0.01033 0.0604357
-0.0401135 0.00757742 0.27524
0.141086 0.101917 0.475209
0.00737506 0.0335944 0.218012
-0.0377241 0.0080617 0.155238
0.338602 -0.020358 0.479974
0.122575 0.0543443 0.359748
-0.0414538 0.000882205 0.434183
0.0814473 0.015325 0.607539
-0.0454616 -0.0120888 0.610292
0.0435391 -0.0052087 0.200368
-0.0850112 0.0992533 0.493446
-0.00306683 0.0105081 0.00520986
-0.414631 -0.0195322 0.434529
-0.302142 -0.0622419 0.436952
0.23605 0.104482 0.473727
0.449609 -0.0192504 0.421982
0.197764 -0.02427 0.352994
0.361674 0.0956888 0.374032
0.230232 -0.00842673 0.450114
0.225312 0.0921791 0.434163
-0.146656 -0.0275777 0.356492
0.0591225 0.0103945 0.0824452
0.247868 -0.00817826 0.425759
-0.00219537 0.105739 0.609138
-0.19505 0.0910872 0.410427
0.444394 0.106778 0.452242
-0.0388903 0.0116513 0.0796352
-0.301339 -0.0599207 0.487351
-0.347352 -0.00685351 0.478504
0.193563 0.0911348 0.370166
0.144237 -0.0709972 0.44886
0.186581 -0.00882271 0.485271
-0.260483 0.0930866 0.40128
0.012342 0.0347045 0.0983677
-0.29564 0.0940616 0.370027
0.307727 0.094458 0.351393
0.28431 -0.0465856 0.445984
-0.228531 -0.00842758 0.383164
-0.0766295 -0.0322601 0.45356
-0.20895 0.10692 0.368532
0.459183 -0.00898746 0.379844
0.283982 -0.00176825 0.364483
-0.137096 0.106549 0.395427
0.330401 -0.00701552 0.369872
-0.00923351 0.0816335 0.338188
-0.455557 -0.00894479 0.358273
-0.404434 -0.0196038 0.357383
0.104358 -0.0305156 0.385394
-0.435186 -0.0193361 0.34502
0.335528 -0.0554774 0.502116
-0.353279 0.0955972 0.400985
0.0396768 -0.0348237 0.553037
-0.0183287 -0.044323 0.194006
-0.145865 -0.0723298 0.454114
-0.0776704 -0.00927206 0.610292
-0.47285 0.106412 0.351082
-0.287654 -0.0434005 0.49424
-0.140833 0.0218168 0.367615
-0.00169022 0.1007 0.474837
0.146554 -0.0276942 0.359276
0.168021 -0.00870679 0.338963
0.0856414 0.104264 0.440649
0.0135537 0.00242235 0.594972
0.114783 -0.0568013 0.428836
-0.170916 0.0895998 0.434675
-0.329002 -0.0140814 0.488389
0.284117 0.0938187 0.453008
-0.183553 -0.00881404 0.448868
0.0276132 0.0567036 0.4273
0.366542 -0.0199479 0.386247
0.117785 -0.0196338 0.610292
-0.208106 0.105833 0.439093
0.212951 -0.0238215 0.413556
0.0897315 -0.00821783 0.363819
0.00253345 -0.0516425 0.32718
0.112103 0.0861212 0.389346
0.137493 -0.00851613 0.428945
-0.25081 -0.00811371 0.345523
-0.0421129 0.00184741 0.387929
-0.0567789 0.0834994 0.510339
0.156754 -0.0600529 0.508646
-0.353551 -0.00696603 0.409227
0.103131 -0.0125834 0.495884
-0.0422998 0.107747 0.359631
-0.0746817 0.102988 0.453126
0.0245139 0.0245733 0.172833
0.318086 0.108495 0.354835
-0.258922 0.107608 0.368618
0.0147586 0.0815454 0.372404
0.355068 -0.00696364 0.346723
-0.416744 -0.00819649 0.403125
-0.0353447 0.0405984 0.415924
-0.0394643 0.010477 0.345466
-0.00403183 -0.0870434 0.609138
-0.0280374 -0.0315428 0.589084
-0.0283282 0.0214725 0.480085
-0.000720317 -0.0516425 0.453082
-0.00929645 0.0378217 0.0614521
-0.259293 -0.0079942 0.421082
0.47925 -0.0109773 0.348827
0.0932249 -0.0312601 0.426422
0.0156915 0.0815454 0.458773
0.0708874 -0.00810014 0.444736
-0.362114 0.0956732 0.354446
-0.243623 0.0926217 0.363873
0.386452 0.0959416 0.447239
-0.12818 0.0869687 0.371817
0.040131 0.0993083 0.488934
0.416541 -0.0195299 0.413133
0.0423043 -0.00571313 0.181393
-0.114181 0.00846424 0.0701631
0.297542 0.0941738 0.382446
0.20468 0.0916103 0.41567
-0.12876 0.105983 0.425855
0.0448341 -0.00461637 0.479602
0.0278647 0.0219873 0.135858
0.376663 0.108282 0.425868
0.00603389 -0.0289618 0.0496685
0.149171 -0.068169 0.477653
0.00173818 0.0602002 0.609138
0.0938588 -0.00824361 0.420018
-0.211246 -0.0086711 0.356963
0.31898 0.094772 0.458365
0.414417 0.107528 0.448088
-0.305587 -0.00734201 0.358747
-0.0374125 0.0330868 0.437126
-0.285638 0.107996 0.342935
-0.181605 0.10662 0.364989
-0.190764 0.106704 0.40077
-0.255228 0.0929417 0.435566
0.0639852 0.0993466 0.490415
0.0463787 -0.00670803 0.363718
-0.463404 -0.00910447 0.398158
-0.107889 0.0857216 0.41227
0.075867 0.01681 0.0666704
-0.0815303 0.0840942 0.35841
0.157028 -0.00863814 0.489075
-0.142896 -0.0145321 0.462095
-0.148451 -0.0571908 0.499396
0.0258118 -0.0437984 0.276225
-0.454708 0.106773 0.375044
-0.0101562 0.0348314 0.0826018
0.402339 -0.01965 0.448548
-0.375402 -0.0198565 0.385603
-0.337965 -0.0459652 0.471825
-0.0336393 0.0163301 0.52648
0.00927948 -0.0464786 0.168133
0.171417 -0.008728 0.378159
-0.12873 -0.0700432 0.428611
0.2915 0.0672849 0.358476
-0.241604 -0.00824341 0.475234
0.0803208 0.107596 0.352426
-0.127344 -0.012859 0.495368
0.00892108 0.0910233 0.338188
-0.383488 0.095857 0.402786
-0.0991476 -0.0185255 0.610292
-0.146163 0.098736 0.493329
-0.465408 -0.0157195 0.329395
-0.19065 -0.023881 0.494117
0.00825947 0.0355256 0.302465
-0.00882318 0.0357151 0.271954
0.0391249 0.0159878 0.405014
0.044871 -0.00179569 0.292138
0.132475 -0.0270116 0.509835
-0.369168 -0.00726766 0.334212
-0.276041 -0.00775825 0.385969
-0.0310264 0.0233593 0.31564
-0.346479 0.0954763 0.471834
0.00986358 0.0728106 0.0746413
-0.198656 0.0913094 0.472145
0.033851 -0.0305084 0.154275
0.0182589 -0.0492853 0.400468
0.454795 0.096495 0.385176
0.192267 -0.00885822 0.400804
0.327498 -0.0206641 0.446271
0.223969 -0.00851495 0.355336
-0.119524 0.101419 0.474092
0.0226552 -0.0460916 0.362371
-0.02213 0.0307933 0.583611
-0.24049 -0.0230172 0.385972
0.334714 0.108727 0.390035
-0.148846 0.0882395 0.417415
0.115291 -0.00837747 0.455545
0.139471 0.099373 0.493177
-0.0659634 -0.0329733 0.405365
0.0066614 0.109711 0.0255694
0.140325 -0.00853382 0.477144
-0.151704 -0.0366401 0.468549
0.163465 0.0892797 0.344561
-0.101142 0.106863 0.368426
-0.00135747 -0.0423572 0.12699
0.112759 -0.00836165 0.338659
0.277321 0.107903 0.347242
0.394488 -0.0077312 0.381503
-0.205661 -0.00874977 0.436394
0.467514 0.106473 0.355265
-0.0428305 0.0204768 0.0231971
0.3469 -0.0201293 0.376937
-0.468608 0.0965891 0.406273
0.152936 0.0886308 0.48267
0.14247 0.0879857 0.364475
0.0621735 -0.00804572 0.471665
-0.347942 -0.0200955 0.378186
0.134085 0.0162007 0.0102526
0.324172 0.107971 0.442595
-0.199018 -0.0241603 0.357571
-0.0210445 0.0815454 0.477822
-0.401475 0.107834 0.340749
-0.044661 0.0130566 0.0601963
-0.0394187 0.00869452 0.249215
0.0428754 0.00469325 0.559696
-0.388568 -0.0197419 0.358118
0.0776718 0.0839955 0.415393
0.123553 0.106963 0.372965
0.347899 -0.0201102 0.462691
0.0433022 -0.00188603 0.606131
-0.17287 0.0897201 0.383092
-0.00688849 0.0701428 0.0326633
-0.143942 -0.00856665 0.374941
0.262308 0.107686 0.418372
0.384679 -0.0076001 0.422026
-0.318457 -0.0208681 0.419515
0.0130645 -0.0436104 0.594455
-0.0157624 -0.04991 0.472704
0.31835 -0.0280937 0.485646
-0.0297071 0.00939117 0.0454264
-0.390705 -0.00768531 0.337769
-0.0217321 0.0980381 0.502761
-0.291153 -0.00754535 0.443426
0.0245336 0.0216322 0.0354546
0.0375769 -0.0330412 0.241938
-0.100749 -0.0306473 0.369654
-0.0660175 0.107002 0.374066
0.0368618 0.0108292 0.504684
0.238618 -0.00830858 0.338176
0.0274127 0.047481 0.468867
-0.185858 0.0905207 0.493339
0.114724 -0.00837393 0.417116
-0.283553 -0.00765241 0.356015
-0.0666841 -0.00808413 0.395481
-0.177423 -0.00877576 0.397014
-0.137898 -0.0085289 0.437609
0.216471 -0.0086206 0.476735
0.191189 -0.0247096 0.42599
0.353458 0.108745 0.336993
-0.210637 -0.00867967 0.336978
0.036559 -0.0359909 0.435631
-0.123057 -0.00843621 0.355786
0.257982 -0.00803577 0.486718
-0.396347 -0.00779932 0.40632
0.0120528 -0.0625655 0.609138
-0.076729 0.0837978 0.476399
-0.0896567 0.018386 0.0115927
-0.0134405 -0.051597 0.384895
-0.00913916 -0.0516425 0.270342
-0.105178 -0.0303511 0.483182
-0.220197 -0.00854499 0.450682
-0.211937 0.0917481 0.35351
0.0995598 0.107218 0.356169
-0.226701 0.0921552 0.460689
-0.149511 -0.0240808 0.336236
-0.0210042 -0.0299676 0.0927197
0.465212 0.106421 0.430321
0.0183832 0.0578841 0.411715
0.13826 -0.0282488 0.399293
0.11918 -0.0295245 0.359143
0.00756785 0.100948 0.042562
0.220558 0.0920481 0.469857
0.149104 -0.0430968 0.503681
-0.0994072 0.0851979 0.393533
0.243213 -0.00824384 0.473917
0.101884 0.0999384 0.488348
-0.117101 -0.0538048 0.438804
0.238588 -0.0231148 0.428308
-0.0905503 -0.0313292 0.417451
-0.126539 -0.0726635 0.470518
-0.324433 -0.0397928 0.38983
-0.320481 0.0947509 0.407786
-0.00342383 0.0369154 0.545158
0.410974 -0.00805221 0.371376
0.0395697 0.0154765 0.36277
0.0257779 0.0233456 0.105723
-0.0641691 0.0181129 0.0516883
-0.300672 -0.00741125 0.411867
0.2929 -0.0653977 0.463201
-0.0273723 -0.0414744 0.35926
-0.0198344 0.0360057 0.492692
-0.0642855 -0.00521487 0.606131
-0.286819 0.0222885 0.3562
-0.0381368 -0.0348339 0.479515
-0.0241687 0.0530212 0.457138
-0.023513 0.100813 0.338188
-0.316651 0.108444 0.337464
0.2883 0.0453285 0.464069
-0.0289719 -0.0343528 0.167048
-0.169286 -0.0260645 0.443453
0.372799 -0.0073883 0.460484
0.184599 -0.00881033 0.462164
0.264796 -0.0223924 0.392426
-0.00637272 0.0982544 0.053094
-0.104852 -0.0539942 0.505464
0.045164 0.0819885 0.407481
-0.286763 0.0514361 0.364483
-0.0704257 0.00939407 0.0858482
-0.235711 -0.0231489 0.353882
0.293628 -0.029253 0.437642
0.00123106 0.0603202 0.388509
0.41538 -0.00813799 0.398142
0.386555 -0.0197737 0.351661
-0.261297 0.093109 0.355206
-0.293022 0.0939944 0.350396
-0.310325 -0.0619022 0.409293
-0.108582 -0.0083458 0.396004
0.126578 0.105478 0.431793
-0.00336255 -0.0397875 0.104067
-0.314332 -0.0237434 0.469121
0.220669 -0.0177278 0.334972
0.0140378 0.0353796 0.325991
0.128108 0.0155221 0.0338906
-0.13587 -0.0344756 0.508332
0.0156023 -0.0504602 0.252907
-0.0696052 -0.00810238 0.461127
0.210104 0.0917599 0.351109
0.336301 -0.0069324 0.396925
0.126612 0.0870087 0.343768
-0.292113 0.0232088 0.462426
0.418105 0.107457 0.337283
0.130325 -0.00847137 0.391238
0.292642 -0.0644226 0.448072
0.018965 0.100189 0.479937
-0.00547329 -0.0516425 0.406474
-0.309596 -0.00815693 0.493786
-0.320213 -0.0661513 0.432529
-0.152964 -0.0271559 0.455987
0.368027 -0.0199401 0.432055
0.293127 -0.00754064 0.489076
-0.312716 -0.00724157 0.474289
-0.00503647 -0.127949 0.613334
-0.387095 0.10812 0.364143
-0.0393331 0.00206957 0.467867
0.0334008 0.00973248 0.606925
-0.158729 -0.0267704 0.397313
-0.443523 -0.0192525 0.441881
-0.0690551 -0.0327665 0.385241
0.0420221 -0.0225323 0.322392
-0.101586 0.106222 0.402962
0.381613 -0.00748051 0.402944
-0.0441081 0.0974357 0.508674
0.00988099 -0.00608986 0.610292
-0.123766 -0.0291082 0.436265
0.359519 0.0956703 0.348115
-0.163796 -0.0227793 0.494638
-0.0326044 0.0197444 0.225986
0.220224 0.0920389 0.373136
-0.135591 0.00343695 0.474116
-0.27967 0.082537 0.360541
0.248969 -0.0228287 0.354508
-0.166211 -0.00870573 0.421938
0.351182 -0.0187844 0.332524
0.276889 -0.0520157 0.501758
-0.292465 -0.0215845 0.381299
0.0749192 -0.00215528 0.606131
0.433168 -0.00848436 0.389615
0.186138 -0.0250473 0.482794
0.000803391 -0.0516425 0.307532
-0.412549 0.0961709 0.449706
0.440284 -0.00861667 0.354511
0.0432403 0.0818697 0.385303
0.227333 0.107204 0.346311
0.29358 -0.0470744 0.401897
-0.465139 0.0965888 0.34243
-0.153762 -0.0451388 0.427512
0.0457031 -0.00394221 0.591925
0.0579286 -0.00916411 0.337982
-0.269511 -0.00785024 0.342868
-0.0297425 5.64195e-05 0.587634
-0.322241 -0.00710738 0.351403
0.0114862 -0.00382765 0.580379
-0.043894 -0.00464668 0.506008
0.421208 -0.0194502 0.457849
-0.104544 -0.0303936 0.342959
0.00946249 0.0452783 0.487936
0.0107358 0.0822889 0.613334
0.268151 -0.00789252 0.360334
-0.242532 -0.00823033 0.403855
0.0300558 -0.0117271 0.0664638
0.184942 0.0906035 0.414236
-0.348445 0.108885 0.457637
-0.00517126 0.100606 0.0210394
-0.431642 0.107233 0.399468
-0.384455 -0.00756777 0.390133
0.348896 0.0955789 0.411171
-0.023024 -0.0435565 0.24652
-0.0289863 0.020313 0.498492
-0.13404 -0.0153746 0.476529
-0.46189 -0.0191184 0.373923
-0.384426 -0.0197876 0.438752
0.0339704 -0.0392136 0.582949
0.0373048 0.0815454 0.445148
-0.223031 0.092054 0.407832
0.16995 0.0896794 0.473789
0.174511 -0.0258248 0.372218
0.153017 -0.00861308 0.375087
0.0662098 -0.00807093 0.388652
-0.0400297 -0.0236176 0.307454
-0.132428 0.0424311 0.472272
-0.387243 0.108117 0.456276
0.000977951 0.00594376 0.606131
0.324441 -0.0401988 0.503436
-0.211542 -0.00866693 0.412825
0.402442 0.107769 0.41185
-0.114913 -0.0494129 0.474458
-0.246289 -0.0081774 0.364756
-0.23093 0.107222 0.339225
0.478947 -0.0123462 0.398667
-0.136781 -0.0494582 0.493226
-0.28566 -0.00762274 0.469719
0.031407 0.0219089 0.593533
-0.270689 -0.0221848 0.421505
0.281749 -0.00609207 0.45919
-0.122034 -0.0292241 0.456706
0.139617 0.106405 0.410196
-0.465787 0.102753 0.459577
-0.211274 0.106952 0.40864
0.136506 -0.0748481 0.466502
-0.142328 0.107101 0.357516
0.0378899 0.101926 0.461469
-0.278057 0.102731 0.492357
0.265162 -0.0223823 0.336904
0.0724535 -0.032649 0.455838
0.0852069 -0.00818957 0.48727
-0.120561 0.107147 0.363104
-0.104466 0.0855102 0.466399
-0.436721 0.107131 0.421235
-0.0404695 0.0039851 0.218739
0.0952144 -0.031127 0.369825
0.259749 -0.0225315 0.457455
-0.106771 -0.0083345 0.479137
0.0465582 -0.00768953 0.263287
0.167224 0.106286 0.427114
0.278336 -0.00774903 0.422254
0.163336 -0.026572 0.464881
0.0833732 -0.0319188 0.389609
0.254324 -0.00808731 0.389498
0.117457 0.0088249 0.0648712
-0.000276227 0.0322055 0.185716
0.407367 -0.0195925 0.345954
0.25048 0.105539 0.460864
0.0385834 0.108445 0.340719
-0.0828934 0.084317 0.337455
-0.130802 0.0941732 0.336647
-0.025571 0.0224338 0.128405
-0.181468 0.106377 0.427313
-0.371635 0.0957773 0.424502
-0.330169 -0.0473918 0.49424
-0.0240162 -0.00843498 0.0310946
-0.267004 -0.0222863 0.479181
0.0384583 -0.0172182 0.168348
0.0579536 0.106508 0.389392
0.127327 0.0870555 0.481709
-0.0972297 -0.00827491 0.462762
0.0552264 -0.0338009 0.376019
0.139171 -0.00885751 0.495158
-0.0484077 -0.0214271 0.338051
-0.330532 -0.0291182 0.447771
0.0252224 -0.00553638 0.0248248
0.0409547 0.0105657 0.308547
0.10186 0.0854888 0.456415
-0.348064 -0.0374342 0.493826
0.171468 0.106536 0.385753
0.105294 -0.0609051 0.506968
0.145733 0.0881869 0.426556
0.139137 -0.0704337 0.428761
0.0737147 0.0837512 0.504047
0.0306816 0.0815454 0.364722
0.314557 -0.0550632 0.406077
-0.0185267 0.058888 0.423846
-0.0200226 -0.0488898 0.576095
0.390557 0.0959809 0.331428
0.302532 0.108278 0.360936
0.477063 0.0990706 0.409266
-0.196779 -0.0242262 0.477666
0.232447 0.105722 0.444632
-0.138418 0.0572715 0.367979
0.0335172 0.10682 0.384716
-0.374045 -0.00765888 0.481468
0.249315 0.106668 0.432835
-0.0158674 -0.0498337 0.43611
-0.12211 -0.057254 0.415552
0.145796 -0.0451878 0.417777
0.0790731 0.0884255 0.337495
-0.234101 0.107266 0.419883
0.0417933 0.00744228 0.420965
-0.457362 0.096524 0.425092
0.125094 -0.0354017 0.436986
-0.139386 0.0750029 0.363967
0.0907655 -0.0127481 0.610292
-0.03687 0.00942745 0.452296
-0.127514 0.0869271 0.389196
0.00943306 -0.0216805 0.607008
0.198187 -0.00887818 0.424354
0.0339542 0.0371269 0.389623
0.318595 -0.0363684 0.418992
0.0123518 -0.0492163 0.213995
0.048609 -0.0342433 0.352448
-0.0813015 -0.0319477 0.436237
-0.0273458 0.0398247 0.372971
-0.33423 -0.0204333 0.404682
-0.168733 -0.0443361 0.505618
0.094784 0.085052 0.353146
-0.179096 -0.0254086 0.366883
0.137874 0.103328 0.458282
-0.0853447 -0.0169362 0.33742
0.00584109 -0.0330625 0.0702745
-0.0734693 0.104715 0.434517
0.389794 0.0959307 0.392824
-0.0303259 0.0815454 0.444802
0.250979 0.104867 0.482376
0.107735 0.101748 0.469708
0.00200278 0.10635 0.397418
0.0279095 0.0981834 0.501025
0.00977013 0.0372791 0.556227
0.313662 -0.0210455 0.404853
0.418978 -0.0195093 0.437181
0.0461916 -0.0257713 0.609537
-0.0244778 0.0220828 0.0767276
-0.164863 0.0892266 0.401371
0.144359 -0.0339469 0.460672
0.321816 -0.0158879 0.333097
-0.301457 -0.0452196 0.402673
-0.461132 0.106645 0.389757
-0.250926 0.105251 0.334443
0.0866052 0.100572 0.480026
0.224331 0.0921521 0.389807
0.138228 -0.00852072 0.452066
0.363 -0.0199787 0.370691
-0.0348567 -0.0282888 0.181976
-0.407538 -0.0195922 0.412019
0.21284 -0.00867174 0.449108
-0.29439 0.108131 0.387127
0.193796 0.106756 0.420905
-0.0333237 -0.0265989 0.152435
-0.425797 0.107349 0.340893
0.020998 -0.0179101 0.0372656
0.0407727 -0.0292291 0.496985
-0.313845 0.107739 0.445914
-0.143337 -0.00856287 0.491176
0.0624968 0.0830586 0.466916
-0.00549817 0.0328105 0.00514188
0.129254 -0.0631545 0.49473
0.286454 -0.0573228 0.486865
-0.360079 0.0956586 0.332969
-0.219985 0.107072 0.385934
-0.011449 0.0326205 0.110309
0.29249 -0.021629 0.405801
-0.323128 -0.0207393 0.361734
0.287749 0.0939066 0.485423
-0.0439995 0.0817772 0.345225
0.352694 0.0956116 0.387406
-0.312007 -0.00725155 0.399189
-0.426777 -0.00838959 0.368308
0.0366478 0.0424501 0.425409
0.120659 -0.0576729 0.411452
-0.0354483 0.016526 0.431487
0.411594 0.105951 0.477268
0.138794 0.106983 0.365523
0.155721 0.104037 0.455114
-0.120764 -0.00842189 0.421758
0.176797 0.105383 0.441954
-0.0445419 -0.00606657 0.347582
-0.017283 0.0815454 0.363959
-0.310631 0.10836 0.381505
-0.34953 0.108868 0.368098
0.287987 0.107432 0.438062
0.378773 0.108222 0.47303
0.274522 0.0935461 0.415019
0.452518 -0.00884956 0.334173
0.00262524 -0.0217449 0.589098
0.0992375 0.0853269 0.498807
-0.130102 0.0351683 0.36781
-0.0661678 0.0831458 0.432353
0.418735 0.09618 0.373576
0.38337 -0.0198104 0.461584
0.0402383 0.0131297 0.331091
0.293655 0.00477564 0.356164
0.238801 0.107362 0.36081
-0.0208722 -0.0461973 0.301079
-0.0141726 0.092259 0.613334
0.0391772 0.0816189 0.495279
-0.298352 -0.034954 0.439077
-0.0600276 0.107654 0.358438
-0.313069 0.0994384 0.491617
0.0132625 -0.0531005 0.546568
-0.0391008 0.00528849 0.138853
-0.432335 0.0963612 0.472059
0.343701 -0.00682815 0.471015
0.107564 0.085841 0.432501
0.373574 -0.0198904 0.406239
-0.13854 0.0876082 0.458815
-0.0248407 0.0273315 0.281077
-0.195633 0.0911231 0.356458
0.0363442 -0.0361469 0.313322
0.18673 0.104243 0.460423
-0.200458 0.0914205 0.436262
-0.051899 0.0822649 0.3837
0.474004 -0.00927179 0.36644
0.307668 -0.00733578 0.430009
-0.365825 -0.0199398 0.372732
-0.168589 -0.00872059 0.469815
0.130727 -0.0308976 0.479589
0.343916 0.0954678 0.459381
0.37849 0.108246 0.381821
0.198195 0.106803 0.402539
0.0298532 -0.0251872 0.0947764
0.297166 0.0941634 0.43448
0.189113 -0.0134422 0.335551
-0.171267 0.0896214 0.362625
0.276006 0.10642 0.463819
-0.00690862 0.0378048 0.577475
0.0123859 0.0356332 0.28514
0.280518 0.0807763 0.464095
0.0618998 0.0830217 0.491422
-0.282186 0.0599762 0.462675
0.431624 0.107188 0.386388
-0.0780736 0.0163829 0.0735763
-0.266626 -0.0222968 0.40346
0.0855602 0.105975 0.409166
-0.0135425 0.0572929 0.398859
-0.0077732 0.0666818 0.0537778
0.389888 -0.0077722 0.438526
0.245615 0.0927389 0.367257
0.149455 0.0884162 0.39467
0.00862472 0.0832585 0.0519176
-0.0353342 -0.0356894 0.416537
-0.132113 -0.00849277 0.339337
-0.402853 -0.0196176 0.372898
-0.377299 -0.00752624 0.446982
0.303461 -0.00739506 0.406704
0.238956 -0.00830382 0.396683
-0.360674 -0.0199884 0.454895
-0.116617 0.0111274 0.0376011
0.262645 0.10769 0.400388
0.377812 -0.00740507 0.343394
-0.043754 -0.00892167 0.248749
0.298584 0.106703 0.48625
0.102002 0.0854976 0.376564
-0.41126 0.0960959 0.389749
0.127656 -0.0150994 0.361307
0.100081 0.0171753 0.0305255
-0.2874 0.107156 0.444839
0.214571 0.107028 0.376025
0.341135 0.108817 0.405741
0.143375 -0.00855287 0.354379
0.0359155 0.0174141 0.00570663
-0.142113 -0.0756427 0.506688
0.268911 -0.022279 0.372289
0.289472 -0.0217122 0.372722
-0.301418 -0.00740073 0.428109
0.459269 0.106376 0.45879
0.00549584 0.109055 0.00205885
-0.247029 0.0927157 0.410372
-0.172837 0.106527 0.413561
-0.273146 0.106668 0.454027
-0.180927 0.0902168 0.451442
0.176542 -0.00876001 0.397638
0.267524 0.093343 0.393006
-0.352502 0.108809 0.352164
-0.234638 -0.00834154 0.347405
-0.183653 -0.0251039 0.384329
-0.172717 0.103909 0.462345
0.0445829 -0.0345125 0.467284
-0.394642 0.0959574 0.414485
0.0413254 -0.0312518 0.569969
-0.02132 -0.0458719 0.344198
-0.0116961 -0.0148878 0.592878
0.0614923 0.105045 0.430105
-0.157767 -0.0599278 0.453217
0.289642 -0.0217075 0.468681
-0.00505762 -0.0520728 0.511632
-0.445828 0.0964578 0.441749
0.308395 -0.0211906 0.455831
0.0329175 -0.0357392 0.210398
-0.23853 0.0924813 0.443852
0.0106582 -0.0878376 0.609138
-0.101821 0.100143 0.485951
0.449946 0.106744 0.437162
0.0133643 0.108019 0.35226
-0.440487 -0.0192938 0.361026
-0.184304 -0.00881873 0.337117
0.441429 0.0963919 0.354146
-0.0293656 0.0815454 0.386269
-0.338346 -0.00688049 0.430328
0.0622318 0.0830422 0.409256
-0.0635798 -0.00806474 0.355469
-0.0369953 -0.0329577 0.279757
0.353172 -0.0193094 0.486499
-0.204692 -0.00876343 0.454592
-0.0330337 0.0161072 0.00922643
0.0169288 0.106117 0.403742
0.0027978 -0.0516425 0.49259
-0.300835 -0.0213538 0.352714
-0.232656 -0.00836947 0.439013
0.298776 0.0942083 0.465969
0.315021 -0.0606817 0.498471
-0.00930797 0.0330573 0.205524
-0.00183377 -0.0525439 0.527645
0.0510505 0.107459 0.365979
-0.129694 0.0764182 0.469502
0.0178931 -0.0495511 0.418841
-0.0732273 0.0140546 0.0177419
-0.164043 0.0891761 0.34516
-0.0541481 0.0824037 0.46893
-0.267199 -0.0222809 0.458506
-0.0120606 0.0815454 0.416027
-0.401589 -0.0196165 0.463551
-0.416599 0.0961543 0.347288
-0.178483 -0.0254495 0.430593
0.345699 -0.0201624 0.395436
0.0439622 -0.0165605 0.285131
0.0615863 -0.00804205 0.353308
-0.101709 0.105917 0.41936
-0.280219 0.107913 0.367389
-0.442648 -0.00870078 0.388552
0.248306 -0.00817209 0.458298
-0.00941324 -0.0275405 0.613334
-0.256242 0.0929697 0.384828
0.0871063 0.0845779 0.461836
0.303288 0.108289 0.345217
-0.142042 0.00933607 0.0427574
0.0777138 -0.00814278 0.345021
-0.237455 -0.0231008 0.403562
0.324157 -0.0207562 0.430915
-0.00948727 -0.0197657 0.0192748
0.155069 0.106374 0.407426
-0.281205 0.0936746 0.467757
0.00869401 0.0699829 0.0362139
0.44016 -0.00864615 0.414314
0.134622 0.0828455 0.468509
-0.420826 -0.0194603 0.449809
0.244503 -0.0229518 0.338713
-0.0945817 0.0121771 0.0384425
-0.102701 -0.00263722 0.606131
0.0540593 -0.0338789 0.418348
-0.0132068 -0.0501548 0.235904
-0.298978 0.0941509 0.466542
-0.38088 -0.00749816 0.408411
0.324388 -0.0568898 0.469392
0.228423 -0.023395 0.482952
0.000355302 0.0621386 0.0861291
0.124247 -0.0337145 0.493768
0.0470621 -0.0113981 0.547028
-0.033568 -0.0391708 0.559283
-0.190089 -0.00885486 0.485556
0.427836 -0.0116158 0.470618
0.304999 -0.0266299 0.427339
-0.225656 -0.0234261 0.468773
0.277313 -0.00776344 0.480786
-0.241576 -0.0229872 0.36943
0.290405 -0.00757899 0.395194
0.190758 0.106726 0.346403
0.0817839 -0.0320251 0.436917
-0.0730481 0.100071 0.48356
0.0229547 -0.0397053 0.165253
0.0940542 0.107925 0.338911
-0.290337 0.1064 0.484075
0.0630433 0.0186389 0.0463374
-0.333453 0.0951128 0.459643
0.194314 0.0911811 0.455275
-0.430211 -0.0118423 0.330348
0.431379 0.0962883 0.4104
-0.108313 0.107478 0.346958
-0.456884 0.10673 0.342708
-0.00830992 0.0333152 0.0323284
-0.285801 0.0938025 0.394175
0.456057 0.096517 0.364014
-0.320295 0.0947457 0.434237
0.178938 -0.0255288 0.336746
-0.292669 0.00304583 0.456208
0.304137 0.107889 0.435078
-0.376306 0.0958223 0.440707
0.0806606 0.0182532 0.0302632
-0.127801 -0.00846584 0.449709
-0.116415 0.0957957 0.494851
-0.0220216 0.00271217 0.0102475
0.041747 -0.0191673 0.233448
0.151377 -0.0273717 0.373881
0.232561 -0.0232809 0.446886
-0.00669897 -0.0445372 0.148752
-0.102837 0.0171669 0.0235646
-0.183961 0.10685 0.345284
-0.204789 -0.0240012 0.394461
-0.00496659 0.118236 0.0352514
-0.115264 0.103908 0.446889
-0.337165 -0.0161938 0.332783
0.296355 0.0941407 0.363375
-0.229037 -0.00842045 0.483956
-0.389501 0.108013 0.473765
-0.353693 -0.00699595 0.430686
0.150865 -0.0614852 0.436677
0.297 -0.012542 0.502982
-0.00667279 0.0774663 0.0752837
-0.138202 -0.0305313 0.4852
0.296614 0.108196 0.414991
-0.29245 -0.0215849 0.485351
0.238285 -0.00831328 0.413938
0.0172225 0.0262319 0.0200804
0.354435 0.108725 0.37977
0.016947 -0.0502384 0.480125
0.00113477 0.0418064 0.613334
-0.331873 -0.0487061 0.40635
0.286617 -0.0217909 0.335568
-0.0521212 -0.00799318 0.470781
-0.0613087 0.0828458 0.455559
-0.339982 0.108497 0.437099
0.0635779 0.0132807 0.0966478
0.152505 -0.0272963 0.394214
-0.295186 -0.045306 0.481231
0.138161 0.0357547 0.366728
0.279586 0.106091 0.480593
-0.334163 0.108541 0.42159
-0.419359 -0.0194739 0.352681
-0.147673 0.0881672 0.364466
-0.205947 -0.00874575 0.371117
-0.18674 0.106664 0.386218
0.0967764 -0.0310226 0.459365
0.395248 -0.019698 0.372343
0.443164 -0.0192979 0.392887
0.0247801 -0.0192566 0.0517964
-0.19916 -0.0241564 0.435942
0.0118136 0.0616489 0.424746
0.0928342 -0.0271404 0.496001
-0.0727047 0.00563704 0.610292
0.0564902 0.0826878 0.378187
-0.263958 0.107677 0.402542
0.29922 -0.0675515 0.476734
0.154087 -0.0271905 0.430577
-0.332066 -0.0594136 0.482416
0.154652 0.100922 0.491319
-0.0367186 0.106069 0.405038
0.0288316 -0.0412765 0.261389
-0.379742 -0.00758112 0.467608
-0.321876 0.107667 0.467586
0.310241 0.0945282 0.414886
-0.00404522 -0.0433179 0.609138
-0.0383253 -0.025006 0.606131
-0.184892 -0.0088224 0.471525
0.00517347 0.0563831 0.00372803
-0.144273 -0.0440668 0.405472
0.199587 0.0914699 0.433261
0.330677 0.108671 0.337883
-0.0431083 -0.0203725 0.56713
0.0759565 0.10227 0.461049
0.45596 -0.0191509 0.439042
-0.451146 -0.00885663 0.34403
-0.0231045 0.028501 0.29584
0.401541 -0.0196292 0.465099
0.113576 0.0119065 0.0270136
-0.400482 0.107853 0.371334
-0.0223473 0.0282571 0.247919
0.00686695 -0.108581 0.609138
0.125801 -0.0112109 0.508192
0.0389624 -0.0333209 0.512292
0.409707 0.107625 0.351659
0.0389572 0.00882033 0.519266
-0.259126 0.0930492 0.336627
0.152009 -0.0116118 0.336237
0.24281 0.0926616 0.386205
-0.139509 0.105212 0.436064
-0.441276 -0.0188744 0.46785
-0.275285 -0.0220581 0.441159
0.464618 -0.00908695 0.350305
0.142068 -0.0814253 0.508353
0.00375207 -0.0513636 0.26171
0.0210456 0.0296638 0.501635
-0.0031366 -0.0360692 0.0853824
0.341021 0.108815 0.351926
-0.339178 0.0952725 0.413275
-0.395602 -0.00778309 0.353084
-0.424182 0.0962112 0.367892
0.294945 0.108172 0.386312
0.224029 0.104838 0.456713
0.029963 -0.0430237 0.560491
-0.403961 0.107784 0.446785
-0.284166 -0.00764379 0.39923
-0.0344265 -0.0355595 0.252232
0.283108 -0.0218877 0.417156
-0.00382593 -0.0488404 0.205643
-0.120614 -0.00627468 0.610292
0.113229 -0.055975 0.443457
-0.238203 0.103866 0.492642
0.0794623 0.106812 0.337581
-0.0493603 -0.014781 0.496879
0.0386398 0.0183427 0.348389
-0.238721 -0.0230659 0.475486
0.100503 0.106043 0.413145
0.109518 0.106991 0.366962
-0.368882 0.0957314 0.382501
0.225605 0.0921872 0.449433
0.0370465 0.0130161 0.170308
-0.309743 0.108347 0.351063
-0.0490015 0.0179942 0.0063073
-0.322563 -0.00710284 0.463438
0.303711 -0.0564815 0.48952
0.0466696 -0.0185352 0.338128
0.210143 -0.0238988 0.343076
-0.107843 0.10517 0.432632
0.0102665 0.0485811 0.0557168
-0.0422648 -0.00221979 0.204717
0.416203 0.0961676 0.416057
-0.173314 -0.00875009 0.353959
0.0287462 0.00506085 0.0342352
-0.338528 0.0952544 0.443077
0.0641539 0.0831609 0.34949
-0.0293072 0.0536616 0.413502
-0.0365992 -0.0349983 0.506068
0.0472796 0.105232 0.42683
-0.149651 -0.0086023 0.426481
-0.166264 0.10704 0.347066
-0.155533 -0.0269841 0.478718
-0.439457 -0.0193224 0.422569
-0.157607 -0.0601716 0.507143
0.273984 0.093528 0.346425
0.301103 -0.0281229 0.504625
0.0215507 0.0302406 0.252378
-0.390549 -0.0197358 0.415967
-0.340105 0.108771 0.344672
-0.314556 -0.00721565 0.376255
-0.137319 -0.028202 0.37214
0.400688 0.0960785 0.439714
0.290659 0.108108 0.338169
-0.308841 -0.0668374 0.472872
0.246656 0.0927676 0.489155
-0.304209 -0.0212608 0.453699
0.399445 -0.0196745 0.431461
0.445396 -0.00893576 0.44363
0.258893 0.107639 0.352728
0.106423 -0.0303775 0.33934
-0.351879 0.0955873 0.426336
-0.152106 0.106827 0.376346
0.0333345 -0.0346195 0.194192
0.00977793 0.035722 0.270837
-0.0678475 -0.0080914 0.48284
0.207426 -0.00874802 0.435754
