-0.014179 0.0122789 0.106901
0.00139323 0.0195177 0.0654639
-0.0288723 0.0129907 0.100101
-0.0673845 -0.0519937 0.363006
0.0234858 0.0220494 0.0422508
-0.186824 -0.0489982 0.268464
-0.0397575 0.021589 0.0752874
-0.0204761 -0.0146079 0.28687
0.0319768 -0.0548668 0.74729
-0.0239933 -0.0163247 0.152301
-0.0107887 -0.0283231 0.890648
0.175375 -0.0688773 0.36128
0.101253 -0.0810979 0.378554
0.173476 -0.0843459 0.323005
0.0303112 -0.0159714 0.640996
0.0264001 -0.0529008 0.827497
-0.00272754 -0.00605721 0.488094
-0.160485 -0.0531383 0.28494
-0.0341204 -0.0464212 0.39981
0.170608 -0.100453 0.350972
-0.0443533 0.0218074 0.0490104
0.0930035 -0.0896765 0.415694
-0.0370293 -0.0450199 0.59552
0.000701266 0.101932 0.0267587
-0.0311445 -0.0545472 0.61917
-0.00572118 -0.061435 0.814342
0.00088384 0.0218259 0.0511509
0.206851 -0.0402924 0.253557
0.0107153 -0.0668571 0.221275
-0.0558304 -0.0621371 0.332968
0.00035419 -0.0669765 0.306251
0.00861475 -0.0105615 0.298272
-0.100206 -0.0698232 0.359217
0.0566787 0.0176225 0.0669201
0.00919973 -0.00613608 0.818047
0.0308851 -0.0840119 0.352808
-0.0196012 -0.0662348 0.311236
0.0184065 -0.0538368 0.104052
-0.0355904 -0.0267342 0.396903
-0.0330668 -0.0542663 0.555693
0.030207 -0.0181935 0.156755
-0.015071 -0.0021755 0.717172
-0.104973 -0.0957638 0.41169
-0.105681 -0.0629445 0.350897
0.00580796 0.0186718 0.142122
-0.0739552 -0.0566489 0.406056
0.0221518 -0.0145673 0.120761
0.041724 -0.0464423 0.411614
-0.0393219 -0.0828024 0.399918
-0.0181513 -0.00741272 0.562109
-0.0315958 -0.0215239 0.290437
0.0315552 -0.0191988 0.276104
-0.0473736 -0.0754513 0.329238
0.206787 -0.0448718 0.236297
-0.159393 -0.0432019 0.319443
0.173855 -0.0906567 0.362679
-0.00188834 -0.0387036 0.918645
-0.0106442 0.000400611 0.673542
-0.0339304 0.0198901 0.110432
-0.0263085 -0.049696 0.833668
0.147058 -0.0589809 0.274331
-0.036311 -0.0283415 0.30277
-0.0898626 -0.0614928 0.299576
0.0354306 0.0161947 0.0783654
0.0914846 0.0128572 0.105773
-0.181108 0.0233996 0.0336999
0.176465 -0.0881908 0.364829
0.00158433 -0.0667786 0.542409
-0.14959 -0.045012 0.299764
0.00531544 -0.0669765 0.357995
0.0273937 -0.0879867 0.432691
-0.119258 0.0210383 0.0971803
0.017662 -0.0251639 0.873232
-0.00402905 -0.0606627 0.821955
0.0235609 -0.0556461 0.390713
-0.00755698 -0.0131101 0.114195
-0.00403881 -0.0658721 0.692302
-0.134025 -0.0574553 0.303836
0.0404763 -0.0433591 0.706112
0.0229235 -0.0583311 0.390482
0.0710335 0.0169205 0.069821
-0.0173872 -0.0133709 0.223288
-0.225807 -0.0395846 0.233709
0.0434117 0.0129234 0.100619
-0.0244956 -0.0331743 0.0937274
-0.012022 -0.066436 0.512204
0.105752 0.0223862 0.0402857
0.0417344 -0.0411498 0.369845
-0.0341217 -0.0245437 0.372559
-0.0242088 -0.0739302 0.343572
0.0830382 -0.0527031 0.343754
-0.0379354 -0.0333413 0.289243
-0.0370865 -0.0301513 0.692099
0.0373806 -0.0799886 0.335802
-0.0228771 -0.062128 0.384656
0.0414796 -0.0512657 0.490582
0.0130965 -0.0429725 0.0771206
0.00250981 0.0451536 0.0817826
0.0321408 -0.0636153 0.460206
0.233733 -0.0393551 0.223863
-0.0533065 -0.0762041 0.389414
-0.000802787 -0.0664859 0.611492
0.021238 -0.0336159 0.082446
-0.00253213 0.0450742 0.0777963
0.00210727 -0.051263 0.875221
-0.0330855 -0.0230108 0.375331
0.169502 -0.0552939 0.332379
-0.0419405 0.0167563 0.0740732
-0.0518267 0.00961001 0.133754
-0.0980106 -0.106219 0.386615
0.0396393 -0.0296634 0.714753
0.0396853 -0.0621308 0.216043
0.179358 -0.0494201 0.257986
0.171124 -0.044577 0.276047
-0.0255177 -0.0171463 0.413801
-0.0109611 -0.066453 0.523194
0.0391164 -0.057077 0.441306
0.10148 -0.0702462 0.386308
0.00183304 0.0956862 0.0671387
-0.0249847 -0.0697052 0.345313
0.0407644 -0.0337139 0.26163
0.0340882 -0.0212236 0.442843
0.146749 0.022288 0.0606001
0.156095 0.0173446 0.0877823
0.0331708 0.0192536 0.131045
0.06856 0.0217979 0.0502402
0.0227041 -0.0575229 0.813902
0.00964894 4.75318e-05 0.617999
0.0506709 0.0200376 0.105974
-0.0244785 -0.0468886 0.853464
0.0996706 -0.0718682 0.382563
-0.0328619 -0.0858916 0.403302
-0.0016065 0.102153 0.0430946
-0.179397 0.021467 0.0276806
-0.0675936 0.0126957 0.104734
-0.00293195 0.0534616 0.083959
-0.0139866 0.0141408 0.0952508
-0.0280863 -0.0645255 0.187698
-0.0483213 -0.0753438 0.382225
-0.0245999 -0.0167023 0.285837
0.109399 -0.0612683 0.316706
0.00382675 0.0134999 0.119814
-0.0320576 -0.0401164 0.829916
-0.0843232 -0.0647824 0.394606
-0.0341286 -0.0565429 0.166869
-0.0134076 -0.0645893 0.6272
-0.17128 -0.0709935 0.343281
-0.0303387 -0.0639257 0.241482
0.0891567 0.0205466 0.103152
0.041727 -0.0455553 0.379724
0.0402663 -0.0840051 0.385575
-0.0987547 -0.0774309 0.382713
0.0527951 -0.0534939 0.416225
0.0551661 -0.0725205 0.312096
0.0405555 -0.0613841 0.242966
0.0296528 -0.0877908 0.399398
0.0273811 -0.0774829 0.451055
-0.164843 0.0227903 0.0546166
0.0406192 -0.0339084 0.741493
-0.00380225 0.020639 0.141498
-0.0138975 -0.0667236 0.307086
0.00128466 0.0440393 0.0561645
-0.0351806 -0.0260741 0.141032
-0.0794746 -0.0510542 0.353524
-0.0242519 0.0150278 0.0880109
-0.0300638 -0.0552654 0.434718
0.141777 0.0163982 0.0769458
0.0833447 0.0210214 0.0377415
-0.0252575 -0.0641821 0.168856
-0.031369 -0.0590466 0.285307
-0.0373754 -0.0611452 0.356873
0.0191705 -0.0600928 0.789067
0.0173436 -0.063657 0.142643
0.147648 -0.0558274 0.307096
-0.0122881 -0.0497981 0.871865
0.018615 -0.0574892 0.111573
-0.0275319 -0.0599985 0.40148
-0.00232122 -0.0663986 0.651935
-0.119809 0.0218554 0.0716036
0.000666827 0.0156248 0.0858227
-0.0378831 -0.0589468 0.398965
-0.0345347 -0.0632855 0.431435
-0.00561137 0.0180837 0.157163
0.0310473 -0.0617235 0.160172
-0.037945 -0.0334058 0.321968
-0.0235795 -0.0655424 0.424868
0.0405912 -0.0457465 0.185259
-0.0216414 -0.0223314 0.101645
0.0632876 0.0189299 0.135448
-0.0479145 -0.0600569 0.428878
-0.0949735 -0.089424 0.381869
-0.0382221 -0.0347219 0.237634
0.0286799 -0.0652143 0.246478
0.0126008 -0.0568662 0.105794
0.0326832 -0.0201333 0.310463
0.00564699 0.00183121 0.745551
-0.00565013 -0.0658188 0.60367
-0.00425315 -0.0422148 0.0689031
0.0467712 -0.0772402 0.352411
-0.00355357 0.0510315 0.0984786
-0.00772381 0.0190225 0.132506
-0.158625 -0.0414494 0.310676
-0.0669411 -0.0677386 0.34493
0.186931 0.0217278 0.0236351
0.025493 -0.0625134 0.389618
-0.231182 -0.0373944 0.258732
0.00698883 -0.0649705 0.727232
0.144129 0.0232887 0.0192504
-0.0319963 -0.0746622 0.330336
-0.036733 -0.0511131 0.4928
-0.0378774 -0.03295 0.726502
-0.0249302 -0.0292011 0.856808
-0.134638 0.0216472 0.0835291
0.0229294 -0.067658 0.371904
0.0304114 -0.0183154 0.407365
-0.0170714 -0.0664561 0.403218
-0.218371 -0.040648 0.237779
-0.0188419 -0.0460214 0.870633
0.0662558 -0.0684726 0.334308
-0.0632069 0.022047 0.0456375
-0.0140968 -0.0666801 0.230832
-0.0839259 -0.0517757 0.345689
0.00479321 -0.066861 0.206764
0.00835899 0.0181672 0.153182
-0.0519822 -0.0755644 0.346271
0.0922941 -0.0642791 0.332616
0.000878736 0.0205957 0.159777
0.0686167 0.0109209 0.121935
0.0403347 -0.0310663 0.481281
-0.169799 -0.0631874 0.318875
0.0792418 -0.0668328 0.396458
5.59738e-05 0.0585486 0.0379435
0.0409528 -0.042988 0.177327
-0.0384087 -0.0484323 0.229331
0.0292962 -0.0177492 0.342644
0.0176557 -0.00194202 0.677372
0.0132775 -0.0653478 0.623323
-0.0533104 0.0207446 0.0843154
0.0401422 -0.0451158 0.636602
0.0260284 -0.0159767 0.280529
0.119884 -0.0604984 0.348533
-0.0118046 0.0220598 0.0840339
-0.107172 0.0218143 0.0308429
0.145148 0.0171428 0.0981731
-0.0452014 0.0219937 0.070045
0.0223655 -0.00624668 0.740458
0.00838793 -0.0669051 0.246286
0.074659 0.0204864 0.0424384
-0.176483 0.023514 0.024301
0.00156305 0.0949716 0.0492168
0.0113652 -0.0643685 0.732282
0.0306924 -0.0174931 0.773298
-0.0020605 -0.0623372 0.803147
0.0375053 0.0172149 0.0716277
0.0385364 -0.0271277 0.376745
0.00610879 0.0174085 0.167759
0.211983 -0.038989 0.27504
0.178185 -0.0821233 0.349355
0.0919843 0.0140596 0.0945561
0.00222405 0.0529503 0.0738745
0.192471 0.0192907 0.0573903
-0.173766 0.0189087 0.055233
0.0400671 -0.0304151 0.128889
0.0415987 -0.0538527 0.361556
0.171014 0.0229179 0.0462471
-0.119147 -0.0507706 0.31008
-0.186586 -0.0515615 0.272285
0.162625 -0.0740899 0.361839
0.138198 0.0214039 0.0297271
0.104964 -0.0984567 0.371182
0.22158 -0.0390969 0.24101
-0.0147209 0.0176761 0.164626
0.100364 -0.068008 0.404627
-0.0836992 -0.0620612 0.3045
-0.029992 -0.0598836 0.158583
0.060133 -0.062107 0.33131
0.0410785 -0.0423134 0.175463
-0.086078 0.0161369 0.0732923
-0.0307663 -0.0619302 0.376414
0.0368116 -0.0573671 0.470573
-0.171921 -0.0988432 0.367158
-0.00621616 -0.0339575 0.912665
0.0910518 -0.097331 0.398123
0.0128 -0.0174082 0.100569
0.16766 0.0178768 0.0782987
-0.0127068 -0.0577644 0.827664
0.0140942 -0.0608984 0.807188
0.00838172 -0.00513453 0.506509
0.0343937 -0.0229732 0.777128
0.0239064 -0.0148737 0.372552
0.0203631 0.0194862 0.115612
-0.0268355 -0.0178637 0.160423
0.133603 0.018834 0.0507347
-0.0380871 -0.0547686 0.206896
0.105049 -0.0623944 0.327998
-0.0131858 -0.0666458 0.436732
-0.0268019 -0.045939 0.105323
-0.0389532 -0.0404798 0.498913
-0.0385554 -0.0354878 0.407116
-0.028178 -0.0615257 0.309066
-0.234579 -0.0361729 0.252216
-0.0365023 -0.046996 0.620977
0.180812 -0.0399425 0.293565
-0.16885 -0.0483628 0.261992
0.063313 -0.04926 0.396547
-0.0030454 0.0553147 0.0858512
-0.0190615 0.0218641 0.0457853
0.000814595 -0.0669691 0.429354
-0.0152676 -0.00514015 0.564446
0.0395613 -0.0553658 0.462572
-0.153073 -0.0532766 0.26795
0.0134512 -0.0664473 0.502463
0.0162061 -0.0666651 0.3662
0.191045 0.0200642 0.0692353
0.0373661 -0.0252502 0.192085
0.11839 -0.0585372 0.284578
0.0770793 0.0162651 0.143247
-0.0304094 -0.0641047 0.386966
0.018165 -0.0126288 0.23653
-0.0577242 -0.0719681 0.377055
0.124383 0.0207965 0.0977675
-0.0388865 -0.0432243 0.474352
-0.064281 0.0157588 0.153177
-0.0384859 -0.0372148 0.699212
-0.0825277 0.0222199 0.0439849
0.0238683 0.0197683 0.106016
-0.0273678 -0.0610597 0.333534
0.0179388 -0.0665747 0.402895
-0.00539275 -0.0667508 0.182027
0.109903 0.0211248 0.0341388
0.033061 -0.054992 0.690604
0.000811919 0.103098 0.0292061
-0.0387022 -0.045082 0.514442
0.0206763 -0.0134408 0.160939
0.0534782 -0.0754747 0.418945
0.0277645 -0.0534174 0.43447
0.116921 -0.0550394 0.294967
-0.189715 -0.0419217 0.266382
0.000217102 -0.00751919 0.466193
-0.0359589 0.0190436 0.137891
0.0351957 -0.0775805 0.390255
-0.098643 -0.0687976 0.400459
-0.00235024 0.0230968 0.0798925
-0.140396 -0.0558666 0.288242
0.0528789 -0.0732004 0.326058
0.00494164 -0.00937328 0.426573
0.0413726 -0.0383451 0.188419
-0.160527 -0.0856301 0.360113
0.00694192 -0.0655766 0.13343
-0.00282186 0.0281966 0.144177
-0.13239 -0.0568722 0.287116
0.170619 -0.0514182 0.324291
-0.189293 -0.0444727 0.301276
0.0232773 -0.0130547 0.49426
0.0284777 -0.0388053 0.0980509
0.0417153 -0.0525945 0.431691
0.0447338 0.0191055 0.0575222
0.0179907 -0.0666801 0.303013
-0.0234197 -0.0574384 0.359979
-0.00387294 -0.0266062 0.893232
0.0726288 -0.0668327 0.332654
-0.0323076 -0.0501546 0.289785
-0.11632 0.0183642 0.0537591
-0.167835 -0.0932679 0.330484
-0.214109 -0.0412726 0.240019
0.0477412 -0.0538932 0.368174
-0.0379818 -0.0362996 0.756155
-0.0281378 -0.0218344 0.814134
-0.0287735 -0.0176517 0.621014
0.0277227 -0.0654099 0.318115
-0.0270097 -0.0193391 0.806387
-0.03865 -0.0376653 0.216556
-0.0237138 -0.0560117 0.352263
-0.0330022 -0.0228876 0.52102
0.111139 -0.060593 0.307287
0.0134907 -0.0645326 0.708303
0.180226 0.0194752 0.0481445
-0.023818 -0.0162677 0.122713
0.0523192 -0.0733043 0.318171
-0.0253849 -0.0653376 0.317647
0.0193716 -0.0293599 0.879455
-0.211471 -0.0384391 0.25728
0.0253102 -0.0758661 0.362959
-0.00882826 -0.0110819 0.369797
0.0174477 -0.066622 0.351117
0.089639 0.0201191 0.0450386
0.00805803 -0.066849 0.213517
0.00197472 -0.0669266 0.237993
0.0959666 0.0220667 0.0467962
0.0862243 0.0176557 0.0634607
-0.0281921 -0.0164979 0.700327
0.0241132 -0.0652794 0.505913
0.0677804 0.019656 0.12136
0.0369418 -0.0254865 0.766653
-0.0316278 -0.021551 0.394464
0.0412125 -0.044151 0.198143
0.0404452 -0.0318822 0.607042
0.041531 -0.0366633 0.499203
-0.10084 -0.0756631 0.391534
0.0212433 -0.0192751 0.846424
0.0914201 -0.0898536 0.402101
-0.0801434 0.020341 0.111059
-0.00279684 0.0636073 0.0783457
-0.0389712 -0.0413771 0.404587
0.0446914 0.0202173 0.0951714
0.00256914 0.0786061 0.0775289
-0.0383372 -0.04262 0.588777
-0.0370812 -0.0299105 0.453876
0.0313028 -0.0431411 0.843722
0.0672313 -0.0688305 0.349422
-0.0517264 -0.0738717 0.303109
-0.0399789 -0.0701644 0.332452
0.0225468 -0.0577231 0.115864
-0.116425 -0.0609754 0.350164
0.00258171 0.0503397 0.118852
0.169709 -0.0504635 0.298837
0.17891 -0.0736084 0.358357
-0.00715888 0.0169007 0.177891
0.00245741 -0.0663775 0.661411
-0.0321815 -0.0619778 0.397611
-0.0389954 -0.04299 0.295106
0.031989 -0.0644041 0.325128
-0.0784614 0.02087 0.0917936
0.0940413 -0.107466 0.411521
-0.156725 0.0234372 0.0215323
0.169738 -0.0590147 0.315896
-0.0824843 -0.0650701 0.324668
-0.0169107 -0.0127604 0.467223
0.0967115 -0.062749 0.312648
0.00997292 -0.00641039 0.493008
-0.0965921 0.0216509 0.0667903
0.121892 0.0182489 0.11422
-0.00539971 -0.0073372 0.47356
0.14478 -0.0544128 0.268853
-0.00710521 0.000942352 0.759345
-0.0363691 -0.028515 0.621593
0.189429 -0.0487298 0.273113
0.203509 -0.0454408 0.239912
0.129855 0.0195165 0.046792
-0.00243395 0.086338 0.0660928
-0.0159682 -0.0473541 0.873434
0.0143539 0.0172307 0.170874
0.0332206 -0.0586145 0.369762
-0.117201 -0.0446891 0.341795
0.179695 -0.0455985 0.310325
-0.0943209 -0.0984754 0.380578
0.0411756 -0.0353115 0.672064
0.0418133 0.0184246 0.146326
0.182678 0.0215953 0.0712811
0.0414924 -0.0421567 0.553189
-0.0886727 0.0155483 0.0790046
-0.0248486 0.0220214 0.046716
0.033245 -0.021451 0.777765
0.0192458 -0.0665392 0.366147
0.0408517 -0.0416065 0.138352
0.0190668 0.0220527 0.045048
-0.0259292 -0.0644182 0.377038
0.000732062 0.038701 0.0465363
-0.110742 -0.0529233 0.310485
0.0114074 -0.066864 0.342902
0.031849 -0.0567494 0.140372
-0.014733 -0.00793136 0.513972
-0.027191 -0.0180803 0.404566
0.0205538 -0.0663798 0.229899
0.00795523 -0.0669718 0.299235
-0.0322989 -0.0219144 0.597245
-0.0346387 -0.0253084 0.327862
-0.00174574 0.110099 0.0459985
0.0158288 -0.0464489 0.0867425
0.00587046 -0.0662188 0.659324
0.100112 -0.0642417 0.350038
0.224726 -0.0420095 0.223889
-0.00655781 -0.0669511 0.289655
-0.0384661 -0.035613 0.611381
-0.160349 0.0174829 0.0821726
0.101112 -0.0706266 0.367027
-0.0222697 0.0139549 0.180586
-0.0879441 0.021452 0.0712424
-0.0253326 -0.0690591 0.350685
0.0112264 -0.0630163 0.773816
0.107269 0.0206668 0.0386992
-0.0380119 -0.0338567 0.319171
0.00967225 0.0189866 0.131303
0.146895 -0.0573887 0.300024
-0.00728333 -0.00860364 0.468812
0.0977064 0.02173 0.056716
0.0144218 -0.0611472 0.799894
0.154277 0.0227214 0.0160888
-0.0377688 -0.0521396 0.196832
-0.0366224 -0.0290928 0.625479
0.0343173 -0.0707263 0.333543
0.0301241 -0.031241 0.101842
0.0301533 -0.018214 0.345789
0.0345964 -0.0217182 0.349002
-0.0230104 -0.0140864 0.512518
-0.0258168 -0.0544177 0.801852
0.0642906 0.020814 0.0425239
-0.00734877 0.00073875 0.650027
0.0610571 -0.0608122 0.420514
0.197901 -0.0475148 0.271415
0.00312888 0.00200695 0.669937
0.0405577 -0.0329027 0.129603
-0.0367739 -0.0298485 0.734938
0.0184519 -0.00236635 0.71525
0.0160941 -0.0089133 0.493999
-0.0221618 -0.0606291 0.386148
-0.0498386 0.0198505 0.118647
0.00319564 0.0506395 0.09495
-0.110505 -0.048911 0.327607
-0.0861792 0.0219219 0.0513299
0.127186 0.0161727 0.0778009
-0.0141399 -0.0667164 0.308596
0.0387413 0.0197884 0.110615
0.0395275 0.0194108 0.127681
-0.0216796 -0.0545354 0.826147
-0.232506 -0.035856 0.245725
0.0291357 -0.0651658 0.254867
0.00500728 0.0174503 0.0736981
0.101578 0.0150819 0.0858095
0.00137703 0.0279677 0.149427
-0.0526795 -0.0484357 0.402717
-0.018137 -0.06551 0.53053
-0.0265275 -0.0649684 0.430183
0.0414397 -0.0444481 0.52886
-0.00184516 0.0491261 0.0615822
0.00332238 0.0450386 0.112021
0.0398231 -0.0299925 0.17556
0.171063 -0.0715256 0.325397
-0.00104635 0.108765 0.0286431
-0.0040807 0.00115677 0.647101
0.0190952 -0.00270361 0.757524
-0.0377972 -0.0436473 0.155779
0.0753802 0.0220186 0.0443053
0.0285677 -0.0651526 0.408941
-0.0906789 -0.0499072 0.380946
0.178649 -0.0830644 0.351262
-0.140016 0.0187057 0.0517946
0.0164531 -0.00428369 0.567233
0.0466074 -0.0772571 0.35142
0.00846914 -0.00255575 0.552069
0.0817067 -0.051829 0.348752
0.00947349 0.00107541 0.669222
0.16394 0.0175722 0.0801358
-0.104494 -0.0951566 0.374871
0.0314529 -0.0189948 0.42503
0.0994782 -0.0630719 0.379552
0.00245419 -0.0499564 0.880818
0.0583124 0.00998922 0.129772
0.0411333 -0.0816978 0.421039
-0.0538609 0.0189194 0.0584838
0.0224892 -0.00814779 0.587354
-0.00105721 0.0211548 0.0549219
-0.0367721 -0.0292551 0.44341
-0.0938319 -0.0907064 0.39669
0.0519396 -0.048165 0.387455
-0.163951 -0.0786656 0.33376
0.153906 0.0223732 0.0616985
0.0128969 -0.066846 0.215222
0.0535374 -0.0773721 0.3166
0.122204 -0.0583629 0.290592
0.0386984 -0.0524643 0.54415
-0.0337043 -0.062173 0.295362
-0.114783 0.0229506 0.0273472
0.188184 -0.0562553 0.271492
-0.181831 0.0204045 0.038168
-0.0096961 -0.0113241 0.343742
0.00139969 0.000464579 0.604718
0.0216691 -0.0332895 0.882345
-0.0081382 -0.0110698 0.261276
0.0816106 0.0209317 0.0831336
0.0231695 0.0210525 0.0483564
-0.0126829 -0.0119102 0.4183
-0.0306515 -0.0529854 0.759899
-0.0286561 -0.0171992 0.741552
-0.0374358 -0.030689 0.424111
0.146792 -0.0539669 0.300923
0.00627835 -0.0662742 0.599983
0.0236023 -0.0625924 0.151806
0.0019694 0.0414262 0.0706504
-0.0251064 -0.0667628 0.365252
-0.0573492 -0.0482155 0.39596
-0.00267767 -0.0194602 0.870359
-0.0316627 -0.0214492 0.529726
-0.0683576 0.0215159 0.0590666
-0.116507 0.0189557 0.115771
-0.0137814 -0.0641121 0.691705
0.0239883 0.01957 0.113512
0.000451699 0.00604931 0.161681
-0.0377971 -0.0327185 0.736172
-0.0160683 -0.060992 0.773561
-0.0364762 -0.0520342 0.485042
-0.0322793 -0.0544809 0.587001
0.0978711 -0.0474397 0.369486
0.0189149 -0.0335863 0.0776918
-0.0169851 -0.0132099 0.252936
-0.0217868 -0.00859489 0.656926
0.124138 0.0208262 0.0968808
0.031657 -0.0627892 0.487585
-0.100899 -0.063407 0.338487
0.0335021 -0.0633796 0.24462
0.170521 -0.0569307 0.30714
-0.191397 -0.0480834 0.262637
-0.0542719 0.0196629 0.125498
0.0386602 -0.036757 0.794333
-0.027626 -0.0176303 0.497064
0.0255099 0.0199345 0.100239
-0.0384621 -0.0410354 0.172487
0.169618 -0.0543064 0.329239
-0.169876 -0.0801315 0.361555
-0.00493347 -0.0669765 0.26644
0.0962391 0.0216575 0.0591139
0.016672 -0.00305681 0.79232
0.166346 -0.0655753 0.362251
0.00207101 -0.0669765 0.326736
-0.0567166 -0.0712517 0.314102
0.00345468 0.0426342 0.11297
-0.0653809 0.0162 0.0732729
0.101743 -0.0551559 0.312211
0.0791753 -0.0673936 0.361009
-0.179253 0.0239526 0.00913649
-0.0996652 -0.103538 0.369636
0.0726371 -0.0590321 0.330079
0.0137268 -0.000469859 0.748178
-0.226144 -0.0424724 0.240689
0.037788 -0.0258744 0.32779
0.101764 -0.0770644 0.394061
0.0430295 -0.0671054 0.437563
0.0814868 0.017286 0.136863
-0.0440435 -0.0667239 0.334328
-0.0676272 -0.0673108 0.329557
0.00487413 -0.00054659 0.587334
0.0404504 -0.0319676 0.206227
-0.00470672 -0.0103251 0.139748
0.171135 -0.0448034 0.315679
-0.164375 -0.0903049 0.344895
0.218892 -0.0439754 0.256754
0.0310272 -0.0571225 0.621816
-0.0181631 -0.0613203 0.744878
0.0408788 -0.0491728 0.208936
-0.0388325 -0.0369879 0.454486
-0.000923952 -0.0100134 0.174679
-0.122598 0.0221221 0.0601759
-0.0403419 -0.0648519 0.343384
0.031522 -0.056598 0.390413
-0.0272976 -0.0181652 0.251056
0.00402109 -0.0323087 0.0483728
0.0217298 -0.0624982 0.639838
0.171787 -0.0929383 0.332642
0.00158862 0.110006 0.04675
0.0366744 -0.0242272 0.33955
-0.00285675 0.0718944 0.0848152
-0.0151478 -0.012574 0.187277
-0.101165 -0.076545 0.397757
0.00933888 -0.0669592 0.43729
0.106663 0.0150549 0.124331
0.121949 -0.0462572 0.351167
0.038429 -0.0474535 0.405233
0.00162011 -0.00794261 0.827816
0.0971514 0.0211855 0.0801752
-0.126735 -0.0581819 0.299735
0.00387525 0.00227092 0.721644
-0.000358276 -0.0648865 0.743073
-0.00366248 -0.0663824 0.633169
-0.0363153 -0.0636409 0.368555
0.0729019 0.0196812 0.120581
-0.0525106 0.0203755 0.0997338
0.0416537 -0.0459564 0.308715
0.0247321 -0.0627354 0.578973
-0.00459695 0.00761263 0.149394
-0.0375666 -0.044355 0.633339
-0.00204638 0.06164 0.0630305
-0.200182 -0.0395325 0.265453
0.144759 -0.0549086 0.340662
-0.174203 -0.0512483 0.305279
-0.00335356 -0.0615541 0.815265
0.00920951 0.0202596 0.0843803
0.0294104 -0.0178106 0.196821
-0.00206116 0.0172702 0.172768
-0.0328275 -0.0483866 0.39562
0.0971523 0.0183472 0.0578472
0.0276129 -0.0167499 0.425572
0.0379689 -0.0607495 0.346025
0.172947 -0.0514634 0.309563
0.0405508 -0.0580156 0.348993
-0.0212346 -0.0149116 0.321257
-0.160938 0.0187347 0.0526537
-0.0103279 -0.0646407 0.132934
-0.0185194 -0.00656665 0.587964
-0.0218147 -0.0150805 0.436338
0.0930377 0.013629 0.0986793
0.0265498 -0.0162597 0.359761
0.0355955 -0.0380403 0.827145
0.170641 -0.0647425 0.319467
-0.10294 0.0217718 0.0648614
0.000428557 0.0182818 0.151463
0.0253702 -0.0658723 0.302686
-0.148223 -0.0611456 0.29619
-0.0122365 -0.0667772 0.315898
-0.0307117 -0.0494128 0.3307
-0.044249 -0.0811092 0.414379
0.0393022 -0.053081 0.519189
-0.0620379 -0.0673787 0.311882
0.0842845 -0.0668961 0.305161
0.0261912 -0.0160652 0.364208
-0.022307 -0.0640549 0.363997
-0.00228537 0.0452134 0.12718
-0.0792626 -0.0539986 0.341872
-0.0120059 -0.0119042 0.309209
0.0343442 -0.055881 0.567733
0.0148049 -0.0667397 0.332007
0.0138463 -0.0196651 0.0941541
-0.100393 -0.0678877 0.383805
-0.174589 -0.0512833 0.285824
-0.0249496 -0.0699547 0.355441
-0.0126569 -0.0646382 0.154823
0.0212983 -0.0437043 0.877714
-0.0213642 -0.0472972 0.0979569
-0.0363705 0.021575 0.0544998
0.0329013 0.011272 0.11557
-0.0939332 -0.0991154 0.388899
-0.00799912 -0.0108874 0.38487
-0.198803 -0.0460088 0.238475
0.0970803 -0.0901489 0.36893
-0.0199345 -0.0661917 0.312534
-0.050801 -0.0479243 0.397146
-0.0308209 0.00849582 0.142347
0.0412698 -0.039003 0.125957
0.164762 -0.051398 0.260116
-0.00407133 0.00709019 0.168859
-0.167737 -0.0932088 0.330827
-0.0482034 0.0137873 0.0935751
0.033777 -0.0210396 0.400732
-0.0372872 -0.0306104 0.263861
0.0405278 -0.0323234 0.654111
-0.163204 0.0230339 0.0131066
0.0269677 -0.0850011 0.346752
-0.0266131 -0.0528563 0.384431
0.0984332 -0.0467382 0.350552
0.14683 -0.0581443 0.288021
-0.00337061 0.0410545 0.120132
0.02329 -0.0660026 0.387398
-0.00178512 0.0161722 0.0708595
0.0457535 0.0217249 0.0480654
-0.0367323 -0.0536589 0.453752
0.0327133 0.010015 0.168929
-0.0817764 -0.0548021 0.33584
-0.0575298 0.0100918 0.141353
-0.011469 -0.0117801 0.187053
-0.0161556 -0.063911 0.594094
0.040952 -0.0382818 0.121901
-0.0314798 -0.0692388 0.340017
-0.0648879 0.0178119 0.0633573
0.0195239 -0.0611433 0.762624
-0.0380757 -0.0419175 0.692544
0.00276074 -0.0555843 0.856431
0.0412674 -0.0354464 0.486498
0.0188863 -0.0115516 0.482954
-0.148186 -0.0572689 0.258156
-0.029243 -0.0185721 0.766984
0.217482 -0.044146 0.264847
0.0561448 0.0214986 0.0564599
-0.113885 0.0140312 0.0979867
0.0408098 -0.0561417 0.406635
-0.00342045 0.0416883 0.118164
-0.156127 -0.0428756 0.301643
-0.0256667 -0.0560453 0.334968
-0.010749 -0.0543063 0.855141
-0.0325547 -0.0617533 0.375909
-0.0085284 0.000934543 0.677562
0.0360612 -0.0233201 0.471877
-0.181828 -0.045095 0.26145
0.239312 -0.0370345 0.229772
-0.00114406 0.0958449 0.0338707
0.0396286 0.021535 0.0426859
-0.00328304 0.0588973 0.0907137
0.000982721 0.0204011 0.0571176
-0.00114787 0.0217958 0.0565049
-0.0181565 -0.0656929 0.508158
-0.0244041 -0.0165146 0.424658
-0.171805 -0.0440842 0.277805
-0.00150382 -0.000681264 0.79428
0.0417494 -0.0443467 0.44872
0.0379755 -0.026152 0.398242
-0.0335645 -0.0625626 0.35675
0.0556822 -0.0747568 0.416156
-0.00148186 0.0230624 0.0626842
-0.0121665 0.0210506 0.0519419
0.0304117 -0.016385 0.604494
-0.0708077 0.0191401 0.134913
0.0536105 -0.0724443 0.317135
0.0270744 -0.059501 0.70438
0.00841873 -0.0289528 0.0597196
-0.169856 -0.0649344 0.322944
-0.17468 0.0228473 0.0565621
0.0395022 -0.0341647 0.77662
0.00323572 0.0162688 0.104201
-0.0385271 -0.0656595 0.440007
0.00857513 -0.0104698 0.339044
-0.196562 -0.045186 0.243081
0.0302262 -0.0240718 0.830099
-0.0320073 -0.0534685 0.663204
-0.0281585 -0.0165496 0.746097
0.00271582 0.0454379 0.123358
-0.0970504 0.0225484 0.0369748
-0.095941 0.013313 0.100778
-0.0242576 -0.0763656 0.332916
0.175644 -0.0506144 0.275324
-0.0389886 -0.0427536 0.296257
0.164018 -0.0830833 0.343999
-0.00194717 0.078478 0.0563547
-0.0356589 -0.0780494 0.318363
0.100615 -0.052003 0.32645
0.0407436 -0.0335223 0.315473
0.128576 -0.0591149 0.337772
0.0090524 -0.0669616 0.345716
0.0353228 -0.0223189 0.219606
-0.129385 -0.049155 0.305068
-0.0029803 0.0365953 0.0895684
-0.0284387 -0.0618637 0.524982
-0.00209538 0.070514 0.0616515
-0.00937183 -0.011329 0.17081
-0.0100572 -0.0209331 0.0878319
0.041205 -0.0486395 0.236191
-0.0401786 -0.0827348 0.413715
-0.126899 0.0215882 0.0838928
-0.03367 -0.0239169 0.708892
-0.104887 0.0228744 0.0274151
-0.0171547 -0.00434172 0.617712
-0.0001721 0.114703 0.0172418
0.0333138 -0.0206551 0.257706
0.0380151 -0.0586326 0.415905
-0.0264148 -0.0887063 0.414842
-0.0320644 -0.0218326 0.492811
-0.0372077 -0.0304291 0.258746
0.0742487 0.0218931 0.0485278
0.0024943 0.00244929 0.718292
0.00142538 0.0618709 0.0537307
0.0112035 -0.061891 0.797945
-0.0359064 -0.0451265 0.773785
-0.0711418 -0.068377 0.395218
-0.0447306 0.0187079 0.143996
-0.0333001 -0.0657707 0.347959
-0.0142035 -0.00257376 0.617667
-0.0655717 -0.070171 0.394402
0.0972702 0.0211143 0.0840095
-0.0205025 -0.0146185 0.191175
0.101216 0.01314 0.117237
0.00917495 -0.010889 0.197185
-0.0376863 -0.0319678 0.644363
-0.174662 -0.0403784 0.292574
-0.105337 -0.0983873 0.392794
-0.0249511 -0.0146844 0.790343
-0.0319121 -0.0420744 0.110895
-0.00363811 0.0415384 0.114101
0.171447 0.0227519 0.0553796
0.0280612 -0.0170809 0.178381
0.142768 0.0178654 0.0600013
0.0156247 0.0133922 0.0984232
0.0632214 -0.0594885 0.338501
0.00232373 0.0883545 0.0674763
-0.00473367 0.0191839 0.125084
-0.027687 -0.0223474 0.824099
0.189698 -0.0487281 0.268532
0.179087 -0.0753134 0.357202
0.0526035 -0.0473625 0.39186
0.104709 -0.0556636 0.380833
0.109413 -0.0930258 0.399332
-0.0106244 -0.0667818 0.398033
-0.0371624 0.0203602 0.0933195
0.0800621 0.0192593 0.130026
-0.154859 -0.042929 0.321343
-0.163814 -0.0530909 0.308635
0.0578323 -0.0745795 0.401084
-0.16813 -0.0596167 0.354121
-0.100754 -0.0637394 0.356776
-0.115509 -0.05411 0.300349
0.00892756 -0.0668485 0.21926
-0.0998192 -0.0666323 0.338453
-0.00183041 -0.0669765 0.331022
0.0232432 -0.014787 0.821227
-0.00435231 0.000511383 0.623788
-0.0282295 -0.056983 0.658844
0.0400994 0.0205255 0.082239
-0.0163125 -0.0633669 0.661298
0.0270458 -0.0139894 0.550671
-0.0138496 -0.0647144 0.588138
0.162515 0.0215149 0.0271733
0.0180345 -0.00206618 0.722325
-0.0326739 -0.022454 0.673196
0.131397 -0.0587281 0.326098
0.0358723 -0.084704 0.377204
0.0280121 0.0199873 0.0989806
0.0933127 -0.0866351 0.415631
-0.0999104 -0.0679855 0.342364
0.00180351 0.0216696 0.0729193
-0.00736788 -0.0666284 0.509318
0.101044 -0.0461548 0.352334
-0.0299792 -0.0201128 0.151783
-0.0364874 -0.0286342 0.52395
-0.14526 -0.0472054 0.338309
-0.0344082 -0.0407941 0.816046
0.0735881 0.021897 0.0481811
0.0245104 -0.0606728 0.709185
0.0025065 -0.000607752 0.581562
-0.0223267 -0.0603991 0.608554
-0.015205 -0.0555926 0.838649
0.0294686 -0.0581069 0.650853
-0.0206465 -0.014206 0.472188
0.0344822 0.0198564 0.105783
-0.0233945 -0.0592514 0.72683
0.0367815 -0.0626483 0.319902
-0.0389712 -0.0405099 0.384718
0.00611668 -0.0669619 0.283688
0.0254606 -0.0658427 0.313361
0.0155486 -0.0120696 0.341149
0.0832943 -0.0561254 0.329487
0.146547 0.0178027 0.0618751
0.00401163 0.0213925 0.0581446
0.015802 -0.0654342 0.574421
-0.0218881 -0.0693555 0.359269
0.087068 0.0207174 0.0970407
-0.018771 -0.0664127 0.267985
0.00775909 -0.0600777 0.825123
-0.0055844 -0.0105214 0.265723
0.0301054 -0.0569434 0.437552
-0.138768 -0.0572209 0.332469
0.0602402 -0.0727809 0.409492
-0.218305 -0.0439009 0.250314
-0.217698 -0.0425705 0.228041
-0.00218732 0.0606879 0.0662663
-0.0312338 -0.0465006 0.414018
-0.0903791 -0.0481025 0.375743
-0.0313673 -0.0517682 0.780926
-0.0254764 0.018511 0.148375
-0.0248752 -0.0592874 0.677466
-0.0991364 -0.0822062 0.37103
-0.0808995 0.0120241 0.112376
-0.0352294 0.0202404 0.0976044
-0.034989 -0.0622747 0.375717
0.034064 -0.0210308 0.127388
0.101322 -0.0773735 0.378944
-0.00311043 -0.066521 0.574838
-0.145233 -0.053421 0.341765
-0.00477227 -0.0639806 0.759945
-0.00338045 -0.0669765 0.347151
-0.108426 0.022037 0.0545101
-0.0135768 -0.0666341 0.431299
0.0217016 -0.0662684 0.335118
-0.0366782 -0.0291904 0.594103
0.0287744 0.019987 0.0992104
0.184989 -0.0406745 0.278111
0.169319 -0.0602201 0.329227
-0.030655 0.0180791 0.15643
-0.142076 -0.0485555 0.293241
0.0745878 -0.0542814 0.402235
-0.20991 -0.0389674 0.276302
-0.169959 -0.0705071 0.331445
0.021673 0.00905774 0.135338
0.0956856 -0.0636455 0.328725
-0.0379081 -0.0329483 0.33223
0.0952454 0.020847 0.0965795
0.174696 0.0234227 0.0230885
-0.0227682 0.0179619 0.0695326
0.167425 -0.0748501 0.323631
0.0146966 0.0198517 0.100214
0.0823859 0.0207324 0.0395915
-0.0361947 -0.0613868 0.357392
0.0138562 0.00880993 0.136985
0.09533 0.0214911 0.0658977
0.0114864 -0.0668919 0.280172
0.024495 -0.0612453 0.655259
-0.0248873 -0.0168108 0.125039
0.0103197 -0.0109692 0.249467
0.144579 0.0223338 0.0564782
-0.108037 -0.097073 0.41256
0.0315798 -0.018758 0.5111
-0.0378189 -0.0332116 0.763466
0.147667 -0.05756 0.306977
-0.0370515 -0.0300727 0.259315
0.0319334 -0.0213317 0.796222
-0.0944919 -0.0794846 0.399966
0.0678283 0.0201083 0.112745
-0.0447456 0.0203484 0.0974922
-0.0304845 -0.0256848 0.816676
-0.100126 0.0183637 0.126069
-0.00277319 -0.0141241 0.107086
-0.0275962 -0.0577714 0.383893
0.020164 -0.0618389 0.733394
-0.0350253 0.0159454 0.0803609
-0.0150973 -0.0632561 0.712926
0.0022646 0.0164124 0.0835475
0.0135863 0.0217476 0.0509185
0.0170099 -0.0665638 0.446938
-0.10426 -0.10912 0.413502
-0.028425 -0.0602371 0.389057
0.0279754 -0.0588337 0.131789
0.165232 0.017432 0.0761526
-0.0593028 -0.0708393 0.332879
0.0157193 0.0155591 0.176439
0.0171191 0.0157079 0.0834838
-0.141857 0.0223614 0.0611287
-0.0159841 -0.0128137 0.132058
0.0997193 -0.0626384 0.319
0.0411253 -0.0476785 0.559917
0.00278573 0.00884934 0.135662
-0.117102 -0.0592503 0.295992
-0.070745 0.0193965 0.0524588
-0.0137027 0.0180914 0.156751
-0.00411948 0.0185603 0.118535
-0.143244 -0.05079 0.28228
-0.186748 -0.0392663 0.286206
-0.0363161 -0.0794007 0.388714
0.00521847 -0.0661675 0.682138
-0.0122096 -0.0118749 0.360078
-0.108035 0.0206594 0.104764
0.03803 -0.0264539 0.739583
-0.03176 -0.0771006 0.388848
0.187645 -0.0532505 0.286736
0.136476 0.0181036 0.055079
-0.0345541 -0.025183 0.215137
-0.0205044 -0.0481416 0.85949
-0.0264093 -0.0147851 0.629497
-0.123082 -0.0514331 0.302498
-0.0292505 0.0211403 0.0830367
-0.189005 -0.052148 0.281496
-0.0230378 -0.0145692 0.497472
-0.0234777 -0.0556299 0.35504
0.0996947 -0.0730269 0.381588
-0.0620583 0.0201868 0.0491297
-0.0117364 -0.0668099 0.231155
-0.00207532 -0.0645541 0.748997
0.00721754 -0.0151795 0.104546
-0.00816438 -0.0259149 0.886159
-0.00417986 -0.0510644 0.877089
-0.0975513 0.0130745 0.104611
-0.0233197 -0.0656662 0.362688
0.176058 0.0229092 0.0506581
0.0125888 -0.0115216 0.180915
0.236306 -0.0410391 0.242216
-0.0388605 -0.0602795 0.425233
-0.0837687 -0.0609013 0.308894
-0.184155 0.0206712 0.0354894
-0.00109234 0.00692899 0.155632
-0.169961 0.022572 0.0634913
-0.0240867 -0.0532704 0.395149
-0.150472 -0.0477714 0.286737
0.12221 -0.0584509 0.292272
-0.0331733 -0.0306656 0.113477
0.00141735 0.0367472 0.0609083
0.132527 0.0199604 0.0436664
-0.00509347 0.0192651 0.122137
0.0319962 -0.0239188 0.113149
-0.0344079 -0.0614532 0.281576
0.0370694 -0.0595317 0.404237
-0.0491926 -0.0785908 0.383316
0.0975699 0.0196691 0.0488757
-0.176458 0.0229906 0.0521415
0.102182 -0.0872021 0.411637
-0.158189 -0.0535301 0.286926
-0.191378 -0.0474651 0.248513
0.0131833 -0.0114818 0.379123
0.0148986 -0.0417225 0.897382
0.131423 -0.056923 0.285383
0.0389977 -0.0282244 0.726011
-0.00150514 0.0853666 0.0851347
0.0202369 -0.0621435 0.125452
-0.0356939 -0.0426884 0.792838
-0.0651679 0.0213915 0.0616647
-0.0305775 -0.0627578 0.35924
-0.0197907 -0.066244 0.228103
-0.00053382 -0.00922963 0.425251
-0.0236002 0.0192894 0.12901
-0.020969 0.0182679 0.153153
-0.0986154 -0.0710819 0.388877
-0.12741 0.0230483 0.0273788
0.0512228 0.0173695 0.0691338
0.13536 -0.0577567 0.341703
0.00108033 0.0855781 0.0400098
-0.236838 -0.0354785 0.243327
0.011484 0.0221282 0.044698
-0.00488286 -0.0567705 0.850459
-0.0268112 -0.0385333 0.857262
0.0675599 0.010666 0.134829
0.0239031 -0.0261255 0.860998
-0.143474 0.0228366 0.0366108
-0.0185971 -0.0330385 0.881837
0.00163505 -0.065139 0.735182
0.235256 -0.0357232 0.242751
-0.0366243 0.0185488 0.147291
-0.167888 -0.0674016 0.341942
-0.15038 -0.0498169 0.33773
-0.171904 0.0218953 0.0757717
-0.0957776 -0.0631492 0.320162
-0.0304067 -0.028275 0.828316
0.0351923 -0.0222114 0.309706
-0.0659796 -0.0489218 0.390927
0.00106259 0.0447456 0.0515829
-0.0941233 0.0145693 0.134068
7.10322e-05 0.0473021 0.132721
0.13105 -0.0587841 0.331326
-0.0375038 -0.0311356 0.655556
-0.180735 0.0197265 0.0468848
0.0281919 -0.0149984 0.560532
0.0468633 0.0208788 0.0713016
0.0619863 -0.0687195 0.311905
0.0227652 -0.0195916 0.106929
-0.0533616 -0.0706371 0.341244
-0.186702 -0.0542113 0.274486
-0.0320497 -0.0619751 0.39773
-0.0993644 -0.0633847 0.379478
-0.0214664 -0.0150045 0.305291
0.150462 0.0202717 0.0915909
-0.00475263 -0.00960403 0.427349
-0.0635677 0.0177408 0.064038
0.119052 -0.0605273 0.354136
-0.0919887 0.0169631 0.135049
-0.0147977 -0.00213966 0.641428
-0.0267769 -0.0178042 0.149066
0.121951 0.0224452 0.0403167
-0.150928 -0.0534172 0.265546
0.0417717 -0.0407604 0.464454
0.0961474 -0.0481672 0.372715
0.0462861 -0.0761648 0.331969
-0.100565 -0.0757674 0.379956
-0.0318423 -0.0217286 0.34466
0.0221513 -0.0659521 0.193935
-0.14798 0.0224231 0.0618023
0.0113873 0.000808171 0.674336
-0.0234201 -0.0160626 0.364169
-0.0180681 0.00842891 0.142378
0.10303 0.0216422 0.0633253
0.0281402 -0.013281 0.645539
-0.00280479 -0.015784 0.854166
-0.0346873 -0.0254033 0.645689
0.21173 -0.0437252 0.280069
-0.0337382 -0.0239763 0.315974
-0.00200961 -0.0101024 0.1975
0.0411544 -0.035354 0.169118
-0.169768 -0.0633329 0.31784
-0.0377728 -0.0327222 0.744226
0.0372467 -0.0560572 0.491807
-0.0877767 0.0121471 0.113358
0.0261843 0.0207131 0.0731559
0.153943 -0.0537093 0.278849
-0.030021 -0.053812 0.754209
-0.026382 0.00833009 0.166452
0.15298 -0.0503968 0.271785
0.0659135 0.014614 0.0851
-0.0265325 -0.080238 0.32249
-0.00656845 -0.0668646 0.22305
-0.162877 -0.0531936 0.293233
0.0749693 -0.0501046 0.3633
-0.0517212 -0.0769995 0.405679
-0.0384425 -0.079398 0.328034
-0.0323768 -0.0470517 0.810294
0.0167995 -0.0667181 0.303267
0.0195402 -0.0555343 0.108555
-0.00985546 -0.00988295 0.468245
0.0431665 -0.0815062 0.376399
-0.00721018 0.00111354 0.677175
0.0142555 -0.0404018 0.899601
0.0135393 -0.0665709 0.479218
-0.00221607 -0.01006 0.15243
0.175783 -0.0822688 0.339658
0.0176833 0.00856948 0.139566
-0.0235748 0.021753 0.0811253
-0.0935075 -0.0639407 0.33025
0.000246347 0.114703 0.044563
-0.0248499 -0.0617333 0.325607
0.104894 -0.0630447 0.340669
-0.0365761 -0.0288221 0.512624
0.0975338 -0.064438 0.357305
-0.011339 0.0222973 0.0444103
-0.0917389 0.0223907 0.0409011
0.0408131 -0.0441632 0.594611
0.0384946 -0.0270279 0.566292
0.000557057 0.0909227 0.0264205
0.0147898 -0.0641147 0.713058
0.104779 -0.0962715 0.369611
-0.0892955 0.0166694 0.0684052
-0.0430894 -0.0770969 0.340548
0.0717253 0.0207754 0.0413405
-0.0351271 -0.026031 0.363003
0.170489 -0.0573046 0.35723
-0.0281037 -0.0180745 0.495383
-0.0368599 -0.0450506 0.74245
0.169049 -0.0637397 0.337254
0.165795 0.0227107 0.0531313
-0.0140099 -0.0122808 0.414023
-0.113232 0.0197391 0.0426238
-0.143621 0.0193705 0.0456716
-0.193515 -0.0458402 0.29727
0.0122925 0.0188489 0.137783
0.0241529 -0.0149724 0.350142
-0.0250844 -0.0628745 0.551983
-0.104127 -0.0919232 0.373251
0.104956 0.0215546 0.0681511
0.00869228 -0.010488 0.343364
-0.00461376 0.00150677 0.680512
0.0265761 -0.052992 0.826159
0.0290778 0.0218118 0.0479156
0.235542 -0.0377806 0.230253
0.0520334 -0.0473622 0.391493
0.0390309 -0.0524793 0.168184
-0.0159178 0.019762 0.10773
0.0412831 -0.0538865 0.227089
-0.0388376 -0.0371081 0.524695
0.152239 0.0168601 0.0881501
0.0226761 -0.0131763 0.484442
-0.00378872 0.0442718 0.105221
0.00414405 0.0192512 0.11974
-0.0281581 -0.075254 0.336923
0.0842258 -0.0666991 0.306038
-0.0591964 -0.0531815 0.364802
-0.028955 -0.0642641 0.231679
0.0523276 0.020872 0.0727542
0.0273331 -0.0127433 0.615519
-0.00156079 0.0938063 0.0440243
0.00824745 -0.0669734 0.385645
-0.00435623 -0.0665852 0.542204
0.0302408 -0.0648177 0.430242
0.0248573 -0.00901445 0.741255
0.0414479 -0.0530886 0.26896
-0.0284377 -0.0584508 0.313186
0.0476701 -0.0792755 0.396833
-0.0972784 0.0210987 0.0909945
0.217307 -0.0409268 0.236617
0.0163851 -0.0666441 0.393835
-0.0201639 -0.0143787 0.144722
-0.029122 -0.0194756 0.355863
0.0358115 -0.0624089 0.342281
-0.00120385 0.0139241 0.169126
0.00784764 0.000149582 0.611626
-0.0232157 -0.0646411 0.373056
-0.000911408 0.0278842 0.0499163
0.0166612 -0.0123074 0.324638
-0.0157223 -0.00256071 0.680323
-0.04758 0.0199716 0.113073
0.16815 -0.0713663 0.340393
-0.0786422 -0.0673675 0.378461
-0.14456 0.0223678 0.0624715
0.193874 -0.0418236 0.261648
-0.0292929 -0.0180341 0.736467
0.140881 -0.0553915 0.279013
-0.031463 0.020054 0.103133
0.0372198 -0.025034 0.458291
-0.0022884 0.061098 0.0682897
0.0411262 -0.0353434 0.211668
-0.0282337 -0.0566137 0.706019
-0.153339 0.0220795 0.0745282
0.0864745 0.0226353 0.0288186
0.108062 -0.0930051 0.415935
-0.14685 -0.0547721 0.275849
0.0358429 -0.0535293 0.602214
0.0289192 0.00954145 0.131432
-0.0260254 -0.0725099 0.357085
-0.0310195 -0.0638369 0.306261
-0.0133178 -0.0120167 0.430643
0.0220305 -0.013864 0.14363
0.0327535 -0.0614304 0.162927
0.136192 0.0223984 0.0476589
0.0603408 -0.0733838 0.373677
0.173154 -0.0724567 0.342903
0.0333425 -0.0689245 0.446069
-0.0456935 -0.0506852 0.415986
0.0391881 -0.028514 0.433466
-0.083834 -0.065602 0.338825
0.0926296 0.0121547 0.112449
0.0392178 -0.0574089 0.421588
-0.00502994 -0.0660793 0.656819
-0.0711759 0.0156113 0.149485
-0.0356675 -0.0590596 0.350583
-0.0199773 -0.0207229 0.845624
0.0415017 -0.0545466 0.305367
-0.0325072 -0.0619723 0.267795
0.0016232 -0.0628065 0.800755
0.0302954 -0.0182913 0.374934
6.21942e-05 -0.0539587 0.864359
0.040419 -0.0318209 0.66233
0.0302995 -0.0645388 0.185072
0.0257969 -0.0144406 0.807421
0.133977 -0.0582642 0.320424
0.0820652 -0.0653217 0.326893
-0.0383178 -0.0424246 0.593735
-0.0275417 -0.0156464 0.714347
-0.0276301 0.0105352 0.177354
-0.0257484 0.00799242 0.163541
0.196035 -0.0472045 0.259119
-0.173091 -0.0901807 0.334959
0.0379396 0.021868 0.0458662
-0.163354 -0.0530727 0.291589
-0.00771779 -0.00489572 0.512464
-0.0372531 -0.030441 0.333483
-0.148613 -0.0565119 0.284828
0.0190914 -0.0154426 0.836171
0.034782 -0.0636818 0.226372
0.0395208 0.022305 0.0382315
-0.0021733 -0.0636782 0.1187
-0.0388816 -0.0392573 0.296734
-0.0341571 -0.0793909 0.441371
0.00241057 0.0541308 0.0775304
-0.0241407 -0.0610416 0.352024
0.0320877 0.0121666 0.107123
-0.00481882 -0.0505715 0.0884413
0.00109217 0.0705245 0.0446385
-0.0371695 -0.0433144 0.356502
-0.139072 0.0169364 0.0684978
0.0109151 -0.00289708 0.549948
0.0401952 -0.0612633 0.252599
0.0118219 0.018211 0.0680958
-0.0278376 -0.0184584 0.342526
-0.0332036 -0.0232473 0.624133
-0.025114 -0.0588632 0.128616
-0.00366595 0.0365682 0.120819
-0.0363881 -0.02823 0.160197
-0.0979099 -0.104809 0.374801
-0.240769 -0.040059 0.230564
0.166326 -0.0527843 0.294639
-0.0320763 -0.0637639 0.443174
0.156533 0.0198366 0.0914872
-0.104626 -0.109493 0.41218
-0.0313975 0.0223872 0.0413314
-0.0320867 -0.0583503 0.27413
0.0236912 -0.0144565 0.459577
-0.168191 -0.0609698 0.336157
0.00305257 -0.0663734 0.660583
0.0405611 0.0156053 0.163607
-0.0116024 -0.0667644 0.210964
0.0730438 -0.0484305 0.373533
0.00223301 -0.0100294 0.136279
-0.0191857 -0.0140912 0.218815
-0.0365589 -0.028948 0.651577
0.0412621 -0.036427 0.25526
0.100196 -0.0650107 0.393015
-0.138332 0.0224054 0.0562683
0.029423 -0.0827999 0.445046
-0.0823248 0.0206446 0.102024
0.00754158 0.0106647 0.119072
-0.0385231 -0.0349398 0.450837
0.0280802 -0.0361733 0.863587
0.0340325 -0.0561353 0.565601
-0.099295 -0.0638578 0.365173
0.17284 0.0209855 0.0316271
0.114094 -0.0605866 0.315248
-0.0909389 0.012552 0.123342
0.101473 -0.0736485 0.381773
0.14324 0.0171943 0.100324
0.0513388 -0.0734549 0.319557
0.228601 -0.0387236 0.234159
-0.0381023 0.0145049 0.17071
0.0318527 -0.0489692 0.823953
0.18407 -0.0453824 0.256906
-0.18291 0.0238378 0.0143717
-0.116452 -0.0607255 0.324487
0.0242824 -0.0132503 0.509058
0.0184165 -0.063642 0.664393
-0.216535 -0.0396068 0.24558
-0.0385784 -0.0375918 0.192111
0.0372078 -0.0501846 0.698145
-0.000955148 -0.0611069 0.112543
-0.0903291 -0.0640193 0.323673
0.000957368 0.0691961 0.0423704
0.0274461 -0.0654327 0.345216
0.00866652 -0.0103464 0.40926
-0.00566854 -0.0444951 0.0748916
0.00173661 -0.0668423 0.217816
-0.0460122 0.0116972 0.165808
0.0290188 -0.0649258 0.454623
0.189689 -0.0490363 0.273893
0.0377025 -0.0261382 0.754503
0.0228776 -0.0153478 0.825579
-0.21574 -0.0408069 0.240272
0.039301 -0.0287412 0.482648
0.017914 -0.0570075 0.830724
-0.020992 0.019333 0.061055
0.0444457 0.0113043 0.116262
-0.00407976 -0.0103803 0.292784
0.0631809 0.0193421 0.127606
-0.00727694 -0.0383931 0.0639928
0.0305205 -0.0301724 0.847001
0.203105 -0.0381051 0.27055
0.0209405 0.0202961 0.0853062
0.0108134 -0.0669105 0.288516
0.0281121 -0.0628718 0.533598
0.000871352 0.0340381 0.0509414
0.0832778 -0.0611168 0.309387
0.0277683 -0.058959 0.131539
0.00183248 0.0746874 0.0603453
-0.00175732 0.0101269 0.0743012
0.0289128 -0.0155118 0.570787
-0.187264 -0.0402572 0.293587
-0.00296658 0.0571235 0.10456
0.0341685 -0.079715 0.442393
0.0448163 0.0118444 0.111236
-0.172726 0.0209245 0.0324758
-0.162609 -0.0478796 0.272034
0.0859103 -0.0544155 0.333506
-0.0389566 -0.0390505 0.568276
-0.0368597 -0.0305884 0.121444
-0.0753748 -0.0620026 0.314064
-0.00259054 0.0519686 0.0771546
0.17135 -0.0627036 0.346117
-0.0161192 -0.0665251 0.424608
0.0856636 -0.0682291 0.324459
0.0050377 -0.0669079 0.235025
0.00632671 -0.0574412 0.845205
0.167189 -0.0649629 0.360388
0.0117143 0.00660798 0.15742
0.105379 -0.0469895 0.363531
0.105472 -0.0898972 0.411612
0.103429 0.0196606 0.0485995
-0.0378905 -0.0342088 0.760036
0.0999673 -0.0822142 0.373059
0.0289905 -0.0617809 0.529549
0.0351877 -0.0221838 0.449372
-0.0311224 -0.0514611 0.295135
-0.0359443 -0.0275458 0.621777
0.0253413 -0.0657192 0.402579
-0.0232321 -0.0602856 0.657713
0.102515 -0.0857332 0.3771
0.0684867 0.0141409 0.0907737
0.0647315 0.0207055 0.084183
-0.027196 -0.0648656 0.4203
-0.0987301 0.0144202 0.127262
-0.0169594 0.0218184 0.0464174
-0.00385011 0.00990736 0.15986
-0.0260198 -0.0136645 0.703462
0.0235487 -0.0605216 0.735981
0.0390787 -0.0283131 0.39093
0.000921963 0.0943097 0.0343398
0.0930785 0.018454 0.126872
-0.0319926 -0.0405626 0.829696
-0.140544 0.0180734 0.0577801
0.0550969 -0.0507273 0.407279
-0.0794052 0.0211287 0.0823125
0.00268597 0.00773842 0.180877
0.00494225 -0.0665528 0.612841
0.159389 0.0169838 0.0729798
-0.0666373 0.013677 0.0954999
0.0417677 -0.0396983 0.457243
-0.0382803 -0.0513894 0.215443
0.0165963 -0.0659951 0.166823
0.00147548 -0.0669765 0.295977
0.00445839 0.0158358 0.132658
-0.0300725 -0.0203369 0.774997
-0.0204528 -0.0482171 0.098474
0.0327054 -0.070866 0.335083
-0.0947478 0.0225289 0.0370335
0.0211116 -0.0662656 0.423014
0.0201767 -0.0432914 0.0874186
-0.0387093 -0.0374569 0.300652
0.0410806 -0.0353603 0.270446
0.00278099 -0.0175924 0.860724
0.0374193 -0.0803474 0.340112
-0.0624562 -0.0671002 0.34762
-0.0787626 -0.0492757 0.361503
0.0241977 -0.0658538 0.411004
0.131954 -0.0570079 0.288255
-0.0374439 -0.031698 0.746547
-0.186568 -0.0530111 0.26587
-0.00283269 -0.0101166 0.165087
-0.0230699 -0.0158726 0.229741
-0.100657 -0.0792008 0.387207
0.0227026 -0.0143916 0.323629
-0.153484 0.0227431 0.049046
-0.0192693 -0.0641925 0.160855
-0.00140639 -0.0666486 0.590692
0.0165739 -0.0112713 0.469733
0.146142 0.0209999 0.0331221
-0.0466408 0.00922212 0.146221
0.0405983 -0.0833021 0.411498
0.00898767 -0.0665855 0.511678
-0.100227 -0.0645792 0.369658
-0.0384972 -0.0398801 0.670707
0.00361252 0.045821 0.104912
-0.00476969 -0.0669765 0.316866
-0.0752766 -0.0658783 0.322589
-0.147808 -0.050383 0.278602
-0.0654434 0.0217012 0.0544357
0.0403817 -0.0312715 0.492943
-0.0344705 -0.046243 0.320984
0.00949363 -0.00183002 0.569133
0.0164593 -0.0666466 0.383194
0.0226211 -0.0116156 0.807501
-0.166015 -0.0929348 0.343125
0.0273064 -0.0551959 0.802954
0.000696324 -0.0669765 0.358574
0.0548648 -0.0481944 0.396619
-0.0121177 -0.064798 0.643309
0.0214138 -0.00535788 0.636618
-0.0564465 -0.0631208 0.333361
0.0344313 0.0194965 0.121097
-0.159766 0.022114 0.0204713
0.0629157 -0.0544757 0.410498
0.0166514 0.0190042 0.133286
-0.0353149 0.00986938 0.129694
-0.166797 -0.0526117 0.305241
-0.00295702 0.0480491 0.117959
0.0101237 -0.0562707 0.103233
0.00314228 0.018726 0.101488
-0.0242426 -0.0619588 0.367947
-0.00687654 -0.0344367 0.0574609
-0.0268703 0.00867228 0.167847
2.93736e-05 0.0186587 0.165367
0.00298826 0.0271987 0.143934
0.182105 -0.0491614 0.259656
0.104108 -0.0865292 0.389507
-0.0523919 0.0139644 0.0921183
0.0232265 0.0132091 0.0987557
0.161031 -0.0792656 0.360642
-0.0199108 -0.00765124 0.597346
-0.166509 0.0210716 0.0827272
0.0734584 -0.0682775 0.388312
-0.0970745 -0.0848965 0.388528
0.0410892 -0.0348792 0.618206
-0.0961864 -0.0503702 0.337684
-0.00361181 -0.0635386 0.773309
0.20934 -0.044905 0.280401
-0.132817 -0.0583069 0.318801
0.0417377 -0.04001 0.348874
-0.00219015 0.089006 0.0594979
-0.162699 -0.0527129 0.28207
0.0365154 0.0195248 0.120949
0.0414942 -0.045054 0.515739
0.0871664 -0.0659485 0.352802
-0.188098 -0.0520403 0.237828
-0.0283741 -0.0641481 0.180982
-0.187313 -0.0392318 0.285579
-0.0293433 -0.0195642 0.142811
0.018611 0.0102654 0.123765
0.0792887 -0.0661729 0.336763
-0.100504 -0.0996893 0.37292
0.101271 0.0131392 0.103975
-0.23983 -0.0404066 0.237216
0.00686085 0.0108674 0.1907
-0.0221824 -0.0600338 0.371822
-0.00417701 0.0225221 0.118672
-0.0346092 -0.0619361 0.314206
-0.151381 -0.0425352 0.308247
0.170439 -0.056401 0.300344
-0.123531 -0.0588923 0.357437
0.108079 0.0161641 0.0738538
0.0214426 -0.0618967 0.128443
0.00343655 0.0145462 0.109855
0.0254386 -0.0156568 0.270974
-0.0346719 -0.045189 0.382663
0.017831 -0.00198477 0.698257
-0.144584 0.0227602 0.041797
0.0444964 0.0209146 0.0456424
-0.0532806 -0.0727946 0.315797
0.0298402 -0.0650232 0.30296
-0.00874323 -0.00947854 0.825015
0.0173982 -0.0666126 0.224967
0.14652 -0.0464404 0.297188
0.0131058 -0.0667838 0.38827
0.00116208 0.0625112 0.0483558
0.101597 -0.0728582 0.386604
0.0276602 -0.0883572 0.426218
-0.0377992 -0.0430344 0.718617
0.0412442 -0.0394736 0.685634
-0.0176147 -0.013462 0.244444
-0.0380345 -0.0539509 0.204865
0.0162948 -0.0122237 0.35112
0.0916757 0.0157145 0.0755627
-0.203448 -0.0461906 0.283969
-0.136233 -0.0487706 0.347703
-0.0507781 0.0214171 0.0596321
0.0586381 -0.0603877 0.339717
0.113143 -0.0617576 0.348411
-0.0441103 -0.0803667 0.386089
-0.0258184 -0.0173148 0.161457
-0.0166642 -0.0624071 0.124919
-0.00199904 -0.0660475 0.693015
0.0413378 -0.0452236 0.223222
0.164084 -0.0456644 0.322284
-0.0364971 -0.0793792 0.388634
0.0197078 0.0117461 0.109994
0.0238804 0.0188713 0.138868
-0.0480925 -0.0591966 0.354403
-0.0483181 0.0199757 0.0527917
-0.173309 -0.0499255 0.252357
-0.00623055 -0.00465318 0.513241
0.015469 -0.0630916 0.742103
0.0332481 -0.0518989 0.11898
-0.00330785 -0.0668651 0.204437
-0.0349852 -0.0493169 0.708196
0.065511 0.0122636 0.109094
0.0174113 -0.0124677 0.201222
-0.0331768 -0.0231452 0.261493
0.085364 -0.0679128 0.309753
0.0185096 -0.0634416 0.692157
-0.0336341 -0.0585185 0.385681
0.0191094 -0.0622262 0.731922
-0.0287295 0.00930176 0.134702
-0.0333255 -0.0619946 0.388175
