-0.19904 -0.0441689 0.244328
-0.0275694 0.00983792 0.129627
-0.0298334 -0.0489351 0.350939
0.0415507 -0.0437339 0.224078
0.0153841 -0.0667554 0.266287
0.0272785 -0.0647881 0.526761
-0.0302389 -0.0808489 0.318212
0.0517075 0.0205422 0.0849833
-0.165005 0.0189237 0.0516674
0.0141937 -0.0654122 0.599523
0.0385266 -0.0271254 0.296586
-0.151883 0.0178447 0.0943972
-0.00700133 -0.0499905 0.878452
0.16346 -0.0750065 0.365246
-0.0378854 -0.0441359 0.58061
0.0259141 -0.0123872 0.563311
0.000272176 0.113777 0.056771
-0.0623438 -0.0714233 0.375006
0.117918 0.0209659 0.0351756
0.0383705 -0.0283908 0.777153
-0.105173 -0.0973782 0.388207
-0.0336796 -0.0238896 0.545693
-0.0212807 0.0217138 0.0463393
0.00397356 0.0321224 0.118264
-0.00610695 -0.0636669 0.76632
0.0197184 -0.0130342 0.129754
0.0402835 -0.0312089 0.256685
0.038265 -0.0488805 0.637315
-0.0872073 -0.0502383 0.384031
0.0328868 -0.0571355 0.555304
-0.00330917 0.0420794 0.0950224
0.00248489 -0.00923446 0.429187
-0.0294029 -0.0190735 0.768067
-0.152822 -0.053936 0.281316
0.0417815 -0.0412064 0.478263
-0.0321773 -0.0217389 0.653531
0.0394916 -0.0458806 0.727289
-0.101141 -0.0530529 0.321133
0.103149 -0.0459631 0.351123
-0.0322944 -0.0535444 0.379625
-0.013603 -0.0122453 0.274845
0.0181225 -0.0104972 0.492062
0.0313585 -0.0219338 0.812245
0.0607182 -0.0486864 0.395325
0.101696 0.0142751 0.0933744
0.00617258 -0.00328428 0.808276
-0.00444015 0.00676158 0.161312
0.0186045 -0.0127505 0.371581
-0.048507 -0.0688963 0.43184
0.0273471 -0.0702546 0.341484
0.00365928 -0.0669749 0.395832
-0.0208635 -0.0613959 0.137611
0.0750197 0.0185474 0.0590025
-0.0837185 -0.0643547 0.28716
0.132008 -0.0586252 0.325726
-0.167444 0.023261 0.0313609
0.0206713 -0.0663646 0.228284
-0.15958 -0.081098 0.347916
-0.0952129 -0.064026 0.33634
0.181353 -0.0448338 0.262524
0.170528 -0.0591411 0.308056
-0.025996 -0.06499 0.22809
0.160763 -0.0844292 0.35395
0.0275123 -0.0479015 0.397424
-0.057712 0.00976916 0.135142
-0.0363017 -0.0283466 0.180252
0.0174368 0.0199839 0.0960353
-0.0327007 -0.052505 0.701706
-0.022506 -0.0194292 0.833301
-0.0250436 -0.0654269 0.246854
0.03115 0.0222625 0.0396807
0.0204322 -0.025563 0.867716
-0.0276511 -0.0175046 0.50988
-0.0388476 -0.0446241 0.47041
0.215617 -0.0417306 0.235241
-0.025825 -0.0173671 0.377192
-0.0598236 0.0178933 0.0637708
0.0451648 0.00999274 0.156618
-0.048951 -0.0651402 0.354961
-0.063374 -0.0503031 0.399832
-0.0132747 -0.0665822 0.462794
-0.0383199 -0.0596145 0.323401
-0.036263 -0.0389028 0.793019
-0.000873117 0.0520739 0.0414956
-0.0121804 -0.0667679 0.275768
-0.00713586 -0.0666709 0.502362
0.0159493 0.0207241 0.0712336
-0.0933961 0.0140315 0.0934296
0.0244061 -0.00903719 0.757787
0.037434 -0.0513641 0.603126
0.099718 -0.0755483 0.380675
-0.0311874 -0.0604771 0.517083
-0.0174265 -0.0285555 0.0818279
0.110735 -0.0616505 0.327875
0.0143099 -0.000762223 0.627199
0.00291034 0.0068049 0.108058
0.000285556 0.038845 0.141454
0.0413499 -0.0568159 0.374418
-0.0232352 -0.0758799 0.386785
-0.0444814 0.00938081 0.15387
-0.0373582 -0.0548491 0.189721
0.0324973 -0.0407011 0.841972
0.0122408 -0.0653568 0.661474
0.137743 -0.0473328 0.303549
-0.105189 -0.106577 0.415666
0.01504 -0.039119 0.899154
0.0314359 0.0183713 0.147946
-0.0382508 -0.0343929 0.37005
-0.0133036 -0.0645702 0.634471
0.0193594 -0.0129255 0.152913
0.0412582 -0.0353944 0.511445
0.0908226 -0.0476969 0.355219
0.0394819 -0.0292648 0.333028
-0.0867427 0.0210419 0.088722
0.0126816 -0.00175099 0.588287
-0.139666 -0.0571419 0.312979
-0.024498 -0.0482189 0.847217
0.00284692 -0.00997278 0.229039
-0.0388479 -0.0418989 0.243639
-0.0128886 -0.000851899 0.742228
-0.0653625 -0.0683532 0.332021
0.00721668 -0.06696 0.437505
0.0268963 -0.0162679 0.44772
0.0470187 -0.0500875 0.412742
0.0487273 -0.0744543 0.429206
0.0684351 0.0203919 0.0997951
-0.0083828 -0.0648908 0.712693
-0.00359769 -0.0666808 0.172989
0.119479 0.0180518 0.116274
0.0303582 -0.064655 0.458743
0.0422762 -0.0785919 0.343098
0.110204 -0.0964518 0.401108
-0.0128805 -0.0378948 0.901107
0.12694 0.0170276 0.0671614
0.033734 -0.0557356 0.587774
-0.185913 0.0201304 0.0434288
-0.0369296 -0.0297468 0.314721
0.00342147 0.0452483 0.109812
-0.0226584 -0.0156729 0.125403
-0.00214894 0.0293974 0.0738203
0.159959 0.0207964 0.0848725
-0.0192659 0.0178015 0.162089
0.0320729 -0.0196282 0.360874
0.168379 -0.0515428 0.274088
0.180429 -0.0417569 0.301929
0.0249043 -0.0153517 0.398375
0.0926915 0.0129416 0.105086
-0.0840923 -0.0661514 0.38668
0.00268121 -0.00991814 0.26956
0.0392639 -0.0288074 0.653833
-0.0115177 -0.0667994 0.307658
-0.0374359 -0.0448902 0.643684
0.0400654 -0.0602482 0.203294
-0.00700314 2.57031e-05 0.619919
0.0811816 -0.0671911 0.362171
0.0417359 -0.040231 0.367795
-0.0321308 -0.021679 0.606441
-0.0220503 -0.042306 0.871143
0.00428545 0.0071291 0.156254
0.0102797 -0.0474909 0.0834369
0.20993 -0.0454082 0.260095
-0.0874161 0.0188993 0.130584
-0.0169371 -0.00347336 0.719558
-0.0987521 -0.0754772 0.382792
0.0395769 -0.0530958 0.176258
0.0482057 0.0124529 0.10583
0.217362 -0.0400241 0.273857
0.0862985 0.0133582 0.13491
0.111193 -0.061867 0.359959
0.168582 -0.0723112 0.329017
0.0870589 -0.0621845 0.39662
0.0254463 -0.059502 0.738869
-0.00775272 -0.0663144 0.161213
0.0621222 0.0220992 0.0401062
-0.015915 -0.00271205 0.690198
0.00297087 0.0645831 0.0903618
-0.0341342 -0.0245856 0.669284
-0.0387624 -0.0478411 0.454225
0.0861443 -0.0665114 0.303698
-0.0277108 -0.0774205 0.354997
-0.0172586 -0.0133194 0.337991
0.0314295 -0.0179815 0.543397
-0.157302 0.0237396 0.0107045
0.0303861 -0.0183397 0.253858
0.0391482 -0.0471821 0.139001
0.0214546 -0.00508853 0.692046
-0.170033 -0.0652286 0.33011
-0.0091401 -0.0652935 0.601873
-0.0502767 -0.0508449 0.412784
0.164978 0.0231624 0.0293653
-0.0274706 -0.0286571 0.102808
0.167733 0.0190705 0.0502959
-0.00652833 -0.00341571 0.53784
-0.0378865 -0.0609946 0.283871
0.0325341 -0.0419449 0.107091
0.032157 -0.0541258 0.771027
-0.168071 0.0215572 0.0793632
-0.0362348 -0.0477178 0.26712
-0.10728 -0.0606672 0.2996
0.0636408 -0.0699405 0.342593
-0.00111002 -0.00994032 0.356545
-0.000629812 0.0172533 0.173137
-0.133339 0.0168813 0.107933
-0.0962554 0.0187222 0.0520162
0.241388 -0.0401823 0.237549
-0.0184974 -0.00661475 0.782421
-0.0379586 -0.0330138 0.528236
-0.00437627 -0.00651128 0.483149
0.0417537 -0.0377505 0.554761
0.0558305 0.0100851 0.12866
-0.0333587 -0.0234143 0.267342
-0.00043656 -0.0207609 0.0810058
-0.243648 -0.0350161 0.241498
-0.0116974 -0.01525 0.841508
-0.0206074 -0.0552608 0.825917
-0.0312922 -0.0873103 0.391542
-0.137439 -0.0491615 0.296014
0.0104287 -0.035681 0.0626817
-0.118497 0.0161881 0.0744057
-0.148261 -0.0572648 0.260973
0.0118959 -0.0170743 0.101114
-0.0533401 0.0197852 0.122174
-0.0295466 -0.0198265 0.193975
0.00743208 -0.0029111 0.542634
0.144882 0.0170775 0.0708528
-0.0256247 -0.065175 0.41009
-0.211803 -0.0450571 0.269706
0.091271 -0.100867 0.401389
0.0384702 -0.0839804 0.379101
0.0416971 -0.0431898 0.273799
-0.141343 0.0227693 0.0388919
0.0340331 -0.0212058 0.755396
-0.00120249 -0.0100227 0.193696
-0.111944 -0.0617712 0.351804
-0.0107168 -0.00879225 0.820879
0.024272 -0.00829065 0.704563
-0.0382058 -0.0407007 0.743034
0.0205104 -0.00410383 0.675517
-0.0248079 -0.0652745 0.438055
-0.111901 0.0228646 0.0296629
0.104327 -0.0540997 0.313473
-0.175994 -0.0712764 0.360452
-0.0348433 0.0186034 0.146309
0.00811408 0.018628 0.144422
-0.0202619 -0.0650853 0.167866
0.129345 -0.0447025 0.341862
-0.0340921 -0.0474907 0.307979
-0.174892 -0.0819258 0.340578
0.00690826 -0.0669765 0.367251
-0.00504862 -0.0665299 0.553052
-0.0318066 -0.0822904 0.338513
0.0384218 -0.0597667 0.35858
-0.0231199 -0.0601977 0.68597
0.0408644 -0.0516391 0.503147
0.0355333 -0.0223085 0.137083
0.0391029 -0.046917 0.703378
-0.0358762 -0.0478579 0.134316
0.00880334 -0.0665701 0.518832
-0.169483 -0.0558695 0.294078
0.0296334 -0.0504397 0.427643
0.157659 -0.0415073 0.311271
-0.00183246 0.0841384 0.0523921
-0.0506425 0.0207766 0.080336
-0.0384737 -0.0349193 0.409013
0.00284184 0.0308749 0.0922245
-0.0783469 0.0193434 0.0514092
-0.0219142 0.0120669 0.10849
0.0993523 0.0209238 0.0367152
-0.0383414 -0.0582662 0.210943
0.0270183 -0.0129078 0.585717
0.140779 -0.0517063 0.281247
-0.0292493 -0.0871933 0.418004
-0.018508 -0.0610349 0.749697
0.0294511 0.0149537 0.0869406
-0.00274618 -0.0630154 0.78712
-0.0221431 -0.0153749 0.157359
-0.0503058 -0.0783587 0.384502
-0.00828556 -0.0108065 0.410541
0.0126959 -0.0665738 0.48367
-0.16147 -0.0858119 0.364091
-0.0208344 -0.013364 0.491047
0.00635949 -0.0101211 0.122464
0.0401209 -0.0595128 0.308634
0.0302831 -0.018438 0.788729
0.00525847 -0.0536725 0.8636
0.00707247 -0.0663028 0.580862
0.13142 0.0232582 0.0177701
0.0405099 -0.0318047 0.406613
-0.016659 -0.0607337 0.774721
-0.00197836 0.0464527 0.0655057
0.0355801 -0.0226075 0.234371
-0.0105197 0.0212145 0.0603726
-0.0937668 -0.092685 0.390391
-0.0366276 -0.0495712 0.525403
0.0308106 -0.025767 0.835192
-0.0767263 -0.0502637 0.359801
-0.0234852 -0.0574058 0.365019
0.0164428 -0.0664959 0.207183
-0.0172839 -0.0131129 0.453559
0.0137103 -0.000308102 0.742152
-0.0467898 -0.0736571 0.316343
0.121231 0.0213868 0.0852791
0.172702 -0.0988093 0.363387
-0.047107 -0.0658655 0.375927
0.0884336 -0.0652326 0.341716
-0.00398133 0.0115531 0.123546
0.0162829 -0.00979726 0.823528
0.0446645 -0.0637661 0.341439
-0.00561663 -0.0651287 0.126737
0.149928 -0.04981 0.338484
-0.0392278 -0.0622789 0.422509
0.0410606 -0.0344862 0.491918
0.000293864 -0.0172099 0.859695
-0.142927 0.0225294 0.0529248
0.00814571 -0.0572587 0.104533
-0.0234943 -0.0109167 0.637902
0.0737016 -0.0624839 0.314999
-0.186799 -0.0443065 0.258985
0.0264786 -0.0159612 0.465604
0.0577144 -0.0741191 0.405
-0.143897 -0.0444471 0.332516
-0.0374354 -0.0436886 0.605448
0.0342624 -0.0592744 0.162127
0.118965 -0.054411 0.367646
-0.0359025 -0.0274506 0.22643
-0.00152733 -0.0100813 0.209562
0.0252174 -0.0609327 0.135156
-0.0221359 -0.0107443 0.580492
-0.0127103 -0.0609882 0.116249
-0.0449614 -0.0501101 0.382698
0.176993 -0.0410499 0.285542
0.0277933 -0.0654033 0.24885
0.0335633 -0.0638347 0.298335
0.0154917 -0.000751908 0.659204
0.0109822 -0.0109806 0.405884
-0.0350156 -0.0303192 0.11759
0.146126 -0.0562415 0.319038
-0.0383992 -0.0351958 0.558395
-0.156492 -0.0543695 0.301463
-0.0354174 -0.0264604 0.462149
0.154364 -0.0470379 0.285245
0.0191419 -0.0546605 0.844927
0.0367602 -0.0622779 0.262586
-0.124825 -0.058387 0.298958
-0.0282139 -0.0589823 0.578368
0.036977 -0.0836195 0.424226
0.00361844 -0.0665824 0.61826
-0.123651 -0.0442409 0.340383
-0.00660241 -0.0547 0.858319
-0.0333481 0.0204218 0.0866379
-0.00455207 0.00620283 0.144829
0.045966 -0.0800938 0.389127
-0.0008742 -0.00996266 0.325177
-0.035402 -0.0605732 0.452283
-0.0243347 -0.0165584 0.29198
0.0409707 -0.0620776 0.435749
-0.109816 -0.0471341 0.335767
-0.0387104 -0.0405646 0.201244
-0.0836707 -0.0571392 0.32422
0.0227404 -0.0659998 0.439539
-0.191643 -0.0407984 0.292796
0.108854 -0.0477546 0.334557
0.00702364 -0.0661715 0.645759
-6.52531e-05 -0.0669765 0.348587
-0.0379393 -0.0358213 0.767926
0.0124593 0.0203852 0.0541917
0.0101123 -0.0669176 0.315513
0.00979122 -0.0616593 0.806278
0.188036 -0.0555768 0.282744
-0.00252645 -0.0668819 0.194947
0.0859803 0.0218683 0.0504634
-0.0101112 0.00776172 0.179683
0.0953986 -0.0886503 0.394394
0.0155928 0.00857274 0.177735
-0.177892 -0.0419297 0.280638
0.014084 -0.0112951 0.434888
-0.11422 -0.06117 0.327697
0.00643649 -0.063924 0.763546
-0.0521669 0.0122279 0.108395
-0.168889 -0.0513913 0.330138
0.185736 0.0228216 0.0559758
0.0763503 -0.0481929 0.370456
-0.0358942 -0.0273775 0.482026
0.101375 -0.0677653 0.39912
0.0409581 -0.0345178 0.709484
-0.225642 -0.0426111 0.242772
-0.0290886 -0.0181277 0.564216
0.0640965 0.0209046 0.0751705
0.0416182 -0.051695 0.462222
0.0140916 -0.0117583 0.281363
-0.0362106 -0.0687469 0.360279
-0.0451307 0.0215457 0.0560571
0.0160381 -0.002345 0.606056
0.160681 0.0175303 0.0679735
-0.072877 0.0157822 0.0759492
0.0400952 0.0188505 0.138317
0.143454 0.0228566 0.0327721
0.00264961 0.0756163 0.0774187
0.14708 -0.0607722 0.307587
0.0382294 -0.0265184 0.176389
-0.023613 -0.0612479 0.337082
0.00137897 0.0657626 0.0516799
-0.0326032 -0.0635396 0.468528
0.0321121 0.0140388 0.173656
0.183316 0.0235529 0.0222521
-0.0384894 -0.0368709 0.688756
0.0335083 -0.0206442 0.496215
0.0992933 -0.106706 0.387718
0.0120015 -0.0668541 0.413627
0.12715 -0.0555781 0.280772
-0.022976 -0.0105482 0.618272
-0.089961 0.0204667 0.109024
-0.0249532 -0.0641966 0.535019
-0.0341247 -0.0444537 0.805785
0.0361021 -0.0234995 0.670353
0.0402912 -0.0309309 0.430042
-0.0379019 -0.0607281 0.303557
0.0377964 -0.0595566 0.392759
0.00646414 0.00172053 0.688427
-0.00707523 -0.066938 0.24028
0.0408791 -0.0338691 0.597437
0.0406786 -0.0329758 0.614705
0.0323203 -0.0642888 0.325397
0.00107945 -0.0287769 0.0499165
-0.00208395 0.000452574 0.776738
-0.0385066 -0.0604615 0.241812
-0.0360106 -0.0276969 0.717041
0.0261057 -0.0160188 0.303951
-0.134562 -0.0555448 0.273691
-0.0709307 0.019298 0.131901
0.172757 -0.0632923 0.356418
0.0103242 -0.0110492 0.173553
-0.215396 -0.0416063 0.236115
0.0353708 -0.0223227 0.528862
0.00235517 -0.0312674 0.904995
0.0481913 -0.0795924 0.408003
-0.164133 -0.0475073 0.2718
-0.0397875 -0.0567705 0.365965
0.0482992 -0.0753742 0.315951
-0.0331534 -0.0231112 0.325667
0.081552 -0.0540557 0.339897
0.036857 -0.0565783 0.481493
-0.138144 0.0215399 0.0870119
0.0721952 0.0112611 0.136352
-0.00425975 -0.0668372 0.483633
0.00926382 -0.0669528 0.334428
0.00343949 0.0317533 0.104636
-0.150378 -0.0430645 0.307238
-0.102435 -0.0524166 0.37837
0.00743824 0.0191175 0.125728
0.0363537 0.0201807 0.0941259
-0.0208243 -0.00771571 0.7583
0.0414891 -0.0543639 0.297313
-0.170161 -0.092926 0.332834
0.0267373 -0.0192215 0.113984
-0.0523633 -0.0603583 0.343227
-0.181676 -0.0465473 0.30864
0.014299 -0.0667441 0.352078
-0.041391 0.0110101 0.119295
0.0369935 -0.0461177 0.791955
-0.02093 -0.0114997 0.533822
-0.037441 -0.0444997 0.717731
0.185311 -0.0468687 0.248308
0.172145 -0.0965183 0.347041
0.0380451 -0.0539611 0.536572
-0.171573 0.0180923 0.0653951
-0.0906804 -0.0869677 0.408007
0.000528773 0.0827592 0.0906865
-0.154932 -0.0452103 0.292793
-0.0785618 -0.0557195 0.401188
-0.0945894 -0.062707 0.308213
0.117552 0.0220356 0.053751
-0.100955 -0.0740352 0.397223
-0.00418056 0.0261726 0.126102
-0.0942373 -0.0465544 0.35877
0.0263818 -0.0156477 0.48362
0.0336828 -0.0548052 0.620986
0.0222088 0.00721797 0.156457
0.0373209 -0.0252274 0.636968
-0.0907415 -0.0652998 0.370342
0.0210517 0.0195469 0.113529
0.0152785 -0.0472331 0.883572
0.0051895 -0.0667162 0.163075
0.229256 -0.0420558 0.243091
0.0837111 -0.0666703 0.374495
0.0101662 -0.0643619 0.736561
-0.00142892 0.109323 0.0378148
0.129387 -0.0577954 0.299025
-0.102657 -0.0876074 0.374447
-0.0276448 -0.0183536 0.303417
0.112199 0.0227563 0.0223804
-0.1084 -0.0873475 0.406786
0.00245196 0.0527797 0.078729
-0.0283671 -0.0536998 0.784325
-0.103477 0.0207222 0.103716
0.011801 -0.0662838 0.548944
0.0355685 -0.0226688 0.574115
-0.0112238 -0.0117266 0.227324
-0.0177696 0.00826801 0.143871
-0.00105174 0.0268725 0.152738
-0.0226222 -0.0653519 0.212309
-0.0249172 -0.0168676 0.395282
0.120597 -0.0509898 0.3078
-0.0205422 -0.00714477 0.654267
0.0303655 -0.0567827 0.717264
0.0956124 0.0156792 0.0771062
-0.0196491 0.0172287 0.0746862
0.164054 -0.0686958 0.347741
-0.0182076 -0.0631354 0.592933
-0.027219 -0.0152232 0.724763
0.0307138 -0.0468838 0.414422
-0.216681 -0.0377767 0.254517
0.0527843 -0.0493378 0.380043
0.036005 -0.0232367 0.317302
-0.0565258 0.0167182 0.153723
0.0229448 -0.0660408 0.391686
0.0356997 -0.0227845 0.216435
0.032229 -0.0520508 0.117806
-0.0200657 -0.0660426 0.4214
-0.0678803 -0.055928 0.346902
0.0330557 -0.0204423 0.374131
-0.0216458 -0.0551447 0.390319
-0.100134 -0.0683217 0.352493
0.00120777 -0.0669508 0.4532
0.0548067 0.0197879 0.119607
0.0324743 -0.0198594 0.161904
-0.0120891 -0.0667147 0.402838
0.0229633 -0.0619982 0.65049
0.0168217 -0.0384581 0.0763814
0.230119 -0.0408924 0.220679
-0.00804719 -0.0108987 0.371388
-0.036874 -0.0295247 0.386485
0.078658 0.0133861 0.0997145
-0.0226 -0.00954188 0.700471
0.0302063 -0.0648874 0.371938
-0.164743 -0.0654925 0.358728
-0.0961988 0.0228552 0.0266881
0.0189533 -0.0481795 0.0933621
-0.0387125 -0.0715969 0.330715
-0.108812 0.0179734 0.0570677
0.0562893 0.0186515 0.0603971
-0.0195226 -0.065537 0.50528
-0.0100603 0.0115625 0.112657
0.0317619 0.0209733 0.0663224
-0.0627284 -0.0582304 0.416455
-0.0294863 -0.034603 0.846136
0.0121066 -0.0668286 0.382182
0.0385322 -0.0496805 0.386111
-0.128038 0.0221265 0.0638149
0.0256137 -0.0098503 0.725704
-0.0346896 -0.0541568 0.483379
0.0845582 0.0199268 0.115223
0.0413462 -0.0354253 0.46073
-0.00331843 -0.000559944 0.589666
0.0271873 -0.0842314 0.338647
-0.00320833 0.0572213 0.0994723
0.0480934 0.0218033 0.0396476
-0.00485131 -0.00165653 0.799061
0.169182 -0.0522061 0.290467
0.0367804 -0.0632433 0.230839
0.0200004 -0.0654096 0.167437
0.0173374 -0.00421702 0.576187
-0.0166299 -0.0130677 0.353404
0.00372042 -0.0434785 0.906608
-0.146998 -0.0610568 0.291561
0.194823 -0.0476387 0.265529
-0.00842629 -0.0668472 0.442771
-0.0237751 -0.0432842 0.0969256
-0.0299425 -0.0505615 0.322849
-0.0653716 0.0201875 0.112331
-0.0189125 -0.0620431 0.701234
-0.0266142 -0.0572505 0.122827
-0.027901 -0.0161252 0.679623
-0.0487699 0.0205504 0.0914382
-0.0422009 0.0112312 0.166536
0.164042 -0.0505061 0.25837
-0.00736965 -0.0668525 0.211539
0.0378322 -0.0259725 0.723214
-0.0939392 0.0126762 0.119192
0.0161347 0.0187021 0.142542
-0.0364908 -0.059758 0.436321
0.0349189 -0.0700284 0.444833
-0.0267735 -0.0651044 0.272349
-0.158984 0.0179786 0.0620945
-0.0298625 -0.0195628 0.530054
-0.0178659 -0.0664759 0.260297
0.0623493 -0.0602952 0.336189
-0.027921 -0.0167356 0.594033
-0.00209762 0.0985767 0.0562154
0.0835568 0.021223 0.0714431
-0.0990788 -0.108185 0.395917
0.170618 -0.053124 0.322879
-0.00773458 -0.0102722 0.441235
0.0382176 -0.0361128 0.802186
0.0185142 -0.0665399 0.423691
0.00165213 0.0459595 0.127927
0.0724602 -0.0681891 0.399241
0.00679871 -0.0669605 0.285276
0.0732985 -0.0499855 0.392176
-0.00639427 -0.0666069 0.517617
-0.0378177 -0.0449419 0.176204
0.0331732 0.0124624 0.104146
-0.0134038 -0.00161917 0.634573
0.123296 -0.0600934 0.337548
0.164471 -0.0788705 0.339341
-0.00367472 -0.0646828 0.740487
-0.0100247 -0.0652133 0.652692
-0.00156187 -0.0664031 0.666655
0.0302875 -0.0648381 0.406408
0.243434 -0.037946 0.25103
0.0261349 -0.0621631 0.152394
-0.18241 -0.0485737 0.248278
0.10741 0.0203451 0.106294
0.0349034 -0.0554072 0.572217
-0.0381078 -0.041896 0.659087
0.106899 -0.0586813 0.378486
0.0387948 -0.0276927 0.348885
0.166076 -0.0415808 0.295615
-0.0132617 -0.0559883 0.839521
-0.0386287 -0.0368637 0.255837
0.0415728 -0.0386652 0.313204
0.0417315 -0.0422431 0.397287
-0.0259128 -0.0614173 0.312938
0.0171236 -0.0124062 0.264336
0.0231762 -0.0661799 0.279949
-0.10038 0.0213854 0.0813565
0.0380515 -0.0547662 0.521188
0.0352232 -0.0321261 0.824987
-0.120594 0.016099 0.116148
0.0526448 -0.0762858 0.332477
0.0160116 -0.018794 0.854552
-0.0120184 -0.0192531 0.095877
-0.0253865 -0.0151651 0.549832
0.00722291 -0.0103643 0.150415
0.0565151 -0.0610416 0.424246
0.151221 -0.0503804 0.274419
0.157007 0.0199037 0.0413373
0.125431 0.0148052 0.102492
0.014336 -0.0117628 0.355914
-0.0349678 -0.0282918 0.781071
-0.169186 -0.0623172 0.315624
0.19014 -0.0482913 0.297038
0.0110964 -0.00838458 0.475224
-0.0389246 -0.0406616 0.54082
0.021238 -0.00514231 0.64077
0.017558 -0.0638774 0.676697
0.00127516 0.0935786 0.0419986
0.0309625 0.00930311 0.13384
0.0345951 -0.0217163 0.191573
0.0411637 -0.0372618 0.73879
-0.0327376 -0.0532822 0.598841
0.00408023 0.00751255 0.133355
0.168149 0.0224173 0.0181613
0.170963 -0.0935587 0.333025
0.101057 -0.0683857 0.363299
0.000659174 -0.0198072 0.871218
0.0260801 -0.0600457 0.608255
-0.0746993 -0.0491184 0.387908
0.0316233 -0.0624961 0.508045
0.0459987 0.0090089 0.144787
0.105944 -0.048341 0.367216
-0.0390531 0.0194715 0.128571
-0.0782003 -0.0476434 0.374567
-0.143571 0.0234569 0.0170641
-0.0368353 -0.0602994 0.342093
0.13267 0.0223677 0.0471592
0.0824774 -0.0572666 0.325859
0.0295829 -0.0147825 0.683956
-0.00186465 -0.0451965 0.0746678
0.0272704 -0.0566404 0.381752
-0.155098 0.01679 0.0778353
-0.0175758 -0.0134464 0.256836
-0.0246822 -0.0654583 0.325483
-0.0346017 -0.0252457 0.165515
-0.0247903 -0.0167835 0.17219
-0.013958 -0.0645163 0.614577
-0.0285179 -0.018831 0.783235
0.107249 0.0215102 0.071289
-0.00281193 -0.0660718 0.143245
-0.126677 0.0229401 0.0311203
0.00196712 0.0779834 0.0624354
-0.163658 -0.0529098 0.318299
-0.0320988 -0.0471221 0.408183
-0.0215891 -0.00848813 0.737023
-0.0373531 -0.0489791 0.509844
-0.179823 0.0189224 0.057374
-0.00891049 0.0227128 0.0806314
-0.0364499 -0.0477387 0.566078
-0.0117861 -0.0107925 0.465661
0.215231 -0.0441613 0.247734
0.0260832 -0.0160064 0.240137
0.0505198 -0.0564582 0.359354
-0.000838371 -0.0664619 0.632037
0.00635825 0.0156511 0.0850295
0.00334815 0.0289083 0.135066
-0.132643 -0.0487382 0.350125
0.107817 -0.103668 0.413981
0.0287826 -0.015197 0.776755
-0.00549253 0.00160617 0.727696
0.097434 -0.0634764 0.329886
0.0134599 -0.0117272 0.191947
0.0413222 -0.0367547 0.243148
-0.00355207 0.0205192 0.106018
0.0242577 -0.0367225 0.878536
-0.0234898 -0.0650633 0.378403
0.014403 -0.0117636 0.38846
-0.00101654 -0.0100651 0.286107
0.0377403 -0.0630381 0.216343
0.0218687 0.00828198 0.142619
0.0258145 -0.0104933 0.627586
0.00088676 -0.0139538 0.107078
-0.0198124 -0.0628727 0.153187
0.14437 -0.0427292 0.317771
0.0606646 0.0139415 0.0913838
0.147778 0.0215334 0.0828148
-0.0177952 -0.0656253 0.522168
-0.0174689 -0.0425406 0.0853731
0.0218806 -0.0112108 0.808648
-0.0673094 0.0222408 0.0397709
0.00126663 0.000431112 0.603483
0.105027 -0.0788416 0.400845
0.0652362 0.0121202 0.110412
0.0211783 -0.00826764 0.54617
-0.154049 -0.0542804 0.3286
-0.0992857 -0.0474974 0.345946
0.0651392 -0.07004 0.356756
-0.0242996 -0.0695515 0.370605
-0.0136744 -0.06625 0.183239
-0.0311685 0.00814799 0.156077
-0.0123856 -0.00305929 0.577646
-0.0383606 -0.0384031 0.729967
-0.0187167 -0.0137898 0.433055
-0.0818593 0.0214907 0.0642696
-0.0347714 -0.0839471 0.431037
0.00121699 0.0242958 0.0605961
-0.00221481 -0.0652586 0.726072
-0.00174877 -0.0669765 0.378828
-0.0361622 -0.0280429 0.595902
0.00653613 0.0195727 0.108338
-0.0383787 -0.0342011 0.442869
0.000111982 -0.0669765 0.301167
0.117893 -0.0455298 0.350619
-0.0380267 -0.0332853 0.512134
0.205214 -0.0462309 0.274034
-0.0591244 -0.0566398 0.35325
0.216489 -0.037076 0.259338
0.0416906 -0.0373931 0.52529
-0.164781 -0.0451488 0.281419
0.0280579 -0.033199 0.0966479
-0.109289 0.0217491 0.0705961
0.172428 0.0221499 0.0715226
0.040878 -0.0488512 0.547361
0.00169531 0.056478 0.0606237
-0.0303379 -0.042625 0.8355
0.000727843 0.066809 0.037984
-0.0187477 -0.0344124 0.882452
0.0136066 -0.00491007 0.529819
-0.00363966 -0.0605887 0.822867
-0.0211776 -0.0659729 0.351306
0.120863 -0.0598504 0.318105
-0.0377388 -0.0606697 0.406836
0.0384639 -0.0484242 0.649842
0.0137518 -0.0111079 0.449789
-0.0666277 -0.0681833 0.354956
-0.0536243 -0.0658442 0.325904
0.07619 -0.066783 0.340946
-0.0380493 -0.0751612 0.348472
0.0397089 -0.0417379 0.778229
0.00149409 0.0012691 0.633075
-0.0237827 -0.0631481 0.565488
0.160738 -0.0537809 0.306437
0.105933 -0.0961556 0.382559
-0.0323005 -0.0534215 0.618244
-0.110754 0.0148923 0.0861789
-0.127077 -0.0441741 0.328956
-0.036409 -0.0436897 0.778437
0.0419799 0.0198604 0.0521845
-0.0363547 -0.0469305 0.279478
0.0308968 -0.0369184 0.853611
-0.17405 -0.0828626 0.326601
-0.0710079 -0.0686394 0.385074
-0.0933849 -0.0605194 0.390388
0.0986339 0.0152477 0.130423
0.0417298 -0.0428937 0.421917
-0.00477136 -0.0103398 0.129609
0.0409483 -0.0548612 0.448458
-0.172582 0.0223594 0.0188316
-0.00046477 -0.0669386 0.470181
0.0358857 -0.0824266 0.358045
-0.00619516 -0.02513 0.0690485
-0.0578497 0.0218952 0.0491367
0.0185358 -0.0616388 0.75695
0.000166778 0.00208302 0.744652
0.00112415 -0.0667267 0.567487
0.170524 -0.0671972 0.316796
0.0287784 -0.0586421 0.639172
-0.0185375 -0.0138316 0.185951
0.100069 -0.081206 0.369991
0.0772746 -0.0590934 0.406471
0.0907723 -0.0636903 0.316264
-0.0279763 -0.0184429 0.445674
0.0129996 -0.0653376 0.635249
0.110508 -0.0501781 0.322812
-0.233815 -0.0411123 0.232442
-0.0745707 -0.06599 0.323034
-0.00507489 0.00166948 0.698782
-0.0274607 0.0195716 0.119861
0.0313444 -0.0170301 0.71553
0.000695019 0.0736097 0.100397
0.0402381 -0.0425214 0.763436
0.0101022 0.0181013 0.154335
-0.122621 -0.0592277 0.357648
-0.0202083 -0.0144491 0.41095
-0.0333121 -0.0275502 0.795816
0.0943433 -0.0496981 0.343041
-0.0134569 -0.0442964 0.888205
-0.0308118 -0.0481637 0.36734
-0.0128813 -0.0599399 0.81409
-0.150246 0.0230497 0.0312857
0.00458213 -0.0669024 0.183374
-0.0332878 -0.0233681 0.632953
-0.0125533 -0.00186916 0.769904
0.170739 -0.0566391 0.33031
-0.0119909 -0.0118923 0.201143
0.00385988 -0.00998878 0.162453
-0.0368553 -0.0296248 0.207492
0.0219813 -0.0072141 0.594929
-0.0194334 -0.065774 0.477854
-0.0571954 -0.072965 0.41555
0.135701 -0.0576215 0.312
0.00545623 -0.00978865 0.371139
-0.181355 0.0234247 0.0325344
0.00759162 -0.0666165 0.531315
0.0410179 -0.0347819 0.213463
0.0412254 -0.0355435 0.643351
0.0326817 -0.0200399 0.432092
0.178145 0.0200945 0.0391365
-0.0994996 0.0149311 0.130666
-0.0387723 -0.0377945 0.302341
-0.0266189 -0.0650033 0.397224
-0.0076398 -0.0337619 0.911247
-0.0036857 0.0194476 0.145491
0.0240887 -0.00816097 0.741085
-0.0335845 -0.0305773 0.811571
-0.175639 0.0238793 0.00560322
0.00221216 0.0904491 0.0646168
-0.027084 0.0201652 0.0965455
0.149654 -0.0595438 0.294656
-0.0110797 -0.0117063 0.294749
-0.00592224 -0.00579773 0.49557
0.00823356 -0.023691 0.881983
0.0384352 -0.0308432 0.789947
0.00860207 0.000760018 0.762336
0.0387379 -0.0275612 0.563569
-0.0921297 -0.0624352 0.297269
0.0215196 -0.00824409 0.795751
0.0385928 -0.0570758 0.410321
0.0411634 -0.0437823 0.589192
0.0599612 0.0188619 0.136939
-0.020469 -0.0616078 0.673981
0.00715052 -0.066671 0.507034
0.0578319 -0.0720663 0.419085
-0.0214798 -0.0612477 0.647396
0.0406655 -0.0332673 0.141991
0.153255 0.0232374 0.0239365
0.0233232 -0.0579573 0.802397
0.0297804 -0.0180113 0.265741
0.197995 -0.0466958 0.251791
-0.0136864 -0.00498509 0.548534
-0.170863 -0.0448302 0.315893
0.0966385 -0.0609097 0.387504
0.0256177 -0.0652514 0.481552
-0.0380471 -0.0513999 0.234134
0.0759528 0.0191627 0.131737
0.0229632 0.0209828 0.0488141
-0.0366681 -0.0427702 0.120734
-0.0377895 -0.0423999 0.755641
-0.00721881 -0.0659607 0.586439
-0.0377436 -0.0603528 0.223371
-0.0212596 -0.0141133 0.81527
-0.0520127 0.018765 0.142669
0.171233 -0.067326 0.339044
0.00816622 0.00127367 0.669957
0.170074 -0.0435514 0.313859
-0.0877968 0.0203306 0.0435676
0.117754 -0.0608988 0.348382
-0.154457 -0.0547085 0.314063
0.0318808 -0.0533816 0.78383
0.175016 0.0184962 0.0600916
0.0151521 -0.0667785 0.249128
-0.165575 -0.0734226 0.340036
-0.138748 0.0206357 0.0977399
-0.0768919 -0.066312 0.335287
-0.0380089 -0.033467 0.64957
0.00412447 -0.00820154 0.827582
-0.124691 -0.0595217 0.321428
0.0115104 -0.0111676 0.328407
-0.198372 -0.0469792 0.258335
-0.0359215 -0.0671359 0.38346
0.0113333 -0.0112668 0.215102
0.0417408 -0.0409641 0.286467
0.18795 0.0231821 0.00960346
-0.0382907 -0.0409477 0.700934
-0.0128758 -0.06675 0.288609
-0.0387512 -0.0485514 0.439101
0.00240047 0.00602275 0.171552
-0.0316653 -0.0621333 0.172982
0.0206302 -0.060563 0.769568
0.0397352 -0.0296741 0.450446
-0.169686 -0.0537638 0.306706
-0.085615 -0.0593537 0.312978
-0.00271151 0.0425858 0.082262
0.00732815 0.00115368 0.649543
-0.0070502 0.0222273 0.0455575
-0.0384957 -0.0392975 0.674585
0.0345069 -0.0224049 0.767268
0.0272437 -0.019612 0.82485
-0.137691 -0.0515775 0.285407
-0.0180643 -0.0498311 0.860082
0.00373602 -0.0636565 0.776582
-0.00664829 0.00125295 0.681843
-0.0933198 0.017364 0.062022
-0.0391151 -0.0626659 0.350534
-0.100039 -0.0959781 0.410925
-0.0248478 -0.0206993 0.111295
-0.0196733 -0.0142864 0.366911
0.0244096 -0.064885 0.548537
-0.00341965 0.0180425 0.158018
-0.0389712 -0.0417752 0.322263
0.0230569 -0.0609897 0.726608
0.0280132 -0.0129187 0.670367
-0.00137464 0.0409499 0.0549026
-0.108545 0.0224222 0.0418364
0.0326617 -0.0624378 0.470956
-0.045598 0.0176818 0.0676649
0.0320719 -0.0558314 0.701458
0.0890497 -0.046951 0.369141
0.00304264 -0.00144918 0.564573
-0.0318536 -0.021615 0.152161
-0.025144 -0.0169219 0.42235
-0.123288 0.0215169 0.0852894
-0.00765805 -0.0653941 0.699358
-0.113604 -0.0605564 0.31378
-0.0267554 -0.0147616 0.666913
0.14035 -0.0569225 0.337387
0.1327 0.0207325 0.036513
-0.0812618 0.0131451 0.137801
0.00797056 -0.0651955 0.716414
-0.0161621 0.0104792 0.123089
-0.108107 -0.102005 0.400675
0.0324365 -0.0199292 0.328806
-0.00182411 0.0154231 0.185731
0.113387 0.0139501 0.109337
0.0926665 -0.0652586 0.357579
0.230247 -0.0386339 0.232648
-0.0303953 -0.0605023 0.357842
0.0259369 -0.0604038 0.668218
0.0402238 -0.0309983 0.227095
0.0396763 -0.0296194 0.361843
0.0379852 -0.0261847 0.683106
-0.0305193 -0.0643697 0.203202
0.0317574 -0.0176962 0.644936
-0.0993546 -0.0642734 0.380512
0.0147722 0.0203172 0.0834835
-0.151189 0.0195616 0.0442644
-0.168034 -0.0616568 0.340948
-0.042348 0.0219024 0.0456575
-0.029267 -0.0494838 0.819955
0.0190221 -0.0663665 0.453488
0.00831064 0.000219018 0.615166
-0.0527354 -0.0474589 0.391697
-0.0208889 -0.014748 0.145338
-0.0533131 -0.0779357 0.322196
0.0206613 -0.0664018 0.332586
0.0230678 -0.0212758 0.10268
0.0746168 0.0217294 0.0353432
0.0415841 -0.0529394 0.350147
-0.0386651 -0.0367976 0.138053
0.0763197 -0.0677422 0.388414
0.122499 -0.0470671 0.321844
0.105879 -0.0604884 0.291799
-0.0157343 -0.0604298 0.786736
0.0379994 -0.0261872 0.205111
0.174561 -0.0815492 0.321859
-0.0283151 -0.0701031 0.340602
-0.099661 -0.0733581 0.363209
-0.0335348 -0.0529598 0.152135
-0.0380431 -0.0337949 0.234881
0.0948622 -0.0646736 0.370769
-0.00453385 -0.0669765 0.266561
0.0332041 -0.0607316 0.344627
0.0266541 -0.0834383 0.32673
0.106312 -0.107341 0.398133
-0.0108216 -0.0116398 0.214176
-0.0388863 -0.0438056 0.291998
-0.0370404 -0.0299587 0.568969
-0.178273 -0.0833585 0.361255
-0.0809275 0.0136955 0.095994
-0.0747611 0.0109586 0.124389
-0.0223552 0.0185594 0.147557
0.0937139 -0.0823201 0.404601
-0.0273072 -0.0153419 0.709652
0.020448 -0.053158 0.104676
0.0344743 0.0197083 0.111879
0.0505607 -0.0674344 0.325127
-0.0313271 -0.0539322 0.288847
-0.0410837 -0.0820869 0.395569
-0.201101 -0.0383428 0.270255
-0.0122911 -0.065777 0.562334
0.0397979 -0.0454947 0.691798
-0.0383268 -0.0413478 0.164836
-0.0129224 -0.0195293 0.857336
0.0338736 -0.0211196 0.385844
0.0254564 -0.0156662 0.139661
-0.10146 -0.0838418 0.390642
0.0522918 -0.0747844 0.34785
-0.239123 -0.0368062 0.252152
0.0417146 -0.0487405 0.359224
-0.0399827 0.0161849 0.0779745
0.0359925 -0.0260206 0.11838
-0.0157214 0.00675434 0.158384
0.0362295 -0.0235691 0.46223
-0.0943508 -0.0955274 0.379071
0.132505 0.0221162 0.0585451
0.000857013 -0.0669721 0.417127
-0.0223984 -0.0545848 0.378929
0.0297976 -0.06498 0.355469
-0.0296162 -0.0194961 0.49858
-0.0294754 -0.0197682 0.340633
-0.119553 0.0231971 0.0200134
-0.0320467 -0.0533218 0.683122
0.243387 -0.0395401 0.226125
-0.0143661 -0.0123806 0.397068
-0.163731 -0.0844276 0.334375
0.00135861 -0.0634654 0.118101
-0.0308364 0.0177913 0.161905
0.0784573 0.0162231 0.142915
0.0518701 0.0208506 0.0734284
-0.00083058 0.0956394 0.0268506
-0.0212398 -0.0101475 0.567092
0.152383 0.0223332 0.062624
0.108365 -0.060775 0.303151
0.00488172 -0.0101078 0.258261
0.0404918 -0.0479044 0.191102
0.0263933 -0.0485525 0.849689
0.0378031 -0.0607457 0.334586
0.0718932 -0.0665313 0.324899
0.0149224 -0.0649709 0.617332
0.0375169 -0.0254736 0.549563
0.0411609 -0.0461149 0.574561
0.00237646 0.00183608 0.659835
-0.139187 -0.057322 0.32414
0.00411306 -0.066916 0.237945
-0.0390086 0.00857817 0.142741
0.000145151 -0.0669765 0.321074
0.0239239 -0.0660783 0.291327
-0.0289038 -0.0761161 0.329384
0.00109118 0.0771884 0.0426732
-0.0398882 -0.0825434 0.421199
0.0329827 -0.0199794 0.516721
-0.0440845 -0.0652015 0.338586
0.0150057 -0.0506 0.869545
-0.00491828 -0.00388355 0.810583
0.041162 -0.042075 0.178417
0.0111737 -0.0204878 0.0882191
0.0801561 -0.0486452 0.383261
0.0225949 -0.00780286 0.770813
-0.210919 -0.0447649 0.246016
0.0414449 -0.0531863 0.267401
-0.034184 -0.0630307 0.373741
0.109674 -0.0881738 0.408776
0.0246038 0.0190641 0.135154
-0.0347565 -0.0493172 0.736598
0.0122642 -0.066396 0.175117
-0.0389712 -0.040879 0.3802
0.197151 -0.0385564 0.27566
0.00640328 -0.0668482 0.213987
-0.0339418 -0.0552766 0.494532
0.0720349 -0.0515786 0.360652
-0.178512 -0.0506034 0.298192
-0.018586 -0.0613325 0.73648
0.0372041 -0.0250108 0.421013
-0.018967 -0.0662271 0.390604
-0.00027657 0.106648 0.0654179
0.0392348 -0.046557 0.71459
0.029949 -0.0648043 0.204887
-0.00402296 -0.0662923 0.642779
-0.0358396 -0.0272681 0.397412
0.0412991 -0.055377 0.224264
0.0977125 -0.0624877 0.310098
0.00571531 0.0204949 0.0766481
0.00623475 -0.0101188 0.133659
-0.0367309 -0.0292285 0.33433
-0.0228272 -0.010693 0.601952
-0.0352701 -0.0262424 0.25494
0.00136558 -0.00942537 0.418076
0.118102 0.021613 0.0739124
-0.00826606 -0.0111054 0.305532
-0.0304195 -0.0205503 0.361312
0.0405946 -0.0528793 0.490076
0.0403843 -0.0445624 0.153477
0.0397535 0.0151341 0.165664
0.0401645 -0.0330345 0.757653
-0.0304488 -0.0315443 0.834779
0.0330939 -0.0639273 0.274964
0.0251645 -0.0132858 0.528065
-0.058671 0.0112912 0.11747
0.0975554 0.0219012 0.0505925
-0.077827 -0.0667549 0.34659
-0.0058783 -0.00387682 0.52681
0.0358271 -0.0231074 0.707451
0.0261731 -0.0122852 0.574728
0.0352338 -0.0222461 0.405251
-0.0988978 0.0200243 0.117155
-0.0856422 -0.0668284 0.328601
6.77972e-05 0.0554992 0.123439
0.00289054 0.0505057 0.0885382
0.0651932 0.0212726 0.062156
0.0412085 -0.0472719 0.560239
0.010014 -0.00228286 0.798023
0.0412442 -0.035953 0.697391
-0.0183679 -0.00974363 0.523651
-0.0545624 -0.0623277 0.333355
0.0848783 0.0207344 0.0944244
0.0239211 -0.0650971 0.537196
0.0351028 -0.025911 0.799655
-0.144396 -0.0561381 0.333713
-0.0139981 -0.066642 0.375032
0.178675 -0.0896745 0.362496
0.0191184 0.00751726 0.167641
0.0239343 -0.065476 0.379171
-0.0292175 -0.0182697 0.575151
0.0985507 -0.0985636 0.41122
-0.0290569 -0.0639611 0.500176
0.0241599 -0.0149752 0.293248
-0.0362462 -0.052398 0.248217
-0.129157 0.0160637 0.0764547
0.0329444 -0.0201915 0.147483
0.174139 -0.048394 0.255134
0.141759 -0.0558091 0.291317
0.106519 0.0152249 0.0848962
-0.123131 -0.0599181 0.341625
-0.116226 -0.0564513 0.289669
0.110258 0.0175352 0.0615878
-0.0127178 0.0130171 0.102584
0.0204639 -0.00497291 0.615665
0.00912508 -0.0557197 0.853622
-0.0381509 -0.0340856 0.615139
-0.0382537 -0.0437976 0.186998
-0.121847 0.0147298 0.105445
0.000349031 -0.0665219 0.607909
-0.0277826 -0.0184281 0.182636
0.0327349 0.021321 0.0572286
0.00299344 -0.0667498 0.15247
-0.0164769 0.00743303 0.170987
0.0235094 -0.0609398 0.124484
-0.0347933 -0.0255371 0.376659
0.0157805 -0.0649443 0.157501
-0.0340325 -0.0244141 0.556962
-0.0404352 -0.0693853 0.439187
0.00514886 -0.0669516 0.271263
-0.161691 0.0219258 0.0223639
-0.00334382 -0.0102545 0.220148
-0.0634641 0.0210864 0.0726875
-0.00301518 0.0220917 0.0942507
0.0306438 -0.0586186 0.364768
-0.0667055 0.0189807 0.0557728
-0.0206815 -0.0146902 0.231479
0.018649 -0.0648867 0.57661
-0.0235041 -0.0107796 0.748375
-0.0252961 -0.0419493 0.859757
-0.165598 -0.0923936 0.342184
0.0755627 -0.0535641 0.348732
0.0163179 -0.0317312 0.891551
0.0415879 -0.0505554 0.473122
-0.0279928 -0.0181485 0.484762
0.0243235 -0.0660144 0.238793
-0.0120507 -0.0121996 0.121079
0.0181886 -0.00209937 0.752631
-0.0043248 -0.0149873 0.850364
0.0334009 -0.0198804 0.599076
-0.0112034 -0.0510748 0.868742
-0.007186 -0.00979425 0.453193
-0.016413 -0.0038474 0.613264
-0.0864945 -0.0470998 0.366035
0.158847 -0.0538493 0.320668
0.0119312 0.000119801 0.637518
-0.0149083 -0.0115194 0.475789
-0.0322126 -0.0567135 0.275987
-0.0800185 -0.0520742 0.348838
0.0277228 -0.0168955 0.198065
0.10566 0.0191938 0.0515106
0.0219415 -0.0140868 0.273633
0.187443 -0.0502025 0.272694
-0.083427 0.0200523 0.11713
0.134155 -0.0452583 0.316565
-0.0249294 -0.0168809 0.328016
0.0368794 -0.0613368 0.288602
-0.140121 -0.056636 0.303006
-0.0376922 -0.0315566 0.453171
0.129852 0.0156105 0.0832954
-0.0319513 -0.0528689 0.721098
0.0411322 -0.035978 0.722544
-0.0491765 -0.0593931 0.42731
0.0386839 -0.0274315 0.484445
0.0115428 0.0146776 0.181647
-0.0360889 -0.0277898 0.498
-0.00906324 -0.0668599 0.221946
0.00336536 0.0219544 0.0486583
-0.00552059 -0.0592362 0.108755
0.0533512 -0.0762188 0.306752
0.0619428 0.0106634 0.143613
-0.0789369 -0.0560832 0.333899
-0.0388047 -0.0384353 0.271357
-0.0104531 -0.0115834 0.138371
0.00448332 -0.0616053 0.81629
-0.0276678 -0.0560852 0.750987
-0.150924 -0.0516248 0.269393
0.0813728 0.0115838 0.125834
0.0951513 -0.092454 0.383426
-0.0270599 0.0190423 0.138207
-0.0334137 -0.0518334 0.650413
-0.161298 -0.0902131 0.352775
-0.10713 -0.0627013 0.342555
0.10272 -0.0841865 0.388395
-0.0306181 -0.0204523 0.519472
0.120767 -0.0446348 0.335873
0.0393561 -0.0467909 0.617403
0.0553062 0.0200828 0.106425
0.0863679 -0.0642155 0.331078
-0.0538664 -0.072817 0.333392
0.141697 0.0225911 0.0421278
-0.0118267 -0.05789 0.828734
0.0340539 -0.0205602 0.657517
0.0233164 -0.0176427 0.834299
0.00629848 -0.0476948 0.888835
-0.0225041 -0.0654542 0.466837
0.0417722 -0.037866 0.565167
-0.0655769 -0.059192 0.336945
0.00410859 -0.0245463 0.0677593
-0.128942 -0.0526164 0.29114
0.0412442 -0.0368129 0.669554
-0.0514106 0.0119707 0.161805
-0.172092 -0.0470205 0.264628
0.128461 -0.0526597 0.358648
-0.00692638 -0.0657188 0.676991
0.00468368 -0.0664582 0.595574
0.0647265 -0.0698236 0.411314
-0.0261566 -0.0609561 0.348447
0.0396638 -0.0295023 0.503299
0.0296784 -0.0649237 0.190343
0.0121787 -0.0665258 0.493983
-0.00192076 -0.00951301 0.402513
0.00604196 -0.0627195 0.792526
0.0374487 -0.0624273 0.25229
0.0387188 -0.0275637 0.627022
0.0139946 0.000603781 0.696293
-0.0120124 0.00928137 0.134113
0.037433 -0.0253492 0.306667
-0.0295574 -0.064146 0.479914
-0.024645 -0.068979 0.358666
-0.115193 -0.0453984 0.350701
-0.0304527 -0.0492152 0.33779
-0.177481 0.0222131 0.0714977
0.034324 -0.0528538 0.757722
-0.175392 -0.0893732 0.347636
-0.221621 -0.042211 0.270615
-0.00305506 0.0699252 0.0837697
0.0862144 0.0209641 0.0841238
0.0214286 -0.0135739 0.457009
-0.118985 0.0174297 0.0627844
-0.00135083 0.019322 0.118385
-0.0328614 -0.0485214 0.791936
-0.0338643 -0.0241943 0.707672
-0.12959 -0.0585326 0.349436
0.0184937 -0.0127061 0.412609
-0.146596 0.0162779 0.0846726
0.0992967 0.0205126 0.103208
0.164929 -0.0835252 0.330254
-0.165865 -0.0979747 0.364326
-0.0385299 -0.0437127 0.552759
-0.0295236 -0.0198074 0.224148
0.00206535 0.0428156 0.0728687
0.0251302 -0.052123 0.837055
0.138165 -0.0482263 0.345607
0.0750702 0.0158815 0.0760066
0.00544357 0.0108588 0.117074
-0.0101438 -0.0648631 0.136257
-0.187881 -0.0478559 0.286465
-0.0918674 -0.0952818 0.416972
0.140914 -0.0442034 0.333389
0.221756 -0.0374799 0.249815
0.045489 -0.0795998 0.420368
0.164222 -0.0445712 0.284791
-0.0625526 -0.0480709 0.389107
-0.0277511 -0.0707196 0.450375
-0.0261847 -0.0874893 0.440485
0.00291559 0.01498 0.0984963
-0.023879 -0.0110712 0.687462
0.104106 -0.101515 0.373644
-0.174093 -0.0513671 0.286227
-0.0378954 0.0189641 0.0608339
-0.0258321 -0.0173705 0.264192
-0.0292764 -0.0520353 0.801103
0.0244165 0.020585 0.0767954
0.169991 -0.0532871 0.352263
0.0228958 0.0187507 0.0622661
-0.00823373 -0.0669036 0.354585
-0.100725 0.012936 0.111029
-0.0382376 -0.0338358 0.468474
-0.0558507 -0.0671784 0.425103
0.0628364 0.0194409 0.125745
0.16666 -0.0655845 0.363542
0.146982 -0.0590298 0.278138
-0.00219922 -0.0554597 0.0991243
-0.0192365 -0.0247938 0.0915471
0.0375515 -0.0255585 0.608649
0.0667987 0.0148569 0.0834532
-0.0347364 -0.0254527 0.216404
0.0441446 0.01456 0.0878373
-0.0173592 -0.0664408 0.233011
-0.106453 0.0211514 0.0927292
0.128025 0.0182543 0.111117
0.00909175 -0.0196916 0.865801
0.169592 -0.0522757 0.300477
-0.0298178 0.00897545 0.166554
0.111175 0.0141803 0.0950788
-0.140189 -0.0549858 0.345425
-0.0516193 -0.0661982 0.366997
0.0383004 -0.0488364 0.627555
-0.00190089 0.0969471 0.0672167
0.000109561 -0.0668766 0.495479
-0.0316113 -0.0598247 0.527046
-0.0338221 -0.0479761 0.417974
-0.101267 -0.113533 0.404048
0.175 -0.0887193 0.340753
0.0249925 -0.0658174 0.363927
-0.171924 -0.0409176 0.292025
0.12223 0.0225729 0.0215347
-0.043302 -0.078204 0.429456
0.0070054 -0.066877 0.197732
0.162229 -0.0914928 0.347129
-0.0706796 0.0147569 0.0855749
0.122726 0.0195465 0.0473841
-0.0600482 -0.066379 0.341454
0.0147185 -0.0130606 0.118003
-0.0671812 -0.0529327 0.359411
-0.192734 -0.0480694 0.266421
-0.00176326 0.102561 0.0471416
0.0270677 -0.0151843 0.801206
0.106789 -0.062456 0.369331
-0.0298848 -0.019875 0.457244
0.00249599 0.0642686 0.0768995
-0.0384709 0.0203422 0.0950872
0.0394485 -0.0284953 0.127494
-0.0909766 -0.102092 0.401873
-0.0121173 -0.0665331 0.489606
0.0387673 -0.0277573 0.739982
-0.0133936 -0.000987968 0.70339
-0.0348671 -0.0490269 0.748937
0.0417349 -0.0400618 0.411874
0.164043 -0.0940845 0.363386
-0.0407485 0.0179463 0.157024
-0.112457 0.0138089 0.100434
-0.010053 -0.0114822 0.262863
-0.00167271 0.0751085 0.0514747
0.0335401 -0.062736 0.171302
-0.0231816 -0.0597361 0.709785
0.0265427 -0.0611456 0.57211
-0.035759 -0.0477439 0.591313
-0.207096 -0.0454905 0.281008
0.188119 -0.0392726 0.282827
0.0285344 -0.0172369 0.123415
-0.0272862 -0.06239 0.29171
0.00886811 -0.0669511 0.448154
-0.0250674 -0.0129157 0.647771
0.00549505 -0.0666163 0.558722
-0.0385242 -0.0361523 0.222776
0.14437 -0.0541562 0.268527
-0.0170274 -0.06332 0.623798
0.0193059 0.0191819 0.126921
-0.0379152 -0.0501676 0.202956
-0.00137991 0.0528666 0.0512299
-0.0738495 -0.0672648 0.40155
-0.151537 0.0223347 0.0666788
0.0167795 -0.0123558 0.180763
0.0315617 -0.0645733 0.430705
0.140343 -0.0564932 0.301427
0.100471 -0.0708857 0.409548
-0.101559 -0.0503688 0.331718
0.000176512 0.0208103 0.0692707
0.181143 -0.0427827 0.27291
-0.197644 -0.047275 0.288716
-0.08291 0.012511 0.107179
-0.00152598 0.00789104 0.0712247
0.175193 -0.0805305 0.331506
0.0946209 -0.109143 0.397545
0.00238183 0.0265469 0.0835485
-0.0187423 -0.00537447 0.644297
-0.0525557 0.0134607 0.0968685
0.0177119 -0.00188155 0.707717
-0.0141167 -0.00847284 0.504811
0.101418 -0.051505 0.32753
-0.134308 0.0183946 0.0544429
-0.0287415 0.0165082 0.0778979
0.0746876 -0.0682901 0.36925
-0.022064 -0.0610101 0.636486
-0.0955232 0.0225031 0.0381933
0.0452527 -0.0804095 0.398748
-0.0195782 -0.00747939 0.592161
0.0331952 -0.053971 0.611395
-0.0157345 -0.0666262 0.335705
-0.0346836 -0.0253749 0.444017
-0.0301958 -0.0203646 0.31249
0.0290783 -0.0145066 0.636251
0.175891 -0.0678003 0.350835
0.0409736 -0.042455 0.601784
-0.0389115 -0.0374064 0.477382
0.0139678 -0.0117491 0.164679
0.0818866 -0.0649956 0.319725
0.0818549 0.0221461 0.0416578
-0.0376117 -0.0440259 0.144294
-0.0356774 -0.0500478 0.2575
-0.0381909 -0.034165 0.548862
-0.0162138 0.0197216 0.109397
0.0937071 0.0196813 0.121523
-0.032794 0.0219293 0.0463365
-0.0115822 0.0182607 0.153596
-0.0122264 -0.0264552 0.883163
0.0207035 -0.0135911 0.34902
-0.00396522 0.0269578 0.112992
-0.0168977 -0.066543 0.315537
-0.159237 -0.0536262 0.291548
0.02182 -0.0597016 0.778988
-0.036207 -0.0623617 0.232551
0.0419365 0.0200279 0.101837
-0.00518123 -0.0104545 0.316705
0.0226957 0.0151011 0.17448
0.02611 -0.0158694 0.437531
-0.0348063 -0.0398253 0.814727
-0.131541 0.0226296 0.0392653
-0.138323 -0.0463183 0.307061
-0.0379903 -0.0334391 0.170066
0.0361888 -0.0235081 0.24379
-0.0289838 -0.0584823 0.301274
0.193893 -0.0481537 0.282339
-0.00516896 -0.0441275 0.903429
0.0344884 -0.0460372 0.818569
0.0108537 -0.00740701 0.484626
0.0393673 -0.0455304 0.121731
-0.014433 -0.0640483 0.66379
-0.0284142 -0.0601458 0.155998
-0.00330547 0.0444862 0.116397
-0.0528678 -0.0520062 0.37205
0.0374315 0.0204379 0.0847597
0.0820372 -0.0666139 0.352799
0.0693683 0.0217362 0.0521636
0.0244646 -0.0659036 0.35047
-0.0163849 -0.00756659 0.804533
-0.016294 0.014802 0.18063
0.00137529 -0.0418066 0.0665076
0.0532351 -0.0626007 0.336538
-0.094635 0.020803 0.100524
-0.0127438 -0.00315191 0.794184
-0.0124984 -0.0645203 0.145334
0.0527204 0.0133249 0.0976521
0.0894938 -0.0534504 0.333295
0.0195906 -0.00314649 0.73457
0.00394634 0.0190559 0.137761
0.0640336 -0.0713574 0.396653
-0.00176346 0.00144375 0.644494
0.0150481 -0.0667133 0.34179
-0.0597699 0.0208661 0.082432
0.00872848 -0.0515359 0.0917393
0.0154914 -0.0666947 0.361357
-0.121829 -0.0592947 0.309518
0.155303 -0.0541114 0.292565
-0.0305817 -0.0527039 0.77531
0.0396821 -0.0295125 0.165804
0.124856 0.0145064 0.0932042
-0.023049 -0.0553149 0.816156
0.0166534 -0.0291489 0.0757917
-0.129912 0.020898 0.099504
0.0514586 0.0193425 0.128284
0.0285343 0.0194726 0.119059
-0.0265915 -0.0162951 0.54068
-0.0276499 -0.0626883 0.281416
-0.159969 -0.0772241 0.360933
-0.0247179 -0.0167664 0.350795
0.0365054 0.0168233 0.0742365
0.0706615 -0.0573719 0.339005
-0.0864906 -0.0570181 0.396608
0.0342335 -0.0213104 0.453501
0.0650994 -0.0655017 0.313538
-0.0610542 0.0195599 0.127237
-0.148512 -0.0600198 0.304827
-0.00315453 -0.0110842 0.118907
0.118774 -0.0487722 0.360347
0.0343264 -0.0856749 0.408718
-0.0331973 -0.0559659 0.505497
-0.0436427 0.0100724 0.128182
0.181973 0.0210129 0.0308047
-0.165934 -0.0895413 0.325038
0.0383477 0.00995453 0.128376
-0.00879223 -0.0667789 0.4741
0.0226071 -0.0353658 0.0853963
0.0473953 0.0103953 0.125028
0.00219865 -0.0342773 0.915347
-0.139051 0.0209898 0.0301767
-0.0853609 -0.0663199 0.305016
-0.0363476 -0.0283906 0.343807
0.00887471 -0.00132947 0.578229
-0.0213457 -0.0160895 0.82484
-0.00835212 0.0094869 0.190997
-0.0302779 0.00892132 0.138337
0.0167208 -0.052042 0.860656
0.13872 0.0214064 0.0841898
0.0387519 -0.057881 0.419169
-0.0741498 0.0177431 0.141288
-0.00218199 0.0658712 0.104358
-0.13579 0.0219056 0.0764209
-0.027196 -0.01811 0.208463
-0.00315217 0.0281097 0.142955
0.09308 -0.0861123 0.414181
-0.06075 -0.072692 0.383914
-0.234653 -0.0413026 0.242096
-0.123462 -0.0503547 0.359619
0.101143 -0.114169 0.401476
-0.0105566 -0.0668127 0.254865
0.153133 0.0188392 0.0495147
-0.00304017 0.0608349 0.084239
-0.0257671 -0.0598116 0.147025
0.00979825 -0.0642886 0.121396
-0.0975559 0.0216242 0.0689053
-0.00236678 0.0564017 0.0712226
-0.0388932 -0.0373504 0.520331
0.099761 -0.062629 0.31892
-0.0138438 -0.012343 0.129955
-0.101607 0.0145624 0.0888413
0.179548 0.0237632 0.012895
0.205784 -0.0414348 0.284672
-0.0310665 -0.0599269 0.390389
-0.0389283 -0.0378647 0.598698
-0.047315 -0.0573928 0.359321
0.181449 -0.0501899 0.295443
-0.0291176 -0.017855 0.748128
-0.107849 0.015786 0.0776747
-0.0266509 -0.0150564 0.630526
-0.00748471 -0.0566088 0.846431
-0.00178143 -0.0669765 0.369695
-0.0334442 -0.0533051 0.572508
0.0110073 -0.0658167 0.609255
0.023229 -0.0653924 0.506491
0.112441 -0.0607903 0.31503
-0.0231511 0.0184332 0.0664673
-0.173488 -0.0742437 0.345072
-0.037966 -0.0331005 0.361153
0.0835106 0.0126262 0.107249
-0.0621898 0.0103789 0.127369
0.0252497 -0.0151673 0.474473
0.0264787 -0.0162211 0.312929
0.0271477 -0.0165897 0.155456
-0.0993175 -0.0558725 0.3116
0.0414936 -0.0498919 0.287155
0.0349653 -0.0633539 0.31487
-0.0859461 0.0118988 0.116003
0.0328505 -0.0200447 0.479266
0.100257 0.0166061 0.0686148
0.0333426 -0.0549658 0.645935
-0.00698553 -0.0638665 0.757422
0.034621 -0.0535299 0.687373
-0.032105 -0.0539739 0.608236
0.0393343 -0.0288043 0.517166
-0.172226 -0.0664864 0.366976
0.0979443 -0.0641654 0.345069
-0.0202769 -0.0613308 0.383766
0.02742 -0.0515251 0.110321
-0.0380081 -0.0781705 0.321634
0.20893 -0.0379521 0.271907
0.0041984 -0.013179 0.840585
-0.101618 0.0218261 0.0610246
0.0168533 -0.00274389 0.775293
0.0331379 0.00931583 0.164658
-0.0247465 -0.0143979 0.789922
-0.158745 0.020844 0.0324854
0.00710863 -0.010088 0.360759
-0.0159516 -0.0127917 0.418539
0.0164089 -0.0661201 0.531907
0.0377828 -0.0771055 0.44036
-0.0514848 0.0202342 0.104695
0.034609 -0.0530397 0.725554
0.00871117 0.00991077 0.126233
-0.0123878 -0.0664212 0.510394
-0.0309134 -0.0596127 0.539634
