-0.0808777 -0.0425578 0.41763
-0.254848 -0.0507995 0.278186
-0.344074 -0.0538578 0.349742
0.330364 -0.0454778 0.331218
0.000414906 -0.0171925 0.190469
-0.104651 -0.0548196 0.319619
-0.346101 -0.0510234 0.276671
-0.467926 -0.0482781 0.293606
0.116719 -0.0396265 0.397492
0.00597074 0.0169547 0.0766911
0.0145598 -0.0924493 0.476315
-0.0314226 -0.115694 0.322039
-0.0179398 -0.0322317 0.125297
-0.104726 -0.0343371 0.0510821
0.0353364 -0.0388258 0.0486619
0.415388 -0.0534377 0.332184
0.0364638 -0.104742 0.225241
-0.250771 -0.0487517 0.372764
-0.00427921 -0.109131 0.215756
-0.0331524 -0.111725 0.525359
-0.0396868 -0.0366151 0.0876946
-0.0610697 -0.0380282 0.343139
-0.161873 -0.0416512 0.379808
-0.0221077 -0.112365 0.587894
0.125232 -0.0507832 0.281462
-0.0378149 -0.0851571 0.464825
-0.0385286 -0.062806 0.349234
0.0174158 -0.0271476 0.530676
-0.131652 -0.0558086 0.326995
0.00942857 -0.0139013 0.121611
0.04112 -0.0757831 0.420272
-0.0193884 -0.0359153 0.169908
0.221118 -0.0494357 0.287344
0.383892 -0.0492398 0.28486
0.0227941 -0.100377 0.620484
-0.0374506 -0.0652299 0.496123
-0.0238029 -0.117184 0.398508
-0.00646777 -0.0542129 0.0461867
0.362508 -0.0499837 0.345057
-0.00477144 -0.0935007 0.131806
-0.333373 -0.0454727 0.313684
0.0283812 -0.0408403 0.238095
0.0898201 -0.0327396 0.104877
-0.0252535 -0.0893244 0.602805
0.0424999 -0.0825157 0.529409
-0.133494 -0.0394895 0.352302
0.000586093 -0.0552396 0.402839
0.149711 -0.0567249 0.356021
0.457648 -0.0486966 0.288472
-0.0583492 -0.0340317 0.378958
-0.0192256 -0.116531 0.28659
0.287789 -0.0545868 0.308372
0.0249662 -0.0485712 0.569543
0.00259816 0.0336404 0.132756
-0.00525387 -0.0940036 0.40662
0.341963 -0.0456338 0.31755
0.242056 -0.0432678 0.33061
0.0189978 -0.0909934 0.436631
-0.000747329 -0.117184 0.503834
0.0421904 -0.0340512 0.370043
0.12408 -0.0547313 0.317725
0.122952 -0.0313323 0.0422729
-0.00322832 -0.06216 0.328084
0.0344813 -0.114224 0.275296
0.410132 -0.0544937 0.313081
0.204781 -0.0509623 0.279821
0.0408862 -0.0793782 0.375675
0.0965897 -0.0539186 0.401486
0.0400525 -0.100191 0.308033
-0.0270914 -0.0978953 0.163991
-0.266007 -0.0448966 0.351417
-0.0755543 -0.0499687 0.286562
0.0319532 -0.0567609 0.187172
0.00251523 -0.117181 0.533103
0.125712 -0.0311175 0.0949105
0.275069 -0.0548331 0.36322
-0.0140781 -0.0302427 0.545192
0.0114658 -0.0291253 0.447585
0.0343735 -0.0412041 0.469828
0.186701 -0.0422468 0.363812
-0.0373036 -0.0744938 0.514218
0.152637 -0.0398759 0.366591
-0.143091 -0.0277577 0.079992
0.124449 -0.0390622 0.347837
-0.301416 -0.0452203 0.31229
-0.0343809 -0.103782 0.543967
-0.0775434 -0.0333834 0.0883246
-0.470101 -0.0533809 0.318213
0.019321 -0.0413695 0.117597
-0.00106888 -0.117184 0.477929
-0.00437011 0.0492911 0.0679915
0.0480098 -0.036012 0.354793
-0.0286863 -0.0365966 0.348203
0.0424648 -0.0800872 0.499084
0.0356509 -0.0547189 0.403168
0.0208627 -0.0336622 0.313252
-0.0377856 -0.0674161 0.458294
0.0112815 -0.0290432 0.0751008
-0.23063 -0.0467809 0.303345
0.0773526 -0.0347386 0.0482528
0.0734555 -0.0567427 0.350787
-0.0879459 -0.0563067 0.341746
-0.0388524 -0.082368 0.358853
0.0733223 -0.0403977 0.330543
-0.011235 -0.0268233 0.502055
-0.18156 -0.055862 0.374368
-0.0114454 -0.031599 0.288487
-0.0247191 -0.0371283 0.445329
-0.00377818 -0.0847318 0.0947135
0.0362434 -0.11049 0.257966
0.192344 -0.0546379 0.312468
0.012589 -0.117184 0.3748
0.0644314 -0.0461993 0.303767
0.00352077 -0.0122152 0.0581736
0.397783 -0.0478659 0.294013
-0.0385228 -0.0670414 0.409824
0.0322008 -0.108418 0.583179
-0.403483 -0.046925 0.30594
-0.0370327 -0.0911763 0.432484
-0.0351793 -0.0517572 0.539201
-0.0765887 -0.039148 0.338079
-0.0165278 -0.117184 0.42899
-0.00291761 -0.00601531 0.147515
-0.0212115 -0.0552329 0.575195
0.036613 -0.0610757 0.221377
-0.0387879 -0.0874365 0.25677
0.0333694 -0.115596 0.54242
-0.250171 -0.0560975 0.330881
-0.0625272 -0.0427353 0.0727148
-0.00598867 0.00515483 0.0938664
0.265251 -0.0559971 0.336504
-0.108609 -0.0369598 0.378668
0.0270951 -0.0561437 0.346488
0.0126737 -0.0549438 0.0660968
-0.00506066 -0.112492 0.342032
-0.198754 -0.0452154 0.312714
-0.0869719 -0.0554107 0.391323
-0.00587781 -0.0336342 0.363458
-0.157361 -0.055184 0.319738
0.332052 -0.0482218 0.348323
-0.292216 -0.0445915 0.32298
0.0096752 -0.117184 0.428373
-0.0190416 -0.0948813 0.57131
-0.0305706 -0.111549 0.241388
-0.0618384 -0.0558627 0.336716
0.039669 -0.105537 0.437647
0.0377374 -0.0457786 0.542125
0.0412626 -0.0994917 0.475978
0.0409236 -0.0725714 0.34457
0.000366803 0.0844991 0.0108451
0.039249 -0.0693045 0.23725
-0.0320563 -0.0644587 0.184216
0.0248615 -0.0944232 0.145042
-0.274441 -0.0465056 0.304374
-0.141777 -0.0529831 0.300614
0.482812 -0.0509316 0.272294
0.0206102 -0.0902584 0.389376
0.0409359 -0.0742864 0.406284
0.0275236 -0.0331964 0.482922
0.0362812 -0.0466486 0.280348
-0.0240101 -0.0891965 0.334407
-0.228674 -0.0431037 0.347032
0.000364866 0.0366925 0.0252192
-0.0127163 -0.0384872 0.0739395
0.473078 -0.0535477 0.317177
-0.0173254 -0.092683 0.481087
0.0203111 -0.0941822 0.523242
-0.00218178 -0.117182 0.550526
-0.120343 -0.0567167 0.346807
-0.0027164 0.0593676 0.105881
-0.00012164 -0.0756182 0.620268
-0.41613 -0.0537189 0.331705
0.0671081 -0.0436634 0.0962435
0.0297294 -0.0635076 0.15168
0.0117003 -0.108211 0.210402
0.116325 -0.0553678 0.38684
-0.470704 -0.0506227 0.273777
0.349958 -0.0458266 0.326732
-0.00803268 -0.0315158 0.222572
-0.321573 -0.0510718 0.277726
0.143614 -0.045802 0.307134
-0.0786187 -0.0351426 0.11503
-0.0251384 -0.0494603 0.105164
-0.0385289 -0.0637902 0.319628
-0.216065 -0.056355 0.354752
0.017385 -0.0948813 0.575307
0.273221 -0.0557601 0.318952
-0.00348257 0.0813267 0.0607752
-0.322931 -0.0452188 0.325618
0.0408715 -0.0789676 0.324877
0.0372271 -0.093391 0.204425
0.0161021 -0.0268383 0.501992
0.035814 -0.0328249 0.401252
-0.0263889 -0.0563038 0.386012
0.0266259 -0.0567173 0.37582
0.218531 -0.045959 0.30867
0.0143031 -0.116624 0.290767
0.0399646 -0.107989 0.489825
-0.0595423 -0.0411377 0.406354
-0.361744 -0.053819 0.299583
0.217141 -0.0481434 0.380406
0.00606093 0.0500213 0.0922822
0.0197198 -0.0666898 0.0988255
-0.0527992 -0.0567798 0.361234
0.00862531 -0.116231 0.604191
-0.180894 -0.0566916 0.345194
-0.0824329 -0.045273 0.30821
0.269838 -0.0505039 0.279728
0.0225716 -0.0694016 0.596701
0.314248 -0.053907 0.30178
0.0395467 -0.0536918 0.439045
-0.0365884 -0.108289 0.374116
0.0521736 -0.035636 0.103262
-0.0168575 -0.0310463 0.105907
0.0209876 -0.117184 0.344436
-0.00156028 -0.0304391 0.321258
-0.00550923 -0.102135 0.380126
-0.438898 -0.0542134 0.311717
-0.0240315 -0.0398904 0.0478018
0.00466735 0.0337594 0.0568106
-0.000809468 -0.039105 0.459293
-0.030118 -0.115754 0.296466
-0.00230116 0.10226 0.0312466
-0.154872 -0.0552826 0.385133
0.171176 -0.0560912 0.369837
-0.0191818 -0.0754331 0.603131
0.0144081 -0.117184 0.497444
-0.0457376 -0.0517282 0.291551
-0.189259 -0.0419153 0.337652
-0.0359231 -0.110312 0.347195
0.0298335 -0.0948999 0.552548
-0.321418 -0.0469522 0.345078
-0.439265 -0.0519941 0.282033
0.00310435 -0.117184 0.451409
-0.104039 -0.0310934 0.0742816
0.355457 -0.0536846 0.298632
0.314261 -0.0553288 0.318881
-0.41091 -0.0521214 0.283978
0.173319 -0.0430992 0.323627
0.0208766 -0.117184 0.397663
-0.183594 -0.0508263 0.279794
-0.0658813 -0.034388 0.0952313
-0.00711717 -0.013585 0.164739
-0.00393602 0.0102224 0.0630978
0.0193038 -0.117182 0.536389
-0.00205916 -0.0365861 0.517632
0.443296 -0.0538252 0.301633
-0.0205994 -0.0901794 0.385668
-0.0169546 -0.0946434 0.533
0.0273568 -0.0893931 0.343456
-0.382486 -0.0545447 0.311602
0.151938 -0.0509121 0.280726
0.223101 -0.0433576 0.354084
0.00577235 -0.0968877 0.328084
-0.0241238 -0.0546942 0.140863
-0.0377719 -0.068137 0.237275
0.026677 -0.0382927 0.0686706
0.0564691 -0.0399977 0.407003
0.128809 -0.0384904 0.380905
-0.0298086 -0.0390758 0.505528
0.0159821 -0.0328326 0.139952
0.0393136 -0.105186 0.380981
0.0857717 -0.0510074 0.283285
-0.00207933 -0.0300176 0.210526
0.0729006 -0.0541034 0.314269
-0.0298382 -0.106045 0.204568
-0.0682885 -0.0354304 0.0497316
-0.0178583 -0.0311823 0.402087
0.182643 -0.0566857 0.346978
0.00758101 0.0112598 0.116445
0.040872 -0.0867614 0.286543
0.0113699 -0.0886216 0.109529
0.0386216 -0.108196 0.332095
-0.201889 -0.056651 0.347823
-0.0412632 -0.0403329 0.328838
-0.00730047 -0.0680496 0.0615337
-0.00602266 0.0269266 0.108985
0.016923 -0.0560783 0.34154
-0.291 -0.0457063 0.347976
-0.0294124 -0.108405 0.566953
0.0214438 -0.0905094 0.410685
-0.363772 -0.0550467 0.323941
0.136694 -0.0327593 0.0634998
0.385935 -0.0522041 0.340544
0.0415734 -0.0625308 0.542285
-0.0458526 -0.0438605 0.0682656
-0.028067 -0.0567364 0.368124
-0.245981 -0.0448344 0.315168
-0.16863 -0.0566863 0.356655
0.268842 -0.0446698 0.348162
0.0535292 -0.0487486 0.292111
0.0054516 -0.00564238 0.071889
0.0242306 -0.0470131 0.15991
-0.138456 -0.0420003 0.326997
0.0836854 -0.0561544 0.339492
-0.038913 -0.0764993 0.383501
-0.00500482 0.0325757 0.0788366
-0.143144 -0.040552 0.386337
-0.0998178 -0.038711 0.402964
-0.0361386 -0.108863 0.270181
-0.103903 -0.047399 0.299373
0.249269 -0.0444976 0.354518
0.0946027 -0.0383643 0.404384
-0.270484 -0.044013 0.33587
-0.0176071 -0.115961 0.267023
0.127853 -0.0566358 0.341717
-0.0662636 -0.0566909 0.376582
0.101553 -0.0364629 0.38218
0.0908658 -0.0567921 0.371091
0.213478 -0.0565163 0.335099
-0.0229487 -0.0374092 0.240411
-0.0376767 -0.103141 0.329494
-0.038702 -0.0911253 0.299085
0.0181627 -0.112538 0.240204
0.0366039 -0.0482892 0.108162
0.0105522 -0.117184 0.518555
0.0352081 -0.0934674 0.5042
-0.00565298 -0.030868 0.266302
-0.00835022 -0.0130028 0.121378
0.000763441 -0.117169 0.586095
0.025521 -0.0347654 0.446199
-0.00334364 -0.117184 0.358483
-0.219811 -0.0434756 0.323876
-0.121036 -0.0354937 0.077768
-0.0225599 -0.117184 0.38539
0.000888096 -0.0985848 0.156215
-0.184957 -0.0553222 0.31888
-0.120324 -0.0567572 0.365044
-0.10923 -0.0560624 0.379754
-0.388038 -0.0538567 0.298919
-0.0705526 -0.0351048 0.369197
-0.0236709 -0.0832946 0.126138
0.0109795 -0.116231 0.268809
-0.0253419 -0.0431479 0.192482
0.0167763 -0.0418749 0.410039
0.0711363 -0.0348945 0.371473
-0.138093 -0.028288 0.0604662
-0.0177651 -0.097329 0.149473
0.00845781 -0.0987126 0.384918
-0.016638 -0.0562068 0.347172
0.371984 -0.0464854 0.303681
0.0195772 -0.0356363 0.21927
0.101804 -0.0322415 0.0501523
0.0393344 -0.0484801 0.490263
0.120413 -0.0351416 0.0682843
0.0100797 -0.0593254 0.584966
-0.0156161 -0.11135 0.607743
0.172319 -0.0514442 0.395644
0.00697806 0.0181803 0.101807
0.31038 -0.044998 0.334633
0.144564 -0.0552627 0.382746
0.0080668 -0.103145 0.342422
0.034858 -0.0728167 0.198553
0.0271402 -0.0915454 0.454602
-0.00376255 -0.104458 0.518927
0.023594 -0.0449703 0.136866
-0.179937 -0.0484238 0.392772
0.0240308 -0.060532 0.328084
-0.037367 -0.0883768 0.494723
0.00897154 -0.098198 0.453666
0.171233 -0.0410486 0.349199
-0.230566 -0.0563763 0.339456
0.0323419 -0.0416108 0.269351
0.0282495 -0.103987 0.188965
0.112654 -0.0454738 0.307927
-0.17002 -0.0408795 0.357545
-0.00783802 -0.116851 0.307756
-0.0362892 -0.0762362 0.538915
0.256778 -0.0438468 0.322115
0.096396 -0.0401965 0.334042
-0.0772412 -0.0350997 0.391737
0.452333 -0.0507017 0.273696
0.203696 -0.0560663 0.372206
-0.00496791 -0.104676 0.4622
0.0416727 -0.0643156 0.482124
-0.015059 -0.0948999 0.556091
0.0406982 -0.0663666 0.277238
-0.0203351 -0.0905881 0.413991
0.00367676 -0.0279376 0.0961309
-0.239605 -0.0557516 0.359447
-0.00510395 -0.0761027 0.328103
0.269026 -0.047587 0.297471
0.0845394 -0.0329162 0.0768472
-0.0389072 -0.0750675 0.345034
-0.364674 -0.0499355 0.344303
-0.229397 -0.0506658 0.380759
0.0181593 -0.0560831 0.388011
0.00851772 -0.107891 0.482931
-0.0300595 -0.0556858 0.336615
-0.10422 -0.052199 0.405901
-0.00297554 -0.0236522 0.146367
-0.154017 -0.0566293 0.339396
-0.000553306 0.0152899 0.151161
0.0386473 -0.0827646 0.219251
0.416942 -0.0540827 0.300707
0.470598 -0.0483402 0.296702
-0.0112727 -0.0879735 0.107676
-0.15408 -0.0497211 0.286965
-0.027673 -0.0475429 0.078035
0.0368771 -0.0369513 0.0959533
0.0358634 -0.0862245 0.586604
-0.0167172 -0.0906504 0.585018
-0.339913 -0.0533221 0.296079
-0.115481 -0.0385719 0.35236
-0.302633 -0.0555822 0.333202
0.0301186 -0.0997095 0.602828
-0.125591 -0.0460458 0.305719
-0.0142366 -0.0284619 0.479809
0.237484 -0.0558343 0.356564
0.101792 -0.0314643 0.0915227
-0.283643 -0.0493684 0.365373
0.0426364 -0.0684046 0.516549
0.0737492 -0.0379149 0.345442
-0.0342384 -0.0927088 0.185776
-0.0328623 -0.106525 0.217194
0.361576 -0.0509439 0.275585
0.384565 -0.0548259 0.319277
0.0233113 -0.0335787 0.550877
0.0384019 -0.0948813 0.569107
0.00489008 0.0640489 0.0615717
-0.0164077 -0.117184 0.482816
-0.0339383 -0.046194 0.485405
0.0482723 -0.0363565 0.0664199
0.327082 -0.0548298 0.309152
-0.198647 -0.0529657 0.297424
-0.00796834 -0.117184 0.411373
0.040783 -0.0877067 0.389545
0.0258943 -0.117177 0.48586
0.0768744 -0.0511149 0.408912
-0.0175222 -0.0314691 0.458546
-0.0161037 -0.117184 0.45079
-0.308293 -0.0476877 0.29621
-0.0145759 -0.117184 0.335124
0.00319289 0.116498 0.0403865
0.0388241 -0.0568535 0.363839
0.197934 -0.0565579 0.33136
0.00602733 0.0349198 0.117558
0.217153 -0.0426639 0.342669
-0.0310793 -0.0500205 0.410002
-0.0153141 -0.0477733 0.0928074
-0.0952022 -0.038725 0.0943089
0.240615 -0.0521763 0.289327
0.0383746 -0.0401969 0.329232
0.000443271 0.00590031 0.160581
0.0360863 -0.106397 0.564759
-0.107048 -0.054746 0.393625
-0.0367119 -0.0920261 0.529392
-0.0421749 -0.0489509 0.310646
-0.00223743 -0.039105 0.472627
0.187145 -0.0489543 0.290624
-0.0251162 -0.0914352 0.454339
0.0485917 -0.0564952 0.347454
0.0404926 -0.0941606 0.325298
0.0494727 -0.0437816 0.31403
0.0728988 -0.0356561 0.117467
-0.0280865 -0.116666 0.505695
0.286652 -0.0553282 0.350542
0.108619 -0.0520479 0.29335
-0.127327 -0.0311955 0.0439007
-0.0390079 -0.0775382 0.270332
0.155559 -0.0529448 0.299579
-0.0340112 -0.0513272 0.234119
0.00671412 -0.039105 0.501786
0.0132189 -0.0415825 0.0500517
0.249112 -0.0560533 0.32374
0.00790467 -0.0155196 0.168215
-0.00354627 -0.03252 0.528984
0.0311636 -0.0857364 0.15639
0.0187323 -0.0352092 0.181879
-0.458486 -0.0482034 0.306045
-0.110188 -0.0559429 0.331666
-0.00368198 -0.018068 0.0796415
-0.00510875 -0.0375887 0.339817
-0.0390571 -0.0366915 0.104848
-0.251107 -0.0529688 0.295869
0.241458 -0.0458458 0.309058
-0.323551 -0.0464114 0.30415
-0.346058 -0.0464483 0.333844
0.0655916 -0.0396456 0.0586332
0.0346001 -0.0373014 0.113926
0.0218907 -0.0311717 0.464473
-0.00119699 -0.039105 0.441427
0.00837546 -0.0380985 0.546566
0.169328 -0.0418972 0.376042
-0.010029 -0.0338586 0.057222
-0.0892186 -0.039571 0.0774268
0.0153117 -0.0550953 0.0835265
0.0351564 -0.089953 0.369223
0.427785 -0.0537639 0.327445
-0.0468585 -0.0348965 0.36423
-0.399809 -0.0483229 0.327085
0.0301744 -0.116974 0.366646
0.259189 -0.0544493 0.369615
-0.00793162 -0.0311135 0.185629
-0.0642674 -0.0547503 0.399671
0.114448 -0.0410161 0.331219
-0.071319 -0.053312 0.307099
-0.0343453 -0.0937759 0.513562
-0.0380086 -0.0848411 0.450943
-0.00507965 -0.0993892 0.424696
-0.0049726 -0.00269886 0.0788617
-0.139312 -0.0560163 0.375618
0.169404 -0.055036 0.317578
-0.0363126 -0.0375131 0.125996
0.00286953 -0.0294348 0.40751
-0.162363 -0.046978 0.302401
0.0147367 -0.0352506 0.353372
-0.0363302 -0.0476005 0.0979266
-0.00117122 0.0554161 0.0323482
0.0320652 -0.0355969 0.524093
-0.262945 -0.0444618 0.317467
0.291185 -0.0525992 0.291649
0.0217816 -0.0382597 0.102562
0.00574237 -0.062867 0.0477856
-0.233502 -0.0553299 0.316494
-0.0367293 -0.0547447 0.516013
-0.011064 -0.0381051 0.561832
-0.0371321 -0.105844 0.412783
0.130606 -0.0428196 0.321816
0.0341198 -0.0456336 0.254368
0.028175 -0.0376926 0.294307
-0.0120844 -0.0735509 0.0796855
-0.00194156 0.0472054 0.0401218
-0.00540326 0.0417102 0.0982731
-0.0239031 -0.048328 0.161292
-0.415031 -0.0472358 0.29905
0.00884512 -0.0941692 0.423173
0.00929552 -0.0696754 0.0658694
-0.0351326 -0.0890724 0.553534
-0.0382356 -0.0929379 0.237449
-0.000283542 -0.0279417 0.133186
-0.000484835 -0.055995 0.385862
-0.0227464 -0.0896256 0.353297
-0.0193275 -0.0908568 0.432695
-0.0144122 -0.111771 0.234095
-0.372074 -0.0477726 0.332906
0.335848 -0.0476401 0.296067
-0.488649 -0.0517057 0.278311
-0.0284682 -0.0775712 0.587719
-0.0353061 -0.0485863 0.280812
0.356029 -0.0548556 0.315161
-0.0435435 -0.0331266 0.395769
-0.0352548 -0.051227 0.437505
0.0438153 -0.0461277 0.0870873
-0.0547491 -0.0445992 0.0872642
0.0247702 -0.117184 0.436241
-0.0317812 -0.115308 0.439634
0.40761 -0.0514578 0.27859
0.039009 -0.110851 0.526102
0.15049 -0.029005 0.0422765
-0.0108805 -0.0640239 0.588636
-0.0375567 -0.0712216 0.479367
-0.155111 -0.049934 0.400622
-0.00650393 0.0129328 0.115207
0.390802 -0.0544221 0.307758
-0.237242 -0.0517088 0.285395
0.0195493 -0.0935206 0.505262
-0.205606 -0.04258 0.333789
-0.215937 -0.0533436 0.300007
-0.0934554 -0.0507004 0.282694
0.141897 -0.0555699 0.324191
-0.217678 -0.0430722 0.35339
0.13415 -0.0564753 0.369247
0.300421 -0.0459256 0.307655
-0.0252242 -0.0662466 0.129222
0.131206 -0.0462037 0.405776
0.188731 -0.041724 0.34582
0.431439 -0.047603 0.311126
0.0401303 -0.0861691 0.245156
-0.0215033 -0.117184 0.353631
-0.0162965 -0.0314133 0.388049
0.0299135 -0.116587 0.309206
0.153529 -0.040303 0.349036
0.484769 -0.0487636 0.288575
0.204349 -0.0433675 0.361998
0.00693698 0.0159209 0.132853
-0.0042357 0.0674689 0.0766011
-0.281528 -0.0446791 0.315988
-0.00256429 0.0858675 0.0360085
-0.000737059 -0.00201224 0.0435428
-0.255821 -0.0556221 0.356859
-0.000392608 -0.0303798 0.301144
-0.00728951 -0.102416 0.176985
-0.120714 -0.042652 0.322353
-0.0039123 -0.11224 0.438089
0.0193153 -0.0325747 0.373574
0.223496 -0.0558583 0.368781
0.0115436 -0.05472 0.407855
-0.00787545 -0.0312861 0.240941
0.0210648 -0.0345613 0.256893
0.0587284 -0.0553156 0.327339
0.0170775 -0.0495277 0.0987881
-0.375023 -0.0486296 0.289004
-0.333623 -0.0551448 0.333737
-0.0138363 -0.105034 0.62348
0.09089 -0.0386657 0.0635869
0.0421205 -0.0601963 0.502803
-0.433913 -0.0514393 0.327476
0.0418751 -0.0530904 0.525963
-0.0883037 -0.0416761 0.325055
-0.0117241 -0.0479099 0.410002
0.000410711 -0.00204149 0.172059
0.000658762 -0.0948813 0.573911
0.105142 -0.0312158 0.0623178
-0.0184147 -0.117181 0.532107
0.0413808 -0.0921332 0.445231
-0.0150809 -0.0325168 0.305891
0.0608638 -0.0436165 0.109274
-0.0275583 -0.039869 0.330177
-0.401419 -0.0479761 0.293245
-0.147155 -0.0393381 0.361908
-0.0319952 -0.0822533 0.57746
-0.0388903 -0.0707487 0.28206
0.160853 -0.0554897 0.382659
0.322639 -0.0482152 0.292524
0.0151818 -0.110282 0.222908
0.0218726 -0.0550486 0.122654
-0.00272304 0.0947402 0.0660482
0.0593375 -0.0398364 0.33272
0.0416742 -0.0955362 0.538484
0.0407205 -0.0954194 0.423669
0.0367091 -0.113896 0.469898
0.00227167 0.107149 0.0195449
-0.0209306 -0.0362705 0.140622
0.320848 -0.0532605 0.356796
0.230116 -0.054477 0.309256
-0.0842708 -0.0342303 0.0442012
0.250919 -0.0560319 0.347762
-0.37086 -0.0462406 0.312021
0.0105039 -0.0893602 0.341959
-0.0116503 -0.0565034 0.375911
-0.00361095 0.0475371 0.0546154
-0.00309442 -0.0302643 0.168936
0.0788811 -0.0554323 0.392318
-0.186154 -0.041691 0.350141
-0.361555 -0.0514927 0.280306
0.00172466 -0.0259244 0.490197
-0.00927329 -0.108739 0.499645
0.00895295 -0.10017 0.439533
0.148122 -0.0273912 0.0779528
-0.0250579 -0.117184 0.414184
0.00240022 -0.11251 0.394679
-0.0231195 -0.0402617 0.556285
0.00838946 -0.0563085 0.369422
0.116864 -0.0503886 0.407941
-0.0193935 -0.0466636 0.126215
0.346248 -0.0539575 0.348139
0.0104573 -0.0881987 0.586058
0.00954792 -0.0273506 0.543754
0.434102 -0.0480329 0.293088
-0.0308907 -0.0443207 0.0653562
-0.0272513 -0.0363641 0.525829
0.401373 -0.0479218 0.323961
0.0392834 -0.060053 0.257239
-0.131656 -0.0386524 0.375134
-0.0385319 -0.0642616 0.368928
-0.00550618 -0.117184 0.397266
-0.0033932 0.0713691 0.0490574
0.0680139 -0.0506637 0.283559
0.010643 -0.117184 0.467825
0.00473545 -0.117148 0.329901
-0.0494004 -0.0373652 0.125963
-0.0314831 -0.0763564 0.170569
-0.0274242 -0.0900813 0.374276
-0.000530129 0.0463718 0.121764
-0.0143498 -0.0847158 0.620635
0.182239 -0.0562635 0.32715
-0.00763161 -0.101413 0.475945
-0.0372271 -0.0980653 0.470475
-0.000865062 0.0707819 0.0257497
-0.263076 -0.0560408 0.340701
0.015538 -0.0780732 0.0909787
-0.0289744 -0.101421 0.585566
-0.0903011 -0.0384633 0.344255
-0.193641 -0.0545703 0.385725
-0.0357241 -0.0620562 0.221164
-0.444106 -0.0537559 0.296216
0.0357255 -0.092909 0.487247
0.0343567 -0.0432423 0.313279
0.0402122 -0.0584257 0.422558
-0.13036 -0.0311992 0.0912273
0.0414089 -0.0607323 0.462321
-0.0306907 -0.074111 0.328103
-0.0322333 -0.0558856 0.560059
-0.0163018 -0.116851 0.566829
0.0387384 -0.101554 0.244171
-0.036014 -0.0904141 0.389595
0.000744261 -0.117184 0.373754
-0.0150457 -0.117184 0.514126
-0.0015306 -0.116541 0.284588
0.0408367 -0.0861133 0.55243
0.0358975 -0.114014 0.423889
-0.233793 -0.0432372 0.328311
-0.0378011 -0.10215 0.361162
0.32218 -0.0550229 0.344805
0.0125385 -0.0311755 0.123524
0.201165 -0.0465831 0.304914
-0.0819817 -0.0408117 0.0980747
-0.122026 -0.0387573 0.388977
0.119415 -0.0380225 0.360884
0.0572166 -0.034132 0.373776
-0.0388097 -0.0868714 0.336002
-0.0196812 -0.0932018 0.49558
-0.011256 -0.0519388 0.062852
0.013844 -0.117184 0.415996
-0.0448447 -0.0554177 0.330539
0.0521151 -0.0356606 0.0865877
-0.0149227 -0.0343873 0.0898272
-0.00594987 -0.101262 0.33441
0.0274034 -0.0647161 0.581713
0.00417137 -0.117173 0.569175
0.251247 -0.0490642 0.288901
0.0282095 -0.10735 0.208134
0.0708979 -0.056739 0.375353
0.2293 -0.0439265 0.321059
0.132353 -0.0336406 0.0797364
0.00826868 -0.106857 0.363367
0.0113534 -0.112447 0.620911
0.0321866 -0.11644 0.391103
0.01399 -0.0748114 0.614069
0.0312647 -0.0466528 0.21792
0.217367 -0.0430672 0.326504
0.00383325 -0.0283675 0.0533775
0.0180946 -0.0948999 0.555413
0.0996516 -0.0558704 0.384294
0.0882301 -0.0406537 0.0918049
-0.293416 -0.0533355 0.297678
0.00851353 -0.0917211 0.53397
0.168832 -0.0512847 0.284121
0.0348923 -0.0327367 0.382938
0.0361075 -0.0498432 0.556425
0.278525 -0.0558402 0.334111
-0.0258488 -0.0375095 0.292815
-0.0334394 -0.033388 0.408793
0.0312077 -0.0353493 0.50155
-0.478067 -0.0539025 0.3043
0.00703302 -0.0280318 0.179694
-0.112875 -0.0435006 0.40912
-0.0144326 -0.0919107 0.465121
0.00198644 -0.025811 0.112015
-0.037411 -0.10014 0.446523
0.0135932 -0.0316072 0.293263
0.0861284 -0.0438206 0.31509
-0.0385917 -0.0888237 0.418121
0.107559 -0.0368171 0.36777
-0.00285226 -0.0560535 0.340766
0.0118975 -0.0832968 0.627741
0.0795003 -0.0332807 0.0910867
0.0257597 -0.094706 0.533903
-0.00300542 0.0589756 0.0449929
-0.110439 -0.0567461 0.356213
-0.00573879 -0.102256 0.356309
0.0297439 -0.0350335 0.358878
-0.264398 -0.0543176 0.306806
-0.0134396 -0.117184 0.369207
-0.0369072 -0.0928007 0.483961
-0.00145629 -0.0440861 0.0396722
-0.480283 -0.0533378 0.292109
-0.0186177 -0.0604674 0.328103
-0.296303 -0.0446786 0.337212
0.00678487 -0.0298758 0.469932
0.461289 -0.0485381 0.30742
0.00996448 -0.0897719 0.373223
-0.0734758 -0.0472479 0.40414
-0.138973 -0.051144 0.283383
0.0320287 -0.116316 0.323613
-0.0263615 -0.0872225 0.140432
-0.194368 -0.0565372 0.331435
0.0284053 -0.0923128 0.473529
-0.264625 -0.0487146 0.290715
0.0408502 -0.089603 0.271272
-0.38266 -0.046901 0.323843
-0.208636 -0.0560111 0.368676
-0.00913371 -0.0899063 0.374827
-0.119826 -0.0298006 0.0646474
-0.109551 -0.0437026 0.316525
-0.0230407 -0.0359268 0.269733
-0.0225114 -0.117184 0.471968
-0.289564 -0.0557623 0.337864
0.00710377 -0.00893996 0.138937
0.212871 -0.0553741 0.317536
0.157281 -0.0430017 0.389272
-0.0387247 -0.0722596 0.252772
0.0417231 -0.0903491 0.462888
0.185778 -0.0447953 0.314223
-0.138986 -0.0543448 0.313067
-0.264582 -0.0541577 0.369614
-0.00213908 -0.0873605 0.634715
-0.398852 -0.0509316 0.274509
0.0321938 -0.0747158 0.167436
0.00740575 -0.0296517 0.514338
0.0682537 -0.0558721 0.336217
0.0835529 -0.0352487 0.377682
0.0408338 -0.0841678 0.363423
0.304118 -0.0553739 0.340619
0.134145 -0.0544482 0.394166
0.0273786 -0.0650518 0.136254
0.0225437 -0.0899962 0.129715
-0.411662 -0.0544813 0.316704
-0.456792 -0.0496849 0.280732
-0.0107073 -0.089254 0.337049
-0.00521915 -0.0281669 0.0708892
0.00897154 -0.102344 0.466193
0.0416553 -0.0788655 0.542105
-3.59598e-05 -0.117184 0.423372
0.127687 -0.0454031 0.308546
-0.00190624 0.115999 0.0278025
-0.0795536 -0.0364393 0.357984
0.288456 -0.0505737 0.278791
0.0126503 -0.0265491 0.487113
0.0216041 -0.0811284 0.588987
0.0142592 -0.0426392 0.0775246
-0.0229809 -0.0326277 0.493896
0.0222366 -0.0564784 0.361234
-0.0348035 -0.10671 0.231656
-0.0314704 -0.0538292 0.197889
0.344439 -0.05472 0.307641
0.232977 -0.0473976 0.299463
-0.0384251 -0.0951831 0.347372
-0.00421446 0.0290248 0.0649626
0.00409564 0.0844862 0.0475524
-0.0368262 -0.107263 0.307292
-0.00949711 -0.0385092 0.410039
0.0160507 -0.0369122 0.0907075
0.127627 -0.0523696 0.296125
-0.0293022 -0.062463 0.164657
-0.452605 -0.0539957 0.318043
-0.0631523 -0.0436855 0.104143
0.0335774 -0.0565113 0.207217
-0.182298 -0.0436342 0.321117
-0.0750103 -0.0555459 0.329194
-0.0368713 -0.0591545 0.470981
0.14337 -0.0427814 0.395226
-0.0138726 -0.0311527 0.442836
-0.0509915 -0.0541234 0.405176
0.13811 -0.0289187 0.0464689
-0.0459434 -0.0361056 0.077093
0.00759436 -0.0953596 0.140311
0.0185014 -0.0896353 0.3546
-0.346892 -0.0457392 0.316075
0.0372764 -0.0907469 0.407667
0.00347841 0.00290181 0.0542522
0.00899945 -0.038071 0.52776
-0.187209 -0.0527283 0.295986
0.0187692 -0.114338 0.254301
-0.00760114 -0.0948813 0.541242
0.00174024 -0.0497613 0.576971
0.294797 -0.0543822 0.36015
-0.0202681 -0.116844 0.307777
0.0290938 -0.0909505 0.425497
0.00562086 0.0491726 0.0772927
-0.091819 -0.0564254 0.377162
0.0285144 -0.0948813 0.575819
0.00494861 0.00536285 0.142628
-0.178038 -0.0459713 0.307173
0.0623933 -0.0357422 0.359913
-0.186501 -0.0449615 0.381385
0.0341962 -0.0786174 0.181479
-0.027288 -0.037786 0.114215
-0.04889 -0.0366068 0.0607236
0.0323172 -0.0560108 0.390781
0.0297663 -0.0403195 0.413149
0.0426254 -0.0830408 0.515041
0.27415 -0.0441101 0.334633
-0.240896 -0.0435831 0.349001
-0.00532954 0.0144382 0.0819932
0.21364 -0.0532557 0.299311
-0.140459 -0.0469551 0.403523
-0.00556307 0.0271767 0.0941278
0.37147 -0.0546195 0.336618
-0.279346 -0.048345 0.29262
-0.116812 -0.040499 0.33482
-0.0220811 -0.114151 0.253026
-0.070955 -0.0566305 0.348391
-0.150863 -0.0312207 0.0669952
-0.00330012 -0.00472968 0.0614203
0.0408139 -0.086302 0.347797
0.0310815 -0.0400374 0.434252
-0.0527295 -0.0434407 0.31581
0.0112309 -0.104734 0.518909
-0.168055 -0.0548369 0.387579
-0.130513 -0.0338656 0.0708827
0.0546589 -0.0440704 0.075933
0.0474264 -0.0527815 0.302301
0.323682 -0.0452588 0.318503
0.30288 -0.0529164 0.293915
-0.0144418 -0.0557368 0.394401
0.20369 -0.0543004 0.384896
0.0242989 -0.0761138 0.328084
0.494761 -0.0497253 0.280642
0.0163876 -0.0308741 0.402317
0.0151154 -0.0991837 0.159507
0.199248 -0.0484828 0.293487
-0.0950292 -0.0426008 0.414031
0.027053 -0.117184 0.379651
0.0273406 -0.0368741 0.3462
-0.0611434 -0.0511879 0.285675
-0.00520182 -0.105675 0.41202
0.00918307 -0.0916929 0.123551
-0.00536499 -0.102592 0.395091
0.0189893 -0.117164 0.331103
0.0373456 -0.0445983 0.0679793
0.13255 -0.0383767 0.366873
-0.0371279 -0.106075 0.389573
-0.0244264 -0.0904789 0.401755
-0.115766 -0.0531791 0.303695
-0.174146 -0.0417978 0.371416
0.0067768 0.0117188 0.0910277
0.370895 -0.0522878 0.286601
-0.325097 -0.0483744 0.29144
0.0400234 -0.100404 0.395022
0.415952 -0.0486009 0.288839
-0.000255249 -0.0932771 0.525746
-0.00255374 0.103684 0.0429732
0.0869863 -0.0567561 0.357234
-0.189175 -0.0566459 0.356828
0.00676626 -0.111905 0.440325
0.165762 -0.045594 0.308685
0.100571 -0.044027 0.314523
0.038952 -0.111362 0.510187
-0.312891 -0.0554131 0.32652
0.154648 -0.0553273 0.321167
0.109922 -0.0337782 0.100537
0.0125773 -0.117184 0.549025
-0.0960849 -0.0535612 0.308045
0.00938617 -0.0560882 0.353158
-0.117318 -0.0548583 0.319329
0.0724408 -0.0521553 0.295313
-0.00207426 0.0301532 0.0450931
-0.00494932 -0.10843 0.453655
0.0785099 -0.0406821 0.105332
-0.0708284 -0.0340306 0.06946
0.0291563 -0.0525462 0.1721
0.0057214 -0.0308155 0.223325
-0.198458 -0.0508871 0.279352
-0.282661 -0.0544622 0.30747
0.042253 -0.0792202 0.484926
0.16393 -0.0411146 0.33714
0.041243 -0.0858649 0.432522
0.401466 -0.0468798 0.30714
-0.0418366 -0.0568521 0.376074
0.00348384 -0.0317647 0.557352
-0.017243 -0.0700535 0.0930354
0.397272 -0.0497336 0.334535
-0.0481575 -0.0383164 0.340553
-0.24281 -0.054349 0.307747
0.0954452 -0.0520157 0.293338
-0.0211536 -0.0381334 0.203934
-0.0834382 -0.0370482 0.40501
0.0626011 -0.0344701 0.397233
-0.177765 -0.0564222 0.329727
-0.00409711 -0.022811 0.178358
0.0209864 -0.0555284 0.397149
-0.014168 -0.0323083 0.374531
-0.348743 -0.0467198 0.30192
0.109387 -0.0564078 0.374523
0.0909221 -0.0343173 0.0445729
0.00771929 -0.00144492 0.105217
0.181109 -0.0459206 0.386821
-0.308444 -0.0501617 0.280902
0.0245406 -0.085348 0.613877
-0.0387799 -0.0871593 0.404426
0.439805 -0.0516905 0.279503
-0.211202 -0.0458374 0.309509
-0.00124601 -0.111174 0.229095
-0.168877 -0.054416 0.312183
-0.0499634 -0.0565237 0.34775
0.356962 -0.0547953 0.334502
0.0384398 -0.106224 0.549588
0.237591 -0.0456341 0.365993
-0.0255146 -0.037845 0.0976701
-0.080776 -0.0400512 0.0671441
0.0165445 -0.117128 0.584429
0.0123779 -0.0415706 0.0642719
-0.0128985 -0.0902923 0.3955
0.00932973 -0.071109 0.590465
0.11415 -0.0564857 0.341127
0.00630738 0.0272522 0.085659
0.0252779 -0.116942 0.558712
-0.420753 -0.049056 0.285507
0.00881447 -0.00125866 0.126792
-0.0213145 -0.0966028 0.612757
0.0348538 -0.0509137 0.230306
-0.0057868 -0.0300364 0.120771
0.28043 -0.0488997 0.289221
0.00837928 -0.104032 0.374842
-0.150187 -0.0469611 0.302227
0.479868 -0.0493197 0.306216
-0.0381879 -0.0468668 0.116671
0.00867302 -0.0917695 0.405317
-0.00744684 -0.0906541 0.433463
-0.0295428 -0.0564007 0.349235
-0.0261359 -0.0921851 0.470923
0.239093 -0.043292 0.343797
-0.0940044 -0.0325649 0.105077
0.120569 -0.0301147 0.0553474
-0.0212165 -0.0589543 0.116788
-0.33352 -0.0517149 0.282945
0.0600628 -0.0354442 0.116801
-0.120525 -0.0515135 0.404818
0.11722 -0.0300578 0.0845009
0.469823 -0.0524294 0.284557
0.100801 -0.0447261 0.413891
-0.150951 -0.0563063 0.368903
-0.035838 -0.0509998 0.504399
-0.32803 -0.0533873 0.35481
0.0047623 -0.019417 0.0668061
-0.110981 -0.0359144 0.0630219
0.089127 -0.0501496 0.412725
-0.0102431 -0.0355794 0.350952
-0.0060517 -0.0304658 0.198795
-0.0198244 -0.108408 0.211848
0.00367466 0.0936441 0.0385892
0.0101353 -0.056219 0.330033
0.319116 -0.0553848 0.330566
0.0461496 -0.0568426 0.374328
-0.100365 -0.0563194 0.340246
0.183407 -0.0559045 0.371743
0.0414951 -0.0713923 0.431845
0.00710984 -0.00459767 0.160354
-0.00474717 -0.117184 0.490638
-0.0241023 -0.0940996 0.521919
-0.00342578 0.0211461 0.0559865
0.00632075 0.00220372 0.083119
0.0627276 -0.0368011 0.0460421
0.222962 -0.0562646 0.324866
-0.0362036 -0.0550338 0.253374
0.0166646 -0.0912877 0.447742
0.0268388 -0.0447315 0.189233
0.00562874 -0.0288954 0.436556
-0.035056 -0.0823837 0.192967
0.00133862 -0.112492 0.383158
0.162656 -0.0567065 0.353527
-0.137205 -0.0401121 0.339978
0.0128816 -0.10791 0.507821
0.0417833 -0.09965 0.514705
-0.00488146 0.0572375 0.0911819
0.291144 -0.0556357 0.32591
-0.0389367 -0.0771232 0.298095
0.0297297 -0.0905599 0.400537
-0.00954142 -0.117184 0.384809
-0.0383514 -0.0969842 0.274564
0.386543 -0.0470375 0.29991
0.0788736 -0.0361293 0.360958
-0.0370294 -0.0691205 0.526103
0.0395077 -0.104234 0.369484
-4.50332e-05 -0.0314535 0.374915
0.198829 -0.0441724 0.319174
0.0216011 -0.0317207 0.386185
0.00250272 -0.0858524 0.328084
0.0409736 -0.0759555 0.294592
-0.213004 -0.0441288 0.365211
-0.0311861 -0.115783 0.42945
0.189903 -0.0566077 0.357712
0.456395 -0.0540265 0.314753
0.0108029 -0.031341 0.197103
-0.0292397 -0.0948813 0.563367
-0.0384634 -0.0646388 0.38887
0.139678 -0.0567143 0.347933
-0.106381 -0.0497713 0.287159
0.116124 -0.0375594 0.382926
0.0108202 -0.0205226 0.14267
0.0375924 -0.059391 0.564917
0.185008 -0.0472729 0.300816
0.00638021 -0.116841 0.307009
-0.276814 -0.0559032 0.339226
0.0383221 -0.0837047 0.573998
0.278448 -0.0458288 0.308644
0.00434094 -0.112492 0.350086
0.00843813 -0.0948813 0.561109
-0.273172 -0.0554725 0.351858
-0.0301677 -0.0934001 0.5016
0.0036245 -0.0391717 0.331074
-0.30571 -0.0468446 0.349713
-0.0375703 -0.101906 0.424892
0.0478281 -0.0380011 0.0463138
0.0271429 -0.0931542 0.494691
-0.131106 -0.0567334 0.354311
-0.389807 -0.0466221 0.313077
0.224833 -0.0564435 0.340709
-0.0171763 -0.117002 0.553529
-0.0194241 -0.043507 0.0590314
0.259306 -0.0460783 0.361023
-0.273925 -0.0514927 0.282584
0.0259622 -0.090118 0.377619
0.00906537 -0.0852653 0.0967567
0.0088494 -0.117184 0.402028
0.395727 -0.0518273 0.282019
0.000667292 -0.107891 0.473038
-0.0383743 -0.0960444 0.372656
-0.0356519 -0.0673399 0.551074
0.04003 -0.0582112 0.286697
-0.0579102 -0.0400592 0.331467
-0.000993289 0.0885151 0.0224274
-0.00061963 -0.0183306 0.0485388
-0.0569733 -0.0559503 0.388598
-0.0104733 -0.0994834 0.161095
-0.199739 -0.055363 0.318136
0.172203 -0.0565964 0.336436
-0.124618 -0.0560953 0.376612
-0.0201369 -0.0545505 0.406531
-0.00539749 -0.0933332 0.38979
0.268512 -0.0444818 0.317333
0.0390222 -0.106307 0.283583
-0.237164 -0.0550881 0.372278
0.000568709 -0.0446175 0.410002
-0.19571 -0.0438468 0.370274
0.0208579 -0.0856345 0.116787
-0.164105 -0.0407072 0.346756
-0.00283933 -0.115904 0.60865
-0.111868 -0.0390445 0.397721
0.095472 -0.0560469 0.335964
-0.0254281 -0.0455495 0.180417
0.143826 -0.0564855 0.336357
-0.0352566 -0.107533 0.509746
-0.00283357 -0.0286445 0.453159
0.0562861 -0.0537143 0.311592
0.0167513 -0.105294 0.193094
0.0237741 -0.0380375 0.0821719
-0.000902543 -0.0902031 0.116721
0.10356 -0.0531037 0.303764
-0.027091 -0.116212 0.277213
0.0229599 -0.116292 0.271305
-0.0374546 -0.0599626 0.484153
-0.00964798 -0.0258877 0.51906
-0.301964 -0.0554775 0.320996
0.158956 -0.0561776 0.369929
-0.150785 -0.0400813 0.374917
0.195805 -0.0566694 0.345046
0.110793 -0.0391309 0.342723
0.0807508 -0.036838 0.405609
-0.162085 -0.0406733 0.367635
-0.149121 -0.0302993 0.0516393
-0.00950933 -0.0170156 0.138506
-0.227915 -0.0563025 0.351333
0.250072 -0.0556077 0.36243
-0.258846 -0.0552691 0.315158
0.00195292 -0.0166654 0.155004
0.0523497 -0.045538 0.0957158
-0.0385625 -0.0810741 0.234867
0.197602 -0.0443008 0.371917
0.0223149 -0.0370777 0.153232
-0.022618 -0.0741294 0.115696
-0.0226635 -0.0679059 0.587411
0.0115824 -0.0313065 0.320384
-0.494847 -0.0537579 0.303356
-0.0364259 -0.0354645 0.357428
0.0399789 -0.0892571 0.336336
0.00550295 0.0420476 0.0675279
0.0122866 -0.0314185 0.30753
-0.272063 -0.0473494 0.362562
0.0104625 -0.0316572 0.235974
0.0321479 -0.0872187 0.330611
0.0849143 -0.0411718 0.327219
-0.0341474 -0.0461076 0.301505
0.187313 -0.0428726 0.326039
0.0411891 -0.0460114 0.119947
-0.00496791 -0.101612 0.436579
0.025142 -0.117182 0.470613
-0.00798336 -0.0914598 0.454784
0.00628369 -0.0734836 0.328103
-0.11302 -0.0371155 0.367524
0.25975 -0.0556369 0.318242
0.0258767 -0.0541709 0.409191
-0.0196589 -0.0464839 0.069557
0.0054745 0.0661561 0.0834624
-0.0214929 -0.0374735 0.156904
-0.0389247 -0.0697941 0.334323
0.0299486 -0.0965483 0.165763
0.0217436 -0.116737 0.300513
0.0331259 -0.0555644 0.333988
0.265926 -0.055535 0.352095
-0.00824403 -0.116406 0.274765
-0.169245 -0.0566825 0.342817
0.00639833 0.0430328 0.105864
-0.0218389 -0.0329717 0.470825
-0.0123342 -0.116704 0.296787
0.0786761 -0.0457375 0.306075
-0.0584457 -0.0348655 0.366715
0.0407217 -0.068043 0.367208
-0.0212883 -0.0564503 0.358422
0.100494 -0.0510533 0.2834
0.0249888 -0.0522436 0.146098
-0.140321 -0.0545878 0.392685
0.173766 -0.0566738 0.357585
0.00731792 -0.0506927 0.0440512
-0.20637 -0.0425487 0.348753
0.202833 -0.0556842 0.320648
0.00625825 -0.0379295 0.420102
0.0633554 -0.0347717 0.103365
-0.221745 -0.0559035 0.365057
-0.0636145 -0.0468376 0.301001
-0.0352843 -0.11105 0.287017
0.392639 -0.0466874 0.314805
0.0410253 -0.0781069 0.273538
0.181789 -0.0417123 0.336276
0.238068 -0.056284 0.344904
0.00496532 -0.112492 0.409219
-0.00653542 -0.0894002 0.34589
-0.159413 -0.0567095 0.349045
0.0397573 -0.0866581 0.233536
0.0312188 -0.0726631 0.589307
0.0408567 -0.0684359 0.320887
-0.000129057 0.0958965 0.0121583
0.00729966 -0.113644 0.248431
-0.0186609 -0.0810345 0.328103
-0.132416 -0.0487678 0.291734
0.46393 -0.0510913 0.274051
0.033533 -0.0984833 0.591806
-0.0575637 -0.0338882 0.390533
-0.139738 -0.0563925 0.335282
0.250587 -0.0435614 0.34234
-0.0329628 -0.0438023 0.516421
-0.125827 -0.0379723 0.365156
-0.0160648 -0.117184 0.462366
-0.00719537 -0.0273353 0.470705
0.0184062 -0.0902778 0.398218
-0.0720427 -0.0355021 0.404035
-0.158007 -0.0438501 0.31774
0.275417 -0.0556937 0.345197
0.0499459 -0.0457415 0.109527
-0.051457 -0.0530853 0.305258
0.136156 -0.0501577 0.284993
0.157118 -0.0408149 0.377136
0.281209 -0.0453241 0.34902
0.0680521 -0.0343943 0.382517
-0.311594 -0.0546095 0.307834
-0.0377574 -0.0623208 0.436148
-0.391411 -0.0545874 0.322466
-0.378122 -0.0538127 0.34007
-0.00310344 -0.0171572 0.090956
-0.0671883 -0.0367397 0.352713
0.0768135 -0.0391339 0.0603353
0.220436 -0.0449016 0.367702
-0.242579 -0.0458238 0.36536
-0.0216508 -0.0322212 0.534866
0.302328 -0.0447967 0.326551
-0.430216 -0.0482193 0.316036
0.000209837 -0.07646 0.0701937
-0.164469 -0.0511207 0.282541
-0.0191873 -0.089875 0.366442
0.416953 -0.0480477 0.319477
-0.1009 -0.0567804 0.370352
-0.125515 -0.0543146 0.313485
-0.0317118 -0.0898294 0.363537
0.0352505 -0.090189 0.380087
0.0325766 -0.0398487 0.458737
0.0965387 -0.0360471 0.370181
0.0405418 -0.0705091 0.550231
0.0386757 -0.0491217 0.463
-0.166565 -0.0479811 0.39643
-0.208034 -0.0489263 0.290747
-0.0010521 -0.0303995 0.256003
-0.0654459 -0.0443587 0.311853
-0.0817744 -0.0351965 0.37494
0.0407699 -0.0885276 0.39963
0.443565 -0.0486414 0.314035
0.147574 -0.0406389 0.338
-0.0166956 -0.091113 0.446891
-0.0239286 -0.0936808 0.510125
0.0287874 -0.117184 0.352319
0.132251 -0.0412514 0.395734
-0.0133335 -0.0903985 0.118447
-0.00880144 -0.117184 0.57518
0.113347 -0.0331985 0.0479357
-0.0361434 -0.104174 0.497436
-0.280271 -0.0448102 0.34482
0.0158651 -0.117182 0.480834
0.0147198 -0.0316094 0.416028
0.0403915 -0.0606975 0.340801
-0.00275007 -0.0431753 0.56911
0.00890434 -0.106112 0.429317
-0.00263102 -0.0365542 0.487233
-0.298031 -0.0552846 0.345148
0.0263261 -0.0948813 0.562887
-0.0141469 -0.0321663 0.417265
0.023561 -0.0927835 0.483439
-0.0116598 -0.0271884 0.490594
-0.0388085 -0.0855304 0.376951
0.00851855 -0.0557074 0.395081
-0.378653 -0.0471921 0.298737
0.0313523 -0.0872042 0.600009
0.00923977 -0.0284701 0.0864949
-0.000497244 -0.0900479 0.585275
-0.0324478 -0.114231 0.476003
-0.00600623 0.0142254 0.100303
-0.11679 -0.0552337 0.38787
0.00817392 -0.1023 0.353536
-0.0283195 -0.0909797 0.425584
-0.0049691 0.0340521 0.118912
0.0415447 -0.06253 0.451363
0.0295502 -0.0462446 0.205919
0.0314778 -0.0466329 0.129246
0.0388621 -0.0529922 0.271626
-0.0729741 -0.0391259 0.0593192
-0.0289702 -0.0559468 0.173622
-0.0917038 -0.0540985 0.401257
0.0284875 -0.113459 0.249062
0.232557 -0.0535326 0.379334
-0.316988 -0.0541715 0.355114
-0.0659242 -0.0567626 0.358252
0.0898975 -0.0553697 0.391292
-0.0389417 -0.0706128 0.360914
0.0407176 -0.090888 0.302099
-0.0739418 -0.054517 0.318246
0.0386646 -0.107921 0.320881
-0.217904 -0.0525395 0.384056
-0.00395825 -0.0948999 0.564211
0.045871 -0.0424848 0.408781
-0.0177927 -0.0372425 0.343092
0.0351342 -0.0455997 0.425652
-0.347464 -0.052384 0.288124
-0.0187293 -0.110215 0.222647
-0.00786538 -0.00138207 0.127691
0.363076 -0.0480337 0.293085
-0.00930882 -0.0417535 0.0496259
0.485694 -0.0536615 0.296913
-0.122126 -0.0562785 0.33599
-0.028232 -0.0948999 0.545856
0.382586 -0.0473776 0.32707
0.0323799 -0.0369936 0.538364
0.00135245 -0.117184 0.461468
0.365615 -0.0547065 0.309894
0.0096702 -0.103859 0.184884
-0.0148216 -0.0826017 0.0988398
-0.420186 -0.0482274 0.319445
-0.0264582 -0.055119 0.153131
-0.333413 -0.0549 0.345436
0.0270277 -0.0366061 0.321325
-0.00376537 0.0680231 0.0889468
-0.0624915 -0.0406161 0.0619062
-0.0115824 -0.0934115 0.501949
-0.0193757 -0.115798 0.577925
-0.00956223 -0.108827 0.484208
0.322191 -0.0463861 0.304335
-0.00599064 -0.00527705 0.0908062
0.0514439 -0.0558412 0.336993
0.0343714 -0.0371481 0.0843835
-0.0975706 -0.0555788 0.388388
-0.0249604 -0.111365 0.231554
-0.233578 -0.0440782 0.357004
-0.0202272 -0.0341822 0.282682
-0.0317305 -0.0396554 0.135578
0.134522 -0.0537871 0.307989
-0.0222816 -0.0360271 0.25893
-0.0563805 -0.0355295 0.112232
-0.251167 -0.0465384 0.304554
-0.0106948 -0.0562351 0.35631
0.00150982 -0.03585 0.348173
-0.0371955 -0.0533805 0.322137
0.0572761 -0.0416939 0.0638094
0.00856061 -0.0956981 0.395583
0.0134851 -0.117184 0.559772
-0.0110175 -0.117184 0.441288
0.0205868 -0.0365516 0.128251
-0.0177151 -0.0424299 0.112585
0.109305 -0.0422848 0.407761
0.160429 -0.0404167 0.357282
0.0125768 -0.0322822 0.211833
-0.135485 -0.0442764 0.31445
-0.00237179 -0.0651261 0.595105
-0.0346545 -0.0382241 0.0573557
0.00993382 -0.0329457 0.368426
0.0379875 -0.109752 0.303698
0.0032211 -0.038447 0.536754
-0.0377311 -0.0960459 0.224973
0.118852 -0.0491298 0.289868
0.0149988 -0.117184 0.353278
0.420696 -0.0544268 0.311529
0.00876924 -0.103037 0.417229
0.177071 -0.0418679 0.368399
0.231268 -0.0515566 0.284242
0.00550946 0.0311122 0.0687818
-0.0163671 -0.0335119 0.247825
-0.02194 -0.117105 0.326681
-0.00558554 -0.106192 0.37028
-0.359571 -0.0547392 0.33629
-0.17026 -0.0556673 0.377204
0.1551 -0.0540767 0.392
-0.000191743 -0.100508 0.166612
0.0129076 -0.117184 0.45787
0.00426484 0.0903178 0.059377
-0.00546273 0.0400379 0.108765
-0.391277 -0.0484209 0.290127
-0.283848 -0.0552678 0.356548
-0.0367184 -0.0613503 0.534926
-0.228729 -0.0488079 0.290985
-0.00849396 -0.0525334 0.577033
-0.0375254 -0.0785184 0.490836
-0.030254 -0.0882552 0.586012
0.328661 -0.0551718 0.335128
-0.0382254 -0.0819937 0.440835
0.124002 -0.0541478 0.397145
-0.038079 -0.0587688 0.280273
0.269862 -0.0462843 0.358549
-0.00893125 -0.0312971 0.278254
-0.038276 -0.0561979 0.343195
-0.0607623 -0.0348528 0.0860367
0.334855 -0.0460783 0.30644
-0.107709 -0.0386689 0.345253
0.0313542 -0.116886 0.530083
-0.0294936 -0.104133 0.193439
-0.147115 -0.0400754 0.351416
0.0268372 -0.0392508 0.0548375
-0.00746145 -0.00352378 0.116924
0.0351754 -0.114968 0.436586
-0.0095767 -0.117184 0.47178
-0.104693 -0.0370075 0.388404
-0.0366322 -0.0368955 0.0733095
-0.0103811 -0.117184 0.52352
0.0270531 -0.0497601 0.112228
-0.330651 -0.0551365 0.316698
-0.159284 -0.041754 0.332459
-0.00095306 -0.0563156 0.37416
0.312609 -0.0471665 0.349286
-0.254671 -0.045291 0.358058
0.0216867 -0.0378043 0.560305
-0.0329131 -0.0474598 0.088053
-0.435149 -0.0483351 0.290911
0.302468 -0.0550951 0.312221
-0.0541336 -0.0389324 0.0519932
0.0600902 -0.0562402 0.34284
0.111258 -0.0305583 0.0707416
-0.0372664 -0.0998502 0.456942
-0.0145343 -0.032325 0.316295
-0.0050521 0.0437377 0.0880596
0.081848 -0.0409727 0.0828768
-0.0311047 -0.0999625 0.572798
-0.0781726 -0.0567609 0.358524
0.0246129 -0.113929 0.590168
0.0420798 -0.075826 0.465808
-0.315479 -0.0551303 0.342618
-0.0341939 -0.0463147 0.290901
-0.457469 -0.0480582 0.295696
0.338446 -0.0548959 0.34134
-0.03321 -0.0445896 0.495645
0.0461585 -0.0363613 0.111894
0.361398 -0.0460413 0.313989
0.00686789 0.0315664 0.10684
-0.000179079 0.0771375 0.018122
0.0316263 -0.116644 0.414818
0.141122 -0.0478525 0.297285
-0.00354607 -0.03015 0.53907
0.269101 -0.0521055 0.371234
0.264076 -0.0438463 0.332248
-0.0346746 -0.083419 0.562198
-0.279255 -0.0442489 0.326077
0.145812 -0.0430526 0.321651
-0.0243168 -0.0379112 0.0797803
0.0862354 -0.0537713 0.403474
0.0360095 -0.0827554 0.195916
-0.112479 -0.0304575 0.0884197
-0.302334 -0.0448019 0.325088
-0.00869093 -0.117183 0.559425
-0.0367384 -0.103358 0.242625
-0.00354588 -0.0359065 0.555106
-0.247445 -0.0434096 0.330681
0.242575 -0.0533522 0.299388
0.134649 -0.0395156 0.3493
-0.356793 -0.0459304 0.318955
-0.0854455 -0.0474884 0.298607
-0.117729 -0.0307352 0.047619
0.110611 -0.0366378 0.0888755
-0.229622 -0.0451491 0.313464
-0.102433 -0.0383063 0.0870955
-0.000728888 -0.0276601 0.0819236
-0.037383 -0.0813816 0.50227
0.351694 -0.0517139 0.282448
-0.00533516 -0.11712 0.327842
-0.101511 -0.0567369 0.351125
0.197362 -0.0420777 0.340261
-0.0504806 -0.0361173 0.354711
0.128457 -0.0560916 0.331497
0.0284049 -0.0336813 0.36895
-0.0144543 -0.0927695 0.128525
0.231821 -0.0430872 0.331138
-0.038238 -0.098632 0.286443
-0.0362783 -0.0928053 0.539591
-0.223468 -0.0441687 0.361761
0.00939229 -0.0245011 0.133354
0.00325546 0.112162 0.049651
-0.0261596 -0.0370844 0.462518
0.0271527 -0.0317698 0.395927
-0.0256566 -0.0328956 0.374344
-0.0809484 -0.0528434 0.40825
-0.110319 -0.0565231 0.342437
0.0381329 -0.0466842 0.477553
-0.0178213 -0.0948813 0.546285
-0.0508939 -0.0508476 0.28281
0.146676 -0.0561126 0.372823
0.299395 -0.0551834 0.350805
0.00596187 -0.0257743 0.167796
0.00697886 0.0256222 0.121556
-0.0442235 -0.0364908 0.113599
0.0230992 -0.0757165 0.114611
0.00275872 -0.0289834 0.423391
0.0220079 -0.107722 0.613525
-0.00214015 -0.0263886 0.506532
-0.020675 -0.0865171 0.611938
0.00438406 -0.11251 0.338353
0.00703312 -0.0291722 0.146349
0.188539 -0.0507334 0.391752
0.0353131 -0.0873472 0.186489
-0.329165 -0.0537522 0.300009
-0.0316361 -0.0907517 0.408963
-0.217314 -0.0564948 0.337752
-0.371735 -0.0540858 0.301379
0.0386266 -0.0532156 0.414061
-0.00253597 -0.0221848 0.0604117
0.37972 -0.0545631 0.31043
0.347694 -0.0466247 0.302599
0.251451 -0.0480557 0.370482
-0.00223478 -0.0365179 0.505617
0.0346875 -0.0376453 0.123991
0.0368055 -0.0474507 0.0941927
0.00315465 -0.10791 0.503685
0.00507388 -0.117184 0.488465
0.0681102 -0.0375769 0.40505
0.0106963 -0.0255404 0.523376
-0.364727 -0.0482307 0.291782
0.0859436 -0.0406634 0.413589
-0.0362715 -0.0981993 0.21273
0.0406605 -0.0913615 0.356425
-0.235813 -0.0531175 0.297546
0.307325 -0.0554681 0.326127
-0.299826 -0.0542734 0.305335
0.0424106 -0.090634 0.521581
0.0259357 -0.0364152 0.28462
-0.00465871 -0.0263829 0.481874
0.0408989 -0.0778468 0.391242
0.24652 -0.0544603 0.308587
-0.411978 -0.0541792 0.305547
-0.371662 -0.0463606 0.323142
-0.16696 -0.0446939 0.313386
0.0147333 -0.0290382 0.457856
0.207891 -0.0447564 0.371221
-0.0110844 -0.0948813 0.57796
-0.239642 -0.0561592 0.324298
-0.00044529 -0.0303485 0.231135
-0.130632 -0.0567393 0.364262
-0.00384175 0.0759875 0.069177
0.00797196 -0.107733 0.32984
0.3758 -0.0477679 0.294574
-0.131058 -0.0529758 0.301123
0.0421967 -0.0719892 0.493318
0.175999 -0.0487562 0.291821
0.350471 -0.0471613 0.336566
-0.446687 -0.0487457 0.288031
0.0280952 -0.100705 0.174584
-0.087838 -0.0360043 0.366604
0.0270204 -0.0904735 0.585108
0.0130064 -0.0655127 0.328084
0.0816969 -0.0372279 0.351323
0.0347479 -0.0400558 0.492738
0.0867557 -0.056279 0.380084
0.203687 -0.0544845 0.310314
-0.0240205 -0.0336384 0.484107
0.0399581 -0.087571 0.562176
0.0269603 -0.095958 0.154588
0.0421932 -0.0637763 0.52528
-0.22573 -0.0560092 0.322573
0.0321072 -0.0705124 0.328103
0.0391658 -0.0454122 0.520367
0.00504289 0.0142038 0.0641041
-0.0372465 -0.0644047 0.514054
0.275187 -0.0540611 0.304291
-0.250511 -0.0558524 0.320403
0.086987 -0.0395399 0.33693
0.15143 -0.0539467 0.30848
-0.183805 -0.0538355 0.305726
0.260505 -0.0519886 0.287196
0.157674 -0.0489164 0.290842
-0.215427 -0.0426958 0.334537
-0.00483749 -0.111844 0.624076
-0.297073 -0.0503511 0.280019
-0.00445553 -0.0101813 0.07248
-0.0227538 -0.117184 0.443079
0.01313 -0.0322532 0.55558
-0.337268 -0.0544402 0.30554
0.0557314 -0.0567996 0.376542
0.137106 -0.0442596 0.314581
0.0682913 -0.0567882 0.365872
0.437145 -0.0540884 0.322244
0.0270878 -0.0369136 0.30638
-0.0799295 -0.0433064 0.317506
0.0113402 -0.0489568 0.0578808
-0.0218207 -0.0445978 0.145754
0.0373625 -0.0744142 0.214246
0.00773272 -0.0380494 0.410002
-0.0415873 -0.0567976 0.363332
0.251268 -0.045784 0.309305
0.018231 -0.0564727 0.370747
-0.148813 -0.0431918 0.393892
0.0401941 -0.0990364 0.335627
0.0232749 -0.0364568 0.245224
-0.468492 -0.0539574 0.308563
0.0388793 -0.0993126 0.555949
-0.0188964 -0.117184 0.343907
0.0210939 -0.0340847 0.266668
0.191573 -0.0511962 0.282536
