-0.217868 -0.067975 0.364068
-0.141524 -0.0512334 0.440666
0.0259161 -0.104473 0.64596
0.177437 -0.0667893 0.363614
-0.0464349 -0.042468 0.321431
-0.341184 -0.0893133 0.400032
0.0337886 -0.110941 0.545023
0.0255106 -0.103668 0.512987
-0.257961 -0.0736737 0.457392
0.0310999 -0.0870124 0.745739
0.045847 -0.102708 0.405831
-0.0346602 -0.0937718 0.284382
-0.0267888 -0.114459 0.640804
0.03393 -0.0290709 0.604433
0.0307359 -0.0921514 0.628687
0.0482551 -0.0684036 0.260228
-0.0522341 -0.0339753 0.488528
-0.0160384 -0.0313617 0.292882
0.0315484 -0.081513 0.371989
-0.0222992 -0.105487 0.762393
0.0392816 -0.0317616 0.545013
0.0460428 -0.0458384 0.420958
-0.111618 -0.0586258 0.476363
0.0629844 -0.0921012 0.455589
0.301018 -0.0848584 0.328013
0.0253309 -0.046832 0.271463
0.00478482 -0.0139005 0.132725
0.0286343 -0.0972882 0.287098
-0.0740069 -0.0619593 0.509012
0.110907 -0.0573615 0.409701
-0.0224602 -0.019793 0.705183
0.0613098 -0.0476891 0.444479
-0.0554039 -0.0558164 0.564245
-0.251781 -0.0805173 0.358231
0.0322117 -0.0379327 0.0481788
0.0451659 -0.107962 0.581784
-0.210733 -0.0649161 0.390415
0.00123933 0.07949 0.0516585
0.0832762 -0.0534735 0.44594
-0.0784809 -0.0552976 0.653511
0.29882 -0.0831303 0.458154
-0.317577 -0.0935569 0.371071
-0.0283768 -0.0290874 0.524979
0.0317068 -0.057914 0.444452
0.0675546 -0.0392021 0.403997
-0.090301 -0.0547062 0.447717
-0.00920994 -0.0659291 0.104799
0.0124572 -0.0413228 0.463984
-0.00507336 -0.0296375 0.0368741
0.169386 -0.0563692 0.458161
-0.0310795 -0.0907975 0.631671
0.102198 -0.0633728 0.108653
0.281726 -0.0782514 0.375951
-0.0191642 -0.0605042 0.142409
0.113945 -0.0573281 0.0685293
-0.334611 -0.0958875 0.353326
0.0388177 -0.036497 0.371251
0.173774 -0.0575574 0.41159
-0.391235 -0.106189 0.401256
-0.28396 -0.0784536 0.40461
0.0776043 -0.0554272 0.635669
-0.0766711 -0.0858892 0.619587
0.00196541 -0.11022 0.295455
0.0282468 -0.0786718 0.789991
0.000924718 -0.0291878 0.670481
0.0333059 -0.0758409 0.529805
0.0250161 -0.0762713 0.188873
-0.0268335 -0.0375729 0.602801
0.418663 -0.108101 0.407524
0.35647 -0.0949526 0.320796
0.426094 -0.105629 0.366913
-0.0344761 -0.0312097 0.123683
0.031091 -0.0454039 0.69042
0.0318911 -0.0599652 0.425229
-0.0108622 -0.0397696 0.429678
0.070288 -0.0798117 0.44497
-0.047702 -0.102148 0.422541
-0.070546 -0.0807701 0.456612
-0.0277286 -0.09607 0.393785
-0.142506 -0.0702865 0.0300605
-0.00266141 -0.0372255 0.136338
-0.16728 -0.0672773 0.398488
0.0691371 -0.0937339 0.598262
-0.0275039 -0.0320283 0.68789
0.016481 -0.116513 0.7042
0.00276161 -0.121274 0.496814
-0.369848 -0.102757 0.387925
0.00561673 -0.0943349 0.239845
-0.208205 -0.063846 0.458751
-0.0141313 -0.0310207 0.232899
-0.050612 -0.0579832 0.274814
-0.438941 -0.1145 0.373696
0.187887 -0.0599563 0.446779
0.0506941 -0.0481214 0.485191
0.0469659 -0.0346726 0.562193
0.0117467 -0.0194758 0.612874
0.0384523 -0.0378789 0.318663
0.0514116 -0.0864176 0.539066
-0.108469 -0.057286 0.526164
-0.0221814 -0.107549 0.455896
0.326238 -0.0944174 0.355028
-0.310874 -0.0880247 0.30691
0.0321025 -0.0585359 0.47719
0.0302431 -0.0891348 0.252842
-0.300032 -0.090626 0.436238
-0.0323764 -0.0859142 0.578619
-0.0287593 -0.0551981 0.173764
-0.0737961 -0.038336 0.451867
0.0186258 -0.0477267 0.126252
-0.344845 -0.0918926 0.437415
-0.15767 -0.0778276 0.0497436
0.235383 -0.0794543 0.391974
-0.0308088 -0.0870699 0.718876
-0.00508532 -0.01556 0.196049
-0.0543084 -0.0378666 0.1009
-0.00222998 0.100297 0.0839269
0.0179074 -0.034543 0.250715
0.0599266 -0.0522522 0.130979
-0.377674 -0.0996161 0.306431
-0.0431397 -0.0767755 0.252446
-0.0475258 -0.0428149 0.373223
0.0138761 -0.0447734 0.0794506
0.163109 -0.0786842 0.0435053
0.00976477 -0.060975 0.851183
-0.0020961 -0.00244517 0.0773348
0.316033 -0.0933914 0.384403
0.388254 -0.0997791 0.330515
0.00130334 -0.0201326 0.49707
0.0324038 -0.0496691 0.726712
-0.00303463 0.0695097 0.115163
-0.274669 -0.0768263 0.387675
0.0384027 -0.104716 0.351977
-0.226501 -0.0714201 0.496313
-0.0262282 -0.0365812 0.052086
-0.117821 -0.0507229 0.363217
0.0314722 -0.0909912 0.607513
0.065055 -0.0916719 0.48641
0.00517072 -0.112767 0.635965
0.0544485 -0.0487724 0.523613
0.00454482 0.00215471 0.144452
-0.000922878 -0.0261 0.106236
0.00237217 -0.0182943 0.560399
-0.134632 -0.0622429 0.506611
0.00107137 -0.0117016 0.650359
0.146448 -0.0523934 0.410952
0.0296092 -0.03264 0.66146
0.00411887 -0.0232238 0.405706
-0.00958403 -0.0270801 0.468664
0.0711333 -0.0543218 0.674913
0.116122 -0.0480527 0.534747
-0.19011 -0.0685819 0.354788
0.112143 -0.0584133 0.436898
0.0331696 -0.060282 0.576155
0.00682293 -0.0410151 0.805153
0.0264019 -0.0397513 0.503237
0.43475 -0.113513 0.333567
-0.0324929 -0.0654442 0.192063
0.0201773 -0.112191 0.451597
-0.0494126 -0.108184 0.657397
-0.320774 -0.0855032 0.421137
-0.0238907 -0.110859 0.421101
0.00523984 -0.035607 0.171092
0.0783246 -0.083361 0.623489
0.237051 -0.0696738 0.46611
-0.428472 -0.107745 0.315975
-0.188855 -0.0813951 0.0525336
-0.13709 -0.0606428 0.385365
-0.189536 -0.0659904 0.517322
-0.153741 -0.0588383 0.335771
0.205101 -0.0651682 0.372701
-0.242749 -0.0759312 0.316732
0.0543795 -0.0986417 0.439102
0.293684 -0.0803886 0.392163
-0.0284493 -0.0677917 0.268473
-0.0153318 -0.117195 0.557051
0.0291875 -0.0923259 0.689434
0.0643715 -0.036422 0.468924
0.149773 -0.0651349 0.461791
0.140887 -0.0636951 0.475078
0.000901129 0.0227062 0.0532985
0.0718128 -0.0430978 0.569066
-0.00981049 -0.0746963 0.859614
0.334359 -0.0955868 0.435686
-0.381478 -0.0972436 0.359915
-0.0180287 -0.0264429 0.555893
-0.0274817 -0.0291896 0.501997
0.00224892 -0.107515 0.81941
-0.0319126 -0.0653877 0.348265
-0.0705619 -0.043559 0.0810066
-0.0178968 -0.0391256 0.401105
0.263462 -0.0746719 0.452754
-0.029516 -0.0971075 0.609395
-0.0328049 -0.079328 0.501249
0.232292 -0.0791907 0.427451
0.0245092 -0.0511506 0.211591
0.0691277 -0.0900886 0.53595
-0.00339935 -0.123431 0.590001
0.1412 -0.0553482 0.35484
-0.307004 -0.0829985 0.380441
0.0786719 -0.0703478 0.569763
0.187383 -0.0715784 0.464747
-0.00378583 -0.0489877 0.0202278
0.0290922 -0.0539322 0.320602
-0.173336 -0.069028 0.483125
-0.0478047 -0.106665 0.577523
-0.0333706 -0.0652868 0.540232
0.0250057 -0.0390413 0.440348
-0.112301 -0.0611528 0.0363744
-0.0681439 -0.0501914 0.545104
0.428219 -0.109498 0.293459
-0.0335148 -0.0684784 0.642653
0.0157462 -0.109491 0.786866
0.00371317 0.0384035 0.125728
-0.00168616 -0.00327399 0.698841
0.0620585 -0.0420661 0.588544
0.195759 -0.063926 0.505719
-0.0533148 -0.0486164 0.587756
0.334248 -0.0880077 0.409039
-0.26228 -0.0844258 0.431508
-0.0326731 -0.0566417 0.582471
-0.188672 -0.0603145 0.419516
0.0323629 -0.0565416 0.548208
0.0557206 -0.0560561 0.305573
0.0163383 -0.0314374 0.293027
-0.0476254 -0.0332883 0.464515
-0.0544393 -0.0345027 0.530877
0.00670751 -0.0288687 0.33689
-0.0315904 -0.0803082 0.69905
-0.0789146 -0.066151 0.581569
0.134737 -0.0720824 0.0692231
-0.0606514 -0.0501481 0.388144
-0.0271177 -0.105112 0.324492
-0.0994615 -0.0448588 0.54168
0.104585 -0.0443252 0.520912
0.024335 -0.0388164 0.409638
0.116353 -0.0461444 0.483262
-0.410707 -0.109681 0.384048
0.178389 -0.0658028 0.346756
0.390499 -0.106172 0.366001
0.0365404 -0.0322212 0.1006
-0.0142701 -0.0907192 0.228556
-0.131658 -0.0620289 0.466668
0.0879744 -0.0527764 0.406297
0.0661435 -0.051076 0.0655977
-0.0162675 -0.0423346 0.530798
0.247529 -0.0752191 0.333561
0.0311887 -0.0483206 0.636561
-0.00233295 0.045645 0.171786
0.0314118 -0.0902775 0.580614
-0.00477166 -0.00392678 0.161232
0.00200548 -0.0189533 0.0779448
-0.0188196 -0.0286718 0.755735
0.0658213 -0.0985261 0.640041
-0.0248753 -0.0509892 0.777747
-0.0814168 -0.0725869 0.678226
-0.026291 -0.0294749 0.732311
0.0683539 -0.0724403 0.378987
-0.00748788 -0.0256712 0.353226
-0.0797628 -0.0506137 0.397555
-0.238251 -0.0786234 0.367941
-0.291528 -0.0833663 0.465838
0.0219843 -0.0488961 0.15184
-0.160483 -0.0667338 0.428033
0.00855828 -0.0315829 0.0539297
-0.344012 -0.0918371 0.334662
-0.238381 -0.0801832 0.454651
-0.0397406 -0.104617 0.36984
-0.407623 -0.107796 0.325318
0.0218434 -0.107002 0.41724
-0.0663263 -0.0919159 0.516173
0.202705 -0.0635008 0.390794
-0.0364562 -0.0330968 0.414461
0.228856 -0.0786949 0.440515
-0.000131222 0.0760828 0.145436
-0.0944915 -0.0508591 0.36075
0.0670011 -0.0559541 0.429903
-0.137157 -0.0505564 0.421287
0.0162654 -0.0359936 0.772453
0.0356707 -0.0460761 0.134391
-0.00963017 -0.116732 0.391445
-0.0388554 -0.0457193 0.440004
0.189404 -0.0716625 0.416333
0.0231124 -0.0215522 0.718733
-0.00189446 0.10036 0.0602589
0.00373836 0.0372461 0.1552
0.215256 -0.0707297 0.317751
0.0568595 -0.0449742 0.0437262
-0.0875531 -0.0407054 0.505287
0.0657035 -0.0780868 0.349491
-0.241729 -0.0702366 0.434347
-0.00472767 -0.0112017 0.211189
-0.0278578 -0.0341279 0.304531
-0.360545 -0.0931911 0.410045
0.0224023 -0.0863835 0.22202
0.0396734 -0.046343 0.521048
0.0770389 -0.0434015 0.367045
-0.0131181 -0.113708 0.482842
0.24345 -0.0707411 0.411071
-0.359038 -0.0934281 0.34923
0.0338287 -0.0915186 0.272313
-0.0205694 -0.0688816 0.836689
0.0122142 -0.0368381 0.383631
-0.102693 -0.0438721 0.442766
0.367549 -0.0944972 0.374443
0.0204971 -0.113969 0.553014
-0.0261479 -0.0564069 0.228093
-0.000740361 -0.125314 0.691862
0.154788 -0.0643354 0.516325
-0.00460979 0.00128935 0.187769
-0.0744004 -0.0529082 0.606165
0.018194 -0.115353 0.588164
0.155255 -0.0569263 0.36717
-0.123606 -0.0602152 0.080566
0.0232967 -0.0567059 0.797633
0.203041 -0.0662237 0.352307
0.0180847 -0.0886845 0.834183
-0.0677813 -0.0498087 0.418752
-0.246314 -0.0730516 0.481014
0.052867 -0.103608 0.553949
-0.0154987 -0.047153 0.0934215
-0.0618781 -0.067747 0.321351
-0.193575 -0.0614011 0.398822
-0.0455141 -0.104691 0.470351
-0.0307915 -0.0855946 0.754338
-0.0498395 -0.0487705 0.299614
0.0223008 -0.0580491 0.171457
0.10836 -0.0587825 0.0457096
-0.0116372 -0.111744 0.357293
0.016719 -0.111131 0.360822
0.221052 -0.0756909 0.488483
0.0490686 -0.0996074 0.606368
-0.0359987 -0.0455022 0.476222
0.0767143 -0.0669949 0.537346
-0.0612438 -0.0500229 0.4944
0.0105048 -0.0289365 0.191567
0.0619505 -0.0540795 0.354935
-0.041403 -0.108282 0.53968
-0.0177002 -0.042214 0.461558
-0.0171115 -0.0334571 0.260382
0.0121615 -0.0210258 0.583421
-0.0629378 -0.0875636 0.386904
-0.0350696 -0.039212 0.278516
-0.0499885 -0.0344377 0.613655
0.131699 -0.0499783 0.516775
-0.162358 -0.0572825 0.379777
-0.0171492 -0.0373254 0.161009
0.00901116 -0.0245555 0.640396
-0.0205265 -0.0220015 0.662034
0.0736979 -0.0521754 0.493263
-0.202739 -0.0647225 0.373234
-0.00209174 0.0654626 0.068288
0.2491 -0.0811628 0.469486
-0.0165453 -0.117243 0.678135
0.0619598 -0.0616324 0.585668
-0.0691997 -0.0966346 0.658528
0.0563691 -0.100784 0.684608
-0.0897765 -0.0521731 0.0567428
-0.0777106 -0.0727782 0.55448
0.37983 -0.0974011 0.343807
0.00354707 0.0337185 0.0977073
-0.00131097 0.0372727 0.0584786
-0.0311125 -0.090557 0.552871
-0.00492677 -0.0581126 0.07505
0.173019 -0.0688098 0.491162
0.00833241 -0.0228963 0.456908
-0.175127 -0.0694339 0.448687
0.0940555 -0.0484259 0.562005
-0.208291 -0.0680458 0.33911
0.101057 -0.0568949 0.489581
0.0170423 -0.0257417 0.118763
0.249949 -0.0735306 0.363997
-0.296745 -0.0823806 0.353122
-0.0741746 -0.0696223 0.486379
-0.0478804 -0.0354062 0.56786
-0.221288 -0.0665414 0.412042
-0.212876 -0.0650014 0.474104
-0.0302459 -0.0482045 0.540387
0.0110752 -0.0823352 0.180349
-0.00805931 -0.0172444 0.616464
0.0331368 -0.0624319 0.746263
-0.0287931 -0.0497384 0.366011
0.0309511 -0.0309437 0.463988
0.0426283 -0.0495232 0.254616
0.0329455 -0.0711046 0.453886
-0.08485 -0.0517394 0.133556
-0.262492 -0.074442 0.398215
0.412853 -0.109269 0.332256
-0.00122498 0.11676 0.0951469
0.00192414 -0.022151 0.760475
0.00340844 0.00850249 0.205356
-0.0418944 -0.0433743 0.160847
-0.0508135 -0.0436267 0.339975
-0.0695571 -0.037228 0.509987
0.0532775 -0.0348958 0.430515
-0.0489764 -0.0326451 0.668296
0.0658198 -0.0561607 0.404963
-0.0419195 -0.109727 0.60499
-0.0277253 -0.0326604 0.64457
-0.00877635 -0.112345 0.607059
0.00811812 -0.0404391 0.564502
0.15587 -0.0539012 0.446619
0.320562 -0.0921504 0.337832
-0.0121271 -0.118933 0.537949
0.0316703 -0.049483 0.674995
0.132313 -0.0608301 0.401157
-0.125092 -0.0602153 0.41206
-0.0681006 -0.0507555 0.43495
-0.0261411 -0.0800805 0.802142
0.234015 -0.0740189 0.317123
0.0304125 -0.0722495 0.309254
0.178352 -0.0581707 0.474615
0.345706 -0.0917754 0.339785
-0.43497 -0.113832 0.358574
0.202732 -0.0629126 0.427496
0.0630233 -0.0415366 0.080726
0.0254885 -0.103024 0.486366
0.0279579 -0.0437353 0.112665
-0.0939361 -0.0554254 0.516628
-0.0483084 -0.0519614 0.536969
-0.361804 -0.0988756 0.321986
0.0418229 -0.0703091 0.235426
-0.0615934 -0.0463369 0.665893
0.0326434 -0.109267 0.668434
-0.029377 -0.11111 0.498058
-0.0175446 -0.0145705 0.7225
0.0719636 -0.043387 0.106994
0.0955661 -0.0511263 0.361665
0.024928 -0.027674 0.565714
0.0212776 -0.0177176 0.695445
-0.0277003 -0.109228 0.385457
0.0654643 -0.0504157 0.534206
-0.0963651 -0.0515019 0.0838768
0.444082 -0.115388 0.370924
0.326669 -0.0951242 0.369711
0.0972096 -0.0620151 0.0776829
-0.0263126 -0.0269872 0.622266
0.0637425 -0.0360316 0.504209
-0.0330504 -0.0606304 0.709055
0.168163 -0.074768 0.0688326
-0.0300761 -0.0321393 0.386296
0.278944 -0.0865481 0.454009
-0.0313868 -0.0630474 0.7608
-0.0279639 -0.0294525 0.479679
-0.0165259 -0.0387814 0.128278
0.412582 -0.109971 0.385949
-0.0172636 -0.10959 0.779504
0.0449939 -0.106301 0.516283
-0.000277528 -0.0257171 0.53693
-0.00726715 -0.0332358 0.345153
-0.220972 -0.0716684 0.318477
-0.324079 -0.0861806 0.386624
-0.0287209 -0.110184 0.665824
-0.277591 -0.0776199 0.452537
0.0298962 -0.0775229 0.208435
-0.181561 -0.0694257 0.499634
-0.0621463 -0.0540876 0.358297
0.0263594 -0.0303981 0.428206
-0.0322965 -0.0693322 0.370128
0.00268423 0.0809432 0.0954953
0.0264282 -0.0472151 0.304359
-0.394052 -0.10668 0.351772
-0.00598209 -0.0334584 0.208727
-0.0863822 -0.0542231 0.473318
-0.038699 -0.0330276 0.0941404
0.00375891 -0.0194069 0.236529
0.287952 -0.0804646 0.35882
0.0117207 -0.121777 0.654709
0.0689397 -0.0371407 0.487819
-0.0592635 -0.0954349 0.636408
0.0261034 -0.108501 0.572611
0.0326207 -0.0741387 0.680278
-0.251795 -0.0789867 0.336088
-0.0229136 -0.0756225 0.208806
-0.146382 -0.0523447 0.504544
0.0583016 -0.044622 0.65828
0.0436975 -0.10495 0.645904
0.120999 -0.0555582 0.356006
0.00267793 -0.123134 0.723875
0.0329863 -0.0786722 0.642832
-0.0652204 -0.0419907 0.648033
0.0523032 -0.0353036 0.621036
0.00385599 0.0189313 0.105016
0.0342491 -0.0337795 0.163256
0.0469331 -0.103964 0.465719
-0.329233 -0.0928468 0.324136
-0.00327204 -0.121661 0.516162
-0.018666 -0.112202 0.746086
-0.123866 -0.0479136 0.438013
-0.0685489 -0.0434612 0.344964
0.221144 -0.066301 0.451456
-0.0216237 -0.0762465 0.178638
-0.0326284 -0.0291471 0.580294
0.0245311 -0.105632 0.526598
0.021228 -0.0403316 0.226979
-0.0686852 -0.0915387 0.551767
-0.0110664 -0.0986686 0.24244
-0.222954 -0.0765279 0.379582
-0.125243 -0.0478888 0.475082
-0.029335 -0.0937175 0.463927
-0.273012 -0.0788028 0.345486
-0.0277765 -0.0327969 0.0742365
0.0195175 -0.029642 0.499191
0.0808998 -0.0579815 0.103571
-0.00308833 -0.0177882 0.58049
0.140556 -0.0632404 0.423443
0.0718005 -0.0850314 0.662285
0.0259112 -0.0989598 0.762668
-0.176939 -0.061688 0.352585
-0.033029 -0.0664296 0.671471
0.136716 -0.0598049 0.374287
-0.137417 -0.0549893 0.350569
-0.0648731 -0.0410629 0.111505
0.0459071 -0.0985723 0.333892
-0.0151666 -0.100255 0.281574
-0.0601873 -0.0953645 0.469537
-0.0329523 -0.0750922 0.471572
0.310664 -0.0923446 0.436306
0.263299 -0.0845194 0.43832
-0.159433 -0.0544989 0.47819
0.0466294 -0.0415005 0.581911
0.00312442 -0.0107991 0.0962628
-0.00245892 0.085575 0.0745535
0.0495075 -0.0363905 0.139771
-0.0083988 -0.0214014 0.50831
-0.0709939 -0.0515226 0.52392
-0.126981 -0.0502846 0.392442
0.0469884 -0.0926993 0.313842
-0.429564 -0.109088 0.299301
-0.142528 -0.0743067 0.0761882
-0.0560648 -0.0488174 0.454523
0.029816 -0.0494692 0.464076
-0.0283421 -0.0975975 0.508518
0.0157032 -0.0987267 0.264792
-0.0571533 -0.0936989 0.608149
-0.0231801 -0.0332033 0.174568
-0.0246728 -0.0938148 0.306059
-0.128264 -0.0602281 0.522724
0.0705415 -0.0569607 0.654623
-0.0352314 -0.112123 0.621664
0.0211177 -0.0919173 0.815768
-0.0151813 -0.0277578 0.438406
0.0452643 -0.0464377 0.548627
0.0122694 -0.120792 0.620842
-0.0953127 -0.0442102 0.401033
0.318268 -0.0850401 0.423628
-0.034031 -0.0453139 0.496133
-0.298615 -0.0875472 0.331469
0.0440021 -0.0475098 0.271754
0.0269696 -0.0993339 0.717703
0.0390328 -0.110899 0.615562
-0.0639486 -0.0446305 0.0602091
-0.0815352 -0.0712421 0.623883
-0.15942 -0.0548541 0.410049
-0.0329797 -0.0655587 0.486375
0.433257 -0.108592 0.315688
0.167344 -0.0616917 0.328553
-0.407737 -0.105229 0.412769
0.0314301 -0.0856914 0.66611
0.0759877 -0.0386345 0.522474
-0.0215879 -0.0273463 0.108421
0.00377836 -0.0301439 0.0190368
0.0135677 -0.0396605 0.580802
-0.0301162 -0.0446242 0.13669
0.0295496 -0.0321361 0.379808
0.0107755 -0.110132 0.312327
-0.00511104 -0.113352 0.681449
0.0261537 -0.0289745 0.532875
0.0425997 -0.0381641 0.343713
0.00374911 -0.112323 0.556118
0.119412 -0.0486327 0.397384
-0.0502701 -0.0364839 0.135994
0.0690541 -0.0706994 0.615079
-0.263303 -0.08382 0.374373
-0.0626986 -0.037093 0.422324
-0.0107649 -0.0295778 0.167078
0.000847164 -0.00519568 0.71984
0.152849 -0.0768422 0.0587186
0.00261835 -0.0663601 0.865795
-0.0229648 -0.113953 0.575542
-0.229579 -0.0682186 0.39789
0.261455 -0.0741141 0.415328
-0.0308807 -0.0854442 0.378156
0.123253 -0.0533779 0.547207
0.00192805 -0.0775094 0.144546
0.0273185 -0.080079 0.278295
0.0121077 -0.118365 0.515087
-0.0524489 -0.10225 0.506512
0.00788296 -0.113922 0.327711
0.10719 -0.0649182 0.0901067
0.000136516 0.0711247 0.0336488
-0.0437147 -0.0479618 0.109082
-0.116131 -0.0471646 0.410388
0.00415614 0.022082 0.144844
0.352366 -0.0995264 0.417456
0.189697 -0.071429 0.397042
0.114366 -0.0462275 0.423592
0.033429 -0.079809 0.595015
0.0592718 -0.0939026 0.421816
-0.00229691 -0.0984612 0.220852
0.0687284 -0.0561672 0.459934
0.0308777 -0.0360289 0.358168
-0.0298893 -0.0324678 0.366756
0.00859434 -0.0376692 0.151997
0.420767 -0.104785 0.345717
-0.00205694 -0.117259 0.340312
-0.391307 -0.101263 0.316721
0.0217537 -0.0431008 0.485398
0.0107824 -0.0246252 0.436426
-0.110395 -0.0451368 0.467738
0.175678 -0.0695487 0.451173
-0.0362841 -0.0339695 0.397795
-0.321889 -0.0862557 0.435662
-0.0727294 -0.0659549 0.641159
-0.0309361 -0.0423193 0.714036
0.371278 -0.0953478 0.410065
-0.0312117 -0.0362924 0.564187
0.00600201 -0.119399 0.448267
-0.0576285 -0.0683482 0.552806
0.0323824 -0.0545037 0.592394
0.0549738 -0.0685237 0.53807
-0.00781437 -0.0277443 0.42019
-0.20926 -0.064031 0.442634
0.0155906 -0.0571552 0.835318
-0.00504272 -0.0208149 0.151789
0.248818 -0.0719068 0.391532
0.0338407 -0.0316656 0.682054
0.0831952 -0.0648421 0.670051
0.0208178 -0.0293987 0.085036
0.0519617 -0.0934152 0.574271
0.050059 -0.0349315 0.597258
0.0400639 -0.0457731 0.436393
-0.0351944 -0.108155 0.442462
0.0781906 -0.0793012 0.588924
-0.0444875 -0.0825786 0.272443
0.0529765 -0.0383727 0.379544
0.0374112 -0.111044 0.599278
0.28447 -0.0843958 0.324699
-0.00448326 -0.0267021 0.1224
0.0345158 -0.11007 0.68309
-0.0666368 -0.0970672 0.622267
-0.00190542 -0.081384 0.16616
-0.000174807 -0.0235488 0.381501
-0.162985 -0.0756745 0.0315927
0.0623607 -0.0361662 0.534955
0.0399682 -0.0339154 0.411413
0.0271132 -0.0340887 0.0635965
0.00141089 -0.025095 0.2895
0.066063 -0.0428227 0.642393
0.346187 -0.0942793 0.304824
-0.010079 -0.105508 0.306932
-0.0115492 -0.0421919 0.0580197
0.0115307 -0.0124059 0.666296
0.27277 -0.0792178 0.338888
0.0325968 -0.0695978 0.409859
0.0378621 -0.0361502 0.627593
0.126268 -0.0610349 0.459039
0.123877 -0.0607962 0.483117
-0.0210217 -0.0407783 0.21284
-0.0419047 -0.0635816 0.230316
-0.0152675 -0.102761 0.813747
-0.4452 -0.114665 0.321583
-0.0568363 -0.0512855 0.0933541
0.00514446 -0.121303 0.742825
-0.375034 -0.103487 0.404737
-0.302912 -0.0913464 0.418062
-0.204932 -0.0699334 0.507454
-0.00839543 -0.112736 0.647608
0.07089 -0.0384948 0.422549
0.273214 -0.0862443 0.421252
-0.114007 -0.0538376 0.549583
0.128742 -0.0618728 0.0789788
-0.0315604 -0.0477019 0.695292
-0.0253939 -0.0794958 0.250135
0.00369747 -0.0373317 0.124939
-0.061526 -0.0920731 0.430245
-0.0951555 -0.0568355 0.0409251
-0.0639515 -0.0417937 0.629427
-0.071758 -0.0681083 0.442911
-0.204574 -0.0632689 0.426482
0.207939 -0.0682599 0.335137
-0.423971 -0.105268 0.361728
-0.172571 -0.0659988 0.365527
0.191221 -0.0640341 0.354392
-0.0291375 -0.0441046 0.44932
0.132324 -0.0711516 0.0936555
-0.0026555 0.0410117 0.0812901
0.270343 -0.0854447 0.382052
-0.14802 -0.0755101 0.057429
-0.308172 -0.0855848 0.455766
-0.0149316 -0.117279 0.72094
-0.0727845 -0.0567749 0.67405
0.0229914 -0.0957878 0.797787
0.0117365 -0.0312074 0.274499
-0.0752965 -0.0524663 0.495023
0.00868882 -0.0373355 0.400474
-0.141984 -0.0520864 0.40391
0.0145587 -0.0762731 0.851336
0.241432 -0.0730836 0.349167
-0.139502 -0.0599186 0.368298
0.00317612 0.0589886 0.104992
-0.0339152 -0.0453648 0.522763
-0.0134734 -0.0303868 0.641057
-0.137938 -0.0630762 0.488342
-0.0408197 -0.105625 0.634445
-0.0337494 -0.0720973 0.624406
0.371385 -0.100045 0.312624
-0.0052911 -0.0238613 0.181212
0.0311597 -0.0886347 0.505344
-0.290636 -0.0890624 0.394575
0.209041 -0.0743636 0.485608
0.031712 -0.0836649 0.725638
0.205706 -0.0745226 0.420374
-0.0106226 -0.0230794 0.48575
-0.0438234 -0.0364167 0.428435
0.026679 -0.0976411 0.365397
0.291435 -0.0891417 0.440279
0.374982 -0.103629 0.385467
-0.0668808 -0.0464898 0.373279
-0.011581 -0.0719162 0.132769
0.0307131 -0.076686 0.770581
0.0749346 -0.0415214 0.388941
0.0658144 -0.0843227 0.400937
0.0738412 -0.0813187 0.521953
-0.33249 -0.0879073 0.369001
-0.055202 -0.100664 0.671351
0.0131009 -0.103602 0.280908
-0.00950995 -0.0274225 0.275379
0.073591 -0.0777923 0.494117
0.0260025 -0.0742454 0.240336
0.0223131 -0.115162 0.636106
0.0327019 -0.0611243 0.696766
-0.0312111 -0.084461 0.680974
-0.010105 -0.118058 0.455393
0.00471865 -0.0299684 0.620522
0.00917092 -0.0284317 0.0690182
0.000204118 -0.0319571 0.229359
0.0311078 -0.0857482 0.414562
0.0212336 -0.0364065 0.339748
-0.000697331 -0.0394686 0.488235
0.0295922 -0.109086 0.403024
-0.295948 -0.0850868 0.312042
-0.0963608 -0.0556293 0.431009
0.0561342 -0.0697193 0.295446
-0.230048 -0.0787763 0.424213
-0.128273 -0.0485838 0.459253
-0.0551215 -0.0431524 0.35729
-0.0273431 -0.100731 0.539786
0.100006 -0.0453535 0.39625
0.242393 -0.0801109 0.378079
-0.025431 -0.0301427 0.42728
-0.145416 -0.0621592 0.52644
0.0220851 -0.0255201 0.668853
-0.108349 -0.0579154 0.508744
0.154596 -0.0540496 0.503803
0.305142 -0.0826703 0.377316
-0.0267381 -0.10865 0.344691
-0.0191357 -0.0271232 0.537629
0.043821 -0.0325071 0.472508
0.0668573 -0.0510095 0.508763
-0.0628462 -0.0960655 0.532735
-0.1583 -0.0784184 0.0648721
0.0309942 -0.0577326 0.369775
0.000313455 0.0360565 0.190092
-0.0278148 -0.0964833 0.693216
-0.0725668 -0.0902694 0.603198
-0.0825714 -0.0766295 0.656493
-0.0281823 -0.0954974 0.415734
0.399008 -0.102797 0.31381
-0.00448961 -0.00114926 0.12573
-0.0806838 -0.0705625 0.607149
-0.153109 -0.0655861 0.445193
-0.0704957 -0.0831002 0.476381
0.0488084 -0.0452455 0.404817
0.400881 -0.104655 0.298405
0.0190009 -0.0341856 0.321635
0.0208468 -0.0475156 0.78449
-0.00605443 -0.115828 0.576607
-0.00317043 0.0145775 0.093708
-0.0735578 -0.0798587 0.506993
-0.00229952 -0.124458 0.622452
-0.0320788 -0.078853 0.393918
0.149299 -0.0710979 0.0376161
0.0521254 -0.0548081 0.289693
-0.0258581 -0.0841882 0.274905
-0.449255 -0.110052 0.361466
0.0168979 -0.0847674 0.201295
-0.311275 -0.0845691 0.357822
0.0746704 -0.05075 0.0437652
-0.022438 -0.1108 0.400622
0.411069 -0.10276 0.370523
0.0146791 -0.0290164 0.418972
0.0636804 -0.093981 0.503284
-0.0177993 -0.0256681 0.573623
0.0535022 -0.0490834 0.320139
-0.00193761 -0.0436285 0.819555
-0.042415 -0.0324794 0.441545
0.0285654 -0.110056 0.434849
0.296012 -0.0807128 0.407275
-0.018325 -0.0335141 0.317793
0.0125497 -0.022409 0.544383
-0.0298561 -0.110422 0.471935
0.0737558 -0.0459276 0.136311
0.00837431 -0.030377 0.596309
-4.87859e-05 0.0885812 0.0298221
-0.130117 -0.0616164 0.447821
0.00263041 -0.0264245 0.0938426
-0.128465 -0.0666916 0.105598
0.0305647 -0.0921068 0.544448
0.111385 -0.0579098 0.523595
0.11419 -0.0459104 0.460488
-0.00100411 -0.036049 0.15565
-0.238165 -0.0725033 0.349386
-0.0415215 -0.0377033 0.0659467
0.0237771 -0.0325074 0.590825
-0.427664 -0.10613 0.386381
-0.0290668 -0.109374 0.411228
0.0124432 -0.0232273 0.514696
0.0064343 -0.0296225 0.652653
0.0390486 -0.0309384 0.586126
-0.149606 -0.0525662 0.466142
0.404614 -0.10183 0.39816
0.163691 -0.0631926 0.349321
-0.0333547 -0.0726964 0.516456
-0.0181902 -0.0418577 0.563638
0.194608 -0.0726913 0.432667
0.00685292 -0.0268551 0.471619
0.00818215 -0.11268 0.394623
-0.287562 -0.0791663 0.436804
-0.106701 -0.044314 0.483849
0.0919395 -0.0605476 0.116811
-0.00966256 -0.0281839 0.39367
-0.133199 -0.0659864 0.0427364
0.248793 -0.0818569 0.401808
-0.184076 -0.0706406 0.403669
0.0192667 -0.0379554 0.207185
-0.0251532 -0.0290116 0.46788
0.00432491 -0.0161649 0.11778
-0.0338856 -0.0733688 0.592885
0.00794026 -0.121234 0.548302
-0.0649509 -0.0822355 0.365341
0.00218634 -0.0311293 0.245311
-0.336566 -0.0886688 0.422842
0.134501 -0.0572253 0.343097
0.132854 -0.0493261 0.481942
-0.0469342 -0.0474793 0.486542
-0.0487087 -0.0370656 0.387757
0.0301192 -0.027406 0.644425
0.0713117 -0.0793639 0.461079
0.107962 -0.050125 0.347213
0.0511053 -0.103835 0.531631
0.0188667 -0.0644623 0.149101
0.228713 -0.0783966 0.404969
-0.0265658 -0.0528295 0.255104
-0.16945 -0.0637752 0.341958
0.0832263 -0.0573021 0.0715441
0.0175771 -0.113074 0.749024
0.0786815 -0.0589618 0.620087
0.0279808 -0.0902554 0.778563
0.0175085 -0.102624 0.297247
-0.102329 -0.0442048 0.418646
0.052076 -0.0968422 0.354512
0.0781309 -0.0504924 0.556188
0.0335659 -0.0655048 0.725154
0.259965 -0.0798726 0.481421
-0.12047 -0.0597894 0.427943
0.322981 -0.085885 0.398077
0.0298935 -0.0431394 0.651562
-0.0138239 -0.0402822 0.147051
-0.192397 -0.0679773 0.339791
0.0209053 -0.0720154 0.837272
-0.0129724 -0.113485 0.468746
-0.0495695 -0.0401066 0.650488
0.011795 -0.0414684 0.49785
0.027455 -0.0846003 0.296587
0.0984686 -0.0520263 0.0932719
0.042337 -0.0429914 0.0615871
0.00243843 -0.10403 0.256379
-0.0280117 -0.05551 0.280082
0.0832439 -0.0531446 0.424574
-0.00761568 -0.117153 0.769461
-0.030068 -0.0417405 0.675646
-0.0528199 -0.0475491 0.427101
-0.258795 -0.0776551 0.326533
0.0538329 -0.0342503 0.492091
-0.386368 -0.0980007 0.388642
-0.0608182 -0.0512084 0.618345
0.0432667 -0.0422671 0.303192
0.222251 -0.0680031 0.374613
-0.174595 -0.0775351 0.0410796
0.0112389 -0.111599 0.34586
0.0556788 -0.0966266 0.622338
-0.193928 -0.0726808 0.463623
-0.165684 -0.0618387 0.324301
-0.0901556 -0.0603783 0.0958775
0.170538 -0.0567135 0.441714
0.0547687 -0.0344073 0.517048
-0.0116863 -0.112589 0.407054
4.46038e-05 -0.0350441 0.782958
0.215296 -0.0683472 0.352261
0.0657187 -0.0935892 0.674021
0.065178 -0.0505914 0.479545
0.0309569 -0.0523165 0.495132
-0.0238094 -0.0724575 0.817107
-0.0627785 -0.0567477 0.341767
0.0281132 -0.0327501 0.699097
0.0643174 -0.0381627 0.556747
-0.106321 -0.0576826 0.118586
0.0607742 -0.0657247 0.316774
-0.123477 -0.0606149 0.493049
-0.0322561 -0.050927 0.197405
-0.00379782 0.0385519 0.13941
0.294669 -0.0875291 0.342018
0.00496618 -0.111587 0.804611
0.0516251 -0.0632893 0.274554
0.0167997 -0.019309 0.651161
-0.0405666 -0.0336581 0.147768
-0.0269855 -0.10187 0.654057
0.0336851 -0.0686129 0.631085
0.0331683 -0.0450658 0.53786
0.347729 -0.0906148 0.40569
-0.00805718 -0.048106 0.0421469
0.0214974 -0.0321274 0.605986
-0.212248 -0.0663364 0.493192
0.00122928 -0.0655118 0.0934321
-0.227116 -0.0674755 0.451686
0.0265101 -0.0641106 0.228712
0.0734452 -0.0557808 0.124442
0.289131 -0.0842297 0.47009
-0.376068 -0.101748 0.324394
0.191328 -0.0698337 0.369532
0.00175527 0.119303 0.0802587
-0.00177942 0.0111146 0.0700542
-0.323459 -0.0930651 0.343109
-0.0208196 -0.110872 0.617238
0.0271778 -0.0324418 0.400732
-0.00664613 -0.0283753 0.365268
-0.0130211 -0.115906 0.434736
-0.00508393 -0.0347926 0.183881
-0.205732 -0.0714774 0.353814
0.226058 -0.0673405 0.425464
0.0693526 -0.0448177 0.342356
0.0306354 -0.110888 0.501838
-0.0505601 -0.0982129 0.361152
-0.0324753 -0.0548905 0.635742
-0.00773858 -0.060913 0.853363
-0.358863 -0.0962828 0.307564
0.0372341 -0.106882 0.632248
-0.0728512 -0.0676618 0.464003
0.435352 -0.107472 0.354976
-0.017952 -0.0247977 0.607727
-0.253556 -0.0725585 0.42331
-0.0737159 -0.0533183 0.587809
-0.164956 -0.0556381 0.444242
0.00163788 0.113979 0.0540102
0.0623281 -0.0822347 0.591067
0.395568 -0.105422 0.41441
0.12414 -0.0477659 0.494913
-0.0598703 -0.0414203 0.562662
-0.36914 -0.102473 0.366964
0.042219 -0.0364767 0.659423
0.0145825 -0.0226222 0.752223
0.0439286 -0.0482168 0.121883
0.247712 -0.071436 0.425539
0.192425 -0.0679883 0.339871
-0.261556 -0.0741286 0.442518
-0.0544404 -0.0621435 0.288793
0.136959 -0.062799 0.447206
0.0260371 -0.103747 0.556837
0.0328818 -0.0556872 0.712918
0.261602 -0.0748939 0.373426
-0.00314332 0.00405918 0.0946275
0.0285935 -0.0275233 0.619459
-0.403796 -0.108458 0.363096
0.303654 -0.0913232 0.394801
-0.0274429 -0.0687757 0.792325
-0.36116 -0.093133 0.395512
-0.0284863 -0.0992239 0.584369
-0.0416613 -0.10302 0.591971
-0.36016 -0.0944373 0.428889
0.0829515 -0.0400616 0.452665
-0.137446 -0.0565666 0.327858
-0.0552491 -0.0522888 0.3152
0.10997 -0.047874 0.384746
0.183968 -0.0659221 0.51798
0.166576 -0.0654353 0.37381
-0.0564599 -0.0424825 0.470325
-0.0618078 -0.0928508 0.448425
-0.00641222 -0.0202343 0.524479
-0.000931148 -0.0906467 0.187714
0.0327761 -0.0720717 0.433901
0.0996423 -0.054523 0.54342
0.0507387 -0.0367277 0.10115
-0.187364 -0.0854483 0.0369552
-0.103869 -0.0441784 0.52079
0.0269357 -0.0404255 0.516096
0.00981645 -0.0964316 0.223978
0.183602 -0.0801499 0.0399822
0.0594922 -0.0356216 0.452994
-0.0033586 0.0496811 0.149734
-0.0037828 0.03135 0.115005
-0.0663996 -0.0842619 0.411926
0.0292668 -0.0658179 0.179206
0.0534506 -0.0452883 0.392718
0.316212 -0.0901854 0.321366
-0.0129812 -0.00887513 0.708499
0.0269592 -0.0990357 0.444633
-0.184105 -0.0808768 0.0665612
-0.220762 -0.0737886 0.346021
0.233531 -0.0703597 0.483724
-0.257791 -0.0835051 0.413094
0.203906 -0.0632644 0.410643
-0.150003 -0.0652444 0.474483
0.126954 -0.0615504 0.0629621
0.0115297 -0.0281937 0.305621
0.188771 -0.060273 0.42733
-0.0773048 -0.0392816 0.536492
0.0728245 -0.0521298 0.588933
0.043504 -0.0813684 0.265387
-0.00977821 -0.0243502 0.657858
-0.0223844 -0.0484062 0.15462
-0.0168383 -0.0161172 0.670681
0.198304 -0.0618827 0.457018
0.105814 -0.0597101 0.121246
-0.0373343 -0.0311341 0.491489
-0.174492 -0.0691355 0.424217
0.0333234 -0.0799479 0.617063
-0.037762 -0.0395484 0.292946
0.00621431 -0.112351 0.584787
-0.0190715 -0.0518114 0.130239
-0.00525486 -0.0297004 0.302676
0.00926797 -0.0228768 0.146694
0.0656593 -0.0878818 0.629275
-0.00596364 -0.0256221 0.332989
-0.212816 -0.0758172 0.464257
0.00895501 -0.028441 0.37286
0.0129608 -0.040039 0.137298
0.0119817 -0.117742 0.486067
-0.101288 -0.0534461 0.0702796
0.0125379 -0.0336812 0.0995353
-0.148149 -0.0697531 0.0450564
-0.141087 -0.0634037 0.432681
-0.0418784 -0.0472296 0.0939265
0.0227742 -0.0275156 0.551331
0.0515923 -0.049912 0.567515
-0.0627926 -0.0472389 0.481362
0.0265722 -0.0416211 0.453261
0.039334 -0.0315188 0.529204
-0.0508905 -0.081887 0.293312
0.0380202 -0.103136 0.566361
0.281922 -0.087566 0.396628
0.0520578 -0.0433423 0.365972
-0.0991941 -0.0565421 0.485751
0.0469556 -0.0473112 0.464209
-0.188147 -0.0624342 0.369818
-0.429933 -0.106555 0.340915
-0.000641378 0.0608914 0.0437519
-0.082714 -0.0421419 0.553995
0.00889695 -0.0308182 0.553816
-0.0102223 -0.0204076 0.568079
-0.019343 -0.0830372 0.838907
0.0566148 -0.0407933 0.353675
-0.414544 -0.109601 0.399031
-0.000937654 -0.0247615 0.446086
0.262189 -0.0754869 0.467827
-0.0458 -0.0472023 0.283838
0.00231761 -0.025933 0.16076
0.145739 -0.053317 0.517947
-0.0967431 -0.0454655 0.386477
0.101287 -0.0551938 0.0576592
-0.444529 -0.113549 0.307302
-0.0471047 -0.0462563 0.557516
0.131268 -0.049201 0.452676
-0.02635 -0.0716012 0.238075
-0.121691 -0.047603 0.514031
0.087592 -0.0543394 0.519226
-0.0159453 -0.0602526 0.116075
-0.000339926 -0.032403 0.0810427
-0.0215555 -0.0326185 0.586364
-0.0137644 -0.0273341 0.406998
0.44373 -0.111839 0.29497
0.00113958 0.107947 0.106138
-0.0815764 -0.039677 0.46885
0.313029 -0.0915596 0.349937
-0.0806653 -0.0397309 0.43944
-0.110877 -0.0503832 0.35077
0.033722 -0.0741786 0.573027
0.0228245 -0.110192 0.37306
0.245764 -0.0814633 0.450211
-0.0277295 -0.0909754 0.326007
0.0715186 -0.0901531 0.581034
-0.0496662 -0.103016 0.48383
0.0219444 -0.0219498 0.732878
0.178632 -0.069715 0.406145
-0.00165089 -0.124972 0.638308
-0.367039 -0.101361 0.343544
0.173914 -0.0583658 0.39301
-0.0269907 -0.0987462 0.433356
0.142437 -0.0618883 0.388707
-0.0346985 -0.0472496 0.221493
0.279273 -0.0822878 0.310797
0.0258655 -0.088174 0.237929
-0.399878 -0.100603 0.384376
-0.0668817 -0.0792907 0.610049
-0.0713539 -0.0534316 0.138016
0.00461345 0.00560674 0.165727
-0.0714715 -0.0553602 0.0997144
0.156356 -0.0538362 0.467041
0.346573 -0.0947013 0.442655
0.152047 -0.065359 0.493658
-0.025172 -0.0295909 0.0922469
-0.0501579 -0.0440461 0.602915
-0.275909 -0.07772 0.368361
0.0046594 -0.00410759 0.199287
-0.248748 -0.0718516 0.396974
0.0488548 -0.102548 0.451889
-0.0134234 -0.112512 0.660452
-0.0137514 -0.0419309 0.513839
0.003301 0.0571676 0.118896
-0.0344549 -0.0356264 0.32381
0.0257199 -0.0423608 0.374836
0.0313877 -0.0693047 0.32739
0.11872 -0.059433 0.421065
-0.228112 -0.0760616 0.358717
0.0272751 -0.0719874 0.254136
0.414554 -0.106674 0.296664
0.0841214 -0.051127 0.393028
-0.0225973 -0.0370475 0.380618
-0.260341 -0.0837558 0.38813
0.0340377 -0.109133 0.465619
0.0297363 -0.0509646 0.414868
-0.0916419 -0.0546744 0.530289
-0.0330926 -0.0601952 0.568698
-0.0140393 -0.0105622 0.686147
0.0458236 -0.0637844 0.247411
0.0972377 -0.0561299 0.476307
0.0997181 -0.0439365 0.415997
-0.0136359 -0.110266 0.336839
0.0603793 -0.0985073 0.542564
-0.199429 -0.0727013 0.388757
0.0322802 -0.0757191 0.753618
0.0104098 -0.044789 0.0504216
-0.0498182 -0.0389846 0.44829
0.0579808 -0.097297 0.470621
-0.0328044 -0.0725892 0.750196
0.0275809 -0.0998235 0.659744
0.0326662 -0.0569103 0.651719
0.0289515 -0.0454575 0.199852
0.013979 -0.113265 0.772771
-0.248252 -0.0815415 0.464168
-0.0179157 -0.0869842 0.215808
-0.352548 -0.0997486 0.387076
0.182685 -0.0706741 0.439407
0.115228 -0.0462682 0.512443
-0.0516044 -0.0728888 0.279063
-0.00944931 -0.0411084 0.800168
0.025518 -0.0658637 0.21419
-0.153638 -0.0762678 0.0839878
0.0335975 -0.069935 0.545523
-0.307354 -0.0919349 0.390839
-0.307471 -0.0902276 0.345923
-0.0295801 -0.0427838 0.0892253
0.0478059 -0.0334847 0.443419
0.066895 -0.064439 0.362386
-0.351904 -0.0916417 0.36093
0.0194507 -0.0412311 0.173762
-0.120645 -0.0657608 0.0471644
0.0718153 -0.050372 0.415836
0.0632122 -0.0575248 0.341782
0.0266053 -0.0982349 0.382974
-0.0238026 -0.0427199 0.436842
0.00804407 -0.021924 0.485347
0.0919833 -0.0432562 0.542961
0.0823329 -0.079748 0.669134
-0.350018 -0.0940515 0.317689
-0.126514 -0.0699507 0.0911727
0.0361438 -0.0455388 0.477704
-0.0308438 -0.0679291 0.31666
-0.174911 -0.057826 0.404626
0.0322801 -0.0572302 0.5245
-0.0684913 -0.0754027 0.389316
-0.0138716 -0.0325354 0.247231
-0.294884 -0.0804176 0.417923
-0.00066713 -0.0226391 0.0552335
-0.0790486 -0.076466 0.590346
-0.316259 -0.0935697 0.402476
0.157175 -0.0543608 0.418966
0.0094883 -0.098944 0.832209
-0.0368683 -0.0365302 0.611809
-0.029238 -0.0922182 0.706474
-0.178542 -0.0687761 0.389284
0.137146 -0.0629478 0.488041
0.0156507 -0.0386049 0.110496
-0.174659 -0.0574649 0.476277
-0.0351808 -0.0412794 0.384865
-0.0624762 -0.0531797 0.116871
0.396392 -0.107307 0.380576
-0.0275204 -0.0420565 0.507459
-0.00449915 0.00779256 0.154612
0.436492 -0.107733 0.378985
0.0520856 -0.0368799 0.126571
-0.0502242 -0.0373439 0.510123
0.170155 -0.0685698 0.476962
0.351549 -0.0995155 0.37932
-0.311125 -0.0844299 0.442719
-0.0440231 -0.0381989 0.359677
-0.0304517 -0.0418189 0.405612
0.0805129 -0.0393793 0.481404
-0.00088388 -0.125267 0.671887
0.0309662 -0.112485 0.584457
0.0665547 -0.0562728 0.628124
-0.0333622 -0.0776624 0.555766
0.0660143 -0.041565 0.125649
-0.05795 -0.0396071 0.578999
-0.010131 -0.117696 0.75632
-0.038932 -0.0317245 0.454031
-0.0252941 -0.0897665 0.293045
0.0177124 -0.113534 0.503967
0.0689051 -0.0461791 0.61896
0.338228 -0.0887813 0.396493
0.116198 -0.0592146 0.449578
-0.270603 -0.0857511 0.416036
0.0467548 -0.107406 0.678167
-0.0277099 -0.0493458 0.76438
0.343294 -0.0954148 0.322706
-0.028364 -0.0511897 0.322524
0.103548 -0.0437025 0.48582
-0.0837979 -0.0493664 0.368484
0.28981 -0.0887744 0.375746
-0.0261189 -0.0768134 0.194544
-0.030486 -0.0471212 0.591447
0.067128 -0.0850658 0.433206
-0.026833 -0.0996386 0.720327
-0.0617563 -0.0554346 0.603072
-0.0156458 -0.117631 0.585969
0.0858673 -0.0591321 0.0906225
0.0805679 -0.074085 0.60947
0.0270059 -0.102885 0.598496
-0.0420427 -0.103886 0.383052
-0.027636 -0.112208 0.533221
0.0770432 -0.0524556 0.526977
0.0659076 -0.0796783 0.362617
0.242523 -0.0704075 0.443748
4.52879e-05 -0.113143 0.656451
0.0231624 -0.109647 0.624137
0.0514144 -0.0898726 0.551794
-0.275658 -0.0865222 0.443004
-0.0203449 -0.0886787 0.240079
0.0769015 -0.0599145 0.577627
0.00620861 -0.0682173 0.105594
0.00151814 0.0562927 0.0595561
-0.0167689 -0.107043 0.792412
-0.0588727 -0.099997 0.554113
0.070469 -0.0904131 0.685869
0.0808794 -0.0607242 0.647417
-0.0367862 -0.0462488 0.120116
0.38981 -0.105513 0.341142
-0.0218528 -0.0952161 0.805255
-0.0681226 -0.0909345 0.6703
-0.0376812 -0.0320207 0.509755
-0.426 -0.111568 0.329454
-0.031906 -0.086039 0.643862
-0.105189 -0.0482161 0.367854
-0.0206918 -0.0353378 0.352947
0.19202 -0.0708679 0.382573
-0.237404 -0.0801714 0.441594
-0.125141 -0.0573007 0.540383
0.0281992 -0.0408754 0.592058
-0.0311709 -0.0573267 0.399493
0.0725865 -0.0673298 0.637757
-0.0364362 -0.106765 0.399783
-0.0965327 -0.0549117 0.413693
-0.139281 -0.0507078 0.492355
0.0308855 -0.0859229 0.7128
-0.00124683 0.0921737 0.050114
0.0982137 -0.0428867 0.460712
-0.00911123 -0.0262198 0.0848752
-0.0749611 -0.0815574 0.545234
-0.284355 -0.0881443 0.427905
0.150122 -0.0601546 0.342613
-0.0338644 -0.0704838 0.580177
-0.0271753 -0.0299877 0.712199
0.00641961 -0.0145523 0.746061
-0.412735 -0.105401 0.310503
-0.0456318 -0.107138 0.558014
0.0347066 -0.107839 0.419032
0.0292627 -0.0832372 0.31613
-0.247019 -0.0718466 0.380996
0.256062 -0.0806054 0.347778
-0.0124864 -0.0298835 0.220063
-0.076411 -0.0477789 0.0620829
-0.0315044 -0.0894065 0.56614
-0.328608 -0.0943866 0.44043
0.422743 -0.11169 0.355937
-0.0210197 -0.0272407 0.675898
0.228894 -0.0783071 0.47134
-0.0601711 -0.0396331 0.127491
0.0755761 -0.0528504 0.056867
-0.284219 -0.0856242 0.343132
0.375729 -0.103642 0.370247
0.400066 -0.106919 0.333342
-0.0221239 -0.0396979 0.278177
-0.340237 -0.0975047 0.373103
-0.0163683 -0.0531722 0.105233
0.0523645 -0.0397078 0.682897
0.0548905 -0.10364 0.589151
-0.0954992 -0.0585584 0.125626
0.00231593 -0.0273952 0.422426
-0.421135 -0.11154 0.372683
0.179414 -0.0591207 0.496873
0.0102407 -0.040722 0.445138
0.220315 -0.0770328 0.417134
-0.379713 -0.0968116 0.372698
-0.00291916 0.0708413 0.101229
0.00952694 -0.0281342 0.203602
-0.05803 -0.0472689 0.40878
0.0331115 -0.0713433 0.477987
-0.140865 -0.0635341 0.454635
0.00988735 -0.033057 0.348636
-0.00259161 -0.0144436 0.628177
-0.0211683 -0.0268864 0.129637
0.149541 -0.0647176 0.412761
0.151848 -0.0652664 0.432065
-0.234929 -0.0691462 0.461709
-0.0561834 -0.050122 0.330323
-0.0224253 -0.109422 0.547815
0.0160206 -0.0357132 0.356956
-0.402111 -0.101281 0.343451
-0.0302281 -0.0469983 0.571094
-0.0799505 -0.0522821 0.421138
-0.0934705 -0.0421942 0.434095
-0.187263 -0.0715653 0.451992
0.0219458 -0.109546 0.695024
-0.0998727 -0.0494762 0.336368
-0.12831 -0.058202 0.374163
0.00213794 0.0863533 0.122207
0.0152983 -0.0320063 0.238498
0.110758 -0.0537785 0.549691
-0.000784614 -0.115392 0.542558
0.202918 -0.0684436 0.319935
-0.0253627 -0.044269 0.311821
0.341843 -0.0900481 0.427005
-0.00477932 -0.115655 0.564303
-0.0213718 -0.0589422 0.161685
-0.135264 -0.0640172 0.0743945
0.144864 -0.0672718 0.0612526
-0.0323904 -0.0862754 0.615408
0.387399 -0.103519 0.318933
-0.0760572 -0.0605269 0.557429
0.120535 -0.0479522 0.410017
0.11743 -0.0674736 0.0753274
-0.0417475 -0.0342639 0.477597
0.00947387 -0.0566138 0.0807343
0.0854628 -0.0501074 0.374627
0.028249 -0.0428832 0.427019
-0.0453508 -0.0575243 0.24901
0.0331828 -0.0657438 0.510163
-0.0701122 -0.0657959 0.624515
0.0060836 -0.0303785 0.57652
0.0249533 -0.0395269 0.0762718
0.00264419 -0.112729 0.622453
0.384165 -0.0977844 0.355692
-0.0761896 -0.0859414 0.67983
0.0321737 -0.0387175 0.264576
-0.178386 -0.0581091 0.45328
0.0304547 -0.0553308 0.758914
-0.0353699 -0.0891818 0.266702
-0.0280048 -0.114465 0.654057
-0.0211754 -0.039744 0.238724
-0.287026 -0.0885664 0.411533
0.0209823 -0.109253 0.46385
0.0335182 -0.0303354 0.501488
0.126113 -0.0671256 0.0445329
0.148871 -0.062273 0.376637
-0.0113671 -0.0217065 0.545781
0.002812 0.0522982 0.082511
-0.284674 -0.0800991 0.355906
-0.0387385 -0.10861 0.512197
0.0176177 -0.0382513 0.159794
0.0422163 -0.0313584 0.613616
0.0203485 -0.0335653 0.76081
-0.417914 -0.104399 0.337911
-0.0336418 -0.0785704 0.60433
0.0439971 -0.110369 0.662499
-0.0331794 -0.0640208 0.527726
-0.0910113 -0.0416312 0.446821
-0.032262 -0.0659754 0.387782
-0.347829 -0.0978734 0.345797
0.0637715 -0.0409816 0.0940166
0.190095 -0.0604319 0.470875
0.0592292 -0.0393811 0.611154
-0.0119307 -0.0390031 0.102234
0.336906 -0.0968471 0.362727
-0.129827 -0.0529865 0.360529
0.0630713 -0.0364032 0.439403
0.0233236 -0.0282447 0.511308
0.0237748 -0.0672376 0.160286
0.116769 -0.0659253 0.0572058
-0.0469237 -0.0353685 0.110645
-0.00911936 -0.113008 0.41925
0.111062 -0.0542265 0.363991
-0.105826 -0.061053 0.0470134
-0.0236466 -0.109731 0.359887
-0.0267069 -0.102647 0.564501
-0.237342 -0.069613 0.407512
-0.127163 -0.0613379 0.478247
0.129712 -0.0515864 0.380462
-0.0672061 -0.053899 0.456703
0.255388 -0.0729294 0.443481
0.058474 -0.0970919 0.649938
0.0255557 -0.0829809 0.266363
0.0337308 -0.0707371 0.736395
0.0608933 -0.0497586 0.467941
0.0400816 -0.0813305 0.253473
-0.0668683 -0.0575428 0.40912
0.202192 -0.0722074 0.499133
0.0270579 -0.0429375 0.0960963
0.00323472 -0.117902 0.3619
0.0200551 -0.0583593 0.818594
0.0554892 -0.0486214 0.542036
0.167021 -0.0592422 0.363126
-0.0107081 -0.0412823 0.541779
0.0415481 -0.104505 0.394405
-0.0502631 -0.101669 0.642091
0.0328817 -0.0618171 0.680719
0.0564199 -0.0502589 0.595832
-0.175926 -0.0579048 0.419347
0.00851003 -0.0359665 0.0881171
-0.0252679 -0.0347953 0.54412
-0.256004 -0.0783084 0.314756
-0.0252034 -0.0635417 0.208512
-0.0212002 -0.0474913 0.167878
0.165421 -0.0677114 0.443723
-0.201906 -0.0741155 0.454379
0.308497 -0.0899108 0.338536
-0.312731 -0.0927367 0.433805
0.443559 -0.114197 0.319322
-0.00318741 0.0545983 0.0933258
0.0557419 -0.0960706 0.402897
-0.0210767 -0.0294108 0.415837
-0.396147 -0.10122 0.412655
-0.0137311 -0.0794829 0.168768
-0.0825572 -0.0536525 0.506168
0.0110121 -0.0243496 0.6636
-0.255352 -0.0738939 0.372251
-0.16084 -0.0561819 0.39188
0.0141888 -0.114794 0.42278
0.0042927 -0.124297 0.702981
0.0169285 -0.107412 0.322901
0.321234 -0.0862706 0.437459
-0.159499 -0.0547483 0.425732
-0.00191012 -0.0078151 0.234498
0.347089 -0.0980377 0.350196
0.0103841 -0.12224 0.682855
-0.25795 -0.0766839 0.480183
0.0415225 -0.107228 0.496136
-0.0524111 -0.0436345 0.622939
0.211234 -0.0742053 0.378143
-0.0552477 -0.100921 0.518325
-0.0267394 -0.0673472 0.172056
-0.0265992 -0.100385 0.743587
0.00199111 0.0801171 0.0646068
-0.070059 -0.0428792 0.100632
0.223408 -0.0667479 0.437349
-0.0389186 -0.0391736 0.305242
-0.041499 -0.0470833 0.147126
-0.0612884 -0.0438389 0.527127
-0.00824122 -0.0246264 0.631691
-0.0658671 -0.0487039 0.51157
0.285995 -0.0790016 0.444198
-0.0111762 -0.0267791 0.497311
0.117596 -0.0467487 0.435279
0.0127553 -0.115879 0.606918
0.0397688 -0.034025 0.0890506
0.109708 -0.0583316 0.481212
0.0776896 -0.0821923 0.600675
0.0445588 -0.104216 0.434728
-0.0441668 -0.0328221 0.58031
-0.0766536 -0.0702932 0.667334
0.145891 -0.0521949 0.423044
0.331256 -0.0875944 0.379335
0.0182546 -0.109986 0.53775
-0.235422 -0.0781806 0.482152
-0.0706928 -0.0375259 0.480861
-0.156814 -0.05574 0.516587
0.0267923 -0.0346749 0.287913
-0.0699137 -0.0861653 0.652557
0.0271201 -0.029272 0.482394
0.123471 -0.059715 0.409273
0.0141591 -0.112437 0.661918
-0.0384939 -0.103047 0.566894
-0.00482948 -0.115031 0.526074
0.424181 -0.105739 0.334211
0.00271031 0.0717265 0.0781816
-0.00389617 -0.100053 0.232643
-0.00202318 0.0446096 0.0698544
0.0916359 -0.0498908 0.111294
0.0739669 -0.0382906 0.461959
-0.0309578 -0.10169 0.313658
0.0924877 -0.0551297 0.453438
-0.011511 -0.0255339 0.584064
0.0400421 -0.0364681 0.639843
0.0320349 -0.053991 0.566019
0.016625 -0.0880679 0.21166
-0.0987208 -0.0536876 0.549743
0.0835522 -0.0467086 0.567503
-0.0808852 -0.0629309 0.632475
0.0708309 -0.0697973 0.423664
-0.00507678 -0.0179831 0.165779
0.126306 -0.0602489 0.519687
-0.0799829 -0.0528714 0.441962
0.014701 -0.112174 0.648242
-0.324532 -0.0899289 0.313539
-0.0651854 -0.0462511 0.147205
0.0289169 -0.0667991 0.277063
0.0897336 -0.0579781 0.0615626
0.030037 -0.0386767 0.722735
-0.238599 -0.0759172 0.327901
-0.0165204 -0.01945 0.64729
-0.0412774 -0.0301093 0.659576
-0.178339 -0.0700793 0.46013
-0.216837 -0.0752843 0.486832
0.0704919 -0.0453357 0.667151
-0.297377 -0.0821371 0.452153
0.274665 -0.086472 0.433049
0.0203287 -0.028611 0.459194
-0.0114344 -0.0575194 0.089285
-0.0575684 -0.0480024 0.367401
0.03231 -0.069877 0.369808
-0.0436997 -0.0967626 0.541329
0.0748505 -0.0696234 0.65351
0.019847 -0.0317897 0.391831
0.0439107 -0.0337711 0.423351
-0.00190324 -0.0258179 0.433242
0.0318964 -0.049363 0.701547
0.0788876 -0.0609672 0.608423
0.0290879 -0.0379982 0.252494
0.0152316 -0.117407 0.56303
0.119159 -0.0522783 0.344095
-0.295531 -0.0808425 0.378586
0.0762419 -0.0692195 0.525749
0.0298136 -0.114054 0.65167
-0.0350924 -0.106268 0.35911
0.0691443 -0.0626063 0.414449
0.188749 -0.0603583 0.482941
0.0393932 -0.0330763 0.144886
0.0332008 -0.0608557 0.639975
0.0355706 -0.109093 0.485397
-0.0989857 -0.0429707 0.507151
-0.0684515 -0.0679531 0.612882
0.00549368 -0.0375151 0.411821
-0.0174478 -0.0420562 0.446745
-0.326392 -0.0874598 0.353847
0.0262541 -0.0294249 0.0955825
-0.0707964 -0.0550596 0.126368
-0.00828579 -0.0360051 0.596177
-0.172728 -0.0689222 0.436298
0.193016 -0.0721879 0.484977
0.027309 -0.0383146 0.238692
0.0999551 -0.0431962 0.510188
-0.448292 -0.11009 0.332904
-0.0836816 -0.0518909 0.0467439
-0.00837422 -0.0259208 0.457077
0.217634 -0.0685483 0.497102
-0.0228909 -0.108501 0.682613
0.0067343 -0.0810922 0.155119
0.0720393 -0.0544759 0.542981
-0.229533 -0.0679735 0.428616
-0.0232353 -0.10684 0.489093
-0.00324944 0.0596726 0.129183
0.0296143 -0.0537254 0.337552
0.0569485 -0.101727 0.567783
0.0503361 -0.0396376 0.0693847
-0.0089995 -0.0436906 0.0313982
-0.0336026 -0.0664168 0.558852
0.00428108 -0.0160087 0.225391
-0.0746663 -0.0677895 0.497874
-0.0329063 -0.0768406 0.483475
-0.00561821 -0.0891538 0.851008
0.00176078 -0.112775 0.382894
0.0193364 -0.092814 0.25452
0.0332454 -0.0640127 0.535518
-0.0235089 -0.0531177 0.190059
0.0551312 -0.0615226 0.547355
-0.294424 -0.0889797 0.363641
0.0273138 -0.0997432 0.501899
0.000686963 0.101495 0.0391773
0.00214299 -0.0353156 0.389232
0.212339 -0.0647779 0.421244
0.433259 -0.107167 0.343177
0.0334102 -0.069065 0.649336
-0.033966 -0.0494011 0.210112
-0.0314373 -0.0739739 0.330152
-0.0365766 -0.107902 0.657603
0.188039 -0.0603447 0.400022
-0.0742963 -0.0556992 0.569012
-0.111364 -0.0586578 0.487938
-0.152594 -0.0532638 0.487449
0.046336 -0.102777 0.62639
0.325766 -0.0904051 0.451821
0.0301503 -0.0364295 0.551258
0.142635 -0.0513513 0.452657
0.076025 -0.0562677 0.0805217
-0.171442 -0.0684907 0.409196
0.376906 -0.097769 0.331189
0.135789 -0.0508794 0.405862
