0.0957363 -0.0808256 0.372562
-0.0988542 -0.0806222 0.37148
-0.00547407 -0.0883555 0.470896
0.00517527 -0.0905795 0.893087
0.127652 -0.0822472 0.380008
-0.0801708 -0.0912926 0.554678
0.0965936 -0.0671584 0.161837
0.05021 -0.0760043 0.342395
-0.0873219 -0.0646665 0.467133
0.023864 -0.0359102 0.728884
0.184285 -0.0872337 0.40012
-0.173703 -0.0763138 0.441225
0.0160731 -0.0455603 0.881408
-0.00744415 -0.0482192 0.112005
-0.0159819 -0.0312617 0.448106
0.00572579 -0.0426759 0.387076
0.00395154 -0.0835803 0.362459
0.392572 -0.0905043 0.418962
-0.0936714 -0.0845205 0.4042
-0.0192447 -0.0503869 0.905818
0.100554 -0.0702939 0.247589
-0.000678151 -0.0815681 0.163572
0.163187 -0.0752505 0.5031
-0.0759118 -0.0783292 0.27633
0.00353518 0.0383274 0.0495094
0.0209591 -0.0251222 0.586881
0.0575648 -0.0904663 0.646991
0.0481145 -0.0602894 0.782941
0.0565863 -0.0886174 0.691723
-0.03489 -0.0204414 0.771057
0.0487898 -0.038091 0.52345
0.00462979 -0.0723761 0.614108
0.0452085 -0.0638125 0.234801
-0.248542 -0.0859834 0.498615
-0.0930542 -0.0628189 0.216667
-0.171656 -0.0844494 0.540403
0.273053 -0.0835523 0.39879
-0.0286473 -0.034974 0.402073
0.0252702 -0.0892038 0.514643
0.00451945 -0.0668338 0.766041
0.0423434 -0.0414639 0.583019
0.0360383 -0.085596 0.541198
0.200106 -0.0924151 0.479692
-0.0226631 -0.00241676 0.743016
0.0720459 -0.0785211 0.181739
0.0290161 -0.0382194 0.319123
0.0442246 -0.0438752 0.20572
0.0388593 -0.0622949 0.640503
-0.0883846 -0.0634891 0.558579
0.119975 -0.0731312 0.470715
0.0302477 -0.0899565 0.729161
0.0539894 -0.0420582 0.31217
-0.0196597 -0.0927329 0.762387
0.409032 -0.0929299 0.358719
0.0117045 -0.0857504 0.417433
0.0701885 -0.0648012 0.700153
0.131515 -0.0908567 0.53368
0.330004 -0.0937531 0.397828
0.00698379 -0.0915847 0.862973
-0.0179966 -0.0870259 0.446747
-0.0681085 -0.0900219 0.488121
-0.305806 -0.0833661 0.429104
-0.0625276 -0.0533203 0.65168
0.0100522 -0.0937297 0.664565
-0.00211516 0.0598628 0.0849173
0.0372488 -0.0574912 0.739977
0.24641 -0.0811625 0.485238
-0.0633309 -0.053006 0.619442
0.0626835 -0.0680204 0.287317
-0.220514 -0.086947 0.383004
0.0365997 -0.0409486 0.269096
-0.03029 -0.0278056 0.812816
0.0298983 -0.043673 0.146348
-0.204633 -0.0787671 0.426103
-0.0212516 -0.0364248 0.348781
0.00253629 0.0883196 0.0341097
0.208564 -0.0878512 0.516351
-0.00872177 -0.0110294 0.150625
0.344352 -0.0856003 0.425899
-0.0539499 -0.0834818 0.421142
-0.0351572 -0.086581 0.485129
-0.0216304 -0.0384694 0.30808
0.0431397 -0.0805635 0.288409
0.0875834 -0.0871176 0.437963
0.00528136 0.00283611 0.0789681
0.0653432 -0.078987 0.144566
-0.0245252 -0.0840222 0.848788
-0.175819 -0.0840748 0.376159
0.0395714 -0.0336892 0.46711
0.0252067 -0.0635382 0.902001
0.0889887 -0.0670024 0.451741
0.199107 -0.0848179 0.373194
-0.0181321 -0.0924655 0.792738
0.0541786 -0.0625127 0.319521
-0.148546 -0.0865749 0.408844
0.16024 -0.0910269 0.522576
0.0166656 -0.0813641 0.188415
-0.0267416 -0.0410589 0.22896
0.0324597 -0.0916071 0.632694
-0.0111847 -0.0718069 0.960708
0.0365306 -0.0626785 0.839006
-0.237867 -0.0928405 0.457901
0.123959 -0.0864751 0.417907
0.0813716 -0.0507036 0.310444
0.0374108 -0.0299086 0.781637
-0.0139106 -0.0445094 0.879658
0.00552071 0.00596668 0.103835
0.302544 -0.0937264 0.434823
-0.0275076 -0.0773106 0.376149
-0.257336 -0.0822937 0.406445
0.0377613 -0.03019 0.689248
0.075078 -0.0586334 0.48888
-0.39084 -0.0883615 0.385714
-0.0889968 -0.087058 0.619131
-0.000563486 -0.0758205 0.646476
-0.0337979 -0.0446831 0.474576
0.0738596 -0.0893958 0.475673
0.151805 -0.0750826 0.448094
0.276029 -0.0816294 0.44333
-0.116926 -0.0911426 0.497844
-0.0283546 -0.0584803 0.213155
-0.0808565 -0.0769605 0.159354
0.0169363 -0.0207772 0.0768473
-0.0547547 -0.0537377 0.712305
-0.0944296 -0.0650902 0.138771
-0.0202151 -0.092883 0.728337
0.0333272 -0.0521007 0.346864
0.000403192 -0.0907499 0.52505
-0.161543 -0.0919104 0.494119
-0.0166604 -0.0349914 0.515591
-0.00750314 -0.0379856 0.136866
0.02827 -0.0556628 0.251864
0.0689109 -0.0546361 0.580982
-0.00314483 -0.0277158 0.0619724
0.00113857 0.0696574 0.0193985
-0.0527962 -0.0351 0.146779
0.374382 -0.0932582 0.375565
0.021238 -0.0903881 0.575803
0.0283634 -0.0429467 0.16371
-0.0692518 -0.0468743 0.361773
0.0867301 -0.0629012 0.513203
0.0330625 -0.0847368 0.788831
0.000556413 -0.0451596 0.307661
-0.0384282 -0.0805747 0.198211
-0.239602 -0.092427 0.483082
0.00367603 -0.0711266 0.815485
0.0836291 -0.0683015 0.424874
-0.000184604 -0.0655777 0.293044
-0.000394234 0.0324032 0.115449
-0.00241739 -0.0655952 0.351611
-0.034566 -0.0507546 0.381061
0.0698619 -0.0557234 0.528512
0.0396596 -0.0767013 0.594806
0.0860898 -0.077316 0.264302
0.0636683 -0.0828066 0.408869
-0.000929291 -0.0473135 0.575431
0.192951 -0.0914495 0.433159
0.214035 -0.0780199 0.47244
0.0375576 -0.0528994 0.759887
-0.074939 -0.0787264 0.314252
-0.0165179 -0.0812108 0.25241
0.00652229 -0.0231748 0.135311
-0.0228724 -0.0469875 0.848544
-0.0320406 -0.0775082 0.126012
-0.0591724 -0.0912758 0.579323
-0.0703743 -0.046499 0.325157
0.220689 -0.082171 0.399924
-0.0524373 -0.0589004 0.53426
-0.0418762 -0.0362649 0.109917
0.0536266 -0.0902331 0.667735
0.0129449 -0.00726271 0.703019
0.184125 -0.0768487 0.44195
0.0203105 -0.0297459 0.480257
0.116865 -0.0911134 0.495658
-0.0422244 -0.0444968 0.687572
-0.0615525 -0.0511908 0.482968
-0.0812163 -0.0538989 0.242812
0.0712597 -0.0466627 0.40129
-0.0173249 -0.09164 0.817623
-0.173273 -0.0917905 0.468088
-0.035717 -0.0451936 0.756919
0.126916 -0.0736809 0.53624
0.0358285 -0.0478567 0.435294
-0.222684 -0.0897325 0.506073
0.0660356 -0.0709742 0.731958
0.236511 -0.0794276 0.454169
0.0410961 -0.083278 0.433392
0.0788198 -0.0782458 0.284412
-0.0442173 -0.0452263 0.171866
-0.283941 -0.0933373 0.451979
-0.169066 -0.0806643 0.402298
0.0113416 -0.0317376 0.431813
-0.30265 -0.0923849 0.396964
-0.0232466 -0.0912446 0.621346
0.0761883 -0.0494665 0.155175
0.0190933 -0.00142322 0.755593
0.0813761 -0.0554915 0.112411
-0.0152605 -0.0108947 0.125024
0.000641316 -0.00198496 0.732745
0.038098 -0.0807761 0.228441
0.288517 -0.0830758 0.406125
0.0946163 -0.0777687 0.348905
-0.0791835 -0.0662482 0.662831
0.0736727 -0.0473787 0.335926
-0.00477563 -0.0631135 0.700045
-0.0270366 -0.020743 0.0800596
0.018801 -0.0813933 0.137026
-0.174513 -0.0903962 0.521246
-0.36924 -0.0924661 0.430585
0.120568 -0.0728371 0.496112
-0.142354 -0.0897105 0.43852
-0.0458977 -0.074543 0.328776
0.081176 -0.0540432 0.20618
-0.0492268 -0.0802237 0.230627
-0.112143 -0.0896907 0.549551
0.0183494 -0.0353247 0.366544
0.00432844 -0.0155774 0.104809
-0.12697 -0.074293 0.540728
-0.339735 -0.0900628 0.361856
0.0201737 -0.0823851 0.842689
-0.0186674 -0.0813033 0.310445
-0.0214525 -0.0812584 0.17602
-0.111851 -0.072262 0.505485
0.0272119 -0.0327772 0.840191
0.0721201 -0.0668119 0.37379
-0.0194539 -0.0343665 0.705201
0.0117682 -0.081258 0.279092
-0.05095 -0.056934 0.39204
-0.0907743 -0.0573463 0.288616
-0.00634955 -0.0728326 0.865943
0.26359 -0.0812603 0.421436
-0.0966478 -0.0669423 0.23458
0.264031 -0.0932404 0.453797
-0.0308265 -0.0302484 0.554201
0.105631 -0.0738611 0.440759
-0.0369216 -0.0427137 0.616803
-0.0509767 -0.0903187 0.534705
-0.11835 -0.0851192 0.408422
-0.0732726 -0.0802387 0.370982
-0.00556585 -0.0144341 0.657142
0.0494793 -0.0912884 0.619441
-0.073836 -0.0493021 0.272958
-0.00877599 -0.0118734 0.0425991
-0.0368638 -0.0643232 0.655393
0.0064415 -0.0333425 0.097825
0.0363971 -0.031713 0.566994
0.011407 -0.0817384 0.319237
-0.0348071 -0.0900997 0.709264
0.0722568 -0.0499574 0.421623
0.0461681 -0.0451224 0.652223
-0.0316521 -0.033163 0.455773
0.326648 -0.0911025 0.376159
0.0840177 -0.0675541 0.648091
-0.024985 -0.0650226 0.237167
0.0841402 -0.0532666 0.267401
0.0514883 -0.0463752 0.165574
0.0552188 -0.0913317 0.588493
0.000171169 -0.0675814 0.535094
0.381959 -0.0877308 0.398722
0.013907 -0.0935596 0.608003
-0.0224517 -0.042834 0.427449
-0.0360868 -0.0807162 0.270168
-0.00404106 0.0548835 0.0506949
-0.340715 -0.0854333 0.410016
0.00406615 -0.0230771 0.59762
0.0166099 -0.0927421 0.808379
-0.287166 -0.0934118 0.432219
0.0583886 -0.0768078 0.487262
-0.0207503 -0.0904876 0.581196
-0.12832 -0.0908555 0.459264
0.0694951 -0.0769492 0.336874
0.131119 -0.0908855 0.457617
0.107026 -0.0713643 0.51982
-0.0425512 -0.0622212 0.806203
0.155602 -0.0858273 0.399514
0.0508739 -0.0837955 0.749544
-0.0125385 -0.0813195 0.198191
0.261245 -0.0853764 0.380536
0.155416 -0.0773395 0.536681
0.00686249 -0.0335512 0.14509
0.016309 -0.0568739 0.937143
0.0584932 -0.0449393 0.495916
0.081851 -0.0838959 0.405935
-0.00362933 -0.0708802 0.744417
-0.0254281 -0.06479 0.886032
0.0166058 -0.0881349 0.476951
-0.046123 -0.0442033 0.21286
0.0460215 -0.0622937 0.26587
-0.0387695 -0.0809325 0.579762
0.184693 -0.0908368 0.514511
-0.0131107 -0.0933897 0.656403
-0.298908 -0.0879684 0.471346
-0.00452481 -0.0299132 0.465172
-0.00416095 0.0183362 0.0570496
0.0295586 -0.0295896 0.123459
-0.0172471 -0.0702644 0.937077
0.00101077 -0.0917792 0.875797
0.00270994 0.0458758 0.0961799
0.0367053 -0.0395583 0.810593
-0.378407 -0.0876635 0.389533
-0.0372616 -0.0687754 0.610481
-0.0506177 -0.0646343 0.264547
0.0990009 -0.0677163 0.223206
0.0143779 -0.0812761 0.257475
0.0191818 -0.0386528 0.297371
-0.0193503 -0.0440959 0.385827
0.0259672 -0.0375253 0.750421
0.165404 -0.0916669 0.46966
-0.0738728 -0.057382 0.545563
-0.319442 -0.093599 0.445238
0.266206 -0.081199 0.462491
-0.0141478 -0.0322845 0.728356
0.00126193 -0.0862692 0.94213
-0.216519 -0.0921357 0.433409
0.116799 -0.0883893 0.556239
0.0731869 -0.0570875 0.61293
-0.0370565 -0.0417671 0.251165
0.00100808 -0.0386368 0.229469
0.00670006 -0.084537 0.386531
-0.0490416 -0.0835971 0.753019
0.0256717 -0.0363282 0.700075
-0.0604263 -0.0791963 0.171376
0.236082 -0.0797778 0.425053
-0.194961 -0.0772168 0.457402
0.0618563 -0.0901611 0.509134
-0.0219034 -0.0062699 0.782313
-0.0700375 -0.063525 0.414718
0.0563539 -0.0444179 0.258483
-0.213712 -0.0924715 0.463555
-0.0543591 -0.0899573 0.505464
0.00927824 -0.0172452 0.811372
-0.0827986 -0.0568304 0.179735
-0.0433837 -0.0875822 0.73179
0.0380316 -0.0524029 0.701201
-0.050346 -0.0802545 0.293649
-0.0256711 -0.0185272 0.655667
-0.0921783 -0.0757159 0.329573
0.0924838 -0.0911143 0.529686
-0.253209 -0.0929156 0.441913
0.0641292 -0.0870515 0.457078
-0.0472331 -0.0392985 0.363824
-0.0179401 -0.0274705 0.838845
0.00624831 -0.043295 0.500611
-0.0565481 -0.0633342 0.326041
-0.113735 -0.0729435 0.459917
0.0071338 -0.0545742 0.109786
0.284072 -0.0931892 0.457758
-0.101201 -0.0694742 0.479251
-0.0180067 -0.0391453 0.278397
-0.200211 -0.0777543 0.501022
0.0420648 -0.0409733 0.292949
0.00469438 -0.0535619 0.545409
-0.0740193 -0.0842728 0.416678
0.223186 -0.0918853 0.424726
0.19295 -0.0773478 0.504434
-0.0905662 -0.0673753 0.607445
-0.157625 -0.0750509 0.511624
-0.155631 -0.0768541 0.43254
0.0664051 -0.0791391 0.211925
0.0229484 -0.0906192 0.707162
-0.00105045 -0.054707 0.652889
0.0296637 -0.049323 0.367501
0.044238 -0.0345708 0.50092
-0.0448104 -0.0447286 0.599991
-0.102975 -0.0870463 0.428006
-0.0710293 -0.0796547 0.698258
0.087994 -0.0909843 0.563169
0.0405804 -0.0727557 0.313362
0.0372395 -0.0364633 0.601927
-0.278789 -0.0870267 0.369865
0.0360549 -0.0306529 0.538088
-0.0401333 -0.0849463 0.440568
0.0677099 -0.0449423 0.380065
0.0402075 -0.0273928 0.102351
-0.0940096 -0.0615082 0.162151
0.094123 -0.0664572 0.57785
-0.183531 -0.0921155 0.489748
0.371377 -0.0937628 0.4245
-0.054613 -0.0813983 0.35191
0.0464057 -0.072031 0.799309
-0.0653881 -0.0471233 0.164144
0.098396 -0.0619918 0.30772
0.0312097 -0.012938 0.699706
-0.0176559 -0.0726397 0.83616
0.0555141 -0.0905987 0.545561
-0.0798203 -0.0563021 0.123513
-0.40978 -0.089373 0.38392
-0.271935 -0.0814725 0.438907
0.0226804 -0.0808339 0.885827
-0.00846036 -0.093727 0.611499
0.21083 -0.091782 0.498429
6.5763e-05 -0.0459059 0.453909
-0.0772473 -0.0534787 0.211395
-0.0481632 -0.04723 0.520721
0.0179384 -0.0813706 0.16675
0.000109999 -0.0826807 0.338023
0.00199116 -0.0934735 0.805843
-0.0511395 -0.07978 0.125616
0.0514838 -0.062564 0.299731
0.255042 -0.0829757 0.40006
0.304492 -0.0850479 0.392335
-0.0829982 -0.0893247 0.467084
-0.0337678 -0.055166 0.303886
0.0858187 -0.0531568 0.292509
0.0289174 -0.043232 0.463952
0.0984418 -0.082904 0.605422
0.07692 -0.0875967 0.64908
0.0146203 -0.0332035 0.539067
0.0919362 -0.0650088 0.352833
-0.0138064 -0.0362246 0.814302
0.0641607 -0.041956 0.1275
0.220826 -0.0787735 0.441284
0.0296087 -0.0872613 0.488728
-0.0305826 -0.043803 0.77697
0.00634816 -0.0327966 0.40698
0.0085578 -0.0765856 0.874053
-0.0751851 -0.0786744 0.351395
0.091922 -0.0766286 0.302333
0.0111686 -0.0328136 0.874708
0.0510499 -0.0454919 0.188565
-0.324759 -0.0867007 0.382205
-0.386414 -0.0927524 0.366318
0.353881 -0.0929685 0.436312
-0.0233719 -0.0262857 0.594755
-0.0648693 -0.0460482 0.0976284
-0.0124432 -0.0615739 0.126106
0.0376803 -0.0905968 0.56755
0.134215 -0.0800611 0.400313
-0.0468476 -0.0460389 0.654271
-0.00892554 -0.037628 0.894333
-0.105335 -0.0911632 0.51642
-0.0354796 -0.0510173 0.736633
-0.0585791 -0.0744672 0.49943
0.052863 -0.061871 0.541732
0.0793581 -0.051545 0.133954
-0.077531 -0.0886352 0.636263
-0.0639902 -0.045561 0.415371
0.0301025 -0.0249817 0.0613108
-0.00715223 -0.0368301 0.159077
-0.0525301 -0.0904977 0.652917
0.166762 -0.0756371 0.465784
-0.0673686 -0.0575354 0.459317
-0.0576495 -0.0588121 0.508222
0.0444055 -0.0474789 0.730883
0.0205638 -0.0654491 0.126185
0.00344759 -0.0509789 0.610734
0.00572696 -0.0474267 0.196593
-0.0186956 -0.0811361 0.294085
-0.03643 -0.0741398 0.632882
-0.241191 -0.0797387 0.471526
-0.0292665 -0.087327 0.465657
-0.0130264 -0.0119774 0.0683077
0.218418 -0.092248 0.439451
-0.0212611 -0.0421468 0.17382
-0.038152 -0.0816565 0.417037
0.291685 -0.0853992 0.471155
-0.0991699 -0.0840595 0.600344
0.217632 -0.0868861 0.383641
-0.010947 -0.0920403 0.842988
-0.0888633 -0.0905257 0.493577
-0.000416463 -0.010915 0.67786
-0.0320343 -0.090034 0.541556
0.22948 -0.0923592 0.484745
-0.0362533 -0.0534256 0.349102
0.0244232 -0.0921343 0.746376
-0.0255625 -0.0679936 0.270798
0.0370379 -0.025218 0.73796
-0.0269912 -0.0911136 0.668781
0.319727 -0.0841467 0.433963
-0.0893037 -0.0710158 0.417874
0.037398 -0.0549769 0.812206
0.0390997 -0.0807229 0.187255
0.0259031 -0.0345556 0.389615
0.0445494 -0.0786726 0.37774
0.0319929 -0.0592226 0.85573
-0.161146 -0.0912775 0.445404
0.0310431 -0.0809842 0.271594
0.039286 -0.0492916 0.621124
-0.037733 -0.0794791 0.392385
0.0412076 -0.0569345 0.599599
-0.0358752 -0.0445449 0.704343
0.0225904 -0.0248188 0.824409
-0.387613 -0.0881673 0.41092
-0.0292826 -0.0881319 0.689991
0.00204592 0.0540364 0.0319196
0.026699 -0.0406663 0.23367
-0.0677239 -0.0703944 0.720538
0.0908998 -0.060542 0.181024
-0.0182388 -0.0372933 0.328949
0.180116 -0.0917675 0.456555
0.0699902 -0.0784554 0.124841
-0.0875061 -0.0596404 0.197746
-0.0354318 -0.0635469 0.768039
-0.00151363 -0.0660979 0.406666
-0.0795382 -0.0601055 0.399401
-0.00904391 -0.0339091 0.389456
0.0226459 -0.0837489 0.823579
0.00250377 0.00280546 0.0511604
-0.344727 -0.0941553 0.426053
-0.0863218 -0.0908255 0.574346
-0.00580739 -0.0865996 0.430262
0.0963313 -0.0660161 0.142057
-0.229399 -0.0894327 0.40096
0.0158399 -0.0756191 0.947665
0.0374134 -0.0745138 0.685522
0.322584 -0.0883418 0.457731
0.114676 -0.0884773 0.43901
0.0578017 -0.0784574 0.364048
0.0198127 -0.0794669 0.909512
0.0154366 -0.093458 0.639367
0.183578 -0.0854102 0.384602
0.0679134 -0.0676921 0.465121
0.0138727 -0.0161136 0.649465
-0.11364 -0.0891533 0.445287
0.0363432 -0.0768903 0.749367
-0.00529584 0.0156854 0.115045
-0.24656 -0.0902532 0.401141
-0.0943323 -0.0757913 0.309421
0.0698477 -0.0596141 0.674402
-0.036882 -0.0896522 0.510138
0.0346741 -0.0497232 0.396021
-0.00792943 -0.0240737 0.584283
-0.227641 -0.086053 0.372376
0.145395 -0.0899445 0.43932
-0.0899205 -0.0911917 0.537031
-0.282808 -0.0924858 0.405853
0.0373961 -0.0296608 0.669084
-0.0022424 -0.0212433 0.16663
-0.0556866 -0.0796478 0.202378
0.177386 -0.0759134 0.489331
-0.0378027 -0.0851049 0.767726
-0.0910321 -0.0740252 0.386796
0.0578287 -0.0799166 0.301658
0.0580184 -0.0417616 0.474555
0.0422892 -0.0805351 0.131783
-0.004898 -0.00444797 0.093881
0.000788353 -0.0221842 0.0437433
-0.0247674 -0.0160611 0.800579
-0.00236437 -0.0461385 0.259785
-0.0898932 -0.0754471 0.355922
-0.00604309 -0.0741432 0.827628
-0.0897209 -0.0578187 0.264075
0.0240296 -0.0843408 0.385976
-0.00692628 -0.026275 0.115057
-0.0680494 -0.0905098 0.622316
0.0686959 -0.063364 0.407298
-0.0186604 -0.019473 0.15296
-0.000619658 0.093462 0.0534129
-0.0722754 -0.0850502 0.680178
-0.00130036 -0.0763295 0.780274
-0.00803927 -0.0539801 0.161032
0.0311436 -0.0529067 0.318067
-0.255403 -0.0807461 0.428212
0.0442134 -0.0843118 0.512063
-0.0250722 -0.0819465 0.829573
-0.305112 -0.0934952 0.413165
-0.0290561 -0.042428 0.194746
-0.142823 -0.0915658 0.493933
-0.056497 -0.0430907 0.311676
-0.204704 -0.0873719 0.393072
0.0189387 -0.0106239 0.68375
0.0452552 -0.0851138 0.450885
-0.0369393 -0.082297 0.345856
0.0275825 -0.0811447 0.209742
-0.0818453 -0.0515085 0.304957
0.0900393 -0.0686344 0.623088
0.0685392 -0.0610565 0.443723
-0.0486813 -0.0325034 0.121213
-0.0365041 -0.0479734 0.667467
0.0467004 -0.0776072 0.552706
-0.0342894 -0.0170681 0.754856
-0.201507 -0.0773005 0.477543
0.168107 -0.0916694 0.505644
-0.00154433 -0.0666587 0.455411
0.118301 -0.0913042 0.514969
-0.0062828 -0.00381692 0.11957
0.0872439 -0.0723401 0.387745
-0.0120294 -0.0812951 0.221412
-0.110406 -0.073065 0.546635
0.0543445 -0.0545794 0.453138
-0.0628188 -0.0910057 0.559465
0.0121587 -0.0202595 0.623656
-0.0355629 -0.0482337 0.800505
-0.00541028 -0.0353174 0.358304
0.00637321 -0.044077 0.333886
0.018738 -0.0416747 0.184363
-0.0313203 -0.081398 0.813807
-0.0634886 -0.0419186 0.136145
0.390059 -0.0890206 0.37562
0.103758 -0.0702166 0.500373
-0.052903 -0.0617361 0.761381
0.355645 -0.088134 0.376176
-0.0352865 -0.0341195 0.743489
-0.366353 -0.0931101 0.377524
-0.00262154 -0.061521 0.715276
-0.00269985 -0.00589877 0.785605
-0.0122769 -0.0933424 0.704475
-0.134651 -0.0802557 0.398717
-0.0585195 -0.0621802 0.125961
-0.019083 -0.0872645 0.859802
0.0164311 -0.040051 0.845158
0.0865649 -0.0764233 0.154322
0.00144581 -0.0814344 0.243383
0.00312638 0.065488 0.0378696
0.00618226 -0.0603695 0.663448
-0.0530197 -0.0398702 0.448615
-0.0191206 -0.0873456 0.498505
0.0752629 -0.0788289 0.353506
0.0092618 -0.0254744 0.554729
-0.0782881 -0.0592609 0.582842
0.0277141 -0.0463117 0.828854
0.030276 -0.00513014 0.740862
-0.0390366 -0.0430936 0.549345
0.00862112 -0.0807694 0.836461
-0.0768124 -0.0818009 0.385922
0.00721566 -0.0922238 0.845745
0.030988 -0.0550119 0.281826
-0.0253192 -0.0367637 0.686716
0.000705815 -0.027279 0.51171
-0.155541 -0.0897705 0.532526
0.0288175 -0.0555749 0.873957
-0.00747321 -0.0207085 0.819147
0.00624157 -0.0547695 0.590016
-0.0835051 -0.0606502 0.379778
-0.134115 -0.0759421 0.435991
-0.0292024 -0.010311 0.715383
0.025568 -0.0817813 0.429412
-0.049673 -0.0765723 0.539034
-0.311822 -0.0921048 0.457921
-0.028272 -0.0311426 0.493652
-0.00464847 0.0404084 0.0694134
-0.0306875 -0.0207951 0.123848
0.0538461 -0.0799709 0.177932
0.066254 -0.0904545 0.630541
-0.059207 -0.0819631 0.381132
0.0117421 -0.0390279 0.272378
0.057626 -0.0498577 0.577347
-0.186131 -0.0817901 0.396073
-0.0338589 -0.0701109 0.288082
-0.0641271 -0.0792703 0.260634
-0.142302 -0.0778528 0.421126
-0.0176437 -0.0901193 0.741267
0.0241167 -0.0373143 0.525446
-0.191285 -0.0911826 0.509757
-0.0535641 -0.0481834 0.148204
-0.089881 -0.0748464 0.13312
0.0397292 -0.0911028 0.648315
0.135892 -0.0741627 0.455051
0.0170707 -0.042232 0.89772
-0.00543232 0.0106228 0.0715829
-0.0979242 -0.0649939 0.279204
0.0601995 -0.080147 0.328276
0.156564 -0.0917061 0.485301
0.0369316 -0.0343936 0.425526
0.00669363 -0.0330448 0.11808
-0.0361121 -0.0608382 0.696149
0.0224255 -0.0370783 0.33515
0.286306 -0.0910055 0.391609
-0.24596 -0.0799096 0.45504
0.00306889 -0.027204 0.85166
-0.354567 -0.0863686 0.393452
-0.257139 -0.0919091 0.479992
0.000644213 -0.079535 0.808678
-0.00847812 -0.0471481 0.186414
3.62615e-05 -0.0319086 0.180266
-0.024292 -0.0312993 0.473219
-0.0133806 -0.0814344 0.130586
0.0373223 -0.0815768 0.331708
0.0509261 -0.0405967 0.108685
-0.103254 -0.0901308 0.459172
0.113421 -0.083319 0.394809
0.103652 -0.0828071 0.588909
0.366373 -0.0870279 0.390102
0.0684561 -0.0836788 0.700057
0.0512221 -0.0507368 0.482736
0.00174413 0.0293952 0.03665
-0.0367603 -0.0290266 0.0691536
0.10094 -0.0907143 0.551532
0.0369504 -0.0760656 0.354331
0.0460666 -0.0889044 0.716022
-0.0172106 -0.0340611 0.558247
-0.0521574 -0.04822 0.638351
-0.0165931 -0.0660286 0.904221
0.0876339 -0.0763677 0.173328
0.0249437 -0.036313 0.352316
-0.056002 -0.080351 0.319423
0.0701291 -0.0703596 0.300572
0.0371195 -0.0712837 0.730209
0.0556876 -0.0799367 0.229622
-0.00556984 -0.0518445 0.558631
-0.0784226 -0.0778513 0.248207
-0.0609098 -0.0682876 0.275161
0.0624847 -0.0647914 0.339829
0.0443218 -0.0446721 0.564927
-0.180033 -0.09116 0.435866
-0.0642584 -0.0801507 0.434706
0.0802663 -0.0732264 0.323928
0.0320756 -0.0839606 0.808493
0.274996 -0.0926771 0.410665
0.0306876 -0.0882609 0.76715
-0.00566369 0.0105148 0.0894145
0.00474909 -0.00677954 0.141732
-0.00141782 -0.0815178 0.183772
0.0490461 -0.06241 0.285177
0.231569 -0.0792131 0.476881
0.0278187 -0.0913233 0.658674
-0.0323474 -0.0681909 0.849339
-0.0054234 -0.0739342 0.680878
0.0363679 -0.0314515 0.51415
0.0195846 -0.0237615 0.0936064
-0.011651 -0.0467194 0.919835
0.00310787 -0.0626106 0.732504
0.03738 -0.0326591 0.764519
0.299866 -0.0831491 0.421852
-0.00258392 -0.0899562 0.913295
0.237089 -0.0882775 0.387842
0.0766674 -0.0819222 0.387731
-0.0654488 -0.0633984 0.474991
0.0729825 -0.0490223 0.251426
0.0155403 -0.0225731 0.610504
0.0407036 -0.0529065 0.795166
0.00474968 -0.0128072 0.0579425
0.010739 -0.0723267 0.858232
0.0337171 -0.0244866 0.651008
-0.0692845 -0.0676372 0.342717
0.0176042 -0.0882043 0.871531
0.139294 -0.0913747 0.48408
0.00457614 -0.0318808 0.0794613
0.0728821 -0.0849698 0.425829
0.0267888 -0.0891699 0.554195
0.142581 -0.0913033 0.517407
-0.0580401 -0.0827506 0.731875
0.0216412 -0.0812343 0.231785
0.0575393 -0.0407246 0.093049
0.195926 -0.0803149 0.410886
0.0558338 -0.0500012 0.667807
0.0750977 -0.0912545 0.574084
0.0918227 -0.0587359 0.239942
0.226549 -0.0901657 0.408464
-0.0198431 -0.0628964 0.921988
-0.00249364 -0.0345189 0.440681
-0.00139213 -0.0424694 0.126861
0.00123004 -0.000846826 0.750166
-0.0748492 -0.0687013 0.363273
-0.149535 -0.0754871 0.529571
0.00577963 -0.0127208 0.0870304
-0.35422 -0.0943185 0.407371
0.0408103 -0.0455578 0.133557
0.0774427 -0.0803337 0.368888
-0.0760583 -0.0495928 0.344091
0.00215181 -0.0638911 0.749454
-0.254061 -0.093073 0.45934
0.0410617 -0.056321 0.330743
-0.00117835 -0.0817187 0.855244
-0.187206 -0.0835713 0.531632
-0.0480304 -0.0373383 0.159087
0.0311573 -0.0880322 0.694854
0.00486653 -0.0816007 0.144336
-0.0170214 -0.0123488 0.0911453
0.270527 -0.0871928 0.366715
-0.160024 -0.0753956 0.457163
-0.0714591 -0.0686257 0.447795
-0.0304038 -0.0383781 0.834386
-0.105846 -0.0791825 0.395265
0.0138032 -0.0812038 0.295607
0.016631 -0.0906216 0.537776
-0.00996594 -0.00875187 0.693043
0.0934478 -0.0615185 0.203979
0.00504947 -0.0503637 0.0890734
0.047523 -0.081841 0.411494
-0.0145429 -0.0930279 0.596088
-0.0345864 -0.0807326 0.165931
0.0124971 -0.0873256 0.456152
-0.00442615 -0.0369838 0.340815
-0.0195674 -0.0752471 0.870485
-0.0921506 -0.0649721 0.54254
-0.0514513 -0.0476753 0.583229
0.00350035 -0.0421368 0.518621
0.0352134 -0.0911292 0.601526
-0.0250155 -0.0428858 0.44405
0.239523 -0.0900929 0.497313
-0.070958 -0.0908542 0.601359
-0.00483407 0.03277 0.0970267
0.00281006 -0.0689778 0.488959
-0.182282 -0.0774257 0.514715
0.197262 -0.0771308 0.485127
-0.00941531 -0.056149 0.949566
0.0170544 -0.0911155 0.623237
-0.0329671 -0.0300916 0.0916917
-0.0320002 -0.0406867 0.517227
0.0710141 -0.0462274 0.31974
0.00413375 -0.0466767 0.148391
0.00382104 -0.070009 0.631289
0.0110886 -0.0107615 0.0680009
0.159434 -0.0750423 0.482367
0.0308897 -0.0644975 0.227027
0.196745 -0.0805553 0.5202
-0.0890736 -0.0792965 0.64292
0.040674 -0.0346814 0.443516
-0.0366853 -0.0813507 0.321875
-0.0470033 -0.0907339 0.56324
-0.220692 -0.092387 0.482823
0.00636547 -0.0176633 0.122938
0.0851419 -0.0540322 0.345308
-0.0207482 -0.0784633 0.89598
0.00850566 -0.0896421 0.508789
0.170979 -0.0760634 0.449681
-0.100525 -0.0699514 0.29988
0.0569103 -0.0814933 0.394798
-0.0541753 -0.0883277 0.480068
0.0151812 -0.0644631 0.918812
-0.0533927 -0.0422677 0.490482
-0.075218 -0.0661444 0.679233
-0.161328 -0.0915343 0.510238
-0.0435879 -0.0656392 0.578062
0.300859 -0.093341 0.407222
-0.016923 -0.0223196 0.132028
0.0549317 -0.048477 0.601646
0.0332533 -0.0478371 0.417528
-0.0490573 -0.0516862 0.729993
-0.0201404 -0.0811963 0.235251
0.0218799 -0.0797086 0.857034
-0.0972518 -0.0713324 0.202771
0.0578085 -0.0574267 0.732505
-0.00546949 -0.00918063 0.0765942
0.0120638 -0.0814051 0.205782
-0.045403 -0.038275 0.383382
0.350552 -0.0861494 0.394198
0.0568223 -0.0400569 0.403311
0.0776281 -0.0587108 0.541948
0.110956 -0.0765497 0.425932
0.0249647 -0.0795396 0.404259
0.0322921 -0.0809823 0.145768
0.147482 -0.0742754 0.505738
-0.0935144 -0.065842 0.515951
0.0156952 -0.037831 0.829442
-0.00364898 -0.0660188 0.269512
-0.0366049 -0.067686 0.257905
0.00426119 -0.0414806 0.214189
-0.0517514 -0.0482574 0.550961
0.0603955 -0.0797068 0.274748
-0.000353949 -0.0935303 0.771292
-0.0379507 -0.0805864 0.140426
0.040986 -0.0905076 0.677318
-0.050158 -0.0455391 0.198472
-0.00647941 -0.0841822 0.374368
-0.0175687 -0.0883876 0.48112
-0.0655204 -0.0907903 0.543881
0.173745 -0.0886453 0.416611
0.0200599 -0.0877568 0.793341
-0.293926 -0.0892968 0.373721
0.109446 -0.0744245 0.556275
-0.275897 -0.0819825 0.415217
0.0208137 -0.0350519 0.571235
0.0377445 -0.0517219 0.774956
-0.0182908 -0.0408981 0.82867
0.0987051 -0.0729653 0.189452
0.0421517 -0.0550534 0.359563
0.253802 -0.0925237 0.477264
0.167934 -0.076884 0.523224
0.158572 -0.0791073 0.413621
0.0277987 -0.0668553 0.883136
-0.0326523 -0.0837222 0.655447
-0.0351959 -0.0754362 0.70376
0.02944 -0.030013 0.498741
0.164292 -0.0873148 0.538618
0.0380016 -0.0439125 0.175996
-0.0228049 -0.0281797 0.542154
0.0664919 -0.090025 0.490988
-0.0641963 -0.0793611 0.286635
-0.205834 -0.0857884 0.378891
-0.0422183 -0.0431748 0.22847
-0.0261158 -0.0116076 0.694687
-0.00695212 -0.090064 0.510852
-0.316707 -0.0844217 0.400297
0.0053013 -0.0105146 0.0357947
0.106569 -0.0723947 0.456201
-0.159262 -0.0916205 0.474798
0.0574115 -0.0510477 0.511178
-0.0191083 -0.0260503 0.569604
-0.0865948 -0.0764871 0.21324
-0.0418923 -0.0419466 0.266515
0.21101 -0.0923959 0.461511
0.341149 -0.0923826 0.381397
0.0674653 -0.0499097 0.459846
-0.000356087 -0.0873634 0.446707
0.015796 -0.0905199 0.726217
-0.00150638 -0.0832857 0.957138
0.00156043 -0.04373 0.37392
0.0614843 -0.0793351 0.159501
-0.0625075 -0.0530329 0.524112
0.0356247 -0.0158195 0.775644
-0.113327 -0.0769918 0.422591
0.0788135 -0.0905839 0.514466
0.0290104 -0.0403097 0.2557
-0.136259 -0.0739556 0.472733
0.0395016 -0.0807588 0.579953
-0.00174349 -0.0640287 0.203428
0.0171927 -0.0124439 0.135324
-0.208552 -0.0902736 0.416667
-0.282757 -0.0921204 0.468875
-0.00150607 -0.0813044 0.297043
0.256947 -0.0807327 0.435559
0.0375068 -0.0764076 0.62716
-0.118988 -0.0908417 0.471477
0.310531 -0.0911688 0.383242
-0.238589 -0.08783 0.383358
-0.0734315 -0.0491043 0.379317
-0.0291823 -0.039357 0.29477
0.0625675 -0.0909849 0.611468
-0.0885515 -0.0698214 0.368094
-0.106182 -0.0875991 0.570297
0.404313 -0.0896747 0.372902
0.0139882 -0.0374366 0.321429
0.410372 -0.0899041 0.404595
-0.0541508 -0.087764 0.703064
-0.0418648 -0.054905 0.363223
0.025844 -0.0834252 0.447999
-0.00573108 -0.00291723 0.133916
-0.0776328 -0.0765045 0.404059
0.0997724 -0.0668277 0.262441
0.079743 -0.0612568 0.474614
0.0195117 -0.0427524 0.40588
0.29183 -0.0934841 0.447027
0.0320686 -0.0307746 0.138612
0.0251778 -0.0357407 0.673329
-0.156657 -0.0747166 0.496477
-0.400632 -0.0950008 0.394431
0.0339094 -0.0405752 0.71851
-0.0855202 -0.0762708 0.173776
0.0128963 -0.042042 0.159829
0.170472 -0.0810814 0.398975
0.00333231 0.0631486 0.0711534
0.0354801 -0.0403372 0.662368
0.391122 -0.0947957 0.392002
-0.0293814 -0.0885526 0.527751
-0.120497 -0.0913599 0.513011
0.03869 -0.0407873 0.633442
0.213601 -0.0902473 0.4144
-0.00665641 -0.0382173 0.296547
-0.186654 -0.0783419 0.426067
0.342549 -0.0940903 0.406211
0.0444555 -0.0874899 0.733287
-0.00108442 -0.0472106 0.468134
0.111713 -0.0724831 0.53406
-0.0250719 -0.0810895 0.280474
-0.0513185 -0.0799426 0.188004
-0.0839346 -0.0601309 0.151683
0.0319916 -0.0722219 0.849629
0.0131356 -0.064586 0.957432
0.222414 -0.0786281 0.459125
-0.00284502 -0.0635852 0.173188
-0.268689 -0.0932702 0.447492
0.00437354 0.0304844 0.0629019
-0.0348635 -0.0280476 0.679289
0.0255472 -0.0203858 0.637863
-0.0345825 -0.0231462 0.784967
-0.0389511 -0.0513157 0.401771
-0.0139084 -0.00292167 0.729768
-0.0212296 -0.0432768 0.411934
0.129294 -0.0834222 0.562663
-0.216576 -0.0820258 0.400331
0.0184138 -0.0906127 0.59235
0.0042427 0.0420597 0.0811476
-0.150216 -0.0912059 0.455385
-0.0239486 -0.0372285 0.529251
-0.00735371 -0.0375887 0.314308
0.00444064 -0.0154874 0.153461
0.0554037 -0.0568045 0.42343
-0.0175619 -0.0549019 0.891875
0.10204 -0.0786301 0.386679
-0.00423054 -0.093545 0.736833
-0.374413 -0.0944636 0.416941
-0.0218498 -0.0862337 0.431723
-0.148984 -0.0744855 0.483241
-0.0623686 -0.0795506 0.306177
0.0407578 -0.0634027 0.210374
-0.0517769 -0.047695 0.612109
-0.053833 -0.059015 0.37781
0.0418398 -0.0447564 0.511355
0.0371882 -0.0701078 0.762248
-0.232986 -0.0801587 0.489969
0.0032527 -0.034247 0.886946
-0.0405997 -0.03538 0.483597
0.078782 -0.0910287 0.541696
0.0674538 -0.0447438 0.36544
-0.037638 -0.0529196 0.606389
-0.0258087 -0.0463247 0.869364
0.0829714 -0.0769055 0.136232
0.0350395 -0.0913961 0.617242
0.0970347 -0.0887769 0.448952
-0.0300638 -0.0383214 0.626574
0.0371439 -0.0792082 0.390146
-0.0445961 -0.0545996 0.777382
-0.0569564 -0.0509909 0.664937
-0.00173835 0.0413967 0.0291782
-0.0803635 -0.079562 0.669386
-0.0760041 -0.0510185 0.256097
0.0235507 -0.0356427 0.596601
0.0782223 -0.0885087 0.46182
-0.00619082 -0.0418137 0.0925746
0.0542968 -0.0901627 0.521558
0.0378609 -0.0321717 0.552438
0.040637 -0.0672904 0.250743
0.00188031 0.0851644 0.0212044
0.0874693 -0.0609404 0.369852
0.0748333 -0.0575366 0.593856
0.0448656 -0.0817605 0.529552
-0.156326 -0.0817684 0.390092
0.0334246 -0.0352011 0.82402
-0.190697 -0.0920063 0.460088
0.0934494 -0.0908998 0.51525
-0.347501 -0.0881998 0.373919
-0.0469628 -0.0811188 0.403392
0.266026 -0.0929907 0.429512
0.0387711 -0.0452012 0.746657
0.201865 -0.0776713 0.450052
0.0871146 -0.0571051 0.165941
0.0754779 -0.0794016 0.687182
0.0870927 -0.0633233 0.496842
0.054613 -0.0494674 0.530105
-0.0492818 -0.0548223 0.415031
0.0402651 -0.0714974 0.299223
0.0681539 -0.0490684 0.20884
-0.000333088 0.0761084 0.00665039
0.0621999 -0.0724113 0.746209
-0.1273 -0.0737118 0.455228
0.201157 -0.0831587 0.387321
0.0178877 -0.0829668 0.350867
0.312125 -0.0937641 0.424116
-0.0764305 -0.0592837 0.484565
0.0851117 -0.0701882 0.408692
0.062263 -0.0498901 0.139019
0.0147676 -0.0262498 0.841225
-0.0616846 -0.0455313 0.279448
-0.0479237 -0.090504 0.548998
-0.0425451 -0.0410296 0.299073
0.0371002 -0.0358333 0.796838
-0.037268 -0.0558028 0.644012
0.200426 -0.0773617 0.468375
-0.00841866 -0.092513 0.574416
-0.0236199 -0.0472979 0.362801
-0.156853 -0.0790213 0.541738
0.0320425 -0.0232912 0.152274
0.152939 -0.0915788 0.507681
-0.131059 -0.0911673 0.47965
-0.0364363 -0.0806824 0.244766
-0.0325711 -0.0424588 0.209129
-0.029053 -0.0718657 0.312308
0.01911 -0.0404839 0.440931
0.31602 -0.092885 0.395899
0.0692799 -0.055933 0.506594
-0.0177832 -0.0324048 0.857946
0.0377192 -0.0326409 0.70649
-0.0397697 -0.0667429 0.244392
-0.0719761 -0.0506022 0.224191
-0.268385 -0.0835614 0.397745
0.0516975 -0.0478 0.124912
-0.395596 -0.0915939 0.354456
-0.0895213 -0.0868172 0.432758
-0.0336859 -0.0818554 0.620433
-0.00173013 -0.0816358 0.314225
0.0117533 -0.0129511 0.668262
-0.0760368 -0.0715301 0.325348
0.0409513 -0.0480175 0.468599
-0.0101285 -0.0812566 0.266685
-0.0690904 -0.087868 0.462145
-0.0491923 -0.0380215 0.463445
-0.0307084 -0.0359509 0.385155
0.207834 -0.0918157 0.430322
-0.101169 -0.0692818 0.493232
0.0245249 -0.08117 0.247865
-0.105741 -0.077348 0.41086
-0.0136099 -0.0899143 0.557194
0.0269212 -0.0416094 0.477019
-0.0370639 -0.0848257 0.454355
-0.0464255 -0.0308648 0.13487
0.0247754 -0.0415758 0.197003
0.0108268 -0.004962 0.716584
-0.0357233 -0.0378266 0.356134
0.0694284 -0.0568488 0.653908
-0.0592974 -0.0760585 0.744396
-0.0802719 -0.0532086 0.358339
0.0561065 -0.0798578 0.197992
-0.0292034 -0.0809665 0.187548
-0.000624048 -0.0658528 0.371104
-0.0164481 -0.0400925 0.239809
0.0810866 -0.062794 0.631949
-0.0850854 -0.0789199 0.65636
-0.00978172 -0.022879 0.607328
0.0460988 -0.0352408 0.484996
0.0541979 -0.0705634 0.775937
-0.0595468 -0.0903149 0.524039
0.00978747 -0.030983 0.445481
-0.0348435 -0.0342616 0.439608
0.190423 -0.0918184 0.501996
-0.0547502 -0.0381542 0.102683
-0.0506353 -0.0908531 0.639263
0.138332 -0.0742299 0.528528
-0.0535983 -0.0629275 0.312585
-0.0218747 -0.0881862 0.780194
-0.0525229 -0.0433437 0.508254
0.110401 -0.0724247 0.486858
0.0737638 -0.0691921 0.345599
-0.0954092 -0.0749949 0.249821
-0.00389172 -0.0674165 0.338082
-0.0271602 -0.0646854 0.12622
0.0229436 -0.0326383 0.424551
-0.000887448 -0.0203929 0.619482
0.0392016 -0.0807292 0.24209
-0.210608 -0.0781074 0.451643
-0.0597558 -0.0540836 0.496214
-0.034846 -0.0828765 0.35863
-0.0760455 -0.0903303 0.499222
0.0215745 -0.0304839 0.466688
-0.0798127 -0.0603411 0.602879
-0.0639743 -0.0488683 0.201787
0.0304701 -0.0812371 0.314145
-0.0825061 -0.0591133 0.136682
0.184217 -0.0766795 0.455551
-0.066642 -0.0789634 0.221166
-0.0346285 -0.0459745 0.459225
0.0653217 -0.0816948 0.713785
-0.0757891 -0.0547533 0.160766
0.00617285 -0.0640038 0.692082
-0.00658956 -0.0210981 0.0990432
-0.0696564 -0.0490101 0.237774
0.0365552 -0.0610854 0.824231
-0.0542857 -0.0809762 0.336872
0.0548144 -0.0489922 0.643928
-0.0202548 -0.092108 0.641681
0.0499277 -0.0527872 0.742431
0.328673 -0.0890104 0.362996
0.169078 -0.0776846 0.428125
-0.00498092 -0.0752034 0.705947
0.0876448 -0.0826473 0.640493
-0.00530675 -0.0569083 0.623466
0.0693231 -0.0486309 0.434669
0.00247652 -0.0398057 0.0636273
0.0023263 -0.0371226 0.901646
-0.0334444 -0.0740257 0.333392
-0.0222987 -0.0187999 0.0672362
0.222632 -0.0926139 0.474156
0.0956412 -0.0727833 0.421011
-0.0711572 -0.0547859 0.439541
-0.0328171 -0.0403931 0.560656
-0.0267976 -0.0896186 0.751512
0.0561054 -0.0404241 0.384888
-0.292835 -0.083253 0.459902
0.0599722 -0.0836515 0.421674
-0.0273458 -0.0375628 0.602103
0.220745 -0.0896715 0.507117
-0.0862356 -0.0763733 0.196429
-0.0359187 -0.0495605 0.786785
0.241344 -0.0899161 0.400325
-0.0234301 -0.0811229 0.267159
0.0252236 -0.091279 0.782832
-0.235943 -0.0902116 0.498813
0.0616602 -0.0560109 0.695006
-0.00440906 -0.0856078 0.40694
0.0860785 -0.0766917 0.657496
-0.0596029 -0.0424381 0.402193
-0.0357829 -0.0826147 0.430049
-0.0354302 -0.0326295 0.761145
0.0039436 0.0467399 0.061552
-0.217435 -0.0787493 0.493726
-0.0791916 -0.0908263 0.529261
0.0149692 -0.0543726 0.909527
0.0565864 -0.0911172 0.57434
0.0374288 -0.0875581 0.750665
0.0613452 -0.0613277 0.389653
0.0549484 -0.0606753 0.355605
0.0338453 -0.0773278 0.826448
-0.00964285 -0.0909643 0.868009
0.0259248 -0.0384035 0.767721
0.210541 -0.0784745 0.49784
0.089882 -0.0750425 0.361161
0.0374383 -0.0433093 0.193727
0.0120294 -0.0924022 0.833617
0.100402 -0.0907473 0.49206
-0.0154425 -0.0914756 0.830674
-0.00561358 -0.0431667 0.506338
-0.0681913 -0.0635096 0.402406
0.268439 -0.0928834 0.468128
0.0639917 -0.0650179 0.485581
-0.0289899 -0.00612402 0.759891
0.00443267 -0.0439062 0.359869
0.0286692 -0.0230538 0.811244
-0.156653 -0.0783806 0.419522
-0.0427615 -0.0804453 0.217896
0.0619851 -0.0478529 0.197311
-0.224991 -0.0916693 0.422124
0.0469012 -0.0379948 0.537269
-0.0992073 -0.0908727 0.54772
-0.0502275 -0.0833076 0.494523
-0.172987 -0.0917174 0.504248
-0.0753481 -0.0594365 0.634743
-0.0116066 -0.0404298 0.219526
-0.0492449 -0.0632189 0.278226
-0.135112 -0.0737069 0.487487
-0.369112 -0.0944413 0.395738
-0.0373406 -0.033087 0.148993
-0.00350381 -0.093844 0.647557
-0.00721413 -0.0442017 0.174138
0.0285077 -0.0730759 0.327257
0.14761 -0.0815528 0.390157
-0.0244936 -0.0245953 0.617413
0.0813955 -0.0656602 0.441262
-0.0371889 -0.0254215 0.103077
0.0162585 -0.0118076 0.101246
0.23137 -0.0924698 0.438284
-0.0690533 -0.0583067 0.664665
0.136801 -0.0884323 0.429684
0.136668 -0.0911634 0.471362
-0.0454417 -0.0432154 0.241355
-0.0914561 -0.0761709 0.277942
-0.0126767 -0.0934458 0.628532
-0.284754 -0.0821179 0.440741
0.0169484 -0.0933688 0.652243
0.0335672 -0.0368629 0.361974
-0.0561875 -0.0494954 0.128602
0.290329 -0.0825394 0.430585
0.0379138 -0.074552 0.64455
-0.0119621 -0.0867687 0.904968
-0.321975 -0.0843757 0.416211
-0.0524451 -0.0474687 0.16107
0.0702783 -0.0469013 0.292154
0.0374628 -0.0570906 0.725756
0.0750074 -0.0903459 0.502126
-0.00604002 -0.0462635 0.247407
-0.0294644 -0.0344854 0.416583
-0.202073 -0.0886966 0.405615
-0.0348289 -0.0536177 0.336287
-0.0940956 -0.0731462 0.61842
0.0655595 -0.0533072 0.568148
0.0556017 -0.0458245 0.211449
-0.052367 -0.0833622 0.438429
0.242219 -0.0928102 0.449351
-0.0607806 -0.0601348 0.724004
-0.0710363 -0.0891136 0.4748
-0.0128777 -0.0814098 0.147399
0.307025 -0.0836702 0.44917
0.280405 -0.0821465 0.420793
0.0273585 -0.0763424 0.126195
-0.0405312 -0.0629305 0.22363
-0.0282536 -0.0725163 0.86071
0.104258 -0.0735069 0.574352
0.0298846 -0.0385636 0.578682
0.0296572 -0.0393815 0.290031
0.315442 -0.0937545 0.438807
0.0173459 -0.0189255 0.0591075
-0.0279466 -0.0306019 0.825086
0.330056 -0.084728 0.429106
0.00997904 -0.0814811 0.177507
0.000342041 -0.0733372 0.546769
0.211473 -0.0922937 0.485559
-0.262484 -0.0874864 0.370727
-0.174047 -0.0778008 0.428147
-0.0819863 -0.0902882 0.607786
0.014341 -0.090131 0.525217
-0.327842 -0.0848851 0.44067
-0.0699092 -0.0555409 0.562006
0.0145148 -0.00123902 0.767507
-0.058289 -0.0423426 0.369412
0.0625879 -0.04926 0.160003
-0.0458196 -0.0882684 0.719301
-0.024257 -0.0435028 0.814295
-0.00217339 -0.0923 0.853824
-0.0755082 -0.0532561 0.198682
-0.0362018 -0.0724264 0.665182
0.0739108 -0.0857856 0.670998
0.0873139 -0.0753013 0.338797
0.0982339 -0.0705996 0.589134
-0.111814 -0.0745777 0.443201
0.0524104 -0.0425852 0.285793
0.0512159 -0.037863 0.46433
0.241191 -0.0925475 0.478558
-0.0365781 -0.0437718 0.184631
-0.0362674 -0.0628133 0.204254
-0.00364359 -0.0256353 0.548841
0.174854 -0.0919478 0.478085
0.00202823 0.00236434 0.142414
0.027562 -0.0911104 0.671021
-0.0663351 -0.0902597 0.509525
-0.229186 -0.079393 0.426981
0.0385438 -0.0423928 0.229609
-0.0306814 -0.00861268 0.772497
-0.210718 -0.0778921 0.468912
-0.0309359 -0.0399211 0.540185
0.0211532 -0.0248053 0.131586
-0.0322702 -0.0898827 0.726244
0.00931495 -0.0931206 0.795559
0.00136789 -0.0684244 0.591317
0.0456887 -0.0819696 0.776178
0.00620236 -0.0285869 0.156639
-0.252779 -0.0926919 0.425109
-0.00220303 -0.069342 0.669582
0.0999157 -0.0713464 0.21117
0.0498464 -0.0480667 0.700686
0.078322 -0.0510992 0.377272
0.0465704 -0.0309165 0.115421
0.0137353 -0.0380623 0.308882
-0.0154757 -0.067149 0.949279
0.0488524 -0.0534384 0.433603
-0.00236244 -0.0794451 0.819318
-0.0717542 -0.0475708 0.294399
0.0168763 -0.0512497 0.922429
-0.183188 -0.092089 0.477218
0.062909 -0.0611351 0.721675
0.0674631 -0.0911827 0.591142
-0.008537 -0.0167571 0.139487
-0.00333743 0.0463533 0.0415598
0.0516915 -0.0846288 0.43988
0.0383385 -0.0481802 0.447526
-0.036633 -0.0422308 0.639403
-0.364665 -0.0867822 0.418351
0.0371714 -0.0657364 0.80487
0.282976 -0.0894736 0.379678
-0.0848833 -0.0620696 0.570471
-0.0953821 -0.0711505 0.154569
-0.0264218 -0.0398911 0.502322
-0.0279765 -0.0534119 0.29301
-0.395124 -0.0941685 0.375077
0.382047 -0.0877792 0.411152
0.0932734 -0.059412 0.254879
0.0719147 -0.082522 0.398625
-0.00483832 -0.0814182 0.207925
-0.0222179 -0.0396724 0.265072
0.0609525 -0.0705803 0.498586
-0.0327559 -0.0474592 0.422338
-0.129059 -0.0912878 0.491882
-0.0240825 -0.0910458 0.608986
0.0751951 -0.0489516 0.276644
0.0734928 -0.0912621 0.561808
-0.38851 -0.0948113 0.396935
-0.122526 -0.0728988 0.499278
-0.0254805 -0.0811289 0.135846
0.0793555 -0.0528031 0.218342
0.0939498 -0.0641449 0.340034
0.0442606 -0.058717 0.313213
0.0397377 -0.0826458 0.367082
0.014958 -0.0337335 0.395274
-0.0661679 -0.0912272 0.589497
-0.29889 -0.0834932 0.404655
-0.25386 -0.0825521 0.488028
0.0267035 -0.0811985 0.175421
0.0322174 -0.0901361 0.715275
0.185129 -0.0780264 0.516232
-0.0245684 -0.0414323 0.464648
0.00536143 -0.0813436 0.268602
0.0995621 -0.0680877 0.529019
0.369579 -0.089779 0.364802
0.0314106 -0.0853411 0.465217
0.256534 -0.0921736 0.413757
-0.0632747 -0.0644272 0.487026
-0.00540953 -0.071522 0.62111
-0.0946149 -0.0910939 0.525727
0.250699 -0.0869678 0.370992
0.0867948 -0.0907553 0.577626
-0.0283066 -0.0473728 0.39347
-0.0686387 -0.052884 0.134593
-0.00432558 -0.039319 0.0756651
-0.0474374 -0.0900319 0.522537
-0.0737273 -0.06739 0.376966
0.088566 -0.0767436 0.236123
0.00607347 -0.0426402 0.443817
-0.0577189 -0.0429065 0.335504
0.130572 -0.0914294 0.511295
0.158308 -0.0913799 0.457415
0.0773488 -0.0740083 0.309635
-0.302996 -0.093608 0.443294
-0.0229909 -0.081207 0.204363
0.0114464 -0.0897804 0.882731
-0.0324577 -0.032536 0.611888
0.00625135 -0.0639666 0.126077
0.278276 -0.0934143 0.445066
-0.0471975 -0.0732203 0.312484
-0.0288341 -0.0756637 0.840473
0.0388784 -0.0908651 0.663177
0.297923 -0.0828388 0.44001
-0.0262534 -0.0424362 0.792072
-0.235241 -0.0792784 0.46063
-0.0249896 -0.0760996 0.364376
-0.344376 -0.0940482 0.40034
0.29237 -0.0831017 0.459309
0.00944037 -0.0886363 0.486671
-0.0110691 -0.0846845 0.387078
0.0946597 -0.0598107 0.318997
0.0474531 -0.0699233 0.275111
-0.00364503 -0.0714917 0.79419
0.0631914 -0.0443182 0.450052
0.0524679 -0.0475551 0.588002
0.0249912 -0.0405225 0.793515
0.146506 -0.0774399 0.544804
0.00444328 -0.0468776 0.563125
0.0534021 -0.0800649 0.217797
-0.024469 -0.0668175 0.258219
0.0308826 -0.0432154 0.848605
0.0377105 -0.0545146 0.713042
-0.0376608 -0.0690429 0.272593
0.012278 -0.00282042 0.729859
0.36538 -0.0945145 0.414078
-0.00510205 -0.00440372 0.107627
-0.0351254 -0.0370067 0.374037
-0.0244366 -0.0892187 0.509063
-0.0757816 -0.0910692 0.580393
-0.0015025 -0.0878668 0.458643
0.0920271 -0.0658111 0.472416
-0.0828636 -0.0612042 0.535939
0.0221767 -0.0753897 0.359111
-0.164743 -0.0900157 0.432123
-0.0759051 -0.0608409 0.467042
0.0455755 -0.0370706 0.406049
0.00478222 0.0272593 0.088392
-0.07653 -0.0913668 0.566059
-0.0348931 -0.0889866 0.74007
-0.108189 -0.071916 0.519808
0.0621315 -0.0455565 0.26887
0.0373408 -0.0354092 0.731749
-0.029094 -0.0540993 0.841248
0.0285914 -0.056511 0.239962
0.033285 -0.037657 0.343883
0.00824106 -0.0931085 0.816882
-0.224547 -0.0926053 0.45855
-0.0650749 -0.0462839 0.427227
0.0728566 -0.0744633 0.706617
0.119586 -0.0905066 0.454614
0.0626746 -0.0429048 0.420864
-0.314623 -0.0923261 0.39162
-0.074385 -0.0570815 0.424159
0.260019 -0.0897861 0.391657
0.049884 -0.0427664 0.268331
0.0849308 -0.0720654 0.37608
-0.00434673 -0.0694624 0.444199
0.0183542 -0.0372721 0.489245
-0.0921153 -0.0638944 0.17383
-0.0389179 -0.0707254 0.598244
0.165083 -0.0762902 0.439384
-0.0417309 -0.0665492 0.81722
-0.0054363 -0.0818342 0.845474
0.261609 -0.0930727 0.442191
0.00434895 0.00715484 0.0658551
0.0573351 -0.090436 0.533852
0.0281526 -0.0874678 0.503284
-0.053744 -0.0471807 0.178605
0.0873526 -0.0627257 0.547342
0.0390436 -0.0898653 0.523221
0.0246717 -0.00785411 0.708129
0.0710778 -0.0628668 0.432333
-0.0413404 -0.0908068 0.659154
0.00708532 -0.0402014 0.134461
-0.0462764 -0.0460813 0.673785
-0.0298233 -0.0306153 0.5115
0.056522 -0.0796295 0.462168
0.0166629 -0.0395525 0.260182
0.026737 -0.0558877 0.887307
-0.0207914 -0.0355068 0.737515
0.0374923 -0.0648636 0.780803
0.0124608 -0.0915679 0.558282
-0.139094 -0.0882671 0.427326
-0.0218994 -0.0366557 0.760345
0.00902168 -0.081553 0.130537
-0.0488852 -0.0827921 0.386652
0.199383 -0.0921136 0.491394
-0.0410659 -0.0441138 0.536021
0.0254 -0.0724651 0.893567
-0.00417081 -0.0710177 0.728819
-0.0260328 -0.0652163 0.874355
-0.00783984 -0.053249 0.13291
0.00109494 -0.0459102 0.270951
0.122998 -0.0787716 0.409168
0.0136215 -0.0728641 0.842458
-0.0915575 -0.0657194 0.126015
-0.00616756 -0.0434691 0.349964
0.0295116 -0.0415204 0.496703
0.00581338 -0.0840698 0.374887
-0.13661 -0.0915793 0.503834
0.0271266 -0.0324931 0.438038
0.0414769 -0.0456563 0.49839
-0.173968 -0.0853105 0.387619
0.0514184 -0.0739226 0.317539
0.0621553 -0.0623732 0.37789
-0.036175 -0.0363333 0.667254
-0.223561 -0.0785528 0.469655
-0.108578 -0.0767104 0.566958
0.364401 -0.0943956 0.398889
-0.0721471 -0.0529167 0.171628
0.0354974 -0.0814999 0.737645
0.149622 -0.0749654 0.525918
-0.0527067 -0.0797646 0.162727
0.0734217 -0.0579995 0.124967
0.0512249 -0.0656553 0.246302
-0.0565051 -0.0909342 0.623815
0.0220428 -0.0146353 0.801457
-0.0933082 -0.0587109 0.303179
0.0821319 -0.0774724 0.210217
-0.0156369 -0.0932541 0.693393
-0.0756667 -0.0618836 0.652699
-0.114769 -0.0905935 0.458156
-0.0565906 -0.049701 0.599807
0.00176193 -0.0715343 0.500188
-0.28248 -0.082116 0.454889
-0.352024 -0.0932849 0.434964
-0.01184 -0.0538945 0.938281
0.0636165 -0.08601 0.445588
-0.00616661 -0.0915143 0.545664
-0.123365 -0.0894502 0.546846
0.0141902 -0.0325989 0.417061
-0.00431928 0.0497565 0.0798458
0.0270672 -0.0387419 0.305764
0.0797028 -0.0608698 0.412752
-0.00692046 -0.047193 0.201878
0.395693 -0.0886551 0.408042
-0.0305472 -0.00920175 0.726744
-0.185974 -0.0898106 0.520693
-0.0471219 -0.0803404 0.266999
0.209354 -0.0781742 0.441311
0.0842528 -0.0587256 0.383466
-0.00286037 0.0926367 0.042189
0.0819665 -0.0547934 0.194762
-0.00518774 -0.0584952 0.642885
0.118207 -0.0725703 0.507328
-0.0153592 -0.0340508 0.780726
0.102718 -0.0908939 0.540214
0.0505016 -0.0717043 0.292919
0.160961 -0.0906236 0.438919
0.0794054 -0.0780406 0.255049
-0.0868741 -0.0833412 0.395082
0.0161287 -0.0821165 0.329639
-0.000710034 -0.0441101 0.541935
-0.0649325 -0.0861346 0.688865
-0.221717 -0.0917988 0.49418
-0.0291407 -0.0598744 0.195832
0.0129928 -0.0184812 0.634902
0.0368717 -0.024128 0.698932
0.0239337 -0.0529301 0.897993
-0.0325613 -0.0881307 0.496128
-0.128423 -0.0867262 0.418281
-0.0377243 -0.043423 0.727363
0.0395159 -0.0427123 0.695393
0.0319209 -0.0402989 0.533659
0.00374143 0.016449 0.122339
0.128488 -0.0773149 0.422929
-0.0271634 -0.0380338 0.321923
-0.042722 -0.0454495 0.713383
-0.0244887 -0.0368621 0.721323
0.0275371 -0.0251798 0.617762
0.0327862 -0.0191809 0.673598
-0.0579028 -0.0546835 0.701443
-0.0592473 -0.0794947 0.235902
-0.00247978 -0.0144413 0.116602
0.0879864 -0.0835171 0.396399
-0.209911 -0.0924494 0.479318
-0.274574 -0.0847952 0.388332
0.0039608 0.0510445 0.0720208
-0.302026 -0.0936051 0.426116
0.399133 -0.0886478 0.397107
-0.159858 -0.0761121 0.524978
-0.0114184 -0.00127469 0.743547
-0.0496663 -0.0514546 0.471984
0.197728 -0.0897846 0.416799
0.0445377 -0.0825707 0.422377
-0.0687984 -0.0784776 0.163827
0.00890462 -0.0384666 0.289036
-0.0577937 -0.0654884 0.299482
-0.0715806 -0.0751007 0.708579
0.0946744 -0.0894696 0.587323
0.0710252 -0.0789893 0.271012
-0.00663993 -0.081456 0.173765
0.112849 -0.0902225 0.545827
0.00348407 -0.0671269 0.777276
-0.0629405 -0.0683135 0.288555
-0.0357883 -0.0481665 0.767801
0.0195131 -0.0812845 0.217623
-0.0356225 -0.0340082 0.708339
-0.0612545 -0.0523392 0.536761
-0.0887524 -0.0724002 0.397713
-0.00607427 -0.0427913 0.235954
-0.0979493 -0.0726072 0.213928
-0.148122 -0.0879146 0.420626
0.0655394 -0.0801049 0.346025
-0.0136143 -0.0321403 0.589676
-0.0044398 -0.0651946 0.687887
0.0855774 -0.0552571 0.15299
-0.0973831 -0.0728533 0.425476
0.116554 -0.087293 0.427987
0.0299401 -0.0662119 0.247459
-0.00910177 -0.093122 0.804057
0.331702 -0.0859759 0.389928
0.0228765 -0.0810995 0.302197
-0.256362 -0.091965 0.412018
0.0351726 -0.0793943 0.798742
0.102261 -0.0729372 0.300101
