0.0487502 -0.0612171 0.303015
-0.0289005 -0.0322447 0.469011
-0.254218 -0.0894095 0.390736
-0.0704646 -0.0785292 0.204388
0.0446749 -0.0911679 0.63529
-0.0585307 -0.0669965 0.279969
-0.0422096 -0.065141 0.225651
0.0260248 -0.0454296 0.831808
0.0392199 -0.0485371 0.625095
0.0292681 -0.042116 0.854832
0.0673677 -0.088969 0.660822
0.0365509 -0.0769035 0.702399
0.0960231 -0.0743091 0.170388
-0.062413 -0.0527478 0.541192
0.020331 -0.0444613 0.860168
0.0237167 -0.0420508 0.17777
0.013568 -0.0280425 0.850663
0.000797739 -0.0930478 0.578236
-0.0636286 -0.0789957 0.176874
0.0443919 -0.0504008 0.756794
0.0608397 -0.0578415 0.444306
0.0315205 -0.0809661 0.274376
-0.00656708 -0.033228 0.401133
-0.115423 -0.0727294 0.483537
-0.0654511 -0.0908397 0.61242
-0.291723 -0.0896477 0.377654
0.042685 -0.0308401 0.0876621
0.12659 -0.0745898 0.446154
0.27146 -0.093241 0.441269
0.0354222 -0.044714 0.484907
0.0455167 -0.0804561 0.201262
0.0145952 -0.0360689 0.348899
0.0167419 -0.0331651 0.757124
0.271011 -0.0846764 0.388625
0.02213 -0.0843998 0.818881
-0.00441005 -0.0431265 0.176489
-0.317291 -0.0841045 0.41829
-0.00333968 -0.00937367 0.0581928
-0.0882443 -0.0909915 0.561514
-0.0453977 -0.036581 0.485408
-0.0893444 -0.0599711 0.220034
0.0334052 -0.0809349 0.228111
-0.032952 -0.0808037 0.167101
0.0359784 -0.0330054 0.116563
0.25563 -0.0866059 0.368719
0.0373567 -0.0343144 0.729581
-0.192772 -0.0917946 0.503144
-0.165415 -0.0839675 0.379432
-0.00147752 -0.0449662 0.928409
-0.0817127 -0.0888498 0.46272
0.0564779 -0.042957 0.49325
-0.0547971 -0.0443219 0.264005
0.0430443 -0.0434732 0.213826
0.0784733 -0.0495937 0.34499
-0.00461346 -0.0376947 0.309988
0.0185423 -0.00492014 0.781721
0.0145239 -0.0387484 0.286901
-0.0247736 -0.0873552 0.46255
-0.0601554 -0.0466144 0.239345
-0.0041763 -0.0367348 0.328889
0.206896 -0.0776881 0.481382
0.0206798 -0.0820532 0.436667
0.0706483 -0.0635709 0.41756
0.033756 -0.082952 0.80201
-0.0563727 -0.0419982 0.431271
-0.243587 -0.0926212 0.43268
-0.193029 -0.0874373 0.398354
-0.0108555 -0.0313021 0.443191
-0.00438327 0.0341048 0.0542758
0.00157996 -0.0173179 0.163021
0.109978 -0.09067 0.470934
0.000600638 -0.0861307 0.417901
0.040667 -0.0445921 0.165475
0.00285107 -0.0711094 0.841275
-0.228931 -0.0791794 0.442634
0.0147033 -0.042917 0.129263
0.0332754 -0.091343 0.647202
0.0775961 -0.0524308 0.209137
-0.20634 -0.0782554 0.430894
0.0416655 -0.0439168 0.700833
-0.00175018 -0.00829469 0.0440952
0.0322246 -0.0432204 0.17245
-0.00556367 -0.035574 0.394605
0.0201968 -0.0525886 0.914662
-0.0412747 -0.036438 0.407939
-0.0681408 -0.0702259 0.292835
-0.0214765 -0.0826594 0.442689
0.0575849 -0.0414699 0.362754
-0.042755 -0.0448652 0.176948
0.0161702 -0.0235251 0.601721
0.0235971 -0.0347273 0.652122
-0.00442051 -0.0194134 0.160859
0.237952 -0.0921013 0.420634
0.15392 -0.0913573 0.461904
0.034496 -0.0404605 0.703497
-0.394125 -0.0905892 0.362861
0.0326086 -0.0863239 0.673828
-0.0056699 -0.0833653 0.949583
0.000814748 -0.0474148 0.577455
-0.232962 -0.0819543 0.404343
0.0879374 -0.0633319 0.573482
0.126493 -0.075925 0.434562
-0.0861787 -0.0904289 0.490407
-0.0132942 -0.0847897 0.910312
-0.0661111 -0.08034 0.376351
0.303832 -0.0936128 0.42414
0.258644 -0.0853375 0.49124
0.038097 -0.0348767 0.680865
0.0312974 -0.0387165 0.599274
0.156955 -0.0774359 0.427772
0.0885126 -0.0762075 0.176529
0.0378428 -0.0470762 0.778812
-0.0772417 -0.0907092 0.596874
0.037522 -0.0533348 0.80495
0.0199667 -0.0325677 0.42274
-0.148649 -0.0810004 0.550429
-0.00288499 -0.0132106 0.070806
-0.0891795 -0.0644778 0.485046
0.0688453 -0.0788367 0.178749
0.408926 -0.0945627 0.405019
0.0215138 -0.0609798 0.922016
-0.0423204 -0.0907238 0.568372
-0.00418606 -0.0710683 0.786136
0.0675651 -0.0618055 0.125279
0.04565 -0.0356803 0.506664
-0.00121021 -0.00407152 0.0381563
0.0501249 -0.084573 0.440568
-0.0900771 -0.0664921 0.459334
-0.379781 -0.0883468 0.379333
0.135126 -0.0893171 0.543238
-0.0241057 -0.0910754 0.654451
-0.0514094 -0.0650216 0.263635
-0.0102042 -0.0812165 0.29767
0.00302597 -0.0414851 0.162648
0.0612229 -0.0517863 0.632271
-0.0942467 -0.0740329 0.331679
-0.0411601 -0.0793968 0.792118
-0.223576 -0.0786578 0.475144
-0.0526725 -0.0892444 0.693093
-0.00556381 -0.0720619 0.671327
0.0230811 -0.0898926 0.746823
-0.214269 -0.086394 0.380733
-0.0725512 -0.0571524 0.522579
0.0694385 -0.0873858 0.670216
-0.261401 -0.0839255 0.393144
0.0678411 -0.0789594 0.191904
0.000304453 -0.0940021 0.658815
-0.04114 -0.0358938 0.429302
0.00404859 -0.0382881 0.476765
-0.00434878 -0.0688683 0.530916
-0.0811021 -0.0786913 0.351094
0.312623 -0.090938 0.380397
0.0679179 -0.0790151 0.209655
-0.0299119 -0.088205 0.503524
-0.0865401 -0.0905712 0.584401
-0.0564022 -0.0650514 0.755462
-0.299449 -0.0830795 0.447351
0.00235844 -0.0260752 0.536481
0.0378645 -0.0416545 0.708169
-0.0811325 -0.0612476 0.611747
0.232362 -0.0887621 0.393951
0.349218 -0.085866 0.410872
-0.0199708 -0.0401453 0.454296
0.337959 -0.0931997 0.440868
-0.37612 -0.0915345 0.359917
0.0754056 -0.0489333 0.279354
-0.159177 -0.084376 0.546535
-0.0290544 -0.00589946 0.74799
0.0494582 -0.0904736 0.545796
-0.301589 -0.0833177 0.415708
0.0437807 -0.0473663 0.490278
-0.0515197 -0.0800618 0.235652
0.00751225 -0.0938793 0.646876
0.0751113 -0.0614185 0.459725
-0.238258 -0.0806487 0.488732
0.0159017 -0.0724891 0.849422
-0.0241463 -0.00935705 0.787695
0.0702411 -0.0676401 0.707458
0.0386218 -0.0413593 0.615868
0.0239441 -0.09019 0.560944
0.0518604 -0.0561243 0.409893
-0.0421672 -0.0832805 0.374991
-0.0137242 -0.0368439 0.334348
-0.0016195 -0.0138615 0.104234
0.269645 -0.0821572 0.410179
-0.301551 -0.084789 0.462583
-0.0303738 -0.0242107 0.643569
0.0798076 -0.0650218 0.657467
0.0319038 -0.0609957 0.854403
-0.0492528 -0.0567857 0.382903
-0.00195957 -0.0355254 0.330679
0.0366443 -0.0764243 0.701973
-0.330663 -0.093307 0.393644
0.0512536 -0.074378 0.322892
-0.00806776 -0.0819398 0.837201
-0.0244871 -0.0542466 0.255695
-0.12724 -0.0842095 0.396947
0.051192 -0.083717 0.749444
0.0692522 -0.0552454 0.539943
-0.0169294 -0.0905923 0.59183
-0.0356347 -0.0440799 0.170661
-0.0954552 -0.0904239 0.474925
-0.0376392 -0.0394124 0.323991
-0.138546 -0.0889801 0.433727
-0.149037 -0.0789473 0.413034
0.0017309 0.017064 0.0402115
-0.0249242 -0.0645945 0.232302
-0.03592 -0.0859148 0.766016
-0.00229916 -0.0388394 0.249557
0.0897177 -0.080112 0.36512
0.0789238 -0.0598836 0.503805
-0.00538443 0.0124985 0.0715607
0.237631 -0.0850863 0.378163
0.0395111 -0.0504329 0.418154
0.0570538 -0.0400711 0.40483
0.043325 -0.0377555 0.371229
-0.0359482 -0.050689 0.713871
0.0440204 -0.0618227 0.259675
0.0244168 -0.0389792 0.293009
-0.0356816 -0.0532015 0.348856
-0.0021378 -0.0443033 0.437881
-0.00434482 -0.0219564 0.611134
0.00878133 -0.0829016 0.347043
-0.000409105 0.0199126 0.0240628
0.000930706 -0.0296492 0.864511
-0.0353932 -0.0267833 0.780108
-0.0780736 -0.0911987 0.551876
0.0426978 -0.0461018 0.498083
0.0153346 -0.0321352 0.605967
0.0204731 -0.043022 0.136187
0.0167758 -0.0420099 0.897829
0.0952319 -0.0749334 0.197725
0.0949781 -0.0904386 0.574893
-0.0525881 -0.0455862 0.214221
-0.0134145 -0.0813372 0.180847
-0.279149 -0.0847211 0.389922
-0.0739761 -0.0631916 0.431156
-0.0609301 -0.0504071 0.480785
-0.0355335 -0.0634732 0.77815
-0.104032 -0.0906 0.474681
-0.087901 -0.0636377 0.580026
-0.102987 -0.0906898 0.548263
0.00848801 -0.0931948 0.790159
0.0539394 -0.0491566 0.535292
-0.0821948 -0.0906577 0.514707
-0.0157484 -0.0132876 0.667167
0.00365019 -0.0156661 0.0666026
-0.0665942 -0.0792551 0.299971
-0.0225838 -0.0365907 0.745674
0.0645543 -0.0564573 0.681946
0.0728683 -0.0661718 0.389733
-0.293946 -0.0886219 0.367862
0.0872472 -0.07482 0.361847
-0.0156592 -0.0112521 0.107711
-0.392791 -0.0883939 0.391117
-0.305398 -0.086711 0.378108
-0.0279277 -0.0192005 0.108601
0.0760063 -0.0782292 0.36162
0.0343581 -0.0351277 0.402011
-0.0365552 -0.0404252 0.622307
0.0394058 -0.0615438 0.619692
0.0376917 -0.0545555 0.714195
0.252095 -0.0865158 0.368768
0.0739174 -0.0479068 0.147532
-0.0853184 -0.0620326 0.553144
0.0307753 -0.0209012 0.112548
0.00262418 -0.0398538 0.221815
-0.04211 -0.080906 0.785304
0.247115 -0.0928595 0.46699
-0.0789479 -0.0552613 0.38654
0.096975 -0.085688 0.414963
-0.0877635 -0.0541273 0.306568
0.0183437 -0.0345194 0.548317
0.0506616 -0.080266 0.239379
0.343347 -0.0921138 0.37818
-0.0508175 -0.0801222 0.237929
-0.0849631 -0.0621387 0.572928
-0.106358 -0.0863493 0.422661
0.0224397 -0.0338405 0.399659
0.0747822 -0.0870712 0.448277
-0.0870478 -0.0748943 0.345553
0.0636018 -0.0818285 0.719047
0.0859183 -0.0768619 0.188179
0.21268 -0.0779849 0.469663
-0.207032 -0.0904512 0.508521
0.104751 -0.0747385 0.430595
0.225732 -0.0923108 0.433927
-0.0042752 0.0530906 0.0733117
-0.240229 -0.0927073 0.472256
0.171579 -0.0758056 0.503468
-0.17976 -0.0769857 0.436395
-0.00621337 -0.0770301 0.847297
-0.3735 -0.0888207 0.373922
0.0375215 -0.070038 0.28484
-0.325585 -0.0939614 0.431731
0.0894054 -0.055163 0.283167
-0.00561608 -0.076019 0.773406
-0.00136726 -0.0911684 0.535163
0.118365 -0.0800062 0.397509
-0.0660131 -0.0517386 0.453862
0.0150892 -0.0934581 0.669503
0.0935951 -0.0755679 0.6262
-0.0173523 -0.0907797 0.832338
0.100476 -0.0730907 0.252907
-0.000989564 -0.033341 0.39362
0.0216742 -0.0926602 0.691659
-0.0325218 -0.0398879 0.587309
-0.222222 -0.07884 0.486862
-0.0902854 -0.0609836 0.21437
-0.0680076 -0.0550591 0.615045
0.0773878 -0.0497476 0.281194
-0.024822 -0.0429834 0.158224
-0.00307221 0.0882414 0.0428105
-0.024329 -0.0565424 0.867769
-0.006891 -0.0857338 0.410439
-0.0315091 -0.0357074 0.393674
0.114267 -0.086065 0.418267
0.0104858 -0.0924859 0.833788
0.119289 -0.0819579 0.568829
0.320527 -0.0933408 0.39803
-0.0456703 -0.083899 0.436417
-0.391048 -0.0882402 0.404553
-0.0203982 -0.0831646 0.354003
0.00725158 -0.0402524 0.37719
-0.00708489 -0.0305654 0.148676
-0.00399373 -0.0806819 0.866877
0.0317564 -0.0441444 0.468664
-0.0241614 -0.0811361 0.25097
-0.00634566 -0.022924 0.605336
-0.0732642 -0.0787171 0.288365
0.082556 -0.0654703 0.446287
-0.0700914 -0.0664547 0.367438
0.071017 -0.0467134 0.30377
-0.219512 -0.0823007 0.398557
0.239201 -0.0926605 0.473978
-0.0447824 -0.0448736 0.588422
0.00310713 0.0744641 0.0512012
0.244263 -0.0811586 0.413579
-0.017314 -0.00141321 0.770319
-0.0367112 -0.0441641 0.636088
0.0841555 -0.0595981 0.139381
0.0363339 -0.0595555 0.243526
-0.0911063 -0.0752678 0.193059
0.0372771 -0.0386949 0.739901
-0.0205162 -0.0745788 0.350703
-0.19813 -0.0899474 0.418048
-0.056292 -0.0911709 0.611026
0.262354 -0.0930462 0.439063
-0.0799663 -0.0597612 0.56377
0.0863668 -0.0533671 0.293571
-0.0722955 -0.0489733 0.264622
0.0333483 -0.0686764 0.272786
0.0360122 -0.0158984 0.742203
0.0469515 -0.0673371 0.568732
0.212458 -0.0914474 0.425263
0.171357 -0.0859662 0.394356
0.0748012 -0.0765336 0.330989
0.0752971 -0.0783733 0.227715
-0.238913 -0.0905821 0.40708
-0.0392868 -0.0783445 0.800754
-0.0165629 -0.0900084 0.55896
0.0881187 -0.0604466 0.365316
-0.00872863 -0.0287968 0.491719
0.161192 -0.0754608 0.456839
-0.057438 -0.0686598 0.759138
0.0399748 -0.0371056 0.375515
-0.179543 -0.0764523 0.454239
-0.0888004 -0.0604714 0.201443
-0.0117575 -0.0180235 0.637282
-0.0390264 -0.044402 0.502124
0.0268001 -0.087408 0.82473
-0.0901097 -0.0802786 0.366703
0.00289879 0.0295208 0.0466195
0.0323308 -0.0807641 0.412037
0.0065973 -0.0719756 0.83682
0.170072 -0.0917222 0.467325
0.0509187 -0.0909081 0.569225
0.211693 -0.0923886 0.459971
0.094243 -0.0600518 0.325513
0.0403192 -0.0746721 0.594943
0.0711978 -0.0494126 0.165812
-0.40351 -0.094867 0.379933
0.00184524 -0.0816632 0.12964
-0.143583 -0.0916201 0.505136
0.0900039 -0.0589574 0.203643
-0.0164344 -0.0249091 0.579251
0.00744969 -0.0426704 0.125015
0.0266994 -0.0436454 0.441468
-0.364657 -0.0885948 0.374048
0.0589807 -0.079824 0.290498
-0.0882117 -0.0728796 0.367113
0.0539442 -0.0480903 0.594633
0.0204613 -0.0333863 0.659774
0.183521 -0.0775423 0.514435
0.0361314 -0.080022 0.667836
0.0692524 -0.050313 0.179356
0.00227371 -0.093616 0.74957
0.0716953 -0.0487985 0.245173
0.081341 -0.0548885 0.183836
-0.0509714 -0.0909317 0.569689
-0.163693 -0.0919448 0.493744
0.0251012 -0.0383684 0.311798
0.0160748 -0.0808665 0.926035
-0.0351718 -0.0709089 0.296133
-0.0931772 -0.0671928 0.149553
0.00626806 -0.0814457 0.214297
-0.0286507 -0.039213 0.734418
0.0463833 -0.0877006 0.479545
-0.306614 -0.0890121 0.366127
0.0333094 -0.0230889 0.097368
-0.031993 -0.0756153 0.830747
0.00493252 -0.0170121 0.0781173
0.0279375 -0.0763715 0.846599
0.261538 -0.0810491 0.429574
-0.0805131 -0.053735 0.239693
-0.0359656 -0.024235 0.136484
-0.0842367 -0.0696218 0.412174
-0.0646892 -0.0583304 0.456139
-0.252625 -0.0893783 0.492346
-0.0859137 -0.0572129 0.13263
-0.0135485 -0.0638097 0.919605
-0.375322 -0.0900665 0.363498
0.0656938 -0.0463006 0.274263
0.0470176 -0.0905112 0.665246
-0.00312365 0.0396141 0.0417159
-0.000612589 -0.0799177 0.125527
-0.0956122 -0.072557 0.154351
-0.0607736 -0.0811772 0.726218
-0.00229212 -0.0238751 0.582218
-0.0034275 -0.081342 0.258965
-0.0684917 -0.048718 0.238038
-0.0368908 -0.0424145 0.614614
-0.00398324 -0.0897251 0.502307
0.00361276 -0.00793798 0.0466489
-0.0500151 -0.0479054 0.526272
-0.0747666 -0.0519185 0.222853
0.00260411 0.0668373 0.0734587
0.0464015 -0.0305773 0.133411
0.146916 -0.0752551 0.530259
0.0246432 -0.0498168 0.323986
0.272443 -0.0890219 0.483488
0.208603 -0.0783262 0.430748
0.00455379 -0.0821777 0.328304
-0.0193977 -0.0810692 0.426189
-0.0444246 -0.0909966 0.581371
-0.0597681 -0.0427654 0.367465
-0.0560097 -0.0827382 0.400427
-0.0197628 -0.0244213 0.608422
-0.00583735 -0.0476196 0.515098
0.285535 -0.0933886 0.432731
0.027566 -0.0858369 0.832691
0.0406714 -0.0704113 0.598778
-0.0130323 -0.0280929 0.509296
-0.037233 -0.024999 0.134455
0.259936 -0.0823469 0.406523
-0.0419569 -0.0507209 0.431895
0.0643115 -0.0509447 0.479211
-0.154859 -0.0912979 0.518794
-0.0591019 -0.0519425 0.661856
-0.319283 -0.0920685 0.45532
0.0709815 -0.0908277 0.539689
-0.0479476 -0.083181 0.397791
0.0477896 -0.0511485 0.464367
-0.0716914 -0.0562852 0.58286
0.0681257 -0.0885612 0.662666
-0.0130915 -0.00966968 0.101214
0.00539391 -0.0501118 0.185934
0.0211107 -0.0811238 0.298958
0.0967183 -0.0747587 0.407027
0.00488857 -0.0165209 0.151704
-0.0498373 -0.0907187 0.558915
0.106324 -0.0859129 0.418865
-0.116857 -0.0730947 0.460845
0.0389514 -0.0758706 0.350403
0.204566 -0.0776376 0.463708
0.244757 -0.0928132 0.445966
-0.0353461 -0.0278584 0.786238
-0.284151 -0.0824229 0.414481
-0.398966 -0.0916066 0.355044
0.0807738 -0.0610803 0.12491
-0.0461774 -0.0905776 0.555327
-0.0714103 -0.0482213 0.273069
-0.0380065 -0.0855648 0.462044
0.0343678 -0.0426615 0.201287
0.087102 -0.054391 0.273499
0.00961948 -0.0584141 0.126169
0.0708509 -0.0460494 0.140259
0.0742051 -0.0528075 0.163327
-0.187952 -0.0823204 0.391853
0.125781 -0.0751778 0.440891
-0.00769274 -0.048278 0.16396
0.0175855 -0.0915018 0.668177
0.0417104 -0.0912404 0.599935
0.00524921 0.0103799 0.0913963
-0.00547672 0.0147498 0.0832163
-0.222688 -0.0787941 0.484766
0.0305678 -0.04325 0.16374
-0.0765242 -0.079038 0.363325
0.0389527 -0.0439389 0.619784
-0.0718446 -0.0520849 0.189026
0.0724238 -0.078843 0.259767
-0.0854625 -0.0761164 0.159204
0.0052363 -0.0936031 0.731538
0.0395548 -0.0674145 0.253081
0.161289 -0.0832542 0.546035
0.00354156 -0.0168312 0.641948
0.053454 -0.0490479 0.530987
-0.0204082 -0.0288026 0.508696
0.342941 -0.0941426 0.409731
0.00451488 -0.0717615 0.847355
-0.00901457 -0.0553401 0.948271
0.00606448 -0.0300876 0.159211
-0.0283153 -0.0820582 0.820252
0.0393007 -0.0440974 0.604745
-0.0539144 -0.0357301 0.142819
-0.00585222 -0.0461287 0.254446
0.067854 -0.0742669 0.454164
-0.00294245 0.0745677 0.0297255
0.0255557 -0.0361691 0.610565
0.0065271 -0.0786374 0.847126
0.0043011 -0.0448034 0.447969
-0.0030786 -0.00681703 0.1507
0.0161313 -0.0414387 0.860021
0.0584372 -0.0585091 0.416282
0.241669 -0.0798988 0.438387
0.0656952 -0.0789086 0.422647
-0.00649328 -0.0171609 0.64078
-0.00209706 -0.0715695 0.858085
0.0383966 -0.0645113 0.656561
0.241523 -0.0892148 0.394175
0.0121969 -0.0239988 0.587804
-0.0434486 -0.0361107 0.515906
0.0678168 -0.0906323 0.532266
-0.0314699 -0.0773304 0.126058
-0.0810087 -0.0559667 0.184006
-0.00637828 -0.0459769 0.257024
-0.197527 -0.0808392 0.520249
-0.0108043 -0.0933203 0.743207
-0.00670389 -0.0289407 0.857619
-0.0355247 -0.0369123 0.720784
0.214185 -0.0809674 0.40901
0.117292 -0.0728015 0.485525
-0.008166 -0.00630176 0.114619
0.00384306 -0.00498469 0.715123
-4.82402e-05 -0.0921982 0.86093
-0.00570647 0.0144639 0.10057
-0.241409 -0.0798954 0.437592
-0.155161 -0.0908997 0.443655
0.119986 -0.0879245 0.558048
-0.037365 -0.0873898 0.517404
-0.00172564 0.0240146 0.0342501
-0.106558 -0.0841929 0.404012
0.0243262 -0.0901416 0.55766
-0.0360229 -0.0453474 0.478911
-0.0592408 -0.0646503 0.322958
-0.00760267 -0.0461512 0.163013
0.107737 -0.0722483 0.543052
-0.0774122 -0.0499678 0.294531
0.043729 -0.0495038 0.463298
-0.0804316 -0.0732879 0.326663
-0.0482461 -0.0802773 0.237988
-0.0321943 -0.0808365 0.184484
0.0316909 -0.0876123 0.57274
0.0564128 -0.0499763 0.54412
-0.0409996 -0.0434878 0.660742
0.00918955 -0.0828634 0.346209
0.267158 -0.0810858 0.45336
-0.00334306 -0.082019 0.838071
-0.0993395 -0.0662305 0.301951
0.0379075 -0.0327666 0.692993
-0.0721191 -0.0495079 0.113035
-0.0336761 -0.0802134 0.760521
0.0166852 -0.0321848 0.699694
0.025077 -0.0877246 0.831643
-0.0172764 -0.039502 0.263648
-0.00022171 -0.0478206 0.18039
-0.00199133 -0.00245742 0.0444449
-0.296927 -0.0851128 0.390206
-0.0390635 -0.0806106 0.264418
0.0808387 -0.0589826 0.402872
0.0965422 -0.0751429 0.249803
-0.0327945 -0.0882976 0.553904
0.0260335 -0.0663906 0.252815
0.384255 -0.0878908 0.409458
-0.0429069 -0.0458512 0.146183
-0.0368998 -0.0607652 0.657431
-0.0473346 -0.0803518 0.288385
-0.0698341 -0.0525958 0.432356
0.0758094 -0.0491238 0.150034
0.142368 -0.0740945 0.486799
0.0536328 -0.0426402 0.116346
-0.232411 -0.0791891 0.456076
0.236814 -0.0793854 0.458689
-0.0695805 -0.0777995 0.433634
0.00896183 -0.010776 0.0548399
0.283472 -0.0869004 0.371929
-0.0582392 -0.0793247 0.157414
0.0144433 -0.0155792 0.0468141
0.0319339 -0.0896557 0.742597
-0.0185731 -0.0812853 0.177558
0.0580729 -0.0777047 0.48734
-0.0271809 -0.088639 0.603007
0.0600547 -0.0440009 0.300142
0.0721951 -0.0706923 0.309531
0.0265732 -0.0250266 0.818101
0.0556626 -0.0608448 0.357792
0.0352203 -0.0821967 0.805206
0.0499393 -0.0369848 0.462842
0.00522364 0.00698961 0.0826896
-0.25564 -0.090726 0.401571
0.0702791 -0.0838383 0.415081
0.000600143 -0.0511051 0.509215
-0.0343864 -0.0494999 0.823998
-0.0412706 -0.0435763 0.211504
-0.0726818 -0.0653168 0.403569
0.0257627 -0.0910957 0.647541
0.30036 -0.0934666 0.417704
0.0606005 -0.0796674 0.25879
-0.0573625 -0.0653916 0.126164
-0.05967 -0.0809715 0.390929
-0.0881824 -0.0764984 0.24465
0.397014 -0.0943235 0.375658
0.0095138 -0.0786055 0.962009
-0.070391 -0.0473581 0.120846
0.030172 -0.0804446 0.124963
-0.0174818 -0.093118 0.741442
-0.147147 -0.0742666 0.492854
0.135335 -0.0830869 0.383948
0.0852624 -0.0911768 0.542268
0.0641424 -0.0613504 0.716952
0.0401143 -0.0732449 0.319357
-0.0359863 -0.0646151 0.223162
-0.0570772 -0.0903249 0.527621
-0.0360366 -0.073666 0.667607
0.0687561 -0.0746173 0.443537
-0.0034997 -0.0916635 0.871412
0.042764 -0.0361004 0.413548
-0.00532769 -0.0115087 0.675142
0.357253 -0.0895108 0.364574
0.0393477 -0.0765802 0.809713
0.359223 -0.0865307 0.423033
0.0794566 -0.0863471 0.436026
0.000886012 0.0156126 0.0333219
-0.0351666 -0.0687075 0.795955
0.207434 -0.0779014 0.454789
0.249378 -0.0902897 0.400319
-0.0424739 -0.0830334 0.369046
-0.041394 -0.0805474 0.28241
0.0253871 -0.0749823 0.887837
0.0417077 -0.0570212 0.32359
-0.00111074 -0.0369457 0.283937
0.047327 -0.0758668 0.343263
-0.0815086 -0.0905403 0.50668
-0.036034 -0.0835001 0.787147
-0.240529 -0.092615 0.436552
0.0301009 -0.0384071 0.702998
0.0538371 -0.0813165 0.751284
-0.0440161 -0.0807225 0.312323
-0.0501654 -0.0660537 0.238386
-0.181205 -0.0820574 0.392736
0.0205362 -0.0738298 0.922307
-0.288124 -0.082283 0.441579
0.00685417 -0.04363 0.109644
0.0379161 -0.0705487 0.679945
-0.0835749 -0.089003 0.462902
0.0933417 -0.0757839 0.317423
0.00802102 -0.0413011 0.17933
0.0169254 -0.0790408 0.874583
0.0741843 -0.0894288 0.639883
-0.0615859 -0.0840415 0.716849
-0.00091166 -0.0347503 0.365664
0.0289477 -0.0818607 0.842679
0.182189 -0.0765428 0.457955
0.0378718 -0.0423713 0.712784
-0.00214715 -0.068829 0.628187
0.153685 -0.0917715 0.49449
0.0148889 -0.0248101 0.574304
0.127336 -0.0731004 0.503155
-0.0282579 -0.0503487 0.344742
0.0280579 -0.0670035 0.258117
0.106744 -0.091217 0.517981
0.0383871 -0.0720543 0.647819
-0.00226598 -0.0139053 0.0797385
0.343987 -0.085554 0.413909
-0.00610462 -0.00352105 0.0960181
-0.0879141 -0.074431 0.358982
0.0751023 -0.0691486 0.355729
0.208066 -0.0804085 0.512488
-0.293158 -0.089267 0.373773
0.00118884 -0.0705316 0.810019
0.02085 -0.0561293 0.917788
0.00396533 -0.0824661 0.960719
0.0247568 -0.0831761 0.823394
0.0467468 -0.0400534 0.552771
0.107437 -0.0910528 0.504398
0.00834177 -0.0816989 0.848879
-0.0461819 -0.0896064 0.501529
-0.0204992 -0.0765144 0.902879
-0.0968181 -0.0811454 0.613856
0.120381 -0.0882403 0.555845
0.0344408 -0.0109777 0.751443
-0.0171226 -0.0860032 0.419283
0.00771961 -0.0748193 0.820965
-0.181029 -0.0762449 0.4942
-0.0508822 -0.0847772 0.73736
-0.0381372 -0.0442688 0.175647
0.00156344 -0.0410599 0.176388
0.00359403 0.0559103 0.0770698
-0.28868 -0.0826691 0.458464
-0.0101291 -0.0851388 0.923168
-0.0664587 -0.0695836 0.291836
-0.277246 -0.0819053 0.426753
-0.0338676 -0.0318722 0.512492
-0.0724522 -0.0844596 0.420152
0.0883267 -0.0686265 0.435738
-0.0115386 -0.0817618 0.319422
-0.123778 -0.0731668 0.528627
-0.155325 -0.0871224 0.410851
-0.00230673 -0.0461883 0.136416
0.351472 -0.0872698 0.382805
0.00306208 -0.0736342 0.851967
-0.0204921 -0.0429685 0.142716
-0.0270729 -0.00475223 0.769953
-0.174706 -0.0766588 0.438182
-0.0217916 -0.0640569 0.911762
-0.0856033 -0.0623083 0.537743
-0.0257576 -0.084986 0.403889
0.0514662 -0.0497451 0.705656
0.0257692 -0.0474272 0.844739
-0.208884 -0.0777995 0.468669
0.0383388 -0.0856389 0.462756
-0.024803 -0.037404 0.85338
0.019411 -0.0238957 0.111433
-0.0335155 -0.0299276 0.635672
0.0289628 -0.0498345 0.868687
0.0251545 -0.0912021 0.618226
0.00157559 -0.032669 0.419583
0.0301254 -0.0183216 0.799796
-0.0851617 -0.0666324 0.380147
0.0292811 -0.0411428 0.22885
-0.0256011 -0.0402607 0.249825
-0.0416391 -0.0839964 0.397547
-0.0494818 -0.0546519 0.754785
-0.0344871 -0.076574 0.739086
0.0233088 -0.0349939 0.623775
0.00563356 -0.00169018 0.0974767
0.00428351 -0.0458372 0.553304
-0.0276244 -0.0586884 0.871791
-0.0662471 -0.0788535 0.184202
-0.0853808 -0.0862277 0.635768
-0.0133015 -0.0905743 0.595229
0.0447268 -0.0657518 0.810792
-0.0458979 -0.0501546 0.736872
0.151091 -0.0913004 0.518335
-0.145234 -0.0770703 0.428515
0.00514894 -0.0426271 0.17985
-0.0359212 -0.0340991 0.684303
-0.055014 -0.0661898 0.524856
-0.226828 -0.0882422 0.39168
-0.0980066 -0.090908 0.508468
0.0804382 -0.053017 0.226282
-0.0578025 -0.0477462 0.190822
-0.0172821 -0.0295096 0.484286
-0.0362898 -0.0338508 0.454291
0.0395563 -0.0388498 0.593561
0.0774157 -0.0589317 0.604433
0.0291269 -0.0481481 0.383347
0.0271992 -0.0675702 0.872301
-0.0294839 -0.0869717 0.60876
0.0557892 -0.0435919 0.114623
0.0153306 -0.0110262 0.1161
-0.0351189 -0.0668474 0.739564
0.0290992 -0.08274 0.437396
-0.0444395 -0.0439169 0.214584
0.174851 -0.0871384 0.403104
0.000605475 -0.0712696 0.470499
0.299622 -0.0911582 0.387556
-0.0256369 -0.0265724 0.0917545
0.0665846 -0.0507224 0.145662
0.0469673 -0.0740874 0.323197
-0.0424867 -0.0568276 0.336187
-0.288319 -0.085359 0.386291
0.00198505 -0.0814445 0.865443
-0.00868819 -0.00847098 0.071533
-0.0578059 -0.087456 0.46698
0.207727 -0.0902396 0.416706
0.0366365 -0.0217226 0.7115
-0.0264747 -0.0437803 0.439431
0.0699747 -0.0676743 0.34432
0.0816992 -0.0632975 0.631843
0.0177125 -0.0328252 0.415371
-0.0180779 -0.0930715 0.745411
-0.0397861 -0.0503739 0.77773
0.0100824 -0.0356422 0.353764
0.0273614 -0.0535294 0.281099
0.356708 -0.086484 0.393171
0.0295837 -0.0638928 0.22121
-0.050893 -0.0615519 0.545352
0.0332822 -0.0398581 0.701961
-0.0590782 -0.0808762 0.343976
0.0782001 -0.0728361 0.315928
-0.0222836 -0.0595342 0.884308
0.0884759 -0.0575645 0.211387
0.00347526 -0.0300214 0.459484
-0.0400051 -0.0354981 0.131035
0.137284 -0.0750423 0.536951
0.0974007 -0.0739019 0.194773
0.00313056 0.0649524 0.0721411
-0.326072 -0.0890633 0.361999
0.0358576 -0.0821993 0.600861
0.0890817 -0.0768069 0.255108
-0.0648576 -0.0853739 0.43709
-0.0296628 -0.0350213 0.404251
-0.0400448 -0.0555322 0.340639
-0.116976 -0.0824917 0.386203
-0.00671288 -0.0190369 0.137501
0.00670513 -0.0918117 0.556767
0.0340775 -0.0839572 0.759218
-0.0847647 -0.0618074 0.554962
0.00216013 -0.0711536 0.497583
-0.16644 -0.0752968 0.494449
0.0252191 -0.0372904 0.755376
-0.0208582 -0.0876603 0.466889
0.0285409 -0.0910409 0.604668
-0.0665117 -0.0602747 0.69693
-0.0497098 -0.0480577 0.507094
0.0791014 -0.0768523 0.33465
-0.119977 -0.0907899 0.466036
-0.021122 -0.0146832 0.116522
-0.114924 -0.0724901 0.500202
-0.174115 -0.0812692 0.3981
0.211546 -0.0866024 0.38364
0.0207078 -0.0842861 0.823644
-0.0265174 -0.085127 0.796437
0.0087969 -0.045305 0.255595
-0.00148416 -0.0905657 0.905521
0.0042745 -0.0330353 0.420468
-0.0711445 -0.0533506 0.148921
0.0400661 -0.0325235 0.520452
0.0369821 -0.0435798 0.503297
-0.0586989 -0.0809356 0.345161
0.0288223 -0.0894284 0.677132
-0.356324 -0.086454 0.393946
0.0356635 -0.0803127 0.751733
0.221034 -0.0784658 0.466171
0.039773 -0.0420756 0.60239
0.0601171 -0.0899581 0.496149
0.0374716 -0.070634 0.291705
-0.0225794 -0.0428027 0.428827
0.000820915 -0.034075 0.374045
-0.121519 -0.0907983 0.534991
-0.323054 -0.0925254 0.389942
-0.0929197 -0.0750497 0.208039
0.0693139 -0.0787383 0.162709
-0.358806 -0.0930325 0.379899
0.0719013 -0.0615813 0.679121
0.0799428 -0.0532372 0.121932
0.024672 -0.0358173 0.696326
0.037174 -0.065037 0.746384
-0.0338441 -0.0321418 0.546567
-0.0394183 -0.0805225 0.156998
-0.0735788 -0.0792358 0.34994
0.200374 -0.0784701 0.506335
-0.095665 -0.0837269 0.397733
-0.0400624 -0.088984 0.499568
0.0418865 -0.0823078 0.358924
-0.0280197 -0.0886577 0.594633
0.0167834 -0.0296171 0.479025
-0.151752 -0.0745103 0.503449
-0.056188 -0.0556118 0.720358
0.0328909 -0.083017 0.371378
0.00220173 0.0886303 0.0229569
0.0699031 -0.055393 0.603269
-0.0795615 -0.0828699 0.664101
-0.0014609 -0.0718639 0.842265
-0.0213126 -0.0456028 0.374671
0.0578085 -0.0420621 0.344929
-0.0123857 -0.0390448 0.273661
0.0224309 -0.0876976 0.469297
0.0560422 -0.0494403 0.522134
0.00791614 -0.0438425 0.309664
-0.0847182 -0.0567367 0.206659
0.113841 -0.0856859 0.415154
0.08498 -0.0619211 0.532354
0.0289783 -0.0591674 0.874763
0.00427438 -0.0877878 0.460605
0.00300722 -0.0329304 0.414353
0.0958816 -0.0702409 0.600491
-0.0577225 -0.0438645 0.296914
-0.0780587 -0.0836476 0.406074
0.0861475 -0.0851305 0.416429
-0.0115883 -0.0931027 0.773823
0.0926941 -0.0769328 0.349356
-0.070046 -0.051984 0.126842
0.00436911 -0.0451031 0.545253
-0.0884602 -0.0597362 0.353672
0.0388684 -0.0260106 0.115749
-0.00285464 -0.0665459 0.420319
0.224865 -0.0788812 0.449351
-0.0340209 -0.0318761 0.107479
-0.00623684 -0.0255635 0.841306
-0.0521532 -0.0913197 0.590384
-0.0590743 -0.0436552 0.316493
-0.203754 -0.0775035 0.482455
0.176301 -0.0852002 0.38572
0.0122832 -0.093131 0.776776
-0.0638421 -0.0861105 0.446411
-0.0742709 -0.0486825 0.291557
0.0283953 -0.06797 0.878278
-0.00955658 -0.0181003 0.0914849
0.0489389 -0.0370059 0.08574
0.0367379 -0.0719815 0.807388
-0.323785 -0.0923534 0.388156
-0.289752 -0.0898148 0.379898
-0.0835747 -0.0799333 0.362366
-0.0587802 -0.0615501 0.736172
-0.074207 -0.0791431 0.347738
-0.0776234 -0.0589423 0.581448
0.00526321 -0.0717425 0.658508
-0.0764864 -0.0583302 0.574082
-0.0761037 -0.0644442 0.670949
-0.0254381 -0.0150887 0.673034
-0.0158754 -0.0413292 0.193847
-0.0406223 -0.0762219 0.802219
0.0370929 -0.0912502 0.645112
-0.075965 -0.0709588 0.334152
0.383992 -0.094626 0.388943
0.131774 -0.0891608 0.438028
-0.0748814 -0.087347 0.451252
-0.00821107 -0.0453426 0.246411
0.106668 -0.0908177 0.487345
-0.0642203 -0.0455583 0.0978109
0.0148206 -0.0802317 0.935482
0.083468 -0.075956 0.355574
-0.316574 -0.0840811 0.441259
0.00403081 -0.0602951 0.703417
-0.0385195 -0.0430247 0.539506
-0.00101597 -0.0772588 0.8472
-0.0094403 -0.0931379 0.788617
-0.0302537 -0.0554933 0.840069
-0.218943 -0.0816617 0.403976
-0.269396 -0.0863933 0.486628
0.00660293 -0.0731323 0.842552
0.198965 -0.0821884 0.395277
0.0765556 -0.0625554 0.430607
0.0237191 -0.0264983 0.565434
0.0315176 -0.0212378 0.12311
0.177388 -0.077613 0.520036
0.0519249 -0.0474094 0.541113
-0.0909222 -0.0614978 0.212616
0.0375426 -0.0619041 0.777908
0.02164 -0.0269667 0.542047
0.088192 -0.0658723 0.612767
-0.0761887 -0.0535629 0.114914
-0.0606372 -0.0657079 0.31526
-0.117754 -0.0841804 0.400526
-0.0071577 -0.0412345 0.358368
0.0280499 -0.0904165 0.69391
0.0470315 -0.0514273 0.454387
0.0917903 -0.0869185 0.61386
0.00211535 -0.0903228 0.913363
-0.00377551 -0.0827854 0.341354
-0.0961261 -0.0613448 0.299522
0.000698934 -0.047165 0.574867
-0.0551759 -0.0367245 0.120645
0.0639874 -0.0793186 0.210139
-0.0354619 -0.0495797 0.806336
0.0995936 -0.0709046 0.204948
-0.0219007 -0.0918225 0.772991
0.252644 -0.0858952 0.37426
0.0971916 -0.0908374 0.5043
-0.0591232 -0.0754284 0.746611
-0.00353377 0.0679252 0.0369475
-0.0317446 -0.0449303 0.837838
0.0908223 -0.0750008 0.368463
-0.0776902 -0.0655206 0.667181
0.0417373 -0.0908544 0.577482
-0.00501656 -0.0330181 0.4041
-0.26076 -0.093167 0.450743
-0.109123 -0.0879083 0.562284
-0.336362 -0.0938204 0.437435
-0.0970161 -0.0797157 0.363245
-0.0412637 -0.0301375 0.156927
0.284846 -0.0933046 0.453346
0.00483919 -0.0935452 0.74437
-0.0224274 -0.0841154 0.861399
-0.0287223 -0.0886616 0.505479
0.279084 -0.0920831 0.403866
-0.155428 -0.0833579 0.378181
-0.0941215 -0.0647588 0.193791
0.00872554 -0.0429091 0.297815
-0.0213144 -0.0462065 0.853025
-0.0445249 -0.0830316 0.380225
0.00514608 -0.0731106 0.65062
-0.0148088 -0.0328343 0.575358
0.265503 -0.0823138 0.407964
0.00573215 -0.0234973 0.590924
0.0520299 -0.0412938 0.517424
0.0721003 -0.0513367 0.163863
-0.0401789 -0.0378513 0.568432
-0.0648667 -0.0699609 0.73135
0.00622841 -0.0581084 0.638297
-0.0628461 -0.0829124 0.410526
-0.00487326 -0.0638899 0.695754
0.0536675 -0.0384932 0.435862
-0.0375788 -0.0586081 0.626039
-0.0962784 -0.0636779 0.251791
0.0355676 -0.0394934 0.310672
-0.137673 -0.0900381 0.537584
-0.0388588 -0.0865091 0.490797
-0.0167866 -0.00144339 0.742732
0.00586892 -0.0516672 0.0965639
-0.00369533 0.0359489 0.103743
-0.0238782 -0.0487546 0.340868
0.054612 -0.0483717 0.604758
0.000678469 -0.0334298 0.883284
0.0275581 -0.0869443 0.824191
-0.0581325 -0.0498054 0.133325
-0.208066 -0.0777914 0.465966
-0.384209 -0.0879519 0.390655
0.0047924 0.025361 0.0967706
-0.00511754 -0.0383967 0.287339
-0.0602308 -0.069815 0.269868
-0.13634 -0.0895162 0.541483
0.0520948 -0.0526672 0.727019
0.265628 -0.0931432 0.441961
0.0580154 -0.0694121 0.125813
-0.0206932 -0.0924187 0.76214
-0.000249671 -0.0861031 0.417459
-0.00218787 -0.0700162 0.726213
-0.00120064 0.0943011 0.0516206
-0.0332381 -0.0585733 0.244869
0.00138954 -0.088623 0.925815
-0.0135688 -0.0903927 0.857556
-0.0418153 -0.0373797 0.542064
-0.0507603 -0.0821141 0.411603
-0.00633475 -0.0935615 0.682909
-0.0657501 -0.045566 0.375441
-0.0377875 -0.0351695 0.427251
0.00150176 0.0710399 0.0221343
-0.128423 -0.0779907 0.557204
0.349988 -0.093832 0.432181
0.234134 -0.084242 0.504189
-0.0282214 -0.027194 0.61639
-0.0363865 -0.0517121 0.691311
0.004108 -0.0140065 0.0700755
0.152504 -0.076184 0.437701
0.0297228 -0.0825733 0.816043
-0.248595 -0.0802758 0.437185
-0.0356457 -0.0846367 0.777584
-0.0430767 -0.0803635 0.130163
-0.0603376 -0.0908069 0.551148
-0.0357876 -0.0465574 0.714572
-0.0380402 -0.084752 0.408439
-0.124363 -0.0909513 0.472362
-0.049948 -0.0410748 0.13581
0.010673 -0.0921032 0.568448
0.166034 -0.0871685 0.406926
-0.0103067 -0.0833016 0.354838
0.0493112 -0.0801158 0.503415
0.368884 -0.0923013 0.431062
0.045954 -0.0445855 0.606293
0.321273 -0.0935983 0.39996
-0.407503 -0.0928775 0.358883
-0.0514584 -0.0797774 0.133349
-0.0540333 -0.0825116 0.413394
-0.0661503 -0.0875766 0.461291
-0.0531303 -0.0798336 0.198652
-0.00243147 -0.0714584 0.475443
0.0031053 -0.0429049 0.127832
0.0278961 -0.0452594 0.817881
-0.0272685 -0.0396752 0.759916
-0.0474724 -0.0864346 0.464009
0.272549 -0.093306 0.444785
0.00627804 -0.0815928 0.1328
0.0469308 -0.0420791 0.277965
0.0406609 -0.0749712 0.809801
0.0646478 -0.0901751 0.505681
0.00490445 0.0210702 0.102303
-0.214393 -0.0796719 0.502395
0.0392418 -0.0348453 0.121105
-0.00492984 -0.0909374 0.886252
0.031655 -0.0163291 0.682727
-0.00336388 -0.0673736 0.695162
0.286629 -0.0831388 0.464362
0.0667313 -0.0905397 0.625262
0.0222637 -0.0914665 0.637163
0.0558324 -0.0683549 0.256142
-0.0324252 -0.0572699 0.839812
-0.074982 -0.08065 0.683287
-0.0395339 -0.0547336 0.350151
-0.054672 -0.0813908 0.351785
0.0629219 -0.0660192 0.734578
-0.0958639 -0.0653653 0.229003
0.103031 -0.0699774 0.495174
0.0825268 -0.0715224 0.368257
0.0440914 -0.0350972 0.459079
-0.0211998 -0.00201981 0.748109
0.00438693 -0.0632976 0.649289
0.0619349 -0.0644793 0.341177
0.109863 -0.0899794 0.453972
-0.199162 -0.0785505 0.426847
0.261761 -0.0810789 0.428154
-0.00356353 0.024257 0.0501066
-0.0693225 -0.0703187 0.299366
0.00245993 0.00872282 0.0490163
-0.00192587 -0.0731557 0.856305
0.0544839 -0.0392547 0.442743
0.0734571 -0.0597451 0.44471
-0.0829727 -0.0769811 0.19662
0.00547567 -0.0490166 0.939302
-0.350385 -0.0941682 0.401131
-0.0289359 -0.0878275 0.783636
0.109245 -0.073951 0.448102
-0.194189 -0.0771976 0.455749
0.0876779 -0.0822975 0.641037
0.371645 -0.087794 0.38244
-0.0288006 -0.0906125 0.578507
0.00115714 -0.0923752 0.856328
-0.0616378 -0.0803494 0.382116
0.0280221 -0.0247444 0.815511
0.0927182 -0.0621426 0.17315
0.0571999 -0.0521433 0.487953
0.00122312 -0.0447641 0.325292
-0.143141 -0.0764713 0.541329
0.028284 -0.065106 0.236201
-0.0845177 -0.0877944 0.448222
0.0027738 -0.0434672 0.384591
-0.220998 -0.0785296 0.47724
-0.00662976 -0.0433189 0.215818
-0.0162954 -0.0213373 0.140866
-0.0687703 -0.0462198 0.339605
-0.0842718 -0.0537027 0.332264
0.0639026 -0.0546141 0.124989
-0.0928125 -0.0654879 0.158013
-0.0338926 -0.0222797 0.68678
-0.138077 -0.078358 0.551984
0.0730529 -0.0575401 0.632904
-0.0213346 -0.0349386 0.614013
-0.0060812 -0.00344229 0.128245
0.0378753 -0.0495206 0.791613
-0.0327154 -0.0808325 0.272862
-0.0328708 -0.0832228 0.64092
-0.00197969 -0.0799274 0.83517
0.0279577 -0.081123 0.222485
0.0472831 -0.0471422 0.708899
0.337149 -0.0915059 0.375414
0.0806823 -0.0599672 0.574332
0.217096 -0.0816528 0.403671
-0.0155006 -0.00624954 0.709575
-0.0277564 -0.0284773 0.133926
-0.0265113 -0.0441092 0.434332
-0.127871 -0.0734129 0.480911
0.174711 -0.0917909 0.466075
-0.251319 -0.0867934 0.369229
-0.00427244 -0.0902022 0.513434
0.0798832 -0.0608467 0.124924
0.1066 -0.0906016 0.470624
-0.323866 -0.08437 0.424332
0.128275 -0.0735477 0.530148
-0.348342 -0.0894771 0.444093
0.30969 -0.0835649 0.429408
-0.00347733 -0.012609 0.800916
-0.249976 -0.0926114 0.476916
0.00383918 -0.0890376 0.920328
-0.0576383 -0.079283 0.126339
-0.0222149 -0.0416088 0.194986
0.102508 -0.0749805 0.58812
0.149067 -0.0746802 0.519558
-0.0201247 -0.030099 0.474742
0.0728537 -0.0751241 0.416423
-0.0225664 -0.0406379 0.230746
-0.181514 -0.0919049 0.465267
-0.206468 -0.0891869 0.514877
-0.0355961 -0.0881194 0.746358
-0.123262 -0.0733123 0.46997
-0.0832537 -0.0593358 0.133902
-0.0549271 -0.0911247 0.575875
-0.0140112 -0.0857622 0.41275
0.048955 -0.0803447 0.24439
0.0479352 -0.0837298 0.432769
-0.00188928 -0.0815842 0.145411
-0.027965 -0.0751402 0.350836
-0.22959 -0.0790831 0.452848
-0.0540572 -0.0787975 0.37072
0.0541362 -0.061565 0.538578
0.0145046 -0.0373727 0.323098
0.0599499 -0.0769254 0.478087
0.00501658 0.0214604 0.0954416
-0.178759 -0.0859121 0.390897
0.0938425 -0.071543 0.344521
0.0520977 -0.0800989 0.187199
0.294325 -0.0841732 0.464639
0.0337682 -0.0854638 0.597521
0.0169599 -0.0681166 0.95093
-0.247229 -0.0925623 0.422919
-0.00543554 0.00697158 0.124793
0.0472555 -0.0335344 0.0923274
0.0857654 -0.0526728 0.308515
-0.0917477 -0.0654317 0.344472
-0.273934 -0.0933645 0.449931
0.0436481 -0.0603078 0.282352
0.000563403 -0.0842353 0.373963
-0.0179365 -0.0287841 0.49936
-0.131248 -0.0911298 0.476463
-0.0320764 -0.0808414 0.216452
0.0792495 -0.0780919 0.332738
-0.0320955 -0.0840504 0.757435
0.0040712 -0.0815405 0.178735
0.0877586 -0.0698988 0.423056
-0.00557048 -0.051493 0.572382
0.0182058 -0.0410738 0.205912
-0.0537852 -0.0413696 0.36035
-0.0305474 -0.0876538 0.739403
-0.0215497 -0.0273873 0.55325
0.0579582 -0.0655524 0.514945
0.0266252 -0.0366398 0.690611
0.0119391 -0.041944 0.161814
0.0465709 -0.0720885 0.300648
0.175726 -0.086105 0.535372
0.0105632 -0.0305661 0.45432
0.215697 -0.0782452 0.480461
-0.0156563 -0.0862449 0.424322
0.00256813 -0.0743852 0.616002
-0.0691644 -0.0455206 0.14243
0.334471 -0.0920395 0.381121
-0.027716 -0.0843063 0.456314
0.0786555 -0.0589081 0.564987
-0.175273 -0.0915724 0.448259
-0.0244374 -0.0408156 0.788682
0.0274965 -0.0393081 0.76582
-0.0223005 -0.0309593 0.467355
0.0387733 -0.0415108 0.625307
0.000202453 -0.0401181 0.500756
0.0517018 -0.0608121 0.768928
0.193496 -0.0918236 0.502088
-0.349078 -0.0899396 0.359166
-0.00343618 -0.0678891 0.769534
-0.0387566 -0.0805514 0.130723
0.0262379 -0.0313692 0.459857
-0.0485578 -0.0903554 0.668505
-0.159275 -0.0813473 0.394352
0.00441905 -0.0923755 0.846053
-0.157487 -0.0917259 0.485526
-0.00574597 0.00745657 0.117642
0.0243187 -0.081723 0.322022
0.0207207 -0.0441618 0.892167
-0.0594537 -0.0904225 0.643751
0.0897049 -0.0762984 0.214371
0.061797 -0.0905275 0.635391
0.206673 -0.092438 0.479442
-0.066202 -0.078858 0.184631
-0.065962 -0.0792838 0.296652
0.0133369 -0.091182 0.550442
0.0425986 -0.0784237 0.794471
-0.387373 -0.0883293 0.413634
0.150669 -0.0810046 0.395541
-0.170124 -0.0914022 0.442336
-0.215153 -0.0821284 0.399147
0.407385 -0.0949419 0.401532
-0.00205788 0.086875 0.0183898
-0.00104865 -0.0679016 0.568881
-0.0477317 -0.0374167 0.474299
0.0601092 -0.0795404 0.42225
0.0206513 -0.0876729 0.85655
0.0985619 -0.0891733 0.452196
0.140328 -0.0753314 0.536278
0.0499359 -0.0479672 0.69879
0.305742 -0.0833461 0.439837
0.012528 -0.0936045 0.655439
0.0869731 -0.0594294 0.369731
0.32581 -0.0845368 0.433586
0.0308763 -0.0886765 0.551697
0.00444907 -0.071062 0.809673
-0.0794949 -0.0904346 0.501728
0.0358398 -0.0330561 0.126392
-0.0680809 -0.0761791 0.328761
-0.187591 -0.0769438 0.504242
-0.0195267 -0.0417877 0.183737
0.00461005 0.0318961 0.088953
-0.254716 -0.0921433 0.479391
-0.0367154 -0.0372782 0.372665
-0.0688033 -0.0508166 0.186694
0.0777514 -0.0587631 0.585143
0.224902 -0.0861077 0.373956
-0.00151257 -0.0262675 0.534073
-0.0662237 -0.0912788 0.570893
0.0485769 -0.0713456 0.559452
0.0553842 -0.0478731 0.52285
0.208986 -0.0780183 0.451994
0.00135113 -0.06861 0.399383
-0.0226704 -0.033874 0.401073
0.00721207 -0.0292596 0.477462
0.00623589 -0.0493627 0.554777
0.00324569 -0.0366155 0.329168
0.103867 -0.0805128 0.591408
-0.0734877 -0.0784748 0.254878
0.0170745 -0.0316627 0.861069
0.0685125 -0.0796025 0.327813
0.0667218 -0.0449258 0.426711
-0.313264 -0.0911499 0.459922
0.0647946 -0.0494145 0.171607
0.0301378 -0.0913036 0.655359
-0.16891 -0.075521 0.483624
-0.193784 -0.0921239 0.490437
-0.0203415 -0.0902744 0.727425
0.0323614 -0.0820477 0.341029
-0.0367516 -0.0578638 0.667485
-0.0545307 -0.0465717 0.201094
-0.223242 -0.0799436 0.419758
-0.0408696 -0.035721 0.429618
-0.0696603 -0.0563256 0.498156
-0.0277699 -0.0896556 0.747572
0.0407158 -0.0914149 0.611299
-0.00305982 -0.0933973 0.779743
0.0201267 -0.0753524 0.126212
-0.057851 -0.0438207 0.299002
0.00568851 -0.0386532 0.277322
-0.0147859 -0.0813363 0.170244
0.22204 -0.0815242 0.40581
0.0255439 -0.0369472 0.736688
-0.00255717 -0.00540688 0.0597019
-0.0995305 -0.0775156 0.387852
0.0406735 -0.0465975 0.747155
0.0151097 -0.0819497 0.325311
0.0714901 -0.0568004 0.507826
-0.0134143 -0.0912075 0.631219
-0.0346122 -0.0912818 0.645221
0.0143688 -0.0415673 0.18109
0.00686846 -0.0444826 0.168377
0.00258723 -0.0923085 0.563141
0.0736126 -0.0683021 0.43679
0.156373 -0.0752247 0.519656
-0.0218285 -0.0265675 0.576261
-0.0335938 -0.041547 0.243141
-0.0428946 -0.0899964 0.699425
-0.037205 -0.0520069 0.634324
0.0746572 -0.090708 0.528181
-0.0444058 -0.043717 0.220808
0.0693791 -0.0655283 0.375964
0.0226034 -0.0909847 0.582604
-0.0377545 -0.0547264 0.606249
-0.0470256 -0.0803118 0.2302
-0.0472822 -0.0479034 0.49582
0.131968 -0.0914735 0.502201
0.00619615 -0.0407339 0.197898
0.00902316 -0.026661 0.530441
-0.391415 -0.0882835 0.405555
0.00542347 -0.0848029 0.392722
-0.100019 -0.0906145 0.556875
-0.154988 -0.084332 0.386803
0.071784 -0.0783506 0.143934
0.0323977 -0.0809765 0.217343
-0.221107 -0.0835805 0.510924
0.0894991 -0.0584111 0.208231
-0.169501 -0.0756205 0.500896
-0.0070165 -0.0813249 0.238903
-0.0753724 -0.0710189 0.125562
0.0585557 -0.0512011 0.526391
0.0436203 -0.0899011 0.705926
0.00185524 -0.0582139 0.690546
-0.0365863 -0.0251564 0.146685
-0.0534575 -0.049439 0.526175
-0.0349294 -0.0407297 0.275457
0.174243 -0.0781962 0.526465
-0.0453673 -0.0819042 0.343146
-0.00353263 -0.0465716 0.560645
-0.15945 -0.0889017 0.424606
0.190182 -0.0874087 0.399256
0.0496158 -0.080334 0.303469
0.0418476 -0.080611 0.283011
0.165154 -0.0781145 0.423587
0.0827245 -0.0771559 0.171398
0.386843 -0.0879579 0.404162
-0.124771 -0.0870408 0.558113
-0.122091 -0.0794681 0.402943
0.0281926 -0.0810854 0.264783
-0.0163376 -0.0510113 0.886701
-0.266601 -0.0819821 0.411067
0.0869239 -0.0580214 0.12326
0.00253285 -0.00440034 0.718299
0.0569416 -0.0545699 0.46617
0.0358026 -0.0188466 0.78309
-0.0510906 -0.0752964 0.534261
-0.0259212 -0.0335148 0.428451
0.00456987 -0.0358847 0.344635
-0.0939629 -0.0712788 0.429163
-0.0279797 -0.0872266 0.773774
-0.0143119 -0.0857194 0.411826
-0.193532 -0.0891665 0.413137
0.078716 -0.052953 0.393713
-0.0839099 -0.0715622 0.378393
0.197165 -0.077147 0.471843
-0.0006612 0.0890893 0.00562417
-0.0498334 -0.0467896 0.533281
0.253435 -0.0802796 0.458051
0.11829 -0.0775469 0.418807
0.00532741 -0.0895208 0.915423
-0.399516 -0.0920601 0.355022
0.123533 -0.0799153 0.399366
-0.0144101 -0.0933996 0.623279
0.0026728 -0.0379229 0.263061
0.00622214 -0.0726082 0.754988
0.019729 -0.0355675 0.36284
0.0776983 -0.0623644 0.648147
-0.00348227 0.0118813 0.131159
-0.179543 -0.077942 0.520369
0.00714097 -0.0423034 0.362073
1.50302e-05 -0.0321592 0.0400149
0.0100621 -0.0931781 0.78472
0.044171 -0.0461431 0.129455
0.0585526 -0.0508848 0.541926
0.0338455 -0.06426 0.221803
0.225286 -0.0924979 0.449133
0.395693 -0.0885439 0.391226
0.00440407 -0.0278981 0.502118
-0.0237507 -0.036746 0.730543
-0.244886 -0.088321 0.385071
0.0600635 -0.067966 0.269819
-0.110669 -0.0800295 0.395713
0.00115799 -0.049292 0.942256
-0.299753 -0.0933184 0.407034
-0.000539708 -0.0710945 0.978363
0.0110096 -0.0936976 0.636751
-0.105526 -0.0910874 0.527323
0.0331454 -0.0703709 0.292358
-0.38282 -0.0943323 0.381467
0.197618 -0.0922513 0.469315
-0.0559035 -0.0633507 0.321387
-0.278429 -0.0867175 0.37247
0.0379741 -0.0902464 0.546836
0.0223603 -0.090918 0.577979
-0.0267003 -0.0278313 0.585208
0.000482309 -0.0510368 0.508445
0.0543794 -0.068728 0.259071
-0.0569777 -0.0452359 0.254483
-0.0248382 -0.0333718 0.843203
-0.0964199 -0.070708 0.188851
0.0682756 -0.0486043 0.22404
-0.0541165 -0.0903961 0.535295
-0.0350563 -0.0463076 0.813453
-0.058215 -0.0814898 0.362904
0.046949 -0.0456936 0.667943
0.0404262 -0.043019 0.217183
-0.032266 -0.090127 0.546583
0.0693339 -0.0603202 0.452419
0.00691645 -0.0426043 0.126565
0.0497783 -0.0801712 0.141434
0.0480297 -0.0836057 0.491939
-0.00495268 -0.093428 0.762243
0.0385462 -0.0844352 0.420854
-0.302454 -0.0831677 0.430934
-0.0184633 -0.0799501 0.414129
0.057932 -0.0914127 0.597908
0.119929 -0.0913132 0.51478
0.0788241 -0.0591349 0.576069
-0.266806 -0.0812832 0.464539
0.278833 -0.0881552 0.482028
0.0860113 -0.0912606 0.546207
-0.404112 -0.089088 0.383077
0.0511563 -0.0414097 0.125822
-0.00651596 -0.0193269 0.0968094
0.164363 -0.0763105 0.439059
-0.00430297 -0.0682986 0.485106
-0.27852 -0.093401 0.443684
0.0886676 -0.0712025 0.365031
-0.0760316 -0.0615774 0.417855
-0.0394578 -0.0481586 0.456562
-0.0298793 -0.0569205 0.856349
-0.245698 -0.0925335 0.422857
-0.0577874 -0.0502164 0.588366
-0.0143838 -0.0747542 0.887963
0.000636452 -0.0578549 0.687616
-0.0570701 -0.0563867 0.44258
0.0210042 -0.0813042 0.182317
0.206153 -0.0778268 0.491128
-0.0012232 -0.0815086 0.190097
-0.0249586 -0.0371201 0.337804
0.00524235 -0.071854 0.812013
0.026341 -0.0912422 0.687966
0.0055362 -0.0746936 0.703284
0.00359554 -0.0307969 0.444273
-0.0902376 -0.0759682 0.349791
0.0618335 -0.0885624 0.47632
0.0899164 -0.0776731 0.344023
-0.00866892 -0.0814651 0.152658
-0.0682174 -0.0794939 0.366713
-0.0988686 -0.0912055 0.534109
0.0339623 -0.0309641 0.509253
0.0365124 -0.0318651 0.501601
-0.280176 -0.0930378 0.463261
-0.0165595 -0.0904297 0.726063
0.390014 -0.0922781 0.360751
0.0934292 -0.0746415 0.33696
0.0467214 -0.0388354 0.11387
0.0720876 -0.063566 0.452495
-0.277587 -0.0822539 0.410987
-0.0343642 -0.0901362 0.708085
-0.129168 -0.0909165 0.462813
0.0240205 -0.0920094 0.699132
-0.00301981 -0.0277182 0.852713
0.026392 -0.0493343 0.344329
-0.0434099 -0.0899656 0.523785
-0.0656641 -0.0757946 0.463039
-0.0910601 -0.0664136 0.598526
-0.0537178 -0.0766323 0.346142
-0.118342 -0.0890291 0.442311
0.00436128 -0.0733953 0.838272
-0.0921634 -0.075948 0.271824
0.0732251 -0.069513 0.336456
0.0621989 -0.0405281 0.14315
-0.143999 -0.0894607 0.435691
0.0375481 -0.0820297 0.800686
-0.129433 -0.0732301 0.501574
0.21926 -0.0883192 0.395404
0.0304081 -0.0842568 0.406914
-0.0930231 -0.0686044 0.125829
-0.0860765 -0.0587424 0.120394
0.0845114 -0.0567603 0.170998
0.00638726 -0.0391443 0.355332
-0.0301115 -0.0597018 0.205244
-0.0306609 -0.0593549 0.214624
0.0110784 -0.014149 0.660862
0.19599 -0.0855499 0.3808
0.0797272 -0.0501855 0.349694
0.0334628 -0.0875847 0.5287
-0.0194929 -0.0694509 0.923454
0.0345545 -0.0690664 0.27623
0.0214509 -0.0906292 0.709451
-0.054192 -0.0607775 0.351589
0.000573714 -0.0279042 0.499485
-0.025643 -0.0847239 0.397211
-0.409763 -0.0898011 0.404434
-0.0532353 -0.0465436 0.19278
0.030358 -0.0837411 0.391006
-0.00593987 -0.0410434 0.913612
-0.0954948 -0.0891177 0.586849
-0.0354893 -0.0351873 0.761065
-0.00409585 0.0566602 0.0584858
-0.00543587 -0.0783426 0.855613
0.0363563 -0.076733 0.784281
-0.0744654 -0.048858 0.289552
0.167815 -0.0844598 0.38273
0.0502143 -0.0400703 0.524125
-0.0286141 -0.0391372 0.528874
0.0549595 -0.0888815 0.69344
-0.283733 -0.0885884 0.371697
-0.0156618 -0.0798631 0.870422
0.0548091 -0.0768257 0.347902
0.0764697 -0.067714 0.680917
0.0213669 -0.0929064 0.707233
0.0870106 -0.0645767 0.379304
-0.392772 -0.0945189 0.379065
-0.00447795 -0.0372554 0.339267
0.0710354 -0.0575078 0.649495
-0.268851 -0.0812993 0.439851
0.0120558 -0.0428133 0.128245
-0.15846 -0.075352 0.518948
0.00859161 -0.0112488 0.0484737
0.0952712 -0.0599497 0.285685
-0.0955918 -0.0908573 0.508449
-0.000704811 -0.0235539 0.0395843
0.15838 -0.0894468 0.429762
0.00230194 -0.0794573 0.968456
0.0461234 -0.0803684 0.131853
-0.0636782 -0.0862694 0.448374
0.0662445 -0.0723858 0.293252
-0.067629 -0.0498304 0.19963
0.0150197 -0.0390512 0.892901
-0.28972 -0.0886416 0.475894
0.000704481 -0.0686427 0.380559
-0.016625 -0.0379303 0.314883
-0.121841 -0.0727393 0.508946
0.0564033 -0.0802607 0.320565
0.179626 -0.076236 0.471475
-0.287726 -0.0889848 0.373521
-0.0730477 -0.0562866 0.430582
-0.0622277 -0.0434838 0.363494
-0.0150053 -0.0322095 0.624198
-0.241661 -0.0914767 0.413724
0.22954 -0.0799112 0.491248
0.0398789 -0.050364 0.604003
0.0581927 -0.05267 0.688735
-0.106591 -0.0719147 0.461923
0.0179262 -0.0879133 0.797357
0.0700295 -0.0617318 0.442211
0.0391901 -0.0486149 0.632641
0.261704 -0.0842786 0.390146
-0.0988251 -0.0737094 0.273058
-0.061579 -0.0824546 0.721317
-0.0717668 -0.0779459 0.138671
