0.478923 -0.0389239 0.332997
-0.141204 -0.0355868 0.488543
0.00626938 -0.0542215 0.530488
-0.0458039 -0.000206028 0.109253
-0.077202 -0.0229714 0.395283
-0.342757 -0.0387421 0.419251
0.218816 -0.0301431 0.42444
-0.1083 -0.0520259 0.360329
0.0560396 -0.00273784 0.0652806
0.0992541 -0.0543374 0.3984
-0.388247 -0.0412037 0.343271
0.300722 -0.0349743 0.336039
-0.165943 -0.0254857 0.488447
-0.298862 -0.0299618 0.407558
0.0167881 -0.0511969 0.449362
-0.00454545 -0.0589514 0.293424
0.102827 -0.0245709 0.365004
0.42896 -0.0403514 0.407607
0.00489001 0.00342218 0.285324
-0.202081 -0.0268346 0.411258
0.108589 -0.0243046 0.422476
-0.0520245 -0.0544059 0.434231
0.0153801 -0.0226066 0.139001
-0.100933 -0.0243218 0.371681
0.387321 -0.0395455 0.331235
-0.174003 -0.0354914 0.325671
0.155553 -0.0592836 0.454091
0.205525 -0.0272371 0.370631
0.325376 -0.0313308 0.408388
-0.305734 -0.0387021 0.322325
-0.0696628 -0.0388755 0.305986
-0.0103194 -0.0630795 0.372525
-0.0948395 -0.0294249 0.443554
0.0449085 -0.0436313 0.322689
-0.0888361 -0.00533972 0.0449807
-0.141155 -0.0477544 0.493227
0.128398 -0.0463961 0.341023
0.0273389 -0.0229916 0.218592
0.245846 -0.0494311 0.371071
0.169501 -0.00555249 0.0397355
-0.00900241 0.0030334 0.0754077
0.0214635 -0.00591772 0.432235
0.102965 -0.00473913 0.112813
-0.408394 -0.0346878 0.405201
0.151929 -0.0293688 0.493449
-0.121125 -0.0078423 0.104184
-0.237654 -0.0288259 0.35972
-0.346074 -0.0308519 0.382844
-0.13881 -0.0392766 0.312781
0.337217 -0.046883 0.370077
-0.15572 -0.0510863 0.425805
0.233141 -0.0485568 0.359095
0.0395863 -0.0540534 0.437363
-0.278969 -0.048794 0.382308
-0.0158601 -0.00787822 0.161119
0.280779 -0.0398904 0.426607
0.0444128 -0.000542737 0.121768
-0.0200357 -0.0307202 0.479224
-0.245925 -0.0442897 0.34423
-0.446103 -0.039795 0.336942
0.0261807 -0.00825612 0.340153
0.148214 -0.0334215 0.377008
0.45856 -0.0342007 0.385425
-0.0334473 -0.000121129 0.119835
0.0439888 -0.0552755 0.377351
-0.0162068 -0.0317069 0.329447
0.053673 -0.0223521 0.394282
0.0829544 -0.0390236 0.307243
-0.15688 -0.0254943 0.384239
0.111949 -0.00561516 0.0419288
-0.0181693 -0.0490639 0.256556
0.179213 -0.0242132 0.44287
0.160106 -0.0523389 0.38883
0.244528 -0.0402799 0.327051
-0.0494552 -0.0550231 0.374022
-0.0265101 -0.00851195 0.336347
-0.0297222 -0.0497177 0.429265
-0.0383958 -0.00833192 0.0642447
0.00267511 0.0252743 0.10661
0.0606008 -0.0323327 0.450018
-0.190617 -0.0540372 0.460712
0.012223 -0.000284969 0.229854
-0.322729 -0.0471978 0.364424
-0.174285 -0.0514056 0.370469
0.413339 -0.0333206 0.360836
-0.135095 -0.0379711 0.432874
0.118657 -0.0244859 0.382691
0.0210222 -0.0521999 0.494737
-0.451392 -0.0439094 0.381584
0.257412 -0.0284197 0.379048
-0.0463422 -0.0286993 0.342782
-0.0997075 -0.0543962 0.400828
-0.35892 -0.0463445 0.374192
-0.244463 -0.0464491 0.424492
0.376516 -0.0318236 0.392787
0.00624832 0.0325094 0.0571034
-0.0507883 -0.025549 0.440175
-0.280018 -0.0312809 0.350083
0.129401 -0.0480634 0.439278
-0.00800248 -0.0405485 0.176831
-0.138079 -0.0248649 0.414065
-0.0163656 -0.0387092 0.303071
0.0305167 -0.0327657 0.269156
-0.175932 -0.0223641 0.452382
0.254747 -0.0465232 0.353481
0.0212036 -0.0568638 0.337624
0.178852 -0.0462736 0.345345
-0.125858 -0.025875 0.359666
-0.000635706 0.00346678 0.377377
-0.244764 -0.0282971 0.411074
0.290919 -0.0487236 0.391351
0.0328375 -0.0108051 0.0823571
0.0820892 -0.0524756 0.434523
-0.192798 -0.049525 0.479197
0.197632 -0.0510437 0.3808
0.171906 -0.058738 0.492919
-0.00719798 -0.0646402 0.483329
0.00366561 -0.0116597 0.132688
0.0256142 -0.0213579 0.459526
0.250469 -0.0278667 0.397572
-0.0213535 -0.0566557 0.334443
-0.128715 -0.00919401 0.0673893
-0.373712 -0.0460442 0.397331
-0.0227597 -0.0080118 0.242009
-0.078342 -0.00102646 0.087457
0.30398 -0.0300785 0.366347
0.0748914 -0.0513008 0.354429
-0.0133277 -0.0385912 0.460528
0.131468 -0.00192038 0.084767
0.0124258 -0.00229362 0.182382
-0.118728 -0.0240377 0.409878
-0.406449 -0.0449406 0.368565
-0.0553156 -0.0227634 0.38187
0.182496 -0.0259779 0.405887
-0.198022 -0.0267884 0.378832
0.4321 -0.0370995 0.337122
-0.00234031 0.0459776 0.0219352
0.212847 -0.0511014 0.402594
0.428686 -0.0443609 0.370961
-0.216771 -0.0377537 0.319987
0.0723822 -0.00249957 0.120945
0.0629712 -0.0272027 0.349527
0.0143845 -0.0622022 0.406189
0.347229 -0.038742 0.324932
0.189189 -0.0524536 0.44369
-0.310466 -0.0304071 0.362217
-0.348469 -0.039425 0.327784
-0.00159206 -0.0241064 0.101926
0.0875061 -0.0100416 0.0801093
0.0152541 -0.0207755 0.411819
-0.150711 -0.0576559 0.455558
0.147086 -0.0392814 0.313366
0.115512 -0.0528911 0.364273
0.00265304 -0.0495635 0.223417
-0.165877 -0.029174 0.348936
0.242163 -0.049891 0.408157
0.185565 -0.0519286 0.424711
-0.031814 -0.026883 0.279223
-0.315363 -0.0477788 0.401494
-0.206527 -0.0511672 0.405801
-0.0893808 -0.0318421 0.333799
0.0193225 -0.0510255 0.348123
-0.161639 -0.00570532 0.0916187
-0.148224 -0.0544499 0.439964
0.0293088 -0.0121461 0.316585
-0.0213018 -0.00533059 0.416861
-0.00337272 -0.0492051 0.357231
0.294996 -0.0480048 0.366911
0.0267829 -0.0489461 0.304369
-0.139718 -0.0323128 0.33537
0.139308 -0.0360524 0.40507
0.393575 -0.0454719 0.379269
-0.00926017 -0.00820952 0.457631
0.206716 -0.0446454 0.341852
-0.0733745 -0.0482751 0.342885
0.00639171 0.000335359 0.102036
-0.0333332 -0.0411063 0.393401
0.0736308 -0.0241913 0.361845
-0.168138 -0.0382668 0.314823
-0.205627 -0.0296929 0.349622
0.00854845 -0.00529203 0.0490164
-0.266478 -0.0456933 0.422925
0.0041865 0.00427666 0.315945
-0.133911 -0.0532105 0.393335
0.0485567 -0.0229422 0.431992
0.195769 -0.0345226 0.470967
0.0171165 -0.0216564 0.383688
0.0235663 -0.00315885 0.140967
-0.0615964 -0.006332 0.12894
-0.0273251 -0.00949648 0.306126
0.00253107 0.0430334 0.0789558
-0.117116 -0.0526163 0.42811
0.0162273 -0.0322721 0.327318
0.0136981 -0.0361561 0.170164
0.207433 -0.0267384 0.389327
0.0133316 -0.0243142 0.44325
0.152142 -0.0337978 0.439264
-0.0460196 -0.0556739 0.392803
0.019981 -0.00441627 0.257168
0.244136 -0.0360988 0.429043
-0.0125625 -0.0298443 0.139813
0.287635 -0.0292704 0.401716
0.37941 -0.0325338 0.360033
0.351902 -0.0464019 0.403734
-0.086849 -0.0539758 0.374271
-0.0147294 -0.0444439 0.513966
-0.358483 -0.0315058 0.400136
-0.0197309 -0.0240008 0.441243
0.0559882 -0.0558009 0.406646
-0.0772192 -0.0537725 0.431694
-0.181578 -0.0568749 0.480166
0.0245102 -0.00759824 0.28573
-0.145499 -0.0435354 0.361606
0.274351 -0.0293528 0.363246
0.100686 -0.0330459 0.330014
-0.00455525 -0.0653572 0.439937
0.368383 -0.045948 0.365455
-0.0338496 -0.038293 0.428142
0.012339 0.000405557 0.399135
-0.166236 -0.0261089 0.418937
-0.267035 -0.0392536 0.321135
-0.262372 -0.0286705 0.375185
0.0337695 -0.038626 0.409836
-0.415556 -0.038149 0.331706
0.00705772 -0.0293286 0.49382
0.134837 -0.0412248 0.426717
-0.388245 -0.0395295 0.413403
-0.318374 -0.0300796 0.396648
0.159494 -0.0339727 0.343076
0.0170623 -0.037387 0.18924
0.310302 -0.0479891 0.384984
0.0284253 3.71369e-05 0.105308
0.235373 -0.0289524 0.35837
-0.0926707 -0.00501841 0.117118
0.137015 -0.00580968 0.0414987
0.0577792 -0.000591162 0.0946254
-0.0864326 -0.0230799 0.412463
0.31593 -0.0474969 0.406162
-0.175042 -0.0522884 0.403193
-0.0645002 -0.0074284 0.0565215
0.0273495 -0.0514734 0.468363
-0.103036 -0.00145956 0.084685
-0.0200778 -0.0594267 0.402625
-0.32361 -0.0333244 0.343777
-0.0469675 -0.0478745 0.338872
-0.198443 -0.0380556 0.438877
-0.472023 -0.0416466 0.352036
-0.43417 -0.0436617 0.359712
0.126908 -0.0532166 0.386841
0.0903731 -0.0233615 0.394372
-0.433365 -0.0334639 0.387391
-0.0227741 -0.0112405 0.0914779
-0.118304 -0.0446116 0.333342
0.0329532 -0.0426471 0.372801
-0.143074 -0.00580154 0.0411613
0.163889 -0.0564609 0.422308
0.471489 -0.0430198 0.360899
0.0838582 -0.00727359 0.0545142
0.330308 -0.0329384 0.347724
0.0493054 -0.0509493 0.350679
-0.387179 -0.0320477 0.383011
0.0123549 -0.0513091 0.253156
0.398046 -0.0430425 0.408291
-0.147634 -0.0251652 0.464181
-0.226125 -0.0505313 0.390678
0.144353 -0.0545471 0.465219
0.403563 -0.0416276 0.34735
-0.0456415 -0.0218852 0.416066
0.478714 -0.0400719 0.40098
-0.0648877 -0.033901 0.450574
0.172241 -0.0034889 0.0831739
-0.0193473 -0.0588567 0.367907
0.17954 -0.0323742 0.362921
0.226569 -0.0500838 0.375928
-0.107592 -0.0391941 0.310111
0.202319 -0.0496233 0.360191
0.0347431 -0.0306796 0.341386
-0.00637868 0.00158176 0.219783
0.0449464 -0.0226881 0.374728
-0.205728 -0.0494513 0.359866
0.0348588 -0.0054883 0.0463892
-0.178519 -0.0571697 0.440539
-0.0414834 -0.0391164 0.457123
0.340302 -0.0306502 0.385011
-0.031439 -0.0177936 0.366663
0.00852952 0.0154907 0.0808968
-0.346516 -0.0424936 0.347
0.0234526 -0.00608146 0.363652
0.15545 -0.0223243 0.462739
0.16865 -0.0407376 0.323519
-0.0703493 -0.0254094 0.356774
-0.296041 -0.0457695 0.354557
0.266824 -0.0391108 0.320089
-0.0108055 -0.0216744 0.353502
0.112585 -0.0372244 0.44678
-0.18057 -0.0259617 0.390546
0.028103 -0.0169245 0.247934
-0.26857 -0.02869 0.40261
-0.0452177 -0.000517353 0.0864949
0.279426 -0.0436794 0.345106
0.0247231 -0.0260649 0.199232
-0.0268743 -0.0325148 0.225169
0.181824 -0.0502839 0.39899
-0.360669 -0.03271 0.355178
0.00224927 0.00403476 0.344037
-0.0200647 -0.003801 0.272148
-0.0206306 -0.0550745 0.30734
-0.00412197 0.00970632 0.12947
-0.0209619 -0.0590047 0.461676
0.00187718 0.0129401 0.0407993
0.0163148 -0.0407407 0.459128
-0.291235 -0.0461554 0.417432
0.216726 -0.0394531 0.319232
-0.458916 -0.0383512 0.404175
0.00698646 -0.0440083 0.337485
0.0703666 -0.0228212 0.418677
0.0452108 -0.0495715 0.449161
0.127137 -0.0286045 0.348508
0.196525 -0.0341472 0.442215
0.0147101 -0.0613181 0.379208
0.111856 -0.00903112 0.0659176
0.141536 -0.0524422 0.374572
0.151486 -0.00301617 0.0588811
-0.0428208 -0.03564 0.316394
0.0865437 -0.0545684 0.418101
-0.021181 -0.00612731 0.144637
0.12064 -0.0536072 0.414484
0.0866993 -0.0273185 0.439144
-0.0112091 -0.000770003 0.202527
0.0767878 -0.0546642 0.387993
-0.139959 -0.0525669 0.377292
0.104599 -0.0473195 0.342245
-0.134164 -0.00935464 0.0834534
0.401823 -0.0324768 0.382866
0.158661 -0.0469521 0.361734
-0.389593 -0.0455168 0.375663
-0.158199 -0.043817 0.341209
0.0337908 -0.023948 0.330857
0.158362 -0.027792 0.401267
0.00859 -0.00952228 0.0742091
-0.0981803 -0.00956043 0.0703678
0.117116 -0.0401567 0.316444
-0.0175422 0.000249155 0.107906
0.00488026 -0.0620637 0.316415
0.00642024 -0.0657824 0.468611
0.130531 -0.0253247 0.36535
-0.00273418 -0.0117093 0.101354
-0.00710925 -0.0450767 0.200226
-0.184391 -0.0461517 0.345411
0.237611 -0.0280109 0.410809
0.150403 -0.0552647 0.489113
-0.179733 -0.026611 0.367744
-0.268347 -0.0483441 0.361632
2.33734e-05 -0.0567645 0.27292
0.222196 -0.0316602 0.34331
-0.170236 -0.0339807 0.437063
-0.00443392 0.0491043 0.0472595
0.353499 -0.031726 0.360916
-0.195032 -0.0313945 0.463432
0.0905641 -0.00117861 0.099794
-0.0192582 -0.00307629 0.390877
0.375175 -0.0344225 0.410948
-0.134425 -0.0441473 0.467487
-0.346625 -0.0470283 0.394954
0.414147 -0.0448637 0.393959
-0.0191973 -0.0445587 0.323746
-0.34017 -0.0312977 0.405701
-0.205437 -0.0507826 0.379415
-0.0227673 -0.0277222 0.187459
0.161051 -0.0401508 0.441418
-0.250856 -0.0500114 0.397505
0.451055 -0.0346925 0.358135
-0.0796695 -0.0247194 0.432768
0.00660509 -0.00482182 0.453876
-0.112683 -0.00445406 0.0502811
-0.00716505 0.0262318 0.0661694
0.0572078 -0.0231583 0.370249
0.0051873 -0.000386657 0.153526
0.0560913 -0.0109239 0.105194
-0.0244333 -0.0334037 0.323599
-0.117116 -0.0260326 0.429916
-0.0251927 -0.0465872 0.280429
-0.150442 -0.0248806 0.448019
-0.237739 -0.0276212 0.38773
0.00614726 -0.0608835 0.506537
0.172482 -0.0259191 0.384425
-0.17861 -0.0266399 0.419814
-0.0718099 -0.0550195 0.39528
-0.0217119 -0.0482594 0.495206
-0.0288652 -0.0502461 0.381192
-0.015189 -0.00604007 0.0487632
0.17207 -0.0588502 0.442263
0.443217 -0.0440929 0.379739
0.260196 -0.0473759 0.41835
0.135478 -0.0358064 0.467785
-0.120553 -0.0394954 0.446953
0.0160531 -0.056563 0.425408
0.0273157 -0.0348229 0.238543
0.314857 -0.0299456 0.382604
-0.259082 -0.0290354 0.362303
0.265939 -0.0493952 0.390235
-0.191566 -0.0329637 0.336363
0.25963 -0.0323842 0.343069
-0.216516 -0.0329128 0.430349
-0.0336975 -0.0386765 0.349189
0.14227 -0.0397328 0.336172
0.0329826 -0.0262347 0.299098
0.0151139 -0.0530452 0.274041
0.174956 -0.0226316 0.468034
-0.236203 -0.041328 0.332149
-0.154099 -0.00878149 0.0666821
-0.421677 -0.0334414 0.36237
-0.0298952 -0.0235158 0.25725
0.0119588 -0.0326869 0.147789
0.00752445 -0.0638597 0.386252
-0.318859 -0.0389272 0.422495
0.00105814 -0.0638484 0.351458
-0.0713249 -0.000889348 0.109448
0.0185041 -0.00588376 0.20718
0.0745247 -0.0329732 0.32855
0.149831 -0.0023917 0.0840218
0.000511466 0.0622196 0.00692141
0.293372 -0.0462617 0.416359
-0.157839 -0.049916 0.38623
-0.00400692 0.00404983 0.30564
-0.413441 -0.0450087 0.390496
0.0165962 -0.0434947 0.214986
0.283685 -0.038061 0.323276
-0.136729 -0.0245872 0.39616
-0.0623674 -0.0104301 0.0795046
0.0622316 -0.0355739 0.317933
-0.390774 -0.0326718 0.361209
-0.0324167 -0.0354958 0.297306
-0.433467 -0.0397699 0.40757
0.0465561 -0.00648305 0.134474
-0.0171802 -0.0380153 0.346819
0.32036 -0.0391192 0.323708
0.034503 -0.0315031 0.38992
-0.29662 -0.029426 0.381822
-0.148306 -0.0256591 0.370633
-0.229288 -0.0276882 0.410618
-0.0170503 -0.01162 0.120763
-0.107346 -0.024028 0.387644
0.0384887 -0.00212954 0.070481
0.00834796 -0.0367126 0.510857
0.34324 -0.0434889 0.350439
-0.281827 -0.0410586 0.335152
-0.0235661 -0.0114659 0.216591
0.0339321 -0.0352051 0.439663
-0.0114012 0.00256207 0.333802
-0.455048 -0.0342975 0.365449
0.0205295 -0.0115621 0.119257
-0.00589904 0.0023422 0.248328
0.109423 -0.00157818 0.0953643
-0.0454999 -0.0109231 0.0942271
0.180791 -0.0465779 0.368293
0.00395156 0.00324699 0.271739
-0.112224 -0.0307671 0.339368
-0.0973414 -0.0491805 0.441513
0.366862 -0.0412848 0.342436
0.23155 -0.0505209 0.395517
0.00658064 -0.0198118 0.472825
-0.0280999 -0.0242784 0.457591
0.194326 -0.0471914 0.483842
0.454843 -0.0401923 0.404178
0.0409989 -0.0295974 0.45061
0.0620226 -0.0547884 0.428249
-0.226444 -0.0498914 0.41593
0.122276 -0.024053 0.400759
-0.121412 -0.0538687 0.408008
0.0634122 -0.00594098 0.0458307
-0.0200531 -0.00895148 0.069561
0.154849 -0.0267297 0.420358
0.0541163 -0.0545366 0.364652
-0.0335443 -0.0394673 0.336284
0.142426 -0.0484948 0.416292
0.0315338 -0.0195708 0.416568
0.165175 -0.0311582 0.366871
0.180963 -0.0322931 0.338185
0.0972933 -0.0234605 0.412917
0.130549 -0.025264 0.4242
-0.0746652 -0.0337643 0.325578
0.214957 -0.0486402 0.422545
-0.191653 -0.0466232 0.400775
0.363149 -0.0465388 0.386349
-0.0335927 -0.039457 0.372982
0.100257 -0.00159799 0.0728098
0.00622119 -0.00444549 0.0933249
-0.327765 -0.0378211 0.327109
0.00943073 -0.00692413 0.11069
0.201555 -0.0272837 0.417689
-0.369515 -0.0388862 0.325869
-0.0201922 -0.00508505 0.437049
0.0673548 -0.010425 0.0843077
-0.205769 -0.042983 0.335499
0.0957866 -0.0435955 0.327379
0.00126156 0.00194496 0.434312
-0.37298 -0.044556 0.35728
0.345908 -0.0327021 0.409848
0.028986 -0.0136776 0.396181
0.063102 -0.0466353 0.335733
-0.0865379 -0.0101413 0.104693
-0.191864 -0.0489057 0.423174
0.0931311 -0.0279628 0.348666
-0.0986901 -0.0476279 0.342847
-0.19527 -0.0384238 0.316034
-0.186821 -0.0307713 0.486423
0.00803331 -0.0257957 0.116887
0.126238 -0.0336631 0.329386
0.427185 -0.0331924 0.38536
-0.0085263 -0.0503098 0.234787
0.00923599 -0.0325937 0.354136
-0.117871 -0.00182447 0.0762017
-0.00447984 0.00210711 0.406316
-0.329585 -0.0306262 0.371718
-0.00518843 -0.0151284 0.0818817
0.198873 -0.0311109 0.34383
0.361103 -0.0313118 0.381436
-0.327608 -0.0475877 0.387922
-0.473562 -0.0348104 0.367186
0.112714 -0.0535381 0.384169
-0.0671457 -0.0537496 0.362922
-0.237539 -0.0314154 0.424821
-0.165232 -0.0314233 0.363468
-0.0291935 -0.0146086 0.411233
0.0765552 -0.0105166 0.0997591
0.014497 -0.0566067 0.296656
-0.368268 -0.0407283 0.415058
0.0221536 -0.00786224 0.231693
0.135857 -0.00465661 0.100151
-0.0650588 -0.0552273 0.419176
0.0195398 -0.0443771 0.23521
-0.162903 -0.0609412 0.471332
0.139234 -0.0306503 0.451281
-0.00867295 -0.000565819 0.176029
0.0182177 -0.0147725 0.157198
-0.0642504 -0.0223211 0.41195
-0.029195 -0.0445007 0.468782
-0.141528 -0.0529788 0.413163
-0.22392 -0.02921 0.35432
0.308059 -0.034733 0.419846
0.0374163 -0.0560194 0.396291
-0.097148 -0.054051 0.421903
0.171139 -0.0494861 0.377729
-0.0580096 -0.0342722 0.322558
-0.225292 -0.0443913 0.342656
0.142198 -0.0268682 0.356052
0.0299425 -0.0188107 0.269391
0.136411 -0.024546 0.397259
0.00867394 -0.0641688 0.483974
0.0224911 -0.0204505 0.179625
0.0164957 -0.0537447 0.506288
-0.265707 -0.0308131 0.418281
-0.364577 -0.0314323 0.380195
0.19064 -0.0337469 0.390048
0.018607 -0.000448611 0.0835356
0.257285 -0.029334 0.359803
-0.465148 -0.0386872 0.332973
-0.040253 -0.00289919 0.134248
0.330536 -0.0475567 0.389672
0.00594988 0.000585085 0.120925
0.140793 -0.0250326 0.384853
-0.00288458 0.0605009 0.0282967
0.0302696 -0.0177467 0.435625
-0.152783 -0.042314 0.327954
0.326525 -0.0307152 0.365837
0.461447 -0.0405889 0.343695
0.278892 -0.028886 0.383323
0.169758 -0.0609251 0.472506
0.0111931 0.000761367 0.246363
-0.169804 -0.00862575 0.0743096
0.435471 -0.0423005 0.354329
0.0725554 -0.0231414 0.385173
0.190724 -0.0533687 0.465934
-0.173046 -0.0553882 0.418759
-0.00532025 0.0257279 0.0464496
0.0157657 -0.0456796 0.327643
-0.00866752 -0.026566 0.120732
0.13998 -0.0386917 0.369036
-0.223918 -0.0500057 0.368902
0.0498471 -0.0108362 0.0930442
-0.253293 -0.0339398 0.336786
-0.00181184 -0.0119044 0.113111
-0.188616 -0.0275109 0.359845
-0.295291 -0.0328468 0.343695
-0.0823144 -0.00160486 0.0722551
-0.0142942 -0.0625205 0.415917
-0.14536 -0.00550493 0.0976743
0.182108 -0.0287143 0.426437
-0.15044 -0.0278512 0.418335
0.027548 -0.0441649 0.285457
0.0247802 -0.0331984 0.47422
-0.0467382 -0.0235332 0.362276
-0.0232178 -0.00591251 0.364623
-0.271223 -0.0439615 0.345391
0.0254088 -0.0543396 0.392124
0.0230397 -0.00521283 0.30312
-0.394084 -0.0455071 0.394331
-0.0919912 -0.0417036 0.31989
0.317194 -0.0473857 0.366671
-0.0154479 -0.0508389 0.347053
0.305102 -0.0301366 0.406973
0.0903474 -0.0538775 0.374283
0.00943672 -0.0648114 0.449539
0.045676 -0.0469058 0.3351
0.393949 -0.0332172 0.357876
-0.281974 -0.0300866 0.412479
-0.0360419 -0.0522085 0.354166
-0.018207 -0.0223786 0.364731
-0.0995213 -0.0274651 0.350967
0.128839 -0.0292043 0.437237
-0.0160884 -0.0212405 0.423676
-0.433972 -0.0353215 0.350325
-0.0147181 -0.0449727 0.216956
0.10491 -0.0395224 0.312304
0.151915 -0.0481614 0.349904
0.00297278 0.0523517 0.0619003
-0.0360137 -0.022144 0.384824
-0.443867 -0.0338871 0.370915
-0.344423 -0.0466691 0.369156
-0.135064 -0.044562 0.442343
-0.0084267 0.0184666 0.0863159
-0.00808212 -0.0468384 0.530618
0.0399801 -0.0392121 0.305571
-0.259799 -0.049239 0.379062
0.0189992 -0.0114339 0.100183
-0.0159085 -0.0537854 0.442187
0.277074 -0.0480297 0.361275
-0.116403 -0.0534665 0.38527
-0.066761 -0.0488342 0.447091
-0.136772 -0.0454298 0.338176
0.0199438 -0.00320276 0.38212
-0.109132 -0.00228304 0.0661238
0.08658 -0.0471187 0.33978
0.0160429 -0.0403713 0.307669
0.0259472 1.29873e-05 0.122672
-0.0210448 -0.0114658 0.104367
-0.00291146 0.00345811 0.362537
0.0109059 0.000686077 0.417672
0.38517 -0.0426646 0.351309
-0.0336911 -0.00566074 0.0451974
0.00962026 -0.000313806 0.19487
0.0324904 -0.0426007 0.330405
-0.0332206 -0.021547 0.314266
-0.191891 -0.0435177 0.376372
0.111646 -0.0290968 0.345624
-0.0539183 -0.00226332 0.0688054
0.00134044 0.0299699 0.0309284
-0.143336 -0.00220728 0.0774897
0.225189 -0.0270983 0.397705
-0.0103977 -0.00160174 0.0880871
-0.0342834 -0.0311073 0.410444
0.213272 -0.0290724 0.353278
-0.381483 -0.0322548 0.399364
0.152766 -0.00889844 0.0729167
0.229854 -0.0277475 0.376075
-0.0321864 -0.0187001 0.34809
0.00208019 -0.0024392 0.061374
-0.307668 -0.047636 0.365775
-0.0177401 -0.00121946 0.292755
-0.0316295 -0.020301 0.432701
-0.0123816 -0.0344212 0.157655
-0.00519682 -0.0180852 0.470955
0.0319863 -0.0184787 0.354914
0.00928806 -0.0451962 0.204963
-0.0208313 -0.0184364 0.169703
0.128884 -0.0389641 0.387899
0.0947832 -0.0240087 0.376548
0.133905 -0.00293925 0.0602453
-0.0200308 -1.88367e-05 0.128306
0.199242 -0.047259 0.429807
-0.114225 -0.0350424 0.323391
0.232202 -0.0471322 0.424624
-0.246413 -0.0393566 0.320508
0.315196 -0.0416769 0.340953
-0.289724 -0.029713 0.36541
0.137215 -0.053177 0.395357
-0.186928 -0.0442653 0.362692
0.0190681 -0.0588458 0.362886
-0.0102232 -0.0575699 0.514099
-0.341651 -0.0321676 0.35546
-0.0554111 -0.0519518 0.355036
-0.172367 -0.0609017 0.456066
-0.397732 -0.0391515 0.329082
0.138612 -0.0502367 0.454372
0.0208578 -0.00238156 0.326286
-0.157865 -0.0531463 0.40788
0.333374 -0.0405537 0.334931
0.0182139 -0.0249739 0.344301
0.440568 -0.0339868 0.395486
0.390103 -0.0456219 0.394695
0.0277549 -0.0567468 0.411719
0.187942 -0.0261828 0.456709
0.056827 -0.0102316 0.120053
0.115331 -0.00969543 0.0862389
-0.0284898 -0.000143618 0.0936042
0.104572 -0.0539412 0.418876
-0.0184486 -0.00736775 0.188325
0.25628 -0.0302804 0.417719
-0.131759 -0.0250198 0.376839
0.0947303 -0.0511723 0.355826
-0.254227 -0.0378373 0.429114
0.0344965 -0.0391832 0.457951
-0.0293855 -0.0488397 0.448777
0.132814 -0.0511439 0.35933
0.194644 -0.0354226 0.407802
-0.413098 -0.0328051 0.382896
0.162586 -0.0445867 0.337447
0.403673 -0.0372217 0.334411
-0.00162754 0.00295147 0.391449
-0.193628 -0.0499664 0.443615
-0.316099 -0.0436785 0.34858
-0.423304 -0.0445835 0.375739
0.182737 -0.0567649 0.477139
0.395888 -0.0330278 0.400825
0.0247712 -0.0424143 0.253687
0.0207961 -0.0076507 0.0601348
0.272837 -0.0285388 0.394378
-0.0292215 -0.0503125 0.413745
-0.372987 -0.0348161 0.342317
0.177529 -0.0405594 0.439065
0.295427 -0.0311257 0.354151
-0.168079 -0.0594539 0.49123
-0.363487 -0.041441 0.343339
0.00396575 -0.0629445 0.334033
0.152104 -0.0495483 0.431267
0.0519666 -0.0101323 0.0766203
-0.151945 -0.0567548 0.482473
-0.0194498 -0.029645 0.172477
-0.298848 -0.0484345 0.398951
0.156092 -0.0528481 0.405027
0.0232888 -0.0103991 0.445693
0.471179 -0.0346836 0.370898
0.0513643 -0.0321957 0.329941
-0.213516 -0.0267378 0.399013
-0.00303985 0.0338932 0.0923188
-0.428733 -0.0444518 0.392429
0.274324 -0.0489767 0.404919
0.00380393 -0.0653367 0.419962
-0.282131 -0.0288502 0.391755
-0.124905 -0.0526968 0.365408
0.42952 -0.0339067 0.359695
-0.059585 -0.0228081 0.425905
-0.0876491 -0.052066 0.358522
-0.0124788 -0.0216744 0.339369
0.248919 -0.0498754 0.390239
-0.1617 -0.0270991 0.403986
-0.242601 -0.0497679 0.380549
-0.0216968 -0.042833 0.23714
-0.175024 -0.0518677 0.387122
0.0780178 -0.0011487 0.0791627
-0.187663 -0.0286762 0.433652
-0.017213 -0.0603988 0.387979
0.24264 -0.0327559 0.340539
0.187717 -0.0355443 0.353374
0.0155146 -0.00632734 0.169191
0.00703141 0.00220196 0.137732
0.116871 -0.0539128 0.400851
0.223549 -0.043544 0.339298
-0.135804 -0.0339134 0.455216
-0.0520328 -0.0107473 0.116953
0.0105427 -0.0428992 0.521216
-0.162688 -0.0495271 0.356071
-0.00921137 -0.0294008 0.491725
-0.0287824 -0.0234946 0.239604
-0.467523 -0.0434244 0.380084
0.16271 -0.0237288 0.435042
0.0229347 -0.0548168 0.319109
-0.0158075 -0.0521496 0.269608
-0.167082 -0.0293804 0.381575
-0.236448 -0.0319367 0.343215
0.0744415 -0.0542325 0.37111
0.211404 -0.0507283 0.38328
-0.135464 -0.00341098 0.0567668
0.420472 -0.0334454 0.397697
-0.00515527 0.00870934 0.0554849
0.390204 -0.0322934 0.372809
-0.195966 -0.0514397 0.392638
-0.127252 -0.0338871 0.32861
0.184402 -0.0420982 0.330139
0.0482316 -0.000245446 0.108161
0.0788262 -0.00909964 0.0679301
0.269127 -0.0488288 0.373876
-0.0105624 0.00159981 0.263324
0.098596 -0.00707128 0.052376
0.116146 -0.0438673 0.330333
-0.0805445 -0.0452549 0.332186
-0.165021 -0.0212946 0.46491
0.258305 -0.0496929 0.400643
-0.00740887 -0.0655301 0.462663
0.0943173 -0.00901332 0.066595
0.0316686 -0.0184844 0.375022
0.0249704 -0.0542097 0.439431
-0.0338405 -0.0240766 0.326512
0.405811 -0.0445356 0.360316
0.0333549 -0.041171 0.425269
-0.0489921 -0.0558993 0.415934
-0.191527 -0.033766 0.403027
-0.369377 -0.0462222 0.381569
0.0123899 -0.0639205 0.434751
-0.0380251 -0.0443094 0.324592
-0.00832147 0.0166533 0.104724
0.0342303 -0.0110003 0.124542
0.0872868 -0.0473748 0.445552
-0.288084 -0.0388715 0.320514
-0.149776 -0.0296987 0.402047
0.36309 -0.0422523 0.414309
-0.00682087 -0.034365 0.35405
-0.178107 -0.0308524 0.343424
-0.0860545 -0.0389333 0.306857
-0.0978054 -0.00138983 0.1006
-0.190973 -0.0287426 0.451078
-0.0611297 -0.0292361 0.341742
-0.255726 -0.0281183 0.389306
0.00605102 0.001396 0.210547
-0.142712 -0.0461322 0.398793
-0.0323164 -0.0215264 0.300138
-0.00315957 -0.0514319 0.341427
-0.0320519 -0.0216517 0.397815
0.219268 -0.0499066 0.362866
-0.0682805 -0.00995417 0.116609
-0.0262895 -0.0261259 0.351147
0.357804 -0.0312772 0.39428
-0.355727 -0.0387834 0.417683
-0.0122236 -0.00839086 0.131219
0.00754847 0.0123739 0.0656257
0.0326247 -0.0292364 0.28682
-0.0578249 -0.000589853 0.0947577
-0.403648 -0.0342891 0.351987
-0.162202 -0.0233449 0.438034
0.0419552 -0.0217005 0.405421
0.0881167 -0.00508467 0.118946
0.0855798 -0.0235966 0.424026
0.116918 -0.0266468 0.431687
-0.148188 -0.0269521 0.356153
0.0173285 -0.00248445 0.0688905
0.106725 -0.0239909 0.388321
-0.0923005 -0.0236857 0.385181
0.160022 -0.025486 0.387461
0.00896167 0.00253075 0.360122
-0.0272786 -0.0390308 0.258187
-0.0119107 -0.0603429 0.497772
-0.456387 -0.0414467 0.349553
-0.280999 -0.0487204 0.405749
-0.00548347 -0.0525136 0.247631
-0.0629578 -0.0548803 0.382093
0.125055 -0.0438768 0.407236
0.369029 -0.0381511 0.328607
0.387072 -0.0454395 0.366079
-0.0236442 -0.0564782 0.476606
-0.103977 -0.0241682 0.422849
-0.0220693 -0.00507026 0.377898
-0.0263493 -0.00788824 0.320256
0.00433036 -0.038869 0.159575
-0.00900469 -0.0620014 0.326204
0.0558247 -0.0391603 0.306427
-0.00562972 0.0402383 0.0654062
0.0613018 -0.0551849 0.390839
-0.142182 -0.0343406 0.384092
-0.0221316 -0.00442499 0.351917
0.0179748 -0.0019282 0.272562
0.17711 -0.0381806 0.315744
-0.24069 -0.0498611 0.4099
0.0218973 -0.0575684 0.480002
-0.00712732 -0.00192703 0.144767
0.1692 -0.0258267 0.412456
0.164816 -0.0217492 0.45041
0.156216 -0.0344545 0.328396
0.00695504 -0.0315563 0.130929
0.0465572 -0.00688615 0.0534308
-0.31228 -0.0299725 0.377702
-0.185431 -0.0534296 0.491751
-0.13551 -0.0487219 0.35046
-0.424257 -0.0410121 0.34428
0.0346042 -0.0334404 0.357403
0.150983 -0.0481922 0.382918
-0.325833 -0.0323312 0.412247
0.274768 -0.0292055 0.408885
0.266267 -0.0346238 0.425151
-0.0277589 -0.0129533 0.280202
-0.478409 -0.0379327 0.339956
-0.276246 -0.0293374 0.365542
-0.0807205 -0.0489248 0.44503
0.0431502 -0.0270577 0.348756
-0.285903 -0.0482816 0.368529
-0.00489353 -0.0329399 0.504429
0.373204 -0.031741 0.37649
-0.125612 -0.00186943 0.0893166
-0.443845 -0.0429673 0.399305
0.123402 -0.00527112 0.105736
-0.071637 -0.0543646 0.372908
0.175864 -0.0535735 0.411894
0.117667 -0.0498075 0.436325
0.0859376 -0.0549182 0.405359
0.175371 -0.0333821 0.349906
0.418347 -0.0403282 0.338949
-0.0900866 -0.024751 0.360948
-0.20039 -0.0272891 0.364066
0.0342313 -0.0283953 0.3136
0.193784 -0.0373666 0.377674
0.327481 -0.0404319 0.420376
-0.0149034 0.00102852 0.32183
-0.173231 -0.0497528 0.357921
0.208452 -0.0378967 0.434927
0.0432873 -0.0557708 0.423072
0.155371 -0.00630462 0.0442291
-0.0498181 -0.0495792 0.448377
-0.0661849 -0.0445007 0.327982
-0.0105017 -0.0596528 0.30482
-0.468346 -0.0427743 0.394854
-0.0462441 -0.00449363 0.0530498
-0.0717863 -0.00927531 0.0695219
-0.0241993 -0.050286 0.297824
-0.172834 -0.0469812 0.434697
-0.0192548 -0.00528306 0.226231
-0.0183386 -0.0589447 0.353119
-0.0551264 -0.0377181 0.309381
-0.00374707 -0.0366586 0.144156
-0.0948738 -0.00338965 0.0587876
0.00630626 0.0157519 0.116125
0.0294056 -0.0487726 0.360006
-0.0063392 -0.0644802 0.402221
0.0173808 -0.0619517 0.466047
0.000969481 0.00461577 0.329116
-0.114019 -0.0293643 0.440234
-0.153776 -0.0520202 0.371969
0.0144293 -0.0167905 0.130706
0.35047 -0.0409578 0.338985
0.444644 -0.040869 0.344601
0.186402 -0.0527016 0.49307
-0.0314897 -0.0103028 0.0787923
0.31641 -0.0314904 0.355528
0.377654 -0.0345793 0.34492
-0.00160452 0.00264746 0.232933
0.220374 -0.0273738 0.410015
-0.100301 -0.0537747 0.380318
-0.0286161 -0.0138767 0.425822
-0.193208 -0.0339157 0.417264
-0.131644 -0.051945 0.427513
-0.0547004 -0.0221629 0.401658
-0.124226 -0.038537 0.310887
0.286681 -0.0330231 0.342459
-0.0176686 -0.0202268 0.149617
0.00317516 -0.0639329 0.365814
-0.115938 -0.024555 0.377806
0.419953 -0.0331358 0.374423
0.188021 -0.0302634 0.480665
-0.335745 -0.0450583 0.355642
-0.177324 -0.024919 0.477022
-0.0230197 -0.0133229 0.452414
0.140761 -0.00223562 0.0729987
0.0226664 -0.00640409 0.404993
0.00802313 0.0208773 0.0941739
-0.20648 -0.0501816 0.419541
-0.446169 -0.0339391 0.390762
0.0319658 -0.0492943 0.342799
0.152723 -0.0259402 0.365232
-0.0108906 0.00200013 0.28107
0.169584 -0.024428 0.48123
0.086368 -0.031088 0.336441
-0.0167475 -0.0182449 0.465923
0.190658 -0.0481771 0.353636
0.0821806 -0.0428295 0.323202
-0.124804 -0.0308236 0.440684
-0.0153267 -0.0157609 0.13827
0.0286772 -0.0126069 0.381958
-0.23081 -0.0383835 0.318547
-0.125976 -0.0248811 0.421774
-0.00379689 0.00120926 0.188574
0.357789 -0.0447412 0.356537
-0.0709563 -0.00542003 0.0452227
-0.0386213 -0.0263469 0.444654
0.0577856 -0.0515718 0.44141
0.042174 -0.0111269 0.113148
0.297032 -0.029525 0.378621
-0.0245636 -0.0334697 0.212478
-0.0196406 -0.0603043 0.428016
0.277717 -0.0489345 0.385876
0.0165188 -0.0112744 0.0872386
-0.284377 -0.0369272 0.424446
0.200504 -0.0512602 0.408174
-0.233851 -0.0279183 0.374021
0.0186187 -0.00720343 0.192742
0.150447 -0.0302549 0.343838
-0.419481 -0.0432953 0.403181
0.479806 -0.0359687 0.354412
0.0317004 -0.0452128 0.387975
-0.00186569 -0.00891886 0.0701612
-0.00682087 -0.0333023 0.338214
0.0346135 -0.0314585 0.37431
0.349242 -0.0470366 0.389928
-0.0251181 -0.00718146 0.0565482
-0.310907 -0.0480656 0.388156
0.123544 -0.00738799 0.0535163
-0.0221435 -0.00659647 0.258927
0.0868329 -0.0248739 0.359888
0.0159228 -7.79054e-05 0.34424
-0.139515 -0.0323028 0.471208
0.000913893 0.000491663 0.0421404
0.186371 -0.0515149 0.38601
0.296425 -0.0483423 0.402832
0.0165316 -0.0375421 0.499617
-0.378536 -0.0332875 0.354422
-0.395091 -0.0326266 0.39789
0.00970108 -0.0569168 0.284077
-0.145236 -0.0340519 0.440333
0.0246447 -0.044943 0.26718
0.292959 -0.0323913 0.418062
-0.174323 -0.0275051 0.403772
0.0264742 -0.054158 0.454147
-0.216282 -0.0276122 0.415154
-0.0347478 -0.0316785 0.36068
0.133142 -0.0534486 0.408783
-0.165069 -0.0594325 0.442218
-0.00555278 -0.00214931 0.448542
0.192141 -0.0269745 0.367019
0.185353 -0.0263158 0.383012
0.271759 -0.0311084 0.34975
0.416258 -0.0412947 0.408119
-0.0108229 0.000594058 0.422939
0.0097921 0.00743474 0.0992065
-0.0323229 -0.0553777 0.369659
-0.253727 -0.047123 0.355645
-0.354583 -0.0313436 0.370766
-0.150056 -0.00742514 0.0525657
-0.0747692 -0.0299173 0.340082
0.00531936 0.0398233 0.0464473
0.141302 -0.0328658 0.479847
-0.078103 -0.054929 0.416226
-0.102151 -0.00572291 0.0424749
-0.0427748 -0.03229 0.329015
0.121682 -0.0019839 0.0697447
0.142479 -0.0452874 0.440114
0.449645 -0.0437297 0.367695
0.348699 -0.0310781 0.374269
-0.00187565 -0.043772 0.188356
0.0795121 -0.0278032 0.348363
-0.01608 -0.0387773 0.191784
-0.0162319 -0.0544348 0.286932
-0.000604203 -0.0246544 0.483672
0.00719703 0.0256508 0.0679391
0.0195876 -0.0213987 0.424629
0.155496 -0.0333869 0.35539
-0.211902 -0.046209 0.348235
-0.464521 -0.0344224 0.387015
-0.0286686 -0.0111148 0.126144
-0.112987 -0.0264687 0.355616
-0.0796745 -0.0234659 0.380827
0.119872 -0.0492752 0.351062
0.144143 -0.025304 0.419013
0.100259 -0.0321965 0.444815
-0.214348 -0.0461596 0.429964
0.00730243 -0.0173279 0.0938569
0.384757 -0.0439947 0.407447
0.0244419 -0.00870863 0.420476
-0.438095 -0.0442448 0.38024
-0.191778 -0.0361881 0.384732
0.0409724 -0.0542925 0.362486
-0.197497 -0.0389138 0.474349
-0.0055765 -0.000121263 0.160134
-0.154981 -0.039565 0.315938
0.192575 -0.0440205 0.398625
0.227914 -0.0501447 0.412457
-0.192871 -0.0390507 0.356313
0.172888 -0.0519734 0.388662
0.0747587 -0.054756 0.422616
-0.0312238 -0.0369214 0.286054
0.00667215 -0.0506623 0.235489
-0.428734 -0.0382559 0.332179
-0.401704 -0.0326787 0.369572
0.016925 -0.0305967 0.48442
-0.219361 -0.0507732 0.405167
-0.186376 -0.0515232 0.386295
0.458221 -0.0342866 0.372142
-0.00652659 -0.00265899 0.121797
0.0106888 0.00183311 0.376449
-0.0338807 -0.0267787 0.375981
0.0945238 -0.0541265 0.386724
-0.123787 -0.00518869 0.0444647
0.0657994 -0.00139498 0.0745304
-0.336341 -0.0470622 0.402052
-0.0248775 -0.0272731 0.467595
0.112525 -0.0237978 0.400293
-0.0808811 -0.0544868 0.385893
-0.33607 -0.0340117 0.342015
-0.00421314 0.0446871 0.0347623
0.0209232 -0.0372668 0.204346
-0.0771923 -0.00330043 0.0602449
-0.0155998 -0.0491238 0.453294
0.100238 -0.0451253 0.445519
0.0191406 -0.0237005 0.4701
-0.0212781 -0.0092227 0.204397
0.0176942 -0.0286379 0.160877
0.033015 -0.0201813 0.342223
0.252661 -0.0352627 0.331759
-0.385329 -0.0454487 0.363533
-0.0584055 -0.000610698 0.112271
-0.0158505 -0.0381408 0.502065
-0.0292734 -0.0476952 0.316682
-0.182554 -0.0432322 0.334236
-0.0716323 -0.0230195 0.422215
0.00519515 -0.000662217 0.0826094
-0.0038323 -0.0102694 0.142732
-0.323155 -0.0309636 0.360623
0.0131602 -0.0146835 0.463368
0.296291 -0.0393107 0.323491
-0.0103116 -0.0114535 0.0925061
0.023381 -0.0141502 0.200445
0.188948 -0.0357993 0.325504
0.00727343 0.00338159 0.299793
-0.0272893 -0.013696 0.442678
0.386794 -0.0320019 0.385249
0.244136 -0.0430093 0.339235
0.0347915 -0.00756842 0.0588976
0.340859 -0.0308556 0.39881
0.272119 -0.0468635 0.418028
0.115973 -0.0323152 0.333784
-0.0163257 -0.0620093 0.435796
-0.0613395 -0.0555257 0.402434
0.0993759 -0.00135559 0.0876836
0.0251088 -0.0543164 0.379963
-0.0321729 -0.0402736 0.308831
-0.0288271 -0.0561445 0.392318
0.364008 -0.0462383 0.400092
0.139797 -0.0475143 0.346317
-0.155655 -0.0258292 0.481153
-0.182616 -0.0520231 0.413238
-0.0114552 0.00157501 0.371307
-0.0260263 -0.00982663 0.400132
0.011915 -0.0556047 0.516977
-0.0261669 -0.0428447 0.480527
0.0309336 -0.056074 0.425401
0.00126366 -0.0545002 0.257817
-0.0300436 -0.0367494 0.271714
-0.14241 -0.0535289 0.463981
0.241919 -0.0281784 0.372746
0.255701 -0.0408965 0.429037
-0.360195 -0.0451665 0.407421
0.0228968 -0.00988424 0.218165
0.464028 -0.0433041 0.392045
-0.11174 -0.0472227 0.442597
0.0124306 -0.0599956 0.498323
0.167845 -0.0613816 0.454853
0.0826894 -0.0228597 0.404203
0.0299168 -0.0228017 0.258969
0.0194029 -0.0321974 0.179731
0.0322802 -0.0427547 0.319595
0.14473 -0.0248043 0.407696
-0.216709 -0.0313285 0.344195
0.160416 -0.0381873 0.314609
-0.101591 -0.0326277 0.33165
-0.0183455 -0.0608809 0.449447
0.313432 -0.029965 0.397766
0.129434 -0.0402404 0.317927
0.0305476 -0.0158574 0.305167
0.206065 -0.0404161 0.325478
-0.0332588 -0.0416318 0.406361
0.0852653 -0.0350231 0.448743
-0.398754 -0.0437237 0.405668
0.466305 -0.043429 0.378183
-0.447424 -0.0349315 0.355715
0.0699202 -0.0516546 0.438968
0.327176 -0.0303219 0.381496
-0.127548 -0.0529947 0.379931
-0.184591 -0.0248643 0.464385
0.166967 -0.0515833 0.368828
0.169488 -0.0460734 0.353371
-0.0907177 -0.00999181 0.0801755
-0.043696 -0.0221213 0.392778
-0.0549309 -0.0108951 0.102121
-0.292083 -0.0486123 0.38869
-0.237341 -0.027596 0.40131
-0.321978 -0.0474246 0.377008
-0.353692 -0.0348741 0.339936
0.194763 -0.0308327 0.430532
0.467467 -0.0360234 0.351658
-0.269384 -0.0353611 0.332499
0.15544 -0.0519793 0.372173
0.187196 -0.0490042 0.411314
-0.160619 -0.040074 0.441526
-0.346667 -0.0468511 0.381175
0.0965795 -0.0100239 0.0883052
0.0149397 -0.0131509 0.13804
-0.0437362 -0.0390425 0.304773
0.350116 -0.0423897 0.41595
-0.19443 -0.0450899 0.410534
-0.117013 -0.0096576 0.0855089
0.285347 -0.029368 0.373016
-0.00417713 -0.0644343 0.388917
-0.321543 -0.0457161 0.412781
-0.0813883 -0.0549698 0.402757
-0.0796104 -0.000881432 0.09954
-0.108292 -0.0235983 0.403675
-0.0877988 -0.0280697 0.34791
0.173089 -0.0255976 0.396531
0.0102823 -0.0172562 0.10642
-0.462419 -0.0433894 0.368595
-0.0723086 -0.0278634 0.443155
0.149864 -0.0249341 0.450698
0.223522 -0.0466441 0.350976
0.0319722 -0.0112716 0.102978
-0.185029 -0.0390973 0.439159
0.0291474 -0.0319284 0.251093
0.0304528 -0.0411642 0.295917
0.067198 -0.0553288 0.401359
-0.191618 -0.0508845 0.367821
0.0246116 -0.0345626 0.21614
0.309111 -0.0399516 0.328971
0.0200274 -0.0100642 0.0775965
0.374744 -0.0462607 0.389505
-0.00145682 -0.058562 0.523897
0.0750639 -0.0362777 0.316134
0.161581 -0.00867492 0.0814439
-0.0176021 -0.0521248 0.505821
-0.0171802 -0.0315526 0.356249
0.0230918 -0.0169853 0.189598
-0.0967964 -0.0446392 0.331407
-0.123465 -0.00355731 0.056262
0.264181 -0.035607 0.331227
-0.0801632 -0.00918923 0.115618
-0.251147 -0.0280396 0.400978
-0.0058421 -0.0391134 0.519519
0.134788 -0.0311001 0.339612
0.083287 -0.0235987 0.379701
-0.300877 -0.0298962 0.369626
0.0268825 -0.0532129 0.401223
-0.00360434 0.00380197 0.292941
0.146489 -0.0272722 0.470739
-0.256281 -0.049431 0.408054
-0.19734 -0.0410166 0.32729
0.00580812 0.000161543 0.167087
0.292793 -0.0460821 0.355427
-0.396942 -0.0450119 0.361269
0.474315 -0.0348841 0.391294
0.0727918 -0.00431484 0.0531206
-0.426618 -0.0332915 0.376922
0.0358575 -0.0334751 0.324089
-0.0239924 -0.0329337 0.455157
0.140132 -0.0365144 0.387587
-0.381635 -0.0368044 0.334519
0.0328249 -0.0434443 0.40016
-0.0147317 -0.0349719 0.317046
-0.0553244 -0.000770793 0.0804
0.168869 -0.0318818 0.338931
0.232604 -0.0381159 0.432199
-0.0220673 -0.0556626 0.321118
0.0275098 -0.0301613 0.227746
-0.261056 -0.049548 0.390745
0.067864 -0.03038 0.337879
-0.168903 -0.0343444 0.338083
0.270271 -0.0338334 0.338315
0.0336108 -0.0242998 0.362748
0.145133 -0.0487096 0.404885
-0.171188 -0.0244366 0.429432
-0.256537 -0.0368829 0.325911
-0.140315 -0.00903633 0.0690714
0.295955 -0.0292759 0.390286
0.153626 -0.0577531 0.478153
-0.0174412 -0.0408045 0.206381
0.0335787 -0.00899046 0.136032
0.0934852 -0.035857 0.318943
0.125842 -0.0322284 0.407236
0.104094 -0.0096811 0.101842
0.0436545 -0.022251 0.388341
-0.0113337 -0.0182494 0.113117
0.178727 -0.0585053 0.451995
0.00081689 -0.0661205 0.450167
0.131777 -0.0382848 0.445057
0.0205101 -0.0250636 0.354766
0.0344345 -0.031625 0.401505
0.0476156 -0.000528341 0.088249
0.417363 -0.0444533 0.361101
0.0309742 -0.0245473 0.449771
0.0560498 -0.0555589 0.418379
-0.334528 -0.0305086 0.38328
-0.0287634 -0.0494952 0.338701
0.02086 -0.0218497 0.168306
0.196986 -0.0332975 0.45607
-0.0787455 -0.041578 0.318161
0.0323151 -0.0202664 0.388726
-0.0174891 -0.00244498 0.402325
0.173221 -0.0256123 0.419433
0.0322689 -0.0409009 0.448051
-0.418655 -0.0445018 0.362029
-0.00625705 -0.00716193 0.079844
-0.0488518 -0.00891772 0.0679939
0.140677 -0.0506613 0.42959
-0.0372422 -0.0215402 0.406452
-0.139667 -0.0350143 0.399889
-0.153015 -0.00896396 0.077437
-0.050332 -0.0449885 0.328317
0.12555 -0.0520264 0.428329
0.158722 -0.0576533 0.435901
-0.0283755 -0.0127053 0.294027
0.0205406 -0.0350579 0.317107
0.0760867 -0.0552209 0.411131
-0.193811 -0.0456739 0.491532
-0.407668 -0.0327942 0.392942
0.0777356 -0.000921187 0.0936865
-0.0164442 -0.0018527 0.24956
-0.0144442 -0.0473317 0.333743
0.110997 -0.0261676 0.356618
-0.044143 -0.011133 0.106498
-0.072168 -0.0010756 0.0778981
-0.0935684 -0.038561 0.450214
-0.221959 -0.0416799 0.332124
-0.144607 -0.035371 0.324171
0.0116252 1.47212e-05 0.428993
-0.00337272 -0.0409138 0.345715
-0.277357 -0.0492139 0.395006
0.446039 -0.0339313 0.372151
0.0129846 -0.00260533 0.444755
-0.177105 -0.0598497 0.466318
-0.165427 -0.0524376 0.397268
-0.341746 -0.0309425 0.372363
-0.00318299 -0.0200838 0.0911201
-0.0332794 -0.025051 0.422834
0.400972 -0.0453815 0.391508
-0.00455899 -0.0630728 0.341655
0.0446691 -0.0561181 0.406579
0.191468 -0.0384548 0.339439
-0.00734455 -0.0631284 0.358295
-0.00370018 -0.00153902 0.106168
0.0117763 0.000988801 0.262774
0.311441 -0.0451305 0.416955
-0.189374 -0.0351879 0.371693
-0.154633 -0.0329414 0.333993
-0.329351 -0.0305096 0.399299
0.0274502 -0.0177804 0.232771
-0.292938 -0.029163 0.39501
-0.0581063 -0.0480812 0.340707
0.0182139 -0.035926 0.337812
-0.233702 -0.0458625 0.427641
-0.0170256 -0.0456257 0.22895
0.248997 -0.0476343 0.419542
-0.0882863 -0.0537109 0.429623
0.0975004 -0.0240678 0.424401
0.448091 -0.0435223 0.395816
-0.027498 -0.0212896 0.224772
-0.297206 -0.0357215 0.33299
0.145465 -0.00343319 0.0944381
0.257765 -0.0284438 0.406081
0.124615 -0.0295751 0.391247
0.000599843 -0.0481197 0.21255
-0.187856 -0.0524888 0.43436
-0.0171802 -0.0302241 0.339461
0.341319 -0.0469814 0.380477
0.0599015 -0.00605844 0.129957
-0.0313333 -0.0056146 0.141328
-0.0338326 -0.0299468 0.435894
0.00184697 -0.00187928 0.0714991
0.258056 -0.0491155 0.372559
-0.171596 -0.0573615 0.430848
-0.334155 -0.0444299 0.415115
0.340433 -0.0349542 0.338753
0.217128 -0.0341114 0.333736
0.119487 -0.0249898 0.366381
-0.182164 -0.0254315 0.442727
0.406805 -0.0327749 0.372972
-0.0342614 -0.035623 0.383356
-0.00039247 -0.0277228 0.112597
-0.255747 -0.0289576 0.413885
0.171652 -0.0572707 0.43132
0.0644783 -0.0222337 0.409329
0.382092 -0.0457292 0.37595
0.105765 -0.0507333 0.355219
0.0307047 -0.0196832 0.279191
0.0343013 -0.0316513 0.419767
-0.135903 -0.0515411 0.36112
-0.00559299 0.0394711 0.0544014
0.186333 -0.0454627 0.376883
-0.40311 -0.0361936 0.338248
-0.242416 -0.0389881 0.432049
0.168646 -0.046362 0.436078
-0.0271082 -0.0146671 0.251344
-0.233319 -0.0498543 0.374602
-0.0690046 -0.0235644 0.367509
-0.0263482 -0.0216994 0.390864
-0.101685 -0.00897281 0.107495
-0.169236 -0.0445259 0.342121
-0.362027 -0.0447743 0.357063
0.47539 -0.0372659 0.344196
-0.203448 -0.0465345 0.430991
-0.0342236 -0.0564954 0.409382
0.0696552 -0.00289627 0.0635104
-0.0306226 -0.0443096 0.458555
0.138664 -0.0252899 0.374138
-0.151913 -0.0498897 0.395411
0.0300022 -0.0164508 0.289021
0.37029 -0.0331206 0.354051
-0.00314485 -0.000694475 0.136288
-0.359559 -0.0375747 0.33015
-0.0870566 -0.049284 0.347984
-0.00942997 -0.0649112 0.450618
-0.386078 -0.0458812 0.385978
-0.131676 -0.0066559 0.101764
-0.29538 -0.0323705 0.417587
0.0230344 -0.0269629 0.188318
0.0152316 -0.0614585 0.393544
-0.00210796 0.0585405 0.0176268
-0.349645 -0.0463164 0.405047
-0.125434 -0.0471334 0.440945
0.275836 -0.0322342 0.420586
-0.0432653 -0.00135679 0.0758426
0.16256 -0.00258787 0.0725018
-0.328268 -0.0427772 0.346338
-0.028884 -0.0497718 0.361142
-0.0318183 -0.0175927 0.337036
0.00331798 -0.0449753 0.532299
-0.150335 -0.0475913 0.347606
-0.0106341 -0.000890596 0.0999703
0.159762 -0.0304244 0.376197
-0.168804 -0.0544005 0.407766
0.023664 -0.0439071 0.488345
0.0912399 -0.00536803 0.0446658
-0.0175822 -0.00820469 0.171764
-0.163818 -0.0518525 0.375886
0.00938741 -0.0599112 0.305552
0.0662129 -0.0105859 0.108866
0.101793 -0.0235262 0.399469
-0.00909804 -0.0561905 0.278148
0.0553312 -0.0290167 0.342184
0.195872 -0.0285365 0.353823
0.00915365 0.00559755 0.0755838
0.121604 -0.00177441 0.0898194
-0.00185081 -0.0632972 0.495543
-0.360286 -0.0466455 0.387228
0.468251 -0.0395079 0.403216
-0.0310528 -0.00234968 0.0692329
-0.183068 -0.0291743 0.407711
0.268681 -0.0465258 0.354812
-0.353699 -0.0463265 0.363595
0.11145 -0.0530975 0.427022
0.316064 -0.0303626 0.368012
0.224936 -0.0278917 0.366586
0.0246609 -0.00859908 0.26878
-0.126436 -0.0242203 0.398976
-0.184258 -0.0364071 0.322901
0.125573 -0.0527148 0.367784
-0.154021 -0.0591518 0.465723
-0.0297044 -0.011424 0.110568
-0.310097 -0.0339594 0.419037
-0.316279 -0.0384966 0.3238
0.320488 -0.0476109 0.381899
0.244211 -0.0277878 0.388969
0.426924 -0.0415088 0.348044
0.0197484 -0.00487553 0.243536
0.206345 -0.0268721 0.408212
-0.116224 -0.0241006 0.393484
-0.0733253 -0.00591129 0.125035
-0.113755 -0.0539947 0.40065
0.173274 -0.0316938 0.435056
-0.00720993 0.0281641 0.0765821
0.135712 -0.0348075 0.325703
-0.158616 -0.0258727 0.373031
-0.291223 -0.0420015 0.339903
0.0459972 -0.0374926 0.455544
0.36528 -0.0318402 0.401724
0.180554 -0.0265183 0.371655
-0.0973835 -0.0545208 0.411125
0.250525 -0.0302694 0.351753
-0.0258736 -0.0392938 0.247738
-0.177148 -0.0270321 0.488248
-0.36011 -0.0311585 0.389713
0.236155 -0.0377701 0.321214
0.0284453 -0.0104152 0.326907
-0.00685423 -0.0118339 0.123252
0.0609399 -0.000807146 0.0838161
0.0301875 -0.017092 0.42555
-0.00750197 -0.0309878 0.130174
-0.163387 -0.00287352 0.0593639
-0.374754 -0.03169 0.382717
0.139378 -0.00734426 0.0524725
0.0426938 -0.0110668 0.100693
0.0104745 0.00349407 0.110742
-0.462286 -0.0370964 0.342915
0.135425 -0.0248161 0.414955
0.0761282 -0.047273 0.339371
-0.00726031 0.00700092 0.0655855
-0.0798172 -0.0539621 0.366416
-0.397328 -0.0323049 0.387702
-0.13939 -0.00224821 0.0890225
0.403701 -0.045143 0.37679
0.0174866 -0.0502265 0.261737
-0.443494 -0.0361534 0.346136
0.0782845 -0.0102621 0.0849611
0.214153 -0.0276468 0.364808
0.155475 -0.0540522 0.41535
-0.13326 -0.053535 0.403717
0.385561 -0.0337302 0.405945
0.263127 -0.0288333 0.37037
-0.161626 -0.00257862 0.0721428
0.0297056 -0.0141765 0.365517
-0.269701 -0.0308514 0.351214
-0.0110189 -0.0645554 0.473673
0.033248 -0.0412786 0.350966
0.302957 -0.047125 0.36032
-0.0423775 -0.0550005 0.366446
0.068666 -0.0380904 0.453047
0.329849 -0.0469753 0.362793
0.164215 -0.052971 0.398315
0.0301949 -0.0421453 0.464919
0.290895 -0.0416986 0.33873
0.0157319 -0.0439499 0.510849
0.151436 -0.0439307 0.333918
0.0209719 -0.00259051 0.312894
0.18147 -0.0547968 0.433726
0.109784 -0.0096495 0.0775326
0.453902 -0.0416832 0.351096
0.107644 -0.00336228 0.0583981
0.197037 -0.0263454 0.393317
0.439822 -0.0341339 0.360023
-0.0601941 -0.0546158 0.370479
-0.0275962 -0.0333123 0.235414
0.251179 -0.0495156 0.380199
-0.0886196 -0.00118788 0.0875298
0.285922 -0.0485218 0.379728
-0.0053771 0.0257532 0.101006
-0.0263725 -0.0563836 0.421795
0.0227309 -0.00615729 0.393705
0.198321 -0.0443838 0.469781
0.215425 -0.0502943 0.372365
-0.13537 -0.0255981 0.363485
-0.0617652 -0.054549 0.431064
0.334103 -0.030721 0.372727
0.285927 -0.0303557 0.357897
-0.0359395 -0.0495853 0.344273
-0.0058513 -0.0650965 0.422088
-0.338557 -0.047263 0.387386
-0.101721 -0.0235445 0.411492
-0.0938027 -0.0238623 0.423614
-0.00870905 0.00166596 0.238548
0.00105418 -0.0400255 0.357594
0.000310299 0.00200333 0.198325
0.165366 -0.0521945 0.413171
0.0400452 -0.0239349 0.437496
0.0182296 -0.0471094 0.24493
0.0205974 -0.0118978 0.183243
-0.148002 -0.052524 0.383529
-0.108143 -0.0449432 0.333628
0.373399 -0.0442183 0.40887
-0.0958712 -0.0100449 0.0889422
-0.250489 -0.0313893 0.34621
0.191633 -0.0433338 0.385605
0.0190624 -0.0601477 0.445154
-0.15246 -0.00846964 0.0882941
0.172867 -0.0508337 0.423574
-0.250913 -0.0485538 0.416615
0.34653 -0.0458716 0.359729
-0.0247184 -0.045409 0.270371
0.154203 -0.00775291 0.0914253
-0.207467 -0.040093 0.323238
0.147185 -0.0285299 0.432181
0.0801836 -0.0101514 0.109202
-0.208738 -0.0333289 0.336127
-0.160784 -0.0480565 0.434021
0.1565 -0.0601975 0.464111
-0.450788 -0.0339487 0.37999
-0.0426679 -0.0108902 0.120731
-0.0295794 -0.0142964 0.37595
0.35479 -0.0466078 0.380695
0.0846234 -0.0239312 0.369675
-0.228515 -0.0331309 0.428958
0.142161 -0.00868968 0.0620598
-0.0123947 0.0021714 0.310882
-0.285998 -0.0461613 0.355081
-0.314484 -0.0462572 0.358143
-0.241437 -0.0501989 0.394053
-0.0287977 -0.045097 0.326684
0.0519613 -0.0259748 0.353422
-0.46627 -0.0347953 0.360301
0.057743 -0.0412637 0.45357
-0.00583493 -0.00487123 0.0521803
0.315144 -0.0328236 0.345653
0.0176838 -0.0234865 0.152303
0.0213104 0.000280216 0.113809
0.0157123 -0.00889244 0.454577
0.00330912 0.025562 0.0414122
0.143329 -0.0410888 0.322441
-0.0550973 -0.0424973 0.453029
-0.00609622 0.00290406 0.27303
0.193581 -0.0509021 0.452515
0.263718 -0.0283354 0.390335
-0.102174 -0.0251599 0.360304
0.359749 -0.0343437 0.3432
-0.289646 -0.0307859 0.3555
0.2135 -0.0267649 0.397232
-0.242665 -0.0282979 0.369389
-0.158094 -0.0286608 0.430678
-0.264922 -0.0486204 0.413534
-0.0205323 -0.0388761 0.492088
-0.0316737 -0.0452181 0.441291
0.0181169 1.82256e-05 0.0934604
0.0406803 -0.0109221 0.0891951
0.0817318 -0.0230308 0.414882
-0.135403 -0.0353392 0.445394
-0.0326329 -0.0367888 0.453263
0.280976 -0.0477823 0.413633
-0.0329721 -0.0433824 0.419064
