-0.415399 -0.0329563 0.389563
-0.0173828 -0.0430607 0.216222
0.00673009 0.0312594 0.0712626
0.0149381 -0.0594372 0.317631
0.0164054 -0.0270366 0.347059
-0.221542 -0.0460902 0.348702
-0.00431508 0.0421206 0.0354402
0.309265 -0.0460195 0.413985
0.0223641 -0.0580141 0.425265
0.252374 -0.0280731 0.400815
-0.0211227 -0.00651843 0.239246
-0.00337272 -0.0425143 0.352118
0.0170926 -0.0295421 0.160378
-0.0292575 -0.0126663 0.345131
0.340601 -0.0444045 0.414102
0.12176 -0.00879885 0.0997687
-0.00779619 -0.0176034 0.469856
-0.0611173 -0.00976713 0.120713
0.0386818 -0.011204 0.113836
-0.136363 -0.0381556 0.41375
0.317738 -0.0470431 0.361413
-0.00924364 -0.00803951 0.103984
-0.158345 -0.0243586 0.432765
-0.262811 -0.0493604 0.386062
0.0946615 -0.0235002 0.393679
0.0396232 -0.00337136 0.135128
-0.0303882 -0.0471878 0.36657
-0.022061 -0.0244981 0.178392
-0.0295261 -0.00839423 0.0651022
0.144051 -0.0250444 0.413641
-0.00381798 -0.0121332 0.0704484
0.303541 -0.0455828 0.417005
-0.0938356 -0.0236591 0.420012
0.0334192 -0.0407005 0.412072
0.168717 -0.0234312 0.434772
0.144951 -0.0296025 0.435596
0.160814 -0.0341905 0.340627
-0.00688764 -0.0647701 0.444164
-0.0319446 -0.0343341 0.28923
0.475361 -0.0349103 0.364113
0.300691 -0.0294411 0.388528
-0.21527 -0.050567 0.41281
0.0449882 -0.055961 0.401553
0.23678 -0.0395652 0.321375
0.032407 -0.0445796 0.418719
0.00210389 -0.0588299 0.290069
0.0110491 -0.0638144 0.40731
-0.094632 -0.0369113 0.44887
0.149915 -0.0535998 0.426931
0.346271 -0.0308809 0.381341
-0.322514 -0.0320854 0.352396
0.209618 -0.034226 0.332805
-0.0170153 -0.0168221 0.147986
0.307042 -0.0442811 0.419455
-0.163625 -0.0522133 0.387936
0.0121999 -0.0019418 0.187973
-0.420575 -0.0448098 0.389294
-0.0542155 -0.0225932 0.386612
0.0413649 -0.0553929 0.378823
0.062077 -0.0511833 0.352772
0.122359 -0.00648971 0.0470835
0.0027248 -0.0363888 0.141065
-0.015598 -0.0620372 0.44821
-0.0923137 -0.00985857 0.073152
0.000275265 -0.00188659 0.0445237
-0.101189 -0.0536961 0.424474
0.0119313 -0.0103482 0.120707
0.0706356 -0.003398 0.0598416
0.262244 -0.0489888 0.411395
0.128431 -0.0533168 0.391698
-0.192963 -0.047847 0.420723
-0.179922 -0.0552861 0.430289
-0.0147993 -0.0564271 0.388485
-0.0234969 -0.0362334 0.215391
0.0135754 0.000843115 0.356533
-0.0142815 -0.00218845 0.206375
-0.141817 -0.0346169 0.48753
0.0265465 -0.00896852 0.300414
0.474501 -0.0394616 0.336422
-0.0173688 -0.00733355 0.0580023
0.143198 -0.0369177 0.353854
-0.0325452 -0.020413 0.378217
-0.125645 -0.0249187 0.422335
-0.00286985 0.00029651 0.158521
0.00875792 0.000943277 0.214758
0.182891 -0.0249935 0.447133
-0.00849573 -0.0645493 0.416352
-0.00485713 -0.0548828 0.530536
-0.382762 -0.045762 0.396981
0.157435 -0.058265 0.486627
-0.0622562 -0.0557079 0.409488
-0.0897535 -0.0504812 0.352751
0.0290015 -0.024125 0.439969
-0.149712 -0.058002 0.460309
0.11517 -0.0246425 0.374121
0.0139927 -0.0612013 0.362306
0.351219 -0.0465928 0.376461
-0.0239556 -0.0389932 0.23037
-0.472978 -0.0347423 0.37049
-0.0792607 -0.00252524 0.0657486
0.00518811 0.00297797 0.367163
0.01235 0.00026574 0.103639
-0.0218891 -0.0169664 0.178957
0.436597 -0.0337956 0.394139
0.0113248 -0.061842 0.339212
0.0345748 -0.0339785 0.419525
0.127487 -0.0244353 0.392668
0.0359028 -0.000144345 0.101191
-0.0308759 -0.017258 0.385197
-0.0111743 -0.00450242 0.450855
0.0203646 -0.025489 0.471052
0.0247202 -0.00643025 0.328514
-0.0864383 -0.00997907 0.0749436
0.0279736 -0.0565214 0.417494
-0.0174587 -0.0590184 0.487537
0.281201 -0.0447617 0.349353
0.0272735 -3.55771e-05 0.0993869
-0.0207059 -0.0570796 0.327803
-0.190391 -0.0509316 0.368673
0.174375 -0.0522922 0.400897
-0.395705 -0.0327425 0.361784
0.0120524 -0.0514274 0.252998
-0.385784 -0.0409611 0.4127
-0.340011 -0.0426798 0.347084
0.28747 -0.0439095 0.422713
0.028277 -0.0426636 0.473655
-0.119495 -0.0241701 0.412301
-0.305387 -0.0405263 0.332874
-0.0290726 -0.0138852 0.396121
-0.0222856 -0.0563376 0.355452
-0.0270321 -0.046374 0.291384
0.0876906 -0.00274762 0.0637549
-0.0188082 -0.0113316 0.128682
-0.0156932 -0.0467174 0.231339
0.258147 -0.0497683 0.395435
-0.181613 -0.0247452 0.468866
-0.0403196 -0.0550398 0.36529
-0.00682087 -0.0374671 0.348559
0.0828225 -0.0293272 0.34284
-0.00195323 0.00329782 0.261602
0.0864228 -0.0101956 0.102466
0.0074093 -0.05909 0.297525
-0.0114332 -0.0644339 0.458998
0.385523 -0.0402472 0.336183
-0.0020035 -0.0634062 0.340318
-0.0622506 -0.00862976 0.065299
-0.266078 -0.0356714 0.33111
-0.422491 -0.0357718 0.344877
-0.246062 -0.0446297 0.345524
0.165374 -0.0614964 0.469261
0.0960201 -0.0356224 0.447781
-0.0304659 -0.0196052 0.440634
-0.0463293 -0.0221079 0.395695
-0.00595998 -0.00851936 0.0763474
-0.153823 -0.0529115 0.402241
0.0426182 -0.0434597 0.453912
-0.459852 -0.0365979 0.346052
0.35467 -0.0317608 0.404468
0.0169663 -0.019352 0.145771
-0.145013 -0.0521113 0.437319
-0.335645 -0.0470031 0.375061
0.049872 -0.0552155 0.380945
0.384193 -0.0455848 0.370342
0.030305 -0.0302235 0.458377
-0.1417 -0.0382421 0.342925
0.0155783 -0.0617484 0.410344
-0.400896 -0.0337009 0.402712
-0.224466 -0.027154 0.392734
-0.0812597 -0.0541033 0.428077
-0.219792 -0.0280351 0.362018
0.0897519 -0.0231194 0.410862
-0.0938052 -0.00691026 0.0514334
0.0633271 -0.010711 0.0987815
-0.0244248 -0.00642847 0.30796
0.00416976 0.00244936 0.395032
-0.192064 -0.0336136 0.409197
0.456965 -0.0370809 0.34201
0.00444693 0.0489056 0.0499712
-0.127848 -0.0511353 0.358827
-0.362777 -0.0345891 0.342005
-0.0210474 -0.0262587 0.447422
-0.403843 -0.037235 0.40956
-0.0459194 -0.0557682 0.395907
-0.204772 -0.0346391 0.330927
-0.0007839 0.00184562 0.0404747
0.149632 -0.0515236 0.425615
0.0192129 -0.060065 0.411605
-0.169064 -0.0260817 0.375714
-0.334533 -0.0414202 0.341266
0.0196934 -0.00438394 0.432151
0.0552041 -0.0355694 0.317483
0.0164427 1.6212e-06 0.309165
-0.388755 -0.0324665 0.398855
0.424285 -0.044661 0.390642
0.180324 -0.0278711 0.355658
0.14026 -0.0384778 0.366235
-0.109503 -0.0334446 0.329098
0.216113 -0.0271497 0.383497
-0.0103997 0.00079545 0.235762
0.00867277 -0.0520413 0.247553
-0.423226 -0.044593 0.39333
0.113798 -0.0532127 0.424751
-0.0181708 -0.0494152 0.505849
-0.00959557 0.00928504 0.106584
-0.3882 -0.0457939 0.38505
0.00880473 -0.0649719 0.43345
-0.184338 -0.0512659 0.409988
0.170414 -0.00350875 0.0544531
-0.229973 -0.044118 0.34207
0.199065 -0.0291256 0.351324
-0.175654 -0.0260956 0.414783
0.466015 -0.0414498 0.350215
0.282919 -0.0483353 0.366635
0.214806 -0.0309699 0.427465
0.0296643 -0.0492452 0.40319
0.0342981 -0.0286914 0.313937
-0.149449 -0.0303375 0.396035
0.0297975 -0.0298761 0.254444
-0.0337367 -0.0384466 0.34871
-0.0204715 -0.0402688 0.215894
-0.0636722 -0.00908838 0.0685451
0.00751235 -0.0383716 0.515895
-0.1033 -0.00737263 0.0543359
-0.0242544 -0.00666298 0.353224
-0.390366 -0.0456213 0.394513
-0.0817761 -0.0550665 0.406408
-0.16458 -0.0210284 0.456861
-0.226673 -0.0303608 0.423706
0.389568 -0.0449997 0.402297
-0.0748641 -0.0052869 0.0460046
0.348737 -0.0310931 0.373795
-0.0156456 -0.00229317 0.221256
-0.026868 -0.0183231 0.222281
0.0535205 -0.0109272 0.102757
0.135202 -0.038719 0.431184
-0.302496 -0.0294359 0.394006
0.00453033 -0.0109876 0.0849753
0.464613 -0.0434708 0.386702
0.0512564 -0.0417169 0.316078
0.00930953 0.00120987 0.230528
0.0528812 -0.00984202 0.123863
-0.00682087 -0.0344418 0.337
0.00117159 -0.0639656 0.356304
0.225929 -0.0474107 0.354093
-0.311362 -0.030118 0.40401
0.166094 -0.048312 0.366729
0.0827104 -0.0534155 0.363139
-0.368046 -0.0459572 0.402116
0.134023 -0.00899471 0.0934128
-0.0307142 -0.0238172 0.360141
0.188981 -0.0273408 0.451006
0.199608 -0.0508209 0.375137
-0.164012 -0.0520424 0.382513
0.0736176 -0.0495599 0.347749
0.0835775 -0.0232226 0.392727
0.0283794 -0.000799931 0.130745
0.32874 -0.0470654 0.366654
-0.233149 -0.0504871 0.401269
0.0462385 -0.00984436 0.0748046
-0.195482 -0.0486261 0.426254
0.397715 -0.0385304 0.329084
-0.0622055 -0.0534687 0.435131
0.00259936 0.00429911 0.331123
-0.0324425 -0.00232667 0.0693352
0.130431 -0.0075861 0.0546304
-0.0933648 -0.051686 0.434818
0.148718 -0.0353566 0.347603
-0.0254945 -0.00908296 0.393292
-0.0252552 -0.00046777 0.130295
-0.00337498 0.00177169 0.208354
-0.440072 -0.0414508 0.348499
-0.00379382 0.00408766 0.331643
0.365323 -0.0461601 0.400845
-0.00348597 0.0180705 0.0428881
0.185054 -0.0457058 0.343793
0.0335013 -0.0270041 0.43292
-0.0144688 8.18111e-05 0.279961
0.00145066 0.00478822 0.319031
-0.00182374 0.00251726 0.228943
0.072073 -0.00158307 0.0728835
-0.150553 -0.0522401 0.376344
-0.45983 -0.0344117 0.367079
0.293952 -0.0298238 0.408006
0.00304777 -0.0494705 0.223141
0.00353006 0.00284175 0.383526
-0.006402 0.0337763 0.0646424
0.0240396 -0.00585385 0.333136
-0.226068 -0.0275139 0.408422
-0.458806 -0.0419122 0.353075
0.0422946 -0.00427285 0.0548259
0.429132 -0.0444821 0.37966
-0.288005 -0.0326567 0.343927
-0.143744 -0.00914008 0.0793529
-0.152548 -0.0249191 0.401693
0.29422 -0.0406653 0.333135
-0.190618 -0.0335575 0.487116
0.0986817 -0.0532059 0.363863
0.00504129 0.0313434 0.0463568
0.00045846 0.024074 0.110279
0.293161 -0.0325224 0.344776
0.0336183 -0.0246569 0.369207
-0.420309 -0.0331262 0.390324
-0.0273038 -0.0445378 0.284815
0.033244 -0.0415084 0.380411
-0.0683747 -0.0542807 0.366504
-0.0159446 -0.0620451 0.427559
0.0627828 -0.0107799 0.104409
0.28555 -0.0295622 0.36662
-0.00350865 -0.0365091 0.142835
-0.0675533 -0.00615446 0.0471821
0.013053 -0.0634737 0.450613
0.00273225 -0.0504031 0.229608
-0.234619 -0.0353239 0.33033
0.108978 -0.00257557 0.10555
-0.257425 -0.0491851 0.374965
-0.121722 -0.0512617 0.358723
0.274381 -0.0426248 0.340654
0.127929 -0.00288924 0.0608813
-0.174551 -0.0427103 0.331511
0.16377 -0.0267828 0.360355
0.0348775 -0.0317545 0.339433
-0.00804444 -0.0389388 0.344992
0.0243832 -0.0422929 0.485387
-0.327047 -0.0441542 0.351411
0.240119 -0.0276816 0.388124
-0.0168793 -0.00861656 0.165438
0.00176462 -0.0446628 0.19338
-0.0247878 -0.0558113 0.461233
0.145654 -0.0520507 0.492538
0.15684 -0.0253607 0.411193
0.0301644 -0.0556343 0.376295
-0.00406957 -0.0497929 0.226492
0.340577 -0.0430074 0.348372
0.108014 -0.0016651 0.076428
-0.163675 -0.0518836 0.376803
-0.15647 -0.0230661 0.446519
0.0279492 -0.0468419 0.475191
0.0684786 -0.0231725 0.380308
0.0677905 -0.0103985 0.112945
0.191045 -0.0284422 0.353582
0.0231164 -0.00676346 0.401032
0.00289304 -0.00635058 0.151313
0.0336449 -0.0389071 0.343996
0.138024 -0.00906198 0.0683822
-0.00625751 0.0016627 0.222362
0.0255616 -0.0286802 0.341474
-0.00629213 -0.0530837 0.252602
0.0272322 -0.0535893 0.429432
-0.461937 -0.0390869 0.332882
-0.0648388 -0.0525902 0.358335
0.271842 -0.0481257 0.36114
0.0338632 -0.0342866 0.312196
0.0841942 -0.00672962 0.0505708
-0.0737098 -0.0335154 0.326453
0.182902 -0.0446968 0.36278
0.403394 -0.0453872 0.387919
0.0315875 -0.0307349 0.277658
-0.166182 -0.028214 0.391558
0.431287 -0.0445482 0.385881
-0.38048 -0.0401833 0.413914
0.0951288 -0.00944848 0.107753
0.0330473 -0.022303 0.376659
0.0154026 -0.0608422 0.373725
-0.0259447 -0.0563901 0.421967
0.16644 -0.0256717 0.387165
0.00568012 0.00778671 0.131381
0.16283 -0.0480071 0.36566
0.194197 -0.0385218 0.315593
-0.136546 -0.052661 0.377219
-0.0707851 -0.00713835 0.124343
-0.153767 -0.0528133 0.407811
0.0466837 -0.010962 0.115097
0.403889 -0.0402397 0.337349
0.148633 -0.0331715 0.376956
-0.0264756 -0.0448813 0.27959
-0.141515 -0.0503873 0.437184
-0.119627 -0.0290829 0.438476
0.451782 -0.0436989 0.369543
-0.206684 -0.0485604 0.424192
-0.0179745 -0.00156598 0.359092
-0.0169723 -0.0279914 0.156502
-0.0118132 -0.0216744 0.339545
-0.128277 -0.00196093 0.0780279
-0.017849 -0.00410454 0.22167
-0.014671 -0.0259117 0.357594
0.00924318 0.011039 0.091637
0.0136651 -0.0502598 0.344702
-0.404786 -0.0435078 0.405439
-0.0286144 -0.0398094 0.458245
-0.137633 -0.00245523 0.0925294
-0.11331 -0.00617438 0.0452223
-0.160293 -0.0339688 0.34242
0.0548547 -0.0334311 0.325517
-0.00962565 -0.0650502 0.452394
0.43859 -0.033728 0.391811
0.0309576 -0.0217571 0.393219
-0.42532 -0.0360549 0.343373
-0.147567 -0.0279939 0.352166
-0.00175527 0.0407853 0.0223747
0.210715 -0.0297431 0.4247
-0.00941627 0.00324725 0.328481
0.390066 -0.0419544 0.348813
-0.162106 -0.0506155 0.385626
0.105223 -0.0539182 0.418911
-0.0157294 -0.0506245 0.258714
0.0237894 -0.0219637 0.431218
0.239388 -0.0283568 0.364328
-0.0143371 -0.0605401 0.342882
0.12916 -0.0526394 0.369351
-0.0810153 -0.027557 0.440794
0.0244365 -0.0275638 0.345606
0.00763438 0.0243945 0.0801721
0.00505316 -0.000882066 0.0810281
0.0348957 -0.0316162 0.333894
0.133814 -0.00934512 0.0824721
0.170469 -0.0260941 0.417015
-0.010473 -0.061697 0.322897
-0.0699947 -0.0100494 0.0751938
-0.0160317 -0.0568586 0.418748
-0.377749 -0.0331469 0.405079
-0.214574 -0.0417095 0.331535
0.226873 -0.0383917 0.318255
0.168453 -0.00854477 0.0660569
0.0211045 -0.0592346 0.467702
0.0163814 -0.0494982 0.253153
0.0321984 -0.0255338 0.44448
-0.0342482 -0.0352836 0.320636
-0.0116433 -0.0287092 0.336875
-0.0340062 -0.0358004 0.317011
-0.024077 -0.0297129 0.471816
0.033751 -0.0335848 0.30941
-0.318487 -0.0301507 0.377464
0.0229752 -0.00493375 0.307382
0.0307063 -0.0402323 0.293611
-0.00100783 -0.0110624 0.139658
-0.180629 -0.0516431 0.384865
-0.406055 -0.0427404 0.353575
-0.141327 -0.0248386 0.391932
-0.334598 -0.0305437 0.381137
0.160979 -0.030381 0.435392
-0.190486 -0.0285735 0.449938
-0.0140824 -0.0626665 0.417646
-0.0182239 -0.0106078 0.167995
0.00858847 0.00258799 0.360312
-0.133356 -0.051623 0.361187
-0.00652464 0.0011978 0.205333
0.0313951 -0.0230208 0.445293
0.00743817 0.00067513 0.191021
0.107616 -0.0254279 0.429872
-0.028444 -0.0406154 0.457697
0.0300075 -0.011324 0.10437
-0.0213917 -0.0583615 0.402756
0.0324312 -0.0440218 0.393884
0.00408483 -0.0659782 0.453969
-0.000448576 0.000241196 0.0897837
0.0284421 -0.0495626 0.318471
0.145298 -0.052538 0.486614
0.0179131 -0.0596205 0.371816
-0.185301 -0.0385067 0.438652
-0.161126 -0.0252952 0.421206
-0.0264949 -0.00830118 0.313015
-0.057757 -0.0443802 0.326729
-0.179067 -0.044006 0.344575
0.188601 -0.0441915 0.371962
-0.0334653 -0.0216637 0.327189
-0.132316 -0.00938023 0.0848568
-0.0532737 -0.0338254 0.323927
-0.464698 -0.0358663 0.399404
0.0576236 -0.0550868 0.383994
-0.139869 -0.0404622 0.370601
0.0802823 -0.0507703 0.352942
-0.0301334 -0.0234835 0.26112
-0.258843 -0.0285248 0.407805
-0.0460835 -0.0109678 0.115539
0.0186894 -0.0259358 0.351359
-0.140745 -0.0509282 0.35927
-0.0279951 -0.0156693 0.258614
-0.139152 -0.00233944 0.0645842
0.31846 -0.047773 0.399323
-0.180386 -0.0249895 0.472246
0.0184133 -0.0400347 0.498765
0.0864714 -0.00116514 0.0867984
0.0168275 -0.0379345 0.190694
-0.0142895 -0.0258587 0.477442
-0.196662 -0.0436602 0.417442
-0.157484 -0.00790597 0.0556967
-0.355791 -0.044031 0.353672
-0.0345279 -0.0296901 0.349441
0.0358078 -0.0222152 0.429072
0.130179 -0.0385009 0.445548
-0.159543 -0.0223525 0.449978
0.154934 -0.0499074 0.356769
0.101103 -0.0264124 0.433796
-0.00985953 -0.0114417 0.132867
0.00682414 -0.0625511 0.334794
-0.454347 -0.0342884 0.364713
0.0639851 -0.00906675 0.123271
-0.0527228 -0.022791 0.378511
-0.125941 -0.0533496 0.390429
0.109772 -0.0242505 0.382367
-0.117374 -0.0330438 0.331131
-0.00238188 -0.0403811 0.52447
2.60895e-05 0.00213542 0.434904
0.0552729 -0.0550545 0.380651
-0.254245 -0.0377238 0.32259
-0.253061 -0.0498848 0.399961
0.193056 -0.0511207 0.450329
0.197455 -0.04465 0.434605
-0.00939476 0.00731415 0.0823376
-0.367317 -0.0372418 0.33192
-0.0814949 -0.0231014 0.416659
0.00240278 0.00914077 0.0447602
-0.105031 -0.00447272 0.0504981
0.0722082 -0.00305371 0.062256
0.0273122 -0.0114353 0.410442
0.0724461 -0.0102655 0.079173
0.135784 -0.035223 0.324143
0.458711 -0.0393372 0.334474
-0.0188604 -0.00252429 0.37783
0.143304 -0.0526874 0.475322
-0.0393929 -0.0558474 0.424235
-0.00562949 0.0395732 0.0685121
-0.0521498 -0.000606003 0.0878614
-0.0423672 -0.0362968 0.313889
0.280161 -0.0315575 0.348112
0.0282547 -0.0504675 0.460728
0.150409 -0.0246745 0.466378
-0.0767496 -0.0068451 0.051747
0.0671448 -0.022947 0.386705
-0.0823385 -0.0103871 0.0988706
-0.00968591 0.00218983 0.267317
-0.253812 -0.0335068 0.338452
-0.0677879 -0.000970771 0.0802137
0.00966484 -0.011669 0.12717
-0.183769 -0.0259023 0.40322
0.361233 -0.0314459 0.373516
0.0918149 -0.0234177 0.416065
0.351207 -0.0310063 0.382539
-0.0215566 -0.0571381 0.360673
-0.0217548 -0.00584031 0.418115
-0.0370626 -0.0219773 0.391459
0.16496 -0.0525607 0.405203
0.0192866 -0.0044507 0.242875
0.169271 -0.0541356 0.408032
-0.321988 -0.0460324 0.358008
-0.042389 -0.0560925 0.403528
0.375503 -0.0370304 0.33326
0.184731 -0.0519787 0.40328
0.0315586 -0.0450513 0.367877
-0.0362408 -9.77538e-05 0.115594
0.18179 -0.0585478 0.459714
-0.21422 -0.0273599 0.41316
-0.32197 -0.0301387 0.395284
0.35911 -0.0313377 0.375998
-0.0052194 -0.00491124 0.0779867
-0.182853 -0.0262753 0.412888
0.020979 -0.00436553 0.394328
0.303475 -0.0436471 0.347265
-0.0215425 -0.0563493 0.329208
0.0457996 -0.0468361 0.334849
0.0462626 -0.0552507 0.378686
-0.12184 -0.0245733 0.382706
-0.261831 -0.0431401 0.341406
-0.0129974 -5.33735e-05 0.251445
-0.42028 -0.0331192 0.376115
0.115336 -0.02388 0.408858
-0.0309408 -0.0461651 0.365212
0.0127894 0.00181634 0.334617
0.393144 -0.0350885 0.344203
0.0145304 -0.0618089 0.394205
-0.0339648 -0.0286212 0.402666
-0.134843 -0.041203 0.473311
-0.198685 -0.0408569 0.42808
-0.27234 -0.0439719 0.345537
0.157667 -0.0522908 0.399485
0.149956 -0.0252399 0.413632
-0.138618 -0.00831791 0.0950933
-0.236641 -0.0288112 0.41682
0.0201273 -0.0600286 0.463827
0.110738 -0.00786616 0.0575576
-0.0786173 -0.0103024 0.10685
0.0983544 -0.00724627 0.0536509
0.0334597 -0.0214326 0.323386
0.0871685 -0.054247 0.383774
-0.304236 -0.0297267 0.399283
-0.0153626 -2.24942e-05 0.352643
-0.0676762 -0.00155058 0.0733203
0.00992355 -0.0645535 0.447556
-0.182878 -0.04915 0.356564
0.479702 -0.0406684 0.345482
0.127994 -0.00446702 0.0494836
-0.016962 -0.000303726 0.308644
0.114731 -0.0242519 0.386957
0.0786363 -0.00123289 0.111386
-0.0150203 -0.00687298 0.0547848
-0.0194934 -0.056769 0.313832
-0.223729 -0.0422016 0.334257
0.0298054 -0.0134571 0.336058
0.00722557 -0.0495434 0.227907
0.322159 -0.0475308 0.402045
-0.360274 -0.0417182 0.345127
-0.363117 -0.0443953 0.355739
-0.0152754 -0.0123276 0.143321
0.185206 -0.025982 0.403943
-0.0291793 -0.0492557 0.450288
-0.176787 -0.0285652 0.399417
0.369529 -0.0459152 0.365388
0.176753 -0.0330145 0.35453
-0.0780976 -0.0226654 0.407081
0.0136527 -0.0513838 0.519087
-0.0113037 -0.0362556 0.506077
-0.12909 -0.0254067 0.426049
0.360921 -0.0392428 0.327295
0.159644 -0.0259852 0.370177
-0.15009 -0.0474775 0.383666
0.0349367 -0.031015 0.322342
-0.140278 -0.0335294 0.407902
-0.0163972 -0.0514909 0.266932
-0.0060969 -0.00571158 0.455111
-0.0269113 -0.0134656 0.259544
-0.0132267 -0.0106577 0.458538
0.272946 -0.0450955 0.349828
-0.33843 -0.0307612 0.397986
0.0235375 -0.0215705 0.187252
0.180353 -0.0409465 0.325416
-0.0167478 -0.0356013 0.18028
-0.003197 0.0323855 0.0334347
0.328467 -0.0346604 0.339065
-0.140407 -0.0460741 0.414536
-0.0167899 -0.000518064 0.342923
-0.0323844 -0.0446448 0.419125
0.00113547 -0.0664289 0.461613
-0.0454721 -0.00870672 0.0666257
0.128781 -0.00668017 0.0481638
-0.0154136 -0.0572051 0.303595
-0.14416 -0.0281642 0.44284
-0.0106303 -0.0443023 0.203617
-0.154405 -0.0339845 0.347428
-0.0274925 -0.0475912 0.301056
0.123995 -0.0045729 0.0489027
0.0968962 -0.0314751 0.335682
-0.0543797 -0.0378251 0.308928
0.0177929 -0.0562474 0.304796
0.0149202 -0.0246015 0.138487
0.18274 -0.0237988 0.458577
0.180061 -0.0258177 0.395442
-0.00412169 0.0518046 0.0470479
0.100953 -0.0234999 0.411059
-0.0185734 -0.00283814 0.261126
0.245131 -0.0283643 0.369443
-0.0327014 -0.0421907 0.328331
-0.0245266 -0.0559771 0.455797
0.126272 -0.00196677 0.0755862
0.0434553 -0.00083969 0.124449
0.316088 -0.0468481 0.360522
-0.268831 -0.03515 0.425192
-0.0276435 -0.0447773 0.288786
-0.0257469 0.000116263 0.11842
0.081364 -0.0358964 0.317989
0.0205294 -0.0414628 0.495817
-0.143066 -0.00843208 0.0925541
0.00268541 -0.0622907 0.315755
0.0253743 -0.0493084 0.298713
0.0290396 -0.0474238 0.335474
-0.00909855 0.0137765 0.0952681
-0.0211096 -0.00429258 0.386288
0.199204 -0.0419234 0.441598
0.0274541 -0.00198436 0.137559
-0.0226632 -0.00871759 0.225139
0.0608265 -0.000721712 0.0892625
0.027097 -0.0488846 0.477402
0.366744 -0.0461472 0.37547
0.268705 -0.04479 0.348274
-0.0101922 0.00227126 0.278088
0.0111484 -0.0634003 0.393738
0.0211283 -0.00360059 0.295877
0.176934 -0.0472208 0.37019
-0.233852 -0.027369 0.396531
0.374135 -0.0408727 0.339943
0.40968 -0.0327872 0.377604
-0.0133321 -0.0516137 0.25792
-0.395713 -0.0337073 0.40395
0.0101078 -0.00279503 0.156719
-0.0171802 -0.0301328 0.353677
-0.0436421 -0.0459791 0.452004
-0.00965274 -0.0402775 0.179534
-0.143636 -0.00702709 0.0499862
0.0325501 -0.0202506 0.373503
-0.294306 -0.0482439 0.406549
-0.220443 -0.0509394 0.399155
0.0911105 -0.00140318 0.106143
-0.0376347 -0.021475 0.409028
-0.0099552 -0.0613947 0.496085
-0.0188744 -0.0558508 0.37284
0.0266076 -0.0506887 0.314154
0.0211439 -0.00386155 0.369648
0.0253553 -0.0425646 0.259343
-0.015366 -0.00131946 0.0773949
-0.027688 -0.0471307 0.334242
-0.0219269 -0.00628373 0.42772
-0.0128718 -0.00315408 0.17178
0.138222 -0.0324792 0.467043
0.0446463 -0.0525961 0.356442
-0.392044 -0.0322083 0.389484
-0.030885 -0.0357399 0.279526
-0.121305 -0.00556969 0.0418271
-0.413919 -0.0331251 0.395505
-0.0741468 -0.00088621 0.092269
-0.0097935 -0.0402156 0.179556
-0.15902 -0.052137 0.380947
-0.00138523 -0.0663606 0.453736
0.083566 -0.00120908 0.0809448
0.198973 -0.0389228 0.440313
0.0148006 -0.042715 0.205075
0.0283412 -0.0398046 0.271551
-0.00213587 -0.005976 0.456261
-0.0892435 -0.00138223 0.0755169
0.00490907 -0.0514319 0.34072
-0.352656 -0.0310147 0.38473
-0.106904 -0.0537861 0.38702
0.0112842 -0.0351317 0.15553
-0.0174803 -0.00119149 0.354733
0.180579 -0.0509529 0.36314
-0.0807143 -0.0104303 0.0984207
0.195965 -0.0384058 0.480652
0.0267888 -0.0161554 0.229932
0.292475 -0.0293375 0.380716
0.273236 -0.0301574 0.356904
0.0318245 -0.00125267 0.0771206
0.00898415 -0.00360594 0.136246
-0.0267546 -0.0181197 0.220994
-0.123024 -0.0253493 0.362922
0.0258846 -0.0480821 0.293913
0.15804 -0.0550757 0.418525
0.245545 -0.0283073 0.371762
-0.0728354 -0.0553912 0.408867
0.0228034 -0.00610742 0.389139
-0.45901 -0.0349151 0.358048
0.238171 -0.0301253 0.421066
-0.0320792 -0.0334315 0.288971
0.0509359 -0.000488077 0.115571
0.0107396 0.00114343 0.403189
0.0177843 -0.0607658 0.445295
-0.104332 -0.0538191 0.421784
0.0103352 -0.02455 0.120023
-0.00671116 -0.00350367 0.108121
-0.383592 -0.0459776 0.386871
-0.00312712 -0.0514788 0.237756
-0.154364 -0.0265138 0.360501
0.197739 -0.0263832 0.392307
0.159009 -0.0285573 0.350804
-0.218001 -0.0275416 0.413643
0.0209811 -0.0570825 0.338079
0.123277 -0.048144 0.399275
0.132565 -0.00222127 0.065496
0.302924 -0.048365 0.390673
0.0187898 -0.0042698 0.23671
0.317724 -0.0468627 0.409921
0.0946999 -0.0236543 0.38849
0.261668 -0.0393621 0.321562
-0.0345547 -0.0336942 0.34668
-0.180183 -0.0532165 0.41558
-0.0270843 -0.00487842 0.0511515
-0.170824 -0.025851 0.411785
0.0502265 -0.0348351 0.319919
-0.232795 -0.030722 0.423676
0.226621 -0.0349274 0.331292
0.0232417 -0.0216339 0.427207
0.4107 -0.0335616 0.35859
0.0182154 -0.0384381 0.198496
0.0938872 -0.0409532 0.317242
-0.0251673 -0.0352752 0.316596
0.0137849 -0.0361854 0.170656
-0.0867654 -0.0316999 0.334161
-0.0272243 -0.0233924 0.217004
-0.350381 -0.0460907 0.360919
-0.0166875 -0.00624611 0.180331
-0.158164 -0.0224184 0.450825
0.254165 -0.0306736 0.349528
0.128843 -0.0377312 0.31423
-0.0926619 -0.00912547 0.110565
-0.0325242 -0.0512747 0.446496
0.0761127 -0.0489899 0.345838
-0.0761258 -0.0354539 0.319309
0.140563 -0.0510291 0.42857
-0.0257344 -0.00790122 0.343032
-0.271126 -0.0388119 0.428317
0.0837202 -0.010179 0.0851563
0.144443 -0.0516339 0.489929
0.19598 -0.0377229 0.40246
0.0109316 -0.00135402 0.186252
-0.321944 -0.0326194 0.348429
0.0159743 -0.00750803 0.164488
-0.219133 -0.0277961 0.416475
0.110991 -0.00548212 0.110756
0.178433 -0.048145 0.352356
-0.174786 -0.0331967 0.352657
0.00723077 0.0259606 0.0704443
-0.0240847 -0.0456844 0.26847
-0.0702348 -0.0227813 0.417872
0.130816 -0.0467064 0.440573
0.444727 -0.034578 0.397297
0.0460812 -0.0558213 0.397863
-0.0175537 -0.0349152 0.317447
0.00718563 -0.0443629 0.19614
-0.289281 -0.0483416 0.37683
-0.00111861 0.00294397 0.241752
-0.0174297 -0.0033614 0.228553
-0.308459 -0.0398721 0.423154
-0.23373 -0.0280459 0.36958
0.193232 -0.0508135 0.366113
-0.367527 -0.0464707 0.388226
0.0326648 -0.0218719 0.425514
-0.462627 -0.034349 0.376415
-0.164221 -0.0482602 0.351443
-0.281908 -0.0483818 0.367838
0.190319 -0.0429203 0.374239
-0.17246 -0.0324042 0.337202
-0.0109851 -0.0470167 0.21893
-0.133065 -0.00342376 0.0567849
-0.0138529 -0.00477359 0.448467
-0.0342057 -0.0301804 0.40192
-0.154178 -0.0255453 0.379985
0.0262084 -0.00878567 0.358104
-0.0392513 -0.0558776 0.423658
-0.0987981 -0.00129784 0.0908453
0.0101841 -0.0112398 0.104916
-0.0928836 -0.0277808 0.349336
-0.0233301 -0.0452231 0.490039
-0.0770029 -0.0540877 0.430007
0.0301519 -0.0476117 0.451527
-0.0011202 -0.000428807 0.129703
0.442908 -0.0338329 0.372612
0.325493 -0.0303047 0.37943
0.0272752 -0.00591232 0.0472851
-0.362106 -0.0318013 0.362282
0.140222 -0.0480652 0.486131
-0.0741238 -0.0225208 0.409054
-0.0283548 -0.0282292 0.233565
0.188341 -0.0514132 0.413752
0.00873093 0.0162882 0.0918138
-0.22593 -0.0503308 0.41028
0.359529 -0.0333208 0.409258
0.161874 -0.0474309 0.362152
0.453933 -0.0367719 0.343663
0.162132 -0.0531284 0.401168
-0.411898 -0.0342962 0.353512
-0.025261 -0.00923899 0.268429
0.196262 -0.0322606 0.458267
0.00754332 -0.00408528 0.113221
0.000720559 -0.0638187 0.348584
-0.125245 -0.0444632 0.333441
0.0313567 -0.00188359 0.0725853
0.0336356 -0.0389485 0.341911
0.00881254 0.00131661 0.225985
0.0907413 -0.0437397 0.327443
-0.0734344 -0.0104237 0.0904875
-0.00347545 -0.0087519 0.459509
0.025574 -0.0485988 0.295451
0.344255 -0.0311278 0.368426
-0.0206325 -0.00402893 0.394958
-0.0201714 -0.0466041 0.252223
-0.215887 -0.0504839 0.413573
0.127108 -0.0479547 0.346773
-0.0730158 -0.0400103 0.311711
-0.12125 -0.0539346 0.40578
0.250386 -0.0421384 0.336547
0.0046241 -0.0554748 0.268407
0.170573 -0.0597131 0.484436
-0.0128104 0.000190285 0.0991995
-0.136443 -0.0348773 0.438168
0.261174 -0.0440957 0.344944
-0.0132268 0.00098296 0.357389
0.162898 -0.0211945 0.457254
-0.424082 -0.0445985 0.37812
-0.00717331 -0.00382785 0.110557
0.183396 -0.0528349 0.421822
-0.0115883 0.000433482 0.113777
0.0216125 -0.00311711 0.324689
0.00720502 -0.0639188 0.487797
-0.289698 -0.033623 0.421426
-0.0160566 0.000312574 0.121086
0.0294609 -0.0149292 0.405275
0.151153 -0.0311036 0.385309
0.11435 -0.0533398 0.423085
0.00291074 0.00262931 0.240119
0.00585399 0.00372862 0.332648
-0.420039 -0.0445892 0.370216
0.159403 -0.0588476 0.487884
0.391949 -0.0326055 0.362917
0.00313424 -0.0346552 0.509662
-0.0228401 -0.0465886 0.454178
0.207733 -0.0273961 0.367304
0.0631351 -0.022357 0.413602
-0.020198 -0.00452053 0.427034
0.147016 -0.0531467 0.403704
0.345936 -0.0468358 0.379956
-0.00304466 0.0181837 0.0409109
0.00418395 -0.0133237 0.0741347
0.136272 -0.00904089 0.0652073
-0.163665 -0.0304218 0.372782
-0.226465 -0.0447126 0.343978
-0.0883897 -0.0520451 0.434658
0.435907 -0.043109 0.357794
0.0324954 -0.0252659 0.293745
0.323135 -0.0456839 0.356803
0.0561367 -0.0224155 0.420185
0.241011 -0.0283873 0.41396
0.160004 -0.0503479 0.384222
0.449814 -0.0339146 0.380363
-0.0928689 -0.00348104 0.0582197
0.117629 -0.0529264 0.426412
-0.122733 -0.0424554 0.444588
0.343702 -0.0468894 0.400521
-0.115167 -0.004718 0.0482606
-0.00230109 -0.00536393 0.0487843
0.00228246 0.0301292 0.0993741
-0.0334286 -0.0403471 0.365044
0.177228 -0.0348937 0.337581
-0.0222642 -0.0294725 0.338269
0.0810636 -0.0232641 0.38897
-0.000968051 0.00361103 0.267755
8.25206e-05 0.0400992 0.0158769
0.0451329 -0.000297386 0.113994
-0.125489 -0.0527019 0.366796
0.0334136 -0.0256437 0.417258
-0.224066 -0.0310116 0.425993
0.106813 -0.00988637 0.0898956
0.029046 -0.0144034 0.415294
0.0143945 -0.0183588 0.467271
-0.00497228 0.00339769 0.285637
0.194557 -0.0326384 0.434942
-0.00531918 0.00283324 0.371607
0.171105 -0.0447627 0.344712
0.00982733 -0.0628423 0.361305
0.229932 -0.0273622 0.38957
0.336787 -0.0315591 0.358926
0.37893 -0.0456652 0.366076
0.228935 -0.0506732 0.399001
0.312709 -0.046907 0.410657
0.207597 -0.0271753 0.374665
0.0761613 -0.00217952 0.117579
-0.211193 -0.0470252 0.428458
0.00834723 -0.0644404 0.411778
0.14582 -0.0476306 0.347326
-0.12721 -0.0528601 0.375041
0.0182391 -0.0565377 0.395525
-0.0248706 -0.00934015 0.259528
-0.0192052 -0.00647541 0.207762
0.014609 -0.00340022 0.0624013
0.303901 -0.0299602 0.370286
0.0183277 -0.0473192 0.505661
-0.00298548 0.0597039 0.0290411
-0.0344961 -0.000730414 0.0807696
-0.00273357 0.00247063 0.403374
0.0822566 -0.00756663 0.0567037
0.281269 -0.0367273 0.328141
0.103395 -0.0540755 0.393478
0.032648 -0.0313843 0.291712
0.140356 -0.0431999 0.382271
0.00558173 0.00335195 0.349561
0.0096673 -2.44878e-05 0.202667
0.0290767 -0.0142533 0.408711
0.0312017 -0.0451135 0.339912
0.128492 -0.00924962 0.0707768
0.091925 -0.0102035 0.0957707
0.464206 -0.0434798 0.386874
0.192991 -0.029723 0.451685
0.0170286 -0.00507734 0.199303
-0.0179731 -0.0610608 0.426716
0.190077 -0.048471 0.427925
-0.0963202 -0.0086289 0.0637274
-0.00682087 -0.0249277 0.338197
-0.108277 -0.00289984 0.0617087
-0.286638 -0.0383824 0.425792
-0.38186 -0.0452503 0.402848
-0.137737 -0.0427674 0.404892
-0.088211 -0.0546726 0.399206
0.00372983 -0.0307539 0.498949
0.0165522 -0.0294403 0.482668
0.0280472 -0.0134153 0.43647
-0.144925 -0.02766 0.443255
-0.172029 -0.00821447 0.0812241
0.0292669 -0.0126423 0.344889
0.419445 -0.033089 0.376493
0.292809 -0.0480055 0.363014
0.300557 -0.0483749 0.399027
0.00331625 -0.0626146 0.498717
-0.42002 -0.0330949 0.389353
0.0229641 -0.0246896 0.442623
-0.183972 -0.0458927 0.367209
0.01064 -0.0273954 0.128196
0.0252959 -0.0552672 0.424549
0.0262428 -0.0380087 0.245056
0.162612 -0.06161 0.459149
-0.0164014 -0.0490352 0.249814
-0.363063 -0.0386305 0.326404
-0.0291413 -0.044405 0.299837
0.019201 -0.0213613 0.395645
-0.0274214 -0.000146346 0.0923263
-0.137829 -0.0430086 0.404963
-0.479944 -0.0428597 0.36573
-0.440803 -0.0337568 0.39008
-0.153468 -0.0353839 0.335323
0.375549 -0.0316226 0.388579
-0.397945 -0.0325648 0.369904
0.193706 -0.0347368 0.434575
-0.397256 -0.0390329 0.328194
-0.00337272 -0.048086 0.346068
-0.0171791 -0.000617834 0.134595
-0.465324 -0.0427497 0.359229
0.0240144 -0.0503509 0.297465
-0.0195714 -0.00371798 0.264004
0.329942 -0.0308802 0.405674
-0.19543 -0.0501706 0.461091
-0.0816886 -0.0482317 0.445648
-0.00682087 -0.0299082 0.344921
-0.0265328 -0.0287554 0.341255
0.0317171 -0.0446602 0.44416
-0.0230982 -0.0138809 0.453391
0.046436 -0.0111127 0.108842
0.018828 -0.0273227 0.163273
-0.0293416 -0.0139304 0.379893
-0.00902132 0.00335107 0.310564
0.462688 -0.0432728 0.361481
0.00220745 0.00463433 0.320238
-0.0327012 -0.0218727 0.425506
0.000866879 -0.0641559 0.361565
0.406635 -0.0394413 0.331766
0.0882932 -0.0537753 0.428892
0.0661233 -0.00971649 0.118826
0.381726 -0.0453277 0.361017
0.0014285 -0.00100579 0.102665
-0.00311945 -0.0604686 0.512117
0.0160056 -0.000966016 0.270158
-0.0159565 -0.0137904 0.460734
0.0303163 -0.0472834 0.36786
-0.102907 -0.00149066 0.0990868
-0.14683 -0.0426277 0.328572
-0.03403 -0.0256504 0.317087
0.151403 -0.0548088 0.431931
-0.270133 -0.0288953 0.374817
0.033519 -0.0396878 0.351284
-0.178265 -0.0244291 0.472935
0.0991619 -0.0386792 0.308686
-0.00223406 0.000143412 0.15266
0.463443 -0.042366 0.398019
0.0256294 -0.0534362 0.363484
0.0118987 -0.00692703 0.13778
-0.0415622 -0.0489269 0.342325
0.0346512 -0.033273 0.374943
0.272916 -0.0468046 0.418162
0.0234006 -0.0243489 0.466186
0.159849 -0.0524397 0.41173
-0.188885 -0.0292821 0.434892
-0.00389846 -0.0548499 0.262959
-0.189746 -0.0487105 0.427127
0.322851 -0.047618 0.3844
-0.0217778 -0.0059621 0.421682
-0.029976 -0.0143042 0.350622
-0.327123 -0.0411393 0.338745
0.128413 -0.0432831 0.329295
0.0333555 -0.0356439 0.44488
0.192483 -0.0339013 0.481198
0.0300824 -0.0218686 0.388616
0.0230036 -0.0574887 0.461239
-0.0224481 -0.0379359 0.215045
-0.0124423 -0.00661668 0.453875
0.0129728 -0.0020282 0.195137
0.432701 -0.0429044 0.402234
0.0648087 -0.00719324 0.0548094
-0.0150932 -0.0216744 0.357328
-0.0208967 -0.0176421 0.170851
-0.0116116 0.000218222 0.421137
-0.143577 -0.0498785 0.427896
0.321986 -0.0318815 0.411156
0.0035415 -0.049651 0.336875
0.356669 -0.040182 0.333795
0.0245337 -0.0211822 0.196529
-0.105249 -0.0536218 0.423642
0.0149681 -0.0597371 0.324208
0.194832 -0.036466 0.399411
-0.136699 -0.00533516 0.0428132
0.00490419 -0.00328288 0.148255
0.190695 -0.0517896 0.478674
0.029397 -0.0229631 0.250387
-0.291989 -0.0295094 0.37443
-0.356865 -0.0453799 0.358856
-0.145885 -0.0254914 0.420406
0.00345091 0.00390379 0.295518
0.360852 -0.0339662 0.346138
-0.269814 -0.0449297 0.348906
-0.14106 -0.052248 0.365343
-0.00418637 -0.0533118 0.252105
-0.00562445 -0.0066966 0.075639
-0.00732914 -0.000208144 0.170224
-0.235859 -0.02791 0.410396
-0.0111917 0.000965497 0.40068
0.114227 -0.00632649 0.0462786
-0.150345 -0.00234302 0.0758673
-0.166692 -0.0438505 0.335062
-0.184133 -0.0512876 0.376162
0.133393 -0.0411187 0.321612
0.128358 -0.0489112 0.394413
0.197401 -0.0432946 0.427921
-0.00646915 -0.0652689 0.431703
0.00853307 0.000894791 0.210606
-0.0346586 -0.0318348 0.375625
-0.0389132 -0.00789471 0.0610642
-0.0775364 -0.0236015 0.374228
-0.194285 -0.0448209 0.490898
0.095079 -0.00670423 0.115662
-0.00127803 0.0252133 0.0292282
-0.0291514 -0.0336535 0.254555
0.424537 -0.0380836 0.408118
-0.185388 -0.0514906 0.414193
0.390036 -0.043974 0.356704
0.151329 -0.0301443 0.395752
0.0118175 -0.0024739 0.172161
-0.0186401 -0.00230217 0.373786
0.00261104 0.000468189 0.162537
0.00508898 -0.0406614 0.523544
-0.0783398 -0.0291823 0.343088
-0.0703865 -0.0429209 0.322428
-0.152081 -0.0473617 0.346906
-0.0232914 -0.0459212 0.265416
0.0256285 -0.0541313 0.391832
0.262848 -0.0398165 0.324922
0.0814069 -0.0551174 0.407781
-0.249327 -0.0286546 0.363524
0.0101139 0.00332492 0.316693
-0.140477 -0.0422775 0.442492
0.337271 -0.0367901 0.331625
0.0318855 -0.037242 0.294711
0.238342 -0.0304188 0.34906
0.438089 -0.0337423 0.369385
-0.0444436 -0.0030221 0.0637607
0.010274 -0.0633622 0.382642
0.0289441 -0.0146665 0.285601
0.0389111 -0.000782421 0.126102
-0.0268338 -0.0196605 0.455252
-0.0982655 -0.00412896 0.053292
-0.0313396 -0.0076071 0.0593355
0.0126458 -0.00587281 0.151928
-0.133641 -0.0503648 0.431636
0.430818 -0.0438409 0.360069
0.226749 -0.0429938 0.337528
0.189202 -0.0357986 0.325523
0.474593 -0.0401632 0.341494
0.0334183 -0.0388244 0.438612
-0.00647549 0.00183809 0.403799
0.00590082 -0.0641908 0.389692
0.0197208 -0.0603994 0.43311
0.102446 -0.0367957 0.316001
0.277228 -0.0324137 0.344127
-0.166283 -0.00545123 0.0406148
-0.411085 -0.044204 0.401281
-0.0286308 -0.024854 0.356096
0.0276653 -0.0488004 0.474226
0.161149 -0.0411867 0.3245
0.23637 -0.0504273 0.399424
0.00540929 -0.0118362 0.112375
-0.0296531 -0.0183218 0.266089
-0.00327336 -0.0657707 0.450324
-0.197643 -0.0468566 0.466775
-0.19344 -0.0390503 0.438139
-0.0268473 -0.0119922 0.272022
-0.0258307 -0.0531246 0.356849
-0.245028 -0.0494975 0.412731
-0.0168469 -0.000817447 0.35318
-0.147403 -0.00486533 0.0960289
-0.0711239 -0.0273895 0.442019
-0.190165 -0.0506186 0.430592
-0.00122101 0.00340829 0.375819
0.0289361 -0.0192062 0.252567
0.0109933 -0.0637353 0.403405
-0.19534 -0.0393852 0.485038
0.412199 -0.0359694 0.341482
-0.322894 -0.0405179 0.333976
0.23355 -0.0496957 0.366106
0.00454258 0.00157856 0.427196
-0.026876 -0.0152806 0.448072
-0.137214 -0.0327518 0.440448
0.0152738 -0.000669882 0.0820907
0.113093 -0.0523257 0.429623
0.00488189 -0.00938565 0.0701011
-0.0171709 -0.0579759 0.314692
0.0450883 -0.0552782 0.378496
0.0221393 -0.0115847 0.116417
-0.15168 -0.0527014 0.411888
0.414355 -0.0414713 0.346938
0.0158333 -0.0591067 0.318233
0.180903 -0.0260953 0.429602
0.125627 -0.00825297 0.0596664
0.196379 -0.0335605 0.446468
-0.0494841 -0.0225771 0.382734
-0.0333002 -0.0322981 0.443785
-0.148049 -0.0491378 0.40383
-0.0269651 -0.0520882 0.35764
-0.0141252 -0.000305614 0.0847744
0.0194705 -0.0102576 0.179814
0.010214 0.00181423 0.263884
-0.0317115 -0.0292315 0.451547
0.276285 -0.0398686 0.326191
-0.199746 -0.0394336 0.437078
0.281968 -0.0399355 0.327051
-0.237106 -0.0504034 0.396845
0.0871685 -0.0369096 0.44983
0.247429 -0.0278331 0.392106
0.0913756 -0.0541332 0.383938
-0.139254 -0.0418356 0.384024
-0.00879999 0.00346766 0.323726
0.445577 -0.0358326 0.348851
0.0217597 -0.0176802 0.176906
0.0234589 -0.00561136 0.303808
0.0989287 -0.0526382 0.361748
0.0198579 -0.011371 0.127057
-0.0119246 -0.0635656 0.413115
0.172994 -0.0516648 0.378298
-0.337522 -0.0468268 0.366967
-0.0100757 -0.00537036 0.130996
0.056017 -0.00181918 0.0719168
0.0846154 -0.0392619 0.309074
0.0335491 -0.0247007 0.379561
0.0265513 -0.0125468 0.260123
-0.0907158 -0.00769783 0.0572622
0.00324241 0.0017395 0.42939
0.382571 -0.0455361 0.364241
0.00902105 0.00987693 0.0785127
0.0294726 -0.0130052 0.311573
0.0148561 -0.0330576 0.49317
0.327924 -0.0337577 0.342431
0.00686339 -0.062154 0.32051
0.0169692 -0.00705986 0.174412
0.295777 -0.0364546 0.330133
0.0298725 -0.0156513 0.401444
-0.285357 -0.0484589 0.377055
-0.297678 -0.0293412 0.389315
0.197144 -0.037793 0.474303
-0.463725 -0.0352627 0.396603
0.185314 -0.0507971 0.363001
-0.149181 -0.0256462 0.444501
0.255045 -0.0464964 0.422579
0.436018 -0.0400822 0.338346
0.164995 -0.0272041 0.402007
-0.0303963 -0.0555789 0.374637
-0.0332469 -0.0222878 0.369945
0.134548 -0.0526236 0.374041
-0.0104449 0.00184303 0.102822
-0.152349 -0.0265365 0.425215
-0.0169362 -0.0558455 0.370805
0.193671 -0.0507794 0.467731
-0.00981025 0.00100293 0.415177
-0.459431 -0.0398893 0.338509
0.0184717 -0.0605399 0.416399
0.359309 -0.0353546 0.338499
-0.121861 -0.0441016 0.443534
0.0339709 -0.0374538 0.411518
0.193248 -0.0385432 0.437706
0.127638 -0.0534819 0.396536
-0.0530354 -0.0106786 0.0860683
0.0972599 -0.0279661 0.348928
-0.403644 -0.0453788 0.385743
-0.0135281 -0.0257899 0.447389
-0.0321355 -0.0562207 0.421194
0.0226634 -0.010386 0.447001
0.337915 -0.0464427 0.407264
-0.0116452 -0.0216744 0.355189
-0.0135735 -0.0427658 0.45804
0.011607 -0.000340032 0.218607
0.19413 -0.0394361 0.49069
0.0272487 -0.0517276 0.46742
0.0419865 -0.0557371 0.424799
-0.280765 -0.0488988 0.387579
0.0893491 -0.0263571 0.354466
-0.176288 -0.0573424 0.435827
0.0869367 -0.0240491 0.428572
-0.202037 -0.0509207 0.380843
0.0209039 -0.00285409 0.306199
0.303344 -0.0480502 0.380401
-0.0661555 -0.0550865 0.392145
-0.21338 -0.0268295 0.392822
0.273958 -0.0444743 0.423851
0.149614 -0.0265756 0.436905
0.305457 -0.0370866 0.421844
-0.0768043 -0.0551037 0.413245
-0.28002 -0.0372232 0.326189
0.0254326 -0.0533527 0.352722
-0.0147961 -0.0337529 0.336875
0.0769698 -0.000880932 0.102567
-0.346338 -0.0323305 0.35518
-0.174739 -0.0416297 0.438659
-0.0646638 -0.0336713 0.325264
0.0232635 -0.014632 0.196656
0.198231 -0.0510438 0.414511
0.0332219 -0.0208448 0.343527
-0.0158216 -0.00340908 0.204058
0.0281317 -0.0103223 0.341191
0.100764 -0.00252309 0.0647751
-0.216338 -0.0449967 0.344088
-0.0257898 -0.0497184 0.303367
-0.479362 -0.0348275 0.384604
0.202908 -0.0504971 0.418717
0.185781 -0.0530939 0.433715
0.19881 -0.0486658 0.425266
0.0718618 -0.0454917 0.448814
-0.37149 -0.0453921 0.404645
0.00779401 -0.0638944 0.388946
0.403186 -0.0330226 0.361048
0.0339795 -0.0253597 0.334651
0.173309 -0.0541864 0.411247
0.379516 -0.031949 0.374934
0.126286 -0.0384333 0.445944
0.00976684 -0.0183917 0.105823
-0.0311333 -0.0562663 0.398656
-0.00954914 -0.000733485 0.0818945
0.344984 -0.0448254 0.412172
-0.101933 -0.024159 0.423592
0.0213156 -0.00336563 0.0623429
-0.0269823 -0.000304244 0.128663
-0.110946 -0.00159067 0.0941485
-0.0118439 -0.0452246 0.521832
-0.389312 -0.0322097 0.376545
0.223147 -0.0369702 0.323364
0.0124318 -0.0336459 0.153586
-0.0181263 -0.0592421 0.484738
-0.0196201 -0.0600408 0.441844
0.0073516 0.00268048 0.271286
-0.360762 -0.0345328 0.342027
0.306442 -0.04777 0.372288
-0.0046668 0.00218135 0.233559
0.0698796 -0.0480693 0.341779
0.155912 -0.00704208 0.0495302
0.0302951 -0.0469794 0.35134
0.0473538 -0.0224488 0.426921
-0.0227908 -0.00643151 0.399976
0.0153891 -0.0396682 0.192745
-0.0737816 -0.0102353 0.0785866
0.321778 -0.047349 0.372555
-0.0336208 -0.0253312 0.38168
0.0217854 -0.0535089 0.304337
0.0224052 -0.00578181 0.278572
-0.0104414 -0.0333931 0.336875
0.187645 -0.0513334 0.415594
0.0793336 -0.00191564 0.0701477
0.255415 -0.0356732 0.330395
-0.0293627 -0.0234819 0.248866
0.265823 -0.0469881 0.356283
0.0794003 -0.0511171 0.354165
-0.298567 -0.0294137 0.396456
0.0345921 -0.0334303 0.343881
-0.151059 -0.0554331 0.491071
0.0331761 -0.041811 0.366585
-0.00106206 -0.0394372 0.160309
-0.401199 -0.0454068 0.390093
-0.199768 -0.0506118 0.364773
-0.140509 -0.036556 0.319434
-0.00259007 -0.00109531 0.108737
0.000378141 -0.000488643 0.119376
0.0420447 -0.00972915 0.0741655
-0.00280196 -0.0201045 0.473884
-0.198512 -0.0515238 0.403702
0.00639843 -0.0624505 0.328872
-0.17054 -0.0223995 0.446784
0.0232835 -0.023584 0.439443
0.143359 -0.00227817 0.0729025
0.0934098 -0.0025774 0.112284
-0.0285965 -0.0123373 0.37805
-0.17754 -0.051447 0.418472
-0.00292727 -0.0257555 0.485801
0.155711 -0.02537 0.387363
0.0231707 -0.0567853 0.447066
-0.101129 -0.00991497 0.0859004
0.0114126 0.00269423 0.310673
0.0610875 -0.00267319 0.0655155
-0.00720448 -0.0261325 0.336875
0.158139 -0.00518446 0.042916
-0.203629 -0.0326206 0.338457
0.134089 -0.025063 0.377555
0.00073196 0.00299724 0.241155
-0.23783 -0.0279775 0.375732
0.1842 -0.0465805 0.433639
0.00119318 -0.00444862 0.0457307
0.0167388 -0.0604074 0.380867
0.025136 -0.0223506 0.367645
0.0348535 -0.0317097 0.347392
-0.420138 -0.0329766 0.385769
-0.238989 -0.0356736 0.429405
-0.00615065 -0.0083235 0.0779394
0.250846 -0.0482459 0.417496
-0.185571 -0.034264 0.366859
0.000257384 0.00314418 0.392882
-0.310585 -0.0308065 0.359354
0.021151 -0.05891 0.416102
-0.410225 -0.044854 0.396993
0.0219278 -0.0261176 0.179393
-0.0558907 -0.0250435 0.357193
-0.215538 -0.0454643 0.430737
-0.147788 -0.0505286 0.414591
0.00361627 0.00330846 0.272095
-0.153359 -0.00770133 0.0544085
0.0243108 -0.0318807 0.205962
0.258532 -0.0281527 0.392373
0.0341161 -0.0288885 0.388911
-0.00644035 0.0167054 0.0564725
0.0348935 -0.0316212 0.332562
-0.0456725 -0.0221856 0.422843
0.0569113 -0.000688769 0.0873756
0.131156 -0.0272747 0.353786
0.0291899 -0.0204754 0.253374
-0.358072 -0.0465261 0.398063
0.0340617 -0.0304662 0.427863
-0.0240561 -0.0503912 0.297663
0.138296 -0.0480099 0.438842
-0.168985 -0.00267256 0.0735996
-0.0871685 -0.025625 0.434013
-0.0171802 -0.0259438 0.338402
-0.00952764 -0.00538765 0.123919
-0.193903 -0.0446617 0.340699
0.0302463 -0.0350207 0.270583
-0.373462 -0.0316516 0.382767
-0.0180392 -0.0499504 0.26153
-0.0991223 -0.00901572 0.108369
-0.271588 -0.029 0.372627
-0.200226 -0.048115 0.427224
-0.0285428 -0.0103634 0.318933
-0.0268677 -0.0118721 0.43601
-0.339197 -0.0472887 0.393889
0.000949802 -0.00133427 0.080492
-0.188923 -0.0514538 0.412403
-0.141373 -0.0322355 0.415568
-0.421829 -0.0339658 0.39929
0.0322444 -0.0230227 0.295215
-0.0177435 -0.0587653 0.336025
0.0342644 -0.0291964 0.375339
0.338022 -0.0450592 0.412519
-0.0257286 -0.0219259 0.382603
0.0559986 -0.0221064 0.404791
0.0220062 -0.00742767 0.0584688
0.0138748 -0.061438 0.368993
-0.0384196 -0.0106627 0.125669
-0.0263785 -0.0318364 0.329635
0.0120749 -0.0634616 0.444079
-0.0324126 -0.0283285 0.285075
0.104526 -0.0534689 0.373988
0.016995 -0.0165792 0.148256
-0.0189267 -0.0554273 0.302627
0.214841 -0.0378295 0.319574
-0.355373 -0.0468025 0.387853
0.46875 -0.0425075 0.396198
-0.453356 -0.0381897 0.334065
-0.0324881 -0.0443223 0.412666
0.0427002 -0.0329207 0.326633
-0.157966 -0.0289924 0.390412
-0.470621 -0.0433582 0.383305
0.0824715 -0.0543851 0.383966
-0.342395 -0.0469393 0.400374
0.136376 -0.00905594 0.0916915
-0.395461 -0.0452058 0.366004
-0.154894 -0.028131 0.429589
0.0171344 -0.0479111 0.244389
0.0122147 -0.00205673 0.143805
0.10502 -0.0308716 0.443265
-0.0175349 -0.0617222 0.460687
-0.0942414 -0.054118 0.422533
-0.142786 -0.00223399 0.0853117
0.00265845 0.000442701 0.162168
-0.380793 -0.0414409 0.344488
0.0145254 -0.00834461 0.150076
0.0267262 -0.0325785 0.223574
0.0739827 -0.0102648 0.0807071
-0.377264 -0.0320422 0.368287
-0.0116716 -0.0542655 0.271133
-0.19514 -0.0439494 0.338132
0.0523291 -0.0547691 0.432461
-0.0344182 -0.0298894 0.367961
-0.356853 -0.0338772 0.346016
0.013701 -0.0381629 0.505847
0.132922 -0.0455836 0.33839
0.280635 -0.0333054 0.340993
0.0235758 -0.0105812 0.223189
-0.32611 -0.0305516 0.402789
-0.354116 -0.0411839 0.34086
0.00304805 -0.0441741 0.191577
-0.217315 -0.0482189 0.423395
0.0101529 -0.0475166 0.219666
0.169345 -0.0269913 0.403035
-0.00612638 -0.0649206 0.417148
-0.446749 -0.0337937 0.382404
0.28637 -0.0477484 0.361096
0.113457 -0.0525598 0.36283
0.0993604 -0.00965784 0.0710169
-0.0517156 -0.0361513 0.315058
0.380029 -0.0460492 0.391397
-0.255334 -0.0497964 0.393697
0.0700401 -0.0553631 0.405241
-0.416434 -0.0410988 0.344386
-0.0333911 -0.040939 0.419288
-0.205853 -0.0507315 0.378079
-0.000635149 0.00161846 0.184719
0.00795913 0.0207012 0.0966527
0.198584 -0.0514508 0.405295
0.0297458 -0.0442715 0.465498
0.340934 -0.0404689 0.334821
0.0723243 -0.0466918 0.33682
-0.033704 -0.0247708 0.358615
0.145029 -0.0288285 0.435376
-0.0590342 -0.000721417 0.087436
0.00020091 -0.0665395 0.471555
-0.432339 -0.0441195 0.361834
0.0327377 -0.0425506 0.349437
0.028213 -0.0564439 0.401884
-0.1108 -0.0461456 0.33841
-0.339622 -0.0403659 0.33399
0.116975 -0.00678052 0.0494313
0.26818 -0.0492491 0.387421
-0.13983 -0.0331991 0.416376
-0.0320477 -0.05554 0.374899
0.0134768 -0.0576698 0.504407
-0.134845 -0.0280965 0.433075
0.0298821 -0.048486 0.38668
-0.00901461 -0.0327784 0.500363
0.37411 -0.0320206 0.399466
0.19048 -0.0487858 0.418479
0.00959805 -0.0620443 0.330972
-0.22231 -0.0409182 0.433204
-0.00958548 0.00115703 0.410511
-0.0141423 -0.00034435 0.390175
0.0302464 -0.015611 0.376346
-0.424091 -0.0333486 0.368452
0.0246554 -0.0111424 0.0870242
-0.0272861 -0.0182553 0.229102
-0.0943968 -0.0536723 0.371199
0.0100691 -0.0140904 0.464625
0.358547 -0.0441692 0.354454
-0.0115488 -0.0107832 0.136617
0.154128 -0.0590771 0.456385
0.103598 -0.00991314 0.0883258
-0.382332 -0.0419295 0.348119
-0.0281682 -0.0113853 0.302336
-0.327138 -0.0307144 0.366439
-0.0275305 -0.0430273 0.279437
-0.263464 -0.0493431 0.386098
0.0120311 -0.0125196 0.11723
-0.0303175 -0.0187772 0.275411
-0.0230186 -0.0568884 0.403739
0.314453 -0.0302554 0.370141
0.0144589 -0.000548235 0.257263
-0.413001 -0.033464 0.359735
0.0133825 -0.00355917 0.172917
0.0739587 -0.0103214 0.0843689
0.367137 -0.0327316 0.405288
-0.00490585 -0.0589627 0.519244
-0.413561 -0.0447152 0.36673
0.0306859 -0.0447828 0.457843
-0.416202 -0.0448196 0.39343
-0.0126196 -0.0574701 0.50756
0.0295918 -0.0252522 0.247873
0.00516453 -0.0118202 0.125802
0.089207 -0.00305163 0.115777
-0.433324 -0.033428 0.380741
-0.175883 -0.0378191 0.317024
-0.145782 -0.00879559 0.0894124
-0.00450787 0.000925684 0.437802
0.0160263 -0.00175329 0.406696
0.0220118 -0.00338662 0.141868
0.254914 -0.0493893 0.379489
0.034528 -0.0337232 0.330778
0.00417996 -0.0642028 0.380941
-0.0980725 -0.0086068 0.111041
-0.00361187 -0.00238514 0.147532
0.195166 -0.0395161 0.318255
-0.0181287 -0.00280932 0.403334
-0.178858 -0.0284981 0.406018
-0.470619 -0.0427047 0.394669
-0.00792186 -0.0548525 0.26718
0.111872 -0.0293125 0.344826
-0.103151 -0.00307614 0.0606713
0.0250126 -0.0440737 0.263733
-0.0139244 -0.024717 0.13473
-0.0156899 -0.000746995 0.373668
-0.0329599 -0.021041 0.371734
-0.0367515 -0.0508509 0.349118
0.133047 -0.0365421 0.31899
-0.0889066 -0.0408318 0.316313
-0.026635 -0.0555018 0.434754
-0.00292861 0.00393954 0.343164
0.139907 -0.0483708 0.428258
0.0146887 -0.0584106 0.309735
-0.0249066 -0.036934 0.478847
0.451252 -0.0439621 0.383795
-0.00584046 -0.0210996 0.474622
