0.022398 -0.0908534 0.743711
0.298367 -0.086202 0.456502
-0.0906296 -0.0507667 0.108941
0.196512 -0.106074 0.463649
-0.00570267 -0.00881418 0.181314
-0.168071 -0.092208 0.458879
-0.243377 -0.101099 0.49641
-0.183203 -0.108017 0.465487
-0.144678 -0.0932928 0.46404
-0.253585 -0.0878574 0.504018
-0.179516 -0.0912479 0.484248
0.00773681 -0.107507 0.646841
0.0509778 -0.0444736 0.0966724
-0.260674 -0.0999621 0.48285
0.198749 -0.0904611 0.500143
0.340643 -0.0944347 0.476378
-0.18788 -0.0925209 0.444803
0.0180034 -0.0481556 0.15895
-0.181197 -0.0736134 0.487842
-0.00790642 -0.0971681 0.317516
0.306495 -0.0968855 0.485025
0.0469058 -0.0221303 0.348843
-0.0411305 -0.105106 0.542496
0.319413 -0.0860396 0.513646
-0.0637469 -0.10319 0.401494
-0.0490911 -0.0999091 0.430334
0.0699987 -0.0951076 0.50301
0.000921715 -0.0518077 0.0859072
-0.0927274 -0.0949562 0.472505
0.0531828 -0.0834204 0.435185
0.0522821 -0.0295901 0.517711
-0.010693 -0.0577984 0.592584
-0.0786974 -0.09559 0.446979
0.205361 -0.0786414 0.587113
-0.0139673 -0.106395 0.38619
-0.00697476 -0.0415399 0.598516
0.0736549 -0.0971941 0.435393
0.156156 -0.0692651 0.534763
-0.214741 -0.0894387 0.490762
0.0223291 -0.0892586 0.275568
0.0385063 -0.104977 0.573197
-0.28487 -0.0881854 0.446321
0.0530526 -0.0867864 0.482856
-0.00599987 -0.0757443 0.780234
0.144607 -0.0990305 0.478357
-0.292147 -0.0887881 0.517756
-0.0372964 -0.102364 0.644507
0.168142 -0.109377 0.515841
0.142611 -0.0983642 0.593488
-0.167118 -0.108238 0.480558
-0.00562612 -0.101313 0.726592
-0.000406995 -0.0442052 0.107114
0.143971 -0.0932438 0.469511
0.0992278 -0.0986182 0.425107
-0.182263 -0.0681876 0.554487
0.283044 -0.0898095 0.435151
-0.0474591 -0.0983398 0.569336
0.0264255 -0.106903 0.561382
0.292187 -0.0857949 0.474197
-0.0348064 -0.0516934 0.11994
-0.00952891 -0.107608 0.438622
0.0918906 -0.0470277 0.0835168
-0.0969315 -0.0951666 0.458832
0.0101602 -0.00596138 0.341725
-0.0482159 -0.0171693 0.450809
-0.430293 -0.0882453 0.469621
-0.034279 -0.104419 0.410367
0.145893 -0.0855782 0.456954
0.0245806 -0.0425595 0.194633
-0.179106 -0.0985758 0.406393
-0.00175403 -0.0298189 0.266634
-0.00161262 0.0214422 0.174
-0.141338 -0.0885812 0.580454
-0.144468 -0.10783 0.493222
-0.010693 -0.0475805 0.611939
-0.252877 -0.100437 0.479309
0.122762 -0.0450411 0.101861
-0.0303956 -0.105848 0.632215
0.0737014 -0.107601 0.43335
-0.163994 -0.0921467 0.497381
0.285902 -0.0862706 0.504887
-0.0427631 -0.093042 0.320416
-0.00230376 -0.000739336 0.415978
0.0387171 -0.0498248 0.0953244
-0.0896724 -0.0950099 0.500691
0.0493039 -0.0190876 0.461715
0.0376618 -0.0499292 0.629478
0.320438 -0.0891499 0.519668
0.203118 -0.0785483 0.501906
-0.0501119 -0.0842962 0.58401
0.170798 -0.105969 0.476804
-0.0530203 -0.0876303 0.471501
0.0404081 -0.064318 0.677202
0.00313142 0.0493864 0.0542982
-0.00621247 -0.0129606 0.283209
0.0385335 -0.0459826 0.259489
0.0360668 -0.1066 0.424842
-0.00554282 -0.0421023 0.124619
0.402213 -0.0903127 0.480087
-0.0173448 -0.109257 0.445315
-0.00636658 -0.0289786 0.180993
-0.0530687 -0.0391767 0.43254
0.00558495 0.00877509 0.154259
0.00265814 0.0129935 0.0657111
-0.159737 -0.108963 0.515584
-0.0662713 -0.109886 0.457214
-0.0531178 -0.0850821 0.448193
-0.0487057 -0.0180328 0.452593
-0.197867 -0.102157 0.442437
0.162507 -0.0727265 0.496986
-0.00383863 -0.0368812 0.303058
-0.000307518 -0.0012479 0.226749
0.0469997 -0.0150251 0.49748
-0.202233 -0.0886762 0.617342
0.185743 -0.0722049 0.50149
-0.036695 -0.0940429 0.311259
0.111803 -0.0948931 0.466377
0.0499003 -0.0983695 0.406798
-0.319146 -0.084313 0.483283
-0.0108708 -0.0962576 0.512686
0.00130737 -0.0438125 0.615817
-0.330952 -0.091574 0.438201
-0.09558 -0.102214 0.526718
-0.0268074 -0.048238 0.0823222
-0.393986 -0.0868821 0.438509
0.188576 -0.0909782 0.500361
-0.183313 -0.107796 0.444095
-0.399308 -0.0854754 0.431234
-0.00343675 0.0527297 0.133613
-0.00762145 -0.0133047 0.281288
-0.104447 -0.106233 0.423468
0.0530894 -0.0750906 0.537031
0.0109705 -0.000260312 0.520353
0.107287 -0.0507577 0.13118
0.00143344 -0.0119814 0.0624017
0.0538201 -0.0667243 0.495917
-0.177109 -0.0694897 0.521757
0.355106 -0.093297 0.466268
0.475417 -0.0765017 0.485436
0.159031 -0.0933077 0.447982
-0.171338 -0.0679794 0.552551
-0.00112894 -0.0475687 0.213341
0.108107 -0.110177 0.495974
-0.00821952 -0.0424695 0.144395
0.00195618 -0.0283273 0.289921
0.0463686 -0.0139124 0.482095
0.278109 -0.0955862 0.438512
0.119804 -0.094417 0.471437
-0.00423511 -0.0268491 0.185801
0.0451616 -0.0987632 0.606804
0.00554082 0.0170627 0.139708
0.0112824 -0.107511 0.610847
0.0355326 -0.110335 0.486386
-0.445863 -0.0817394 0.443419
-0.0862325 -0.104055 0.40774
-0.46992 -0.0767671 0.485965
0.0746339 -0.11028 0.482777
-0.0230932 -0.0892616 0.275744
-0.00348537 0.0589316 0.125931
0.00408698 0.0913932 0.0570501
0.473307 -0.0856165 0.488475
0.00463703 0.0625066 0.104504
-0.0490081 -0.0694569 0.328626
-0.0311351 -0.0477381 0.153664
0.0168101 -0.107274 0.567171
-0.00463109 0.0672816 0.0897145
0.149784 -0.0930639 0.4624
-0.0598753 -0.109905 0.458437
-0.0437784 -0.0329806 0.296796
-0.0538399 -0.0480984 0.437228
0.189808 -0.106298 0.430053
-0.347774 -0.0939089 0.473673
0.0511645 -0.0825159 0.356652
-0.0265834 -0.00670566 0.346381
0.00893414 -0.10764 0.548168
-0.096187 -0.107151 0.430098
0.0541435 -0.0515651 0.458403
0.00756925 -0.0857493 0.253846
-0.0268091 -0.00160234 0.452772
-0.0840354 -0.109825 0.453193
-0.00469332 0.0084965 0.1741
0.0513391 -0.10573 0.419836
-0.00578204 -0.0962794 0.750203
-0.180362 -0.103148 0.440101
0.0446674 -0.0728807 0.296531
0.0047354 -0.10779 0.483579
-0.413729 -0.0852592 0.437497
-0.0179476 -0.107038 0.394171
-0.182232 -0.103718 0.513091
0.00321747 -0.100276 0.735106
-0.0346922 -0.0516301 0.652766
0.00204602 -0.0312184 0.296607
0.000858835 -0.0451449 0.161577
0.0046481 0.052223 0.077227
0.0440122 -0.0133466 0.381174
-0.0448337 -0.0949615 0.472158
0.137118 -0.103683 0.420498
0.176502 -0.0985437 0.611099
0.0913861 -0.0949086 0.475597
0.0128527 -0.0416529 0.604121
-0.166881 -0.0681681 0.553014
0.00681747 -0.101347 0.724987
-0.362942 -0.0883522 0.432284
-0.1873 -0.09284 0.515187
0.392491 -0.0851037 0.435517
-0.0375671 -0.106544 0.424844
0.00957651 -0.0154299 0.265281
0.223249 -0.09095 0.445283
-0.0290741 -0.0443679 0.61776
-0.0134587 -0.0697688 0.176034
-0.165014 -0.0969515 0.419827
-0.347545 -0.0844904 0.453756
-0.235645 -0.0915105 0.437427
-0.00348724 -0.0184796 0.319763
-0.141267 -0.0876733 0.591964
0.0339549 -0.00864227 0.354464
-0.373666 -0.082245 0.507586
0.356012 -0.0896865 0.438163
-0.0509442 -0.0961895 0.453993
0.0339248 -0.0151118 0.558939
-0.128533 -0.0456688 0.0980748
0.00583661 -0.107748 0.445059
0.394088 -0.0823129 0.455186
0.00096843 -0.0063422 0.0539681
0.123334 -0.102128 0.401795
0.034082 -0.0782194 0.248002
0.130028 -0.094109 0.458387
-0.365174 -0.0825063 0.462672
-0.00119567 -0.0269387 0.223589
-0.00497282 -0.00313914 0.372333
0.313877 -0.0893449 0.429035
-0.165083 -0.0823283 0.629085
0.00255304 -0.0440883 0.366731
-0.122174 -0.109149 0.501026
0.338814 -0.0947777 0.490597
-0.0533946 -0.0563852 0.546891
0.0418798 -0.0473316 0.153077
0.00255963 0.0769163 0.0351888
0.0827603 -0.0509984 0.136081
-0.00988165 -0.00260826 0.3911
-0.162631 -0.0940563 0.44147
0.245146 -0.100997 0.481587
-0.238985 -0.0909438 0.440494
0.0143355 -0.0912857 0.28541
0.449944 -0.0870284 0.50236
-0.0173105 -0.107322 0.412894
-0.0145216 -0.0149545 0.272199
0.010833 -0.0896497 0.761874
-0.212989 -0.103079 0.475077
-0.00268488 -0.107862 0.640705
0.284983 -0.0981177 0.502652
0.0528737 -0.0738089 0.543153
-0.141769 -0.095795 0.519028
0.0244345 -0.0515792 0.10615
0.338128 -0.0947869 0.488168
0.00580251 -0.00846802 0.136405
-0.0615094 -0.0444264 0.0983761
-0.048144 -0.101709 0.442783
0.0314907 -0.0517685 0.121892
-0.114811 -0.109737 0.474717
0.139833 -0.048287 0.141411
-0.0209078 -0.00110231 0.443357
0.104949 -0.050739 0.119785
-0.00464581 0.000275586 0.492266
-0.265775 -0.0871168 0.50126
-0.204149 -0.0751281 0.558649
0.00447527 -0.0382567 0.112533
-0.082295 -0.0509303 0.137713
0.20476 -0.0912102 0.495355
0.394145 -0.0909533 0.496322
-0.129383 -0.10863 0.467033
0.421879 -0.0889209 0.502283
0.39642 -0.0867663 0.438993
-0.080555 -0.0430718 0.127773
-0.0166956 -0.102795 0.398639
0.206175 -0.0856436 0.579934
0.341443 -0.0879449 0.430678
0.026728 -0.0498086 0.66803
0.202893 -0.10184 0.490785
-0.363988 -0.0848683 0.445974
-0.00413213 0.0869392 0.0604743
0.021295 -0.107157 0.446715
-0.0332705 -0.00361471 0.513328
-0.239469 -0.1001 0.511505
0.20638 -0.0879836 0.580645
-0.165921 -0.0918621 0.488296
-0.419795 -0.0793637 0.501268
0.0482874 -0.089523 0.606583
-0.392889 -0.0879925 0.445934
0.0468251 -0.0172008 0.390556
0.423273 -0.0791446 0.482359
0.0532381 -0.0410981 0.431361
-0.231437 -0.099874 0.444161
-0.00899754 -0.0445475 0.111054
-0.14121 -0.0979823 0.522623
-0.320172 -0.0946727 0.454735
0.1868 -0.0885589 0.614089
-0.0503502 -0.0329991 0.353929
0.0541633 -0.0577532 0.518912
-0.07896 -0.0464033 0.0863543
0.177561 -0.101334 0.425476
0.372942 -0.091886 0.506596
0.259077 -0.10011 0.493472
-0.247648 -0.087858 0.484172
-0.00383757 -0.023344 0.206079
-0.00460594 0.0531277 0.0763826
0.167963 -0.108973 0.549756
-0.00190527 0.0822871 0.0315475
-0.287198 -0.0978825 0.464719
-0.0553481 -0.0504966 0.144779
-0.0481527 -0.10859 0.440494
-0.0178498 -0.0818278 0.235297
0.426904 -0.0887413 0.486863
0.20503 -0.0887033 0.503181
0.0420431 -0.0122459 0.368126
-0.0537987 -0.0674771 0.43248
0.146669 -0.0864035 0.61491
-0.00343888 -0.0504007 0.616808
0.00441753 0.00877844 0.175747
-0.00586157 -0.107754 0.551934
0.028433 -0.105166 0.379357
0.0532992 -0.0805812 0.409285
0.00640318 -0.0391194 0.200594
-0.247083 -0.100396 0.507081
-0.00481588 -0.0840582 0.244517
0.178784 -0.104708 0.450507
0.126763 -0.10358 0.414141
-0.0530373 -0.087464 0.416183
-0.446673 -0.0837953 0.444797
0.141281 -0.0935924 0.505792
0.0349392 -0.079857 0.254471
0.177277 -0.0988511 0.610771
0.0125706 -0.0102719 0.309135
0.0930161 -0.0445038 0.143447
-0.00706431 -0.107683 0.623062
-0.00370743 -0.00698607 0.218267
0.190478 -0.103333 0.512123
-0.00204449 -0.0481718 0.344656
-0.457117 -0.0823571 0.440074
-0.0520276 -0.0449612 0.3669
-0.000478918 -0.0556388 0.105715
-0.00234791 -0.0241862 0.200452
0.0411714 -0.104846 0.413449
0.024602 -0.110303 0.484292
0.00169379 -0.0369044 0.257068
0.0420808 -0.0976748 0.52036
0.11101 -0.102713 0.399329
0.00140257 -0.0518036 0.145314
-0.0110168 -0.100534 0.411273
-0.000414898 -0.107955 0.417692
0.0528683 -0.0916749 0.430334
0.0249846 -0.00460846 0.375645
0.127124 -0.0469258 0.0888129
0.419633 -0.0884154 0.463499
0.267867 -0.0868423 0.484774
0.4035 -0.0895836 0.507758
0.202753 -0.100584 0.433731
-0.0102009 -0.0438125 0.600957
0.00363434 -0.0691269 0.171316
-0.0186451 -0.10659 0.426052
0.160671 -0.107983 0.569544
0.19243 -0.102495 0.441932
-0.00398602 0.105456 0.0581885
0.0039653 -0.088013 0.265038
0.0397644 -0.00979652 0.388447
-0.00517296 -0.00658722 0.551421
0.0158939 -0.106832 0.66012
-0.000371556 -0.0456101 0.103607
-0.0474639 -0.029355 0.328102
0.406532 -0.082775 0.448023
-0.18938 -0.0805634 0.450755
-0.086944 -0.110147 0.474137
-0.195009 -0.10418 0.502505
-0.154002 -0.105209 0.440685
0.421362 -0.0874774 0.512556
-0.382092 -0.0814122 0.468217
-0.136062 -0.106377 0.439387
-0.435025 -0.0786731 0.475006
-0.174607 -0.109728 0.534032
-0.311737 -0.096387 0.475751
0.0355604 -0.0150484 0.315447
0.0269778 -0.100658 0.691518
-0.0219634 -0.0073456 0.338317
0.171794 -0.0443708 0.126846
-0.0292455 -0.0906675 0.722788
-0.00167886 -0.0463174 0.270512
-0.314344 -0.0847637 0.469543
0.0055943 0.00865003 0.153844
0.00289203 -0.0344721 0.361367
-0.0167675 -0.106662 0.663607
-0.354553 -0.0837906 0.456658
0.0327379 -0.0950836 0.464228
0.397689 -0.0804401 0.480922
0.250441 -0.0877827 0.480036
-0.213096 -0.0895496 0.48599
0.355588 -0.093606 0.493834
-0.272 -0.097683 0.450342
-0.474962 -0.0806685 0.442215
-0.179345 -0.0446289 0.113696
-0.221014 -0.0874238 0.61737
0.0519917 -0.0265575 0.428676
0.0406652 -0.0573249 0.269345
0.00546079 -0.00252766 0.38517
0.0174942 -0.0907289 0.282896
0.00795469 -0.0952846 0.451169
0.1712 -0.0795638 0.453688
-0.053176 -0.0839135 0.415864
-0.180899 -0.101338 0.427315
0.0451765 -0.0129321 0.530974
-0.00256813 -0.0428115 0.147046
0.0555445 -0.044008 0.100627
0.00213869 -0.0440361 0.598525
0.0403052 -0.092155 0.310161
-0.0164472 -0.105033 0.687204
-0.277063 -0.0875838 0.453065
0.186045 -0.107882 0.468549
-0.173415 -0.0498834 0.124567
-0.00392743 -0.0200765 0.294457
-0.200288 -0.105655 0.554898
-0.0267135 -0.0384157 0.205531
0.0238069 -0.0684795 0.747254
-0.00304786 -0.0241503 0.20099
0.0532524 -0.0815641 0.468949
-0.0443553 -0.0412456 0.58535
0.00559803 0.00992026 0.133601
0.198383 -0.0874164 0.429745
-0.466694 -0.0814806 0.438938
-0.0496427 -0.0989038 0.409122
-0.318557 -0.0958682 0.50243
0.0205747 -0.110202 0.4949
-0.152718 -0.0691693 0.559716
0.002619 -0.0356644 0.366957
0.13154 -0.104737 0.425088
-0.193256 -0.0837105 0.438125
-0.445606 -0.084132 0.44665
0.00383346 -0.0521725 0.136818
0.00444027 0.0740228 0.093364
-0.186101 -0.108691 0.549412
0.176934 -0.0958592 0.380214
-0.0680241 -0.0446477 0.0976208
-0.107841 -0.0998566 0.416163
0.039212 -0.00742365 0.430533
-0.142662 -0.0825806 0.515157
0.140675 -0.0933926 0.470503
-0.111683 -0.0950553 0.456223
-0.00699101 -0.00950963 0.556531
-0.00815657 -0.106776 0.671647
-0.331877 -0.0936606 0.453774
-0.00576326 -0.00296447 0.168183
0.0157518 -0.107369 0.511834
-0.144369 -0.0999413 0.404575
0.195415 -0.0709671 0.52253
0.123924 -0.10019 0.409057
0.268528 -0.0992716 0.47263
-0.0957273 -0.110087 0.470277
0.338266 -0.0835115 0.473545
-0.0230417 -0.103914 0.682555
0.00603912 -0.0368927 0.13206
-0.395249 -0.080458 0.487631
-0.105084 -0.0952171 0.455551
-0.0982099 -0.100292 0.413017
0.0325107 -0.0971721 0.517637
-0.04391 -0.0267735 0.306962
0.0470917 -0.0992599 0.420473
0.0472542 -0.0365816 0.319301
0.000546568 -0.0686107 0.168377
0.00770894 -0.103662 0.356549
0.205466 -0.0974931 0.532894
-0.277583 -0.0988055 0.48227
-0.044008 -0.0248369 0.315383
0.354018 -0.0934833 0.502391
0.327034 -0.0838924 0.485093
0.203866 -0.0744577 0.581277
0.195941 -0.0992521 0.420412
-0.00184409 -0.048981 0.342189
-0.00231899 -0.0948786 0.477546
0.165443 -0.0939457 0.515337
-0.000134114 -0.0221323 0.235879
-0.0154042 -0.0995641 0.726852
0.0733067 -0.109804 0.451872
0.104039 -0.0952194 0.455404
0.477035 -0.0781502 0.45977
-0.00129666 -0.0275501 0.0696858
0.0262695 -0.106999 0.542931
0.279441 -0.0863514 0.479255
0.0367234 -0.00557288 0.443034
0.0540344 -0.0611209 0.459671
-0.392413 -0.0817483 0.509904
-0.252843 -0.0942113 0.414873
-0.0411858 -0.0124041 0.357471
-0.123504 -0.107674 0.44194
0.226118 -0.0890956 0.500676
-0.0533426 -0.0797541 0.400749
-0.0565922 -0.0514343 0.134667
-0.0380357 -0.0952664 0.506461
-0.121833 -0.0843306 0.617489
0.258048 -0.0911494 0.433153
-0.0447229 -0.0233808 0.32738
0.0411234 -0.0284759 0.287445
-0.409719 -0.0799182 0.502297
0.157404 -0.091984 0.61528
0.0634831 -0.0428368 0.127983
-0.275926 -0.0863867 0.491975
0.156041 -0.10688 0.583843
0.00477687 0.06069 0.097264
-0.04266 -0.104589 0.41612
0.0361215 -0.0893848 0.28963
-0.164115 -0.0927427 0.393088
-0.193507 -0.0888503 0.611601
0.0638611 -0.0947815 0.483857
-0.416301 -0.089414 0.498401
0.2007 -0.104657 0.500172
-0.00566494 -0.00288234 0.129926
-0.0124589 -0.00946538 0.315549
0.372509 -0.0815767 0.488484
-0.407276 -0.0799918 0.479055
0.151214 -0.10742 0.491315
-0.0421325 -0.0952392 0.454117
0.21736 -0.0914015 0.515425
0.0254821 -0.0538609 0.196543
0.0416657 -0.103009 0.400187
-0.202452 -0.0793711 0.618546
-0.166769 -0.104116 0.516658
-0.244774 -0.100288 0.454385
0.197969 -0.10622 0.494904
0.341458 -0.0831288 0.488059
-0.0381109 -0.094839 0.493313
-0.0411379 -0.00807636 0.462319
-0.00509755 0.0297431 0.142037
0.335565 -0.0837709 0.465422
0.205582 -0.0816927 0.537554
-0.000744364 0.0474431 0.146921
-0.00375589 -0.108329 0.515349
0.248175 -0.0914643 0.433911
-0.409344 -0.0885642 0.511117
0.18166 -0.0677025 0.575366
0.205592 -0.0760873 0.616115
0.239952 -0.088317 0.479243
0.0367612 -0.00559433 0.448694
-0.000506341 0.100491 0.00967436
-0.0477058 -0.0489402 0.0900975
-0.0520626 -0.0269995 0.462673
-0.36447 -0.085637 0.440273
0.281891 -0.0948739 0.435419
0.410456 -0.0825724 0.448281
-0.0685091 -0.0996371 0.417749
0.0311787 -0.051541 0.142506
0.0527891 -0.0735516 0.545322
0.0359157 -0.106598 0.45024
0.0074372 -0.0494993 0.0889267
-0.00747035 -0.00405429 0.35802
0.0179927 -0.09535 0.309038
-0.0920107 -0.102472 0.397274
-0.0518267 -0.0895204 0.374796
-0.0195127 -0.0439309 0.0965204
-0.111445 -0.0948515 0.470236
0.207429 -0.103676 0.489344
-0.173081 -0.0673561 0.56892
-0.165648 -0.0786556 0.628471
-0.00466314 0.0465467 0.0751816
0.358317 -0.0923768 0.50935
0.0577113 -0.109869 0.456059
0.0143718 -0.0235751 0.209766
0.178916 -0.0785325 0.633764
0.36017 -0.0878743 0.427328
-0.146253 -0.0935415 0.435236
-0.143448 -0.0978925 0.600878
0.312801 -0.0846373 0.482732
-0.00285315 -0.027772 0.365695
-0.00706656 -0.0651994 0.607446
0.00555902 -0.0048531 0.113908
0.473512 -0.0777188 0.509743
-0.00461688 0.0700856 0.0899851
-0.160758 -0.0735599 0.490244
-0.194484 -0.0780268 0.61881
0.0433106 -0.0979149 0.430187
0.0550252 -0.0429603 0.139216
0.0331275 -0.00353362 0.455106
0.143788 -0.0912787 0.477444
-0.00147295 0.000544427 0.504215
-0.0165079 -0.110088 0.49982
-0.0673441 -0.0991327 0.421392
-0.00334074 -0.0234783 0.20506
-0.281304 -0.0864974 0.504788
-0.0527387 -0.0349805 0.514778
0.0716907 -0.0949583 0.472368
0.430552 -0.0863378 0.513986
0.00861224 -0.104791 0.701125
0.035482 -0.109786 0.450713
0.00111181 0.00162954 0.196453
-0.0205321 -0.0948279 0.480839
-0.168481 -0.072146 0.499617
-0.378266 -0.0914968 0.463313
0.00170562 -0.0333128 0.0758956
0.0148941 -0.107012 0.392789
0.00182799 -0.0240209 0.0730006
0.0127402 -0.00436535 0.542921
0.146167 -0.0886308 0.446714
0.0468653 -0.102424 0.427324
-0.152769 -0.108245 0.533895
0.0172579 -0.00166657 0.530629
0.0780937 -0.0431642 0.11959
-0.0155374 -0.0547135 0.727534
-0.0176265 -0.0741213 0.197422
-0.200618 -0.103711 0.477914
0.00854035 -0.0481405 0.701715
0.173515 -0.0444193 0.127836
-0.232454 -0.0901175 0.448468
-0.372087 -0.08319 0.512283
0.427324 -0.0849095 0.442347
0.0512995 -0.0794127 0.35687
0.022138 -0.106755 0.642746
-0.203693 -0.098072 0.4904
-0.118051 -0.0486011 0.0967489
0.281197 -0.0975172 0.454134
0.0220765 -0.103041 0.400417
-0.00532512 0.0223949 0.121152
0.0730102 -0.0948324 0.480548
-0.0530029 -0.0880864 0.455117
0.0513091 -0.0403163 0.360264
0.241996 -0.0888536 0.508207
0.00242855 0.0364277 0.0517464
-0.0243645 -0.0970265 0.436603
0.172815 -0.103804 0.603919
0.0541063 -0.0511258 0.44882
-0.175376 -0.049733 0.116502
0.0403089 -0.105727 0.463852
-0.0176312 -0.0764195 0.763296
0.0510678 -0.0960838 0.411128
0.0389329 -0.106425 0.447399
-0.0364265 -0.0490717 0.247321
-0.00158206 -0.00653026 0.357267
0.0538781 -0.0652082 0.483194
0.33415 -0.0916397 0.440411
0.0135894 -0.107441 0.588352
0.179419 -0.100269 0.418792
0.131912 -0.108408 0.463785
0.409852 -0.0837106 0.516795
-0.00143672 -0.036919 0.238629
-0.20429 -0.0906641 0.507942
-0.0545451 -0.047502 0.0805953
-0.0312267 -0.0952141 0.455747
0.00623265 -0.024153 0.198245
0.162061 -0.069693 0.523341
0.0276053 -0.0763589 0.220966
0.158111 -0.0940687 0.514045
1.31552e-05 0.0750581 0.0138429
0.0013692 -0.106628 0.383868
0.388726 -0.0808499 0.483276
-0.0115624 -0.0101471 0.557067
0.202876 -0.0915143 0.460646
-0.037362 -0.0622049 0.253513
-0.010396 -0.000211636 0.515912
-0.200191 -0.101958 0.431037
-0.162431 -0.100923 0.523479
0.452704 -0.0846579 0.4543
-0.133275 -0.101098 0.399745
-0.151307 -0.0707193 0.527918
-0.132568 -0.0453384 0.100983
-0.11393 -0.0945933 0.494204
-0.247064 -0.10091 0.484407
-0.00190258 -0.1079 0.410082
-0.00820794 -0.0505178 0.591145
-0.17954 -0.0497433 0.120854
0.00231305 -0.033118 0.329092
-0.204147 -0.100962 0.507395
0.00279101 -0.0044029 0.215398
0.0528659 -0.0916665 0.474271
-0.170728 -0.104908 0.447582
-0.167215 -0.0950647 0.432778
0.0109235 -0.107553 0.430941
0.00925757 -0.000115175 0.510226
-0.0718799 -0.0976095 0.432393
0.0541254 -0.0587433 0.48313
0.325705 -0.0941779 0.454162
0.0361886 -0.00526957 0.491581
-0.331274 -0.0952264 0.494528
0.014147 -0.0517937 0.108257
-0.158166 -0.106751 0.471907
-0.0226462 -0.0977289 0.32379
0.00452928 0.0585683 0.115861
-0.169445 -0.0676442 0.581459
-0.0354367 -0.0320499 0.250234
0.0525381 -0.0326127 0.455635
-0.349225 -0.083044 0.468477
-0.059764 -0.098607 0.425189
-0.100734 -0.0434387 0.121713
-0.446633 -0.0779648 0.483464
0.3 -0.0954391 0.514347
-0.142955 -0.094204 0.502376
-0.178333 -0.0702148 0.516029
0.136666 -0.0465777 0.0925622
0.226737 -0.0923361 0.434201
0.0519068 -0.02516 0.450328
0.371164 -0.0837443 0.451888
0.0505229 -0.0970378 0.433904
0.0170904 -0.0482487 0.690593
0.00175505 0.0252361 0.0487197
0.0359843 -0.00515369 0.46418
-0.141822 -0.0928654 0.578875
0.10159 -0.0434824 0.133791
0.0530003 -0.0380697 0.458347
0.358354 -0.0887544 0.432701
-0.047183 -0.107715 0.434175
-0.0372302 -0.0144025 0.326509
0.00532407 0.0109596 0.105105
-0.000911927 -0.0334514 0.177519
-0.150929 -0.0705169 0.537999
-0.456916 -0.0867334 0.488755
-0.218989 -0.0895105 0.469481
0.052758 -0.105239 0.416292
0.179201 -0.0727017 0.494871
-0.00331856 -0.0109245 0.297999
0.0271039 -0.0636005 0.205263
-0.00895798 -0.107533 0.650274
0.0146469 -0.000571822 0.443053
0.0541086 -0.0598724 0.40827
-0.0492203 -0.0995875 0.509235
-0.0542194 -0.0566525 0.425607
0.00822481 -0.0452 0.0858923
-0.00841848 -0.107019 0.666473
0.141305 -0.089735 0.534569
0.122801 -0.0478022 0.0915956
0.192517 -0.106679 0.586354
0.00910186 -0.110228 0.479422
-0.157646 -0.0691605 0.53586
-0.0028599 0.104554 0.0780201
-0.0185782 -0.107261 0.466134
0.0466368 -0.0514433 0.114131
-0.00469101 -0.0177171 0.204098
-0.261859 -0.0872607 0.499136
0.0122586 -0.0429857 0.129259
0.204801 -0.0919884 0.498481
-0.00693995 -0.0495404 0.0891596
-0.110759 -0.0954437 0.447384
-0.231738 -0.091471 0.438912
0.378529 -0.0866627 0.428546
-0.0672538 -0.109869 0.505211
-0.126541 -0.102377 0.405332
0.0980398 -0.0506358 0.108857
-0.15154 -0.095405 0.519526
0.0206113 -0.10637 0.424459
-0.00573677 -0.00861381 0.131333
-0.0506623 -0.0962026 0.392344
-0.000492054 -0.0470159 0.071774
-0.00573935 -0.0111878 0.191918
0.304201 -0.0852904 0.468118
-0.0519607 -0.0272375 0.403248
-0.0062468 -0.0246837 0.180376
0.01656 -0.0545413 0.725374
-0.0405832 -0.0471623 0.269846
-0.181298 -0.0678865 0.588475
-0.465142 -0.0859485 0.503592
-0.0894604 -0.0960717 0.511679
-0.048241 -0.0951982 0.359927
0.0228478 -0.107108 0.405361
-0.143108 -0.0992351 0.410063
0.00296493 -0.0204241 0.357142
0.0427234 -0.0951486 0.460001
-0.0301896 -0.00188877 0.512796
0.0571577 -0.0437987 0.102347
0.381425 -0.084442 0.516357
-0.0981785 -0.110202 0.494912
-0.0442079 -0.0795192 0.657196
0.151664 -0.0695362 0.559782
0.0540582 -0.061352 0.400712
0.0129795 -0.00410682 0.541798
0.00468638 0.0638439 0.0906069
-0.00318174 -0.105538 0.699694
-0.165433 -0.104607 0.600488
-0.171399 -0.0449362 0.108909
-0.236222 -0.101685 0.491904
-0.295741 -0.097283 0.463444
-0.174939 -0.068197 0.5441
-0.00148112 -0.0360448 0.231218
-0.0186042 -0.10726 0.491257
-0.169361 -0.102681 0.398356
0.000228745 -0.042964 0.0925857
-0.2055 -0.0880557 0.603626
0.278927 -0.0985907 0.474247
-0.122322 -0.0505909 0.125477
-0.00277857 -0.00225512 0.078196
0.123923 -0.0982447 0.423111
-0.183618 -0.0497313 0.126256
-0.0373754 -0.0922678 0.688414
-0.0386842 -0.0475064 0.610639
-0.0417925 -0.0117668 0.37423
0.00519671 -0.00954688 0.195322
0.206315 -0.0884632 0.584345
0.181316 -0.0481 0.101318
-0.151449 -0.0500085 0.113298
0.00452679 -0.0242945 0.270781
0.307747 -0.0887371 0.435308
-0.0181485 -0.0950784 0.464561
-0.174484 -0.109642 0.53679
-0.0264547 -0.0514349 0.143774
-0.188135 -0.091597 0.613296
-0.182517 -0.108327 0.565325
-0.0419911 -0.0992167 0.63004
-0.150346 -0.0440405 0.126391
0.142098 -0.0966191 0.536541
-0.149893 -0.105807 0.475632
-0.154057 -0.0685456 0.564377
0.00415806 0.0954528 0.0660802
0.0901749 -0.0483321 0.146608
-0.176804 -0.0489067 0.136243
-0.0428784 -0.101886 0.373804
-0.410642 -0.0796394 0.491027
0.0106382 -0.0948991 0.476213
-0.158653 -0.0880573 0.616869
-0.0106325 -0.0479195 0.0779283
0.193462 -0.0749083 0.484961
-0.198879 -0.0751393 0.497699
0.327613 -0.0837991 0.489272
0.00499304 -0.0273042 0.240438
0.392691 -0.0823972 0.513493
-0.00244404 0.0801557 0.0373584
-0.292219 -0.0977339 0.477189
0.348156 -0.0829122 0.480489
-0.289043 -0.085834 0.481814
-0.0466662 -0.0405688 0.580739
-0.0382432 -0.0980503 0.429209
0.156794 -0.0927441 0.61223
-0.0876683 -0.0481287 0.0894064
-0.0928406 -0.110064 0.468772
0.284644 -0.0879611 0.448011
0.00207328 -0.0285958 0.302246
0.170954 -0.0977234 0.376015
0.048223 -0.0171818 0.455934
-0.37799 -0.0871496 0.431761
-0.0243275 -0.0382181 0.195089
0.0233698 -0.071363 0.198028
-0.457862 -0.0864835 0.47672
-0.0390591 -0.00956846 0.386299
-0.0180213 -0.107266 0.596312
0.034809 -0.102866 0.526715
0.00529531 -0.105932 0.68619
-0.323492 -0.09439 0.511335
-0.170423 -0.109425 0.51476
-0.0529405 -0.0428187 0.389671
0.0269538 -0.0520104 0.691511
0.136291 -0.108039 0.459098
0.25592 -0.0875981 0.500797
-0.0207463 -0.00189489 0.424059
-0.00166133 -0.109951 0.50342
-0.00681396 -0.0142173 0.273345
-0.164547 -0.104646 0.514607
0.0991891 -0.0952541 0.453147
0.0508582 -0.0963591 0.481003
0.00561314 -0.0476889 0.0923962
0.0483015 -0.100923 0.534775
0.205351 -0.0902079 0.468277
-0.00676255 -0.0820223 0.234227
0.365156 -0.0928146 0.479218
-0.00605802 -0.030331 0.142135
0.0989899 -0.0438676 0.139158
-0.13687 -0.0493101 0.104305
-0.069029 -0.109933 0.503817
-0.123502 -0.098735 0.419698
0.00199162 -0.0818774 0.232553
-0.113884 -0.0959134 0.512223
0.0491495 -0.0338923 0.340754
0.011124 -0.103809 0.705669
-0.0513742 -0.0227377 0.512762
0.446791 -0.0803477 0.453188
0.0515313 -0.0950323 0.520284
0.143015 -0.0969363 0.506939
0.0813763 -0.0984209 0.426532
0.17275 -0.091871 0.502809
0.417512 -0.0793206 0.489528
0.0479776 -0.0393549 0.323967
0.0438123 -0.0778839 0.663131
0.146368 -0.050206 0.121685
-0.28566 -0.0861737 0.470689
0.362641 -0.0850688 0.516261
0.0183197 -0.045087 0.644543
-0.234005 -0.101511 0.465893
0.170458 -0.106007 0.496393
0.0998993 -0.0496287 0.14319
0.00635358 -0.0428558 0.632081
0.339543 -0.0941468 0.461445
0.271931 -0.0990239 0.471538
0.00417622 -0.0246112 0.290801
0.0966839 -0.0448069 0.144394
0.271953 -0.0969916 0.445323
-0.00583906 -0.0130429 0.137634
-0.00452931 -0.0195822 0.264359
0.00264628 0.00829691 0.185482
0.00605652 -0.0212977 0.186489
-0.242248 -0.0966112 0.42646
-0.156592 -0.0898213 0.407226
-0.162885 -0.0920388 0.486643
0.0542794 -0.053169 0.503936
0.284943 -0.0916894 0.42099
-0.0531258 -0.0478254 0.384583
-0.193299 -0.0939949 0.391486
0.00557052 -0.00782555 0.113014
0.00260514 -0.0360576 0.365504
0.192171 -0.0907408 0.476272
0.282276 -0.0935223 0.425865
-0.0227753 -0.0547729 0.184983
0.0520762 -0.0873153 0.377982
-0.181694 -0.0678686 0.586324
0.147014 -0.1059 0.54384
0.0217376 -0.0495449 0.0911062
-0.0162285 -0.0682511 0.172887
-0.213474 -0.103088 0.477799
-0.0166942 -0.003709 0.380395
0.329306 -0.0840971 0.505132
0.0535302 -0.0515817 0.129179
0.181659 -0.105185 0.473765
-0.0027087 -0.107871 0.560292
0.0215809 -0.0342465 0.189259
0.160878 -0.107929 0.472849
0.0533502 -0.0698923 0.535541
0.261291 -0.0891807 0.446376
-0.197574 -0.0717228 0.60859
-0.15813 -0.0910723 0.614288
-0.0730578 -0.0481059 0.0873511
-0.0292152 -0.105359 0.648094
-0.443613 -0.0815696 0.445337
-0.00563834 -0.00666581 0.122606
0.119579 -0.0450673 0.142322
-0.183667 -0.0910967 0.480651
-0.181777 -0.0983668 0.406332
-0.0369581 -0.0435076 0.252579
-0.015583 -0.04816 0.690653
0.344309 -0.0829922 0.487709
0.126637 -0.0486241 0.142352
0.402049 -0.0894791 0.461643
-0.240487 -0.0963707 0.423767
0.18263 -0.0948011 0.429947
0.0536751 -0.0705133 0.475952
0.0522511 -0.0292241 0.50423
-0.0203867 -0.00105816 0.509897
0.282633 -0.0978476 0.507727
0.00788259 -0.0288315 0.175152
-0.476676 -0.0764796 0.50056
0.276926 -0.0989217 0.492915
-0.354018 -0.0832007 0.507513
-0.0250011 -0.106092 0.422449
-0.00487002 -0.0198231 0.110922
0.255765 -0.0877647 0.46399
-0.00229215 -0.0343555 0.327241
-0.155091 -0.100987 0.524193
-0.186315 -0.108715 0.504656
-0.0125286 -0.000392331 0.516059
-0.00323818 -0.0188904 0.335889
0.174013 -0.100968 0.387977
0.00274147 -0.0437999 0.360895
-0.154328 -0.107084 0.46924
0.00645186 -0.0375384 0.177178
-0.0271359 -0.00163003 0.470625
0.145211 -0.0729516 0.594482
0.0967019 -0.110276 0.491711
0.0536127 -0.108069 0.516759
-0.00426747 0.0883974 0.0717451
0.169979 -0.0497456 0.132444
-0.150893 -0.101181 0.409902
-0.400673 -0.0801321 0.493063
-0.0534644 -0.0720814 0.393282
-0.00778039 -0.0403057 0.109519
0.0298189 -0.106831 0.488482
0.0050027 0.0233414 0.0898274
0.309318 -0.0912787 0.42433
0.156769 -0.108046 0.56229
0.152144 -0.078279 0.470455
0.158513 -0.0923117 0.395894
0.238954 -0.101516 0.491252
-0.162004 -0.0742786 0.613947
0.0193259 -0.00751668 0.335224
0.164644 -0.0889143 0.409423
0.163213 -0.0851487 0.426591
-0.00126807 0.0947451 0.0193532
0.0466385 -0.0487946 0.0889083
-0.395227 -0.0906416 0.470667
0.205314 -0.0902027 0.505245
0.0210143 -0.11008 0.500162
0.0314353 -0.0376121 0.227253
-0.0177858 -0.0593216 0.159886
-0.123569 -0.0940086 0.485794
0.0475489 -0.0241006 0.344861
-0.149296 -0.0935642 0.508959
0.156965 -0.0735563 0.491752
0.00871108 -0.0420896 0.133521
-0.0529544 -0.037527 0.526655
0.00990075 -0.105189 0.6905
0.153194 -0.0836407 0.439891
-0.1942 -0.0927157 0.516356
0.0375147 -0.10871 0.513287
-0.0536046 -0.046019 0.0858489
-0.39325 -0.0808198 0.470624
-0.309763 -0.0965722 0.479081
-0.325542 -0.094146 0.453843
-0.266766 -0.0890989 0.445285
0.0519695 -0.0274238 0.399835
0.00423142 -0.0963078 0.512958
-0.0181098 -0.0550455 0.7239
-0.0604671 -0.0950096 0.469033
-0.0517088 -0.032384 0.382954
0.423434 -0.080847 0.456758
-0.189246 -0.108061 0.488139
-0.41658 -0.0884925 0.508827
0.0405623 -0.104884 0.557571
0.149756 -0.102172 0.602057
0.201765 -0.0772372 0.614967
0.00623227 -0.0209591 0.170724
0.0191667 -0.105635 0.380617
0.0159503 -0.110029 0.50173
0.00421039 0.0309503 0.0764066
-0.0149418 -0.0206005 0.573641
0.0434379 -0.0999554 0.615431
0.203967 -0.0812774 0.500267
-0.172505 -0.108377 0.473089
-0.0410406 -0.0772499 0.276415
0.38801 -0.0809707 0.477757
-0.039964 -0.0949068 0.496239
-0.315748 -0.090629 0.423125
0.00211397 -0.0321093 0.147103
-0.113142 -0.044208 0.106632
0.193596 -0.0908755 0.462907
-0.00196699 -0.0435221 0.293142
-0.0442543 -0.103725 0.450791
0.0245983 -0.0306372 0.208433
0.0385562 -0.0684982 0.701414
-0.319865 -0.0863154 0.449077
0.0124538 -0.0432007 0.631299
0.328621 -0.0954239 0.487635
0.00415445 -0.0104046 0.0953416
-0.145883 -0.105218 0.526594
-0.0175576 -0.105269 0.682735
-0.0291369 -0.0445905 0.619142
0.370131 -0.0826776 0.459912
-0.053314 -0.0417722 0.526731
0.0623535 -0.0509706 0.141222
0.00289349 0.0618759 0.0454248
0.000814105 -0.0431455 0.0786576
-0.198621 -0.0996324 0.521279
0.141657 -0.0883902 0.598264
0.00485412 0.0402454 0.0860845
0.148024 -0.0847043 0.609599
-0.0173122 -0.0479793 0.684959
-0.0529232 -0.0901694 0.490641
-0.147333 -0.0483146 0.0984698
-0.00219817 -0.0579129 0.616808
-0.0387283 -0.107622 0.433503
-0.0527013 -0.0345391 0.453743
0.0506958 -0.0820621 0.581712
-0.1771 -0.0976001 0.41143
0.00579673 -0.0154494 0.128175
0.205075 -0.0777021 0.526927
-0.00657524 -0.063049 0.143687
-0.138764 -0.108176 0.478937
0.0230047 -0.0423902 0.137314
0.174287 -0.108923 0.558724
0.176023 -0.10319 0.518245
0.0529682 -0.0889932 0.464498
-0.41111 -0.08201 0.452143
-0.205283 -0.0901603 0.471584
0.0055622 -0.00639537 0.113226
0.149839 -0.107317 0.530913
0.0024844 -0.0294166 0.34765
0.0337835 -0.064764 0.23617
-0.280625 -0.0966751 0.447742
-0.0814924 -0.102373 0.397991
0.110475 -0.106848 0.428908
-0.0115699 -0.0902825 0.759883
-0.00240079 0.0728893 0.040875
0.143916 -0.0812285 0.49671
0.00290917 -0.0255765 0.0871248
0.155 -0.044331 0.111586
-0.00459809 -0.0162537 0.106167
0.049965 -0.0911787 0.582153
-0.151405 -0.107033 0.460388
-0.0170112 -0.107333 0.414847
0.0269041 -0.0512833 0.683988
0.19333 -0.104498 0.480555
0.0358115 -0.0365723 0.250081
-0.313167 -0.0942348 0.447771
0.0954726 -0.0976244 0.432285
0.144877 -0.0731881 0.569577
0.00634697 -0.0360602 0.167095
0.0483847 -0.0629378 0.602904
0.181924 -0.0775568 0.626354
0.0026976 -0.0341454 0.372838
-0.0185636 -0.106046 0.384418
-0.137696 -0.09343 0.477705
-0.110597 -0.096795 0.437674
-0.0246251 -0.0563649 0.717668
0.188091 -0.10763 0.444796
0.357483 -0.0863745 0.437093
-0.192743 -0.108502 0.545963
0.427937 -0.0848439 0.442205
0.268623 -0.0976162 0.514167
-0.0288387 -0.0157418 0.289618
-0.00655931 -0.0740647 0.195212
0.0297869 -0.106762 0.611914
-0.00528599 0.0192561 0.151833
0.00252808 -0.0195504 0.36052
-0.147711 -0.0841245 0.452115
0.0287128 -0.0922624 0.293744
-0.0834096 -0.110211 0.478327
-0.0074423 -0.0907415 0.280998
-0.0230106 -0.00838319 0.552043
0.19648 -0.0701448 0.546674
0.00261191 -0.0492242 0.0863156
-0.0848378 -0.0970336 0.516888
-0.0531106 -0.046031 0.387481
0.241517 -0.100967 0.463681
-0.184243 -0.105027 0.474855
0.0474134 -0.094972 0.471476
-0.00525716 -0.000633009 0.42311
0.0167841 -0.110047 0.467616
-0.029096 -0.0423593 0.128675
-0.0183871 -0.0948093 0.482051
0.00463066 0.0650398 0.085697
0.0286297 -0.0742676 0.220447
-0.330437 -0.0900744 0.427089
-0.198313 -0.0964574 0.402691
0.0180947 -0.106925 0.642283
-0.0457259 -0.0304445 0.569924
-0.0222033 -0.00121208 0.471057
0.000576109 -0.0451726 0.127816
0.052612 -0.0763708 0.546824
0.00042906 -0.0460681 0.110712
-0.205126 -0.0769595 0.559601
0.440709 -0.0822234 0.516331
-0.0471836 -0.0153494 0.44893
0.00827448 -0.0948788 0.49503
0.0530008 -0.0881451 0.439762
0.0493795 -0.0992737 0.456535
-0.0850155 -0.0971986 0.435361
0.0559044 -0.110292 0.483559
-0.119121 -0.1096 0.484853
-0.0151982 -0.0422465 0.123764
-0.0541851 -0.0520558 0.510275
0.0260163 -0.0480858 0.653809
0.000471284 -0.00847476 0.315956
0.0668475 -0.0431493 0.110657
-0.186602 -0.104941 0.479692
0.035262 -0.0507442 0.146274
-0.0463256 -0.101345 0.562383
0.221777 -0.0903883 0.449793
-0.205265 -0.0974283 0.582247
0.152984 -0.0449558 0.106386
0.285147 -0.0977083 0.457657
-0.0768317 -0.0954168 0.44823
0.160188 -0.101659 0.522727
0.102012 -0.0975334 0.432943
-0.0405849 -0.105681 0.419482
0.124099 -0.0941487 0.497107
0.00795421 -0.0421238 0.125344
0.0319547 -0.101327 0.405546
0.203189 -0.100257 0.485821
-0.0403323 -0.10222 0.526726
-0.123772 -0.0482014 0.0946037
0.116907 -0.0454508 0.0981453
-0.154225 -0.0447954 0.136384
0.188431 -0.108581 0.549534
-0.129453 -0.106154 0.519424
-0.0320982 -0.0657297 0.228012
-0.0538297 -0.0664729 0.47036
0.0377101 -0.109031 0.511547
0.0140039 -0.000517334 0.497609
0.0402823 -0.039982 0.272031
-0.212539 -0.089551 0.490824
-0.0478713 -0.110067 0.46895
0.258571 -0.0875281 0.470289
-0.294278 -0.0873251 0.449645
0.368179 -0.0821263 0.504828
1.39093e-05 -0.109729 0.448722
-0.352695 -0.0937392 0.496493
-0.179577 -0.0682239 0.598582
0.149662 -0.107575 0.487947
-0.0534464 -0.0764924 0.487437
-0.0529265 -0.0900818 0.524887
0.0421152 -0.104206 0.556203
-0.00250738 -0.0384554 0.35508
0.00119975 -0.0497538 0.356514
0.000764819 -0.0459477 0.15076
-0.0145257 -0.107416 0.478768
0.0774205 -0.0952157 0.455645
0.19337 -0.104937 0.59698
0.153547 -0.0772166 0.473646
0.141409 -0.090026 0.553331
-0.045301 -0.015031 0.386553
0.454177 -0.0852821 0.512302
-0.0527513 -0.0446111 0.095908
0.0629708 -0.109952 0.461491
0.000997213 -0.0241146 0.0627594
0.0186409 -0.107258 0.52257
0.358662 -0.0856388 0.442044
0.0690032 -0.0950862 0.464057
-0.201947 -0.102425 0.44659
0.0501246 -0.0978749 0.415612
-0.00270208 -0.016716 0.368728
-0.0203525 -0.00105526 0.483999
0.0245829 -0.0516907 0.699547
-0.00420422 0.091137 0.0681606
-0.207852 -0.0898301 0.492688
0.0822877 -0.0964279 0.440927
-0.340772 -0.0834544 0.503715
0.346917 -0.0836221 0.460221
0.0504041 -0.0494616 0.339324
0.027639 -0.0506807 0.100074
-0.00455023 0.0570544 0.0746944
-0.111526 -0.104785 0.414575
0.0320037 -0.0975245 0.692636
-0.00476149 -0.0326805 0.200254
-0.205047 -0.0976632 0.59477
0.030388 -0.0218664 0.25826
0.0492053 -0.0631419 0.595948
0.00257207 0.0709037 0.037635
0.0015731 -0.107877 0.632715
-0.147554 -0.0932192 0.504544
-0.0125137 -0.00039107 0.466944
0.167175 -0.0681634 0.55275
-0.202372 -0.0730469 0.560024
0.0427992 -0.0439161 0.28489
-0.144111 -0.0905618 0.605961
0.214797 -0.10311 0.492638
-0.155821 -0.106996 0.477493
-0.322985 -0.0840138 0.491806
0.0377593 -0.00955786 0.373397
0.00508715 -0.0949335 0.497394
0.146119 -0.0923286 0.439077
-0.150173 -0.048999 0.103779
-0.174041 -0.0914999 0.491296
-0.0243146 -0.0518876 0.123297
0.158762 -0.0459157 0.100202
0.137923 -0.0777433 0.617956
-0.34363 -0.0830994 0.497197
0.0525884 -0.089922 0.389858
-0.0244196 -0.0469386 0.650235
0.0095406 -0.000139156 0.466464
-0.202975 -0.0983687 0.474458
-0.187748 -0.0691241 0.533845
-0.402279 -0.080112 0.487382
-0.034988 -0.0245831 0.268533
0.00677948 -0.0632217 0.760833
0.0542007 -0.0527639 0.419304
-0.304009 -0.0895517 0.519386
0.0412573 -0.0239391 0.302485
-0.0248597 -0.0330619 0.203782
0.021821 -0.0815512 0.753669
0.0307144 -0.00216511 0.468111
0.00526473 0.0220584 0.148078
0.176133 -0.108304 0.572778
0.266339 -0.0868715 0.492071
-0.00105914 -0.0150173 0.290587
0.288818 -0.0970144 0.454638
-0.00831852 -0.000426823 0.528736
-0.204811 -0.0901796 0.501126
-0.0125856 -0.0471888 0.0729032
-0.00649791 -0.0393108 0.194122
0.00397418 0.046428 0.0661363
0.00246198 0.00253357 0.0682468
-0.0294326 -0.0335586 0.586275
-0.166503 -0.104957 0.417212
-0.18386 -0.0877716 0.619606
-0.199011 -0.090698 0.506049
0.0543168 -0.0537391 0.451359
-5.7891e-05 0.0235052 0.034494
0.170906 -0.105896 0.499897
-0.0362892 -0.104074 0.371249
-0.0518215 -0.0393713 0.372928
-0.0910893 -0.0948134 0.481782
-0.0173039 -0.0951094 0.462546
-0.388782 -0.0912418 0.481214
0.0540674 -0.0506665 0.486565
0.0449885 -0.103352 0.503824
0.192769 -0.0685186 0.559007
0.0058267 -0.0460943 0.670451
0.05206 -0.0405403 0.375195
0.0493128 -0.109984 0.463577
0.476989 -0.0808835 0.440211
-0.0473992 -0.107095 0.429696
-0.0373327 -0.0625744 0.700054
-0.0421019 -0.0644326 0.661774
-0.0290037 -0.0949253 0.474512
0.37436 -0.0891343 0.444129
0.221952 -0.0935663 0.426785
-0.181835 -0.0689236 0.606765
-0.206088 -0.0912523 0.556721
-0.0698371 -0.11015 0.474314
0.038223 -0.00642329 0.441976
0.133358 -0.0503351 0.118599
-0.0108243 -0.107557 0.442343
0.0288389 -0.106759 0.395489
0.395826 -0.0811915 0.462752
0.0482178 -0.0565445 0.597148
0.137308 -0.0938594 0.507247
0.158731 -0.107695 0.573089
-0.156111 -0.0701692 0.521507
0.158708 -0.0832629 0.436521
0.133737 -0.108209 0.458886
0.0516521 -0.08415 0.559827
0.00867255 -0.0521666 0.12762
0.00901339 -0.0509407 0.110907
0.27035 -0.0930723 0.52234
-0.0123779 -0.107498 0.452761
0.0705129 -0.051151 0.116191
-0.0233358 -0.0253806 0.578168
-0.0950713 -0.0508277 0.135436
0.238301 -0.101163 0.462243
0.0489667 -0.0425253 0.331138
0.166164 -0.10877 0.499878
-0.396451 -0.0904904 0.505359
0.201562 -0.102897 0.590755
0.00588927 -0.0374348 0.215961
-0.202422 -0.073824 0.538343
0.0388305 -0.0263272 0.282613
0.0419646 -0.0677213 0.279472
0.430278 -0.0884796 0.484746
0.00754812 -0.107682 0.418734
0.0437158 -0.0891655 0.311416
-0.34037 -0.0878163 0.431937
-0.0606164 -0.0454955 0.0905374
-0.0165675 -0.00476421 0.358601
-0.0259221 -0.0570894 0.718176
-0.00622806 -0.0514741 0.146418
-0.0537986 -0.067285 0.522591
0.0085389 -0.0971098 0.317355
0.152501 -0.107035 0.465353
0.126731 -0.104327 0.419519
0.31785 -0.0941383 0.449615
0.435305 -0.0879805 0.503078
-0.141301 -0.0872675 0.573418
-0.159194 -0.103849 0.433677
-0.166176 -0.106361 0.493554
0.119087 -0.0505793 0.131279
-0.0998825 -0.0499574 0.104196
-0.148782 -0.106625 0.540633
0.00214569 -0.021855 0.075906
0.0445552 -0.0129054 0.394323
-0.302466 -0.0854655 0.505508
-0.121521 -0.0956805 0.442368
0.187789 -0.107352 0.579269
0.202069 -0.0960865 0.444762
0.00382553 -0.035035 0.264739
-0.0532684 -0.0498274 0.539916
-0.384291 -0.0859986 0.431572
-0.0286493 -0.0426218 0.141189
-0.0444195 -0.082245 0.651474
0.00384293 -0.0443747 0.107607
-0.145052 -0.0913639 0.456409
0.118453 -0.0803245 0.617326
-0.125939 -0.105143 0.42498
-0.474484 -0.0854227 0.481091
-0.0246795 -0.0636688 0.736342
0.000603335 -0.0248902 0.219018
0.238302 -0.101464 0.495409
-0.00406315 -0.0202647 0.288732
0.307866 -0.0965699 0.502817
0.0724977 -0.0998348 0.41632
0.0375198 -0.0952474 0.453584
0.00206997 -0.0243365 0.306283
-0.035898 -0.106599 0.439384
0.00730868 -0.100943 0.524996
-0.335029 -0.0895898 0.42608
0.0151662 -0.103342 0.356082
-0.00334177 0.0444908 0.143727
-0.0308935 -0.0396277 0.223558
-0.351362 -0.0927156 0.45752
0.0480286 -0.10181 0.472434
0.0024766 -0.106413 0.382141
0.0526313 -0.0928641 0.461748
-0.00234891 -0.00466798 0.255235
0.000104497 0.0717105 0.0159364
0.202304 -0.0893059 0.45615
-0.185961 -0.101234 0.429314
-0.221647 -0.0891444 0.493066
-0.123244 -0.0783682 0.616355
-0.0305685 -0.0312937 0.230228
-0.0221867 -0.10579 0.66977
-0.0179856 -0.0998881 0.415935
0.20505 -0.0916904 0.503201
0.237726 -0.0963164 0.421877
-0.0176416 -0.000825563 0.482728
-0.192997 -0.0786526 0.464443
-0.000812656 0.0182435 0.179254
0.0245708 -0.105499 0.38128
-0.0446019 -0.0526162 0.6015
-0.130459 -0.0440874 0.135907
-0.0109404 -0.000257761 0.50753
-0.00432513 -0.0306955 0.28105
-0.0305067 -0.0511255 0.144879
-0.0473747 -0.0614767 0.309547
0.157768 -0.0923308 0.484214
0.0333577 -0.0854216 0.266838
0.00309955 -0.0407773 0.347582
-0.164943 -0.0744004 0.482361
-0.115468 -0.106913 0.432084
-0.0334763 -0.0337802 0.239412
0.174389 -0.10533 0.452615
0.149568 -0.103963 0.429275
-0.0427227 -0.0878655 0.661091
-0.0986285 -0.0977121 0.520561
0.162852 -0.0922862 0.47067
0.0510788 -0.106814 0.521368
0.00422226 -0.0205807 0.101011
0.0291609 -0.017194 0.567451
0.382362 -0.0916575 0.500162
-0.200588 -0.103241 0.452179
-0.0111055 -0.0383315 0.12968
0.0397489 -0.109917 0.504161
0.00265057 0.0529796 0.0466396
0.19355 -0.0913653 0.451408
-0.313579 -0.0846518 0.498909
-0.142432 -0.0775989 0.59336
-0.00667216 -0.100335 0.335653
0.053807 -0.0475919 0.506885
0.0042533 -0.0269911 0.104437
-0.0529929 -0.0883479 0.499986
-0.155937 -0.0787985 0.461406
0.0409068 -0.00981217 0.534451
-0.0361378 -0.00524074 0.484681
-0.00656387 0.000113067 0.486397
-0.0485463 -0.0684651 0.323648
-0.16733 -0.0920994 0.468326
-0.472279 -0.0786608 0.513093
-0.0239418 -0.0889501 0.274155
0.203879 -0.0790421 0.50459
-0.0196144 -0.000992726 0.487151
0.00203632 0.0814772 0.02888
0.17406 -0.0963272 0.378217
0.178516 -0.0699967 0.51782
-0.0375205 -0.104351 0.610782
-0.36221 -0.0824475 0.465245
0.045379 -0.103162 0.428232
0.042095 -0.109709 0.507876
0.181512 -0.104954 0.458091
0.00573035 0.00783679 0.146083
0.0530898 -0.0860033 0.4138
-0.415236 -0.0856818 0.441367
-0.438385 -0.0863049 0.458429
-0.0336568 -0.0751411 0.240394
-0.00713997 -0.102008 0.720806
-0.206058 -0.0886655 0.522224
-0.0171315 -0.021861 0.574836
0.00545453 -0.0236412 0.203916
-0.18099 -0.0933797 0.516424
-0.0841476 -0.110314 0.485023
-0.269298 -0.0871431 0.460613
-0.187095 -0.0859654 0.422876
0.00132746 -0.00761915 0.0590193
-0.0402874 -0.108926 0.442917
-0.23152 -0.0920148 0.435052
-0.091934 -0.0489681 0.0960209
0.113651 -0.109838 0.496055
-0.0425645 -0.0310983 0.290589
-0.000799316 0.110356 0.00692998
0.11902 -0.080301 0.616446
0.0196019 -0.107225 0.413428
0.0286516 -0.106853 0.594243
0.00276798 0.0863324 0.0992281
-0.143407 -0.0938969 0.60434
0.0702451 -0.0950022 0.500358
0.00416436 -0.0964403 0.513675
-0.146097 -0.072382 0.551764
0.0410025 -0.1062 0.42323
0.0523348 -0.055768 0.358664
0.00460018 0.0409871 0.076469
0.301747 -0.0852363 0.479568
-0.206078 -0.0845044 0.6152
0.0362184 -0.00528646 0.49996
-0.0436516 -0.00950191 0.45667
-0.142929 -0.0932442 0.500242
-0.102747 -0.110345 0.486993
0.0541241 -0.0587767 0.510746
-0.201917 -0.0721933 0.579002
-0.212035 -0.0996214 0.43181
-0.0288719 -0.106867 0.439579
0.0406155 -0.0894961 0.677727
-0.0193343 -0.107243 0.5612
0.0401374 -0.104162 0.584064
-0.0426053 -0.088279 0.30429
0.142321 -0.094555 0.596317
-0.0098381 -0.107563 0.578536
-0.0278735 -0.00695326 0.345217
-0.313551 -0.0911385 0.425614
0.168697 -0.0917218 0.489261
-0.202203 -0.0725564 0.584381
-0.00485536 -0.017339 0.202411
-0.122564 -0.107234 0.438255
0.149151 -0.0973531 0.404457
-0.00939639 -0.00369932 0.368473
-0.00393183 0.0254624 0.160806
-0.201142 -0.0996493 0.437521
0.00667293 -0.0590767 0.124311
-0.280011 -0.0987253 0.49243
-0.0956497 -0.0999893 0.415204
0.196032 -0.105927 0.582106
-0.00320983 -0.0296536 0.345233
-0.157184 -0.0687962 0.54747
-0.12623 -0.0943089 0.457676
0.184525 -0.0826737 0.622441
-0.0513193 -0.0954502 0.509773
0.0802481 -0.109867 0.45598
-0.0509563 -0.0748504 0.578742
0.0515572 -0.0797759 0.56505
0.193684 -0.0906509 0.477217
-0.00471754 -0.107779 0.647722
-0.0030929 -0.00752653 0.20244
-0.00561608 -0.00387908 0.123333
-0.178275 -0.108496 0.487619
-0.00896703 -9.05566e-05 0.488801
0.0481337 -0.0600993 0.601907
0.0765647 -0.0947243 0.488362
0.222406 -0.0942525 0.42169
-0.326999 -0.0941719 0.511218
0.189073 -0.0874186 0.416271
0.00269999 -0.0438769 0.364941
0.016132 -0.037821 0.15535
0.0226395 -0.107105 0.465055
0.000828716 -0.0452541 0.158035
-0.0966028 -0.0509832 0.128308
0.0531991 -0.0823246 0.52774
-0.231439 -0.101832 0.499457
-0.157018 -0.10863 0.545009
0.407139 -0.079989 0.479678
0.00920338 -0.0520797 0.12245
0.167893 -0.0887315 0.409844
0.26482 -0.0877617 0.455542
0.182015 -0.108711 0.499736
0.176888 -0.0915487 0.499588
0.336122 -0.0858757 0.447258
0.0332296 -0.0801203 0.248745
0.170162 -0.0684571 0.539784
0.167342 -0.0477512 0.139224
0.151709 -0.08166 0.452788
0.270647 -0.0990399 0.466921
0.00168905 -0.0265933 0.186104
-0.162903 -0.108097 0.483482
0.00120981 -0.029339 0.16716
0.0309378 -0.0974163 0.433788
-0.0236334 -0.0456134 0.643063
-0.00461267 -0.106323 0.424121
0.000389498 -0.107956 0.474629
0.184648 -0.103116 0.442196
-0.177079 -0.0674398 0.569859
-0.246518 -0.0882146 0.464659
0.306545 -0.0918239 0.426763
0.0302083 -0.00470883 0.385267
0.0157194 -0.107351 0.55416
-0.00107693 -0.00170213 0.0569134
0.186618 -0.101333 0.607654
-0.131801 -0.105907 0.519895
0.377026 -0.0858499 0.434878
0.157726 -0.108449 0.501434
0.162689 -0.0925776 0.452267
0.00512313 0.0284185 0.142785
0.195419 -0.0725701 0.509014
0.00213869 -0.0532044 0.591752
-0.142033 -0.0819149 0.596841
-0.423746 -0.0791533 0.500954
0.173273 -0.084612 0.427724
-0.149374 -0.0441316 0.130998
0.0481824 -0.0994309 0.419238
0.0473786 -0.019078 0.538712
0.243082 -0.0882375 0.500498
-0.0160325 -0.042288 0.137396
0.0253011 -0.107004 0.467899
-0.0190377 -0.0515828 0.144021
-0.0505235 -0.0828999 0.578697
0.122505 -0.0504429 0.116022
-0.153561 -0.0699497 0.527317
0.0874471 -0.109836 0.453927
-0.212917 -0.0915118 0.514836
0.158341 -0.0927958 0.507141
-0.0690285 -0.0992369 0.522685
-0.000685444 -0.00900395 0.311943
0.216894 -0.076959 0.616234
0.0312965 -0.0925942 0.710622
0.311945 -0.0951841 0.511307
0.000578711 0.0131023 0.0428382
0.122597 -0.0436854 0.124982
-0.020826 -0.0676894 0.183334
-0.0392402 -0.00700014 0.484377
-0.051633 -0.0777331 0.361964
0.0518531 -0.0649904 0.574975
0.231634 -0.0889475 0.503695
0.131432 -0.0503718 0.132285
0.0017379 0.0460641 0.145659
0.0452136 -0.103171 0.53758
0.00526876 -0.0171794 0.198107
-0.202758 -0.0960351 0.461252
-0.0217781 -0.08667 0.750483
-0.0522804 -0.0304249 0.418306
-0.170842 -0.109152 0.548362
0.0530041 -0.0881714 0.424053
-0.0312575 -0.0453434 0.222827
-0.14956 -0.0929748 0.468915
0.00534148 -0.109843 0.454409
0.189742 -0.103634 0.603011
-0.179889 -0.10682 0.431637
-0.00899921 -0.104377 0.364144
-0.222749 -0.089637 0.507309
0.205292 -0.096988 0.588411
-0.340285 -0.0835686 0.463303
0.00218209 -0.00338679 0.362666
0.0203904 -0.0962662 0.314851
0.00415 -0.0173487 0.0985822
0.00251692 -0.0222896 0.356494
0.00528635 0.00831985 0.168756
0.383 -0.0904924 0.458626
0.046111 -0.0197398 0.353828
0.0540387 -0.0611565 0.428504
-0.436236 -0.0792597 0.464291
-0.182881 -0.0705349 0.611822
0.000479712 -0.0485262 0.360869
