0.0602409 -0.0801402 0.487563
0.0390463 -0.0564445 0.548843
-0.0261599 -0.00316367 0.196369
0.0820204 -0.0792803 0.49221
-0.0609147 -0.0223196 0.0532544
0.44723 -0.0628982 0.431569
-0.0297596 -0.0601142 0.306658
0.0153504 -0.0059427 0.490165
0.0121074 -0.0533041 0.569688
-0.319678 -0.072493 0.447915
0.0463478 -0.0691995 0.365335
0.027337 -0.00277475 0.633537
-0.0334457 -0.0747385 0.593111
-0.0178011 -0.0437337 0.604637
-0.0291962 0.023923 0.379898
-0.0152375 -0.0579487 0.717727
0.144508 -0.055339 0.432814
0.0129171 -0.0672716 0.529277
-0.0463117 -0.0515373 0.467213
0.0156319 0.00710092 0.116086
0.342744 -0.0734411 0.464506
-0.0764022 -0.0659385 0.350019
0.0790999 -0.0139595 0.0632506
0.018346 -0.0208699 0.751113
-0.0708987 -0.0774047 0.424954
-0.039975 -0.0481414 0.634923
0.0115166 -0.0177898 0.429559
0.00943352 -0.0502266 0.450656
-0.111958 -0.0185508 0.0999388
-0.0379398 0.0173004 0.53432
0.344415 -0.0677199 0.421724
-0.0187561 -0.00777237 0.0678656
0.040842 -0.0110906 0.525238
0.0399432 -0.0771071 0.559092
0.441044 -0.0689124 0.451658
0.0791114 -0.0588271 0.549261
0.149644 -0.0205062 0.0465348
0.0439391 -0.0307486 0.597137
-0.00849107 0.0168598 0.188686
0.263506 -0.0753198 0.489119
0.182519 -0.0550665 0.516171
-0.0104827 0.0327553 0.588383
0.0250675 -0.0164711 0.167085
0.0831734 -0.0779824 0.526399
0.420995 -0.0590826 0.452749
0.0253646 -0.0804434 0.546905
-0.0364362 -0.0579978 0.483421
-0.0542617 -0.0741199 0.561456
-0.0214398 -0.0843617 0.584008
-0.100586 -0.0540218 0.458227
-0.028801 -0.0781494 0.548192
-0.0294256 -0.0582629 0.297014
-0.222198 -0.075831 0.473851
0.126772 -0.0195484 0.0387673
0.167755 -0.0693443 0.392361
0.0142869 0.0203475 0.227609
0.0398898 -0.0567332 0.404066
0.00243617 -0.0534238 0.564511
0.290842 -0.0592237 0.537037
0.14361 -0.0543867 0.466619
0.205665 -0.0688835 0.397915
-0.146845 -0.0179014 0.0950144
0.131725 -0.0543106 0.464933
0.328314 -0.0736053 0.521925
0.124594 -0.0542632 0.464033
-0.0167618 -0.0648101 0.574783
-0.0968398 -0.0231427 0.0774095
-0.0316899 -0.0238598 0.0771448
-0.0172736 -0.0346221 0.0770463
-0.00920603 -0.0453846 0.697114
0.178419 -0.076105 0.517136
-0.0925579 -0.0572784 0.410998
0.0307503 -0.0646303 0.349585
0.0104173 -0.0288096 0.412139
-0.0249487 0.0314467 0.458265
-0.0128515 0.0197644 0.220166
-0.0917922 -0.0546259 0.524103
-0.00573382 0.00481893 0.0682159
0.0941131 -0.0139734 0.0859967
0.22285 -0.0552073 0.459053
0.299296 -0.0598111 0.537923
-0.167959 -0.0761329 0.437659
0.0175146 -0.0365823 0.731352
0.0380181 -0.0371366 0.752161
0.0413233 -0.0310906 0.544959
-0.433189 -0.0724352 0.504683
0.0424242 -0.0804589 0.530821
-0.420454 -0.0567597 0.469793
-0.0191995 -0.0237723 0.0636175
0.0468785 -0.0531504 0.546145
0.279778 -0.0746008 0.514797
0.00364281 -0.0768803 0.276255
0.0285687 0.0303807 0.486216
-0.0514542 -0.0210234 0.749399
-0.00317111 -0.0852624 0.364315
0.047345 -0.0325036 0.745881
0.412392 -0.0685157 0.442495
-0.000491009 -0.0755861 0.711073
0.0302435 -0.0151757 0.048518
-0.00190362 0.00111986 0.0414468
0.0159381 0.032353 0.372326
-0.00772427 -0.0129659 0.0942502
0.0109864 -0.071853 0.588439
-0.00786576 0.0306538 0.321823
-0.0138031 0.00497953 0.602847
-0.0356516 -0.0296968 0.350934
0.17187 -0.0763812 0.450887
0.221733 -0.0625922 0.396994
-0.229491 -0.0549683 0.476861
-0.0857458 -0.0787528 0.470172
0.0262071 0.0130711 0.255824
0.0378668 -0.0316748 0.430027
0.0195152 -0.0813267 0.453591
-0.0393457 -0.0200806 0.748061
0.351572 -0.0558957 0.485391
-0.0145806 -0.0458557 0.48205
-0.0226412 -0.00136013 0.144972
-0.157368 -0.0768182 0.461003
0.287351 -0.074172 0.451752
0.0168923 -0.0668092 0.240792
0.256248 -0.0555809 0.454207
0.140546 -0.0224365 0.0640476
0.00117549 -0.00269287 0.0362403
0.0318361 -0.0769454 0.598674
0.334252 -0.0559809 0.518219
0.177667 -0.0634153 0.384351
0.00298799 -0.0366398 0.359861
0.0251933 0.0203684 0.29447
-0.0180372 -0.0181123 0.532585
-0.182815 -0.0548893 0.457084
-0.280512 -0.0570078 0.443771
0.0345845 -0.0574509 0.404564
-0.310285 -0.0741213 0.469204
-0.00188775 0.0529613 0.0262994
0.047328 -0.0237978 0.0838119
-0.010464 -0.00447227 0.476319
0.0356504 -0.01265 0.348393
0.0520372 -0.0391901 0.74636
-0.187332 -0.0762298 0.459003
-0.03647 -0.0343393 0.38661
0.0351076 -0.0793388 0.430668
-0.30258 -0.0692161 0.422182
0.277625 -0.0557242 0.456844
0.000222447 -0.0641913 0.199388
0.0382011 -0.0501042 0.476168
0.406136 -0.0728025 0.496636
0.0376676 -0.0371379 0.752235
0.0186193 -0.00675275 0.698259
0.32652 -0.0575168 0.52928
-0.387059 -0.057939 0.454863
-0.0187056 0.00537124 0.132653
-0.345541 -0.0735339 0.473168
0.398906 -0.0662363 0.424229
0.0351705 -0.0411526 0.350018
0.0403516 -0.0386119 0.644301
0.145704 -0.0694323 0.38793
0.0137478 -0.065174 0.528534
0.356306 -0.0720715 0.453439
-0.0227873 -0.0320052 0.139017
0.0652444 -0.0527368 0.444123
-0.0661781 -0.0598603 0.557834
0.0145271 -0.0697383 0.568693
-0.043671 0.00417063 0.589942
0.0138812 0.00987558 0.131395
0.0311466 -0.0608294 0.325625
-0.347545 -0.0559893 0.477672
0.0207192 -0.0798914 0.557762
0.155481 -0.072603 0.41129
0.219823 -0.0757703 0.467559
-0.183997 -0.0555745 0.437656
-0.0334721 -0.0631232 0.415816
-0.00532965 0.000198324 0.638282
0.322177 -0.056172 0.456109
0.371308 -0.0724412 0.459316
-0.210198 -0.0755763 0.445221
0.43762 -0.0579757 0.462828
0.0185192 -0.0173914 0.0573407
0.0304492 -0.0030453 0.268478
0.0208555 -0.0526809 0.560842
-0.109803 -0.0544633 0.444271
-0.0259765 -0.067716 0.299347
-0.0354911 -0.0662109 0.523659
0.0586398 -0.0369218 0.751045
-0.0806232 -0.0231137 0.0898549
0.428228 -0.0723446 0.512996
0.160603 -0.066596 0.372414
-0.361462 -0.0735305 0.490651
-0.0808961 -0.0556893 0.536557
-0.0324317 0.0174708 0.365831
-0.033879 -0.035988 0.323943
0.0296239 -0.0746208 0.487381
-0.00478225 0.00156451 0.609236
-0.379668 -0.0559924 0.509987
-0.370059 -0.0560603 0.515096
0.286245 -0.0554072 0.510195
-0.0353268 -0.00484161 0.348018
0.328189 -0.0740123 0.482558
-0.0026007 -0.056134 0.326822
0.0354074 -0.0371121 0.352525
0.410816 -0.0693295 0.538266
0.0199886 -0.0457616 0.571097
-0.0121804 -0.0542216 0.563611
0.451133 -0.0567148 0.488581
-0.378624 -0.0562564 0.477988
0.248648 -0.0726116 0.432545
0.197738 -0.0550891 0.514995
0.137907 -0.0219417 0.0891588
0.030234 -0.0304283 0.261194
0.0149075 -0.0633974 0.630419
0.0467587 -0.0520732 0.540837
-0.0160719 0.0362462 0.557669
0.00584235 -0.0654886 0.338866
-0.0133546 -0.0618287 0.500976
-0.0177925 -0.0307087 0.0683746
0.0183343 -0.0851431 0.574865
0.34741 -0.0615105 0.424613
0.0498181 -0.080852 0.503358
0.0200587 -0.0264772 0.091145
-0.00888122 0.00131486 0.0368587
-0.00283347 -0.0632888 0.418413
-0.278139 -0.0565209 0.446632
-0.0210223 -0.0150456 0.0994038
0.0336678 -0.0154442 0.315024
0.356423 -0.0562684 0.5216
0.110377 -0.0156706 0.0962081
-0.0968315 -0.0537515 0.464751
0.275618 -0.0571161 0.527522
-0.030558 -0.0512915 0.441295
-0.0350931 -0.00559895 0.339141
0.0548783 -0.0796994 0.447242
-0.0212955 -0.0792571 0.331414
0.0204737 -0.0184544 0.571079
0.334355 -0.0738569 0.480088
-0.0154259 -0.0619299 0.53201
-0.04251 -0.0162435 0.60898
-0.0202939 -0.050828 0.442605
0.00736467 -0.0849748 0.393841
-0.220943 -0.0758877 0.475859
-0.0151593 0.0250742 0.598698
-0.295355 -0.0688207 0.417902
0.0334051 0.0279102 0.567548
-0.0613872 -0.0210447 0.753378
-0.307172 -0.0555481 0.48291
0.0501564 -0.03636 0.756095
-0.453411 -0.0678452 0.54003
-0.233164 -0.0565612 0.439061
-0.00137798 -0.0191818 0.0287352
-0.124645 -0.0754762 0.423427
0.371033 -0.0699931 0.442936
-0.142232 -0.0544829 0.460129
-0.397885 -0.0730724 0.503665
-0.00516899 -0.0578937 0.362994
0.261926 -0.072248 0.433142
0.390472 -0.0567554 0.463308
-0.0341255 -0.0545423 0.366935
0.00370355 -0.0604017 0.383632
-0.318292 -0.0557854 0.516021
-0.00226809 -0.0475958 0.562896
0.0189985 -0.0193599 0.59166
-0.102401 -0.061487 0.384913
-0.0395363 -0.0237353 0.089253
0.159449 -0.0148909 0.083937
0.296801 -0.0742562 0.462316
-0.0365621 0.0175733 0.494215
-0.00686806 0.0166357 0.581028
0.375085 -0.0695307 0.440775
0.117974 -0.0747204 0.416871
-0.0350779 -0.00108185 0.344868
0.0394114 -0.04364 0.666468
0.456657 -0.0719886 0.510361
0.0146919 -0.0398427 0.0854106
0.0242308 -0.0202143 0.154652
-0.325991 -0.055961 0.518705
0.0122883 -0.0525901 0.145735
-0.174091 -0.0768217 0.479825
-0.20786 -0.0763136 0.497079
-0.323845 -0.0561076 0.458139
-0.0255552 0.00374391 0.208114
-0.131112 -0.0217702 0.0910772
-0.125947 -0.0777853 0.484135
-0.26273 -0.0570109 0.440863
0.0511979 -0.0511764 0.501451
-0.0403875 -0.0373642 0.528204
-0.027243 0.0319355 0.507526
-0.126972 -0.0218387 0.0540448
0.0309862 -0.050267 0.515936
0.160634 -0.0196028 0.0411789
-0.0384242 -0.00169273 0.457147
-0.404459 -0.0723829 0.469655
0.00206823 0.0204645 0.217059
0.014184 -0.060552 0.652103
-0.151824 -0.0761628 0.434188
-0.39167 -0.0709035 0.4537
0.410217 -0.0724448 0.479749
-0.0129615 0.00194945 0.608522
0.0402648 -0.0101019 0.507438
-0.0181734 -0.00965537 0.0561094
-0.369002 -0.0658399 0.414783
0.0201945 0.0313397 0.385865
0.035599 -0.0563741 0.569633
-0.199753 -0.0757593 0.444584
-0.00318894 0.064125 0.0512777
-0.0837612 -0.0527451 0.491369
0.0117944 -0.0706808 0.55321
-0.456899 -0.0636676 0.42801
0.0895304 -0.0723577 0.395049
0.020582 -0.0540648 0.722138
0.273697 -0.0569101 0.443316
-0.26351 -0.0553169 0.473836
-0.0387405 -0.0235308 0.062103
-0.40905 -0.0646457 0.415932
0.40501 -0.0722284 0.525174
-0.0343411 0.0242461 0.511662
-0.0352926 0.000375595 0.354076
0.014556 -0.0257223 0.477547
-0.0364935 -0.02588 0.69428
-0.120548 -0.0148677 0.0560344
0.0364838 -0.0679947 0.355326
0.362447 -0.0732404 0.47436
0.134841 -0.0225147 0.0649567
0.0504939 -0.0712072 0.37955
0.0405762 -0.0571146 0.567644
0.0178574 0.0237273 0.274012
0.0669486 -0.0523011 0.516216
-0.0376793 -0.0155969 0.412003
-0.0439521 -0.0432312 0.581625
-0.0890429 -0.0564045 0.416119
0.0130625 -0.0500453 0.672235
-0.458113 -0.0565961 0.514271
0.0238767 -0.0814246 0.470724
-0.0120484 -0.0504972 0.555379
-0.163255 -0.0711277 0.403225
-0.0383427 -0.0403982 0.746766
0.0324998 -0.0192265 0.109721
0.00388878 -0.0745898 0.565157
-0.0204728 -0.0393997 0.128366
0.243066 -0.0745221 0.44401
-0.142975 -0.0557487 0.521325
-0.00353948 -0.0118465 0.117755
-0.0164803 -0.0326752 0.507932
-0.127422 -0.077491 0.468092
-0.00573211 -0.0693127 0.500991
0.0274989 -0.0780229 0.500132
-0.0301406 -0.0731221 0.478898
-0.409267 -0.0691551 0.538528
-0.147001 -0.0724631 0.408429
-0.276106 -0.0631138 0.542511
0.165099 -0.0548572 0.513851
-0.031613 -0.0688137 0.435938
0.00675811 -0.0121199 0.448656
-0.0673376 -0.0796021 0.473606
-0.106736 -0.0743485 0.530587
0.0195012 -0.00249955 0.0918046
0.0348671 0.0150507 0.423858
-0.166046 -0.0564273 0.524607
0.0204326 -0.0233231 0.0950761
-0.200828 -0.0582478 0.422566
-0.0294729 0.022862 0.369415
-0.0352907 -0.0297191 0.721077
0.311035 -0.057455 0.529046
0.033411 -0.0221689 0.10436
-0.06748 -0.0745893 0.405502
-0.00218185 0.0190969 0.204591
0.0164055 0.0370747 0.541868
-0.110965 -0.0556526 0.425277
0.203762 -0.0673178 0.387044
0.0911091 -0.0532941 0.477407
-0.258658 -0.0688344 0.409644
0.0110741 -0.0503222 0.449153
0.15306 -0.0173111 0.0417152
0.0165902 -0.0614385 0.210769
-0.022368 -0.0512907 0.194694
-0.0447789 -0.0388498 0.747801
-0.282728 -0.0739926 0.449504
-0.037014 -0.0644483 0.637747
0.342466 -0.0624921 0.417266
0.0403619 -0.0170517 0.500097
-0.00540079 -0.0146779 0.639639
0.017195 -0.0166172 0.519278
-0.0175719 -0.0583028 0.58228
0.213921 -0.061175 0.405175
-0.00646576 0.0203438 0.574087
0.199597 -0.0738334 0.52818
-0.0462038 -0.0807064 0.485286
0.202011 -0.0741315 0.432065
0.0340657 0.0204309 0.44254
0.0785425 -0.0559235 0.417219
-0.457778 -0.0709215 0.46886
-0.0349635 -0.0293874 0.330806
0.0164984 -0.0789214 0.655556
-0.0233281 0.0284631 0.35434
-0.00165659 0.0312066 0.321493
0.234303 -0.0587916 0.424375
0.0360132 -0.0230323 0.0564985
-0.0130132 0.0260243 0.281664
0.0156698 0.0349006 0.581449
0.0993981 -0.019769 0.0385809
0.017435 -0.00840417 0.523096
0.189689 -0.0698756 0.400893
0.450041 -0.0586448 0.460384
0.314597 -0.0717521 0.44182
0.30048 -0.0559683 0.454218
0.193438 -0.0764535 0.479239
0.0208256 -0.0303786 0.106324
-0.260402 -0.0748086 0.517632
0.0344567 0.0144804 0.406285
-0.388578 -0.0564117 0.47391
0.0943659 -0.0532281 0.491514
0.00893493 -0.074153 0.632366
-0.244374 -0.0709174 0.537391
0.160211 -0.0543431 0.477946
0.320531 -0.0557668 0.476818
0.0323556 -0.0607304 0.690303
0.0407785 0.00461382 0.543913
0.0318475 -0.00492984 0.291115
0.0115017 -0.0842877 0.6206
0.22337 -0.0757668 0.506256
0.00472216 -0.0857581 0.453822
0.347477 -0.0557972 0.489137
0.191238 -0.0706518 0.406419
-0.00639622 -0.0824875 0.533769
0.0306116 -0.0406475 0.274109
-0.147875 -0.0163786 0.0476166
0.156713 -0.054203 0.484505
-0.0187099 -0.0803891 0.43438
0.0258483 0.0314038 0.475074
-0.0106091 -0.0825936 0.506606
0.1734 -0.0723589 0.41374
-0.0351947 -0.0132753 0.0751364
-0.199514 -0.0651333 0.376444
0.0358574 -0.041745 0.374641
-0.0298502 -0.0580102 0.704232
-0.0406021 -0.0465661 0.544789
0.0391292 -0.0187735 0.456236
0.405714 -0.0726155 0.484969
-0.0801124 -0.0213482 0.04794
0.0358923 -0.0780649 0.556956
0.0847559 -0.0728846 0.397603
0.150654 -0.0224542 0.0788578
0.0143155 -0.0313806 0.655184
0.0147227 -0.0418483 0.649692
0.0450974 -0.0584768 0.393486
-0.0314775 -0.0665728 0.379314
-0.0270724 0.0322688 0.5146
0.152339 -0.0656232 0.365518
-0.00916072 0.0120503 0.589614
-0.123431 -0.014258 0.0808966
-0.186922 -0.0767873 0.492045
0.32347 -0.0554974 0.494491
-0.299645 -0.0734129 0.449489
-0.0215822 -0.0705218 0.369182
0.220888 -0.058242 0.425861
0.339169 -0.0736992 0.514053
-0.0288996 -0.0228002 0.0545209
-0.269531 -0.0749857 0.508076
-0.148349 -0.0666122 0.369734
-0.156923 -0.0541881 0.485507
0.0807565 -0.0187196 0.0304582
-0.347056 -0.0677975 0.422842
0.04028 -0.0283024 0.509646
0.118437 -0.0197667 0.0397179
0.0641131 -0.0712667 0.382679
-0.000875904 0.00565157 0.601581
-0.00393241 0.0180534 0.0904198
0.13103 -0.0680775 0.375561
0.328393 -0.0693216 0.428758
0.454923 -0.0691231 0.45622
0.277399 -0.0666943 0.39964
0.0433475 -0.0340578 0.569174
-0.0356972 0.017932 0.470695
-0.0166875 -0.0847207 0.51807
-0.0188102 -0.000738873 0.0947803
-0.45003 -0.0565005 0.512502
-0.035998 -0.0123366 0.360166
0.146756 -0.0563571 0.524349
-0.311457 -0.0661966 0.40407
0.413016 -0.0714696 0.462329
-0.0158868 -0.084153 0.436877
0.304417 -0.0685153 0.54032
0.378604 -0.0729926 0.477458
0.418323 -0.060615 0.442099
-0.211348 -0.0548595 0.507246
0.010529 -0.0531769 0.423349
-0.116535 -0.065352 0.361512
-0.225762 -0.0757311 0.471819
-0.0334519 -0.0569732 0.401175
0.00510029 -0.00228808 0.672174
0.356626 -0.0559657 0.483848
0.00260534 0.0345622 0.408655
0.00317887 0.0612962 0.0473033
0.000569466 0.0431715 0.0849297
0.0728541 -0.0567629 0.547193
0.144998 -0.076761 0.513111
-0.0205655 -0.0801911 0.352782
-0.155063 -0.0592824 0.408236
-0.249465 -0.0550968 0.507097
0.0399905 -0.0312451 0.646698
-0.0277262 -0.0439662 0.234048
0.133673 -0.0774297 0.498353
0.0137781 -0.013231 0.465296
-0.0954095 -0.0784848 0.479049
-0.0359215 -0.00949116 0.361528
-0.0185993 -0.0551054 0.582093
-0.00388422 -0.0232911 0.0562802
0.0300367 -0.00927018 0.257123
0.0930742 -0.0229616 0.0889493
-0.0245584 -0.0198529 0.158915
-0.383837 -0.0567594 0.462204
0.0438327 -0.0421261 0.591279
-0.0274456 -0.0520904 0.253535
0.298726 -0.0558322 0.46145
-0.265415 -0.0657253 0.390453
0.14283 -0.0590209 0.535921
0.125553 -0.0764685 0.430248
-0.303508 -0.0609177 0.421437
0.216731 -0.0756634 0.457695
-0.235903 -0.0674703 0.542385
-0.0292095 -0.0696547 0.35857
0.286041 -0.0731571 0.526923
0.037333 -0.0313574 0.690228
0.382364 -0.0670423 0.425839
0.421827 -0.0675105 0.437939
0.327255 -0.073477 0.523107
0.00266717 0.0834551 0.0323745
0.0111988 -0.0664639 0.693674
0.257366 -0.0560225 0.446582
-0.0936394 -0.0781558 0.454706
0.0158793 -0.000737498 0.498539
-0.0352046 -0.0653411 0.502322
0.208084 -0.0611679 0.404274
0.370235 -0.0734849 0.497674
-0.0154409 -0.0518357 0.431813
0.0242763 0.0341955 0.528696
-0.020273 -0.012303 0.0894582
-0.0148565 -0.0667245 0.553269
0.112658 -0.0543249 0.454063
0.0183303 -0.00478999 0.600678
-0.15294 -0.0771719 0.477327
0.00124661 -0.0572044 0.393174
0.0691279 -0.0199927 0.0382395
0.11057 -0.0726878 0.401637
-0.0813557 -0.0601724 0.389456
-0.0738385 -0.0753146 0.411611
0.0866134 -0.0230482 0.0891898
0.139958 -0.0568076 0.526634
-0.118101 -0.0219214 0.0923556
-0.0160803 0.00975106 0.143809
0.0837447 -0.0786445 0.458489
-0.293858 -0.0692863 0.539307
-0.197869 -0.0747978 0.523451
-0.142239 -0.022199 0.0871961
-0.164892 -0.0543286 0.481274
-0.0134879 0.0147478 0.17601
-0.3617 -0.0562327 0.470523
0.00919169 -0.0620846 0.444747
0.317751 -0.0594107 0.433797
0.0872575 -0.013773 0.0798713
0.414394 -0.0678134 0.438268
0.214534 -0.05525 0.452128
-0.0466035 -0.0806137 0.480761
0.00714935 0.036631 0.498532
-0.0166161 -0.0611075 0.545028
0.0321898 -0.0678705 0.431884
0.0109965 -0.0370527 0.421264
0.0134942 -0.0766424 0.282834
0.00307871 0.0337425 0.587752
0.00398549 0.035919 0.462948
-0.341079 -0.0610762 0.539963
-0.0247429 -0.00337256 0.172234
0.0420127 -0.0448141 0.612307
0.265575 -0.0554045 0.514045
-0.0555996 -0.0134287 0.0794822
0.00568196 0.0371645 0.513163
0.0258042 -0.0506256 0.724281
0.038786 -0.0803707 0.539924
0.014275 -0.0618818 0.364604
-0.0305922 -0.0609854 0.320025
0.037968 -0.081067 0.485658
-0.0643083 -0.0153238 0.101679
-0.337106 -0.0720476 0.448911
0.111763 -0.0640231 0.369598
0.00110153 0.00442988 0.0610643
-0.0381821 -0.0810124 0.482934
-0.00516001 -0.0541465 0.333662
0.0795648 -0.0549902 0.533934
0.0111018 -0.049631 0.535297
-0.0355862 -0.00972741 0.349966
0.064848 -0.0153309 0.0495778
-0.326691 -0.0559175 0.471022
0.167026 -0.0771349 0.490778
0.204841 -0.0705114 0.408578
0.0166572 -0.0267737 0.510746
0.417601 -0.0582453 0.45778
0.00479387 -0.011318 0.0913995
0.4611 -0.0712753 0.471974
0.0338499 -0.0199457 0.725905
-0.0873436 -0.0556975 0.532375
0.0727697 -0.0526635 0.467934
0.0229365 0.0234996 0.298583
0.00243617 -0.0556406 0.569643
-0.0155547 0.0348894 0.460358
0.0088 -0.0587266 0.384541
-0.182657 -0.0544765 0.499189
-0.139753 -0.07759 0.487766
-0.188443 -0.0634726 0.542534
0.14568 -0.0540657 0.486935
0.27964 -0.0745292 0.459612
0.106421 -0.0140622 0.0826233
-0.0167451 -0.0588535 0.541002
-0.0663729 -0.0712763 0.383195
-0.0347781 -0.0562005 0.40664
0.00313578 -0.00282218 0.113172
0.0177599 -0.0136047 0.608435
0.230476 -0.0595951 0.418397
-0.0167165 -0.0236643 0.511699
-0.0119701 -0.0553768 0.407509
-0.0237731 0.00625252 0.622894
-0.038964 0.0141283 0.537857
-0.0121804 -0.0635555 0.557537
0.0265925 0.0209042 0.312485
-0.334869 -0.0735169 0.460305
0.148397 -0.072654 0.410018
0.272775 -0.0752052 0.492551
-0.0150079 -0.0624086 0.528831
0.0372047 -0.0565183 0.494987
0.00938836 -0.0730732 0.671704
0.0116145 -0.0461965 0.434112
0.205714 -0.0546784 0.501431
-0.351474 -0.0701531 0.439552
-0.00471438 -0.0501838 0.441041
-0.0244912 -0.0372134 0.756097
-0.170495 -0.0744083 0.42674
0.015937 -0.0594544 0.622578
0.24202 -0.0752504 0.461031
-0.148807 -0.0207952 0.0924274
0.00553941 0.023952 0.254068
-0.027901 -0.0780189 0.517199
-0.0327294 -0.0511441 0.455741
-0.0677371 -0.0749036 0.407648
-0.0366551 -0.0278909 0.69424
0.0342412 -0.0714919 0.378188
-0.122056 -0.0647504 0.36642
0.153303 -0.0222463 0.0610937
0.0507547 -0.0201155 0.0379468
-0.027706 -0.0616578 0.286606
0.142774 -0.0551528 0.433774
-0.0417573 0.00930935 0.559883
0.21362 -0.0758574 0.465887
-0.160205 -0.0765475 0.447896
-0.0374538 -0.0217502 0.40204
0.084172 -0.0782779 0.437567
-0.241443 -0.0754694 0.506713
-0.338189 -0.0558845 0.515872
-0.201873 -0.0757546 0.44666
0.00245092 0.0669872 0.0271197
0.453043 -0.064298 0.423622
0.0148457 -0.0226122 0.0524177
-0.429377 -0.057169 0.466868
0.373066 -0.0616798 0.42765
0.00898461 -0.0855239 0.494285
-0.00245033 -0.0129079 0.445781
-0.00225361 -0.08179 0.560363
0.0395003 -0.01223 0.47862
0.0542391 -0.0775214 0.422391
0.0512812 -0.0561117 0.410495
-0.025808 0.0278749 0.376939
0.394014 -0.0577725 0.457103
-0.382253 -0.0629213 0.420864
0.00931582 -0.0710243 0.246684
0.32165 -0.0722641 0.529477
0.157721 -0.0546886 0.511272
0.250862 -0.0641555 0.543858
-0.259247 -0.0752209 0.478433
0.0340745 -0.0325828 0.324418
0.075622 -0.0537986 0.530559
-0.33333 -0.0741822 0.502282
0.365697 -0.0691193 0.435896
-0.287104 -0.0556618 0.46556
-0.0950277 -0.0565395 0.41642
0.0515566 -0.0179453 0.0313455
0.367875 -0.0558058 0.505519
-0.149379 -0.069545 0.389518
-0.0201546 -0.0276103 0.576012
-0.000918553 0.00256682 0.607355
-0.0447219 -0.0810212 0.509902
0.0384866 0.0117609 0.50409
-0.117493 -0.0601077 0.396633
0.190387 -0.071237 0.410126
0.0674925 -0.0799108 0.492527
-0.396524 -0.0576235 0.529476
0.0414352 -0.0430527 0.55225
-0.00141329 -0.0864226 0.49186
0.0400899 -0.0446668 0.639282
-0.0177226 -0.0414414 0.606669
-0.000767569 -0.0870842 0.569988
0.120684 -0.0542614 0.462087
0.00331879 -0.0496297 0.47068
0.231964 -0.075499 0.510252
0.1725 -0.0638651 0.380513
0.00344812 0.047415 0.0526546
0.0286773 -0.0752132 0.647653
0.00307939 0.0498852 0.0714381
0.309106 -0.0660147 0.402322
0.429427 -0.0720816 0.520306
0.0131026 -0.0161865 0.737812
0.348397 -0.0733732 0.519484
0.0127179 -0.049517 0.501705
-0.226198 -0.0674689 0.393156
0.0444562 -0.0508185 0.505525
0.169783 -0.0735771 0.421038
0.0279769 -0.0718937 0.668404
-0.256267 -0.0550361 0.486857
0.0338701 0.0259692 0.532347
-0.103661 -0.0558288 0.422891
0.134704 -0.0771178 0.453775
0.0365011 -0.0451529 0.693151
0.0331777 -0.0343314 0.3122
-0.0188329 -0.00948263 0.725213
-0.0558636 -0.0234198 0.0668241
-0.00345653 0.0449662 0.0505477
-0.196468 -0.0680027 0.389951
0.0164104 -0.0414016 0.744853
0.00455024 -0.0188902 0.647512
-0.155646 -0.0741843 0.421868
-0.0164816 -0.0458191 0.730431
0.0355555 0.01784 0.468291
-0.000805572 -0.0662913 0.336816
0.109232 -0.0544208 0.511106
0.0428529 -0.0302616 0.561567
-0.0265007 -0.079988 0.553491
0.00096748 -0.051849 0.709212
0.189581 -0.0762694 0.506992
-0.0665366 -0.0521369 0.483427
0.0679472 -0.0668476 0.35399
0.357881 -0.0612728 0.427899
-0.141263 -0.0146221 0.0647771
-0.301484 -0.0580583 0.440173
-0.0157193 -0.0748805 0.674247
0.0150916 -0.0409418 0.644688
-0.281118 -0.0662664 0.397633
0.369726 -0.0568553 0.525765
0.0596719 -0.0239277 0.746381
0.415145 -0.0716932 0.464305
-0.0645407 -0.0204076 0.0407279
0.431618 -0.0723984 0.509791
0.026917 -0.0231074 0.201805
0.349747 -0.0733745 0.518816
-0.0117886 -0.0824807 0.502875
-0.0278346 -0.0167912 0.215056
-0.0317327 -0.0581741 0.325905
-0.375896 -0.0620441 0.541541
-0.143797 -0.0770521 0.504952
-0.0358377 -0.0211102 0.0436754
0.370945 -0.0560861 0.515899
0.0104834 -0.0497889 0.479625
0.0627862 -0.055286 0.546403
0.0295794 -0.0530768 0.285307
-0.292197 -0.0623772 0.40987
-0.29139 -0.0594417 0.42931
-0.0142682 -0.050289 0.13749
0.0121671 -0.0768047 0.578798
0.0259124 -0.0237247 0.0652214
-0.0218121 -0.0799369 0.393947
0.0690351 -0.0193265 0.033794
-0.283606 -0.0552131 0.490599
-0.0641843 -0.0179097 0.0323466
-0.294633 -0.0552109 0.50025
-0.002985 -0.0213887 0.0435441
0.00579072 -0.000806141 0.653205
0.236406 -0.072949 0.432009
0.203133 -0.0545693 0.486929
-0.0397873 -0.0496146 0.530048
-0.110789 -0.0725125 0.53623
0.219446 -0.0630037 0.542037
-0.284538 -0.0584579 0.434757
-0.0287384 -0.0200314 0.0360544
-0.0368401 -0.0290109 0.693323
0.0530523 -0.017425 0.0349043
-0.0656732 -0.0532766 0.534465
-0.0242745 -0.023352 0.0579196
-0.0180222 -0.00056694 0.0840778
-0.00345946 0.0130975 0.147607
-0.00657049 -0.0203016 0.419004
0.116346 -0.0651376 0.362911
0.363122 -0.0568321 0.525681
0.00685678 0.0363881 0.489011
0.304353 -0.0619199 0.414892
0.0296916 -0.0160662 0.246526
-0.0107417 -0.0197705 0.649176
0.152058 -0.054163 0.484456
0.130565 -0.0542456 0.503124
0.170024 -0.0701269 0.398094
-0.292348 -0.0748365 0.492184
0.433601 -0.0653022 0.425894
-0.0422845 -0.0251723 0.614814
-0.0165733 -0.0621248 0.55006
0.184366 -0.0571363 0.528063
0.00787133 -0.0745106 0.576279
-0.0096981 0.00414707 0.604408
-0.0150306 -0.0787509 0.296785
-0.0211358 -0.0785381 0.649558
-0.160603 -0.0666249 0.372606
-0.129295 -0.0608291 0.538428
0.0287994 0.031757 0.527096
-3.82058e-06 -0.0507421 0.436008
0.163834 -0.074437 0.425416
-0.314078 -0.0680572 0.540893
0.457016 -0.0656665 0.43365
-0.288485 -0.0644989 0.395121
-0.0735586 -0.0529733 0.523428
0.303636 -0.0558584 0.462461
-0.222506 -0.0546819 0.49733
0.123108 -0.0228008 0.0743543
-0.212272 -0.0761437 0.481593
-0.168794 -0.0547841 0.456029
0.269511 -0.0734066 0.442591
-0.0927039 -0.0556303 0.422016
0.180758 -0.0549059 0.513151
-0.223619 -0.0757536 0.470783
-0.283675 -0.0585974 0.433687
-0.129971 -0.0543295 0.462879
-0.137596 -0.0224609 0.0635482
-0.201206 -0.0758876 0.453883
0.0365615 -0.00831741 0.385616
-0.0242854 -0.0443139 0.190054
0.0682098 -0.0317095 0.746634
0.33708 -0.0581335 0.445451
-0.158359 -0.0634307 0.381114
0.00206346 0.0517473 0.0281742
0.0682035 -0.0232865 0.0901268
0.0130978 0.0193948 0.562785
0.0524307 -0.0800381 0.461266
0.0104736 -0.060175 0.183561
0.309422 -0.0739551 0.458296
-0.0337873 -0.0538896 0.348145
-0.0399903 -0.00379077 0.507241
0.145511 -0.0605641 0.39814
0.0150254 -0.0550289 0.502742
-0.414322 -0.0593471 0.449902
0.0199206 -0.0820625 0.425473
-0.0210786 -0.00989636 0.105739
-0.0907459 -0.0596278 0.39497
0.0195616 -0.0819672 0.492135
0.022112 -0.0564144 0.402626
0.063433 -0.0654593 0.350612
-0.273366 -0.0751348 0.501779
0.0372552 0.0153082 0.497794
0.0142829 -0.026938 0.655613
0.0321003 0.0146167 0.333223
0.0409039 -0.0268868 0.529491
-0.191554 -0.0594862 0.536857
-0.158518 -0.0769512 0.501082
0.00196615 -0.0357793 0.034366
0.0147985 -0.0844534 0.61029
0.0641128 -0.0350135 0.756211
-0.0186139 -0.000853755 0.541755
-0.0252203 0.000211139 0.18865
0.0850284 -0.0195952 0.0365525
-0.29905 -0.0611235 0.419341
0.457429 -0.0565564 0.501364
-0.446242 -0.0721684 0.509842
-0.421677 -0.0725352 0.497877
0.0072435 -0.0583649 0.39448
0.129292 -0.0661019 0.361996
0.0345107 -0.0508515 0.477896
-0.00904498 -0.0499599 0.465652
-0.0942313 -0.078694 0.488569
-0.0931566 -0.0787053 0.486473
0.0412509 -0.0580947 0.579322
0.0170703 -0.0540863 0.612141
0.0392803 0.00667068 0.499597
-0.00312585 -0.06736 0.344405
-0.152525 -0.0549388 0.438216
-0.0802594 -0.021734 0.0992086
0.271497 -0.0551176 0.489968
-0.237934 -0.0649568 0.38386
0.0406922 0.00230615 0.540639
0.384306 -0.0729312 0.480111
-0.0183658 -0.0277489 0.537743
-0.362378 -0.0557436 0.504422
-0.00287098 -0.00902716 0.119416
-0.279882 -0.0551717 0.491123
-0.123259 -0.0774476 0.460851
0.00190238 0.0161127 0.174779
0.46217 -0.0614976 0.541242
0.155292 -0.07718 0.480428
-0.386242 -0.0563094 0.478809
-0.154959 -0.0222324 0.0836363
0.341456 -0.0739007 0.490624
-0.0987784 -0.0141875 0.0896514
-0.397863 -0.0577029 0.458191
0.014311 -0.0231181 0.655028
-0.16674 -0.0548246 0.45252
0.328685 -0.0714105 0.533366
0.0315667 -0.0220565 0.277639
-0.0296699 -0.053259 0.425179
-0.0045393 -0.0787217 0.420423
-0.0317124 -0.0585553 0.326513
-0.0186239 -0.0250618 0.596761
0.0364077 -0.0550919 0.680905
0.0534079 -0.0237232 0.0833734
0.444522 -0.0566078 0.491516
0.0361968 -0.0815034 0.507266
0.0510907 -0.073008 0.391674
0.0820061 -0.0621894 0.376138
-0.0356347 0.0189595 0.477861
-0.0261729 -0.0298436 0.192432
0.0350366 -0.0637213 0.479718
0.0228209 -0.0817179 0.485595
0.0468774 -0.016462 0.105897
0.0772194 -0.013765 0.0736578
-0.120087 -0.0225962 0.0880446
-0.00277745 0.0218991 0.0430036
-0.00921999 -0.0606514 0.433
-0.0505688 -0.0631479 0.363443
0.0102044 -0.0595198 0.443796
-0.0566657 -0.0745072 0.402785
-0.0127075 -0.0199972 0.44837
0.155577 -0.0546909 0.511548
-0.0133843 0.0145402 0.545152
0.0648034 -0.0135382 0.0790301
0.0246044 -0.0787677 0.640544
0.0321595 -0.0573773 0.327965
0.0102115 -0.0454313 0.410804
-0.0170984 0.00906275 0.141296
-0.00469623 -0.0826847 0.641238
-0.33951 -0.0585489 0.534378
0.0361927 -0.0596999 0.486135
0.0175337 -0.0599413 0.206442
0.18099 -0.0549779 0.450818
-0.00978748 -0.0598872 0.180926
-0.282585 -0.0713717 0.536035
-0.0308593 -0.0409748 0.277866
-0.00540094 -0.0825597 0.491123
0.056692 -0.080098 0.475868
0.0971062 -0.0201918 0.0412603
0.224123 -0.0755534 0.512286
0.218551 -0.0757394 0.464291
-0.300297 -0.0557835 0.465197
-0.015051 -0.0819437 0.53475
-0.0222761 -0.00215617 0.64897
-0.0350337 -0.0401424 0.715526
-0.0288746 -0.00587899 0.240481
-0.130487 -0.020374 0.0444948
0.23995 -0.0549752 0.504643
-0.0670594 -0.0691344 0.561555
0.00416775 0.012002 0.0688569
-0.0353004 0.0229747 0.512775
0.00768137 0.0368693 0.557858
0.00290254 -0.0754732 0.709581
-0.457053 -0.0714981 0.475058
-0.208392 -0.05532 0.518472
-0.0367664 -0.00707959 0.393169
-0.0497097 -0.0515985 0.526961
-0.412466 -0.0567074 0.468732
-0.0363592 -0.0491813 0.404087
0.337472 -0.0556142 0.494847
-0.0831689 -0.0790362 0.480529
-0.0480491 -0.0132785 0.0834886
-0.407778 -0.0658847 0.423903
-0.0198377 -0.0225384 0.0522277
0.0756552 -0.0347466 0.755737
-0.126752 -0.076955 0.515832
0.00142998 -0.0511233 0.433752
0.307229 -0.0672977 0.410449
-0.0116546 0.0160351 0.582159
0.291712 -0.066162 0.399347
0.131414 -0.0542931 0.504803
0.347502 -0.0567789 0.456175
0.300006 -0.0745765 0.485087
-0.00170966 -0.0305906 0.381757
-0.0165229 -0.00858719 0.508692
-0.0348539 -0.0454034 0.345338
-0.321776 -0.0582214 0.532826
0.0731969 -0.072907 0.395434
0.0768788 -0.0793682 0.484206
0.0189174 -0.067429 0.252403
0.0129282 -0.0251499 0.451828
0.00601411 -0.0555812 0.355174
-0.128477 -0.0775486 0.497215
0.271566 -0.0718721 0.534124
-0.0215589 -0.0409996 0.145707
-0.328565 -0.0683524 0.422335
0.0433575 -0.0211434 0.756435
-0.274631 -0.0710406 0.427985
0.0360348 0.0179178 0.483923
-0.0225975 -0.019976 0.0353132
-0.0221606 -0.00967662 0.719915
-0.192036 -0.0733685 0.53091
0.198131 -0.0548035 0.508341
0.404514 -0.0653719 0.419742
0.0703735 -0.0233461 0.0873784
-0.159952 -0.0718971 0.407602
-0.28576 -0.0745131 0.465435
0.00975447 -0.0679491 0.508006
0.284075 -0.0616814 0.41319
-0.046212 -0.0770097 0.555472
-0.00250042 0.0629501 0.0647651
-0.148021 -0.0175293 0.039956
-0.0325578 -0.0610882 0.362683
0.00226315 -0.0520549 0.571391
0.000460155 0.0031456 0.0283504
0.0418086 -0.0715482 0.571962
-0.0320158 -0.0100615 0.290814
0.0782959 -0.0702136 0.378503
-0.0275939 -0.0718131 0.378996
0.0181322 -0.0503382 0.46641
0.271431 -0.0745236 0.450474
-0.0409521 -0.018221 0.518051
0.142309 -0.0223362 0.0591793
0.464973 -0.0565157 0.507763
0.417829 -0.0611724 0.438302
0.207371 -0.0681975 0.39373
-0.152731 -0.022484 0.077045
-0.0337564 -0.0156851 0.045335
-0.0361513 -0.0655511 0.540572
-0.237194 -0.0752426 0.455206
0.344592 -0.0561539 0.466262
0.0232045 -0.0321849 0.759094
-0.160486 -0.0569164 0.527079
0.441636 -0.0699548 0.458743
-0.0416492 -0.0368892 0.62152
-0.452099 -0.0665366 0.438333
-0.0663038 -0.0135794 0.0858634
-0.0235949 -0.0161841 0.142557
0.00296565 -0.00325311 0.114622
-0.012181 -0.0701418 0.55093
0.134648 -0.0546178 0.448065
0.146625 -0.0627548 0.541276
-0.154687 -0.0221819 0.0852749
0.0623108 -0.0630014 0.366774
-0.30586 -0.0706793 0.432682
-0.014023 -0.0603953 0.501933
-0.456804 -0.0572455 0.527296
-0.109404 -0.0144611 0.0903151
-0.140471 -0.0723356 0.406093
-0.0144966 -0.0311463 0.4766
-0.0294181 -0.0496902 0.720867
0.0164154 -0.0275592 0.506922
0.264194 -0.0728445 0.437634
-0.0438989 -0.0185925 0.567689
-0.440953 -0.0619594 0.43681
0.283304 -0.0571156 0.443506
0.0119089 -0.0813198 0.308904
0.0964042 -0.0184429 0.0307424
0.0288927 -0.0502233 0.50108
0.0017958 -0.0869923 0.571767
-0.0415282 -0.0247914 0.621053
-0.0414873 -0.0810293 0.492484
0.14047 -0.0213083 0.0919226
0.00202562 -0.0691133 0.492294
-0.0966442 -0.0230561 0.0720932
0.179117 -0.0727406 0.534743
-0.339314 -0.0731962 0.523864
0.0189316 0.0367625 0.543988
0.0848126 -0.0219469 0.0974312
0.0219126 -0.00723304 0.120238
-0.365713 -0.056832 0.458778
0.435604 -0.0563719 0.500964
-0.0192338 0.0124572 0.184632
-0.274748 -0.0557139 0.455947
0.0137259 -0.0851893 0.529025
-0.0946628 -0.0785099 0.478629
-0.159571 -0.07217 0.409334
-0.104667 -0.0143148 0.0902814
-0.355136 -0.055943 0.514182
-0.0719671 -0.0365064 0.751766
0.197671 -0.0764229 0.482114
-0.325199 -0.0576467 0.529936
0.0231613 -0.0180983 0.134795
0.226959 -0.0578691 0.531522
-0.104347 -0.0205654 0.0441881
-0.0225512 -0.0517481 0.433824
0.220038 -0.0761093 0.497505
0.339366 -0.0693571 0.431491
-0.225711 -0.0741899 0.437847
0.0105339 -0.0763796 0.278942
0.050877 -0.0805866 0.49017
0.267494 -0.0664263 0.395599
-0.00952702 0.0214846 0.234465
-0.107152 -0.0142527 0.0642826
-0.045164 -0.0133051 0.0799654
0.0337341 -0.0742854 0.600676
0.120213 -0.0160586 0.0480762
0.244352 -0.0661721 0.544169
-0.0385077 -0.0450688 0.67498
-0.0166528 -0.0418227 0.514461
-0.0319665 -0.00819806 0.29125
0.040207 -0.0498371 0.630216
0.0368369 -0.0512631 0.537858
0.0712427 -0.0783858 0.532197
0.0588742 -0.0554896 0.416166
-0.038095 0.0214117 0.559278
0.0300207 -0.0294481 0.257041
-0.353836 -0.0557966 0.492509
0.46362 -0.0568593 0.486479
-0.31049 -0.074323 0.481528
-0.0351402 -0.0374015 0.343937
0.00344049 -0.000778987 0.654903
0.112803 -0.0570416 0.416314
-0.153209 -0.0747888 0.525892
-0.00438627 -0.0853767 0.403144
0.0251452 -0.0663774 0.287368
0.0016251 0.0281926 0.0941838
0.00661703 0.0162826 0.5515
-0.275709 -0.0731999 0.442623
0.0323496 -0.0241451 0.291892
0.023811 -0.0459036 0.729045
-0.0169175 -0.0606157 0.596933
0.466707 -0.0565322 0.509573
0.0415505 -0.0507244 0.503673
0.163067 -0.0591826 0.410201
-0.002078 -0.0753477 0.682853
-0.0299681 -0.0646144 0.349534
-0.292198 -0.0551759 0.499466
-0.164236 -0.066811 0.543927
-0.393061 -0.0638621 0.544234
0.306212 -0.0678038 0.413592
-0.0350783 -0.0712056 0.376447
-0.0299848 0.00457032 0.27482
-0.2457 -0.0756256 0.487674
-0.0197069 -8.86186e-05 0.110046
0.0918845 -0.0781269 0.51321
-0.00776585 -0.0373708 0.370233
0.108934 -0.0776448 0.456756
0.0338762 -0.0566797 0.372737
0.0201516 -0.0218951 0.565978
0.0449832 -0.0767418 0.415337
-0.0316854 -0.0568393 0.322502
0.010909 -0.0822073 0.484198
-0.0300461 -0.0791427 0.585676
0.339387 -0.0564246 0.457219
-0.202255 -0.0743487 0.433569
0.0220209 0.0169499 0.608873
0.126166 -0.0154809 0.0927917
0.00656218 -0.0747566 0.595716
0.0357295 -0.0742306 0.396742
-0.0314848 -0.0588238 0.57539
0.02077 -0.0190752 0.0962767
-0.0400896 0.00784644 0.528678
-0.0223879 -0.0392908 0.15093
0.0449731 -0.0768858 0.416295
-0.00218348 -0.0667712 0.340291
-0.0400707 -0.0363955 0.515702
-0.120129 -0.0750293 0.526465
0.0450934 -0.0185016 0.587593
-0.0732247 -0.075772 0.414538
0.290926 -0.0744483 0.514156
-0.00778624 -0.0643833 0.205742
-0.281572 -0.0551359 0.494158
-0.0124414 0.0361005 0.49412
-0.0892904 -0.0717993 0.54555
-0.0738387 -0.0138624 0.0655827
0.0268991 -0.0146913 0.199669
0.143211 -0.068028 0.378002
-0.113904 -0.0538993 0.493493
-0.0384795 -0.0449467 0.473064
0.00684921 -0.0492926 0.500018
-0.00288106 0.0226896 0.240056
0.0171686 -0.0528167 0.425619
-0.0433889 -0.0307467 0.568433
-0.166886 -0.0716061 0.40724
0.00195206 -0.075532 0.652365
-0.169402 -0.0565509 0.525208
0.414702 -0.0699139 0.536233
-0.0468399 -0.0225342 0.100432
0.0038775 -0.0857204 0.43414
0.0576843 -0.0791633 0.53719
-0.0376237 -0.0146184 0.63772
0.0206712 -0.0208976 0.0965216
0.0348961 -0.0563282 0.406789
0.148426 -0.0555357 0.520234
0.0337966 -0.0684486 0.357813
0.0828446 -0.0230682 0.0636382
-0.45832 -0.0720123 0.508869
0.0796097 -0.0528586 0.47387
-0.0291737 0.00496585 0.2646
-0.0170067 -0.025776 0.516277
0.0207844 -0.0621344 0.233025
0.0182039 0.0161038 0.208752
-0.00701574 0.00411718 0.0620456
-0.18919 -0.0764287 0.473021
0.0290984 -0.0178346 0.23515
0.118675 -0.0180921 0.0344284
-0.0121804 -0.0531653 0.546452
-0.0834728 -0.0673734 0.360609
0.0146327 -0.0581972 0.64706
-0.0724579 -0.0590369 0.395241
-0.0386852 -0.0380031 0.470146
0.03201 0.0281996 0.527339
0.0351757 -0.0618892 0.467603
0.201489 -0.0665976 0.381725
0.0271607 0.00707692 0.241056
0.275579 -0.0666166 0.398708
-0.176895 -0.0698598 0.397876
0.230934 -0.0547559 0.49034
0.0119129 -0.0859252 0.579661
0.115356 -0.0647458 0.365363
0.0757545 -0.0527082 0.472948
0.275277 -0.0717035 0.43255
0.189951 -0.0756593 0.519568
0.040366 -0.0607357 0.377478
-0.0172385 -0.00661225 0.0429605
0.260863 -0.0647557 0.388923
0.141422 -0.0762768 0.432581
-0.00630344 -0.0238807 0.0615521
-0.0351086 -0.0776171 0.419191
0.153114 -0.0197139 0.0414643
-0.0092891 0.0032564 0.504296
-0.0782812 -0.0357471 0.747415
0.451299 -0.056921 0.476322
0.00513942 -0.00450283 0.687087
-0.00420927 -0.0100986 0.45595
-0.00776835 -0.0239978 0.0695411
-0.428734 -0.0719716 0.471973
0.229144 -0.0757571 0.503831
0.443275 -0.0702669 0.461196
-0.282234 -0.0748935 0.484351
-0.015105 -0.0461783 0.490826
-0.167041 -0.0574283 0.529607
0.12674 -0.0776736 0.478306
-0.172658 -0.0548749 0.513398
0.0110974 -0.0539433 0.434833
-0.0244306 -0.0428142 0.187678
-0.164536 -0.0719994 0.409327
0.0280463 -0.0360879 0.228901
-0.0145468 -0.0177671 0.477438
0.0438304 -0.0744125 0.399579
-0.00935759 -0.0742788 0.578368
-0.0145071 -0.0849375 0.598141
-0.00269579 0.0250373 0.0413872
-0.00665609 -0.053409 0.35622
0.0267837 -0.0502152 0.523329
0.0282668 -0.052593 0.267276
0.040183 -0.0462578 0.534849
-0.0180664 -0.0771272 0.663985
0.224862 -0.0568195 0.526284
0.0121457 -0.0376641 0.439421
0.0291915 0.0287996 0.468597
-0.107 -0.0593645 0.399884
-0.231221 -0.0643514 0.386806
0.323123 -0.073905 0.515379
-0.430355 -0.0720769 0.480076
-0.179875 -0.05513 0.441121
0.181684 -0.0544442 0.483162
0.0524031 -0.0799057 0.453239
-0.00889794 -0.0724099 0.692459
-0.0181867 -0.0158555 0.534955
-0.0238297 -0.0252224 0.150341
0.0120366 -0.0326291 0.437714
0.0193936 -0.030863 0.0900117
0.153948 -0.0189794 0.0366198
-0.347878 -0.0735623 0.514085
0.0175372 -0.00363318 0.676923
0.350813 -0.0736021 0.483101
-0.0276074 0.0325678 0.557726
-0.037996 -0.0564961 0.666285
-0.0968318 -0.0645692 0.363245
-0.00476695 -0.0749528 0.584405
-0.118782 -0.0750968 0.419564
0.117085 -0.0539452 0.479142
0.208659 -0.0740252 0.432869
0.0747741 -0.0172167 0.103364
0.0332776 -0.0511849 0.454709
0.0850593 -0.0531014 0.473367
0.0191015 -0.0845853 0.546391
-0.00324485 0.0513808 0.04127
-0.254046 -0.0707787 0.421555
0.0834024 -0.0631576 0.369963
0.0377426 -0.0201704 0.409501
-0.00537498 -0.0137774 0.737652
0.183941 -0.0553623 0.519196
0.0111701 -0.0704349 0.671289
-0.337196 -0.0557602 0.485963
0.0691019 -0.0629761 0.368305
0.345808 -0.055851 0.485045
0.130879 -0.0653178 0.36407
0.208047 -0.0546903 0.50132
0.0262053 0.00711329 0.227059
0.273427 -0.068412 0.540726
0.0410572 -0.0241171 0.530505
-0.00839941 -0.0691794 0.35759
-0.0116312 -0.0718955 0.602854
0.351776 -0.0575144 0.529147
-0.0391476 -0.0137067 0.463816
-0.0189278 -0.0337823 0.591851
0.336611 -0.0723622 0.528184
-0.0785575 -0.0681003 0.364468
-0.322691 -0.0670839 0.412541
0.0237047 -0.00783136 0.149716
-0.0956591 -0.0779582 0.448055
-0.139572 -0.072547 0.407297
0.0304015 -0.0266966 0.261504
0.035417 -0.0547091 0.412584
-0.0246212 -0.0737354 0.391213
-0.00905279 -0.045629 0.740734
0.444191 -0.0566347 0.489737
0.269479 -0.0557592 0.520721
0.0321785 0.00246416 0.301883
-0.0051034 -0.0473748 0.328127
-0.0118551 -0.0844192 0.408672
-0.0463216 -0.0800433 0.445786
0.0365399 -0.0806996 0.534022
0.137479 -0.0167553 0.0444773
-0.142147 -0.0145218 0.0714058
-0.290393 -0.055576 0.514818
0.0222031 -0.0692396 0.586017
0.11726 -0.0540989 0.470026
-0.0405388 -0.00284291 0.527395
0.0745183 -0.0538669 0.430124
0.05972 -0.059745 0.387965
-0.0151092 -0.0486273 0.642401
-0.208721 -0.0551345 0.455994
0.0162093 -0.0624645 0.547441
-0.00902467 -0.0646257 0.571391
0.0325162 -0.00795343 0.300478
-0.0308356 -0.0789704 0.427355
0.240217 -0.0757726 0.4904
0.0743088 -0.0795844 0.490542
-0.153018 -0.0582832 0.533949
-0.026714 0.0255521 0.346023
0.0138955 -0.0281653 0.660867
0.0330758 -0.0464272 0.318452
0.00243617 -0.0591492 0.564176
-0.0037639 0.0214846 0.229185
0.319803 -0.0742373 0.486743
-0.0780372 -0.0150701 0.0521139
0.0435425 -0.0553416 0.559286
-0.0405421 -0.025957 0.515752
0.36928 -0.056122 0.481129
0.0397944 -0.000389003 0.5065
0.420316 -0.0659992 0.542944
0.0192461 0.0296421 0.330166
0.00351358 0.0427498 0.0525002
0.0412296 0.0131792 0.588805
-0.0990846 -0.0543545 0.43442
0.0498409 -0.0182202 0.107894
0.101334 -0.0210022 0.0469175
-0.21966 -0.0564913 0.524668
0.0209636 -0.050207 0.536097
-0.253118 -0.075335 0.505273
0.356684 -0.0737103 0.496132
-0.0169238 -0.0788921 0.565244
-0.0121804 -0.0642657 0.55157
-0.0409322 -0.0113457 0.527605
0.0368828 -0.0323471 0.696651
-0.00364902 -0.0864019 0.526795
0.0104582 -0.0709286 0.68628
0.00402045 0.0174163 0.0634726
0.106007 -0.0651288 0.361291
-0.0669833 -0.0799032 0.490754
-0.405396 -0.0632305 0.422561
0.014266 -0.0501197 0.729074
0.33782 -0.0738117 0.511319
-0.383655 -0.055941 0.499508
0.301102 -0.0746355 0.503775
0.379138 -0.058124 0.452344
0.192775 -0.0550189 0.454553
-0.0265689 -0.0504694 0.480323
-0.334152 -0.0588391 0.535854
0.0277626 -0.0364952 0.2245
0.170738 -0.0768837 0.479818
0.00745101 -0.036982 0.365251
-0.265071 -0.0647588 0.389586
-0.0893956 -0.0587456 0.400582
-0.0588916 -0.0235526 0.0767871
-0.139778 -0.0774528 0.479548
-0.319582 -0.0553902 0.498871
-0.0245874 0.000995087 0.184173
-0.257127 -0.0645059 0.389982
-0.0167021 -0.0551173 0.530005
0.00404051 -0.06618 0.214107
0.00769364 -0.0802119 0.652723
-0.0300009 0.00140763 0.264522
-0.0837842 -0.0633428 0.368805
-0.0167641 -0.0720724 0.584955
0.0119515 -0.0179367 0.436419
0.415069 -0.0578484 0.530511
-0.366607 -0.0577353 0.4529
0.174506 -0.0636865 0.38203
-0.0179791 -0.0407528 0.110031
0.0353315 -0.012576 0.337602
0.00236107 0.0378413 0.527387
0.0136547 -0.0100203 0.463359
0.0175241 -0.0819793 0.329084
0.0158825 -0.00746068 0.708445
-0.0980554 -0.0679867 0.546186
-0.346157 -0.0601156 0.43371
0.299089 -0.0745626 0.483233
-0.141248 -0.060911 0.395135
0.0248102 0.0300118 0.42217
0.0312843 0.0218354 0.400645
0.0289197 -0.0475693 0.261652
0.114875 -0.053891 0.492916
-0.227364 -0.0753389 0.450062
-0.135594 -0.0684085 0.378806
0.0224164 -0.0139885 0.0559589
-0.0345289 -0.0689848 0.545485
0.197889 -0.0761608 0.506367
-0.0884773 -0.0230491 0.0662412
0.158428 -0.0675048 0.377977
-0.165269 -0.0655166 0.368328
0.0920496 -0.0579264 0.406576
-0.432732 -0.0565897 0.519857
-0.0483031 -0.0162987 0.0421251
0.287691 -0.0612542 0.416626
-0.463526 -0.0642289 0.425546
-0.00265706 0.0125237 0.14131
-0.426702 -0.0564868 0.517819
-0.0400523 -0.0242818 0.496144
-0.261787 -0.0750013 0.511221
-0.0912508 -0.0555007 0.528832
-0.127279 -0.014403 0.0686385
-0.0390845 -0.03712 0.754844
-0.324532 -0.0739471 0.474588
0.0145817 -0.0588977 0.647413
-0.0166412 0.0196538 0.234144
0.146977 -0.0540726 0.487204
-0.28694 -0.0631743 0.403702
0.218854 -0.0651071 0.379759
-0.229871 -0.0624559 0.541313
-0.0192704 -0.0127223 0.0717021
-0.0478191 -0.0365835 0.756617
0.262075 -0.0579416 0.531715
0.305281 -0.0567865 0.525731
0.00036734 -0.0132736 0.101425
-0.310943 -0.0699888 0.429235
-0.0606561 -0.0150295 0.100778
0.392968 -0.0712236 0.456128
-0.0106382 0.0349414 0.446216
0.0200019 0.00765345 0.563711
0.0244059 -0.026369 0.162618
0.265361 -0.0553244 0.474358
-0.00435176 0.00436833 0.0955796
-0.0406812 -0.0207839 0.0417927
0.0313678 -0.0715636 0.482984
-0.0432929 0.00124906 0.571818
0.0418597 -0.0283007 0.54953
0.157748 -0.0706304 0.398657
0.0437085 -0.0201531 0.59975
-0.0221483 -0.0150403 0.11884
0.0214763 -0.00018771 0.129699
-0.0306293 -0.048454 0.284795
-0.346161 -0.0580427 0.531815
-0.00147005 -0.0127271 0.0856249
-0.0241948 -0.0368303 0.758322
-0.00502695 -0.0497763 0.466297
0.165163 -0.0658603 0.368546
-0.405258 -0.0661864 0.425342
0.0425477 -0.00878316 0.604457
0.00216718 -0.00291821 0.0449002
0.421353 -0.0563175 0.512436
-0.0109259 -0.0655983 0.49369
0.0030408 -0.00167828 0.112876
-0.387735 -0.0692387 0.538589
0.351995 -0.0734314 0.516072
0.0901954 -0.0535618 0.459011
-0.175023 -0.0722558 0.413422
-0.017749 -0.0818587 0.330637
0.0118409 -0.0710257 0.643951
0.0451327 -0.0700037 0.370453
0.212727 -0.0618741 0.40032
0.420998 -0.0635293 0.543914
0.00902813 -0.085744 0.525534
-0.14234 -0.077262 0.47094
0.0371494 -0.0337706 0.693878
-0.0149011 -0.0442909 0.647301
-0.269838 -0.0750407 0.479395
0.0042741 0.00727799 0.518889
-0.0233663 -0.0349061 0.151225
0.320663 -0.0602428 0.428722
0.0320521 -0.00914454 0.291711
-0.214154 -0.056698 0.525728
-0.0300476 -0.0734757 0.483486
0.0621495 -0.0233332 0.0658024
-0.0684766 -0.0692156 0.560661
-0.377884 -0.0733745 0.499558
0.0427385 -0.0414451 0.605565
-0.427393 -0.0621042 0.433643
0.444998 -0.0709975 0.466459
-0.00505588 -0.0719575 0.563577
-0.00809751 -0.0623841 0.194233
0.0397751 -0.0288069 0.649092
0.000448636 -0.0822276 0.552108
0.0587553 -0.0137041 0.0650664
-0.136644 -0.0682079 0.377707
0.0136334 -0.0322731 0.0398889
0.0984836 -0.0538969 0.460292
0.370159 -0.0698409 0.441722
0.070589 -0.0528189 0.452993
0.462506 -0.0637558 0.428332
0.251025 -0.0736972 0.526101
-0.0942858 -0.0684419 0.547605
0.319511 -0.0738616 0.463898
-0.0362167 0.0163702 0.472907
-0.0229543 -0.0809165 0.493174
0.0244336 0.0217261 0.29578
-0.0115463 -0.0569181 0.448179
0.00709721 -0.0584193 0.386248
-0.18418 -0.0549714 0.514094
-0.0999116 -0.0709907 0.540877
-0.035849 -0.0119003 0.658165
0.040387 -0.0316015 0.518698
-0.124582 -0.0770408 0.437883
0.198985 -0.0765381 0.490498
0.00329741 0.056279 0.0508928
0.00151863 0.0707226 0.0632104
0.436802 -0.0562845 0.506826
-0.0378475 -0.0649779 0.560978
0.031127 -0.0750745 0.633221
-0.169934 -0.0764538 0.453092
0.0107163 -0.0511664 0.421511
0.0241832 0.017502 0.264786
-0.199607 -0.0588541 0.418325
0.117668 -0.0227495 0.0845009
0.240804 -0.0604576 0.414323
0.0689235 -0.0233138 0.069139
0.123723 -0.022446 0.0578962
0.0220636 -0.0462101 0.170706
0.152687 -0.071026 0.538003
0.250157 -0.0749837 0.517179
0.028434 -0.05155 0.266511
-0.0421331 -0.012613 0.610253
0.01888 -0.0820905 0.381937
-0.0709117 -0.0567079 0.54819
0.0348684 -0.0300744 0.330201
-0.0296921 -0.0812618 0.475974
0.4524 -0.0658519 0.433836
0.0348095 -0.0608641 0.443597
0.00845013 0.00509079 0.0721599
0.226629 -0.0567936 0.526146
-0.1427 -0.0145212 0.0805989
-0.315857 -0.0556427 0.481803
0.00466936 -0.0116218 0.0813468
-0.0650043 -0.0787771 0.43292
0.0370199 0.0118701 0.461916
-0.0406282 0.0170482 0.586674
0.0176134 -0.0818625 0.480826
-0.0156987 -0.0137519 0.495651
0.343087 -0.055644 0.496009
0.105068 -0.0140503 0.0829088
-0.0185621 -0.0648887 0.235438
-0.00978623 0.0305381 0.322461
-0.00341804 -0.0137831 0.0561781
-0.0289024 -0.0693548 0.362872
0.0887358 -0.0787369 0.500479
0.0152426 0.0170479 0.201565
-0.00680656 0.00427871 0.0635172
0.035461 0.02316 0.588819
0.00485731 0.0355252 0.584816
0.421426 -0.0610762 0.439527
0.0861831 -0.0139131 0.0707251
0.253461 -0.0552674 0.512603
0.30977 -0.0556225 0.479818
0.00673645 -0.0407093 0.0661247
-0.373112 -0.0561696 0.517835
0.0250351 -0.0209105 0.0416907
0.0921169 -0.0632481 0.371108
-0.0153861 -0.0231442 0.640662
-0.0366547 -0.0245737 0.378728
0.39695 -0.0614098 0.540752
-0.0302146 -0.0378115 0.265031
0.199079 -0.0552704 0.442787
0.339964 -0.0601403 0.43254
0.147342 -0.0770615 0.464458
-0.0156331 -0.051109 0.501762
0.00682529 -0.0809787 0.302774
-0.458317 -0.0577156 0.467923
0.227267 -0.0712191 0.418398
-0.365299 -0.0575812 0.529415
0.00716668 -0.0645757 0.207285
0.0159999 -0.0575839 0.525767
0.0961295 -0.0540313 0.514691
-0.334611 -0.0578133 0.447185
-0.00232487 -0.0855237 0.611683
0.0351523 -0.046862 0.709256
-0.0313922 -0.0433266 0.288302
-0.0723192 -0.0795093 0.506392
0.0279106 -0.0413988 0.23015
0.204194 -0.0546633 0.501213
-0.0377909 0.0122203 0.484769
-0.0311969 -0.0284635 0.728799
0.324287 -0.0741441 0.486134
-0.0494345 -0.063284 0.362307
-0.246994 -0.0750662 0.455524
-0.0201424 0.00748602 0.576075
0.316312 -0.0556406 0.482164
-0.0531882 -0.0522417 0.442703
-0.0378802 0.00428271 0.447884
-0.0374293 -0.0288466 0.687651
-0.0238972 -0.0720291 0.301252
0.428236 -0.07225 0.488087
0.015218 -0.0524871 0.499059
0.269231 -0.0652265 0.387995
0.0156891 0.000721041 0.0664347
-0.0552003 -0.019261 0.747439
-0.041894 -0.0148817 0.546478
0.00195656 -0.0520966 0.42737
0.0405459 -0.035877 0.531149
-0.00215451 0.00828108 0.596661
0.0181057 -0.0553459 0.592106
0.28115 -0.0749113 0.484212
