0.031071 -0.0163207 0.269964
0.014917 -0.000611246 0.0503877
-0.317705 -0.0649012 0.397184
0.118957 -0.0300751 0.74936
0.462875 -0.0566176 0.513929
0.0216245 0.015185 0.611549
0.205909 -0.0551901 0.451189
-0.108761 -0.0540102 0.470877
-0.107826 -0.0284507 0.754824
-0.464694 -0.0705653 0.530291
0.0739909 -0.0796557 0.499011
0.0218725 0.0320024 0.432396
-0.158591 -0.0146488 0.0747312
0.159712 -0.0146832 0.0775138
-0.262256 -0.0553812 0.513935
0.014599 -0.00499122 0.687266
0.314314 -0.0728385 0.526999
-0.00793535 -0.0374326 0.372911
-0.0240346 -0.0428668 0.182651
-0.01574 -0.0211058 0.49628
-0.0352377 -0.0710169 0.604016
0.0868791 -0.0656295 0.35418
0.377433 -0.0642798 0.411024
-0.186729 -0.0623374 0.39301
-0.0542714 -0.0561489 0.410847
-0.46764 -0.0637407 0.429266
-0.0326548 -0.0165925 0.297175
-0.0102092 -0.0678407 0.707203
-0.0405398 -0.0127015 0.512134
-0.352902 -0.0736931 0.490891
0.0217653 0.00431764 0.153735
0.0816937 -0.0529883 0.471468
0.186655 -0.0751308 0.522388
0.0116555 -0.052813 0.691314
2.87114e-05 0.0837586 0.00127069
-0.198956 -0.075362 0.520572
0.0532293 -0.0744824 0.561504
-0.171493 -0.076948 0.484525
-0.0727165 -0.0152534 0.100012
-0.0357183 -0.0814702 0.504037
-0.0138568 0.0366134 0.517203
0.36277 -0.0580723 0.531883
0.288372 -0.0596253 0.427596
0.00253713 -0.0845682 0.32024
0.0377315 -0.0629842 0.635215
0.0922514 -0.0531858 0.494586
0.074012 -0.0182864 0.104798
0.391119 -0.0729906 0.510988
0.0166978 -0.0840081 0.430505
0.222378 -0.0670563 0.54309
0.0351669 0.00121292 0.351384
0.377224 -0.0728605 0.521365
-0.260409 -0.0743135 0.446566
0.0130982 -0.0610695 0.49453
0.150875 -0.0767743 0.451133
-0.107349 -0.0725218 0.399798
-0.0372951 -0.0066025 0.411543
0.0168954 -0.0480244 0.617117
-0.415567 -0.0724883 0.488292
0.169616 -0.0656946 0.368454
0.0270388 -0.0411502 0.217705
-0.0413253 -0.0222771 0.537175
0.462502 -0.0640968 0.426058
0.0341933 -0.0308117 0.758525
0.00628977 -0.064265 0.44059
-0.0395752 -0.0219386 0.638375
0.0401004 -0.00504272 0.509645
-0.00400182 -0.0185841 0.113764
0.245244 -0.0753341 0.469651
-0.0204854 -0.0163955 0.571273
-0.0940626 -0.060529 0.543488
-0.0487515 -0.0186274 0.0279066
0.0771044 -0.0775762 0.427342
0.0192002 -0.00666792 0.550995
0.328067 -0.0561693 0.457084
-0.00694522 0.0268032 0.283655
0.080075 -0.0190495 0.0326157
-0.0264884 0.0265238 0.357448
-0.0145737 -0.0327185 0.651707
0.131731 -0.0575787 0.415806
-0.234498 -0.0731117 0.529915
-0.0189997 0.0168434 0.222075
0.0383582 -0.0179353 0.431723
-0.000767263 0.0645877 0.0689243
-0.0573763 -0.0795324 0.44367
0.0148332 -0.0654729 0.545863
-0.311669 -0.0585349 0.438649
0.149404 -0.0542503 0.49855
-0.397841 -0.0571816 0.527261
0.26461 -0.055097 0.487588
-0.385457 -0.0668271 0.425109
-0.347821 -0.057601 0.529599
-0.0391855 0.0213108 0.580486
-0.0628804 -0.0659195 0.347434
-0.0437203 -0.0312108 0.758068
0.400737 -0.0563847 0.481905
0.035734 -0.0373318 0.364143
-0.138434 -0.0545284 0.455407
-0.019393 -0.0685978 0.259235
-0.389014 -0.0621596 0.541779
0.23439 -0.0660733 0.385715
0.136399 -0.0739432 0.531022
-0.220706 -0.0549971 0.470525
0.0428448 -0.0752086 0.404689
0.0265672 -0.00642219 0.199693
-0.147274 -0.0550073 0.517598
0.318323 -0.0738749 0.463372
0.0421047 0.00117737 0.557945
0.00131638 -0.0856573 0.381575
-0.000992291 -0.039587 0.0560744
-0.110405 -0.018681 0.0319956
-0.462897 -0.0567531 0.492458
0.153595 -0.0586322 0.412333
0.0208373 -0.0445938 0.15195
-0.0179131 -0.0467627 0.60183
0.0308691 -0.075865 0.626884
-0.0062677 0.0322586 0.33665
0.0343007 -0.0415829 0.720294
-0.0228643 0.00388116 0.169924
-0.0328433 -0.0171727 0.723538
-0.0105016 -0.0218591 0.413772
-0.157719 -0.0743324 0.423327
0.0121161 -0.0116751 0.450279
0.234199 -0.0553879 0.454192
-0.0310531 -0.0508782 0.467367
-0.247984 -0.0646603 0.387468
-0.10548 -0.0658133 0.356642
-0.035866 -0.0125311 0.355472
-0.0305309 0.0269364 0.466063
-0.0763541 -0.0795073 0.49928
0.0328722 -0.0456072 0.314564
0.0339288 -0.0666821 0.473468
-0.230817 -0.07399 0.437676
-0.303147 -0.07297 0.526941
0.0368578 -0.0615921 0.530028
0.026961 0.0282421 0.404754
0.225076 -0.0755057 0.457511
-0.026509 -0.076741 0.646258
-0.0301453 -0.079287 0.554609
-0.297483 -0.0748202 0.496923
0.367338 -0.0729607 0.463046
0.41789 -0.0670134 0.541515
0.0444568 -0.0333084 0.588961
-0.0123359 0.0175613 0.556086
0.0131038 -0.0570687 0.670402
0.198808 -0.0547798 0.507229
-0.1852 -0.0549439 0.513435
-0.210935 -0.0562121 0.437779
0.135401 -0.0183245 0.033892
0.0394994 -0.0272147 0.480275
0.0891063 -0.0669245 0.552549
-0.00563589 -0.0496466 0.117256
-0.312975 -0.0553447 0.500962
0.141169 -0.0654923 0.364577
-0.0095396 -0.0609613 0.187043
-0.0893903 -0.0773691 0.428426
0.12857 -0.0774241 0.50092
0.323564 -0.0592971 0.435499
-0.054922 -0.0515012 0.511343
-0.0390535 -0.012621 0.46216
0.196982 -0.0762845 0.473033
-0.00414666 0.0147079 0.0881428
0.022867 -0.0590172 0.385425
0.282402 -0.074841 0.506378
-0.0231193 0.0267079 0.326099
0.0111795 0.0362698 0.563076
0.124167 -0.0540664 0.475602
6.34894e-05 0.0286267 0.0175348
-0.0285001 -0.0334524 0.233584
-0.0290504 -0.00146024 0.246473
0.0369649 -0.0137877 0.646306
-0.137504 -0.0767495 0.516931
-0.0292577 -0.0620619 0.305647
-0.0266242 -0.0799805 0.433244
-0.00825072 -0.0663001 0.338367
0.0103598 -0.0861043 0.585795
0.028171 -0.0130883 0.0876586
0.0310147 -0.0187335 0.0275405
0.0380025 -0.043431 0.680956
0.436604 -0.0721027 0.488555
0.0614226 -0.053684 0.428716
0.0305365 0.0275892 0.482383
0.358582 -0.0559332 0.486823
-0.349962 -0.0732449 0.460775
-0.0289634 -0.0106651 0.695775
-0.0312038 -0.0132842 0.0719561
0.212713 -0.0546447 0.49832
-0.0182103 -0.0378431 0.538416
-0.281302 -0.0554299 0.476408
-0.0174917 0.00663806 0.129443
0.00214754 -0.0381101 0.748232
-0.234434 -0.0758859 0.490769
0.016396 -0.00879565 0.506677
0.0228282 -0.0655291 0.264654
-0.0616446 -0.0738164 0.557838
0.413718 -0.0683894 0.441954
-0.0209065 -0.0558814 0.405937
0.275982 -0.0579219 0.531549
-0.085211 -0.0566755 0.413544
-0.151721 -0.0653074 0.367523
0.0196925 -0.0179072 0.582247
-0.133573 -0.077353 0.466647
0.115992 -0.0226444 0.088396
-0.411207 -0.0587817 0.453166
0.160316 -0.072849 0.53521
-0.0443915 -0.0157932 0.592579
0.00652056 -0.070631 0.519889
-0.115899 -0.0146815 0.0904008
0.194336 -0.071128 0.410298
-0.14531 -0.054129 0.482952
0.316465 -0.055454 0.504449
0.0178069 -0.0292132 0.528904
0.00779296 0.0333246 0.380935
-0.0104254 -0.0014316 0.614851
0.444355 -0.058834 0.4582
-0.0030546 -0.000756411 0.655148
0.277072 -0.0654289 0.391129
-8.44523e-06 0.0525956 0.0101179
-0.0819043 -0.0230798 0.0637097
0.090541 -0.0597254 0.394279
-0.351578 -0.0563588 0.459638
0.00706443 -0.0662492 0.467029
0.0164839 -0.00595728 0.0358983
-0.00421154 -0.0859339 0.477072
0.254644 -0.0721256 0.43067
-0.431208 -0.0597644 0.449861
0.109805 -0.0777637 0.464866
0.0267995 0.0202842 0.310445
-0.0212262 0.0319552 0.416143
-0.036773 -0.0458705 0.69006
-0.0358011 0.00775509 0.390538
-0.00799149 -0.0678416 0.226262
0.120067 -0.0741367 0.413457
-0.320976 -0.0599956 0.538308
-0.349513 -0.0706114 0.442161
0.0654627 -0.0136995 0.0697887
-0.156085 -0.018336 0.035067
0.0564575 -0.0798638 0.461203
0.333377 -0.073572 0.520555
0.0252122 -0.076717 0.352211
-0.00200465 -0.0208516 0.75919
-0.0185756 -0.0575339 0.568183
-0.0260272 -0.0228965 0.185396
-0.429692 -0.0725026 0.507562
-0.0303305 -0.0511215 0.450908
-0.0159082 -0.0383287 0.633627
-0.242045 -0.0548026 0.493373
-0.450019 -0.0565095 0.512862
0.389079 -0.0562762 0.518258
0.0277323 0.00396629 0.237839
-0.0442215 -0.0373446 0.581347
0.0305629 0.0302973 0.529694
0.081584 -0.0362216 0.750349
-0.223259 -0.0699323 0.408909
-0.385909 -0.0562186 0.484069
0.0537498 -0.0514353 0.492513
0.105253 -0.02284 0.0648269
0.0411391 -0.039357 0.54705
0.0141809 -0.0837298 0.356309
-0.0867693 -0.053205 0.507697
-0.264067 -0.0753259 0.500396
0.281865 -0.056263 0.448956
-0.0233024 -0.0240852 0.140806
-0.290148 -0.0603507 0.423048
-0.213683 -0.0759148 0.469409
-0.026731 0.0142903 0.610179
-0.137981 -0.0581244 0.413183
-0.375818 -0.0733181 0.493867
-0.425784 -0.0637953 0.544282
0.105254 -0.05452 0.438488
-0.237231 -0.055663 0.445709
-0.00790055 -0.0186708 0.025724
-0.19007 -0.0547974 0.466402
0.0466899 -0.0799489 0.538582
0.242772 -0.075283 0.511666
0.0130859 -0.027595 0.45431
-0.00726899 0.00806192 0.521701
0.339225 -0.0640389 0.406426
0.0178906 -0.0601481 0.563971
0.0133821 -0.00961028 0.72842
-0.0335225 -0.0578287 0.371949
0.00750791 -0.0772474 0.411191
-0.0418974 0.00323252 0.556237
-0.0202295 -0.0850071 0.585705
-0.203152 -0.0592742 0.536619
0.0370624 -0.0144496 0.393686
0.166581 -0.0547393 0.457547
0.00276405 0.0822173 0.0385358
0.220398 -0.0591722 0.41958
0.123322 -0.0543913 0.509011
-0.108511 -0.0770894 0.516789
0.0226384 -0.014604 0.126791
0.0666098 -0.0525687 0.524539
-0.050255 -0.0730902 0.392054
0.0271628 -0.0760866 0.648489
-0.0344574 -0.0149765 0.10461
0.00535743 0.0188502 0.203966
0.000471649 -0.056886 0.58964
-0.0178652 0.0361369 0.556942
-0.163988 -0.0602625 0.403151
0.365815 -0.0563859 0.4635
-0.0131507 -0.0254787 0.455354
-0.386439 -0.0726386 0.464962
-0.0158792 -0.0464944 0.503714
0.0203684 0.0191283 0.57298
-0.0102594 0.0351713 0.453465
0.0332042 -0.0669 0.450363
0.0337957 -0.0235608 0.0606135
-0.0159454 -0.0755517 0.671701
0.174828 -0.0542544 0.490934
-0.0037803 0.0248113 0.0530789
0.187055 -0.0763567 0.505565
0.0762509 -0.0738868 0.402578
0.0386468 0.0076416 0.479318
-0.0709102 -0.0529604 0.445334
-0.280149 -0.0648664 0.391317
0.0339328 -0.0634374 0.434179
-0.354587 -0.0641721 0.408033
-0.0688138 -0.0365935 0.753019
0.0143951 -0.0823262 0.500335
-0.129958 -0.0760922 0.428742
0.000260095 -0.0756367 0.622764
-0.431942 -0.0562982 0.503454
0.279684 -0.0747472 0.472724
-0.03085 -0.0336624 0.27286
-0.025244 -0.0458633 0.728877
0.0329136 -0.0171483 0.300938
0.354989 -0.0598709 0.436776
-0.268728 -0.0680561 0.541274
-0.036665 -0.0629478 0.535941
0.0257472 -0.0253326 0.184013
-0.288655 -0.0552066 0.501588
0.203902 -0.0660569 0.544282
-0.310317 -0.0740394 0.464333
0.0178548 -0.0657536 0.701798
0.0366526 -0.0442133 0.406513
0.200638 -0.0644476 0.381199
-0.377165 -0.072807 0.522995
-0.0369465 0.0184994 0.514274
-0.0374961 -0.0336706 0.421978
-0.0820671 -0.07897 0.473712
0.0103053 -0.0432859 0.410825
-0.00464454 0.0366299 0.489658
-0.373854 -0.0562342 0.519047
0.0582497 -0.07978 0.523169
0.0165794 -0.0182277 0.624454
-0.075321 -0.0630586 0.369002
0.389211 -0.0728961 0.48345
0.244694 -0.0565707 0.524944
0.0302476 -0.0694693 0.668531
0.0512914 -0.0663287 0.34719
0.015606 -0.0584398 0.190668
0.00924493 0.0224284 0.242583
0.301612 -0.0727275 0.445368
-0.0352131 0.0151137 0.430815
-0.170382 -0.0550275 0.442273
0.441083 -0.0565958 0.490435
0.0417504 -0.00348897 0.606789
0.0214213 -0.0322078 0.118476
-0.0680622 -0.0523935 0.471978
-0.18503 -0.076045 0.445347
0.0199815 0.0341945 0.463388
-0.0348847 -0.0384435 0.336392
-0.123437 -0.0615113 0.38824
-0.1526 -0.0663127 0.544282
-0.00298773 -0.024034 0.0685369
-0.131339 -0.0224543 0.0589837
-0.0245197 0.00697084 0.204995
0.0198049 -0.042974 0.575495
-0.0516165 -0.0235687 0.0729281
0.0583024 -0.0602676 0.384196
-0.19579 -0.0735188 0.426566
-0.0365789 -0.0293577 0.383281
0.0374286 -0.0687586 0.601054
0.124072 -0.0697677 0.385244
0.466239 -0.0625408 0.542755
0.00977671 -0.0424702 0.0812131
-0.116184 -0.054407 0.510086
-0.0112921 -0.0854915 0.530824
-0.307045 -0.0557265 0.472154
-0.016748 -0.00603885 0.0392756
-0.0399671 -0.0383053 0.659428
0.321589 -0.0743225 0.493848
-0.422524 -0.0649903 0.421295
-0.10803 -0.0545719 0.436833
0.175041 -0.0767818 0.478487
0.096853 -0.0773032 0.520835
0.0311988 -0.0370421 0.281408
0.0701787 -0.0767837 0.540904
0.100283 -0.0783233 0.481948
0.0255546 -0.0505667 0.471863
-0.039611 -0.0811103 0.492497
0.0101771 0.00937351 0.115674
0.179789 -0.0567159 0.429363
-0.0200878 -0.0449224 0.146674
-0.0190876 -0.0339016 0.0937131
-0.449045 -0.0714593 0.470458
-0.0190367 -0.00925768 0.548407
0.0146384 -0.0839443 0.389354
-0.0253261 -0.0762185 0.345613
0.0398643 -0.0374142 0.509452
0.356911 -0.073678 0.494446
-0.00427626 0.0281035 0.595587
-0.0348452 0.000405896 0.339123
0.0248484 -0.0689926 0.296391
-0.0563013 -0.0793646 0.537089
0.219857 -0.0761653 0.495907
0.01577 -0.0852019 0.555167
0.00373728 -0.00396056 0.478194
0.284255 -0.0557232 0.518417
0.0357614 0.0107632 0.415608
0.016669 0.0318797 0.357644
-0.00418523 -0.0786435 0.661896
-0.0187846 -0.000908765 0.0937925
-0.032105 -0.0809401 0.462903
0.0243548 0.0194887 0.279918
-0.0236064 -0.0787027 0.397247
-0.202762 -0.0764446 0.495531
-0.0196074 0.0119932 0.583315
0.0349503 -0.0186947 0.703445
0.00849016 -0.0496494 0.541909
-0.353059 -0.0707917 0.535152
0.0379302 -0.0687471 0.583994
-0.0261375 -0.0448108 0.215684
0.139899 -0.0211992 0.0925567
0.027776 -0.0101172 0.217836
0.00129167 0.0161089 0.174384
0.0354907 -0.0208512 0.332474
-0.0108835 0.0230736 0.25111
0.419337 -0.0565722 0.520941
0.377706 -0.0598874 0.440354
-0.0419006 -0.0460133 0.559547
0.455153 -0.0566771 0.492948
0.144924 -0.0708361 0.39711
0.0379629 0.0209319 0.555196
0.0962436 -0.0556744 0.52643
0.302195 -0.0661153 0.543766
-0.216866 -0.0662494 0.382902
0.253096 -0.0680178 0.54146
0.406062 -0.0634129 0.421453
-0.287301 -0.0560086 0.451536
0.0353413 -0.0647425 0.501303
-0.355845 -0.0557504 0.506343
-0.11974 -0.0583209 0.534298
0.127514 -0.0546189 0.44425
-0.252691 -0.060494 0.41601
0.145707 -0.0760653 0.432146
-0.108808 -0.0691705 0.37779
0.306156 -0.0661473 0.402535
0.0102089 0.0314927 0.59014
0.257511 -0.0691539 0.411513
-0.0600814 -0.0771797 0.421285
0.00928 -0.0228385 0.654899
0.0051477 -0.0586788 0.374176
0.191157 -0.0758907 0.442912
0.014976 -0.0260556 0.484183
0.11777 -0.0686213 0.54173
-0.0382502 -0.041884 0.460528
-0.00226762 -0.0783394 0.283342
-0.110038 -0.0775155 0.450213
-0.284507 -0.074553 0.466433
-0.331882 -0.0684615 0.423817
-0.0409548 -0.0480476 0.621152
0.00303461 -0.068631 0.352858
-0.00501715 -0.0814712 0.560147
0.0166744 -0.0294379 0.734507
0.0443113 -0.00860798 0.578333
0.423177 -0.0724314 0.512755
0.320753 -0.0560991 0.522034
0.0380568 -0.0402928 0.450008
0.0533603 -0.0236586 0.746146
-0.0373269 0.012884 0.47632
-0.284664 -0.0583462 0.533629
0.444263 -0.0717076 0.524555
-0.332143 -0.073825 0.51357
0.139758 -0.0145973 0.06527
0.0760136 -0.0788522 0.450985
-0.21897 -0.0548869 0.506414
0.0124258 -0.07008 0.638392
0.297291 -0.0554376 0.484342
-0.0124973 -0.0814935 0.445475
-0.0392868 -0.0388584 0.492352
0.343084 -0.0705951 0.440589
0.0571198 -0.0188354 0.0297994
-0.156208 -0.0767051 0.452912
-0.0128817 -0.068417 0.634362
-0.190087 -0.0656545 0.544282
0.0202391 -0.0611556 0.224266
-0.031087 -0.00697928 0.659878
0.467521 -0.0689662 0.45804
-0.00536629 -0.049689 0.472407
0.00370465 -0.0129026 0.0765894
-0.141993 -0.0152531 0.0891781
0.00545898 0.0341549 0.40341
0.0339539 0.0132369 0.380308
-0.0150512 -0.0620586 0.527304
0.436512 -0.061395 0.439851
0.112207 -0.0660718 0.357908
-0.00201307 -0.00625948 0.702607
-0.0401006 -0.0641294 0.578242
0.0279432 0.023114 0.336667
0.145104 -0.0569308 0.527225
0.3901 -0.0637313 0.54403
-0.0288976 0.0145835 0.295711
-0.0236678 0.0295496 0.388295
-0.423148 -0.0710253 0.461673
0.346325 -0.073468 0.470092
0.000431068 -0.0571809 0.158629
0.00871933 0.00881656 0.595645
-0.0778888 -0.0182366 0.0309971
-0.0335898 -0.0331766 0.318167
0.343686 -0.0557985 0.511316
0.0232803 -0.0770015 0.321568
0.146832 -0.0772842 0.477273
0.173552 -0.0557803 0.521336
-0.457998 -0.0583194 0.463845
-0.424411 -0.0566193 0.52134
0.0169459 -0.000992564 0.0665207
0.000328635 -0.0486682 0.518952
0.0352464 -0.022485 0.102491
0.00365755 0.0371493 0.074294
-0.323097 -0.0741235 0.48357
0.0361863 -0.0044037 0.625676
0.110454 -0.0168312 0.0423366
-0.0810894 -0.0735305 0.401173
0.0396398 -0.044734 0.656291
0.458616 -0.0710931 0.470195
0.295684 -0.0557549 0.464485
0.122079 -0.0778902 0.486132
0.0502451 -0.0518157 0.460662
-0.0319094 0.00650707 0.309557
0.0294039 -0.0340316 0.249895
-0.109032 -0.0780725 0.482562
-0.00958043 -0.0348261 0.398912
0.0716991 -0.07042 0.378556
0.049612 -0.0781775 0.425836
-0.0754285 -0.054027 0.531827
-0.00666412 -0.0622942 0.421023
0.424486 -0.0570779 0.466681
-0.00634042 -0.0487782 0.347653
-0.0266868 -0.0540668 0.249247
0.0178271 -0.0552816 0.597988
0.0385765 -0.0058489 0.45744
0.0172062 -0.0843764 0.482725
-0.430802 -0.0568376 0.470562
-0.00806709 -0.0827652 0.510337
-0.108229 -0.0142589 0.0646237
0.00317499 0.0432133 0.0402782
0.233387 -0.0549266 0.481408
-0.0127856 -0.044853 0.67599
0.0419315 -0.0442111 0.613761
-0.0191474 -0.0220369 0.589654
-0.198602 -0.0545067 0.496369
0.186925 -0.0546664 0.472599
-0.341201 -0.0558342 0.483628
-0.404754 -0.0716281 0.528195
-0.0304783 -0.000144923 0.271546
-0.0410589 -0.00677099 0.613551
-0.172764 -0.056218 0.523528
0.00392303 -0.034419 0.676581
0.0193609 0.0162337 0.215949
-0.0391645 -0.0575467 0.641825
-0.0276789 -0.00807598 0.218736
0.00936611 -0.0202821 0.419107
-0.148337 -0.0698046 0.391011
-0.337648 -0.0585472 0.442785
0.00660241 -0.0733871 0.25827
-0.000845641 -0.0580279 0.387604
-0.0865033 -0.0213809 0.747876
0.175327 -0.062049 0.393081
-0.0818251 -0.0746807 0.543791
0.289724 -0.0725886 0.529568
0.0164305 -0.0279492 0.0447122
0.27014 -0.0721308 0.43423
0.411869 -0.0724767 0.483492
0.0806892 -0.0533872 0.444967
0.107317 -0.053883 0.494508
-0.196144 -0.0762503 0.470043
0.0341381 -0.0519825 0.344367
-0.0389902 -0.0359531 0.477525
-0.0568478 -0.0800206 0.471625
0.377983 -0.0559475 0.496144
-0.23783 -0.0752558 0.4567
-0.0264535 -0.0629174 0.28171
-0.397816 -0.0559985 0.503494
0.259699 -0.0755125 0.496458
-0.0182729 -0.0810951 0.323064
-0.368234 -0.0561537 0.478683
0.0122331 -0.0708111 0.369236
0.0234395 -0.0817625 0.525346
0.0413955 -0.0124179 0.541732
0.224553 -0.0552469 0.515283
-0.0176253 -0.0225988 0.526061
0.215506 -0.0695058 0.404302
0.052659 -0.0532325 0.542769
-0.0847052 -0.0137477 0.0822561
-0.265959 -0.0585151 0.431359
0.0181571 0.00647402 0.534556
0.169183 -0.0755382 0.433974
-0.0167094 -0.00174987 0.060887
0.0271986 -0.0510977 0.547324
-0.182502 -0.0584521 0.418227
-0.405345 -0.0610808 0.436885
-0.238776 -0.0588423 0.424763
-0.252754 -0.07518 0.468751
-0.444888 -0.0592818 0.537533
-0.0148234 -0.017817 0.739364
0.0160675 -0.0369173 0.503108
0.0180143 -0.0227549 0.605013
-0.0162221 -0.0277645 0.0410114
0.000493631 0.000861148 0.633864
-0.0918902 -0.015609 0.0493599
-0.463317 -0.0718535 0.503283
-0.278707 -0.0686914 0.413253
-0.0244058 0.0329765 0.494404
0.0170158 -0.0392927 0.0991116
-0.0383838 -0.0259243 0.440824
-0.3302 -0.0557553 0.512989
-0.0108852 -0.0431435 0.420013
-0.0236741 -0.035599 0.745043
0.0140275 0.0362772 0.506392
-0.0259605 -0.00237219 0.633693
0.258472 -0.0644546 0.390543
0.213875 -0.0737324 0.432104
0.00525725 -0.0506498 0.33053
-0.325996 -0.0731199 0.453531
0.0347638 -0.0126835 0.67637
0.0363607 -0.0149775 0.369385
-0.0193724 -0.0813348 0.368132
0.0574839 -0.0233078 0.0941905
-0.00389481 -0.0500167 0.448947
-0.0383658 0.0163238 0.538823
-0.0101948 -0.0842385 0.355296
-0.15734 -0.0544125 0.503028
0.11165 -0.0773401 0.441468
0.354947 -0.0653256 0.408157
-0.000635237 0.0307496 0.316128
0.263609 -0.0555044 0.462652
0.1084 -0.0573092 0.413815
0.151446 -0.0547468 0.449151
-0.0379899 -0.00105777 0.443337
-0.00789887 -0.00320832 0.677565
0.00954737 0.037602 0.540244
3.18511e-06 -0.00274861 0.0260965
-0.0105988 0.00152754 0.498035
0.339729 -0.0602052 0.538712
-0.0147509 -0.0845021 0.606851
0.00744517 -0.0819532 0.460009
0.004921 -0.0153235 0.0460003
-0.0200208 -0.0408613 0.573053
-0.3739 -0.0591116 0.444908
0.0353608 0.017152 0.456545
-0.0326274 -0.076996 0.414553
0.301882 -0.0747064 0.501278
0.0184193 -0.0840747 0.609792
0.0154314 -0.0417816 0.640088
-0.0156165 -0.011516 0.6337
0.0968173 -0.0192482 0.101366
-0.0586972 -0.0213264 0.0464994
0.0123731 -0.0413384 0.444472
-0.0031544 0.0608121 0.0448479
0.262742 -0.0747672 0.455103
-0.0089107 -0.0089489 0.460105
0.392754 -0.0708554 0.453625
0.00905625 -0.0738103 0.680182
0.0339215 -0.0558535 0.367719
0.0314915 0.0270702 0.58885
0.0420213 -0.0259924 0.616768
-0.0357885 -0.0364985 0.712158
-0.0548802 -0.0230777 0.746183
-0.0303974 -0.0505483 0.48547
-0.0394449 -0.00431375 0.487849
-0.016285 -0.0626153 0.548858
-0.0734585 -0.0594433 0.392732
-0.00515721 -0.0564682 0.721281
0.196803 -0.0583919 0.420951
0.0215241 -0.0488585 0.728732
-0.403445 -0.0729899 0.504898
-0.0386318 0.0197762 0.559541
0.0188971 -0.0284381 0.0748579
-0.0105641 -0.072498 0.58775
0.0429792 -0.0409889 0.568923
0.182554 -0.069832 0.539458
-0.133611 -0.0725078 0.40568
0.00614986 0.0150224 0.546936
-0.258083 -0.0552194 0.476828
-0.222248 -0.0592256 0.536656
0.00489813 0.0136473 0.152634
-0.222378 -0.0758683 0.503665
-0.408871 -0.0565092 0.478717
0.125412 -0.0575873 0.530602
0.157083 -0.0172986 0.0420415
-0.130338 -0.0541844 0.500735
0.399574 -0.057208 0.461769
-0.0925727 -0.0602939 0.390896
-0.01386 -0.0602991 0.656333
0.0554917 -0.0231919 0.0587411
0.440071 -0.0613227 0.540868
-0.0363892 -0.00902956 0.377838
0.0362117 -0.0812581 0.492586
0.120494 -0.0142128 0.0755641
-0.00830952 -0.0638037 0.451425
-0.148406 -0.077428 0.487663
-0.0750947 -0.0788236 0.522032
0.104547 -0.0627581 0.37686
0.238223 -0.0749186 0.445551
0.299379 -0.074526 0.481355
-0.168885 -0.0545444 0.47044
0.0298506 -0.0141803 0.728214
-0.321457 -0.0557776 0.476662
-0.0352883 -0.0414013 0.354948
-0.0439503 -0.0186853 0.568234
-0.0283412 -0.0567077 0.709788
-0.282118 -0.0746792 0.511369
-0.0365489 -0.0575847 0.397719
0.0101401 0.0064921 0.0878783
-0.0572146 -0.0548997 0.54812
0.0030542 -0.0528997 0.573596
-0.0247556 -0.0240743 0.0853967
-0.0470304 -0.0518754 0.448784
-0.129897 -0.0713966 0.537664
0.128287 -0.0772044 0.451833
0.0458515 -0.0569531 0.403796
-0.44697 -0.0646809 0.424793
-0.436848 -0.0719581 0.480172
0.0742737 -0.0223627 0.0543499
0.0328734 -0.0557196 0.700402
-0.190105 -0.0551195 0.447119
0.0250132 -0.0501474 0.495623
0.00661197 -0.0523183 0.426825
-0.0205617 -0.0268782 0.759252
0.0867427 -0.0231149 0.0871247
0.0885369 -0.0139632 0.0692851
-0.370201 -0.0709929 0.449411
-0.00414165 -0.070138 0.508568
0.00779093 0.0250204 0.266606
-0.0316583 -0.0693807 0.450688
-0.0706856 -0.0137587 0.0697004
-0.0172591 -0.0395158 0.523462
-0.00481454 -0.0117863 0.0924836
-0.243528 -0.0624936 0.541443
0.043498 -0.0134278 0.0715039
-0.024366 -0.0317542 0.163926
-0.0378061 -0.02688 0.682651
-0.00541006 0.0329536 0.358477
-0.116005 -0.0579631 0.41069
0.107137 -0.054167 0.460628
0.463299 -0.057063 0.474116
-0.0146657 0.035169 0.578477
-0.17647 -0.0638733 0.381103
-0.00400191 0.0348788 0.42365
0.23375 -0.0717132 0.423166
0.0260066 -0.0811939 0.571355
0.415105 -0.056224 0.499066
-0.000663968 -0.0508984 0.707434
-0.00363027 -0.0753034 0.695893
0.0235977 -0.0539006 0.419683
0.1547 -0.0542932 0.478042
-0.0336797 -0.0227618 0.0545546
-0.021732 -0.0513984 0.435992
-0.0465489 -0.0629474 0.363973
0.0085606 -0.0497364 0.477808
-0.0358603 -0.0527159 0.430042
-0.00402039 0.0203769 0.0668044
-0.0309412 0.0228644 0.405115
0.440918 -0.0565241 0.51573
-0.386825 -0.0694136 0.442664
-0.0226154 -0.0670527 0.694371
-0.0323875 -0.0377841 0.3012
0.0193085 0.00539222 0.133126
0.0393931 0.0113149 0.526971
-0.00474359 0.0155607 0.613032
0.192494 -0.0571401 0.528043
-0.143821 -0.0155614 0.0528182
-0.0666075 -0.0519806 0.492973
-0.351444 -0.0735626 0.512415
0.0361843 -0.0411067 0.385061
0.465407 -0.0716241 0.491871
0.258746 -0.0551737 0.507823
0.0292672 0.00355787 0.259012
-0.0127461 -0.0776593 0.414988
-0.232499 -0.0754469 0.51156
-0.0143902 -0.00594714 0.475004
0.0945008 -0.0558945 0.420615
-0.0144144 -0.0336981 0.475292
-0.00951191 -0.0721228 0.377434
0.0152946 -0.020842 0.757771
-0.00268615 0.00584946 0.0468593
0.029992 -0.0143168 0.252875
0.0194028 -0.0356859 0.55722
-0.043 -0.0512922 0.59521
-0.125834 -0.0227457 0.0728642
-0.0147127 0.0114193 0.533877
-0.199826 -0.0708426 0.409645
-0.351111 -0.0613922 0.426003
-0.205281 -0.0757485 0.450075
0.10207 -0.0723917 0.39779
-0.123642 -0.0776027 0.49786
0.0324204 -0.0665099 0.412325
-0.0106075 -0.040759 0.0727599
0.00164023 -0.0653678 0.207412
-0.031784 -0.0810069 0.533221
-0.109962 -0.0772439 0.433814
-0.0170928 -0.0246136 0.617523
0.220184 -0.0745499 0.523493
0.0203865 -0.00257782 0.569754
0.0619753 -0.0631141 0.365955
-0.0435327 0.00238389 0.575394
0.00857711 -0.0823476 0.534102
0.148672 -0.0773208 0.494579
0.0366249 -0.0802608 0.437118
0.209389 -0.0756766 0.450328
-0.106094 -0.0538155 0.49212
0.0102962 -0.0735962 0.590702
-0.141405 -0.0550072 0.434522
0.158711 -0.0764532 0.515919
-0.0843781 -0.0528154 0.488746
0.0299501 -0.0672333 0.333145
-0.436937 -0.0718374 0.524092
-0.0214066 0.00399075 0.149364
-0.126057 -0.055237 0.430498
-0.0100599 -0.0836317 0.634127
-0.0026541 -0.0857846 0.426916
0.0234893 -0.00290238 0.652332
0.337929 -0.0557765 0.48537
-0.007223 -0.0475958 0.553095
-0.0213188 -0.00400738 0.113824
-0.0283646 -0.0175715 0.0324334
0.44588 -0.0722256 0.506215
-0.12744 -0.0676668 0.372007
-0.241691 -0.0554557 0.517621
0.271314 -0.0607489 0.417335
0.0993844 -0.0228902 0.748209
0.227806 -0.0755947 0.509332
0.217253 -0.0549329 0.472556
-0.0961711 -0.0784806 0.494986
0.0200931 -0.0810297 0.373528
0.0247834 -0.0203305 0.163905
-0.079691 -0.0636704 0.555862
-0.000330999 0.00519214 0.0681117
-0.0367833 -0.0668366 0.556348
0.0120298 -0.0142189 0.104325
0.239397 -0.0619206 0.40434
-0.0549805 -0.0801976 0.516444
0.0393835 -0.0806201 0.462499
0.0384298 -0.0638659 0.563951
-0.0136348 -0.05875 0.488367
-0.0880382 -0.0624363 0.375702
-0.0210346 -0.0818512 0.488981
-0.0917969 -0.0537906 0.44943
-0.0713049 -0.0791433 0.456299
-0.168876 -0.0720945 0.536341
-0.0179187 -0.0597826 0.204773
0.0206647 -0.0049644 0.101817
0.0296024 -0.0503218 0.521241
0.00729087 -0.0742699 0.715164
0.036757 0.00966725 0.435631
0.00677108 -0.040922 0.35449
0.20213 -0.0765074 0.492152
-0.000372752 -0.0159899 0.434626
-0.363507 -0.0588939 0.535986
0.100968 -0.0737326 0.535993
-0.0257431 -0.0506121 0.539524
0.396666 -0.0600865 0.442106
0.0748022 -0.0137432 0.0876396
-0.0312256 -0.0775398 0.572813
0.040379 -0.0197022 0.500141
0.0312153 -0.000788835 0.283149
0.030592 -0.0235064 0.745295
0.318535 -0.0681226 0.418522
-0.00139919 0.0159491 0.0327815
-0.215055 -0.0741828 0.525604
0.10992 -0.0775162 0.506892
-0.464464 -0.0714988 0.483329
0.00116241 -0.0751719 0.396083
-0.0195609 0.0219373 0.268606
0.092657 -0.0215127 0.0497956
0.0540663 -0.0191286 0.10707
-0.38332 -0.0565072 0.465423
0.262391 -0.0572499 0.439215
0.0284243 -0.0156661 0.0451389
-0.00476331 -0.0730025 0.546412
-0.370314 -0.0682771 0.431331
0.267251 -0.0727442 0.529995
0.101185 -0.0755378 0.418585
0.163355 -0.07049 0.398997
0.00775282 -0.0746053 0.604181
-0.0432576 -0.0327013 0.603339
-0.036732 -0.0668962 0.625031
-0.274147 -0.0750385 0.484059
0.0374697 0.0143267 0.495829
0.0408765 -0.0212226 0.519516
-0.0367958 -0.0366404 0.401463
-0.301674 -0.0646842 0.544282
0.00373318 -0.00255193 0.109072
0.173884 -0.0593021 0.411161
0.00681425 -0.0808268 0.301878
0.0431082 -0.0520259 0.591044
0.136817 -0.0626129 0.383068
0.202326 -0.0547167 0.477676
0.427992 -0.0638635 0.422009
-0.396282 -0.059211 0.44788
-0.0187681 -0.0513913 0.165504
0.0221752 0.010635 0.197915
-0.0179911 -0.00894851 0.605296
-0.0360735 -0.0291753 0.365121
0.00206458 0.0787544 0.0203645
0.017895 -0.00366402 0.606577
-0.365449 -0.0730857 0.46843
-0.00253216 -0.0471613 0.101095
-0.283245 -0.0728337 0.441897
-0.0160795 0.0147327 0.189093
0.022712 -0.030952 0.137745
-0.0553109 -0.0135679 0.0914382
-0.303511 -0.0699001 0.426953
0.219529 -0.0759129 0.475802
-0.152762 -0.0581539 0.415387
0.0613571 -0.036817 0.75377
-0.0345463 -0.015735 0.326184
-0.100786 -0.0228596 0.0886209
0.090937 -0.0693186 0.375073
0.279545 -0.0551022 0.499718
-0.0075387 -0.0528301 0.137552
-0.0349366 -0.0659243 0.496959
0.186227 -0.0550136 0.451429
-0.0318183 -0.061305 0.335826
-0.0349535 -0.0636501 0.477933
0.0378074 -0.020536 0.41226
-0.153693 -0.0768308 0.506956
0.182071 -0.0763419 0.459881
-0.0179635 -0.0261457 0.0563211
-0.175515 -0.0543751 0.496945
-0.238712 -0.0552054 0.467495
0.0747445 -0.0793859 0.479758
-0.0447622 -0.0405071 0.746576
-0.39931 -0.0642409 0.414836
0.0290527 -0.0557539 0.286031
0.126369 -0.0225262 0.0600023
-0.404693 -0.0723419 0.46746
0.0121727 -0.0471582 0.116147
-0.208183 -0.0620835 0.398186
0.00130813 0.0195362 0.575589
0.00238203 0.0602312 0.0284787
-0.0200754 0.000412406 0.564851
-0.0643777 -0.0540067 0.427157
0.0145776 -0.0659973 0.337618
0.30498 -0.0697986 0.42661
-0.0117775 -0.0301143 0.433642
0.455363 -0.0672229 0.443651
0.154151 -0.0222726 0.0632451
-0.235203 -0.0680318 0.398958
-0.378117 -0.0558593 0.501492
0.0367178 -0.0371576 0.69969
0.244861 -0.0548543 0.491757
0.0763251 -0.0526242 0.508011
-0.050587 -0.0514668 0.482475
-0.0396839 -0.0399054 0.507765
-0.265976 -0.0550223 0.492774
-0.0167424 -0.0105031 0.512152
0.00808654 -0.0181479 0.0273635
0.0285869 -0.0485479 0.260133
-0.024549 -0.0633957 0.356571
0.368054 -0.0559171 0.50991
0.01896 0.00179946 0.631025
-0.0363459 -0.0254592 0.697309
0.358385 -0.0729618 0.524011
-0.007712 0.00844144 0.105197
0.0136426 -0.0838235 0.625544
0.0204684 -0.0420168 0.74665
0.346099 -0.057226 0.452966
-0.0352841 0.00705738 0.369704
-0.0350307 -0.0209363 0.750928
-0.0307253 -0.0174505 0.263921
0.0210459 -0.00783868 0.701736
-0.127831 -0.0174474 0.039281
-0.29577 -0.0664002 0.401858
0.170215 -0.0769121 0.496756
-0.46582 -0.0674721 0.447691
0.0401888 -0.0390371 0.523538
-0.0860623 -0.0664217 0.354784
-0.159145 -0.0175428 0.0929103
-0.0289881 -0.0156473 0.235737
-0.0918921 -0.0160946 0.0995462
0.0770224 -0.0788587 0.517569
0.0165507 -0.0560652 0.530773
0.0396962 -0.0510316 0.480476
-0.0267317 -0.0308073 0.202378
0.0565876 -0.0566414 0.55724
-0.0259993 -0.00542728 0.192105
-0.089949 -0.0783347 0.455914
-0.0333801 -0.0553079 0.412263
0.302846 -0.0557937 0.517836
-0.109534 -0.0733845 0.534995
0.0232531 -0.040478 0.169941
-0.0409011 -0.00165884 0.541575
0.0398461 0.0113199 0.595777
0.0404402 -0.0810007 0.518102
0.19523 -0.0544176 0.491862
0.0810286 -0.0563325 0.539686
0.00894112 -0.0487127 0.39139
-0.0402001 0.00787601 0.599255
0.00330091 0.0353794 0.440896
0.0184226 0.0127139 0.180072
-0.317071 -0.0740161 0.514882
0.0923056 -0.078503 0.501183
0.0136994 0.0357951 0.48825
0.24575 -0.0599135 0.418754
-0.15779 -0.0576221 0.53062
0.0583056 -0.0524126 0.445657
-0.0315966 -0.0019944 0.28922
0.0399201 0.0179848 0.573084
0.0345657 -0.0590714 0.682422
-0.268957 -0.0557477 0.450883
0.10119 -0.0139433 0.0789142
-0.206613 -0.0550447 0.460273
-0.0300129 0.0266482 0.447806
-0.0882217 -0.0783121 0.514139
0.00242047 -0.0242703 0.089513
0.0139982 -0.0423874 0.659516
-0.0285145 -0.0540594 0.562718
0.232397 -0.0574701 0.432877
0.0412006 -0.0368379 0.627955
-0.000949088 0.0791507 0.0579638
-0.258335 -0.073203 0.52818
-0.0918195 -0.0548702 0.525307
0.0562727 -0.0804325 0.494853
-0.298038 -0.0557327 0.517132
0.185106 -0.073715 0.425443
-0.375837 -0.0638787 0.41344
-0.0034999 0.0459269 0.0550138
0.0451338 -0.0211589 0.0445619
0.161098 -0.0563641 0.428673
-0.0380377 -0.0121577 0.42876
0.0288863 0.030635 0.49772
0.068208 -0.0577036 0.403278
-0.0130416 0.0371753 0.535261
0.039537 -0.00389535 0.492547
-0.0172029 -0.001161 0.649099
-0.312092 -0.0562509 0.523021
0.0939807 -0.0779827 0.44519
0.338313 -0.0738992 0.487033
-0.022177 -0.0187642 0.118532
-0.0190679 -0.0434127 0.554925
-0.0185919 -0.00854254 0.716626
0.00457029 -0.0595614 0.175897
0.0238515 -0.0121104 0.149278
-0.0184896 -0.0595476 0.381011
0.137255 -0.0543875 0.463232
0.03169 -0.0513298 0.441917
0.313322 -0.0559651 0.461153
-0.132097 -0.0770443 0.446459
-0.21325 -0.0734579 0.430133
-0.0393424 -0.050677 0.523408
0.0396154 -0.0237953 0.0874206
0.0355054 -0.0313052 0.347727
0.0291331 -0.0183352 0.2354
0.0128835 -0.0523844 0.459426
0.0375956 -0.0341254 0.42409
-0.30395 -0.0554225 0.48874
0.0231258 0.0296289 0.38572
-0.00327433 -0.0868174 0.575905
0.00834236 -0.0410398 0.379311
0.287159 -0.0672737 0.405723
-0.0300388 -0.0749399 0.516782
0.403325 -0.0728944 0.499028
0.0293496 -0.0706488 0.381419
-0.0426278 -0.0301952 0.559672
0.384581 -0.0563197 0.477323
0.0991577 -0.0536581 0.476338
0.0184534 -0.0668146 0.24721
0.157347 -0.0549541 0.516617
-0.00632005 -0.0292994 0.667009
-0.422216 -0.0676241 0.438785
0.455002 -0.0577786 0.52997
0.0248631 -0.0410283 0.19194
-0.0184597 -0.0436057 0.126972
0.0224435 -0.0626573 0.361072
-0.12302 -0.0545483 0.446121
0.000950983 -0.0864909 0.490855
-0.0093862 -0.0819411 0.464296
0.0400882 -0.0386611 0.745701
0.0347015 5.95013e-05 0.333863
0.0307226 0.0205654 0.364868
-0.161146 -0.0769037 0.470346
-0.0296922 -0.0449661 0.262602
-0.0638552 -0.0235911 0.0828923
-0.0588544 -0.0522272 0.458199
0.429923 -0.0711032 0.529469
-0.0422151 -0.0132048 0.0844267
0.0430454 -0.0590604 0.389184
0.0700621 -0.0661063 0.349473
0.144502 -0.0225815 0.0777358
0.0380389 -0.060433 0.548571
-0.044689 -0.0135385 0.0656624
-0.0402286 0.00104218 0.522858
0.23561 -0.0608732 0.539084
0.0121626 -0.058027 0.717959
0.0186657 -0.0216347 0.542499
-0.0210469 -0.0254428 0.104761
0.0289658 -0.0804479 0.549578
-0.172542 -0.0751874 0.432399
0.0163722 -0.0841814 0.445879
-0.0433676 -0.0600598 0.382586
0.43425 -0.0707191 0.462158
-0.118072 -0.0214085 0.0506382
-0.221592 -0.0584555 0.424552
-0.0117491 -0.0443889 0.738797
0.0231763 -0.0794898 0.411796
0.0339441 0.0247606 0.513235
-0.0231664 0.024493 0.308897
-0.0702853 -0.0212372 0.748461
0.0198608 -0.0177217 0.561397
-0.00698663 0.0336814 0.389445
0.0153864 -0.0231125 0.640641
0.234608 -0.0758205 0.487032
-0.0175273 -0.0758202 0.290998
-0.0179158 -0.0583719 0.584938
-0.0607861 -0.0614018 0.377132
0.0344559 0.0135843 0.398946
-0.217363 -0.054654 0.489321
-0.0842524 -0.053714 0.434562
-0.0251562 0.0141097 0.254346
-0.0325449 -0.0627114 0.682827
0.317269 -0.0741617 0.510442
0.0446672 -0.0528222 0.4311
0.215326 -0.0635469 0.389589
0.00717513 -0.0748053 0.652298
-0.0265291 -0.0756235 0.383783
0.384097 -0.0670766 0.426462
-0.00403232 -0.071096 0.242165
0.383588 -0.0575655 0.45679
-0.0042643 0.010521 0.123369
-0.16071 -0.0160612 0.0505086
0.37347 -0.0730892 0.477544
0.0326048 -0.0341124 0.302626
0.0117951 0.0318798 0.341629
0.0393358 -0.0682979 0.357919
0.00501404 0.00118994 0.496847
-0.0493237 -0.0601539 0.567502
-0.03589 -0.0474117 0.384922
-0.0283097 -0.00669256 0.676523
0.016373 -0.0515558 0.515261
0.00195416 0.0292156 0.0337504
0.0482719 -0.0619861 0.370727
-0.0072399 -0.0519192 0.364139
0.0165066 -0.0332953 0.625484
-0.320301 -0.0676041 0.415466
0.375604 -0.0696789 0.538061
-0.0375675 -0.0231395 0.408154
-0.0160276 -0.0582792 0.621327
-0.313093 -0.0560801 0.455247
0.0283496 -0.03547 0.233488
0.0391708 -0.0439919 0.495374
0.266916 -0.074885 0.512301
-0.0409771 -0.0374615 0.544385
-0.0220699 -0.0607473 0.234873
-0.0329534 -0.0661972 0.426821
-0.0200809 0.0345934 0.475271
-0.232648 -0.0656571 0.382544
0.017687 -0.0613518 0.580659
0.343507 -0.0613933 0.424761
-0.00620611 -0.0364569 0.0405056
0.284058 -0.0647149 0.544282
-0.00554295 -0.071372 0.571391
-0.0131015 0.00427759 0.0805773
0.348922 -0.0560637 0.473938
-0.0126016 0.0149161 0.172934
0.144581 -0.0210074 0.0495693
-0.337399 -0.0737527 0.477228
0.0192015 -0.00309135 0.672631
0.317642 -0.0611966 0.540004
0.318113 -0.0555602 0.487926
0.0159108 -0.0758452 0.285208
-0.00318757 -0.0180311 0.645913
0.0361331 -0.000775449 0.381596
0.00165393 -0.0557524 0.402936
0.0666207 -0.0524516 0.464785
-0.0287792 0.0279497 0.589533
-0.157977 -0.0547367 0.453187
-0.0280981 -0.0236322 0.220374
-0.00568953 -0.0748174 0.599544
0.15752 -0.0683979 0.383723
-0.339458 -0.0650533 0.402817
-0.015226 -0.0131358 0.0702543
-0.26341 -0.0657428 0.390113
0.421851 -0.056553 0.482905
0.021861 -0.0549959 0.210577
-0.0578561 -0.0206416 0.104418
-0.0240292 -0.00646365 0.15804
-0.00441503 -0.013138 0.731177
0.111131 -0.0554277 0.519874
0.466544 -0.0708679 0.528676
-0.056934 -0.0135034 0.0758799
-0.326518 -0.0555627 0.49218
0.012269 0.0339804 0.419365
-0.0357108 -0.0223769 0.342474
-0.0746466 -0.0216804 0.0498241
-0.334599 -0.0741478 0.497834
-0.138719 -0.0576812 0.531008
0.0188847 -0.0332593 0.593057
-0.304673 -0.0723578 0.4436
0.0144313 -0.0344742 0.0567768
-0.396496 -0.072887 0.49099
0.353387 -0.065582 0.5441
0.467159 -0.0718203 0.510493
-0.0409952 -0.0360689 0.630666
-0.253232 -0.0680013 0.402856
0.446468 -0.0639898 0.424167
0.050572 -0.0515493 0.523056
0.00462651 0.0119596 0.136115
0.0183689 -0.0405794 0.542363
0.00827575 0.0210866 0.604847
0.0104095 -0.0860309 0.571154
0.1392 -0.0545906 0.511294
-0.195153 -0.0573128 0.427877
-0.0396786 0.00151541 0.504854
-0.0392082 -0.0225002 0.657126
0.0388528 -0.0630379 0.615896
-0.361545 -0.0598545 0.437949
-0.0450712 -0.0802319 0.453883
-0.0175896 -0.0330403 0.73139
0.0337657 -0.0153992 0.316731
0.264887 -0.0750027 0.471602
0.129162 -0.0598215 0.400436
-0.031446 0.0293332 0.53312
-0.174156 -0.076425 0.456065
-0.106915 -0.0568532 0.527021
0.149686 -0.0736619 0.41703
0.00284874 -0.0740976 0.556985
0.0287961 0.0281014 0.446063
0.298111 -0.0742051 0.460706
0.00956145 -0.0333173 0.3986
0.0388991 -0.0309455 0.46494
-0.386488 -0.0732452 0.505509
-0.420079 -0.0564246 0.489662
0.0207464 0.0245686 0.29653
-0.148298 -0.0724235 0.40846
-0.259475 -0.0752991 0.483386
0.196502 -0.0688592 0.395667
0.0119402 -0.0289454 0.436203
-0.00894501 0.0213929 0.233043
-0.133452 -0.0776257 0.482897
-0.14314 -0.0145025 0.0732299
0.0289541 -0.0812639 0.474195
-0.19193 -0.0665107 0.378972
0.364715 -0.0734461 0.509684
0.277035 -0.0553655 0.478028
0.171579 -0.076357 0.449111
0.268527 -0.0637486 0.543376
0.451114 -0.071761 0.484207
-0.297859 -0.0743923 0.5126
-0.0324281 0.0120021 0.329918
-0.231109 -0.0756058 0.470242
0.403084 -0.0696941 0.53781
0.0382883 -0.00839142 0.443926
0.365239 -0.062613 0.420158
-0.0153771 -0.0535194 0.636587
-0.00823058 -0.0145865 0.0511136
0.126587 -0.0172657 0.0967285
0.0662171 -0.020537 0.0416918
0.00627877 -0.0475378 0.730971
0.0317798 -0.0238661 0.0775831
0.0374111 -0.00176088 0.423869
-0.0334015 -0.00982836 0.314434
-0.00863576 -0.0371606 0.75909
0.0588484 -0.0727039 0.391203
-0.456925 -0.0570953 0.526545
0.0131384 0.0302578 0.322814
0.179926 -0.0546667 0.507474
-0.341841 -0.0655798 0.544199
-0.000260684 -0.0489414 0.504081
0.019708 0.0130882 0.559085
0.0701187 -0.0722362 0.555446
0.448081 -0.0569207 0.474657
0.333219 -0.0735484 0.46036
-0.267393 -0.0747464 0.516227
0.0555946 -0.0796506 0.446161
0.084699 -0.0757255 0.536684
-0.0370619 -0.015455 0.39151
0.271808 -0.0676962 0.405048
-0.0128098 0.0345288 0.438577
0.000882151 -0.0854479 0.345129
-0.019458 -0.0821318 0.501743
0.251741 -0.074177 0.523665
-0.374397 -0.0646916 0.544282
0.0336348 -0.030866 0.317449
-0.123299 -0.0770599 0.514307
-0.304602 -0.0743775 0.478246
0.0266846 -0.0319295 0.203764
-0.212956 -0.0761781 0.484418
-0.0399288 -0.0238887 0.491243
-0.272471 -0.0745937 0.455516
-0.160485 -0.0541719 0.488348
-0.0840432 -0.0361592 0.748686
-0.016174 -0.0143296 0.104231
0.00410952 0.00170132 0.608969
0.0139763 -0.00889102 0.468443
0.0387449 -0.0267758 0.673269
0.0112199 -0.0708314 0.664848
-0.0158486 0.00797576 0.597226
0.0288663 -0.0573795 0.397546
0.120843 -0.0549852 0.43133
-0.000469126 0.0689552 0.00937374
-0.0132837 0.0209969 0.572873
0.0197309 -0.0144506 0.0771215
0.144327 -0.076808 0.512018
0.165046 -0.0544823 0.50387
0.121518 -0.0674857 0.369452
-0.0094615 -0.0751878 0.270698
-0.0180921 -0.00237654 0.533507
-0.060471 -0.0521918 0.525128
-0.0272307 -0.0734702 0.662236
0.0184392 -0.0435786 0.13116
0.422593 -0.0724499 0.493788
0.0282842 -0.0809062 0.451
0.0159098 -0.0832968 0.332816
0.00728988 0.00881706 0.524469
-0.0315648 -0.0561904 0.319076
-0.0359495 0.00964991 0.409633
0.00174302 -0.0595626 0.542159
-0.0330354 0.013692 0.353927
-0.204901 -0.0547842 0.474982
-0.0197487 0.0312859 0.374123
-0.0707987 -0.0710046 0.382272
0.0472882 -0.0629045 0.572548
-0.00408988 0.0375668 0.551804
-0.048967 -0.076065 0.411625
-0.180632 -0.0544981 0.479381
-0.219086 -0.075552 0.453632
-0.0191039 -0.080093 0.557811
-0.170857 -0.0568384 0.427096
-0.0969618 -0.0139757 0.0741425
0.0443632 -0.0194951 0.59401
0.0281873 -0.0659374 0.310382
-0.0312453 0.0268816 0.482904
-0.0180688 -0.0309429 0.604307
-0.0374959 -0.0647866 0.349895
0.0367188 -0.061533 0.658033
-0.414021 -0.0724374 0.516861
-0.182759 -0.0718073 0.412192
-0.00740908 0.0358074 0.468022
0.402936 -0.0562284 0.513519
-0.211268 -0.0553547 0.51886
0.419405 -0.060311 0.444301
0.00214211 -0.0688103 0.488671
-0.0322738 0.0194495 0.382117
0.0345978 -0.0778944 0.420937
-0.450006 -0.0706734 0.530541
0.0629304 -0.0768941 0.419952
-0.0757176 -0.0757017 0.414569
0.0825829 -0.054307 0.428808
0.0192547 0.0136895 0.586408
-0.0126944 -0.0592244 0.673905
-0.0300446 -0.05378 0.29233
0.0141594 -0.0170934 0.741628
-0.00643239 -0.0207476 0.039479
-0.325329 -0.070998 0.439235
0.274778 -0.0587215 0.431414
0.00701822 0.0192526 0.562256
0.0033318 0.0576961 0.0552549
-0.00833035 0.0340731 0.407736
-0.0433363 -0.0519666 0.542546
0.118924 -0.0746085 0.528633
0.0407866 -0.0548245 0.416972
-0.323086 -0.0725593 0.527924
-0.00735494 -0.0662951 0.467586
0.219619 -0.0561775 0.439419
-0.184605 -0.0752648 0.521828
0.378315 -0.0713828 0.453856
-0.0193693 -0.00797557 0.586603
0.331445 -0.0692058 0.42868
-0.0198468 -0.0311031 0.562492
0.131562 -0.063459 0.542197
0.21301 -0.0758524 0.50853
-0.0669849 -0.0735522 0.398489
0.128312 -0.0164101 0.0462231
0.00220725 -0.0854207 0.364025
-0.0270668 -0.0697301 0.317653
-0.299702 -0.0679476 0.41307
0.0141598 0.0136397 0.166436
0.0211703 -0.0509131 0.439765
-0.45819 -0.056952 0.478086
0.00406261 -0.00512556 0.0619663
0.0397387 -0.0277308 0.647551
0.167591 -0.0612659 0.539266
-0.437855 -0.0569878 0.526099
-0.0855984 -0.0711695 0.38634
-0.186389 -0.0570519 0.527632
0.395632 -0.0725645 0.470731
0.251232 -0.0556714 0.447927
-0.261069 -0.0715801 0.428495
0.287246 -0.0748745 0.488787
0.00249925 -0.0235963 0.40709
0.140565 -0.0540131 0.487401
0.0171904 0.0190886 0.22971
-0.242012 -0.0723203 0.429093
0.00903172 -0.0542592 0.147709
-0.0300568 -0.0501906 0.506036
-0.00965288 -0.0475958 0.542649
0.0115068 0.0260628 0.280246
-0.00720979 -0.0850122 0.406053
-0.0978851 -0.0781885 0.467651
0.206999 -0.0553275 0.518773
-0.455243 -0.061804 0.440166
-0.00656014 -0.0710895 0.525297
0.0371411 -0.0275389 0.399062
0.0249373 0.0335105 0.564803
-0.0829449 -0.0784318 0.44364
0.000923954 0.0360719 0.580532
0.0355304 0.0045878 0.368554
0.0255073 -0.0010447 0.186687
-0.0820957 -0.0530179 0.470731
0.00856478 0.0357542 0.471518
-0.159679 -0.0763928 0.438031
0.391862 -0.0560287 0.498562
-0.334575 -0.0585261 0.534288
0.0219021 0.0243676 0.598782
0.370955 -0.0734616 0.497078
0.073721 -0.023371 0.0757479
0.158487 -0.0768293 0.462915
-0.326692 -0.0569012 0.45198
0.0118471 -0.0140104 0.0551733
0.0175294 -0.0544636 0.174426
0.116243 -0.014387 0.0622608
0.0325416 -0.0543433 0.325455
0.0739742 -0.0602007 0.387786
-0.466334 -0.060445 0.539761
0.00424754 -0.0566907 0.343063
-0.363273 -0.0730634 0.52181
-0.0230708 -0.0152475 0.0476055
-0.140952 -0.0189565 0.0356804
-0.437407 -0.0565599 0.490656
0.19494 -0.0563022 0.434581
0.0321165 0.0163754 0.348085
-0.017617 -0.00548142 0.689658
0.00808216 -0.0828157 0.513403
0.226567 -0.0547557 0.499255
0.0154689 -0.0549588 0.635792
-0.0651705 -0.0799882 0.491175
0.0408534 0.00405775 0.544508
-0.0953614 -0.0583598 0.404351
0.198885 -0.0732101 0.425212
0.0303382 -0.0367702 0.267068
0.157677 -0.0214526 0.088512
-0.12717 -0.0223883 0.0886056
-0.0117954 0.00402553 0.628537
-0.0134676 -0.0573761 0.394481
0.29696 -0.0614078 0.417106
-0.0187064 -0.0822286 0.519757
-0.193 -0.076083 0.456493
-0.0249545 -0.0131977 0.0938381
-0.0441012 -0.00250201 0.589287
-0.417548 -0.0571337 0.465183
-0.0283209 0.0282105 0.434334
0.0288468 -0.0768628 0.512169
0.037 -0.0538962 0.463283
0.0292071 0.0121437 0.290344
-0.190125 -0.0764725 0.500635
-0.39074 -0.0562056 0.515676
-0.012708 -0.0240851 0.0780489
0.174781 -0.0550358 0.444089
-0.019011 -0.0281681 0.547936
0.021678 -0.020092 0.112333
-0.01336 -0.0460755 0.462036
-0.0316175 -0.0207867 0.2771
0.179572 -0.0715358 0.409658
0.364446 -0.0695032 0.438171
-0.0126934 -0.0397103 0.448332
0.0194651 -0.0749476 0.398259
-0.0152053 -0.0104998 0.487868
0.129823 -0.0775621 0.475036
0.153047 -0.0545367 0.462582
-0.146511 -0.0634257 0.379223
0.0195113 -0.0829351 0.46393
-0.350396 -0.05575 0.493496
0.0147491 0.00443224 0.50861
0.0141484 -0.0228979 0.471115
0.335874 -0.0582817 0.444267
0.0118967 -0.0400417 0.687055
-0.0110727 -0.0721941 0.611477
-0.0234678 -0.0110537 0.145403
-0.0317901 0.0272925 0.504091
0.0316801 -0.0469188 0.295805
-0.0358388 0.0146697 0.446196
0.0321533 -0.0122217 0.689518
-0.0376282 0.0146718 0.50144
0.0178537 -0.00602554 0.529721
0.403028 -0.0676799 0.434792
0.0382797 -0.0505662 0.511468
-0.27969 -0.0751543 0.498227
0.100175 -0.0617616 0.541895
-0.116463 -0.0669028 0.364416
-0.297861 -0.0579574 0.531621
0.342436 -0.0715079 0.532142
0.0301511 0.0313284 0.552181
0.0392265 -0.0125605 0.46896
-0.0165698 -0.0836714 0.388476
-0.252727 -0.0584497 0.429647
-0.009813 -0.0485828 0.404677
-0.0436733 -0.080555 0.46967
-0.0388177 -0.0285772 0.460021
-0.191328 -0.0601427 0.408389
-0.00919406 -0.0824839 0.313415
0.186801 -0.0612021 0.400591
0.054313 -0.0516812 0.479227
-0.000995968 -0.00890278 0.122372
0.0355521 -0.0113925 0.659289
0.0253404 -0.0660375 0.5872
-0.446931 -0.0719735 0.515377
0.015968 -0.0636076 0.60814
0.0411366 -0.0224464 0.530653
0.134779 -0.0768918 0.440282
0.277195 -0.0744457 0.520651
0.158134 -0.0576443 0.53073
-0.377227 -0.0580514 0.531709
-0.412562 -0.0640828 0.544282
-0.0938652 -0.0195687 0.0369109
-0.379644 -0.0730362 0.481225
-0.0263776 -0.0501323 0.520932
0.0442094 0.00185156 0.586394
-0.0410324 -0.0210698 0.0437204
0.0138071 -0.0642034 0.650133
-0.0958686 -0.0766477 0.524757
-0.0318956 -0.069681 0.466612
-0.229327 -0.0559997 0.522164
0.399168 -0.0570693 0.526693
0.0382378 0.00659705 0.463876
0.340293 -0.0738384 0.509352
-0.0358175 -0.0403195 0.372128
0.155748 -0.0648547 0.371195
-0.0260119 0.00573625 0.221949
-0.0184712 -0.0814826 0.336189
-0.0349553 -0.0594794 0.441905
-0.254964 -0.0588269 0.536175
0.0300425 -0.0780748 0.610736
0.0136387 -0.0373892 0.463014
0.0310035 -0.0136869 0.714891
0.00733037 -0.0493355 0.36527
-0.0406093 -0.0346235 0.531618
-0.0105399 -0.0574726 0.433017
-0.197994 -0.0548768 0.510727
-0.0841198 -0.0230034 0.0916239
0.0443318 -0.0206295 0.573202
-0.00693012 0.0122318 0.14219
0.142754 -0.0771533 0.464868
0.0288979 -0.0519577 0.273539
0.231151 -0.0699024 0.410505
-0.0153666 0.0115445 0.158127
0.00413462 -0.0690488 0.230933
-0.0800174 -0.0571733 0.544553
-0.0209805 -0.0725219 0.582
0.18794 -0.0637052 0.384087
-0.338611 -0.0562327 0.458399
0.268392 -0.0751901 0.486762
0.0967139 -0.0196413 0.0375674
-0.446585 -0.0569488 0.472187
0.0167342 -0.0274 0.51196
-0.0334877 -0.021931 0.309005
0.427674 -0.0563896 0.495746
-0.0242053 -0.0209683 0.153775
-0.0313666 0.0304222 0.557873
0.0297106 -0.0271459 0.729071
0.0369548 -0.000748743 0.409705
0.0222752 -0.0716601 0.678551
-0.0282725 -0.0545229 0.271278
0.0315525 0.0142429 0.327906
-0.0689824 -0.0773436 0.538888
-0.0979993 -0.0351045 0.749614
-0.0483433 -0.0809485 0.505341
-0.0388731 -0.0789965 0.429141
0.101985 -0.0588117 0.402666
-0.0105858 -0.0638324 0.35086
-0.0372805 -0.00685695 0.625927
0.0466369 -0.0273469 0.757934
-0.0014965 0.0375459 0.513542
0.100588 -0.064467 0.364681
0.0432551 -0.0405751 0.599575
-0.24812 -0.0756115 0.489519
0.0328541 -0.0590999 0.355273
-0.394502 -0.0726629 0.475369
-0.0418269 -0.0508587 0.496337
-0.0290962 -0.0749703 0.47987
0.0149523 -0.00682111 0.483872
-0.0187727 -0.0835039 0.472781
0.0111432 -0.0322163 0.423598
-0.0266129 -0.0134344 0.0599142
0.0106416 -0.039725 0.068675
-0.0965584 -0.0544156 0.430888
0.0921656 -0.0535629 0.464023
-0.118446 -0.073113 0.406263
0.309193 -0.0578288 0.530924
0.0146389 -0.0566191 0.399763
0.098805 -0.0541707 0.513933
0.0958886 -0.0540029 0.447256
0.0191949 -0.00256849 0.0870138
-0.00426818 0.0109382 0.0754895
0.00699508 -0.0746381 0.575881
0.115554 -0.0544381 0.448803
0.0414371 -0.0488431 0.555624
-0.406194 -0.0693443 0.446609
-0.0520298 -0.023004 0.0572787
-0.0642395 -0.068798 0.366247
-0.112739 -0.0645334 0.543627
