0.00179516 -0.0923754 0.399419
0.00216004 0.106866 0.0365879
0.0140075 -0.00872632 0.411536
0.0389399 -0.0991918 0.45754
0.064566 -0.0664565 0.668499
-0.323325 -0.048971 0.51066
-0.0664319 -0.0449257 0.514542
-0.363833 -0.0529393 0.396031
-0.0958501 -0.0469134 0.456935
0.0635427 -0.0691129 0.540551
-0.0377537 -0.108685 0.58327
0.232704 -0.0488537 0.468866
-0.0127446 -0.0550438 0.143969
0.354261 -0.0500941 0.491629
-0.300322 -0.0500752 0.464421
0.0171069 -0.0248254 0.948822
0.0209615 -0.10381 0.647146
-0.354513 -0.051785 0.43351
0 -0.0132038 0.0849741
0.0464623 -0.0367083 0.456495
0 -0.0060996 0.248994
0.0829772 -0.0412425 0.632775
0.0974157 -0.0466318 0.469026
0.0100093 -0.0239472 0.217102
0.041569 -0.100884 0.481939
-0.031465 -0.104166 0.732538
0.0368865 -0.0564867 0.342362
0.0230369 -0.0676261 0.375766
0.148284 -0.0463855 0.0992404
0.0488726 -0.0995843 0.621212
-0.0401039 -0.0550899 0.370315
-0.248059 -0.0484853 0.491376
-0.0101149 -0.0229115 0.952401
0.0056533 0.0667212 0.0557262
-0.0450012 -0.0249754 0.650104
-0.0398312 -0.069114 0.419869
-0.0415428 -0.0539041 0.866791
-0.0341101 -0.0122519 0.51016
0.179435 -0.0457877 0.539616
-0.00872081 -0.0153205 0.293259
-0.0193677 0.0254749 0.701196
0.00117169 0.0330948 0.696333
-0.0152694 -0.0116874 0.379051
-0.165461 -0.0466408 0.508499
0.00676596 0.0700741 0.081237
0.0449002 -0.0251859 0.53961
0.0419025 -0.0559595 0.391869
0.285588 -0.0497672 0.467034
-0.0271804 -0.0986583 0.420308
-0.0209034 -0.0104035 0.432008
-0.00132247 0.0320288 0.820833
0.0203414 -0.0198245 0.296809
0.0255491 -0.0591315 0.240208
0.0415925 -0.0228279 0.732063
0.0394756 -0.0269985 0.782021
0.0891487 -0.043137 0.576856
-0.050807 -0.0457322 0.474357
0.00894191 -0.0648885 0.181476
0 0.0505265 0.161837
0 0.0309884 0.121211
-0.0357924 -0.0724154 0.805099
-0.0102868 -0.0522357 0.983404
-0.068614 -0.0407371 0.643054
0.0171256 -0.10192 0.697554
0.00690752 0.070146 0.100517
0.0405661 -0.0108378 0.661138
-0.0328483 -0.0142136 0.455629
0.0435904 -0.0323322 0.420467
-0.278502 -0.0474524 0.535064
0.00778385 0.0762554 0.134935
-0.0358998 -0.10832 0.544489
0.00420634 -0.078933 0.947752
-0.01746 -0.0798277 0.910131
0.264892 -0.0477024 0.521714
-0.021609 -0.0343674 0.209877
-0.335966 -0.0523744 0.400017
0.143954 -0.0463855 0.0778446
0.0637584 -0.0709204 0.59977
-0.000382727 -0.0914257 0.870644
0.00961471 -0.0409019 0.107781
0 -0.0164223 0.0372886
-0.0373341 -0.0425718 0.322982
0.0272594 -0.0762484 0.890325
-0.0223527 -0.0463855 0.104356
-0.00184434 0.028652 0.652871
-0.0502496 -0.0619604 0.469308
0.159685 -0.0478299 0.462048
-0.035762 -0.00878563 0.748673
0.0164165 -0.0153231 0.334819
0.238938 -0.0481703 0.496518
-0.0208743 -0.00887754 0.875079
0.0177829 -0.102887 0.586286
0.043654 -0.0210957 0.570202
-0.0098431 -0.102368 0.513017
0.0304289 -0.0408991 0.258664
0.106083 -0.0463855 0.151113
-0.0707463 -0.0463855 0.106231
-0.0613933 -0.0432973 0.561488
0.197963 -0.0453696 0.560057
-0.0649582 -0.0655739 0.665287
-0.230457 -0.0496194 0.438184
-0.0316825 -0.056469 0.287984
0 -0.00195 0.129205
-0.325508 -0.0514157 0.429471
-0.034017 -0.0705713 0.888575
-0.0465643 -0.10064 0.689767
0.0554876 -0.0767813 0.750414
-0.00418571 0.00154001 0.544568
0.00645263 0.0702189 0.0372367
-0.0225018 0.0203469 0.659078
0.0752107 -0.0463855 0.0861863
-0.344896 -0.0506326 0.47124
-0.279689 -0.0482693 0.511746
-0.0186515 -0.00789025 0.468648
0.422321 -0.0536346 0.406024
0.00388934 0.10081 0.119832
0.118856 -0.0466307 0.482903
0.00933577 -0.00844706 0.389293
-0.047386 -0.0463855 0.138627
-0.172119 -0.0459593 0.531354
0.328403 -0.0513455 0.433881
-0.231229 -0.0466925 0.536229
0.0334846 -0.100307 0.430541
0.0422383 -0.051764 0.864429
0.201741 -0.0467688 0.520893
0.0197467 -0.00757574 0.855728
0.388586 -0.051429 0.46792
0.138906 -0.0476168 0.457029
-0.0446531 -0.0316079 0.723841
0.0171473 -0.00726606 0.467205
0.0243525 -0.0640342 0.291494
0.0361332 -0.10856 0.530338
0.00972996 -0.0981403 0.753659
-0.00755402 -0.0926534 0.846088
0.0383671 -0.0324365 0.898122
0.0185119 -0.0167757 0.924336
0.0103862 0.0244173 0.849672
0.0309193 0.0189356 0.775686
-0.0464471 -0.0372393 0.452757
-0.0579606 -0.0551217 0.727929
-0.0536397 -0.05641 0.516896
-0.322607 -0.050649 0.45639
-0.053603 -0.0805531 0.759643
-0.0319843 0.00703038 0.7832
-0.0377319 -0.0662981 0.39378
0.249668 -0.0503032 0.424414
-0.110878 -0.0412631 0.642753
-0.0537305 -0.0892183 0.710672
0.0447834 -0.0982343 0.727158
0.0655136 -0.0426278 0.583639
-0.199271 -0.0480755 0.477922
-0.147232 -0.0453326 0.538585
-0.0127654 -0.095959 0.438137
0.400211 -0.0524866 0.435386
0.0385863 -0.0630009 0.826856
-0.0329163 -0.0501974 0.940814
0.124838 -0.0463855 0.103587
-0.0335335 0.0133704 0.73903
0.0107646 -0.0555061 0.135991
-0.301894 -0.0481126 0.526189
0.0872691 -0.0463855 0.160581
0.00956252 -0.102368 0.552253
-0.167906 -0.0476533 0.474302
-0.212794 -0.0458442 0.552797
0.00974813 0.0280267 0.673151
0.0459677 -0.101468 0.513252
-0.0359149 0.0110694 0.707462
-0.0556733 -0.0398786 0.664742
-0.0395881 -0.0241287 0.4055
0.106994 -0.0415408 0.63244
-0.0741929 -0.0425016 0.590732
-0.270103 -0.0503994 0.433399
-0.0348511 -0.0569586 0.918219
0.0399184 -0.0665089 0.791753
-0.0230269 -0.007198 0.843732
0.0425106 -0.107036 0.63401
0.381336 -0.0533204 0.392545
0.0461476 -0.0284901 0.640069
-0.0545924 -0.0463855 0.0894374
0.293125 -0.0514246 0.409194
-0.135844 -0.0463855 0.129832
0.0252155 -0.105105 0.671451
-0.00776676 -0.00695184 0.907562
0.174453 -0.0441104 0.586364
0.0696119 -0.0403614 0.655001
0.00407937 -0.000686998 0.497142
0.0175349 -0.0300959 0.195404
0.0370923 -0.044857 0.313441
0.227714 -0.0471109 0.522452
0.169942 -0.048406 0.446342
-0.0079249 -0.100939 0.7088
0.0610883 -0.0591603 0.718364
-0.145757 -0.0479998 0.446655
-0.0409375 -0.0165817 0.70664
-0.0592481 -0.0811624 0.541996
0.00126615 0.0173136 0.595863
-0.099999 -0.0439058 0.559236
0 -0.0253682 0.06151
-0.0493117 -0.0387311 0.584627
-0.116024 -0.0454196 0.52217
-0.00925209 -0.0175138 0.266328
-0.0344239 -0.0145998 0.798833
-0.00722302 0.0764236 0.0532564
0.152597 -0.0452112 0.544513
-0.0247042 -0.0463855 0.177372
0.0582599 -0.0463855 0.110261
0.00855968 0.0871963 0.021117
0.0922402 -0.0463855 0.134888
-0.0323005 -0.102334 0.762797
0.196715 -0.0478744 0.484186
-0.388534 -0.0519838 0.44702
0.103247 -0.0463855 0.117023
0.0940179 -0.0448822 0.528075
-0.0160283 -0.00468702 0.515476
-0.0270671 -0.0382975 0.958268
0.0484054 -0.0463855 0.151265
0.0376133 -0.0268052 0.816127
0 0.0321082 0.0918261
0.333117 -0.0500849 0.482496
0.0359015 0.00134995 0.722194
-0.102184 -0.0463855 0.0795192
0.0246285 -0.00567984 0.573538
0.0244785 -0.102019 0.4746
0.134931 -0.0464778 0.499291
0.0388515 -0.108905 0.689305
0.0480889 -0.0381426 0.483434
-0.0120351 -0.0120612 0.356424
-0.0623914 -0.0593868 0.696999
-0.145233 -0.0463855 0.0843623
0.00875824 0.0887347 0.0944248
0.315559 -0.0484638 0.522015
-0.0641932 -0.0689118 0.564401
0.01913 -0.00903892 0.44559
-0.0571631 -0.0772186 0.490549
0.0676281 -0.044037 0.541014
-0.00550247 -0.10059 0.491396
-0.0444445 -0.0352751 0.746783
0.00197336 -0.0521753 0.0688119
-0.00370652 0.029264 0.836777
0.0104032 -0.102368 0.624511
0.0510893 -0.0415166 0.684697
-0.164957 -0.0463855 0.0933266
0.0251035 -0.0531195 0.963852
-0.117122 -0.0437285 0.572024
-0.0130232 -0.0878541 0.88196
0.0572384 -0.0899048 0.588652
-0.297461 -0.0492135 0.492082
-0.0267922 -0.0173228 0.909589
0.0257643 -0.0656402 0.34552
-0.0607419 -0.0463855 0.156861
-0.0352674 -0.0195974 0.83478
-0.104475 -0.0465257 0.477756
0.0221803 0.000302576 0.843614
0.0141923 0.019483 0.623749
0.0564149 -0.0852099 0.697888
-0.187541 -0.0489503 0.436803
-0.0925722 -0.0458553 0.496461
-0.00925583 0.0941578 0.0469636
0.016347 -0.0861553 0.875776
0.0613932 -0.0451911 0.502482
0.0278234 0.0217676 0.751269
-0.0461873 -0.0504913 0.416172
-0.00905181 -0.0710046 0.218145
0.0463257 -0.0877697 0.443915
0.234303 -0.0465009 0.543188
0.0896133 -0.0470184 0.448819
0.0592085 -0.0693486 0.73424
0.160435 -0.0471771 0.488224
0.0366675 0.00674148 0.69734
0.0460662 -0.0283263 0.611225
0 -0.0140057 0.172676
0.13091 -0.0479092 0.440901
0.0218106 -0.0497463 0.190054
0.0370753 -0.016604 0.767115
-0.014044 -0.0704718 0.241994
0.0492222 -0.0383635 0.585001
-0.0476737 -0.0497778 0.435199
0.0336112 -0.0171442 0.405846
-0.369306 -0.0515703 0.450658
0.223767 -0.0492927 0.446293
0.0600664 -0.0609048 0.559981
0.0398461 -0.0462754 0.9143
-0.139223 -0.044799 0.550601
0.287409 -0.049321 0.484477
0.0319893 0.00387191 0.652088
0.0112754 -0.0786174 0.314933
-0.0382343 -0.0463855 0.0904029
0.00600119 -0.0150062 0.28105
0.0403327 -0.0463855 0.118352
0.203939 -0.0473692 0.504343
0.362661 -0.0520468 0.428726
-0.179263 -0.0445791 0.57482
0.00343505 0.03215 0.721306
0.046518 -0.0315278 0.695853
-0.189717 -0.0467824 0.51515
-0.0758385 -0.0442855 0.53741
0.36511 -0.0510918 0.46621
0.113657 -0.0443794 0.551482
-0.133656 -0.0464551 0.499361
-0.00701417 -0.00464561 0.43405
-0.303789 -0.0512507 0.42227
0.0276085 -0.0164251 0.382189
-0.0610764 -0.0690422 0.712772
-0.00512618 0.0801171 0.155177
-0.0313344 -0.0246799 0.321186
0.258709 -0.046962 0.540578
-0.0590373 -0.053514 0.679193
-0.102958 -0.0422619 0.608728
0.0238956 -0.0882214 0.419869
-0.00750645 -0.0307419 0.96905
-0.0496554 -0.0416533 0.496357
-0.0129866 -0.00128314 0.563971
0.0302297 -0.00693386 0.59894
0.000181254 0.0567207 0.0224585
0.285384 -0.048094 0.519392
-0.160729 -0.0430991 0.609783
0.110166 -0.0463855 0.096612
-0.0621086 -0.0751056 0.625674
0 0.0103621 0.168883
0.330327 -0.0519816 0.41125
0 -0.0112977 0.104327
-0.0911704 -0.0409095 0.646062
-0.0157373 -0.0463855 0.13285
-0.0389965 -0.100394 0.464418
0.313876 -0.0496133 0.487709
0.0308167 -0.0811275 0.805387
0.056473 -0.089963 0.633581
0.0592476 -0.0575476 0.579472
0.055322 -0.0596498 0.511455
0.0376968 -0.0270107 0.85215
0.0216301 -0.00713653 0.511822
-0.404552 -0.0527109 0.429662
0.0487343 -0.0586787 0.474398
-0.0326676 -0.107329 0.635668
-0.0163102 0.0154551 0.61196
-0.420381 -0.0536367 0.404748
-0.0266315 -0.0674266 0.382593
-0.0199185 -0.0463855 0.118956
0.200888 -0.0490534 0.441162
-0.0407617 -0.0117078 0.635967
0.00880772 -0.0930985 0.837187
0.0110568 -0.00846696 0.907825
0.0092731 -0.0559167 0.983248
-0.0527828 -0.0947436 0.612262
0.162949 -0.0461477 0.521778
-0.0118441 -0.0757624 0.948335
-0.210017 -0.0489753 0.449709
0.000188973 -0.102368 0.656294
-0.0333816 0.00410942 0.762416
0.399081 -0.0528241 0.422055
0.0926896 -0.0463855 0.0919878
-0.386111 -0.0532214 0.399191
0.252012 -0.0490769 0.472542
-0.0323292 -0.107349 0.524699
0 0.00514791 0.0823163
0.0248919 -0.0463855 0.164186
-0.0909125 -0.0463855 0.143808
-0.20186 -0.0462559 0.535919
0.0355855 -0.0697354 0.855418
0.00946297 -0.0319372 0.157514
0.0321188 -0.0518176 0.276285
0.0488163 -0.0488727 0.775723
-0.0152097 -0.0794804 0.389119
-0.00173048 0.0834632 0.00399835
-0.109475 -0.0463855 0.097436
0.0583524 -0.0730116 0.4881
-0.0433941 -0.0225147 0.495607
0.0696658 -0.0420464 0.60309
-0.175256 -0.0437344 0.597697
-0.0545008 -0.0442484 0.529632
0.0210593 0.0246978 0.686902
-0.0355759 -0.108242 0.683133
0.324077 -0.0504562 0.464751
0.0384838 -0.0384688 0.34953
-0.136654 -0.0431632 0.597211
-0.367683 -0.0504807 0.486309
-0.194644 -0.0475025 0.496319
0.000267172 -0.0827261 0.933773
-0.0144557 -0.0730456 0.288182
-0.0282678 -0.00780435 0.558293
-0.391862 -0.0512532 0.474509
0 0.0418422 0.136731
0.00264664 -0.000900206 0.47893
0.0483665 -0.0360562 0.517086
-0.250831 -0.0499387 0.438775
0 0.0272333 0.0814691
-0.0368154 -0.0674927 0.847408
0.0572343 -0.0869234 0.66263
0.0310601 -0.0270476 0.929831
-0.0490473 -0.0377292 0.632758
0 0.00676312 0.146198
-0.0554415 -0.0724376 0.780108
0.205804 -0.0496099 0.423355
0 0.0250133 0.106268
-0.333492 -0.0499305 0.487171
0.0262247 -0.0463855 0.105831
0.077472 -0.0435489 0.559663
-0.0695856 -0.0460973 0.472105
-0.000151879 -0.00607912 0.370448
-0.0207377 -0.00355229 0.586342
0.0113793 -0.0744555 0.251083
0.182291 -0.0446933 0.572833
0.0143044 -0.0828198 0.392771
0.280866 -0.0487188 0.499147
0.0871989 -0.0455788 0.503875
0.00786068 -0.0186807 0.248751
0.0361531 -0.015713 0.451624
0.170922 -0.0488757 0.429358
-0.00512728 0.0654374 0.0906731
0.121588 -0.0471556 0.464006
-0.0906535 -0.0463855 0.10572
0.00816553 0.0812017 0.116389
0.282788 -0.0501336 0.45116
0.000285188 -0.0901079 0.376177
0 0.0182448 0.052626
-0.063576 -0.071983 0.590273
0.112071 -0.0431053 0.587972
-0.20024 -0.0450913 0.569193
-0.237597 -0.046137 0.555277
-0.0418776 -0.0331249 0.78061
0.000718177 0.00361674 0.888124
0.0738356 -0.0463229 0.46597
-0.0252102 -0.026163 0.255627
0.00202436 -0.0570562 0.101355
-0.0368363 -0.108476 0.608549
-0.0310457 0.00441713 0.807995
-0.402995 -0.0531789 0.411179
0.116046 -0.042497 0.607496
0 -0.0350031 0.0403196
0.158206 -0.0463855 0.112779
0 0.0492617 0.118261
0.239821 -0.0494385 0.450724
-0.262179 -0.0485741 0.495063
0 0.019047 0.129731
-0.0131294 -0.101892 0.692114
0.0331325 -0.000355291 0.778236
-0.05854 -0.0817426 0.522095
0.0428601 -0.0644575 0.416895
0.00674262 -0.095393 0.795385
0.0282221 -0.0112824 0.477895
-0.0117183 0.0286621 0.80166
0.0630712 -0.0716573 0.634435
0.0448294 -0.0242118 0.677678
-0.0933902 -0.0463855 0.161816
-0.0596641 -0.0651691 0.750986
0 -0.031716 0.0735861
0.0290118 -0.0196335 0.347267
-0.0608552 -0.0463855 0.125718
0.0396121 -0.0125181 0.554139
0.183643 -0.0463051 0.526383
-0.115342 -0.0463855 0.134674
0.0337063 0.0192589 0.727974
0.336773 -0.0510182 0.451292
0 0.0502168 0.145571
0.034112 -0.106804 0.497013
0.0623019 -0.0605457 0.615491
-0.0376569 -0.00192145 0.700993
0.00434696 -0.0965552 0.776791
-0.010771 -0.083427 0.334242
-0.0390137 -0.0295021 0.805192
-0.045371 -0.0679363 0.791753
-0.0147143 0.0212309 0.852099
-0.0358149 -0.0715281 0.824359
-0.00880619 0.0895961 0.0888635
-0.0106526 -0.0932156 0.408031
0.0602935 -0.079581 0.554807
0.0299487 0.0210144 0.790009
0.0535526 -0.0882916 0.493471
0.151666 -0.0468611 0.495001
-0.0164844 -0.0407985 0.158046
0.04128 -0.0547124 0.819227
0 -0.00280459 0.176012
0 -0.0218908 0.152099
0.0585425 -0.0535677 0.657592
0.158419 -0.0463855 0.0673403
-0.151192 -0.0466375 0.502252
0.0138347 -0.102368 0.537042
0.0622809 -0.0390598 0.705085
0.0987993 -0.0436738 0.565475
0.0100882 -0.0366968 0.124907
-0.0211472 -0.0620223 0.230562
-0.120514 -0.0418832 0.6274
-0.0280114 -0.101023 0.446176
-0.0417688 -0.0395745 0.86241
0 -0.0199757 0.119278
0.0134237 -0.0823021 0.374264
0.140595 -0.0443885 0.563194
-0.0399557 -0.034322 0.37643
0 -0.000864156 0.20846
0.158847 -0.0437688 0.589397
-0.0111583 0.0288699 0.741983
-0.0404471 -0.041045 0.359809
0.0439208 -0.0310475 0.440299
0.3633 -0.0528159 0.400324
0.269162 -0.0505086 0.42873
-0.181734 -0.0476841 0.482013
-0.0425094 -0.107044 0.565976
-0.0620002 -0.0438381 0.545043
0.12035 -0.0459449 0.508758
-0.129525 -0.0452171 0.534084
0.394933 -0.0520093 0.450006
-0.0406147 -0.0876768 0.419869
-0.0406706 -0.02134 0.738592
0.00901943 0.0917938 0.0719966
0.430827 -0.0543301 0.385222
-0.00840058 0.0833034 0.132007
0.0619673 -0.0463855 0.152503
0.11151 -0.0453764 0.521426
-0.0880005 -0.0471596 0.442537
-0.0291093 -0.0463855 0.145135
0.0553772 -0.0918703 0.606706
0.255279 -0.0482703 0.500863
0.0871438 -0.046062 0.484824
-0.0412949 -0.0546666 0.818031
-0.156752 -0.0443827 0.570546
-0.0335088 -0.0557041 0.304483
-0.0632115 -0.0463855 0.181872
0.0104027 -0.0786735 0.299928
0.053175 -0.0404657 0.645726
-0.0346786 -0.0299191 0.337035
0.143508 -0.0428341 0.609864
-0.0526929 -0.0952732 0.579311
0.141736 -0.0437867 0.581267
0.170616 -0.0476268 0.477096
-0.0492948 -0.0463855 0.177976
-0.027591 -0.0963712 0.791753
0.0081309 0.0829085 0.0491928
0 -0.0139561 0.136708
-0.0825539 -0.0452842 0.511242
-0.0323867 -0.068372 0.905682
0.0457159 -0.0441327 0.404269
0 0.0496655 0.0530268
-0.118428 -0.0469706 0.469249
-0.0462851 -0.031524 0.700168
-0.239998 -0.0489875 0.468307
-0.31232 -0.0492627 0.497253
-0.282258 -0.0503196 0.44387
-0.0790282 -0.0413131 0.629144
0.227109 -0.0458 0.56045
0.0165116 -0.0964771 0.431132
-0.0118226 -0.0829538 0.349948
-0.0417474 -0.0153145 0.566043
-0.0152322 0.0259217 0.823636
0.0331321 -0.0130345 0.820982
0.0225306 -0.0338512 0.96259
-0.209907 -0.047967 0.489055
-0.0134438 -0.0947981 0.804905
-0.051689 -0.080411 0.457125
-0.0410285 -0.0127961 0.601324
-0.0506509 -0.0923352 0.494313
-0.0159761 -0.102368 0.675312
-0.106335 -0.045905 0.503383
0.0275051 0.0168601 0.818166
-0.0249502 -0.0144478 0.39496
0.197234 -0.045917 0.543755
0 0.0272169 0.0367709
0.304874 -0.0508193 0.439092
-0.0757287 -0.0398215 0.679717
-0.364514 -0.0524937 0.413135
0.104973 -0.0462403 0.48931
-0.0133494 -0.0573405 0.160786
-0.000778257 -0.0631141 0.145275
0.0854512 -0.0402546 0.667661
0.14264 -0.0453245 0.53678
-0.00595953 -0.0662633 0.173459
0.0352956 -0.0175192 0.799957
0.0366897 -0.0463855 0.190537
-0.132965 -0.0463855 0.0893784
0.403685 -0.0533682 0.404516
0.0286873 -0.0565034 0.256655
-0.00864246 -0.0185219 0.252279
0.0406842 -0.0113446 0.643536
0.0843621 -0.0445565 0.533288
-0.0486117 -0.0529132 0.484268
0 0.0347752 0.168148
-0.239961 -0.0477082 0.510461
-0.0327898 -0.0280046 0.921929
0 -0.0293851 0.0889556
-0.0283459 -0.0519215 0.242429
-0.00912905 0.09289 0.0711301
0.297347 -0.0480082 0.527218
0 -0.0191644 0.196892
0.00473447 0.102706 0.105459
0.0143257 -0.00336411 0.527864
-0.0308294 0.0198047 0.679333
-0.285362 -0.0509051 0.423861
-0.251547 -0.0471684 0.53137
0.00503997 -0.102303 0.511089
-0.0378322 -0.0237834 0.388614
-0.0465349 -0.0437659 0.76578
0.0675929 -0.0413099 0.625025
0.0421882 -0.0229321 0.717897
-0.020843 -0.0168548 0.340414
0.0454279 -0.0261516 0.661438
-0.0111956 -0.0125687 0.9227
0 0.0538176 0.0836357
-0.0113777 0.028754 0.761015
-0.0413948 -0.0384186 0.877605
-0.0473839 -0.0530327 0.45731
-0.316834 -0.0509555 0.441359
-0.0228394 -0.102357 0.482775
-0.0176791 -0.0179649 0.308337
0.0685288 -0.0398531 0.670269
0.0389683 -0.00960854 0.612507
-0.0106693 -0.0334772 0.150016
-0.0909219 -0.0423652 0.601106
-0.0653683 -0.0660036 0.614696
-0.0298583 -0.0660924 0.366414
0.0247317 -0.0749321 0.908603
0 0.015995 0.191152
0.0590628 -0.0597733 0.750421
-0.048178 -0.0349329 0.68496
0.312416 -0.0489664 0.505945
0.41494 -0.0529655 0.426528
0.0372424 -0.101865 0.782853
0.00752679 -0.0407935 0.0923522
0.236771 -0.0476037 0.512093
-0.00482323 0.0648293 0.117504
-0.0616878 -0.0694332 0.51135
0.00450303 -0.102368 0.574968
0.181624 -0.0480275 0.468427
-0.0292102 -0.00388653 0.632014
-0.0356233 -0.0682973 0.870687
0.0701905 -0.0463855 0.120814
-0.0238752 0.0156586 0.626357
-0.0228152 -0.0481381 0.192976
0.0398443 -0.109352 0.574528
0.219858 -0.0474755 0.508317
0 0.0366401 0.0664754
-0.0281237 -0.102164 0.748038
0.0353617 0.0135388 0.710095
0.0586942 -0.0823045 0.532542
-0.0197819 0.00273741 0.60123
0.108176 -0.0447641 0.537815
-0.117575 -0.0431862 0.588055
0.0462563 -0.0942692 0.747118
-0.0499946 -0.040704 0.618808
0.0147749 -0.0755256 0.358316
0.0133942 0.0238675 0.654596
-0.294286 -0.0496734 0.476338
0.0248515 -0.0142147 0.902057
-0.0956088 -0.044381 0.543413
-0.420511 -0.0526963 0.440036
-0.0391634 -0.0588645 0.881376
0.0433596 -0.0444531 0.889956
-0.233705 -0.050065 0.423501
0.0327958 -0.014478 0.861786
0.0331027 -0.0566309 0.303462
0.0602251 -0.0463855 0.0915516
0.0490501 -0.0784162 0.431321
-0.0256189 -0.105183 0.592931
0.087236 -0.0463855 0.120304
-0.0410081 -0.0274764 0.764945
-0.00579352 -0.102368 0.555557
-0.0297276 -0.00778099 0.573464
0.0601116 -0.0551978 0.677694
-0.0455776 -0.0271125 0.60531
-0.0157056 0.00528796 0.858826
-0.0630114 -0.039151 0.701046
-0.0407198 -0.0116875 0.620265
0.270638 -0.049395 0.472037
-0.0450881 -0.0257363 0.577351
-0.0204899 -0.103673 0.534355
0.023048 -0.0221201 0.281508
-0.0176694 0.0205648 0.64415
-0.174791 -0.0454085 0.548622
-0.0333872 0.0104834 0.664467
-0.0495269 -0.0394534 0.569439
-0.0224665 -0.0837963 0.419869
-0.0451135 -0.0991447 0.717355
-0.0496679 -0.0395759 0.649993
-0.0407014 -0.0579871 0.80205
0.130884 -0.0463855 0.0904719
-0.147061 -0.0484027 0.432372
-0.146985 -0.0437346 0.585122
-0.0330155 -0.0463855 0.13247
-0.157142 -0.0478195 0.460819
-0.0779198 -0.0463855 0.119344
-0.0468079 -0.0344704 0.480714
-0.40273 -0.052294 0.444148
0.184353 -0.0487467 0.44246
-0.00539374 -0.0784396 0.256577
-0.00348585 0.0626486 0.0434799
0.0410678 -0.0370358 0.380109
-0.0398884 -0.0445929 0.911227
-0.00652195 -0.0366441 0.114446
0 0.0364531 0.104804
-0.00480533 -0.0853314 0.919444
-0.168433 -0.048398 0.445712
0 -0.0175557 0.0514292
-0.217264 -0.0466255 0.531976
0.0392492 -0.0187598 0.747187
-0.0507629 -0.0427311 0.598741
0.0720626 -0.0463855 0.161761
0.0276062 -0.105972 0.542822
-0.0546375 -0.0523188 0.567024
-0.0362454 -0.0290572 0.904226
0.0467114 -0.0319029 0.50295
-0.0188918 -0.0102939 0.417416
0.0364918 -0.0233391 0.831347
-0.335425 -0.0510091 0.450802
-0.368957 -0.0519844 0.434939
0.0360041 -0.0674059 0.870442
0.020414 -0.0738383 0.930821
0.0375193 -0.0104605 0.731126
0.0295918 -0.0796618 0.838356
0.00946186 -0.00599539 0.425721
-0.339903 -0.0494302 0.504625
-0.136127 -0.0463855 0.103775
0.0251191 0.00697329 0.830533
-0.177142 -0.0463113 0.523312
0.0252551 -0.0999486 0.444816
0.340472 -0.0517992 0.42433
-0.0801249 -0.0417645 0.615636
0.0428247 -0.106193 0.675093
-0.0327229 -0.0411031 0.280656
-0.227481 -0.0485241 0.47847
-0.0444952 -0.0953617 0.757557
-0.104688 -0.0449234 0.531615
0.163652 -0.0468092 0.502781
-0.00589075 -0.0688158 0.188143
-0.330304 -0.0503989 0.471025
-0.00698429 -0.0210899 0.22862
-0.243573 -0.0495627 0.448384
0 -0.00499288 0.0444871
0 0.00589996 0.0670659
0.0252504 -0.0112061 0.874169
0.057449 -0.0463155 0.45569
-0.0270153 -0.0126572 0.888088
-0.0145819 -0.0187467 0.280025
-0.260387 -0.0498248 0.448928
-0.262657 -0.0505947 0.421498
0.0293988 0.00290447 0.637811
0.000840912 0.0332391 0.768089
-0.00203075 -0.102368 0.616662
0.000924725 0.10841 0.0183934
0.169406 -0.0453577 0.547709
-0.157249 -0.0472295 0.484106
0.0349209 -0.0575516 0.325775
-0.0132984 -0.102368 0.66083
0 0.014887 0.0956191
-0.259372 -0.0491471 0.474525
-0.0452286 -0.0255748 0.666582
-0.231756 -0.0492558 0.452595
0.0492064 -0.0416514 0.726069
-0.0412787 -0.0558207 0.384978
-0.117157 -0.0463855 0.0890447
-0.340374 -0.0520754 0.413928
-0.079007 -0.0467102 0.454063
0.212327 -0.0455769 0.560393
-0.0639031 -0.0412434 0.625712
0.0252088 -0.101221 0.75078
-0.121054 -0.0459754 0.508181
0.361261 -0.051365 0.453388
0.0169432 0.0265299 0.783455
-0.0360513 -0.0428904 0.92945
-0.0534145 -0.0455659 0.692831
-0.0287898 -0.0516142 0.953158
-0.00994307 0.0294019 0.686871
-0.00252353 -0.0848402 0.322183
0.238925 -0.0502686 0.419093
-0.00512835 -0.00670724 0.390285
0.00893076 0.089052 0.128632
0.00554105 -0.102076 0.688898
0.00820706 -0.090505 0.889058
0.0310231 -0.0380114 0.27462
-0.0453225 -0.0449506 0.787438
0 -0.0106292 0.237078
0.0147127 -0.0984588 0.464368
-0.0248728 -0.0478394 0.206616
-0.0485421 -0.0886013 0.775855
-0.0195428 -0.00923415 0.44613
-0.150458 -0.0432796 0.599948
0.0354744 -0.0147382 0.783086
0.020606 -0.0243016 0.24675
0.0625068 -0.0697628 0.518378
0.0112145 -0.0923146 0.852865
-0.065565 -0.0455922 0.489389
-0.00934142 -0.0424996 0.102329
0.368944 -0.0504351 0.488202
0.0265467 -0.0511004 0.226883
0.231863 -0.0484487 0.484265
0.0806561 -0.0416806 0.618419
0.0411068 -0.0375071 0.860948
0.0655738 -0.0642261 0.651593
-0.019345 -0.0682577 0.271447
-0.0139869 -0.100213 0.721507
-0.0244422 -0.077332 0.8964
0.00312783 0.0322602 0.735386
0.153441 -0.0447454 0.558487
0.0289401 -0.0432148 0.240972
-0.0334809 -0.10505 0.476441
-0.0474287 -0.0463855 0.153663
-0.100097 -0.0434288 0.573205
-0.315433 -0.0484563 0.522178
-0.357021 -0.0511849 0.457519
0.0353068 -0.0730914 0.818446
-0.0741426 -0.0463855 0.0902518
-0.144701 -0.0468755 0.489941
-0.0319348 0.0201548 0.697697
0.018692 -0.0373018 0.182176
-0.0573572 -0.0691579 0.766686
0.326403 -0.050887 0.449816
0.029093 -0.0227063 0.307201
-0.132344 -0.0478749 0.443068
0 0.00144241 0.116415
0 -0.0145903 0.210203
0.0327433 -0.0463855 0.146556
-0.0634348 -0.0693089 0.678541
0.206534 -0.0450165 0.574175
0.0488266 -0.0898547 0.470026
-0.109666 -0.047059 0.460119
-0.0399936 -0.0180634 0.444446
0 0.019575 0.158568
0.214589 -0.0467773 0.526355
-0.00480021 -0.0265439 0.182439
-0.20558 -0.047308 0.506859
0.00150434 -0.102368 0.635938
-0.279237 -0.0487336 0.497991
0.0340093 -0.105513 0.722636
-0.04148 -0.107831 0.670706
0.0893193 -0.0463855 0.146661
-0.0422765 -0.104483 0.702247
-0.0561647 -0.0806647 0.721148
-0.0169889 -0.0719713 0.35639
0.402301 -0.0516094 0.468751
0.0558035 -0.0505052 0.7091
0 -0.0063952 0.0729863
0.0442325 -0.0387155 0.767652
0.0348119 0.001496 0.741824
0.0465998 -0.0587459 0.460841
0.0332639 0.01957 0.693852
0.0132578 -0.0937464 0.824229
-0.305472 -0.0496059 0.484189
0.109163 -0.0434482 0.576668
0.0197211 -0.0919026 0.798044
-0.217487 -0.0495451 0.432976
0.02004 -0.0297227 0.209778
-0.0166965 -0.099276 0.741162
0.0492345 -0.0385841 0.535397
0.0266293 -0.0792364 0.870036
0.0196831 -0.103513 0.515523
0.00842544 -0.102368 0.5962
-0.155189 -0.0461819 0.51733
0.00432368 -0.0733094 0.219191
-0.0300452 -0.0778501 0.854219
-0.0529464 -0.093435 0.677002
0.0447467 -0.0432595 0.787402
0.103771 -0.0463855 0.131207
0.299091 -0.0492704 0.491146
0.0607443 -0.0435821 0.552471
-0.0578497 -0.0867568 0.631066
-0.0477306 -0.0340173 0.542978
0.187232 -0.0454062 0.554217
-0.267751 -0.0475694 0.526868
-0.0263579 -0.104757 0.696084
-0.0352253 0.00408483 0.72818
0.00998968 -0.000631171 0.549842
-0.013562 -0.0852588 0.896926
0 0.00829761 0.200057
-0.0115671 -0.00224635 0.527937
-0.397498 -0.0518853 0.456226
-0.0588438 -0.0598269 0.556087
0.0482638 -0.0354376 0.555048
0.01608 -0.0995965 0.732735
0.055674 -0.074342 0.763596
0.0162738 -0.0457365 0.978068
-0.32691 -0.0518473 0.414175
0 -0.0357002 0.0549114
0.374838 -0.0514586 0.458245
-0.0349629 -0.044182 0.29349
0.000679417 -0.0161605 0.948343
0.0140032 -0.00524567 0.48447
0.116216 -0.0463855 0.113868
0.00441475 -0.0102136 0.337699
-0.000459238 -0.0440589 0.987269
0.00913165 -0.0133554 0.321074
0.00870043 0.0280145 0.828665
0 0.000332981 0.0930331
-0.213232 -0.0483477 0.476218
0.0631579 -0.0458583 0.477365
0.0292163 -0.106215 0.634124
0.0571157 -0.0540406 0.729989
-0.0268824 -0.00929426 0.831173
0.203186 -0.0485347 0.462378
0 -0.0161942 0.186026
-0.378228 -0.0528797 0.407128
0.049255 -0.0472389 0.447821
0.0366588 -0.0646908 0.883419
-0.0603372 -0.0790531 0.554258
0.00482268 0.0680154 0.0172769
-0.0363083 -0.081655 0.791753
0.256758 -0.0478885 0.512667
0.0266957 -0.0463855 0.0926122
0.27207 -0.0471283 0.541666
-0.0354644 -0.0102809 0.761801
-0.167837 -0.0471839 0.49273
-0.121731 -0.0442221 0.559665
0.0471001 -0.100522 0.528737
0.0534329 -0.0935165 0.645919
-0.0267798 -0.0684972 0.403708
0.019973 0.0128829 0.846887
0.0167432 -0.0128323 0.370681
-0.0991113 -0.0463855 0.133487
0.00609419 0.0719693 0.00378338
-0.0435785 -0.104462 0.517551
-0.0292134 -0.0690164 0.920541
0.0200175 -0.0652145 0.962994
-0.0587528 -0.0852783 0.573316
0.109874 -0.041195 0.645247
-0.0447287 -0.0242188 0.635708
-0.291132 -0.0501505 0.455669
0.0419177 -0.0527503 0.851345
0.0334346 -0.0629754 0.911395
0.0947698 -0.0411976 0.638511
0.325461 -0.0495803 0.493824
-0.0214926 -0.0153465 0.364104
0.0541041 -0.0492967 0.590284
0.0418422 -0.0902873 0.429589
-0.0296337 -0.000239527 0.818097
-0.0755017 -0.044728 0.524344
-0.0320695 -0.0145968 0.871491
0.0436178 -0.0234383 0.493482
0 0.039959 0.0797201
0 -0.0274059 0.126101
-0.0526625 -0.0463855 0.16678
-0.035265 -0.0553975 0.321842
-0.0233454 -0.0191172 0.923287
0.39159 -0.0530396 0.409373
0 0.0366507 0.0524278
-0.0571111 -0.0828614 0.699817
0 -0.0297319 0.0299631
-0.0417685 -0.0342458 0.395257
0.0635841 -0.0394389 0.686322
-0.0767222 -0.0436536 0.55625
0.150014 -0.0463095 0.511304
-0.0593356 -0.063845 0.528506
0 -0.0171603 0.0707016
0.263172 -0.0495247 0.462115
0.0361289 -0.0104828 0.569943
0.0960098 -0.0416325 0.625564
-0.0302182 -0.0123982 0.472249
-0.0210589 -0.103838 0.563547
0.0504298 -0.0463447 0.470944
-0.00159688 0.0246911 0.854482
0.42715 -0.0531587 0.424
0.137643 -0.0463855 0.106536
0.0427926 -0.0427049 0.87719
-0.236115 -0.0471739 0.524349
0.0261634 -0.105365 0.576864
0.357521 -0.0505234 0.480545
-0.0137817 -0.0949114 0.420366
0.0372895 -0.108681 0.652191
0.0317388 -0.0653083 0.356859
-0.266877 -0.0480722 0.511801
0.0163677 0.00610042 0.857277
0.0161005 -0.0025423 0.564509
-0.146481 -0.0444198 0.564895
0.0708042 -0.0409459 0.637428
-0.0578911 -0.046214 0.45997
-0.0545019 -0.0512987 0.739647
0.0864603 -0.04662 0.462424
0.357765 -0.0524173 0.411836
0.17275 -0.0435523 0.601899
0.0845345 -0.0425495 0.593071
-0.0850382 -0.0428481 0.584051
0.0622133 -0.0611884 0.591336
-0.0117257 -0.0398163 0.976959
-0.30798 -0.0504655 0.454252
-0.031355 -0.0514771 0.267073
-0.0322296 0.0200967 0.715645
-0.0341375 -0.0111519 0.786585
0.0432224 -0.103294 0.701612
-0.048395 -0.0355083 0.673796
0.239914 -0.0470063 0.530931
-0.0360306 -0.0463855 0.105311
0.0216189 -0.0890282 0.814348
-0.0552188 -0.059583 0.782988
0.10852 -0.0419665 0.619883
-0.0324781 0.0143967 0.755559
-0.152364 -0.0463855 0.0922446
0.190223 -0.0440596 0.594859
0.00759535 -0.0746111 0.962879
-0.108798 -0.0463855 0.110828
-0.0297009 -0.0356699 0.946199
-0.0355852 -0.0422917 0.305959
0.0505337 -0.0495852 0.763236
0.0206035 -0.0658723 0.25033
-0.012555 -0.0763202 0.323964
0.00907485 -0.102368 0.666215
-0.0273155 -0.0356826 0.247618
-0.0156074 -0.0915901 0.836444
0.0843363 -0.0405333 0.655136
-0.191048 -0.046311 0.529504
0.124428 -0.0422801 0.617553
0.129708 -0.0458005 0.517134
0.110235 -0.0471056 0.45865
0.0509308 -0.0811937 0.453556
0.0156343 -0.0603821 0.19108
0.21975 -0.0483359 0.480889
0.00267028 -0.0038158 0.415405
-0.0312408 -0.0590603 0.932105
0.159363 -0.0456623 0.534353
-0.0396767 -0.0206749 0.417534
0.141458 -0.0423802 0.622203
0.00487779 0.03153 0.708892
-0.0235059 -0.0992605 0.771141
0.193231 -0.0470088 0.510104
0.0438256 -0.0463855 0.134513
0.021028 -0.0218881 0.937325
-0.244215 -0.0466669 0.542749
-0.00239751 0.0325706 0.789447
-0.161603 -0.0454771 0.540756
0.0043062 -0.0152305 0.26872
0.00689156 -0.100384 0.489029
0.00956248 0.0972243 0.0850039
0.0465093 -0.0463855 0.162464
-0.0408436 -0.0959193 0.452971
-0.0720504 -0.0463855 0.151717
0.00746298 -9.22866e-05 0.537668
-0.00297465 -0.0994732 0.478549
0.0430819 -0.029529 0.741966
-0.268354 -0.0470558 0.54213
-0.0624652 -0.0731225 0.652468
-0.178822 -0.0479781 0.468563
-0.00600834 0.0679648 0.15327
0.00855202 -0.0159115 0.938329
0.245924 -0.0464182 0.550771
0.0120519 0.0141881 0.600936
0.0434923 -0.0463855 0.106448
-0.001598 -0.0551949 0.0878603
-0.0511281 -0.0441306 0.550794
0.217611 -0.0495304 0.433604
-0.0695352 -0.0429279 0.575874
-0.0533495 -0.04896 0.579136
0.000958543 -0.0608379 0.128772
0.144161 -0.047993 0.445924
0.172128 -0.0459828 0.530671
0.0331781 0.0140288 0.743386
0.0760025 -0.0463855 0.149864
0.0113918 -0.0792541 0.937626
-0.0405732 -0.0320475 0.793952
0.0165905 -0.0546315 0.164455
-0.0273233 -0.0104219 0.490062
-0.0710208 -0.0403025 0.657338
-0.418458 -0.0539356 0.392372
-0.0906526 -0.0419654 0.613327
0.0458037 -0.103082 0.56589
0.00867657 -0.0943123 0.81291
-0.12151 -0.0463855 0.125784
0.0498741 -0.0950168 0.502981
-0.0179324 -0.0627004 0.21718
0.251004 -0.0487516 0.48469
0 -0.00528554 0.14549
0.118578 -0.0474934 0.448872
0.0127731 -0.0913923 0.416075
0.0941039 -0.0453004 0.515906
0.256418 -0.0502034 0.432308
0.282541 -0.0510918 0.415132
-0.0337845 -0.00443047 0.77537
0.0362027 -0.0406189 0.924401
0.0456012 -0.0274436 0.527716
-0.0468129 -0.0351578 0.711711
-0.0571729 -0.0899348 0.59034
0.0422917 -0.0515996 0.833481
0.0407763 -0.05888 0.801112
0.0175815 -0.10286 0.561283
-0.240667 -0.0486923 0.480356
-0.0217205 -0.104086 0.640034
-0.0570174 -0.0463855 0.10565
0 -0.0175698 0.161498
0.319081 -0.0513937 0.426338
-0.0102552 -0.0028474 0.505102
-0.336038 -0.0516851 0.425868
0 -0.0393401 0.0643035
0.0639306 -0.0448672 0.515137
-0.0201424 -0.0049326 0.546828
0.041975 -0.0199655 0.481823
0.249785 -0.0493395 0.460769
-0.0233396 0.0046756 0.838364
0.243053 -0.049799 0.439218
0.360394 -0.0516799 0.441065
-0.0221073 -0.0122189 0.899326
-0.0213501 -0.104003 0.515782
0.13188 -0.0467359 0.487163
0.31978 -0.051956 0.405715
-0.0342844 0.00302029 0.748129
-0.0403218 -0.0163935 0.718529
-0.200294 -0.0489965 0.442926
0.159217 -0.0474875 0.475221
0.0483494 -0.0385811 0.703225
0.0178108 -0.0702507 0.303521
0 0.00484226 0.183732
0.108452 -0.0466058 0.477168
0.049158 -0.0380044 0.633643
-0.0196786 -0.068418 0.296932
0 0.0076496 0.0506672
0.113086 -0.0463855 0.138541
0.0429233 -0.0184284 0.621344
-0.00808978 0.0824973 0.0384773
0.0509319 -0.092044 0.715726
0.347273 -0.0513293 0.44611
0.0570403 -0.0893809 0.621794
0.173609 -0.048172 0.457569
0.0207778 -0.0278673 0.221421
0.0575479 -0.085438 0.678446
0.0517206 -0.0473065 0.515881
0.193773 -0.0462523 0.532428
-0.176545 -0.048866 0.433185
-0.0194203 -0.103362 0.580878
-0.0648458 -0.0633285 0.644762
0.0781138 -0.0467678 0.451221
0.0474264 -0.0424834 0.435607
-0.000827975 -0.00961197 0.32604
0 0.00460295 0.135265
0.0306706 -0.0682952 0.411368
0 0.0375905 0.156758
-0.184266 -0.0449424 0.566439
0.00858377 0.0988361 0.0225139
-0.317548 -0.0514954 0.421582
-0.343192 -0.0502273 0.482819
-0.0552677 -0.0494789 0.63111
0.0329708 -0.0525866 0.287922
0 0.01887 0.139769
-0.00515935 0.0655015 0.0599688
-0.288062 -0.0478273 0.52837
-0.0079937 0.0777673 0.144105
-0.0885408 -0.0405088 0.6576
-0.0303077 0.0155829 0.651843
0.013542 -0.0995554 0.479495
0.0575688 -0.0455074 0.487569
0.00981354 -0.0917043 0.865071
-0.0059506 0.102128 0.0648427
-0.0410498 -0.0554209 0.855284
-0.0628617 -0.0424484 0.588192
-0.0187169 -0.0273803 0.218686
-0.0194056 -0.0544549 0.970397
0.380889 -0.052198 0.434292
-0.39171 -0.052933 0.413435
0 0.0299213 0.139445
0.0564313 -0.0701716 0.777323
0.0691427 -0.0444001 0.531089
0.27414 -0.0480776 0.514873
-0.0221424 -0.00659989 0.526324
-0.0373653 -0.0219235 0.789196
0.046671 -0.100445 0.689919
-0.00823037 0.00741735 0.570721
-0.0369032 -0.0463855 0.180028
0.0276681 -0.0463855 0.175224
-0.0706415 -0.0394745 0.692457
-0.0467184 -0.0396803 0.441545
0.428845 -0.0539938 0.39659
-0.046976 -0.0950301 0.732202
-0.0320874 0.0110249 0.771465
-0.0478762 -0.0339759 0.659248
-0.22379 -0.0457172 0.561394
-0.419695 -0.0523502 0.451363
0.0136643 -0.0392942 0.141577
-0.340589 -0.0514058 0.439132
0.031851 0.006444 0.787337
0.411759 -0.0526203 0.437493
0.0375037 -0.0660822 0.388932
0.0349492 -0.00385917 0.751909
-0.176661 -0.0467353 0.510721
-0.00827032 0.0836282 0.099069
-0.0324563 -0.0134785 0.845023
-0.0446516 -0.0568325 0.425521
0.0129903 -0.0669267 0.215387
-0.0368849 -0.0245631 0.847622
-0.00218755 0.100253 0.134452
0.147602 -0.0463855 0.116926
0.0590493 -0.041476 0.616754
-0.380304 -0.05153 0.458942
-0.228852 -0.048249 0.489737
0.0276008 -0.0614335 0.269737
-0.356119 -0.0508441 0.47016
-0.00737314 -0.0752621 0.23418
-0.375165 -0.0531304 0.395856
-0.167156 -0.0446946 0.566065
0.411417 -0.0532748 0.412778
-0.0439466 -0.0456952 0.380699
0.00285616 -0.00858631 0.351245
0 -0.00581592 0.113641
0.0377863 -0.0123476 0.542805
0.0185242 0.0258711 0.798273
-0.0846445 -0.0463855 0.0961664
-0.302118 -0.051521 0.411123
-0.0992446 -0.0473658 0.441743
-0.0438662 -0.0603282 0.436207
-0.00120637 -0.00645113 0.919108
-0.0504032 -0.0972012 0.631967
0 0.0151428 0.179085
-0.11308 -0.0464748 0.48531
-0.029046 -0.00668822 0.593213
0.199731 -0.0482068 0.473053
-0.0286871 -0.0704037 0.419869
0.0693278 -0.0463855 0.109631
0 0.0538448 0.133373
0.0534587 -0.0390535 0.695373
0.0264334 -0.0983056 0.791753
-0.0622652 -0.0709958 0.689559
0.00451409 -0.00576539 0.399046
0.101624 -0.0463855 0.105945
0.035921 -0.00957576 0.588079
0.117619 -0.0463855 0.0875995
0.018461 0.0257436 0.746604
0.0054665 0.0661158 0.113303
0.143034 -0.0447993 0.552287
0.00986267 -0.00295983 0.873122
-0.00820073 -0.00323689 0.47759
-0.059526 -0.0404177 0.649548
-0.00610951 -0.0967365 0.447078
0.00929466 0.0938819 0.112939
0.0303434 -0.0165907 0.395183
0.0400338 -0.0331483 0.80728
-0.0518406 -0.093278 0.696271
-0.300917 -0.0489034 0.502671
0.0157519 -0.00517898 0.502246
0.0180894 -0.102976 0.614172
0.0193324 -0.0174276 0.322833
0.0690047 -0.0463855 0.0983809
0.0546024 -0.0809831 0.481315
-0.0446847 -0.0344894 0.735941
-0.144019 -0.0476287 0.459861
0.0511219 -0.0456768 0.498307
0.18506 -0.047636 0.486052
0.271947 -0.0475177 0.530243
0.128928 -0.0470466 0.473031
0.0234124 -0.104531 0.657905
0.0996753 -0.0431819 0.580223
0.042214 -0.0593251 0.407136
0.224824 -0.0461628 0.548846
-0.0616068 -0.0740256 0.533906
0.010148 -0.097141 0.767417
0.127013 -0.0427053 0.60629
0.050894 -0.0852064 0.779201
-0.127622 -0.0463855 0.137189
0.270032 -0.0498618 0.453481
0.00111198 -0.0834557 0.307992
-0.00617399 0.101848 0.0313921
0.0300971 -0.0136676 0.442238
-0.00373985 -0.091104 0.386388
-0.123093 -0.0463855 0.0968371
-0.0668849 -0.0463855 0.168531
0.00292095 -0.100924 0.706945
0.0113167 -0.080348 0.325795
0.0306294 -0.10305 0.463623
0.0384479 -0.00417837 0.682131
0.0228518 -0.0111539 0.432473
-0.0794554 -0.0408106 0.64479
0.0592318 -0.0564302 0.603011
0.0384822 -0.0531872 0.905884
0.15907 -0.0481874 0.447828
0.162608 -0.0441056 0.581239
-0.110917 -0.0441199 0.557841
-0.0102213 -0.0916675 0.865807
0.270031 -0.0502311 0.439653
-0.387205 -0.0522669 0.435602
0.00436981 0.0314976 0.682031
-0.0608009 -0.0725782 0.700423
0.351014 -0.0510944 0.457209
-0.00102065 -0.0584472 0.985941
0.0488723 -0.0373039 0.571411
-0.0533235 -0.0450922 0.67454
-0.0468563 -0.0463855 0.097145
-0.146991 -0.0457027 0.527674
0.0272271 -0.00328542 0.827455
0.022827 -0.0547139 0.209864
0.106076 -0.0463855 0.0828522
-0.0226746 -0.0985572 0.434386
0.0385912 -0.041828 0.339154
0.00238627 -0.102368 0.56277
-0.0824252 -0.0455882 0.500425
-0.181666 -0.0458024 0.540179
0.0261668 0.021426 0.676003
-0.0425522 -0.0175316 0.611007
0.0431964 -0.0206028 0.693467
0.281255 -0.0507723 0.426305
0.000753051 0.0566889 0.110459
0.0479868 -0.0341788 0.674663
0.0290453 0.0213018 0.765233
0.112771 -0.0461582 0.497572
-0.0575233 -0.088163 0.619509
-0.0563856 -0.0888535 0.534865
-0.0416865 -0.0590906 0.400889
0 0.0204994 0.169219
-0.0371153 -0.0307614 0.358787
-0.000400696 0.0334192 0.810104
-0.133847 -0.0463855 0.119163
0.211101 -0.0470993 0.515407
-0.0171942 -0.0130257 0.912146
0.023515 -0.00478097 0.584253
0.029128 -0.017952 0.37008
0.0208806 -0.103786 0.62672
0.00293232 -0.0935553 0.828051
0.102065 -0.0441602 0.552727
0.0558774 -0.0492278 0.6671
-0.055823 -0.0447011 0.51638
-0.0486163 -0.0979989 0.510565
0.291985 -0.0504531 0.444864
-0.0616989 -0.0646627 0.724628
-0.0417997 -0.106931 0.529786
0.0632589 -0.0728589 0.589208
-0.0989344 -0.0463855 0.0953867
0.0369056 -0.108674 0.547464
-0.0622523 -0.0752674 0.574926
-0.00995147 -0.0147932 0.933112
-0.00649755 0.0197303 0.612509
0.0222637 -0.0672291 0.361478
0.321335 -0.0488602 0.513009
-0.0185956 -0.0194388 0.29357
0.348783 -0.049696 0.500814
0.302912 -0.0505066 0.44959
0.0458254 -0.0910038 0.457436
-0.0422814 -0.0277882 0.746968
0.0133276 -0.102368 0.65449
-0.0580077 -0.0786661 0.501104
0.0043765 -0.102368 0.646229
-0.179446 -0.0486313 0.443759
-0.111744 -0.0419588 0.62131
0.0161437 -0.102414 0.574717
-0.0298803 -0.0134778 0.445415
-0.029437 -0.100191 0.781973
-0.043252 -0.0202773 0.5252
-0.0177192 -0.0733806 0.397488
0.315546 -0.050149 0.471337
0.0780525 -0.0463855 0.16962
-0.0426461 -0.0185965 0.510513
0 -0.0224686 0.143036
0.171052 -0.0473407 0.488634
-0.00584762 -0.00111471 0.881242
-0.0834986 -0.0463855 0.130241
0.157537 -0.0463855 0.0815814
-0.00808383 -0.0534432 0.109328
0.0499888 -0.0694809 0.436959
0.013007 0.0281238 0.71479
-0.033437 -0.000277977 0.656824
-0.0295856 -0.10261 0.460081
-0.322732 -0.0494881 0.4953
0.0238854 -0.0653895 0.335096
-0.0449646 -0.0318419 0.461752
-0.0209572 -0.0825334 0.877387
0.00763861 -0.0609732 0.151336
-0.0815254 -0.0463855 0.161792
-0.0204406 0.00424523 0.848532
-0.164726 -0.043541 0.598662
0.291516 -0.0510902 0.42072
-0.0591464 -0.0545501 0.651928
-0.0285458 -0.00578613 0.610142
-0.00360388 -0.000824898 0.489911
-0.0373816 0.00502085 0.692056
0.00233145 -0.0269118 0.967768
0.121542 -0.0430983 0.592387
-0.135337 -0.0422427 0.623496
-0.0166727 -0.00239742 0.573756
-0.124515 -0.042864 0.600546
0.100409 -0.0470392 0.454923
0.110309 -0.0439877 0.561428
0.213168 -0.0489998 0.450731
0.00532896 -0.00214981 0.895571
0.0339266 -0.0349621 0.314801
-0.0497225 -0.0523718 0.501761
-0.00549225 0.0689411 0.0225607
-0.0166404 -0.0985002 0.456464
-0.361484 -0.0516662 0.44225
0.240186 -0.0487907 0.476172
0 -0.0161769 0.222605
0.00993552 -0.00223926 0.515227
-0.0240646 -0.0642426 0.288461
0.118225 -0.0450086 0.535146
-0.051977 -0.0901832 0.721084
0.00785601 -0.00859616 0.379001
-0.0679376 -0.0463855 0.117037
-0.17049 -0.0439783 0.588459
0.0542344 -0.0607871 0.50007
-0.131419 -0.0441302 0.566655
0.0366795 -0.0205611 0.387998
-0.0426519 -0.0597076 0.412997
-0.0646167 -0.0676169 0.632393
0.0340925 -0.0463855 0.130979
-0.00445749 0.0306252 0.676334
-0.0381071 -0.103931 0.750141
0.294126 -0.0500557 0.461191
-0.0387034 -0.0589249 0.892665
0.0341102 -0.004224 0.768695
-0.0288661 0.0189823 0.668242
-0.000392292 -0.0144793 0.257023
0.0250311 -0.0637626 0.307081
-0.0419715 -0.0997003 0.478929
0 0.0343873 0.129568
0.340349 -0.0499422 0.489877
0.0626649 -0.0731018 0.624213
0 0.0144114 0.149911
0.0710231 -0.0455595 0.494199
0.188795 -0.0479567 0.47584
-0.080734 -0.0463855 0.10878
-0.0389097 -0.0463855 0.14475
0.00843683 0.0829161 0.142771
-0.221601 -0.0470111 0.522647
-0.214542 -0.0487734 0.46031
0.0784797 -0.0439142 0.549425
0.0197336 -0.0515568 0.180142
-0.0110223 0.0118382 0.590899
0 -0.0418183 0.0480252
-0.0479782 -0.0753788 0.419869
-0.0294226 -0.0463855 0.115047
0 0.0179539 0.0403653
-0.0388834 -0.0198482 0.758405
0.0420578 -0.104412 0.503063
0.139604 -0.0481977 0.435456
0.00812983 0.024938 0.645857
-0.018972 -0.00749355 0.865099
0.190567 -0.044572 0.580053
-0.0262308 -0.0463855 0.158029
0.0562992 -0.0506685 0.644656
-0.023726 -0.0147736 0.383934
0.0467486 -0.0486834 0.41544
-0.346257 -0.0510063 0.457579
-0.0360059 0.0167505 0.688963
-0.0434659 -0.0258316 0.714195
-0.0624674 -0.0735587 0.641493
-0.141404 -0.0463597 0.506012
0.0916941 -0.0463855 0.103564
-0.0525508 -0.0794649 0.786926
0.198411 -0.0475789 0.495765
0.0291162 -0.0463855 0.204402
0.0442684 -0.0306724 0.724203
-0.320739 -0.0503594 0.466408
-0.0277038 -0.0677982 0.392955
0.0284002 -0.0463855 0.115766
-0.0410792 -0.0200524 0.456887
0.00784274 0.0785207 0.106199
0.0593202 -0.0463855 0.142814
0.0605651 -0.0775782 0.664779
-0.00533303 -0.102368 0.683776
0.0337956 -0.0665837 0.901929
0.0631598 -0.0694819 0.530437
0.0434278 -0.100592 0.491888
0.0271306 -0.0326473 0.25382
0.229764 -0.0496089 0.438149
0.00397288 0.0136714 0.586827
-0.0613199 -0.0589624 0.712053
-0.109239 -0.0463855 0.126691
-0.208804 -0.0461101 0.543261
-0.0434523 -0.0480285 0.879923
0.0612905 -0.071289 0.700169
0.00745026 0.0768954 0.0738357
0.0320937 -0.00486737 0.647069
0.00536659 0.0313534 0.776895
-0.191201 -0.0457485 0.54599
-0.0858843 -0.0444136 0.538136
0.0072189 0.0205546 0.616576
-0.0378682 -0.038996 0.339976
0.385077 -0.0517945 0.451977
-0.0898805 -0.044011 0.551666
0.044055 -0.027349 0.475326
-0.0310149 -0.106874 0.654513
0 -0.0197581 0.100154
0.00465865 -0.0989179 0.738987
-0.341396 -0.0498253 0.493755
0.0503208 -0.0463855 0.0990831
0.0607768 -0.078979 0.565706
0 0.0188215 0.0869517
-0.0117434 0.0285986 0.786598
0.236469 -0.046159 0.554134
0.037976 -0.0648786 0.813336
0.0974792 -0.0459483 0.495966
-0.0568685 -0.0679137 0.486832
0.0255991 -0.103314 0.717652
-0.0122139 -0.00719565 0.424213
-0.0342223 -0.0162969 0.882158
0.379235 -0.052928 0.40594
-0.294339 -0.051184 0.418947
-0.0364967 -0.0673745 0.857409
0.00556019 -0.0315704 0.148307
-0.212974 -0.047651 0.500135
-0.315841 -0.0511888 0.432011
0.121483 -0.0478429 0.437576
0.0595219 -0.08187 0.628569
0 0.0216516 0.0592525
0.0237635 -0.00701806 0.532349
-0.0377316 -0.0271748 0.814822
0.036468 -0.0232184 0.86492
0.0509251 -0.0905369 0.728805
0.00237782 -0.0856844 0.330836
0.0975525 -0.0446167 0.537397
0.000580791 -0.0700592 0.195627
0.0148493 0.0210747 0.639163
-0.43004 -0.0538168 0.402364
-0.0526831 -0.0453597 0.639782
0.350237 -0.0521204 0.418318
-0.0380449 -0.106541 0.725479
-0.00614469 -0.0471417 0.071548
-0.051689 -0.0463855 0.120659
0.0832931 -0.0463855 0.0951972
-0.0403975 -0.0499393 0.354846
0.00110239 0.0778136 0.165994
0.0125664 -0.0748117 0.290047
-0.0668747 -0.0463855 0.0970991
-0.00663898 0.0718424 0.0415872
-0.260281 -0.0502703 0.432182
-0.119253 -0.0463855 0.143765
-0.00957415 0.0246164 0.648136
0.0490515 -0.037742 0.610861
0.283599 -0.0483997 0.509677
-0.0477673 -0.0341776 0.530825
0.139242 -0.0461066 0.512437
-0.0141362 -0.0789719 0.928532
0.0442407 -0.0370357 0.411816
0 -0.0111327 0.0607047
0.0487522 -0.0995733 0.63562
0.0406287 -0.0360329 0.846727
0.0434688 -0.106066 0.616114
-0.0396686 -0.0331239 0.855261
0.0523658 -0.0835721 0.762688
0.0382656 -0.0370642 0.90681
0.371049 -0.0520389 0.434187
-0.0379579 -0.0537843 0.90829
0.00943414 -0.0513319 0.104367
0.279673 -0.0493813 0.478405
-0.0447585 -0.0384587 0.755974
-0.401236 -0.0514966 0.47157
0.0355385 -0.0100812 0.759493
0.0280477 -0.0990581 0.422452
-0.145888 -0.0440751 0.574696
-0.0129108 -0.0384014 0.137827
0.272031 -0.0484378 0.50342
-0.0974889 -0.040775 0.653575
-0.0429098 -0.0190797 0.55206
-0.0404229 -0.10954 0.618137
-0.0596937 -0.083012 0.597446
0.0637839 -0.0696653 0.557621
0.0392839 -0.0102687 0.600662
-0.28828 -0.0506243 0.43617
0.244245 -0.047483 0.518941
0.0372012 -0.00735967 0.717907
0.0302693 -0.0125488 0.468412
0.0190127 0.0255619 0.701358
-0.0423135 -0.0260704 0.439138
0.144137 -0.0468959 0.488776
-0.194292 -0.0477806 0.486316
-0.0451579 -0.0937412 0.468037
0.309655 -0.0511712 0.428861
-0.0155791 -0.0421235 0.148421
0.00972147 -0.0929268 0.405071
-0.00317198 -0.0655165 0.162692
-0.0238978 -0.0199615 0.315572
0.00689799 0.0277135 0.838238
-0.335762 -0.0507548 0.460538
0.000308308 -0.00181338 0.903916
0.0459155 -0.0555539 0.443995
0.0922616 -0.0428338 0.587157
-0.0175324 -0.0282667 0.955724
0.0354733 -0.00719721 0.636443
0.0377872 -0.00282488 0.698708
0.30458 -0.0490789 0.499175
-0.00489102 -0.100314 0.718022
0 0.0221687 0.118834
-0.00277096 0.0607247 0.102236
0.00395796 -0.0892236 0.367113
0.0253109 -0.00437115 0.612183
-0.352368 -0.0520021 0.424058
0.0566013 -0.0420791 0.597265
-0.009391 0.097827 0.0559279
-0.016395 0.0232135 0.842767
-0.0273161 -0.0634078 0.307019
-0.0189277 -0.00402111 0.556837
-0.41231 -0.0532628 0.413778
0.0356421 0.0114529 0.677859
0.0539267 -0.0668057 0.473727
0.0336191 -0.057818 0.313039
-0.12598 -0.0454685 0.525168
-0.02262 -0.0999809 0.755674
0.0215261 -0.00887293 0.865135
0 -0.0286375 0.0474342
-0.0309319 -0.0209045 0.341327
0.00454966 -0.092666 0.845836
-0.0489861 -0.0434256 0.740465
0.00505279 0.0916455 0.147318
-0.0179112 -0.0611071 0.207667
-0.246733 -0.0481382 0.500919
0.0419499 -0.0152126 0.652276
-0.0501083 -0.0876245 0.766401
-0.137548 -0.043526 0.587016
0.0745321 -0.0426277 0.58697
0.00368829 0.0625594 0.0881458
0.197463 -0.0493459 0.4281
0.0603938 -0.0813298 0.585712
-0.127929 -0.0471603 0.467913
0.0297041 -0.0463855 0.155656
0.0301863 -0.106137 0.692343
-0.0380666 -0.107221 0.713988
0.0294267 -0.0467469 0.958141
-0.0890418 -0.0451413 0.518299
0.0591227 -0.0793592 0.690796
-0.0565803 -0.0465053 0.447684
-0.0321072 -0.000800905 0.800036
0.032446 -0.0097532 0.812013
-0.0426471 -0.0463855 0.168031
-0.0354246 -0.0998838 0.440229
-0.0526345 -0.0463855 0.130606
-0.0729912 -0.0414653 0.622228
0 0.0280057 0.0697956
-0.0383249 -0.0991087 0.791753
0.336945 -0.0507165 0.46281
0.0437624 -0.0317564 0.430002
0.0556493 -0.0396118 0.672954
-0.0302761 -0.0362857 0.272313
-0.0575357 -0.0789846 0.711858
0.0147399 -0.0799613 0.383682
0 0.00647582 0.16018
0.048778 -0.0495994 0.459295
-0.064168 -0.0683361 0.554891
-0.097446 -0.0463855 0.153196
-0.0151513 -0.083864 0.413768
-0.0394824 -0.0325376 0.868398
-0.018531 -0.0151781 0.350206
-0.045481 -0.0294839 0.489486
0.300572 -0.04965 0.480724
-0.423812 -0.0534566 0.413603
0.245863 -0.0478357 0.509364
0.161969 -0.0486227 0.433315
