0.399541 -0.00115531 0.392985
-0.0195763 -0.0127318 0.321605
-0.2293 -0.0129489 0.325816
-0.200995 -0.0073897 0.386784
-0.269498 -0.0170884 0.396876
0.405118 -0.00119788 0.358333
-0.44227 0.000784335 0.384209
0.354385 -0.00357909 0.359306
-0.483004 -0.0052324 0.361854
-0.393118 -0.00136939 0.378588
-0.304365 -0.00974463 0.422822
0.096029 -0.00718205 0.394349
0.00636895 -0.0283903 0.44936
-0.327069 -0.013909 0.388119
-0.000176271 -0.0374469 0.461219
-0.00237605 -0.0081637 0.359435
0.392179 -0.00402678 0.340977
0.00365277 -0.0184574 0.431356
-0.308104 -0.00957611 0.327401
0.203658 -0.00755548 0.374077
0.0265795 -0.0180364 0.409623
-0.236953 -0.0178465 0.386118
0.212493 -0.0158678 0.425491
-0.0630024 -0.00726834 0.384902
0.00930183 -0.021758 0.49246
0.0126554 -0.0284167 0.307331
-0.0159627 -0.0163945 0.353307
0.254337 -0.017555 0.369825
0.0231424 0.0434769 0.0474247
0.376618 -0.00976542 0.407349
0.0124569 -0.0293086 0.278289
0.077529 -0.00737727 0.377599
-0.00906365 -0.0430476 0.433459
-0.0987139 0.043009 0.0298393
-0.192991 -0.0178398 0.381976
0.190885 -0.00763429 0.414453
-0.130406 -0.0180638 0.394302
0.0265493 -0.00733024 0.377071
-0.254647 -0.00952066 0.34983
0.468971 -0.00593629 0.358615
-0.00466069 -0.0237066 0.0461033
0.103114 -0.0148206 0.340637
-0.354197 -0.0123999 0.39264
-0.113087 -0.00781953 0.416994
0.175237 -0.0179201 0.386776
-0.203694 -0.0179556 0.402817
-0.273835 -0.0165133 0.369716
-0.357802 -0.00431213 0.352202
-0.357611 -0.0117888 0.403322
0.0649141 0.0405452 0.0080065
-0.209846 -0.0124656 0.430478
-0.226559 -0.00765992 0.367814
0.322452 -0.0117459 0.344938
0.0548277 -0.0087954 0.354543
0.226823 -0.0174284 0.364612
-0.00282426 0.0334714 0.0211109
-0.00367419 -0.023963 0.0318433
-0.0554811 0.0432307 0.0358695
0.00705654 -0.0267029 0.330188
-0.27298 -0.0116418 0.323918
-0.253456 -0.007353 0.392733
0.0454739 -0.018069 0.387724
-0.0137788 -0.0178332 0.448611
-0.120689 -0.0178723 0.378567
0.241062 -0.00736958 0.391647
-0.329528 -0.00880825 0.325259
-0.117696 0.0399491 0.0137473
-0.00874163 -0.0178782 0.369813
0.00150507 -0.0283903 0.429444
-0.0744455 -0.0144732 0.337307
-0.0730862 -0.0136199 0.430693
-0.0045502 -0.00659555 0.0620523
0.0271616 0.0389245 0.0236142
-0.242287 -0.017765 0.409655
-0.00285157 -0.0257439 0.14349
-0.0138251 -0.0322941 0.486918
0.00188995 0.0434801 0.0539367
-0.129472 -0.00730332 0.387642
-0.0370138 0.0388948 0.0590163
0.172586 -0.0148835 0.341953
0.417408 -0.0046356 0.408228
-0.0520807 -0.0158827 0.349274
-0.019164 0.043369 0.0367806
0.00574242 -0.0433335 0.351311
0.0892847 -0.017805 0.370727
0.155991 -0.0149258 0.342136
-0.424537 6.30105e-05 0.383735
-0.172627 -0.0077906 0.364562
-0.241538 -0.00750428 0.381182
0.000467888 -0.0178581 0.415562
-0.315901 -0.00490642 0.368851
-0.00715751 -0.0127444 0.321576
-0.0391272 0.041829 0.0156058
-0.00513769 -0.0146131 0.519465
-0.00974432 -0.0349855 0.200583
0.151473 -0.00719485 0.397908
-0.160609 -0.0177113 0.369295
0.0338636 -0.0127018 0.321504
-0.0655037 0.0383303 0.0409954
0.456212 -0.00662029 0.390731
0.00669494 -0.0407644 0.315374
0.372168 -0.0111523 0.361811
-0.464684 -0.00190217 0.329613
-0.152667 -0.00825418 0.419247
0.244081 -0.00761697 0.412173
0.00901779 -0.0432662 0.294641
-0.43682 -0.00759189 0.357231
0.0118117 -0.0422051 0.425288
0.274544 -0.0166423 0.382727
-0.00849756 -0.0249624 0.195682
0.0103124 -0.0422508 0.256753
0.350427 -0.00359837 0.404126
0.0676811 -0.0179185 0.377807
-0.0769793 0.0411218 0.00879536
0.0135635 -0.0228435 0.414599
-0.179121 -0.00744636 0.380569
0.157594 -0.0104859 0.427842
0.239497 -0.0176383 0.370085
-0.158401 -0.0105625 0.340379
8.84515e-05 -0.0256105 0.000638574
0.301956 -0.015025 0.406367
0.0854443 0.0431979 0.0421479
0.203984 -0.0104558 0.341811
0.00921895 -0.0407759 0.197021
0.0565768 0.0432921 0.0415168
-0.221214 -0.0107483 0.339467
0.0114678 -0.0113629 0.447092
-0.467026 -0.00603299 0.3896
0.00968448 -0.0148089 0.339496
-0.0331322 -0.00905686 0.352036
-0.137715 -0.0179187 0.408836
-0.00888894 -0.0432541 0.299126
0.326986 -0.0138327 0.397814
0.00359592 -0.0425041 0.0521447
0.00540894 -0.0425555 0.111796
0.288675 -0.00868197 0.343128
0.11004 0.0413273 0.0560498
-0.0868964 -0.00743246 0.374064
0.29131 -0.0154875 0.364215
-0.00749708 0.0434902 0.0437259
-0.250362 -0.0140882 0.427962
-0.169182 -0.0178822 0.383328
0.123763 -0.0163593 0.354201
-0.328956 -0.00554693 0.413011
0.321973 -0.0137074 0.361736
0.432938 -0.00793588 0.363919
0.114918 -0.00719475 0.394911
-0.303834 -0.00677876 0.353399
-0.136293 -0.00754308 0.413965
-0.170736 -0.0175063 0.415881
-0.00554893 -0.0305155 0.0899678
0.0589532 -0.0075788 0.416212
-0.104338 -0.0104578 0.340685
0.28819 -0.0141157 0.420352
-0.0136084 -0.0386404 0.396581
0.0137679 -0.0340668 0.490977
-0.28933 -0.0154552 0.411171
-0.0139948 -0.0293528 0.412569
-0.120228 -0.00756945 0.366119
0.00749197 -0.0185803 0.526447
0.000836795 -0.0363268 0.530471
-0.418791 -0.00446324 0.407916
-0.0395599 -0.0126481 0.321101
-0.426844 -0.00331859 0.332882
-0.0198015 -0.0080218 0.419656
0.0225196 -0.0178871 0.371639
0.157583 -0.00750717 0.374054
-0.0371786 -0.0181932 0.396737
0.0804246 -0.0180986 0.403046
0.391062 -0.00953547 0.354753
-0.177644 -0.00724283 0.400051
0.265285 -0.0171674 0.405074
0.0676926 -0.015632 0.427484
0.220471 -0.0177999 0.381127
-0.234806 -0.00768986 0.414384
0.00522286 -0.0392393 0.0694758
0.43889 -0.00777512 0.385342
-0.29336 -0.00572378 0.402849
0.390277 -0.0104423 0.388917
-0.0757378 -0.018175 0.398486
-0.113302 0.0420703 0.0543974
0.00353243 -0.0348376 0.0301878
-0.324272 -0.0135877 0.361669
0.248527 -0.0098591 0.347478
0.233135 -0.0178573 0.386644
0.383643 -0.00616626 0.325939
0.194261 -0.0179586 0.403245
-0.240443 -0.0144558 0.339
0.341314 -0.0128149 0.362837
-0.0140538 -0.0264608 0.45638
0.0924401 -0.00752602 0.415032
0.122071 -0.00842828 0.420821
-0.000172724 -0.0283903 0.373914
0.0109209 -0.00708271 0.395098
-0.00487397 -0.0433437 0.236113
0.00746753 -0.0272939 0.156725
0.269982 -0.0137935 0.340527
0.381501 -0.00201812 0.368567
0.107388 0.0385765 0.0324313
-0.0245516 -0.0177598 0.365235
0.142176 -0.0125503 0.322971
0.236478 -0.0118431 0.330148
-0.00741046 -0.0407515 0.145139
-0.0139117 -0.0273964 0.341983
-0.391945 -0.00807642 0.342502
-0.0316451 -0.016607 0.423735
0.0138481 -0.0229768 0.435629
0.0867202 -0.0107715 0.337771
-0.470763 -0.00424025 0.343531
-0.00449062 -0.0192422 0.300883
0.0523745 0.0385723 0.0270055
-0.0745809 -0.00798274 0.41861
-0.36469 -0.0025305 0.390028
-0.404204 -0.00959203 0.372518
0.00823346 -0.0432209 0.369421
0.45406 -0.00141216 0.337607
0.462502 0.00161488 0.372141
-0.00438859 -0.0109743 0.488109
-0.346691 -0.0126633 0.372625
0.260964 -0.0166797 0.416409
0.332674 -0.00410504 0.40172
0.0221996 -0.0078855 0.418736
0.27645 -0.0163997 0.409344
0.101241 0.0417705 0.015043
-0.103092 -0.0073468 0.410003
-0.074359 -0.017125 0.360287
0.00316789 -0.00897577 0.0255802
-0.202782 -0.0176682 0.369399
0.300354 -0.00612112 0.411987
5.65475e-05 0.00592498 0.000408156
-0.391467 -0.00169117 0.359802
0.00768114 -0.0283903 0.399073
0.0049166 -0.0431655 0.125383
0.264105 -0.0172475 0.38649
-0.446021 -0.0011869 0.342508
0.416693 -0.000269413 0.382494
-0.0139541 -0.0292207 0.430795
-0.378797 -0.00214072 0.397696
-0.472479 0.00211138 0.375992
-0.331291 -0.00631781 0.34612
0.110561 -0.00728305 0.406313
-0.23269 -0.00929891 0.352157
0.00418668 0.00601735 0.0460083
-0.384459 -0.0107212 0.378313
0.00606211 -0.0273086 0.131486
0.010276 -0.0274093 0.220435
0.013207 -0.0397656 0.408471
-0.274682 -0.00766018 0.357729
-0.205428 -0.00999972 0.34578
0.213877 -0.00824821 0.361054
0.310832 -0.00880048 0.333003
0.294845 -0.0155327 0.380662
-0.0768917 -0.0179496 0.380989
0.0526785 -0.00708962 0.399861
-0.368675 -0.00481398 0.343805
0.00533534 -0.018007 0.379585
-0.0996668 -0.0180657 0.391922
-0.0900529 -0.0178128 0.413651
-0.10114 -0.00870139 0.355872
0.203471 -0.00732815 0.391788
0.27342 -0.00663812 0.379851
-0.067876 0.0428657 0.0255903
-0.147549 -0.00736912 0.383997
0.423172 -0.00548748 0.334487
0.122863 -0.0176782 0.415455
0.362617 -0.00994064 0.346253
0.309182 -0.00526912 0.363668
-0.0402578 -0.00746759 0.415312
0.0116673 -0.0245067 0.262217
-0.173747 -0.00796817 0.417083
-0.301701 -0.0149586 0.364797
-0.261967 -0.00705614 0.386623
0.0645361 -0.00747565 0.368853
-0.194855 -0.0139916 0.334471
0.37823 -0.00208427 0.395544
0.452471 -0.00702773 0.37351
-0.361519 -0.00292321 0.366681
0.0499526 -0.010989 0.335477
-0.0792825 0.0431149 0.0498876
-0.238403 -0.00730944 0.396118
-0.000142626 -0.0182659 0.396223
0.336703 -0.00381004 0.382826
0.189353 -0.0142814 0.336922
0.163393 -0.0177792 0.374818
-0.216129 -0.00733635 0.402522
-0.0503917 -0.0181237 0.403605
-0.0773379 -0.00901035 0.35293
-0.00952439 -0.00969811 0.428207
-0.124088 -0.00837998 0.420478
-0.00120539 -0.0153259 0.343882
0.236193 -0.0168985 0.360124
0.00423142 -0.0121489 0.0768062
0.0708434 0.0383486 0.0463265
0.0553761 -0.0178452 0.414004
0.166199 -0.00727925 0.392537
0.000389179 -0.0215629 0.242531
-0.0721522 -0.00712439 0.396882
-0.0566096 -0.0171499 0.360306
-0.188785 -0.00841441 0.359335
-0.0243197 -0.00729605 0.379555
0.00403006 0.00337112 0.0687653
-0.123719 -0.00723474 0.402983
-0.00365409 0.0314206 0.0381392
0.0479424 0.0429986 0.0555923
-0.250233 -0.00764186 0.37117
-0.0458167 0.0432002 0.0302836
0.0106834 -0.0412571 0.499293
-0.0119138 -0.0195234 0.329541
0.117199 -0.0179725 0.386095
0.224839 -0.0072702 0.398539
-0.411018 -0.000548147 0.380567
0.424373 -0.000121555 0.368843
0.0621063 -0.0181651 0.396594
-0.00496831 -0.0226836 0.218684
0.258172 -0.00736221 0.410406
0.0129694 -0.0329611 0.291536
0.0253098 0.0382463 0.0360261
0.11912 -0.0073877 0.380209
-0.313362 -0.0138356 0.410518
0.261596 -0.0125097 0.325859
-0.194798 -0.00758174 0.3713
0.165494 -0.0180776 0.398266
0.01395 -0.0290923 0.319672
-0.0111195 -0.0270489 0.244217
-0.338538 -0.0133136 0.38941
-0.342518 -0.012765 0.40355
-0.448679 -0.00704634 0.391117
-0.051575 0.0408527 0.0624748
0.369826 -0.0114252 0.372327
0.0280581 -0.0181599 0.393385
0.129533 -0.00746107 0.412068
0.0140606 -0.0309074 0.373426
-0.00432954 -0.0100977 0.442292
-0.154735 -0.0127366 0.323148
0.365048 -0.00676783 0.414657
0.079267 -0.0127424 0.32236
0.417038 -0.000697379 0.396626
-0.110985 -0.016194 0.425274
0.153541 -0.00898438 0.354003
0.199424 -0.0163688 0.355125
-0.22719 -0.0176921 0.373271
0.234751 -0.0149802 0.343482
0.0132093 0.038065 0.0480492
0.184782 -0.0176452 0.366122
0.372155 -0.00833872 0.336721
-0.00195867 -0.0209512 0.0169754
-0.414168 -0.00320514 0.338997
-0.258823 -0.016634 0.360433
0.179863 -0.0180391 0.399955
0.00667137 -0.042668 0.469482
0.472144 0.00191593 0.387336
-0.00417825 -0.0226542 0.0836691
0.159568 -0.00769661 0.415523
0.0136455 -0.0160301 0.480457
-0.00125687 0.00732215 0.0769606
-0.301749 -0.00826352 0.341386
0.0138804 -0.035183 0.341135
0.0378932 0.0385135 0.0275717
0.190449 -0.00763935 0.366446
-0.430183 -0.00818344 0.371037
-0.0089508 -0.0353388 0.178037
0.0317308 -0.00901118 0.352416
-0.178403 -0.014035 0.334664
0.333111 -0.0134017 0.373705
-0.137584 -0.0147362 0.340288
-0.093568 0.0431671 0.0431964
0.139512 -0.00731041 0.387914
0.42476 -0.00860157 0.380703
0.0376161 0.0409402 0.0636463
0.352969 -0.00901308 0.334427
-0.011255 -0.0413671 0.271453
0.20455 -0.0178321 0.382331
0.00438831 -0.00916408 0.0424964
-0.325829 -0.0137841 0.373224
0.000384501 -0.0343624 0.101659
-0.0140026 -0.0295353 0.381668
-0.271695 -0.0165062 0.412544
-0.0236224 -0.0179442 0.412521
-0.104144 -0.0177939 0.371086
-0.00642088 -0.0430446 0.451568
-0.0231877 0.0382891 0.0556108
-0.201174 -0.0167375 0.420438
0.100962 -0.00765481 0.364941
0.0136862 -0.0247467 0.505728
0.205647 -0.00830984 0.418844
-0.000283032 0.036589 0.00245323
0.00900616 -0.037912 0.183037
-0.421816 -0.00788992 0.353478
0.0154037 -0.00744887 0.366898
-0.023703 -0.0179999 0.380541
0.11427 -0.00984265 0.346127
0.305593 -0.0150982 0.391509
-0.201857 -0.00724493 0.398655
0.434156 -0.000500544 0.352531
-0.413701 -0.000793403 0.396681
0.0324417 -0.0171892 0.360378
-0.00491482 -0.0332387 0.0534446
0.00800442 0.0392703 0.0202834
-0.284809 -0.00614485 0.379165
-0.142029 -0.0161841 0.424889
-0.00396367 0.014338 0.0413503
0.227424 -0.008603 0.35813
-0.17457 -0.0130407 0.430507
-0.288576 -0.0125122 0.337274
-0.0607605 -0.00937624 0.427115
-0.381675 -0.00200364 0.369097
0.364673 -0.00284071 0.362272
-0.00140614 -0.0370514 0.322147
0.482615 0.00180438 0.351841
0.00559714 -0.043384 0.264977
0.285429 -0.00599539 0.388687
0.0634637 0.0426446 0.0234605
0.335828 -0.0057309 0.349344
-0.190651 -0.00726787 0.395434
-0.452678 0.0012208 0.375073
0.150083 -0.00831209 0.419661
-0.170479 -0.010637 0.339867
0.0016768 -0.0424518 0.398303
-0.0120583 -0.0177959 0.510253
0.461184 0.000133335 0.347012
0.0828751 0.0429959 0.0268446
0.00324303 -0.0244917 0.176536
0.14261 -0.0103799 0.341786
0.327935 -0.0117515 0.41584
0.482067 -0.000494536 0.333942
-0.347586 -0.00627834 0.339772
-0.0102974 -0.0073866 0.371336
0.332573 -0.0104381 0.337877
-0.00456953 -0.0434194 0.358457
-0.0116353 -0.0406261 0.499845
0.0958952 -0.0151488 0.427955
0.242362 -0.00755384 0.377386
0.174966 -0.00947332 0.426003
-0.161207 -0.00744038 0.379562
0.122656 -0.0177294 0.367583
0.428719 -0.00101584 0.400361
0.0137238 -0.0366937 0.458505
0.447494 -0.000841282 0.344658
0.452742 0.00128428 0.380821
-0.140032 -0.0164396 0.355078
-0.118133 -0.0180847 0.394922
-0.117421 -0.00997473 0.345017
0.0625281 -0.0171084 0.360012
-0.44592 -0.00739541 0.374766
0.086012 -0.00716877 0.4019
-0.000284442 -0.0222888 0.095057
0.304889 -0.0126061 0.344976
-0.227188 -0.0176849 0.412254
-0.189274 -0.0178191 0.410073
-0.0220433 0.0408114 0.00580624
0.0927679 -0.0180542 0.404586
0.267427 -0.0157257 0.356194
-0.012716 -0.00721533 0.408875
-0.355593 -0.00803267 0.415901
0.316258 -0.0141692 0.406903
0.00498809 -0.0314074 0.0610889
0.402919 -0.00784385 0.345099
-0.311738 -0.0147068 0.397006
-0.268107 -0.0169656 0.381154
0.400419 -0.00969826 0.36571
-0.0321077 0.0432728 0.0323978
-0.00452424 -0.0426339 0.478128
-0.0627811 -0.0153094 0.344424
-0.253327 -0.0146034 0.340513
0.433682 -0.00605578 0.343132
-0.00256774 -0.0201458 0.277609
-0.39102 -0.0102711 0.394935
0.00603687 -0.0433689 0.242305
-0.0132397 -0.0270705 0.302503
0.0110357 -0.0123255 0.498064
-0.43427 -0.00792182 0.390426
-0.129321 -0.0120777 0.430742
-0.0103412 -0.0311449 0.218023
-0.0041032 -0.0432016 0.100753
0.00024883 -0.0186018 0.31289
0.0326064 -0.0147366 0.339124
-0.012342 -0.0207671 0.419681
0.188319 -0.00730974 0.391978
-0.00778345 -0.0215006 0.531375
0.113943 0.0424286 0.0213816
-0.130235 -0.0167698 0.357831
0.0152647 -0.0181398 0.390765
-0.163446 -0.0164508 0.355435
0.106405 -0.0131775 0.326432
-0.406609 -0.00854909 0.401475
0.13749 -0.0170741 0.360548
0.00494354 -0.0433169 0.152818
0.17653 -0.00739978 0.383988
0.404822 -0.00968071 0.386127
-0.272568 -0.00660843 0.404182
0.0135701 -0.0233996 0.424972
0.354001 -0.0122211 0.368784
0.349294 -0.0104582 0.413391
-0.480478 -0.00556207 0.375664
0.0957737 -0.0180279 0.388654
0.0998321 -0.0173649 0.417825
-0.346149 -0.00330044 0.390232
0.381654 -0.00418546 0.343922
0.00318151 -0.00714797 0.405969
0.0110167 -0.00865587 0.355265
0.15021 -0.0173336 0.362939
0.130096 -0.00793161 0.362866
-0.297857 -0.0108414 0.326978
-0.00124706 0.0198039 0.0108082
0.00358977 0.0314117 0.0332799
0.0357189 0.0381809 0.0476778
-0.105153 0.0392516 0.0204649
-0.220635 -0.00892097 0.4226
-0.00417711 0.00614265 0.0619011
0.296924 -0.00564704 0.376334
0.0632067 -0.0111315 0.33439
0.00363579 0.0365848 0.0417784
0.232979 -0.0179642 0.400543
0.277897 -0.0162696 0.367613
-0.280348 -0.00858923 0.34735
-0.105671 0.0430707 0.0372888
0.414061 -0.000619591 0.365693
-0.104194 -0.0129544 0.324474
-0.332223 -0.00462436 0.359692
0.177081 -0.0163232 0.354481
-0.149598 -0.0138631 0.332854
-0.0448526 -0.0071302 0.402455
0.0426885 -0.0171418 0.360081
-0.260783 -0.0162326 0.419388
0.393377 -0.00956494 0.401051
0.0725424 -0.00753001 0.415698
0.0152968 -0.00720143 0.407992
-0.00235885 0.0329576 0.0606006
-0.405912 -0.00681321 0.338088
-0.155674 -0.00739144 0.40915
-0.000675953 -0.0267289 0.11805
0.206848 -0.0180254 0.398987
0.420672 -0.00861945 0.365928
-0.296017 -0.00665786 0.357656
-0.12994 -0.0137835 0.331946
-0.0876273 -0.00834705 0.42079
-0.292935 -0.00798732 0.420598
-0.121639 -0.0179715 0.407093
0.206138 -0.00742743 0.407885
0.0035094 -0.0183868 0.330614
-0.313087 -0.0143762 0.366623
0.319953 -0.00471104 0.370158
0.274634 -0.0167964 0.39512
0.141352 -0.0180329 0.402672
-0.0121086 0.0388934 0.023913
-0.00444746 -0.0211886 0.254135
0.397638 -0.00111056 0.382735
0.0123579 -0.0400207 0.282531
0.238081 -0.00931463 0.352081
0.114376 -0.0159408 0.426463
-0.415087 -0.00889426 0.364261
0.394072 -0.00539927 0.328304
-0.283791 -0.0068731 0.36081
-0.0132166 -0.0140878 0.459074
0.167075 -0.00838227 0.359372
-0.118231 -0.0177192 0.36642
0.19853 -0.0117425 0.429429
0.077358 0.0395924 0.0171828
0.370713 -0.0115163 0.390327
0.0215786 -0.0163921 0.353349
0.0431354 0.0392304 0.0206679
-0.0134426 -0.0222966 0.392194
0.442605 -0.00683625 0.353125
-0.441201 -0.000213725 0.397304
-0.214629 -0.0075389 0.376271
0.272803 -0.00676709 0.409856
-0.281006 -0.0163621 0.400915
0.110956 -0.0178921 0.410868
-0.0179083 -0.00832414 0.358217
0.00302216 -0.039661 0.518233
-0.134128 -0.0179154 0.383031
-0.213761 -0.0137144 0.332278
0.0523168 -0.0156448 0.347214
-0.0480833 -0.010485 0.339825
-0.325651 -0.00432895 0.380365
0.316686 -0.00503553 0.407714
-0.383109 -0.0065255 0.326779
-0.00173691 -0.0283903 0.408255
-0.0123075 -0.0415277 0.386972
0.225374 -0.0106579 0.340297
-0.0554774 0.0432529 0.0502148
0.483051 -0.00534525 0.382424
0.345674 -0.00361766 0.366998
-0.300829 -0.0063805 0.413698
0.102037 0.0385882 0.0488533
0.0691989 -0.00848112 0.357426
-0.352773 -0.0118684 0.358803
-0.379403 -0.00850284 0.340888
-0.243489 -0.00861229 0.420264
-0.368311 -0.00691996 0.414679
0.31837 -0.00579958 0.355821
0.0088512 0.0421248 0.0642469
-0.170258 -0.0180046 0.402347
0.00445617 -0.00743426 0.367136
-0.00385155 0.0216866 0.0551455
0.0186181 0.0430357 0.0272272
0.216117 -0.0177085 0.412021
0.248675 -0.0177758 0.381567
0.0148498 -0.00720896 0.385571
-0.393384 -0.00551987 0.411054
0.261174 -0.0112682 0.427622
-0.464659 -0.00252457 0.401575
-0.00540532 -0.039341 0.0805515
-0.249502 -0.0178653 0.388615
-0.304463 -0.00530373 0.37719
-0.00394093 0.008726 0.0324272
-0.0367453 -0.0173188 0.361549
0.00849196 -0.0229374 0.230048
-0.032554 -0.00760172 0.364641
0.0997955 -0.0169272 0.358856
-0.00540514 0.0414961 0.0124001
-0.0507715 -0.00716288 0.392123
0.145904 -0.00743964 0.378361
-0.375715 -0.00202006 0.387169
-0.0626139 -0.017843 0.371499
-0.00361364 0.0337955 0.0492022
-0.312409 -0.0128212 0.350016
-0.000728598 -0.0435378 0.302725
0.260027 -0.0100118 0.343365
-0.0131838 -0.0136497 0.438622
0.0231976 -0.011625 0.329669
-0.0606611 -0.00782073 0.417759
-0.326989 -0.00418534 0.395089
0.232211 -0.00745451 0.407673
-0.115801 0.0428838 0.0257654
0.177027 -0.0132389 0.327749
-0.418309 -0.00869385 0.394347
-0.090572 -0.00969391 0.347153
0.000896808 -0.014791 0.00647672
0.200123 -0.01693 0.419203
0.147421 -0.013766 0.331988
-0.317129 -0.0109133 0.335474
0.454907 -0.00207236 0.402142
-0.298231 -0.00541491 0.389936
-0.0295502 -0.0117348 0.328788
0.133441 -0.0179405 0.384931
-0.0873589 -0.0112013 0.334053
-0.00443899 -0.0184761 0.359354
-0.00654014 -0.0373288 0.110678
-0.00358514 -0.0433609 0.20093
0.393637 -0.010217 0.377183
-0.246615 -0.00743519 0.405772
-0.144462 -0.0181011 0.398367
0.0959573 -0.0114607 0.331901
0.248666 -0.0092856 0.424565
-0.0371126 -0.00728702 0.381313
-0.136412 -0.00743959 0.377584
-0.470127 -0.00612975 0.379808
0.0246403 0.0402277 0.0110638
-0.357477 -0.00666822 0.332332
-0.0111009 -0.0424379 0.372094
0.0126658 -0.0204122 0.345699
-0.133964 -0.00720664 0.400886
-0.429558 3.08217e-05 0.363137
-0.0985134 -0.0140374 0.333797
-0.0329877 -0.00714943 0.391708
-0.00140614 -0.0273788 0.321512
0.0759336 0.0407392 0.00613751
-0.0139634 -0.0241639 0.495126
0.05709 -0.018023 0.38509
-0.478648 -0.00136131 0.328442
0.0127822 -0.0410989 0.359092
-0.00434424 -0.0432827 0.133516
-0.00600526 -0.0430716 0.165175
0.0252317 -0.007197 0.387359
0.0502046 0.0382451 0.046832
0.337979 -0.00793397 0.329367
0.0909114 0.039337 0.0196417
0.281238 -0.0129645 0.338096
-0.0984046 -0.00721268 0.392155
0.0125861 -0.0204268 0.315796
0.457315 -0.00659326 0.361048
-0.0259836 -0.0151591 0.342712
-0.154596 -0.0177022 0.414303
-0.0936824 -0.0176059 0.36467
-0.0747819 0.0383703 0.0403625
0.481875 -0.00530466 0.362704
-0.120811 -0.00854934 0.357409
0.0542145 -0.00725007 0.385603
-0.0118117 -0.0363082 0.420804
-0.415151 -0.00163297 0.351002
-0.277899 -0.0165041 0.38591
-0.182098 -0.0168902 0.419722
0.145358 -0.0130275 0.430853
-0.0553013 0.0386887 0.0258851
-0.470594 -0.00574257 0.355466
0.0773869 0.0424161 0.0565732
0.111078 -0.0174227 0.363276
0.29861 -0.0102513 0.423928
0.145412 -0.00758541 0.366948
0.250367 -0.00736708 0.401993
0.0412359 -0.011307 0.332625
0.0104189 -0.0107435 0.429896
-0.213874 -0.0180196 0.397718
-0.0118117 -0.0369268 0.329665
0.150755 -0.0180643 0.396016
0.00521738 -0.0433218 0.434838
-0.00951058 -0.0283903 0.396866
0.0118117 -0.032211 0.382235
0.236942 -0.0159476 0.425056
0.0302304 -0.00747795 0.365849
-0.0138734 -0.034186 0.350595
0.413721 -0.0029201 0.341417
0.34511 -0.00488275 0.352643
0.207022 -0.0137258 0.332303
-0.0157872 0.0434911 0.0489189
0.360504 -0.0120429 0.381715
-0.000292196 -0.0435437 0.255111
0.052523 -0.00723924 0.407642
0.112527 -0.014357 0.336723
0.000317431 -0.0369468 0.0024425
-0.110845 -0.017979 0.386078
-0.0933261 0.0392661 0.020325
-0.0724806 -0.0157032 0.347945
0.177122 -0.0177749 0.375609
0.316239 -0.00474569 0.380223
0.320146 -0.00824636 0.333982
-0.276814 -0.0132427 0.338638
-0.0803156 -0.0178023 0.369785
-0.177256 -0.0171769 0.361882
-0.250873 -0.00839637 0.360181
0.210214 -0.0157361 0.349761
-0.0136274 -0.0222616 0.360795
-0.00208939 -0.0110637 0.499547
0.000520643 -0.0372861 0.502016
0.013869 -0.0342682 0.418397
-0.0459117 0.0383007 0.0514009
0.385256 -0.00279099 0.404607
0.00251086 -0.0298844 0.0210568
-0.0502415 -0.0178644 0.372151
0.0773461 -0.010662 0.42902
0.0546865 0.0394819 0.0182459
-0.0667449 0.0432005 0.0496978
-0.00672171 -0.0112222 0.332976
0.456919 -0.0028865 0.327376
0.402991 -0.000982346 0.375005
0.000279578 -0.00926656 0.393868
-0.290735 -0.0154398 0.363559
-0.0348255 -0.0179112 0.412995
-0.047274 -0.00870926 0.355205
0.0121408 -0.0202461 0.515291
0.10387 -0.00928484 0.350846
-0.458988 -0.00494045 0.344379
-0.39338 -0.010119 0.368885
0.00306619 0.0241342 0.0228446
0.0634016 -0.00717294 0.403522
-0.11255 -0.014682 0.33954
0.00456317 -0.0236325 0.0385714
-0.0140508 -0.0269562 0.476769
0.013781 -0.0353786 0.438554
0.00135621 -0.0297443 0.0110419
-0.00655253 -0.0283903 0.417143
-0.00341429 0.0404522 0.0314934
0.0366991 -0.0178343 0.414931
0.00964117 -0.0290924 0.52966
0.121449 -0.00724732 0.403777
0.0740399 -0.0158707 0.349414
-0.327361 -0.0137815 0.39938
-0.0124934 -0.0315087 0.276754
-0.0186515 -0.00716482 0.389328
-0.0666552 -0.00887309 0.354001
0.00360161 0.000811197 0.028791
0.00973579 -0.0187608 0.369849
0.166465 -0.0164397 0.422875
0.0052332 -0.031335 0.0775467
-0.0830291 0.0389685 0.0231911
-0.249915 -0.0179682 0.399279
-0.284143 -0.0160561 0.376953
0.00963919 -0.0405821 0.207441
0.0565991 -0.00991804 0.344833
0.13565 -0.011623 0.330935
0.0449631 -0.00712963 0.394239
0.0995086 -0.0177712 0.368934
0.364929 -0.00264538 0.396257
0.139447 -0.00735196 0.408103
0.0132814 -0.0385517 0.307424
-0.238622 -0.0166058 0.420754
-0.00387792 -0.0142144 0.0327474
-0.204201 -0.0178178 0.381182
-0.358697 -0.00977241 0.343139
-0.0112347 -0.0283903 0.372075
-0.00611786 -0.043342 0.28939
-0.303134 -0.015045 0.404097
0.407715 -0.00190938 0.402669
-0.00898901 -0.00905979 0.351742
0.103733 0.0407501 0.00603304
0.385832 -0.00202534 0.359316
-0.389284 -0.00944594 0.353226
-0.00457709 -0.0136695 0.0711611
0.0138634 -0.0213356 0.45361
-0.402852 -0.00806394 0.346978
-0.340395 -0.00388911 0.363978
-0.385713 -0.0038026 0.345359
0.287943 -0.0158469 0.406273
0.305662 -0.00511087 0.388105
0.214383 -0.0109677 0.33749
-0.068313 -0.0134272 0.328173
-0.0139533 -0.0298101 0.44379
0.1525 -0.00733952 0.386711
0.289711 -0.00705388 0.356813
-0.0856381 -0.0078464 0.36311
-0.318725 -0.00661936 0.417001
0.0668424 -0.0120449 0.326514
0.00152985 -0.0389275 0.371225
0.165145 -0.015491 0.347136
-0.00140614 -0.0341186 0.309732
0.473645 0.0019785 0.362904
-0.0759497 -0.00741502 0.374523
0.186586 -0.0172171 0.417532
0.0108213 -0.0383327 0.236031
0.299772 -0.00901952 0.335646
0.0903224 -0.00740013 0.376869
0.0136515 -0.0374628 0.477791
0.0120153 -0.0418147 0.39879
0.313957 -0.00711768 0.346305
-0.456714 0.000467257 0.395497
-0.0866619 0.04089 0.00656369
0.0877636 -0.00726449 0.38724
-0.00476827 -0.043407 0.313468
0.214023 -0.00728138 0.399792
0.253316 -0.0177649 0.408971
0.105395 0.0431153 0.0410694
0.226472 -0.00740296 0.387845
-0.0695996 0.0418399 0.0157111
-0.0465256 0.0411089 0.00867154
0.085696 -0.0157969 0.348904
-0.482266 0.00245209 0.369391
-0.231305 -0.0103979 0.342616
-0.238713 -0.0155008 0.348039
0.0122025 -0.0216966 0.296398
0.00311536 -0.0198992 0.0257366
-0.443567 0.000661201 0.364026
-0.10498 -0.0091004 0.425437
-0.126458 -0.0104649 0.340869
-0.00623075 -0.0185975 0.407587
-0.0139817 -0.0285901 0.466405
-0.00902234 -0.0318849 0.528157
0.0889264 -0.0170153 0.359499
0.279818 -0.0154383 0.358936
-0.480337 -0.00473585 0.351233
0.00193429 -0.00928276 0.349731
-0.264184 -0.0153234 0.351338
0.164704 -0.007414 0.381907
0.472293 -0.00439113 0.397249
0.195597 -0.00741679 0.384229
0.0628681 -0.0159885 0.35031
-0.361711 -0.0120382 0.386373
0.159169 -0.0137943 0.332365
-0.45073 -0.00194238 0.334724
-0.0285998 0.0382213 0.0391966
-0.483438 -0.000343613 0.397816
-0.204899 -0.0142095 0.336471
-0.0105934 -0.0383673 0.229334
0.223978 -0.00839313 0.419121
-0.420104 -0.00885894 0.381402
0.0531469 0.0412138 0.00968145
0.0636965 0.0383513 0.0386255
-0.26097 -0.0109321 0.335001
0.0264924 -0.0171868 0.420041
-0.0058647 -0.0232155 0.206763
-0.0239055 0.0410678 0.0647215
-0.0824093 -0.0157633 0.348576
-0.0321332 0.0405116 0.00832976
0.00463718 -0.0433299 0.412483
0.0113233 -0.0364652 0.248251
0.231496 -0.0177304 0.37661
0.264089 -0.00698425 0.384937
0.0766821 -0.00750878 0.367268
0.186125 -0.0150037 0.343146
0.00445309 0.0435199 0.0453731
0.313164 -0.0143781 0.36705
-0.403546 -0.00107235 0.395149
-0.445456 -0.00627392 0.349519
0.214177 -0.00760423 0.371141
-0.124431 -0.0156288 0.347878
-0.0133439 -0.0150689 0.485147
-0.194088 -0.00736132 0.405193
-0.132493 -0.00755677 0.368119
-0.012155 -0.0417286 0.442892
-0.462505 0.00169885 0.378087
-0.116604 -0.00736117 0.382072
-0.366295 -0.00319606 0.357691
-0.272161 -0.0121265 0.427054
0.366376 -0.00247387 0.384315
-0.147136 -0.0177911 0.374409
0.00491697 -0.0232464 0.0679142
-0.306396 -0.00534712 0.367162
-0.283361 -0.0061065 0.401267
-0.357871 -0.0120198 0.36917
-0.0130334 -0.0354337 0.296384
-0.000531845 0.0425667 0.0227102
0.400839 -0.0090559 0.354725
-0.021013 -0.0110626 0.334518
-0.184858 -0.00759183 0.369694
-0.0591156 -0.0181544 0.395511
0.268136 -0.0167689 0.366028
-0.396166 -0.0101654 0.386299
0.17344 -0.0176589 0.366258
0.0721035 -0.018142 0.395608
-0.228047 -0.0157194 0.349814
-0.0807796 0.0397289 0.0578815
0.000812384 -0.0435174 0.061729
0.387726 -0.00162707 0.392358
-0.228387 -0.00742775 0.38607
-0.112322 -0.00792786 0.362701
-0.00291568 -0.0407222 0.0252695
0.000861607 -0.00274678 0.00622248
-0.340009 -0.00982948 0.335742
-0.0280385 -0.00740077 0.413994
0.199336 -0.0117912 0.330185
-0.0985149 0.0385874 0.0495184
-0.152945 -0.0115953 0.429696
-0.0442215 -0.0180469 0.385894
0.0125878 -0.0130712 0.470978
-0.00195612 -0.0252991 0.153424
0.0120145 -0.0364687 0.268239
-0.0776294 -0.0072371 0.388544
-0.237162 -0.0176777 0.372973
-0.0014108 -0.0272986 0.104987
-0.217867 -0.0178611 0.406854
0.250303 -0.0162765 0.35489
0.314775 -0.0145254 0.397547
0.0444196 -0.00856039 0.422801
0.0321697 0.0432303 0.0556452
-0.435068 -0.00575785 0.402828
-0.00438719 -0.0015616 0.0531377
0.0439979 -0.00872766 0.355009
-0.106995 0.0413591 0.0110811
0.0764999 0.0431536 0.0355914
-0.250183 -0.0173701 0.415619
-0.0474878 0.0391018 0.0219068
0.0139131 -0.0231935 0.463873
0.292581 -0.00595438 0.367298
0.441597 0.000806101 0.38049
0.407494 -0.0092776 0.395587
-0.0495562 -0.00790915 0.418494
0.382674 -0.00179668 0.381112
0.00964396 -0.0311061 0.198698
0.204264 -0.00852792 0.358523
-0.263154 -0.0124527 0.326023
0.000194591 -0.0424518 0.443157
-0.0383375 -0.0088603 0.424839
-0.0417891 -0.0137391 0.330581
0.345129 -0.0127501 0.372896
0.00682487 -0.012754 0.388099
-0.149998 -0.00997799 0.345351
0.417231 -0.00447639 0.326794
0.0126554 -0.0330068 0.329361
0.24529 -0.01234 0.42988
-0.0270777 0.0385473 0.0272468
0.306074 -0.00528756 0.372912
-0.00634242 -0.0433583 0.336988
0.471821 -0.00591556 0.367937
0.25784 -0.00714295 0.394043
-0.217995 -0.0127036 0.323565
0.00292477 -0.00137033 0.0782658
-0.397068 -0.00241483 0.351876
0.347482 -0.0125446 0.401747
-0.000828964 -0.0086704 0.424146
0.344828 -0.00352025 0.377502
-0.00251534 -0.0238722 0.188132
-0.0976368 -0.0152038 0.343897
0.145275 -0.0155492 0.347419
0.0027551 -0.0208082 0.262933
0.434177 0.00046516 0.383532
0.00532298 -0.0267029 0.314642
0.4097 -0.00910709 0.358946
-0.0513769 -0.0178468 0.414101
0.306306 -0.0139786 0.35747
-0.205124 -0.00750835 0.377872
0.00524924 -0.012699 0.321162
0.0118437 -0.042393 0.323241
-0.0878408 0.0385684 0.0510526
0.106391 -0.00726701 0.388575
-0.0139791 -0.0289818 0.327304
-0.00438714 -0.0106046 0.0419211
0.0810238 -0.00837329 0.358492
-0.146472 -0.00747894 0.41195
0.284044 -0.0161521 0.384034
-0.119552 -0.0168039 0.421185
-0.327438 -0.0123734 0.352482
-0.00355303 -0.0284705 0.461219
0.00272394 -0.0424518 0.42455
0.0140132 -0.0255594 0.479474
-0.459478 -0.00672489 0.378811
-0.00721878 -0.0185416 0.338876
-0.0108365 0.0382088 0.0557053
-0.232958 -0.00754947 0.376954
-0.282231 -0.0135552 0.422583
0.438213 -0.00779103 0.373627
-0.431937 -0.00657301 0.346515
-0.175463 -0.0121518 0.326795
0.447177 -0.00686196 0.393769
0.0872776 -0.0179749 0.383818
-0.397039 -0.00133445 0.368463
-0.344081 -0.012664 0.362613
-0.157571 -0.0178662 0.381123
0.159372 -0.0072817 0.403207
0.300947 -0.015063 0.369431
0.00468878 -0.0398681 0.0404912
0.215742 -0.0179106 0.389371
-0.202285 -0.00811957 0.36204
0.352234 -0.0111683 0.352508
-0.00497191 -0.0423136 0.089229
0.131322 -0.0170046 0.419711
0.127534 -0.00729583 0.388066
0.0116658 -0.0308793 0.254658
0.264127 -0.00795897 0.417757
-0.0797865 -0.0163682 0.424592
0.0673973 -0.0177976 0.368352
-0.269772 -0.0107733 0.332763
-0.0118117 -0.0388244 0.455232
0.332113 -0.00391978 0.392285
0.373822 -0.00228614 0.374065
-0.00368703 0.021387 0.029201
0.113791 -0.00772348 0.416359
0.341482 -0.00683737 0.337433
-0.262006 -0.00829816 0.357404
-0.0125763 -0.0408032 0.407986
-0.234541 -0.0166485 0.357939
0.0084571 -0.032178 0.164749
-0.0119761 -0.0408082 0.486321
0.0315887 -0.00798062 0.419218
0.3262 -0.00601949 0.350796
0.109588 -0.00739065 0.379194
0.295031 -0.0138562 0.351648
-0.363465 -0.00280519 0.399332
-0.164123 -0.0075578 0.370642
-0.356173 -0.00445591 0.41049
0.245362 -0.0131057 0.327354
0.381213 -0.0105526 0.359409
-0.400802 -0.00095364 0.38392
-0.200774 -0.0105266 0.427428
-0.164583 -0.0114621 0.332651
-0.0074958 -0.0185683 0.350516
-0.322386 -0.0135608 0.408105
0.00664979 -0.0270882 0.140809
0.407203 -0.000721384 0.387287
-0.434717 -0.00367915 0.326524
-0.376727 -0.00379816 0.34889
0.144108 -0.0179874 0.389469
-0.337707 -0.0132388 0.380119
-0.0108601 -0.00726791 0.380643
0.0118117 -0.030836 0.39108
0.0552118 -0.0181323 0.402862
0.0103894 -0.0417705 0.485369
-0.00515436 0.0432132 0.0587287
0.425276 4.43812e-05 0.38621
-0.0508124 -0.0126539 0.321277
-0.096532 -0.00721006 0.403391
0.109731 -0.00846605 0.358008
0.474236 -0.00193444 0.326741
-0.393581 -0.00141671 0.393776
-0.0533362 -0.0160781 0.42686
-0.30384 -0.00518471 0.397327
-0.0734986 -0.0180213 0.407492
0.116417 -0.0118586 0.32868
-0.0120009 -0.0344696 0.265296
0.326839 -0.00426106 0.381576
0.0140346 0.038342 0.05754
0.00169497 -0.0183243 0.351365
0.0838474 -0.0178716 0.412334
0.134805 -0.0087578 0.42278
0.103881 -0.0179621 0.384185
-0.168699 -0.00904638 0.353634
-0.263481 -0.00687237 0.395751
-0.0628799 0.0407714 0.00582775
0.0429371 -0.0128857 0.323198
0.31166 -0.0146853 0.384548
-0.00107053 0.028831 0.00883692
0.211527 -0.0177533 0.37676
0.135927 -0.0150679 0.343144
0.365638 -0.0107946 0.35493
0.0348621 -0.0178436 0.369261
0.0586762 -0.0146819 0.429128
0.0675661 0.0387915 0.054923
-0.0952909 -0.00752282 0.414851
-0.0127089 -0.0209421 0.312657
0.0172667 0.0394137 0.0189026
0.219592 -0.0176615 0.370258
-0.406333 -0.000897295 0.370533
-0.00878861 -0.0432507 0.348633
0.176408 -0.00968141 0.348216
0.00323034 0.0400765 0.0125198
0.080357 0.0384306 0.0480721
-0.17091 -0.0176896 0.368448
-0.110349 -0.00934501 0.350397
-0.10352 -0.0179169 0.38063
-0.326507 -0.0044459 0.404288
-0.170853 -0.00732453 0.389388
0.00394427 -0.0312588 0.0514811
-0.362017 -0.01121 0.357001
0.451303 0.000837163 0.392493
0.104439 -0.00714641 0.397819
0.0118117 -0.0331164 0.427048
0.086248 -0.0116781 0.430572
-0.00387123 -0.0219863 0.234513
-0.00409545 0.00106924 0.0694384
-0.184998 -0.0106524 0.339896
0.0549431 -0.0073668 0.376556
0.289372 -0.0103544 0.328346
0.307627 -0.00527695 0.406635
-0.336227 -0.0125802 0.357986
0.224333 -0.0178447 0.407301
-0.00922008 -0.0301761 0.188321
0.00843692 -0.0148366 0.39824
-0.012739 -0.0229087 0.293744
0.289013 -0.0157554 0.373765
0.0198185 -0.0182355 0.399696
0.264894 -0.0108283 0.334289
0.408127 -0.00212329 0.349871
0.180372 -0.00858518 0.357761
-0.0748197 -0.00722476 0.405504
0.446325 -0.00293769 0.328185
0.0328421 -0.0119617 0.431626
0.215827 -0.00925802 0.352324
-0.349317 -0.00369889 0.360334
0.363202 -0.00621093 0.333944
0.00458617 -0.0102062 0.0566084
0.384145 -0.0106063 0.368456
0.425458 -0.00793194 0.355381
0.279609 -0.00723344 0.415681
-0.314541 -0.00485361 0.377644
-0.386643 -0.00508324 0.334094
-0.0404417 -0.0181076 0.405063
0.0685017 0.0418789 0.0160863
-0.00257354 -0.0434881 0.392197
-0.119624 -0.0072008 0.394826
0.338931 -0.013178 0.380478
0.00507408 -0.0391673 0.0838203
0.194824 -0.00752965 0.375365
0.188714 -0.0180046 0.394481
-0.254397 -0.00745023 0.381917
0.00219576 -0.0148841 0.0876777
0.0373146 -0.00717997 0.389682
0.165478 -0.0178872 0.383413
-0.00984927 -0.0398887 0.209801
0.00351405 -0.022826 0.216004
0.334277 -0.012608 0.357403
0.129443 -0.00913469 0.352432
-0.193599 -0.0162496 0.354027
0.0093993 -0.0397647 0.300917
-0.320671 -0.00595532 0.353623
0.331246 -0.0129914 0.407685
-0.36292 -0.00269908 0.379207
-0.0282318 -0.00920527 0.427198
0.117561 0.0428705 0.048891
-0.272421 -0.0159173 0.359964
-0.00468584 -0.0196167 0.292056
-0.0293665 -0.017907 0.373759
0.293864 -0.0147553 0.413611
-0.00377771 -0.0073749 0.414156
-0.412465 -0.00921005 0.376999
-0.424301 -0.00840501 0.364467
-0.223521 -0.00751691 0.378717
0.0812148 -0.0138053 0.331593
-0.104313 -0.0181399 0.39941
-0.011135 -0.0353744 0.241335
0.157951 -0.0167977 0.420671
0.414996 -0.00803478 0.351854
-0.163159 -0.0153623 0.345999
0.0136518 -0.0395512 0.348754
-0.163908 -0.00733319 0.405605
-0.0663094 -0.0172092 0.41932
0.37343 -0.00246027 0.361834
-0.00502654 -0.0173437 0.388099
-0.388403 -0.00267965 0.404414
0.170436 -0.00723719 0.400206
-0.466672 -0.00612495 0.363285
-0.438483 -0.000259967 0.352744
-0.110247 -0.00745656 0.374106
0.234028 -0.00751083 0.380055
0.0986107 0.0431178 0.0392203
0.0942558 0.0412271 0.00980949
0.0105679 -0.0350523 0.224675
0.147369 -0.0177623 0.372176
-0.198662 -0.0154149 0.346848
-0.284881 -0.0062662 0.369453
0.0837618 -0.0074793 0.414118
-0.0136222 -0.0215294 0.434903
-0.00452468 -0.0102815 0.0530721
0.0428362 0.0433507 0.0485375
-0.0137881 -0.0259057 0.402986
0.0453065 -0.017875 0.413576
0.0128018 -0.0145218 0.437451
-0.214648 -0.0177151 0.374032
-0.366316 -0.0116471 0.396304
-0.176574 -0.0179904 0.392375
0.319301 -0.00992984 0.420563
-0.000188193 -0.0248838 0.16193
-0.475713 -0.00309592 0.336478
0.0127361 -0.0270817 0.520711
-0.298841 -0.0138808 0.35347
-0.232154 -0.007348 0.402132
-0.0691382 0.0384362 0.0329363
-0.347875 -0.012781 0.386727
0.338254 -0.0038823 0.371869
-0.0550255 -0.0073292 0.4112
-0.343454 -0.00377706 0.404049
0.0772735 -0.0177983 0.369221
0.471021 0.00159072 0.354667
0.00623425 -0.0428898 0.45918
-0.201088 -0.00827413 0.418678
-0.122347 -0.00746483 0.374457
-0.211912 -0.00730097 0.394601
0.480827 0.00232558 0.385605
-0.154677 -0.00731499 0.388803
0.10836 -0.0123662 0.431444
0.265573 -0.00900195 0.34984
-0.388997 -0.00145104 0.386113
-0.177422 -0.0178177 0.410515
-0.21205 -0.0150326 0.343684
0.00528726 -0.035776 0.495049
-0.472148 -0.00409975 0.397709
-0.00368805 -0.0161259 0.427267
-0.071173 -0.0178285 0.371075
0.044212 0.0383437 0.0333541
0.102112 -0.00730011 0.407726
0.252575 -0.0156744 0.42536
-0.23092 -0.0139894 0.334852
-0.00292293 0.0130931 0.0696459
0.335455 -0.0133357 0.398862
-0.265868 -0.0168593 0.36536
-0.00843692 -0.0168722 0.399672
0.211264 -0.0169403 0.36021
-0.137799 -0.00728814 0.38951
-0.0481499 -0.0170318 0.359188
0.00706191 -0.0352034 0.123187
-0.00946508 -0.0416038 0.221527
0.205938 -0.00745258 0.382288
-0.211261 -0.00919847 0.352789
-0.0193112 -0.0165707 0.424149
0.37911 -0.00970851 0.351206
0.0328688 0.0415371 0.0127949
-0.142107 -0.00852753 0.421177
-0.0827775 0.0416897 0.0142649
0.0271084 -0.0073162 0.411823
0.368187 -0.0031272 0.404085
-0.283531 -0.0148367 0.35529
0.16173 -0.0179473 0.405861
0.255033 -0.0118374 0.329592
-0.191917 -0.0172989 0.363102
0.198812 -0.00774324 0.365263
0.0317734 0.0432571 0.0309298
-0.236368 -0.00849959 0.359126
0.224677 -0.0167361 0.420108
-0.456667 -0.00257352 0.327095
0.0312213 -0.0180565 0.385574
0.00420303 -0.00404019 0.0357994
-0.113467 -0.0178124 0.412853
-0.0318415 -0.0181528 0.403245
0.210114 -0.0128722 0.324938
-0.306555 -0.0150326 0.390389
-0.324686 -0.00813916 0.333047
-0.088151 0.0383922 0.0425356
-0.0166157 -0.0179494 0.376021
-0.256109 -0.00917521 0.42429
0.461026 -0.00662622 0.377557
0.0335798 -0.0116201 0.329827
-0.0760094 -0.0180672 0.390095
0.309463 -0.0134054 0.415039
0.12766 -0.00744555 0.376399
0.12541 -0.0179858 0.387804
-0.308431 -0.00530154 0.408009
-0.425911 -0.00839997 0.390655
0.00374023 0.0211865 0.0586441
-0.055893 -0.0101487 0.342826
0.314345 -0.0133316 0.355257
0.227556 -0.00956145 0.349824
0.307047 -0.0102149 0.325686
0.441904 -0.00189428 0.338536
-0.0633543 -0.0165023 0.354769
-0.0239256 -0.0161031 0.35087
-0.140711 -0.00854747 0.357647
0.244663 -0.0169851 0.360969
0.0195857 -0.00711281 0.393462
0.00402954 -0.0170699 0.033501
0.0118117 -0.0413607 0.4165
-0.373199 -0.0113452 0.380127
-0.375216 -0.00222152 0.37431
-0.0669874 -0.0106003 0.339035
0.383848 -0.00742246 0.334139
-0.0430459 0.0383048 0.0363684
0.416349 -0.00800428 0.400469
-0.303491 -0.0150512 0.379093
-0.00471466 -0.0431521 0.121134
-0.221941 -0.00826812 0.360971
-0.367187 -0.003654 0.407164
0.275781 -0.0146632 0.350513
0.0613252 -0.0171644 0.419683
-0.259741 -0.00732238 0.373517
0.296966 -0.0155216 0.388627
-0.284772 -0.00628381 0.409498
-0.219525 -0.0153305 0.346349
-0.48063 -0.00540609 0.385533
0.397684 -0.00276489 0.348878
-0.0103684 -0.0339558 0.337477
-0.39531 -0.0101235 0.376855
0.0139088 -0.0341563 0.401028
-0.00564619 -0.0108914 0.480013
-0.00309148 -0.0205618 0.268057
-0.0837657 -0.0100455 0.427947
0.00440117 -0.00249548 0.0630704
0.453109 -0.00570735 0.34809
-0.408546 -0.00415875 0.408102
0.096347 -0.00980203 0.34628
-0.013617 -0.0183123 0.50224
0.392307 -0.0101669 0.368215
0.23954 -0.0179156 0.391719
-0.357766 -0.0121327 0.37733
0.191431 -0.0171073 0.361436
0.18136 -0.0141488 0.335684
0.199906 -0.00731928 0.402643
-0.00112854 -0.0179233 0.372705
-0.0363384 0.0382203 0.0416399
-0.222294 -0.0136252 0.429027
0.0132602 -0.0349281 0.506288
-0.178392 -0.009166 0.352705
-0.399632 -0.00966389 0.397477
0.215873 -0.00843491 0.41951
-0.15605 -0.00753935 0.371417
0.281031 -0.0161984 0.375101
0.264303 -0.00696125 0.404773
-0.147012 -0.0158516 0.35006
-0.225693 -0.0175111 0.365316
0.209922 -0.0178711 0.406826
0.478592 -0.00514651 0.390343
0.235103 -0.00881774 0.421721
-0.209363 -0.0178921 0.387401
0.115986 0.0429744 0.032094
0.00461107 -0.0171778 0.49867
0.120289 -0.0149737 0.342154
0.234988 -0.00823598 0.361395
-0.408364 -0.000691583 0.388185
-0.00965263 -0.0395267 0.507587
-0.141012 -0.00991765 0.345774
0.124462 -0.0105006 0.428234
-0.437912 -0.00773931 0.368819
-0.0750393 -0.00751653 0.366528
-0.101818 0.0416973 0.0561646
-0.00375184 -0.0372819 0.0953224
0.241743 -0.0177349 0.377804
-0.283584 -0.0162736 0.391585
0.256112 -0.00823379 0.418177
-0.00752709 -0.041279 0.157503
-0.12259 -0.0131103 0.326029
0.00788098 -0.0104798 0.454212
0.369187 -0.00747021 0.328702
-0.188789 -0.0180113 0.400846
-0.0388552 -0.0074157 0.371416
0.16668 -0.0108019 0.338396
0.0548127 0.0389009 0.0571108
-0.0392556 0.0426554 0.0235643
-0.0265493 -0.0180927 0.388016
-0.129905 -0.0179611 0.407117
0.0719744 -0.0169594 0.420862
0.314216 -0.00632229 0.415561
-0.118607 -0.0110387 0.33581
0.0466582 -0.00728948 0.381907
0.0496913 -0.0166926 0.356266
-0.00697364 -0.0103665 0.449816
-0.015455 0.0382682 0.031127
-0.372804 -0.0082673 0.336416
0.195518 -0.00915867 0.352959
-0.130224 -0.00735454 0.408811
0.00516657 -0.0433927 0.187356
0.43094 0.00023285 0.373334
-0.30293 -0.0140554 0.413915
-0.264032 -0.0170814 0.410471
0.322841 -0.0138976 0.369644
0.424216 -0.00659571 0.403805
-0.0400831 0.0432678 0.0531277
0.368698 -0.00490665 0.342992
-0.136267 -0.0100959 0.427445
-0.195881 -0.0126733 0.323056
-0.0515983 0.0420178 0.0174246
-0.0105694 -0.0423328 0.425713
-0.195208 -0.0104512 0.341753
-0.0855742 -0.0180742 0.391431
-0.00647087 -0.0125704 0.508274
-0.0299884 0.0426683 0.0599445
0.394157 -0.00204685 0.355907
-0.0678529 -0.0181888 0.398914
-0.213763 -0.00764309 0.413894
0.00144786 0.0434462 0.0380746
0.0697587 -0.0072729 0.408322
0.00768277 -0.0386344 0.145663
-0.333608 -0.0133539 0.37204
-0.00140614 -0.0301953 0.328867
0.00532573 -0.028888 0.0989161
0.00886251 -0.0290206 0.179666
0.199408 -0.00754912 0.41195
-0.141235 -0.0139338 0.333374
-0.00308518 -0.0283903 0.400515
0.446606 -0.00736982 0.383921
-0.00496611 -0.0409357 0.0738447
0.294568 -0.00719755 0.417932
0.368322 -0.0116321 0.382208
0.476525 -0.00550362 0.356547
-0.110673 -0.0175462 0.364342
-0.0766501 -0.00996829 0.34462
-0.0407171 -0.0178326 0.36889
-0.00290587 -0.0158882 0.434769
-0.00307464 -0.00726954 0.379875
0.120437 -0.0180733 0.394224
0.0135275 -0.0216508 0.323454
-0.179517 -0.00734675 0.388368
-0.0971991 -0.0166589 0.42245
0.136476 -0.00739944 0.380722
-0.0902463 -0.00857426 0.356853
-0.013739 -0.0237021 0.351708
0.0639157 0.0433025 0.0446464
0.417798 -0.00890074 0.375069
0.0392392 -0.0180156 0.383047
0.0386315 -0.00706491 0.398765
0.165041 -0.00879485 0.422584
0.0919603 -0.00903316 0.425188
-0.171411 -0.00909096 0.424416
-0.168761 -0.00741839 0.381898
-0.416912 -0.000370897 0.389613
0.261644 -0.0174733 0.393861
-0.399131 -0.00376875 0.340359
-0.35064 -0.00336644 0.369517
-0.004921 -0.0367999 0.0631458
-0.0740678 -0.0171959 0.419295
0.0692387 -0.0180527 0.388406
0.144259 -0.017877 0.410115
-0.162897 -0.0179334 0.406509
-0.368986 -0.0100096 0.34954
0.141187 -0.0178986 0.382297
-0.00122718 -0.0174025 0.531216
-0.242591 -0.00761866 0.372351
-0.140597 -0.0175548 0.416002
0.050382 0.0432139 0.0328571
0.109487 0.0385679 0.0468144
0.0817192 -0.0181296 0.395435
-0.246059 -0.0104368 0.342443
0.0299337 0.0409668 0.0643299
-0.0128877 -0.0255395 0.519152
-0.290242 -0.0113621 0.328061
-0.01371 -0.035388 0.479859
0.00841895 -0.0283903 0.434837
-0.0100585 -0.0081025 0.36005
-0.133843 -0.0155563 0.347354
0.357048 -0.00540347 0.34347
0.184329 -0.0123156 0.325473
0.350596 -0.0123056 0.361878
0.00396375 0.0126238 0.0377988
-0.0118117 -0.0284261 0.423453
0.238591 -0.0109157 0.33821
-0.441942 -0.00488033 0.337146
-0.0123225 -0.0386025 0.279697
-0.0819071 -0.00737449 0.411454
-0.246529 -0.00729263 0.398097
0.00653336 -0.025401 0.169661
-0.411724 -0.00773172 0.347845
-0.00444865 -0.0184355 0.331672
-0.0136308 -0.0371046 0.493332
0.342934 -0.00403607 0.405693
-0.0672037 -0.00864572 0.423027
0.259338 -0.0173625 0.375625
0.363825 -0.0116053 0.362325
-0.348701 -0.0107634 0.347507
0.0923366 0.0430182 0.0286879
0.00551556 -0.0283903 0.380165
0.376034 -0.00670173 0.325362
0.293065 -0.00566217 0.388418
-0.003538 0.028773 0.0272471
0.0952829 -0.0178594 0.375464
0.0140083 -0.0301111 0.365832
-0.00140614 -0.0267209 0.307842
-0.00426139 0.00604341 0.0524895
0.273043 -0.00675227 0.372245
0.227258 -0.0179255 0.391482
-0.00234482 -0.043496 0.405685
0.427628 -0.00130693 0.348717
0.0338352 -0.0163084 0.35276
-0.180066 -0.00975655 0.426407
0.00994191 -0.0316484 0.20627
-0.157506 -0.00724692 0.401515
-0.458134 -0.00630099 0.392353
0.105727 0.0429452 0.0264425
0.46667 -0.00501893 0.348043
0.0148619 -0.018031 0.382245
-0.0040375 0.0167571 0.0485435
-0.00186944 0.011232 0.016093
0.0607186 -0.0148583 0.340492
0.201456 -0.0154208 0.346931
-0.00458512 -0.0434188 0.366021
-0.093218 0.0430884 0.0350347
-0.0673353 -0.0074616 0.414224
-0.310969 -0.0081194 0.33885
-0.149444 -0.0163913 0.423435
-0.28131 -0.0101524 0.333407
-0.2231 -0.00728859 0.399602
0.287899 -0.0144817 0.354058
-0.459906 -0.00107914 0.337956
-0.482587 0.0012106 0.347174
0.294329 -0.0124934 0.339541
0.00472792 -0.0289342 0.0439304
-0.144761 -0.0120956 0.4306
-0.00960519 0.0432721 0.0295034
0.0772909 0.0432383 0.0431644
-0.277297 -0.00647618 0.379149
-0.105976 -0.00754684 0.36671
0.01619 0.0434279 0.0524527
0.357537 -0.0120099 0.400385
0.0111678 -0.0173606 0.419133
0.269047 -0.0116269 0.325663
0.000646726 -0.0435544 0.292625
-0.0856439 -0.0171114 0.419677
-0.22498 -0.0090574 0.354164
-0.00201469 -0.0382942 0.523509
-0.0982961 0.0416949 0.0143149
-0.0387823 -0.0120016 0.431625
-0.195903 -0.00759715 0.413317
0.346124 -0.0128209 0.394388
0.013947 -0.0291777 0.410625
0.169661 -0.0162218 0.35352
0.448127 -0.0050811 0.401162
-0.246188 -0.0163673 0.422195
-0.0265081 0.0400038 0.01322
-0.336302 -0.0132768 0.399444
0.00807649 -0.0400059 0.158732
-0.479663 0.00245102 0.377982
0.121282 -0.00955952 0.348659
-0.00448841 -0.0173707 0.0776329
0.00427404 -0.00172854 0.0430066
-0.00774077 -0.0238906 0.3233
-0.477495 -0.00559712 0.366852
-0.410521 -0.0087582 0.356234
-0.268218 -0.0154931 0.420723
0.195742 -0.00731059 0.392522
-0.00651253 -0.0433171 0.381257
-0.00170066 -0.0136582 0.0147394
-0.0215713 -0.00910541 0.351487
-0.00993332 -0.0269744 0.211679
-0.157952 -0.0135327 0.330084
-0.0136667 -0.0387827 0.357452
-0.00642157 -0.0296339 0.114396
-0.000921616 -0.0434887 0.247744
0.0226 -0.00743494 0.368577
0.0469494 -0.01507 0.342174
-0.00484394 -0.0345637 0.0461812
-0.469585 0.001466 0.354244
0.299624 -0.00605937 0.361066
0.461544 0.00146934 0.364832
-0.0288646 -0.0143406 0.335651
0.00499144 -0.0407644 0.306458
0.30868 -0.00809351 0.340014
0.0850117 0.0431145 0.0347946
0.329481 -0.00823167 0.330276
0.184426 -0.0163749 0.355011
0.00334314 -0.018381 0.366213
-0.229366 -0.0162355 0.423294
0.325491 -0.0126371 0.353945
-0.207038 -0.00760153 0.370764
0.00668513 -0.0111164 0.333893
0.0342871 -0.0182033 0.397285
-0.0606852 0.0425687 0.0227295
0.0315464 0.0382035 0.0416325
-0.0092192 -0.0375189 0.188493
0.145991 -0.00929786 0.351202
0.181794 -0.00747089 0.378876
-0.102272 -0.00783864 0.417274
-0.0138393 -0.0343033 0.376105
-0.261008 -0.0147196 0.344764
-0.449218 -3.84701e-05 0.350313
-0.246666 -0.0177819 0.381874
0.100256 -0.00940858 0.426728
-0.0900381 0.0416019 0.0134192
0.0138272 -0.0258804 0.332801
-0.445789 -0.00740532 0.384423
-0.388451 -0.00165504 0.372986
-0.00638402 0.0381472 0.0388517
0.323357 -0.0138173 0.405278
0.261421 -0.0168254 0.363189
-0.0597461 0.0382998 0.0469929
-0.00320909 0.0203479 0.0634523
-0.0118117 -0.0344238 0.388508
0.156626 -0.0072663 0.39276
-0.384224 -0.00175486 0.391603
0.148921 -0.0165145 0.355826
-0.00541984 -0.0283903 0.454195
0.429573 -0.00275327 0.336565
