-0.370366 -0.00298453 0.403536
0.467921 -0.00626754 0.37918
-0.357069 -0.0122808 0.385972
-0.392897 -0.00142464 0.375364
-0.0936973 -0.0139029 0.332578
-0.00807381 -0.0240696 0.320603
0.000736206 -0.0179901 0.377891
-0.0025282 -0.0405544 0.0219113
-0.340975 -0.00811752 0.326546
0.0121439 -0.0421413 0.340562
-0.106206 -0.0170939 0.360373
0.0143472 -0.0177035 0.416859
-0.292433 -0.0143681 0.354987
-0.212231 -0.0118123 0.330145
0.360788 -0.0119695 0.395726
-0.312852 -0.0143748 0.365631
-0.00440706 -0.0424296 0.488842
0.440108 0.000457433 0.360136
0.209587 -0.0104698 0.427238
-0.00666415 -0.0161888 0.426815
-0.00689725 -0.0424518 0.385996
-0.290803 -0.00702797 0.416194
0.1359 -0.0101842 0.427593
-0.150893 -0.00808216 0.418154
-0.0692227 -0.00710071 0.398488
0.148016 -0.0179738 0.388732
0.305144 -0.00835082 0.339236
-0.0118117 -0.0323468 0.377649
-0.390438 -0.0101672 0.361159
-0.0495124 -0.00747753 0.36747
-0.00833191 -0.0112725 0.332559
-0.0175097 -0.0156493 0.346866
0.0118117 -0.0376781 0.414854
0.355831 -0.0123282 0.384518
-0.226572 -0.0178245 0.408212
-0.103995 0.0386243 0.0272603
0.00537961 -0.0234529 0.202746
-0.267879 -0.0107458 0.333779
-0.356049 -0.00297733 0.381071
0.00973988 -0.0432281 0.329595
0.0577607 0.0384092 0.0318065
-0.449099 0.000951606 0.389013
-0.146372 -0.0179408 0.386017
0.00897842 -0.0231445 0.230316
-0.476074 0.00202367 0.358475
0.24197 -0.00758751 0.374729
0.00364015 -0.0433492 0.113494
0.309578 -0.0115393 0.337711
-0.149719 -0.0105734 0.340188
0.13943 -0.00737459 0.382902
0.0285054 -0.0126996 0.321425
-0.0115435 -0.042515 0.32611
0.395801 -0.00987813 0.360976
0.2052 -0.0177154 0.412217
-0.32624 -0.0137662 0.373534
-0.23021 -0.0085859 0.420285
-0.0388741 0.0432348 0.0311666
-0.349353 -0.00334938 0.375271
-0.102539 0.0421224 0.0184326
-0.00643108 -0.0424518 0.386881
0.216072 -0.0130558 0.430021
-0.00442192 -0.00316894 0.0635623
-0.294252 -0.00994603 0.329882
0.00413025 -0.0342296 0.331852
0.0720812 0.0384479 0.0506529
0.00608497 -0.0431003 0.163352
0.0131381 -0.00791065 0.41903
-0.239121 -0.007307 0.396367
0.00413449 -0.0193927 0.297406
0.299621 -0.0151295 0.369094
-0.0489179 -0.0180872 0.389424
0.110627 -0.00754094 0.414794
0.351908 -0.008242 0.327931
-0.0852529 -0.0155501 0.34676
-0.208561 -0.00762602 0.368978
0.0734475 -0.00939834 0.349524
0.457153 -0.00684737 0.380488
0.229963 -0.0178728 0.405488
-0.0926303 0.0384543 0.0385207
-0.178014 -0.0176907 0.413796
0.112022 0.0424557 0.0216426
-0.391078 -0.00734057 0.336361
-0.00459992 -0.0202477 0.276842
-0.205889 -0.0115293 0.332528
-0.0119091 -0.0268716 0.266141
0.00619554 -0.0267029 0.314642
-0.0218337 -0.0143194 0.335389
-0.0137871 -0.0335877 0.468995
-0.307598 -0.00517722 0.404017
-0.00433181 -0.0337729 0.0894497
0.13528 -0.0120381 0.327334
-0.336166 -0.0127393 0.359339
0.389911 -0.00856698 0.345873
-0.33412 -0.0134492 0.396866
0.138974 -0.0177532 0.370776
-0.185531 -0.0180125 0.394836
-0.406802 -0.00196819 0.351608
0.155378 -0.0177348 0.413428
-0.219217 -0.00761375 0.370812
0.0818564 -0.0149742 0.341731
0.406794 -0.00198967 0.403033
-0.00821723 -0.022255 0.237668
0.425943 -0.00827497 0.361466
-0.0136752 -0.0383034 0.364681
-0.340989 -0.0124397 0.358779
0.1707 -0.0108307 0.338191
0.0103881 -0.0283903 0.37334
-0.0710506 0.0431911 0.0371797
0.308697 -0.00587024 0.411779
0.0907035 0.0384353 0.0395823
-0.0152932 -0.0167454 0.356341
0.00365964 -0.0165156 0.35422
0.0103656 -0.0428938 0.43989
0.0766972 0.0431859 0.0384494
0.1364 -0.00764313 0.415511
-0.361015 -0.00973424 0.343788
-0.00186249 -0.0183313 0.321431
0.0251305 -0.0177526 0.416384
-0.0117641 0.0391915 0.0210429
-0.0399109 0.0414175 0.0116437
-0.388895 -0.00179307 0.360696
0.287994 -0.00595234 0.403205
0.00356065 0.00942224 0.0677648
0.123651 -0.00885851 0.423596
0.00104424 -0.0219533 0.234563
-0.126746 -0.0124287 0.323853
-0.00991575 -0.0425201 0.265321
0.335893 -0.00398377 0.372074
-0.000845609 0.0085573 0.0073289
0.476231 6.9363e-05 0.340654
-0.472468 0.00160944 0.354252
0.415413 -0.000939049 0.356367
0.201487 -0.00728501 0.394988
-0.00338485 0.0119713 0.0269752
0.0284178 0.0389966 0.0606924
0.17968 -0.00882096 0.422542
-0.251238 -0.0107066 0.340163
0.0959856 -0.00740873 0.376663
0.0838744 -0.0150574 0.428238
-0.00140614 -0.0369087 0.325149
-0.172139 -0.0148477 0.341639
-0.00378602 -0.0434318 0.301706
-0.343081 -0.00422266 0.406932
-0.170761 -0.00916984 0.352587
-0.0264045 -0.0178458 0.414989
-0.0108627 -0.0152387 0.343234
0.117102 0.0426988 0.0239832
0.0435956 -0.00741767 0.371653
0.307043 -0.00634227 0.41448
-0.123245 -0.00756115 0.367015
0.150224 -0.00757054 0.414199
-0.22928 -0.0177778 0.380127
0.296804 -0.00844187 0.341871
0.0536216 -0.0172126 0.419482
-0.253673 -0.00763454 0.370034
-0.316063 -0.00459755 0.393048
-0.253305 -0.0175916 0.413485
-0.448754 -0.000175574 0.398212
-0.00831803 -0.0395411 0.165053
0.00460046 -0.00814225 0.0603384
-0.258769 -0.0105907 0.338864
0.0369697 -0.0179818 0.38022
0.00695056 -0.0267029 0.329342
-0.102918 0.0384993 0.0449498
-0.0116757 -0.0283903 0.373362
-0.370081 -0.0115613 0.389885
-0.319845 -0.0087113 0.420334
-0.155282 -0.0114211 0.332903
0.0488333 -0.00723937 0.407879
-0.0126461 -0.0123062 0.323647
-0.104945 -0.0180677 0.392515
0.390813 -0.00151374 0.392991
-0.319935 -0.0131337 0.355903
-0.0575554 -0.00733993 0.378867
0.296458 -0.00571448 0.372678
0.189912 -0.0156399 0.348702
-0.286592 -0.0160789 0.388926
0.346268 -0.00338239 0.383088
-0.00139336 -0.0283903 0.416243
0.00832068 -0.0322414 0.160916
0.132055 -0.0142988 0.336436
-0.01019 -0.0343769 0.21274
0.297753 -0.015505 0.390608
0.0140452 -0.0272156 0.496721
-0.156969 -0.00734433 0.406617
-0.00760948 -0.018568 0.347683
-0.356231 -0.00473162 0.349508
-0.00209839 -0.0386343 0.0181863
-0.230962 -0.0135512 0.331055
-0.237018 -0.01506 0.426532
-0.322086 -0.00471017 0.40652
-0.0702338 0.0432495 0.0419825
0.0116822 -0.0422973 0.348837
0.32008 -0.00706053 0.344286
-0.276946 -0.0111692 0.326386
-0.120294 -0.00751399 0.413761
0.00463913 -0.016403 0.0718362
0.483211 -0.00180229 0.329259
-0.23114 -0.012046 0.32833
0.365272 -0.00263493 0.376259
0.00252054 -0.0376825 0.525261
0.181301 -0.0145228 0.338924
-0.0798859 -0.0173132 0.418449
0.320439 -0.00831477 0.419664
0.284191 -0.00994979 0.333981
0.0138571 -0.0331141 0.463793
-0.00430181 -0.00595454 0.0712204
0.0603827 -0.0143382 0.335981
-0.173314 -0.0178436 0.409986
-0.00833757 -0.0424518 0.381511
0.00784575 -0.0282245 0.154587
0.348987 -0.0124822 0.401085
-0.0453388 -0.0169418 0.358377
-0.372972 -0.0111694 0.366063
-0.00720591 -0.0180885 0.386097
-0.00110795 -0.0190629 0.302392
-0.163085 -0.00755583 0.37071
-0.327229 -0.00425601 0.399238
-0.0351389 -0.0162562 0.425965
0.0137899 -0.0185109 0.44447
0.004566 -0.0169704 0.046463
0.0242503 -0.0145226 0.337177
-0.0703721 -0.017986 0.40952
0.00994688 -0.0304225 0.519301
-0.0749974 -0.00751851 0.36637
0.111416 -0.0082764 0.419987
-0.256987 -0.00714746 0.396621
0.0106796 -0.0178645 0.368907
-0.362494 -0.0109629 0.355061
-0.190231 -0.0149082 0.342364
-0.00938926 -0.0133463 0.326818
0.0348112 -0.0144433 0.336607
-0.326123 -0.00905313 0.324535
-0.0806529 -0.00949255 0.348788
-0.102537 0.0428809 0.0257374
-0.38856 -0.005192 0.332364
0.00738791 0.0382141 0.0565301
-0.199244 -0.0171816 0.362167
0.417616 -0.00601792 0.336463
-0.406909 -0.00075642 0.388425
0.396057 -0.00136226 0.395064
0.0208017 -0.0141708 0.430379
-0.084553 -0.00728148 0.385651
-0.0698241 -0.0168106 0.357513
-0.00275233 -0.0184124 0.402468
0.00527393 -0.0214297 0.250332
-0.0319853 0.0430082 0.0269623
0.4324 -0.000615303 0.35231
-0.0028859 -0.02025 0.0250114
0.0135791 -0.0178701 0.501147
-0.475569 -0.00358428 0.340269
0.0221347 0.0382079 0.0534755
-0.00950258 0.039314 0.0198625
-0.367047 -0.0116956 0.38185
0.310088 -0.00489108 0.395478
0.0605169 -0.00878383 0.424022
0.00917692 -0.0164281 0.353524
-0.372801 -0.00237916 0.370322
0.0108532 -0.0267029 0.30283
-0.00767046 -0.0297313 0.146221
0.0274673 -0.00729304 0.380049
0.0399197 0.0430383 0.0561842
0.00325937 -0.0395298 0.028084
-0.242794 -0.00942289 0.351195
-0.0603724 0.0432685 0.0477758
0.0760801 -0.00740017 0.375693
0.148205 -0.00868074 0.422085
-0.00424266 -0.0293383 0.0366588
-0.347336 -0.0101881 0.414189
-0.00178024 -0.0349496 0.015429
0.412159 -0.000479034 0.38188
0.00823028 0.0387099 0.0256799
-0.0036757 -0.00756792 0.0776432
0.00412683 -0.0283903 0.419479
-0.00176805 -0.0166736 0.423733
0.0776195 0.0432244 0.0448973
-0.123708 -0.00891055 0.354311
0.00419377 -0.0267029 0.318628
0.00349297 -0.025152 0.161178
0.439358 0.000701151 0.380085
0.0705327 -0.0161962 0.425844
0.000520735 -0.043549 0.36514
0.017431 -0.00741559 0.369661
0.0199297 -0.0178539 0.36884
-0.0118117 -0.0330694 0.32194
-0.230901 -0.00765262 0.368741
-0.11927 -0.00971454 0.347293
0.0121243 -0.0218837 0.519383
0.243831 -0.0179042 0.402993
0.134419 -0.00739444 0.380942
0.0980645 0.0384568 0.0399562
0.0140565 -0.0310379 0.359061
0.0298354 0.0384355 0.0564843
-0.219057 -0.0173416 0.416254
-0.0118117 -0.0323702 0.414765
-0.0405896 -0.0147219 0.339086
-0.000505388 -0.0435196 0.17727
-0.0221905 -0.0128108 0.322318
0.197882 -0.01692 0.359885
-0.0978158 0.039973 0.0135172
-0.428659 -0.000447373 0.355088
-0.47602 -0.00558299 0.387751
-0.464531 0.00178481 0.377813
0.286131 -0.0078176 0.351664
-0.0599155 0.0405407 0.0613345
-0.470425 -0.00603374 0.383552
-0.0118117 -0.0329581 0.333264
-0.274208 -0.00639354 0.396041
-0.013857 -0.0341007 0.362752
0.0976384 0.0392377 0.054852
0.128884 -0.00739179 0.380693
0.0118117 -0.0372751 0.3791
0.167382 -0.0176836 0.367689
-0.0274497 0.0407644 0.00589527
-0.0121501 -0.011972 0.326538
-0.00308785 -0.00596013 0.0263444
-0.165411 -0.00725661 0.394238
0.334706 -0.0039467 0.379043
-0.0456365 -0.0072613 0.384021
0.0974727 -0.0164338 0.423909
-0.00635002 -0.0212268 0.254791
-0.00262693 -0.0426867 0.48036
-0.149295 -0.0167705 0.358049
-0.00586901 -0.0256341 0.155238
-0.32313 -0.00874677 0.328419
0.432299 -0.00238889 0.338376
0.0852193 0.0428458 0.0526125
0.254069 -0.00751285 0.378163
-0.231906 -0.0157633 0.425446
-0.219376 -0.00739403 0.405323
0.182116 -0.0108786 0.337903
-0.311544 -0.00614684 0.35571
0.406405 -0.0058853 0.330972
-0.186727 -0.0177716 0.37614
0.148841 -0.00747503 0.375842
-0.0049989 -0.036635 0.055556
-0.00940754 -0.0186455 0.358201
-0.011927 -0.0346201 0.263342
0.00113137 -0.00926656 0.390127
-0.00771076 0.0405986 0.00749205
-0.0675387 0.0383236 0.0421982
-0.0608219 -0.00756433 0.365279
-0.000235448 0.0290676 0.00204084
-0.0136775 -0.0149456 0.444718
0.195742 -0.0121359 0.327158
-0.0589642 -0.0076594 0.364434
0.443009 -0.000848178 0.346348
-0.182127 -0.0172495 0.417386
-0.011119 -0.0132616 0.502433
-0.250543 -0.0130177 0.326649
-0.128903 -0.0149898 0.34239
0.0628668 0.038444 0.0303453
0.00803663 -0.0433 0.278335
0.0333575 -0.00712598 0.393569
0.0132114 -0.00935472 0.349233
-0.0647622 0.0385293 0.0274201
-0.0308074 -0.00708561 0.396508
-0.00331753 0.006228 0.0713211
0.154005 -0.0110956 0.33571
0.302489 -0.0152505 0.390468
-0.433969 0.000388779 0.374872
0.013744 -0.0383911 0.329399
-0.422933 -0.00789754 0.354016
-0.188483 -0.0130941 0.326621
-0.13755 -0.0152677 0.344894
-0.270144 -0.00748985 0.415733
0.0148293 0.0382727 0.0567664
0.327567 -0.0138166 0.382989
0.0124197 -0.0420328 0.333176
-0.422512 -0.00726734 0.348376
-0.231088 -0.0149172 0.342896
-0.0370606 -0.00707606 0.397766
0.22521 -0.00761669 0.371076
0.000181524 -0.0433434 0.450824
0.00750655 -0.0347214 0.135586
-0.117459 -0.0180496 0.392128
-0.32829 -0.00938066 0.327537
-0.223397 -0.0103211 0.343194
-0.189212 -0.00738789 0.385958
-0.000850816 -0.0276435 0.0962447
-0.269149 -0.0168598 0.408467
0.0194424 -0.0181509 0.391977
-0.00371704 0.0293269 0.0507193
0.354727 -0.0123084 0.378377
0.083719 -0.0139441 0.332824
-0.261727 -0.0167514 0.362677
-0.13729 -0.0153218 0.427214
0.013507 -0.0210186 0.504055
0.344399 -0.00347826 0.382165
-0.3265 -0.0136445 0.365543
-0.435621 -0.00795389 0.375385
-0.408156 -0.00469711 0.408921
0.0547608 -0.00760252 0.364881
0.268027 -0.00782858 0.359002
0.216413 -0.0115852 0.428975
0.227191 -0.00741571 0.386909
0.140636 -0.017925 0.384312
-0.413955 -0.00140957 0.400475
-0.0862997 -0.00719805 0.392302
0.301845 -0.00523323 0.395561
0.00451442 -0.0111626 0.498042
-0.106063 -0.0157725 0.348918
0.175857 -0.00741969 0.38238
-0.0419987 0.0404707 0.00872372
0.109614 -0.00888416 0.354383
0.0137938 -0.0268472 0.410014
0.204643 -0.0166841 0.420736
-0.00901206 -0.0215203 0.257993
-0.0224524 -0.00719841 0.407391
-0.00699425 -0.0425228 0.477118
-0.00367943 -0.0424518 0.398268
-0.338655 -0.0130087 0.403079
0.00109983 -0.00702835 0.39853
-0.180885 -0.0158308 0.350256
0.385982 -0.00329857 0.407842
0.0789557 -0.00908065 0.425685
-0.00505289 -0.0380609 0.0579002
0.000208833 -0.0435695 0.189029
0.138832 -0.0177261 0.414224
-0.13858 -0.00963719 0.426674
0.332153 -0.0131847 0.406063
0.337221 -0.0049143 0.355463
-0.0895427 -0.01103 0.335563
-0.248173 -0.0171074 0.362068
0.111685 -0.00774987 0.364237
0.236447 -0.0177322 0.377163
0.227507 -0.00785307 0.36463
-0.101026 0.0426574 0.0235844
0.177229 -0.0139594 0.333996
0.0139451 -0.0328308 0.428257
-0.00350571 0.0413778 0.0437023
0.211236 -0.0126599 0.323111
0.434988 -0.00784995 0.391128
0.00429187 -0.00966894 0.0356448
0.259764 -0.017538 0.401968
0.27947 -0.0107845 0.328684
0.311202 -0.0113638 0.336875
-0.00216961 -0.0193858 0.295519
-0.0104631 -0.0136035 0.329058
-0.149537 -0.013911 0.333269
0.0305796 -0.0181841 0.395477
0.0518924 -0.0178844 0.37385
0.0088775 -0.0417574 0.501126
-0.301343 -0.00949723 0.422603
0.00677889 -0.0424518 0.416153
0.225043 -0.0177358 0.376506
0.0472857 -0.0178604 0.371597
-0.127843 -0.0133005 0.327737
-0.0120395 -0.03256 0.264063
-0.402535 -0.00248439 0.405358
-0.391001 -0.010412 0.381421
-0.422419 -0.000125118 0.374732
-0.00172421 -0.0433903 0.156037
-0.381512 -0.0106685 0.362895
-0.396127 -0.00776585 0.341713
-0.212517 -0.0108539 0.338456
0.313983 -0.00983645 0.325455
0.0487663 -0.0127632 0.322201
0.011995 -0.0203164 0.429855
-0.413506 -0.000416215 0.382102
0.0180533 -0.0160465 0.350314
0.000755986 -0.0435507 0.0792863
0.108573 0.0416895 0.0555355
-0.359429 -0.0118696 0.36442
0.0869964 0.0431468 0.0464369
-0.284763 -0.00691497 0.414489
0.00288081 -0.0434775 0.224459
0.267697 -0.0170087 0.382815
0.314933 -0.00797564 0.338468
0.25427 -0.0164126 0.356591
0.00653517 -0.040223 0.114437
-0.353454 -0.00566386 0.342688
-0.367357 -0.011518 0.369519
0.00839019 -0.0283903 0.378325
0.0907456 -0.00854337 0.422022
-0.00659973 -0.0432925 0.246837
-0.00371086 -0.0424518 0.439914
0.420068 -0.00373371 0.332067
-0.36301 -0.00895117 0.337921
-0.00343619 0.041796 0.015288
0.142247 -0.0167488 0.421216
-0.312103 -0.0147678 0.392945
0.00517785 -0.0102001 0.445938
0.0282041 -0.00808907 0.360368
-0.239919 -0.0174689 0.415124
0.136441 -0.0179576 0.386513
-0.226393 -0.0178393 0.407453
0.00459944 -0.0414339 0.504874
-0.0167037 0.0406795 0.0657005
0.459226 -0.00595474 0.393928
-0.107526 0.0427035 0.0240283
0.174572 -0.0072183 0.397978
-0.457064 -0.00674224 0.385697
-0.219468 -0.0174136 0.415779
-0.201988 -0.0158831 0.350943
-0.467391 -0.00516334 0.395114
0.352678 -0.0118972 0.359013
-0.00297813 -0.0434356 0.270662
0.0135962 -0.02271 0.391313
-0.00297612 0.00394762 0.0247008
0.292647 -0.008544 0.421518
0.115559 0.0419848 0.017107
-0.0587379 0.0425642 0.0226864
0.225087 -0.00844603 0.359464
0.00800198 0.0434539 0.040732
-0.0137163 -0.0354897 0.474604
-0.235854 -0.00758137 0.411532
-0.100763 -0.00905971 0.425234
0.292669 -0.00979881 0.331808
0.280913 -0.00616098 0.398837
0.0658248 0.0391796 0.0211581
-0.235272 -0.00739088 0.38951
-0.285572 -0.0133733 0.343469
0.357473 -0.00283869 0.386428
-0.370889 -0.010843 0.403206
0.389285 -0.00372902 0.408544
0.00826296 -0.0112929 0.494555
0.0348891 -0.0173938 0.362178
-0.0332749 0.041859 0.0158949
-0.192428 -0.0177062 0.371514
0.12635 -0.0085093 0.357818
-0.219302 -0.00727641 0.399206
0.108871 -0.00917805 0.351827
0.281553 -0.0162805 0.383676
-0.0428074 -0.0178458 0.370087
0.174973 -0.00730946 0.390903
-0.265724 -0.0104072 0.337598
-0.367638 -0.00933853 0.411301
0.0412015 -0.0160934 0.350978
-0.43846 0.000597172 0.375535
0.299767 -0.0138472 0.416694
0.373059 -0.00226682 0.377993
-0.00284986 -0.0165022 0.434361
-0.354698 -0.00316456 0.37131
0.206029 -0.00754139 0.411521
-0.189437 -0.00754085 0.374048
0.306635 -0.0150286 0.39521
-0.00533134 -0.0238906 0.321971
0.013992 -0.0288818 0.454839
-0.282696 -0.0116508 0.327344
-0.0560502 -0.0129539 0.323935
-0.147673 -0.00867913 0.356583
0.00189416 -0.0166826 0.0149727
-0.00322834 -0.022088 0.231541
0.152117 -0.0132979 0.327983
-0.135541 -0.00750789 0.413078
-0.0536903 0.0394989 0.0180829
-0.0274522 -0.0098509 0.345091
-0.112798 -0.00740964 0.411305
0.0127244 -0.0407452 0.30454
0.125576 -0.0179366 0.383983
-0.182647 -0.0130016 0.325755
-0.0970866 -0.0166847 0.356725
0.24691 -0.00763464 0.412534
-0.0138956 -0.0276148 0.405542
0.0481488 -0.00727927 0.409997
0.218146 -0.0148573 0.427071
-0.0474149 -0.0177728 0.365602
-0.00808473 -0.0300167 0.157282
0.116628 0.0425413 0.0224666
0.0682167 -0.0154915 0.346063
-0.395679 -0.0099654 0.366699
0.137793 -0.00753451 0.370292
-0.0104466 -0.00751941 0.416527
0.00128203 0.0403655 0.00973655
0.250159 -0.0112085 0.3358
-0.0470698 -0.00727511 0.409848
-0.0761132 -0.017898 0.376901
0.273645 -0.00834181 0.352247
-0.00694468 -0.00926656 0.390238
-0.0622042 0.0398341 0.014855
-0.0064993 -0.0286579 0.12312
-0.00416092 -0.0260441 0.13901
-0.0365872 -0.0145174 0.337269
-0.157717 -0.0127184 0.323024
0.275022 -0.00647508 0.402519
-0.306095 -0.0109514 0.331145
0.0979342 -0.00734205 0.410057
-0.00323135 -0.0101867 0.449411
-0.0638882 -0.00708884 0.398975
0.239379 -0.00828639 0.361007
0.346799 -0.00832672 0.326572
0.0537492 -0.0179885 0.382126
-0.00789201 -0.0412599 0.168287
-0.00370017 -0.0433073 0.136653
0.0678417 -0.0179956 0.383834
-0.0229529 0.0382811 0.0322968
-0.00335746 0.0272157 0.0585356
0.170333 -0.0164262 0.355299
-0.462242 0.00169157 0.38005
0.108558 0.0421053 0.018268
0.0118117 -0.0345497 0.382926
-0.323968 -0.0126076 0.413454
-0.265609 -0.00955229 0.345055
-0.193077 -0.00955669 0.349482
-0.448475 0.000768556 0.392457
0.150788 -0.00725483 0.393175
0.203942 -0.00846756 0.419894
-0.332406 -0.00828137 0.328644
0.403528 -0.00889699 0.40067
-0.240214 -0.0163625 0.355523
0.137754 -0.0179382 0.407819
-0.159262 -0.0138463 0.429368
-0.00610236 -0.0227285 0.218545
-0.152874 -0.0142745 0.336456
0.0511006 0.039516 0.0179182
-0.229417 -0.0177488 0.410519
0.0131381 -0.0378892 0.500634
-0.344832 -0.00894917 0.330697
0.186825 -0.0130107 0.32588
-0.200055 -0.0114038 0.333551
-0.00698507 -0.0424275 0.162689
-0.418665 -0.00087575 0.355601
-0.00485698 -0.0433494 0.242805
-0.0529898 -0.01699 0.35888
0.223387 -0.00744711 0.407837
-0.100448 -0.00752687 0.367813
-0.468482 -9.36505e-05 0.342385
-0.00733609 -0.0433123 0.305304
-0.204746 -0.0144054 0.338167
0.125903 -0.0179527 0.385265
-0.0315327 -0.00897752 0.4257
0.371764 -0.0111824 0.362412
-0.00645655 -0.0421679 0.133923
0.129089 -0.0179939 0.388741
-0.0307236 0.0418265 0.0155816
0.158605 -0.00736207 0.385455
-0.348801 -0.00335493 0.376736
0.00976681 0.0382313 0.032596
0.00842061 -0.0185559 0.329794
-0.0869309 0.0391483 0.0553793
-0.468824 -0.00610706 0.370167
-0.0295351 0.0381753 0.0434703
-0.0426549 -0.0140622 0.333391
0.00681375 0.0409537 0.00717723
0.439896 0.000593081 0.388644
-0.200262 -0.00739187 0.386555
-0.455187 -0.006689 0.359777
0.268184 -0.00722493 0.413677
0.310034 -0.0140467 0.359635
0.04638 -0.00715752 0.403779
0.19609 -0.00919726 0.352631
-0.061932 -0.0141876 0.334692
-0.0206128 0.0422186 0.0629574
0.244479 -0.00757003 0.410941
-0.0139114 -0.0330911 0.436481
-0.128046 -0.0177233 0.367552
0.368012 -0.00654988 0.414151
0.0138767 -0.0266182 0.506452
-0.00462171 -0.0222073 0.0450257
0.427462 -0.00309599 0.405358
0.286825 -0.0106153 0.327131
0.0117736 -0.0134011 0.327319
0.0118117 -0.0311566 0.428657
0.107909 -0.0176863 0.415619
-0.0788991 -0.0176735 0.365092
0.272341 -0.00839853 0.421983
-0.26034 -0.0124827 0.325094
-0.326801 -0.00730675 0.339393
0.0130006 -0.0108287 0.336456
-0.00545554 -0.00713746 0.390376
0.308334 -0.0085061 0.33658
0.430813 -0.00700598 0.349617
0.134219 -0.0177786 0.413018
-0.353258 -0.00798846 0.326468
-0.0106224 0.0433407 0.05677
-0.120904 -0.0179705 0.407189
-0.331346 -0.00394091 0.39038
-0.00215473 -0.010054 0.445158
0.134331 -0.00868831 0.422335
0.373923 -0.0113037 0.391886
0.00274817 0.0205719 0.0202879
0.480739 0.00224288 0.359357
0.0579313 -0.0150044 0.341727
-0.0048518 -0.0294161 0.0535338
0.43499 -0.00401838 0.405479
0.125044 -0.0181043 0.397024
-0.194422 -0.00723329 0.39844
-0.362811 -0.0117289 0.399686
-0.126697 -0.0144434 0.428759
-0.132004 -0.012216 0.325755
0.065395 0.0388035 0.0247792
-0.401014 -0.0010264 0.389748
0.135559 -0.0129218 0.32454
0.0266168 0.03866 0.0584596
0.163309 -0.017921 0.385865
-0.260083 -0.0173216 0.410223
-0.00157421 -0.0434741 0.257968
0.115378 -0.0160947 0.425856
0.0331999 0.0433098 0.0359288
0.348217 -0.0125096 0.40154
0.280679 -0.00613328 0.396892
-0.245284 -0.00732299 0.400013
0.00274138 -0.00709643 0.403318
0.211778 -0.00942266 0.350852
0.0661335 -0.0179331 0.411344
-0.0104321 -0.0266621 0.225763
-0.242683 -0.00839895 0.418889
0.0241488 -0.00744918 0.367594
-0.309525 -0.00782109 0.419444
-0.0102919 -0.0430845 0.326431
-0.115153 -0.0180991 0.395806
-0.00506214 -0.0346735 0.323163
-0.00663522 -0.0094859 0.348023
-0.0613728 -0.00708671 0.399169
0.18253 -0.0153605 0.346198
-0.283641 -0.00604587 0.390896
-0.466343 -0.00615331 0.387705
-0.391893 -0.00909978 0.351328
0.00461558 -0.043322 0.1419
-0.477585 0.00224642 0.369519
0.313084 -0.0050423 0.367939
0.351536 -0.0121087 0.404054
0.00752916 -0.0111085 0.487154
0.197605 -0.0174041 0.416157
-0.00742252 -0.0283903 0.434811
0.383584 -0.00754831 0.335026
-0.00447572 -0.0433773 0.409981
0.347134 -0.00355633 0.36676
0.30227 -0.0134046 0.350791
0.0535396 0.0393092 0.0199097
-0.10836 0.0384873 0.0404504
-0.00709629 -0.043259 0.225502
-0.0234251 0.0428886 0.0258099
0.320698 -0.00598759 0.353332
0.167367 -0.0137259 0.331862
0.374533 -0.0113337 0.384786
-0.233772 -0.00922775 0.352786
0.138306 -0.0114879 0.332135
-0.0047129 -0.0176977 0.0580436
0.0460798 -0.0147186 0.339118
-0.277264 -0.0110539 0.327255
-0.15697 -0.0172232 0.417921
0.147373 -0.0080459 0.362068
0.0372805 -0.0071855 0.405798
-0.0175176 0.0433103 0.0562995
-0.226204 -0.00741968 0.406233
-0.3841 -0.00913533 0.348345
-0.179025 -0.00742843 0.381959
0.179613 -0.0178094 0.378506
0.00088536 0.0403722 0.00967196
-0.108749 -0.0178507 0.41202
-0.320098 -0.0131323 0.411923
-0.0335821 -0.01117 0.333727
-0.0729455 0.042346 0.0205851
-0.0725535 -0.00743804 0.372448
0.0039176 -0.0366105 0.496418
-0.46211 -0.00645309 0.369273
0.0118117 -0.0418838 0.444598
0.0118117 -0.0381949 0.428682
0.329353 -0.010462 0.336725
-0.153365 -0.0178895 0.382596
-0.114604 -0.0164164 0.354594
0.00372403 -0.0106439 0.47357
-0.0238099 0.0382088 0.0530424
0.0118117 -0.0361715 0.446206
0.0438252 -0.00735543 0.412269
0.470266 0.00192457 0.369699
0.293551 -0.0123805 0.338233
-0.192425 -0.0180014 0.394531
0.0522636 0.0424463 0.0591068
0.0133541 -0.0216122 0.344467
-0.243318 -0.00858316 0.358479
0.440615 -0.00584773 0.344242
0.239669 -0.0075377 0.378423
0.413508 -0.00442275 0.328788
-0.212076 -0.00756767 0.373819
0.00256523 -0.0429449 0.465552
-0.00775686 -0.0175296 0.404972
0.460712 0.00150947 0.385717
0.0017245 -0.0237239 0.0138966
-0.190355 -0.0146805 0.427667
-0.0937977 -0.017775 0.368759
-0.00945519 -0.017989 0.411844
-0.376438 -0.00318111 0.353864
0.0202673 0.0431357 0.0281896
0.032382 -0.00733998 0.376792
-0.0092588 -0.0428301 0.266044
-0.125003 -0.0177893 0.372446
0.279001 -0.0162589 0.371373
-0.0870382 -0.0172963 0.361913
-0.476728 -0.0049656 0.392217
0.171096 -0.0161478 0.352895
-0.175818 -0.0162726 0.423826
0.378829 -0.00757274 0.333333
0.0110945 -0.0194473 0.378846
0.104835 -0.0163611 0.424276
-0.00103886 -0.0425583 0.491257
-0.0452844 0.0419455 0.0167282
0.472139 0.0019099 0.362772
0.090918 -0.00751037 0.368316
-0.0403514 -0.0159594 0.349808
-0.416396 -0.000888732 0.356381
0.374992 -0.00987603 0.407389
0.00261203 -0.0433091 0.0600479
-0.0110676 -0.0419931 0.45893
-0.00366755 0.0336284 0.0411993
0.0716242 -0.0139667 0.332886
0.0853512 -0.0181089 0.394114
0.0758354 0.0391546 0.0566398
0.461144 0.000950691 0.353467
0.0744628 -0.00720547 0.39075
-0.349142 -0.00336667 0.374646
-0.00448317 -0.0240045 0.0379454
0.341983 -0.00939134 0.416597
-0.0479802 0.0390176 0.022718
5.69802e-05 -0.0244386 0.172615
-0.149161 -0.00758899 0.414714
0.0642083 -0.0134263 0.32812
0.185222 -0.00755786 0.412665
0.0299006 -0.0161216 0.351097
-0.0808089 0.0411701 0.00926109
0.217508 -0.0139594 0.334443
0.235072 -0.0110513 0.336995
-0.0795863 0.0384083 0.0470262
0.0597985 -0.0102563 0.341937
-0.239025 -0.00838538 0.360145
-0.000991065 -0.0262927 0.12878
0.085087 0.0385357 0.050648
0.0186441 -0.00731704 0.37745
0.0138894 -0.0310462 0.493981
0.276163 -0.00649547 0.381546
-0.0303714 0.0386232 0.0577817
0.341775 -0.00516556 0.351712
-0.419293 -0.00354104 0.334054
0.0684446 0.0422086 0.0192617
-0.394284 -0.00546026 0.41091
-0.151136 -0.0140053 0.334104
-0.240929 -0.00766791 0.368374
-0.0371487 0.0383381 0.0316831
0.0612371 -0.00721732 0.388737
0.271401 -0.0129973 0.334225
0.341176 -0.0130521 0.396855
-0.318886 -0.0125543 0.350438
-0.0017643 -0.0183598 0.432429
0.00374648 -0.019251 0.03117
-0.385917 -0.00161579 0.388066
0.352697 -0.00301419 0.388993
0.43526 -0.00238469 0.337257
0.413045 -0.00347745 0.337171
0.441912 0.000688941 0.371192
0.00318423 -0.0283903 0.451668
0.0982346 -0.0180431 0.390045
0.442245 0.000667198 0.368603
0.0036996 0.0142601 0.0288871
0.00189979 -0.0264481 0.129345
-0.213919 -0.00758886 0.372318
0.057292 -0.00764418 0.364548
-0.349673 -0.00612376 0.340255
0.0824275 0.0420504 0.0177385
0.122639 -0.0180154 0.40475
-0.231115 -0.00822499 0.417925
0.00960833 0.0407851 0.00569596
-0.00140614 -0.0325889 0.328547
0.154839 -0.00760713 0.366029
-0.096169 -0.0178054 0.371327
0.361505 -0.00417731 0.409594
0.0815748 0.0384556 0.0350438
-0.0113715 0.0382535 0.0311633
0.00683911 -0.0346333 0.117304
0.278901 -0.016474 0.387734
0.310168 -0.0146136 0.372751
-0.0510663 -0.00712379 0.401736
-0.0114221 -0.0217876 0.280812
0.240212 -0.00853924 0.358825
-0.0594056 -0.00740226 0.374157
-0.00226653 -0.0183812 0.345747
-0.0834274 -0.00738787 0.377257
0.119679 -0.00776278 0.364214
0.00441106 -0.0179502 0.375076
-0.00124183 0.00854881 0.0107628
0.3991 -0.00977536 0.366185
-0.312961 -0.0131219 0.415249
-0.130598 -0.0181106 0.397968
0.202893 -0.00740223 0.406775
-0.00337521 0.0192589 0.0632046
0.00321383 -0.00710242 0.392925
-0.398706 -0.00974751 0.362716
-0.111886 -0.0162435 0.424939
0.117546 -0.0179922 0.406269
-0.0258331 0.0407235 0.00628934
-0.179163 -0.0176969 0.369697
-0.234532 -0.0162738 0.354692
-0.401158 -0.00192352 0.401677
0.253669 -0.00934586 0.351747
-0.0090808 -0.0386668 0.185943
-0.0933974 -0.0178989 0.378396
0.474513 0.000603615 0.396961
0.427497 -0.00597504 0.340043
0.276241 -0.0166331 0.400775
-0.00930528 0.0402263 0.0110775
-0.00199727 -0.028241 0.0842588
-0.412497 -0.00316105 0.339995
-0.322836 -0.0141454 0.388945
0.19283 -0.00725684 0.399835
0.114975 -0.0137347 0.331357
0.461588 -0.00130362 0.335533
-0.0178483 -0.0107921 0.336827
0.0117975 -0.0197408 0.372037
0.308439 -0.0138119 0.356926
-0.234144 -0.0146639 0.340734
0.128686 -0.0109692 0.336524
0.0370705 0.0397797 0.0153781
0.408849 -0.00787493 0.347873
-0.168829 -0.010801 0.428229
-0.000165932 0.0357806 0.00143837
-0.300553 -0.0133964 0.349994
0.0127593 -0.0179559 0.412593
0.139823 -0.00756991 0.41454
0.401883 -0.00466753 0.33144
-0.20468 -0.0156679 0.349108
-0.0687287 0.0384396 0.0325119
-0.0918497 -0.0145441 0.338114
0.146256 -0.015322 0.345461
0.0855528 -0.00725188 0.406245
-0.209435 -0.00750825 0.378235
0.00411856 -0.0260566 0.140372
0.167144 -0.00835908 0.41972
0.00974012 -0.0224139 0.497649
-0.274741 -0.00655038 0.38215
0.244231 -0.0161156 0.423859
-0.0615341 0.0391025 0.05783
0.32497 -0.00458298 0.362898
-0.00356581 -0.0305924 0.0507775
-0.0107324 -0.018961 0.326057
0.074518 0.0413748 0.0112324
-0.152904 -0.00726334 0.402654
0.192329 -0.0179534 0.403639
0.434796 0.000345262 0.390188
0.169398 -0.00878026 0.355948
-0.00618532 -0.0263152 0.14586
-0.0922712 -0.00960606 0.347933
0.240871 -0.00759517 0.411717
-0.291771 -0.00593445 0.371637
-0.215614 -0.00763786 0.413695
-0.0139369 -0.0279901 0.378623
-0.0112337 -0.0192411 0.333794
-0.00487713 -0.0314245 0.0694816
0.202554 -0.0118455 0.429552
-0.337814 -0.00397249 0.366347
0.0048371 -0.0203194 0.27614
-0.0786788 -0.0180435 0.388463
-0.229059 -0.00747675 0.382303
0.180651 -0.0128167 0.32413
-0.253767 -0.011598 0.332187
0.42086 -0.00445607 0.325481
0.00455189 -0.0372903 0.0391605
-0.393513 -0.002269 0.354408
0.0385769 -0.00783232 0.418153
-0.440164 -0.000242823 0.352225
-0.234242 -0.00841648 0.419125
0.0703452 0.038334 0.045642
-0.38172 -0.00828662 0.340104
-0.327678 -0.0122918 0.351876
0.0138483 -0.0335551 0.317676
0.339 -0.00961416 0.333623
-0.343411 -0.0110618 0.4137
-0.0812052 0.0401862 0.0114633
-0.00147409 -0.0434101 0.170233
0.021865 -0.0181901 0.39523
-0.287225 -0.0159651 0.382682
-0.00140614 -0.0383555 0.302091
-0.00434899 -0.043427 0.32192
0.0709936 0.0427231 0.0242169
-0.382508 -0.00999588 0.355131
-0.265671 -0.0143541 0.424819
-0.0391809 -0.018164 0.394623
0.232209 -0.00757152 0.375173
0.134716 -0.00810776 0.361391
0.421333 -0.00875159 0.378143
-0.248539 -0.0175873 0.366858
-0.470668 0.000887463 0.395011
0.385824 -0.00730187 0.333972
-0.227224 -0.0176218 0.367795
-0.321858 -0.00719548 0.342387
-0.00449115 -0.0181398 0.405619
0.241826 -0.00850688 0.359123
-0.0653782 0.043263 0.0465173
-0.118904 -0.0074212 0.377578
-0.259639 -0.0113208 0.332179
-0.0998696 0.0417778 0.0562048
-0.0127063 -0.0412925 0.350765
0.00724421 -0.0302476 0.133781
-0.00276851 -0.0433925 0.205482
0.237747 -0.0175927 0.366386
-0.00302672 -0.0433412 0.150517
0.423191 -0.0073353 0.401454
-0.461017 -0.00322358 0.331656
0.273183 -0.00671887 0.374369
-0.410198 -0.00676898 0.339439
0.304378 -0.00762549 0.345837
-0.458757 0.00139886 0.387152
0.017785 -0.0180776 0.386115
0.134085 -0.00720126 0.395979
-0.00633393 0.0426218 0.0628705
0.0106929 -0.0426058 0.29384
-0.222735 -0.0129512 0.430117
0.176516 -0.0151076 0.343939
-0.0131933 0.0411651 0.00921245
0.483712 0.00141396 0.348338
-0.00503596 -0.0182659 0.398595
0.322943 -0.010477 0.334148
0.0835882 -0.00754941 0.365662
-0.0106333 -0.0189961 0.338202
-0.00523893 -0.042085 0.079685
0.203888 -0.0163485 0.422927
0.116392 -0.0102332 0.342766
0.0424845 -0.00708841 0.400432
0.158247 -0.0134482 0.329354
-0.269541 -0.0167935 0.373702
-0.321021 -0.0136766 0.361067
-0.00964634 -0.0205268 0.281756
-0.202598 -0.0178096 0.380414
-0.00634213 0.0397868 0.0153095
-0.0031633 0.0434388 0.0379523
0.109382 -0.010896 0.429044
-0.00378233 -0.0171892 0.0323083
0.400873 -0.000947064 0.384161
-0.306845 -0.0076028 0.345021
-0.0246752 0.0432731 0.0559777
0.0407216 0.0383322 0.0332872
-0.00587944 -0.0283903 0.407367
0.278023 -0.012942 0.336543
-0.0104096 -0.0329036 0.217702
0.0116861 -0.0193727 0.322702
0.105571 -0.0177836 0.370399
-0.390677 -0.0104299 0.38147
-0.222891 -0.00868859 0.357338
-0.00460045 -0.0113292 0.0573301
0.204971 -0.00761721 0.369369
0.460921 -0.00191895 0.401542
-0.372634 -0.00509134 0.339775
0.0139007 -0.0343927 0.397025
-0.078388 0.0390416 0.0555444
0.144329 -0.00739793 0.381486
-0.217181 -0.0110474 0.33683
0.426461 -0.00846753 0.38576
-0.111642 0.0429721 0.0476931
-0.0137021 -0.0154275 0.440594
0.481326 -0.00436845 0.34873
-0.398219 -0.00114398 0.389883
-0.0354166 -0.0145623 0.42958
0.0873264 -0.00730764 0.383838
0.253664 -0.0165912 0.42038
0.230705 -0.0145619 0.339812
0.429504 -0.00598132 0.340888
-0.221888 -0.007293 0.399907
0.252516 -0.00749405 0.382883
-0.0129981 -0.0319724 0.2911
-0.0403024 -0.0124449 0.322753
-0.00557869 -0.0426312 0.475423
0.00197915 -0.0434985 0.327382
0.0333167 -0.00724574 0.409174
-0.260636 -0.00880378 0.422641
-0.0549751 -0.0169814 0.358828
-0.334117 -0.00839067 0.326994
-0.22382 -0.0177753 0.410024
0.00437962 -0.00933488 0.0417008
0.0122456 -0.0420173 0.352282
0.0100368 -0.0384862 0.21354
-0.3515 -0.0108956 0.411728
-0.146756 -0.00722213 0.400896
-0.0853529 -0.0166213 0.356045
-0.00374533 0.0306795 0.0476778
-0.0993003 -0.00737288 0.379734
0.000457944 0.042713 0.0628558
-0.147974 -0.011869 0.430196
0.0383857 -0.0178642 0.414095
-0.404779 -0.0037055 0.338588
0.00402846 0.0138465 0.0435896
-0.223378 -0.0106911 0.427444
-0.30026 -0.00550282 0.376113
0.376415 -0.00914415 0.345176
-0.00776734 -0.0392323 0.148715
0.110007 0.0385167 0.0384046
-0.100741 -0.0125838 0.322221
0.01055 -0.0343108 0.223232
0.0443016 -0.0163948 0.424931
-0.00424301 -0.00500648 0.0380094
-0.00140614 -0.0330284 0.314447
-0.0128376 -0.00733011 0.412677
-0.0214622 -0.00972058 0.346154
-0.347516 -0.00332614 0.383155
-0.437005 -0.00795024 0.38086
0.0466448 0.0419012 0.0163011
0.0526016 -0.0174798 0.41776
-0.000859831 -0.00166903 0.00745215
-0.456793 -0.00429248 0.338403
0.241044 -0.0077155 0.414469
-0.380226 -0.0108363 0.39656
0.113714 0.0414246 0.0117118
0.256448 -0.0140344 0.3369
0.382324 -0.00299852 0.40546
-0.424588 -8.33427e-05 0.370876
-0.274767 -0.0086209 0.349367
0.256287 -0.00970446 0.347564
-0.454858 -0.0053291 0.345803
-0.10445 0.0387219 0.0255654
0.0129937 -0.0131688 0.443194
0.0741349 0.0405165 0.0599365
-0.357071 -0.00283282 0.38938
0.462762 3.05306e-05 0.345588
-0.0687288 -0.0159693 0.350209
0.00893001 -0.03505 0.177203
-0.0138729 -0.0337927 0.39041
-0.00813079 -0.0426566 0.467242
-0.263989 -0.0107761 0.335114
0.000712771 -0.024351 0.176494
0.013659 -0.0153854 0.461731
0.179772 -0.00978399 0.347364
0.0723314 0.0428461 0.0254014
-0.303882 -0.0117157 0.336834
-0.218044 -0.00742516 0.407026
0.394317 -0.00651713 0.331157
-0.183933 -0.0159648 0.351451
-0.0106427 -0.0281304 0.229837
-0.134695 -0.00824684 0.360185
0.00809928 -0.0267029 0.320937
-0.318558 -0.0127426 0.415101
-0.0138347 -0.0262837 0.319787
-0.0605148 -0.00712507 0.401215
-0.0644345 -0.0121924 0.325209
-0.0727011 -0.00773166 0.363961
-0.222927 -0.0179111 0.403936
0.00461533 -0.0424329 0.0819918
-0.377775 -0.00745159 0.412111
0.267398 -0.0136945 0.338577
-0.144597 -0.0116631 0.330687
-0.400427 -0.00127862 0.361171
-0.197259 -0.0104558 0.341736
-0.425043 -0.00763369 0.35262
-0.0123633 -0.0369742 0.278875
0.0495981 0.0418742 0.0160414
-0.435111 -0.00130746 0.345802
0.35731 -0.00643663 0.334408
-0.381299 -0.00198548 0.371804
-0.0301302 0.0402002 0.0635563
0.263701 -0.00692751 0.390692
-0.072689 -0.0102049 0.342526
-0.162603 -0.0178029 0.376596
-0.0129894 -0.0404919 0.308853
0.409932 -0.00741842 0.34445
-0.174584 -0.0180666 0.398159
0.144201 -0.0178134 0.375903
0.00042697 -0.0182806 0.423256
0.139657 -0.0176729 0.365762
0.0122289 -0.0411869 0.425912
0.00349453 -0.0121411 0.432243
-0.41025 -0.000718453 0.392805
0.365939 -0.00914988 0.340802
0.289551 -0.0131255 0.421719
-0.431004 -0.00200376 0.341914
-0.241486 -0.0148773 0.342665
0.0636411 -0.00792175 0.418372
-0.00311796 -0.0173002 0.361014
-0.419412 -0.00774824 0.351235
0.43328 -0.00766481 0.395024
0.00348478 -0.016583 0.424298
-0.429281 0.000130941 0.371321
-0.446865 -0.00713969 0.391429
-0.13757 -0.00737788 0.409569
-0.0745259 -0.00727359 0.385441
-0.0487306 -0.0130568 0.324746
0.0118117 -0.0398574 0.438492
0.274098 -0.00670798 0.372072
0.288456 -0.0160017 0.390655
0.00886589 0.0433602 0.0328872
0.346054 -0.0042399 0.357341
0.0104222 -0.0343072 0.371225
0.012201 -0.041794 0.381355
-0.0358033 -0.0170616 0.359309
0.357771 -0.0122754 0.388473
-0.240313 -0.00955093 0.350057
-0.0118117 -0.0286611 0.453034
0.345662 -0.00537631 0.34838
-0.17507 -0.0177386 0.372614
-0.297244 -0.00591067 0.363164
0.191698 -0.00724711 0.397139
0.101801 0.0431113 0.0396234
0.389873 -0.00152742 0.377581
-0.0309808 -0.00721326 0.386563
-0.00868791 -0.0187015 0.412732
-0.11193 0.0429299 0.0270094
0.476794 0.0013977 0.392843
-0.0850349 -0.0181396 0.400625
-0.00255613 0.0366524 0.0189058
-0.0156251 -0.018014 0.410981
0.106222 -0.00722261 0.40344
-0.180598 -0.00765003 0.414917
0.465736 0.00163643 0.363503
0.000168369 -0.0435709 0.0897522
-0.104183 0.0430114 0.0317061
0.213943 -0.0115294 0.332617
-0.089278 0.0431121 0.0358884
-0.444985 -0.00672149 0.395545
-0.406571 -0.00939557 0.367551
0.248749 -0.0177957 0.40833
-0.454066 -0.006011 0.350862
-0.0048434 -0.0385633 0.0632606
0.329899 -0.00870158 0.326032
-0.202043 -0.0130794 0.326645
0.0148811 -0.0127163 0.321418
0.0257228 0.0404828 0.00860747
0.452864 -0.0070538 0.38217
0.0211987 -0.0154639 0.428273
0.436447 -0.00330128 0.405103
-0.00410987 0.00917869 0.0457449
0.374626 -0.00939599 0.346604
0.3817 -0.00274991 0.403784
-0.279485 -0.0164448 0.40107
0.397183 -0.00993782 0.370442
-0.0144952 -0.0120942 0.325505
-0.112735 -0.0181206 0.397279
0.403764 -0.00719116 0.340214
0.482615 0.0024838 0.382162
0.322361 -0.00715345 0.342544
0.0126554 -0.0366642 0.317541
0.00112111 -0.0371666 0.519037
0.211395 -0.0134776 0.330199
-0.196693 -0.00724285 0.397882
-0.177618 -0.00810672 0.417928
-0.211693 -0.0100237 0.345641
0.466721 -0.00633492 0.379194
-0.246387 -0.0124862 0.324684
-0.374889 -0.00211378 0.383096
-0.0136684 -0.0287013 0.506239
0.100454 -0.0176414 0.365053
-0.0118117 -0.0381962 0.416093
-0.00413978 0.0085232 0.0603237
0.0524059 0.0383262 0.0373662
-0.0100423 -0.0426445 0.278394
-0.39562 -0.00602963 0.410613
-0.413184 -0.00729194 0.405028
-0.229345 -0.0176131 0.367285
0.0202628 0.0433575 0.0544075
0.407479 -0.00302605 0.343011
0.137347 -0.0179804 0.405652
0.464367 0.00158258 0.363988
0.316255 -0.00471059 0.382905
-0.00547703 -0.0428539 0.136472
-0.155158 -0.0170054 0.419362
0.0941057 -0.0131406 0.325976
0.00971963 -0.0098616 0.344801
-0.0139022 -0.0217041 0.443527
0.00212382 -0.0435036 0.232028
-0.00989874 -0.0187903 0.361032
0.00592003 -0.0086252 0.423778
-0.321806 -0.00989196 0.328994
0.108483 0.0390927 0.0219953
0.0875376 0.0431584 0.0455937
-0.149899 -0.00750517 0.373578
-0.00251051 0.0414015 0.0181753
0.0211149 -0.0180484 0.384116
-0.0268307 -0.0181265 0.390676
-0.152543 -0.01159 0.331409
0.0275186 -0.00739434 0.372149
-0.0665861 -0.0158108 0.348811
-0.257662 -0.0163556 0.420045
-1.15205e-05 -0.028838 0.300917
0.00327561 -0.0239726 0.0273536
-0.00446958 -0.0184342 0.330283
-0.272209 -0.0166632 0.374645
0.43041 -0.00814188 0.368949
-0.316713 -0.00865605 0.33184
-0.395811 -0.00555058 0.326279
-0.174956 -0.0119104 0.328881
-0.429532 -0.00670743 0.402524
0.0704052 -0.0130249 0.32471
0.253062 -0.0077015 0.366752
0.062635 -0.0079066 0.362333
0.134797 -0.00879497 0.355436
-0.281551 -0.0157877 0.362696
0.0049555 -0.033067 0.0564437
-0.0140344 -0.0302848 0.403483
0.230402 -0.00834914 0.360363
0.256107 -0.0171019 0.415924
-0.189996 -0.00723817 0.399042
-0.321244 -0.00671169 0.346832
0.038516 0.0433155 0.0380434
-0.189534 -0.0169192 0.419426
0.15134 -0.0164112 0.423279
0.0125492 -0.0242783 0.286722
-0.040083 -0.00739069 0.373469
0.00408514 0.00447475 0.0371055
0.396392 -0.00999854 0.37175
-0.2874 -0.00615779 0.369246
0.00670635 -0.0424518 0.424676
-0.00140614 -0.0359538 0.32429
0.0219591 0.0381272 0.0453205
-0.00319924 0.0135685 0.0254998
-0.00969522 0.0385245 0.0274656
0.169974 -0.00741441 0.382308
-0.289082 -0.00584972 0.400204
-0.482166 -0.00522915 0.358451
0.151374 -0.0179348 0.385959
0.293518 -0.0157627 0.393079
-0.300147 -0.00625397 0.412816
-0.247744 -0.0176536 0.412361
0.094569 0.0431399 0.0398986
-0.00139288 -0.0278917 0.0120719
0.167502 -0.0131787 0.327122
0.284008 -0.00628884 0.370691
-0.00891095 -0.0186693 0.385832
0.431601 -0.002954 0.334089
-0.134156 -0.0177103 0.367036
0.00891907 -0.0103338 0.3407
0.153399 -0.0155426 0.347453
-0.0215972 -0.0155293 0.428163
0.104775 -0.017858 0.411965
-0.00128218 0.0340221 0.00992718
0.040192 -0.012382 0.323297
0.459726 0.000911762 0.393279
0.479704 0.000875981 0.345659
-0.00267582 0.0195783 0.0670375
-0.00570752 -0.038483 0.0881432
0.338373 -0.012973 0.404435
0.225772 -0.0138768 0.33382
-0.00505128 -0.0433861 0.386483
0.0515194 -0.0141717 0.334439
0.0786686 -0.0124488 0.323146
-0.00383982 -0.0424397 0.0586108
-0.321039 -0.00768368 0.338492
0.0300763 0.0411813 0.00936855
-0.34503 -0.0129223 0.38591
-0.0638628 -0.00720058 0.39026
-0.120154 -0.0142473 0.335857
0.0133641 -0.0394922 0.408785
-0.324739 -0.0137147 0.405846
0.21101 -0.0179902 0.395188
0.0809081 -0.0181015 0.393173
0.321077 -0.00841061 0.332176
0.389095 -0.0103181 0.366774
0.384281 -0.0018612 0.371246
0.377775 -0.00768535 0.411731
-0.0105733 -0.0119322 0.493092
-0.369732 -0.0115118 0.393336
0.285361 -0.00613212 0.378257
-0.194437 -0.0178869 0.38577
0.468448 0.00165898 0.356408
0.207654 -0.0160569 0.352513
0.0205144 0.0431223 0.0280605
0.0121502 -0.0214315 0.298111
-0.00460431 -0.041024 0.0399042
0.119712 -0.0177959 0.372524
0.284315 -0.00597466 0.393977
0.00611858 -0.034888 0.097157
-0.00889391 -0.0424518 0.46094
0.423533 -0.00422302 0.326403
0.139356 -0.0119441 0.328193
-0.295092 -0.0152944 0.409597
0.00258461 -0.0397226 0.371225
-0.0851379 0.0384356 0.0378537
0.00738622 -0.0283903 0.426884
-0.00613486 0.0399641 0.0654153
0.298649 -0.0115387 0.33309
-0.0930338 -0.0167564 0.357301
-0.0137154 -0.0242236 0.382733
-0.0117403 -0.0418074 0.419785
0.288371 -0.0158772 0.404569
-0.0148831 -0.0178029 0.365501
-0.224624 -0.00820024 0.417858
0.0769556 -0.0180986 0.403264
-0.416182 -0.00664559 0.34084
0.0897694 0.0430223 0.0282599
0.0434603 -0.0143655 0.336029
0.0827115 -0.0168878 0.421172
0.00996142 -0.0424518 0.455203
-0.381547 -0.00697692 0.329717
0.320289 -0.00474987 0.365975
0.430325 -0.0070116 0.349459
0.022647 -0.0124283 0.322701
-0.00140614 -0.0316563 0.304778
0.134808 -0.0133979 0.430368
0.149749 -0.0177736 0.373259
-0.234455 -0.00747269 0.40848
0.00548132 -0.0111647 0.495538
-0.0987835 0.0426761 0.052352
-0.0229152 0.043441 0.0495761
-0.023265 0.0400338 0.0129317
0.00166087 -0.0226829 0.0132869
-0.0524599 -0.0180639 0.387898
0.1043 0.042987 0.0296347
-0.00846968 -0.0424518 0.445531
-0.0208782 -0.0125242 0.32185
-0.0279558 -0.0070998 0.395166
-0.223547 -0.0143247 0.337677
-0.0762364 0.0432317 0.04227
-0.00465961 -0.0179917 0.0733864
-0.0125194 -0.0173527 0.419164
-0.428662 -0.00672967 0.346451
-0.0691714 -0.00742891 0.41331
0.43874 0.000498959 0.36769
0.00489607 -0.0233936 0.0691007
0.268591 -0.0135944 0.338214
-0.178348 -0.0140915 0.335153
0.340661 -0.00802707 0.327459
0.0104358 -0.0179799 0.412047
0.216316 -0.0179354 0.39135
0.0780437 -0.0116946 0.329675
-0.0673419 -0.00710379 0.399686
0.0138056 -0.0249131 0.320924
-0.0334645 0.0382323 0.0397228
-0.193204 -0.00981219 0.347269
-0.076736 0.0413002 0.0105134
-0.00268473 -0.0233006 0.201989
0.0854043 -0.0122605 0.324852
-0.0136699 -0.0173128 0.496985
-0.203433 -0.0074768 0.380194
-0.416455 -0.00101125 0.355393
-0.00721759 -0.0253239 0.173234
0.222127 -0.00830674 0.360639
-0.283161 -0.011812 0.425217
0.475481 -0.00569146 0.365911
0.0843136 -0.00712295 0.399626
0.0939532 0.0412539 0.0577143
-0.198317 -0.0179196 0.38864
0.0518097 0.0384029 0.0305412
-0.0138266 -0.0193346 0.450541
-0.220898 -0.00818359 0.417803
0.20864 -0.0146539 0.340364
0.0885599 -0.00755974 0.41566
0.00412531 0.001142 0.0362064
-0.198728 -0.0179912 0.401273
0.277917 -0.0152216 0.356255
0.113918 -0.0132964 0.327546
-0.0118117 -0.0311029 0.438894
-0.482176 -0.00542814 0.380839
0.00466422 -0.0144469 0.0573219
-0.103791 0.0426296 0.0233167
0.0104887 -0.0154922 0.345426
-0.0459921 -0.0123156 0.323936
-0.011564 -0.0196001 0.365258
-0.178677 -0.0178597 0.382349
-0.172033 -0.0178807 0.408679
0.203568 -0.00761153 0.413426
0.00534886 -0.0283903 0.375901
0.162153 -0.0172616 0.417596
-0.00678536 -0.0146543 0.338124
-0.0934947 -0.00820479 0.360092
0.308271 -0.00526137 0.3674
0.0316283 0.0434161 0.0482762
-0.284963 -0.0147903 0.417474
-0.0970666 -0.00732412 0.40929
0.343689 -0.00836885 0.325671
-0.00654499 0.0425435 0.063413
0.380118 -0.00193621 0.379252
0.318869 -0.00452228 0.38837
-0.311448 -0.00846508 0.335657
0.161055 -0.0154161 0.346441
0.439 0.000416092 0.36072
0.00565631 -0.0268569 0.135839
-0.0968236 -0.00738823 0.411298
0.0118117 -0.0294952 0.395231
-0.222853 -0.00846909 0.419631
0.0508805 -0.0114344 0.331627
-0.0253586 -0.0168137 0.357045
-0.126216 -0.017887 0.380167
0.172295 -0.00861662 0.357399
-0.00158571 -0.0319007 0.0137431
-0.383143 -0.00428677 0.409777
-0.0933927 -0.00923432 0.351167
0.200872 -0.0176862 0.370644
0.225102 -0.0107621 0.33939
0.276913 -0.014397 0.348684
-0.39388 -0.00279548 0.350117
0.191007 -0.0176436 0.366516
0.0427601 0.038223 0.0478992
-0.425374 -0.001923 0.34474
0.244993 -0.00970478 0.348776
0.0599436 -0.00769033 0.364177
0.00897929 -0.0101002 0.342725
-0.0434423 -0.00731907 0.379333
0.00335568 -0.011487 0.503069
0.0071022 -0.039685 0.130169
-0.167136 -0.00748526 0.37655
0.0120333 -0.0182393 0.399982
0.00174185 0.0387567 0.0252296
0.280786 -0.0162989 0.381921
-0.449876 -0.00605727 0.349565
-0.0944683 0.0431653 0.0420692
-0.0134138 -0.022469 0.411399
-0.167821 -0.0179465 0.388227
-0.117833 -0.0074419 0.375874
-0.017798 0.0380962 0.0467445
0.0922569 -0.014866 0.340909
0.0136458 -0.0145939 0.439416
-0.377116 -0.0100657 0.35346
0.136639 -0.0116461 0.330746
0.150273 -0.0116086 0.331223
-0.198893 -0.0157564 0.349811
0.0422606 0.0425761 0.0592657
0.107678 -0.012398 0.323907
-0.0848288 -0.0110338 0.335476
-0.239486 -0.00752502 0.379397
0.36609 -0.00702927 0.325666
-0.0733965 0.0383945 0.0378382
-0.306179 -0.00514215 0.383889
0.253821 -0.0165184 0.357319
0.0948405 -0.0181458 0.397775
-0.005077 -0.0184903 0.354078
-0.37555 -0.00495951 0.339721
-0.327188 -0.00417337 0.386966
-0.145987 -0.00848164 0.358276
-0.0138785 -0.0344774 0.339981
0.181523 -0.0115067 0.332452
-0.386264 -0.00264374 0.40382
0.0589067 -0.012581 0.32178
0.157732 -0.0102634 0.427479
0.00674598 -0.00864924 0.355275
0.123332 -0.00728201 0.405464
-0.0622608 -0.0179769 0.381915
-0.237601 -0.01243 0.430112
-0.14802 -0.0143188 0.428725
-0.300927 -0.0129395 0.346192
0.0660399 -0.012272 0.324538
0.156633 -0.0178262 0.41101
0.105051 -0.0175973 0.416239
-0.0193575 -0.0180672 0.385435
-0.0124044 -0.0331285 0.275331
-0.011073 -0.0315728 0.337477
0.193696 -0.0147949 0.34142
-0.379654 -0.0109418 0.393922
0.00801583 -0.0432835 0.260136
0.113136 0.0397585 0.0548533
-0.282824 -0.00608892 0.399196
-0.123579 -0.0177715 0.370941
0.429808 -0.00754529 0.353866
0.278857 -0.00628382 0.400811
0.00967244 -0.0109516 0.473385
0.0123577 -0.0336839 0.274739
0.0911774 0.0391599 0.0213481
0.0503803 0.0386591 0.0558493
-0.0232825 -0.0179546 0.376971
0.243495 -0.0135336 0.331042
-0.0514266 -0.0139645 0.332642
0.0203937 -0.0180939 0.407017
-0.215028 -0.0179625 0.401748
-0.14314 -0.00733233 0.386503
-0.000651569 -0.0267029 0.306903
-0.00489895 -0.0185266 0.396273
0.00867889 -0.0423347 0.207812
-0.116278 -0.00738591 0.380114
0.242889 -0.00731563 0.39978
-0.166802 -0.018069 0.397703
-0.177968 -0.00751315 0.375265
-0.00387038 -0.0184459 0.352133
-0.0117182 -0.0424375 0.325717
0.186375 -0.0165254 0.356337
-0.0924423 0.0385704 0.0284077
0.0113404 -0.0373248 0.509297
-0.188739 -0.0166941 0.357825
-0.216808 -0.0170199 0.360961
0.208895 -0.014252 0.428157
0.460031 -0.00189486 0.33148
-0.159916 -0.00899462 0.423956
0.382225 -0.00186207 0.392793
0.252658 -0.00735257 0.393926
-0.310837 -0.00625314 0.414541
-0.013789 -0.0340547 0.459717
0.234259 -0.01471 0.341135
0.225383 -0.01426 0.427961
-0.214385 -0.0160916 0.352889
0.0149289 -0.00707837 0.395766
0.00490463 -0.0329158 0.0663128
0.32311 -0.0141521 0.392695
0.00274853 0.00589751 0.0211128
0.183063 -0.0138323 0.429126
0.150459 -0.0179362 0.407139
-0.0134212 -0.0397531 0.376125
-0.368717 -0.0114193 0.36767
0.225164 -0.00746619 0.382807
0.134981 -0.0141202 0.334921
-0.349169 -0.00608783 0.340773
-0.00301161 0.0194469 0.0651513
-0.35808 -0.00503792 0.412333
0.0320175 -0.00733092 0.412037
0.0019537 0.0235804 0.0666103
-0.480213 -0.00545531 0.384792
0.300285 -0.0153658 0.39627
-0.0113908 -0.0181266 0.389418
0.00463973 -0.0229172 0.0446768
0.48048 -0.00152501 0.326405
0.464461 -0.000718393 0.339026
0.105019 -0.00753799 0.367322
-0.439452 -0.00781792 0.38182
-0.00401977 0.0435518 0.0480059
