4.90152e-06 0.0125429 0.241041
0.0475392 -0.07334 0.500791
0.0622237 -0.0952948 0.475652
-0.10125 -0.0402518 0.349874
-0.0138795 -0.0746366 0.895715
0.0269092 0.0998683 0.0480678
-0.000524558 -0.0468573 0.837068
-0.102217 -0.092319 0.465647
0.0465092 -0.0787168 0.597102
0.0783688 0.0998683 0.0601558
0.074567 -0.094384 0.481585
0.000894241 -0.00602911 0.307217
4.90152e-06 0.0855849 0.14447
-0.0215934 -0.0429536 0.797141
-0.0821043 0.0998683 0.0250917
-0.317504 -0.0767426 0.431876
0.0485078 -0.07112 0.574507
0.0751383 -0.058187 0.307868
0.255511 -0.0809474 0.472127
-0.165956 -0.0876167 0.447714
-0.155924 -0.088364 0.465856
4.90152e-06 0.079143 0.0523722
-0.125058 -0.0906394 0.418628
-0.0124189 -0.00760237 0.376534
0.030534 -0.0649193 0.265838
-0.265457 -0.0802358 0.446528
0.0248308 -0.0589101 0.228341
-0.069369 -0.0616353 0.353535
-0.00499749 -0.00457329 0.376553
0.0311709 -0.0554177 0.255816
0.09909 -0.0925705 0.529447
-0.0358872 0.0998683 0.0861985
0.100417 -0.0551088 0.413056
-0.127346 -0.0904915 0.514257
0.169243 -0.0873477 0.470957
0.0103127 0.0998683 0.0314491
-0.00733524 -0.108409 0.640691
-0.0928922 -0.027594 0.310929
0.0979998 -0.0926379 0.437014
-0.0283996 -0.0867183 0.363204
0.0298523 -0.0727053 0.862265
-0.0976474 -0.092653 0.449158
0.0868865 -0.0934697 0.508912
-0.0958153 -0.0928239 0.51767
0.0445118 -0.04142 0.405
0.354334 -0.0738777 0.415305
-0.229052 -0.082906 0.458993
0.0715003 -0.0549622 0.440693
-0.0468608 -0.0422659 0.442256
-0.0640535 -0.0238454 0.323136
-0.0119409 -0.106875 0.701371
-0.00550766 -0.105722 0.44281
-0.0593602 -0.0430588 0.321217
-0.0229364 0.0998683 0.0427441
-0.149956 -0.0887821 0.482928
-0.0196826 -0.0453055 0.185269
0.0107193 -0.0931212 0.365979
4.90152e-06 0.0908658 0.0455561
0.0424994 -0.0792862 0.395154
-0.0711691 -0.0946213 0.461339
0.0166318 -0.0107507 0.345498
-0.0911788 -0.0303912 0.293213
0.0711621 -0.0547565 0.284643
4.90152e-06 -0.00518486 0.179146
-0.0813241 -0.0938749 0.450399
-0.0673604 -0.0949252 0.50925
4.90152e-06 0.0898037 0.0865537
0.316107 -0.0765681 0.403157
0.0647614 -0.0950892 0.436247
-0.03405 -0.0263395 0.754036
-0.0509924 -0.0567884 0.728131
0.254892 -0.081287 0.488955
4.90152e-06 0.0599776 0.132261
-0.0166039 -0.00878141 0.614042
4.90152e-06 0.0426021 0.134291
-0.237209 -0.0825771 0.496674
-0.0427058 0.0998683 0.0587468
0.041518 -0.0834117 0.397608
-0.0411853 -0.0897793 0.799102
-0.0028821 -0.00464114 0.355793
0.275116 -0.0795842 0.405517
0.0368483 -0.0185494 0.620796
-0.146757 -0.0890465 0.481578
0.0372321 0.0998683 0.0987705
-8.18378e-05 -0.110826 0.663613
0.0573587 -0.0956422 0.448463
4.90152e-06 -0.0126713 0.177861
0.0919153 -0.0930874 0.478575
-0.102575 -0.0923116 0.425685
0.0533973 0.0998683 0.089309
0.0473412 -0.0964083 0.523861
0.313072 -0.0767875 0.402089
0.285683 -0.0788487 0.418362
0.137141 -0.0897384 0.500096
-0.185537 -0.0861387 0.47205
-0.366644 -0.0728197 0.390757
0.0963688 -0.0279213 0.441532
0.0641378 -0.0151539 0.410484
-0.155128 -0.0884375 0.514272
0.0146404 -0.10589 0.800001
-0.00697928 -0.0262983 0.111385
-0.0257982 -0.0156864 0.309538
0.0164094 -0.105233 0.794409
0.227479 -0.0830742 0.468448
4.90152e-06 0.107804 0.0366202
0.0878669 -0.0612466 0.349151
-0.103931 -0.0922141 0.539242
0.0118777 -0.106673 0.767307
0.0247303 -0.0977311 0.857733
-0.0443457 -0.0658352 0.794654
-0.0460234 -0.0430588 0.361033
0.0376811 -0.0175104 0.481713
0.0910044 -0.0139453 0.421324
-0.0910338 -0.0440736 0.273711
4.90152e-06 0.0686071 0.0735441
0.0754456 -0.0300964 0.442815
-0.00298199 -0.0933577 0.349846
4.90152e-06 -0.000383809 0.161141
0.0531998 0.0998683 0.0981803
0.252962 -0.0812286 0.411374
-0.00528318 -0.00425373 0.539669
4.90152e-06 0.00290286 0.276679
-0.00334417 -0.00350301 0.430751
0.0879958 0.0998683 0.077999
-0.028922 0.0998683 0.0486517
4.90152e-06 0.00258442 0.107957
-0.0465582 -0.0773824 0.528892
-0.144568 -0.0892079 0.418861
-0.0514148 -0.059425 0.487165
-0.218092 -0.0837202 0.462112
-0.235479 -0.0825522 0.424463
0.065641 -0.0273785 0.442815
0.0123993 -0.0271792 0.152184
4.90152e-06 0.0799771 0.115792
0.0188916 -0.0915512 0.890881
4.90152e-06 0.0932446 0.0863843
0.135475 0.0998683 0.0185197
0.00740991 -0.108351 0.66275
0.1775 -0.0867965 0.420661
0.0485308 -0.0430588 0.285656
-0.306852 -0.0774246 0.43584
-0.0182315 -0.104679 0.814353
4.90152e-06 0.0983817 0.102221
0.0480477 -0.0744852 0.678568
4.90152e-06 -0.00964248 0.222061
4.90152e-06 0.0341043 0.0786281
0.0134626 0.0998683 0.10211
0.0952355 -0.0928615 0.500385
-0.000408076 -0.00521791 0.733561
-0.0448704 -0.0370541 0.609152
0.262964 -0.0805287 0.422352
0.0197664 -0.0585766 0.202962
0.0697747 -0.0302356 0.272731
0.10779 0.0998683 0.0392121
4.90152e-06 0.0105632 0.210637
4.90152e-06 0.0115313 0.279006
-0.247411 -0.0816784 0.425127
-0.102586 -0.0337946 0.431095
0.0510659 -0.0632015 0.750747
0.0825851 -0.0937716 0.452224
-0.0768552 -0.0941942 0.444252
0.0510617 -0.0633518 0.702943
0.0537771 -0.0430588 0.329924
0.190641 -0.0857961 0.501957
0.144412 0.0998683 0.0476513
0.0183893 -0.009428 0.590293
-0.0201138 -0.10377 0.731878
-0.037162 -0.0189187 0.615515
0.173387 -0.0870388 0.466207
-0.161869 -0.0878909 0.459097
0.166174 -0.0875839 0.498681
0.0992578 -0.0204875 0.429081
-0.0833945 0.0998683 0.0724838
-0.0410334 -0.0970935 0.597654
-0.260997 -0.0805978 0.398281
-0.106079 -0.0920563 0.54437
-0.0341056 -0.0603836 0.277599
0.00529885 -0.0883186 0.316996
4.90152e-06 -0.00556581 0.0995089
0.0375301 -0.0202684 0.626953
-0.276714 -0.0794144 0.445651
-0.0164847 -0.105169 0.82422
-0.0138698 -0.00779055 0.40095
4.90152e-06 0.0140988 0.161044
0.0472767 -0.0820753 0.741952
0.0366677 -0.0252271 0.383105
0.0437679 -0.0550867 0.774553
0.0476617 -0.096393 0.546871
0.0130804 -0.106433 0.482705
0.031735 -0.0878589 0.379624
-0.0133034 -0.0456038 0.811116
-0.0303048 -0.100757 0.702977
0.0161978 -0.0146661 0.273356
0.0482168 -0.0701808 0.469502
0.0311133 -0.0145184 0.608324
0.341301 -0.0748055 0.415637
0.103709 -0.0922446 0.531969
-0.115224 0.0998683 0.0245764
0.00252869 0.0998683 0.102953
0.00278532 -0.0334231 0.103344
-0.0781228 -0.0941023 0.451347
-0.130431 0.0998683 0.0433796
-0.28002 -0.0792186 0.403794
-0.266311 -0.0804896 0.486304
-0.0273175 -0.0530672 0.818499
4.90152e-06 0.110085 0.0624578
-0.314507 -0.0766427 0.389482
0.0260139 -0.102059 0.495063
-0.209345 -0.0844211 0.40853
-0.134917 -0.0899236 0.4873
-0.0490495 -0.0467219 0.579094
-0.0297453 -0.0140373 0.549903
0.0504357 -0.0591269 0.442742
4.90152e-06 0.0773824 0.101135
0.0433086 -0.0914875 0.757653
0.00063774 -0.00994901 0.256051
-0.200138 -0.0851074 0.503941
4.90152e-06 -0.00912026 0.089785
0.0157753 -0.105599 0.708446
0.00747238 -0.0105773 0.281471
4.90152e-06 0.0566401 0.0827398
-0.0351422 -0.0824148 0.345486
-0.0450528 -0.0377973 0.616229
4.90152e-06 0.0645745 0.157162
-0.0771696 -0.00682034 0.402173
-0.0803774 -0.0939709 0.536369
0.0639714 -0.0951691 0.506362
0.30646 -0.0774275 0.435985
0.0359733 -0.0985617 0.829274
0.0374799 -0.0314748 0.358129
-0.0866288 -0.0934961 0.494763
0.386353 -0.0715914 0.413673
-0.0320745 -0.0863296 0.369418
0.0765482 -0.0942284 0.451451
-0.0352666 -0.0562921 0.818052
0.0980928 -0.0604582 0.397547
-0.00830708 -0.00545907 0.671461
-0.235685 -0.0824999 0.436631
-0.0451297 -0.0851314 0.698053
4.90152e-06 0.0982025 0.134659
-0.299562 -0.0778431 0.422774
-0.114711 -0.0914279 0.521415
4.90152e-06 0.0224384 0.127853
0.0523835 -0.0577482 0.700203
0.152861 -0.0885554 0.445364
-0.0411697 -0.0969469 0.478288
-0.0895343 -0.0204907 0.327501
0.136491 -0.0898177 0.521766
0.0587592 -0.0547044 0.396486
-0.326655 -0.0759824 0.444037
-0.0855564 -0.0641288 0.397217
4.90152e-06 0.0806146 0.0664328
-0.240675 -0.0820502 0.480601
0.129229 -0.0903519 0.512863
-0.114214 -0.0914444 0.454438
0.0446675 -0.0380599 0.66426
-0.285548 -0.0790578 0.476045
-0.045375 -0.0368566 0.471483
-0.000756537 -0.0202355 0.116775
0.0412189 -0.0930765 0.438411
0.0291466 -0.0134211 0.451951
0.0432213 -0.0442479 0.362825
0.0330709 -0.0159437 0.386311
0.000845468 -0.0163883 0.761271
-0.207206 -0.0845731 0.468489
-0.00976788 -0.0191374 0.185461
0.0517811 -0.0593929 0.610682
-0.0720035 -0.0945576 0.455257
4.90152e-06 0.0143601 0.253712
4.90152e-06 0.00795528 0.0955812
0.0496395 -0.0587982 0.425636
0.00205274 -0.100957 0.402805
-0.288207 -0.0786498 0.414136
-0.0876633 -0.0127643 0.365036
0.0106047 -0.107121 0.773827
0.0329688 -0.0159131 0.71606
-0.0305197 -0.0402826 0.255604
4.90152e-06 0.0918606 0.136039
0.0691363 -0.0179932 0.337715
-0.000335472 -0.00455454 0.335248
0.0412786 -0.0451668 0.332443
0.00692229 -0.00629332 0.35668
4.90152e-06 0.0174218 0.110741
0.256979 -0.0808889 0.454521
-0.0364696 -0.0356723 0.319054
-0.0506909 -0.0496402 0.484571
4.90152e-06 -0.00674353 0.18143
0.0103523 -0.0746901 0.898913
0.0555031 -0.0957954 0.487965
0.13365 -0.0900108 0.43545
0.213777 -0.0840434 0.470343
0.0361991 -0.0465208 0.792774
0.0430891 -0.0931736 0.70384
0.123426 0.0998683 0.0307193
-0.0967714 -0.092729 0.485337
0.0472346 -0.0744452 0.485469
-0.0479775 -0.0623134 0.41362
-0.363062 -0.0734 0.442018
-0.0446644 -0.0890769 0.750221
0.0773096 0.0998683 0.0683516
-0.0257235 -0.0533011 0.224258
0.105914 -0.0920433 0.460765
-0.376351 -0.0720889 0.384883
-0.0350388 -0.061775 0.837097
0.0408733 -0.0876169 0.810464
-0.0373051 -0.0334279 0.759213
0.362751 -0.0733065 0.418549
-0.233995 -0.082648 0.433547
4.90152e-06 -0.0156242 0.141379
4.90152e-06 -0.00286894 0.108171
0.335703 -0.0751424 0.407238
0.05124 -0.0612426 0.604515
0.0602376 -0.0614434 0.374053
-0.141252 -0.0894232 0.467537
0.0631546 -0.0199851 0.348087
-0.00910863 -0.0393611 0.128318
-0.0901286 -0.0340766 0.280653
0.0384076 -0.0980572 0.602682
0.03839 -0.0980631 0.674125
-0.0492854 -0.0692068 0.760882
4.90152e-06 0.0554253 0.166745
-0.0558987 -0.0430588 0.268838
0.391079 -0.0712233 0.409671
0.0297514 -0.08092 0.86927
-0.258769 -0.0808213 0.434232
4.90152e-06 0.00405763 0.181605
-0.0509724 -0.0624922 0.749575
4.90152e-06 0.0437146 0.102061
4.90152e-06 0.0268571 0.11051
0.205436 -0.0846666 0.484798
0.00495813 -0.00410261 0.567715
4.90152e-06 0.10319 0.101851
0.0370645 -0.0553896 0.286938
-0.0491332 0.0998683 0.0781815
0.104526 -0.0444788 0.417488
0.0451464 -0.0849906 0.648659
-0.0188736 -0.0471478 0.184115
0.210747 -0.0843098 0.463292
0.0422895 -0.0280562 0.463374
0.0609336 -0.0417824 0.315532
0.00582613 -0.102457 0.421477
0.0423226 -0.0308143 0.441867
-0.0404062 -0.0420242 0.336039
4.90152e-06 -0.00699178 0.2063
-0.304889 -0.0773536 0.391057
-0.0417877 -0.0321749 0.709298
-0.0362468 -0.0430588 0.255651
0.0731713 -0.0268453 0.442815
-0.11988 -0.0910212 0.440347
0.0506014 -0.0549844 0.423911
0.0154738 -0.105624 0.602802
-0.250784 -0.0813784 0.438107
0.0290762 -0.0136794 0.642872
4.90152e-06 0.0852126 0.083911
-0.0256158 -0.0234012 0.268759
0.0411219 -0.0265387 0.489935
-0.221206 -0.0834873 0.456149
-0.04145 -0.0659381 0.343479
-0.114989 -0.091399 0.425229
0.06813 -0.0470678 0.274371
-0.299286 -0.0778086 0.405165
4.90152e-06 0.0154403 0.111409
-0.245468 -0.0818652 0.485902
0.316808 -0.0766787 0.445945
-0.208651 -0.0844669 0.470617
0.00186549 -0.100983 0.40256
-0.0425105 -0.0945083 0.540977
4.90152e-06 0.084606 0.153704
0.00078474 -0.11058 0.799535
0.098505 0.0998683 0.0728841
-0.0942689 -0.0520736 0.319342
-0.0998234 0.0998683 0.0588827
-0.0436492 -0.0601447 0.78558
-0.0957771 0.0998683 0.05284
0.0254788 -0.0217373 0.751955
0.0555571 0.0998683 0.079823
-0.0451019 -0.0842206 0.76473
4.90152e-06 0.0506883 0.159935
-0.304338 -0.0774346 0.404118
-0.260462 -0.0805739 0.453826
-0.0467533 -0.0712196 0.437532
0.00594946 -0.0297705 0.106553
0.0427913 -0.0441687 0.754416
0.00559343 -0.108965 0.477474
0.0445792 -0.0363216 0.607058
0.00239533 -0.0692966 0.217283
4.90152e-06 0.0389342 0.096834
-0.0219315 0.0998683 0.0773559
0.0304948 -0.100694 0.712339
-0.0379661 0.0998683 0.05448
0.0160288 -0.0108742 0.336042
0.000758823 -0.1106 0.49949
-0.0481373 -0.072068 0.566398
-0.00842083 -0.00550862 0.561892
0.0821964 0.0998683 0.0467109
4.90152e-06 0.0489717 0.144199
0.00696173 -0.108502 0.530711
-0.0704632 0.0998683 0.0867975
-0.0381462 -0.0547872 0.806645
-0.0255299 -0.0623085 0.235918
-0.348954 -0.0740919 0.382314
0.0401368 -0.0430588 0.28747
-0.107549 -0.0919368 0.509979
0.19656 -0.0853338 0.442305
4.90152e-06 0.0557152 0.162108
0.180686 -0.0865402 0.506134
0.015925 -0.00850031 0.49605
-0.204611 -0.0847277 0.486125
0.297148 -0.0780153 0.420973
0.108789 -0.0918721 0.542338
0.0790197 -0.00595539 0.405041
-0.17374 -0.0870143 0.472892
-0.0519046 -0.0596992 0.655215
0.0395456 -0.0976298 0.561408
-0.190767 -0.0857921 0.480038
0.00999188 -0.0305796 0.12506
0.0389032 -0.041427 0.319829
4.90152e-06 0.0781242 0.0911415
0.155132 -0.0883973 0.479487
-0.304574 -0.0774776 0.451425
-0.0399871 -0.0242484 0.499191
-0.0143973 -0.0880312 0.900404
0.0511541 -0.0606136 0.508386
-0.048454 -0.0430588 0.387123
-0.0116965 -0.0126496 0.27729
-0.0306782 -0.0861535 0.364484
0.00712473 -0.108447 0.511098
-0.0520737 0.0998683 0.0524974
4.90152e-06 -0.015822 0.147345
0.313114 -0.0769907 0.435974
0.342625 -0.0748212 0.444501
0.00883098 -0.0618114 0.196897
4.90152e-06 0.071328 0.170655
0.0718189 -0.0538425 0.274745
-0.180881 -0.0865057 0.439698
4.90152e-06 0.0103084 0.107405
0.0685972 -0.0446243 0.266302
0.00431998 -0.0250253 0.775227
-0.307393 -0.0773034 0.455979
4.90152e-06 0.0687516 0.178435
-0.00497981 -0.109194 0.783157
4.90152e-06 -0.000232437 0.278325
-0.051066 -0.0542147 0.687694
-0.0147164 0.0998683 0.0738394
4.90152e-06 0.00757336 0.110513
0.149164 -0.088837 0.469319
-0.0114986 0.0998683 0.0824305
-0.038206 -0.0222081 0.657107
0.0305973 -0.100619 0.719026
0.0418376 -0.096803 0.478844
-0.0441655 -0.0865204 0.474255
4.90152e-06 -0.012777 0.136396
-0.0462893 -0.0430588 0.366705
-0.0107706 -0.0977509 0.879611
-0.0704625 0.0998683 0.0876508
-0.24995 -0.0813539 0.453957
0.0440944 -0.0430588 0.269471
-0.235952 -0.0824712 0.437805
4.90152e-06 0.0523665 0.155378
4.90152e-06 0.0415854 0.178995
4.90152e-06 0.0341821 0.0947618
-0.0287879 -0.0137583 0.408939
0.0199547 -0.0346004 0.7814
0.0168024 -0.105174 0.470785
-0.000555177 -0.110668 0.609154
0.0192578 -0.0120907 0.729013
0.103601 -0.0378329 0.372073
0.0215956 -0.0772755 0.283748
-0.0448281 -0.051415 0.758964
-0.0463875 -0.0780123 0.492533
0.0237798 -0.0113433 0.453778
4.90152e-06 -0.00810882 0.159918
0.0400256 -0.0969645 0.76131
0.05349 -0.0959487 0.502681
0.28828 -0.0786133 0.404033
-0.00928097 -0.028607 0.123003
4.90152e-06 0.00485831 0.108669
0.0103626 -0.00858954 0.336605
-0.325083 -0.0760832 0.445751
0.00465832 -0.0902254 0.329799
0.00492828 0.0998683 0.101963
4.90152e-06 -0.00229498 0.13208
0.067481 -0.0949048 0.471514
0.197929 -0.0852253 0.4904
-0.0260229 0.0998683 0.0485415
-0.0077418 -0.00521332 0.45334
4.90152e-06 0.0337364 0.21339
4.90152e-06 0.0502345 0.199536
-0.00210623 -0.0764818 0.251071
4.90152e-06 0.0790492 0.101845
0.0932696 -0.016454 0.365196
-0.0297499 -0.0139427 0.694907
0.143988 -0.089253 0.531237
0.123148 0.0998683 0.037791
-0.0177942 -0.00925747 0.598469
-0.233496 -0.0825776 0.46338
0.228486 -0.0829487 0.459239
0.112829 0.0998683 0.0107927
4.90152e-06 -0.000163443 0.324841
4.90152e-06 0.00382924 0.20309
-0.147473 0.0998683 0.0230141
0.0465194 0.0998683 0.0591967
0.112343 0.0998683 0.0397214
4.90152e-06 0.0287888 0.104129
-0.0258414 -0.0773268 0.290056
-0.0717115 -0.0946205 0.565419
-0.126862 0.0998683 0.0258535
4.90152e-06 -0.0112874 0.209515
-0.0121642 -0.105321 0.843212
-0.0474482 -0.0514567 0.744257
0.0429536 -0.0329086 0.621617
-0.0996318 -0.0219835 0.38495
0.0171232 -0.10515 0.679729
-0.182883 -0.0863763 0.484302
-0.141774 -0.0894323 0.425069
-0.00562963 -0.0875867 0.914872
-0.00955669 -0.107669 0.632006
-0.0179083 -0.0886871 0.351904
-0.0313145 -0.0314378 0.286882
0.074363 0.0998683 0.0716872
-0.0297517 -0.100868 0.551356
4.90152e-06 0.0572848 0.0661536
-0.017024 -0.0150052 0.274169
0.0449965 -0.0518028 0.347903
0.177693 -0.0867529 0.460743
-0.0390345 -0.0430588 0.2608
0.167757 -0.0875252 0.432607
0.0174799 -0.0185863 0.233222
4.90152e-06 0.0395948 0.0731492
0.0457802 -0.0723807 0.800452
0.0208064 -0.103528 0.771943
4.90152e-06 0.101652 0.0738607
-0.0427254 -0.0942591 0.657983
0.0244471 -0.0681199 0.867671
4.90152e-06 -0.0105219 0.1384
-0.0380834 -0.0979007 0.781838
-0.10075 -0.0432882 0.436623
4.90152e-06 0.0873372 0.0614282
4.90152e-06 -0.0103516 0.244951
0.0023726 -0.0200466 0.767139
0.0481613 -0.0459471 0.642822
0.139725 -0.0895411 0.481589
-0.0753143 -0.0648729 0.419377
-0.333147 -0.0753025 0.398485
4.90152e-06 0.0296842 0.098108
0.084925 -0.0642714 0.418703
-0.205683 -0.0846844 0.463974
0.0429248 -0.0938071 0.642908
-0.0228869 -0.0453266 0.199587
0.0451581 -0.0521722 0.347543
-0.240867 -0.0820266 0.449976
-0.00793949 -0.00531611 0.635758
-0.0754829 -0.0943335 0.538604
-0.0197043 -0.104192 0.464901
-0.055994 -0.095769 0.520505
0.122954 -0.0907995 0.458892
-0.261965 -0.0808073 0.488247
-0.15489 -0.0884389 0.460909
0.048927 -0.096269 0.44621
-0.0364936 -0.0435317 0.28904
0.278626 -0.0793634 0.433972
-0.347337 -0.0745881 0.430916
-0.266158 -0.0802921 0.421821
0.14442 -0.0892054 0.523355
-0.0154723 -0.105697 0.805082
0.0403438 -0.0272574 0.673702
-0.0387286 0.0998683 0.0935594
0.216111 -0.0839118 0.458727
4.90152e-06 0.0132299 0.220717
-0.0438751 -0.0913557 0.719661
-0.0473214 -0.045443 0.703123
-0.0119233 0.0998683 0.0406178
-0.400035 -0.0705534 0.405479
4.90152e-06 0.102563 0.0408677
-0.0694659 -0.0588743 0.327358
0.0371949 -0.0732105 0.317355
0.23939 -0.0821933 0.467725
-0.0876529 -0.057434 0.312059
0.042803 -0.0935968 0.553523
-0.0300662 -0.0273178 0.759109
0.0104757 -0.107314 0.470582
-0.261462 -0.0804999 0.454791
-0.0508904 -0.0632321 0.653815
-0.0437305 -0.0898335 0.605395
4.90152e-06 0.00253394 0.0950806
-0.0311416 -0.0432185 0.251911
4.90152e-06 0.056878 0.114896
4.90152e-06 -0.0101606 0.182815
0.0499368 -0.0487223 0.518465
0.0369599 -0.0180309 0.554555
0.0465111 -0.0716679 0.791294
0.0969422 0.0998683 0.0434582
0.0555281 -0.0957915 0.493051
0.123394 -0.0907825 0.510086
0.38081 -0.0721249 0.435411
0.391713 -0.0713637 0.431729
0.00603198 -0.0919946 0.34627
4.90152e-06 0.0344727 0.0798843
-0.101825 -0.092383 0.529213
-0.0419397 -0.0430588 0.314128
4.90152e-06 0.0844866 0.0766872
0.102347 -0.0923465 0.53599
-0.0462791 -0.0786113 0.529361
0.0375701 -0.020199 0.612986
0.343905 -0.0747667 0.448363
0.0447127 -0.0842054 0.468058
-0.0728937 -0.0944962 0.470653
-0.0217071 0.0998683 0.0713517
0.0126823 -0.106568 0.560592
4.90152e-06 0.0675647 0.099718
0.0262094 -0.0957463 0.864331
-0.0446624 0.0998683 0.0496236
-0.0490229 -0.0687114 0.545724
-0.0526427 -0.0430588 0.27799
-0.232176 -0.0827999 0.426133
0.051106 -0.0632886 0.708836
0.0606316 -0.0204976 0.354301
4.90152e-06 0.071106 0.116004
0.179451 -0.0866029 0.512452
-0.092482 0.0998683 0.0353857
0.0610398 -0.0280487 0.336256
0.15892 -0.0881377 0.450244
-0.0955853 -0.0396191 0.310147
4.90152e-06 0.00423919 0.0947358
-0.0505136 -0.0497726 0.540394
-0.0806577 -0.0505911 0.266302
-0.00877107 -0.104356 0.852908
0.240479 -0.08225 0.489446
0.0473297 -0.0479454 0.407173
-0.22619 -0.0832012 0.436215
0.0518431 -0.0430588 0.290523
4.90152e-06 0.0122751 0.103059
4.90152e-06 0.0617642 0.0920021
4.90152e-06 0.0138503 0.241896
0.182841 -0.0863966 0.435146
-0.00640375 -0.00821332 0.306475
-0.0969425 -0.0615568 0.376749
0.319655 -0.0765639 0.460785
0.00906357 -0.0056459 0.4125
0.0632159 -0.0157952 0.400262
-0.107553 -0.0920366 0.553313
-0.0267792 -0.0861604 0.872466
-0.0107181 -0.00642742 0.600395
-0.056896 -0.0430588 0.311722
0.0812003 -0.00740917 0.37855
-0.00273938 -0.101511 0.875333
0.0800667 -0.00665342 0.383352
0.0990989 -0.0925862 0.534474
0.00791342 -0.0101811 0.288502
0.19004 -0.0858132 0.498975
-0.0390875 -0.0490913 0.290173
0.0439729 -0.0365226 0.691786
4.90152e-06 0.0508203 0.151605
-0.00202471 -0.0816747 0.275743
0.0381728 -0.0440576 0.780195
-0.0788625 -0.00585062 0.397028
0.00128449 -0.0960473 0.365579
0.0336064 -0.0170096 0.387781
0.0447635 -0.0818596 0.452347
4.90152e-06 -0.0111417 0.0934562
0.262772 -0.0805475 0.423836
-0.0237319 -0.102947 0.60875
-0.200689 -0.085008 0.450824
0.208002 -0.0844665 0.452786
-0.0295556 -0.0170922 0.325292
4.90152e-06 0.0682658 0.0598403
4.90152e-06 0.0185903 0.121038
-0.0104252 -0.10738 0.573501
0.2794 -0.0795386 0.480848
0.00597095 -0.0967417 0.38236
4.90152e-06 0.0648588 0.156423
-0.0889182 0.0998683 0.0381293
0.0208256 0.0998683 0.0718823
-0.385586 -0.071401 0.381666
0.0477909 -0.0753976 0.682877
-0.0648222 -0.0481094 0.300634
4.90152e-06 0.00157378 0.333292
-0.302597 -0.0775372 0.396026
4.90152e-06 -0.00202521 0.369549
-0.0317075 -0.0148084 0.561036
-0.034543 -0.091088 0.408545
4.90152e-06 0.0964592 0.0810444
0.0433517 -0.0943879 0.744442
4.90152e-06 0.0812948 0.150367
-0.0247565 -0.0135916 0.352063
0.0401006 -0.0251143 0.604117
0.0589234 -0.0430588 0.272325
0.0111931 -0.0542485 0.172545
-0.0259454 -0.0124407 0.686053
0.149213 -0.0888806 0.423178
0.0966917 -0.0616134 0.405259
0.0251122 -0.0941533 0.408462
-0.0478355 -0.0486176 0.414559
0.0604255 -0.0954526 0.557737
-0.080913 -0.00788506 0.367432
0.0233735 -0.0305785 0.229374
4.90152e-06 0.0344167 0.0727847
0.285484 -0.0788349 0.409253
0.0328996 -0.0403431 0.271089
4.90152e-06 0.0759874 0.102587
-0.186158 -0.0861651 0.422046
0.202214 -0.084949 0.409953
4.90152e-06 0.0619925 0.0975029
0.0513293 -0.0430588 0.399281
-0.0114578 -0.00672325 0.527609
4.90152e-06 0.0783855 0.117442
0.0249368 -0.102546 0.639621
0.0530392 -0.0959627 0.438984
-0.0411893 -0.063403 0.333897
4.90152e-06 0.0692252 0.140985
0.0345941 -0.0545942 0.272891
-0.0100185 0.0998683 0.104906
0.0574054 -0.0289599 0.3988
-0.37161 -0.0727344 0.425549
0.0595695 -0.053084 0.41674
-0.187158 -0.0860228 0.486268
0.11781 -0.0911875 0.484216
-0.399691 -0.070393 0.382754
-0.0126708 -0.015016 0.253568
-0.0452538 0.0998683 0.02757
-0.0408465 -0.0971247 0.559727
0.39187 -0.0709464 0.382523
-0.197103 -0.0853273 0.496245
0.0459644 0.0998683 0.0879523
0.105276 -0.0920996 0.435889
0.0283407 -0.0396548 0.239339
0.0868276 -0.0934699 0.456645
-0.00419228 -0.0918601 0.341624
-0.0587976 -0.0207028 0.363151
-0.315549 -0.0769012 0.429944
-0.0823873 -0.0630484 0.354197
0.205291 -0.0846742 0.474511
-0.0467452 -0.0836511 0.743221
-0.151139 -0.0887251 0.490324
-0.131181 0.0998683 0.0539003
0.22175 -0.0834525 0.472605
-0.0366794 -0.0430588 0.247328
0.195933 -0.0853701 0.479765
-0.0422053 -0.0779 0.383828
-0.0493303 -0.0619005 0.757499
0.00522813 -0.00420965 0.65548
-0.0274685 -0.0705307 0.260397
0.0824533 0.0998683 0.0641888
-0.0859005 0.0998683 0.0226131
-0.0445442 -0.0873318 0.693351
0.0425122 -0.0967756 0.553425
0.0509367 -0.0633967 0.677721
0.0645215 -0.0241715 0.319672
-0.0263151 -0.102086 0.657245
-0.0726169 -0.0122456 0.357127
-0.0322464 -0.0501915 0.253866
-0.0201269 -0.104148 0.673863
-0.192982 -0.0856227 0.461565
0.335037 -0.0754149 0.438859
0.0424561 -0.0955937 0.589412
4.90152e-06 0.0189754 0.202875
-0.0193586 -0.00988315 0.50441
-0.376833 -0.0724135 0.435386
0.212832 -0.0841538 0.440028
0.00669852 0.0998683 0.0799918
-0.0998179 -0.0924917 0.448208
-0.0211159 -0.103818 0.689558
0.048187 -0.0728 0.609949
4.90152e-06 0.00208999 0.232828
-0.147789 -0.0889758 0.499996
0.0629984 0.0998683 0.0295598
4.90152e-06 0.10154 0.0785632
-0.0313658 -0.0949146 0.427127
4.90152e-06 0.0528696 0.117475
0.0307752 -0.0856204 0.359159
-0.106243 0.0998683 0.0422213
-0.00931725 -0.10771 0.472603
-0.0169736 -0.0121351 0.311544
-0.320818 -0.0762425 0.409769
0.0462368 -0.0405589 0.44279
0.0451323 -0.084935 0.63829
-0.0211108 -0.0259443 0.228317
-0.119012 -0.0911021 0.542172
0.0217732 -0.0406477 0.190955
0.0452361 -0.0668034 0.792007
-0.178715 -0.0866764 0.457707
0.0351614 -0.0990892 0.573701
0.00226416 -0.00303452 0.525828
0.00760987 -0.108321 0.827012
0.0782406 -0.00615553 0.400752
0.0402162 -0.0960259 0.78752
0.0327677 -0.0288198 0.304655
0.0523993 -0.0578828 0.652753
-0.00516301 -0.104985 0.855758
-0.0534001 -0.0430588 0.2917
4.90152e-06 0.0694843 0.156441
-0.0228018 -0.0724631 0.262519
-0.00882788 -0.0865873 0.31293
0.115512 0.0998683 0.0269422
-0.324544 -0.0761384 0.454144
4.90152e-06 -0.0133391 0.206411
0.0593869 0.0998683 0.0840174
0.305448 -0.0775624 0.430107
-0.1011 -0.0278517 0.396906
0.0352652 -0.0161821 0.610089
-0.0629368 -0.095226 0.441048
0.026606 -0.101859 0.497634
-0.0519731 -0.0430588 0.308219
0.0497322 -0.0480556 0.527124
-0.0661645 -0.0471367 0.288691
0.060136 -0.0550953 0.351843
4.90152e-06 -0.00186701 0.121174
4.90152e-06 0.0762397 0.139237
-0.125896 0.0998683 0.0228922
-0.0546911 -0.0430588 0.33939
-0.0736111 -0.0260131 0.27549
0.0660535 -0.0257401 0.305356
-0.0714328 -0.0230751 0.299602
0.0135027 -0.098616 0.412658
0.025835 -0.013601 0.365463
-0.0160617 -0.0459204 0.807912
-0.163688 -0.0878297 0.426995
-0.146455 -0.0890769 0.508247
0.0491088 -0.0457867 0.493977
4.90152e-06 -0.0057278 0.167713
-0.0901108 -0.093238 0.492415
0.0343292 -0.0994164 0.651339
0.0152423 -0.105702 0.556499
0.16047 -0.0880092 0.439393
-0.0543472 -0.0958854 0.502834
0.197708 -0.0852347 0.467607
-0.0168894 -0.0745096 0.263425
4.90152e-06 0.0765611 0.112672
-0.000362262 -0.00560035 0.311939
-0.0121395 -0.0904397 0.350715
0.0984773 -0.092593 0.453872
0.09519 -0.019439 0.355363
0.10167 -0.0923512 0.437818
0.349251 -0.0741194 0.39807
0.311042 -0.077125 0.437162
0.350522 -0.0739986 0.389275
4.90152e-06 0.0828007 0.0881108
-0.0483518 -0.0714919 0.575532
-0.153212 -0.088562 0.457823
-0.0913017 -0.0202045 0.335919
-0.0523604 -0.0555902 0.485123
4.90152e-06 -0.00728502 0.136905
0.0594733 -0.0601912 0.372808
0.0828315 -0.03871 0.266302
-0.036111 -0.0307371 0.340953
0.00426228 -0.100518 0.404791
0.0223939 -0.0219721 0.248589
0.032787 -0.0225614 0.3424
0.095507 -0.0380243 0.442815
-0.086651 -0.0619403 0.433574
4.90152e-06 0.0362888 0.139076
-0.0449422 -0.0717547 0.402929
-0.349616 -0.0743705 0.437302
-0.0602889 -0.029349 0.339379
0.0380468 -0.0843286 0.368114
4.90152e-06 -0.00240376 0.283853
0.0450411 -0.0374775 0.610325
-0.0238471 -0.102908 0.624432
4.90152e-06 -0.000507995 0.0892096
4.90152e-06 0.00405641 0.273324
4.90152e-06 0.0496443 0.143152
0.0739098 -0.0518639 0.266302
-0.00948494 -0.107529 0.740977
-0.0645158 -0.0534179 0.3171
-0.0305011 -0.0378541 0.262061
4.90152e-06 0.00360812 0.158921
4.90152e-06 0.00926942 0.207656
0.301802 -0.0777441 0.427133
4.90152e-06 0.00345632 0.235902
-0.0472907 -0.0431474 0.612141
4.90152e-06 0.0388312 0.104035
-0.231383 -0.082827 0.416139
-0.0718983 -0.0439738 0.266302
0.0381163 -0.0401983 0.315918
-0.279673 -0.0792164 0.443029
-0.0190792 -0.00959584 0.469809
0.324649 -0.075921 0.396746
0.042316 -0.0675309 0.810045
-0.0409572 -0.0971756 0.66439
-0.0555785 -0.0330961 0.365932
0.0172785 -0.0152734 0.271106
-0.048302 -0.0449334 0.582501
0.293439 -0.078304 0.426252
-0.00174239 -0.00285054 0.390892
0.0242475 -0.0957614 0.417437
-0.0461255 -0.0467701 0.392809
4.90152e-06 0.00233413 0.290251
0.123941 -0.0907042 0.455309
-0.00486382 -0.00408601 0.674345
0.111544 0.0998683 0.0626992
0.347054 -0.0745724 0.4352
0.0679085 0.0998683 0.0177759
0.048951 -0.0962839 0.507377
4.90152e-06 0.085389 0.126314
0.0423832 -0.0958956 0.640705
-0.0913617 -0.0628174 0.418593
-0.090007 -0.0631234 0.428789
-0.0659546 -0.0549444 0.439234
-0.00104625 -0.0157334 0.183105
-0.0367426 -0.0984427 0.477461
0.0683038 -0.0632536 0.375629
-0.0349631 -0.0160949 0.566866
-0.0577141 -0.0956362 0.502214
-0.0295095 -0.0140626 0.406149
-0.0511156 -0.0961316 0.526913
0.0991846 -0.0925612 0.472945
0.0478092 -0.0449439 0.637206
-0.0326645 -0.0221097 0.341238
-0.0492989 -0.0702713 0.679351
-0.0451415 -0.0965879 0.575043
4.90152e-06 -0.00435854 0.178603
0.0386899 -0.0312009 0.376893
0.253116 -0.081187 0.401684
-0.0432012 -0.0323078 0.543606
0.141357 0.0998683 0.0110531
-0.0345079 -0.0158689 0.634877
4.90152e-06 0.0154769 0.164022
0.0289705 -0.0858836 0.866516
0.0987839 -0.0926136 0.548081
0.0868492 -0.0622576 0.3565
-0.083044 -0.0482784 0.266302
0.150128 -0.0887958 0.476831
0.0524396 -0.0430588 0.305916
-0.118635 0.0998683 0.0523401
-0.110482 -0.0917251 0.470357
4.90152e-06 -0.000130169 0.234988
-0.0707862 -0.0946527 0.471188
-0.0419454 -0.0968016 0.500549
-0.289248 -0.0787996 0.475201
-0.12986 -0.0903044 0.509851
0.0677884 -0.0177508 0.436754
0.068185 -0.045272 0.269366
0.0366738 -0.0177381 0.588004
-0.0126547 -0.0981756 0.407483
-0.0910784 0.0998683 0.0612895
0.122605 0.0998683 0.0425362
0.338297 -0.075122 0.446123
0.00834765 -0.00544646 0.699786
-0.064199 -0.0951533 0.490763
0.0423871 -0.0935305 0.469387
0.105628 -0.0920775 0.448767
-0.0397188 -0.0231886 0.486688
4.90152e-06 0.0705183 0.146901
-0.17675 -0.0869922 0.523358
0.0780435 0.0998683 0.0333153
-0.201997 -0.0849653 0.49179
-0.11988 -0.0910237 0.51611
0.0396663 -0.0732258 0.343266
0.125928 0.0998683 0.0547142
-0.0971979 -0.0249663 0.347471
-0.0609828 -0.0419903 0.314834
4.90152e-06 -0.00247425 0.200143
0.0256064 -0.0206994 0.275129
-0.0134474 -0.0334806 0.143057
-0.0489137 -0.0454521 0.489073
4.90152e-06 0.0903314 0.0450744
-0.0811192 -0.0622428 0.343764
-0.189847 -0.0858486 0.441953
0.147512 0.0998683 0.0306288
0.0592897 -0.0518679 0.348727
0.365178 -0.0729437 0.395114
-0.103307 -0.0477193 0.429022
0.187681 -0.0860244 0.493878
0.330851 -0.0755479 0.415704
-0.0448564 -0.0388883 0.692229
0.0732755 -0.010336 0.36577
0.0629052 -0.0610641 0.361767
4.90152e-06 0.0857659 0.0920773
0.0438159 -0.0432219 0.375478
0.0289505 -0.101145 0.584407
-0.027428 -0.0138709 0.372847
4.90152e-06 -0.0124106 0.148608
0.0686431 -0.053832 0.288817
4.90152e-06 0.0326289 0.088774
0.282166 -0.0791157 0.421207
-0.24955 -0.0813899 0.474751
4.90152e-06 0.0250279 0.148538
-0.04214 0.0998683 0.0908699
4.90152e-06 0.00558955 0.138035
0.0822323 -0.0938088 0.488259
0.364935 -0.0733029 0.443793
-0.0954484 0.0998683 0.069213
0.0397649 -0.0258111 0.67424
-0.0476342 -0.0746043 0.615748
-0.0316974 -0.0215803 0.329788
0.219198 -0.0836408 0.46918
4.90152e-06 0.100969 0.0463676
4.90152e-06 0.0424915 0.110937
0.0416985 -0.0291573 0.612656
-0.0451291 -0.0855756 0.711647
-0.0777143 -0.0941726 0.552108
0.0869489 -0.0638142 0.400499
-0.000428265 -0.110711 0.760109
0.0205748 -0.0118674 0.722943
-0.0684346 -0.0453449 0.26783
0.137827 -0.0897113 0.49681
-0.351728 -0.0742748 0.430329
4.90152e-06 0.073514 0.163144
-0.0570201 -0.036715 0.421387
-0.0396294 -0.0355355 0.36401
-0.0614894 -0.0953585 0.52375
-0.0554414 -0.039083 0.404223
-0.162128 -0.0878899 0.518945
-0.174313 -0.0870058 0.470566
0.136165 0.0998683 0.0129041
0.288184 -0.0785595 0.449538
0.0157257 -0.0904661 0.358011
-0.0774717 -0.00665153 0.371657
0.0638912 -0.0311433 0.311806
4.90152e-06 0.0760092 0.0973665
0.0632217 -0.0952486 0.5667
0.149832 -0.0888178 0.477122
7.72099e-05 -0.00631562 0.298176
0.178924 -0.0866594 0.452593
0.2218 -0.0834587 0.444901
0.00611674 -0.108788 0.608407
0.0173896 0.0998683 0.113725
0.0606894 -0.0491724 0.331393
-0.273906 -0.0795778 0.45849
-0.133354 0.0998683 0.0383776
4.90152e-06 0.0441981 0.203328
0.0478909 -0.0716418 0.480348
-0.0542867 -0.0958868 0.503402
0.0368613 -0.0235788 0.397244
-0.164699 -0.0876909 0.491873
0.319322 -0.0763935 0.419036
-0.00838341 -0.0055557 0.415436
-0.00282707 -0.0995856 0.395183
-0.257567 -0.080928 0.430567
-0.0905657 -0.0932192 0.541364
-0.00962948 -0.107533 0.81755
4.90152e-06 0.0224764 0.177136
0.0347542 -0.0244049 0.360763
4.90152e-06 0.0847753 0.149436
-0.212474 -0.0842515 0.428443
-0.099266 -0.0205212 0.375002
-0.0400956 -0.0250229 0.568919
-0.0456291 -0.0404051 0.669066
-0.0321966 -0.0661745 0.274966
-0.0437739 -0.0336647 0.530716
0.0445102 -0.0357862 0.510502
-0.0617907 0.0998683 0.0293755
4.90152e-06 0.0308648 0.202237
0.273136 -0.0798813 0.476089
-0.0791882 -0.0940298 0.440483
0.0457776 -0.0965286 0.53783
-0.0357722 -0.0187851 0.413103
4.90152e-06 0.039646 0.139622
4.90152e-06 0.0678758 0.0987078
0.102723 -0.0343283 0.385356
0.00343706 -0.00349955 0.656727
-0.0532705 -0.0430588 0.257384
-0.0243129 -0.101487 0.45585
-0.0338233 0.0998683 0.0679233
-0.0264782 -0.0163981 0.30197
-0.013086 -0.00737443 0.568574
-0.0442389 -0.0870824 0.515878
-0.0156916 0.0998683 0.0831285
-0.0042946 -0.109386 0.810017
0.0195546 -0.0563193 0.198856
-0.106191 0.0998683 0.0662708
-0.0123171 -0.0138886 0.265389
-0.0181013 -0.104822 0.585386
0.0129785 -0.0187912 0.756243
-0.0363997 -0.0685481 0.300147
0.0388987 -0.0978246 0.55105
4.90152e-06 0.00280364 0.129957
0.00318445 -0.00644168 0.31898
0.0459161 -0.0832929 0.714273
-0.030311 -0.0581434 0.832472
0.203777 -0.0848283 0.473853
-0.0514238 -0.0960876 0.465339
0.264855 -0.0802526 0.467041
-0.0427443 -0.0935966 0.5421
0.214064 -0.0840464 0.442307
0.0548845 -0.0430588 0.30198
4.90152e-06 0.0179912 0.244489
-0.0861233 -0.0935483 0.543718
-0.224002 -0.0833268 0.45358
4.90152e-06 0.0501228 0.198138
-0.0428577 -0.0471277 0.344997
-0.315249 -0.0769154 0.464678
0.0283782 0.0998683 0.103508
0.0492763 -0.0701843 0.66582
0.0563889 -0.0389493 0.419687
0.0476663 -0.0757755 0.68136
-0.0584687 -0.0230403 0.393051
4.90152e-06 -0.00302622 0.119906
0.141354 -0.0894441 0.475495
-0.0467858 -0.0514245 0.376286
4.90152e-06 0.0356505 0.191431
-0.0197146 -0.0617224 0.208916
-0.147905 0.0998683 0.0279633
4.90152e-06 0.0310614 0.134798
0.0522568 0.0998683 0.0226285
0.0267884 -0.0127775 0.618904
0.0242003 0.0998683 0.0704851
-0.0320852 -0.0199392 0.34604
-0.188042 -0.0860449 0.429438
-0.0442574 -0.0586154 0.352793
0.101037 -0.0275946 0.387291
0.0739402 -0.0944315 0.513026
4.90152e-06 0.0435943 0.196651
0.00498513 -0.0111793 0.261968
-0.0125472 -0.106644 0.503451
0.13072 -0.0901991 0.448414
4.90152e-06 0.00520667 0.268929
0.032904 -0.0231575 0.340629
-0.0446469 -0.0966184 0.55495
0.0560998 -0.0957702 0.562387
-0.297779 -0.0778306 0.453558
0.109927 -0.0917554 0.493042
-0.031614 -0.100185 0.487233
0.341108 -0.0749537 0.441647
-0.022172 -0.103466 0.684989
0.01564 -0.105348 0.762463
0.0475062 -0.0537578 0.372234
0.109366 0.0998683 0.0477224
-0.0240244 0.0998683 0.0576186
-0.0361263 -0.0987714 0.620228
4.90152e-06 0.000871231 0.323671
0.220862 -0.0836013 0.494655
-0.0905656 0.0998683 0.0128197
0.0122444 -0.106664 0.835118
-0.0334092 -0.0154431 0.620478
0.0490181 -0.0962879 0.531002
-0.250823 -0.0814698 0.483253
0.223046 -0.0833566 0.446354
0.0257511 0.0998683 0.0922619
-0.0181615 -0.0152365 0.276752
0.283734 -0.0789156 0.394005
0.0254455 -0.102251 0.523828
4.90152e-06 -0.00912984 0.107355
0.0628687 -0.0430588 0.291736
-0.0545355 -0.0958647 0.491609
4.90152e-06 0.0797261 0.0734403
4.90152e-06 0.0846897 0.135802
0.0268493 -0.101399 0.764355
-0.0122268 -0.069254 0.231688
0.134346 -0.0899782 0.528141
-0.0844984 -0.0643677 0.384738
4.90152e-06 0.0113119 0.0936225
-0.0174396 -0.087032 0.33823
-0.00583487 -0.107557 0.843083
0.227056 -0.0833326 0.502081
0.279732 -0.0792115 0.394685
-0.101679 -0.0923802 0.426614
4.90152e-06 0.081164 0.107426
-0.0186946 -0.0255016 0.211157
0.0208827 -0.0102217 0.447365
4.90152e-06 0.024299 0.205748
-0.355922 -0.0737609 0.414853
4.90152e-06 0.0574332 0.152323
0.0108091 -0.0063217 0.433842
0.0633661 -0.0952281 0.552645
0.0452016 -0.0834886 0.533828
0.0451935 -0.0965469 0.452479
0.0943791 -0.0605878 0.433322
0.0448445 -0.0852045 0.553837
4.90152e-06 0.0171134 0.157381
4.90152e-06 0.0744068 0.106546
0.263059 -0.0803823 0.455297
-0.081836 -0.0138987 0.336177
0.038642 -0.0202303 0.484326
0.0446988 -0.0356399 0.503361
0.10078 -0.0265687 0.37555
4.90152e-06 0.0660468 0.170816
0.0289044 -0.0970671 0.436398
4.90152e-06 0.0552335 0.112633
-0.0114393 -0.0702332 0.235114
-0.0430029 -0.0856928 0.788644
-0.075214 -0.0648502 0.396656
-0.0821882 -0.0124685 0.436121
0.0927658 -0.0223772 0.329122
-0.0897073 0.0998683 0.0459116
-0.0480032 -0.0447752 0.44491
-0.0915364 0.0998683 0.0418472
0.0514169 -0.0961104 0.538657
0.0339451 -0.0156328 0.641241
0.00453441 -0.109323 0.588691
0.0937331 0.0998683 0.065344
0.014795 -0.101307 0.857259
-0.0695118 -0.06092 0.346504
-0.0904684 -0.0389258 0.274343
4.90152e-06 0.00715443 0.294429
0.0477662 -0.0436287 0.537523
4.90152e-06 -0.00821681 0.203173
-0.0342985 0.0998683 0.106894
0.00686747 -0.0048726 0.489645
-0.00288715 -0.106778 0.444158
-0.0567419 -0.0957117 0.526682
0.0493498 -0.0483844 0.620472
4.90152e-06 -0.0141823 0.112613
-0.0286795 -0.10122 0.538454
0.16507 -0.087719 0.433087
0.0224726 0.0998683 0.055211
-0.330793 -0.0757098 0.453202
0.0399563 -0.057995 0.307004
-0.0427043 -0.0943519 0.591212
0.102529 -0.0498064 0.41086
-0.0203812 -0.0102921 0.519297
-0.0335186 -0.0834345 0.349644
-0.00779854 -0.00525974 0.626862
0.0875411 -0.0934362 0.519696
0.0130426 -0.0267186 0.15851
0.0988717 -0.0449588 0.437704
0.297124 -0.0779051 0.451889
-0.267439 -0.08006 0.466081
-0.0456042 -0.0965251 0.483934
-0.0544817 -0.0430588 0.338646
0.222259 -0.0834938 0.415101
0.00439012 -0.0730226 0.900798
-0.35467 -0.0739859 0.44396
4.90152e-06 0.0437471 0.125279
0.0437073 -0.0885901 0.48582
-0.365914 -0.0731551 0.427561
-0.24528 -0.0817569 0.464588
0.0407811 0.0998683 0.0888151
-0.0462302 -0.0964696 0.45028
-0.00245947 -0.024539 0.775738
-0.11756 0.0998683 0.0427689
-0.0456354 -0.0818555 0.598558
0.0708742 0.0998683 0.0591011
0.05995 -0.0430588 0.261554
0.0721213 -0.0412364 0.442815
-0.0694239 -0.0117209 0.400898
-0.0804507 -0.0939546 0.533641
-0.30504 -0.0775802 0.429241
4.90152e-06 -0.00797232 0.140359
-0.380032 -0.0722158 0.431132
4.90152e-06 0.0712956 0.148479
-0.0449497 -0.0430588 0.264719
4.90152e-06 0.00596392 0.163628
-0.00491333 0.0998683 0.120044
-0.0131826 0.0998683 0.117163
0.0273422 -0.0129785 0.651662
4.90152e-06 0.0589203 0.0910936
-0.0252816 -0.0640127 0.855697
-0.327458 -0.0759395 0.442031
0.0771459 -0.0220954 0.284446
0.00893577 -0.00567963 0.630961
-0.0142479 -0.106106 0.554419
0.0849933 -0.0936148 0.487272
-0.138768 -0.0896051 0.459719
4.90152e-06 0.0968899 0.13533
-0.0331125 0.0998683 0.0851836
0.0341711 -0.0994691 0.617726
-0.0479483 -0.0447706 0.611591
4.90152e-06 0.0125805 0.102134
-0.149287 -0.088867 0.506675
-0.049539 -0.0477838 0.572978
4.90152e-06 0.0437064 0.191504
0.0371246 -0.0198636 0.699063
0.102602 0.0998683 0.0338901
4.90152e-06 0.0739383 0.16059
0.00498957 -0.0603204 0.187243
0.051106 -0.0544683 0.695027
0.364367 -0.0729549 0.380484
0.0200157 -0.0228839 0.75858
0.00232556 -0.11007 0.503545
0.0456662 -0.0965148 0.461927
0.05154 -0.0555834 0.697008
-0.00177879 -0.0988596 0.38795
-0.0820981 0.0998683 0.047967
0.0473211 -0.074912 0.560343
-0.00111995 -0.102641 0.872785
4.90152e-06 0.000420438 0.137234
0.0286366 -0.0190045 0.302394
-0.0458977 -0.0763303 0.781133
0.0286412 -0.101249 0.585558
0.049489 -0.0659642 0.474988
-0.0120742 -0.106817 0.519019
-0.0495258 -0.0483495 0.598644
0.00295414 -0.0042328 0.71734
-0.0739873 -0.0626435 0.353206
0.326164 -0.0759778 0.449123
0.107942 0.0998683 0.0471459
4.90152e-06 0.0850159 0.11016
-0.00260394 -0.0854812 0.294768
4.90152e-06 0.0622582 0.151058
4.90152e-06 0.0402206 0.154088
4.90152e-06 0.0720695 0.0665872
0.00164405 -0.0027734 0.43467
0.318815 -0.0763329 0.39152
0.155377 -0.0884036 0.463318
0.0357605 -0.0801126 0.3283
-0.240397 -0.0821117 0.444056
4.90152e-06 0.0855598 0.0457904
0.0452568 0.0998683 0.0778851
0.081207 -0.0546055 0.271526
0.0236573 -0.102856 0.544852
0.0177624 -0.0222572 0.215168
0.00172534 -0.0028209 0.689798
0.0255713 -0.102227 0.568302
4.90152e-06 0.069943 0.0586827
0.0357023 -0.0454651 0.278498
-0.178584 -0.0866639 0.502545
0.215744 -0.0839845 0.43424
0.0421158 -0.0430588 0.286025
-0.0720601 -0.0945642 0.490784
-0.293415 -0.0782803 0.418259
-0.0780368 -0.0941142 0.437813
4.90152e-06 0.0134104 0.210142
0.00584632 -0.00445475 0.513372
-0.0066269 -0.0642936 0.203462
0.173246 -0.0870437 0.448016
4.90152e-06 0.00714447 0.108883
0.0457331 -0.0808428 0.502967
-0.012473 -0.0987673 0.411066
-0.0151001 0.0998683 0.0823726
-0.0557645 -0.034545 0.362388
4.90152e-06 0.017893 0.0721604
-0.0591786 -0.0955422 0.549264
0.0990081 -0.0582987 0.408898
0.105035 -0.043122 0.424491
-0.0277753 0.0998683 0.0926256
4.90152e-06 0.0914469 0.146347
0.261692 -0.0805993 0.415084
0.00261357 -0.00314875 0.392303
-0.0442583 -0.0344221 0.476438
0.362883 -0.0731377 0.398943
0.000326041 -0.110748 0.812211
-0.069175 -0.0947783 0.490997
-0.0899175 -0.0222849 0.318588
4.90152e-06 0.00993865 0.0800671
4.90152e-06 0.0574733 0.157413
0.0368197 -0.0981861 0.773949
-0.081786 -0.00779959 0.383502
-0.0455312 0.0998683 0.0545187
0.129206 -0.0903493 0.423219
-0.155022 -0.0884427 0.505444
4.90152e-06 0.0285364 0.0741332
-0.00601422 -0.108849 0.757112
4.90152e-06 0.00953235 0.259922
0.202096 -0.0849049 0.453456
-0.303297 -0.0774695 0.390739
0.0150964 -0.0231108 0.189568
-0.0426567 -0.0484618 0.335437
0.0442123 -0.088084 0.574959
-0.194567 -0.085542 0.420182
-0.0460073 -0.0449431 0.402877
-0.0153243 -0.00824874 0.659213
0.184495 -0.0862178 0.476305
0.0386428 -0.0269423 0.732039
0.0417343 -0.0599588 0.329917
0.0947686 -0.0928705 0.461393
-0.0222139 -0.103452 0.609454
4.90152e-06 0.00761207 0.220817
-0.0632381 -0.0157293 0.399688
-0.0254619 -0.0400462 0.217036
4.90152e-06 0.0802277 0.0537584
0.046889 -0.0762244 0.515544
0.010198 -0.0647602 0.208969
-0.069596 -0.0348836 0.266681
-0.149269 -0.0888649 0.495412
-0.0641261 -0.0535019 0.320086
4.90152e-06 0.0588256 0.0771102
0.0197029 -0.0489801 0.813842
0.185521 -0.0861861 0.436874
-0.210998 -0.084255 0.489948
-0.0463985 -0.0780854 0.534295
-0.0720421 -0.0368926 0.266302
-0.062294 -0.0952948 0.510547
0.0460299 -0.0405763 0.637568
0.219518 -0.0838127 0.500796
0.136038 0.0998683 0.0253593
0.183424 -0.0863305 0.465406
0.0358103 -0.0160375 0.466339
0.0968914 -0.0295501 0.337548
0.104895 -0.0424858 0.399348
4.90152e-06 0.0224031 0.110356
4.90152e-06 0.0654879 0.0847353
0.0268777 -0.0827389 0.32575
-0.0442165 -0.0876932 0.598625
-0.396502 -0.0706967 0.39227
-0.00145103 -0.0706841 0.222428
0.0633373 0.0998683 0.0359697
-0.101253 -0.0530609 0.417403
-0.0854938 -0.0579627 0.312315
0.0766562 0.0998683 0.045281
0.0370239 -0.098411 0.533957
-0.0273961 -0.012938 0.483468
-0.0769511 -0.0942059 0.430025
-0.0351972 -0.0897846 0.401266
0.00899514 -0.107815 0.605161
4.90152e-06 0.0219469 0.186118
-0.0998871 -0.0561929 0.409645
-0.187531 -0.0860252 0.459879
4.90152e-06 0.0496914 0.117383
-0.0155614 -0.105621 0.499248
0.0353663 -0.0190241 0.403747
-0.0181943 -0.00941748 0.520446
0.00615162 -0.108776 0.656437
0.053869 -0.0430588 0.411026
-0.00958306 -0.00597345 0.609316
0.0504475 -0.0961954 0.57438
0.0311844 -0.0605722 0.26357
0.0430568 -0.0931211 0.593137
0.22607 -0.0832213 0.417411
0.0339891 -0.0430588 0.260981
-0.118821 0.0998683 0.028858
-0.29454 -0.0781873 0.439289
-0.0325138 -0.0214087 0.343345
0.223104 -0.083391 0.446274
4.90152e-06 0.0139612 0.217537
0.0529175 -0.0959748 0.449048
0.0470988 -0.0746812 0.468824
0.0217562 0.0998683 0.0627339
0.0432846 -0.0922385 0.59954
0.0146441 0.0998683 0.0734943
-0.00746026 -0.0108745 0.278599
0.0857197 -0.0573758 0.43837
-0.0308614 -0.0144716 0.563062
4.90152e-06 0.0540098 0.177793
-0.0111289 -0.00666457 0.437668
-0.0417619 -0.096146 0.738648
4.90152e-06 0.05507 0.106183
-0.0448125 -0.038445 0.671189
0.338538 -0.0749969 0.415054
0.0376834 -0.0921416 0.832031
0.0227437 -0.0890025 0.881949
-0.0489315 -0.0962879 0.515784
-0.0376401 -0.0202865 0.650035
-0.0513096 -0.0961241 0.557692
4.90152e-06 0.0828633 0.141299
4.90152e-06 0.0538297 0.0734565
-0.0248926 -0.102558 0.785825
4.90152e-06 -0.0111178 0.22517
0.0489437 0.0998683 0.0958492
-0.0245632 -0.0850827 0.880165
4.90152e-06 -0.0167939 0.113669
4.90152e-06 0.00258426 0.101016
4.90152e-06 -0.00544428 0.179055
-0.00523425 -0.0157116 0.207473
0.158807 -0.088187 0.426546
-0.0563709 -0.0430588 0.272598
0.111333 -0.0916645 0.537115
-0.0101809 -0.0461044 0.818254
0.0665102 -0.0949804 0.483928
-0.0143882 -0.00789523 0.488898
0.145497 -0.0891087 0.468012
4.90152e-06 0.0535417 0.144587
-0.125724 -0.0905845 0.497669
-0.193561 -0.085618 0.420876
0.00463298 -0.109313 0.729184
0.00624103 0.0998683 0.0532106
0.0828769 -0.0202324 0.304114
0.0396429 -0.046963 0.779445
-0.0425588 -0.0949926 0.655764
-0.00705018 -0.0732071 0.242718
0.0203088 -0.0423685 0.797124
0.0377754 -0.0202458 0.575261
0.0345027 -0.0157137 0.486373
-0.0749352 -0.0587722 0.314756
-0.00858455 -0.107993 0.652548
-0.238943 -0.0821724 0.459781
0.226567 -0.0831031 0.488556
0.0423221 -0.0943237 0.495337
0.220206 -0.0836121 0.468932
0.307869 -0.0774251 0.428374
-0.0914766 -0.01426 0.411122
-0.201317 -0.0849947 0.502511
-0.00106511 -0.00256673 0.518043
4.90152e-06 0.0241854 0.106001
-0.117644 -0.0911852 0.501567
0.32655 -0.0758708 0.417862
0.0552194 -0.0957972 0.436425
-0.0370644 -0.0848137 0.843551
0.383592 -0.071594 0.3899
0.0225302 -0.0288939 0.228008
-0.244634 -0.0818427 0.412367
-0.0759751 -0.06359 0.357886
0.0163794 0.0998683 0.0731326
-0.0843673 -0.0936542 0.501302
-0.335246 -0.0753123 0.425144
0.00709759 -0.00495084 0.641044
-0.0646348 -0.0623459 0.397125
-0.0513996 -0.096099 0.496907
0.0421511 -0.0967905 0.653873
4.90152e-06 -0.00151142 0.0931808
0.0735181 -0.0944692 0.507072
0.0506915 -0.049878 0.472307
0.0062612 -0.108651 0.790373
0.0533996 -0.0430588 0.309287
-0.0720056 -0.0641255 0.381886
-0.110165 -0.0917633 0.518958
0.0165631 -0.0157568 0.261965
-0.0501799 -0.0692221 0.747584
4.90152e-06 0.0447447 0.190988
4.90152e-06 0.0682518 0.131545
-0.117661 0.0998683 0.00894904
-0.307163 -0.0773965 0.434359
0.0148178 -0.0806948 0.290029
0.0989548 -0.0192766 0.404834
0.0458705 -0.0430588 0.370174
0.212318 -0.0842007 0.407829
-0.0375408 -0.0981702 0.474226
4.90152e-06 0.0776872 0.164937
-0.0488997 -0.046179 0.515716
-0.0596608 -0.0532122 0.413406
0.311755 -0.0770487 0.440452
-0.0362372 -0.0986428 0.51215
4.90152e-06 0.0082872 0.200399
0.0343761 -0.0157921 0.662243
-0.067121 -0.0625844 0.367239
-0.0458412 -0.0570625 0.364295
-0.0245997 -0.0121376 0.408834
0.0493469 -0.0487079 0.445209
-0.124695 -0.090655 0.478239
-0.279974 -0.0791987 0.464642
-0.033708 -0.0447106 0.265833
-0.0126944 -0.00721782 0.626654
-0.341609 -0.0746776 0.397299
-0.128712 0.0998683 0.0321942
-0.0420361 -0.0655653 0.348459
-0.0652063 -0.0557122 0.318314
-0.137861 -0.0896963 0.455366
0.0529084 -0.0430588 0.362243
0.0781848 -0.00968427 0.351487
-0.297345 -0.0781338 0.46674
4.90152e-06 0.0112997 0.268294
4.90152e-06 0.05728 0.184161
-0.0373433 -0.0185071 0.536731
-0.209611 -0.0844617 0.427922
-0.0166292 -0.0676617 0.23077
0.0861591 -0.0935476 0.549913
-0.206198 -0.0846011 0.456951
-0.0603431 -0.0181577 0.406073
-0.0363238 -0.0987512 0.70454
0.0988859 -0.0202876 0.368455
-0.0269999 -0.0129159 0.600561
0.00167578 -0.064589 0.884915
-0.132042 -0.0901496 0.531529
-0.115291 -0.0913816 0.509918
0.232921 -0.0828412 0.495356
0.0441734 -0.0756849 0.409734
-0.328332 -0.075844 0.446221
-0.0251994 -0.0992355 0.850166
-0.0375566 -0.058236 0.292824
4.90152e-06 -0.00520216 0.102813
4.90152e-06 0.0149042 0.0912882
-0.111425 0.0998683 0.0108795
0.0406773 -0.0329107 0.396833
-0.0198468 -0.0359241 0.184651
0.181541 -0.086429 0.45009
0.0876153 -0.024498 0.297321
4.90152e-06 0.0156781 0.0885773
0.0422615 -0.0759162 0.378634
-0.109732 -0.0917704 0.495346
4.90152e-06 0.0388692 0.0701394
-0.0642259 -0.0620567 0.41383
0.0432101 -0.0344186 0.639653
-0.144964 -0.0891512 0.478606
-0.026515 -0.0167462 0.29798
-0.0624408 -0.0952815 0.502469
-0.0349875 -0.0991964 0.708401
4.90152e-06 0.0365088 0.150433
-0.365274 -0.0731746 0.424381
0.122807 0.0998683 0.0533795
0.088355 -0.0129626 0.432342
-0.0383171 -0.07829 0.34399
0.0381444 -0.098145 0.638784
4.90152e-06 0.00653324 0.186539
-0.33944 -0.0749764 0.420454
-0.0182558 -0.0274509 0.200065
4.90152e-06 0.0844811 0.132494
4.90152e-06 0.00566881 0.189093
0.124412 -0.0907056 0.504801
-0.166819 -0.0875316 0.485231
4.90152e-06 -0.00666712 0.10363
0.0476956 -0.0424636 0.472163
0.311996 -0.0770565 0.459798
-0.00648322 -0.108693 0.753113
-0.031488 -0.0144651 0.477299
4.90152e-06 0.0415114 0.104315
4.90152e-06 -0.00922689 0.10035
4.90152e-06 0.0480796 0.0782893
-0.00546524 -0.109032 0.516404
-0.00357761 -0.00500645 0.353712
-0.0442538 -0.0875293 0.618881
-0.0994162 -0.0925296 0.474991
-0.401517 -0.0703657 0.395333
4.90152e-06 -0.00832482 0.245998
0.0152462 -0.105776 0.724018
-0.0107889 -0.0153295 0.240838
0.051505 -0.0552623 0.686953
4.90152e-06 0.00450036 0.34054
0.0682814 0.0998683 0.0278144
